ply
format ascii 1.0
comment Created by Open3D
element vertex 723
property double x
property double y
property double z
property double nx
property double ny
property double nz
property uchar red
property uchar green
property uchar blue
end_header
-259.248 -605.889 -1631.12 0.842694 0.432244 -0.256006 58 66 92
-266.982 -593.906 -1629.08 0.770894 0.523572 -0.314704 60 68 94
-272.024 -589.339 -1631.71 0.822473 0.49703 -0.233246 57 66 92
-174.04 -678.541 -1628.37 -0.642113 0.383631 -0.657376 41 50 70
-170.685 -672.938 -1627.85 -0.721731 0.334248 -0.586768 41 50 69
120.486 -348.754 -1630.11 -0.481947 0.850187 0.265661 124 117 142
-331.95 -315.13 -1628.18 0.75177 0.0220039 0.547081 165 152 174
-330.842 -313.312 -1628.69 0.713457 -0.0661764 0.576603 162 149 171
-320.669 -336.491 -1631 0.68539 0.570045 0.320245 176 164 185
-308.388 -347.572 -1633.08 0.758489 0.477492 -0.166144 143 133 152
-327.494 -328.038 -1630.65 0.714823 0.353083 0.568075 177 165 186
-324.493 -319.908 -1633.62 0.590434 -0.0668605 0.807791 155 141 165
-324.536 -313.162 -1631.78 0.529607 -0.160446 0.805765 154 142 163
-326.705 -304.153 -1629.59 0.644204 -0.27934 0.663748 167 154 177
-318.058 -292.841 -1631.65 0.529389 -0.16363 0.837667 158 145 169
130.007 42.6047 -1627.62 -0.580563 -0.00463387 -0.792489 112 106 139
129.83 53.0428 -1628.18 -0.556881 -0.0268972 -0.825368 115 108 141
131.968 54.3267 -1629.31 -0.54398 -0.0257872 -0.832498 114 108 141
138.13 56.4473 -1633.4 -0.541365 -0.0687577 -0.827809 117 111 144
132.963 68.779 -1626.74 -0.615672 0.177844 -0.764389 126 120 154
135.237 75.3419 -1627.37 -0.643652 0.180051 -0.744116 129 123 157
136.888 82.2018 -1626.76 -0.63999 0.248605 -0.728266 111 105 139
145.105 88.7041 -1629.56 -0.526631 0.397779 -0.745608 104 97 130
149.613 93.6903 -1629.2 -0.296108 0.295503 -0.864825 119 111 145
163.635 92.7082 -1632.08 -0.121508 0.517556 -0.820699 112 105 140
-220.485 -1101.29 -1620.06 -0.612814 -0.149216 -0.77295 46 42 61
-261.883 -1084.55 -1623.26 0.604816 -0.494681 -0.596386 46 44 63
-256.675 -1080.61 -1620.18 0.563527 -0.48053 -0.669451 43 44 62
-255.716 -1074.7 -1623.15 0.572861 -0.432392 -0.690757 42 43 62
-221.129 -1091.6 -1619.9 -0.524922 -0.137038 -0.839095 45 43 62
-221.972 -1083.17 -1620.82 -0.458376 -0.178169 -0.861349 43 41 61
-228.681 -1070.11 -1622.87 -0.0440282 -0.449956 -0.779731 42 42 62
-248.72 -1066.81 -1620.46 0.577788 -0.409468 -0.72626 39 41 61
-244.957 -1063.35 -1619.93 0.459337 -0.484972 -0.727105 37 39 59
-241.521 -1058.35 -1621.66 0.322504 -0.599473 -0.714643 34 35 55
-236.32 -1060.82 -1622.74 -0.261984 -0.672863 -0.6357 35 37 57
-210.5 -1120.77 -1621.39 -0.706803 -0.380746 -0.552866 48 44 64
-214.944 -1110.86 -1623.55 -0.694302 -0.251749 -0.663798 48 43 60
-213.527 -1097.85 -1625.2 -0.692062 -0.00116508 -0.701203 43 42 60
-214.166 -1091.65 -1623.86 -0.603645 -0.00810747 -0.774749 43 41 61
-211.237 -1082.46 -1624.8 -0.502685 -0.0647387 -0.816942 37 36 57
-208.472 -1082.49 -1626.38 -0.577697 -0.0229628 -0.766132 36 36 56
-323.001 -336.542 -1621.59 0.612059 0.76015 0.148624 192 184 196
-308.397 -345.462 -1618.82 0.575426 0.740596 0.0440329 160 150 164
-303.878 -346.849 -1622.4 0.613576 0.65594 0.010247 180 172 184
-325.552 -286.343 -1623.94 0.769292 -0.162268 0.456022 169 154 179
-325.891 -284.164 -1620.2 0.832165 -0.14311 0.155218 158 143 170
-322.542 -265.66 -1624.14 0.617668 -0.0896383 0.573513 166 152 179
-321.803 -264.785 -1626.34 0.516215 -0.0851632 0.802535 171 157 184
-320.157 -244.941 -1623.99 0.752036 -0.116383 0.489145 161 146 176
-319.446 -240.123 -1623.94 0.789126 -0.1693 0.435954 159 145 175
-316.16 -223.449 -1626.31 0.90806 -0.065254 0.390391 156 142 171
-316.236 -222.284 -1621 0.926483 -0.0542115 -0.0320168 134 124 151
122.203 43.3729 -1621.99 -0.628492 -0.0594934 -0.774123 121 114 146
122.12 49.5321 -1622.2 -0.640246 -0.0541353 -0.766918 127 120 152
123.78 54.7906 -1623.22 -0.622569 -0.000773484 -0.775545 129 122 155
125.206 64.0894 -1622.62 -0.495862 0.161973 -0.843681 130 124 157
129.924 61.4691 -1626 -0.578413 0.161197 -0.791671 119 112 146
129.543 70.9788 -1623.81 -0.535836 0.192168 -0.81356 127 120 153
133.041 80.9664 -1623.88 -0.550885 0.209676 -0.79255 116 109 143
136.85 87.6525 -1623.52 -0.561049 0.29914 -0.761131 111 104 138
140.311 89.6159 -1625.35 -0.547733 0.340004 -0.75126 105 98 132
-246.98 -680.587 -1614.58 0.939765 0.242541 -0.107471 110 119 137
-252.981 -664.829 -1615.3 0.929408 0.313856 -0.147831 104 116 135
-254.077 -659.471 -1614.31 0.952399 0.141225 -0.158598 103 114 133
-254.497 -641.177 -1617.28 0.948293 0.0642044 0.0442356 99 110 129
-254.823 -628.156 -1616.11 0.973315 0.00858431 -0.0697805 93 104 125
-254.945 -624.313 -1617.72 0.981768 -0.0406616 -0.01975 88 99 121
-255.688 -604.61 -1616.46 0.931625 0.20843 -0.11323 73 84 110
-255.968 -603.121 -1615.88 0.923861 0.227437 -0.13377 72 83 110
-261.874 -590.461 -1618.96 0.773277 0.342901 -0.507729 63 73 100
-263.232 -578.249 -1615.77 0.807752 0.203205 -0.540175 65 76 104
-266.003 -571.829 -1616.84 0.818906 0.250931 -0.499001 69 80 108
-24.1613 -1127.18 -1613.83 0.865124 -0.140855 -0.427322 47 43 55
106.805 -1186.98 -1614.36 -0.526199 -0.651136 0.506725 82 65 63
105.566 -1185.47 -1614.1 -0.552229 -0.61165 0.522012 84 67 65
98.2837 -1175.04 -1615.56 -0.696604 -0.213883 0.614797 66 56 56
94.4926 -1169.51 -1618.66 -0.87339 -0.0202208 0.485804 77 70 72
95.3134 -1162.21 -1617.8 -0.877589 -0.0675608 0.456654 78 70 72
86.3988 -1140.24 -1617.53 -0.791778 -0.544586 0.193006 78 72 74
68.7225 -1126.21 -1615.42 -0.621966 -0.770875 0.0158978 60 52 56
75.2212 -1130.33 -1615.73 -0.587555 -0.798221 0.0427401 54 47 50
94.7158 -1151.53 -1614.35 -0.876376 -0.269881 0.398478 69 64 66
-24.6121 -1119.87 -1615.46 0.846286 -0.0473551 -0.508616 47 44 56
-27.7859 -1105.58 -1618.72 0.671094 -0.00453915 -0.702553 50 50 62
-23.8124 -1124.38 -1614.09 0.893335 -0.0850855 -0.43286 46 43 54
-332.248 -19.1639 -1616.38 0.816046 0.14983 -0.49246 122 118 137
-340.289 -11.7432 -1617.74 0.782298 0.168887 -0.557573 119 118 137
-350.244 -0.00825399 -1613.05 0.733965 0.169327 -0.582302 119 120 141
-358.188 16.3033 -1616.94 0.433008 0.136585 -0.741522 116 118 139
-358.974 19.54 -1616.23 0.678466 0.173395 -0.612458 118 119 140
-305.331 -121.455 -1613.82 0.599466 -0.0172524 -0.786289 119 115 142
-307.214 -112.952 -1615.63 0.609866 -0.0241153 -0.798699 121 117 145
-305.617 -106.727 -1613.09 0.724988 0.0602055 -0.653853 121 116 145
-305.919 -104.27 -1613.02 0.737874 0.07627 -0.634065 120 116 145
-312.459 -98.5319 -1618.85 0.62986 0.0789503 -0.787385 133 128 158
-315.813 -77.8897 -1612.86 0.810758 0.228122 -0.536335 114 108 138
-319.769 -76.4433 -1618.68 0.788728 0.153494 -0.596717 126 120 150
-319.883 -67.896 -1617.76 0.818048 0.0619796 -0.571153 122 117 148
-322.691 -52.2343 -1618.14 0.873915 0.168001 -0.370456 116 110 143
-324.909 -46.5868 -1619.23 0.87528 0.205735 -0.311697 119 113 144
-326.531 -32.155 -1616.12 0.873214 0.168599 -0.410551 117 112 140
-327.535 -27.5792 -1615.65 0.865823 0.156257 -0.412462 116 112 137
115.528 144.856 -1615.26 -0.41496 -0.0475303 -0.899753 125 115 149
106.813 160.255 -1614.33 -0.403669 -0.184249 -0.88075 126 119 151
112.726 160.465 -1617.26 -0.390045 -0.192135 -0.889031 118 110 143
110.039 164.367 -1617.14 -0.427698 -0.172825 -0.874894 115 108 141
107.952 173.767 -1616.19 -0.491543 -0.0492766 -0.854341 127 120 152
97.079 185.324 -1613.45 -0.407014 -0.155525 -0.890429 123 115 146
102.023 181.911 -1613.98 -0.433833 -0.114799 -0.875852 128 121 152
112.525 184.597 -1619.51 -0.29167 -0.0539066 -0.941524 126 119 151
92.4268 198.119 -1612.85 -0.340111 -0.0745109 -0.907936 128 119 150
92.4415 203.982 -1613.37 -0.225354 -0.10301 -0.924453 128 120 151
102.715 198.692 -1617 -0.278158 -0.012834 -0.935049 126 118 149
103.112 205.526 -1616.75 -0.233239 -0.0596759 -0.934319 128 120 151
-115.504 -572.684 -1624.37 -0.674167 0.457546 -0.39631 37 41 62
-112.581 -569.703 -1622.21 -0.560254 0.47805 -0.393137 38 42 63
-96.0484 -1209.8 -1607.9 0.364219 -0.234055 -0.287191 46 28 30
-89.2367 -1208.69 -1611.08 0.401914 -0.176425 -0.28379 45 28 31
-60.6103 -1210.54 -1609.6 0.465798 -0.106359 -0.274247 46 29 31
-102.356 -1205.29 -1611.71 0.114635 -0.501117 -0.41157 46 26 28
-52.5487 -1202.4 -1608.88 0.299736 -0.108613 -0.0805582 33 22 22
-49.3101 -1200.15 -1608.04 0.10143 -0.400537 0.00736462 34 21 22
-34.4036 -1197.09 -1605.8 0.112124 -0.992579 -0.0517262 68 46 46
-26.5608 -1189.38 -1612.05 0.709655 -0.605869 -0.234268 156 133 126
-23.0309 -1183.97 -1607.85 0.802503 -0.470519 -0.29261 167 145 136
-27.9486 -1167.76 -1609.85 0.837973 0.0102838 -0.220469 92 74 68
-27.9524 -1164.26 -1606.27 0.852414 0.0407174 -0.241839 87 70 65
-31.0418 -649.007 -1609.83 0.660025 0.331428 -0.675346 54 62 82
-32.0037 -640.864 -1605.88 0.665409 0.351382 -0.657583 55 63 83
-41.1893 -635.946 -1611.66 0.643666 0.360061 -0.675815 53 59 81
-40.7825 -627.979 -1606.39 0.627928 0.380484 -0.669815 52 58 80
-58.1766 -620.169 -1611.56 0.41265 0.573758 -0.683923 40 45 63
-61.8323 -614.795 -1609.38 0.394553 0.583232 -0.687961 40 45 63
-66.2952 -608.409 -1608.9 0.432345 0.566941 -0.672998 39 44 61
-62.3156 -611.532 -1606.3 0.379705 0.587562 -0.693326 40 45 64
-83.7381 -576.342 -1611.19 0.524857 0.422099 -0.320631 46 49 65
-72.4455 -595.884 -1608.29 0.604481 0.524761 -0.565306 40 44 59
-78.7526 -581.759 -1608.3 0.543313 0.448726 -0.307025 45 48 63
42.2954 -677.702 -1606.54 -0.886175 0.00348042 -0.188888 92 101 118
42.4199 -667.125 -1606.89 -0.936283 -0.172198 -0.0754652 90 99 116
42.7387 -654.614 -1610.42 -0.961656 0.0848538 -0.12223 79 89 106
44.779 -646.346 -1609.34 -0.904204 0.345074 -0.227763 74 84 102
113.879 -300.043 -1609.03 -0.435417 -0.138169 -0.822667 139 130 157
81.9436 -264.68 -1605.04 -0.626412 -0.114925 -0.745213 135 126 152
109.535 -285.355 -1608.24 -0.666049 -0.153835 -0.58604 126 116 141
108.937 -267.316 -1612.33 -0.51061 -0.202274 -0.782807 133 123 151
80.5369 -256.625 -1605.39 -0.720042 0.0911399 -0.681063 135 126 153
86.5684 -239.328 -1612.78 -0.82871 0.0323404 -0.557419 128 119 148
109.399 -257.8 -1608.17 -0.601014 -0.239207 -0.708467 127 116 145
88.2739 -250.169 -1610.44 -0.622297 0.0218037 -0.742733 124 115 143
96.1314 -244.485 -1609.65 -0.472832 -0.216567 -0.815315 133 123 151
108.638 -247.149 -1612.46 -0.513676 -0.29098 -0.780459 119 108 137
85.0415 -231.989 -1607.85 -0.762207 -0.0123282 -0.565642 123 115 143
-29.3115 -1144.83 -1606.63 0.930509 -0.234748 -0.212187 42 38 48
-28.4425 -1143.1 -1605.62 0.888338 -0.277586 -0.256081 42 38 49
-17.7767 -1128.44 -1601.38 0.68223 -0.507297 -0.455344 46 41 54
113.531 -1187.15 -1598.98 -0.571713 -0.773279 0.14573 66 42 44
106.715 -1178.97 -1601.55 -0.742122 -0.495806 0.377092 71 53 55
103.143 -1167.03 -1603.11 -0.838096 -0.254976 0.394538 61 49 48
101.569 -1160.2 -1603.48 -0.888171 -0.303054 0.316957 56 49 51
80.2851 -1138.71 -1599.16 -0.430148 -0.854416 -0.214866 45 35 44
68.8388 -1130.42 -1600.56 -0.652275 -0.691937 -0.0819628 27 23 29
79.23 -1135.89 -1604.21 -0.5199 -0.801805 -0.093517 38 31 37
94.0163 -1147.47 -1603.07 -0.804029 -0.525718 0.180791 45 42 43
46.2412 -636.895 -1603.68 -0.904913 0.334325 -0.285902 78 87 104
48.2545 -627.234 -1600.88 -0.92407 0.256188 -0.2282 74 83 101
49.4436 -615.642 -1599.93 -0.902824 0.0972578 -0.131567 73 81 99
51.386 -603.056 -1601.22 -0.858409 0.161633 -0.37347 65 74 93
56.0248 -592.286 -1603.76 -0.885761 0.232146 -0.410939 62 73 92
56.4437 -585.104 -1600.25 -0.885306 0.260637 -0.418391 64 74 94
60.2355 -576.724 -1602.69 -0.853114 0.27743 -0.441752 63 73 94
-83.6889 -565.594 -1600.9 0.640517 0.330613 -0.392631 47 52 70
-88.8964 -562.195 -1605.37 0.700258 0.290021 -0.365066 48 53 72
62.0938 -569.172 -1602.87 -0.867891 0.21397 -0.428313 62 72 92
67.3038 -555.745 -1603.87 -0.821788 0.295955 -0.447006 62 72 94
70.6335 -548.33 -1603.3 -0.848369 0.348795 -0.283832 62 72 94
73.136 -535.913 -1602.9 -0.842393 -0.0439675 -0.334806 58 68 91
75.6627 -528.538 -1605.2 -0.75743 0.180095 -0.447928 54 65 89
-222.748 241.952 -1598.68 -0.382774 -0.787722 -0.507348 126 113 142
-236.298 253.037 -1603.25 -0.536708 -0.684798 -0.483164 128 116 142
-245.235 258.534 -1600.32 -0.492323 -0.60328 -0.599403 134 123 148
-311.197 264.334 -1603.85 0.312807 -0.732124 -0.586859 136 129 146
-303.58 270.154 -1604.07 0.346964 -0.663385 -0.647443 142 135 153
-299.216 271.585 -1602.52 0.288698 -0.634208 -0.697488 145 138 157
-282.889 264.311 -1598.55 -0.200593 -0.364797 -0.910247 123 112 133
-286.826 274.644 -1602.66 -0.00969616 -0.51747 -0.834797 136 127 146
-278.373 271.668 -1602.32 -0.175823 -0.418458 -0.886208 135 124 146
-282.098 279.268 -1605.71 -0.0296098 -0.605142 -0.77418 141 132 150
-267.715 263.948 -1599.97 0.0122006 -0.412384 -0.900706 139 129 152
-268.496 273.69 -1605.1 -0.144052 -0.481455 -0.868329 151 141 165
-253.9 267.401 -1603.64 -0.246333 -0.656495 -0.682006 140 130 154
-250.562 265.159 -1603 -0.343164 -0.65993 -0.633886 136 126 150
-214.052 244.022 -1604.38 -0.010908 -0.762934 -0.543061 121 109 138
-202.386 246.646 -1598.67 0.536683 -0.605353 -0.56815 127 116 144
-202.31 252.805 -1605.48 0.591373 -0.577019 -0.554433 117 106 134
-192.915 258.096 -1598.89 0.571057 -0.549145 -0.598805 129 120 145
-13.4501 430.221 -1601.29 -0.790172 0.537524 -0.261422 86 61 63
-3.55054 440.561 -1604.72 -0.714752 0.669239 -0.207338 72 58 62
0.917142 454.568 -1604.32 -0.730941 0.655543 -0.182174 74 60 66
-259.824 -567.13 -1593.6 0.876253 0.407057 -0.299342 71 87 117
-267.545 -551.925 -1593.6 0.906213 0.2535 -0.234976 73 89 118
-267.966 -549.001 -1592.58 0.923638 0.177592 -0.202685 75 90 119
-269.856 -528.502 -1595.36 0.916913 0.0990309 -0.241961 79 95 123
-269.529 -528.429 -1594.64 0.914739 0.086046 -0.250347 80 96 124
-271.13 -510.932 -1596.27 0.938232 -0.056772 -0.189316 65 79 108
-270.555 -507.094 -1594.77 0.915855 0.000628808 -0.277701 65 77 107
-269.134 -490.047 -1593.33 0.860473 -0.0643249 -0.479414 59 71 101
-271.737 -480.635 -1596.39 0.886116 0.0560606 -0.449338 57 69 99
-269.784 -466.757 -1591.6 0.864382 0.00403188 -0.461985 65 75 106
-270.873 -466.214 -1593.56 0.870213 0.0244595 -0.429059 65 74 105
58.1975 -1122.12 -1594.05 -0.75897 -0.620306 -0.156605 31 27 37
54.7942 -1117.13 -1594.44 -0.727257 -0.657115 -0.0806044 29 25 31
32.9587 -1097.75 -1592.62 -0.611355 -0.497369 -0.567825 35 36 48
46.8609 -1107.45 -1598.94 -0.644975 -0.726615 0.163528 42 33 36
10.8455 -1094.16 -1591.39 0.705999 -0.481046 -0.576231 43 42 52
11.611 -1084.28 -1596.83 0.637131 -0.336392 -0.649079 45 47 58
24.2779 -1085.15 -1594.77 -0.360628 -0.459245 -0.743936 41 43 57
15.7188 -1080.42 -1596.98 0.309671 -0.337144 -0.75378 43 45 58
32.6285 -1094.19 -1597.57 -0.756621 -0.46335 -0.384319 38 38 53
135.497 -1204.79 -1598.47 -0.43901 -0.880282 0.0574043 48 30 30
128.872 -1197.53 -1591.5 -0.359469 -0.900302 0.0920766 38 24 23
124.607 -1193.08 -1599.06 -0.241925 -0.930976 0.166522 29 18 17
-417.844 259.608 -1596.67 -0.0806239 -0.713704 -0.643656 185 182 194
-394.88 246.281 -1593.88 -0.103936 -0.741756 -0.641396 171 167 182
-409.064 253.585 -1595.73 -0.0824031 -0.763625 -0.60766 205 202 211
-410.389 255.309 -1598.87 -0.0635844 -0.789164 -0.594851 226 223 230
-384.021 245.105 -1595.19 -0.0211562 -0.690226 -0.707447 149 145 164
-377.835 251.377 -1596.87 0.254612 -0.613256 -0.749518 201 197 206
-374.811 251.977 -1596.43 0.22951 -0.593658 -0.762836 193 190 200
-370.07 248.522 -1591.76 0.103881 -0.508298 -0.831642 163 157 173
-354.997 247.683 -1593.26 -0.0167527 -0.61719 -0.757566 146 139 161
-347.389 254.168 -1596.42 0.221906 -0.705782 -0.660662 146 139 158
-337.818 254.643 -1592.29 0.183178 -0.685567 -0.682153 145 137 156
-330.209 255.268 -1594.36 -0.0619565 -0.754454 -0.621854 146 137 159
73.7245 104.093 -1596.61 -0.422261 0.125808 -0.89373 127 118 151
72.0998 120.469 -1594.42 -0.527006 -0.0139214 -0.841272 118 108 141
79.2088 113.521 -1598.25 -0.427273 -0.00430852 -0.904859 127 118 150
70.8412 128.983 -1594.93 -0.519808 -0.170563 -0.830982 120 112 143
71.55 131.354 -1595.98 -0.507571 -0.164181 -0.840112 121 112 144
74.7824 133.698 -1598.45 -0.461121 -0.163774 -0.868896 119 111 142
67.6735 143.11 -1595.79 -0.544637 -0.0747932 -0.831286 131 122 153
67.1943 149.806 -1595.62 -0.525682 -0.012688 -0.843034 130 122 153
59.0739 166.493 -1592.36 -0.238098 -0.106249 -0.968943 126 117 148
55.0549 173.04 -1592.55 -0.160243 -0.261021 -0.934294 135 125 156
30.8597 192.127 -1595.21 -0.474499 -0.309407 -0.807545 140 131 156
29.3111 195.053 -1595.35 -0.510783 -0.297166 -0.792845 132 123 149
30.0868 200.762 -1598.13 -0.510998 -0.271322 -0.810697 123 114 140
40.8049 183.333 -1596.02 -0.274983 -0.376053 -0.870044 144 136 165
36.6083 191.781 -1598.42 -0.301996 -0.326534 -0.883726 149 142 169
49.6484 178.753 -1594.92 -0.137417 -0.430703 -0.882163 127 118 148
61.5245 156.101 -1592.16 -0.353001 -0.0424132 -0.919632 121 112 144
70.0281 151.98 -1597.65 -0.544395 0.00590214 -0.834041 128 120 150
66.5441 161.903 -1595.34 -0.403573 -0.0308216 -0.897714 127 119 150
-267.647 -414.351 -1587.5 0.845394 -0.101777 -0.512459 66 76 106
-274.833 -385.839 -1585.32 0.765753 0.632907 -0.0401762 124 113 138
-283.794 -376.561 -1585.28 0.676523 0.686881 -0.0706192 143 129 152
-303.163 -351.151 -1590.02 0.829117 0.175171 -0.452572 144 127 151
-299.323 -364.247 -1590.07 0.763482 0.577117 -0.167474 127 112 134
-300.309 -357.203 -1587.53 0.774856 0.330355 -0.420427 134 118 141
-266.452 -403.202 -1590.71 0.850647 -0.246853 -0.464809 58 63 93
-266.555 -394.294 -1585.17 0.870082 0.303308 -0.234465 70 67 95
-48.3843 -1206.09 -1589.96 0.435234 -0.110927 -0.1785 40 29 30
-43.2487 -1204.5 -1589.01 0.0821644 -0.736974 -0.167199 38 27 27
-27.1609 -1201.91 -1586.56 0.441578 -0.781143 -0.278579 60 39 41
-332.313 -14.8724 -1588.03 0.798523 0.102665 -0.590359 111 106 127
-339.294 -2.60768 -1588.8 0.801633 0.069113 -0.610756 110 105 125
-331.819 -4.55473 -1590.79 0.797816 0.0910282 -0.599791 105 101 122
-338.811 -0.0646781 -1587.29 0.79746 0.0711637 -0.613843 111 106 127
-342.385 10.3058 -1589.68 0.810895 0.185548 -0.550222 119 118 140
-343.135 16.7131 -1586.1 0.765321 0.248449 -0.592374 124 124 146
-345.563 21.924 -1586.43 0.732796 0.263639 -0.624567 124 125 147
-332.64 13.7826 -1590.83 0.775358 0.17289 -0.594451 112 110 132
-350.957 29.5927 -1588.71 0.717756 0.285903 -0.628711 121 125 147
-354.452 34.7174 -1591.1 0.756199 0.270791 -0.58199 119 124 146
-331.003 31.9008 -1591.67 0.755047 0.269861 -0.60137 124 127 148
-414.354 92.5998 -1589.66 0.355986 0.199222 -0.796071 144 141 166
-387.426 78.0349 -1587.18 0.393144 0.216379 -0.775435 157 155 177
-401.106 84.1299 -1588.84 0.440315 0.191638 -0.79344 145 143 167
-407.169 88.7334 -1588.83 0.414518 0.179545 -0.800002 143 140 165
-357.458 46.4157 -1589.76 0.703394 0.176433 -0.67486 196 202 215
-362.228 57.2204 -1590.54 0.649958 0.237053 -0.720572 206 215 230
-367.173 63.9771 -1591.12 0.644802 0.265478 -0.715312 197 205 222
-354.089 41.2228 -1587.65 0.709621 0.231546 -0.639891 143 149 168
-382.176 73.6064 -1589.83 0.472357 0.381257 -0.67404 186 184 200
-372.881 73.6766 -1586.42 0.463267 0.575594 -0.618916 242 243 247
-369.229 71.7455 -1586.67 0.502632 0.503415 -0.656731 238 241 247
-308.115 -123.923 -1586.57 0.70458 0.0226188 -0.62317 136 128 155
-308.754 -113.17 -1586.73 0.84095 0.0983668 -0.473863 128 122 151
-317.19 -107.948 -1592.39 0.824002 0.0822574 -0.499433 129 123 152
-313.728 -107.41 -1589.86 0.824756 0.0842743 -0.498653 128 122 152
-312.945 -100.094 -1588.9 0.711723 0.0439153 -0.615192 126 119 148
-291.312 -117.714 -1590.6 0.786656 0.192972 -0.50576 125 115 142
-94.6846 238.794 -1586.53 -0.122272 -0.241589 -0.914826 253 214 203
-103.388 243.138 -1586.34 -0.210641 -0.129556 -0.93715 253 209 195
-92.1877 238.258 -1586.56 -0.0688808 -0.273654 -0.907526 252 213 201
-89.9312 241.542 -1586.96 -0.035555 -0.130539 -0.93839 255 215 202
-101.082 248.239 -1586.13 -0.0794707 0.155236 -0.974895 252 205 188
-85.6702 253.576 -1585.3 -0.19582 0.455031 -0.835263 245 202 183
-79.0461 243.442 -1585.49 0.229088 -0.233847 -0.86512 255 216 201
-68.6106 254.112 -1587.85 -0.127935 -0.2702 -0.826703 241 190 168
-73.0112 260.167 -1586.87 -0.443366 0.195635 -0.743136 241 186 162
-64.3812 249.981 -1585.34 0.0680945 -0.56555 -0.782326 233 186 169
-60.2877 255.012 -1590.12 -0.0650058 -0.595951 -0.774456 231 178 160
-8.44879 218.349 -1585.91 -0.401132 -0.517157 -0.704244 124 114 141
-20.4417 226.784 -1585.78 -0.313625 -0.436933 -0.818569 104 98 125
-11.9314 226.245 -1592.18 -0.484563 -0.437778 -0.720456 118 110 138
-16.5036 228.865 -1589.78 -0.439377 -0.229348 -0.734105 119 112 137
-43.4085 253.967 -1585.59 0.0549578 -0.739554 -0.637655 213 187 191
-41.5517 257.917 -1589.14 0.0878494 -0.723429 -0.658374 219 192 197
-538.181 274.397 -1590.66 -0.338154 -0.757315 -0.506999 255 254 255
-544.61 278.904 -1591.19 -0.344615 -0.622477 -0.60477 246 242 245
-551.014 283.785 -1592.91 -0.268506 -0.566582 -0.573859 229 223 227
-431.798 264.759 -1594.87 -0.0977493 -0.526427 -0.738056 160 155 173
-429.046 264.33 -1595.56 -0.0919458 -0.566537 -0.721708 161 156 173
24.3049 -682.681 -1584.05 -0.25571 0.375478 -0.756261 76 86 102
-0.232481 -654.527 -1581.9 0.539613 0.417048 -0.725612 68 79 96
0.51062 -649.213 -1579.05 0.555829 0.340714 -0.752992 69 80 97
-2.5674 -644.544 -1579.64 0.583557 0.278656 -0.760118 70 80 97
-22.1228 -628.971 -1584.81 0.609814 0.412115 -0.65381 56 66 84
-13.9318 -632.226 -1581.94 0.448248 0.45727 -0.745496 60 70 89
-9.84062 -628.813 -1578.21 0.283351 0.44154 -0.835442 67 77 95
-54.0942 -592.446 -1580.85 0.428102 0.619468 -0.592784 41 47 65
-60.1711 -589.956 -1581.01 0.546745 0.603742 -0.505848 41 46 62
-67.9649 -578.074 -1578.29 0.767921 0.440871 -0.422529 41 46 61
-24.3666 -622.348 -1583.12 0.674474 0.338769 -0.63849 57 67 86
-39.2621 -600.94 -1583.16 0.326844 0.600654 -0.731751 42 50 71
-26.3959 -608.029 -1579.67 0.675888 0.383638 -0.613505 56 65 86
-29.9379 -601.648 -1577.81 0.544379 0.513699 -0.642976 55 63 84
-298.068 -9.6605 -1584.4 0.540326 -0.0476967 -0.839522 129 118 147
-295.728 -5.71346 -1582.84 0.493357 -0.0807172 -0.865597 128 119 148
-292.724 4.79157 -1578.86 0.37503 -0.0973727 -0.921486 129 123 150
-292.937 5.14973 -1579.32 0.37736 -0.0936967 -0.920533 130 123 150
-321.142 15.8153 -1582.88 0.395107 0.052284 -0.883046 125 117 150
-310.457 15.3292 -1581.1 0.323046 0.0274421 -0.922885 126 117 150
-305.941 14.8189 -1580.24 0.329518 0.0089922 -0.92334 127 119 150
-312.704 25.6069 -1582.14 0.298907 0.024292 -0.933219 126 117 150
-318.841 30.2207 -1582.59 0.350126 0.0311851 -0.904431 124 116 149
-318.342 35.1114 -1582.9 0.354979 0.0255755 -0.901999 125 117 150
-314.68 26.6147 -1582.09 0.298755 0.0230904 -0.931611 125 116 150
-309.815 35.1283 -1582.74 0.298589 0.00392652 -0.93384 130 122 154
-317.814 41.2824 -1583.21 0.34005 0.0104443 -0.912969 126 117 149
-311.512 41.712 -1583.81 0.300195 -0.000135842 -0.936052 133 125 156
-221.444 335.191 -1580.22 0.89658 0.375887 0.193038 73 75 109
-222.131 339.285 -1584.29 0.919389 0.326106 0.169016 74 76 109
-228.402 358.209 -1579.06 0.927171 0.22481 0.235912 75 77 110
-228.883 359.778 -1579.62 0.925148 0.230552 0.239881 76 77 111
-231.862 373.261 -1581.62 0.933344 -0.00889316 0.29418 83 84 119
-229.747 379.98 -1580.42 0.922432 -0.269684 0.216336 107 108 136
-224.536 389.588 -1579.53 0.89395 -0.432546 0.122542 215 213 221
-214.754 322.366 -1580.55 0.826143 0.454461 0.313208 64 67 100
-158.26 318.5 -1579.82 0.74885 0.528176 -0.228234 172 146 143
-156.345 326.13 -1579.28 0.780333 0.548891 -0.234338 157 138 140
-146.501 318.374 -1580.2 0.727878 0.534599 -0.259958 184 151 143
17.1872 55.2331 -1578.08 -0.523743 0.201363 -0.807527 120 112 137
30.4002 55.3508 -1579.59 -0.0843568 -0.178064 -0.856241 123 114 142
36.937 42.904 -1577.9 -0.382163 -0.0726447 -0.875681 117 107 137
36.9915 47.073 -1578.73 -0.314558 -0.163132 -0.866302 122 112 141
43.0833 52.9818 -1584.8 -0.205492 -0.056791 -0.787294 127 116 141
38.4419 53.6172 -1582.09 -0.175553 -0.189974 -0.822289 126 116 143
28.8127 71.2094 -1578.96 -0.498423 0.162202 -0.799143 119 107 136
33.742 73.3164 -1581.41 -0.468097 0.188599 -0.829399 117 104 130
36.057 78.3725 -1581.68 -0.490901 0.153436 -0.827922 117 105 133
36.13 86.8996 -1579.09 -0.523798 0.176985 -0.795362 130 117 146
40.5603 92.0053 -1580.2 -0.50392 0.210189 -0.787582 129 114 142
-262.358 -595.443 -1572.4 0.653578 -0.0331734 0.566174 79 84 101
-266.88 -578.638 -1571.31 0.34318 -0.167041 0.456526 69 75 91
-264.409 -571.517 -1570.61 0.506002 -0.143278 0.362221 77 82 98
-217.306 -663.296 -1577.04 -0.419749 0.455161 -0.781952 79 87 102
-209.856 -654.505 -1576.08 -0.574939 0.365391 -0.688908 75 84 100
-207.724 -647.584 -1575.02 -0.706774 0.257624 -0.630292 73 82 97
-206.543 -639.458 -1573.52 -0.680309 0.204799 -0.680268 72 80 96
-204.144 -639.429 -1576.7 -0.711015 0.215583 -0.648019 70 78 94
-198.605 -624.529 -1573.11 -0.538671 0.41121 -0.71354 61 68 86
-191.865 -619.491 -1573.74 -0.478534 0.516361 -0.709802 59 67 86
-183.951 -612.831 -1576.83 -0.628598 0.399839 -0.661824 57 65 85
-181.476 -609.357 -1577.11 -0.609759 0.405015 -0.677268 52 61 81
-175.665 -602.343 -1577.25 -0.53545 0.45077 -0.710156 42 52 73
-330.092 -3.13144 -1576.1 0.71856 0.114155 -0.683817 121 116 142
-331.003 9.06125 -1574.1 0.719758 0.156639 -0.667307 127 122 148
-332.721 17.5285 -1573.63 0.735752 0.133591 -0.659862 125 119 145
-333.333 20.4734 -1573.6 0.721909 0.112481 -0.67798 123 116 142
-338.547 34.9218 -1577.14 0.588127 0.112831 -0.795594 122 118 145
-332.029 35.1935 -1571.96 0.637476 0.0725047 -0.763654 131 125 155
-341.238 44.0262 -1576.26 0.52575 0.16457 -0.833751 144 145 172
-337.85 52.372 -1571.69 0.560712 0.167937 -0.811041 133 132 161
-344.258 56.9826 -1575.06 0.554369 0.179516 -0.809603 150 155 181
-342.18 59.8008 -1573.01 0.544407 0.172921 -0.816972 138 142 170
-379.225 93.2069 -1577.56 -0.0384974 0.293664 -0.908795 171 169 187
-366.439 94.0866 -1575.64 0.0060639 0.383176 -0.906749 125 121 148
-352.347 69.7273 -1577.27 0.537777 0.216929 -0.801808 156 162 187
-344.356 72.9126 -1572.46 0.425223 0.115017 -0.884752 128 130 160
-347.547 81.6142 -1573.52 0.378624 0.137758 -0.89128 125 122 153
-341.476 79.3384 -1570.91 0.367709 0.104168 -0.908391 124 120 152
-345.688 84.5397 -1571.97 0.391519 0.174515 -0.881756 122 117 149
-347.27 89.1937 -1571.21 0.427324 0.272996 -0.842415 119 114 146
-268.116 204.897 -1571.23 -0.199266 -0.271828 -0.937139 142 132 159
-254.495 193.374 -1571.72 -0.157126 -0.149987 -0.953811 123 113 142
-259.501 202.795 -1572.5 -0.199202 -0.142613 -0.960101 126 116 144
-247.379 202.858 -1572.55 0.0388461 -0.108908 -0.985359 128 117 147
-325.846 213.125 -1575.76 0.0454157 -0.0809098 -0.979509 130 120 148
-315.291 210.512 -1574.39 0.111278 -0.054686 -0.978674 127 117 146
-314.964 212.859 -1574.48 0.120118 -0.0585409 -0.97786 127 117 145
-305.296 208.494 -1572.43 0.12785 -0.0964308 -0.973674 134 124 151
-309.37 219.952 -1575.81 0.0161978 -0.237584 -0.947968 128 119 144
41.7867 -177.975 -1571.25 -0.396012 0.168456 -0.895915 128 119 146
46.0972 -180.068 -1573.36 -0.43222 0.138726 -0.876729 125 115 142
49.1606 -173.498 -1573.74 -0.417008 0.168742 -0.883207 118 108 135
45.4505 -154.227 -1573.3 -0.443173 -0.15473 -0.874912 122 113 142
53.8951 -167.263 -1575.96 -0.517828 0.0659851 -0.841047 121 111 138
50.9057 -156.878 -1575.41 -0.475185 -0.111849 -0.863155 126 116 144
39.4613 -149.733 -1571.71 -0.458314 -0.188796 -0.86162 129 120 149
46.3483 -147.43 -1574.91 -0.424154 -0.123645 -0.889395 128 119 148
48.7537 -143.493 -1576.16 -0.418474 -0.0710423 -0.898391 126 117 146
43.0114 -135.565 -1573.14 -0.431611 0.0159195 -0.888516 125 116 145
50.966 -138.763 -1577.48 -0.453735 -0.0746654 -0.881925 120 110 140
-94.6366 223.659 -1570.96 -0.139393 -0.671736 -0.697104 165 141 146
-103.184 229.792 -1574.9 -0.250031 -0.666471 -0.661613 232 202 202
-87.5742 228.043 -1575.07 0.135635 -0.72606 -0.653055 133 106 107
-83.362 229.733 -1574.53 0.297722 -0.697875 -0.636972 150 122 123
-75.8707 236.041 -1575.74 0.479745 -0.646099 -0.613216 224 189 180
-65.4731 241.357 -1576.76 0.201014 -0.686578 -0.693769 236 209 204
-58.2338 236.319 -1570.71 0.00805596 -0.650382 -0.783539 255 245 253
-38.6358 207.487 -1572.48 -0.437062 -0.414234 -0.747113 137 128 157
-36.8709 210.586 -1573.76 -0.349069 -0.307248 -0.765989 123 115 141
-29.8848 209.051 -1574.85 -0.134246 -0.486675 -0.827997 125 118 146
-29.2499 215.69 -1577.84 -0.0206182 -0.47558 -0.83089 95 87 108
-33.6118 222.552 -1577.77 -0.343945 -0.18185 -0.678516 81 73 91
-23.7964 210.156 -1575.8 -0.0662254 -0.477467 -0.874433 128 121 149
-11.632 207.235 -1576.53 -0.264866 -0.397671 -0.864464 130 121 149
-37.7654 236.086 -1571.62 -0.322272 -0.205237 -0.764427 142 133 150
-41.7743 243.369 -1575.49 0.0608584 -0.564593 -0.744846 228 216 230
-32.7064 237.124 -1576.91 -0.351844 -0.141691 -0.547956 162 153 169
-37.551 248.082 -1577.48 0.0622238 -0.520496 -0.760186 229 216 233
-58.6442 -1217.36 -1580.8 0.548811 -0.374349 -0.164727 59 41 43
-56.4814 -1215.75 -1581.11 0.561796 -0.392523 -0.178773 60 43 45
-107.766 -1194.17 -1575.13 0.181084 -0.672507 0.25058 60 33 34
125.17 -1193.91 -1564.32 -0.595902 -0.773815 0.193694 35 22 21
137.621 -1204.67 -1568.45 -0.540838 -0.818201 0.170175 4 3 3
118.095 -1187.34 -1563.86 -0.708715 -0.674953 0.184094 35 23 22
-67.6794 -569.843 -1570.85 0.817135 0.357814 -0.43366 41 46 63
-55.2994 -581.587 -1567.21 0.416252 0.655616 -0.584913 40 46 63
-64.07 -572.096 -1565.7 0.666174 0.477179 -0.513339 41 46 64
-6.95109 -613.572 -1569.34 0.206985 0.442308 -0.849237 65 75 93
3.62811 -618.051 -1568.59 0.283239 0.366955 -0.844147 67 77 96
-10.0123 -608.216 -1565.74 0.29517 0.473457 -0.807961 61 71 90
-16.2632 -601.328 -1564.66 0.535892 0.411395 -0.72256 59 70 90
-49.8128 -584.919 -1570.23 0.341431 0.65751 -0.633531 43 49 68
-30.1305 -591.644 -1568.48 0.470291 0.60372 -0.650536 53 61 82
-35.3705 -584.947 -1565.5 0.356161 0.584326 -0.714488 49 57 79
-47.649 -581.52 -1565.89 0.264178 0.632098 -0.697393 43 50 70
-270.892 -250.566 -1570.44 0.644446 0.0960445 -0.717157 158 144 168
-264.211 -245.797 -1566.56 0.476885 0.0460962 -0.876969 149 135 159
-262.595 -238.17 -1564.28 0.439527 0.0666751 -0.903325 148 133 157
-291.644 -209.889 -1568.18 0.672684 0.0747578 -0.707518 125 114 140
-302.18 -187.079 -1570.88 0.606374 0.115823 -0.775105 121 111 139
-288.725 -207.802 -1567.85 0.672017 0.0518606 -0.705689 132 120 146
-296.801 -200.812 -1569.5 0.615343 0.0571775 -0.756725 120 110 136
-283.273 -205.264 -1566.21 0.669264 0.0258257 -0.699441 137 125 151
-284.07 -197.383 -1567.92 0.63092 -0.0147083 -0.733699 140 129 155
-300.641 -190.566 -1570.19 0.606397 0.0867854 -0.774572 118 108 135
-300.177 -187.356 -1568.62 0.661799 0.110399 -0.731513 118 108 135
-278.707 -191.98 -1566.32 0.557173 -0.0737832 -0.792103 144 133 158
-284.785 -185.241 -1570.3 0.511951 -0.0879035 -0.824003 147 136 162
-268.29 -233.814 -1568.06 0.482501 0.0378801 -0.891435 155 140 164
-271.139 -228.171 -1570.41 0.581079 0.00272078 -0.822707 149 134 158
-268.423 -222.862 -1568.4 0.56504 -0.00912627 -0.826558 148 133 158
-267.832 -214.383 -1569.48 0.52503 -0.106442 -0.83819 153 139 165
-258.193 -209.92 -1566.45 0.433592 -0.196269 -0.874207 158 144 169
-298.748 110.857 -1564.19 -0.0197146 -0.0957179 -0.98149 113 105 133
-296.146 120.71 -1564.33 -0.183907 0.140406 -0.961695 130 123 152
-316.123 146.847 -1564.66 -0.104414 -0.246507 -0.927128 116 106 139
-290.964 124.245 -1564.16 -0.0560809 0.151341 -0.965067 124 116 146
-224.643 206.959 -1567.58 0.252713 -0.157077 -0.92323 129 119 147
-225.961 213.99 -1569.69 0.386266 -0.340753 -0.831541 135 125 154
-215.794 208.933 -1567 0.0496913 -0.0793229 -0.959205 132 122 151
-204.069 208.741 -1567.68 -0.0378729 -0.212703 -0.930351 127 117 146
-210.212 218.998 -1570.65 -0.280911 -0.555571 -0.758062 131 120 149
-195.107 211.29 -1570.17 -0.0938514 -0.523966 -0.797585 124 114 143
-186.139 210.602 -1570.6 -0.0213312 -0.648955 -0.733451 134 123 153
-176.217 206.797 -1565.72 0.0255527 -0.70575 -0.711201 128 117 149
-167.202 207.509 -1565.54 0.0180057 -0.654739 -0.744473 125 115 146
-159.762 209.309 -1567.38 0.0221683 -0.587724 -0.800086 128 119 149
-151.29 211.785 -1569.08 0.000362003 -0.516426 -0.86199 133 124 155
-142.945 210.383 -1566.25 0.197262 -0.457921 -0.849992 128 117 150
-143.675 215.667 -1569.46 0.184432 -0.428286 -0.861657 127 117 150
-141.51 214.419 -1567.77 0.209362 -0.414929 -0.862257 128 118 150
-134.732 229.134 -1568.43 0.32684 -0.0412497 -0.939672 120 111 140
-9.86639 40.8404 -1567.4 -0.40448 0.241435 -0.869759 117 105 135
-5.30642 39.9683 -1570.87 -0.358886 0.292179 -0.863058 124 113 143
0.0581705 51.4011 -1567.9 -0.404591 0.272541 -0.837975 123 112 143
3.06827 55.3391 -1567.96 -0.445633 0.22891 -0.828398 121 110 141
1.80851 76.6373 -1564.78 -0.432781 0.0143969 -0.903228 129 118 149
9.90724 34.2469 -1571.19 0.0216067 -0.0374299 -0.94245 120 108 141
8.78388 61.7129 -1569.52 -0.508747 0.255157 -0.803598 112 101 133
10.8895 62.7803 -1570.34 -0.507614 0.248197 -0.790462 113 101 133
-256.982 -1128.1 -1558.53 -0.198249 -0.850374 -0.496919 48 41 50
-236.322 -1140.98 -1561.4 -0.643563 -0.683399 -0.341465 43 39 48
-230.486 -1147.83 -1560.44 -0.689746 -0.579318 -0.37481 48 44 53
-242.793 -1134.59 -1560.06 -0.509816 -0.757506 -0.346396 46 41 50
-208.53 -1197.5 -1563.52 -0.690534 -0.653472 -0.305905 60 33 37
-199.413 -1205.95 -1557.42 -0.18914 -0.859327 -0.283835 53 26 29
-211.67 -1192.6 -1561.65 -0.761385 -0.596785 -0.19036 71 46 49
-217.467 -1181.4 -1557.4 -0.91141 -0.402273 -0.0113682 96 86 94
-179.406 -1202.3 -1563.33 0.114521 -0.913512 -0.254673 28 16 18
-65.8682 -565.121 -1563.49 0.836325 0.317231 -0.449969 42 47 64
-63.4721 -566.856 -1560.86 0.676256 0.384771 -0.542544 41 46 64
-67.7563 -549.92 -1558.08 0.775611 0.339358 -0.506733 42 48 66
-71.941 -543.883 -1560.83 0.815414 0.365533 -0.463018 43 49 67
-85.1958 -515.958 -1560.33 0.742611 0.391969 -0.526217 44 48 66
-72.8542 -539.143 -1558.32 0.811202 0.373607 -0.466222 44 49 67
-77.1535 -534.271 -1562.41 0.829655 0.362233 -0.437954 46 51 69
-100.26 -500.614 -1562.14 0.460417 0.569329 -0.671484 50 50 67
-87.3169 -510.636 -1557.88 0.624798 0.47933 -0.582288 46 48 65
-104.665 -500.614 -1564.29 -0.0829231 0.508492 -0.553869 45 46 66
35.8103 -567.418 -1558.08 -0.538053 0.0841309 -0.816453 72 84 105
38.0868 -557.815 -1557.56 -0.670529 0.142576 -0.712087 71 83 104
41.6927 -553.931 -1560.51 -0.773526 0.151535 -0.601165 71 83 105
43.1337 -542.91 -1559.54 -0.779374 0.137087 -0.615526 71 82 105
-308.298 -15.2255 -1559.45 0.528078 -0.0346281 -0.850436 120 113 146
-313.424 -5.73735 -1562.13 0.505711 0.0925462 -0.856536 131 124 156
-302.737 -3.11734 -1557.51 0.400551 0.0259462 -0.922308 152 145 177
-309.939 3.14477 -1559.5 0.397214 0.0620691 -0.90859 126 119 151
-311.625 8.57995 -1559.5 0.397328 -0.0890278 -0.895306 124 116 148
-290.677 -9.13917 -1557.29 -0.117193 -0.165288 -0.964459 129 121 152
-291.893 -4.75873 -1557.71 0.0112068 -0.136192 -0.96724 124 117 147
-286.413 -4.9641 -1557.7 -0.00465127 -0.157763 -0.959206 122 114 145
-317.804 12.6047 -1562.4 0.473878 0.00993955 -0.859444 120 111 144
-550.748 257.803 -1560.09 -0.627476 -0.536907 -0.509795 159 155 167
-619.348 278.397 -1562.74 -0.214958 -0.817529 -0.484348 218 217 220
-387.995 114.606 -1562.84 0.137767 0.553466 -0.812458 122 117 149
-389.908 122.897 -1560.42 0.22023 0.295158 -0.899513 122 118 150
-433.894 134.713 -1558.96 0.219036 0.582383 -0.77478 140 139 171
-425.928 134.07 -1558.18 0.0716727 0.559477 -0.816999 140 139 171
-420.059 129.939 -1561.8 -0.0592237 0.556685 -0.818026 131 131 161
-414.006 136.477 -1559.04 -0.192273 0.501495 -0.857613 125 123 153
-402.05 128.338 -1563.29 0.179318 0.307524 -0.925555 135 132 163
-405.341 135.235 -1560.82 -0.0536006 0.408652 -0.894012 128 126 156
-395.885 127.601 -1561.15 0.246413 0.24978 -0.920887 125 122 153
-393.339 132.054 -1559.86 0.19683 0.147595 -0.948792 124 120 152
-384.049 135.666 -1559.46 0.0288543 -0.0409676 -0.987267 124 118 150
-402.185 136.563 -1560.19 0.000638943 0.330951 -0.913246 127 124 154
-394.267 141.277 -1560.15 -0.00613632 0.106229 -0.954818 122 117 148
-387.13 139.756 -1560 0.0488777 -0.0256497 -0.980266 123 117 149
-390.53 145.787 -1560.47 -0.0862391 0.019664 -0.966148 118 113 144
-381.202 112.699 -1563.9 0.0401354 0.579524 -0.817005 119 114 145
-377.29 121.067 -1560.45 -0.030734 0.332418 -0.913076 121 115 147
-362.87 111.761 -1563.06 0.175151 0.48394 -0.825581 120 113 145
-369.318 122.141 -1560.62 -0.028261 0.217242 -0.947619 122 116 148
-358.628 119.148 -1561.09 0.0577554 0.179724 -0.939066 123 116 147
-347.762 104.34 -1562.97 0.199802 0.454585 -0.845256 114 107 139
-338.376 103.928 -1562.59 0.0555119 0.321948 -0.938624 125 117 150
-328.931 105.667 -1561.65 0.0254841 0.204944 -0.968855 134 125 158
-343.525 115.962 -1560.83 -0.00235837 0.102972 -0.974175 123 115 148
-351.95 119.787 -1560.69 0.0179339 0.0589671 -0.977712 124 116 148
-341.419 110.35 -1561.26 0.0207462 0.247481 -0.949809 124 116 149
-328.78 111.131 -1560.47 -0.00211539 0.211832 -0.964579 132 123 157
-330.671 122.101 -1560.74 0.053565 -0.0635792 -0.96834 119 110 143
-376.918 127.71 -1559.69 -0.0682334 0.118877 -0.963977 122 116 148
-378.202 132.958 -1559.57 -0.0768998 -0.00476806 -0.984714 123 116 149
-366.329 123.834 -1560.62 -0.0359198 0.121686 -0.968788 123 116 149
-358.279 124.387 -1560.86 -0.0191009 0.017803 -0.986742 124 116 148
-361.723 130.924 -1561.13 -0.0845083 -0.0593822 -1.00228 120 113 145
-373.159 139.723 -1560.55 -0.122508 -0.0863664 -0.991196 121 113 146
-378.477 145.252 -1560.64 -0.0821084 -0.106403 -0.983312 120 113 145
-369.642 140.172 -1560.92 -0.12533 -0.0848532 -0.990673 119 111 144
-367.751 151.534 -1562.39 -0.0690839 -0.169286 -0.970648 114 107 139
-356.088 148.584 -1562.19 0.00100515 0.0025158 -0.977941 120 111 142
-347.365 125.294 -1561.43 -0.0428479 -0.0694403 -0.999366 123 115 146
-350.671 132.741 -1562.26 -0.0847054 -0.0967629 -0.99509 124 115 147
-340.774 128.486 -1562.4 -0.0471564 -0.123022 -0.990133 121 112 144
-332.509 128.056 -1562.05 0.0464525 -0.161643 -0.973415 117 108 141
-329.469 130.711 -1562.33 0.0929863 -0.200963 -0.967558 117 108 140
-345.823 139.253 -1563.8 -0.137895 -0.138692 -0.978687 130 122 153
-347.692 145.045 -1564.02 -0.140075 -0.0661258 -0.966419 130 121 152
-342.237 149.441 -1562.6 0.00439582 0.23669 -0.94547 125 115 147
-32.372 40.5236 -1558.04 -0.228773 0.0364477 -0.958653 127 114 145
-32.5293 52.2846 -1557.28 -0.302672 0.00650539 -0.931448 131 118 148
-30.6356 56.1109 -1558.13 -0.383749 0.0161993 -0.901854 131 119 148
-24.5053 65.4503 -1559 -0.315761 0.235331 -0.872019 125 114 144
-16.9776 45.2675 -1563.03 -0.339976 0.0510536 -0.9234 120 107 137
-15.6554 48.7275 -1563.24 -0.313537 0.0537098 -0.924266 119 106 137
-18.9798 54.2035 -1562.1 -0.252711 -0.00559689 -0.938125 125 113 144
-21.2204 63.3009 -1560.25 -0.223586 0.146659 -0.906209 126 115 146
-10.1527 67.0461 -1560.35 -0.0296852 0.235282 -0.949181 127 116 148
-2.58221 58.4611 -1563.37 -0.256004 0.288486 -0.89162 122 112 142
-0.0947084 62.2261 -1564.02 -0.335049 0.190748 -0.892452 116 105 135
-12.469 72.7839 -1558.07 -0.0427373 0.372864 -0.905365 129 118 150
-6.19417 69.4688 -1560.96 -0.121275 0.203531 -0.941876 124 112 144
-5.13762 76.151 -1560.85 -0.248817 0.164382 -0.893648 128 117 148
-5.90219 82.35 -1560.21 -0.335797 0.10159 -0.815707 132 118 147
-0.121929 83.5016 -1563.8 -0.413834 0.0449082 -0.897004 137 125 156
1.03066 90.886 -1563.24 -0.331011 0.0691366 -0.924647 135 124 154
-49.1604 -1222.08 -1557.77 0.588513 -0.471153 -0.152162 60 43 45
-2.24748 -1170.35 -1551.63 0.956027 -0.0357566 -0.326821 75 61 60
-4.98407 -1153.42 -1555.18 0.889132 -0.0331588 -0.429874 93 80 78
-5.13174 -1146.91 -1556.12 0.855347 -0.210088 -0.390576 98 85 82
-2.90677 -1140.45 -1556.1 0.795814 -0.443042 -0.344399 100 87 84
8.4675 -1131.93 -1552.56 0.622392 -0.701506 -0.323338 58 51 59
13.8208 -1123.54 -1558.13 0.663704 -0.531314 -0.490002 45 40 49
113.621 -1179.96 -1556.88 -0.752046 -0.631691 0.147965 49 33 33
103.872 -1166.4 -1552.4 -0.747016 -0.656816 0.0451908 56 39 43
91.6543 -1151.9 -1557.59 -0.634052 -0.735774 -0.179553 56 43 51
42.2886 -458.377 -1556.38 -0.861996 -0.0883946 -0.365921 60 65 86
39.1308 -450.626 -1552.12 -0.870483 -0.135214 -0.429832 63 65 83
43.4269 -438.665 -1555.51 -0.747545 0.177019 -0.597662 52 59 85
44.4471 -436.422 -1555.96 -0.725089 0.19757 -0.611418 53 60 86
44.7392 -427.61 -1554.88 -0.622023 0.0180028 -0.69395 58 65 86
42.3663 -418.011 -1554.1 -0.541581 -0.236049 -0.614908 59 65 85
40.1029 -413.56 -1554.17 -0.626639 -0.139214 -0.424664 63 67 87
40.4196 -410.062 -1556.72 -0.6894 -0.100207 -0.412192 64 69 90
-258.756 -163.505 -1555.36 0.466449 0.0356003 -0.854292 119 108 136
-251.271 -158.917 -1555.83 0.491251 0.0266307 -0.849362 122 111 138
-241.742 -181.116 -1557.15 0.617513 0.0829861 -0.779305 126 114 140
-267.989 -153.188 -1553.8 0.42069 -0.0116335 -0.88522 120 109 141
-267.948 -141.797 -1551.58 0.412601 0.0510707 -0.904193 123 112 143
-261.406 -140.159 -1556.37 0.581447 0.0794964 -0.799614 124 112 139
-256.857 -146.181 -1556.32 0.532469 0.060395 -0.833931 127 116 143
-268.112 -138.755 -1551.74 0.382923 0.0105553 -0.916845 124 114 144
-266.681 -128.555 -1551.75 0.296184 0.0400605 -0.944876 122 112 143
-574.138 131.291 -1551.44 -0.166526 0.0833043 -0.711291 247 249 250
-570.068 136.918 -1550.29 -0.240007 0.153362 -0.714986 255 255 255
-564.72 146.814 -1554.53 -0.639932 0.138045 -0.664634 252 254 255
-627.316 173.514 -1556.12 0.515326 0.585502 -0.510736 175 175 193
-615.655 169.554 -1555 0.487099 0.648349 -0.487502 158 162 185
-610.545 168.727 -1552.04 0.453768 0.653676 -0.493815 161 166 189
-643.969 190.236 -1556.87 0.486331 0.520907 -0.701999 183 159 156
-656.649 196.745 -1556.07 0.150926 0.751559 -0.609824 191 158 145
-659.094 201.718 -1552.31 0.0304053 0.618834 -0.735414 212 174 157
-647.982 202.329 -1551.86 0.0929954 0.386127 -0.876697 226 187 170
-637.45 194.874 -1550.66 0.456541 0.334823 -0.807834 187 162 158
-632.644 179.673 -1553.22 0.457675 0.414732 -0.67217 162 148 156
-597.619 162.195 -1555.04 0.668828 0.468757 -0.58017 201 207 228
-589.974 153.992 -1553.52 0.622954 0.169333 -0.690641 207 211 227
-565.228 151.625 -1551.29 -0.739812 0.0514171 -0.550519 250 251 254
-561.489 163.231 -1552.04 -0.703583 0.352856 -0.431312 171 173 189
-555.457 168.85 -1554.74 -0.338443 0.612736 -0.613226 124 126 150
-755.285 220.054 -1555.16 0.0959305 0.741155 -0.628438 213 176 158
-219.287 316.861 -1554.48 0.733544 0.289691 -0.0521952 77 79 109
-223.995 335.488 -1555.82 0.927515 0.283451 0.147024 72 74 109
-227.721 348.22 -1554.6 0.930409 0.26345 0.128745 71 74 108
-228.776 351.915 -1554.1 0.930655 0.261644 0.107433 73 76 110
-234.45 366.304 -1555.91 0.898594 0.427605 -0.016829 77 80 115
-236.31 374.9 -1554.59 0.936551 0.149313 0.0821859 80 83 118
-232.102 388.955 -1550.91 0.851556 -0.483744 0.110147 108 111 135
-226.484 395.614 -1550.43 0.798951 -0.588963 0.0689016 179 181 191
-218.54 404.57 -1553.07 0.838932 -0.52884 0.0111478 251 244 241
-173.542 337.562 -1551.65 0.837324 0.338206 -0.0157481 101 96 117
-163.961 358.499 -1551.27 0.902671 0.277379 -0.32805 154 146 155
-184.691 363.352 -1553.08 0.915914 0.229824 -0.327358 145 130 136
-166.075 364.873 -1553.67 0.903095 0.231456 -0.357217 141 129 137
-167.463 365.962 -1556.59 0.899887 0.230316 -0.363482 123 110 117
-144.112 328.639 -1555.62 0.772083 0.582019 -0.252305 105 92 102
-152.204 336.748 -1556.9 0.743744 0.637371 -0.21411 86 77 85
-155.287 341.114 -1553.27 0.737728 0.650733 -0.209862 73 66 75
-161.521 349.268 -1553.75 0.83115 0.480864 -0.25874 94 87 97
-97.1477 197.351 -1556.21 -0.0666949 -0.270612 -0.958554 122 113 144
-88.7735 193.136 -1556.77 -0.233954 -0.344413 -0.902458 85 73 99
-71.7753 178.211 -1555.76 -0.16189 -0.294576 -0.911794 122 113 141
-49.1219 162.1 -1556.3 -0.201054 -0.00851315 -0.952662 119 109 140
-13.1877 446.387 -1552.92 -0.829389 -0.0536171 -0.58014 58 47 53
-13.8027 458.107 -1554.59 -0.80643 -0.399155 -0.273586 59 48 54
-16.0426 465.559 -1552.45 -0.74203 -0.597726 -0.109441 59 48 53
-17.333 476.328 -1553.31 -0.75868 -0.391524 -0.230999 63 49 54
83.6735 -1148.95 -1546.71 -0.619648 -0.755914 -0.181649 53 45 52
77.4937 -1142.55 -1548.27 -0.622436 -0.764677 -0.142659 54 47 54
71.8252 -1137 -1547.46 -0.665465 -0.743796 -0.0825776 51 47 53
60.6077 -1129.38 -1544.57 -0.432081 -0.82227 -0.256677 46 43 52
34.6246 -1123.26 -1547.42 0.0461425 -0.726204 -0.682998 41 40 49
141.75 -1202.96 -1545.65 -0.47923 -0.842062 0.0110841 42 27 26
137.85 -1197.57 -1548.9 -0.463606 -0.851215 0.0341172 37 24 23
119.493 -1184.5 -1544.99 -0.585074 -0.784472 0.0144133 47 31 34
131.462 -1191.65 -1545.41 -0.435286 -0.873286 0.0303415 38 24 24
-290.896 -335.477 -1545.93 0.506421 0.316024 -0.785131 127 117 139
-280.514 -345.124 -1544.14 0.561942 0.314126 -0.768881 120 111 137
-297.558 -330.326 -1549.52 0.619723 0.22342 -0.743383 130 118 140
-299.825 -321.322 -1550.05 0.637874 0.156118 -0.748633 132 121 143
-305.263 -306.816 -1548.64 0.471799 0.188757 -0.823763 131 118 142
-301.728 -303.743 -1547.58 0.387623 -0.0305297 -0.829318 132 119 142
-296.777 -319.068 -1546.07 0.65413 0.14238 -0.750556 129 117 139
-295.25 -311.586 -1544.7 0.430353 0.0626072 -0.852459 136 124 147
-280.427 -311.862 -1543.74 -0.177873 -0.437824 -0.888304 115 105 129
-273.6 -308.217 -1548.29 -0.0284118 -0.368484 -0.901024 126 117 143
-297.656 -305.391 -1546.67 0.288787 -0.0205337 -0.865204 134 121 144
-295.204 -296.988 -1549.29 0.0907268 -0.370077 -0.868224 126 113 137
-281.679 -303.002 -1548.16 -0.12261 -0.405035 -0.913057 122 112 137
-267.551 -347.179 -1550.21 0.502917 0.0333902 -0.818278 124 115 140
-263.642 -335.557 -1547.95 0.508967 -0.125015 -0.800034 128 117 143
-258.742 -342.906 -1544.47 0.544822 -0.0955467 -0.799214 128 115 140
-265.563 -328.075 -1549.75 0.494337 -0.121087 -0.803006 129 118 144
-258.742 -332.041 -1544.3 0.575738 -0.0921524 -0.76488 128 115 141
-242.19 -343.289 -1547.66 0.658813 0.00102271 -0.75326 144 128 152
-243.328 -327.696 -1548.75 0.754555 0.0247324 -0.651605 139 123 147
-244.649 -320.492 -1549.5 0.777426 0.0919801 -0.62249 169 153 177
-269.755 -315.105 -1546.18 0.0504157 -0.379831 -0.886031 129 119 146
-271.185 -309.456 -1549.75 0.0662915 -0.337198 -0.892169 128 119 146
-245.46 -305.661 -1547.29 0.717517 0.0486301 -0.672196 147 130 155
-533.743 209.909 -1548.57 -0.141018 0.0920478 -0.963598 127 122 146
-522.719 206.233 -1548.87 -0.0134424 -0.0975799 -0.979691 128 123 146
-525.276 215.002 -1548.85 -0.0874814 0.0741695 -0.978489 126 121 143
-541.681 224.884 -1547.15 -0.19266 -0.023808 -0.968782 119 113 137
-543.548 232.257 -1547.66 -0.167844 -0.129379 -0.957929 119 114 137
-532.876 224.966 -1547.79 -0.148586 0.0330724 -0.991615 122 117 140
-525.894 223.605 -1548.51 -0.139094 0.0435179 -0.988819 125 120 142
-525.571 232.159 -1549.84 -0.200203 -0.12658 -0.966902 130 126 147
-514.621 212.137 -1549.55 -0.0830855 -0.0111761 -0.986721 123 118 141
-516.81 214.855 -1549.3 -0.0647008 0.00138019 -0.985616 123 118 141
-504.092 219.154 -1549.65 -0.092308 0.0813428 -0.976296 128 122 145
-509.846 226.55 -1549.5 -0.0490557 -0.260109 -0.937336 119 112 135
-514.766 227.356 -1549.55 -0.112225 -0.213224 -0.944309 126 120 142
-548.89 233.61 -1547.06 -0.352447 -0.156974 -0.871344 117 111 135
-539.552 237.704 -1548.56 -0.0838318 -0.236971 -0.951881 124 119 141
-533.025 235.195 -1548.69 -0.146594 -0.181579 -0.959126 128 124 145
-486.282 217.137 -1549.71 0.033895 0.0670068 -0.942524 126 120 145
-469.035 210.755 -1550.05 -0.051745 -0.0123005 -0.947853 115 109 136
-494.017 220.754 -1549.69 -0.0912888 -0.0267661 -0.958496 141 135 159
-13.2381 -169.55 -1544.01 -0.602797 -0.157434 -0.738834 133 123 152
-5.72225 -177.477 -1547.82 -0.463547 -0.330813 -0.794041 138 129 155
-3.50783 -174.585 -1549.81 -0.517487 -0.343613 -0.774488 135 125 151
-13.576 -157.035 -1545.06 -0.505041 -0.0597116 -0.787485 132 121 151
-6.34126 -157.561 -1549.37 -0.443604 -0.00494938 -0.856449 130 119 148
-26.0584 -128.557 -1546.3 -0.371708 -0.119501 -0.906783 139 130 151
-11.7747 -154.658 -1546.8 -0.453335 -0.0472807 -0.821307 133 122 151
