ply
format ascii 1.0
comment Created by Open3D
element vertex 1303
property double x
property double y
property double z
property uchar red
property uchar green
property uchar blue
end_header
-209.043 -1066.74 -2272.94 43 44 44
-213.927 -1065.19 -2275.94 45 47 47
-218.974 -1062.18 -2281.94 47 47 45
-223.766 -1061.12 -2283.94 47 47 45
-228.439 -1061.03 -2283.94 48 48 46
-233.163 -1060.47 -2284.94 48 48 46
-237.882 -1059.9 -2285.94 48 48 46
-242.449 -1060.8 -2283.94 50 50 48
-247.164 -1060.24 -2284.94 51 54 51
-251.785 -1060.66 -2283.94 51 54 51
-256.451 -1060.59 -2283.94 49 52 49
-261.037 -1061.5 -2281.94 48 51 48
-265.782 -1060.47 -2283.94 47 50 47
-270.481 -1059.93 -2284.94 47 50 47
-275.042 -1061.33 -2281.94 52 52 50
-279.677 -1061.77 -2280.94 51 51 49
-284.257 -1063.18 -2277.94 49 49 47
-288.877 -1064.11 -2275.94 47 47 45
-293.505 -1065.04 -2273.94 48 48 46
-298.186 -1065 -2273.94 51 51 49
-302.868 -1064.97 -2273.94 52 52 50
-307.53 -1065.42 -2272.94 54 54 52
-312.196 -1065.88 -2271.94 53 53 51
-316.837 -1067.31 -2268.94 53 53 51
-321.515 -1067.78 -2267.94 54 54 54
-326.177 -1069.22 -2264.94 54 54 54
-330.892 -1068.23 -2266.94 54 54 54
-335.58 -1068.71 -2265.94 53 53 53
-340.28 -1068.22 -2266.94 53 53 53
-344.968 -1070.15 -2262.94 54 54 54
-349.671 -1071.12 -2260.94 53 53 53
-354.386 -1072.58 -2257.94 54 54 54
-359.109 -1073.56 -2255.94 53 53 53
-363.882 -1077.45 -2247.94 49 52 49
-368.626 -1077.95 -2246.94 49 52 49
-373.487 -1083.3 -2235.94 50 53 50
-378.368 -1087.69 -2226.94 50 53 50
5.92876 -1098.44 -2234.94 37 37 37
-0.524239 -1093.27 -2244.94 39 39 39
-4.92124 -1094.5 -2241.94 40 40 40
-11.3082 -1089.34 -2251.94 39 39 39
-16.4462 -1088.12 -2253.94 39 39 39
-21.7212 -1086.41 -2256.94 41 41 41
-26.8342 -1085.2 -2258.94 40 40 40
-32.9402 -1080.55 -2267.94 42 42 42
-38.4392 -1077.87 -2272.94 44 44 44
-43.9122 -1075.2 -2277.94 44 44 44
-49.6362 -1071.55 -2284.94 44 42 43
-55.1902 -1068.4 -2290.94 47 44 45
-60.3182 -1066.72 -2293.94 45 45 45
-65.4312 -1065.04 -2296.94 44 42 43
-70.7842 -1062.39 -2301.94 43 40 41
-75.1032 -1063.67 -2298.94 42 42 42
-80.0532 -1062.5 -2300.94 45 45 45
-84.9922 -1061.33 -2302.94 44 44 44
-89.4412 -1062.13 -2300.94 45 47 47
-94.3662 -1060.96 -2302.94 45 47 47
-99.5112 -1058.83 -2306.94 44 46 46
-104.183 -1058.65 -2306.94 44 46 46
-109.075 -1057.5 -2308.94 45 48 47
-113.521 -1058.32 -2306.94 46 50 49
-117.973 -1059.13 -2304.94 46 50 49
-122.328 -1060.44 -2301.94 46 50 49
-126.488 -1062.73 -2296.94 43 47 46
-130.668 -1065.02 -2291.94 43 46 43
-135.26 -1065.36 -2290.94 44 47 44
-139.566 -1067.17 -2286.94 44 46 44
-143.888 -1068.98 -2282.94 46 46 44
-148.225 -1070.79 -2278.94 43 46 43
-152.666 -1072.12 -2275.94 41 44 41
-156.508 -1076.88 -2265.94 37 40 37
-160.732 -1079.68 -2259.94 48 47 45
-163.735 -1089.82 -2238.94 59 57 55
-166.827 -1099.95 -2217.94 56 52 51
-173.076 -1091.03 -2235.94 58 51 47
-178.863 -1084.55 -2248.94 46 41 38
-184.147 -1081.02 -2255.94 34 32 32
-189.254 -1078.46 -2260.94 35 32 35
-194.268 -1076.39 -2264.94 36 34 36
-198.924 -1076.78 -2263.94 39 39 38
-203.781 -1075.7 -2265.94 41 41 40
-208.818 -1073.15 -2270.94 42 43 42
-213.709 -1071.59 -2273.94 44 46 46
-218.706 -1069.06 -2278.94 47 47 45
-223.565 -1067.5 -2281.94 46 46 44
-228.41 -1065.95 -2284.94 46 46 44
-233.082 -1065.87 -2284.94 46 46 44
-237.703 -1066.28 -2283.94 47 47 45
-242.424 -1065.71 -2284.94 49 49 47
-247.093 -1065.64 -2284.94 48 51 48
-251.762 -1065.57 -2284.94 48 51 48
-256.387 -1065.99 -2283.94 47 50 47
-261.016 -1066.42 -2282.94 46 49 46
-265.762 -1065.38 -2284.94 44 47 44
-270.32 -1066.79 -2281.94 42 45 42
-274.923 -1067.71 -2279.94 49 48 46
-279.472 -1069.62 -2275.94 48 48 46
-284.154 -1069.57 -2275.94 47 47 45
-288.727 -1071.48 -2271.94 46 46 44
-293.466 -1070.46 -2273.94 47 47 45
-298.197 -1069.45 -2275.94 49 49 47
-302.857 -1069.9 -2274.94 51 50 48
-307.52 -1070.36 -2273.94 53 53 51
-312.171 -1071.31 -2271.94 52 52 50
-316.829 -1072.26 -2269.94 51 51 49
-321.484 -1073.71 -2266.94 52 52 51
-326.162 -1074.66 -2264.94 52 52 52
-330.88 -1073.67 -2266.94 50 50 50
-335.589 -1072.69 -2268.94 51 51 51
-340.271 -1074.14 -2265.94 52 52 52
-344.962 -1076.58 -2260.94 54 54 54
-349.673 -1077.07 -2259.94 54 54 54
-354.39 -1078.05 -2257.94 54 54 54
-359.136 -1080.98 -2251.94 52 52 52
-363.942 -1086.35 -2240.94 49 51 49
-368.695 -1086.37 -2240.94 50 53 50
-373.583 -1092.24 -2228.94 49 52 49
-378.563 -1099.57 -2213.94 50 51 50
-383.685 -1109.35 -2193.94 58 57 57
1.76176 -1105.26 -2231.94 42 42 42
-3.43924 -1104.02 -2233.94 44 44 44
-10.3052 -1097.35 -2246.94 41 41 41
-15.6092 -1095.63 -2249.94 40 40 40
-20.6002 -1094.9 -2250.94 41 41 41
-25.8762 -1093.19 -2253.94 41 41 41
-31.8542 -1089.01 -2261.94 40 40 40
-37.9362 -1084.34 -2270.94 40 40 40
-43.5572 -1081.16 -2276.94 41 41 41
-49.8352 -1075.52 -2287.94 44 42 42
-55.2522 -1072.84 -2292.94 48 45 46
-60.6452 -1070.17 -2297.94 48 47 47
-65.2302 -1070.46 -2296.94 48 46 46
-70.7152 -1067.3 -2302.94 47 44 45
-75.2882 -1067.6 -2301.94 44 44 44
-80.1112 -1066.91 -2302.94 44 44 44
-84.4392 -1068.2 -2299.94 45 45 45
-89.4972 -1066.54 -2302.94 46 48 48
-94.0682 -1066.85 -2301.94 47 48 48
-99.1042 -1065.19 -2304.94 45 47 47
-103.897 -1064.53 -2305.94 44 46 46
-108.573 -1064.35 -2305.94 44 48 47
-113.137 -1064.68 -2304.94 45 49 48
-117.704 -1065.01 -2303.94 46 50 49
-122.168 -1065.83 -2301.94 47 51 50
-126.639 -1066.65 -2299.94 47 51 49
-130.915 -1068.47 -2295.94 46 49 46
-135.403 -1069.3 -2293.94 47 50 47
-139.515 -1072.1 -2287.94 47 49 47
-144.212 -1071.95 -2287.94 47 47 45
-148.45 -1074.27 -2282.94 43 46 43
-152.886 -1075.6 -2279.94 41 44 41
-156.81 -1079.89 -2270.94 37 40 37
-160.941 -1083.2 -2263.94 49 48 46
-164.02 -1092.9 -2243.94 59 56 54
-167.427 -1101.12 -2226.94 56 52 51
-172.874 -1097.06 -2234.94 57 50 45
-178.284 -1093.01 -2242.94 50 44 40
-183.584 -1089.45 -2249.94 38 35 36
-188.708 -1086.88 -2254.94 37 36 38
-193.949 -1083.34 -2261.94 38 38 39
-198.887 -1081.75 -2264.94 41 41 39
-203.679 -1081.16 -2265.94 44 44 42
-208.72 -1078.6 -2270.94 43 43 42
-213.615 -1077.03 -2273.94 43 44 44
-218.496 -1075.47 -2276.94 47 47 45
-223.248 -1074.89 -2277.94 46 46 44
-228.215 -1072.35 -2282.94 47 47 45
-233.054 -1070.79 -2285.94 48 48 46
-237.828 -1069.73 -2287.94 48 48 46
-242.447 -1070.15 -2286.94 48 48 46
-247.162 -1069.58 -2287.94 47 50 47
-251.783 -1070 -2286.94 48 51 48
-256.238 -1072.39 -2281.94 46 49 46
-260.834 -1073.31 -2279.94 43 46 43
-265.552 -1072.76 -2280.94 45 47 44
-270.121 -1074.17 -2277.94 47 47 45
-274.771 -1074.61 -2276.94 50 48 46
-279.455 -1074.56 -2276.94 47 47 45
-284.138 -1074.51 -2276.94 45 45 43
-288.685 -1076.92 -2271.94 43 43 41
-293.428 -1075.9 -2273.94 44 44 42
-298.162 -1074.88 -2275.94 47 47 45
-302.804 -1075.83 -2273.94 51 50 48
-307.435 -1077.27 -2270.94 52 51 49
-312.145 -1076.75 -2271.94 50 50 48
-316.822 -1077.22 -2270.94 49 49 47
-321.465 -1079.16 -2266.94 51 51 51
-326.146 -1080.12 -2264.94 54 54 54
-330.867 -1079.13 -2266.94 54 54 55
-335.562 -1079.61 -2265.94 56 56 56
-340.254 -1081.07 -2262.94 57 57 57
-344.953 -1084.01 -2256.94 55 56 55
-349.676 -1084.5 -2255.94 55 55 55
-354.411 -1086.46 -2251.94 54 54 54
-359.177 -1089.9 -2244.94 51 52 52
-363.995 -1094.81 -2234.94 52 53 52
-368.8 -1096.79 -2230.94 50 50 50
-14.0182 -1105.66 -2240.94 42 42 42
-19.7732 -1102.44 -2246.94 42 42 42
-25.6452 -1098.73 -2253.94 44 44 44
-32.0592 -1093.04 -2264.94 43 43 43
-37.9972 -1088.85 -2272.94 40 40 40
-43.4792 -1086.15 -2277.94 39 39 39
-49.6222 -1080.97 -2287.94 40 38 39
-55.1782 -1077.79 -2293.94 42 40 41
-60.3072 -1076.09 -2296.94 47 44 45
-65.1592 -1075.39 -2297.94 48 45 46
-70.3892 -1073.21 -2301.94 49 46 47
-74.8412 -1074 -2299.94 47 47 47
-79.0512 -1075.79 -2295.94 45 46 45
-84.0072 -1074.61 -2297.94 46 47 46
-88.8332 -1073.93 -2298.94 46 48 48
-93.6522 -1073.25 -2299.94 48 49 49
-98.2332 -1073.56 -2298.94 50 50 51
-103.383 -1071.41 -2302.94 50 51 52
-107.957 -1071.73 -2301.94 48 51 51
-112.861 -1070.57 -2303.94 47 51 51
-117.433 -1070.9 -2302.94 48 52 53
-121.902 -1071.72 -2300.94 49 53 53
-126.481 -1072.06 -2299.94 48 52 52
-130.861 -1073.39 -2296.94 48 51 49
-135.547 -1073.23 -2296.94 49 51 49
-139.846 -1075.06 -2292.94 49 50 48
-144.161 -1076.89 -2288.94 49 48 46
-148.308 -1079.71 -2282.94 44 46 43
-152.568 -1082.04 -2277.94 38 41 38
-156.237 -1087.83 -2265.94 39 42 38
-159.614 -1095.6 -2249.94 50 49 45
-163.225 -1102.38 -2235.94 58 55 52
-166.652 -1110.65 -2218.94 58 53 50
-171.725 -1109.04 -2221.94 59 52 48
-177.091 -1105.46 -2228.94 54 48 45
-182.723 -1099.91 -2239.94 44 39 39
-187.944 -1096.83 -2245.94 42 38 39
-193.349 -1092.28 -2254.94 46 42 41
-198.441 -1089.7 -2259.94 48 45 41
-203.445 -1087.62 -2263.94 45 45 42
-208.366 -1086.04 -2266.94 46 46 44
-213.212 -1084.96 -2268.94 43 43 42
-218.107 -1083.38 -2271.94 48 47 45
-222.93 -1082.3 -2273.94 48 47 45
-227.855 -1080.24 -2277.94 49 49 48
-232.602 -1079.67 -2278.94 50 50 49
-237.598 -1076.63 -2284.94 50 50 49
-242.226 -1077.04 -2283.94 50 51 50
-246.997 -1075.98 -2285.94 49 50 46
-251.581 -1076.9 -2283.94 50 50 48
-256.088 -1078.81 -2279.94 50 49 49
-260.612 -1080.71 -2275.94 48 51 51
-265.494 -1078.19 -2280.94 47 51 50
-269.959 -1081.09 -2274.94 47 51 50
-274.617 -1081.53 -2273.94 49 48 45
-279.28 -1081.97 -2272.94 49 49 46
-283.916 -1082.91 -2270.94 49 49 47
-288.425 -1086.32 -2263.94 46 46 44
-293.264 -1083.81 -2268.94 46 46 44
-297.989 -1083.28 -2269.94 51 51 49
-302.668 -1083.74 -2268.94 52 55 52
-307.35 -1084.2 -2267.94 52 53 51
-312.02 -1085.16 -2265.94 50 50 48
-316.698 -1086.12 -2263.94 50 50 48
-321.361 -1088.07 -2259.94 52 52 52
-326.1 -1087.07 -2261.94 52 52 53
-330.823 -1086.56 -2262.94 52 52 54
-335.536 -1086.55 -2262.94 53 53 53
-340.229 -1089.01 -2257.94 52 53 52
-344.943 -1091.96 -2251.94 51 53 51
-349.683 -1094.92 -2245.94 54 54 54
-354.45 -1098.37 -2238.94 54 54 54
-359.282 -1105.27 -2224.94 50 52 52
-15.6812 -1120.99 -2220.94 43 43 43
-23.0762 -1112.27 -2237.94 43 43 43
-29.9612 -1105.05 -2251.94 42 42 42
-37.0652 -1096.85 -2267.94 41 41 41
-42.4222 -1094.63 -2271.94 44 41 44
-49.1322 -1087.44 -2285.94 42 41 43
-54.5622 -1084.73 -2290.94 39 41 43
-59.8342 -1082.53 -2294.94 45 42 43
-64.5632 -1082.32 -2294.94 47 44 44
-70.1902 -1078.63 -2301.94 47 45 43
-74.3922 -1080.43 -2297.94 46 43 44
-79.2312 -1079.73 -2298.94 43 44 42
-83.8182 -1080.04 -2297.94 44 48 43
-88.7672 -1078.86 -2299.94 47 50 47
-93.1162 -1080.17 -2296.94 48 49 49
-98.0542 -1078.99 -2298.94 48 48 50
-102.981 -1077.82 -2300.94 50 47 50
-107.674 -1077.64 -2300.94 47 48 53
-112.474 -1076.97 -2301.94 46 49 55
-117.054 -1077.3 -2300.94 46 52 57
-121.845 -1076.64 -2301.94 48 52 56
-126.528 -1076.48 -2301.94 47 51 54
-130.907 -1077.82 -2298.94 52 49 50
-135.69 -1077.16 -2299.94 51 50 50
-139.794 -1079.99 -2293.94 51 50 50
-144.109 -1081.83 -2289.94 48 45 46
-148.349 -1084.17 -2284.94 42 44 42
-152.429 -1087.51 -2277.94 39 43 40
-156.012 -1093.82 -2264.94 41 44 37
-159.224 -1102.63 -2246.94 50 51 44
-162.345 -1112.42 -2226.94 56 55 48
-165.874 -1120.23 -2210.94 63 53 48
-170.811 -1119.61 -2211.94 61 57 55
-176.049 -1117 -2216.94 61 55 53
-181.785 -1110.92 -2228.94 66 56 52
-187.251 -1106.34 -2237.94 65 53 50
-192.817 -1100.77 -2248.94 58 46 42
-197.926 -1098.18 -2253.94 55 45 37
-203.078 -1095.1 -2259.94 49 45 39
-207.948 -1094.01 -2261.94 49 45 40
-212.746 -1093.41 -2262.94 48 46 42
-217.479 -1093.32 -2262.94 48 46 41
-222.211 -1093.22 -2262.94 48 47 43
-227.217 -1090.66 -2267.94 47 47 45
-232.201 -1088.09 -2272.94 50 50 49
-237.112 -1086.03 -2276.94 49 51 49
-241.809 -1085.95 -2276.94 49 52 49
-246.692 -1083.89 -2280.94 46 49 44
-251.157 -1086.3 -2275.94 49 51 47
-255.6 -1089.21 -2269.94 48 49 48
-260.108 -1091.62 -2264.94 49 52 52
-264.979 -1089.58 -2268.94 49 51 51
-269.473 -1092.49 -2262.94 49 50 50
-274.16 -1092.93 -2261.94 49 48 44
-302.135 -1101.1 -2244.94 50 51 49
-306.891 -1101.07 -2244.94 50 50 48
-311.58 -1103.02 -2240.94 48 48 46
-316.315 -1103.99 -2238.94 47 47 45
-32.1602 -1118.92 -2234.94 43 43 43
-39.1292 -1111.17 -2249.94 45 42 45
-46.9922 -1099.93 -2271.94 43 42 45
-53.4032 -1093.71 -2283.94 41 43 45
-59.0942 -1089.99 -2290.94 45 42 43
-64.0972 -1088.78 -2292.94 47 43 44
-69.4742 -1086.07 -2297.94 48 45 44
-74.0682 -1086.37 -2296.94 46 43 44
-78.4152 -1087.68 -2293.94 45 43 43
-83.0162 -1087.99 -2292.94 45 44 44
-87.9802 -1086.79 -2294.94 48 45 45
-92.6972 -1086.61 -2294.94 49 46 48
-97.4112 -1086.43 -2294.94 49 47 49
-102.577 -1084.25 -2298.94 49 46 47
-107.39 -1083.57 -2299.94 49 47 49
-112.086 -1083.4 -2299.94 50 48 50
-116.567 -1084.23 -2297.94 49 49 50
-121.368 -1083.56 -2298.94 48 49 50
-125.855 -1084.4 -2296.94 46 48 49
-130.348 -1085.24 -2294.94 48 47 44
-135.144 -1084.59 -2295.94 48 47 44
-139.548 -1085.93 -2292.94 49 47 45
-143.775 -1088.28 -2287.94 49 46 47
-148.022 -1090.63 -2282.94 43 46 45
-151.929 -1094.98 -2273.94 39 45 43
-155.787 -1099.83 -2263.94 42 46 43
-158.747 -1110.17 -2242.94 51 50 46
-166.311 -1122.38 -2217.94 60 52 47
-171.236 -1121.75 -2218.94 61 54 51
-176.155 -1121.13 -2219.94 69 60 58
-181.516 -1117.52 -2226.94 91 74 69
-186.846 -1113.91 -2233.94 97 79 70
-192.214 -1109.8 -2241.94 99 79 68
-197.478 -1106.2 -2248.94 91 68 53
-202.512 -1104.1 -2252.94 70 52 41
-207.528 -1102.01 -2256.94 64 48 38
-212.34 -1101.41 -2257.94 58 50 41
-216.968 -1102.31 -2255.94 50 46 37
-221.604 -1103.21 -2253.94 51 48 39
-226.468 -1102.13 -2255.94 49 49 41
-231.269 -1101.54 -2256.94 48 50 44
-235.708 -1104.45 -2250.94 49 51 45
-240.172 -1107.36 -2244.94 48 51 45
-245.034 -1106.29 -2246.94 48 51 46
-249.531 -1109.2 -2240.94 47 51 47
-254.01 -1112.62 -2233.94 45 51 47
-258.92 -1111.06 -2236.94 48 50 49
-263.816 -1109.51 -2239.94 50 51 50
-267.981 -1117.91 -2222.94 51 49 49
-43.7472 -1116.54 -2249.94 47 45 48
-51.2942 -1106.25 -2269.94 43 43 45
-57.8182 -1099.49 -2282.94 46 43 44
-62.8422 -1098.28 -2284.94 47 44 44
-68.4992 -1094.55 -2291.94 49 45 45
-72.8562 -1095.86 -2288.94 48 45 46
-77.3482 -1096.66 -2286.94 49 46 47
-82.0902 -1096.47 -2286.94 48 45 47
-87.3112 -1094.27 -2290.94 48 45 46
-91.6862 -1095.59 -2287.94 47 45 47
-96.7672 -1093.89 -2290.94 47 46 48
-101.831 -1092.21 -2293.94 46 47 47
-106.77 -1091.02 -2295.94 48 48 48
-111.369 -1091.35 -2294.94 51 50 49
-116.292 -1090.18 -2296.94 49 49 48
-120.784 -1091.02 -2294.94 47 49 47
-125.591 -1090.35 -2295.94 45 48 46
-130.292 -1090.19 -2295.94 46 50 45
-134.793 -1091.04 -2293.94 48 50 44
-139.108 -1092.89 -2289.94 48 48 42
-142.969 -1097.26 -2280.94 48 48 46
-147.05 -1100.62 -2273.94 46 48 47
-150.801 -1106 -2262.94 44 47 47
-154.071 -1114.38 -2245.94 46 48 45
-156.901 -1125.78 -2222.94 53 49 47
-166.342 -1127.01 -2219.94 57 49 46
-171.345 -1125.88 -2221.94 65 53 50
-176.108 -1126.26 -2220.94 89 75 70
-181.471 -1122.63 -2227.94 114 89 80
-186.802 -1119 -2234.94 121 92 78
-191.961 -1116.38 -2239.94 140 109 93
-197.028 -1114.26 -2243.94 157 122 102
-202.209 -1111.15 -2249.94 149 117 99
-207.107 -1110.04 -2251.94 130 101 83
-211.934 -1109.44 -2252.94 107 84 69
-216.457 -1111.35 -2248.94 85 72 58
-221.169 -1111.76 -2247.94 74 63 49
-225.938 -1111.67 -2247.94 68 59 47
-230.654 -1112.08 -2246.94 63 56 48
-234.557 -1120.51 -2229.94 58 53 45
-238.875 -1125.44 -2219.94 51 49 40
-242.907 -1133.87 -2202.94 48 49 42
-247.368 -1138.3 -2193.94 45 49 43
-251.824 -1143.24 -2183.94 44 52 46
-66.2322 -1108.12 -2275.94 49 45 46
-70.8812 -1108.43 -2274.94 48 45 46
-75.4072 -1109.24 -2272.94 48 46 47
-80.5502 -1107.52 -2275.94 47 47 49
-85.6792 -1105.81 -2278.94 46 46 46
-90.2012 -1106.63 -2276.94 47 47 48
-96.1202 -1101.4 -2286.94 47 49 50
-101.311 -1099.19 -2290.94 46 50 48
-106.037 -1099.01 -2290.94 47 50 49
-110.65 -1099.34 -2289.94 48 50 50
-115.48 -1098.67 -2290.94 49 52 50
-119.779 -1100.52 -2286.94 47 50 48
-124.196 -1101.87 -2283.94 46 50 48
-129.127 -1100.7 -2285.94 49 53 48
-133.948 -1100.03 -2286.94 53 53 48
-138.475 -1100.89 -2284.94 53 51 45
-142.349 -1105.28 -2275.94 52 49 42
-146.444 -1108.66 -2268.94 51 47 42
-149.939 -1115.57 -2254.94 58 54 50
-153.142 -1124.5 -2236.94 53 48 44
-155.651 -1137.97 -2209.94 53 46 45
-165.398 -1137.7 -2209.94 55 47 45
-171.059 -1132.53 -2219.94 72 55 52
-176.137 -1130.89 -2222.94 112 91 86
-181.649 -1126.23 -2231.94 129 97 86
-186.83 -1123.59 -2236.94 130 92 77
-191.847 -1121.97 -2239.94 151 111 94
-196.714 -1121.35 -2240.94 179 137 114
-201.707 -1119.73 -2243.94 187 147 124
-206.494 -1119.63 -2243.94 180 142 119
-211.217 -1120.03 -2242.94 166 130 109
-215.885 -1120.94 -2240.94 141 115 98
-220.847 -1119.34 -2243.94 123 98 82
-225.573 -1119.75 -2242.94 123 98 83
-230.197 -1121.17 -2239.94 118 95 84
-234.271 -1128.13 -2225.94 110 90 79
-238.209 -1137.11 -2207.94 104 86 76
-241.664 -1152.13 -2177.94 84 71 64
-246.315 -1155.07 -2171.94 61 54 47
-250.822 -1160.03 -2161.94 52 53 46
-65.3512 -1135.3 -2232.94 51 47 48
-71.4672 -1130.02 -2242.94 49 46 47
-77.2932 -1125.75 -2250.94 47 49 50
-83.0802 -1121.49 -2258.94 46 48 47
-88.2402 -1119.78 -2261.94 47 50 49
-95.0082 -1110.96 -2278.94 46 50 48
-100.334 -1108.24 -2283.94 44 49 44
-104.967 -1108.56 -2282.94 47 51 48
-109.492 -1109.4 -2280.94 50 53 53
-114.667 -1107.2 -2284.94 49 54 51
-119.087 -1108.55 -2281.94 48 52 50
-123.62 -1109.4 -2279.94 49 52 50
-128.262 -1109.74 -2278.94 55 54 49
-133.003 -1109.58 -2278.94 59 54 47
-137.358 -1111.46 -2274.94 61 53 44
-141.256 -1115.86 -2265.94 68 56 45
-145.468 -1118.75 -2259.94 90 77 65
-149.434 -1123.17 -2250.94 110 95 84
-153.262 -1128.6 -2239.94 77 63 56
-156.281 -1139.09 -2218.94 59 47 46
-171.404 -1135.14 -2225.94 84 63 58
-176.627 -1132.48 -2230.94 131 104 98
-181.976 -1128.82 -2237.94 144 105 93
-187.293 -1125.15 -2244.94 144 99 83
-192.226 -1124.03 -2246.94 167 120 103
-196.945 -1124.42 -2245.94 190 145 122
-201.865 -1123.3 -2247.94 195 152 129
-206.582 -1123.7 -2246.94 191 148 125
-211.303 -1124.1 -2245.94 179 136 111
-215.848 -1126.03 -2241.94 157 118 99
-220.639 -1125.93 -2241.94 148 109 92
-225.318 -1126.86 -2239.94 151 113 96
-230.058 -1127.27 -2238.94 146 109 95
-234.035 -1135.28 -2222.94 136 103 89
-237.934 -1144.81 -2203.94 136 107 96
-241.493 -1158.89 -2175.94 128 103 94
-246.286 -1160.33 -2172.94 103 82 74
-250.794 -1165.31 -2162.94 75 62 54
-72.6812 -1149.73 -2214.94 49 49 49
-78.5522 -1145.45 -2222.94 50 48 46
-84.8582 -1139.13 -2234.94 51 50 47
-92.8492 -1125.16 -2261.94 50 49 45
-98.4442 -1121.41 -2268.94 51 50 43
-103.448 -1120.21 -2270.94 51 52 45
-108.112 -1120.54 -2269.94 50 51 46
-113.637 -1116.79 -2276.94 50 51 45
-118.077 -1118.15 -2273.94 56 54 48
-122.735 -1118.49 -2272.94 61 56 49
-127.394 -1118.84 -2271.94 74 60 52
-132.155 -1118.68 -2271.94 89 72 61
-136.528 -1120.56 -2267.94 103 84 69
-140.727 -1123.46 -2261.94 123 101 83
-145.043 -1125.85 -2256.94 142 116 98
-149.198 -1129.27 -2249.94 145 117 98
-153.031 -1134.73 -2238.94 92 70 58
-155.968 -1145.78 -2216.94 65 49 45
-160 -1150.73 -2206.94 61 49 50
-165.537 -1146.53 -2214.94 62 52 50
-171.749 -1137.74 -2231.94 90 66 60
-177.117 -1134.05 -2238.94 139 107 99
-182.303 -1131.38 -2243.94 152 110 95
-187.538 -1128.21 -2249.94 154 108 92
-192.535 -1126.57 -2252.94 176 129 112
-197.312 -1126.46 -2252.94 200 153 131
-202.088 -1126.35 -2252.94 205 159 137
-206.863 -1126.24 -2252.94 194 148 127
-211.45 -1127.67 -2249.94 178 133 109
-215.99 -1129.6 -2245.94 162 118 95
-220.718 -1130.01 -2244.94 165 120 98
-225.394 -1130.94 -2242.94 170 124 104
-230.024 -1132.38 -2239.94 156 113 95
-234.105 -1139.41 -2225.94 129 89 73
-237.951 -1149.49 -2205.94 133 101 89
-241.508 -1163.64 -2177.94 140 109 99
-246.122 -1167.12 -2170.94 139 109 100
-250.553 -1173.14 -2158.94 131 104 95
-71.1282 -1161.09 -2203.94 79 71 73
-76.3042 -1159.86 -2205.94 78 69 66
-83.4802 -1149.92 -2224.94 68 58 54
-91.6152 -1135.37 -2252.94 66 54 48
-97.1202 -1132.1 -2258.94 82 68 60
-101.926 -1131.92 -2258.94 82 69 59
-107.386 -1128.66 -2264.94 81 69 55
-113.033 -1124.39 -2272.94 88 76 61
-117.697 -1124.73 -2271.94 110 95 82
-122.568 -1124.05 -2272.94 128 108 97
-127.433 -1123.37 -2273.94 153 121 107
-131.995 -1124.23 -2271.94 167 134 118
-136.371 -1126.12 -2267.94 167 133 115
-140.48 -1129.55 -2260.94 166 130 106
-144.709 -1132.47 -2254.94 169 131 108
-148.782 -1136.41 -2246.94 165 126 103
-152.536 -1142.41 -2234.94 106 79 67
-155.57 -1153.01 -2213.94 69 50 45
-159.694 -1157.47 -2204.94 60 46 46
-165.646 -1150.68 -2217.94 63 49 48
-171.857 -1141.86 -2234.94 95 69 62
-177.145 -1138.66 -2240.94 145 112 101
-182.33 -1135.98 -2245.94 158 118 100
-187.565 -1132.79 -2251.94 160 118 100
-192.561 -1131.14 -2254.94 180 136 118
-197.338 -1131.03 -2254.94 205 157 136
-202.179 -1130.41 -2255.94 211 163 143
-206.951 -1130.3 -2255.94 197 150 130
-211.535 -1131.73 -2252.94 178 134 110
-216.072 -1133.68 -2248.94 170 124 99
-220.797 -1134.09 -2247.94 170 123 98
-225.359 -1136.04 -2243.94 172 125 101
-229.991 -1137.49 -2240.94 161 118 97
-234.276 -1142.51 -2230.94 122 82 64
-238.359 -1150.09 -2215.94 120 90 76
-242.038 -1162.78 -2190.94 136 106 94
-246.538 -1167.3 -2181.94 144 112 101
-75.4992 -1168.18 -2200.94 105 90 87
-83.1642 -1156.13 -2223.94 87 71 66
-90.8432 -1143.57 -2247.94 87 67 59
-96.9332 -1137.71 -2258.94 117 94 83
-101.854 -1137.01 -2259.94 119 95 83
-107.426 -1133.23 -2266.94 120 95 78
-112.644 -1130.99 -2270.94 126 101 84
-117.42 -1130.81 -2270.94 141 114 98
-122.194 -1130.64 -2270.94 156 123 110
-126.865 -1130.99 -2269.94 175 133 116
-131.44 -1131.86 -2267.94 189 147 128
-135.924 -1133.24 -2264.94 188 144 125
-140.231 -1135.66 -2259.94 178 133 108
-144.557 -1138.08 -2254.94 177 131 107
-148.724 -1141.53 -2247.94 172 126 103
-152.655 -1146.52 -2237.94 113 84 72
-155.941 -1155.63 -2219.94 72 50 43
-160.14 -1159.6 -2211.94 60 45 41
-165.836 -1154.33 -2221.94 63 47 45
-171.726 -1147.51 -2234.94 97 72 63
-177.403 -1141.73 -2245.94 149 118 105
-182.432 -1140.06 -2248.94 159 121 104
-187.519 -1137.89 -2252.94 160 119 102
-192.587 -1135.71 -2256.94 182 139 123
-197.431 -1135.09 -2257.94 206 158 137
-202.27 -1134.46 -2258.94 212 163 142
-207.038 -1134.35 -2258.94 198 149 128
-211.682 -1135.28 -2256.94 181 137 113
-216.213 -1137.23 -2252.94 180 133 107
-220.703 -1139.7 -2247.94 176 129 102
-225.046 -1143.72 -2239.94 174 127 102
-229.637 -1145.68 -2235.94 161 118 97
-233.987 -1150.22 -2226.94 124 85 66
-237.886 -1159.89 -2207.94 114 85 71
-241.959 -1168.53 -2190.94 129 100 86
-76.3802 -1169.29 -2209.94 101 85 79
-83.6772 -1158.74 -2229.94 84 68 59
-90.6512 -1149.22 -2247.94 90 67 56
-95.8322 -1147.48 -2250.94 124 96 82
-101.558 -1143.15 -2258.94 129 99 85
-107.247 -1138.82 -2266.94 135 103 88
-112.683 -1135.54 -2272.94 144 111 96
-117.88 -1133.3 -2276.94 153 118 104
-122.851 -1132.09 -2278.94 161 122 109
-127.508 -1132.44 -2277.94 176 132 114
-132.167 -1132.8 -2276.94 192 146 129
-136.539 -1134.7 -2272.94 194 145 129
-140.926 -1136.61 -2268.94 183 136 113
-145.144 -1139.56 -2262.94 183 136 113
-149.386 -1142.51 -2256.94 178 130 108
-153.037 -1149.08 -2243.94 117 86 75
-156.227 -1158.76 -2224.94 69 46 36
-165.13 -1163.64 -2214.94 63 47 43
-171.118 -1156.28 -2228.94 97 74 64
-176.89 -1149.95 -2240.94 149 120 106
-182.233 -1146.21 -2247.94 159 121 105
-187.399 -1143.5 -2252.94 161 119 106
-192.612 -1140.29 -2258.94 184 141 128
-197.593 -1138.62 -2261.94 207 161 139
-202.559 -1136.97 -2264.94 212 165 141
-207.318 -1136.86 -2264.94 196 149 124
-212.014 -1137.27 -2263.94 190 140 114
-216.354 -1140.78 -2256.94 187 140 111
-220.723 -1144.3 -2249.94 179 132 103
-224.788 -1150.91 -2236.94 175 128 103
-229.442 -1152.37 -2233.94 160 116 96
-233.544 -1159.5 -2219.94 126 86 68
-237.657 -1167.16 -2204.94 104 74 60
-242.162 -1171.2 -2196.94 128 98 81
-77.8662 -1167.77 -2223.94 91 76 68
-84.9002 -1158.2 -2241.94 77 60 51
-91.3882 -1150.72 -2255.94 89 67 55
-96.3282 -1150.01 -2256.94 124 97 83
-102.044 -1145.66 -2264.94 132 103 88
-107.504 -1142.35 -2270.94 137 104 89
-113.044 -1138.54 -2277.94 150 113 97
-117.918 -1137.84 -2278.94 160 121 105
-122.991 -1136.11 -2281.94 164 122 107
-127.544 -1136.98 -2279.94 175 132 115
-132.302 -1136.82 -2279.94 195 149 131
-136.477 -1139.77 -2273.94 199 147 130
-140.865 -1141.69 -2269.94 184 139 116
-144.992 -1145.17 -2262.94 185 139 117
-149.057 -1149.18 -2254.94 180 132 111
-152.626 -1156.3 -2240.94 117 87 78
-155.911 -1165.5 -2222.94 70 47 39
-165.074 -1168.85 -2215.94 59 44 41
-170.986 -1161.97 -2228.94 92 70 63
-176.993 -1154.05 -2243.94 143 115 104
-182.559 -1148.74 -2253.94 159 121 106
-187.424 -1148.1 -2254.94 161 121 108
-192.708 -1144.35 -2261.94 182 139 128
-197.549 -1143.71 -2262.94 204 157 140
-202.45 -1142.56 -2264.94 210 162 142
-207.148 -1142.97 -2263.94 195 147 125
-211.788 -1143.91 -2261.94 192 146 120
-216.195 -1146.92 -2255.94 189 145 121
-220.628 -1149.93 -2249.94 183 139 115
-224.529 -1158.13 -2233.94 178 130 107
-229.139 -1160.12 -2229.94 155 115 96
-233.407 -1165.73 -2218.94 120 83 66
-237.77 -1170.83 -2208.94 104 73 60
-242.645 -1170.75 -2208.94 116 85 74
-90.1452 -1161.08 -2246.94 85 64 55
-95.3372 -1159.32 -2249.94 117 94 82
-101.634 -1152.33 -2262.94 130 105 92
-107.323 -1147.97 -2270.94 140 110 93
-112.758 -1144.65 -2276.94 155 118 100
-117.849 -1142.91 -2279.94 163 125 106
-123.028 -1140.65 -2283.94 167 124 106
-127.681 -1141 -2282.94 178 134 116
-132.535 -1140.31 -2283.94 199 154 135
-136.704 -1143.28 -2277.94 205 153 134
-141.087 -1145.21 -2273.94 187 144 121
-145.023 -1149.76 -2264.94 184 141 118
-148.997 -1154.3 -2255.94 175 130 108
-152.566 -1161.46 -2241.94 114 88 79
-156.281 -1168.1 -2228.94 69 48 41
-171.805 -1161.42 -2240.94 84 64 58
-177.482 -1155.55 -2251.94 135 108 100
-183.035 -1150.21 -2261.94 162 124 109
-187.741 -1150.61 -2260.94 169 128 115
-192.732 -1148.92 -2263.94 181 139 128
-197.504 -1148.81 -2263.94 199 152 137
-202.274 -1148.69 -2263.94 207 160 141
-206.914 -1149.63 -2261.94 197 149 128
-211.871 -1147.96 -2264.94 197 149 126
-216.276 -1150.99 -2258.94 197 151 127
-220.647 -1154.54 -2251.94 186 140 116
-224.881 -1159.65 -2241.94 178 131 109
-229.05 -1165.81 -2229.94 143 104 87
-233.321 -1171.45 -2218.94 114 77 62
-237.835 -1175.02 -2211.94 106 75 62
-84.8562 -1168.02 -2244.94 87 67 60
-90.9982 -1162.04 -2255.94 84 63 52
-96.1742 -1160.27 -2258.94 110 87 74
-102.568 -1152.73 -2272.94 133 108 95
-107.689 -1150.97 -2275.94 148 117 102
-113.118 -1147.64 -2281.94 163 128 110
-117.885 -1147.46 -2281.94 170 133 114
-122.857 -1146.23 -2283.94 177 134 116
-127.615 -1146.06 -2283.94 189 144 124
-132.569 -1144.85 -2285.94 206 159 139
-136.834 -1147.31 -2280.94 208 158 139
-141.309 -1148.73 -2277.94 194 149 127
-145.517 -1151.72 -2271.94 184 140 118
-149.297 -1157.33 -2260.94 169 125 103
-153.035 -1163.48 -2248.94 111 86 76
-156.48 -1171.72 -2232.94 67 47 39
-171.592 -1167.63 -2239.94 79 59 53
-177.507 -1160.16 -2253.94 128 101 93
-183.21 -1153.74 -2265.94 165 124 110
-188.13 -1152.57 -2267.94 179 138 125
-193.181 -1150.36 -2271.94 194 152 139
-197.733 -1151.81 -2268.94 209 162 146
-202.429 -1152.22 -2267.94 211 163 145
-207.192 -1152.12 -2267.94 203 155 135
-211.955 -1152.01 -2267.94 201 153 130
-216.236 -1156.1 -2259.94 198 149 125
-220.782 -1158.09 -2255.94 186 138 113
-225.01 -1163.24 -2245.94 151 106 85
-229.066 -1170.47 -2231.94 129 89 72
-233.234 -1177.19 -2218.94 117 80 64
-237.653 -1181.82 -2209.94 108 76 63
-86.0812 -1167.39 -2256.94 91 71 64
-92.0842 -1161.92 -2266.94 101 78 67
-96.6682 -1162.78 -2264.94 102 77 64
-102.942 -1155.72 -2277.94 139 112 98
-107.505 -1156.59 -2275.94 156 123 107
-113.478 -1150.61 -2286.94 171 136 117
-118.238 -1150.43 -2286.94 178 141 121
-123.306 -1148.67 -2289.94 188 145 127
-128.054 -1148.5 -2289.94 201 156 136
-132.999 -1147.28 -2291.94 210 164 144
-137.061 -1150.81 -2284.94 209 161 141
-141.435 -1152.76 -2280.94 199 152 131
-145.825 -1154.71 -2276.94 183 138 116
-149.507 -1160.88 -2264.94 159 117 94
-153.328 -1166.53 -2253.94 102 76 66
-172.173 -1168.59 -2248.94 75 56 51
-177.842 -1162.67 -2259.94 122 95 87
-183.461 -1156.75 -2270.94 166 125 111
-188.665 -1153.46 -2276.94 184 142 128
-193.559 -1152.29 -2278.94 196 153 138
-198.03 -1154.28 -2274.94 210 163 146
-202.783 -1154.17 -2274.94 213 165 147
-207.342 -1155.64 -2271.94 204 156 137
-211.913 -1157.11 -2268.94 185 137 114
-216.075 -1162.27 -2258.94 164 115 90
-220.8 -1162.7 -2257.94 143 93 68
-225.25 -1165.76 -2251.94 134 91 72
-229.243 -1173.56 -2236.94 119 79 61
-233.557 -1178.73 -2226.94 127 90 72
-237.962 -1183.38 -2217.94 120 87 73
-85.9982 -1172.56 -2257.94 79 59 52
-91.8872 -1167.58 -2266.94 107 84 72
-97.1622 -1165.26 -2270.94 109 82 68
-103.203 -1159.24 -2281.94 128 99 82
-107.651 -1160.64 -2278.94 154 120 103
-113.514 -1155.15 -2288.94 173 137 118
-118.167 -1155.51 -2287.94 184 146 127
-122.926 -1155.33 -2287.94 194 151 133
-127.784 -1154.63 -2288.94 203 159 140
-132.536 -1154.46 -2288.94 209 165 145
-136.608 -1158.01 -2281.94 209 163 141
-140.897 -1160.49 -2276.94 203 155 136
-145.485 -1161.4 -2274.94 186 140 120
-148.993 -1168.66 -2260.94 149 109 88
-153.267 -1171.68 -2254.94 87 62 52
-173.073 -1167.41 -2261.94 74 56 51
-178.408 -1163.57 -2268.94 119 92 84
-183.636 -1160.27 -2274.94 162 124 109
-188.762 -1157.5 -2279.94 176 135 120
-193.582 -1156.85 -2280.94 188 144 127
-198.121 -1158.32 -2277.94 215 168 151
-202.805 -1158.73 -2276.94 221 174 155
-207.492 -1159.15 -2275.94 205 157 138
-211.995 -1161.16 -2271.94 178 132 108
-216.094 -1166.87 -2260.94 157 108 83
-220.587 -1169.42 -2255.94 139 90 64
-225.1 -1171.97 -2250.94 124 81 63
-229.045 -1180.33 -2234.94 139 97 79
-233.521 -1183.94 -2227.94 163 122 104
-238.173 -1185.97 -2223.94 123 90 76
-86.1522 -1176.66 -2260.94 73 53 46
-91.6892 -1173.26 -2266.94 100 76 63
-96.7382 -1171.99 -2268.94 115 87 71
-102.676 -1166.47 -2278.94 125 93 75
-107.355 -1166.82 -2277.94 145 111 93
-113.008 -1162.37 -2285.94 169 132 112
-117.777 -1162.19 -2285.94 185 145 125
-122.441 -1162.54 -2284.94 198 155 137
-127.512 -1160.77 -2287.94 207 163 144
-132.469 -1159.54 -2289.94 210 166 145
-136.736 -1162.04 -2284.94 210 165 143
-141.307 -1162.94 -2282.94 205 158 139
-145.885 -1163.85 -2280.94 185 139 120
-149.473 -1170.61 -2267.94 138 101 81
-153.028 -1177.91 -2253.94 74 49 40
-173.337 -1170.42 -2266.94 80 62 57
-178.122 -1170.29 -2266.94 114 87 79
-183.208 -1168.03 -2270.94 145 104 90
-188.42 -1164.72 -2276.94 162 119 104
-193.25 -1164.06 -2277.94 180 136 118
-197.8 -1165.54 -2274.94 202 156 136
-202.76 -1163.83 -2277.94 209 162 143
-207.448 -1164.25 -2276.94 201 153 134
-212.077 -1165.21 -2274.94 165 117 96
-216.353 -1169.36 -2266.94 144 97 73
-220.952 -1170.85 -2263.94 147 100 76
-225.452 -1173.41 -2258.94 161 118 99
-229.543 -1180.22 -2245.94 170 127 107
-233.947 -1184.38 -2237.94 166 123 104
-238.778 -1184.3 -2237.94 104 72 58
-87.2582 -1176.47 -2271.94 82 62 55
-92.6592 -1173.59 -2276.94 95 71 57
-97.8052 -1171.79 -2279.94 115 86 70
-103.723 -1166.24 -2289.94 127 93 74
-108.271 -1167.12 -2287.94 150 117 99
-113.69 -1163.72 -2293.94 168 132 113
-118.234 -1164.61 -2291.94 185 146 126
-122.784 -1165.51 -2289.94 202 157 139
-127.443 -1165.87 -2288.94 212 167 147
-132.203 -1165.7 -2288.94 213 167 146
-136.669 -1167.14 -2285.94 208 164 143
-141.146 -1168.58 -2282.94 206 160 141
-145.635 -1170.02 -2279.94 186 139 122
-149.682 -1174.15 -2271.94 128 92 73
-153.673 -1178.81 -2262.94 72 47 37
-167.345 -1183.18 -2253.94 64 50 47
-172.803 -1178.77 -2261.94 90 72 68
-177.991 -1175.96 -2266.94 112 85 77
-183.004 -1174.23 -2269.94 135 93 77
-188.223 -1170.89 -2275.94 149 106 89
-193.13 -1169.7 -2277.94 156 112 91
-197.752 -1170.65 -2275.94 165 119 97
-202.648 -1169.47 -2277.94 168 121 101
-207.404 -1169.36 -2277.94 177 129 110
-211.91 -1171.39 -2273.94 175 127 106
-216.191 -1175.56 -2265.94 175 127 105
-220.796 -1177.06 -2262.94 176 128 105
-225.022 -1182.3 -2252.94 173 128 106
-229.29 -1187.54 -2242.94 170 125 106
-234.013 -1188.52 -2240.94 134 91 73
-238.94 -1187.37 -2242.94 90 59 46
-88.2462 -1176.78 -2281.94 88 68 61
-93.3952 -1174.96 -2284.94 115 91 76
-97.9532 -1175.84 -2282.94 142 114 97
-104.095 -1169.19 -2294.94 131 97 76
-108.525 -1170.61 -2291.94 118 87 68
-113.724 -1168.28 -2295.94 140 106 86
-118.373 -1168.63 -2294.94 171 133 113
-123.024 -1168.99 -2293.94 200 155 137
-127.474 -1170.43 -2290.94 218 171 151
-132.233 -1170.26 -2290.94 223 175 154
-136.698 -1171.71 -2287.94 215 170 150
-141.365 -1172.08 -2286.94 208 163 145
-145.848 -1173.53 -2283.94 183 138 120
-149.98 -1177.14 -2276.94 138 101 84
-153.787 -1182.89 -2265.94 100 73 63
-172.826 -1183.39 -2263.94 70 53 49
-178.013 -1180.57 -2268.94 100 74 66
-182.876 -1179.9 -2269.94 139 96 80
-187.952 -1177.63 -2273.94 163 120 101
-192.939 -1175.9 -2276.94 185 141 118
-197.566 -1176.85 -2274.94 201 155 133
-202.534 -1175.12 -2277.94 206 160 139
-207.23 -1175.55 -2276.94 209 161 142
-211.804 -1177.05 -2273.94 203 154 134
-216.089 -1181.24 -2265.94 194 146 124
-220.581 -1183.82 -2260.94 183 137 113
-224.87 -1188.55 -2251.94 178 130 107
-229.574 -1189.53 -2249.94 166 121 102
-234.593 -1187.29 -2253.94 119 77 61
-239.496 -1186.13 -2255.94 99 68 55
-88.8772 -1178.67 -2288.94 89 70 63
-94.0142 -1176.85 -2291.94 106 79 65
-98.5612 -1177.73 -2289.94 149 119 102
-104.692 -1171.05 -2301.94 159 125 102
-109 -1173.02 -2297.94 151 118 99
-113.865 -1172.29 -2298.94 144 109 89
-118.404 -1173.19 -2296.94 146 107 86
-122.951 -1174.09 -2294.94 163 119 101
-127.199 -1176.62 -2289.94 180 134 114
-132.063 -1175.91 -2290.94 190 142 121
-136.727 -1176.28 -2289.94 191 145 125
-141.679 -1175.03 -2291.94 192 148 129
-146.155 -1176.49 -2288.94 174 130 112
-150.642 -1177.96 -2285.94 153 116 100
-154.432 -1183.74 -2274.94 126 99 89
-172.768 -1188.56 -2264.94 80 64 60
-178.035 -1185.19 -2270.94 143 118 110
-182.822 -1185.05 -2270.94 187 146 131
-187.607 -1184.93 -2270.94 201 158 139
-192.675 -1182.64 -2274.94 214 169 145
-197.31 -1183.6 -2272.94 222 176 153
-202.153 -1182.95 -2273.94 222 176 154
-206.926 -1182.84 -2273.94 215 167 148
-211.697 -1182.73 -2273.94 208 159 140
-215.985 -1186.93 -2265.94 200 153 132
-220.423 -1190.07 -2259.94 190 145 123
-224.942 -1192.66 -2254.94 185 137 114
-229.535 -1194.72 -2250.94 151 107 90
-234.556 -1192.48 -2254.94 107 65 51
-89.2692 -1181.63 -2293.94 89 73 65
-94.3992 -1179.79 -2296.94 102 76 63
-98.9382 -1180.68 -2294.94 144 115 99
-104.95 -1174.51 -2305.94 166 130 106
-109.474 -1175.4 -2303.94 174 137 116
-114.005 -1176.3 -2301.94 179 141 120
-118.435 -1177.75 -2298.94 187 146 125
-122.773 -1179.74 -2294.94 192 149 130
-127.024 -1182.28 -2289.94 186 142 121
-132.092 -1180.48 -2292.94 180 133 111
-136.755 -1180.85 -2291.94 172 125 104
-141.611 -1180.14 -2292.94 162 117 98
-146.275 -1180.53 -2291.94 151 107 89
-150.85 -1181.45 -2289.94 129 92 77
-154.368 -1188.89 -2275.94 96 68 59
-177.746 -1191.97 -2268.94 138 113 107
-182.616 -1191.3 -2269.94 181 142 130
-187.407 -1191.17 -2269.94 198 156 140
-192.553 -1188.33 -2274.94 213 168 145
-197.192 -1189.3 -2272.94 221 175 151
-202.105 -1188.1 -2274.94 220 174 150
-206.944 -1187.44 -2275.94 214 167 144
-211.965 -1185.16 -2279.94 213 165 143
-216.484 -1187.23 -2275.94 213 165 143
-221.194 -1187.67 -2274.94 207 159 138
-225.795 -1189.19 -2271.94 180 132 112
-230.301 -1191.81 -2266.94 129 85 69
-235.137 -1191.17 -2267.94 107 66 53
-239.869 -1191.63 -2266.94 109 76 67
-90.0192 -1182.93 -2301.94 86 72 68
-95.1352 -1181.09 -2304.94 95 72 63
-99.6612 -1181.98 -2302.94 135 108 95
-105.435 -1176.87 -2311.94 172 136 110
-110.17 -1176.68 -2311.94 191 146 122
-114.578 -1178.13 -2308.94 199 153 129
-118.997 -1179.58 -2305.94 207 159 136
-123.427 -1181.04 -2302.94 217 171 147
-127.358 -1185.23 -2294.94 224 177 153
-132.021 -1185.6 -2293.94 226 178 155
-136.783 -1185.43 -2293.94 226 173 159
-141.448 -1185.81 -2292.94 210 160 143
-146.301 -1185.1 -2293.94 191 145 125
-151.057 -1184.94 -2293.94 150 112 97
-155.545 -1186.42 -2290.94 78 51 42
-177.689 -1197.15 -2269.94 112 89 88
-182.863 -1194.29 -2274.94 161 125 121
-187.354 -1196.34 -2270.94 185 145 137
-192.643 -1192.4 -2277.94 202 158 140
-197.279 -1193.37 -2275.94 208 162 140
-201.99 -1193.8 -2274.94 208 162 140
-206.832 -1193.14 -2275.94 208 162 139
-211.919 -1190.31 -2280.94 212 165 141
-216.32 -1193.47 -2274.94 209 161 139
-220.978 -1194.45 -2272.94 193 145 123
-225.643 -1195.44 -2270.94 143 99 79
-230.316 -1196.43 -2268.94 113 73 56
-235.048 -1196.89 -2267.94 115 76 62
-239.734 -1197.89 -2265.94 109 79 68
-89.4542 -1190.25 -2298.94 96 79 69
-94.8162 -1187.3 -2303.94 99 75 62
-99.0022 -1189.84 -2298.94 111 83 69
-104.789 -1184.7 -2307.94 156 122 103
-110.423 -1180.12 -2315.94 182 140 114
-114.935 -1181.03 -2313.94 199 155 127
-119.027 -1184.14 -2307.94 206 159 133
-123.456 -1185.6 -2304.94 213 169 143
-127.692 -1188.16 -2299.94 216 172 147
-131.948 -1190.73 -2294.94 220 174 149
-137.004 -1188.91 -2297.94 220 172 155
-142.141 -1186.56 -2301.94 208 161 142
-147.165 -1184.75 -2304.94 198 152 132
-151.537 -1186.78 -2300.94 141 104 89
-156.013 -1188.27 -2297.94 77 50 40
-182.353 -1202.74 -2269.94 123 92 89
-186.711 -1205.9 -2263.94 161 124 119
-192.02 -1201.94 -2270.94 176 129 116
-196.883 -1201.27 -2271.94 176 130 115
-202.007 -1198.42 -2276.94 176 130 115
-206.914 -1197.21 -2278.94 174 129 112
-212.061 -1193.81 -2284.94 170 126 106
-216.577 -1195.9 -2280.94 158 116 95
-221.342 -1195.79 -2280.94 139 99 75
-226.218 -1194.6 -2282.94 130 91 70
-230.814 -1196.14 -2279.94 131 93 74
-235.268 -1199.33 -2273.94 129 93 75
-88.0492 -1201.45 -2288.94 103 85 70
-93.4382 -1198.48 -2293.94 108 82 66
-97.8802 -1199.94 -2290.94 110 81 64
-103.35 -1196.43 -2296.94 128 94 80
-109.567 -1189.07 -2309.94 160 119 99
-114.639 -1187.23 -2312.94 183 140 118
-118.843 -1189.79 -2307.94 191 147 127
-123.693 -1189.06 -2308.94 196 152 132
-128.128 -1190.54 -2305.94 199 154 135
-132.474 -1192.56 -2301.94 201 153 136
-137.519 -1190.74 -2304.94 199 153 134
-142.549 -1188.92 -2307.94 190 146 125
-147.843 -1185.45 -2313.94 166 122 100
-152.017 -1188.6 -2307.94 119 88 73
-156.215 -1191.74 -2301.94 71 49 40
-186.876 -1209.46 -2267.94 119 91 85
-191.824 -1208.23 -2269.94 134 97 85
-196.9 -1205.91 -2273.94 137 98 85
-201.89 -1204.14 -2276.94 134 96 82
-206.866 -1202.37 -2279.94 130 93 78
-212.078 -1198.41 -2286.94 134 97 80
-216.774 -1198.86 -2285.94 139 100 80
-221.648 -1197.65 -2287.94 146 106 81
-226.569 -1195.91 -2290.94 147 104 82
-230.667 -1202.4 -2278.94 145 104 84
-234.868 -1208.36 -2267.94 143 103 85
-87.9592 -1206.62 -2289.94 111 95 80
-93.3502 -1203.64 -2294.94 126 103 85
-97.9092 -1204.55 -2292.94 130 103 83
-103.266 -1201.58 -2297.94 129 96 82
-109.486 -1194.18 -2310.94 130 96 79
-114.885 -1190.67 -2316.94 139 106 87
-119.084 -1193.25 -2311.94 152 115 98
-123.512 -1194.73 -2308.94 163 123 107
-128.461 -1193.44 -2310.94 170 128 112
-132.7 -1196.03 -2305.94 177 131 117
-137.642 -1194.75 -2307.94 168 126 104
-142.192 -1195.69 -2305.94 155 114 91
-147.962 -1189.44 -2316.94 145 104 83
-151.403 -1197.03 -2302.94 117 92 77
-156.06 -1197.42 -2301.94 70 52 43
-191.842 -1212.88 -2271.94 125 90 78
-196.986 -1209.99 -2276.94 133 96 83
-202.309 -1205.45 -2284.94 139 102 88
-207.142 -1204.79 -2285.94 143 105 90
-212.156 -1202.47 -2289.94 145 106 89
-216.85 -1202.91 -2288.94 147 106 88
-221.78 -1201.15 -2291.94 147 103 83
-226.359 -1202.71 -2288.94 145 102 85
-88.7072 -1207.91 -2297.94 101 88 77
-93.6142 -1207.14 -2298.94 125 107 92
-98.6292 -1205.82 -2300.94 129 107 88
-104.199 -1201.73 -2307.94 143 113 97
-109.958 -1196.52 -2316.94 147 118 100
-115.458 -1192.44 -2323.94 144 115 96
-119.858 -1193.92 -2320.94 146 112 94
-124.791 -1192.62 -2322.94 148 110 93
-129.1 -1194.67 -2318.94 148 107 91
-133.025 -1198.94 -2310.94 153 106 90
-137.765 -1198.77 -2310.94 148 112 90
-142.79 -1196.93 -2313.94 147 112 91
-147.8 -1195.1 -2316.94 144 109 91
-151.153 -1203.27 -2301.94 102 82 70
-156.528 -1199.23 -2308.94 64 50 42
-88.4952 -1213.64 -2297.94 76 65 60
-93.2882 -1213.43 -2297.94 104 90 81
-97.8482 -1214.34 -2295.94 120 103 88
-103.547 -1209.67 -2303.94 133 108 91
-109.653 -1202.76 -2315.94 138 110 92
-115.595 -1196.42 -2326.94 141 112 94
-120.206 -1196.79 -2325.94 146 112 95
-124.714 -1197.72 -2323.94 147 110 94
-129.229 -1198.66 -2321.94 150 111 96
-133.25 -1202.39 -2314.94 154 110 96
-138.377 -1199.98 -2318.94 141 112 95
-143.484 -1197.58 -2322.94 139 112 96
-148.665 -1194.62 -2327.94 127 100 87
-156.194 -1206.03 -2306.94 0 0 0
-128.435 -1207.7 -2315.94 118 91 81
-133.275 -1206.96 -2316.94 117 88 81
-138.499 -1203.98 -2321.94 105 84 75
-111.709 -1201.74 -2337.94 71 60 54
-116.085 -1203.24 -2334.94 71 61 57
-120.793 -1203.05 -2334.94 73 62 58
-124.661 -1207.38 -2326.94 69 58 55
-128.767 -1210.58 -2320.94 68 58 54
-133.499 -1210.4 -2320.94 70 59 57
-125.942 -1205.13 -2340.94 72 61 59
-134.224 -1211 -2329.94 70 59 57
-209.169 -1210.93 -2325.94 64 53 50
-218.621 -1210.14 -2326.94 66 56 51
-116.027 -1212.88 -2337.94 78 68 64
-125.338 -1213.07 -2336.94 73 62 60
-129.952 318.826 -2252.86 40 34 40
-119.952 317.321 -2257.92 43 37 43
-113.952 312.207 -2241.12 39 31 37
-116.952 312.61 -2245.21 39 31 37
-124.952 313.74 -2248.92 37 30 36
-123.952 313.563 -2253.33 39 32 38
-119.952 312.951 -2257.95 44 36 42
-126.952 313.939 -2261.78 45 37 43
-161.952 315.909 -2122.03 75 59 49
-89.9521 304.408 -2243.06 32 25 31
-96.9521 305.38 -2246.79 39 31 37
-104.952 306.495 -2250.46 37 30 36
-103.952 306.32 -2254.83 37 30 36
-101.952 306.004 -2259.27 43 35 41
-111.952 307.408 -2262.86 47 39 45
-120.952 308.669 -2266.55 46 38 44
-126.952 309.501 -2270.48 47 40 46
-130.952 307.041 -2126.18 139 118 109
-123.952 305.993 -2131.49 71 50 41
-82.9521 299.146 -2239.4 36 29 35
-81.9521 298.971 -2243.73 30 23 29
-87.9521 299.788 -2247.52 32 25 31
-98.9521 301.311 -2250.95 33 26 32
-101.952 301.705 -2255.01 33 26 32
-102.952 301.817 -2259.22 36 28 34
-110.952 302.918 -2262.95 43 35 41
-118.952 304.02 -2266.72 45 37 43
-120.952 304.276 -2270.9 46 39 45
-123.952 304.673 -2275.03 48 41 47
-141.952 307.189 -2278.25 46 41 47
-131.952 302.832 -2121.7 219 193 188
-123.952 301.659 -2127.16 192 165 157
-118.952 300.906 -2132.19 120 93 84
-74.9521 293.842 -2227.37 34 31 38
-82.9521 294.889 -2235.18 39 31 37
-82.9521 294.856 -2239.43 37 30 36
-81.9521 294.684 -2243.76 33 26 32
-87.9521 295.489 -2247.55 30 23 29
-96.9521 296.712 -2251.13 29 22 28
-97.9521 296.821 -2255.33 29 22 28
-97.9521 296.792 -2259.61 31 23 29
-102.952 297.46 -2263.54 38 30 36
-108.952 298.268 -2267.42 43 35 41
-109.952 298.381 -2271.65 44 37 43
-113.952 298.912 -2275.69 43 37 42
-130.952 301.253 -2278.95 42 38 43
-125.952 297.602 -2122.56 232 204 201
-121.952 296.997 -2127.48 216 183 176
-117.952 296.392 -2132.38 171 137 129
-114.952 295.927 -2137.13 93 73 70
-119.952 296.565 -2140.85 60 44 43
-79.9521 290.291 -2222.71 37 31 36
-77.9521 289.914 -2235.63 37 29 35
-78.9521 290.019 -2239.79 36 29 35
-79.9521 290.125 -2243.96 38 31 37
-82.9521 290.506 -2247.97 35 28 34
-90.9521 291.574 -2251.61 30 23 29
-92.9521 291.819 -2255.73 28 21 27
-92.9521 291.791 -2260 29 22 28
-99.9521 292.724 -2263.77 35 27 33
-107.952 293.794 -2267.51 40 32 38
-111.952 294.317 -2271.54 40 33 39
-116.952 294.977 -2275.53 38 32 38
-124.952 296.05 -2279.34 39 35 40
-149.952 299.455 -2282.18 44 38 44
-120.952 292.587 -2118.91 238 211 209
-116.952 291.99 -2123.82 240 212 207
-116.952 291.938 -2128.19 230 196 189
-113.952 291.478 -2132.95 200 165 157
-111.952 291.156 -2137.56 129 105 102
-114.952 291.513 -2141.53 69 51 50
-113.952 291.328 -2146.01 52 42 43
-73.9521 285.233 -2219.05 36 29 33
-67.9521 284.386 -2223.82 36 30 34
-70.9521 284.758 -2227.79 36 33 39
-69.9521 284.589 -2232.1 39 33 39
-78.9521 285.774 -2235.58 36 29 35
-79.9521 285.878 -2239.74 35 28 34
-80.9521 285.982 -2243.91 37 30 36
-82.9521 286.222 -2248 36 29 35
-87.9521 286.869 -2251.87 31 24 30
-86.9521 286.705 -2256.2 29 22 28
-85.9521 286.541 -2260.52 29 22 28
-92.9521 287.46 -2264.29 31 24 30
-98.9521 288.245 -2268.15 33 25 31
-108.952 289.571 -2271.77 33 27 33
-115.952 290.492 -2275.61 33 27 33
-125.952 291.819 -2279.31 34 30 35
-135.952 290.271 -2112.51 239 211 211
-120.952 288.21 -2118.96 240 213 210
-114.952 287.354 -2124.14 239 213 206
-111.952 286.901 -2128.9 242 210 202
-110.952 286.717 -2133.39 229 195 188
-107.952 286.265 -2138.12 180 155 150
-106.952 286.082 -2142.59 101 82 79
-106.952 286.034 -2146.93 61 49 48
-76.9521 281.366 -2218.81 35 28 31
-74.9521 281.065 -2223.23 34 28 32
-78.9521 281.564 -2227.12 33 30 35
-76.9521 281.265 -2231.54 37 31 36
-79.9521 281.633 -2235.53 36 29 35
-84.9521 282.268 -2239.37 36 29 35
-85.9521 282.37 -2243.54 37 30 36
-88.9521 282.74 -2247.56 36 29 35
-93.9521 283.377 -2251.44 34 27 33
-99.9521 284.148 -2255.27 33 26 32
-94.9521 283.454 -2259.91 30 23 29
-97.9521 283.826 -2263.97 28 21 27
-102.952 284.466 -2267.9 28 21 27
-113.952 285.905 -2271.46 28 24 29
-114.952 286.014 -2275.7 28 24 29
-122.952 287.055 -2279.51 29 25 29
-141.952 286.656 -2111.74 234 208 207
-126.952 284.626 -2118.2 240 214 211
-119.952 283.651 -2123.53 242 217 209
-113.952 282.81 -2128.69 247 217 210
-106.952 281.837 -2133.96 241 211 203
-103.952 281.393 -2138.68 212 186 180
-98.9521 280.686 -2143.65 147 125 120
-96.9521 280.376 -2148.21 88 73 69
-97.9521 280.415 -2156.72 48 37 38
-99.9521 280.187 -2208.15 45 35 39
-85.9521 278.312 -2213.75 40 28 31
-78.9521 277.358 -2218.66 35 27 29
-73.9521 276.668 -2223.35 32 25 29
-76.9521 277.028 -2227.33 27 23 28
-74.9521 276.733 -2231.74 30 24 30
-76.9521 276.964 -2235.81 32 25 31
-80.9521 277.458 -2239.72 37 30 36
-82.9521 277.691 -2243.81 38 31 37
-83.9521 277.792 -2247.98 36 29 35
-87.9521 278.289 -2251.93 35 28 34
-89.9521 278.523 -2256.03 35 28 34
-112.952 281.41 -2275.85 26 22 27
-124.952 282.96 -2279.42 26 22 26
-127.952 280.423 -2113.72 229 204 201
-119.952 279.333 -2119.2 237 212 206
-112.952 278.373 -2124.52 242 217 207
-109.952 277.934 -2129.27 248 221 214
-103.952 277.107 -2134.4 245 217 211
-105.952 277.318 -2138.48 231 205 199
-100.952 276.622 -2143.44 183 160 153
-104.952 277.093 -2147.27 110 90 83
-101.952 276.658 -2151.97 78 62 62
-113.952 278.168 -2154.85 56 42 43
-89.9521 274.578 -2209.14 45 34 37
-86.9521 274.154 -2213.69 38 26 29
-81.9521 273.474 -2218.42 36 27 29
-79.9521 273.181 -2222.85 35 27 31
-85.9521 273.924 -2226.57 31 25 31
-82.9521 273.505 -2231.09 28 21 27
-81.9521 273.344 -2235.42 30 23 29
-85.9521 273.831 -2239.35 34 28 34
-86.9521 273.93 -2243.52 38 31 37
-85.9521 273.772 -2247.85 37 30 36
-85.9521 273.743 -2252.1 33 26 32
-92.9521 274.62 -2255.84 33 26 32
-130.952 279.376 -2279.07 24 21 24
-148.952 281.677 -2282.33 33 28 33
-122.952 275.399 -2114.46 238 213 209
-116.952 274.581 -2119.66 240 215 207
-109.952 273.637 -2124.97 241 217 204
-106.952 273.205 -2129.71 245 220 213
-101.952 272.518 -2134.7 245 220 214
-104.952 272.853 -2138.65 240 215 209
-101.952 272.424 -2143.36 214 189 180
-107.952 273.143 -2146.94 140 115 105
-104.952 272.715 -2151.65 87 68 67
-113.952 273.818 -2154.89 61 43 45
-117.952 274.284 -2158.77 48 37 44
-91.9521 270.538 -2208.98 45 35 38
-89.9521 270.249 -2213.45 39 29 31
-88.9521 270.088 -2217.81 38 28 30
-85.9521 269.673 -2222.35 36 27 31
-88.9521 270.023 -2226.34 32 25 31
-89.9521 270.119 -2230.52 32 25 31
-88.9521 269.96 -2234.87 32 25 31
-89.9521 270.058 -2239.05 31 27 32
-87.9521 269.774 -2243.47 35 29 35
-86.9521 269.618 -2247.8 37 30 36
-79.9521 268.7 -2252.58 35 28 34
-121.952 270.9 -2114.65 230 205 198
-115.952 270.096 -2119.85 238 212 204
-107.952 269.041 -2125.28 244 218 207
-104.952 268.616 -2130.03 246 221 213
-100.952 268.065 -2134.88 247 221 214
-99.9521 267.893 -2139.34 249 221 214
-98.9521 267.721 -2143.79 234 205 196
-106.952 268.681 -2147.11 176 146 135
-105.952 268.51 -2151.57 108 85 84
-111.952 269.219 -2155.18 77 56 57
-123.952 270.682 -2158.1 52 39 45
-120.952 270.263 -2162.81 45 33 40
-93.9521 266.637 -2191.69 84 71 75
-99.9521 267.352 -2195.37 61 51 53
-96.9521 266.94 -2199.97 48 38 41
-88.9521 265.902 -2205.03 38 28 33
-98.9521 267.12 -2208.35 38 29 32
-101.952 267.462 -2212.36 36 28 30
-96.9521 266.802 -2217.11 39 27 30
-96.9521 266.77 -2221.39 38 27 32
-93.9521 266.362 -2225.94 35 27 33
-92.9521 266.206 -2230.3 33 26 32
-86.9521 265.424 -2235.07 32 25 31
-89.9521 265.77 -2239.08 27 23 28
-87.9521 265.491 -2243.5 29 23 29
-87.9521 265.463 -2247.75 33 26 32
