ply
format ascii 1.0
comment Created by Open3D
element vertex 737
property double x
property double y
property double z
property double nx
property double ny
property double nz
property uchar red
property uchar green
property uchar blue
end_header
-272.98 -701.219 -2273.81 -0.187149 0.178298 0.910649 43 46 46
-288.582 -694.745 -2272.18 -0.110119 0.138046 0.532326 46 48 48
-271.113 -696.122 -2273.81 -0.147727 0.21472 0.821601 42 44 44
-277.307 -692.851 -2274.16 -0.252758 0.309452 0.979233 42 44 45
-274.066 -693.384 -2274.71 -0.219621 0.290044 0.882815 42 44 44
-258.217 -707.375 -2272.96 -0.00746537 0.0694712 1.03329 42 44 45
-267.727 -706.242 -2272.35 -0.0982868 0.063014 1.00554 43 46 45
-253.238 -709.351 -2272.99 -0.0180011 0.0509856 1.03283 43 44 46
-255.725 -704.548 -2273.72 0.0244203 0.190803 1.03848 43 45 46
-247.475 -700.418 -2275.43 0.0293298 0.222629 0.603847 46 47 50
-266.734 -693.951 -2274.81 -0.035899 0.162381 0.356868 41 43 44
-267.453 -692.28 -2274.18 -0.0460597 0.198297 0.487749 41 43 44
-239.781 -736.603 -2271.96 -0.070336 0.0918214 0.992851 41 43 45
-239.708 -726.497 -2273.05 -0.0104631 0.072992 1.00236 42 44 46
-234.62 -730.622 -2272.04 -0.113716 0.0774354 0.974406 41 43 45
-231.897 -730.19 -2271.18 -0.224968 0.047401 0.945002 41 43 46
-244.061 -723.1 -2272.98 -0.0567333 0.0170555 1.00105 43 44 47
-240.358 -717.042 -2272.92 -0.0519355 -0.00380971 1.01205 43 44 48
-239.642 -717.569 -2272.94 -0.0476294 -0.000449633 1.01175 43 44 47
-230.012 -717.276 -2269.97 -0.366947 -0.075787 0.918808 44 46 49
-233.349 -711.607 -2271.06 -0.259062 -0.0728698 0.973864 45 47 50
-241.212 -706.405 -2273.2 -0.0919681 0.0481848 0.900691 45 46 50
-232.901 -711.273 -2270.78 -0.278358 -0.0734447 0.967649 45 47 50
-235.064 -695.383 -2272.21 -0.389148 0.0940598 0.905131 44 46 50
-236.355 -688.315 -2273.37 -0.474836 0.122313 0.903254 43 45 50
-230.026 -691.304 -2269.57 -0.436219 0.101505 0.901079 42 44 48
-261.297 -685.34 -2275.95 -0.145911 0.00936393 -0.364481 43 45 46
-257.852 -681.141 -2272.92 -0.249116 -0.056793 -0.613469 44 46 48
-44.6896 -1090.59 -2273.8 0.616057 -0.472647 -0.621328 43 43 42
-42.5998 -1084.48 -2274.11 0.669479 -0.389179 -0.628708 42 43 41
-39.5704 -1077.12 -2273.97 0.689803 -0.250085 -0.669036 43 44 41
-35.1548 -1076.72 -2269.89 0.646995 -0.260878 -0.70941 43 44 42
-38.1056 -1066.65 -2275.13 0.692938 -0.123778 -0.709917 43 45 42
-32.0381 -1066.84 -2270.24 0.634561 -0.164249 -0.754279 42 43 41
-37.4335 -1046.56 -2275.61 0.678771 0.073334 -0.723452 41 42 39
-30.6777 -1055.89 -2270.52 0.635062 -0.0535165 -0.763725 42 44 41
-30.0337 -1049.86 -2269.74 0.65435 0.0914086 -0.744458 41 44 40
-33.8665 -1043.41 -2271.28 0.686268 0.136682 -0.71452 42 44 41
-172.76 -1026.61 -2271.19 -0.525612 0.0622866 -0.260222 48 48 45
-172.893 -1025.7 -2271.73 -0.514063 0.0750194 -0.282794 48 48 46
-141.928 -879.863 -2274.3 -0.749238 0.0981466 -0.608114 48 52 49
-145.542 -873.323 -2269.88 -0.753013 0.00313168 -0.262755 44 48 46
-142.851 -861.785 -2274.48 -0.771646 -0.0448863 -0.553319 48 52 50
-144.466 -857.208 -2272.66 -0.752778 0.0153783 -0.517308 48 52 50
-142.993 -851.841 -2274.82 -0.711057 0.0840483 -0.678866 50 54 53
-142.302 -841.898 -2273.33 -0.674794 0.215577 -0.698542 52 56 55
-136.446 -837.709 -2275.28 -0.553767 0.278892 -0.773288 53 57 56
-50.211 -931.744 -2271.24 0.701436 0.10143 -0.601447 43 49 45
-50.5134 -918.334 -2273.77 0.636917 -0.014516 -0.731859 41 46 43
-52.6467 -884.169 -2275.39 0.564727 0.105425 -0.814135 46 48 46
-49.4272 -924.538 -2272.21 0.638304 0.0319286 -0.684835 42 47 44
-47.7803 -913.311 -2271.62 0.666802 -0.0463134 -0.726107 43 47 44
-137.248 -662.699 -2273.41 -0.407661 -0.184335 -0.844671 43 45 51
-138.282 -657.443 -2275.34 -0.480175 -0.109389 -0.802586 44 45 52
-124.952 -662.213 -2273.11 0.0551288 -0.327817 -0.935409 42 44 50
-142.222 -648.619 -2271.58 -0.682598 0.0238996 -0.706861 43 45 51
-137.119 -641.514 -2275.15 -0.597829 0.0406651 -0.772011 45 47 53
-120.563 -661.051 -2272.59 0.120644 -0.317925 -0.940284 40 41 48
-118.803 -655.646 -2274.41 0.133378 -0.289849 -0.943928 40 41 48
-111.458 -650.996 -2272.8 0.190837 -0.145968 -0.951186 37 37 43
-102.888 -659.455 -2272.76 -0.117684 -0.0110861 -0.973658 35 34 40
-105.885 -656.822 -2272.09 -0.0252331 -0.0239894 -0.973542 34 33 39
-114.285 -649.702 -2274.58 0.221339 -0.204492 -0.944521 39 39 45
-108.727 -649.551 -2271.8 0.185495 -0.0827543 -0.952427 36 36 42
-107.183 -644.144 -2271.51 0.300603 -0.131799 -0.920024 37 37 44
-62.5095 -731.563 -2275.07 0.673462 -0.0737767 -0.703262 45 49 48
-56.5099 -725.659 -2272.06 0.631559 -0.199332 -0.740247 45 48 48
-57.139 -724.597 -2273.32 0.635621 -0.2274 -0.729998 45 48 48
-53.3269 -713.381 -2273.9 0.666296 -0.135535 -0.724901 46 47 49
-95.9163 -703.115 -2274.83 -0.392498 0.282114 -0.867573 49 52 51
-94.2132 -696.482 -2273.44 -0.396367 0.261768 -0.874347 47 50 50
-92.0564 -694.233 -2273.8 -0.407907 0.252069 -0.871158 47 49 50
-52.4879 -708.445 -2272.68 0.694576 -0.0331793 -0.706985 46 50 50
-50.3791 -705.215 -2270.41 0.730435 0.00838421 -0.675765 45 50 49
-50.7083 -699.112 -2270.79 0.72793 0.0532039 -0.670525 45 50 49
-51.2613 -689.395 -2269.45 0.697121 0.0545499 -0.669501 46 51 51
-286.7 -313.033 -2270.68 -0.443875 0.0966379 -0.883915 58 62 56
-280.917 -316.549 -2274.29 -0.476746 0.118764 -0.86587 60 63 57
-277.993 -313.078 -2275.05 -0.494444 0.180357 -0.84729 60 63 58
-275.439 -301.092 -2273.95 -0.531014 0.168919 -0.828212 62 65 58
-274.752 -296.023 -2273.79 -0.543176 0.147184 -0.825791 62 65 58
-275.479 -292.791 -2272.77 -0.552511 0.139242 -0.82204 62 64 58
-273.1 -283.103 -2272.87 -0.512717 0.11128 -0.848988 63 66 60
-276.387 -281.713 -2270.85 -0.530889 0.0706595 -0.842882 63 66 59
-275.758 -276.065 -2271.13 -0.47609 0.033102 -0.878244 62 66 59
-268.903 -277.177 -2274.33 -0.44092 0.116369 -0.88787 63 66 61
-262.706 -271.818 -2275.59 -0.306337 0.179671 -0.930374 61 64 61
-276.835 -263.929 -2270.07 -0.429309 0.0958922 -0.894702 64 66 59
-269.626 -270.123 -2273.13 -0.383108 0.107426 -0.913863 61 64 59
-261.723 -265.08 -2274.32 -0.224438 0.178262 -0.955831 61 63 61
-261.676 -260.847 -2273.53 -0.225446 0.161198 -0.958367 61 62 61
-252.447 -261.839 -2274.78 -0.193866 0.231718 -0.950682 61 63 63
-267.763 -255.123 -2271.09 -0.362102 0.220624 -0.89303 62 63 59
-259.566 -252.768 -2272.55 -0.258189 0.158057 -0.948214 60 62 60
-259.575 -247.89 -2271.87 -0.310875 0.163307 -0.932779 60 61 58
-250.029 -254.935 -2274.61 -0.207794 0.159821 -0.959782 59 62 61
-252.46 -250.435 -2273.86 -0.239973 0.124215 -0.958728 58 60 58
-97.006 -209.603 -2271.17 0.404529 -0.20032 -0.885725 34 32 38
-91.8018 -205.557 -2269.63 0.424385 -0.103344 -0.89941 34 31 38
-92.7399 -195.136 -2270.56 0.390185 -0.17579 -0.891925 29 26 33
-88.3133 -190.795 -2270.21 0.406237 -0.276112 -0.863405 28 25 32
-91.6391 -188.232 -2273.25 0.370695 -0.329287 -0.857108 28 26 33
-85.0191 -179.298 -2273.08 0.534855 -0.324059 -0.775913 28 26 32
-81.8166 -173.424 -2272.3 0.649567 -0.257701 -0.702785 28 26 32
-81.2281 -168.304 -2273.43 0.675921 -0.250334 -0.678815 29 27 33
-79.1996 -165.054 -2271.62 0.761161 -0.216548 -0.597052 29 27 33
-75.3428 -148.122 -2271.63 0.816049 -0.144795 -0.533421 31 28 34
-75.4398 -143.332 -2273.63 0.777778 -0.0648722 -0.613075 31 29 34
-75.3251 -132.399 -2274.24 0.729096 -0.0464588 -0.673573 30 28 34
-73.5731 -130.52 -2272.53 0.732659 -0.103743 -0.656801 29 27 33
-73.2887 -125.252 -2273.57 0.675398 -0.225818 -0.687212 29 27 33
-199.069 -1040.76 -2268.87 -0.602453 -0.0549477 0.792636 38 40 40
-199.504 -1036.76 -2268.21 -0.634652 -0.0873943 0.765083 38 39 39
-324.326 -1010.07 -2269.02 -0.702577 0.0783851 -0.175788 40 44 41
-319.623 -1010.35 -2267.3 -0.716904 0.115696 -0.255738 41 44 41
-328.361 -1004.76 -2267.25 -0.437299 0.0110404 -0.0368252 42 46 43
-318.738 -1005.47 -2263.56 -0.594635 0.0881726 -0.242431 41 45 42
-311.489 -1004.64 -2267.72 -0.424253 0.146224 -0.134487 39 42 39
-302.6 -998.57 -2265.08 -0.377802 0.119989 -0.155539 41 44 41
-295.754 -996.997 -2266.83 -0.239075 -0.00688419 -0.102292 40 43 40
-301.562 -968.491 -2268.72 -0.778563 -0.0258589 -0.619269 37 40 37
-301.142 -961.281 -2266.19 -0.857165 0.0028038 -0.443828 38 41 38
-309.374 -953.534 -2266.25 -0.904223 -0.233763 -0.370919 38 41 37
-309.931 -951.55 -2268.07 -0.883083 -0.228447 -0.429585 38 41 38
-298.735 -957.991 -2263.46 -0.769976 -0.0219752 -0.499662 40 44 41
-290.451 -859.778 -2265.91 -0.712138 -0.0733737 -0.699735 41 45 42
-291.541 -853.166 -2266.02 -0.731126 -0.0646262 -0.682718 42 46 43
-290.142 -846.964 -2267.3 -0.740365 -0.0394451 -0.673673 43 47 44
-291.641 -836.35 -2264.01 -0.722918 0.0048227 -0.688393 44 48 45
-246.664 -850.38 -2265.24 -0.248607 -0.137774 -0.465246 45 49 46
-246.633 -847.933 -2263.17 -0.271384 -0.109683 -0.647121 45 49 46
-245.432 -866.492 -2266.18 -0.163774 0.0364641 -0.193456 46 50 47
-209.27 -874.448 -2268.06 -0.41612 -0.158785 0.881668 43 47 44
-202.048 -884.217 -2264.39 -0.605823 -0.260931 0.727878 42 46 44
-210.321 -866.298 -2268.38 -0.420075 -0.0577856 0.897389 44 48 44
-204.719 -872.511 -2264 -0.59108 -0.132357 0.774433 42 46 43
-244.155 -855.494 -2263.6 -0.259571 -0.0989485 0.00186694 46 50 47
-210.6 -858.689 -2267.85 -0.46979 -0.0876166 0.872187 45 49 45
-212.22 -850.84 -2266.61 -0.514724 -0.138338 0.83962 46 50 46
-216.254 -844.645 -2268.16 -0.47995 -0.0944934 0.864467 47 51 47
-214.975 -835.903 -2267.53 -0.479284 0.0420577 0.87172 49 52 49
-309.302 -833.274 -2267.98 -0.763205 -0.138088 -0.630218 40 42 42
-314.163 -823.716 -2266.5 -0.74833 -0.183782 -0.636387 40 41 41
-302.415 -833.256 -2264.29 -0.762296 -0.0809742 -0.637341 38 41 41
-303.895 -829.992 -2263.44 -0.741323 -0.117104 -0.647834 38 41 40
-312.594 -822.05 -2269.4 -0.751771 -0.179162 -0.632926 40 42 42
-303.776 -821.254 -2266.21 -0.687639 -0.167864 -0.642263 39 41 41
-303.586 -815.201 -2267.47 -0.631151 -0.235216 -0.633327 40 43 42
-237.801 -638.495 -2263.1 -0.145102 0.0975479 0.0885113 43 45 51
-233.549 -626.93 -2264.5 0.0217418 0.0128046 -0.423519 41 43 50
-227.759 -615.842 -2263.85 -0.00998792 0.0182963 -0.374524 41 43 50
-205.905 -635.048 -2267.29 -0.588302 -0.0624869 0.814329 38 40 48
-205.82 -628.42 -2266.79 -0.569285 -0.00437353 0.833828 37 39 47
-205.676 -622.615 -2267.57 -0.59057 0.104074 0.818547 38 40 48
-203.266 -618.91 -2266.67 -0.657438 0.128088 0.76173 38 39 49
-222.928 -608.764 -2265.62 0.117256 -0.111387 -0.786454 40 42 49
-221.445 -606.429 -2267.32 0.183241 -0.150146 -0.909563 40 42 49
-221.797 -593.434 -2268.02 0.0341486 -0.0987674 -0.782807 40 42 49
-203.045 -613.447 -2267.6 -0.698015 0.162274 0.702751 38 40 50
-204.101 -605.371 -2268.53 -0.71594 0.111559 0.555321 37 40 50
-203.74 -600.958 -2266.34 -0.769997 0.0234457 0.467302 37 40 50
-206.337 -591.332 -2266.88 -0.767095 -0.138387 0.377564 38 39 49
-228.376 -579.619 -2264.14 0.0723319 -0.332203 -0.737732 40 42 49
-228.902 -577.268 -2266.8 0.0982943 -0.342363 -0.770582 40 42 49
-230.714 -569.484 -2265.72 -0.0988677 -0.283682 -0.505582 39 41 48
-208.231 -586.776 -2268.23 -0.767844 -0.159766 0.46997 38 39 49
-212.163 -573.272 -2268.7 -0.846861 -0.162805 0.499266 36 38 46
-213.697 -565.351 -2266.84 -0.907179 -0.186564 0.390785 36 37 44
-231.99 -555.44 -2264.98 -0.773858 -0.0933986 0.39194 37 38 45
-229.719 -541.427 -2264.87 -0.749028 -0.0446619 0.363474 29 29 35
-214.503 -562.298 -2266.71 -0.921461 -0.176307 0.37176 35 36 43
-216.695 -550.805 -2266.3 -0.879348 -0.124983 0.329805 30 29 37
-217.818 -541.857 -2267.42 -0.606428 -0.0585109 0.224752 25 24 31
-149.195 -878.455 -2265.48 -0.765438 0.0263939 -0.14097 43 46 45
-149.371 -869.594 -2265.21 -0.761139 0.00625938 -0.0855457 42 46 44
-150.051 -859.004 -2264.14 -0.814374 0.00503627 -0.266135 45 49 47
-150.072 -848.922 -2264.34 -0.853901 0.0242579 -0.514969 50 54 52
-148.816 -840.594 -2266.51 -0.771183 0.101581 -0.633712 52 56 55
-147.403 -871.783 -2267.56 -0.743796 -0.00511764 -0.090611 42 46 45
-147.543 -838.387 -2267.65 -0.727563 0.131154 -0.671252 53 57 56
-47.9423 -929.13 -2268.71 0.690192 0.0335685 -0.608374 43 48 44
-41.1657 -924.013 -2264.69 0.631798 -0.0365561 -0.649634 41 45 42
-41.8812 -917.922 -2266.62 0.62906 -0.0125985 -0.695701 40 44 41
-38.5318 -911.029 -2263.26 0.663968 0.0373477 -0.715097 40 45 42
-97.1822 -633.89 -2268.26 0.145818 -0.0627303 -0.936179 33 34 41
-94.7701 -630.893 -2268.7 0.0860017 -0.0791004 -0.949037 33 35 41
-90.015 -626.393 -2269.08 0.0446644 -0.106986 -0.967173 33 34 42
-44.0971 -627.066 -2269.36 0.682543 0.0744706 -0.681953 46 50 52
-38.6962 -623.875 -2263.89 0.619145 -0.0127091 -0.751421 47 51 53
-42.2823 -616.315 -2268.5 0.588804 -0.121928 -0.772196 49 53 55
-40.6329 -610.412 -2267.63 0.638695 -0.106624 -0.745609 51 54 57
-40.5335 -607.922 -2267.6 0.646517 -0.11017 -0.744434 51 54 57
-41.5815 -599.627 -2268.33 0.717705 -0.011587 -0.653984 48 51 54
-43.0212 -594.697 -2268.38 0.85635 0.117588 -0.509067 45 47 51
-278.949 -188.122 -2264.16 -0.575618 -0.276876 -0.758365 37 34 41
-273.241 -187.885 -2267.63 -0.536937 -0.144997 -0.811372 36 33 40
-274.47 -179.274 -2266.76 -0.501088 -0.0292833 -0.859857 32 29 36
-276.707 -176.38 -2265.35 -0.507978 -0.038763 -0.851564 32 29 36
-285.254 -163.658 -2264.1 -0.673965 -0.297187 -0.653216 32 29 36
-278.593 -167.606 -2266.17 -0.548935 -0.317371 -0.740677 31 29 36
-277.57 -164.399 -2268.52 -0.548866 -0.438476 -0.70424 31 28 35
-286.428 -154.772 -2267.2 -0.739485 -0.0671073 -0.667358 34 31 38
-284.306 -153.43 -2269.43 -0.696836 -0.0454484 -0.72676 35 32 39
-52.9894 -347.17 -2268.99 0.672413 0.134562 -0.725663 50 54 51
-47.0128 -390.14 -2267.71 0.679511 0.174175 -0.70442 52 56 53
-46.3548 -382.015 -2265.51 0.71806 0.134198 -0.669176 52 56 53
-45.552 -379.28 -2263.89 0.747259 0.123732 -0.641449 52 56 54
-47.741 -366.437 -2266.7 0.779876 0.0473655 -0.620012 53 57 53
-46.3835 -361.347 -2264.09 0.76751 0.0878151 -0.625204 52 56 52
-93.4169 -217.724 -2267.98 0.373692 -0.155961 -0.891736 33 32 38
-88.5798 -220.549 -2265.97 0.413264 -0.0204899 -0.878502 39 37 43
-86.6403 -212.996 -2265.67 0.448152 -0.111699 -0.881975 31 28 35
-90.2112 -205.066 -2268.92 0.424367 -0.103232 -0.899377 34 31 38
-88.845 -202.584 -2268.62 0.420445 -0.0971844 -0.901014 34 30 37
-81.0665 -199.407 -2263.7 0.574554 -0.14444 -0.799122 34 32 38
-82.2473 -193.423 -2265.82 0.509967 -0.18549 -0.830597 29 27 34
-84.5665 -188.963 -2268.73 0.45961 -0.285208 -0.836497 27 25 32
-81.624 -183.801 -2268.55 0.554165 -0.28893 -0.773316 28 25 32
-77.2032 -173.168 -2266.67 0.777998 -0.139835 -0.595535 30 27 33
-77.7375 -168.821 -2268.27 0.793654 -0.163755 -0.574884 30 27 33
-75.0206 -161.175 -2264.19 0.866225 -0.111277 -0.481751 32 29 35
-74.1847 -150.867 -2267.63 0.86222 -0.186704 -0.45989 31 29 34
-71.7421 -145.063 -2266.2 0.836999 -0.169302 -0.508757 31 29 34
-68.1589 -129.14 -2265.85 0.823434 -0.175515 -0.515697 26 25 32
-68.9915 -127.928 -2268.17 0.776428 -0.188075 -0.577964 27 26 32
-336.674 -985.022 -2265.15 0.153392 -0.116134 0.54557 47 51 48
-336.126 -988.706 -2266.71 0.12268 -0.112568 0.655144 47 51 48
-340.647 -990.907 -2275.77 0.126919 -0.0933101 0.517011 45 49 46
-382.878 -982.144 -2269.68 0.250553 -0.115429 0.498899 46 49 46
-380.11 -982.678 -2274.04 0.344448 -0.14908 0.695401 45 49 46
-374.099 -980.774 -2273.02 0.272089 -0.153483 0.489563 45 49 46
-371.481 -976.902 -2266.83 0.177733 -0.147984 0.185999 46 50 47
-367.504 -973.389 -2263.4 0.153312 -0.163346 0.152868 46 50 47
-366.266 -978.196 -2272.67 0.243055 -0.174128 0.477454 45 49 46
-362.824 -979.899 -2275.44 0.270102 -0.1719 0.547495 45 49 46
-356.353 -978.857 -2274.82 0.287552 -0.182235 0.602226 45 49 46
-349.927 -973.664 -2268.02 0.243035 -0.193717 0.482459 45 49 46
-352.949 -971.176 -2266.12 0.226682 -0.214763 0.47825 45 49 46
-344.187 -971.342 -2264.72 0.18198 -0.17818 0.281599 45 49 46
-350.376 -969.812 -2264.69 0.229128 -0.222949 0.485503 45 49 46
-341.913 -975.966 -2265.83 0.165738 -0.131722 0.172254 45 49 46
-253.641 134.424 -2273.85 -0.249083 0.634512 -0.591899 48 46 53
-260.724 137.42 -2264.46 -0.24485 0.662004 -0.543505 48 46 53
-254.376 138.488 -2267.35 -0.264601 0.647001 -0.494942 49 46 53
-253.947 136.952 -2270.26 -0.256688 0.634765 -0.553172 48 46 53
-246.908 140.752 -2268.58 -0.280378 0.686285 -0.408151 50 47 53
-318.592 -934.536 -2256.52 -0.89103 -0.110444 -0.536841 37 40 37
-316.345 -925.363 -2257.83 -0.779334 -0.0744591 -0.646632 38 41 38
-301.597 -929.321 -2260.28 -0.531234 -0.0334863 -0.768878 42 46 43
-305.912 -923.237 -2257.87 -0.688839 -0.11382 -0.673633 40 43 40
-313.73 -916.872 -2259.21 -0.718195 0.0286108 -0.671398 38 41 38
-309.528 -917.054 -2263.36 -0.715878 0.00181677 -0.689684 38 41 38
-307.837 -915.419 -2261.81 -0.718289 0.00668722 -0.682997 38 41 38
-303.178 -899.875 -2258.29 -0.303294 -0.0924864 -0.85048 43 47 44
-299.653 -900.771 -2258.58 -0.203983 -0.205848 -0.932106 45 49 46
-296.763 -896.098 -2260.23 -0.324633 -0.175602 -0.901897 44 48 45
-320.496 -873.877 -2259.16 -0.77538 -0.145823 -0.522962 39 42 40
-320.24 -864.813 -2261.14 -0.785895 0.0518345 -0.611083 40 42 42
-318.012 -878.743 -2257.28 -0.83553 -0.366659 -0.379834 39 42 39
-319.033 -875.984 -2260.88 -0.773417 -0.187859 -0.5059 39 42 40
-304.649 -877.539 -2262.95 -0.754736 -0.0779823 -0.58642 39 41 40
-305.212 -876.493 -2262.31 -0.742838 -0.0825662 -0.598687 39 42 41
-308.345 -862.449 -2257.01 -0.510563 0.0935576 -0.81076 44 47 44
-307.226 -864.41 -2258.4 -0.563037 0.0626776 -0.770123 43 46 44
-317.012 -856.398 -2259.24 -0.755914 0.218174 -0.606839 39 42 41
-315.534 -852.551 -2257.59 -0.75053 0.251381 -0.587958 39 42 40
-301.344 -858.276 -2262.76 -0.711149 0.0712758 -0.677512 40 43 41
-295.616 -859.575 -2260.13 -0.697701 -0.0711998 -0.70797 41 45 42
-305.857 -849.873 -2260.14 -0.768276 0.179908 -0.587229 39 42 41
-297.309 -848.634 -2259.22 -0.723643 -0.0271303 -0.687486 42 46 43
-304.852 -845.518 -2262.05 -0.77587 0.108037 -0.602044 39 41 41
-297.808 -844.966 -2257.83 -0.721357 -0.0124051 -0.69018 42 46 43
-295.995 -837.196 -2259.16 -0.720826 -0.0383751 -0.687232 42 46 43
-288.17 -930.878 -2263.03 -0.696721 0.0756073 -0.68668 43 47 44
-287.825 -927.328 -2261.6 -0.702843 0.116938 -0.67107 42 46 43
-222.484 -535.85 -2257.41 0.000786098 -0.320372 -0.209586 25 25 30
-220.871 -534.224 -2259.46 -0.224494 -0.192219 -0.0423618 23 23 28
-205.387 -536.837 -2261.53 -0.0692262 -0.178056 -0.0652053 22 21 27
-207.887 -534.361 -2261.26 0.0514215 -0.216571 -0.169186 22 21 26
-209.389 -527.033 -2257.6 0.505687 -0.405961 -0.502618 20 20 25
-196.561 -518.724 -2257.89 0.31651 -0.559779 -0.48838 25 25 29
-181.666 -1210.56 -2262.56 -0.382919 0.0915251 0.833807 138 104 95
-177.494 -1205.05 -2262.79 -0.398693 0.068846 0.883511 136 102 93
-171.529 -1198.31 -2258.85 -0.259308 0.276055 0.320126 123 96 88
-167.957 -1186.15 -2260.85 -0.181732 0.533579 -0.248545 85 66 61
-163.64 -1179.69 -2258.08 -0.27433 0.572387 -0.55848 85 64 57
-177.173 -1157.74 -2262.04 -0.719787 -0.372039 0.589942 136 105 95
-165.041 -1177.34 -2262.63 -0.512198 0.477754 -0.402675 108 81 69
-165.515 -1172.7 -2262.94 -0.766625 0.308481 -0.317579 126 93 78
-155.873 -1170.47 -2257.3 -0.685841 0.485214 -0.371915 98 70 57
-169.22 -1161.8 -2257.37 -0.792525 -0.0740124 0.0979627 114 87 78
-163.392 -1156.46 -2258.02 -0.724272 0.196454 -0.160897 122 91 78
-152.47 -1159.45 -2260.81 -0.824863 0.185724 -0.191898 146 108 91
-193.652 -1144.46 -2263.13 -0.264321 -0.589105 0.745148 195 150 136
-178.254 -1154.2 -2257.73 -0.744616 -0.493979 0.456723 143 111 100
-195.225 -1139.15 -2260.48 -0.265306 -0.502973 0.802294 196 150 133
-155.18 -747.885 -2257.65 -0.653931 0.0420442 -0.749761 47 49 53
-151.665 -739.789 -2258.86 -0.553578 0.106339 -0.820678 43 45 50
-146.871 -785.321 -2261.1 -0.585067 -0.0110756 -0.809105 45 48 49
-145.721 -768.861 -2262.59 -0.528685 -0.0371653 -0.842109 51 52 55
-146.096 -737.602 -2260.99 -0.425857 0.130963 -0.888415 42 44 48
-40.4713 -829.766 -2260.63 0.691287 -0.133485 -0.69127 46 50 48
-42.3922 -827.312 -2262.41 0.709907 -0.138378 -0.680896 45 49 47
-38.5186 -822.977 -2258.76 0.709967 -0.0986667 -0.684069 45 49 47
-36.5476 -811.385 -2258.56 0.730717 -0.04133 -0.662822 45 50 47
-39.235 -800.497 -2261.41 0.678571 -0.0147638 -0.717671 45 50 46
-39.828 -796.295 -2261.98 0.644337 -0.0348487 -0.743627 45 50 46
-34.8607 -796.511 -2257.6 0.671568 -0.0721972 -0.716001 44 50 46
-28.0221 -786.409 -2257.52 0.419671 -0.204949 -0.879919 45 49 47
-34.3248 -637.031 -2259.37 0.667585 0.198686 -0.712256 46 51 52
-37.9615 -624.03 -2262.99 0.613401 -0.0054875 -0.757531 47 51 53
-33.9937 -617.884 -2259.37 0.701783 -0.121317 -0.670159 48 52 54
-32.4986 -609.699 -2258.53 0.70486 -0.0399627 -0.699426 47 51 54
-30.8909 -606.004 -2257.12 0.69851 -0.0279821 -0.714687 47 51 54
-33.0783 -599.949 -2260.34 0.69465 -0.0154527 -0.687216 48 52 54
-31.8551 -593.221 -2259.93 0.639805 0.0891372 -0.739707 46 50 53
-37.6618 -589.154 -2262.69 0.727235 0.168777 -0.664899 45 49 52
-28.8973 -586.002 -2258.51 0.524441 0.0503921 -0.840741 46 50 53
-35.8309 -578.016 -2261.53 0.680139 -0.0347597 -0.710245 47 51 54
-33.0572 -574.603 -2261.69 0.525319 -0.015786 -0.779293 48 52 55
-26.7191 -572.992 -2257.37 0.400419 -0.0154945 -0.916232 46 50 53
-332.679 55.9124 -2258.38 -0.633 -0.171314 -0.753839 38 34 42
-330.786 53.1773 -2258.9 -0.642541 -0.147912 -0.750408 37 34 41
-328.866 59.0534 -2261.98 -0.620886 -0.113989 -0.771158 38 35 43
-335.151 61.0726 -2258.77 -0.623823 -0.193727 -0.7604 38 34 42
-334.15 69.1795 -2261.75 -0.543989 -0.12395 -0.816703 40 38 45
-341.493 73.3927 -2258.01 -0.522293 0.0210156 -0.782502 43 40 47
-334.053 75.4119 -2262.47 -0.523618 -0.000104687 -0.842293 42 40 47
-334.735 82.3917 -2261.59 -0.545533 0.0591227 -0.825671 42 40 46
-337.534 86.9573 -2258.87 -0.592513 0.12958 -0.777877 44 42 48
-330.164 90.8186 -2263.12 -0.570408 0.0763073 -0.816006 42 40 47
-330.729 99.9018 -2259.26 -0.640922 0.243252 -0.707292 45 44 51
-323.385 104.613 -2263.22 -0.554555 0.4268 -0.686998 42 42 50
-319.218 107.683 -2262.6 -0.498169 0.53444 -0.657304 45 45 52
-310.009 114.544 -2259.87 -0.364233 0.6571 -0.650239 49 47 55
-291.775 -920.133 -2255.64 -0.502373 -0.0361127 -0.841395 42 46 43
-293.743 -905.363 -2256.95 -0.380095 -0.169453 -0.898075 43 47 44
-197.304 -854.94 -2254.3 -0.704322 -0.0659796 0.687691 42 45 43
-201.106 -851.164 -2256.78 -0.670496 -0.0968799 0.724954 44 48 45
-197.235 -838.209 -2256.19 -0.516741 0.136864 0.830444 44 46 45
-326.732 -817.657 -2252.08 -0.746754 -0.0217659 -0.667628 36 40 38
-325.23 -814.012 -2254.29 -0.774092 -0.0381255 -0.633787 37 40 40
-317.235 -826.758 -2254.84 -0.706392 -0.105657 -0.687375 38 40 39
-300.453 -831.892 -2253.98 -0.697076 -0.138551 -0.700128 40 44 41
-300.569 -826.8 -2255.11 -0.701214 -0.158926 -0.693914 41 44 41
-315.048 -821.721 -2253.48 -0.697819 -0.0897117 -0.693435 39 42 40
-309.269 -811.647 -2250.13 -0.698096 -0.0934116 -0.687643 43 46 43
-301.367 -821.375 -2255.92 -0.708583 -0.191843 -0.679217 41 45 41
-306.568 -815.136 -2252.93 -0.684839 -0.122871 -0.695737 43 46 43
-325.216 -809.412 -2254.34 -0.798114 -0.0259459 -0.602744 38 42 41
-323.289 -801.924 -2256.35 -0.807441 0.0207385 -0.589742 39 42 42
-324.226 -797.469 -2254.32 -0.792205 0.0218443 -0.60949 39 41 41
-314.864 -806.757 -2251.36 -0.731986 -0.118156 -0.627252 43 45 43
-312.298 -807.705 -2253.37 -0.707306 -0.134116 -0.656668 43 46 43
-306.326 -808.751 -2257.16 -0.714991 -0.184912 -0.631198 43 46 43
-323.015 -777.545 -2254.83 -0.870719 -0.133016 -0.413116 40 43 42
-326.933 -768.885 -2253.14 -0.907754 -0.146676 -0.375124 40 42 42
-326.853 -762.752 -2256.96 -0.913656 0.0038063 -0.383743 40 42 42
-326.152 -754.238 -2253 -0.898686 0.201705 -0.371179 40 42 43
-323.529 -749.482 -2256.58 -0.931084 0.181118 -0.385618 41 43 43
-179.761 -1080.02 -2253.86 -0.539412 0.312321 0.760807 44 41 40
-178.392 -1070.13 -2257.13 -0.548219 0.225437 0.784657 48 45 43
-178.413 -1063.73 -2256.66 -0.668148 0.0398604 0.725391 45 42 40
-178.339 -1062.69 -2256.45 -0.691701 0.00567246 0.71267 44 41 40
-162.559 -1069.33 -2257.06 -0.695267 0.257717 -0.546604 46 45 43
-166.69 -1061.82 -2256.65 -0.780765 0.099552 -0.315592 47 47 45
-158.169 -1064.93 -2256.27 -0.768126 0.240213 -0.470958 43 44 42
-176.2 -1053.12 -2252.87 -0.599011 -0.0209918 0.782893 45 42 41
-183.742 -1045.02 -2256.5 -0.599026 -0.142798 0.784449 34 35 34
-184.072 -1038.42 -2254.83 -0.501185 -0.110068 0.831064 35 35 35
-181.61 -1042.72 -2254.42 -0.520084 -0.0900216 0.831243 37 37 36
-179.568 -1035.78 -2251.54 -0.182679 0.0324804 0.954323 40 40 40
-166.04 -1049.66 -2257.24 -0.496411 -0.359814 -0.720323 50 48 47
-77.4677 -1129.11 -2252.95 0.574023 -0.602212 -0.54012 49 51 45
-63.5027 -1118.99 -2255.7 0.457101 -0.741871 -0.488716 47 49 44
-56.4111 -1116.94 -2251.23 0.496019 -0.734613 -0.458366 48 50 44
-52.3238 -1114.13 -2252.28 0.497529 -0.723392 -0.470627 48 49 45
-46.0114 -1109.9 -2252.87 0.503844 -0.733813 -0.443615 48 49 45
-32.203 -768.216 -2256.61 0.439442 0.288809 -0.836508 43 47 45
-33.633 -764.931 -2255.69 0.521927 0.303801 -0.773873 43 47 45
-22.2662 -780.932 -2253.89 0.56019 -0.11735 -0.736045 47 51 48
-23.6882 -777.237 -2256.34 0.455574 -0.0132237 -0.852359 47 50 48
-35.8355 -759.583 -2256.37 0.580005 0.154434 -0.777157 46 50 49
-35.2096 -755.119 -2256.22 0.603856 0.00700136 -0.786616 48 53 51
-38.4928 -741.533 -2257.22 0.582225 0.102933 -0.803668 41 45 45
-28.8534 -745.616 -2252.48 0.552791 0.0381421 -0.826782 45 48 47
-31.9952 -742.199 -2253.6 0.539263 0.116911 -0.826849 44 48 47
-154.866 -735.198 -2256.39 -0.586056 0.0926356 -0.791512 40 42 47
-153.977 -726.059 -2255.74 -0.570126 0.114083 -0.800703 39 40 46
-154.448 -721.506 -2254.66 -0.592786 0.106192 -0.78368 40 41 48
-154.733 -714.764 -2254.18 -0.61691 0.0523366 -0.766156 41 43 49
-154.457 -708.497 -2255.74 -0.629207 -0.0687747 -0.760473 43 45 51
-156.39 -703.415 -2253.36 -0.733734 -0.0163344 -0.656095 41 43 49
-305.326 -290.314 -2251.67 -0.644784 0.275282 -0.700566 53 57 55
-299.333 -283.252 -2254.58 -0.627916 0.262217 -0.728231 55 59 57
-296.465 -280.314 -2256.33 -0.648523 0.221252 -0.72169 56 59 58
-297.222 -272.478 -2252.15 -0.728005 0.251944 -0.624632 54 57 55
-294.185 -264.956 -2251.9 -0.757856 0.279254 -0.588996 54 57 54
-294.423 -260.718 -2251.49 -0.787051 0.259585 -0.556792 57 60 57
-290.811 -253.011 -2252.99 -0.713265 0.207363 -0.649716 59 62 58
-288.436 -249.451 -2254.14 -0.662007 0.172449 -0.715208 60 61 58
-17.4517 -436.675 -2253.02 0.859774 0.0935252 -0.497466 51 55 53
-18.087 -434.473 -2253.95 0.848197 0.0921149 -0.51589 52 55 53
-23.4596 -419.069 -2254.93 0.702804 0.372907 -0.589365 52 56 54
-24.7284 -416.47 -2255.21 0.68154 0.38423 -0.616873 52 56 54
-30.151 -401.597 -2257.33 0.654338 0.182202 -0.730958 51 55 53
-29.8559 -394.056 -2253.87 0.683576 0.275637 -0.656739 50 54 52
-24.5358 -406.55 -2251.34 0.791083 0.198784 -0.558686 53 57 55
-29.5035 -391.408 -2252.01 0.706958 0.316324 -0.6146 50 54 52
-40.1581 -375.913 -2256.29 0.749198 0.168865 -0.626359 51 55 53
-38.6684 -374.543 -2254.45 0.754393 0.178793 -0.613876 51 55 52
-38.1787 -366.346 -2252.94 0.806853 0.0735653 -0.577461 51 55 52
-40.9701 -362.998 -2256.88 0.818999 0.0314742 -0.575306 51 55 52
-42.8207 -344.421 -2254.13 0.836808 0.0931051 -0.534164 49 53 50
-255.345 -824.802 -2259.59 -0.25092 -0.0199787 -0.129826 47 51 48
-252.206 -828.849 -2259.1 -0.242174 -0.0475516 -0.133133 47 51 48
-250.979 -833.666 -2260.37 -0.216599 -0.102481 -0.255995 46 50 47
-262.109 -811.971 -2258.04 -0.0991573 -0.0591729 0.516248 48 52 49
-258.735 -814.508 -2256.48 -0.163612 -0.0424984 0.22969 47 51 48
-257.772 -818.188 -2257.85 -0.216467 -0.0251727 0.0383695 47 51 48
-252.386 -819.768 -2253.94 -0.194967 -0.0301769 0.124627 47 51 48
-255.784 -820.148 -2257.47 -0.236209 -0.0212884 -0.0255979 47 51 48
-277.742 -796.373 -2260.83 -0.10098 -0.0292996 0.304719 46 51 48
-272.431 -794.764 -2255.56 -0.146681 -0.0407926 0.322311 47 51 48
-271.181 -798.737 -2255.9 -0.16174 -0.042842 0.27213 47 51 48
-264.959 -801.227 -2253.4 -0.156398 -0.0408683 0.267743 47 51 48
-259.092 -804.781 -2251.26 -0.157387 -0.0418604 0.282931 47 51 48
-262.655 -810.36 -2257.15 -0.119244 -0.0337669 0.523602 48 52 49
-267.655 -791.685 -2251.41 -0.156668 -0.0439257 0.347061 47 51 48
-242.687 -832.022 -2252.03 -0.243462 -0.087899 0.419533 46 50 48
-278.157 -775.04 -2252.71 -0.0756404 -0.0328394 0.927805 48 52 51
-273.836 -778.653 -2251.18 -0.103903 -0.0377149 0.713388 48 52 50
-282.199 -783.126 -2257.58 -0.0679504 -0.0309197 0.800733 48 52 50
-280.424 -768.393 -2253.04 -0.0744542 -0.0324413 0.933222 48 52 51
-293.456 -750.47 -2262.32 0.0609082 0.00537052 0.959805 50 54 52
-284.062 -751.411 -2252.73 -0.0405663 -0.0259565 0.939198 49 52 51
-287.373 -759.481 -2258.88 -0.0230929 -0.0231824 0.895821 49 52 51
-278.908 -760.447 -2250.34 -0.0736934 -0.0332185 0.949033 48 52 51
-286.298 -742.364 -2250.93 -0.198299 -0.0685356 0.617827 46 49 48
-290.833 -741.927 -2253.75 -0.444919 -0.175303 0.0863424 43 47 45
-294.791 -744.28 -2257.15 -0.630332 -0.264325 -0.327739 42 46 43
-237.218 148.588 -2254.85 -0.427126 0.71942 0.163778 66 56 58
-198.943 192.342 -2258.49 -0.537864 0.516115 0.12941 83 68 66
-199.607 192.098 -2260.17 -0.550097 0.459231 0.114796 90 72 69
-205.94 204.507 -2259.42 -0.723111 -0.0952089 -0.0812238 132 99 86
-208.325 207.261 -2253.58 -0.779595 -0.268906 -0.146783 147 109 93
-210.474 210.278 -2257.89 -0.773057 -0.253866 -0.13809 143 106 91
-218.608 305.671 -2259.22 -0.52782 0.470365 -0.66357 34 32 34
-220.178 299.586 -2261.1 -0.636915 0.28309 -0.455488 43 36 38
-217.29 316.876 -2252.63 -0.462464 0.578835 -0.664101 36 34 35
-212.817 312.302 -2257.98 -0.477578 0.543479 -0.655876 36 34 36
-220.597 308.951 -2256.31 -0.49968 0.508025 -0.701291 32 31 33
-206.197 317.338 -2257.87 -0.317383 0.563967 -0.654682 39 36 39
-201.664 316.454 -2260.79 -0.19129 0.535291 -0.661928 41 37 40
-211.012 319.658 -2253.77 -0.419836 0.601865 -0.647999 38 36 38
-200.834 320.13 -2258.46 -0.173409 0.55658 -0.663638 41 37 41
-197.535 322.662 -2257.88 -0.175452 0.562002 -0.659993 41 38 42
-197.231 327.371 -2253.85 -0.356236 0.601905 -0.642096 40 38 41
-225.249 -1157.09 -2247.03 0.928856 -0.112817 0.34065 145 103 84
-223.587 -1148.77 -2247.91 0.844074 -0.0165421 0.494061 130 97 82
-224.154 -1147.67 -2246.52 0.854501 -0.00153527 0.484678 131 99 83
-221.745 -1133.68 -2245.95 0.717739 -0.0835345 0.652021 122 93 81
-219.295 -1131.72 -2247.23 0.607993 -0.168483 0.702131 129 98 84
-347.108 -1095.39 -2247.53 0.501351 0.643503 0.564235 52 53 52
-361.53 -1082.58 -2248.55 0.547394 0.552906 0.614026 50 52 51
-351.978 -1093.13 -2246.46 0.503227 0.634813 0.573193 53 53 53
-334.544 -1101.72 -2249.91 0.340374 0.577802 0.6891 48 51 46
-338.055 -1098.98 -2250.89 0.348064 0.558792 0.699841 49 51 47
-369.568 -1067.54 -2247.52 0.683751 0.224296 0.672157 48 50 46
-363.359 -1076.07 -2251.24 0.557845 0.354415 0.747285 51 52 51
-367.744 -1073.55 -2246.94 0.709286 0.308088 0.621566 48 51 47
-369.772 -1054.37 -2249.47 0.620379 -0.085154 0.764277 46 49 46
-369.337 -1047.21 -2250.3 0.617474 -0.108138 0.766375 44 47 44
-369.209 -1041.23 -2248.21 0.629613 -0.244091 0.698584 42 46 41
-354.559 -487.53 -2247 -0.867705 -0.203769 -0.443733 48 52 51
-356.69 -473.102 -2245.58 -0.917774 0.0489203 -0.384746 47 51 50
-355.051 -470.348 -2247.95 -0.886699 0.0890882 -0.413075 50 54 53
-351.125 -459.362 -2250.6 -0.820809 0.252622 -0.507246 55 59 57
-348.868 -450.846 -2249.01 -0.806991 0.320782 -0.488264 56 60 56
-345.007 -445.002 -2249.49 -0.766264 0.374435 -0.521265 56 60 55
-214.939 -540.289 -2245.23 -0.216372 -0.179869 -0.0204518 22 21 28
-197.77 -530.876 -2245.55 0.637107 -0.503987 -0.649275 21 20 27
-168.461 -1188.85 -2248.01 0.00778665 0.616658 -0.57082 76 59 55
-165.312 -1181.53 -2248.94 -0.00796278 0.615995 -0.661444 71 55 51
-163.565 -1178.31 -2250.25 -0.193327 0.495043 -0.53917 78 60 54
-161.299 -1169.9 -2248.25 -0.625548 -0.0767767 -0.0455385 90 66 57
-164.377 -1164.78 -2249.01 -0.703561 -0.139972 -0.00607212 93 69 60
-169.469 -1159.69 -2250 -0.755338 -0.114054 0.163731 115 88 79
-176.803 -731.332 -2249.72 -0.719292 -0.0807188 0.575934 32 34 40
-176.928 -728.593 -2250.16 -0.725865 -0.081203 0.585066 32 34 40
-176.585 -716.52 -2248.86 -0.740149 -0.0723355 0.593791 32 34 39
-162.313 -731.656 -2249.12 -0.723202 0.105065 -0.665755 40 41 47
-160.985 -724.575 -2248.8 -0.758155 0.139116 -0.637968 41 41 48
-160.978 -712.894 -2246.15 -0.825125 0.131854 -0.544976 40 40 48
-195.089 -704.1 -2245.3 -0.750186 0.0675754 0.666704 30 32 37
-176.345 -702.422 -2248.92 -0.796211 -0.00793805 0.504286 30 32 37
-195.284 -693.778 -2246.02 -0.769846 0.0177575 0.633845 30 32 37
-177.012 -691.515 -2247.1 -0.807928 0.00988078 0.507199 30 32 36
-160.484 -702.986 -2245.96 -0.835695 0.0861006 -0.531082 37 38 45
-159.242 -706.191 -2248.9 -0.802323 0.0631697 -0.576442 39 41 47
-157.048 -692.504 -2248.5 -0.803755 0.0431888 -0.571249 40 42 48
-195.683 -680.787 -2246 -0.831332 0.0107087 0.541607 28 30 36
-178.319 -677.862 -2246.95 -0.890225 0.111597 0.385323 28 30 36
-195.903 -671.038 -2248.95 -0.764445 0.117905 0.609715 32 34 40
-178.381 -672.124 -2249.63 -0.896689 0.111406 0.356454 28 30 36
-178.297 -667.985 -2250.08 -0.900963 0.110675 0.346339 28 30 36
-155.466 -679.344 -2246.77 -0.859901 0.0977597 -0.497848 37 39 45
-153.58 -669.792 -2249.19 -0.873351 0.0274669 -0.493643 35 37 43
-193.132 -662.769 -2247.22 -0.874687 0.149148 0.454143 28 30 36
-192.851 -651.382 -2250.56 -0.859897 0.098762 0.498646 30 32 38
-178.016 -657.945 -2249.72 -0.882364 0.0784396 0.434601 29 31 37
-190.806 -651.399 -2247.02 -0.884225 0.0976031 0.458193 28 30 37
-192.376 -643.522 -2251.02 -0.859917 0.022224 0.504896 31 33 39
-180.125 -639.94 -2246.15 -0.873302 -0.0256562 0.424712 29 31 38
-156 -659.027 -2246.32 -0.859559 -0.0213237 -0.505445 38 40 46
-154.285 -656.652 -2250.41 -0.884793 -0.0282224 -0.466046 41 43 49
-60.2775 -280.833 -2250.77 0.798167 0.353298 -0.454809 54 57 55
-64.2487 -269.197 -2248.72 0.806536 0.330823 -0.472173 53 56 54
-67.9231 -253.607 -2250.64 0.794346 0.19252 -0.562716 51 54 52
-68.0294 -248.613 -2245.38 0.829227 0.35063 -0.414044 47 49 47
-75.4762 -235.302 -2250.67 0.850213 0.154544 -0.429141 83 80 78
-72.942 -242.972 -2249.35 0.808984 0.367086 -0.447657 58 58 55
-73.3187 -224.531 -2251.15 0.861526 -0.207384 -0.45395 52 51 57
-70.7342 -219.326 -2247.61 0.856051 -0.25883 -0.427387 37 36 42
-69.0489 -207.77 -2249.84 0.818732 -0.155319 -0.544959 32 30 35
-67.8481 -197.19 -2250.36 0.783863 -0.115781 -0.613824 33 32 39
-66.6191 -195.88 -2248.84 0.795941 -0.0955746 -0.598136 33 32 38
-65.027 -189.134 -2246.71 0.835068 0.00454006 -0.544723 30 29 34
-68.4945 -173.342 -2247.29 0.901834 0.041397 -0.41418 30 27 33
-366.606 -1027 -2239.82 0.539874 -0.282855 0.759574 41 45 42
-359.153 -1026.33 -2242.79 0.447299 -0.465346 0.699706 43 47 43
-362.225 -1020.58 -2241.14 0.485562 -0.215709 0.797125 42 46 43
-356.102 -1020.99 -2242.67 0.403791 -0.280757 0.783796 45 49 45
-357.638 -1014.44 -2242.63 0.462838 -0.0813901 0.831862 44 48 45
-364.482 -1012.02 -2240.16 0.547394 -0.0892057 0.818215 42 46 43
-354.601 -1015.48 -2243.14 0.398796 -0.0632405 0.850323 46 50 47
-352.093 -1010.85 -2244.25 0.381622 0.0975697 0.890635 48 52 49
-359.047 -1001.91 -2243.04 0.49711 -0.00222655 0.8677 46 50 47
-367.035 -1000.15 -2238.71 0.623805 0.00893122 0.790635 43 47 44
-353.158 -1004.53 -2244.88 0.407161 0.0794509 0.901401 48 52 49
-358.384 -992.451 -2243.21 0.448215 -0.0507471 0.917715 47 51 48
-362.682 -987.81 -2240.74 0.46144 -0.0922669 0.893045 46 50 47
-354.998 -984.434 -2244.19 0.37366 -0.211484 0.935863 47 51 48
-301.061 -1013.72 -2240.31 0.0585728 -0.159661 0.581395 49 52 49
-303.268 -1011.12 -2243.62 0.0583218 -0.141602 0.583078 49 52 49
-327.287 -1001.92 -2241.28 0.118511 0.0770313 -0.204321 48 52 49
-329.574 -998.83 -2241.15 0.14911 0.0514465 0.233851 48 52 49
-332.871 -989.552 -2239.98 0.0936299 -0.0207517 0.278375 47 51 48
-327.179 -989.506 -2243.88 0.182883 0.187502 -0.591008 46 51 48
-326.202 -987.677 -2243.8 0.172258 0.217562 -0.77099 46 51 48
-313.938 -1007.2 -2239.38 0.183227 -0.25358 0.900392 48 52 49
-318.207 -997.261 -2244.93 0.075342 0.178733 -0.563406 47 52 48
-314.526 -988.05 -2244.41 -0.196515 0.0619224 -0.22451 47 51 48
-12.8895 -1023.12 -2242.54 0.863318 -0.0669997 -0.309685 42 45 41
-11.9209 -1018.16 -2240.02 0.813051 -0.00379734 -0.317478 42 45 41
-11.4621 -1011.22 -2240.15 0.840899 0.024924 -0.299912 43 47 43
-12.1217 -1001.59 -2243.13 0.731916 0.165218 -0.536915 42 46 43
-1.33835 -1007.28 -2240.3 0.264733 -0.0541549 -0.937614 41 44 43
-7.19696 -996.337 -2239.76 0.418144 0.231859 -0.746534 41 45 42
-15.1634 -989.444 -2240.91 0.867515 0.143174 -0.425738 46 50 46
-17.3775 -987.539 -2243.43 0.845411 0.158103 -0.488601 47 51 48
-15.8663 -978.133 -2238.27 0.866728 0.21164 -0.399421 46 51 48
-18.4726 -976.173 -2241.57 0.851112 0.234333 -0.452022 47 52 49
-20.8502 -964.43 -2244.63 0.915997 -0.0352439 -0.331127 46 50 48
-17.5818 -952.456 -2241.78 0.924851 -0.238961 -0.271245 48 52 49
-16.3706 -939.698 -2240.31 0.844832 0.115735 -0.308717 45 49 46
-17.7745 -936.282 -2240.87 0.719075 0.276601 -0.456098 43 47 45
-174.356 -925.771 -2243.23 -0.264917 0.0618069 0.704429 50 51 51
-173.767 -915.772 -2241.56 -0.473911 0.00888821 0.510664 51 52 52
-19.6136 -658.562 -2242.28 0.826384 -0.00422006 -0.560866 44 48 49
-19.2885 -655.12 -2241.82 0.832597 -0.00962955 -0.550007 44 48 49
-21.1461 -647.425 -2243.98 0.843688 0.0268608 -0.522351 45 49 50
-187.258 -638.408 -2241.68 -0.864984 -0.0685343 0.472088 26 28 35
-187.05 -632.095 -2240.21 -0.855073 -0.100011 0.488735 26 28 35
-183.036 -634.872 -2239.35 -0.845567 -0.0867164 0.509746 27 29 35
-181.432 -631.324 -2243.64 -0.872317 -0.0936938 0.47103 29 31 37
-191.211 -617.878 -2242.1 -0.89747 -0.153637 0.432268 26 28 35
-181.595 -621.225 -2240.24 -0.814199 -0.0942932 0.405838 27 29 36
-180.835 -617.401 -2243.12 -0.858902 -0.0954808 0.394826 28 30 37
-160.976 -632.796 -2241.62 -0.738531 0.135154 -0.656986 36 38 44
-157.84 -631.735 -2244.03 -0.714517 0.184423 -0.666221 38 40 46
-153.517 -624.507 -2243.75 -0.657207 0.297038 -0.692844 37 39 45
-147.724 -615.135 -2244.87 -0.683765 0.251992 -0.680888 37 39 45
-195.155 -608.011 -2244.24 -0.892563 -0.135223 0.330576 29 31 39
-180.169 -609.551 -2245.12 -0.902873 -0.116189 0.313214 28 30 37
-195.355 -602.878 -2238.59 -0.887353 -0.168642 0.300469 27 30 38
-148.248 -608.345 -2243.06 -0.72294 0.110501 -0.68132 31 33 39
-154.06 -599.776 -2239.23 -0.731672 -0.023731 -0.665349 30 32 38
-154.95 -594.977 -2239.31 -0.783015 -0.116632 -0.593106 32 35 41
-66.198 -168.786 -2242.62 0.886046 -0.0612891 -0.437382 30 28 33
-63.6886 -166.255 -2239.83 0.85581 -0.106494 -0.488991 30 28 33
-62.5044 -159.39 -2239.69 0.836789 -0.2074 -0.503877 31 28 33
-59.5964 -141.537 -2241.3 0.916883 -0.0674509 -0.382271 31 29 34
-61.3413 -137.394 -2244.91 0.920329 -0.0202335 -0.381972 31 29 34
-59.4839 -134.054 -2240 0.917799 0.0218104 -0.387941 31 29 34
-62.3711 -117.924 -2243.82 0.905473 -0.194609 -0.252563 24 24 28
-59.4933 -114.792 -2241.8 0.87581 -0.263651 -0.31365 25 25 29
-53.0955 -105.303 -2239.62 0.861371 -0.348681 -0.350176 24 24 28
-49.7111 -96.0491 -2240.42 0.901709 -0.207032 -0.367495 25 25 29
-49.275 -90.259 -2240.99 0.907875 -0.151654 -0.387154 25 26 30
-48.7933 -82.4449 -2240.93 0.923337 -0.131405 -0.362604 25 25 29
-45.0763 -68.3277 -2240.97 0.889868 -0.3522 -0.264423 23 23 28
-41.4595 -62.6098 -2241.98 0.818951 -0.507646 -0.24236 21 22 26
-233.692 -784.924 -2240.83 -0.0175146 -0.0258477 0.717392 42 45 45
-235.398 -776.151 -2239.87 0.140291 -0.0343723 0.717478 40 42 43
-239.969 -775.986 -2240.25 -0.0712494 -0.0177277 0.789732 42 44 45
-230.859 -785.489 -2240.61 0.0747484 -0.0298236 0.688392 42 44 44
-222.041 -781.314 -2239.35 0.792225 -0.04263 0.424561 38 40 42
-245.616 -766.864 -2239.24 -0.217109 -0.0154628 0.842835 45 48 47
-229.786 -773.603 -2239.22 0.517737 -0.0703896 0.604318 37 39 41
-283.725 -731.835 -2248.38 -0.127509 -0.0175152 0.717969 45 48 48
-276.409 -737.212 -2245.2 -0.0551234 0.00764731 0.877708 46 49 49
-279.167 -736.874 -2246.47 -0.0576362 0.00548736 0.871095 46 49 49
-269.999 -729.256 -2242.19 -0.0474226 0.0238976 0.877755 45 48 49
-286.11 -724.2 -2249.3 -0.203381 -0.0359279 0.568816 45 48 48
-284.463 -715.474 -2249.7 -0.0955318 0.00563794 0.747329 45 48 48
-282.233 -716.529 -2248.49 -0.0187511 0.0286178 0.901151 45 48 48
-270.22 -721.514 -2242.66 -0.0425765 0.0298849 0.877339 45 47 48
-265.342 -724.479 -2240.36 -0.069231 0.0249247 0.794954 45 47 48
-265.493 -731.327 -2240.44 -0.0713849 0.0146194 0.804704 45 48 48
-260.14 -714.12 -2239.72 -0.0372606 0.0161263 0.830853 45 47 48
-261.627 -718.822 -2239.6 -0.0303878 0.0157209 0.797044 45 47 48
-262.205 -722.423 -2239.41 -0.0617837 0.0184216 0.765481 44 47 48
-280.242 -708.139 -2249.92 -0.0482689 0.0300319 0.85981 45 48 48
-273.575 -711.815 -2245.72 -0.0211988 0.0272002 0.9195 45 48 49
-269.456 -703.001 -2246.91 -0.0347727 0.01689 0.907094 45 48 48
-268.466 -711.721 -2243.64 -0.028447 0.0238635 0.908116 45 48 49
-269.406 -710.698 -2244.34 -0.0243873 0.0231862 0.907597 45 48 49
-257.644 -704.606 -2241.12 -0.00510321 0.00429494 0.795687 45 47 48
-259.496 -695.893 -2245.41 -0.032746 -0.00692432 0.642334 45 47 48
-260.506 -696.207 -2245.83 -0.0333682 -0.000954502 0.672285 45 47 48
-247.424 -691.336 -2239.64 -0.152369 0.0662105 0.721658 43 45 48
-258.681 -691.045 -2247.45 -0.0594586 -0.0230965 0.44158 45 48 49
-252.239 -695.783 -2240.68 -0.073149 0.0369102 0.771011 43 46 48
-248.348 -686.93 -2242.16 -0.345018 0.108898 0.641575 44 46 50
-252.562 -684.204 -2247.43 -0.243882 0.0461159 0.379575 44 46 49
-246.591 -677.752 -2245.47 -0.341464 0.0931062 0.47357 43 45 49
-246.407 -680.357 -2243.92 -0.357148 0.10605 0.551339 43 45 49
-247.491 -674.196 -2248.38 -0.34535 0.0896153 0.408235 43 45 49
-182.689 -1216.07 -2248.08 -0.323548 0.160233 0.620477 145 112 101
-177.292 -1207.82 -2248.09 -0.320674 0.14763 0.627219 146 113 101
-173.729 -1195.1 -2239.51 -0.307433 0.16168 0.600582 144 111 100
-171.562 -1193.95 -2243.76 -0.212416 0.304833 0.232729 122 94 86
-170.424 -1194.83 -2249.39 -0.111864 0.451623 -0.168595 99 77 70
-179.203 -597.127 -2243.38 -0.884103 -0.137096 0.267354 25 27 34
-179.089 -595.444 -2247.98 -0.87196 -0.110931 0.173413 26 29 35
-176.692 -578.66 -2241.98 -0.706248 0.0245434 0.339639 23 23 30
-177.918 -579.993 -2247.92 -0.769769 -0.0790054 0.0422814 26 27 34
-176.314 -568.707 -2240.38 -0.715319 -0.0545928 0.0220454 26 27 33
-177.247 -571.321 -2244.53 -0.741686 -0.0931583 -0.0898939 27 28 34
-176.222 -572.844 -2240.9 -0.705614 0.00105553 0.205209 25 25 32
-247.131 269.63 -2241.12 -0.780862 0.29898 0.0573624 36 28 31
-250.736 273.354 -2240.14 -0.771097 0.390798 0.124823 31 25 28
-246.376 274.188 -2245.25 -0.757118 0.333093 -0.120437 38 31 34
-234.486 253.171 -2245.09 -0.785449 -0.0741645 -0.277183 58 43 44
-236.606 252.754 -2239.98 -0.789973 -0.0899854 -0.431758 48 34 36
-230.451 246.001 -2246.6 -0.777636 -0.202718 -0.183263 117 87 76
-229.99 247.377 -2249.53 -0.778922 -0.180344 -0.150681 118 88 77
-236.42 258.909 -2247.93 -0.794222 0.0390799 -0.322549 43 33 36
-234.616 259.136 -2252.07 -0.789248 0.0607047 -0.171748 47 38 40
-244.681 269.854 -2244.8 -0.772519 0.240731 -0.130196 39 31 34
-243.199 264.138 -2241.19 -0.788396 0.145874 -0.329148 36 26 29
-245.917 282.228 -2249.66 -0.733873 0.383778 -0.252047 41 34 37
-204.033 329.17 -2248.32 -0.448647 0.634739 -0.627307 42 39 42
-202.833 332.551 -2245 -0.454806 0.635832 -0.621615 42 40 43
-197.183 338.348 -2242.09 -0.460086 0.640827 -0.610481 43 42 45
-196.744 337.815 -2242.99 -0.459641 0.639369 -0.612323 43 41 45
164.528 45.0077 -2238.38 -0.0567262 -0.200373 0.921182 237 208 198
-218.245 -887.426 -2236.68 0.862324 0.0226892 0.506035 57 55 57
-218.668 -881.064 -2234.73 0.901777 0.00380568 0.467181 56 56 57
-218.775 -869.3 -2238.58 0.831685 0.0268668 0.489981 60 61 63
-219.151 -862.438 -2236.12 0.904941 0.0112217 0.415396 49 50 52
-219.057 -850.88 -2233.91 0.936025 -0.00733649 0.347395 39 41 41
-218.815 -847.055 -2233.7 0.939002 -0.0105663 0.344004 38 40 41
-326.94 -832.813 -2233.6 -0.34289 0.0114218 -0.922882 47 49 47
-327.411 -827.283 -2233.62 -0.338699 -0.026352 -0.914265 47 49 46
-320.603 -829.126 -2237.98 -0.517563 -0.00389201 -0.849956 45 47 45
-320.218 -818.609 -2237.11 -0.579086 0.086065 -0.794365 45 46 44
-218.545 -833.097 -2238.15 0.841619 0.00708663 0.396004 37 39 40
-218.552 -825.259 -2235.04 0.867228 0.00190517 0.353915 36 38 39
-218.804 -820.228 -2237.04 0.716869 -0.00637928 0.40939 37 40 41
-218.521 -809.951 -2235.62 0.785987 -0.0289231 0.392947 37 39 41
-218.923 -797.378 -2238.4 0.556987 -0.0476066 0.476682 40 42 43
-218.245 -791.234 -2233.51 0.91253 0.00459893 0.318413 36 38 41
-225.422 -768.462 -2237.86 0.872328 -0.116419 0.475846 36 37 39
-229.737 -767.674 -2238.3 0.780893 -0.0974023 0.511144 36 38 40
-219.483 -783.144 -2235.33 0.922075 -0.019868 0.340188 36 38 41
-218.998 -776.603 -2233.18 0.920521 -0.0808316 0.373422 35 37 40
-219.89 -765.114 -2234.56 0.877425 -0.165329 0.446934 36 38 40
-225.466 -758.68 -2236.01 0.857412 -0.158715 0.470866 37 39 40
-228.882 -755.013 -2235.74 0.797011 -0.160186 0.490658 37 39 41
-224.487 -752.207 -2234.64 0.812808 -0.188693 0.492771 37 39 40
-216.736 -754.248 -2232.17 0.801551 -0.228856 0.531211 36 38 40
-220.465 -741.062 -2233.38 0.834094 -0.200278 0.49366 33 35 37
-172.328 -1037.09 -2237.45 -0.568379 0.0109245 0.672335 51 51 51
-172.029 -1033.93 -2234.52 -0.769816 -0.0303507 0.525488 53 53 53
-60.6248 -1124.87 -2235.96 0.551355 -0.788831 -0.285132 49 50 45
-53.0052 -1120.3 -2234.6 0.554013 -0.788408 -0.213613 49 51 46
-48.3215 -1117.36 -2234.91 0.558281 -0.793339 -0.171301 49 52 47
-32.8457 -1108.89 -2236.34 0.530144 -0.796277 -0.218394 49 50 47
-26.6885 -1106.67 -2237.46 0.513008 -0.725482 -0.329376 47 48 46
-22.076 -1104.13 -2237.9 0.501226 -0.621276 -0.452883 45 46 45
-8.78556 -1099.77 -2233.4 0.56686 -0.171805 -0.587098 46 47 45
-3.86479 -1097.87 -2234.51 0.499112 -0.00511729 -0.801505 41 41 41
-0.18582 -1089.38 -2237.44 0.399228 -0.353002 -0.73353 38 38 38
-0.366448 -1079.46 -2234.94 0.755728 -0.353497 -0.347004 44 46 44
-1.05968 -1064.2 -2238.87 0.939743 -0.0380498 -0.0896633 51 53 50
-0.901215 -1060.28 -2235.73 0.943379 0.0254958 -0.186192 49 52 48
-2.66265 -1054.02 -2235.01 0.907681 0.195039 -0.311845 45 49 44
-4.12096 -1049.95 -2233.07 0.878145 0.300926 -0.367312 45 49 44
-177.148 -689.144 -2233.73 -0.610434 -0.0630555 0.380393 32 33 39
-164.73 -707.413 -2237.28 -0.738802 0.147604 -0.662518 31 33 38
-163.782 -702.967 -2238.19 -0.751249 0.124567 -0.622396 32 34 39
-163.801 -692.569 -2234.83 -0.80427 0.111334 -0.592893 32 34 40
-192.287 -688.952 -2239.45 -0.813791 -0.112263 0.538187 33 35 40
-178.225 -682.503 -2237.22 -0.7433 0.0429778 0.347617 33 35 41
-181.071 -676.908 -2233.06 -0.542982 -0.0616965 0.412324 39 40 47
-189.681 -671.371 -2234.32 -0.677986 0.030513 0.57717 40 41 48
-182.526 -673.02 -2232.45 -0.497073 -0.0519501 0.504063 35 36 43
-180.975 -668.426 -2237.77 -0.719012 0.062478 0.450474 29 30 37
-164.721 -682.497 -2233.42 -0.800478 -0.00617163 -0.635068 28 30 35
-162.163 -674.964 -2236.4 -0.798309 0.0262543 -0.65529 29 31 36
-162.376 -669.604 -2234.91 -0.760674 0.0858428 -0.664623 26 28 34
-186.073 -658.009 -2237.94 -0.840143 0.134503 0.496962 25 27 33
-182.565 -655.408 -2237.24 -0.849705 0.0924082 0.492306 26 28 34
-183.626 -639.948 -2237.84 -0.832204 -0.044683 0.514946 25 28 34
-162.998 -657.166 -2234.13 -0.811906 -0.00188513 -0.576484 33 35 40
-165.195 -648.333 -2235.68 -0.807405 -0.118647 -0.599075 33 35 41
-165.69 -641.954 -2237.53 -0.7949 -0.0675472 -0.635548 32 34 40
-16.9221 -727.417 -2238.03 0.69376 0.241195 -0.629953 42 45 45
-17.0775 -723.566 -2234.41 0.79898 0.293095 -0.446069 42 46 45
-21.1194 -717.504 -2236.14 0.733512 0.236664 -0.558475 43 47 46
-21.2141 -702.528 -2234.62 0.788208 0.0151997 -0.520983 42 47 46
-24.0767 -699.64 -2238.14 0.678202 0.0366506 -0.654758 41 45 46
-16.9152 -688.521 -2233.36 0.857014 -0.239172 -0.430712 44 48 47
-210.254 206.139 -2236.64 -0.769022 -0.455217 -0.0840391 99 75 65
-202.882 199.494 -2237.66 -0.706367 -0.196104 -0.0637785 95 75 67
