ply
format ascii 1.0
comment Created by Open3D
element vertex 1356
property double x
property double y
property double z
property uchar red
property uchar green
property uchar blue
end_header
-19.6757 -697.113 -1631 167 164 169
-16.1963 -694.966 -1626 171 168 173
-12.7303 -692.392 -1620 171 168 173
-9.31843 -691.958 -1619 173 170 175
-5.88168 -688.107 -1610 178 175 180
-2.49502 -687.677 -1609 184 181 186
0.885551 -685.967 -1605 182 179 184
4.26013 -685.969 -1605 179 176 181
7.62503 -685.118 -1603 177 173 178
10.9884 -684.696 -1602 177 173 178
14.3031 -682.139 -1596 176 173 178
17.6148 -680.439 -1592 176 173 180
20.9359 -679.596 -1590 176 173 178
24.249 -678.755 -1588 176 173 176
27.5367 -677.489 -1585 179 176 179
30.8117 -676.224 -1582 181 178 181
34.0312 -674.106 -1577 189 186 189
37.2065 -671.563 -1571 191 188 191
40.2536 -667.312 -1561 191 188 192
43.5102 -666.91 -1560 192 189 192
46.6727 -665.227 -1556 191 188 191
49.8831 -664.402 -1554 198 195 198
53.0857 -663.578 -1552 202 199 202
56.3164 -663.183 -1551 203 200 203
59.5436 -662.791 -1550 202 199 202
62.8075 -662.828 -1550 203 200 203
66.1574 -663.723 -1552 201 198 201
69.4266 -663.764 -1552 202 199 202
72.6965 -663.807 -1552 201 198 201
75.9672 -663.852 -1552 202 199 202
79.1874 -663.471 -1551 206 203 206
82.5105 -663.948 -1552 208 205 208
85.7833 -663.999 -1552 207 204 207
89.1142 -664.48 -1553 203 200 202
92.6286 -666.247 -1557 202 199 200
96.099 -667.588 -1560 202 199 202
99.3281 -667.22 -1559 201 198 202
102.883 -668.993 -1563 200 197 202
106.388 -670.341 -1566 196 193 196
109.907 -671.691 -1569 211 208 211
113.727 -674.756 -1576 210 207 210
117.653 -678.251 -1584 212 209 212
121.537 -681.322 -1591 215 212 215
125.138 -682.681 -1594 218 215 218
128.833 -684.472 -1598 212 209 212
132.216 -684.551 -1598 118 115 122
-228.573 -689.331 -1593 85 83 90
-224.87 -688.325 -1591 197 196 203
-220.622 -685.593 -1585 209 208 215
-216.675 -683.728 -1581 206 207 213
-212.207 -680.136 -1573 200 202 208
-207.112 -674.387 -1560 199 201 207
-202.989 -671.667 -1554 198 200 207
-199.278 -670.247 -1551 198 200 207
-195.204 -667.533 -1545 198 200 207
-192.026 -667.846 -1546 199 201 208
-188.602 -667.297 -1545 204 206 213
-185.423 -667.614 -1546 210 211 218
-181.535 -665.342 -1541 210 212 217
-178.364 -665.663 -1542 210 212 216
-174.964 -665.123 -1541 206 210 211
-171.68 -665.017 -1541 203 206 208
-168.18 -664.049 -1539 203 205 209
-165.118 -664.81 -1541 207 207 211
-161.629 -663.847 -1539 209 209 213
-158.254 -663.318 -1538 210 210 214
-155.085 -663.653 -1539 209 209 213
-151.716 -663.127 -1538 200 200 204
-148.546 -663.467 -1539 192 192 196
-145.373 -663.808 -1540 189 190 194
-142.197 -664.151 -1541 189 189 193
-138.837 -663.634 -1540 188 189 193
-135.836 -664.842 -1543 187 187 191
-132.651 -665.191 -1544 185 185 188
-129.547 -665.972 -1546 189 190 192
-126.517 -667.186 -1549 203 203 207
-123.475 -668.402 -1552 208 208 211
-120.422 -669.619 -1555 211 211 214
-117.358 -670.838 -1558 211 211 215
-114.647 -674.212 -1566 213 213 217
-111.549 -675.435 -1569 214 214 218
-108.646 -677.95 -1575 212 212 216
-105.651 -680.037 -1580 200 200 204
-102.572 -681.695 -1584 191 191 195
-99.4137 -682.924 -1587 188 188 192
-96.1833 -683.725 -1589 184 184 188
-93.1206 -685.818 -1594 180 179 186
-90.094 -688.344 -1600 174 173 178
-87.0428 -690.871 -1606 174 174 178
-83.9671 -693.4 -1612 187 187 191
-80.567 -693.35 -1612 188 188 192
-77.3589 -695.022 -1616 178 178 182
-73.9518 -694.976 -1616 184 182 186
-70.7199 -696.652 -1620 185 184 187
-67.3472 -697.04 -1621 157 157 159
-64.0497 -698.29 -1624 127 124 127
-60.5535 -697.392 -1622 64 61 65
-57.3481 -699.936 -1628 54 51 57
-36.4422 -693.316 -1613 55 52 59
-33.3957 -700.602 -1630 65 62 70
-30.0021 -701.443 -1632 131 128 134
-26.5514 -700.996 -1631 154 151 156
-23.162 -702.27 -1634 159 156 161
-19.6876 -700.967 -1631 166 163 168
-16.246 -700.527 -1630 170 167 172
-12.7773 -698.369 -1625 172 169 174
-9.35295 -697.933 -1624 172 169 174
-5.90331 -694.06 -1615 172 169 174
-2.50576 -694.058 -1615 177 174 179
0.887904 -691.049 -1608 183 180 185
4.26806 -690.621 -1607 182 179 184
7.63452 -689.335 -1604 182 178 184
11.0021 -688.911 -1603 180 176 182
14.3208 -686.34 -1597 177 174 179
17.6254 -684.201 -1592 175 172 179
20.9488 -683.354 -1590 177 174 179
24.2485 -682.078 -1587 179 176 179
27.5186 -680.375 -1583 179 176 179
30.7915 -679.103 -1580 183 180 183
34.0088 -676.974 -1575 191 188 191
37.1818 -674.416 -1569 193 189 194
40.3297 -671.861 -1563 192 189 193
43.5644 -671.027 -1561 191 188 191
46.7913 -670.195 -1559 196 193 196
49.8813 -667.645 -1553 208 205 208
53.1523 -667.677 -1553 211 208 211
56.3871 -667.28 -1552 203 200 203
59.5799 -666.455 -1550 196 193 196
62.8457 -666.493 -1550 196 193 196
66.2403 -667.822 -1553 193 190 193
69.5136 -667.864 -1553 190 187 190
72.7408 -667.477 -1552 191 188 191
76.0136 -667.523 -1552 198 195 198
79.2358 -667.14 -1551 207 204 207
82.5075 -667.189 -1551 211 208 211
85.7801 -667.241 -1551 210 207 210
89.1684 -668.155 -1553 206 203 204
92.685 -669.931 -1557 203 200 201
96.096 -670.849 -1559 203 200 203
99.5163 -671.77 -1561 202 199 203
103.012 -673.123 -1564 200 197 202
106.453 -674.048 -1566 196 193 195
110.044 -675.836 -1570 209 206 208
113.725 -678.057 -1575 212 209 211
118.096 -684.155 -1589 214 211 214
121.917 -686.812 -1595 215 212 215
125.607 -688.61 -1599 219 216 219
129.073 -689.119 -1600 212 209 212
132.462 -689.199 -1600 111 108 115
-228.715 -693.133 -1593 102 101 108
-225.292 -692.992 -1593 196 195 202
-220.897 -689.809 -1586 205 204 211
-216.808 -687.499 -1581 207 207 214
-212.203 -683.452 -1572 196 198 205
-207.107 -677.671 -1559 196 198 204
-202.983 -674.936 -1553 194 197 203
-199.016 -672.639 -1548 194 197 204
-195.451 -671.648 -1546 196 198 205
-192.145 -671.528 -1546 198 200 207
-188.84 -671.41 -1546 201 203 210
-185.657 -671.728 -1547 207 206 214
-182.119 -670.747 -1545 207 208 214
-178.706 -670.201 -1544 205 207 211
-175.185 -669.224 -1542 199 202 203
-171.786 -668.683 -1541 195 198 200
-168.393 -668.144 -1540 194 196 200
-165.113 -668.041 -1540 195 195 199
-161.729 -667.506 -1539 195 195 199
-158.454 -667.407 -1539 191 191 195
-155.18 -667.311 -1539 188 188 192
-151.809 -666.782 -1538 188 188 192
-148.734 -667.557 -1540 187 187 191
-145.462 -667.466 -1540 185 187 191
-142.376 -668.244 -1542 183 185 189
-139.103 -668.158 -1542 182 184 187
-135.919 -668.506 -1543 186 186 190
-132.818 -669.29 -1545 187 187 190
-129.626 -669.642 -1546 185 185 187
-126.676 -671.296 -1550 194 194 197
-123.551 -672.085 -1552 201 201 204
-120.574 -673.742 -1556 206 206 208
-117.58 -675.401 -1560 207 207 211
-114.644 -677.494 -1565 209 209 213
-111.831 -680.455 -1572 211 211 215
-108.781 -682.118 -1576 207 207 211
-105.582 -682.918 -1578 196 196 200
-102.699 -685.883 -1585 192 192 196
-99.5372 -687.119 -1588 187 187 191
-96.2422 -687.492 -1589 183 183 187
-93.236 -690.03 -1595 181 180 187
-90.2054 -692.569 -1601 184 184 189
-87.2587 -695.975 -1609 192 192 196
-84.0705 -697.653 -1613 197 197 201
-80.7162 -698.035 -1614 186 186 190
-77.4542 -699.283 -1617 182 182 186
-74.0428 -699.237 -1617 187 187 189
-70.8069 -700.922 -1621 181 181 183
-67.5546 -702.609 -1625 154 154 156
-64.3256 -704.731 -1630 134 131 134
-60.7772 -703.395 -1627 65 62 67
-57.5593 -705.953 -1633 57 54 59
-36.6227 -700.161 -1620 55 52 59
-33.4775 -705.758 -1633 62 59 67
-30.0203 -705.306 -1632 121 118 124
-26.5676 -704.857 -1631 154 151 156
-23.176 -706.138 -1634 159 157 162
-19.7238 -705.693 -1633 165 163 167
-16.2759 -705.25 -1632 170 167 172
-12.8245 -704.376 -1630 171 168 173
-9.37579 -703.073 -1627 172 169 174
-5.92153 -699.612 -1619 171 168 173
-2.51362 -699.609 -1619 170 167 172
0.891712 -697.448 -1614 173 170 175
4.28398 -696.585 -1612 179 176 181
7.6488 -693.996 -1606 185 180 188
11.0157 -693.138 -1604 184 179 186
14.3475 -690.985 -1599 180 177 182
17.6584 -688.834 -1594 178 175 182
20.988 -687.982 -1592 178 175 180
24.2941 -686.699 -1589 179 176 179
27.5876 -685.419 -1586 181 178 181
30.8494 -683.708 -1582 187 184 187
34.116 -682.431 -1579 192 189 192
37.2758 -679.428 -1572 194 190 195
40.4578 -677.291 -1567 192 189 193
43.675 -676.02 -1564 189 186 189
46.85 -674.319 -1560 194 191 194
50.0084 -672.62 -1556 204 201 204
53.1848 -671.354 -1553 205 202 205
56.3853 -670.523 -1551 202 199 202
59.6164 -670.127 -1550 198 195 198
62.9249 -670.597 -1551 196 193 196
66.2808 -671.501 -1553 193 190 193
69.601 -671.975 -1554 189 186 189
72.8324 -671.587 -1553 189 186 189
76.1091 -671.632 -1553 197 194 197
79.3353 -671.248 -1552 205 202 205
82.6647 -671.73 -1553 211 208 211
85.9435 -671.782 -1553 212 209 212
89.338 -672.701 -1555 209 206 208
92.8013 -674.055 -1558 208 205 207
96.3398 -675.844 -1562 205 202 205
99.7048 -676.337 -1563 201 198 202
103.141 -677.264 -1565 199 196 200
106.654 -678.627 -1568 196 193 196
110.251 -680.425 -1572 206 203 206
113.867 -682.226 -1576 213 210 213
118.095 -687.492 -1588 214 211 214
122.068 -691.03 -1596 212 209 212
125.684 -692.405 -1599 217 215 217
129.314 -693.782 -1602 208 208 210
132.461 -692.564 -1599 93 89 97
-230.006 -700.442 -1601 111 109 117
-226.423 -699.862 -1600 193 192 200
-221.871 -696.223 -1592 201 200 207
-217.629 -693.463 -1586 210 211 218
-212.605 -688.082 -1574 197 199 206
-207.9 -683.58 -1564 197 199 205
-203.371 -679.519 -1555 196 198 204
-199.525 -677.645 -1551 193 196 203
-195.699 -675.775 -1547 195 196 205
-192.264 -675.217 -1546 197 198 207
-188.957 -675.099 -1546 197 199 206
-185.532 -674.545 -1545 201 200 208
-181.996 -673.558 -1543 204 204 211
-178.817 -673.882 -1544 202 204 209
-175.18 -672.463 -1541 197 199 201
-171.892 -672.355 -1541 194 196 198
-168.497 -671.813 -1540 189 191 195
-165.215 -671.71 -1540 190 190 194
-161.829 -671.172 -1539 189 189 193
-158.655 -671.509 -1540 186 186 190
-155.377 -671.411 -1540 185 185 189
-152.199 -671.752 -1541 190 190 194
-148.922 -671.659 -1541 191 191 195
-145.93 -672.875 -1544 184 186 190
-142.649 -672.785 -1544 180 182 185
-139.369 -672.698 -1544 180 182 184
-136.179 -673.048 -1545 183 183 187
-132.9 -672.965 -1545 180 180 184
-129.79 -673.755 -1547 174 174 178
-126.754 -674.982 -1550 183 183 187
-123.707 -676.211 -1553 193 193 197
-120.725 -677.877 -1557 193 193 195
-117.653 -679.109 -1560 199 198 202
-114.935 -682.519 -1568 205 205 209
-111.9 -684.19 -1572 204 204 208
-109.055 -687.168 -1579 197 197 201
-105.848 -687.972 -1581 195 195 199
-102.633 -688.778 -1583 194 194 198
-99.4103 -689.586 -1585 190 190 194
-96.4833 -692.571 -1592 189 189 193
-93.4105 -694.687 -1597 193 192 199
-90.6556 -699.415 -1608 201 200 205
-87.4752 -701.1 -1612 206 206 210
-84.331 -703.222 -1617 195 195 199
-81.0161 -704.04 -1619 184 184 188
-77.6456 -704.426 -1620 191 191 195
-74.2258 -704.379 -1620 190 190 192
-71.0252 -706.508 -1625 176 176 178
-67.7209 -707.77 -1628 155 155 157
-64.5231 -710.337 -1634 137 134 137
-61.0762 -710.299 -1634 66 63 67
-57.771 -712.001 -1638 57 54 59
-36.6904 -704.873 -1622 52 49 56
-33.5391 -710.5 -1635 55 52 60
-30.0939 -710.481 -1635 113 110 116
-26.6328 -710.029 -1634 155 152 157
-23.2045 -710.448 -1635 159 159 163
-19.7479 -710 -1634 163 162 166
-16.2957 -709.554 -1633 167 164 169
-12.8323 -708.242 -1630 168 165 170
-9.37583 -706.497 -1626 170 167 172
-5.93247 -704.32 -1621 173 170 175
-2.51042 -702.145 -1616 170 167 172
0.890759 -699.972 -1611 168 165 170
4.28131 -699.539 -1610 170 167 172
7.65338 -697.805 -1606 176 171 179
11.0226 -696.942 -1604 181 177 183
14.3564 -694.777 -1599 183 180 185
17.6804 -693.049 -1595 182 179 186
20.9746 -690.888 -1590 181 178 183
24.2938 -690.033 -1588 181 178 181
27.5873 -688.746 -1585 183 180 183
30.8098 -686.157 -1579 189 186 189
34.0723 -684.873 -1576 192 189 192
37.275 -682.722 -1571 194 191 195
40.4828 -681.008 -1567 193 190 193
43.6739 -679.295 -1563 188 185 188
46.9089 -678.454 -1561 193 190 193
50.0392 -676.311 -1556 199 196 199
53.286 -675.908 -1555 200 197 200
56.42 -674.203 -1551 199 196 199
59.6917 -674.239 -1551 195 194 196
62.9636 -674.277 -1551 192 192 194
66.2791 -674.752 -1552 194 191 194
69.5991 -675.229 -1553 194 191 194
72.8773 -675.273 -1553 195 192 195
76.205 -675.754 -1554 200 197 200
79.4355 -675.367 -1553 205 202 205
82.7689 -675.852 -1554 208 205 208
86.0517 -675.904 -1554 212 209 212
89.4506 -676.828 -1556 210 207 210
92.8586 -677.755 -1558 207 204 207
96.3375 -679.118 -1561 202 199 202
99.7025 -679.614 -1562 200 197 200
103.204 -680.982 -1565 199 196 200
106.72 -682.353 -1568 196 193 198
110.249 -683.725 -1571 206 203 208
114.154 -687.277 -1579 212 209 213
118.242 -691.702 -1589 211 208 211
122.22 -695.259 -1597 213 210 213
125.998 -697.512 -1602 217 215 217
129.555 -698.462 -1604 206 205 207
132.957 -698.544 -1604 81 76 84
135.084 -692.094 -1589 54 49 58
-230.725 -706.037 -1605 112 110 118
-227.131 -705.453 -1604 189 188 196
-222.289 -700.915 -1594 197 196 203
-217.903 -697.699 -1587 211 212 219
-212.738 -691.849 -1574 201 203 210
-207.764 -686.443 -1562 200 202 208
-203.236 -682.36 -1553 198 200 206
-199.65 -681.355 -1551 194 197 204
-195.568 -678.595 -1545 194 195 205
-192.259 -678.474 -1545 195 196 205
-188.953 -678.355 -1545 194 196 203
-185.768 -678.676 -1546 198 197 205
-182.345 -678.122 -1545 202 203 210
-179.044 -678.009 -1545 204 206 212
-175.63 -677.46 -1544 203 205 207
-172 -676.035 -1541 201 203 206
-168.602 -675.49 -1540 193 195 199
-165.318 -675.386 -1540 194 194 198
-161.93 -674.845 -1539 190 190 194
-158.754 -675.183 -1540 187 187 191
-155.575 -675.524 -1541 186 186 190
-152.294 -675.427 -1541 185 185 189
-149.015 -675.333 -1541 180 180 184
-146.021 -676.556 -1544 172 174 176
-142.738 -676.466 -1544 171 173 175
-139.546 -676.816 -1545 171 173 175
-136.352 -677.169 -1546 174 174 178
-133.241 -677.96 -1548 176 176 180
-129.954 -677.878 -1548 168 168 172
-126.833 -678.674 -1550 177 177 181
-123.863 -680.347 -1554 184 184 188
-120.8 -681.585 -1557 184 184 186
-117.801 -683.261 -1561 195 193 197
-115.006 -686.253 -1568 202 200 205
-111.827 -687.057 -1570 201 201 205
-109.123 -690.927 -1579 198 198 202
-105.914 -691.735 -1581 199 199 203
-102.697 -692.546 -1583 199 199 203
-99.6602 -694.67 -1588 201 201 205
-96.5431 -696.359 -1592 201 201 205
-93.6439 -699.799 -1600 204 203 211
-90.599 -702.366 -1606 206 206 211
-87.5294 -704.934 -1612 205 205 209
-84.3831 -707.067 -1617 191 191 195
-80.916 -706.579 -1616 188 188 192
-77.5978 -707.404 -1618 192 192 196
-74.3635 -709.106 -1622 187 187 189
-71.0254 -709.935 -1624 174 174 176
-67.7212 -711.203 -1627 159 159 161
-64.3655 -712.037 -1629 138 135 138
-61.0392 -713.309 -1632 69 66 70
-57.5598 -712.835 -1631 59 56 61
-36.9168 -712.659 -1631 55 52 59
-33.6624 -716.57 -1640 58 55 63
-30.2046 -716.55 -1640 109 106 112
-26.6981 -715.222 -1637 152 149 154
-23.233 -714.77 -1636 160 159 164
-19.7842 -714.756 -1636 164 162 167
-16.2859 -712.561 -1631 163 160 165
-12.8165 -710.804 -1627 163 160 165
-9.36991 -709.487 -1624 165 162 167
-5.92878 -707.297 -1619 167 164 169
-2.51498 -706.858 -1618 169 166 171
0.894026 -705.984 -1616 171 168 173
4.28929 -704.238 -1612 170 167 172
7.66772 -702.494 -1608 169 166 173
11.0294 -700.753 -1604 171 168 174
14.3744 -699.013 -1600 176 173 178
17.7025 -697.276 -1596 181 178 184
21.0141 -695.54 -1592 181 178 182
24.3394 -694.68 -1590 180 177 180
27.6218 -692.949 -1586 182 182 184
30.868 -690.782 -1581 186 185 187
34.1582 -689.929 -1579 190 187 190
37.3456 -687.329 -1573 194 191 194
40.5337 -685.169 -1568 194 191 194
43.729 -683.447 -1564 187 184 187
46.9679 -682.601 -1562 190 187 190
50.1346 -680.883 -1558 193 190 193
53.3533 -680.041 -1556 197 194 197
56.5278 -678.764 -1553 194 191 194
59.7671 -678.363 -1552 191 189 191
63.0432 -678.402 -1552 191 190 192
66.32 -678.442 -1552 192 189 192
69.6423 -678.921 -1553 194 191 194
72.9694 -679.403 -1554 199 196 199
76.2033 -679.012 -1553 203 200 203
79.4336 -678.623 -1552 203 200 203
82.8203 -679.548 -1554 203 200 203
86.1052 -679.601 -1554 206 203 206
89.5061 -680.53 -1556 208 205 208
92.9163 -681.462 -1558 203 200 203
96.3973 -682.833 -1561 198 195 198
99.7006 -682.894 -1561 196 193 196
103.269 -684.707 -1565 198 195 198
106.854 -686.522 -1569 203 200 205
110.388 -687.903 -1572 213 210 215
114.659 -693.662 -1585 212 209 214
118.464 -696.361 -1591 211 208 211
122.449 -699.937 -1599 218 215 218
126.312 -702.641 -1605 216 213 216
129.959 -704.035 -1608 190 187 190
133.703 -705.868 -1612 87 82 90
136.274 -701.573 -1602 55 50 60
-231.302 -711.216 -1608 112 110 117
-227.841 -711.071 -1608 187 186 194
-222.987 -706.507 -1598 190 190 196
-218.315 -702.389 -1589 207 208 215
-213.142 -696.507 -1576 206 208 215
-208.427 -691.955 -1566 198 200 206
-203.626 -686.965 -1555 199 201 208
-199.775 -685.071 -1551 195 198 205
-196.07 -683.621 -1548 197 199 207
-192.629 -683.058 -1547 195 197 204
-189.194 -682.496 -1546 195 197 204
-186.005 -682.819 -1547 198 197 205
-182.578 -682.262 -1546 201 201 207
-179.272 -682.148 -1546 203 205 209
-175.854 -681.595 -1545 206 208 210
-172.219 -680.162 -1542 206 208 210
-168.708 -679.173 -1540 204 206 209
-165.529 -679.509 -1541 205 207 210
-162.136 -678.965 -1540 197 198 201
-159.059 -679.746 -1542 188 189 193
-155.874 -680.088 -1543 184 184 188
-152.686 -680.432 -1544 179 179 183
-149.398 -680.337 -1544 176 176 180
-146.301 -681.126 -1546 170 171 174
-143.012 -681.035 -1546 168 169 172
-139.814 -681.387 -1547 169 170 173
-136.614 -681.741 -1548 171 171 175
-133.41 -682.096 -1549 174 174 178
-130.204 -682.454 -1550 167 167 171
-126.912 -682.373 -1550 176 176 180
-123.941 -684.056 -1554 182 182 186
-120.876 -685.3 -1557 189 189 192
-117.875 -686.985 -1561 197 196 200
-114.931 -689.113 -1566 196 194 199
-112.11 -692.122 -1573 197 197 201
-109.122 -694.253 -1578 199 199 203
-105.846 -694.625 -1579 202 202 206
-102.826 -696.76 -1584 203 203 207
-99.6596 -698.016 -1587 205 205 209
-96.6032 -700.154 -1592 206 206 210
-93.5266 -702.293 -1597 205 204 211
-90.5424 -705.314 -1604 205 205 210
-87.6926 -709.655 -1614 197 197 201
-84.2791 -709.601 -1614 188 188 192
-81.1167 -711.748 -1619 196 196 200
-77.5981 -710.819 -1617 189 189 193
-74.3639 -712.53 -1621 184 184 187
-71.1134 -714.243 -1625 174 174 176
-67.8884 -716.397 -1630 160 160 162
-64.4846 -716.795 -1631 137 134 139
-61.1895 -718.514 -1635 68 65 70
-57.8074 -719.356 -1637 58 55 60
-37.0983 -719.617 -1638 61 58 65
-33.7244 -721.353 -1642 63 60 66
-30.2602 -721.333 -1642 113 110 115
-26.731 -719.558 -1638 154 151 156
-23.2758 -719.542 -1638 159 156 163
-19.7844 -718.211 -1635 163 160 166
-16.266 -715.125 -1628 165 162 167
-12.8481 -715.994 -1630 167 164 169
-9.36998 -712.913 -1623 167 164 169
-5.93242 -711.151 -1619 167 164 169
-2.51334 -709.831 -1616 168 165 170
0.892524 -708.073 -1612 169 166 171
4.28664 -707.197 -1610 170 167 172
7.66302 -705.443 -1606 170 167 174
11.0363 -704.571 -1604 170 167 173
14.3743 -702.382 -1599 171 168 173
17.7025 -700.635 -1595 173 170 175
21.0402 -699.769 -1593 178 175 179
24.3393 -698.026 -1589 182 179 182
27.6215 -696.285 -1585 182 182 184
30.8677 -694.107 -1580 185 183 186
34.093 -691.93 -1575 188 185 188
37.2975 -689.756 -1570 194 191 194
40.4555 -687.144 -1564 195 192 195
43.6724 -685.853 -1561 186 183 186
46.907 -685.002 -1559 184 181 184
50.0694 -683.275 -1555 188 185 188
53.2838 -682.428 -1553 195 192 195
56.4538 -681.144 -1550 191 188 191
59.7659 -681.62 -1551 188 185 188
63.042 -681.659 -1551 188 185 188
66.3615 -682.139 -1552 191 188 191
69.6858 -682.621 -1553 192 189 192
73.015 -683.105 -1554 196 193 196
76.2507 -682.712 -1553 193 190 193
79.5342 -682.761 -1553 191 188 191
82.8719 -683.251 -1554 196 193 196
86.159 -683.304 -1554 201 198 201
89.5044 -683.799 -1555 203 200 203
93.0338 -685.615 -1559 197 194 197
96.3958 -686.114 -1560 191 188 191
99.9546 -687.935 -1564 193 190 193
103.399 -688.878 -1566 198 195 198
107.057 -691.144 -1571 205 202 207
110.808 -693.852 -1577 213 210 215
115.02 -699.203 -1589 210 207 211
119.06 -703.237 -1598 212 209 212
122.756 -705.073 -1602 220 217 220
126.391 -706.471 -1605 211 208 211
130.04 -707.872 -1608 175 172 175
133.787 -709.716 -1612 102 97 105
136.785 -707.599 -1607 61 56 65
-231.593 -715.527 -1609 115 112 118
-228.836 -717.604 -1614 187 186 193
-224.384 -714.349 -1607 171 173 179
-219.278 -708.874 -1595 198 200 206
-214.089 -702.959 -1582 209 211 217
-208.958 -697.049 -1569 196 198 204
-204.017 -691.587 -1557 199 201 208
-200.288 -690.127 -1554 200 202 209
-196.194 -687.337 -1548 199 201 208
-192.751 -686.77 -1547 196 198 205
-189.191 -685.761 -1545 195 197 204
-186.002 -686.086 -1546 197 196 204
-182.811 -686.413 -1547 199 199 205
-179.385 -685.855 -1546 201 205 206
-175.965 -685.299 -1545 206 210 211
-172.328 -683.858 -1542 208 211 213
-168.924 -683.307 -1541 204 207 209
-165.526 -682.758 -1540 200 202 204
-162.344 -683.097 -1541 196 198 200
-159.056 -682.996 -1541 189 191 195
-155.972 -683.783 -1543 186 186 190
-152.782 -684.129 -1544 184 184 188
-149.492 -684.033 -1544 184 184 188
-146.204 -683.94 -1544 185 185 189
-143.194 -685.177 -1547 182 182 186
-139.993 -685.531 -1548 182 182 186
-136.788 -685.886 -1549 186 186 190
-133.666 -686.687 -1551 190 190 194
-130.369 -686.603 -1551 178 178 182
-127.319 -687.85 -1554 183 183 187
-124.178 -688.656 -1556 196 196 200
-121.107 -689.907 -1559 201 201 205
-117.949 -690.717 -1561 196 196 200
-115.224 -694.183 -1569 191 191 195
-112.252 -696.323 -1574 194 194 198
-109.052 -697.138 -1576 199 199 203
-106.113 -699.725 -1582 200 200 204
-102.89 -700.543 -1584 200 200 204
-99.7849 -702.249 -1588 203 203 207
-96.6031 -703.514 -1591 204 204 208
-93.7024 -706.991 -1599 205 205 209
-90.5427 -708.701 -1603 199 199 203
-87.4213 -710.856 -1608 188 188 192
-84.1751 -712.128 -1611 195 195 199
-80.9169 -713.403 -1614 195 195 199
-77.7427 -715.563 -1619 188 188 192
-74.5481 -717.725 -1624 184 184 188
-71.2455 -719.005 -1627 173 173 176
-68.0558 -721.612 -1633 160 160 162
-64.7228 -722.896 -1636 139 136 141
-61.4899 -725.508 -1642 70 67 72
-58.2322 -728.121 -1648 56 53 58
-37.2802 -726.616 -1645 61 58 65
-33.766 -725.711 -1643 63 60 65
-30.316 -726.132 -1644 111 108 113
-26.8294 -725.673 -1643 153 150 155
-23.3329 -724.774 -1641 159 156 163
-19.7846 -721.668 -1634 171 168 174
-16.2862 -719.449 -1629 178 175 180
-12.8324 -718.556 -1627 178 175 180
-9.37007 -716.341 -1622 179 176 181
-5.92875 -714.128 -1617 176 173 178
-2.51502 -713.684 -1616 173 170 175
0.89303 -711.917 -1612 171 168 173
4.28953 -711.036 -1610 171 168 173
7.66309 -708.831 -1605 173 170 177
11.0296 -707.512 -1602 173 170 176
14.3835 -706.195 -1599 174 171 176
17.7357 -705.322 -1597 175 172 177
21.0403 -703.126 -1592 179 176 180
24.37 -702.257 -1590 183 180 183
27.6738 -700.948 -1587 186 186 188
30.887 -697.875 -1580 190 188 191
34.1144 -695.687 -1575 191 188 191
37.3209 -693.501 -1570 196 193 196
40.5327 -691.759 -1566 197 194 197
43.6717 -689.135 -1560 186 183 186
46.9063 -688.28 -1558 182 179 182
50.1006 -686.985 -1555 184 181 184
53.3171 -686.134 -1553 187 184 187
56.5256 -685.285 -1551 183 180 183
59.8419 -685.763 -1552 184 181 184
63.1222 -685.802 -1552 189 186 189
66.4886 -686.726 -1554 192 189 192
69.7745 -686.769 -1554 196 193 196
73.1547 -687.698 -1556 199 196 199
76.3477 -686.861 -1554 199 196 199
79.6354 -686.91 -1554 201 198 201
82.9238 -686.961 -1554 205 202 205
86.3241 -687.899 -1556 205 202 205
89.6757 -688.396 -1557 198 195 198
93.2715 -690.665 -1562 195 192 195
96.58 -690.725 -1562 193 190 193
100.145 -692.555 -1566 197 194 197
103.596 -693.504 -1568 203 200 203
107.397 -696.667 -1575 207 204 209
111.229 -699.832 -1582 208 205 210
115.165 -703.442 -1590 205 202 206
119.284 -707.941 -1600 207 204 207
122.986 -709.787 -1604 210 207 210
126.707 -711.636 -1608 194 191 194
130.284 -712.602 -1610 177 174 177
134.203 -715.341 -1616 115 111 117
137.467 -714.542 -1614 67 63 70
-232.748 -722.534 -1616 111 109 114
-229.833 -724.174 -1620 191 190 197
-225.645 -721.793 -1615 159 161 167
-220.931 -717.629 -1606 184 186 192
-215.038 -709.448 -1588 206 208 214
-209.891 -703.505 -1575 199 201 207
-204.802 -697.566 -1562 198 200 207
-200.673 -694.758 -1556 204 206 213
-196.826 -692.845 -1552 202 204 211
-193.247 -691.828 -1550 198 200 207
-189.801 -691.26 -1549 195 197 204
-186.241 -690.247 -1547 194 193 201
-182.691 -689.238 -1545 195 195 202
-179.383 -689.123 -1545 197 201 202
-175.963 -688.563 -1544 201 205 206
-172.437 -687.561 -1542 203 207 208
-169.031 -687.006 -1541 201 203 205
-165.63 -686.454 -1540 197 199 201
-162.447 -686.796 -1541 198 200 202
-159.26 -687.139 -1542 194 196 200
-156.071 -687.484 -1543 193 194 198
-152.978 -688.277 -1545 193 193 197
-149.781 -688.627 -1546 199 199 203
-146.581 -688.978 -1547 197 197 201
-143.378 -689.331 -1548 189 189 193
-140.081 -689.241 -1548 194 194 198
-136.874 -689.599 -1549 198 198 202
-133.665 -689.958 -1550 193 193 197
-130.368 -689.875 -1550 188 188 192
-127.318 -691.128 -1553 199 199 203
-124.336 -692.828 -1557 204 204 208
-121.339 -694.53 -1561 198 198 202
-118.25 -695.789 -1564 193 193 197
-115.296 -697.939 -1569 188 188 192
-112.251 -699.646 -1573 189 189 193
-109.19 -701.356 -1577 196 196 200
-106.18 -703.511 -1582 196 196 200
-103.02 -704.779 -1585 196 196 200
-99.8479 -706.049 -1588 199 199 203
-96.664 -707.32 -1591 202 202 206
-93.5856 -709.483 -1596 201 201 205
-90.6563 -712.981 -1604 193 193 197
-87.422 -714.258 -1607 188 188 192
-84.2804 -716.426 -1612 196 196 200
-81.018 -717.707 -1615 193 193 197
-77.6956 -718.546 -1617 187 187 191
-74.5492 -721.163 -1623 186 186 190
-71.2466 -722.45 -1626 171 171 174
-68.1822 -726.405 -1635 157 157 159
-64.8823 -728.14 -1639 137 134 139
-61.566 -729.877 -1643 71 68 73
-58.2689 -732.061 -1648 58 55 60
-33.9724 -733.633 -1652 63 60 65
-30.4458 -732.725 -1650 111 108 113
-26.9279 -731.819 -1648 153 150 155
-23.3618 -729.139 -1642 157 154 160
-19.8456 -727.349 -1638 168 165 170
-16.3363 -725.117 -1633 177 174 179
-12.8484 -722.888 -1628 179 176 181
-9.38752 -721.105 -1624 182 179 184
-5.96178 -721.544 -1625 181 178 183
-2.51805 -717.989 -1617 178 175 180
0.894647 -716.656 -1614 176 173 178
4.29222 -714.882 -1610 174 171 176
7.66318 -712.222 -1604 177 174 181
11.0435 -711.784 -1603 177 174 180
14.3835 -709.572 -1598 179 176 181
17.7026 -707.361 -1593 180 177 182
21.0273 -706.042 -1590 182 179 182
24.3852 -706.056 -1590 184 181 184
27.639 -703.408 -1584 187 186 188
30.8479 -700.318 -1577 195 193 196
34.0925 -698.562 -1573 195 192 195
37.2731 -695.92 -1567 197 194 197
40.5063 -694.613 -1564 197 194 197
43.6713 -692.418 -1559 185 182 185
46.936 -692.003 -1558 176 173 176
50.1001 -690.257 -1554 169 166 169
53.3164 -689.401 -1552 170 166 169
56.5248 -688.548 -1550 171 168 171
59.8795 -689.473 -1552 174 171 174
63.2027 -689.956 -1553 184 181 184
66.4879 -689.997 -1553 193 190 193
69.8185 -690.485 -1554 202 199 202
73.2009 -691.419 -1556 204 201 204
76.3468 -690.133 -1553 209 206 209
79.7371 -691.071 -1555 213 210 213
82.9229 -690.234 -1553 210 207 210
86.3786 -691.621 -1556 199 196 199
89.6171 -691.232 -1555 192 189 192
93.2707 -693.957 -1561 199 196 199
96.6409 -694.462 -1562 203 200 203
100.272 -696.747 -1567 207 204 207
103.926 -699.035 -1572 208 205 209
107.875 -703.105 -1581 208 205 210
111.722 -706.288 -1588 205 202 207
115.672 -709.918 -1596 203 200 204
119.434 -712.217 -1601 204 201 204
122.911 -712.738 -1602 194 191 194
126.629 -714.597 -1606 171 168 171
130.205 -715.569 -1608 170 167 170
134.122 -718.323 -1614 129 125 130
137.299 -717.074 -1611 71 67 74
-233.474 -728.232 -1620 105 102 108
-230.548 -729.881 -1624 193 192 199
-226.489 -727.937 -1620 165 167 173
-221.072 -721.503 -1606 168 170 176
-215.853 -715.523 -1593 201 203 209
-210.825 -709.996 -1581 203 205 211
-205.458 -703.127 -1566 196 198 205
-201.318 -700.303 -1560 202 204 211
-197.333 -697.931 -1555 204 206 213
-193.62 -696.459 -1552 201 203 210
-189.922 -694.99 -1549 199 201 208
-186.48 -694.421 -1548 198 198 206
-182.689 -692.508 -1544 198 197 204
-179.265 -691.944 -1543 195 199 200
-175.961 -691.83 -1543 196 200 201
-172.435 -690.822 -1541 199 203 204
-169.139 -690.713 -1541 205 207 209
-165.844 -690.606 -1541 206 208 210
-162.761 -691.397 -1543 206 208 210
-159.362 -690.846 -1542 208 210 214
-156.373 -692.089 -1545 210 210 214
-153.174 -692.438 -1546 204 204 208
-149.973 -692.789 -1547 200 200 204
-146.769 -693.142 -1548 191 191 195
-143.562 -693.497 -1549 188 188 192
-140.17 -692.959 -1548 190 190 194
-136.873 -692.871 -1548 189 189 193
-133.75 -693.679 -1550 192 192 196
-130.535 -694.043 -1551 198 198 202
-127.481 -695.303 -1554 203 203 207
-124.495 -697.012 -1558 204 204 208
-121.494 -698.723 -1562 197 197 201
-118.401 -699.989 -1565 189 189 193
-115.296 -701.256 -1568 185 185 189
-112.251 -702.972 -1572 187 187 191
-109.329 -705.585 -1578 190 190 194
-106.382 -708.199 -1584 192 192 196
-103.15 -709.026 -1586 192 192 196
-100.163 -711.644 -1592 195 195 199
-96.8468 -712.028 -1593 198 198 202
-93.821 -714.649 -1599 193 193 197
-90.6573 -716.378 -1603 189 189 193
-87.423 -717.662 -1606 193 193 197
-84.2815 -719.842 -1611 192 192 196
-80.969 -720.683 -1613 190 190 194
-77.7449 -722.419 -1617 188 188 192
-74.5045 -724.158 -1621 186 186 190
-71.5109 -728.579 -1631 170 170 172
-68.1836 -729.875 -1634 157 157 159
-64.9233 -732.066 -1639 135 132 136
-61.605 -733.812 -1643 72 69 73
-58.4474 -737.793 -1652 59 56 61
-34.0555 -738.928 -1655 62 59 65
-30.5019 -737.568 -1652 109 106 111
-26.9613 -736.21 -1649 152 149 154
-23.3765 -733.069 -1642 156 153 158
-19.8944 -732.609 -1641 161 158 163
-16.3566 -729.472 -1634 167 164 169
-12.8644 -727.231 -1629 173 170 175
-9.4108 -726.331 -1627 179 176 181
-5.96182 -724.987 -1624 181 178 183
-2.52733 -724.092 -1622 181 178 183
0.895367 -720.52 -1614 182 179 184
4.30027 -719.629 -1612 182 179 184
7.68718 -717.847 -1608 180 177 184
11.0713 -716.96 -1606 181 178 184
14.4107 -714.29 -1600 181 178 183
17.7694 -713.407 -1598 183 180 185
21.0803 -711.187 -1593 184 181 185
24.3855 -709.416 -1589 183 180 183
27.6389 -706.754 -1583 189 186 189
30.848 -703.647 -1576 198 195 198
34.0926 -701.882 -1572 199 196 199
37.2255 -698.332 -1564 198 195 198
40.532 -698.357 -1564 195 192 195
43.671 -695.705 -1558 179 176 179
46.9355 -695.287 -1557 167 163 166
50.0996 -693.532 -1553 164 160 163
53.316 -692.671 -1551 160 156 159
56.5972 -692.706 -1551 169 166 169
59.9562 -693.637 -1553 182 179 182
63.2835 -694.123 -1554 197 194 197
66.5728 -694.164 -1554 203 200 203
69.9077 -694.654 -1555 208 205 208
73.2944 -695.593 -1557 209 206 209
76.4936 -694.747 -1555 210 207 210
79.839 -695.244 -1556 209 206 209
83.0824 -694.849 -1555 200 197 200
86.5444 -696.244 -1558 189 186 189
89.7894 -695.853 -1557 195 192 195
93.4494 -698.593 -1563 207 204 207
96.8263 -699.101 -1564 213 210 213
100.528 -701.846 -1570 210 207 210
104.058 -703.252 -1573 208 205 209
108.08 -707.79 -1583 206 203 208
111.934 -710.991 -1590 203 200 205
115.818 -714.194 -1597 204 201 205
119.659 -716.952 -1603 203 200 203
123.219 -717.924 -1605 167 164 167
126.789 -718.898 -1607 156 153 156
130.45 -720.323 -1610 159 156 159
134.041 -721.302 -1612 145 141 146
137.13 -719.599 -1608 75 72 78
-232.117 -738.326 -1634 192 191 198
-227.894 -735.918 -1629 184 186 192
-222.592 -729.9 -1616 174 176 182
-217.077 -722.984 -1601 191 193 199
-211.628 -716.072 -1586 203 205 211
-206.246 -709.166 -1571 198 200 206
-201.706 -704.972 -1562 199 201 208
-197.587 -702.135 -1556 203 205 212
-194.119 -701.558 -1555 204 206 213
-190.658 -700.983 -1554 201 203 210
-186.721 -698.606 -1549 201 200 208
-183.043 -697.134 -1546 201 200 208
-179.38 -695.664 -1543 198 200 203
-175.846 -694.649 -1541 198 200 203
-172.546 -694.537 -1541 201 203 205
-169.137 -693.976 -1540 209 211 213
-165.95 -694.319 -1541 216 218 220
-162.76 -694.663 -1542 217 219 221
-159.464 -694.56 -1542 218 218 222
-156.473 -695.81 -1545 217 217 221
-153.471 -697.061 -1548 207 207 211
-150.263 -697.414 -1549 195 195 199
-147.052 -697.768 -1550 188 188 192
-143.839 -698.125 -1551 186 186 190
-140.351 -697.134 -1549 190 190 194
-137.049 -697.045 -1549 192 192 196
-133.835 -697.408 -1550 197 197 201
-130.703 -698.223 -1552 191 191 195
-127.645 -699.489 -1555 202 202 206
-124.655 -701.208 -1559 196 196 200
-121.727 -703.378 -1564 187 187 191
-118.704 -705.1 -1568 184 184 188
-115.59 -706.373 -1571 184 184 188
-112.394 -707.2 -1573 185 185 189
-109.399 -709.376 -1578 186 186 190
-106.315 -711.105 -1582 187 187 191
-103.216 -712.836 -1586 191 191 195
-100.164 -715.018 -1591 194 194 198
-97.0303 -716.753 -1595 193 193 197
-93.8808 -718.489 -1599 186 186 190
-90.8284 -721.126 -1605 189 189 193
-87.5878 -722.417 -1608 193 193 197
-84.3352 -723.709 -1611 191 191 195
-81.1211 -725.453 -1615 189 189 193
-77.7944 -726.301 -1617 188 188 192
-74.6439 -728.947 -1623 187 187 191
-71.5127 -732.044 -1630 169 169 172
-68.3523 -735.143 -1637 158 158 160
-65.1629 -738.244 -1644 135 132 135
-61.8319 -739.999 -1648 73 70 74
-58.7323 -744.9 -1659 59 56 61
-33.9743 -740.653 -1650 59 56 63
-30.392 -738.388 -1645 108 105 111
-26.9129 -738.37 -1645 151 148 153
-23.363 -736.109 -1640 158 155 160
-19.8707 -735.198 -1638 164 161 166
-16.357 -732.942 -1633 171 168 173
-12.9041 -732.933 -1633 173 170 175
-9.43391 -731.58 -1630 178 175 180
-5.96921 -729.33 -1625 181 178 183
-2.53038 -728.43 -1623 183 180 185
0.897547 -725.737 -1617 186 183 188
4.29765 -722.597 -1610 185 182 187
7.68732 -721.254 -1607 184 181 188
11.0575 -719.465 -1603 184 181 187
14.438 -719.024 -1602 185 182 187
17.8031 -718.137 -1600 186 183 188
21.0937 -715.008 -1593 187 184 188
24.3704 -712.329 -1587 188 185 188
27.6566 -710.55 -1583 194 191 194
30.8676 -707.427 -1576 197 194 197
34.0927 -705.203 -1571 199 196 199
37.273 -702.533 -1565 200 197 200
40.5062 -701.211 -1562 197 194 197
43.7269 -699.891 -1559 190 187 190
46.9957 -699.471 -1558 193 189 192
50.0993 -696.809 -1552 204 201 204
53.3843 -696.842 -1552 205 202 205
56.6699 -696.877 -1552 211 208 211
59.9173 -696.465 -1551 211 208 211
63.2832 -697.403 -1553 215 212 215
66.6153 -697.894 -1554 218 215 218
69.9973 -698.836 -1556 216 213 216
73.3413 -699.33 -1557 211 208 211
76.4933 -698.031 -1554 207 204 207
79.8899 -698.98 -1556 200 197 200
83.1354 -698.582 -1555 192 189 192
86.6554 -700.434 -1559 196 193 196
90.0776 -701.389 -1561 206 203 206
93.569 -702.796 -1564 208 205 208
97.1979 -705.104 -1569 208 205 208
100.913 -707.864 -1575 206 203 206
104.588 -710.177 -1580 204 201 205
108.559 -714.291 -1589 203 200 205
112.287 -716.61 -1594 201 198 203
116.037 -718.931 -1599 198 195 199
119.661 -720.355 -1602 178 175 178
123.298 -721.782 -1605 149 146 149
126.791 -722.312 -1606 154 151 154
130.371 -723.294 -1608 154 151 155
134.043 -724.729 -1611 169 165 170
137.474 -724.816 -1611 89 85 91
141.343 -727.155 -1616 60 57 63
-237.961 -749.252 -1649 94 92 97
-233.689 -746.827 -1644 188 187 194
-228.881 -742.588 -1635 197 199 205
-223.563 -736.537 -1622 190 192 198
-217.896 -729.129 -1606 184 186 192
-212.566 -722.634 -1592 199 201 207
-206.905 -714.782 -1575 202 204 210
-202.224 -710.112 -1565 199 200 206
-197.969 -706.806 -1558 198 200 207
-194.245 -705.318 -1555 200 201 208
-190.29 -702.925 -1550 201 203 210
-186.721 -701.896 -1548 201 201 208
-182.806 -699.51 -1543 200 199 207
-179.496 -699.392 -1543 196 198 202
-175.959 -698.371 -1541 196 198 201
-172.657 -698.258 -1541 196 198 200
-169.356 -698.147 -1541 203 205 207
-166.273 -698.945 -1543 209 211 213
-163.076 -699.291 -1544 215 217 219
-159.877 -699.639 -1545 217 217 221
-156.574 -699.537 -1545 210 210 214
-153.471 -700.343 -1547 202 202 206
-150.263 -700.697 -1548 201 201 205
-146.957 -700.601 -1548 193 193 197
-143.839 -701.412 -1550 173 173 177
-140.532 -701.32 -1550 163 163 167
-137.226 -701.231 -1550 168 168 172
-134.008 -701.596 -1551 179 179 183
-130.955 -702.867 -1554 180 180 184
-127.809 -703.688 -1556 199 199 203
-124.815 -705.415 -1560 190 190 194
-121.728 -706.693 -1563 180 180 184
-118.628 -707.971 -1566 183 183 187
-115.518 -709.252 -1569 184 184 188
-112.538 -711.439 -1574 182 182 186
-109.399 -712.723 -1577 183 183 187
-106.451 -715.365 -1583 189 189 193
-103.413 -717.557 -1588 196 196 200
-100.417 -720.203 -1594 197 197 201
-97.2752 -721.946 -1598 190 190 194
-94.0586 -723.24 -1601 184 184 188
-90.9432 -725.439 -1606 189 189 193
-87.6439 -726.285 -1608 192 192 196
-84.3894 -727.584 -1611 191 191 195
-81.1731 -729.338 -1615 190 190 194
-77.9887 -731.544 -1620 189 189 193
-74.7378 -733.301 -1624 189 189 193
-71.6462 -736.867 -1632 168 168 171
-68.5214 -740.434 -1640 155 155 157
-65.4426 -744.905 -1650 133 130 133
-62.0968 -746.67 -1654 75 72 76
-58.8762 -750.242 -1662 60 57 62
-38.2155 -759.082 -1682 59 56 63
-34.1814 -748.679 -1659 63 60 67
-30.4854 -744.146 -1649 108 105 111
-26.9793 -743.676 -1648 150 147 152
-23.4634 -742.758 -1646 157 154 159
-19.9076 -740.036 -1640 164 161 166
-16.3975 -738.22 -1636 175 172 177
-12.936 -738.21 -1636 176 173 178
-9.42832 -734.593 -1628 179 176 181
-5.97684 -733.686 -1626 182 179 184
-2.52741 -730.976 -1620 184 181 186
0.897719 -729.171 -1616 185 182 187
4.30326 -726.916 -1611 185 182 187
7.70204 -726.018 -1609 185 182 189
11.0853 -724.67 -1606 185 182 188
14.4652 -723.776 -1604 184 181 186
17.7812 -720.628 -1597 185 182 187
21.1339 -719.738 -1595 189 186 190
24.4167 -717.045 -1589 193 190 193
27.7095 -715.257 -1585 196 193 196
30.9268 -712.117 -1578 201 198 201
34.1581 -709.881 -1573 198 195 198
37.3685 -707.648 -1568 198 195 198
40.584 -705.868 -1564 197 194 197
43.783 -704.09 -1560 192 188 191
47.0562 -703.668 -1559 197 194 197
50.2607 -702.345 -1556 204 201 204
53.5218 -701.927 -1555 203 200 203
56.8525 -702.414 -1556 208 205 208
60.1491 -702.451 -1556 212 209 212
63.487 -702.943 -1557 209 206 209
66.7869 -702.984 -1557 210 207 210
70.0872 -703.029 -1557 211 208 211
73.3883 -703.075 -1557 205 202 205
76.6902 -703.123 -1557 196 193 196
80.0954 -704.077 -1559 194 191 194
83.4563 -704.581 -1560 201 198 201
86.878 -705.539 -1562 207 204 207
90.3665 -706.952 -1565 204 201 204
93.9285 -708.818 -1569 197 194 197
97.5702 -711.139 -1574 196 193 196
101.042 -712.107 -1576 197 194 197
104.788 -714.884 -1582 199 196 199
108.56 -717.664 -1588 202 199 204
112.359 -720.447 -1594 200 197 202
116.112 -722.781 -1599 193 190 194
119.738 -724.213 -1602 159 156 159
123.377 -725.648 -1605 155 152 155
126.952 -726.633 -1607 161 158 162
130.617 -728.073 -1610 160 157 162
134.296 -729.515 -1613 209 205 208
137.819 -730.055 -1614 118 114 119
141.959 -733.764 -1622 62 59 64
-239.416 -757.366 -1658 85 82 87
-234.126 -751.73 -1646 189 188 195
-229.031 -746.556 -1635 198 197 204
-223.847 -740.929 -1623 200 200 207
-218.309 -733.937 -1608 181 181 187
-213.106 -727.863 -1595 191 190 197
-207.566 -720.425 -1579 201 200 207
-202.743 -715.273 -1568 194 193 200
-198.479 -711.949 -1561 193 192 199
-194.496 -709.541 -1556 195 194 201
-190.66 -707.591 -1552 197 199 206
-187.083 -706.557 -1550 200 200 207
-183.28 -704.613 -1546 199 198 206
-179.496 -702.671 -1542 195 197 201
-176.074 -702.1 -1541 195 197 199
-172.769 -701.986 -1541 196 198 200
-169.576 -702.331 -1542 196 198 200
-166.488 -703.132 -1544 203 205 207
-163.288 -703.48 -1545 209 211 213
-159.981 -703.375 -1545 211 211 215
-156.777 -703.727 -1546 211 211 215
-153.57 -704.081 -1547 213 213 217
-150.36 -704.438 -1548 213 213 217
-147.053 -704.341 -1548 218 218 222
-143.839 -704.702 -1549 217 217 221
-140.532 -704.609 -1549 208 208 212
-137.226 -704.519 -1549 208 208 212
-134.008 -704.886 -1550 214 214 218
-130.956 -706.164 -1553 196 196 200
-127.891 -707.444 -1556 196 196 200
-124.896 -709.181 -1560 189 189 193
-121.884 -710.919 -1564 189 189 193
-119.008 -713.568 -1570 190 190 194
-115.887 -714.855 -1573 188 188 192
-112.682 -715.69 -1575 186 186 190
-109.609 -717.435 -1579 191 191 195
-106.52 -719.183 -1583 201 201 205
-103.414 -720.932 -1587 204 204 208
-100.23 -722.229 -1590 196 196 200
-97.2163 -724.89 -1596 187 187 191
-94.178 -727.553 -1602 189 189 193
-91.0019 -729.31 -1606 193 193 197
-87.755 -730.615 -1609 194 194 198
-84.5487 -732.375 -1613 192 192 196
-81.326 -734.137 -1617 191 191 195
-77.9909 -734.994 -1619 189 189 193
-74.8781 -738.122 -1626 189 189 193
-71.6485 -740.344 -1631 169 169 172
-68.5238 -743.93 -1639 156 156 157
-65.3657 -747.518 -1647 131 128 130
-62.0992 -750.2 -1653 73 70 74
-58.6306 -750.615 -1654 61 58 63
-34.1828 -752.22 -1658 67 64 71
-30.5234 -748.57 -1650 106 103 109
-27.013 -748.097 -1649 148 145 150
-23.45 -745.813 -1644 153 150 155
-19.9447 -744.891 -1642 160 157 162
-16.4381 -743.519 -1639 170 167 172
-12.9364 -741.695 -1635 173 170 175
-9.44034 -738.966 -1629 174 171 176
-5.98428 -738.054 -1627 175 172 177
-2.53048 -735.329 -1621 175 172 177
0.900463 -734.875 -1620 177 174 179
4.31937 -733.062 -1616 179 176 181
7.73096 -732.159 -1614 182 179 186
11.0996 -728.99 -1607 182 179 185
14.4836 -728.091 -1605 181 178 183
17.7926 -724.472 -1597 181 178 183
21.1474 -723.577 -1595 187 184 187
24.4326 -720.87 -1589 195 192 195
27.7273 -719.073 -1585 198 195 198
30.9859 -716.823 -1580 197 194 197
34.2019 -714.122 -1574 202 199 202
37.3688 -710.969 -1567 196 193 196
40.6362 -710.087 -1565 198 194 197
43.8675 -708.754 -1562 186 182 185
47.1166 -707.875 -1560 193 189 192
50.4225 -707.907 -1560 204 200 203
53.6254 -706.579 -1557 205 201 204
56.8891 -706.161 -1556 201 197 200
60.2266 -706.653 -1557 204 200 203
63.4872 -706.239 -1556 203 199 202
66.83 -706.736 -1557 204 201 204
70.1325 -706.78 -1557 202 199 202
73.3886 -706.372 -1556 197 194 197
76.6412 -705.967 -1555 195 192 195
79.9416 -706.018 -1555 196 193 196
83.2427 -706.071 -1555 199 196 199
86.7671 -707.942 -1559 198 195 198
90.3671 -710.27 -1564 197 194 197
93.8095 -711.238 -1566 195 192 195
97.5714 -714.48 -1573 195 192 195
101.236 -716.815 -1578 198 195 198
104.988 -719.608 -1584 199 196 200
108.836 -722.857 -1591 200 197 202
112.573 -725.201 -1596 201 198 203
116.26 -727.093 -1600 183 180 184
119.741 -727.624 -1601 160 157 160
123.38 -729.066 -1604 160 157 160
126.955 -730.057 -1606 165 162 166
130.702 -731.959 -1610 206 203 207
134.3 -732.954 -1612 228 225 228
137.908 -733.952 -1614 166 163 168
141.876 -736.772 -1620 65 62 67
-239.718 -761.859 -1659 67 64 69
-233.995 -754.815 -1644 182 181 188
-228.76 -749.154 -1632 198 197 204
-223.855 -744.415 -1622 194 193 200
-218.86 -739.221 -1611 175 174 181
-213.646 -733.115 -1598 185 184 191
-208.096 -725.637 -1582 188 187 194
-203.264 -720.457 -1571 187 186 193
-198.354 -714.822 -1559 192 191 198
-194.874 -714.235 -1558 195 194 201
-190.661 -710.899 -1551 195 197 204
-187.326 -710.775 -1551 200 199 206
-183.163 -707.446 -1544 201 198 206
-180.079 -708.244 -1546 195 197 201
-176.532 -707.211 -1544 192 194 197
-173.219 -707.096 -1544 191 193 195
-169.907 -706.984 -1544 197 199 201
-166.813 -707.789 -1546 202 204 206
-163.606 -708.139 -1547 205 207 209
-160.292 -708.033 -1547 210 210 214
-156.981 -707.929 -1547 216 216 220
-153.67 -707.828 -1547 218 218 222
-150.361 -707.728 -1547 216 216 220
-147.053 -707.631 -1547 219 219 223
-144.119 -709.366 -1551 223 223 227
-140.805 -709.273 -1551 213 213 217
-137.582 -709.639 -1552 210 210 214
-134.355 -710.007 -1553 213 213 217
-131.21 -710.835 -1555 198 198 202
-128.057 -711.665 -1557 197 197 201
-124.977 -712.953 -1560 199 199 203
-122.041 -715.157 -1565 200 200 204
-119.162 -717.82 -1571 201 201 205
-115.889 -718.201 -1572 200 200 204
-112.827 -719.954 -1576 201 201 205
-109.819 -722.165 -1581 204 204 208
-106.724 -723.921 -1585 207 207 211
-103.547 -725.223 -1588 201 201 205
-100.421 -726.983 -1592 188 188 192
-97.2184 -728.289 -1595 187 187 191
-94.0627 -730.053 -1599 192 192 196
-91.0042 -732.732 -1605 194 194 198
-87.7028 -733.587 -1607 194 194 198
-84.7084 -737.182 -1615 194 194 198
-81.4291 -738.498 -1618 194 194 198
-78.2343 -740.728 -1623 192 192 196
-74.9728 -742.504 -1627 189 189 193
-71.8269 -745.65 -1634 168 168 170
-68.7356 -749.712 -1643 155 155 155
-65.4876 -752.405 -1649 128 125 126
-62.4402 -757.839 -1661 72 69 72
-34.0812 -753.483 -1652 69 66 73
-30.4877 -751.182 -1647 102 99 105
-26.9812 -750.707 -1646 146 143 148
-23.4508 -749.322 -1643 151 148 153
-19.9455 -748.396 -1641 160 157 162
-16.4286 -746.56 -1637 166 163 168
-12.913 -743.814 -1631 170 167 172
-9.42899 -741.527 -1626 168 165 170
-5.96965 -739.698 -1622 168 165 170
-2.52596 -737.415 -1617 171 168 173
0.898972 -736.958 -1616 174 171 176
4.32235 -736.96 -1616 175 172 177
7.72637 -735.14 -1612 179 176 183
11.1137 -733.322 -1608 180 177 182
14.475 -731.05 -1603 180 177 182
17.7819 -727.412 -1595 180 177 182
21.1081 -725.6 -1591 185 182 185
24.4329 -724.247 -1588 193 190 193
27.7454 -722.896 -1585 198 195 198
31.006 -720.635 -1580 200 197 200
34.2458 -718.375 -1575 198 195 198
37.4646 -716.118 -1570 197 194 197
40.6887 -714.319 -1566 180 176 179
43.9241 -712.978 -1563 139 135 138
47.1775 -712.096 -1561 156 152 155
50.423 -711.215 -1559 185 181 184
53.6946 -710.793 -1558 201 197 200
57.0359 -711.285 -1559 195 192 195
60.3432 -711.323 -1559 195 192 195
63.6102 -710.907 -1558 193 190 193
66.9592 -711.406 -1559 186 183 186
70.2684 -711.451 -1559 185 182 185
73.4365 -710.129 -1556 189 186 189
76.7897 -710.634 -1557 194 191 194
80.0964 -710.685 -1557 196 193 196
83.5646 -712.108 -1560 200 197 200
86.9349 -712.62 -1561 200 197 201
90.4258 -714.047 -1564 201 199 202
93.8106 -714.564 -1565 201 199 202
97.5728 -717.823 -1572 200 198 201
101.237 -720.171 -1577 197 195 198
104.99 -722.978 -1583 196 194 197
108.701 -725.332 -1588 201 198 203
112.717 -729.515 -1597 194 191 194
116.263 -730.503 -1599 169 166 169
119.893 -731.951 -1602 161 158 160
123.461 -732.945 -1604 163 160 162
127.196 -734.854 -1608 198 195 198
130.868 -736.31 -1611 231 228 231
134.554 -737.767 -1614 233 230 234
138.254 -739.228 -1617 190 187 192
142.582 -743.892 -1627 74 71 76
-239.731 -765.44 -1658 60 56 61
-233.722 -757.436 -1641 160 159 166
-228.911 -753.129 -1632 197 196 203
-224.417 -749.749 -1625 197 196 203
-219.548 -744.989 -1615 170 169 176
-214.055 -737.927 -1600 181 180 187
-208.497 -730.409 -1584 183 182 189
-203.528 -724.74 -1572 186 185 192
-198.485 -718.614 -1559 188 187 194
-195.127 -718.485 -1559 193 192 199
-191.525 -717.435 -1557 194 196 203
-187.571 -715.007 -1552 198 197 205
-183.877 -713.502 -1549 200 197 206
-180.781 -714.303 -1551 194 196 200
-176.991 -712.343 -1547 191 193 195
-173.445 -711.307 -1545 190 192 193
-170.239 -711.654 -1546 192 194 196
-167.138 -712.464 -1548 194 196 198
-163.925 -712.815 -1549 196 198 200
-160.398 -711.788 -1547 199 199 203
-157.083 -711.683 -1547 204 204 208
-153.771 -711.581 -1547 208 208 212
-150.557 -711.941 -1548 212 212 216
-147.15 -711.383 -1547 214 214 218
-144.027 -712.207 -1549 213 213 217
-140.988 -713.493 -1552 207 207 211
-137.672 -713.401 -1552 207 207 211
-134.443 -713.772 -1553 205 205 209
-131.295 -714.604 -1555 200 200 204
-128.223 -715.897 -1558 203 203 207
-125.139 -717.192 -1561 211 211 215
-122.199 -719.408 -1566 210 210 214
-119.315 -722.085 -1572 208 208 212
-116.259 -723.845 -1576 206 206 210
-113.187 -725.607 -1580 208 208 212
-110.03 -726.911 -1583 208 208 212
-106.726 -727.3 -1584 202 202 206
-103.68 -729.526 -1589 192 192 196
-100.424 -730.378 -1591 185 185 189
-97.16 -731.231 -1593 189 189 193
-94.0064 -733.004 -1597 193 193 197
-90.8934 -735.239 -1602 195 195 199
-87.8693 -738.393 -1609 196 196 200
-84.7112 -740.631 -1614 197 197 201
-81.583 -743.329 -1620 197 197 201
-78.3335 -745.113 -1624 195 195 199
-75.0217 -746.439 -1627 186 186 190
-71.8297 -749.143 -1633 167 167 169
-68.5711 -751.391 -1638 155 155 155
-65.4111 -755.017 -1646 125 122 123
-62.2552 -759.103 -1655 70 67 69
-34.1859 -759.31 -1656 68 65 72
-30.5076 -755.162 -1647 96 93 99
-26.966 -753.768 -1644 144 141 146
-23.4947 -754.21 -1645 153 150 155
-19.9706 -752.82 -1642 160 157 162
-16.4092 -749.141 -1634 171 168 173
-12.9135 -747.297 -1630 172 169 174
-9.42924 -744.998 -1625 172 169 174
-5.96239 -742.242 -1619 175 172 177
-2.5306 -742.239 -1619 177 174 179
0.900822 -741.78 -1618 178 175 180
4.32513 -740.865 -1616 179 176 181
7.74098 -739.952 -1614 182 179 186
11.121 -737.208 -1608 182 179 185
14.4846 -734.924 -1603 183 180 185
17.8047 -731.725 -1596 184 181 186
