ply
format ascii 1.0
comment Created by Open3D
element vertex 1394
property double x
property double y
property double z
property uchar red
property uchar green
property uchar blue
end_header
-602.5 120.188 -1528 232 206 193
-599.76 120.279 -1530 231 203 185
-596.626 120.291 -1531 229 200 181
-593.107 120.225 -1531 231 200 179
-588.823 120.003 -1529 231 199 175
-584.936 119.859 -1528 230 197 174
-581.44 119.795 -1528 230 196 176
-578.328 119.809 -1529 229 196 171
-574.841 119.746 -1529 226 193 167
-571.36 119.683 -1529 223 193 160
-567.513 119.542 -1528 221 190 154
-563.675 119.401 -1527 219 186 150
-559.481 119.183 -1525 219 181 146
-555.665 119.044 -1524 215 176 143
-552.222 118.983 -1524 208 169 135
-549.144 119.001 -1525 203 161 127
-546.067 119.019 -1526 198 157 118
-542.99 119.038 -1527 195 153 114
-539.914 119.057 -1528 194 153 113
-536.839 119.076 -1529 194 152 112
-534.113 119.173 -1531 189 146 106
-530.69 119.115 -1531 183 137 99
-527.271 119.058 -1531 187 141 102
-523.858 119.001 -1531 198 152 113
-520.449 118.944 -1531 210 159 123
-516.708 118.81 -1530 210 162 125
-512.976 118.677 -1529 211 164 126
-509.253 118.544 -1528 212 165 126
-506.532 118.644 -1530 214 167 129
-503.15 118.589 -1530 215 168 130
-499.445 118.458 -1529 213 170 128
-496.398 118.482 -1530 215 169 129
-493.03 118.428 -1530 218 169 132
-489.345 118.298 -1529 212 167 134
-485.67 118.168 -1528 183 125 101
-481.372 117.884 -1525 138 59 50
-475.838 117.292 -1518 140 47 55
-471.584 117.009 -1515 142 50 57
-467.656 116.804 -1513 139 50 55
-464.355 116.755 -1513 135 51 64
-461.364 116.782 -1514 230 155 169
-458.674 116.887 -1516 230 230 243
-455.379 116.838 -1516 237 236 248
-452.088 116.79 -1516 232 230 240
-448.506 116.665 -1515 219 218 231
-444.931 116.54 -1514 221 218 232
-441.365 116.416 -1513 233 229 245
-438.097 116.369 -1513 237 238 253
-434.833 116.323 -1513 239 240 253
-431.572 116.277 -1513 240 242 251
-428.882 116.385 -1515 242 244 252
-425.906 116.416 -1516 244 246 253
-422.651 116.371 -1516 248 247 254
-419.952 116.48 -1518 244 244 253
-416.7 116.436 -1518 239 240 250
-413.452 116.392 -1518 238 239 249
-409.936 116.272 -1517 241 242 251
-406.965 116.305 -1518 243 245 253
-403.728 116.262 -1518 242 243 254
-400.494 116.22 -1518 239 241 252
-397.525 116.254 -1519 238 242 251
-394.296 116.213 -1519 236 240 249
-391.07 116.171 -1519 229 234 243
-388.103 116.207 -1520 223 228 241
-384.882 116.166 -1520 223 228 241
-381.413 116.049 -1519 230 235 248
-378.201 116.01 -1519 233 236 248
-375.485 116.123 -1521 232 235 247
-372.52 116.16 -1522 232 235 246
-369.554 116.197 -1523 235 237 249
-366.827 116.311 -1525 237 238 250
-363.38 116.197 -1524 234 239 250
-360.413 116.235 -1525 231 237 249
-356.742 116.045 -1523 227 234 246
-353.315 115.932 -1522 222 229 241
-349.895 115.819 -1521 220 226 238
-346.938 115.859 -1522 222 225 238
-343.302 115.671 -1520 221 225 239
-340.125 115.635 -1520 222 227 242
-337.394 115.752 -1522 225 230 247
-334.658 115.869 -1524 227 232 248
-331.699 115.911 -1525 227 233 248
-329.169 116.104 -1528 225 230 245
-325.99 116.07 -1528 221 226 241
-322.391 115.885 -1526 215 220 235
-319.221 115.852 -1526 210 215 232
-316.261 115.895 -1527 207 212 229
-313.095 115.862 -1527 202 207 224
-310.134 115.905 -1528 202 207 223
-307.172 115.949 -1529 207 212 226
-304.208 115.994 -1530 206 211 226
-300.653 115.811 -1528 207 212 227
-297.692 115.856 -1529 203 208 225
-294.344 115.749 -1528 208 213 231
-291.194 115.719 -1528 207 213 231
-287.669 115.538 -1526 222 227 243
-284.155 115.357 -1524 235 240 254
-280.282 115.025 -1520 234 236 254
-276.611 114.769 -1517 227 231 249
-272.954 114.514 -1514 226 232 251
-269.134 114.184 -1510 230 236 252
-265.861 114.081 -1509 233 239 253
-262.42 113.902 -1507 237 242 251
-259.505 113.951 -1508 240 246 254
-256.079 113.774 -1506 243 250 255
-252.831 113.672 -1505 247 250 255
-249.755 113.646 -1505 249 251 255
-246.681 113.621 -1505 252 252 254
-243.772 113.671 -1506 253 253 254
-241.179 113.873 -1509 252 252 252
-238.261 113.924 -1510 250 252 254
-235.029 113.824 -1509 251 253 255
-232.111 113.875 -1510 250 252 255
-229.039 113.852 -1510 247 250 255
-225.819 113.753 -1509 244 247 255
-222.458 113.58 -1507 242 247 255
-219.397 113.557 -1507 240 244 252
-216.052 113.384 -1505 239 242 249
-213.141 113.437 -1506 239 243 252
-209.948 113.341 -1505 238 243 252
-206.899 113.319 -1505 238 245 255
-203.58 113.148 -1503 238 245 254
-200.405 113.052 -1502 236 243 251
-197.104 112.881 -1500 235 242 250
-194.072 112.861 -1500 235 242 250
-191.041 112.842 -1500 235 242 250
-188.262 112.973 -1502 237 244 251
-185.354 113.029 -1503 241 247 253
-182.442 113.086 -1504 243 249 255
-179.529 113.142 -1505 242 248 254
-176.261 112.974 -1503 242 248 254
-173.118 112.881 -1502 242 248 254
-169.867 112.713 -1500 243 249 255
-166.848 112.696 -1500 245 251 255
-163.939 112.755 -1501 247 252 255
-161.135 112.888 -1503 249 253 255
-158.429 113.098 -1506 250 254 255
-155.507 113.157 -1507 251 255 255
-152.581 113.216 -1508 252 254 255
-149.554 113.201 -1508 251 253 254
-146.431 113.111 -1507 253 253 253
-143.408 113.096 -1507 252 252 252
-140.479 113.157 -1508 253 253 253
-137.547 113.218 -1509 254 254 255
-134.524 113.204 -1509 253 253 255
-131.763 113.416 -1512 254 253 255
-128.65 113.328 -1511 251 251 253
-125.709 113.39 -1512 245 245 249
-122.684 113.377 -1512 238 239 245
-119.659 113.365 -1512 236 238 244
-116.559 113.278 -1511 239 241 247
-113.613 113.341 -1512 251 252 254
-110.738 113.48 -1514 253 253 254
-107.785 113.544 -1515 255 252 254
-104.828 113.608 -1516 254 253 254
-101.801 113.598 -1516 251 251 252
-98.7749 113.587 -1516 251 252 252
-95.6865 113.503 -1515 252 253 254
-92.7251 113.568 -1516 250 252 253
-89.5829 113.409 -1514 251 252 251
-86.621 113.475 -1515 253 253 250
-83.4902 113.317 -1513 251 254 251
-80.3149 113.084 -1510 251 254 252
-77.2034 112.926 -1508 250 254 255
-74.2481 112.993 -1509 252 253 255
-71.1478 112.836 -1507 253 253 255
-68.1012 112.754 -1506 251 253 255
-65.1456 112.823 -1507 250 252 255
-62.1041 112.741 -1506 250 252 255
-59.0671 112.66 -1505 248 252 255
-56.109 112.729 -1506 248 252 255
-53.1121 112.724 -1506 248 252 255
-50.1158 112.719 -1506 249 252 255
-47.1197 112.714 -1506 248 251 254
-44.0948 112.635 -1505 246 250 253
-41.1287 112.705 -1506 245 249 252
-38.1084 112.626 -1505 240 247 252
-35.0924 112.548 -1504 240 246 252
-32.102 112.544 -1504 242 248 254
-29.1119 112.541 -1504 242 249 255
-26.1219 112.539 -1504 240 247 255
-23.1629 112.686 -1506 240 247 252
-20.1561 112.609 -1505 242 249 254
-17.1646 112.607 -1505 244 250 255
-14.164 112.53 -1504 244 250 255
-11.1823 112.604 -1505 245 250 255
-8.18584 112.528 -1504 246 250 253
-5.20726 112.752 -1507 245 249 252
-2.21386 112.826 -1508 247 251 254
0.783494 112.901 -1509 250 253 255
3.78232 112.901 -1509 249 252 254
6.78118 112.902 -1509 249 253 254
9.78658 112.978 -1510 250 254 255
12.7877 112.979 -1510 250 254 255
15.7993 113.055 -1511 250 252 255
18.8025 113.057 -1511 251 253 255
21.8347 113.208 -1513 251 253 255
24.8422 113.211 -1513 249 251 253
27.8867 113.363 -1515 245 247 249
30.919 113.441 -1516 239 241 246
33.9557 113.519 -1517 233 235 242
36.9964 113.597 -1518 231 233 240
40.0415 113.676 -1519 228 231 240
43.0908 113.755 -1520 228 231 239
46.1748 113.909 -1522 233 235 243
49.2672 114.064 -1524 238 240 247
52.3336 114.144 -1525 246 247 254
55.4043 114.224 -1526 255 253 255
58.5179 114.38 -1528 254 253 254
61.6398 114.535 -1530 252 252 253
64.6433 114.467 -1529 251 253 253
67.7763 114.623 -1531 252 254 254
70.8714 114.705 -1532 253 254 255
73.9712 114.787 -1533 252 252 255
77.1759 115.02 -1536 251 250 255
80.4456 115.327 -1540 245 244 252
83.569 115.41 -1541 243 242 252
86.6972 115.494 -1542 236 235 248
89.8883 115.652 -1544 234 236 247
92.9676 115.662 -1544 235 238 249
96.0476 115.671 -1544 234 241 251
99.1927 115.756 -1545 237 241 249
102.343 115.841 -1546 237 240 247
105.565 116.001 -1548 236 239 248
108.727 116.087 -1549 234 238 248
111.893 116.173 -1550 235 240 250
115.065 116.26 -1551 238 243 252
118.165 116.271 -1551 240 245 253
121.187 116.209 -1550 242 248 254
124.287 116.221 -1550 246 250 255
127.47 116.309 -1551 247 251 255
130.49 116.247 -1550 248 251 255
133.593 116.26 -1550 248 251 255
136.697 116.274 -1550 248 251 255
139.893 116.363 -1551 249 251 255
143.001 116.377 -1551 247 249 254
146.393 116.617 -1554 248 250 254
149.414 116.557 -1553 247 249 255
152.432 116.497 -1552 247 249 255
155.647 116.588 -1553 247 249 255
158.765 116.604 -1553 245 249 251
161.781 116.545 -1552 244 248 249
165.006 116.636 -1553 244 248 250
168.129 116.653 -1553 247 250 252
171.363 116.746 -1554 251 253 255
174.49 116.763 -1554 253 253 255
177.733 116.856 -1555 252 252 254
180.981 116.95 -1556 253 253 253
184.235 117.043 -1557 254 254 254
187.254 116.987 -1556 253 253 253
190.27 116.931 -1555 253 253 253
193.657 117.101 -1557 253 253 253
196.801 117.121 -1557 253 253 253
200.203 117.292 -1559 253 253 253
203.484 117.387 -1560 253 253 253
206.772 117.484 -1561 252 252 252
209.796 117.43 -1560 252 253 251
213.363 117.677 -1563 251 252 253
216.668 117.774 -1564 248 250 252
220.119 117.947 -1566 239 241 245
223.58 118.12 -1568 231 233 241
226.906 118.219 -1569 227 229 240
230.091 118.242 -1569 221 227 236
233.427 118.341 -1570 226 227 239
236.619 118.365 -1570 229 226 241
239.965 118.465 -1571 227 227 238
242.852 118.339 -1569 234 231 243
245.891 118.288 -1568 218 211 223
249.086 118.314 -1568 112 90 97
252.444 118.415 -1569 99 58 68
255.809 118.516 -1570 130 45 64
259.509 118.769 -1573 135 46 59
263.725 119.249 -1579 134 45 53
267.123 119.352 -1580 162 75 71
270.868 119.606 -1583 204 131 111
274.456 119.785 -1585 207 140 115
278.229 120.041 -1588 199 146 110
281.662 120.145 -1589 196 150 111
285.102 120.25 -1590 199 153 112
288.911 120.506 -1593 201 153 108
292.184 120.536 -1593 203 157 114
295.46 120.566 -1593 207 161 118
298.925 120.673 -1594 208 162 120
302.208 120.704 -1594 208 162 119
305.11 120.584 -1592 214 168 124
308.588 120.691 -1593 217 169 124
312.072 120.799 -1594 218 170 128
315.365 120.831 -1594 219 171 130
318.261 120.713 -1592 220 171 133
321.758 120.821 -1593 218 172 131
324.853 120.779 -1592 218 172 130
328.153 120.813 -1592 222 176 132
331.664 120.923 -1593 221 175 132
335.392 121.109 -1595 220 174 130
338.706 121.144 -1595 219 172 129
342.024 121.18 -1595 218 173 130
345.561 121.291 -1596 218 174 133
348.667 121.252 -1595 218 174 135
352.215 121.364 -1596 222 176 135
354.878 121.173 -1593 224 178 139
358.656 121.362 -1595 225 179 140
361.764 121.323 -1594 225 179 141
365.101 121.361 -1594 224 181 145
367.978 121.247 -1592 223 180 144
372.016 121.514 -1595 224 181 144
375.129 121.477 -1594 223 182 145
378.953 121.669 -1596 225 185 148
382.31 121.709 -1596 227 188 152
385.911 121.826 -1597 227 191 156
389.033 121.79 -1596 228 192 156
391.908 121.678 -1594 227 191 154
395.026 121.643 -1593 226 189 158
398.393 121.685 -1593 225 190 154
402.016 121.803 -1594 226 191 155
405.138 121.769 -1593 229 194 158
409.029 121.965 -1595 230 195 159
412.156 121.932 -1594 230 195 159
415.283 121.899 -1593 234 198 162
418.408 121.866 -1592 236 200 168
421.798 121.91 -1592 237 201 170
424.658 121.802 -1590 239 204 172
428.321 121.924 -1591 237 202 170
431.991 122.046 -1592 235 200 167
435.67 122.168 -1593 238 203 171
439.908 122.445 -1596 240 205 173
444.163 122.722 -1599 240 205 175
447.595 122.769 -1599 241 206 177
450.749 122.74 -1598 245 210 181
454.755 122.942 -1600 245 211 182
458.487 123.067 -1601 245 210 183
461.363 122.962 -1599 247 212 184
464.815 123.012 -1599 246 211 183
468.857 123.215 -1601 243 210 180
471.732 123.111 -1599 245 212 185
474.602 123.008 -1597 246 212 185
479.264 123.367 -1601 245 212 185
482.742 123.418 -1601 244 212 187
486.528 123.547 -1602 247 214 188
490.628 123.754 -1604 249 215 190
495.05 124.038 -1607 249 214 190
498.248 124.014 -1606 250 216 195
502.071 124.145 -1607 252 218 198
505.903 124.277 -1608 254 221 200
508.794 124.176 -1606 255 223 199
511.681 124.077 -1604 254 222 198
515.527 124.209 -1605 252 219 196
520.029 124.497 -1608 253 221 197
523.572 124.554 -1608 255 222 197
526.464 124.455 -1606 255 221 201
530.673 124.668 -1608 254 220 199
548.852 125.038 -1609 255 224 203
552.781 125.175 -1610 255 226 205
557.41 125.469 -1613 255 226 207
560.319 125.374 -1611 255 224 206
563.924 125.435 -1611 253 224 204
568.239 125.653 -1613 250 223 199
571.505 125.637 -1612 245 217 196
573.701 125.388 -1608 230 207 192
578.398 125.685 -1611 197 177 167
582.752 125.904 -1613 154 137 130
583.849 125.422 -1606 105 92 90
586.018 125.173 -1602 69 53 54
-665.01 118.466 -1532 219 196 178
-660.939 118.316 -1531 234 210 189
-654.733 117.78 -1525 243 219 198
-649.843 117.477 -1522 244 220 199
-645.397 117.251 -1520 245 220 199
-641.39 117.104 -1519 246 218 196
-637.814 117.034 -1519 245 216 195
-635.497 117.195 -1522 244 215 194
-631.512 117.049 -1521 244 215 198
-628.776 117.134 -1523 240 212 197
-626.036 117.22 -1525 239 212 196
-622.069 117.075 -1524 240 210 191
-620.142 117.315 -1528 237 210 188
-616.589 117.248 -1528 234 207 185
-612.64 117.104 -1527 233 206 184
-607.904 116.808 -1524 233 205 183
-604.774 116.819 -1525 232 204 184
-601.251 116.754 -1525 232 204 187
-598.518 116.842 -1527 233 203 182
-596.172 117.007 -1530 229 199 177
-592.655 116.943 -1530 230 198 173
-588.758 116.803 -1529 232 195 170
-584.872 116.664 -1528 230 195 171
-580.997 116.525 -1527 228 195 174
-577.131 116.386 -1526 225 193 170
-574.027 116.401 -1527 223 191 166
-570.551 116.34 -1527 221 192 161
-566.708 116.203 -1526 219 190 157
-563.245 116.142 -1526 217 185 151
-559.42 116.006 -1525 218 182 144
-555.97 115.947 -1525 215 179 143
-552.887 115.964 -1526 210 173 138
-549.085 115.829 -1525 204 165 130
-546.366 115.922 -1527 195 157 117
-543.287 115.94 -1528 188 149 108
-540.21 115.959 -1529 185 145 100
-537.132 115.977 -1530 184 140 96
-534.404 116.072 -1532 181 136 93
-531.326 116.091 -1533 179 132 91
-527.559 115.96 -1532 185 133 93
-523.802 115.828 -1531 192 140 100
-520.054 115.698 -1530 205 152 118
-516.99 115.719 -1531 209 158 121
-512.586 115.438 -1528 211 160 122
-509.199 115.384 -1528 214 164 124
-506.809 115.557 -1531 217 167 128
-503.096 115.428 -1530 218 167 129
-499.065 115.225 -1528 211 169 128
-495.697 115.172 -1528 214 168 129
-492.655 115.196 -1529 213 165 127
-489.293 115.145 -1529 209 164 130
-485.301 114.943 -1527 197 140 114
-481.006 114.667 -1524 144 70 56
-476.101 114.24 -1519 141 50 57
-471.845 113.965 -1516 138 48 55
-467.916 113.766 -1514 131 48 51
-464.306 113.642 -1513 126 44 55
-461.315 113.669 -1514 172 99 111
-458.021 113.621 -1514 219 217 231
-455.031 113.649 -1515 232 230 244
-451.445 113.527 -1514 225 223 236
-448.163 113.48 -1514 218 218 232
-444.591 113.359 -1513 224 222 238
-441.611 113.388 -1514 235 232 250
-437.762 113.192 -1512 233 235 251
-434.213 113.072 -1511 233 235 250
-431.242 113.102 -1512 235 238 247
-428.554 113.208 -1514 240 243 250
-426.142 113.388 -1517 246 248 255
-422.885 113.344 -1517 250 250 255
-420.185 113.45 -1519 248 249 255
-416.931 113.407 -1519 246 247 255
-413.408 113.289 -1518 246 247 255
-409.624 113.098 -1516 246 247 255
-406.387 113.056 -1516 246 247 255
-403.42 113.089 -1517 242 244 255
-400.188 113.048 -1517 238 240 252
-397.222 113.081 -1518 234 238 248
-394.255 113.115 -1519 231 236 246
-391.029 113.075 -1519 228 233 243
-387.807 113.035 -1519 223 228 241
-384.589 112.995 -1519 220 225 238
-381.373 112.956 -1519 225 230 243
-378.411 112.992 -1520 232 236 249
-375.693 113.102 -1522 234 237 250
-372.237 112.989 -1521 231 235 247
-369.758 113.174 -1524 232 234 246
-366.789 113.211 -1525 233 235 246
-363.343 113.1 -1524 233 237 248
-359.903 112.989 -1523 231 236 247
-356.705 112.952 -1523 223 229 241
-353.278 112.842 -1522 219 225 238
-349.859 112.732 -1521 219 224 237
-346.674 112.697 -1521 221 224 237
-343.492 112.662 -1521 220 224 238
-340.314 112.627 -1521 221 225 240
-337.581 112.741 -1523 224 229 246
-334.843 112.855 -1525 228 233 249
-331.882 112.895 -1526 229 235 250
-329.135 113.01 -1528 228 233 249
-326.383 113.125 -1530 224 229 244
-322.78 112.944 -1528 216 221 237
-319.398 112.838 -1527 212 217 234
-316.229 112.806 -1527 209 214 231
-312.858 112.7 -1526 206 211 227
-309.9 112.742 -1527 202 208 223
-306.94 112.785 -1528 204 209 224
-303.979 112.828 -1529 202 208 223
-300.819 112.798 -1529 205 210 225
-297.856 112.841 -1530 202 206 223
-294.507 112.738 -1529 211 215 232
-291.164 112.635 -1528 217 223 240
-287.64 112.458 -1526 231 236 251
-283.939 112.209 -1523 236 241 255
-280.254 111.959 -1520 232 235 253
-276.218 111.563 -1515 224 229 247
-272.746 111.388 -1513 223 229 248
-268.928 111.067 -1509 229 235 249
-265.834 111.04 -1509 234 239 252
-262.567 110.94 -1508 238 243 252
-259.307 110.84 -1507 240 246 254
-255.883 110.668 -1505 242 249 255
-252.806 110.642 -1505 246 249 255
-249.896 110.691 -1506 249 251 255
-246.657 110.592 -1505 251 252 255
-243.747 110.641 -1506 252 253 254
-240.835 110.691 -1507 252 253 254
-238.079 110.814 -1509 251 253 255
-234.85 110.717 -1508 251 253 255
-231.78 110.694 -1508 251 252 255
-228.713 110.671 -1508 249 251 255
-225.348 110.501 -1506 247 249 255
-222.14 110.406 -1505 244 248 255
-219.084 110.384 -1505 242 245 253
-215.743 110.215 -1503 241 244 251
-212.978 110.341 -1505 239 244 252
-209.787 110.247 -1504 240 245 253
-206.74 110.226 -1504 235 242 251
-203.56 110.132 -1503 235 242 251
-200.385 110.039 -1502 233 240 249
-197.084 109.873 -1500 233 240 249
-194.052 109.853 -1500 234 241 250
-191.022 109.834 -1500 234 241 250
-188.118 109.889 -1501 236 243 251
-185.212 109.944 -1502 237 244 252
-182.303 109.999 -1503 240 246 252
-179.392 110.054 -1504 242 248 254
-176.243 109.963 -1503 243 247 254
-173.1 109.873 -1502 241 247 254
-170.076 109.856 -1502 239 246 253
-166.942 109.766 -1501 243 249 255
-163.923 109.75 -1501 246 251 255
-161.119 109.88 -1503 248 253 255
-158.309 110.01 -1505 250 253 255
-155.285 109.995 -1505 251 253 255
-152.566 110.199 -1508 251 253 255
-149.539 110.184 -1508 252 253 255
-146.416 110.096 -1507 253 253 254
-143.584 110.228 -1509 253 253 254
-140.558 110.214 -1509 253 253 254
-137.534 110.2 -1509 253 253 254
-134.51 110.187 -1509 253 253 254
-131.75 110.393 -1512 254 253 255
-128.637 110.307 -1511 253 252 255
-125.78 110.441 -1513 252 252 255
-122.834 110.501 -1514 251 252 255
-119.885 110.562 -1515 250 251 254
-116.779 110.478 -1514 249 250 254
-113.903 110.612 -1516 252 252 255
-110.947 110.674 -1517 252 252 255
-107.845 110.591 -1516 254 253 254
-104.818 110.58 -1516 253 252 253
-101.724 110.497 -1515 252 252 253
-98.5697 110.342 -1513 253 253 253
-95.4875 110.259 -1512 253 253 254
-92.5324 110.323 -1513 251 253 255
-89.5148 110.314 -1513 251 252 252
-86.4409 110.232 -1512 251 252 251
-83.3715 110.151 -1511 252 253 253
-80.2006 109.924 -1508 252 253 253
-77.0934 109.771 -1506 251 253 255
-74.1423 109.836 -1507 251 253 255
-71.0935 109.756 -1506 251 252 255
-68.0492 109.677 -1505 249 251 255
-65.0527 109.67 -1505 250 252 255
-62.0568 109.664 -1505 248 251 255
-59.0612 109.658 -1505 246 250 254
-56.1034 109.725 -1506 246 251 255
-53.1422 109.793 -1507 248 252 255
-50.1107 109.715 -1506 247 252 254
-47.115 109.71 -1506 245 250 254
-44.0903 109.633 -1505 242 247 250
-41.0974 109.629 -1505 240 245 249
-38.0793 109.552 -1504 237 243 248
-35.0656 109.475 -1503 236 242 248
-32.0561 109.399 -1502 239 245 251
-29.0702 109.396 -1502 241 248 255
-26.0846 109.394 -1502 242 249 255
-23.1299 109.537 -1504 241 248 254
-20.1407 109.535 -1504 242 248 254
-17.163 109.606 -1505 243 249 254
-14.1626 109.531 -1504 244 250 255
-11.1812 109.603 -1505 244 250 255
-8.17959 109.456 -1503 245 249 254
-5.19984 109.601 -1505 245 248 253
-2.21218 109.747 -1507 245 248 252
0.782892 109.819 -1508 248 252 254
3.77944 109.82 -1508 249 253 255
6.78051 109.893 -1509 250 254 255
9.79857 110.112 -1512 250 254 255
12.7863 109.968 -1510 249 254 255
15.8082 110.115 -1512 251 253 255
18.8255 110.189 -1513 251 253 255
21.8614 110.337 -1515 250 252 255
24.8726 110.339 -1515 246 248 251
27.9207 110.488 -1517 239 241 245
30.9567 110.563 -1518 236 236 243
33.9745 110.566 -1518 234 234 241
36.9928 110.57 -1518 234 234 242
40.0375 110.647 -1519 233 236 244
43.0582 110.651 -1519 237 239 247
46.1095 110.728 -1520 244 245 253
49.1652 110.805 -1521 248 250 255
52.2255 110.883 -1522 251 252 255
55.3262 111.034 -1524 254 252 255
58.4737 111.258 -1527 254 252 254
61.5935 111.41 -1529 254 253 254
64.6792 111.489 -1530 254 254 255
67.8137 111.641 -1532 252 252 253
71.0032 111.867 -1535 253 253 253
74.205 112.092 -1538 250 250 255
77.319 112.173 -1539 243 243 250
80.5419 112.399 -1542 235 234 245
83.7234 112.553 -1544 236 236 247
86.8011 112.561 -1544 234 233 245
89.8792 112.57 -1544 232 233 245
93.0185 112.652 -1545 232 235 247
96.1003 112.661 -1545 231 238 249
99.2471 112.744 -1546 234 238 246
102.399 112.827 -1547 236 239 246
105.623 112.983 -1549 236 239 249
108.786 113.066 -1550 233 237 247
111.882 113.077 -1550 231 236 247
115.053 113.161 -1551 233 238 247
118.229 113.246 -1552 234 239 248
121.253 113.184 -1551 236 242 248
124.355 113.197 -1551 241 247 253
127.54 113.282 -1552 245 251 255
130.477 113.149 -1550 247 250 255
133.58 113.162 -1550 247 250 255
136.684 113.175 -1550 249 252 255
139.789 113.189 -1550 250 252 255
142.895 113.202 -1550 247 249 254
146.285 113.436 -1553 245 247 251
149.399 113.45 -1553 248 250 255
152.515 113.465 -1553 247 249 255
155.631 113.48 -1553 247 249 255
158.75 113.496 -1553 245 248 251
161.973 113.585 -1554 243 247 248
165.096 113.601 -1554 243 247 250
168.22 113.617 -1554 246 249 251
171.346 113.634 -1554 250 252 254
174.473 113.651 -1554 254 254 255
177.715 113.742 -1555 253 253 255
180.847 113.76 -1555 253 253 255
184.217 113.924 -1557 254 254 254
187.235 113.869 -1556 253 253 253
190.373 113.888 -1556 253 253 253
193.762 114.053 -1558 253 253 253
196.907 114.073 -1558 252 252 252
200.183 114.166 -1559 254 254 254
203.073 114.039 -1557 253 253 253
206.751 114.352 -1561 250 250 250
209.64 114.226 -1559 245 246 246
213.342 114.541 -1563 242 244 246
216.646 114.635 -1564 239 241 244
220.237 114.877 -1567 228 230 237
223.7 115.046 -1569 221 223 232
227.028 115.141 -1570 218 220 231
230.068 115.091 -1569 215 224 235
233.552 115.26 -1571 222 226 240
236.745 115.284 -1571 228 226 242
239.94 115.308 -1571 224 227 238
242.982 115.258 -1570 229 226 238
246.18 115.283 -1570 186 171 184
249.378 115.307 -1570 119 63 71
252.58 115.332 -1570 116 53 65
256.271 115.578 -1573 128 46 65
259.978 115.824 -1576 133 46 60
263.698 116.071 -1579 138 50 59
267.603 116.392 -1583 178 91 86
271.525 116.713 -1587 201 128 108
274.774 116.74 -1587 202 135 110
278.551 116.988 -1590 192 141 104
281.988 117.09 -1591 192 146 106
285.073 117.045 -1590 194 146 106
288.7 117.221 -1592 197 146 104
292.154 117.323 -1593 195 149 106
295.615 117.427 -1594 199 152 109
299.083 117.53 -1595 204 157 114
302.178 117.487 -1594 202 155 111
305.271 117.443 -1593 206 158 114
309.137 117.696 -1596 209 161 116
312.628 117.801 -1597 209 161 117
315.333 117.611 -1594 209 161 118
318.629 117.643 -1594 210 161 121
321.725 117.601 -1593 208 162 119
324.82 117.56 -1592 208 162 118
328.119 117.593 -1592 209 162 115
331.63 117.7 -1593 209 162 119
334.937 117.734 -1593 209 161 118
338.459 117.842 -1594 209 160 117
341.774 117.876 -1594 209 162 119
344.876 117.837 -1593 211 164 124
348.413 117.946 -1594 212 166 127
351.958 118.055 -1595 214 168 127
354.841 117.943 -1593 217 171 132
358.394 118.053 -1594 219 173 135
361.727 118.09 -1594 221 175 137
365.292 118.201 -1595 221 177 140
368.402 118.164 -1594 219 176 138
372.211 118.35 -1596 219 176 135
375.561 118.388 -1596 217 176 136
379.389 118.575 -1598 218 179 138
382.51 118.539 -1597 220 182 141
385.63 118.504 -1596 220 184 145
388.749 118.469 -1595 220 184 145
391.868 118.435 -1594 219 183 145
394.985 118.401 -1593 220 184 149
398.102 118.367 -1592 220 185 146
401.975 118.557 -1594 219 185 145
405.351 118.598 -1594 218 183 145
408.987 118.714 -1595 222 187 149
412.113 118.682 -1594 223 187 149
415.239 118.65 -1593 224 188 150
418.365 118.618 -1592 225 189 155
421.755 118.661 -1592 226 190 156
424.881 118.63 -1591 228 193 158
428.276 118.674 -1591 225 190 156
431.946 118.793 -1592 221 186 150
436.171 119.061 -1595 228 193 158
439.862 119.181 -1596 231 196 162
443.839 119.376 -1598 233 198 164
447.548 119.497 -1599 235 202 166
450.701 119.468 -1598 236 204 167
453.57 119.366 -1596 238 205 169
457.867 119.637 -1599 238 205 171
461.314 119.685 -1599 239 206 171
464.766 119.733 -1599 239 207 170
468.515 119.856 -1600 241 208 178
471.977 119.905 -1600 243 207 180
475.146 119.879 -1599 241 206 179
479.513 120.154 -1602 241 208 181
483.294 120.279 -1603 239 207 182
486.173 120.179 -1601 240 208 179
490.576 120.455 -1604 242 210 180
494.689 120.657 -1606 245 211 184
498.195 120.708 -1606 248 215 189
502.643 120.986 -1609 249 214 190
505.85 120.964 -1608 249 214 190
509.69 121.092 -1609 252 217 190
512.264 120.92 -1606 252 217 191
516.436 121.124 -1608 251 218 195
519.974 121.179 -1608 254 222 199
523.516 121.233 -1608 254 222 199
525.097 120.836 -1602 253 218 192
529.626 121.118 -1605 254 220 194
532.513 121.023 -1603 254 222 196
535.729 121.004 -1602 254 222 197
539.957 121.211 -1604 255 223 199
544.875 121.571 -1608 255 223 202
547.77 121.477 -1606 255 223 203
552.035 121.687 -1608 255 225 203
556.314 121.897 -1610 255 224 203
559.215 121.805 -1608 255 224 200
563.163 121.94 -1609 255 226 202
566.769 122 -1609 255 229 204
570.38 122.06 -1609 255 228 204
573.282 121.969 -1607 254 229 208
579.412 122.562 -1614 253 232 214
584.495 122.928 -1618 246 226 211
587.421 122.838 -1616 233 215 204
591.075 122.901 -1616 190 169 161
593.63 122.736 -1613 122 104 98
-666.838 114.992 -1528 244 218 197
-658.278 114.625 -1525 240 214 191
-652.945 114.254 -1521 243 217 195
-648.492 114.035 -1519 246 219 197
-643.205 113.666 -1515 243 216 194
-641.321 113.897 -1519 244 215 195
-638.585 113.979 -1521 242 213 193
-634.594 113.837 -1520 241 212 192
-631.444 113.844 -1521 239 210 192
-629.121 114.002 -1524 238 210 193
-626.38 114.085 -1526 239 211 194
-622.003 113.869 -1524 238 209 191
-619.264 113.953 -1526 236 209 189
-616.119 113.963 -1527 234 207 187
-611.371 113.674 -1524 231 202 182
-607.041 113.461 -1522 230 201 181
-603.52 113.397 -1522 229 200 180
-600.399 113.408 -1523 228 199 179
-597.279 113.42 -1524 230 200 178
-594.939 113.58 -1527 228 197 174
-591.042 113.444 -1526 230 197 172
-587.926 113.457 -1527 229 197 172
-584.045 113.321 -1526 227 195 171
-580.555 113.26 -1526 224 193 171
-577.07 113.2 -1526 221 191 166
-574.342 113.288 -1528 220 190 164
-570.864 113.228 -1528 220 191 163
-567.02 113.095 -1527 219 190 160
-563.555 113.036 -1527 218 187 156
-559.728 112.904 -1526 219 185 149
-555.911 112.772 -1525 217 182 147
-552.467 112.714 -1525 214 178 143
-549.387 112.731 -1526 210 172 138
-546.666 112.822 -1528 201 165 129
-543.586 112.84 -1529 194 156 119
-540.506 112.858 -1530 191 148 107
-537.778 112.949 -1532 185 143 100
-534.697 112.968 -1533 180 137 95
-531.27 112.913 -1533 181 135 94
-527.848 112.858 -1533 182 134 94
-524.089 112.731 -1532 189 140 101
-520 112.53 -1530 199 149 113
-516.937 112.55 -1531 208 158 122
-512.532 112.277 -1528 212 163 126
-509.479 112.298 -1529 214 165 127
-506.757 112.393 -1531 214 166 128
-503.701 112.415 -1532 215 167 128
-499.34 112.143 -1529 210 166 129
-496.294 112.166 -1530 211 165 129
-492.282 111.969 -1528 208 163 127
-488.923 111.919 -1528 204 156 123
-484.615 111.65 -1525 198 144 117
-480.956 111.527 -1524 151 89 69
-476.365 111.186 -1520 139 48 52
-471.797 110.845 -1516 134 45 49
-467.868 110.651 -1514 129 46 50
-464.565 110.604 -1514 128 45 54
-461.268 110.557 -1514 138 63 74
-457.974 110.511 -1514 205 180 196
-454.984 110.537 -1515 230 219 237
-451.995 110.564 -1516 217 211 230
-448.413 110.446 -1515 211 215 228
-445.133 110.401 -1515 224 226 241
-441.857 110.356 -1515 238 238 254
-438.296 110.239 -1514 230 235 254
-434.743 110.122 -1513 229 233 249
-431.483 110.079 -1513 233 236 245
-428.793 110.181 -1515 240 243 251
-426.099 110.283 -1517 247 250 255
-422.842 110.241 -1517 250 251 255
-419.866 110.271 -1518 249 251 255
-416.889 110.302 -1519 249 251 255
-413.366 110.188 -1518 249 250 255
-409.852 110.074 -1517 248 250 255
-406.614 110.033 -1517 247 249 255
-403.645 110.065 -1518 244 246 255
-400.411 110.025 -1518 239 242 253
-397.182 109.985 -1518 233 236 247
-394.474 110.091 -1520 227 231 243
-391.247 110.052 -1520 225 230 243
-388.023 110.013 -1520 221 226 239
-384.803 109.974 -1520 219 224 237
-381.586 109.936 -1520 220 225 238
-378.372 109.898 -1520 229 234 247
-375.409 109.933 -1521 233 237 250
-372.2 109.896 -1521 231 236 249
-369.479 110.004 -1523 232 236 247
-366.512 110.04 -1524 232 235 246
-363.306 110.004 -1524 231 234 245
-359.867 109.896 -1523 228 231 243
-356.435 109.788 -1522 223 226 237
-353.243 109.753 -1522 220 223 238
-349.824 109.646 -1521 221 223 238
-346.639 109.612 -1521 220 223 236
-343.684 109.65 -1522 219 222 237
-340.503 109.616 -1522 221 223 239
-337.769 109.727 -1524 225 230 245
-334.81 109.766 -1525 228 233 249
-331.849 109.805 -1526 227 233 250
-328.887 109.844 -1527 226 231 248
-325.924 109.884 -1528 222 227 244
-322.748 109.852 -1528 217 222 239
-319.575 109.82 -1528 213 218 235
-316.405 109.789 -1528 209 215 232
-313.032 109.687 -1527 210 215 229
-310.072 109.728 -1528 206 211 225
-306.909 109.698 -1528 203 209 224
-303.75 109.668 -1528 200 205 222
-300.592 109.638 -1528 202 207 224
-297.827 109.752 -1530 205 207 224
-294.285 109.58 -1528 222 225 241
-291.326 109.623 -1529 232 234 250
-287.8 109.452 -1527 239 243 255
-284.098 109.209 -1524 238 242 255
-280.226 108.895 -1520 231 236 253
-276.738 108.724 -1518 225 229 248
-273.08 108.482 -1515 224 228 248
-269.258 108.17 -1511 228 233 244
-265.808 108 -1509 235 240 250
-262.367 107.832 -1507 238 243 252
-259.282 107.806 -1507 240 246 253
-255.858 107.638 -1505 242 248 254
-252.781 107.614 -1505 246 249 255
-249.871 107.661 -1506 248 251 255
-246.632 107.565 -1505 250 252 255
-243.723 107.613 -1506 251 253 255
-240.812 107.661 -1507 251 253 255
-237.898 107.709 -1508 251 253 255
-234.827 107.686 -1508 252 253 254
-231.911 107.735 -1509 252 252 252
-228.69 107.641 -1508 250 251 254
-225.326 107.476 -1506 249 251 255
-222.118 107.383 -1505 247 249 254
-218.917 107.291 -1504 243 246 252
-215.722 107.198 -1503 242 245 251
-212.957 107.32 -1505 240 246 252
-209.767 107.229 -1504 239 245 251
-206.72 107.209 -1504 236 241 250
-203.405 107.046 -1502 234 240 250
-200.365 107.027 -1502 233 240 250
-197.196 106.936 -1501 233 240 250
-194.163 106.917 -1501 233 240 250
-191.13 106.899 -1501 233 239 250
-188.35 107.023 -1503 234 240 250
-185.317 107.005 -1503 237 244 253
-182.285 106.988 -1503 241 247 253
-179.255 106.97 -1503 242 248 254
-176.226 106.953 -1503 244 247 254
-172.853 106.723 -1500 241 247 255
-169.833 106.706 -1500 238 245 253
-166.703 106.619 -1499 242 248 254
-163.579 106.532 -1498 243 249 255
-160.782 106.659 -1500 246 252 255
-157.978 106.786 -1502 250 254 255
-155.063 106.842 -1503 252 254 255
-152.349 107.04 -1506 250 254 255
-149.425 107.097 -1507 251 254 255
-146.499 107.154 -1508 253 253 255
-143.57 107.211 -1509 253 253 255
-140.544 107.197 -1509 253 253 255
-137.612 107.255 -1510 253 253 253
-134.497 107.171 -1509 254 253 253
-131.737 107.371 -1512 255 252 253
-128.625 107.288 -1511 254 254 255
-125.767 107.418 -1513 253 253 255
-122.741 107.406 -1513 253 253 255
-119.873 107.536 -1515 253 253 255
-116.844 107.525 -1515 253 253 255
-113.816 107.514 -1515 252 252 255
-110.863 107.574 -1516 252 252 255
-107.763 107.493 -1515 253 253 255
-104.669 107.411 -1514 252 252 254
-101.647 107.402 -1514 252 252 254
-98.5601 107.321 -1513 253 253 255
-95.4783 107.241 -1512 253 253 255
-92.5234 107.303 -1513 253 253 255
-89.447 107.223 -1512 252 253 255
-86.3181 107.073 -1510 251 253 255
-83.3083 107.065 -1510 253 253 255
-80.1396 106.844 -1507 253 254 255
-77.0347 106.695 -1505 251 253 255
-74.086 106.759 -1506 250 253 255
-71.1338 106.823 -1507 249 253 255
-68.0878 106.745 -1506 248 251 255
-65.0897 106.739 -1506 247 251 255
-62.1332 106.804 -1507 244 250 255
-59.0947 106.727 -1506 243 249 254
-56.1353 106.793 -1507 244 250 255
-53.137 106.787 -1507 247 251 254
-50.1059 106.712 -1506 246 251 254
-47.1417 106.778 -1507 242 248 253
-44.1154 106.703 -1506 239 245 250
-41.1206 106.699 -1506 238 244 249
-38.0756 106.553 -1504 239 242 248
-35.0856 106.55 -1504 237 241 247
-32.0743 106.476 -1503 237 243 248
-29.0674 106.402 -1502 241 247 253
-26.0821 106.399 -1502 242 249 255
-23.1277 106.539 -1504 243 249 255
-20.1387 106.536 -1504 242 248 253
-17.1385 106.464 -1503 243 249 254
-14.1519 106.462 -1503 244 250 255
-11.1727 106.532 -1504 244 249 254
-8.17882 106.46 -1503 247 250 255
-5.19589 106.531 -1504 245 248 254
-2.20904 106.601 -1505 243 246 252
0.782292 106.743 -1507 245 249 252
3.77907 106.814 -1508 248 252 255
6.77985 106.885 -1509 249 253 255
9.79763 107.098 -1512 249 255 255
12.7935 107.029 -1511 249 255 255
15.8171 107.172 -1513 251 255 255
18.8361 107.244 -1514 250 253 255
21.8737 107.388 -1516 246 248 253
24.903 107.461 -1517 240 242 248
27.9365 107.534 -1518 236 237 244
30.9741 107.608 -1519 238 235 245
33.9936 107.611 -1519 238 236 244
36.989 107.543 -1518 243 240 248
40.0073 107.547 -1518 247 247 252
43.0257 107.551 -1518 250 251 254
46.1051 107.697 -1520 252 252 255
49.1605 107.772 -1521 250 252 254
52.2203 107.848 -1522 252 254 255
55.3572 108.066 -1525 254 254 255
58.4298 108.142 -1526 254 253 254
61.5874 108.36 -1529 255 253 254
64.673 108.437 -1530 255 251 255
67.8958 108.727 -1534 253 251 254
71.0887 108.946 -1537 247 249 254
74.2944 109.166 -1540 242 244 253
77.4622 109.315 -1542 231 233 245
80.6387 109.464 -1544 225 227 241
83.7152 109.472 -1544 231 234 247
86.7926 109.48 -1544 228 231 244
89.8124 109.418 -1543 230 231 247
93.0094 109.568 -1545 232 233 249
96.091 109.577 -1545 232 235 250
99.2374 109.658 -1546 233 236 249
102.389 109.738 -1547 233 235 248
105.681 109.961 -1550 233 236 247
108.776 109.971 -1550 233 236 248
111.871 109.982 -1550 230 233 246
115.042 110.064 -1551 226 231 242
118.141 110.075 -1551 225 230 242
121.164 110.015 -1550 226 231 242
124.343 110.098 -1551 231 236 246
127.528 110.181 -1552 235 240 249
130.465 110.051 -1550 242 247 252
133.567 110.064 -1550 244 248 253
136.671 110.077 -1550 246 249 253
139.775 110.09 -1550 246 248 254
142.973 110.175 -1551 245 247 254
146.176 110.26 -1552 243 245 251
149.384 110.345 -1553 242 245 252
152.5 110.359 -1553 243 247 254
155.817 110.516 -1555 244 248 254
158.939 110.531 -1555 243 248 252
162.062 110.547 -1555 241 246 249
165.08 110.491 -1554 239 244 248
168.204 110.507 -1554 239 244 247
171.329 110.524 -1554 243 247 250
174.343 110.469 -1553 248 251 254
177.583 110.557 -1554 251 253 255
180.713 110.575 -1554 252 254 255
184.199 110.806 -1557 252 254 255
187.457 110.895 -1558 252 254 255
190.477 110.842 -1557 252 254 255
193.992 111.074 -1560 253 254 255
197.141 111.092 -1560 252 253 255
200.292 111.112 -1560 252 253 255
203.314 111.06 -1559 248 249 252
206.863 111.293 -1562 242 244 246
210.023 111.314 -1562 234 238 242
213.457 111.476 -1564 229 233 238
217.04 111.711 -1567 225 228 235
220.215 111.732 -1567 216 220 228
223.678 111.896 -1569 214 218 227
226.861 111.918 -1569 216 219 229
230.045 111.94 -1569 217 224 237
233.381 112.034 -1570 222 226 239
236.722 112.128 -1571 224 224 239
240.069 112.222 -1572 223 228 239
242.959 112.103 -1570 223 219 230
246.469 112.27 -1572 151 129 142
249.513 112.222 -1571 130 55 67
252.877 112.318 -1572 124 48 61
256.572 112.557 -1575 124 45 63
260.447 112.868 -1579 128 43 55
264.34 113.18 -1583 139 54 60
268.252 113.491 -1587 180 98 90
272.183 113.804 -1591 189 120 97
275.44 113.83 -1591 188 125 98
279.049 114.001 -1593 178 129 92
282.492 114.099 -1594 181 134 93
285.582 114.055 -1593 184 136 95
289.215 114.227 -1595 189 137 98
292.125 114.112 -1593 188 140 97
295.4 114.14 -1593 189 141 98
298.865 114.241 -1594 195 146 103
302.148 114.27 -1594 196 147 103
305.624 114.372 -1595 196 148 103
309.301 114.545 -1597 197 148 104
312.596 114.576 -1597 199 150 105
315.895 114.607 -1597 198 150 105
318.997 114.566 -1596 196 148 105
322.299 114.597 -1596 194 148 103
324.991 114.413 -1593 199 152 106
328.499 114.517 -1594 200 152 104
331.805 114.55 -1594 202 151 109
335.324 114.654 -1595 198 148 106
338.638 114.688 -1595 196 145 103
341.74 114.649 -1594 196 145 103
345.058 114.683 -1594 202 151 111
348.597 114.789 -1595 205 154 116
351.923 114.823 -1595 202 156 115
355.029 114.786 -1594 204 159 120
358.358 114.821 -1594 206 160 122
361.918 114.929 -1595 210 164 126
365.484 115.037 -1596 209 164 126
368.596 115.001 -1595 209 164 125
372.407 115.182 -1597 213 169 126
375.758 115.219 -1597 212 171 127
379.351 115.329 -1598 211 172 127
382.232 115.222 -1596 210 172 128
385.591 115.26 -1596 210 174 131
388.466 115.154 -1594 210 174 132
391.583 115.12 -1593 212 176 134
394.945 115.159 -1593 211 175 138
398.312 115.199 -1593 211 176 135
402.186 115.383 -1595 210 176 134
405.31 115.351 -1594 209 174 134
409.458 115.609 -1597 211 177 136
412.589 115.577 -1596 213 178 138
415.719 115.546 -1595 215 179 139
418.848 115.515 -1594 215 179 144
422.506 115.63 -1595 217 181 145
425.372 115.527 -1593 219 184 147
428.771 115.57 -1593 217 181 144
432.445 115.686 -1594 211 176 139
436.127 115.802 -1595 219 184 147
439.817 115.918 -1596 222 187 152
443.794 116.108 -1598 227 192 157
447.503 116.225 -1599 230 195 160
450.938 116.27 -1599 231 195 161
454.093 116.243 -1598 233 197 164
457.82 116.362 -1599 234 200 168
461.555 116.481 -1600 233 199 168
465.3 116.6 -1601 232 199 169
468.76 116.647 -1601 236 204 172
472.814 116.841 -1603 237 204 172
475.989 116.816 -1602 236 204 172
479.763 116.937 -1603 238 205 174
484.149 117.205 -1606 234 203 175
487.337 117.181 -1605 232 202 170
491.137 117.303 -1606 236 205 172
494.946 117.426 -1607 243 210 179
498.764 117.55 -1608 246 212 181
501.966 117.528 -1607 246 210 181
505.483 117.579 -1607 247 209 181
509.004 117.63 -1607 248 208 178
512.211 117.609 -1606 246 208 180
515.74 117.662 -1606 246 212 186
519.596 117.788 -1607 249 216 192
523.462 117.914 -1608 249 216 192
525.37 117.601 -1603 253 216 189
528.581 117.582 -1602 251 215 188
531.461 117.489 -1600 251 216 189
535.339 117.617 -1601 251 216 191
539.227 117.746 -1602 254 220 196
544.48 118.169 -1607 255 221 200
547.713 118.152 -1606 254 221 200
552.321 118.429 -1609 255 223 201
556.256 118.559 -1610 255 224 202
558.809 118.396 -1607 255 225 199
562.404 118.454 -1607 255 222 198
566.709 118.66 -1609 255 223 201
569.965 118.644 -1608 255 227 204
573.936 118.777 -1609 255 231 207
579.71 119.28 -1615 254 232 208
583.712 119.414 -1616 255 233 210
586.996 119.401 -1615 253 231 213
592.476 119.832 -1620 252 229 212
595.04 119.672 -1617 245 223 208
594.264 118.845 -1605 208 187 174
602.685 119.192 -1608 100 84 78
-705.343 112.768 -1532 80 65 62
-684.499 112.551 -1535 240 211 195
-679.933 112.333 -1533 245 215 199
-676.706 112.335 -1534 247 218 200
-670.849 111.899 -1529 247 218 199
-668.077 111.975 -1531 243 217 199
-664.434 111.906 -1531 241 215 197
-658.208 111.399 -1525 240 214 196
-653.305 111.112 -1522 241 215 197
-647.996 110.752 -1518 244 216 196
-644.411 110.685 -1518 243 215 193
-640.41 110.546 -1517 240 214 194
-635.58 110.261 -1514 238 212 192
-634.11 110.56 -1519 237 210 190
-631.378 110.64 -1521 237 208 189
-627.817 110.575 -1521 237 208 188
-625.083 110.656 -1523 236 207 188
-621.53 110.592 -1523 232 206 187
-617.983 110.528 -1523 232 204 186
-614.038 110.393 -1522 231 202 184
-610.104 110.257 -1521 229 199 179
-606.58 110.195 -1521 227 197 178
-602.665 110.061 -1520 228 198 177
-599.942 110.144 -1522 226 198 175
-597.217 110.228 -1524 227 197 174
-594.878 110.384 -1527 225 194 171
-590.981 110.251 -1526 226 194 169
-587.48 110.191 -1526 224 194 170
-583.219 109.988 -1524 224 193 170
-579.734 109.928 -1524 222 191 168
-576.254 109.87 -1524 220 191 163
-573.532 109.956 -1526 220 191 163
-570.058 109.898 -1526 220 190 162
-567.333 109.984 -1528 219 189 162
-563.128 109.783 -1526 220 188 158
-559.671 109.727 -1526 220 186 152
-556.584 109.742 -1527 219 184 149
-553.135 109.686 -1527 218 182 147
-549.691 109.631 -1527 215 178 144
-546.968 109.719 -1529 207 172 138
-543.886 109.736 -1530 204 166 130
-540.098 109.61 -1529 205 160 122
-537.372 109.699 -1531 198 156 115
-534.294 109.717 -1532 193 151 109
-530.87 109.664 -1532 195 151 110
-527.106 109.539 -1531 196 150 111
-523.694 109.487 -1531 199 152 114
-520.287 109.435 -1531 206 158 121
-516.884 109.383 -1531 212 165 127
-513.151 109.26 -1530 213 165 128
-510.427 109.352 -1532 213 165 127
-506.375 109.159 -1530 212 166 128
-502.993 109.109 -1530 211 165 126
-498.637 108.845 -1527 208 163 127
-495.271 108.796 -1527 206 161 125
-491.588 108.675 -1526 204 160 124
-488.234 108.627 -1526 203 155 119
-484.567 108.508 -1525 198 146 114
-480.908 108.389 -1524 168 111 85
-476.944 108.199 -1522 126 43 43
-472.372 107.868 -1518 131 47 49
-468.439 107.68 -1516 131 44 52
-464.826 107.563 -1515 126 43 51
-461.221 107.446 -1514 126 50 59
-457.928 107.401 -1514 175 132 148
-454.939 107.427 -1515 224 209 226
-451.95 107.453 -1516 212 209 226
-448.664 107.409 -1516 215 215 230
-445.382 107.365 -1516 231 232 248
-442.105 107.322 -1516 235 238 255
-438.252 107.137 -1514 228 233 251
-434.413 106.953 -1512 231 235 250
-431.155 106.911 -1512 239 241 250
-428.468 107.01 -1514 245 248 254
-425.776 107.11 -1516 248 251 255
-422.8 107.139 -1517 250 252 255
-420.377 107.31 -1520 250 252 255
-417.396 107.339 -1521 250 252 255
-413.598 107.158 -1519 251 251 255
-409.812 106.977 -1517 250 251 255
-406.842 107.007 -1518 248 250 255
-403.073 106.827 -1516 242 245 255
-400.108 106.859 -1517 235 239 250
-396.881 106.82 -1517 227 231 243
-393.917 106.852 -1518 225 230 242
-390.694 106.814 -1518 224 229 242
-387.73 106.847 -1519 219 224 237
-384.765 106.88 -1520 217 222 235
-381.549 106.843 -1520 215 220 233
-378.086 106.736 -1519 221 226 239
-375.125 106.77 -1520 228 233 246
-372.163 106.804 -1521 234 238 251
-369.443 106.909 -1523 235 238 250
-366.476 106.943 -1524 232 235 246
-363.509 106.978 -1525 226 229 240
-360.541 107.014 -1526 222 225 237
-357.103 106.909 -1525 220 224 236
-353.441 106.735 -1523 221 225 240
-350.249 106.701 -1523 220 224 238
-347.061 106.668 -1523 219 223 236
-344.102 106.705 -1524 219 221 236
-340.918 106.672 -1524 221 223 239
-338.18 106.779 -1526 224 229 244
-335.216 106.817 -1527 226 232 247
-332.034 106.785 -1527 224 231 247
-329.071 106.823 -1528 224 229 245
-326.106 106.862 -1529 220 225 241
-322.928 106.831 -1529 216 221 237
-319.753 106.8 -1529 213 219 235
-316.581 106.77 -1529 210 216 232
-313.207 106.67 -1528 210 214 227
-309.839 106.571 -1527 208 213 226
-306.679 106.541 -1527 205 210 225
-303.72 106.582 -1528 202 208 224
-300.563 106.553 -1528 202 207 224
-297.604 106.595 -1529 207 210 227
-294.257 106.497 -1528 229 232 249
-291.298 106.539 -1529 238 241 255
-287.772 106.372 -1527 240 245 255
-284.07 106.136 -1524 236 241 255
-280.383 105.9 -1521 231 233 251
-276.711 105.665 -1518 225 229 247
-272.873 105.361 -1514 223 228 246
-269.232 105.126 -1511 226 231 245
-265.782 104.962 -1509 232 237 250
-262.342 104.798 -1507 237 242 252
-258.913 104.634 -1505 241 246 254
-255.834 104.61 -1505 243 249 255
-252.756 104.586 -1505 245 248 255
-249.847 104.631 -1506 248 250 255
-246.936 104.677 -1507 250 252 255
-244.023 104.724 -1508 251 253 255
-240.789 104.631 -1507 251 253 255
-237.876 104.678 -1508 251 253 255
-234.649 104.587 -1507 251 253 254
-231.736 104.634 -1508 252 253 253
-228.365 104.474 -1506 250 252 255
-225.154 104.383 -1505 250 252 255
-221.802 104.223 -1503 249 251 255
-218.751 104.203 -1503 245 248 254
-215.558 104.113 -1502 243 246 252
-212.795 104.232 -1504 239 245 251
-209.608 104.142 -1503 237 243 249
-206.563 104.123 -1503 236 240 248
-203.385 104.034 -1502 233 239 247
-200.346 104.016 -1502 232 239 247
-197.178 103.928 -1501 232 239 249
-194.403 104.048 -1503 232 239 249
-191.239 103.961 -1502 231 238 248
-188.207 103.943 -1502 232 238 248
-185.053 103.856 -1501 236 243 252
-182.025 103.839 -1501 242 248 254
-178.88 103.753 -1500 242 247 254
-175.975 103.805 -1501 242 246 255
-172.721 103.651 -1499 240 245 254
-169.817 103.704 -1500 238 245 253
-166.799 103.688 -1500 240 247 253
-163.673 103.604 -1499 241 248 254
-160.767 103.658 -1500 245 251 255
-157.963 103.781 -1502 249 252 255
-155.049 103.836 -1503 251 253 255
-152.233 103.959 -1505 251 253 255
-149.312 104.015 -1506 252 253 255
-146.388 104.07 -1507 253 253 255
-143.461 104.125 -1508 253 253 255
-140.438 104.112 -1508 253 253 255
-137.507 104.168 -1509 253 253 254
-134.396 104.087 -1508 253 253 254
-131.55 104.212 -1510 254 253 253
-128.613 104.269 -1511 254 254 255
-125.673 104.326 -1512 254 254 255
-122.729 104.384 -1513 254 254 255
-119.862 104.511 -1515 254 254 255
-116.833 104.499 -1515 252 252 255
-113.881 104.558 -1516 251 251 255
-110.779 104.478 -1515 252 252 255
-107.682 104.399 -1514 253 253 255
-104.59 104.32 -1513 252 252 254
-101.57 104.311 -1513 252 252 254
-98.4205 104.164 -1511 253 253 254
-95.4693 104.224 -1512 253 253 254
-92.4535 104.215 -1512 253 253 255
-89.4386 104.207 -1512 252 253 255
-86.2529 103.992 -1509 251 253 255
-83.1901 103.915 -1508 253 253 255
-80.0257 103.701 -1505 253 254 255
-76.9763 103.624 -1504 251 253 255
-74.0298 103.686 -1505 250 253 255
-71.0327 103.68 -1505 249 253 255
-68.0363 103.673 -1505 248 251 255
-65.0836 103.736 -1506 246 250 254
-62.0861 103.73 -1506 242 248 253
-59.0892 103.724 -1506 242 248 253
-56.0555 103.65 -1505 243 249 254
-53.1321 103.783 -1507 246 250 253
-50.1344 103.778 -1507 245 250 253
-47.1061 103.705 -1506 241 246 251
-44.0819 103.632 -1505 239 243 247
-41.1441 103.765 -1507 239 244 248
-38.0974 103.624 -1505 238 243 248
-35.1055 103.621 -1505 236 242 247
-32.0927 103.549 -1504 236 243 248
-29.1034 103.546 -1504 238 245 251
-26.1144 103.543 -1504 240 247 253
-23.1408 103.61 -1505 242 248 254
-20.1368 103.539 -1504 242 248 253
-17.1483 103.537 -1504 243 249 254
-14.16 103.536 -1504 244 250 255
-11.1716 103.535 -1504 244 250 255
-8.17806 103.465 -1503 246 249 255
-5.19541 103.533 -1504 246 249 254
-2.20884 103.602 -1505 243 246 252
0.782733 103.808 -1508 243 247 250
3.78122 103.877 -1509 246 250 253
6.78371 103.947 -1510 248 252 255
9.79671 104.085 -1512 248 253 255
12.8093 104.155 -1513 248 254 255
15.8154 104.156 -1513 249 253 255
18.8219 104.158 -1513 246 249 253
21.8717 104.366 -1516 240 242 248
24.8843 104.368 -1516 235 237 243
27.9155 104.44 -1517 235 236 242
30.9508 104.511 -1518 240 237 245
33.9681 104.514 -1518 244 241 248
36.9612 104.449 -1517 252 249 254
40.0034 104.521 -1518 255 255 255
42.9933 104.456 -1517 255 255 255
46.0401 104.529 -1518 253 253 255
49.1236 104.671 -1520 252 254 255
52.2154 104.814 -1522 251 253 255
55.3156 104.956 -1524 253 253 255
58.4244 105.099 -1526 255 253 255
61.5414 105.243 -1528 255 252 255
64.7091 105.455 -1531 254 250 255
67.9337 105.737 -1535 250 248 253
71.1746 106.019 -1539 237 241 249
74.3355 106.163 -1541 228 232 244
77.5554 106.377 -1544 223 226 239
80.7354 106.522 -1546 219 224 239
83.8159 106.53 -1546 226 231 245
86.8969 106.538 -1546 224 228 241
89.9785 106.546 -1546 229 230 248
93.1212 106.624 -1547 231 232 249
96.2686 106.701 -1548 230 232 248
99.2922 106.641 -1547 231 233 249
102.445 106.72 -1548 231 233 249
105.671 106.867 -1550 229 232 245
108.765 106.877 -1550 228 232 244
111.861 106.888 -1550 226 230 242
115.105 107.036 -1552 223 228 241
118.206 107.047 -1552 220 225 238
121.23 106.989 -1551 218 223 236
124.492 107.138 -1553 220 225 237
127.68 107.219 -1554 222 227 238
130.621 107.093 -1552 226 231 237
133.727 107.105 -1552 231 235 241
136.834 107.118 -1552 233 236 243
139.942 107.131 -1552 236 239 246
143.236 107.282 -1554 238 242 249
146.539 107.434 -1556 238 241 249
149.659 107.447 -1556 236 241 248
152.78 107.462 -1556 238 243 249
