ply
format ascii 1.0
comment Created by Open3D
element vertex 1340
property double x
property double y
property double z
property uchar red
property uchar green
property uchar blue
end_header
-5.16605 -318.887 -1475 222 219 227
-2.20177 -319.966 -1480 221 218 226
0.782984 -321.263 -1486 224 221 229
3.79192 -322.561 -1492 200 197 204
6.83436 -324.292 -1500 178 175 182
9.91547 -326.241 -1509 194 191 198
13.0245 -327.974 -1517 212 209 216
16.1763 -329.924 -1526 224 221 229
19.4783 -333.821 -1544 225 222 230
22.8675 -337.935 -1563 223 221 229
26.3999 -342.915 -1586 219 218 226
29.7828 -345.086 -1596 204 203 209
33.1442 -346.608 -1603 172 172 177
36.2845 -345.754 -1599 182 182 185
39.3842 -344.684 -1594 175 174 181
-213.164 -326.385 -1485 193 196 207
-209.968 -326.101 -1484 200 202 212
-206.081 -324.72 -1478 201 202 212
-202.22 -323.341 -1472 207 207 218
-198.656 -322.402 -1468 211 211 223
-195.377 -321.903 -1466 209 210 224
-191.976 -321.186 -1463 209 210 222
-188.719 -320.69 -1461 206 207 219
-185.344 -319.975 -1458 203 204 214
-182.108 -319.481 -1456 205 207 215
-178.882 -318.988 -1454 207 209 216
-175.423 -318.057 -1450 209 210 220
-172.34 -317.785 -1449 210 211 221
-169.145 -317.296 -1447 209 210 220
-165.729 -316.368 -1443 209 210 220
-162.557 -315.881 -1441 209 210 220
-159.506 -315.613 -1440 212 211 218
-156.351 -315.127 -1438 212 212 219
-153.419 -315.081 -1438 210 212 218
-150.488 -315.035 -1438 208 210 217
-147.558 -314.991 -1438 207 209 216
-144.529 -314.728 -1437 205 207 214
-141.506 -314.466 -1436 205 207 214
-138.584 -314.424 -1436 204 206 213
-135.569 -314.164 -1435 205 207 214
-132.466 -313.686 -1433 206 208 215
-129.464 -313.428 -1432 209 208 216
-126.378 -312.952 -1430 208 207 216
-123.301 -312.477 -1428 207 206 216
-120.402 -312.441 -1428 205 204 214
-117.421 -312.186 -1427 207 206 216
-114.607 -312.37 -1428 210 209 219
-111.71 -312.337 -1428 209 208 218
-108.739 -312.085 -1427 209 208 218
-105.773 -311.834 -1426 207 206 216
-102.955 -312.022 -1427 206 205 216
-99.9948 -311.773 -1426 199 198 210
-97.1752 -311.962 -1427 192 191 199
-94.2863 -311.934 -1427 188 188 194
-91.3982 -311.906 -1427 191 191 195
-88.4489 -311.66 -1426 199 198 206
-85.5643 -311.635 -1426 212 211 219
-82.6804 -311.609 -1426 221 220 228
-79.8532 -311.804 -1427 227 226 233
-77.0765 -312.217 -1429 229 228 235
-74.1885 -312.195 -1429 233 232 239
-71.3012 -312.173 -1429 236 235 242
-68.4144 -312.152 -1429 234 233 240
-65.5282 -312.132 -1429 231 230 237
-62.6425 -312.113 -1429 226 225 232
-59.7574 -312.095 -1429 220 217 224
-56.9126 -312.296 -1430 222 221 228
-54.102 -312.716 -1432 228 227 234
-51.3195 -313.356 -1435 224 223 230
-48.4915 -313.778 -1437 219 218 225
-45.6877 -314.419 -1440 217 216 223
-42.7532 -314.187 -1439 217 216 223
-39.9063 -314.611 -1441 218 217 224
-37.0259 -314.818 -1442 222 221 228
-34.1655 -315.245 -1444 226 225 232
-31.2756 -315.453 -1445 224 223 230
-28.4408 -316.317 -1449 218 217 225
-25.5373 -316.528 -1450 223 222 230
-22.6768 -317.394 -1454 224 223 231
-19.7867 -318.042 -1457 221 220 230
-16.8847 -318.692 -1460 220 219 229
-13.9612 -319.124 -1462 223 220 228
-11.0675 -320.648 -1469 226 223 231
-8.11247 -320.863 -1470 221 219 227
-5.16748 -321.953 -1475 221 218 226
-2.20255 -323.043 -1480 222 219 227
0.782692 -324.134 -1485 222 219 227
3.78809 -325.226 -1490 225 222 229
6.82735 -326.974 -1498 203 200 207
9.89215 -328.504 -1505 217 214 221
13.0026 -330.472 -1514 216 213 220
16.1706 -332.878 -1525 218 215 223
19.4084 -335.721 -1538 220 217 225
22.8158 -340.311 -1559 221 219 227
26.3579 -345.557 -1583 220 219 227
29.8477 -349.058 -1599 212 211 218
33.1541 -349.941 -1603 180 179 185
36.3633 -349.733 -1602 186 186 190
39.5441 -349.308 -1600 179 178 185
-214.684 -327.121 -1474 191 194 207
-212.798 -328.832 -1482 192 195 206
-210.173 -329.433 -1485 198 201 211
-206.143 -327.817 -1478 202 203 213
-202.694 -327.089 -1475 206 205 217
-198.716 -325.476 -1468 209 209 221
-195.169 -324.529 -1464 208 209 223
-191.903 -324.027 -1462 207 208 221
-188.776 -323.748 -1461 205 206 218
-185.4 -323.026 -1458 203 204 214
-182.163 -322.527 -1456 205 206 215
-178.813 -321.808 -1453 207 209 216
-175.476 -321.09 -1450 209 210 220
-172.273 -320.594 -1448 209 210 220
-169.196 -320.321 -1447 209 210 220
-165.894 -319.606 -1444 210 211 221
-162.606 -318.892 -1441 209 210 220
-159.665 -318.844 -1441 213 212 220
-156.398 -318.132 -1438 212 212 219
-153.465 -318.085 -1438 210 212 218
-150.428 -317.818 -1437 210 212 219
-147.603 -317.994 -1438 208 210 217
-144.472 -317.507 -1436 206 208 215
-141.548 -317.464 -1436 205 207 214
-138.529 -317.201 -1435 205 207 214
-135.515 -316.938 -1434 205 207 214
-132.414 -316.456 -1432 208 209 216
-129.503 -316.416 -1432 211 210 218
-126.504 -316.157 -1431 210 209 219
-123.424 -315.677 -1429 210 209 219
-120.522 -315.64 -1429 209 208 218
-117.539 -315.384 -1428 208 207 217
-114.802 -315.79 -1430 209 208 218
-111.744 -315.314 -1428 213 212 222
-108.772 -315.06 -1427 216 215 225
-105.73 -314.586 -1425 213 212 222
-102.986 -314.996 -1427 209 208 220
-100.025 -314.745 -1426 207 206 218
-97.1363 -314.715 -1426 204 203 211
-94.3146 -314.907 -1427 200 199 206
-91.3616 -314.658 -1426 202 202 207
-88.4133 -314.411 -1425 204 203 210
-85.59 -314.605 -1426 203 202 210
-82.7052 -314.58 -1426 205 204 212
-79.8771 -314.776 -1427 211 210 217
-77.0995 -315.194 -1429 215 214 221
-74.2627 -315.391 -1430 218 217 224
-71.3226 -315.149 -1429 223 222 229
-68.4349 -315.128 -1429 227 226 233
-65.5478 -315.108 -1429 227 226 233
-62.6174 -314.868 -1428 226 225 232
-59.6916 -314.629 -1427 221 218 225
-56.8898 -315.052 -1429 220 218 225
-54.0425 -315.256 -1430 221 220 227
-51.2632 -315.902 -1433 222 221 228
-48.4723 -316.548 -1436 221 220 227
-45.6379 -316.975 -1438 219 218 225
-42.7363 -316.962 -1438 220 219 226
-39.8905 -317.39 -1440 229 228 235
-37.0113 -317.599 -1441 231 230 237
-34.1519 -318.029 -1443 228 227 234
-31.2632 -318.24 -1444 227 226 233
-28.4297 -319.112 -1448 224 223 231
-25.545 -319.545 -1450 219 218 226
-22.6679 -320.199 -1453 221 220 228
-19.7655 -320.633 -1455 218 217 226
-16.8782 -321.509 -1459 201 200 209
-13.975 -322.386 -1463 194 191 198
-11.0633 -323.484 -1468 203 200 208
-8.12044 -324.142 -1471 210 207 216
-5.16909 -325.022 -1475 210 207 215
-2.20464 -326.343 -1481 213 210 218
0.783458 -327.444 -1486 216 213 221
3.78918 -328.326 -1490 224 221 228
6.83385 -330.311 -1499 219 216 223
9.89514 -331.636 -1505 215 212 219
13.0151 -333.843 -1515 218 215 222
16.1754 -336.051 -1525 216 213 221
19.3638 -338.039 -1534 216 213 221
22.8372 -343.775 -1560 219 217 225
26.3991 -349.292 -1585 216 215 223
29.7819 -351.504 -1595 214 213 220
33.1433 -353.056 -1602 184 183 189
36.3969 -353.287 -1603 185 185 189
39.5808 -352.858 -1601 181 181 188
-215.624 -331.559 -1480 190 193 206
-213.869 -333.508 -1489 193 196 207
-210.662 -333.219 -1488 198 200 211
-206.765 -331.812 -1482 202 203 213
-202.893 -330.405 -1476 206 205 217
-199.183 -329.224 -1471 209 208 220
-195.362 -327.821 -1465 208 209 223
-191.962 -327.09 -1462 206 207 220
-188.704 -326.585 -1460 204 205 217
-185.202 -325.633 -1456 203 204 214
-181.968 -325.129 -1454 205 206 215
-178.621 -324.403 -1451 207 209 216
-175.288 -323.678 -1448 208 209 219
-172.325 -323.625 -1448 208 209 219
-169.247 -323.349 -1447 208 210 218
-165.945 -322.627 -1444 210 212 219
-162.656 -321.907 -1441 210 212 220
-159.713 -321.858 -1441 212 212 221
-156.445 -321.139 -1438 210 211 220
-153.512 -321.092 -1438 209 211 218
-150.579 -321.045 -1438 209 211 218
-147.75 -321.223 -1439 209 211 218
-144.617 -320.732 -1437 208 210 217
-141.69 -320.688 -1437 207 209 216
-138.571 -320.199 -1435 207 209 215
-135.651 -320.157 -1435 208 210 217
-132.454 -319.447 -1432 210 211 219
-129.451 -319.184 -1431 212 211 221
-126.454 -318.922 -1430 211 210 220
-123.462 -318.661 -1429 210 209 219
-120.643 -318.847 -1430 210 209 219
-117.739 -318.81 -1430 209 208 218
-114.756 -318.552 -1429 207 206 216
-111.778 -318.295 -1428 208 207 217
-108.728 -317.815 -1426 212 211 221
-105.688 -317.337 -1424 215 214 224
-102.729 -317.082 -1423 215 214 225
-99.9147 -317.274 -1424 217 216 228
-97.0975 -317.467 -1425 220 219 227
-94.277 -317.661 -1426 219 218 226
-91.3252 -317.41 -1425 220 219 226
-88.4401 -317.382 -1425 217 216 224
-85.6758 -317.801 -1427 213 212 220
-82.7302 -317.553 -1426 209 208 216
-79.8453 -317.528 -1426 208 207 214
-77.0689 -317.95 -1428 207 206 213
-74.2332 -318.149 -1429 205 204 211
-71.2942 -317.905 -1428 207 206 213
-68.4556 -318.106 -1429 211 210 217
-65.6135 -318.308 -1430 214 213 220
-62.6363 -317.844 -1428 219 218 225
-59.7515 -317.825 -1428 219 216 223
-56.9468 -318.253 -1430 219 217 224
-54.0588 -318.236 -1430 220 219 226
-51.243 -318.665 -1432 227 226 233
-48.4532 -319.317 -1435 228 227 234
-45.6199 -319.748 -1437 230 229 236
-42.7195 -319.735 -1437 233 232 239
-39.8471 -319.944 -1438 230 229 236
-36.9967 -320.378 -1440 224 223 230
-34.1386 -320.812 -1442 223 222 229
-31.2727 -321.247 -1444 225 224 231
-28.4382 -322.128 -1448 226 225 233
-25.5526 -322.565 -1450 218 217 225
-22.6904 -323.447 -1454 210 209 217
-19.785 -323.886 -1456 210 209 217
-16.9065 -324.992 -1461 205 204 212
-13.9792 -325.433 -1463 198 195 202
-11.059 -326.318 -1467 202 199 208
-8.11739 -326.983 -1470 211 208 218
-5.17055 -328.093 -1475 207 204 212
-2.20227 -328.982 -1479 206 203 211
0.782643 -330.094 -1484 206 203 211
3.78537 -330.984 -1488 208 205 213
6.81319 -332.32 -1494 219 216 224
9.87842 -334.103 -1502 218 215 222
12.9934 -336.33 -1512 218 215 223
16.1592 -338.782 -1523 217 214 222
19.42 -342.124 -1538 217 214 222
22.8588 -347.247 -1561 220 218 226
26.3572 -351.925 -1582 215 214 222
29.7909 -354.826 -1595 214 213 220
33.1534 -356.393 -1602 200 199 205
36.4307 -356.848 -1604 198 198 202
39.5679 -355.97 -1600 188 188 195
-214.751 -328.628 -1453 184 188 204
-215.108 -333.762 -1476 191 194 207
-213.36 -335.731 -1485 191 194 205
-210.728 -336.343 -1488 196 199 210
-206.549 -334.47 -1480 201 202 214
-202.956 -333.503 -1476 206 206 218
-198.838 -331.633 -1468 209 208 220
-195.423 -330.894 -1465 207 208 222
-191.758 -329.705 -1460 205 206 219
-188.375 -328.969 -1457 204 205 217
-185.005 -328.234 -1454 203 204 214
-182.025 -328.177 -1454 204 206 215
-178.43 -326.992 -1449 206 208 215
-175.463 -326.938 -1449 208 209 218
-172.259 -326.433 -1447 208 209 219
-169.182 -326.154 -1446 209 211 218
-165.996 -325.651 -1444 208 210 217
-162.819 -325.15 -1442 208 210 217
-159.762 -324.874 -1441 207 208 218
-156.385 -323.924 -1437 208 209 218
-153.559 -324.101 -1438 207 209 216
-150.52 -323.829 -1437 207 209 216
-147.796 -324.234 -1439 209 211 218
-144.661 -323.738 -1437 209 211 218
-141.733 -323.694 -1437 208 210 217
-138.614 -323.2 -1435 208 210 217
-135.598 -322.933 -1434 210 212 219
-132.495 -322.441 -1432 211 212 220
-129.582 -322.401 -1432 213 212 222
-126.581 -322.136 -1431 212 211 221
-123.672 -322.097 -1431 210 209 219
-120.849 -322.285 -1432 213 212 222
-117.858 -322.023 -1431 211 210 220
-114.952 -321.987 -1431 207 206 216
-111.89 -321.502 -1429 203 202 212
-108.838 -321.018 -1427 201 200 210
-105.72 -320.311 -1424 203 202 212
-102.76 -320.054 -1423 207 206 216
-99.9453 -320.248 -1424 211 210 221
-97.1272 -320.442 -1425 218 217 226
-94.3059 -320.638 -1426 226 225 233
-91.353 -320.384 -1425 231 230 237
-88.5292 -320.581 -1426 235 234 242
-85.702 -320.779 -1427 238 237 245
-82.8135 -320.754 -1427 237 236 244
-79.9817 -320.953 -1428 238 237 245
-77.1464 -321.154 -1429 237 236 243
-74.3078 -321.355 -1430 233 232 240
-71.3658 -321.108 -1429 228 227 235
-68.5244 -321.312 -1430 225 224 231
-65.6335 -321.291 -1430 224 223 230
-62.6994 -321.047 -1429 225 224 231
-59.8116 -321.028 -1429 220 217 224
-56.9642 -321.235 -1430 226 224 231
-54.1132 -321.442 -1431 228 227 234
-51.2586 -321.651 -1432 231 230 237
-48.4341 -322.085 -1434 228 227 234
-45.5703 -322.295 -1435 228 227 234
-42.7027 -322.506 -1436 223 222 229
-39.8593 -322.943 -1438 216 215 222
-36.9823 -323.155 -1439 214 213 220
-34.1016 -323.369 -1440 218 217 224
-31.2389 -323.808 -1442 224 223 230
-28.4076 -324.697 -1446 228 227 235
-25.5251 -325.138 -1448 225 224 232
-22.6504 -325.804 -1451 222 221 229
-19.7774 -326.696 -1455 220 219 227
-16.8884 -327.589 -1459 219 217 225
-13.9834 -328.482 -1463 190 187 194
-11.0624 -329.376 -1467 215 212 221
-8.1254 -330.271 -1471 221 218 228
-5.16869 -330.943 -1474 216 213 221
-2.2014 -331.84 -1478 212 209 217
0.782358 -332.962 -1483 212 209 217
3.78647 -334.086 -1488 209 206 214
6.82447 -335.884 -1496 211 208 216
9.91435 -338.356 -1507 215 212 220
13.0145 -339.931 -1514 219 216 224
16.2173 -343.079 -1528 219 216 224
19.4512 -345.779 -1540 217 215 223
22.8071 -349.602 -1557 217 216 224
26.3152 -354.55 -1579 216 215 223
29.7627 -357.702 -1593 216 215 222
33.0807 -358.834 -1598 200 199 205
36.3509 -359.294 -1600 200 200 204
-215.114 -332.14 -1455 188 193 208
-215.175 -336.865 -1476 195 198 211
-213.714 -339.308 -1487 196 197 209
-210.51 -339.014 -1486 196 198 209
-207.172 -338.492 -1484 202 203 215
-203.019 -336.603 -1476 206 205 217
-199.036 -334.944 -1469 207 207 219
-195.617 -334.198 -1466 205 206 220
-191.949 -332.998 -1461 203 204 217
-188.563 -332.255 -1458 201 202 214
-185.19 -331.512 -1455 201 202 212
-182.081 -331.227 -1454 203 204 213
-178.732 -330.487 -1451 205 207 214
-175.639 -330.204 -1450 207 208 218
-172.313 -329.467 -1447 208 209 219
-169.352 -329.414 -1447 208 210 217
-166.047 -328.678 -1444 208 210 217
-162.869 -328.172 -1442 207 209 216
-159.812 -327.894 -1441 205 206 216
-156.542 -327.162 -1438 205 207 216
-153.606 -327.114 -1438 205 207 214
-150.672 -327.066 -1438 206 208 215
-147.636 -326.792 -1437 206 208 215
-144.605 -326.519 -1436 208 210 217
-141.58 -326.248 -1435 208 210 217
-138.657 -326.204 -1435 207 209 216
-135.545 -325.707 -1433 207 209 216
-132.443 -325.21 -1431 207 209 216
-129.531 -325.17 -1431 210 209 219
-126.62 -325.13 -1431 212 211 221
-123.624 -324.864 -1430 213 212 222
-120.717 -324.826 -1430 215 214 224
-117.976 -325.243 -1432 216 215 225
-114.907 -324.753 -1430 215 214 224
-111.925 -324.49 -1429 213 212 222
-108.795 -323.775 -1426 210 209 219
-105.827 -323.515 -1425 207 206 216
-102.792 -323.028 -1423 207 206 216
-99.9762 -323.224 -1424 206 205 215
-97.089 -323.193 -1424 205 204 214
-94.3349 -323.617 -1426 207 206 215
-91.3812 -323.361 -1425 213 212 219
-88.4944 -323.334 -1425 220 219 227
-85.6083 -323.307 -1425 227 226 234
-82.723 -323.281 -1425 233 232 240
-79.8943 -323.482 -1426 236 235 243
-77.1162 -323.912 -1428 240 239 246
-74.2787 -324.115 -1429 244 243 251
-71.3878 -324.092 -1429 246 245 253
-68.5455 -324.297 -1430 246 245 252
-65.6538 -324.277 -1430 242 241 248
-62.7187 -324.03 -1429 234 233 240
-59.83 -324.011 -1429 221 219 226
-56.9817 -324.22 -1430 225 224 231
-54.092 -324.203 -1430 224 223 230
-51.2385 -324.413 -1431 223 222 229
-48.4153 -324.851 -1433 223 222 229
-45.5208 -324.836 -1433 223 222 229
-42.6862 -325.276 -1435 224 223 230
-39.8438 -325.717 -1437 223 222 229
-36.9937 -326.158 -1439 221 220 227
-34.1121 -326.374 -1440 221 220 227
-31.2485 -326.817 -1442 222 221 228
-28.377 -327.261 -1444 226 225 232
-25.5154 -327.933 -1447 232 231 238
-22.6262 -328.378 -1449 232 231 239
-19.7563 -329.278 -1453 230 229 237
-16.882 -330.406 -1458 230 229 237
-13.9782 -331.308 -1462 190 187 193
-11.0506 -331.984 -1465 208 205 214
-8.11668 -332.887 -1469 225 222 232
-5.16315 -333.565 -1472 225 222 230
-2.20052 -334.697 -1477 219 216 224
0.781547 -335.603 -1481 216 213 221
3.78759 -337.19 -1488 214 211 219
6.82646 -339.005 -1496 215 212 220
9.90426 -341.047 -1505 215 212 220
13.0185 -343.09 -1514 218 215 223
16.2222 -346.267 -1528 220 217 225
19.4572 -348.992 -1540 217 216 224
22.7848 -352.397 -1555 217 216 224
26.24 -356.711 -1574 217 216 224
29.6972 -360.119 -1589 222 221 228
33.008 -361.262 -1594 206 206 212
36.2259 -361.273 -1594 207 207 211
39.3201 -360.151 -1589 194 193 200
-213.998 -333.359 -1447 178 184 199
-214.659 -339.05 -1472 195 198 211
-212.919 -341.055 -1481 197 198 210
-210.293 -341.679 -1484 197 198 210
-206.539 -340.462 -1479 200 201 213
-202.808 -339.246 -1474 204 203 215
-199.234 -338.262 -1470 206 205 217
-195.412 -336.819 -1464 205 206 220
-192.01 -336.067 -1461 203 204 217
-188.622 -335.317 -1458 201 202 214
-185.248 -334.568 -1455 201 203 212
-182.264 -334.511 -1455 202 203 212
-179.034 -333.994 -1453 203 205 212
-175.936 -333.708 -1452 206 208 216
-172.486 -332.734 -1448 207 209 217
-169.522 -332.68 -1448 207 209 216
-166.099 -331.708 -1444 207 209 216
-163.033 -331.427 -1443 205 207 214
-159.973 -331.146 -1442 206 208 216
-156.809 -330.637 -1440 206 208 216
-153.655 -330.129 -1438 206 208 215
-150.614 -329.851 -1437 206 208 216
-147.682 -329.804 -1437 205 207 215
-144.55 -329.3 -1435 207 209 218
-141.624 -329.255 -1435 208 210 218
-138.7 -329.211 -1435 207 209 216
-135.588 -328.709 -1433 204 206 214
-132.484 -328.208 -1431 203 204 213
-129.572 -328.167 -1431 206 205 215
-126.748 -328.356 -1432 208 207 217
-123.749 -328.087 -1431 210 209 219
-120.924 -328.278 -1432 210 209 219
-118.013 -328.241 -1432 211 210 220
-115.023 -327.975 -1431 213 212 222
-111.882 -327.252 -1428 215 214 224
-108.829 -326.759 -1426 217 216 226
-105.86 -326.496 -1425 217 216 226
-102.896 -326.234 -1424 216 215 225
-100.007 -326.202 -1424 214 213 223
-97.1875 -326.401 -1425 213 212 222
-94.2982 -326.371 -1425 214 213 222
-91.3456 -326.113 -1424 216 215 223
-88.522 -326.313 -1425 216 215 223
-85.5749 -326.057 -1424 217 216 224
-82.6906 -326.031 -1424 219 218 226
-79.9191 -326.463 -1426 221 220 228
-77.0862 -326.668 -1427 224 223 231
-74.2499 -326.873 -1428 228 227 235
-71.3601 -326.85 -1428 232 231 239
-68.4709 -326.828 -1428 233 232 239
-65.5823 -326.807 -1428 236 235 242
-62.6504 -326.559 -1427 235 234 241
-59.7649 -326.539 -1427 222 221 228
-56.9596 -326.979 -1429 228 227 234
-54.1088 -327.19 -1430 227 226 233
-51.2186 -327.174 -1430 231 230 237
-48.4303 -327.845 -1433 237 236 243
-45.5349 -327.83 -1433 237 236 243
-42.6696 -328.045 -1434 236 235 242
-39.8007 -328.261 -1435 233 232 239
-36.9795 -328.935 -1438 228 227 234
-34.099 -329.153 -1439 224 223 230
-31.2365 -329.6 -1441 221 220 227
-28.3661 -330.048 -1443 223 222 229
-25.5056 -330.726 -1446 228 227 234
-22.6176 -331.176 -1448 230 229 236
-19.7488 -332.084 -1452 228 227 235
-16.8525 -332.765 -1455 230 229 237
-13.9729 -334.132 -1461 196 193 198
-11.039 -334.585 -1463 206 203 211
-8.10816 -335.497 -1467 221 218 228
-5.15429 -335.953 -1469 221 218 226
-2.19835 -337.324 -1475 220 217 225
0.780919 -338.238 -1479 219 216 224
3.7838 -339.84 -1486 217 214 222
6.82866 -342.129 -1496 214 211 219
9.92052 -344.647 -1507 215 212 220
13.0312 -346.48 -1515 216 214 222
16.1954 -348.771 -1525 218 216 224
19.438 -351.75 -1538 218 217 225
22.7774 -355.416 -1554 219 218 226
26.1647 -358.855 -1569 218 217 225
29.5569 -361.608 -1581 216 217 224
32.8525 -362.761 -1586 199 200 206
36.0552 -362.772 -1586 200 200 204
-213.771 -335.942 -1445 172 179 194
-214.582 -341.918 -1471 181 184 197
-212.843 -343.941 -1480 201 202 214
-210.218 -344.57 -1483 197 198 210
-206.605 -343.574 -1479 201 202 214
-203.147 -342.812 -1476 202 203 215
-199.568 -341.819 -1472 202 203 215
-195.607 -340.131 -1465 204 205 219
-192.465 -339.837 -1464 204 205 218
-188.811 -338.615 -1459 202 203 215
-185.561 -338.092 -1457 200 203 212
-182.572 -338.033 -1457 199 202 210
-179.461 -337.743 -1456 201 203 210
-176.113 -336.991 -1453 204 206 213
-172.66 -336.008 -1449 205 207 214
-169.224 -335.026 -1445 204 206 213
-165.922 -334.277 -1442 205 207 214
-162.859 -333.993 -1441 205 207 214
-159.691 -333.478 -1439 205 207 215
-156.75 -333.428 -1439 205 207 215
-153.81 -333.378 -1439 206 208 215
-150.662 -332.867 -1437 205 207 216
-147.523 -332.356 -1435 206 207 217
-144.596 -332.31 -1435 206 208 217
-141.57 -332.033 -1434 206 208 217
-138.647 -331.988 -1434 206 208 215
-135.63 -331.714 -1433 205 206 216
-132.711 -331.671 -1433 204 204 214
-129.703 -331.398 -1432 205 204 214
-126.788 -331.357 -1432 205 204 214
-123.788 -331.086 -1431 205 204 214
-120.878 -331.048 -1431 207 206 216
-117.968 -331.01 -1431 207 206 216
-114.979 -330.742 -1430 207 206 216
-111.917 -330.243 -1428 209 208 218
-108.94 -329.977 -1427 211 210 220
-105.968 -329.712 -1426 214 213 223
-102.929 -329.216 -1424 219 218 228
-100.109 -329.415 -1425 221 220 230
-97.2181 -329.384 -1425 221 220 231
-94.3279 -329.354 -1425 223 222 232
-91.4384 -329.324 -1425 224 223 231
-88.4877 -329.065 -1424 226 225 233
-85.4816 -328.575 -1422 228 227 235
-82.6585 -328.78 -1423 227 226 234
-79.7761 -328.754 -1423 228 227 235
-77.0024 -329.191 -1425 228 227 235
-74.2211 -329.63 -1427 227 226 234
-71.3325 -329.607 -1427 226 225 233
-68.4924 -329.816 -1428 225 224 231
-65.6029 -329.794 -1428 226 225 232
-62.6701 -329.543 -1427 232 231 238
-59.7836 -329.524 -1427 222 221 228
-56.9775 -329.967 -1429 228 227 234
-54.1258 -330.181 -1430 226 225 232
-51.2705 -330.395 -1431 225 224 231
-48.4455 -330.841 -1433 226 225 232
-45.5492 -330.826 -1433 226 225 232
-42.683 -331.043 -1434 226 225 232
-39.8132 -331.261 -1435 225 224 231
-36.9396 -331.48 -1436 225 224 231
-34.0623 -331.699 -1437 222 221 228
-31.2463 -332.612 -1441 218 217 224
-28.3751 -333.065 -1443 213 212 218
-25.496 -333.518 -1445 217 216 222
-22.609 -333.972 -1447 223 222 229
-19.7142 -334.427 -1449 227 226 234
-16.823 -335.113 -1452 229 228 235
-13.9199 -335.801 -1455 194 191 196
-11.0122 -336.72 -1459 201 197 206
-8.09412 -337.871 -1464 222 217 228
-5.15246 -338.792 -1468 221 218 226
-2.19749 -340.176 -1474 222 219 227
0.781167 -341.329 -1479 220 217 225
3.78748 -343.177 -1487 218 215 223
6.84 -345.717 -1498 214 211 219
9.91047 -347.335 -1505 215 212 220
13.0439 -349.877 -1516 216 214 222
16.19 -351.728 -1524 217 216 223
19.3936 -354.042 -1534 219 218 226
22.7552 -358.203 -1552 219 218 226
26.1396 -361.673 -1567 217 216 224
29.4914 -363.99 -1577 213 215 222
32.7801 -365.154 -1582 196 197 203
35.9529 -364.934 -1581 190 190 194
38.899 -362.637 -1571 189 188 195
-211.176 -334.766 -1427 166 173 189
-213.192 -342.673 -1461 164 167 180
-211.616 -344.95 -1471 199 200 212
-209.435 -346.289 -1477 198 199 211
-206.252 -345.987 -1476 203 204 216
-202.799 -345.218 -1473 200 201 213
-199.632 -344.919 -1472 201 202 214
-196.071 -343.918 -1468 204 205 219
-192.527 -342.919 -1464 205 206 219
-189.131 -342.154 -1461 204 205 217
-186.13 -342.094 -1461 201 204 213
-182.756 -341.332 -1458 199 202 211
-179.765 -341.274 -1458 200 202 209
-176.412 -340.515 -1455 202 204 211
-172.834 -339.289 -1450 203 205 212
-169.396 -338.298 -1446 202 204 211
-166.09 -337.542 -1443 203 205 212
-163.024 -337.255 -1442 204 206 213
-159.964 -336.97 -1441 203 205 214
-156.691 -336.218 -1438 203 205 213
-153.645 -335.934 -1437 201 203 210
-150.605 -335.651 -1436 200 202 211
-147.467 -335.136 -1434 202 203 213
-144.642 -335.323 -1435 201 204 213
-141.517 -334.81 -1433 202 204 212
-138.595 -334.765 -1433 203 205 212
-135.674 -334.721 -1433 203 205 214
-132.754 -334.678 -1433 203 204 214
-129.654 -334.169 -1431 205 204 214
-126.829 -334.362 -1432 206 205 215
-123.741 -333.855 -1430 207 206 216
-120.832 -333.816 -1430 206 205 215
-117.923 -333.777 -1430 206 205 215
-114.935 -333.507 -1429 207 206 216
-111.874 -333.004 -1427 206 205 215
-108.898 -332.735 -1426 205 204 214
-105.927 -332.468 -1425 205 204 214
-103.034 -332.434 -1425 206 205 215
-100.141 -332.402 -1425 209 208 218
-97.3171 -332.604 -1426 213 212 224
-94.3578 -332.34 -1425 218 217 228
-91.4033 -332.077 -1424 222 221 229
-88.4536 -331.815 -1423 224 223 231
-85.4486 -331.321 -1421 225 224 232
-82.6266 -331.527 -1422 227 226 234
-79.7453 -331.501 -1422 228 227 235
-76.9727 -331.943 -1424 229 228 236
-74.1926 -332.385 -1426 228 227 235
-71.3551 -332.595 -1427 226 225 233
-68.4661 -332.573 -1427 226 225 232
-65.5778 -332.551 -1427 226 225 232
-62.646 -332.298 -1426 230 229 236
-59.7188 -332.045 -1425 218 217 224
-56.9157 -332.493 -1427 226 225 232
-54.0293 -332.475 -1427 227 226 233
-51.2151 -332.924 -1429 227 226 233
-48.3594 -333.141 -1430 224 223 230
-45.5001 -333.359 -1431 224 223 230
-42.637 -333.578 -1432 225 224 231
-39.798 -334.031 -1434 225 224 231
-36.9256 -334.252 -1435 226 225 232
-34.0731 -334.706 -1437 223 222 229
-31.2345 -335.395 -1440 218 217 224
-28.3643 -335.851 -1442 211 211 215
-25.5041 -336.541 -1445 212 211 217
-22.6005 -336.766 -1446 212 211 218
-19.7068 -337.226 -1448 218 217 225
-16.8167 -337.919 -1451 224 223 230
-13.9147 -338.612 -1454 192 189 194
-10.9931 -339.074 -1456 197 193 202
-8.08009 -340.235 -1461 221 216 227
-5.14343 -341.165 -1465 220 217 225
-2.19663 -343.027 -1473 221 218 226
0.781417 -344.424 -1479 221 218 226
3.79135 -346.52 -1488 220 217 225
6.82834 -348.152 -1495 216 213 221
9.90702 -350.251 -1504 216 213 221
13.0307 -352.583 -1514 216 215 222
16.1843 -354.684 -1523 218 217 224
19.4123 -357.484 -1535 219 218 225
22.7037 -360.519 -1548 217 216 223
26.0478 -363.554 -1561 213 212 220
29.4446 -366.591 -1574 215 217 224
32.749 -367.998 -1580 201 202 208
35.8278 -366.844 -1575 185 184 189
38.738 -364.294 -1564 184 183 191
-210.208 -336.121 -1420 161 168 185
-212.677 -344.81 -1457 167 170 183
-211.541 -347.817 -1470 178 179 191
-209.361 -349.168 -1476 198 199 211
-206.179 -348.864 -1475 201 202 214
-202.865 -348.324 -1473 200 201 213
-199.426 -347.549 -1470 202 203 215
-196 -346.776 -1467 203 204 218
-192.852 -346.476 -1466 205 206 219
-189.192 -345.233 -1461 205 206 218
-186.19 -345.172 -1461 201 204 213
-182.815 -344.403 -1458 200 203 211
-179.946 -344.58 -1459 200 202 209
-176.469 -343.578 -1455 201 203 210
-173.009 -342.577 -1451 202 204 211
-169.567 -341.577 -1447 202 204 210
-166.259 -340.814 -1444 202 204 210
-163.077 -340.289 -1442 203 205 212
-160.015 -340.001 -1441 204 206 215
-156.959 -339.714 -1440 202 204 213
-153.802 -339.192 -1438 200 202 210
-150.758 -338.906 -1437 199 200 210
-147.515 -338.151 -1434 199 200 210
-144.487 -337.868 -1433 199 201 209
-141.463 -337.586 -1432 200 202 209
-138.736 -338.012 -1434 201 203 210
-135.622 -337.496 -1432 201 203 211
-132.611 -337.217 -1431 201 203 211
-129.605 -336.939 -1430 204 203 213
-126.692 -336.898 -1430 206 205 215
-123.608 -336.386 -1428 206 205 216
-120.532 -335.876 -1426 208 207 217
-117.796 -336.308 -1428 209 208 218
-114.811 -336.035 -1427 208 207 217
-111.753 -335.528 -1425 206 205 215
-108.857 -335.492 -1425 208 207 217
-105.961 -335.458 -1425 209 208 218
-103.067 -335.424 -1425 209 208 218
-100.243 -335.627 -1426 208 207 217
-97.3484 -335.595 -1426 210 209 221
-94.4543 -335.564 -1426 211 210 222
-91.4326 -335.063 -1424 212 211 220
-88.4819 -334.799 -1423 212 211 219
-85.4759 -334.301 -1421 213 212 220
-82.5369 -334.038 -1420 216 215 223
-79.7147 -334.248 -1421 218 217 225
-76.9432 -334.693 -1423 220 219 227
-74.1644 -335.139 -1425 223 222 230
-71.3279 -335.351 -1426 223 222 230
-68.536 -335.798 -1428 224 223 230
-65.5987 -335.542 -1427 223 222 229
-62.666 -335.286 -1426 224 223 230
-59.7378 -335.031 -1425 214 213 220
-56.8541 -335.012 -1425 226 225 232
-53.9709 -334.995 -1425 225 224 231
-51.1957 -335.683 -1428 224 223 230
-48.3748 -336.137 -1430 223 222 229
-45.5464 -336.592 -1432 222 221 228
-42.6506 -336.578 -1432 221 220 227
-39.783 -336.8 -1433 221 220 227
-36.9374 -337.258 -1435 223 222 229
-34.084 -337.716 -1437 224 223 230
-31.2444 -338.411 -1440 223 222 229
-28.3931 -339.106 -1443 219 219 223
-25.5298 -339.802 -1446 215 215 220
-22.6078 -339.795 -1446 213 212 219
-19.6995 -340.023 -1447 219 218 226
-16.7873 -340.252 -1448 222 221 229
-13.8904 -340.952 -1451 201 198 203
-10.9739 -341.418 -1453 202 198 207
-8.0716 -342.825 -1459 221 216 227
-5.13811 -343.763 -1463 218 215 223
-2.19577 -345.876 -1472 219 216 224
0.781141 -347.286 -1478 221 218 226
3.7874 -349.166 -1486 222 217 226
6.83516 -351.518 -1496 218 214 222
9.91038 -353.4 -1504 217 214 222
13.0264 -355.519 -1513 216 215 222
16.1577 -357.168 -1520 217 216 223
19.4314 -360.934 -1536 216 215 222
22.6817 -363.29 -1546 214 213 220
26.0228 -366.353 -1559 212 211 219
29.454 -369.887 -1574 214 216 223
32.6974 -370.602 -1577 201 201 207
35.7938 -369.673 -1573 177 175 180
-211.286 -345.5 -1447 186 189 202
-210.603 -349.25 -1463 163 164 176
-208.72 -351.091 -1471 178 179 191
-205.827 -351.261 -1472 201 202 214
-202.656 -350.956 -1471 201 202 214
-199.355 -350.413 -1469 202 203 215
-195.931 -349.632 -1466 203 204 218
-192.652 -349.091 -1464 204 205 218
-189.383 -348.552 -1462 205 206 218
-186.124 -348.014 -1460 202 205 214
-182.874 -347.477 -1458 202 204 213
-180.005 -347.656 -1459 200 202 209
-176.405 -346.406 -1454 201 203 210
-173.066 -345.634 -1451 202 204 211
-169.623 -344.625 -1447 203 205 211
-166.428 -344.094 -1445 204 206 212
-163.243 -343.564 -1443 204 206 213
-160.067 -343.035 -1441 204 206 215
-157.01 -342.745 -1440 202 204 213
-153.852 -342.218 -1438 201 204 213
-150.807 -341.93 -1437 202 203 213
-147.666 -341.406 -1435 202 203 213
-144.735 -341.358 -1435 202 204 211
-141.707 -341.074 -1434 202 204 211
-138.878 -341.266 -1435 200 202 210
-135.761 -340.745 -1433 200 202 209
-132.839 -340.702 -1433 201 202 210
-129.737 -340.183 -1431 203 203 213
-126.822 -340.141 -1431 206 205 216
-123.734 -339.625 -1429 205 204 216
-120.825 -339.585 -1429 207 206 216
-117.834 -339.309 -1428 208 207 217
-114.929 -339.271 -1428 209 208 218
-111.946 -338.997 -1427 209 208 218
-108.968 -338.723 -1426 210 209 219
-106.07 -338.688 -1426 210 209 220
-103.172 -338.654 -1426 210 209 220
-100.346 -338.859 -1427 210 209 220
-97.3799 -338.589 -1426 210 209 221
-94.4186 -338.32 -1425 210 209 220
-91.5264 -338.29 -1425 210 209 219
-88.5727 -338.023 -1424 210 209 218
-85.5637 -337.52 -1422 210 209 218
-82.6798 -337.493 -1422 211 210 218
-79.7966 -337.467 -1422 211 210 218
-76.914 -337.441 -1422 212 211 219
-74.1362 -337.891 -1424 217 216 224
-71.3009 -338.105 -1425 219 218 226
-68.4622 -338.32 -1426 219 218 226
-65.574 -338.298 -1426 217 216 224
-62.6423 -338.04 -1425 215 214 222
-59.7152 -337.783 -1424 211 210 217
-56.8724 -338.001 -1425 218 217 224
-53.9883 -337.983 -1425 219 218 225
-51.1763 -338.441 -1427 222 221 229
-48.3566 -338.899 -1429 222 221 229
-45.4974 -339.121 -1430 220 219 227
-42.6346 -339.343 -1431 217 216 224
-39.7958 -339.804 -1433 217 216 224
-36.9493 -340.266 -1435 219 218 225
-34.0712 -340.492 -1436 223 222 229
-31.2545 -341.43 -1440 226 225 232
-28.4023 -342.131 -1443 226 224 230
-25.5204 -342.597 -1445 224 222 229
-22.615 -342.826 -1446 218 217 225
-19.7194 -343.293 -1448 222 221 229
-16.7927 -343.288 -1448 223 222 229
-13.8948 -343.994 -1451 205 202 204
-10.9699 -344.227 -1452 205 202 208
-8.06312 -345.409 -1457 222 219 227
-5.13261 -346.355 -1461 220 217 225
-2.19361 -348.488 -1470 220 217 225
0.780338 -349.91 -1476 222 219 227
3.78346 -351.807 -1484 219 216 224
6.82828 -354.18 -1494 218 216 224
9.89379 -355.842 -1501 216 215 223
13.0133 -358.216 -1511 217 216 224
16.1629 -360.355 -1520 216 215 223
19.3997 -363.442 -1533 215 215 223
22.6744 -366.294 -1545 213 213 221
26.0645 -370.096 -1561 212 211 219
29.3324 -371.527 -1567 219 220 228
32.5004 -371.537 -1567 208 208 216
35.6005 -370.837 -1564 174 172 179
-210.041 -346.391 -1438 181 186 202
-210.096 -351.379 -1459 190 192 204
-209.072 -354.681 -1473 182 183 195
-206.035 -354.612 -1473 195 197 210
-202.447 -353.582 -1469 200 201 214
-199.557 -353.756 -1470 200 201 213
-195.862 -352.487 -1465 201 202 215
-192.584 -351.942 -1463 201 202 215
-189.316 -351.398 -1461 201 202 214
-186.185 -351.095 -1460 202 204 214
-182.684 -350.072 -1456 202 203 212
-179.694 -350.012 -1456 201 203 210
-176.463 -349.473 -1454 200 202 209
-173.003 -348.454 -1450 202 204 211
-169.796 -347.917 -1448 204 206 213
-166.252 -346.66 -1443 206 208 215
-163.07 -346.125 -1441 207 209 216
-159.897 -345.592 -1439 207 208 217
-156.844 -345.299 -1438 204 206 215
-153.902 -345.248 -1438 203 204 214
-150.962 -345.198 -1438 202 203 213
-147.817 -344.668 -1436 203 204 214
-144.883 -344.62 -1436 204 206 215
-141.852 -344.333 -1435 204 206 215
-138.923 -344.287 -1435 201 204 214
-135.9 -344.002 -1434 200 202 211
-133.068 -344.197 -1435 200 201 211
-129.871 -343.435 -1432 201 202 212
-126.775 -342.913 -1430 205 205 215
-123.861 -342.872 -1430 207 206 216
-120.78 -342.352 -1428 205 204 214
-117.955 -342.552 -1429 208 207 217
-114.966 -342.274 -1428 208 207 217
-112.061 -342.237 -1428 207 206 216
-109.004 -341.721 -1426 207 206 216
-106.253 -342.165 -1428 206 207 219
-103.278 -341.891 -1427 208 207 219
-100.379 -341.858 -1427 207 206 218
-97.4117 -341.586 -1426 207 206 216
-94.5157 -341.555 -1426 208 207 217
-91.492 -341.045 -1424 210 209 219
-88.4772 -340.537 -1422 212 211 221
-85.5315 -340.268 -1421 214 213 223
-82.5905 -340.002 -1420 217 216 223
-79.7103 -339.975 -1420 218 217 225
-76.8309 -339.949 -1420 219 218 226
-74.1084 -340.643 -1423 218 217 225
-71.3242 -341.098 -1425 218 217 226
-68.4845 -341.314 -1426 218 217 227
-65.5953 -341.292 -1426 218 217 227
-62.7067 -341.271 -1426 213 212 222
-59.7765 -341.012 -1425 209 208 215
-56.891 -340.993 -1425 218 217 224
-54.0058 -340.975 -1425 218 217 224
-51.1929 -341.436 -1427 220 219 227
-48.3724 -341.898 -1429 222 221 229
-45.544 -342.361 -1431 219 218 226
-42.708 -342.825 -1433 216 215 223
-39.8366 -343.051 -1434 213 212 220
-36.9613 -343.278 -1435 214 213 220
-34.106 -343.745 -1437 218 217 224
-31.2647 -344.452 -1440 220 219 227
-28.4115 -345.159 -1443 225 222 229
-25.5463 -345.868 -1446 223 221 229
-22.6224 -345.86 -1446 221 220 228
-19.7394 -346.571 -1449 221 220 227
-16.8098 -346.565 -1449 214 213 219
-13.8994 -347.038 -1451 199 196 197
-10.981 -347.513 -1453 206 203 208
-8.07681 -348.944 -1459 224 221 228
-5.14136 -349.899 -1463 219 216 224
-2.19575 -351.811 -1471 218 215 223
0.781123 -353.246 -1477 219 216 224
3.78992 -355.399 -1486 218 215 223
6.82141 -356.836 -1492 217 215 223
9.91019 -359.47 -1503 216 215 223
13.0177 -361.387 -1511 217 216 224
16.1789 -363.783 -1521 216 215 223
19.368 -365.942 -1530 213 215 222
22.6377 -368.819 -1542 212 213 220
25.9561 -371.697 -1554 214 213 221
29.2485 -373.619 -1562 221 220 227
32.5111 -374.826 -1567 213 213 220
35.4983 -372.923 -1559 176 178 185
-209.089 -347.733 -1431 178 184 201
-209.734 -353.738 -1456 189 190 204
-209 -357.555 -1472 194 195 208
-206.243 -357.971 -1474 196 198 211
-202.652 -356.931 -1470 200 201 214
-199.351 -356.378 -1468 202 203 215
-195.793 -355.342 -1464 202 203 215
-192.384 -354.548 -1461 201 202 214
-189.119 -354 -1459 200 201 213
-185.864 -353.452 -1457 200 201 212
-182.744 -353.148 -1456 201 202 212
-179.507 -352.602 -1454 199 201 208
-176.279 -352.058 -1452 199 201 208
-173.06 -351.515 -1450 201 203 210
-169.852 -350.973 -1448 204 206 213
-166.423 -349.947 -1444 206 208 216
-163.35 -349.65 -1443 208 210 217
-160.173 -349.112 -1441 206 208 217
-157.114 -348.817 -1440 204 205 215
-153.953 -348.281 -1438 203 204 214
-151.012 -348.23 -1438 204 205 215
-147.866 -347.696 -1436 204 205 215
-144.931 -347.647 -1436 206 207 217
-141.899 -347.357 -1435 208 209 220
-138.969 -347.311 -1435 207 209 220
-135.945 -347.023 -1434 206 207 217
-132.927 -346.737 -1433 204 205 215
-129.823 -346.209 -1431 203 204 214
-126.905 -346.166 -1431 205 204 214
-123.902 -345.883 -1430 209 208 218
-120.904 -345.6 -1429 206 205 215
-117.994 -345.561 -1429 207 206 217
-115.085 -345.522 -1429 207 206 217
-112.177 -345.485 -1429 206 205 215
-109.116 -344.964 -1427 207 206 216
-106.288 -345.171 -1428 207 207 218
-103.313 -344.894 -1427 208 207 218
-100.412 -344.86 -1427 207 206 217
-97.5121 -344.828 -1427 207 206 216
-94.4805 -344.312 -1425 209 208 218
-91.5864 -344.282 -1425 211 210 220
-88.5686 -343.769 -1423 213 212 222
-85.68 -343.74 -1423 215 214 224
-82.6758 -343.229 -1421 217 216 224
-79.7927 -343.202 -1421 220 219 227
-76.9645 -343.418 -1422 220 219 227
-74.1849 -343.876 -1424 217 216 224
-71.3477 -344.093 -1425 214 213 221
-68.507 -344.312 -1426 214 213 222
-65.5709 -344.048 -1425 217 216 226
-62.6833 -344.027 -1425 210 209 219
-59.7543 -343.765 -1424 209 208 215
-56.8698 -343.746 -1424 215 214 221
-53.9857 -343.728 -1424 211 210 217
-51.2098 -344.434 -1427 211 210 217
-48.3205 -344.418 -1427 217 216 223
-45.4953 -344.885 -1429 223 222 229
-42.6624 -345.353 -1431 220 219 226
-39.794 -345.581 -1432 215 214 221
-36.9734 -346.292 -1435 212 211 218
-34.0934 -346.522 -1436 213 212 219
-31.2315 -346.994 -1438 214 213 221
-28.3814 -347.708 -1441 217 214 221
-25.5371 -348.664 -1445 216 213 221
-22.6298 -348.898 -1446 214 213 221
-19.7459 -349.614 -1449 213 212 219
-16.8385 -350.091 -1451 206 204 211
-13.9326 -350.81 -1454 192 189 190
-10.9921 -350.806 -1454 201 198 203
-8.0739 -351.767 -1458 222 219 226
-5.13958 -352.73 -1462 219 216 224
-2.19342 -354.418 -1469 218 215 223
0.779794 -355.624 -1474 217 214 222
3.78599 -358.038 -1484 217 214 222
6.8237 -359.969 -1492 216 213 221
9.90024 -362.144 -1501 217 215 222
13.0132 -364.319 -1510 216 215 223
16.1736 -366.737 -1520 215 214 222
19.3743 -369.155 -1530 214 216 223
22.6158 -371.575 -1540 212 214 221
25.8978 -373.996 -1550 214 216 223
29.1831 -375.935 -1558 220 219 226
32.3973 -376.669 -1561 216 217 224
35.3733 -374.75 -1553 186 188 195
-207.99 -348.804 -1423 174 180 197
-210.093 -357.312 -1458 188 190 205
-208.786 -360.182 -1470 193 194 208
-206.452 -361.337 -1475 198 199 213
-202.996 -360.533 -1472 198 199 212
-199.282 -359.24 -1467 198 199 211
-195.591 -357.95 -1462 201 202 214
-192.317 -357.394 -1460 206 207 219
-188.794 -356.351 -1456 200 201 213
-185.671 -356.044 -1455 194 195 207
-182.554 -355.737 -1454 198 199 211
-179.196 -354.942 -1451 199 201 208
-176.095 -354.638 -1450 202 204 211
-172.88 -354.09 -1448 203 205 212
-169.674 -353.543 -1446 204 206 213
-166.248 -352.509 -1442 203 205 213
-163.292 -352.454 -1442 204 205 215
-160.226 -352.155 -1441 203 204 214
-157.166 -351.857 -1440 204 205 215
-154.112 -351.561 -1439 203 204 214
-151.167 -351.509 -1439 204 205 215
-148.018 -350.971 -1437 206 207 217
-144.879 -350.433 -1435 206 207 217
-141.947 -350.385 -1435 208 209 219
-139.015 -350.338 -1435 209 210 222
-136.086 -350.292 -1435 210 210 221
-133.064 -350.003 -1434 208 209 219
-129.957 -349.471 -1432 207 208 218
-126.948 -349.183 -1431 207 207 217
-124.03 -349.141 -1431 210 209 219
-121.029 -348.857 -1430 208 207 217
-118.116 -348.817 -1430 206 205 216
-115.123 -348.534 -1429 206 205 217
-112.214 -348.495 -1429 207 206 216
-109.153 -347.971 -1427 208 207 217
-106.249 -347.935 -1427 210 209 219
-103.274 -347.656 -1426 212 211 221
-100.445 -347.866 -1427 214 213 223
-97.5445 -347.833 -1427 216 215 225
-94.5782 -347.557 -1426 216 215 225
-91.6811 -347.526 -1426 217 216 226
-88.7225 -347.252 -1425 218 217 227
-85.7085 -346.736 -1423 217 216 226
-82.6451 -345.976 -1420 218 217 225
-79.8193 -346.193 -1421 216 215 223
-76.9359 -346.167 -1421 213 212 220
-74.1574 -346.629 -1423 211 210 218
-71.3212 -346.848 -1424 209 208 216
-68.4817 -347.068 -1425 210 209 217
-65.5926 -347.046 -1425 213 212 221
-62.7481 -347.268 -1426 208 207 216
-59.816 -347.004 -1425 216 215 222
-56.9286 -346.985 -1425 223 222 229
-54.0795 -347.21 -1426 221 220 227
-51.2267 -347.436 -1427 222 221 228
-48.3704 -347.663 -1428 225 224 231
-45.5104 -347.891 -1429 227 226 233
-42.7064 -348.606 -1432 229 228 235
-39.8072 -348.592 -1432 225 224 231
-36.9599 -349.067 -1434 219 218 225
-34.1047 -349.541 -1436 215 214 222
-31.2419 -350.017 -1438 218 217 225
-28.3908 -350.738 -1441 216 214 221
-25.5455 -351.702 -1445 215 214 221
-22.6529 -352.181 -1447 214 213 221
-19.7524 -352.661 -1449 210 208 215
-16.8441 -353.142 -1451 200 198 204
-13.9373 -353.867 -1454 175 172 173
-11.0033 -354.106 -1455 197 194 199
-8.08763 -355.319 -1460 226 223 230
-5.13763 -355.561 -1461 221 218 226
-2.19426 -357.506 -1469 218 215 223
0.779525 -358.48 -1473 217 214 222
3.77971 -360.427 -1481 219 216 224
6.81686 -362.62 -1490 218 215 223
9.8903 -364.813 -1499 217 214 221
12.9918 -366.763 -1507 216 215 223
16.147 -369.202 -1517 215 214 222
19.3809 -372.372 -1530 214 216 223
22.594 -374.326 -1538 213 215 222
25.8397 -376.281 -1546 216 218 225
29.1929 -379.211 -1558 222 221 228
32.2835 -378.491 -1555 221 221 228
35.3394 -377.529 -1551 199 201 208
-208.867 -358.179 -1449 186 189 203
-208.573 -362.804 -1468 189 191 205
-206.802 -364.957 -1477 194 195 209
-203.341 -364.146 -1474 193 194 207
-199.622 -362.842 -1469 194 195 207
-195.791 -361.293 -1463 197 198 210
-192.251 -360.239 -1459 202 203 215
-188.987 -359.681 -1457 201 202 214
-185.606 -358.877 -1454 198 199 211
-182.491 -358.567 -1453 199 200 212
-179.133 -357.766 -1450 201 203 210
-175.911 -357.212 -1448 203 205 212
-172.699 -356.66 -1446 203 205 212
-169.379 -355.862 -1443 203 205 212
-166.073 -355.065 -1440 201 202 210
-163.234 -355.256 -1441 201 202 212
-160.169 -354.954 -1440 201 202 212
-157.001 -354.408 -1438 202 203 213
-154.164 -354.602 -1439 203 204 214
-151.323 -354.796 -1440 203 204 214
-148.068 -354.006 -1437 207 208 218
-145.13 -353.957 -1437 210 211 221
-142.192 -353.908 -1437 211 212 222
-139.062 -353.368 -1435 211 212 224
-136.131 -353.322 -1435 211 211 221
-133.202 -353.276 -1435 211 210 220
-130.091 -352.739 -1433 210 211 221
-126.99 -352.204 -1431 210 210 220
-124.072 -352.161 -1431 210 209 219
-120.985 -351.628 -1429 210 209 219
-118.073 -351.587 -1429 207 206 216
-115.243 -351.794 -1430 207 206 216
-112.252 -351.51 -1429 209 208 218
-109.189 -350.98 -1427 209 208 218
-106.285 -350.944 -1427 209 208 218
-103.309 -350.663 -1426 211 210 220
-100.338 -350.382 -1425 215 214 224
-97.5088 -350.595 -1426 218 217 227
-94.61 -350.563 -1426 220 219 229
-91.7762 -350.777 -1427 222 221 231
-88.8768 -350.747 -1427 222 221 231
-85.918 -350.471 -1426 220 219 229
-82.9057 -349.951 -1424 216 215 223
-80.0146 -349.924 -1424 209 208 216
-77.07 -349.652 -1423 204 203 211
-74.2343 -349.872 -1424 204 203 211
-71.3451 -349.848 -1424 206 205 213
-68.5046 -350.07 -1425 209 208 216
-65.6145 -350.047 -1425 212 211 219
-62.7691 -350.271 -1426 203 202 210
-59.7521 -349.514 -1423 212 211 218
-56.9077 -349.74 -1424 214 213 220
-54.0217 -349.721 -1424 214 213 220
-51.2079 -350.195 -1426 218 217 224
-48.2849 -349.932 -1425 220 219 226
-45.5574 -351.144 -1430 223 222 229
-42.6908 -351.375 -1431 225 224 231
-39.8483 -351.852 -1433 228 227 234
-36.9722 -352.085 -1434 224 223 230
-34.1161 -352.564 -1436 220 219 226
-31.2305 -352.799 -1437 220 219 226
-28.3609 -353.28 -1439 221 220 227
-25.5187 -354.253 -1443 222 221 228
-22.6292 -354.735 -1445 224 223 231
-19.7727 -355.956 -1450 218 216 222
-16.8613 -356.441 -1452 200 197 203
-13.942 -356.926 -1454 159 156 157
-11.0145 -357.413 -1456 184 181 186
-8.09031 -358.392 -1460 221 218 225
-5.13939 -358.635 -1461 222 219 227
-2.19194 -360.107 -1467 221 218 226
0.779787 -361.579 -1473 217 214 222
3.78856 -364.28 -1484 217 214 222
6.81443 -365.51 -1489 217 214 222
9.89377 -367.967 -1499 217 215 222
12.9876 -369.689 -1506 215 214 222
16.1525 -372.394 -1517 214 213 221
19.3239 -374.364 -1525 215 216 223
22.6161 -377.808 -1539 214 215 223
25.8818 -380.026 -1548 219 220 228
29.1651 -381.999 -1556 221 220 227
32.2943 -381.764 -1555 221 221 229
35.26 -379.811 -1547 210 211 218
-208.65 -360.755 -1447 185 189 203
-208.076 -364.922 -1464 191 194 207
-206.453 -367.343 -1474 191 192 206
-202.996 -366.525 -1471 190 191 205
-199.826 -366.207 -1470 194 195 207
-196.126 -364.893 -1465 198 199 211
-192.316 -363.332 -1459 198 199 211
-189.052 -362.769 -1457 201 202 214
-185.67 -361.958 -1454 202 203 215
-182.553 -361.646 -1453 199 200 211
-178.947 -360.34 -1448 201 203 210
-175.728 -359.781 -1446 203 205 212
-172.519 -359.224 -1444 203 205 212
-169.319 -358.668 -1442 200 202 209
-166.245 -358.362 -1441 200 202 210
-163.176 -358.057 -1440 201 202 212
-160.224 -358.002 -1440 200 201 211
-157.164 -357.699 -1439 203 204 214
-154.323 -357.894 -1440 205 206 216
-151.27 -357.593 -1439 205 206 216
-148.015 -356.797 -1436 208 209 219
-144.977 -356.498 -1435 213 214 224
-141.944 -356.201 -1434 215 216 227
-138.916 -355.905 -1433 214 215 227
-136.083 -356.106 -1434 214 213 224
-133.061 -355.812 -1433 215 214 224
-130.135 -355.767 -1433 213 213 223
-126.945 -354.978 -1430 212 212 222
-123.941 -354.687 -1429 212 211 221
-120.857 -354.149 -1427 213 212 221
-117.948 -354.109 -1427 212 211 221
-115.12 -354.317 -1428 212 211 221
-112.133 -354.03 -1427 214 213 223
-109.15 -353.745 -1426 214 213 223
-106.246 -353.708 -1426 213 212 222
-103.272 -353.424 -1425 215 214 224
-100.302 -353.142 -1424 217 216 226
-97.5418 -353.604 -1426 219 218 228
-94.642 -353.571 -1426 220 219 229
-91.8072 -353.788 -1427 219 218 228
-88.9692 -354.005 -1428 215 214 224
-86.0676 -353.975 -1428 209 208 218
-82.9337 -352.955 -1424 203 202 210
-80.0416 -352.927 -1424 199 198 206
-77.1502 -352.901 -1424 199 198 206
-74.3115 -353.122 -1425 203 202 210
-71.3692 -352.85 -1424 207 206 214
-68.5758 -353.322 -1426 212 211 220
-65.6828 -353.299 -1426 214 213 221
-62.7903 -353.277 -1426 203 202 210
-59.8563 -353.009 -1425 213 212 219
-56.9268 -352.741 -1424 214 213 220
-54.0399 -352.722 -1424 216 215 222
-51.1534 -352.705 -1424 220 219 226
-48.3013 -352.935 -1425 219 218 225
-45.5091 -353.662 -1428 220 219 226
-42.7053 -354.391 -1431 222 221 228
-39.8339 -354.624 -1432 226 225 232
-36.9847 -355.106 -1434 229 228 235
-34.1277 -355.59 -1436 229 228 235
-31.2194 -355.579 -1436 229 228 235
-28.3704 -356.311 -1439 229 228 235
-25.5096 -357.045 -1442 229 228 235
-22.6211 -357.532 -1444 233 232 240
-19.7521 -358.515 -1448 223 220 225
-16.8669 -359.5 -1452 194 191 196
-13.937 -359.742 -1453 145 142 143
-11.0107 -360.233 -1455 179 176 180
-8.07638 -360.725 -1457 222 219 224
-5.13764 -361.465 -1460 221 218 226
-2.18961 -362.702 -1465 220 217 225
0.778992 -364.187 -1471 216 213 221
3.77974 -366.416 -1480 218 215 222
6.81219 -368.399 -1488 217 215 222
9.87727 -370.382 -1496 215 214 221
12.9746 -372.367 -1504 216 214 222
16.1579 -375.59 -1517 215 214 222
19.3306 -377.577 -1525 215 215 223
22.6385 -381.298 -1540 216 215 223
25.9072 -383.535 -1549 221 220 228
29.1375 -384.782 -1554 223 222 229
32.2429 -384.297 -1552 224 223 230
35.2721 -383.071 -1547 215 215 223
-208.145 -362.824 -1443 182 186 200
-207.152 -366.272 -1457 192 195 208
-205.964 -369.468 -1470 193 196 209
-202.79 -369.146 -1469 194 196 210
-199.351 -368.322 -1466 195 196 210
-195.658 -366.998 -1461 197 198 210
-192.514 -366.68 -1460 200 201 213
-188.728 -365.107 -1454 201 202 214
-185.734 -365.042 -1454 202 203 214
-182.239 -363.974 -1450 201 202 212
-178.761 -362.908 -1446 201 203 210
-175.424 -362.094 -1443 202 204 211
-172.339 -361.783 -1442 202 204 211
-169.143 -361.222 -1440 201 203 210
-166.187 -361.164 -1440 202 204 212
-163.232 -361.108 -1440 202 203 213
-160.279 -361.052 -1440 202 203 213
-157.217 -360.746 -1439 204 205 215
-154.162 -360.442 -1438 207 208 218
-151.216 -360.389 -1438 209 210 220
-148.066 -359.837 -1436 210 211 221
-144.824 -359.034 -1433 212 213 223
-141.893 -358.985 -1433 212 213 224
-138.866 -358.686 -1432 207 208 220
-135.939 -358.639 -1432 207 206 217
-132.921 -358.342 -1431 209 208 218
-129.907 -358.047 -1430 214 213 223
-126.81 -357.502 -1428 214 213 223
-123.896 -357.459 -1428 212 211 221
-120.898 -357.166 -1427 214 212 221
-117.988 -357.125 -1427 217 216 224
-115.079 -357.085 -1427 219 218 228
-112.171 -357.046 -1427 220 219 229
-109.111 -356.508 -1425 218 217 227
-106.134 -356.221 -1424 218 217 227
-103.162 -355.935 -1423 221 220 230
-100.195 -355.65 -1422 220 219 229
-97.5067 -356.366 -1425 221 220 230
-94.6079 -356.333 -1425 217 216 226
-91.7742 -356.551 -1426 209 208 218
-89.0619 -357.27 -1429 201 200 210
-86.2778 -357.74 -1431 197 196 206
-83.195 -356.961 -1428 195 194 201
-80.2938 -356.933 -1428 195 194 202
-77.3391 -356.656 -1427 199 198 206
-74.389 -356.38 -1426 204 203 211
-71.4437 -356.105 -1425 207 206 215
-68.6473 -356.581 -1427 212 211 221
-65.7513 -356.558 -1427 215 214 223
-62.8557 -356.536 -1427 200 199 207
-59.8347 -355.766 -1424 209 208 215
-56.9063 -355.496 -1423 214 213 220
-53.9444 -354.977 -1421 216 215 222
-51.0989 -355.209 -1422 217 216 223
-48.2498 -355.442 -1423 218 217 224
-45.4927 -356.425 -1427 220 219 226
