ply
format ascii 1.0
comment Created by Open3D
element vertex 1396
property double x
property double y
property double z
property uchar red
property uchar green
property uchar blue
end_header
-181.97 391.803 -1494 77 65 66
-179.373 392.787 -1498 73 63 65
-176.173 392.46 -1497 110 93 90
-173.325 392.921 -1499 128 109 104
-170.129 392.597 -1498 95 72 62
-166.828 392.012 -1496 129 97 82
-163.646 391.691 -1495 179 144 129
-160.577 391.632 -1495 181 137 117
-157.614 391.836 -1496 176 130 109
-154.649 392.042 -1497 176 127 107
-151.883 392.772 -1500 148 96 82
-148.71 392.456 -1499 137 84 69
-145.639 392.403 -1499 164 108 90
-142.189 391.304 -1495 206 150 129
-138.943 390.73 -1493 186 130 107
-135.524 389.634 -1489 190 139 114
-132.567 389.847 -1490 174 127 103
-129.694 390.323 -1492 130 86 64
-126.814 390.8 -1494 101 72 61
-124.176 392.063 -1499 92 65 58
-121.357 392.803 -1502 71 52 52
-118.211 392.499 -1501 52 40 44
-114.61 390.627 -1494 46 38 43
-111.412 390.063 -1492 51 45 51
-108.078 388.978 -1488 55 48 55
-255.964 404.606 -1549 116 105 113
-251.104 401.902 -1539 152 134 134
-247.255 400.768 -1535 165 138 126
-242.312 397.808 -1524 177 148 136
-237.73 395.372 -1515 218 186 174
-234.117 394.504 -1512 236 205 194
-230.672 393.898 -1510 244 213 202
-226.935 392.772 -1506 245 214 203
-223.662 392.43 -1505 247 216 204
-220.396 392.09 -1504 243 212 199
-216.991 391.489 -1502 236 205 192
-213.739 391.151 -1501 229 196 183
-210.633 391.075 -1501 221 184 169
-207.39 390.739 -1500 211 170 149
-204.29 390.665 -1500 191 149 126
-201.594 391.373 -1503 130 97 81
-198.359 391.041 -1502 108 80 67
-195.129 390.71 -1501 117 94 85
-191.906 390.38 -1500 108 84 78
-188.31 389.271 -1496 99 78 73
-184.981 388.684 -1494 85 73 74
-182.148 389.138 -1496 79 68 70
-179.308 389.593 -1498 86 76 78
-176.227 389.53 -1498 136 116 113
-173.493 390.247 -1501 152 129 123
-170.182 389.665 -1499 117 89 75
-166.88 389.085 -1497 143 110 91
-163.587 388.506 -1495 185 150 130
-160.841 389.228 -1498 198 151 127
-157.663 388.911 -1497 188 139 115
-154.697 389.115 -1498 177 126 102
-151.93 389.839 -1501 179 124 103
-148.855 389.785 -1501 149 92 72
-145.587 389.213 -1499 155 94 76
-142.328 388.643 -1497 213 154 132
-138.986 387.814 -1494 202 144 120
-135.748 387.245 -1492 202 149 120
-132.875 387.716 -1494 185 132 104
-129.908 387.929 -1495 145 94 67
-126.939 388.143 -1496 128 90 70
-124.132 388.876 -1499 120 85 69
-121.152 389.092 -1500 88 64 58
-118.011 388.79 -1499 58 46 45
-114.723 387.97 -1496 47 40 42
-111.372 386.893 -1492 46 44 51
-108.403 387.113 -1493 49 46 53
-104.653 384.482 -1483 41 36 45
-251.177 398.869 -1540 171 150 152
-246.844 396.967 -1533 204 175 165
-241.748 393.773 -1521 216 185 175
-237.645 392.134 -1515 232 199 187
-234.033 391.273 -1512 242 210 198
-230.283 390.155 -1508 247 215 204
-226.703 389.297 -1505 246 213 202
-223.582 389.216 -1505 245 212 199
-220.317 388.879 -1504 238 204 190
-217.202 388.801 -1504 234 198 181
-213.662 387.948 -1501 226 189 171
-210.277 387.355 -1499 215 177 156
-207.316 387.539 -1500 211 170 144
-204.081 387.208 -1499 178 136 108
-200.985 387.135 -1499 131 100 79
-198.156 387.581 -1501 126 98 82
-194.929 387.253 -1500 129 102 92
-191.709 386.926 -1499 108 83 79
-188.495 386.6 -1498 96 73 69
-185.038 385.759 -1495 91 75 74
-182.083 385.952 -1496 89 72 70
-179.125 386.146 -1497 110 93 90
-176.046 386.082 -1497 157 131 124
-173.316 386.794 -1500 174 145 135
-170.575 387.506 -1503 134 100 85
-167.266 386.931 -1501 154 117 96
-163.857 386.099 -1498 198 159 137
-160.999 386.556 -1500 203 156 130
-157.817 386.242 -1499 196 146 122
-154.745 386.187 -1499 178 127 104
-151.977 386.905 -1502 164 111 94
-148.802 386.594 -1501 173 118 100
-145.438 385.769 -1498 179 120 101
-142.088 384.946 -1495 221 163 141
-138.843 384.381 -1493 206 148 125
-135.791 384.333 -1493 211 155 128
-132.917 384.8 -1495 182 126 100
-130.123 385.525 -1498 155 99 74
-127.148 385.737 -1499 155 105 82
-124.336 386.465 -1502 146 100 80
-121.189 386.164 -1501 106 75 64
-118.048 385.865 -1500 68 52 49
-114.988 385.823 -1500 53 43 45
-111.93 385.783 -1500 43 42 50
-108.8 385.487 -1499 46 42 50
-105.039 382.878 -1489 42 35 43
-251.577 396.35 -1543 185 163 168
-246.756 393.693 -1533 220 186 180
-242.297 391.552 -1525 225 191 182
-237.874 389.412 -1517 243 208 196
-233.95 388.045 -1512 248 215 204
-230.354 387.193 -1509 245 211 200
-226.923 386.599 -1507 243 208 198
-223.205 385.493 -1503 243 206 193
-220.092 385.415 -1503 235 198 182
-216.692 384.825 -1501 229 189 167
-213.444 384.492 -1500 223 183 159
-210.482 384.673 -1501 218 178 152
-207.242 384.343 -1500 202 159 128
-203.872 383.758 -1498 169 126 94
-200.78 383.686 -1498 138 108 83
-197.821 383.872 -1499 143 113 94
-194.471 383.291 -1497 122 93 81
-191.641 383.735 -1499 106 80 78
-188.302 383.156 -1497 104 80 77
-185.22 383.09 -1497 106 85 82
-182.505 383.792 -1500 102 78 72
-179.42 383.729 -1500 122 96 89
-176.102 383.154 -1498 174 142 129
-173.37 383.86 -1501 189 154 139
-170.401 384.055 -1502 154 115 97
-166.984 383.229 -1499 165 123 101
-163.799 382.915 -1498 203 160 136
-160.834 383.113 -1499 218 171 144
-157.656 382.802 -1498 210 161 136
-154.69 383.002 -1499 143 93 70
-151.822 383.459 -1501 121 70 57
-148.75 383.407 -1501 146 93 79
-145.387 382.589 -1498 188 131 112
-141.942 381.517 -1494 228 170 149
-138.702 380.957 -1492 210 152 130
-135.743 381.164 -1493 212 155 130
-132.959 381.882 -1496 174 116 92
-130.077 382.347 -1498 160 102 79
-127.188 382.812 -1500 176 116 93
-124.209 383.023 -1501 167 113 91
-121.227 383.235 -1502 123 86 73
-118.085 382.938 -1501 79 58 56
-114.948 382.642 -1500 59 44 47
-112.04 383.113 -1502 44 43 53
-108.834 382.564 -1500 45 41 49
-104.861 379.211 -1487 42 34 40
-101.422 377.645 -1481 41 36 44
-248.88 388.981 -1527 207 182 185
-245.382 388.384 -1525 225 191 185
-241.735 387.534 -1522 232 197 190
-237.633 385.922 -1516 247 212 202
-233.867 384.821 -1512 248 215 204
-230.12 383.722 -1508 243 210 199
-226.542 382.878 -1505 242 207 195
-222.978 382.036 -1502 239 202 186
-220.161 382.467 -1504 232 194 176
-216.76 381.882 -1502 224 184 160
-213.511 381.552 -1501 220 179 154
-210.408 381.478 -1501 217 175 148
-206.893 380.642 -1498 198 154 123
-203.8 380.57 -1498 178 134 102
-200.709 380.499 -1498 149 118 93
-197.752 380.683 -1499 126 97 78
-194.662 380.615 -1499 115 88 74
-191.702 380.801 -1500 112 87 83
-188.236 379.973 -1497 113 88 84
-185.031 379.654 -1496 116 92 85
-182.198 380.097 -1498 114 86 76
-179.118 380.034 -1498 134 104 92
-175.922 379.718 -1497 188 152 136
-173.309 380.672 -1501 202 164 145
-170.342 380.865 -1502 173 132 110
-167.371 381.06 -1503 170 127 103
-164.07 380.495 -1501 203 159 135
-161.1 380.692 -1502 221 174 147
-157.917 380.383 -1501 183 134 109
-154.43 379.315 -1497 97 47 24
-151.668 380.021 -1500 101 48 34
-148.4 379.462 -1498 152 97 83
-145.045 378.651 -1495 208 151 134
-141.608 377.588 -1491 228 170 149
-138.56 377.54 -1491 224 166 144
-135.423 377.239 -1490 208 152 125
-132.824 378.458 -1495 167 109 84
-130.118 379.425 -1499 163 103 80
-127.228 379.886 -1501 179 121 99
-124.414 380.601 -1504 176 122 102
-121.427 380.812 -1505 137 99 86
-118.28 380.517 -1504 86 64 60
-115.291 380.73 -1505 60 44 44
-112.224 380.69 -1505 43 42 51
-109.231 380.904 -1506 45 41 48
-105.248 377.579 -1493 44 36 42
-101.866 376.279 -1488 43 38 46
-253.455 388.086 -1536 161 141 146
-248.141 384.714 -1523 222 195 196
-245.135 384.881 -1524 223 189 183
-241.015 383.281 -1518 237 203 195
-236.766 381.43 -1511 247 212 202
-233.322 380.844 -1509 246 213 201
-229.734 380.006 -1506 238 205 193
-226.613 379.926 -1506 235 200 187
-223.197 379.343 -1504 233 196 178
-220.084 379.266 -1504 230 192 172
-216.972 379.19 -1504 226 186 160
-213.721 378.863 -1503 222 182 155
-210.195 378.033 -1500 215 173 144
-207.097 377.961 -1500 193 149 117
-203.865 377.637 -1499 172 129 98
-200.505 377.063 -1497 137 104 79
-197.287 376.742 -1496 132 103 84
-194.334 376.926 -1497 125 98 84
-191.252 376.859 -1497 111 84 78
-187.793 376.038 -1494 120 93 85
-184.967 376.477 -1496 129 100 88
-181.648 375.91 -1494 131 99 83
-178.817 376.351 -1496 151 117 101
-175.744 376.289 -1496 195 154 133
-172.903 376.732 -1498 210 166 144
-170.169 377.427 -1501 194 149 125
-167.09 377.369 -1501 184 139 115
-164.013 377.312 -1501 201 156 131
-161.044 377.507 -1502 212 165 138
-157.862 377.2 -1501 161 112 88
-154.376 376.141 -1497 100 51 28
-151.312 376.088 -1497 122 69 54
-148.052 375.534 -1495 176 122 105
-144.704 374.73 -1492 222 165 147
-141.274 373.676 -1488 227 171 148
-138.233 373.628 -1488 233 177 153
-135.285 373.832 -1489 196 140 112
-132.689 375.041 -1494 164 106 79
-129.9 375.748 -1497 168 108 83
-127.184 376.708 -1501 182 124 102
-124.288 377.167 -1503 181 128 108
-121.304 377.375 -1504 146 107 92
-118.082 376.832 -1502 91 68 63
-115.251 377.545 -1505 61 44 42
-111.962 376.753 -1502 43 42 50
-109.121 377.467 -1505 44 40 47
-105.634 375.926 -1499 45 37 43
-102.378 375.137 -1496 46 40 49
-253.696 385.315 -1538 202 179 182
-248.543 382.222 -1526 227 199 199
-244.728 381.135 -1522 225 191 185
-240.932 380.049 -1518 238 205 196
-236.841 378.465 -1512 246 213 202
-233.241 377.633 -1509 246 213 200
-229.655 376.802 -1506 235 201 188
-226.535 376.723 -1506 231 194 178
-223.416 376.645 -1506 229 192 170
-220.446 376.819 -1507 227 190 166
-217.33 376.743 -1507 224 185 156
-213.931 376.169 -1505 214 174 144
-210.402 375.346 -1502 202 160 130
-207.439 375.524 -1503 189 146 115
-204.203 375.203 -1502 173 131 100
-200.704 374.384 -1499 160 124 100
-197.746 374.565 -1500 145 114 95
-194.527 374.248 -1499 121 93 77
-191.313 373.932 -1498 126 96 88
-187.728 372.869 -1494 137 105 95
-184.532 372.555 -1493 142 109 94
-181.707 372.991 -1495 142 104 86
-178.755 373.179 -1496 165 126 107
-175.448 372.619 -1494 206 160 136
-172.843 373.557 -1498 217 169 143
-169.997 373.997 -1500 211 160 134
-167.144 374.437 -1502 195 149 124
-164.066 374.381 -1502 202 156 131
-161.203 374.823 -1504 189 142 114
-158.018 374.519 -1503 139 91 67
-154.426 373.22 -1498 140 92 69
-151.26 372.919 -1497 198 144 125
-147.902 372.12 -1494 230 175 156
-144.654 371.572 -1492 229 172 153
-141.225 370.527 -1488 239 183 159
-138.279 370.728 -1489 224 168 142
-135.329 370.93 -1490 184 128 99
-132.643 371.88 -1494 166 108 81
-129.942 372.831 -1498 177 117 91
-127.225 373.782 -1502 187 130 107
-124.411 374.486 -1505 185 132 112
-121.424 374.693 -1506 155 115 97
-118.198 374.154 -1504 98 73 67
-115.288 374.612 -1506 63 43 40
-112.222 374.573 -1506 45 42 49
-109.228 374.784 -1507 45 40 46
-105.95 374.001 -1504 47 39 45
-102.617 372.971 -1500 47 42 51
-258.312 384.366 -1547 169 152 158
-253.774 382.29 -1539 224 198 199
-248.783 379.472 -1528 222 194 194
-245.126 378.642 -1525 229 195 189
-241.325 377.566 -1521 238 204 196
-236.759 375.25 -1512 240 207 196
-233.315 374.673 -1510 236 202 189
-229.881 374.097 -1508 232 197 182
-226.757 374.019 -1508 227 191 171
-223.488 373.694 -1507 224 187 163
-220.809 374.362 -1510 219 182 155
-217.255 373.544 -1507 211 172 143
-214.284 373.717 -1508 199 159 129
-210.75 372.902 -1505 191 149 117
-207.644 372.83 -1505 186 144 113
-204.268 372.264 -1503 177 136 106
-201.037 371.948 -1502 161 122 97
-197.547 371.137 -1499 141 108 87
-194.59 371.317 -1500 133 103 85
-191.12 370.509 -1497 137 105 92
-187.664 369.702 -1494 145 111 96
-184.716 369.886 -1495 146 110 91
-181.766 370.071 -1496 159 119 96
-178.574 369.762 -1495 181 140 116
-175.388 369.455 -1494 214 167 141
-172.669 370.137 -1497 217 168 141
-169.712 370.326 -1498 218 166 139
-166.753 370.516 -1499 205 159 134
-163.9 370.955 -1501 211 165 139
-161.041 371.394 -1503 179 132 104
-157.964 371.339 -1503 150 101 76
-154.374 370.051 -1498 207 157 134
-151.31 369.999 -1498 237 183 162
-148.049 369.454 -1496 238 183 161
-144.605 368.417 -1492 239 181 159
-141.462 368.122 -1491 240 183 157
-138.51 368.321 -1492 203 147 120
-135.556 368.521 -1493 175 119 90
-132.864 369.463 -1497 172 114 87
-130.071 370.159 -1500 181 123 96
-127.267 370.856 -1503 189 133 107
-124.369 371.306 -1505 187 135 111
-121.383 371.511 -1506 163 122 102
-118.237 371.224 -1505 109 82 74
-115.402 371.925 -1508 68 46 41
-112.109 371.146 -1505 47 42 48
-109.336 372.095 -1509 48 41 47
-106.126 371.566 -1507 48 40 46
-102.377 369.065 -1497 50 43 52
-261.781 381.657 -1549 143 133 144
-257.389 379.844 -1542 215 191 192
-253.028 378.033 -1535 229 202 202
-248.373 375.732 -1526 222 193 193
-244.721 374.909 -1523 233 198 192
-241.084 374.088 -1520 238 204 195
-236.679 372.039 -1512 235 201 189
-233.699 372.205 -1513 228 192 178
-230.259 371.634 -1511 225 189 172
-227.131 371.556 -1511 223 186 162
-223.56 370.742 -1508 221 185 158
-220.88 371.404 -1511 215 178 150
-217.47 370.839 -1509 208 167 139
-214.637 371.257 -1511 198 157 127
-211.098 370.448 -1508 191 149 117
-208.125 370.622 -1509 182 140 110
-204.743 370.061 -1507 167 125 96
-201.37 369.501 -1505 161 120 95
-198.007 368.943 -1503 152 116 95
-194.913 368.877 -1503 147 114 94
-191.311 367.83 -1499 148 114 97
-187.601 366.539 -1494 149 113 96
-184.777 366.967 -1496 156 117 97
-181.583 366.66 -1495 180 139 114
-178.514 366.599 -1495 200 158 133
-175.564 366.784 -1496 214 168 141
-172.495 366.726 -1496 219 170 143
-169.655 367.158 -1498 224 173 145
-166.697 367.346 -1499 217 171 146
-163.954 368.026 -1502 220 173 147
-161.093 368.461 -1504 202 155 125
-158.016 368.407 -1504 203 153 126
-154.63 367.62 -1501 232 181 155
-151.259 366.834 -1498 247 193 170
-148.098 366.539 -1497 251 195 171
-144.846 366 -1495 242 186 160
-141.888 366.196 -1496 211 154 126
-139.02 366.639 -1498 181 124 96
-136.055 366.837 -1499 176 120 91
-133.263 367.526 -1502 182 125 96
-130.287 367.726 -1503 189 132 104
-127.393 368.172 -1505 188 132 104
-124.492 368.619 -1507 187 136 109
-121.503 368.823 -1508 168 125 103
-118.354 368.538 -1507 118 90 80
-115.516 369.232 -1510 73 49 42
-112.295 368.705 -1508 49 42 46
-109.444 369.401 -1511 49 41 47
-106.301 369.121 -1510 51 43 49
-102.753 367.375 -1503 54 47 55
-260.341 376.412 -1541 197 181 188
-257.135 376.324 -1541 234 205 204
-253.107 375.017 -1536 231 203 203
-248.777 373.224 -1529 225 197 195
-244.959 372.164 -1525 236 201 193
-241.161 371.106 -1521 237 202 192
-237.068 369.562 -1515 234 199 187
-233.774 369.239 -1514 231 194 179
-230.182 368.429 -1511 229 192 173
-227.055 368.352 -1511 225 188 161
-223.633 367.789 -1509 221 184 155
-220.66 367.958 -1510 214 177 148
-217.684 368.128 -1511 209 167 139
-214.423 367.812 -1510 203 161 131
-211.167 367.497 -1509 198 155 123
-208.055 367.427 -1509 190 148 118
-204.945 367.357 -1509 177 135 106
-201.569 366.803 -1507 168 126 100
-197.94 365.762 -1503 153 115 92
-194.847 365.696 -1503 148 112 90
-191.501 365.145 -1501 155 119 99
-188.291 364.838 -1500 161 123 102
-185.209 364.776 -1500 171 131 110
-182.129 364.714 -1500 195 153 128
-178.693 363.924 -1497 209 167 141
-175.622 363.865 -1497 215 172 144
-172.437 363.564 -1496 220 174 145
-169.485 363.75 -1497 224 175 147
-166.641 364.18 -1499 223 177 152
-163.79 364.61 -1501 218 171 144
-160.825 364.799 -1502 214 165 134
-157.753 364.746 -1502 234 182 153
-154.476 364.208 -1500 250 198 170
-151.208 363.672 -1498 254 202 177
-148.148 363.622 -1498 244 189 163
-144.992 363.33 -1497 210 154 127
-142.125 363.768 -1499 174 117 88
-139.345 364.449 -1502 173 116 87
-136.463 364.888 -1504 180 123 92
-133.485 365.086 -1505 187 130 100
-130.504 365.284 -1506 198 141 112
-127.435 365.242 -1506 189 134 102
-124.45 365.442 -1507 187 136 107
-121.382 365.401 -1507 168 126 101
-118.315 365.361 -1507 124 95 83
-115.248 365.323 -1507 77 52 43
-112.183 365.285 -1507 55 46 48
-108.901 364.521 -1504 56 47 51
-105.914 364.728 -1505 55 47 53
-102.035 361.785 -1493 54 47 55
-266.367 377.345 -1558 182 169 174
-260.422 373.383 -1542 231 210 213
-257.549 373.78 -1544 234 204 203
-253.516 372.484 -1539 230 200 198
-249.506 371.19 -1534 228 198 195
-245.519 369.898 -1529 237 202 193
-241.556 368.607 -1524 236 201 190
-237.458 367.076 -1518 233 198 186
-234.313 366.998 -1518 228 191 176
-230.714 366.195 -1515 225 188 168
-227.279 365.635 -1513 223 186 158
-223.854 365.077 -1511 221 183 154
-220.732 365.003 -1511 216 177 149
-217.756 365.171 -1512 210 168 141
-214.777 365.341 -1513 203 161 131
-211.097 364.304 -1509 198 155 123
-208.124 364.476 -1510 195 153 123
-204.741 363.925 -1508 186 144 115
-201.636 363.857 -1508 179 136 110
-198.401 363.549 -1507 171 130 106
-195.171 363.243 -1506 168 128 105
-191.82 362.696 -1504 170 131 108
-188.604 362.392 -1503 173 133 111
-185.394 362.089 -1502 185 144 123
-182.675 362.751 -1505 206 164 138
-178.991 361.486 -1500 213 171 145
-176.033 361.668 -1501 214 172 144
-172.726 361.128 -1499 219 174 146
-169.768 361.313 -1500 222 175 147
-166.697 361.257 -1500 221 174 149
-163.845 361.684 -1502 217 168 142
-160.879 361.871 -1503 225 174 144
-157.805 361.818 -1503 249 198 169
-154.527 361.285 -1501 255 207 178
-151.36 360.994 -1500 239 183 157
-148.395 361.185 -1501 200 146 119
-145.428 361.377 -1502 172 118 91
-142.647 362.051 -1505 170 113 84
-139.67 362.245 -1506 182 125 95
-136.599 362.2 -1506 190 133 100
-133.706 362.636 -1508 197 140 108
-130.634 362.593 -1508 196 139 108
-127.562 362.55 -1508 193 138 106
-124.739 363.23 -1511 185 135 105
-121.664 363.189 -1511 165 123 97
-118.668 363.39 -1512 129 99 84
-115.439 362.871 -1510 85 58 47
-112.443 363.073 -1511 63 52 52
-109.01 361.835 -1506 62 53 56
-105.738 361.079 -1503 57 49 55
-101.66 357.442 -1488 51 44 52
-268.658 372.929 -1553 159 156 165
-264.74 371.88 -1549 228 208 206
-259.998 369.633 -1540 233 208 207
-257.797 370.987 -1546 231 200 201
-253.761 369.702 -1541 226 194 192
-249.749 368.42 -1536 228 195 191
-246.08 367.618 -1533 235 200 190
-241.951 366.099 -1527 233 199 187
-237.379 363.862 -1518 232 198 185
-234.081 363.544 -1517 229 191 176
-230.942 363.467 -1517 226 188 168
-227.354 362.673 -1514 224 187 158
-224.224 362.598 -1514 222 183 155
-220.951 362.286 -1513 219 179 151
-217.828 362.213 -1513 214 172 147
-214.564 361.902 -1512 210 167 139
-211.027 361.114 -1509 204 161 130
-207.917 361.045 -1509 202 157 128
-204.945 361.217 -1510 197 153 125
-201.703 360.91 -1509 195 152 126
-198.467 360.605 -1508 191 148 123
-195.496 360.78 -1509 185 142 118
-191.757 359.521 -1504 183 142 116
-188.668 359.458 -1504 186 143 120
-185.333 358.919 -1502 197 153 132
-182.373 359.097 -1503 211 169 142
-179.051 358.56 -1501 215 173 146
-175.975 358.502 -1501 215 173 145
-172.784 358.206 -1500 219 174 146
-169.825 358.388 -1501 220 173 145
-166.753 358.333 -1501 219 170 145
-163.9 358.756 -1503 224 175 148
-160.826 358.703 -1503 241 189 159
-157.753 358.651 -1503 252 201 171
-154.476 358.123 -1501 244 192 162
-151.31 357.834 -1500 204 148 119
-148.445 358.262 -1502 169 114 86
-145.573 358.691 -1504 167 113 85
-142.695 359.121 -1506 181 124 95
-139.717 359.313 -1507 191 134 104
-136.735 359.506 -1508 198 141 108
-133.751 359.7 -1509 204 147 113
-130.678 359.657 -1509 199 142 108
-127.605 359.615 -1509 198 143 111
-124.698 360.05 -1511 186 136 105
-121.624 360.01 -1511 166 122 94
-118.707 360.447 -1513 133 101 84
-115.478 359.933 -1511 91 63 49
-112.481 360.134 -1512 67 55 53
-109.263 359.621 -1510 63 53 55
-106.196 359.586 -1510 58 50 56
-102.309 356.694 -1498 51 44 52
-268.569 369.637 -1553 207 198 205
-264.14 367.884 -1546 224 201 198
-259.575 365.894 -1538 224 196 195
-257.212 366.999 -1543 222 191 192
-253.184 365.726 -1538 221 187 182
-250.154 365.881 -1539 224 191 184
-245.999 364.373 -1533 233 198 188
-241.871 362.868 -1527 232 197 186
-237.614 361.126 -1520 232 197 185
-233.85 360.098 -1516 229 191 175
-230.409 359.547 -1514 225 187 165
-227.129 359.235 -1513 223 185 156
-224.151 359.399 -1514 221 182 155
-220.732 358.851 -1512 220 180 153
-217.756 359.017 -1513 219 177 152
-214.494 358.709 -1512 218 174 147
-211.097 358.165 -1510 214 168 141
-207.849 357.859 -1509 210 163 134
-204.742 357.792 -1509 208 163 135
-201.503 357.489 -1508 206 163 137
-198.139 356.949 -1506 198 153 128
-195.173 357.122 -1507 186 140 115
-191.822 356.585 -1505 189 146 118
-188.48 356.05 -1503 195 150 124
-185.273 355.752 -1502 204 158 134
-182.555 356.403 -1505 211 168 138
-179.231 355.87 -1503 216 173 144
-176.269 356.049 -1504 218 175 145
-172.958 355.519 -1502 219 174 144
-170.109 355.936 -1504 217 170 141
-167.031 355.882 -1504 220 171 145
-164.173 356.301 -1506 232 182 154
-160.987 356.012 -1505 245 193 163
-157.807 355.723 -1504 238 185 155
-154.632 355.436 -1503 211 158 128
-151.563 355.386 -1503 180 124 93
-148.693 355.811 -1505 170 114 85
-145.913 356.472 -1508 179 123 96
-142.933 356.661 -1509 187 130 100
-139.856 356.616 -1509 198 141 110
-136.691 356.335 -1508 209 152 119
-133.708 356.527 -1509 210 152 117
-130.635 356.484 -1509 205 146 111
-127.648 356.679 -1510 198 145 111
-124.823 357.346 -1513 187 136 105
-121.826 357.543 -1514 168 123 94
-118.747 357.504 -1514 135 101 83
-115.364 356.521 -1510 96 65 51
-112.221 356.248 -1509 67 53 51
-108.649 354.56 -1502 61 51 53
-105.388 353.817 -1499 57 49 55
-101.935 352.368 -1493 50 42 50
-271.89 366.673 -1554 164 156 163
-266.752 363.99 -1543 221 208 212
-263.029 363.196 -1540 226 201 198
-259.49 362.639 -1538 235 206 205
-256.961 363.498 -1542 229 197 198
-253.266 362.708 -1539 219 185 179
-250.235 362.862 -1540 220 186 179
-246.4 361.839 -1536 227 192 182
-241.792 359.64 -1527 227 193 180
-237.692 358.149 -1521 227 193 180
-233.774 356.895 -1516 230 190 172
-230.486 356.584 -1515 227 188 166
-227.055 356.04 -1513 225 186 158
-224.078 356.202 -1514 221 181 155
-220.807 355.894 -1513 220 180 154
-217.685 355.823 -1513 221 179 154
-214.424 355.518 -1512 223 179 153
-211.169 355.214 -1511 223 177 151
-207.781 354.677 -1509 224 176 147
-204.811 354.845 -1510 220 173 145
-201.705 354.779 -1510 211 169 142
-198.206 354.01 -1507 201 156 130
-195.239 354.181 -1508 194 148 122
-191.759 353.414 -1505 204 157 129
-188.545 353.118 -1504 207 160 134
-185.336 352.823 -1503 209 162 137
-182.375 352.998 -1504 211 166 134
-179.293 352.94 -1504 219 174 141
-176.212 352.883 -1504 222 176 144
-173.132 352.826 -1504 221 174 143
-170.167 353.006 -1505 217 168 138
-167.089 352.951 -1505 222 171 144
-164.011 352.898 -1505 231 179 151
-160.828 352.611 -1504 228 176 146
-157.861 352.794 -1505 214 162 132
-154.685 352.51 -1504 190 137 107
-151.615 352.461 -1504 185 129 97
-148.645 352.647 -1505 189 133 102
-145.866 353.302 -1508 194 138 109
-142.792 353.256 -1508 202 145 112
-139.719 353.21 -1508 208 151 119
-136.556 352.932 -1507 214 158 125
-133.576 353.123 -1508 214 156 123
-130.42 352.846 -1507 206 148 114
-127.522 353.273 -1509 195 143 109
-124.535 353.467 -1510 185 136 103
-121.626 353.895 -1512 168 123 91
-118.631 354.091 -1513 133 98 78
-115.403 353.585 -1511 101 68 52
-112.185 353.081 -1509 68 53 51
-108.759 351.876 -1504 60 49 52
-105.284 350.438 -1498 54 46 52
-101.765 348.767 -1491 46 38 44
-272.676 364.554 -1559 182 173 178
-267.357 361.661 -1547 211 198 201
-263.456 360.64 -1543 226 201 199
-259.912 360.088 -1541 231 201 200
-256.545 359.772 -1540 225 190 190
-253.184 359.456 -1539 208 174 168
-249.991 359.375 -1539 210 175 168
-246 358.128 -1534 221 186 176
-242.505 357.582 -1532 221 187 175
-237.772 355.171 -1522 221 188 175
-234.007 354.162 -1518 227 187 169
-230.716 353.854 -1517 225 186 164
-227.282 353.314 -1515 223 183 157
-224.154 353.241 -1515 222 182 156
-220.881 352.937 -1514 223 183 157
-218.047 353.332 -1516 224 182 157
-214.638 352.797 -1514 225 181 156
-211.38 352.496 -1513 225 181 155
-207.99 351.963 -1511 228 180 151
-204.881 351.897 -1511 225 180 151
-201.507 351.366 -1509 219 177 149
-198.011 350.603 -1506 206 162 134
-194.788 350.308 -1505 200 155 127
-191.443 349.78 -1503 211 166 136
-188.359 349.72 -1503 212 166 138
-185.276 349.66 -1503 213 166 139
-182.438 350.066 -1505 212 166 133
-179.235 349.776 -1504 217 172 139
-176.272 349.952 -1505 222 176 143
-173.077 349.664 -1504 221 173 142
-170.113 349.841 -1505 216 167 137
-167.035 349.788 -1505 213 162 135
-164.068 349.967 -1506 212 161 132
-161.098 350.148 -1507 202 151 121
-158.02 350.097 -1507 196 145 114
-154.944 350.047 -1507 188 137 105
-151.768 349.766 -1506 194 139 105
-148.894 350.182 -1508 200 145 113
-146.013 350.6 -1510 204 148 117
-142.746 350.09 -1508 211 156 123
-139.674 350.045 -1508 219 163 131
-136.603 350.001 -1508 215 160 127
-133.445 349.726 -1507 211 155 122
-130.465 349.916 -1508 205 149 116
-127.482 350.107 -1509 194 142 108
-124.66 350.763 -1512 184 135 101
-121.748 351.187 -1514 167 121 88
-118.75 351.381 -1515 130 95 74
-115.519 350.88 -1513 102 70 52
-112.446 350.844 -1513 71 55 53
-109.086 349.881 -1509 63 51 54
-105.742 348.92 -1505 59 50 56
-102.211 347.264 -1498 49 41 48
-271.539 359.868 -1553 159 153 159
-266.753 357.696 -1544 175 165 170
-263.03 356.917 -1541 174 151 150
-260.166 357.296 -1543 181 150 148
-256.796 356.982 -1542 186 149 146
-253.431 356.669 -1541 177 138 132
-250.399 356.82 -1542 184 145 137
-246.241 355.353 -1536 215 176 164
-241.795 353.425 -1528 215 180 169
-238.32 352.886 -1526 219 184 173
-234.394 351.654 -1521 224 186 168
-231.098 351.349 -1520 223 185 164
-227.509 350.583 -1517 222 185 160
-224.526 350.742 -1518 224 184 158
-220.957 349.978 -1515 224 184 158
-217.689 349.677 -1514 226 184 159
-214.57 349.609 -1514 226 184 158
-211.452 349.541 -1514 226 184 158
-208.199 349.243 -1513 225 181 152
-204.951 348.947 -1512 223 180 150
-201.576 348.421 -1510 220 178 148
-198.21 347.896 -1508 208 166 136
-194.855 347.372 -1506 202 160 130
-191.509 346.85 -1504 209 169 138
-188.424 346.79 -1504 211 168 139
-185.341 346.731 -1504 215 169 142
-182.38 346.903 -1505 212 170 139
-179.297 346.846 -1505 215 172 142
-176.216 346.79 -1505 219 176 146
-173.252 346.965 -1506 219 173 144
-170.059 346.68 -1505 214 166 139
-166.982 346.627 -1505 209 161 136
-164.125 347.035 -1507 201 153 126
-161.047 346.984 -1507 196 148 117
-158.18 347.394 -1509 197 148 114
-155.1 347.344 -1509 197 147 113
-151.921 347.066 -1508 199 149 113
-148.945 347.248 -1509 205 155 122
-145.967 347.432 -1510 215 164 133
-142.796 347.156 -1509 219 169 138
-139.722 347.112 -1509 222 171 140
-136.741 347.298 -1510 215 162 133
-133.668 347.256 -1510 209 155 123
-130.51 346.984 -1509 203 149 115
-127.441 346.944 -1509 197 142 108
-124.456 347.134 -1510 187 136 104
-121.468 347.325 -1511 167 120 92
-118.477 347.517 -1512 133 98 77
-115.406 347.48 -1512 105 74 55
-112.337 347.444 -1512 75 58 50
-109.051 346.72 -1509 63 49 50
-105.919 346.457 -1508 61 50 55
-102.383 344.816 -1501 49 41 51
-271.103 356.129 -1551 119 115 125
-267.359 355.355 -1548 135 128 137
-263.459 354.353 -1544 120 102 106
-260.589 354.729 -1546 109 80 80
-256.714 353.729 -1542 120 86 84
-253.515 353.648 -1542 136 97 91
-250.157 353.339 -1541 171 132 124
-246.163 352.115 -1536 211 172 160
-242.035 350.662 -1530 213 177 166
-238.089 349.441 -1525 216 181 170
-234.782 349.137 -1524 221 183 165
-231.025 348.147 -1520 222 184 164
-227.587 347.617 -1518 223 185 163
-224.159 347.088 -1516 227 186 160
-220.887 346.789 -1515 226 185 159
-217.764 346.72 -1515 227 185 160
-214.785 346.881 -1516 227 185 159
-211.525 346.585 -1515 227 185 159
-208.133 346.061 -1513 226 184 154
-204.751 345.539 -1511 224 182 152
-201.379 345.018 -1509 221 179 149
-198.017 344.498 -1507 214 172 142
-194.794 344.208 -1506 206 165 134
-191.704 344.147 -1506 208 168 137
-188.49 343.859 -1505 211 168 138
-185.529 344.029 -1506 218 174 145
-182.565 344.199 -1507 219 177 147
-179.479 344.142 -1507 218 176 146
-176.278 343.858 -1506 218 176 146
-173.082 343.575 -1505 219 173 145
-169.892 343.293 -1504 218 171 144
-166.819 343.241 -1504 219 171 144
-164.073 343.874 -1507 216 168 140
-161.103 344.051 -1508 210 162 131
-158.339 344.685 -1511 207 159 124
-155.36 344.864 -1512 207 158 123
-152.176 344.588 -1511 211 162 127
-149.096 344.541 -1511 216 167 135
-146.017 344.495 -1511 221 172 142
-142.94 344.45 -1511 222 173 143
-139.771 344.178 -1510 223 173 144
-136.789 344.363 -1511 217 165 137
-133.626 344.093 -1510 210 158 125
-130.728 344.507 -1512 204 151 117
-127.57 344.239 -1511 197 143 110
-124.664 344.655 -1513 187 136 106
-121.51 344.389 -1512 167 120 93
-118.675 345.035 -1515 136 101 80
-115.446 344.543 -1513 108 77 57
-112.524 344.963 -1515 76 58 49
-109.017 343.562 -1509 64 50 49
-105.605 342.39 -1504 62 50 54
-102.283 341.447 -1500 47 40 50
-270.144 351.719 -1546 105 105 121
-266.757 351.407 -1545 105 103 118
-263.546 351.324 -1545 109 99 110
-260.844 351.924 -1548 105 84 90
-256.966 350.933 -1544 101 76 78
-253.764 350.854 -1544 155 120 114
-250.24 350.32 -1542 213 178 170
-246.086 348.88 -1536 214 179 167
-241.959 347.441 -1530 214 179 167
-238.482 346.911 -1528 214 179 166
-234.862 346.156 -1525 220 184 164
-231.409 345.63 -1523 221 184 164
-227.965 345.104 -1521 223 185 164
-224.532 344.58 -1519 228 186 160
-221.109 344.057 -1517 229 187 161
-217.696 343.535 -1515 229 187 161
-214.718 343.694 -1516 229 187 161
-211.459 343.401 -1515 228 186 160
-208.068 342.882 -1513 227 185 155
-204.822 342.591 -1512 225 183 153
-201.316 341.848 -1509 223 181 151
-197.955 341.333 -1507 220 178 148
-194.862 341.272 -1507 211 169 139
-191.644 340.986 -1506 208 166 136
-188.431 340.7 -1505 209 166 136
-185.471 340.868 -1506 217 174 144
-182.387 340.811 -1506 220 178 148
-179.304 340.755 -1506 220 178 148
-176.106 340.474 -1505 219 177 147
-173.028 340.42 -1505 220 174 146
-169.839 340.14 -1504 222 175 148
-166.767 340.088 -1504 224 175 146
-163.913 340.489 -1506 225 176 146
-161.053 340.891 -1508 221 172 141
-158.29 341.519 -1511 217 168 134
-155.311 341.697 -1512 216 167 133
-152.229 341.649 -1512 218 170 137
-149.148 341.603 -1512 220 171 140
-146.069 341.557 -1512 222 173 144
-142.801 341.06 -1510 222 173 144
-139.82 341.243 -1511 223 173 144
-136.837 341.426 -1512 218 166 138
-133.762 341.384 -1512 212 159 127
-130.774 341.569 -1513 205 152 118
-127.7 341.529 -1513 197 144 112
-124.708 341.716 -1514 188 137 108
-121.553 341.452 -1513 166 119 92
-118.716 342.092 -1516 136 101 79
-115.64 342.056 -1516 108 76 57
-112.712 342.472 -1518 76 56 49
-109.561 342.212 -1517 64 49 48
-106.274 341.502 -1514 62 50 53
-103.001 340.793 -1511 48 41 49
-270.298 352.883 -1566 95 96 114
-265.681 350.998 -1558 101 97 112
-261.773 350.015 -1554 110 97 105
-256.886 347.682 -1544 131 113 120
-253.85 347.828 -1545 204 175 169
-250.163 347.075 -1542 224 194 185
-245.849 345.422 -1535 212 179 166
-242.2 344.672 -1532 212 178 165
-239.188 344.822 -1533 216 182 169
-235.405 343.849 -1529 220 184 164
-231.489 342.653 -1524 221 183 163
-228.044 342.132 -1522 223 183 162
-224.61 341.612 -1520 228 186 159
-221.04 340.869 -1517 231 189 162
-217.629 340.352 -1515 231 189 163
-214.652 340.51 -1516 230 188 162
-211.393 340.22 -1515 229 187 161
-208.003 339.706 -1513 227 185 155
-204.353 338.744 -1509 224 182 152
-201.12 338.457 -1508 222 180 150
-197.893 338.172 -1507 221 179 149
-194.673 337.887 -1506 214 172 142
-191.457 337.603 -1505 211 169 139
-188.498 337.769 -1506 211 169 139
-185.537 337.935 -1507 216 173 143
-182.33 337.655 -1506 218 176 146
-179.249 337.599 -1506 219 177 147
-176.052 337.32 -1505 220 177 147
-172.975 337.267 -1505 221 175 147
-169.674 336.766 -1503 224 177 150
-166.715 336.938 -1504 226 178 148
-163.971 337.559 -1507 225 178 146
-161.11 337.958 -1509 222 175 142
-158.241 338.356 -1511 221 174 139
-155.366 338.756 -1513 221 174 139
-152.283 338.709 -1513 220 172 139
-149.102 338.439 -1512 221 172 142
-146.024 338.394 -1512 223 174 145
-142.757 337.902 -1510 221 174 145
-139.685 337.859 -1510 222 173 145
-136.795 338.264 -1512 220 168 140
-133.809 338.446 -1513 213 162 129
-130.821 338.629 -1514 206 154 120
-127.913 339.037 -1516 201 148 117
-124.835 338.998 -1516 188 138 108
-121.757 338.961 -1516 169 121 92
-118.836 339.371 -1518 143 107 83
-115.757 339.335 -1518 114 81 61
-112.826 339.747 -1520 79 58 53
-109.816 339.937 -1521 64 49 49
-106.944 340.574 -1524 62 50 53
-103.719 340.095 -1522 49 42 49
-100.305 338.947 -1517 52 45 51
-266.281 348.611 -1562 97 98 116
-262.366 347.637 -1558 98 89 100
-257.805 345.772 -1550 135 123 131
-254.593 345.694 -1550 196 171 166
-250.572 344.501 -1545 209 180 172
-245.934 342.418 -1536 215 182 169
-242.283 341.675 -1533 216 183 170
-238.803 341.155 -1531 218 184 170
-235.179 340.414 -1528 221 184 165
-231.417 339.452 -1524 223 184 163
-227.974 338.936 -1522 223 184 162
-224.541 338.421 -1520 229 188 160
-221.264 338.13 -1519 231 190 162
-217.849 337.618 -1517 231 189 163
-214.444 337.107 -1515 229 187 160
-211.189 336.819 -1514 228 186 160
-207.802 336.31 -1512 226 184 154
-204.561 336.025 -1511 223 181 151
-201.325 335.741 -1510 221 179 149
-198.095 335.458 -1509 219 177 147
-194.871 335.175 -1508 214 172 142
-191.78 335.116 -1508 213 171 141
-188.566 334.836 -1507 214 171 141
-185.603 335.001 -1508 216 173 143
-182.396 334.723 -1507 217 175 145
-179.432 334.89 -1508 218 176 146
-176.232 334.614 -1507 220 177 147
-173.267 334.783 -1508 222 176 148
-169.961 334.286 -1506 225 178 150
-166.997 334.457 -1507 224 177 147
-164.03 334.629 -1508 225 178 146
-161.167 335.023 -1510 224 177 144
-158.298 335.418 -1512 223 177 141
-155.422 335.814 -1514 219 173 138
-152.438 335.989 -1515 219 171 138
-149.254 335.722 -1514 221 173 143
-146.172 335.677 -1514 223 175 146
-142.997 335.411 -1513 223 176 147
-139.92 335.368 -1513 223 174 145
-136.843 335.326 -1513 222 170 142
-133.857 335.507 -1514 216 164 131
-131.04 336.132 -1517 211 160 125
-127.959 336.092 -1517 204 150 120
-124.879 336.054 -1517 188 136 106
-121.88 336.238 -1518 172 122 92
-118.879 336.423 -1519 146 109 86
-115.798 336.388 -1519 116 82 63
-112.866 336.796 -1521 81 59 56
-109.999 337.426 -1524 64 50 50
-107.122 338.058 -1527 60 49 50
-103.824 337.362 -1524 49 42 47
-100.274 335.781 -1517 52 45 50
-261.949 343.92 -1556 114 103 112
-256.396 340.747 -1542 144 129 136
-253.201 340.669 -1542 172 147 142
-249.523 339.93 -1539 180 150 142
-245.378 338.53 -1533 207 170 157
-241.893 338.014 -1531 219 186 173
-238.574 337.72 -1530 223 189 175
-235.107 337.207 -1528 224 186 167
-231.043 335.812 -1522 224 187 165
-227.605 335.301 -1520 226 189 165
-224.325 335.012 -1519 230 191 162
-221.051 334.724 -1518 231 191 163
-217.783 334.437 -1517 229 187 161
-214.52 334.151 -1516 225 183 156
-211.125 333.646 -1514 225 183 155
-207.602 332.922 -1511 225 182 152
-204.634 333.08 -1512 221 179 149
-201.264 332.578 -1510 220 178 148
-198.035 332.297 -1509 219 177 147
-194.941 332.238 -1509 215 173 143
-191.722 331.96 -1508 215 173 143
-188.509 331.682 -1507 217 174 144
-185.547 331.846 -1508 218 175 145
-182.461 331.79 -1508 217 175 145
-179.377 331.736 -1508 218 175 145
-176.061 331.242 -1506 220 177 147
-173.099 331.409 -1507 222 176 147
-169.909 331.138 -1506 223 176 147
-166.835 331.087 -1506 226 179 150
-163.872 331.257 -1507 224 177 146
-161.225 332.087 -1511 223 176 143
-158.355 332.479 -1513 223 177 141
-155.58 333.091 -1516 220 174 138
-152.492 333.044 -1516 222 173 140
-149.406 332.999 -1516 223 175 145
-146.225 332.735 -1515 223 176 147
-143.048 332.472 -1514 224 177 148
-139.97 332.429 -1514 222 174 145
-136.893 332.388 -1514 220 168 140
-133.905 332.567 -1515 214 162 131
-131 332.966 -1517 209 157 125
-128.089 333.366 -1519 202 148 116
-125.006 333.328 -1519 189 135 104
-122.165 333.949 -1522 174 123 91
-119.077 333.913 -1522 142 104 84
-115.915 333.658 -1521 107 72 56
-112.832 333.624 -1521 82 57 55
-109.894 334.029 -1523 67 51 49
-107.019 334.655 -1526 61 50 48
-103.861 334.404 -1525 50 43 47
-100.443 333.277 -1520 52 45 49
-97.3017 333.028 -1519 46 39 45
-260.523 338.9 -1548 139 127 135
-255.321 336.195 -1536 172 156 162
-252.304 336.338 -1537 169 139 138
-248.799 335.825 -1535 159 124 117
-244.984 334.875 -1531 196 155 142
-241.978 335.021 -1532 221 187 175
-238.502 334.511 -1530 222 188 174
-235.036 334.003 -1528 227 190 169
-231.125 332.84 -1523 226 188 164
-227.836 332.552 -1522 225 186 162
-224.7 332.484 -1522 229 188 160
-221.275 331.981 -1520 230 188 161
-217.717 331.26 -1517 229 187 161
-214.314 330.758 -1515 227 185 157
-211.061 330.476 -1514 223 181 153
-207.539 329.759 -1511 221 178 148
-204.437 329.697 -1511 219 176 146
-201.203 329.418 -1510 217 175 145
-198.238 329.576 -1511 217 175 145
-194.754 328.863 -1508 216 174 144
-191.664 328.806 -1508 216 174 144
-188.577 328.749 -1508 217 175 145
-185.614 328.911 -1509 217 174 144
-182.527 328.856 -1509 217 175 145
-179.562 329.02 -1510 217 174 144
-176.476 328.967 -1510 218 175 145
-173.392 328.914 -1510 221 175 146
-170.197 328.645 -1509 222 176 147
-167.228 328.813 -1510 224 177 146
-164.149 328.763 -1510 223 176 145
-161.39 329.368 -1513 222 175 142
-158.412 329.538 -1514 221 175 139
-155.533 329.926 -1516 221 174 139
-152.648 330.316 -1518 223 174 142
-149.46 330.053 -1517 224 176 146
-146.47 330.227 -1518 225 178 149
-143.195 329.749 -1516 225 178 149
-140.113 329.706 -1516 222 174 145
-136.942 329.448 -1515 220 170 142
-133.953 329.625 -1516 216 164 133
-130.875 329.586 -1516 210 158 126
-127.966 329.982 -1518 204 148 116
-124.968 330.162 -1519 189 136 102
-121.887 330.125 -1519 177 126 92
-118.886 330.307 -1520 136 98 80
-115.728 330.054 -1519 105 69 55
-112.798 330.455 -1521 89 61 58
-109.861 330.857 -1523 75 55 54
-107.128 331.911 -1528 64 49 48
-103.966 331.662 -1527 52 44 49
-100.743 331.197 -1525 51 44 50
-97.529 330.734 -1523 43 36 44
-94.4479 330.705 -1523 41 35 47
-260.109 335.217 -1546 141 129 137
-254.579 332.105 -1532 147 131 138
-251.244 331.813 -1531 160 125 127
-248.4 332.172 -1533 152 111 105
-244.911 331.665 -1531 188 142 130
-241.748 331.593 -1531 220 187 176
-238.431 331.305 -1530 224 190 176
-235.12 331.018 -1529 226 190 168
-231.208 329.866 -1524 228 188 164
-227.768 329.365 -1522 227 187 162
-224.633 329.298 -1522 229 187 159
-221.355 329.015 -1521 229 187 160
-217.939 328.517 -1519 229 187 161
-214.533 328.021 -1517 227 184 156
-211.277 327.741 -1516 222 179 151
-207.889 327.247 -1514 221 178 148
-204.647 326.969 -1513 219 176 146
-201.41 326.693 -1512 217 175 145
-198.31 326.634 -1512 216 174 144
-194.954 326.144 -1510 216 174 144
-191.862 326.086 -1510 216 174 144
-188.771 326.03 -1510 217 174 144
-185.682 325.975 -1510 216 174 143
-182.473 325.704 -1509 215 173 143
-179.627 326.082 -1511 215 173 143
-176.424 325.814 -1510 216 173 143
-173.341 325.762 -1510 221 175 146
-170.259 325.712 -1510 222 176 146
-167.29 325.877 -1511 222 175 142
-164.317 326.044 -1512 221 174 141
-161.449 326.427 -1514 221 174 140
-158.47 326.596 -1515 220 173 138
-155.59 326.981 -1517 221 174 140
-152.502 326.935 -1517 224 175 145
-149.317 326.675 -1516 224 176 147
-146.234 326.632 -1516 225 178 149
-143.058 326.374 -1515 226 179 150
-140.071 326.547 -1516 225 177 148
-136.811 326.076 -1514 222 173 144
-133.913 326.467 -1516 217 165 134
-130.75 326.212 -1515 210 158 126
-127.844 326.605 -1517 204 147 114
-124.767 326.568 -1517 192 138 104
-122.012 327.392 -1521 174 123 88
-119.007 327.572 -1522 135 96 79
-115.77 327.107 -1520 119 82 67
-112.765 327.289 -1521 103 72 66
-109.757 327.472 -1522 88 65 63
-106.956 328.3 -1526 66 48 47
-103.731 327.839 -1524 54 42 49
-100.515 327.379 -1522 54 44 51
-97.4361 327.35 -1522 48 40 49
-94.4821 327.752 -1524 45 40 52
-90.9209 326.004 -1516 43 38 50
-254.67 329.109 -1533 128 115 125
-251.989 329.678 -1536 144 106 111
-248.974 329.819 -1537 143 99 95
-244.998 328.673 -1532 173 125 114
-241.518 328.172 -1530 220 185 173
-238.048 327.672 -1528 223 188 173
-234.896 327.603 -1528 225 189 165
-230.988 326.462 -1523 228 188 163
-227.85 326.395 -1523 229 187 162
-224.714 326.328 -1523 229 187 159
-221.435 326.048 -1522 228 186 159
-217.875 325.341 -1519 226 184 159
-214.611 325.063 -1518 223 181 152
-211.215 324.573 -1516 218 176 146
-207.965 324.297 -1515 220 177 147
-204.857 324.236 -1515 218 176 146
-201.75 324.177 -1515 216 174 144
-198.514 323.904 -1514 216 174 144
-195.155 323.418 -1512 216 174 144
-192.059 323.362 -1512 214 172 142
-188.715 322.878 -1510 213 171 139
-185.75 323.037 -1511 212 171 138
-182.661 322.983 -1511 212 170 140
-179.574 322.93 -1511 212 170 140
-176.489 322.878 -1511 213 170 140
-173.519 323.041 -1512 216 170 141
-170.547 323.204 -1513 218 171 142
-167.462 323.154 -1513 220 174 139
-164.486 323.32 -1514 219 173 137
-161.615 323.699 -1516 218 172 137
-158.632 323.866 -1517 218 171 138
-155.647 324.033 -1518 221 174 142
-152.759 324.415 -1520 223 175 148
-149.569 324.158 -1519 225 178 151
-146.481 324.114 -1519 227 180 152
-143.299 323.859 -1518 228 181 153
-140.215 323.817 -1518 227 179 151
-136.861 323.137 -1515 224 175 146
-133.963 323.524 -1517 218 166 135
-130.798 323.272 -1516 213 160 128
-127.723 323.235 -1516 206 149 116
-124.731 323.411 -1517 192 138 104
-121.896 324.015 -1520 167 116 81
-118.894 324.193 -1521 143 103 83
-115.812 324.159 -1521 131 93 75
-112.806 324.339 -1522 114 82 70
-109.653 324.093 -1521 93 67 62
-106.784 324.701 -1524 68 46 44
-103.633 324.457 -1523 56 43 47
-100.486 324.215 -1522 58 47 52
-97.5997 324.825 -1525 55 47 54
-94.4545 324.584 -1524 54 47 58
-91.0743 323.492 -1519 44 38 49
-258.274 326.611 -1536 111 102 116
-253.599 324.623 -1527 109 96 108
-251.259 325.612 -1532 142 103 109
-248.416 325.964 -1534 176 133 130
-244.926 325.467 -1532 201 156 146
-241.763 325.396 -1532 216 180 167
-238.446 325.113 -1531 222 186 170
-234.827 324.407 -1528 220 184 159
-231.224 323.702 -1525 226 185 160
-227.933 323.423 -1524 226 184 159
-224.649 323.145 -1523 227 185 157
-221.37 322.868 -1522 225 183 156
-217.954 322.38 -1520 223 181 156
-214.831 322.317 -1520 220 178 149
-211.571 322.043 -1519 217 175 145
-208.179 321.558 -1517 219 175 145
-204.797 321.074 -1515 217 174 144
-201.558 320.803 -1514 216 174 144
-198.456 320.745 -1514 216 174 144
-195.098 320.264 -1512 213 171 141
-192.003 320.208 -1512 211 169 139
-188.785 319.941 -1511 209 168 136
-185.819 320.098 -1512 210 169 136
-182.367 319.41 -1509 210 168 136
-179.403 319.569 -1510 208 166 135
-176.437 319.729 -1511 209 166 136
-173.469 319.89 -1512 214 167 138
-170.498 320.052 -1513 215 168 138
-167.413 320.003 -1513 217 171 133
-164.439 320.166 -1514 216 170 133
-161.461 320.331 -1515 218 172 135
-158.586 320.707 -1517 218 171 138
-155.601 320.873 -1518 221 174 143
-152.614 321.04 -1519 225 178 151
-149.329 320.574 -1517 227 180 153
-146.245 320.531 -1517 228 181 154
-142.974 320.067 -1515 229 182 155
-140.082 320.448 -1517 229 181 153
-136.822 319.986 -1515 225 176 147
-133.835 320.158 -1516 220 170 138
-130.587 319.698 -1514 218 167 134
-127.686 320.083 -1516 212 155 121
-124.777 320.469 -1518 193 140 106
-121.861 320.855 -1520 177 126 92
-118.938 321.243 -1522 156 115 91
-116.007 321.631 -1524 135 96 74
-112.848 321.387 -1523 124 90 73
-109.549 320.722 -1520 97 70 61
-106.683 321.324 -1523 75 50 45
-103.603 321.293 -1523 64 48 48
-100.391 320.842 -1521 61 47 48
-97.4435 321.236 -1523 59 47 51
-94.1794 320.575 -1520 59 50 59
-90.8682 319.705 -1516 46 38 48
-258.366 323.607 -1537 113 102 117
-254.355 322.48 -1532 154 138 151
-252.17 323.669 -1538 209 173 177
-248.667 323.176 -1536 219 180 176
-245.015 322.474 -1533 220 179 171
-242.008 322.613 -1534 217 180 165
-238.377 321.913 -1531 218 182 163
-234.759 321.214 -1528 219 183 157
-231.611 321.147 -1528 223 182 157
-228.017 320.45 -1525 222 181 155
-224.878 320.385 -1525 222 180 152
-221.742 320.32 -1525 219 177 150
-218.178 319.627 -1522 217 175 149
-214.91 319.355 -1521 218 176 146
-211.649 319.083 -1520 217 175 145
-208.53 319.023 -1520 218 172 143
-205.143 318.544 -1518 215 171 142
-201.766 318.065 -1516 214 172 142
-198.661 318.008 -1516 214 172 142
-195.17 317.322 -1513 211 169 139
-192.075 317.266 -1513 209 167 137
-189.105 317.421 -1514 210 168 136
-185.888 317.158 -1513 210 169 136
-182.555 316.686 -1511 209 167 135
-179.589 316.843 -1512 207 165 134
-176.737 317.211 -1514 209 166 136
-173.648 317.161 -1514 213 167 137
-170.674 317.321 -1515 215 168 137
-167.697 317.482 -1516 214 168 131
-164.717 317.644 -1517 215 169 131
-161.415 317.179 -1515 217 171 133
-158.436 317.342 -1516 219 172 139
-155.352 317.297 -1516 222 175 144
-152.369 317.463 -1517 227 180 152
-149.089 317.001 -1515 229 182 155
-146.01 316.959 -1515 231 184 157
-142.839 316.708 -1514 230 184 157
-139.765 316.668 -1514 230 183 154
-136.512 316.21 -1512 226 177 148
-133.532 316.381 -1513 221 172 140
-130.464 316.343 -1513 219 169 136
-127.481 316.515 -1514 216 159 124
-124.494 316.688 -1515 203 149 116
-121.826 317.698 -1520 188 136 104
-118.825 317.873 -1521 156 115 84
-115.974 318.466 -1524 146 106 77
-113.038 318.852 -1526 126 90 68
-109.734 318.193 -1523 97 67 54
-106.583 317.953 -1522 81 54 44
-103.505 317.924 -1522 74 56 52
-100.362 317.686 -1521 73 57 54
-97.2878 317.657 -1521 74 60 59
-94.2763 317.839 -1522 67 56 62
-90.9021 316.769 -1517 49 39 46
-87.6067 315.908 -1513 45 38 49
-258.46 320.601 -1538 130 115 127
-254.116 319.068 -1531 184 164 174
-251.77 320.038 -1536 203 172 173
-247.948 319.133 -1532 212 180 175
-244.785 319.063 -1532 220 187 179
-241.623 318.993 -1532 218 180 164
-238.308 318.716 -1531 216 179 159
-234.692 318.024 -1528 218 181 155
-231.545 317.958 -1528 220 180 155
-227.951 317.268 -1525 219 178 153
-224.814 317.203 -1525 218 176 148
-221.679 317.139 -1525 214 172 144
-218.545 317.077 -1525 213 171 144
-215.131 316.599 -1523 217 175 145
-211.727 316.122 -1521 218 175 145
-208.608 316.063 -1521 217 171 142
-205.085 315.38 -1518 213 170 140
-201.841 315.115 -1517 211 169 139
-198.735 315.058 -1517 211 169 139
-195.373 314.586 -1515 210 168 138
-192.401 314.739 -1516 208 166 136
-189.176 314.477 -1515 209 166 134
-186.081 314.424 -1515 208 165 133
-182.745 313.956 -1513 208 165 135
-179.775 314.112 -1514 208 165 135
-176.92 314.477 -1516 208 165 135
-173.943 314.634 -1517 210 164 133
-170.963 314.793 -1518 211 165 133
-167.87 314.745 -1518 213 167 131
-164.779 314.697 -1518 215 169 133
-161.476 314.237 -1516 218 172 136
-158.391 314.191 -1516 220 173 140
-155.205 313.94 -1515 223 176 144
-152.125 313.896 -1515 228 181 152
-148.85 313.439 -1513 231 184 157
-145.68 313.19 -1512 232 185 158
-142.61 313.15 -1512 232 186 157
-139.541 313.11 -1512 231 183 154
-136.473 313.071 -1512 226 177 148
-133.494 313.24 -1513 222 173 142
-130.341 312.995 -1512 223 173 141
-127.36 313.166 -1513 222 166 130
-124.541 313.751 -1516 210 156 123
-121.871 314.751 -1521 194 141 111
-118.948 315.131 -1523 168 126 90
-116.246 316.132 -1528 151 112 79
-113.006 315.686 -1526 122 87 62
-109.847 315.448 -1525 99 70 53
-106.553 314.797 -1522 93 65 51
-103.544 314.974 -1523 89 69 61
-100.334 314.532 -1521 85 67 60
-97.3881 314.917 -1523 83 67 62
-94.5592 315.717 -1527 68 57 60
-91.2957 315.071 -1524 51 41 46
-88.3344 315.459 -1526 50 43 54
-255.371 317.521 -1539 169 152 159
-252.517 317.861 -1541 191 165 164
-248.363 316.553 -1535 211 183 177
-245.354 316.689 -1536 223 194 185
-241.87 316.208 -1534 219 181 164
-238.396 315.728 -1532 217 179 158
-234.779 315.043 -1529 214 178 152
-232.085 315.595 -1532 218 178 152
-228.484 314.912 -1529 215 175 149
-225.045 314.436 -1527 214 172 143
-221.761 314.167 -1526 211 169 141
-218.483 313.899 -1525 212 170 142
-215.07 313.426 -1523 214 171 142
-211.946 313.366 -1523 212 169 140
-208.686 313.101 -1522 212 169 140
-205.432 312.837 -1521 211 168 139
-202.05 312.368 -1519 209 167 137
-199.072 312.517 -1520 206 164 134
-195.575 311.845 -1517 205 162 132
-192.6 311.996 -1518 207 163 133
-189.373 311.737 -1517 208 163 132
-186.397 311.889 -1518 207 162 131
-183.056 311.426 -1516 207 164 134
-180.199 311.786 -1518 208 164 134
-177.103 311.736 -1518 206 162 133
-174.237 312.097 -1520 207 162 130
-171.14 312.049 -1520 208 163 131
-168.044 312.001 -1520 212 167 134
-164.732 311.544 -1518 216 169 135
-161.537 311.293 -1517 218 171 137
-158.242 310.838 -1515 219 172 139
-155.264 310.999 -1516 222 175 143
-152.082 310.751 -1515 229 182 152
-149.004 310.709 -1515 234 187 160
-145.928 310.667 -1515 234 187 161
-142.852 310.627 -1515 234 187 159
-139.686 310.382 -1514 233 185 157
-136.615 310.344 -1514 228 180 152
