ply
format ascii 1.0
comment Created by Open3D
element vertex 1464
property double x
property double y
property double z
property uchar red
property uchar green
property uchar blue
end_header
-125.401 -1188.49 -1665 30 28 27
-121.848 -1191.21 -1669 35 33 31
-118.067 -1191.79 -1670 37 35 33
-114.213 -1191.67 -1670 38 36 34
-110.493 -1192.97 -1672 41 39 36
-106.829 -1195 -1675 41 39 35
-103.275 -1198.45 -1680 37 35 31
-99.8172 -1203.33 -1687 38 34 31
-96.442 -1209.65 -1696 38 34 31
-92.4808 -1208.83 -1695 39 35 32
-89.1521 -1216.58 -1706 41 37 34
-84.6248 -1207.93 -1694 42 38 35
-61.0598 -1203.9 -1689 56 52 49
-53.4198 -1206.62 -1693 60 56 53
-49.6453 -1209.42 -1697 63 60 56
-45.6912 -1207.94 -1695 65 61 58
-41.6975 -1205.05 -1691 64 60 57
-37.8121 -1205 -1691 64 60 57
-33.9872 -1207.1 -1694 63 59 56
-30.1134 -1207.78 -1695 60 56 53
-22.2606 -1204.16 -1690 61 58 53
-349.827 -1200.01 -1653 62 58 55
-345.651 -1198.9 -1652 64 60 55
-341.691 -1198.52 -1652 64 61 55
-337.939 -1198.87 -1653 65 62 56
-332.569 -1193.43 -1646 65 62 56
-329.633 -1196.69 -1651 66 63 57
-326.873 -1200.67 -1657 69 66 60
-315.022 -1199.61 -1657 59 55 54
-296.378 -1186.69 -1641 29 26 24
-292.308 -1185.64 -1640 28 26 24
-286.31 -1176.65 -1628 33 31 29
-282.629 -1177.06 -1629 35 33 31
-277.576 -1171.7 -1622 37 35 33
-273.91 -1172.12 -1623 38 36 34
-269.409 -1168.93 -1619 38 36 34
-265.095 -1166.47 -1616 37 36 34
-260.636 -1163.3 -1612 36 35 33
-256.677 -1162.29 -1611 36 34 32
-251.94 -1157.69 -1605 36 34 32
-248.007 -1156.69 -1604 37 37 33
-244.539 -1157.86 -1606 37 37 33
-240.314 -1155.44 -1603 37 37 33
-236.253 -1153.74 -1601 37 37 35
-232.204 -1152.04 -1599 38 38 35
-227.882 -1148.91 -1595 38 38 34
-223.861 -1147.22 -1593 38 38 34
-220.129 -1146.98 -1593 38 38 34
-216.127 -1145.3 -1591 37 38 34
-212.537 -1145.78 -1592 36 39 34
-208.814 -1145.56 -1592 38 38 34
-205.094 -1145.33 -1592 37 40 35
-201.628 -1146.55 -1594 36 39 34
-198.155 -1147.77 -1596 36 39 34
-194.553 -1148.27 -1597 34 37 33
-191.426 -1151.66 -1602 35 38 33
-187.927 -1152.89 -1604 35 38 34
-184.765 -1156.28 -1609 36 39 36
-181.694 -1160.39 -1615 35 38 35
-178.927 -1166.66 -1624 35 38 35
-176.013 -1172.22 -1632 35 38 35
-172.958 -1177.05 -1639 32 34 32
-169.562 -1179.74 -1643 32 32 28
-166.15 -1182.43 -1647 25 25 21
-163.312 -1189.43 -1657 18 17 13
-149.103 -1198.08 -1670 17 15 13
-145.06 -1196.49 -1668 17 14 15
-133.397 -1195.32 -1667 18 14 15
-129.619 -1195.89 -1668 18 15 14
-125.762 -1195.75 -1668 20 18 16
-122.418 -1200.64 -1675 33 31 29
-118.406 -1199.07 -1673 36 34 32
-114.405 -1197.51 -1671 38 36 34
-110.613 -1198.11 -1672 42 40 37
-107.008 -1200.86 -1676 44 42 38
-103.509 -1205.04 -1682 40 38 34
-99.8657 -1207.8 -1686 37 35 31
-96.546 -1214.86 -1696 37 35 31
-92.7989 -1216.9 -1699 39 37 33
-89.2482 -1221.82 -1706 41 39 35
-84.616 -1211.7 -1692 43 41 37
-68.2499 -1197.76 -1673 55 51 48
-64.7443 -1204.13 -1682 56 52 49
-60.655 -1199.77 -1676 54 50 47
-57.0685 -1205.43 -1684 58 54 51
-53.2878 -1207.52 -1687 62 59 55
-49.3766 -1206.75 -1686 65 62 58
-45.4436 -1205.27 -1684 65 61 58
-41.5696 -1205.22 -1684 64 60 57
-37.7632 -1207.33 -1687 64 59 56
-30.0035 -1207.25 -1687 61 57 54
-26.0621 -1204.36 -1683 61 57 54
-22.1922 -1204.33 -1683 61 57 53
-339.999 -1196.42 -1642 64 61 55
-336.062 -1196.04 -1642 62 59 53
-327.599 -1193.12 -1639 66 63 57
-317.587 -1198.6 -1648 64 60 61
-314.228 -1200.43 -1651 61 57 57
-288.034 -1187.54 -1636 26 24 22
-284.329 -1187.95 -1637 30 28 26
-280.28 -1186.91 -1636 34 32 30
-275.9 -1184.43 -1633 36 33 32
-270.372 -1176.88 -1623 36 34 32
-265.386 -1171.51 -1616 37 36 34
-260.76 -1167.59 -1611 37 36 34
-256.799 -1166.58 -1610 38 36 34
-252.059 -1161.96 -1604 36 34 32
-248.124 -1160.96 -1603 37 36 33
-244.959 -1163.58 -1607 39 39 35
-240.577 -1160.42 -1603 39 39 35
-236.659 -1159.43 -1602 39 39 36
-232.604 -1157.73 -1600 38 38 35
-228.56 -1156.03 -1598 39 39 35
-224.106 -1152.16 -1593 39 39 35
-220.231 -1151.2 -1592 40 40 36
-216.635 -1151.68 -1593 41 41 38
-212.636 -1150 -1591 38 38 34
-208.78 -1149.05 -1590 39 39 35
-205.189 -1149.54 -1591 37 39 34
-201.721 -1150.76 -1593 35 38 33
-198.247 -1151.99 -1595 36 39 34
-194.643 -1152.5 -1596 34 37 34
-191.516 -1155.9 -1601 33 36 33
-187.897 -1156.41 -1602 34 36 33
-184.966 -1161.26 -1609 35 37 35
-181.892 -1165.39 -1615 35 37 35
-179.343 -1173.13 -1626 36 38 35
-176.744 -1180.87 -1637 33 34 32
-173.78 -1186.45 -1645 28 28 26
-170.263 -1188.42 -1648 22 21 19
-156.169 -1197.08 -1661 22 20 18
-152.222 -1196.2 -1660 21 19 18
-148.728 -1198.91 -1664 19 17 15
-144.695 -1197.31 -1662 17 14 15
-140.334 -1192.84 -1656 18 14 15
-136.414 -1191.97 -1655 16 12 13
-132.581 -1191.82 -1655 16 12 13
-129.137 -1195.28 -1660 16 12 11
-125.295 -1195.14 -1660 21 18 17
-121.82 -1198.6 -1665 35 32 31
-118.11 -1199.91 -1667 39 37 35
-114.324 -1200.51 -1668 40 38 36
-110.401 -1199.66 -1667 41 39 36
-106.805 -1202.42 -1671 43 41 37
-103.19 -1205.19 -1675 40 38 34
-99.5588 -1207.96 -1679 37 35 31
-96.2518 -1215.04 -1689 36 34 30
-92.5167 -1217.1 -1692 37 35 31
-88.7165 -1218.44 -1694 38 36 32
-84.4574 -1213.31 -1687 40 38 34
-80.4224 -1211.06 -1684 43 40 36
-68.4055 -1204.35 -1675 54 50 47
-60.7569 -1205.65 -1677 56 52 49
-56.9267 -1206.3 -1678 60 56 55
-53.1556 -1208.4 -1681 64 62 59
-49.3713 -1210.5 -1684 67 65 61
-45.3576 -1206.86 -1679 66 62 59
-41.4662 -1206.09 -1678 65 61 58
-37.6023 -1206.05 -1678 66 60 57
-33.779 -1207.45 -1680 64 59 56
-29.7687 -1201.66 -1672 62 58 56
-25.9198 -1201.63 -1672 60 56 53
-22.0842 -1202.32 -1673 61 57 54
-339.548 -1198.66 -1638 63 60 54
-331.283 -1196.45 -1636 66 63 57
-326.562 -1193.16 -1632 68 65 59
-316.396 -1197.93 -1640 61 57 57
-312.29 -1196.85 -1639 58 54 55
-309.133 -1199.42 -1643 53 49 48
-297.454 -1183.42 -1622 39 33 33
-292.87 -1180.18 -1618 31 25 24
-290.989 -1187.88 -1629 25 21 20
-285.339 -1195.98 -1641 25 22 21
-280.933 -1193.49 -1638 29 25 24
-276.882 -1192.45 -1637 33 29 28
-271.171 -1184.13 -1626 37 35 33
-266.337 -1179.47 -1620 38 37 35
-262.02 -1176.99 -1617 38 38 36
-257.881 -1175.25 -1615 38 36 34
-252.809 -1169.14 -1607 36 33 34
-248.708 -1167.41 -1605 38 36 35
-245.076 -1167.87 -1606 38 38 34
-240.391 -1163.24 -1600 37 37 33
-236.476 -1162.25 -1599 37 37 33
-232.569 -1161.26 -1598 39 39 35
-229.098 -1162.46 -1600 39 39 35
-224.352 -1157.12 -1593 41 41 37
-220.473 -1156.15 -1592 42 42 40
-216.737 -1155.91 -1592 42 42 40
-212.736 -1154.22 -1590 40 40 36
-209.009 -1153.99 -1590 42 42 38
-205.285 -1153.76 -1590 39 41 37
-201.943 -1155.72 -1593 38 41 36
-198.464 -1156.95 -1595 36 38 33
-195.101 -1158.91 -1598 32 35 32
-192.085 -1163.04 -1604 31 34 31
-188.456 -1163.56 -1605 30 33 30
-185.744 -1169.88 -1614 31 31 29
-182.204 -1171.13 -1616 31 31 29
-179.76 -1179.62 -1628 30 29 27
-176.83 -1185.22 -1636 24 23 21
-174.076 -1192.28 -1646 19 17 15
-151.929 -1197.72 -1655 26 24 22
-148.175 -1198.28 -1656 27 24 25
-144.243 -1197.4 -1655 31 27 28
-139.893 -1192.9 -1649 32 28 29
-136.233 -1194.19 -1651 35 31 32
-132.645 -1196.22 -1654 38 33 33
-129.045 -1198.24 -1657 37 33 32
-125.28 -1198.83 -1658 39 35 34
-122.172 -1205.92 -1668 41 37 36
-118.31 -1205.79 -1668 39 37 35
-114.517 -1206.39 -1669 41 39 37
-110.654 -1206.26 -1669 42 40 36
-106.985 -1208.31 -1672 42 40 36
-103.179 -1208.92 -1673 42 40 36
-99.4892 -1210.98 -1676 39 37 33
-95.9001 -1214.48 -1681 35 33 29
-92.3438 -1218.72 -1687 35 33 29
-88.3936 -1217.89 -1686 39 37 33
-84.2485 -1214.19 -1681 40 38 34
-80.4621 -1215.54 -1683 41 38 35
-56.8526 -1208.6 -1674 60 56 55
-52.9602 -1207.81 -1673 63 60 57
-49.0435 -1206.31 -1671 67 64 61
-45.1094 -1204.1 -1668 67 63 60
-41.2639 -1204.05 -1668 68 62 59
-37.3291 -1201.12 -1664 71 65 62
-33.5137 -1201.8 -1665 71 65 62
-29.5516 -1196.72 -1658 68 62 61
-345.901 -1197.98 -1629 60 57 54
-337.438 -1195.01 -1626 64 61 55
-334.761 -1199.04 -1632 64 61 55
-330.031 -1195.73 -1628 65 62 56
-325.124 -1191.69 -1623 66 63 57
-323.214 -1198.67 -1633 64 61 55
-319.499 -1199.05 -1634 61 57 54
-316.17 -1200.89 -1637 56 52 51
-312.638 -1202.01 -1639 52 48 49
-309.666 -1205.33 -1644 47 43 42
-302.21 -1191.06 -1625 42 38 39
-297.418 -1187.06 -1620 37 32 32
-292.471 -1182.33 -1614 35 29 29
-289.882 -1187.13 -1621 32 28 27
-285.85 -1186.08 -1620 29 27 25
-283.567 -1192.35 -1629 24 21 20
-280.558 -1195.7 -1634 24 21 20
-276.85 -1196.12 -1635 27 24 23
-271.806 -1190.69 -1628 28 26 24
-266.632 -1184.54 -1620 31 30 28
-262.311 -1182.06 -1617 35 34 32
-257.367 -1176.65 -1610 37 35 34
-252.302 -1170.52 -1602 36 32 32
-247.897 -1167.32 -1598 36 33 33
-244.737 -1169.97 -1602 34 34 30
-240.206 -1166.05 -1597 33 33 30
-236.738 -1167.25 -1599 35 35 32
-232.972 -1166.99 -1599 38 38 35
-229.064 -1166 -1598 39 39 35
-224.882 -1163.56 -1595 39 39 37
-221.133 -1163.31 -1595 42 42 40
-217.113 -1161.61 -1593 44 44 41
-212.837 -1158.46 -1589 43 43 39
-209.372 -1159.68 -1591 43 43 39
-205.511 -1158.72 -1590 41 42 38
-202.039 -1159.95 -1592 39 42 37
-198.434 -1160.46 -1593 37 37 33
-195.194 -1163.16 -1597 32 33 31
-191.937 -1165.86 -1601 32 33 31
-188.193 -1165.65 -1601 30 31 29
-185.834 -1174.18 -1613 25 25 23
-182.179 -1174.7 -1614 19 19 17
-180.289 -1186.87 -1631 17 16 14
-177.565 -1193.95 -1641 18 16 14
-125.569 -1205.43 -1660 0 0 0
-122.086 -1208.92 -1665 41 37 36
-118.51 -1211.69 -1669 38 36 34
-114.642 -1211.56 -1669 40 38 36
-110.51 -1208.54 -1665 41 39 36
-106.782 -1209.87 -1667 44 42 38
-103.107 -1211.93 -1670 45 43 39
-99.2416 -1211.82 -1670 42 40 36
-95.7197 -1216.07 -1676 36 34 30
-92.2256 -1221.04 -1683 36 34 30
-88.123 -1218.04 -1679 39 37 33
-84.1901 -1217.22 -1678 40 38 34
-80.4066 -1218.58 -1680 41 39 35
-48.9207 -1207.14 -1665 64 62 60
-45.1045 -1207.81 -1666 66 62 59
-41.2099 -1206.32 -1664 68 63 61
-37.3923 -1207 -1665 70 65 63
-33.5301 -1206.23 -1664 71 66 64
-347.566 -1207.58 -1635 61 58 54
-342.154 -1202.02 -1628 62 58 55
-338.025 -1200.9 -1627 62 59 53
-334.11 -1200.52 -1627 63 58 53
-329.59 -1197.93 -1624 65 60 55
-323.885 -1190.93 -1615 67 62 56
-321.397 -1195.72 -1622 64 59 54
-318.096 -1197.58 -1625 57 53 50
-315.944 -1203.85 -1634 51 47 45
-312.607 -1205.71 -1637 47 43 43
-309.447 -1208.31 -1641 45 41 40
-303.293 -1199.13 -1629 43 39 40
-298.669 -1195.85 -1625 39 35 36
-293.706 -1191.1 -1619 39 34 35
-289.669 -1190.04 -1618 37 33 32
-285.64 -1188.98 -1617 35 32 31
-283.187 -1194.54 -1625 30 27 26
-279.84 -1196.43 -1628 29 27 25
-275.634 -1194.65 -1626 29 26 25
-271.775 -1194.34 -1626 26 23 22
-266.106 -1185.97 -1615 23 21 19
-261.629 -1182.73 -1611 26 25 23
-257.014 -1178.77 -1606 30 28 26
-252.267 -1174.09 -1600 33 30 29
-247.863 -1170.87 -1596 36 33 32
-245.468 -1177.2 -1605 35 33 31
-240.774 -1172.53 -1599 34 33 31
-237.446 -1174.46 -1602 35 34 32
-234.106 -1176.4 -1605 37 36 33
-230.611 -1177.6 -1607 38 37 33
-226.12 -1173.69 -1602 38 37 33
-222.35 -1173.44 -1602 41 40 36
-218.309 -1171.73 -1600 40 39 35
-214.012 -1168.56 -1596 43 42 38
-209.867 -1166.13 -1593 44 44 41
-205.869 -1164.43 -1591 41 42 39
-202.39 -1165.67 -1593 40 41 38
-198.903 -1166.91 -1595 38 36 34
-195.655 -1169.61 -1599 32 32 29
-192.87 -1175.25 -1607 29 30 27
-189.46 -1177.23 -1610 23 24 22
-187.077 -1185.8 -1622 19 19 17
-183.171 -1184.86 -1621 16 15 13
-180.71 -1193.43 -1633 17 16 14
-177.437 -1196.88 -1638 20 19 17
-174.778 -1204.73 -1649 24 21 21
-170.203 -1199.42 -1642 23 20 19
-166.778 -1202.16 -1646 24 21 20
-162.544 -1199.05 -1642 27 24 23
-158.717 -1198.88 -1642 29 27 24
-155.552 -1203.81 -1649 0 0 0
-122.147 -1213.37 -1664 0 0 0
-118.712 -1217.62 -1670 39 37 33
-114.631 -1215.3 -1667 39 37 33
-110.366 -1210.8 -1661 40 38 34
-106.579 -1211.41 -1662 42 40 36
-91.9431 -1221.18 -1676 34 32 28
-87.9572 -1219.62 -1674 40 38 35
-83.9814 -1218.07 -1672 43 43 41
-79.9679 -1215.79 -1669 43 43 40
-75.9235 -1212.79 -1665 46 44 40
-52.4734 -1204.36 -1654 62 58 56
-48.7097 -1205.76 -1656 64 62 60
-44.9101 -1206.43 -1657 67 63 60
-41.0072 -1204.2 -1654 66 64 62
-37.0061 -1198.34 -1646 67 64 63
-33.1635 -1196.84 -1644 71 67 66
-29.1161 -1186.62 -1630 70 66 63
-25.3358 -1185.86 -1629 67 63 60
-17.932 -1193.82 -1640 63 59 56
-14.1621 -1195.26 -1642 0 0 0
-345.406 -1203.88 -1623 63 58 55
-336.535 -1199.4 -1618 64 58 53
-332.637 -1199.02 -1618 63 59 54
-329.15 -1200.13 -1620 65 61 55
-323.247 -1192.35 -1610 66 62 56
-320.966 -1197.91 -1618 64 58 53
-315.907 -1193.11 -1612 59 54 51
-313.784 -1199.41 -1621 54 50 48
-310.282 -1200.54 -1623 49 45 44
-307.152 -1203.15 -1627 49 45 44
-301.956 -1197.63 -1620 47 43 42
-299.005 -1200.99 -1625 41 37 37
-293.309 -1193.26 -1615 38 34 34
-289.994 -1195.15 -1618 39 35 34
-286.137 -1194.83 -1618 42 38 37
-283.156 -1198.2 -1623 39 36 34
-278.949 -1196.41 -1621 32 30 27
-275.264 -1196.83 -1622 31 27 26
-270.908 -1194.31 -1619 28 25 24
-264.919 -1184.42 -1606 24 22 20
-260.621 -1181.92 -1603 23 23 21
-256.501 -1180.15 -1601 22 19 18
-252.076 -1176.92 -1597 21 18 17
-248.14 -1175.9 -1596 23 20 19
-245.896 -1182.99 -1606 28 26 24
-241.496 -1179.77 -1602 30 30 28
-237.711 -1179.5 -1602 31 30 28
-234.659 -1182.92 -1607 30 29 26
-231.586 -1186.34 -1612 31 30 27
-226.938 -1181.67 -1606 35 33 29
-223.293 -1182.15 -1607 35 33 29
-219.918 -1184.11 -1610 37 35 31
-215.727 -1181.66 -1607 37 35 31
-211.156 -1177.01 -1601 39 39 36
-207.134 -1175.31 -1599 41 41 39
-203.251 -1174.34 -1598 39 39 37
-199.874 -1176.32 -1601 35 33 31
-196.73 -1179.77 -1606 29 28 24
-193.445 -1182.49 -1610 25 24 21
-190.26 -1185.95 -1615 18 18 16
-188.44 -1198.22 -1632 19 19 17
-184.167 -1195.08 -1628 18 17 15
-180.468 -1195.61 -1629 19 18 16
-177.309 -1199.81 -1635 0 0 0
-118.416 -1218.44 -1664 0 0 0
-114.345 -1216.11 -1661 34 32 28
-110.155 -1212.33 -1656 35 33 29
-106.055 -1209.28 -1652 39 37 33
-101.912 -1205.5 -1647 43 41 37
-91.2209 -1215.43 -1661 36 34 30
-87.4232 -1216.06 -1662 40 38 34
-83.5714 -1215.97 -1662 45 43 41
-79.3367 -1210.02 -1654 44 42 39
-52.5313 -1209.51 -1654 63 59 57
-40.9779 -1207.16 -1651 66 64 62
-37.0243 -1202.73 -1645 69 66 64
-33.1596 -1200.5 -1642 70 66 65
-29.1481 -1191.69 -1630 68 64 61
-25.4104 -1193.13 -1632 66 62 59
-17.9736 -1200.39 -1642 63 59 56
-353.218 -1208.36 -1621 59 57 53
-346.707 -1199.02 -1609 62 59 55
-345.372 -1207.57 -1621 65 61 58
-340.823 -1204.94 -1618 65 59 54
-336.293 -1202.32 -1615 64 58 53
-331.78 -1199.71 -1612 65 61 55
-329.116 -1203.8 -1618 65 62 56
-323.211 -1195.99 -1608 65 62 56
-319.94 -1197.85 -1611 65 59 54
-315.088 -1193.78 -1606 64 59 54
-312.395 -1197.88 -1612 61 57 52
-308.911 -1199.01 -1614 54 50 49
-305.232 -1199.41 -1615 52 48 47
-300.618 -1196.09 -1611 47 43 42
-298.054 -1200.95 -1618 40 36 35
-293.095 -1196.16 -1612 40 36 35
-288.348 -1192.12 -1607 42 38 37
-284.69 -1192.54 -1608 44 40 39
-281.729 -1195.93 -1613 46 42 41
-277.713 -1194.87 -1612 42 38 35
-273.026 -1190.85 -1607 39 35 33
-270.376 -1195.73 -1614 33 30 28
-264.557 -1186.54 -1602 28 26 24
-260.264 -1184.03 -1599 27 26 24
-256.308 -1182.99 -1598 29 25 24
-252.676 -1183.45 -1599 26 22 21
-248.73 -1182.42 -1598 22 18 17
-245.865 -1186.58 -1604 20 18 16
-241.465 -1183.35 -1600 17 17 15
-237.384 -1181.6 -1598 17 17 16
-234.192 -1184.29 -1602 20 20 21
-230.264 -1183.29 -1601 23 23 22
-226.202 -1181.56 -1599 24 22 21
-222.152 -1179.83 -1597 25 23 21
-219.071 -1183.27 -1602 28 26 23
-215.566 -1184.51 -1604 31 29 25
-211.393 -1182.05 -1601 36 35 32
-207.366 -1180.34 -1599 40 38 36
-203.988 -1182.33 -1602 39 38 36
-200.473 -1183.57 -1604 33 31 29
-196.092 -1179.66 -1599 26 24 21
-192.458 -1180.18 -1600 23 21 19
-189.058 -1182.18 -1603 20 20 18
-186.223 -1187.87 -1611 22 22 20
-182.447 -1187.66 -1611 20 20 18
-179.117 -1190.41 -1615 20 20 18
-114.196 -1218.37 -1657 34 32 28
-110.012 -1214.57 -1652 35 33 29
-105.787 -1210.04 -1646 39 37 33
-101.529 -1204.78 -1639 42 40 36
-97.9017 -1206.87 -1642 45 43 39
-94.3184 -1209.71 -1646 44 42 38
-90.8825 -1214.75 -1653 41 39 35
-83.2615 -1215.29 -1654 44 42 38
-79.3288 -1213.73 -1652 45 44 40
-52.6213 -1215.42 -1655 61 58 55
-48.8174 -1216.1 -1656 62 60 58
-44.9279 -1214.58 -1654 64 60 59
-40.9984 -1211.59 -1650 66 64 62
-37.1105 -1209.34 -1647 69 66 64
-33.1559 -1204.17 -1640 68 64 63
-29.2161 -1198.26 -1632 67 63 60
-18.0263 -1207.72 -1645 62 58 55
-14.2365 -1209.17 -1647 0 0 0
-351.441 -1206.07 -1611 60 58 54
-343.421 -1204.53 -1610 63 59 56
-338.049 -1198.9 -1603 65 61 58
-333.758 -1197.02 -1601 64 60 57
-328.038 -1189.91 -1592 65 61 57
-326.03 -1196.27 -1601 64 61 55
-319.958 -1187.68 -1590 67 62 57
-317.72 -1193.29 -1598 71 65 60
-312.893 -1189.2 -1593 68 63 58
-311.004 -1196.3 -1603 65 62 56
-307.346 -1196.7 -1604 58 54 53
-304.822 -1201.57 -1611 53 49 48
-300.773 -1200.48 -1610 50 46 45
-297.655 -1203.12 -1614 44 40 39
-292.7 -1198.31 -1608 44 40 39
-288.136 -1195 -1604 45 41 39
-283.772 -1192.44 -1601 47 43 40
-280.474 -1194.36 -1604 47 43 40
-276.993 -1195.53 -1606 47 43 40
-272.655 -1192.98 -1603 50 45 42
-268.837 -1192.68 -1603 45 41 38
-263.369 -1184.94 -1593 37 35 31
-259.092 -1182.41 -1590 27 25 21
-254.992 -1180.63 -1588 32 29 27
-251.538 -1181.83 -1590 32 28 27
-248.7 -1186 -1596 27 23 22
-245.836 -1190.18 -1602 25 23 21
-242.04 -1189.91 -1602 25 23 21
-237.801 -1187.41 -1599 22 20 19
-234.017 -1187.14 -1599 20 18 20
-230.092 -1186.14 -1598 19 17 19
-226.174 -1185.14 -1597 19 17 19
-221.985 -1182.66 -1594 17 14 17
-219.181 -1187.6 -1601 17 14 16
-215.943 -1190.32 -1605 19 17 13
-211.499 -1186.37 -1600 20 18 16
-207.6 -1185.39 -1599 24 22 20
-204.217 -1187.39 -1602 26 24 22
-200.823 -1189.38 -1605 24 22 20
-197.049 -1189.16 -1605 23 21 19
-193.638 -1191.16 -1608 24 22 20
-189.861 -1190.94 -1608 24 24 22
-186.664 -1194.43 -1613 26 25 23
-182.879 -1194.23 -1613 23 22 20
-179.207 -1194.76 -1614 24 22 20
-109.601 -1213.86 -1644 0 0 0
-105.455 -1210.04 -1639 40 38 34
-101.333 -1206.24 -1634 43 41 37
-97.4739 -1205.39 -1633 45 41 38
-93.9648 -1208.97 -1638 45 41 38
-90.5987 -1214.77 -1646 42 40 35
-52.5208 -1216.92 -1650 60 57 55
-48.7833 -1219.08 -1653 64 62 60
-44.7332 -1213.13 -1645 66 62 61
-40.87 -1211.6 -1643 68 66 64
-37.0164 -1210.08 -1641 67 64 63
-33.1523 -1207.83 -1638 67 63 62
-29.1949 -1201.16 -1629 66 62 59
-25.4512 -1202.61 -1631 65 61 58
-21.7249 -1205.53 -1635 63 59 56
-17.9367 -1205.51 -1635 62 58 55
-14.1485 -1205.49 -1635 0 0 0
-343.815 -1209.7 -1610 65 61 58
-338.86 -1205.55 -1605 65 61 58
-334.35 -1202.91 -1602 67 63 60
-328.001 -1193.52 -1590 69 65 61
-325.996 -1199.9 -1599 68 65 59
-320.324 -1192.78 -1590 67 64 58
-317.884 -1197.66 -1597 68 63 58
-313.054 -1193.55 -1592 70 64 59
-310.583 -1198.44 -1599 69 63 58
-306.163 -1195.84 -1596 65 59 56
-302.897 -1197.73 -1599 57 51 50
-298.124 -1193.65 -1594 52 46 45
-295.41 -1197.8 -1600 45 41 40
-291.029 -1195.22 -1597 45 41 40
-286.666 -1192.64 -1594 48 44 42
-283.208 -1193.81 -1596 52 48 45
-280.269 -1197.23 -1601 50 46 43
-276.273 -1196.16 -1600 51 45 42
-271.603 -1192.11 -1595 54 48 45
-268.471 -1194.8 -1599 51 46 42
-263.668 -1190.01 -1593 48 45 42
-259.876 -1189.71 -1593 29 26 22
-255.925 -1188.67 -1592 32 29 27
-252.932 -1192.11 -1597 34 30 29
-249.762 -1194.81 -1601 32 28 27
-246.269 -1196.02 -1603 31 28 27
-241.71 -1192.02 -1598 31 29 27
-237.326 -1188.76 -1594 29 27 26
-233.11 -1186.26 -1591 26 23 26
-228.623 -1182.27 -1586 24 21 24
-224.587 -1180.52 -1584 22 19 22
-221.26 -1182.5 -1587 23 20 23
-218.881 -1189.7 -1597 21 18 21
-215.514 -1191.69 -1600 20 17 13
-211.473 -1189.96 -1598 21 18 16
-208.224 -1192.7 -1602 23 20 19
-205.087 -1196.19 -1607 24 21 20
-201.551 -1197.44 -1609 25 21 20
-198.009 -1198.71 -1611 26 23 22
-194.821 -1202.2 -1616 26 24 22
-190.548 -1199.01 -1612 26 26 24
-186.759 -1198.8 -1612 29 27 25
-183.199 -1200.07 -1614 0 0 0
-104.929 -1207.79 -1629 38 36 32
-100.826 -1203.97 -1624 42 40 36
-97.1053 -1204.6 -1625 45 42 37
-93.5534 -1207.46 -1629 44 42 36
-90.2043 -1213.29 -1637 40 38 32
-86.5552 -1215.41 -1640 42 40 35
-52.2929 -1215.45 -1641 59 56 54
-48.572 -1217.61 -1644 62 60 58
-44.4294 -1208.67 -1632 64 60 59
-40.6916 -1210.11 -1634 64 64 62
-36.9224 -1210.8 -1635 65 62 61
-33.1286 -1210.77 -1635 67 63 62
-29.2275 -1206.29 -1629 67 63 60
-25.4796 -1207.74 -1631 65 61 58
-21.7492 -1210.67 -1635 64 60 57
-340.364 -1201.31 -1592 65 61 58
-335.235 -1196.39 -1586 64 60 56
-326.521 -1191.85 -1581 70 67 62
-325.555 -1202.03 -1595 70 67 62
-320.895 -1198.64 -1591 68 65 60
-318.449 -1203.55 -1598 70 67 61
-313.612 -1199.42 -1593 73 70 64
-309.773 -1199.06 -1593 74 68 63
-304.786 -1194.19 -1587 67 61 58
-300.969 -1193.84 -1587 59 53 51
-295.658 -1187.48 -1579 54 48 47
-293.346 -1193.16 -1587 49 45 42
-289.904 -1194.32 -1589 49 45 42
-286.095 -1193.99 -1589 51 47 44
-283 -1196.67 -1593 53 49 46
-279.363 -1197.1 -1594 52 48 45
-275.033 -1194.53 -1591 54 48 43
-270.721 -1191.96 -1588 54 48 43
-267.098 -1192.41 -1589 54 48 43
-262.644 -1189.1 -1585 51 47 44
-259.519 -1191.8 -1589 35 31 30
-255.413 -1190.01 -1587 37 32 30
-252.27 -1192.72 -1591 42 36 34
-248.954 -1194.68 -1594 40 36 33
-245.012 -1193.65 -1593 39 35 32
-241.077 -1192.62 -1592 37 34 31
-236.851 -1190.1 -1589 35 32 29
-232.349 -1186.09 -1584 34 31 32
-228.018 -1182.83 -1580 34 31 33
-223.849 -1180.32 -1577 31 28 28
-220.256 -1180.82 -1578 30 26 25
-217.209 -1184.31 -1583 28 24 23
-213.602 -1184.81 -1584 28 24 21
-210.389 -1187.56 -1588 27 23 21
-207.68 -1193.31 -1596 28 24 23
-204.17 -1194.57 -1598 30 26 25
-201.279 -1199.57 -1605 30 26 25
-194.318 -1202.85 -1610 31 27 26
-190.409 -1201.89 -1609 29 27 25
-186.623 -1201.67 -1609 31 28 25
-104.661 -1208.48 -1623 38 36 32
-100.691 -1206.13 -1620 42 40 36
-96.8558 -1205.27 -1619 43 41 36
-93.4289 -1209.63 -1625 46 44 38
-89.92 -1213.25 -1630 42 40 34
-55.858 -1214 -1632 54 50 47
-51.937 -1210.96 -1628 58 55 53
-48.1238 -1210.16 -1627 64 62 60
-43.9888 -1200.44 -1614 64 60 59
-40.2887 -1201.88 -1616 62 62 60
-36.6248 -1204.81 -1620 63 61 60
-33.0238 -1210.72 -1628 65 61 60
-29.2424 -1210.69 -1628 65 61 58
-25.5864 -1216.6 -1636 64 60 57
-21.787 -1216.58 -1636 64 60 57
-17.9218 -1212.09 -1630 65 61 58
-340.948 -1193.97 -1575 66 60 57
-338.832 -1199.63 -1583 65 61 58
-334.777 -1198.49 -1582 64 60 57
-325.452 -1191.66 -1574 66 62 59
-323.889 -1199.61 -1585 67 63 59
-319.045 -1195.45 -1580 68 64 60
-315.426 -1195.84 -1581 70 67 62
-312.2 -1197.75 -1584 74 71 65
-308.769 -1198.9 -1586 74 68 63
-303.793 -1194.01 -1580 68 62 59
-300.747 -1196.68 -1584 62 56 54
-295.999 -1192.56 -1579 56 50 49
-291.463 -1189.2 -1575 51 47 44
-288.229 -1191.13 -1578 52 48 45
-284.081 -1189.29 -1576 54 50 47
-280.48 -1189.72 -1577 56 52 49
-277.579 -1193.17 -1582 56 52 49
-274.484 -1195.87 -1586 53 47 42
-270.691 -1195.55 -1586 54 48 43
-267.405 -1197.5 -1589 57 50 45
-263.278 -1195.69 -1587 54 48 43
-259.654 -1196.14 -1588 39 35 32
-254.739 -1190.57 -1581 42 37 34
-251.131 -1191.04 -1582 43 37 34
-247.676 -1192.26 -1584 44 38 35
-243.753 -1191.22 -1583 44 40 37
-239.383 -1187.93 -1579 42 39 35
-235.929 -1189.16 -1581 40 38 34
-231.294 -1184.38 -1575 38 36 34
-226.978 -1181.11 -1571 38 36 33
-223.111 -1180.1 -1570 37 35 31
-220.089 -1183.61 -1575 36 32 29
-216.771 -1185.61 -1578 35 32 26
-213.711 -1189.12 -1583 33 29 26
-210.497 -1191.88 -1587 34 29 27
-207.787 -1197.65 -1595 36 30 29
-200.63 -1199.43 -1598 35 31 30
-197.475 -1202.96 -1603 35 31 30
-193.452 -1201.23 -1601 36 32 31
-189.205 -1198.01 -1597 33 31 29
-184.513 -1191.8 -1589 34 30 27
-180.999 -1193.09 -1591 0 0 0
-104.715 -1212.88 -1622 38 36 32
-100.805 -1211.27 -1620 44 42 38
-96.786 -1208.16 -1616 48 46 41
-93.1895 -1210.3 -1619 47 45 39
-89.8561 -1216.17 -1627 43 41 35
-85.7988 -1212.34 -1622 41 39 33
-55.6129 -1212.44 -1623 55 53 51
-51.7083 -1209.39 -1619 58 56 54
-47.8821 -1207.84 -1617 63 61 59
-43.793 -1198.83 -1605 66 63 62
-40.1345 -1201.02 -1608 63 62 60
-36.4399 -1202.47 -1610 62 60 58
-32.7159 -1203.18 -1611 67 63 61
-29.0236 -1205.38 -1614 67 63 60
-25.4117 -1212.08 -1623 65 61 58
-21.6248 -1211.3 -1622 64 60 56
-17.7878 -1206.8 -1616 65 61 57
-14.0311 -1206.78 -1616 0 0 0
-340.262 -1195.27 -1570 67 63 60
-337.942 -1200.2 -1577 63 59 56
-332.625 -1194.49 -1570 62 58 55
-324.174 -1190.68 -1566 65 61 58
-321.401 -1194.1 -1571 63 60 54
-317.597 -1193.73 -1571 65 61 55
-315.194 -1198.68 -1578 69 64 59
-311.379 -1198.31 -1578 70 65 60
-307.373 -1197.19 -1577 71 64 59
-302.798 -1193.8 -1573 66 60 56
-299.576 -1195.73 -1576 60 54 51
-294.841 -1191.59 -1571 53 48 46
-290.875 -1190.49 -1570 50 46 44
-287.282 -1190.91 -1571 51 47 44
-283.508 -1190.58 -1571 53 49 46
-279.558 -1189.5 -1570 54 50 47
-276.671 -1192.96 -1575 54 50 45
-273.069 -1193.4 -1576 53 47 44
-270.32 -1197.63 -1582 54 48 44
-266.197 -1195.81 -1580 54 47 42
-262.419 -1195.5 -1580 51 45 40
-258.808 -1195.96 -1581 43 39 35
-253.743 -1189.61 -1573 45 40 37
-249.354 -1186.29 -1569 45 39 36
-246.553 -1190.54 -1575 40 36 33
-242.801 -1190.26 -1575 40 36 33
-238.899 -1189.23 -1574 42 38 35
-235.454 -1190.46 -1576 43 39 36
-231.266 -1187.93 -1573 45 41 36
-227.384 -1186.91 -1572 45 42 37
-222.656 -1181.36 -1565 43 40 35
-219.922 -1186.39 -1572 42 39 33
-216.332 -1186.89 -1573 38 34 29
-213.416 -1191.17 -1579 36 32 28
-208.026 -1202.76 -1595 37 31 30
-203.741 -1199.5 -1591 38 33 31
-200.609 -1203.04 -1596 37 33 32
-197.331 -1205.83 -1600 36 32 31
-193.069 -1202.59 -1596 35 33 31
-188.947 -1200.11 -1593 36 34 32
-184.957 -1198.39 -1591 36 33 30
-181.207 -1198.18 -1591 34 31 28
-104.576 -1215.04 -1618 0 0 0
-100.795 -1214.92 -1618 44 42 37
-96.9562 -1214.06 -1617 49 47 41
-93.238 -1214.7 -1618 50 48 42
-89.9586 -1221.35 -1627 44 42 36
-85.6848 -1214.49 -1618 41 39 34
-55.1615 -1206.35 -1608 58 56 52
-47.4919 -1201.73 -1602 63 59 57
-43.4877 -1194.18 -1592 63 61 59
-39.7802 -1194.13 -1592 61 59 55
-36.1413 -1196.34 -1595 63 60 56
-32.4887 -1198.55 -1598 66 62 59
-28.8046 -1200.01 -1600 68 64 61
-25.2054 -1205.98 -1608 68 64 60
-21.4759 -1206.71 -1609 66 63 57
-17.6758 -1202.93 -1604 64 61 55
-340.227 -1198.86 -1568 65 61 58
-332.378 -1197.3 -1567 61 57 54
-323.31 -1191.19 -1560 60 56 53
-320.343 -1193.86 -1564 62 59 53
-316.956 -1195.02 -1566 64 60 54
-314.162 -1198.46 -1571 66 60 55
-310.36 -1198.1 -1571 70 64 59
-306.171 -1196.21 -1569 72 65 60
-302.187 -1195.09 -1568 67 61 57
-297.832 -1192.46 -1565 59 54 51
-294.433 -1193.63 -1567 52 48 45
-290.843 -1194.05 -1568 49 45 42
-288.532 -1199.81 -1576 50 46 43
-283.476 -1194.15 -1569 53 49 46
-280.24 -1196.1 -1572 54 50 47
-276.465 -1195.77 -1572 54 50 47
-272.172 -1193.17 -1569 56 50 46
-268.752 -1194.38 -1571 57 51 46
-265.494 -1196.35 -1574 55 49 44
-261.56 -1195.28 -1573 50 44 41
-257.961 -1195.74 -1574 47 43 40
-252.907 -1189.37 -1566 46 42 39
-248.689 -1186.8 -1563 43 39 36
-245.428 -1188.79 -1566 42 38 35
-242.619 -1193.06 -1572 43 39 36
-237.961 -1188.23 -1566 45 41 38
-234.829 -1190.99 -1570 46 42 39
-231.239 -1191.47 -1571 45 41 38
-227.358 -1190.45 -1570 46 42 39
-222.344 -1183.37 -1561 47 43 40
-220.176 -1191.45 -1572 46 42 39
-216.858 -1193.47 -1575 42 38 35
-213.121 -1193.22 -1575 37 33 30
-210.184 -1197.52 -1581 36 32 29
-207.222 -1201.82 -1587 37 33 30
-202.951 -1198.56 -1583 38 34 31
-199.582 -1200.6 -1586 38 34 31
-196.201 -1202.64 -1589 40 36 33
-191.96 -1199.39 -1585 41 37 34
-188.452 -1200.68 -1587 39 37 33
-183.657 -1193.66 -1578 37 35 32
-180.161 -1194.96 -1580 34 32 30
-100.35 -1213.3 -1609 0 0 0
-96.6471 -1213.94 -1610 49 46 41
-92.7102 -1211.57 -1607 48 46 40
-89.2866 -1215.99 -1613 45 43 37
-85.1466 -1210.61 -1606 42 40 34
-81.1415 -1206.75 -1601 43 40 35
-54.9155 -1204.69 -1599 56 52 49
-51.026 -1200.87 -1594 58 54 51
-47.2791 -1200.06 -1593 62 58 55
-43.4826 -1197.75 -1590 65 63 60
-39.7256 -1196.19 -1588 67 65 61
-35.9557 -1193.89 -1585 67 64 61
-32.3834 -1198.37 -1591 66 62 59
-28.6391 -1196.83 -1589 68 64 61
-21.3266 -1202.04 -1596 67 64 58
-338.022 -1194.77 -1556 62 58 55
-335.085 -1197.44 -1560 60 56 53
-329.584 -1190.91 -1552 60 56 53
-320.578 -1184.78 -1545 61 57 54
-316.824 -1184.4 -1545 64 61 55
-314.086 -1187.86 -1550 66 62 57
-311.528 -1192.09 -1556 68 62 57
-308.351 -1194.02 -1559 70 64 59
-304.381 -1192.9 -1558 71 64 59
-301.191 -1194.84 -1561 66 60 55
-296.275 -1189.89 -1555 59 53 50
-295.154 -1200.26 -1569 52 48 45
-292.112 -1202.97 -1573 48 44 41
-289.42 -1207.22 -1579 53 49 46
-284.893 -1203.83 -1575 57 53 50
-281.817 -1206.55 -1579 56 52 49
-276.964 -1201.64 -1573 57 53 49
-272.49 -1198.26 -1569 57 52 47
-269.58 -1201.76 -1574 59 53 48
-265.804 -1201.45 -1574 58 53 48
-261.366 -1198.09 -1570 53 47 44
-256.949 -1194.73 -1566 49 44 41
-252.07 -1189.1 -1559 48 44 41
-247.385 -1184.23 -1553 46 42 39
-243.988 -1185.47 -1555 44 40 37
-238.542 -1194.81 -1568 48 44 41
-235.102 -1196.06 -1570 49 45 42
-231.803 -1198.07 -1573 50 46 43
-228.492 -1200.09 -1576 47 43 40
-223.173 -1191.45 -1565 44 40 37
-219.871 -1193.48 -1568 42 38 35
-216.007 -1192.46 -1567 38 34 31
-211.607 -1188.41 -1562 35 31 28
-208.432 -1191.21 -1566 35 31 28
-204.978 -1192.49 -1568 39 35 32
-201.646 -1194.53 -1571 39 35 32
-198.805 -1199.62 -1578 40 36 33
-195.563 -1202.43 -1582 42 38 35
-191.333 -1199.17 -1578 46 40 37
-188.433 -1204.27 -1585 42 40 36
-182.938 -1192.66 -1570 36 34 31
-96.2776 -1213.04 -1602 0 0 0
-92.4126 -1211.42 -1600 46 44 37
-89.0013 -1215.86 -1606 46 44 38
-84.7668 -1208.94 -1597 47 44 38
-54.7722 -1205.27 -1593 57 53 50
-50.7641 -1198.4 -1584 59 55 52
-47.0956 -1199.1 -1585 61 57 54
-43.2587 -1195.27 -1580 61 59 55
-39.5208 -1193.71 -1578 63 61 57
-35.7017 -1189.12 -1572 67 64 61
-32.1351 -1192.87 -1577 68 64 61
-28.4194 -1191.32 -1575 66 62 59
-338.857 -1201.42 -1558 63 59 56
-336.342 -1205.64 -1564 62 58 55
-331.037 -1199.85 -1557 58 54 51
-325.56 -1193.3 -1549 58 54 51
-319.711 -1185.21 -1539 62 58 55
-314.734 -1180.22 -1533 64 60 55
-312.631 -1186 -1541 67 63 57
-310.693 -1192.56 -1550 68 62 57
-307.526 -1194.5 -1553 70 64 59
-304.348 -1196.45 -1556 67 61 56
-301.546 -1199.93 -1561 64 58 53
-297.387 -1198.04 -1559 57 53 48
-295.313 -1204.61 -1568 50 46 43
-292.641 -1208.87 -1574 49 45 42
-288.292 -1206.22 -1571 51 47 44
-284.142 -1204.35 -1569 53 49 46
-280.361 -1204.02 -1569 56 52 48
-276.232 -1202.16 -1567 57 54 48
-271.245 -1196.47 -1560 57 53 48
-268.696 -1201.52 -1567 57 51 46
-264.763 -1200.44 -1566 51 48 42
-260.505 -1197.83 -1563 51 45 42
-256.265 -1195.23 -1560 52 46 43
-252.85 -1196.46 -1562 50 46 43
-248.473 -1193.1 -1558 50 46 43
-244.902 -1193.58 -1559 47 43 40
-237.907 -1195.31 -1562 47 43 40
-234.028 -1194.27 -1561 47 43 40
-230.746 -1196.29 -1564 51 47 44
-227.452 -1198.31 -1567 48 44 41
-222.862 -1193.46 -1561 42 38 35
-220.268 -1199.32 -1569 39 35 32
-216.535 -1199.06 -1569 36 32 29
-211.854 -1193.46 -1562 33 29 26
-208.142 -1193.22 -1562 36 32 29
-204.17 -1191.45 -1560 38 34 31
-201.11 -1195.03 -1565 39 35 32
-197.649 -1196.33 -1567 38 34 31
-194.429 -1199.15 -1571 39 35 32
-190.585 -1198.16 -1570 42 37 34
-187.7 -1203.28 -1577 38 36 32
-182.101 -1190.86 -1561 34 32 28
-91.999 -1209.72 -1591 0 0 0
-88.4939 -1212.65 -1595 49 47 40
-84.6522 -1211.03 -1593 47 44 38
-80.7192 -1207.9 -1589 45 42 36
-35.8565 -1197.97 -1577 63 60 57
-32.1926 -1198.69 -1578 64 60 57
-28.3979 -1194.1 -1572 64 61 56
-336.096 -1208.46 -1561 62 58 55
-324.053 -1191.42 -1540 60 56 53
-318.634 -1184.85 -1532 62 58 55
-313.258 -1178.29 -1524 67 62 58
-311.377 -1184.88 -1533 71 65 60
-310.459 -1195.33 -1547 70 64 59
-306.899 -1195.73 -1548 67 61 56
-304.122 -1199.23 -1553 68 62 57
-301.516 -1203.5 -1559 65 60 55
-296.402 -1197.75 -1552 57 54 48
-294.343 -1204.34 -1561 52 48 43
-291.871 -1209.39 -1568 50 47 42
-288.082 -1209.05 -1568 50 46 41
-283.933 -1207.17 -1566 50 47 42
-280.692 -1209.15 -1569 53 50 44
-275.852 -1204.19 -1563 55 52 46
-270.173 -1195.4 -1552 53 50 44
-266.266 -1194.31 -1551 55 49 44
-261.69 -1190.15 -1546 49 46 40
-257.976 -1189.84 -1546 46 42 38
-254.099 -1188.77 -1545 48 44 41
-251.365 -1193.09 -1551 50 46 43
-248.126 -1195.1 -1554 49 45 42
-244.718 -1196.35 -1556 47 43 40
-241.923 -1200.67 -1562 44 40 37
-237.881 -1198.85 -1560 43 39 36
-233.852 -1197.04 -1558 45 41 38
-229.983 -1196 -1557 45 41 38
-226.557 -1197.27 -1559 41 37 34
-221.837 -1191.63 -1552 36 32 29
-219.121 -1196.74 -1559 32 28 25
-215.683 -1198.02 -1561 31 27 24
-211.288 -1193.93 -1556 30 26 23
-208.119 -1196.76 -1560 33 29 26
-204.409 -1196.51 -1560 37 33 30
-201.345 -1200.11 -1565 37 33 30
-197.375 -1198.34 -1563 38 34 31
-194.78 -1205.01 -1572 38 34 31
-190.565 -1201.72 -1568 39 37 33
-187.681 -1206.86 -1575 39 37 33
-182.664 -1198.22 -1564 0 0 0
-88.1524 -1211.69 -1587 50 48 41
-84.2185 -1208.53 -1583 47 44 38
-80.1518 -1203.09 -1576 47 44 38
-75.8761 -1193.84 -1564 50 47 41
-72.3963 -1196.81 -1568 51 48 42
-39.1603 -1190.12 -1560 58 54 51
-35.5339 -1190.84 -1561 61 58 53
-32.046 -1196.9 -1569 64 61 55
-28.2861 -1193.05 -1564 0 0 0
-319.223 -1190.68 -1533 65 61 58
-313.838 -1184.09 -1525 68 64 60
-311.952 -1190.7 -1534 74 68 63
-309.423 -1194.99 -1540 74 68 63
-305.677 -1194.62 -1540 70 64 59
-303.7 -1201.24 -1549 69 63 58
-300.907 -1204.75 -1554 66 60 55
-296.181 -1200.52 -1549 58 55 49
-293.56 -1204.82 -1555 53 50 44
-290.913 -1209.12 -1561 52 49 43
-286.033 -1204.13 -1555 53 50 44
-281.911 -1202.24 -1553 52 49 43
-278.518 -1203.46 -1555 51 48 42
-274.412 -1201.58 -1553 53 50 44
-269.447 -1195.84 -1546 52 49 43
-265.55 -1194.75 -1545 54 48 43
-261.661 -1193.66 -1544 47 44 38
-257.613 -1191.81 -1542 45 41 36
-253.577 -1189.96 -1540 46 43 38
-249.553 -1188.12 -1538 48 44 41
-247.301 -1194.77 -1547 45 41 38
-243.748 -1195.26 -1548 43 39 36
-240.658 -1198.06 -1552 42 38 35
-237.246 -1199.32 -1554 41 37 34
-233.978 -1201.35 -1557 41 37 34
-230.106 -1200.31 -1556 41 37 34
-226.533 -1200.81 -1557 39 35 32
-222.385 -1198.23 -1554 34 30 27
-218.817 -1198.74 -1555 30 26 23
-215.107 -1198.48 -1555 28 24 21
-210.177 -1191.3 -1546 30 26 23
-206.628 -1191.82 -1547 33 29 26
-203.076 -1192.35 -1548 35 31 28
-199.779 -1194.42 -1551 38 34 31
-196.217 -1194.96 -1552 40 36 33
-194.265 -1205.51 -1566 39 35 32
-190.302 -1203.74 -1564 40 37 33
-187.544 -1209.68 -1572 0 0 0
-87.7548 -1209.92 -1578 51 49 42
-83.9974 -1209.05 -1577 51 48 41
-79.889 -1202.82 -1569 51 48 42
-75.7704 -1195.83 -1560 53 50 44
-72.3883 -1200.35 -1566 51 48 42
-68.2768 -1192.6 -1556 51 47 44
-39.2059 -1195.16 -1560 60 56 53
-35.5068 -1193.59 -1558 62 59 54
-32.0425 -1200.44 -1567 0 0 0
-317.313 -1187.17 -1522 70 65 62
-312.566 -1182.89 -1517 70 64 61
-310.901 -1190.32 -1527 71 65 60
-307.178 -1189.94 -1527 73 67 62
-303.658 -1190.36 -1528 72 66 61
-302.296 -1199.34 -1540 67 61 56
-299.716 -1203.65 -1546 65 59 54
-295.196 -1200.18 -1542 57 55 49
-291.643 -1200.61 -1543 52 49 43
-289.022 -1204.93 -1549 52 49 43
-283.98 -1199.14 -1542 52 49 43
-280.066 -1198.03 -1541 53 50 44
-277.774 -1203.91 -1549 54 51 45
-274.562 -1205.91 -1552 52 49 42
-265.523 -1198.28 -1543 54 48 43
-261.803 -1197.96 -1543 46 43 37
-257.25 -1193.77 -1538 45 42 36
-253.219 -1191.91 -1536 47 44 38
-249.85 -1193.17 -1538 46 42 39
-247.435 -1199.07 -1546 46 42 39
-243.565 -1198.01 -1545 45 41 38
-239.547 -1196.17 -1543 39 35 32
-236.611 -1199.76 -1548 37 33 30
-233.504 -1202.58 -1552 39 35 32
-229.787 -1202.31 -1552 39 35 32
-226.365 -1203.58 -1554 37 33 30
-222.649 -1203.32 -1554 34 30 27
-218.371 -1199.96 -1550 32 28 25
-214.254 -1197.38 -1547 31 27 24
-209.473 -1190.94 -1539 31 27 24
-206.07 -1192.24 -1541 35 32 27
-202.265 -1191.22 -1540 39 36 30
-199.37 -1195.62 -1546 42 39 33
-196.196 -1198.48 -1550 41 38 32
-193.75 -1205.98 -1560 40 37 31
-190.04 -1205.76 -1560 0 0 0
-87.3568 -1208.11 -1569 54 52 45
-83.6693 -1208.01 -1569 52 50 43
-79.6768 -1203.3 -1563 50 47 41
-75.8107 -1200.13 -1559 51 48 42
-72.0567 -1198.5 -1557 51 48 42
-68.269 -1196.11 -1554 49 45 42
-42.8275 -1197.96 -1557 60 56 51
-39.126 -1196.37 -1555 63 59 55
-316.443 -1187.52 -1516 66 62 59
-312.324 -1185.58 -1514 65 60 57
-309.237 -1187.55 -1517 68 63 59
-304.93 -1184.83 -1514 69 63 58
-300.244 -1180.56 -1509 69 63 58
-297.943 -1185.67 -1516 68 61 56
-294.448 -1186.09 -1517 63 58 53
-291.717 -1189.65 -1522 53 52 47
-288.398 -1190.86 -1524 51 49 43
-286.566 -1198.33 -1534 51 48 42
-281.74 -1193.3 -1528 50 47 41
-277.673 -1191.41 -1526 54 51 45
-275.055 -1195.76 -1532 54 51 45
-272.057 -1198.55 -1536 53 50 43
-267.296 -1193.55 -1530 52 49 43
-263.945 -1194.79 -1532 53 47 42
-260.588 -1196.03 -1534 49 45 39
-256.219 -1192.6 -1530 47 44 39
-252.532 -1192.3 -1530 48 45 39
-248.36 -1189.66 -1527 45 41 39
-246.288 -1197.15 -1537 44 40 37
-242.908 -1198.42 -1539 43 39 36
-238.9 -1196.57 -1537 39 35 32
-235.363 -1197.07 -1538 38 34 31
-232.878 -1203.01 -1546 43 39 36
-228.727 -1200.4 -1543 48 44 41
-225.468 -1202.47 -1546 43 39 36
-221.48 -1200.64 -1544 41 37 34
-217.221 -1197.27 -1540 39 35 32
-213.4 -1196.24 -1539 39 35 31
-209.314 -1193.65 -1536 40 36 33
-205.78 -1194.18 -1537 42 39 33
-202.769 -1197.82 -1542 44 41 35
-199.866 -1202.24 -1548 42 39 33
-196.556 -1204.34 -1551 40 37 31
-193.856 -1210.32 -1559 40 37 31
-90.804 -1208.69 -1563 0 0 0
-87.0696 -1207.81 -1562 56 54 47
-83.4476 -1208.48 -1563 54 51 45
-79.5156 -1204.52 -1558 51 48 42
-75.8514 -1204.43 -1558 50 47 41
-72.1416 -1203.57 -1557 48 45 39
-68.3055 -1200.39 -1553 48 44 41
-64.3222 -1194.13 -1545 50 46 43
-42.933 -1204.57 -1559 60 56 53
-39.1973 -1202.2 -1556 0 0 0
-321.48 -1183.12 -1503 65 59 56
-314.737 -1184.71 -1506 62 58 55
-312.082 -1188.26 -1511 67 63 60
-308.999 -1190.24 -1514 69 65 62
-303.888 -1184.37 -1507 69 63 59
-300.009 -1183.22 -1506 69 63 57
-297.123 -1186 -1510 68 61 55
-294.026 -1187.99 -1513 61 58 52
-290.342 -1187.64 -1513 53 51 49
-287.799 -1192 -1519 51 49 46
-285.042 -1195.58 -1524 52 49 43
-280.787 -1192.88 -1521 51 48 42
-276.732 -1190.98 -1519 55 52 46
-274.847 -1198.48 -1529 54 51 45
-272.562 -1204.42 -1537 52 49 43
-268.143 -1200.96 -1533 52 49 43
-264.263 -1199.86 -1532 55 49 44
-261.241 -1202.67 -1536 49 45 39
-257.03 -1200.01 -1533 46 44 38
-252.505 -1195.79 -1528 48 44 41
-247.681 -1190.01 -1521 46 42 41
-245.461 -1196.76 -1530 48 44 41
-242.094 -1198.03 -1532 48 44 41
-238.564 -1198.52 -1533 44 40 37
-235.952 -1203.71 -1540 43 39 36
-233.308 -1208.9 -1547 48 44 41
-228.853 -1204.71 -1542 50 46 44
-225.738 -1207.56 -1546 51 47 46
-221.601 -1204.95 -1543 49 45 38
-216.916 -1199.22 -1536 47 42 36
-213.655 -1201.31 -1539 46 40 34
-209.973 -1201.05 -1539 48 42 37
-206.562 -1202.36 -1541 50 44 39
-203.406 -1205.24 -1545 49 43 38
-200.621 -1210.46 -1552 44 40 34
-197.298 -1212.56 -1555 41 39 32
-194.087 -1215.44 -1559 42 39 33
-94.2931 -1210.02 -1558 0 0 0
-90.7954 -1212.24 -1561 60 57 50
-87.0055 -1210.59 -1559 60 57 50
-83.0655 -1206.6 -1554 54 51 45
-79.3032 -1204.95 -1552 48 45 39
-75.7462 -1206.41 -1554 49 46 40
-72.1344 -1207.1 -1555 49 46 40
-68.4304 -1206.24 -1554 51 47 43
-64.5652 -1202.28 -1549 53 49 46
-42.7356 -1202.68 -1550 0 0 0
-332.97 -1189.35 -1503 0 0 0
-319.303 -1178.66 -1491 62 56 53
-306.923 -1185.82 -1502 69 65 62
-303.45 -1186.24 -1503 69 64 60
-300.773 -1189.82 -1508 70 63 58
-296.893 -1188.67 -1507 69 62 56
-294.383 -1193.04 -1513 62 59 53
-291.463 -1195.83 -1517 55 53 50
-287.579 -1194.69 -1516 52 50 47
-285.013 -1199.07 -1522 52 49 43
-280.943 -1197.15 -1520 51 48 42
-275.973 -1191.3 -1513 55 52 46
-274.28 -1199.63 -1524 56 53 47
-272.182 -1206.38 -1533 53 50 44
-267.241 -1200.55 -1526 50 47 41
-264.41 -1204.16 -1531 49 43 38
-262.068 -1210.13 -1539 46 42 37
-257.004 -1203.53 -1531 44 42 36
-252.479 -1199.29 -1526 47 43 40
-247.817 -1194.27 -1520 51 47 44
-244.311 -1194.76 -1521 49 45 42
-240.962 -1196.04 -1523 44 40 37
-238.384 -1201.24 -1530 43 39 36
-235.623 -1205.67 -1536 49 45 42
-233.438 -1213.23 -1546 52 48 45
-229.723 -1212.95 -1546 52 48 45
-226.302 -1214.25 -1548 57 51 50
-222.155 -1211.62 -1545 56 50 44
-217.46 -1205.87 -1538 54 48 42
-213.218 -1202.47 -1534 54 48 42
-209.406 -1201.43 -1533 53 47 42
-205.468 -1199.62 -1531 54 48 43
-202.201 -1201.72 -1534 51 45 40
-199.439 -1206.96 -1541 46 41 35
-197.281 -1216.12 -1553 43 40 34
-193.697 -1216.67 -1554 0 0 0
-101.435 -1211.47 -1553 0 0 0
-97.8943 -1212.91 -1555 0 0 0
-93.9814 -1209.68 -1551 0 0 0
-90.2048 -1208.01 -1549 0 0 0
-86.4944 -1207.12 -1548 62 59 53
-82.9504 -1208.58 -1550 56 53 47
-79.4489 -1210.82 -1553 50 47 41
-75.8852 -1212.29 -1555 50 47 41
-72.3131 -1213.76 -1557 50 47 41
-68.5559 -1212.12 -1555 52 49 43
-64.475 -1204.24 -1545 54 51 45
-60.9932 -1207.28 -1549 54 50 47
-57.2711 -1205.66 -1547 54 50 47
-53.2817 -1197.8 -1537 55 53 49
-49.954 -1204.75 -1546 54 52 48
-46.4945 -1209.37 -1552 0 0 0
-332.713 -1192.02 -1500 56 53 47
-327.477 -1186.05 -1493 59 56 50
-322.931 -1182.48 -1489 62 58 55
-319.265 -1182.08 -1489 60 56 53
-314.755 -1178.52 -1485 56 52 49
-312.364 -1182.89 -1491 57 53 50
-309.946 -1187.27 -1497 61 58 52
-306.071 -1186.1 -1496 65 61 58
-302.608 -1186.52 -1497 69 64 60
-300.541 -1192.49 -1505 69 63 58
-296.664 -1191.33 -1504 69 62 57
-293.963 -1194.93 -1509 62 59 53
-291.242 -1198.53 -1514 56 54 50
-288.119 -1200.55 -1517 52 50 48
-284.985 -1202.58 -1520 53 50 44
-281.655 -1203.81 -1522 52 49 43
-277.04 -1199.52 -1517 55 52 46
-274.434 -1203.93 -1523 57 54 48
-271.447 -1206.75 -1527 53 50 44
-266.163 -1199.31 -1518 49 46 40
-263.348 -1202.94 -1523 45 40 35
-260.681 -1207.36 -1529 47 42 37
-256.308 -1203.89 -1525 45 42 36
-252.123 -1201.21 -1522 46 42 39
-247.955 -1198.54 -1519 49 45 42
-244.286 -1198.24 -1519 49 45 42
-240.937 -1199.52 -1521 43 39 36
-238.673 -1206.33 -1530 45 41 38
-235.294 -1207.62 -1532 51 47 44
-232.814 -1213.64 -1540 51 47 44
-228.811 -1211.78 -1538 51 47 44
-224.966 -1210.72 -1537 53 48 47
-221.128 -1209.66 -1536 54 50 43
-217.157 -1207.82 -1534 55 49 43
-213.475 -1207.56 -1534 55 49 43
-210.206 -1209.66 -1537 53 47 42
-206.522 -1209.41 -1537 51 45 40
-202.973 -1209.95 -1538 49 43 38
-200.198 -1215.21 -1545 45 39 35
-197.137 -1218.91 -1550 44 41 35
-193.306 -1217.88 -1549 0 0 0
-101.361 -1214.23 -1550 0 0 0
-97.8855 -1216.46 -1553 0 0 0
-93.6693 -1209.3 -1544 0 0 0
-89.6715 -1204.49 -1538 0 0 0
-85.7588 -1200.47 -1533 0 0 0
-82.2995 -1202.72 -1536 59 56 50
-78.9805 -1207.32 -1542 53 50 44
-75.6829 -1212.71 -1549 50 47 42
-72.1671 -1214.97 -1552 0 0 0
-64.6357 -1210.89 -1547 53 50 44
-61.0268 -1211.6 -1548 56 52 48
-57.3026 -1209.96 -1546 55 51 48
-53.5884 -1208.33 -1544 0 0 0
-50.0137 -1209.83 -1546 0 0 0
-334.9 -1203.47 -1508 54 52 47
-329.638 -1197.47 -1501 57 54 48
-323.98 -1189.89 -1492 62 58 54
-319.873 -1187.9 -1490 60 56 53
-316.204 -1187.5 -1490 58 54 51
-313.377 -1190.3 -1494 58 54 51
-310.949 -1194.7 -1500 61 58 52
-307.471 -1195.11 -1501 63 58 53
-304.194 -1196.33 -1503 66 60 55
-300.71 -1196.75 -1504 69 63 58
-295.843 -1191.61 -1498 70 63 58
-293.154 -1195.23 -1503 61 58 52
-290.443 -1198.84 -1508 53 51 47
-287.141 -1200.08 -1510 49 47 45
-284.396 -1203.7 -1515 51 47 43
-281.074 -1204.94 -1517 50 47 41
-276.099 -1199.04 -1510 53 50 44
-272.244 -1197.91 -1509 55 52 46
-269.109 -1199.96 -1512 53 50 44
-263.856 -1192.49 -1503 50 47 41
-261.938 -1200.1 -1513 48 43 38
-259.634 -1206.13 -1521 49 44 38
-256.116 -1206.61 -1522 49 46 40
-251.933 -1203.92 -1519 47 42 39
-247.276 -1198.86 -1513 50 45 42
-243.457 -1197.77 -1512 48 44 41
-239.962 -1198.26 -1513 43 39 36
-237.402 -1203.51 -1520 45 41 38
-234.35 -1206.39 -1524 48 44 41
-232.189 -1214.02 -1534 48 44 41
-228.046 -1211.37 -1531 50 46 43
-224.067 -1209.51 -1529 51 47 44
-219.956 -1206.87 -1526 52 49 43
-216.003 -1205.02 -1524 55 51 45
-212.898 -1207.92 -1528 56 50 44
-209.366 -1208.46 -1529 54 48 43
-205.697 -1208.2 -1529 52 46 41
-201.898 -1207.17 -1528 50 44 40
-198.624 -1209.29 -1531 47 41 38
-195.212 -1210.63 -1533 46 43 37
-191.916 -1212.77 -1536 0 0 0
-101.221 -1216.21 -1546 0 0 0
-97.2462 -1212.15 -1541 0 0 0
-85.47 -1200.03 -1526 0 0 0
-82.0767 -1203.07 -1530 0 0 0
-78.614 -1205.33 -1533 0 0 0
-75.0402 -1206.03 -1534 0 0 0
-64.1277 -1204.99 -1533 0 0 0
-60.6659 -1208.06 -1537 55 52 46
-56.9632 -1206.42 -1535 0 0 0
-319.195 -1188.93 -1485 62 59 54
-315.533 -1188.54 -1485 60 56 53
-313.135 -1192.95 -1491 56 52 49
-310.088 -1194.97 -1494 59 55 50
-306.415 -1194.58 -1494 62 56 51
-303.354 -1196.6 -1497 64 58 53
-301.682 -1204.22 -1507 66 60 55
-297.197 -1200.66 -1503 67 60 55
-295.273 -1207.48 -1512 62 55 50
-292.73 -1211.91 -1518 55 49 45
-288.066 -1207.56 -1513 50 46 45
-284.182 -1206.4 -1512 48 44 41
-281.605 -1210.84 -1518 49 46 40
-276.988 -1206.51 -1513 52 49 43
-272.579 -1202.98 -1509 55 52 46
-269.083 -1203.45 -1510 55 52 46
-264.531 -1199.13 -1505 53 50 44
-261.22 -1200.4 -1507 49 44 39
-258.585 -1204.86 -1513 51 45 40
-255.588 -1207.73 -1517 49 46 40
-251.245 -1204.23 -1513 50 44 41
-247.252 -1202.34 -1511 49 45 42
-243.594 -1202.04 -1511 48 44 41
-239.303 -1198.56 -1507 44 40 37
-235.973 -1199.86 -1509 43 39 36
-233.713 -1206.72 -1518 47 43 40
-231.109 -1212 -1525 47 43 40
-226.536 -1206.95 -1519 48 44 41
-223.02 -1207.47 -1520 51 46 43
-219.792 -1209.59 -1523 54 49 44
-215.841 -1207.73 -1521 55 49 44
-212.6 -1209.85 -1524 53 47 42
-209.21 -1211.18 -1526 49 43 38
-205.409 -1210.13 -1525 48 43 38
-201.35 -1207.5 -1522 48 44 39
-197.957 -1208.85 -1524 48 42 39
-194.047 -1207.02 -1522 45 42 36
-190.899 -1209.96 -1526 0 0 0
-314.862 -1189.56 -1480 58 54 51
-311.842 -1191.58 -1483 59 55 52
-308.188 -1191.19 -1483 62 57 52
-304.742 -1191.62 -1484 65 59 54
-301.904 -1194.45 -1488 65 59 54
-299.852 -1200.5 -1496 67 61 56
-295.387 -1196.92 -1492 66 59 54
-293.879 -1205.37 -1503 63 56 51
-291.741 -1211.42 -1511 55 49 44
-286.707 -1205.45 -1504 49 45 42
-284.346 -1210.71 -1511 49 45 42
-276.963 -1210.01 -1511 54 51 45
-271.83 -1203.27 -1503 57 54 48
-267.81 -1201.33 -1501 56 53 47
-262.922 -1195.4 -1494 52 49 43
-260.327 -1199.88 -1500 49 46 40
-257.193 -1201.96 -1503 50 47 41
-254.047 -1204.04 -1506 53 50 43
-250.059 -1202.13 -1504 54 48 45
-245.918 -1199.43 -1501 53 48 45
-241.634 -1195.93 -1497 48 44 41
-237.531 -1193.24 -1494 46 43 37
-234.384 -1195.34 -1497 44 41 35
-232.459 -1203.84 -1508 45 42 36
-229.724 -1208.34 -1514 49 46 40
-225.619 -1205.67 -1511 49 46 40
-222.413 -1207.79 -1514 50 44 41
-219.483 -1211.5 -1519 53 47 43
-215.112 -1207.25 -1514 57 51 46
-211.883 -1209.38 -1517 51 45 40
-207.957 -1207.53 -1515 47 41 36
-204.043 -1205.68 -1513 46 42 36
-200.14 -1203.84 -1511 47 43 38
-197.029 -1206.78 -1515 47 41 38
-193.136 -1204.95 -1513 44 40 37
-190.507 -1211.08 -1521 0 0 0
-125.532 -1211.58 -1526 0 0 0
-122.302 -1215.39 -1531 0 0 0
-315.255 -1194.6 -1480 58 55 49
-312.021 -1195.82 -1482 61 58 51
-309.405 -1199.46 -1487 67 62 56
-305.534 -1198.27 -1486 68 62 57
-301.671 -1197.09 -1485 66 60 55
-299.021 -1200.74 -1490 66 60 55
-294.764 -1197.95 -1487 63 57 52
-293.07 -1205.64 -1497 60 53 48
-290.171 -1208.5 -1501 57 51 46
-279.328 -1208.24 -1502 53 49 45
-274.922 -1204.68 -1498 56 54 48
-269.633 -1197.1 -1489 55 52 46
-266.534 -1199.18 -1492 54 52 46
-262.367 -1196.44 -1489 55 52 46
-259.26 -1198.52 -1492 51 48 42
-256.313 -1201.42 -1496 52 48 43
-253.518 -1205.11 -1501 56 53 46
-249.869 -1204.8 -1501 59 53 48
-246.223 -1204.5 -1501 56 51 46
-242.579 -1204.19 -1501 49 45 42
-237.665 -1197.48 -1493 48 44 40
-233.733 -1195.58 -1491 46 42 37
-231.357 -1201.71 -1499 47 44 39
-227.729 -1201.42 -1499 51 47 42
-223.656 -1198.74 -1496 49 47 41
-220.922 -1203.27 -1502 49 45 42
-218.452 -1209.41 -1510 51 47 43
-214.381 -1206.74 -1507 53 49 44
-211.585 -1211.28 -1513 51 45 40
-207.801 -1210.22 -1512 51 45 40
-204.159 -1209.96 -1512 47 42 37
-199.856 -1205.71 -1507 45 41 36
-196.361 -1206.27 -1508 47 41 38
-192.223 -1202.83 -1504 44 40 37
-189.612 -1208.99 -1512 0 0 0
-125.686 -1216.68 -1526 51 48 45
-122.212 -1218.12 -1528 49 47 43
-118.808 -1220.36 -1531 45 43 39
-314.372 -1194.79 -1474 59 56 50
-311.148 -1196.02 -1476 59 56 49
-307.71 -1196.44 -1477 62 58 52
-304.27 -1196.87 -1478 69 63 58
-300.829 -1197.3 -1479 70 64 58
-297.989 -1200.16 -1483 69 63 58
-293.546 -1196.55 -1479 64 58 52
-292.065 -1205.08 -1490 60 54 48
-267.431 -1190.86 -1475 57 54 48
-265.078 -1196.17 -1482 56 54 48
-261.283 -1195.04 -1481 58 56 50
-258.713 -1199.55 -1487 54 51 45
-255.088 -1199.23 -1487 51 45 42
-251.635 -1199.72 -1488 52 46 40
-248.013 -1199.41 -1488 56 51 45
-244.558 -1199.91 -1489 56 51 46
-240.778 -1198.8 -1488 51 47 44
-236.526 -1195.28 -1484 47 44 43
-232.454 -1192.57 -1481 47 44 41
