ply
format ascii 1.0
comment Created by Open3D
element vertex 1458
property double x
property double y
property double z
property uchar red
property uchar green
property uchar blue
end_header
-163.747 -880.343 -1606 40 45 42
-160.12 -879.665 -1605 39 44 41
-156.499 -878.991 -1604 39 43 40
-152.788 -877.772 -1602 39 43 40
-148.809 -874.912 -1597 41 45 42
-145.489 -875.89 -1599 40 44 41
-141.985 -875.776 -1599 38 42 39
-138.568 -876.211 -1600 39 43 40
-135.064 -876.102 -1600 37 41 38
-131.726 -877.091 -1602 39 43 40
-128.62 -879.725 -1607 38 42 39
-125.105 -879.624 -1607 36 40 37
-121.742 -880.62 -1609 37 41 38
-118.298 -881.072 -1610 39 43 40
-114.779 -880.979 -1610 40 43 40
-111.607 -883.625 -1615 40 43 40
-108.415 -886.273 -1620 39 42 39
-105.201 -888.923 -1625 38 41 38
-101.654 -888.841 -1625 37 40 37
-98.6511 -893.684 -1634 36 39 36
-95.7846 -900.169 -1646 40 43 40
-93.0906 -908.844 -1662 35 38 35
-90.7045 -921.348 -1685 29 32 29
-88.1158 -932.759 -1706 29 32 29
-84.9415 -938.704 -1717 28 32 29
-81.7202 -944.652 -1728 28 31 27
-78.587 -952.241 -1742 30 33 29
-75.8658 -965.845 -1767 33 36 33
-72.9958 -978.905 -1791 33 36 33
-69.9832 -991.418 -1814 31 34 31
-66.5437 -999.016 -1828 31 32 30
-63.0437 -1006.61 -1842 32 34 32
-59.3873 -1012.58 -1853 32 35 32
-55.7731 -1020.18 -1867 34 37 34
-52.0986 -1027.79 -1881 41 41 40
-48.772 -1044.14 -1911 48 48 48
-250.302 -932.186 -1686 49 49 49
-246.7 -932.538 -1687 37 37 37
-242.952 -932.34 -1687 38 38 38
-238.922 -931.041 -1685 37 37 37
-234.486 -928.087 -1680 36 39 36
-230.348 -926.243 -1677 37 40 37
-225.82 -922.745 -1671 36 40 37
-221.321 -919.252 -1665 38 41 38
-217.113 -916.867 -1661 35 38 35
-212.41 -912.278 -1653 34 37 34
-207.744 -907.695 -1645 36 39 36
-203.613 -905.322 -1641 37 40 37
-199.135 -901.298 -1634 38 41 38
-194.69 -897.279 -1627 39 42 39
-190.748 -895.47 -1624 39 42 39
-186.821 -893.664 -1621 41 44 41
-182.795 -891.31 -1617 39 42 39
-179.122 -890.614 -1616 37 41 38
-175.129 -888.267 -1612 37 41 38
-171.475 -887.577 -1611 39 42 39
-167.722 -886.339 -1609 39 43 40
-164.184 -886.206 -1609 40 44 41
-160.348 -884.423 -1606 39 43 40
-156.526 -882.644 -1603 39 43 40
-152.815 -881.419 -1601 39 43 40
-149.021 -879.646 -1598 41 45 42
-145.514 -879.528 -1598 39 43 40
-141.832 -878.312 -1596 38 42 39
-138.332 -878.2 -1596 37 41 38
-135.257 -880.841 -1601 36 40 37
-131.831 -881.285 -1602 38 42 39
-128.563 -882.83 -1605 38 42 39
-125.516 -886.029 -1611 37 41 38
-121.915 -885.38 -1610 38 42 39
-118.686 -887.483 -1614 38 42 39
-115.156 -887.39 -1614 39 42 39
-111.766 -888.399 -1616 41 44 41
-108.3 -888.86 -1617 40 43 40
-105.22 -892.623 -1624 39 42 39
-102.173 -896.937 -1632 37 40 37
-98.8507 -899.055 -1636 39 42 39
-95.5114 -901.175 -1640 41 44 41
-93.0527 -912.089 -1660 41 44 41
-90.3997 -921.905 -1678 29 32 29
-87.8758 -933.921 -1700 29 32 29
-85.0092 -943.191 -1717 27 31 28
-81.8799 -950.265 -1730 27 31 28
-78.785 -958.44 -1745 30 34 31
-76.0981 -972.658 -1771 33 36 33
-73.0946 -984.131 -1792 33 36 33
-69.9232 -994.509 -1811 30 33 30
-66.5965 -1003.79 -1828 33 33 31
-63.1281 -1011.97 -1843 34 36 33
-59.4665 -1017.97 -1854 34 36 33
-55.8473 -1025.61 -1868 35 38 35
-52.2786 -1035.45 -1886 41 41 39
-48.7597 -1048.03 -1909 48 48 47
-249.762 -933.861 -1681 51 51 51
-246.168 -934.215 -1682 38 38 38
-242.716 -935.128 -1684 37 37 37
-238.548 -933.267 -1681 35 36 36
-234.396 -931.409 -1678 36 39 37
-229.984 -928.446 -1673 37 40 37
-225.597 -925.487 -1668 35 39 36
-221.367 -923.087 -1664 35 38 35
-217.157 -920.69 -1660 35 38 35
-212.324 -915.525 -1651 35 38 35
-207.912 -912.028 -1645 37 40 37
-203.529 -908.535 -1639 39 42 39
-199.296 -905.601 -1634 39 42 39
-194.847 -901.562 -1627 39 42 39
-191.372 -901.96 -1628 40 43 40
-187.087 -898.483 -1622 39 42 39
-183.169 -896.672 -1619 38 41 38
-179.156 -894.31 -1615 38 41 38
-175.162 -891.952 -1611 38 42 39
-171.293 -890.151 -1608 40 43 40
-167.44 -888.354 -1605 39 43 40
-163.499 -886.007 -1601 39 43 40
-159.977 -885.876 -1601 39 43 40
-156.457 -885.749 -1601 39 43 40
-152.747 -884.518 -1599 39 43 40
-149.141 -883.843 -1598 38 42 39
-145.54 -883.171 -1597 38 42 39
-142.034 -883.055 -1597 39 43 40
-138.443 -882.389 -1596 36 40 37
-135.196 -883.938 -1599 35 39 36
-131.937 -885.488 -1602 37 41 38
-128.586 -886.489 -1604 37 41 38
-125.305 -888.044 -1607 37 41 38
-122.013 -889.603 -1610 37 41 38
-118.708 -891.164 -1613 38 42 39
-115.177 -891.069 -1613 41 42 41
-111.924 -893.188 -1617 40 43 40
-108.521 -894.204 -1619 39 42 39
-105.369 -897.431 -1625 38 41 38
-102.067 -899.557 -1629 39 42 39
-98.7485 -901.685 -1633 39 42 39
-95.5881 -905.472 -1640 40 43 39
-92.8467 -913.678 -1655 40 43 40
-90.4721 -926.301 -1678 29 32 29
-87.9462 -938.374 -1700 27 30 27
-85.0772 -947.687 -1717 26 30 27
-82.0876 -956.451 -1733 29 33 30
-78.9836 -964.665 -1748 30 34 31
-76.2021 -977.847 -1772 32 35 32
-73.0307 -987.168 -1789 31 34 31
-70.095 -1000.91 -1814 31 34 31
-66.7227 -1009.68 -1830 33 34 32
-63.2815 -1018.45 -1846 35 35 33
-59.6426 -1025.02 -1858 35 36 33
-56.0416 -1033.25 -1873 35 38 35
-52.5423 -1044.79 -1894 40 40 38
-48.952 -1056.34 -1915 48 48 46
-256.126 -947.45 -1697 62 59 60
-251.899 -945.568 -1694 51 51 51
-247.833 -944.248 -1692 38 38 38
-244.068 -944.047 -1692 37 37 37
-239.31 -939.945 -1685 36 38 36
-235.006 -937.52 -1681 36 39 37
-230.446 -933.984 -1675 37 39 38
-225.645 -929.338 -1667 36 39 36
-221.148 -925.811 -1661 36 39 36
-216.81 -922.846 -1656 35 38 35
-211.982 -917.657 -1647 36 39 36
-207.828 -915.257 -1643 39 42 39
-203.694 -912.862 -1639 39 42 39
-199.335 -909.357 -1633 40 43 40
-195.125 -906.412 -1628 40 43 40
-191.292 -905.141 -1626 40 43 40
-187.007 -901.648 -1620 41 44 41
-183.318 -900.941 -1619 39 42 39
-179.523 -899.681 -1617 39 42 39
-175.303 -896.199 -1611 39 42 39
-171.432 -894.389 -1608 39 42 39
-167.784 -893.695 -1607 38 42 39
-163.836 -891.336 -1603 39 43 40
-160.207 -890.649 -1602 38 45 41
-156.583 -889.965 -1601 39 44 40
-152.871 -888.727 -1599 37 41 38
-149.168 -887.493 -1597 38 42 39
-145.567 -886.818 -1596 40 44 41
-142.06 -886.702 -1596 40 44 41
-138.729 -887.699 -1598 37 41 38
-135.39 -888.699 -1600 35 39 36
-132.044 -889.702 -1602 36 40 37
-128.85 -891.818 -1606 37 41 38
-125.641 -893.935 -1610 38 42 39
-122.187 -894.39 -1611 37 41 38
-118.878 -895.958 -1614 38 42 39
-115.627 -898.084 -1618 42 42 42
-112.223 -899.102 -1620 39 40 39
-108.944 -901.233 -1624 36 39 36
-105.519 -902.256 -1626 37 40 37
-102.15 -903.836 -1629 38 41 38
-98.828 -905.975 -1633 38 41 37
-95.6067 -909.224 -1639 38 41 36
-92.4723 -913.586 -1647 40 43 39
-90.0594 -925.715 -1669 30 33 30
-87.6028 -938.4 -1692 28 31 28
-84.9474 -949.977 -1713 24 31 27
-82.0588 -959.891 -1731 29 34 30
-79.0924 -969.807 -1749 31 34 31
-76.0912 -980.28 -1768 31 34 31
-73.1711 -992.972 -1791 30 33 30
-69.9581 -1002.89 -1809 31 34 31
-66.6305 -1012.26 -1826 32 35 32
-63.3323 -1023.3 -1846 34 35 33
-59.819 -1032.12 -1862 36 37 34
-56.3263 -1042.6 -1881 37 40 37
-52.8622 -1055.31 -1904 40 40 38
-247.596 -947.054 -1689 38 38 39
-243.69 -946.292 -1688 36 37 37
-239.222 -943.291 -1683 35 38 35
-234.778 -940.295 -1678 38 41 39
-230.084 -936.182 -1671 37 39 39
-225.83 -933.755 -1667 37 40 37
-221.328 -930.211 -1661 37 40 37
-216.856 -926.671 -1655 36 39 36
-212.155 -922.017 -1647 36 39 36
-208.251 -920.725 -1645 39 42 39
-203.86 -917.199 -1639 40 43 40
-199.742 -914.796 -1635 40 43 40
-195.524 -911.837 -1630 40 43 40
-191.683 -910.56 -1628 40 43 40
-187.391 -907.049 -1622 41 44 41
-183.58 -905.78 -1620 40 43 40
-179.447 -902.836 -1615 39 42 39
-175.773 -902.132 -1614 39 42 39
-171.571 -898.637 -1608 42 42 40
-167.921 -897.939 -1607 40 41 39
-163.969 -895.569 -1603 39 42 39
-160.237 -894.32 -1601 38 45 41
-156.809 -894.749 -1602 40 45 41
-153.091 -893.506 -1600 37 41 38
-149.383 -892.266 -1598 39 43 40
-145.685 -891.029 -1596 41 45 42
-142.176 -890.912 -1596 40 44 41
-138.668 -890.797 -1596 39 43 40
-135.415 -892.36 -1599 36 40 37
-132.068 -893.367 -1601 36 40 37
-128.714 -894.377 -1603 38 42 39
-125.586 -897.063 -1608 39 43 40
-122.134 -897.52 -1609 38 42 39
-118.974 -900.211 -1614 40 44 41
-115.65 -901.789 -1617 41 41 41
-112.452 -904.484 -1622 38 40 38
-108.831 -903.837 -1621 37 39 36
-105.735 -907.653 -1628 37 40 37
-102.17 -907.568 -1628 38 41 38
-98.787 -909.159 -1631 38 41 38
-95.509 -911.867 -1636 37 41 36
-92.6035 -918.479 -1648 38 42 38
-89.9702 -928.436 -1666 33 36 32
-87.3629 -939.51 -1686 32 35 32
-84.8177 -952.256 -1709 25 32 28
-82.0778 -963.889 -1730 28 33 30
-79.0206 -972.738 -1746 31 34 31
-75.9374 -982.146 -1763 33 36 33
-73.1486 -996.569 -1789 34 37 34
-70.0146 -1007.65 -1809 33 36 33
-66.794 -1018.74 -1829 32 35 32
-63.4522 -1029.27 -1848 36 36 34
-59.9638 -1038.68 -1865 36 36 34
-56.4018 -1048.1 -1882 36 39 36
-52.8771 -1059.76 -1903 38 38 36
-49.1334 -1068.62 -1919 44 44 42
-248.094 -952.673 -1691 38 39 40
-244.179 -951.907 -1690 36 38 38
-239.561 -948.328 -1684 36 39 36
-235.392 -946.443 -1681 39 42 40
-230.824 -942.873 -1675 39 41 41
-226.015 -938.182 -1667 39 42 39
-221.377 -934.058 -1660 40 43 40
-216.903 -930.502 -1654 37 40 37
-212.329 -926.388 -1647 34 38 35
-208.422 -925.09 -1645 36 40 37
-204.027 -921.547 -1639 38 41 38
-199.906 -919.132 -1635 39 42 39
-195.444 -915.034 -1628 39 42 39
-191.369 -912.627 -1624 39 42 39
-187.198 -909.662 -1619 41 44 41
-183.504 -908.948 -1618 40 43 40
-179.705 -907.676 -1616 38 41 38
-175.808 -905.845 -1613 38 41 38
-172.246 -905.702 -1613 40 42 40
-168.476 -904.439 -1611 40 43 40
-164.717 -903.18 -1609 41 44 41
-161.069 -902.486 -1608 40 44 41
-157.133 -900.11 -1604 39 44 41
-153.311 -898.299 -1601 38 42 39
-149.598 -897.053 -1599 41 45 42
-145.804 -895.249 -1596 42 46 43
-142.381 -895.693 -1597 41 45 42
-138.955 -896.138 -1598 40 44 41
-135.695 -897.708 -1601 38 42 39
-132.506 -899.841 -1605 36 40 37
-128.98 -899.734 -1605 39 43 40
-125.532 -900.19 -1606 40 44 41
-122.234 -901.771 -1609 40 44 41
-119.071 -904.474 -1614 40 44 41
-115.887 -907.18 -1619 42 42 42
-112.474 -908.207 -1621 42 42 40
-109.054 -909.237 -1623 40 40 36
-105.691 -910.83 -1626 39 42 39
-102.127 -910.745 -1626 39 42 39
-98.7462 -912.343 -1629 40 43 39
-95.47 -915.064 -1634 37 41 36
-92.6226 -922.267 -1647 38 42 37
-89.7733 -930.032 -1661 34 37 33
-86.9673 -938.918 -1677 32 35 32
-84.688 -954.524 -1705 26 33 29
-82.0496 -967.332 -1728 29 35 32
-79.0396 -976.783 -1745 33 36 35
-76.1285 -988.474 -1766 35 37 37
-73.208 -1001.29 -1789 36 38 36
-70.1489 -1013.54 -1811 35 38 35
-66.8482 -1023.56 -1829 35 36 34
-63.4694 -1033.58 -1847 35 36 34
-60.0126 -1043.6 -1865 35 35 33
-56.4776 -1053.63 -1883 35 38 35
-52.9758 -1065.89 -1905 36 36 34
-248.446 -957.747 -1692 39 40 41
-244.381 -956.41 -1690 37 39 39
-239.759 -952.815 -1684 38 40 38
-235.586 -950.92 -1681 39 41 39
-230.877 -946.768 -1674 40 41 41
-226.066 -942.055 -1666 38 41 38
-221.693 -939.042 -1661 39 42 39
-217.344 -936.034 -1656 37 40 37
-212.504 -930.769 -1647 35 38 35
-208.594 -929.465 -1645 38 41 38
-204.32 -926.47 -1640 38 41 38
-199.949 -922.913 -1634 40 43 39
-195.846 -920.491 -1630 40 43 40
-191.763 -918.072 -1626 40 43 40
-187.236 -913.399 -1618 40 43 40
-183.541 -912.681 -1617 39 42 39
-179.63 -910.838 -1614 37 41 38
-175.843 -909.563 -1612 37 41 38
-172.601 -911.112 -1615 39 42 39
-168.929 -910.407 -1614 40 43 40
-164.955 -908.013 -1610 40 44 41
-161.101 -906.187 -1607 40 46 42
-157.066 -903.237 -1602 39 44 41
-153.437 -902.545 -1601 40 44 41
-149.628 -900.729 -1598 41 45 42
-145.924 -899.48 -1596 41 45 42
-142.587 -900.489 -1598 39 43 40
-139.069 -900.373 -1598 39 43 40
-135.722 -901.386 -1600 38 42 39
-132.119 -900.713 -1599 38 42 39
-129.086 -903.985 -1605 38 42 39
-125.714 -905.007 -1607 38 42 39
-122.258 -905.468 -1608 40 44 41
-119.095 -908.184 -1613 40 44 41
-115.767 -909.777 -1616 43 43 41
-112.497 -911.935 -1620 42 42 40
-109.076 -912.969 -1622 40 40 38
-105.647 -914.007 -1624 37 40 37
-102.211 -915.047 -1626 37 40 37
-98.9483 -917.778 -1631 38 41 38
-95.6066 -919.949 -1635 37 40 37
-92.5296 -924.936 -1644 38 41 38
-89.6304 -932.175 -1657 38 41 38
-86.8308 -941.103 -1673 33 37 34
-84.3596 -954.533 -1697 30 34 31
-81.7841 -967.964 -1721 30 35 32
-78.8776 -978.584 -1740 31 37 34
-75.7593 -987.519 -1756 35 37 35
-72.9402 -1001.52 -1781 34 37 35
-69.9738 -1014.95 -1805 33 36 33
-66.7932 -1026.71 -1826 34 34 32
-63.5212 -1038.46 -1847 36 35 33
-60.1581 -1050.22 -1868 36 35 33
-56.5837 -1059.73 -1885 37 37 35
-53.0468 -1071.49 -1906 38 38 35
-49.2134 -1078.75 -1919 42 42 40
-249.975 -967.387 -1701 40 40 40
-245.453 -964.337 -1696 38 40 42
-240.671 -960.155 -1689 39 39 39
-236.203 -957.114 -1684 41 41 40
-231.345 -952.373 -1676 41 41 39
-226.118 -945.933 -1665 38 41 38
-221.61 -942.338 -1659 38 41 38
-217.394 -939.883 -1655 37 40 37
-212.939 -936.297 -1649 38 41 38
-208.894 -934.419 -1646 40 43 39
-204.864 -932.544 -1643 40 43 39
-200.359 -928.403 -1636 39 42 37
-196.008 -924.833 -1630 40 43 39
-191.803 -921.836 -1625 39 42 39
-187.623 -918.842 -1620 38 41 38
-183.693 -916.987 -1617 38 41 38
-180.002 -916.269 -1616 38 41 38
-176.207 -914.987 -1614 39 43 40
-172.53 -914.276 -1613 41 44 41
-169.173 -915.268 -1615 39 43 40
-165.297 -913.429 -1612 39 43 40
-161.435 -911.594 -1609 38 45 41
-157.588 -909.762 -1606 39 45 41
-153.852 -908.5 -1604 40 44 41
-149.751 -904.976 -1598 41 45 42
-145.953 -903.155 -1595 40 44 41
-142.615 -904.168 -1597 38 42 39
-139.01 -903.486 -1596 36 40 37
-135.834 -905.636 -1600 36 40 37
-132.311 -905.525 -1600 38 42 39
-129.111 -907.681 -1604 37 41 38
-125.661 -908.141 -1605 37 41 38
-122.435 -910.302 -1609 38 42 39
-119.119 -911.899 -1612 38 42 39
-116.078 -915.762 -1619 42 42 40
-112.798 -917.93 -1623 40 41 39
-109.099 -916.707 -1621 38 41 38
-105.669 -917.749 -1623 38 41 38
-102.358 -919.925 -1627 39 42 39
-98.8477 -920.408 -1628 39 42 39
-95.7437 -924.85 -1636 38 41 38
-92.4931 -928.164 -1642 38 41 38
-89.5417 -934.872 -1654 37 40 37
-86.6944 -943.277 -1669 31 35 32
-84.2299 -956.771 -1693 28 32 29
-81.6611 -970.265 -1717 29 33 30
-78.8518 -982.065 -1738 30 35 32
-75.8647 -992.737 -1757 35 38 35
-73.0822 -1007.37 -1783 35 38 35
-69.8372 -1016.91 -1800 33 36 33
-66.8846 -1032.11 -1827 35 35 33
-63.6767 -1045.05 -1850 37 36 34
-60.3366 -1057.42 -1872 35 34 32
-56.7204 -1066.41 -1888 36 36 34
-53.0625 -1075.97 -1905 39 39 35
-49.1769 -1082.14 -1916 41 41 38
-249.007 -967.373 -1693 42 39 40
-244.934 -966.023 -1691 40 40 42
-240.587 -963.535 -1687 40 40 39
-235.838 -959.338 -1680 40 41 39
-230.986 -954.574 -1672 38 41 38
-226.171 -949.816 -1664 38 41 38
-221.795 -946.775 -1659 38 41 38
-217.444 -943.738 -1654 37 40 37
-212.987 -940.135 -1648 40 43 40
-209.068 -938.818 -1646 41 44 39
-204.785 -935.793 -1641 40 43 38
-200.526 -932.773 -1636 41 44 39
-195.93 -928.047 -1628 40 43 39
-191.963 -926.175 -1625 38 41 38
-187.895 -923.737 -1621 39 42 39
-183.846 -921.302 -1617 41 44 41
-179.817 -918.872 -1613 41 44 41
-176.135 -918.154 -1612 39 43 40
-172.674 -918.578 -1613 40 43 40
-168.999 -917.866 -1612 38 41 38
-165.126 -916.019 -1609 36 40 37
-161.368 -914.745 -1607 35 40 37
-157.424 -912.335 -1603 37 42 39
-153.596 -910.498 -1600 38 42 39
-149.875 -909.234 -1598 39 43 40
-146.257 -908.542 -1597 40 44 41
-142.734 -908.422 -1597 39 43 40
-139.125 -907.736 -1596 36 40 37
-135.777 -908.759 -1598 35 39 36
-132.255 -908.647 -1598 37 41 38
-129.138 -911.381 -1603 37 41 38
-125.765 -912.413 -1605 37 41 38
-122.46 -914.015 -1608 36 40 37
-119.292 -916.757 -1613 38 42 39
-116.03 -918.932 -1617 42 42 40
-112.683 -920.542 -1620 41 42 40
-109.256 -921.586 -1622 38 41 38
-105.952 -923.77 -1626 38 41 38
-102.505 -924.819 -1628 38 41 38
-98.9295 -924.736 -1628 39 42 39
-95.6472 -927.495 -1633 37 40 37
-92.4004 -930.825 -1639 37 40 37
-89.3448 -936.428 -1649 35 39 36
-86.4022 -943.738 -1662 30 34 31
-84.1004 -958.998 -1689 27 31 28
-81.5858 -973.123 -1714 28 32 29
-78.8261 -985.547 -1736 31 35 32
-75.841 -996.269 -1755 35 38 35
-73.1426 -1012.1 -1783 35 38 35
-69.8949 -1021.69 -1800 33 36 33
-67.0131 -1038.1 -1829 36 36 34
-63.7982 -1051.1 -1852 37 37 35
-60.3541 -1061.83 -1871 33 33 31
-56.6469 -1069.16 -1884 36 36 34
-52.9669 -1078.19 -1900 40 40 36
-48.9862 -1082.12 -1907 40 40 36
-251.811 -967.537 -1685 55 53 54
-248.922 -970.771 -1691 41 40 40
-244.995 -969.989 -1690 39 39 40
-240.646 -967.489 -1686 38 40 38
-235.896 -963.272 -1679 38 41 38
-231.733 -961.354 -1676 38 41 38
-226.633 -955.426 -1666 38 41 38
-222.249 -952.37 -1661 38 41 38
-217.889 -949.319 -1656 38 41 38
-213.554 -946.271 -1651 39 42 37
-209.497 -944.374 -1648 39 42 37
-205.081 -940.762 -1642 39 42 37
-200.571 -936.582 -1635 39 42 37
-196.335 -933.551 -1630 37 40 36
-192.242 -931.098 -1626 37 40 37
-188.052 -928.075 -1621 38 41 38
-184 -925.629 -1617 39 42 39
-179.967 -923.187 -1613 37 40 37
-176.173 -921.893 -1611 39 42 39
-172.496 -921.175 -1610 39 42 39
-168.721 -919.888 -1608 38 41 38
-165.059 -919.176 -1607 38 42 39
-161.201 -917.323 -1604 38 42 39
-157.556 -916.618 -1603 38 42 39
-153.82 -915.344 -1601 38 42 39
-150.282 -915.217 -1601 39 43 40
-146.471 -913.378 -1598 40 44 41
-142.942 -913.257 -1598 39 43 40
-139.415 -913.139 -1598 39 43 40
-136.145 -914.738 -1601 40 44 41
-132.448 -913.483 -1599 39 43 40
-129.165 -915.088 -1602 38 42 39
-125.713 -915.552 -1603 37 41 38
-122.486 -917.733 -1607 38 42 39
-119.169 -919.345 -1610 39 43 40
-115.983 -922.102 -1615 41 42 40
-112.707 -924.29 -1619 39 41 39
-109.212 -924.769 -1620 38 41 38
-105.845 -926.391 -1623 39 42 39
-102.339 -926.875 -1624 39 42 39
-98.8902 -927.933 -1626 39 42 39
-95.6096 -930.705 -1631 37 40 37
-92.3081 -933.48 -1636 36 39 36
-89.2022 -938.539 -1645 38 41 38
-86.422 -947.594 -1661 35 39 36
-84.0208 -961.785 -1686 31 35 32
-81.4154 -974.836 -1709 30 35 32
-78.8462 -989.6 -1735 32 37 34
-76.077 -1003.22 -1759 37 40 37
-73.2034 -1016.85 -1783 35 38 35
-70.1862 -1029.91 -1806 32 35 32
-67.2888 -1046.39 -1835 34 34 32
-64.0235 -1058.88 -1857 36 36 34
-60.5333 -1069.09 -1875 36 36 34
-56.8744 -1077.59 -1890 37 37 35
-53.0388 -1083.82 -1901 39 39 36
-49.0526 -1087.77 -1908 41 41 38
-251.575 -970.345 -1682 56 54 55
-248.396 -972.44 -1686 42 42 42
-244.331 -971.078 -1684 37 39 39
-240.135 -969.143 -1681 37 39 37
-235.392 -964.907 -1674 38 41 38
-231.513 -964.132 -1673 38 41 38
-226.824 -959.905 -1666 40 43 40
-222.704 -957.987 -1663 38 41 38
-218.336 -954.92 -1658 38 41 38
-213.993 -951.858 -1653 38 41 36
-209.674 -948.801 -1648 37 40 35
-205.254 -945.171 -1642 36 39 34
-201.109 -942.697 -1638 38 41 36
-196.501 -937.926 -1630 37 40 36
-192.404 -935.46 -1626 37 40 37
-187.978 -931.273 -1619 39 42 39
-183.927 -928.816 -1615 40 43 40
-179.895 -926.362 -1611 39 42 39
-175.883 -923.912 -1607 40 43 40
-172.105 -922.616 -1605 40 43 40
-168.548 -922.473 -1605 41 44 41
-164.992 -922.332 -1605 41 45 42
-160.834 -918.747 -1599 41 45 42
-157.491 -919.763 -1601 40 44 41
-153.66 -917.908 -1598 38 42 39
-150.22 -918.355 -1599 38 42 39
-146.594 -917.656 -1598 40 44 41
-143.152 -918.108 -1599 40 44 41
-139.445 -916.841 -1597 39 43 40
-136.004 -917.3 -1598 39 43 40
-132.559 -917.761 -1599 37 41 38
-129.112 -918.225 -1600 37 41 38
-125.897 -920.413 -1604 37 41 38
-122.512 -921.457 -1606 39 43 40
-119.195 -923.076 -1609 39 43 40
-115.937 -925.272 -1613 40 43 40
-112.732 -928.044 -1618 39 42 39
-109.236 -928.525 -1619 38 41 38
-105.933 -930.728 -1623 39 42 39
-102.487 -931.788 -1625 39 42 39
-98.912 -931.703 -1625 39 42 39
-95.5136 -933.342 -1628 36 39 36
-92.2157 -936.13 -1633 36 39 36
-89.0054 -940.066 -1640 34 37 34
-86.2859 -949.737 -1657 38 42 39
-83.8417 -963.421 -1681 33 37 34
-81.2928 -977.107 -1705 34 38 35
-78.5481 -989.647 -1727 33 40 36
-75.9241 -1005.05 -1754 35 38 35
-73.0179 -1018.17 -1777 33 36 33
-70.0114 -1031.29 -1800 32 35 32
-67.3083 -1050.71 -1834 34 34 32
-64.215 -1066.12 -1861 35 35 33
-60.6808 -1075.81 -1878 37 37 35
-57.0123 -1084.35 -1893 38 38 36
-52.9993 -1087.17 -1898 39 39 35
-49.0162 -1091.14 -1905 42 42 38
-45.0973 -1097.4 -1916 45 45 43
-252.537 -977.784 -1687 56 54 55
-248.46 -976.411 -1685 44 44 44
-244.103 -973.884 -1681 36 38 38
-240.196 -973.099 -1680 36 38 36
-235.733 -970 -1675 37 40 37
-231.432 -967.485 -1671 41 44 39
-226.744 -963.238 -1664 40 43 39
-222.491 -960.732 -1660 37 40 37
-218.126 -957.651 -1655 37 40 37
-213.915 -955.153 -1651 39 42 37
-209.724 -952.659 -1647 39 42 37
-205.803 -951.326 -1645 38 41 36
-201.279 -947.106 -1638 37 40 35
-196.908 -943.468 -1632 38 41 37
-192.566 -939.834 -1626 39 42 39
-188.486 -937.361 -1622 40 43 40
-184.082 -933.158 -1615 40 43 40
-180.047 -930.693 -1611 39 42 39
-176.141 -928.809 -1608 39 42 39
-172.358 -927.506 -1606 41 44 41
-168.69 -926.785 -1605 42 45 42
-165.028 -926.066 -1604 40 44 41
-161.272 -924.774 -1602 40 44 41
-157.624 -924.061 -1601 40 44 41
-153.982 -923.352 -1600 39 43 40
-150.347 -922.646 -1599 39 43 40
-146.717 -921.944 -1598 39 43 40
-143.183 -921.822 -1598 39 43 40
-139.737 -922.279 -1599 37 41 38
-136.118 -921.586 -1598 35 39 36
-132.671 -922.049 -1599 35 39 36
-129.14 -921.938 -1599 36 40 37
-125.924 -924.137 -1603 36 40 37
-122.692 -926.338 -1607 38 42 39
-119.295 -927.388 -1609 40 44 41
-116.106 -930.171 -1614 41 44 41
-112.618 -930.651 -1615 40 43 40
-109.193 -931.71 -1617 38 41 38
-105.826 -933.347 -1620 38 41 38
-102.321 -933.836 -1621 39 42 39
-98.8733 -934.903 -1623 37 40 37
-95.5938 -937.701 -1628 38 41 38
-92.2932 -940.502 -1633 36 39 36
-88.9716 -943.305 -1638 35 38 35
-86.3063 -953.597 -1656 39 43 40
-83.8621 -967.345 -1680 36 40 37
-81.1223 -978.791 -1700 33 38 34
-78.6596 -994.845 -1728 33 39 35
-76.0745 -1010.9 -1756 35 38 35
-73.1614 -1024.08 -1779 35 38 35
-70.1869 -1037.83 -1803 33 36 33
-67.4383 -1056.77 -1836 33 33 31
-64.2343 -1070.53 -1860 36 36 34
-60.6023 -1078.53 -1874 37 37 35
-56.9093 -1086.54 -1888 38 38 34
-52.9598 -1090.52 -1895 39 40 33
-49.0316 -1095.66 -1904 41 41 36
-45.0173 -1099.65 -1911 43 43 41
-247.786 -977.477 -1679 42 42 41
-244.021 -977.267 -1679 35 37 37
-240.115 -976.478 -1678 34 37 35
-235.652 -973.365 -1673 37 40 37
-231.491 -971.42 -1670 40 43 38
-227.346 -969.479 -1667 40 43 38
-222.948 -966.379 -1662 38 41 37
-218.443 -962.702 -1656 38 41 38
-213.967 -959.03 -1650 38 41 37
-209.648 -955.943 -1645 39 42 37
-205.477 -953.442 -1641 40 43 38
-200.958 -949.202 -1634 40 43 38
-197.317 -949.032 -1634 39 42 38
-192.849 -944.8 -1627 38 41 38
-188.646 -941.734 -1622 38 41 38
-184.125 -936.931 -1614 39 42 39
-180.088 -934.454 -1610 37 40 37
-176.072 -931.981 -1606 38 41 38
-172.504 -931.833 -1606 40 43 40
-168.518 -929.367 -1602 41 44 41
-165.168 -930.385 -1604 40 44 41
-161.207 -927.926 -1600 39 43 40
-157.659 -927.791 -1600 39 43 40
-153.824 -925.919 -1597 39 43 40
-150.38 -926.369 -1598 38 42 39
-146.933 -926.823 -1599 38 42 39
-143.304 -926.12 -1598 36 40 37
-139.856 -926.579 -1599 34 38 35
-136.063 -924.724 -1596 33 37 34
-132.783 -926.348 -1599 34 38 35
-129.168 -925.657 -1598 35 39 36
-125.952 -927.866 -1602 36 40 37
-122.719 -930.077 -1606 37 41 38
-119.396 -931.712 -1609 40 44 41
-116.06 -933.349 -1612 41 45 42
-112.573 -933.831 -1613 40 43 40
-109.15 -934.895 -1615 38 41 38
-105.785 -936.54 -1618 38 41 38
-102.597 -939.925 -1624 37 40 37
-98.9569 -939.26 -1623 35 38 35
-95.6746 -942.071 -1628 38 41 38
-92.2015 -943.149 -1630 38 40 37
-89.1011 -948.28 -1639 38 40 38
-86.1184 -955.148 -1651 40 44 41
-83.6832 -968.961 -1675 39 43 40
-80.9043 -979.881 -1694 32 36 33
-78.4526 -996.01 -1722 33 37 34
-76.0519 -1014.45 -1754 34 37 34
-73.1409 -1027.69 -1777 34 37 34
-70.2072 -1042.09 -1802 32 35 32
-67.5319 -1062.27 -1837 34 34 32
-64.2885 -1075.51 -1860 35 37 34
-60.621 -1082.98 -1873 36 38 35
-56.9573 -1091.6 -1888 39 39 35
-52.9765 -1095.02 -1894 40 41 34
-48.9956 -1099.03 -1901 41 42 36
-44.9372 -1101.88 -1906 41 44 41
-41.0284 -1109.36 -1919 46 46 44
-243.794 -980.066 -1676 33 35 34
-239.748 -978.688 -1674 34 36 34
-235.854 -977.9 -1673 35 38 34
-231.828 -976.529 -1671 37 40 35
-227.268 -972.826 -1665 38 41 36
-223.005 -970.296 -1661 39 42 37
-218.498 -966.602 -1655 38 41 38
-214.28 -964.08 -1651 39 42 37
-209.572 -959.227 -1643 40 43 38
-205.653 -957.882 -1641 39 42 37
-201.499 -955.372 -1637 40 43 38
-197.365 -952.867 -1633 40 43 38
-193.132 -949.782 -1628 39 42 39
-188.923 -946.702 -1623 38 41 38
-184.282 -941.293 -1614 38 41 38
-180.69 -941.137 -1614 37 40 37
-176.442 -937.485 -1608 39 42 39
-172.651 -936.17 -1606 40 43 40
-168.872 -934.858 -1604 41 44 41
-165.309 -934.715 -1604 39 43 40
-161.546 -933.41 -1602 38 42 39
-157.695 -931.526 -1599 38 42 39
-153.955 -930.228 -1597 39 43 40
-150.32 -929.515 -1596 38 42 39
-146.783 -929.388 -1596 38 42 39
-143.336 -929.847 -1597 37 41 38
-139.712 -929.144 -1596 36 40 37
-136.349 -930.19 -1598 37 41 38
-132.647 -928.911 -1596 35 39 36
-129.278 -929.964 -1598 35 39 36
-126.138 -932.764 -1603 37 41 38
-122.9 -934.985 -1607 37 41 38
-119.497 -936.046 -1609 38 42 39
-116.231 -938.272 -1613 40 43 40
-112.739 -938.756 -1614 38 41 38
-109.175 -938.661 -1614 37 40 37
-105.679 -939.152 -1615 37 40 37
-102.368 -941.389 -1619 37 40 37
-98.9798 -943.047 -1622 37 41 38
-95.8146 -947.034 -1629 38 41 38
-92.3364 -948.117 -1631 39 40 37
-89.3399 -954.434 -1642 39 40 38
-86.1915 -959.59 -1651 39 42 39
-83.6042 -971.723 -1672 41 45 42
-80.7817 -982.114 -1690 33 37 34
-78.2456 -997.155 -1716 32 36 33
-75.9429 -1016.85 -1750 33 36 33
-73.1205 -1031.31 -1775 34 37 34
-70.1888 -1045.77 -1800 33 36 33
-67.5155 -1066.05 -1835 34 34 32
-64.2738 -1079.35 -1858 36 38 35
-60.7371 -1089.18 -1875 36 39 36
-57.0962 -1098.42 -1891 39 39 35
-53.0494 -1100.7 -1895 40 41 35
-49.1145 -1105.88 -1904 40 41 35
-44.9989 -1107.58 -1907 38 41 37
-41.0418 -1113.94 -1918 45 45 43
-244.441 -986.384 -1679 35 37 35
-240.385 -985 -1677 35 38 35
-236.481 -984.207 -1676 36 39 34
-231.473 -978.72 -1667 37 40 35
-227.054 -975.587 -1662 37 40 35
-222.66 -972.458 -1657 37 40 35
-218.29 -969.334 -1652 38 41 38
-213.815 -965.627 -1646 38 41 37
-209.625 -963.098 -1642 39 42 37
-205.454 -960.573 -1638 39 42 37
-201.303 -958.052 -1634 37 40 35
-197.293 -956.121 -1631 38 41 37
-193.061 -953.023 -1626 39 42 39
-188.969 -950.514 -1622 39 42 39
-184.44 -945.665 -1614 39 42 39
-180.509 -943.751 -1611 38 41 38
-176.154 -939.497 -1604 41 44 41
-172.584 -939.347 -1604 40 43 40
-168.701 -937.443 -1601 42 45 42
-165.348 -938.471 -1603 39 46 42
-161.483 -936.574 -1600 38 43 40
-157.633 -934.681 -1597 38 42 39
-154.087 -934.547 -1597 39 43 40
-150.26 -932.661 -1594 39 43 40
-146.816 -933.118 -1595 39 43 40
-143.369 -933.579 -1596 39 43 40
-139.832 -933.457 -1596 41 45 42
-136.381 -933.924 -1597 41 45 42
-132.76 -933.224 -1596 38 42 39
-129.389 -934.281 -1598 36 40 37
-126.167 -936.51 -1602 38 42 39
-122.929 -938.741 -1606 38 42 39
-119.525 -939.806 -1608 37 41 38
-116.258 -942.043 -1612 36 39 36
-112.835 -943.113 -1614 38 41 38
-109.404 -944.187 -1616 38 41 38
-105.9 -944.679 -1617 38 41 38
-102.772 -948.679 -1624 38 41 38
-99.0644 -947.424 -1622 38 42 39
-95.9553 -952.013 -1630 39 42 39
-92.5285 -953.685 -1633 39 40 38
-89.3617 -958.279 -1641 38 38 36
-86.0037 -961.124 -1646 38 41 38
-83.3752 -972.729 -1666 40 44 41
-80.3244 -980.249 -1679 32 37 34
-77.9929 -997.695 -1709 30 37 33
-75.5299 -1015.14 -1739 33 36 33
-72.9767 -1033.18 -1770 34 37 34
-70.2095 -1050.04 -1799 33 36 33
-67.5362 -1070.41 -1834 34 34 32
-64.3286 -1084.36 -1858 34 36 34
-60.7242 -1093.06 -1873 35 38 35
-57.1145 -1102.93 -1890 39 39 35
-53.0946 -1105.8 -1895 39 40 33
-49.0273 -1108.09 -1899 38 39 33
-44.9191 -1109.8 -1902 37 40 35
-40.991 -1116.77 -1914 43 43 41
-245.236 -993.322 -1683 36 39 36
-241.023 -991.34 -1680 36 39 35
-236.827 -989.362 -1677 37 40 36
-231.673 -983.26 -1667 39 42 37
-227.114 -979.522 -1661 37 40 35
-222.718 -976.379 -1656 37 40 35
-218.347 -973.239 -1651 35 38 34
-214.13 -970.694 -1647 36 39 35
-209.934 -968.153 -1643 37 40 35
-205.506 -964.438 -1637 39 42 37
-201.23 -961.316 -1632 39 42 37
-197.221 -959.377 -1629 37 40 35
-193.109 -956.852 -1625 39 42 39
-188.783 -953.154 -1619 40 43 40
-184.714 -950.638 -1615 40 43 40
-180.665 -948.125 -1611 41 44 41
-176.635 -945.617 -1607 40 43 40
-172.41 -941.935 -1601 40 43 40
-169.057 -942.965 -1603 40 44 41
-165.284 -941.644 -1601 40 44 41
-161.723 -941.502 -1601 39 43 40
-157.769 -939.012 -1597 40 44 41
-154.027 -937.702 -1595 41 45 42
-150.201 -935.807 -1592 40 44 41
-146.574 -935.091 -1591 39 43 40
-143.043 -934.966 -1591 40 44 41
-139.689 -936.02 -1593 40 44 41
-136.327 -937.075 -1595 40 44 41
-132.958 -938.134 -1597 37 41 38
-129.581 -939.196 -1599 37 41 38
-126.197 -940.26 -1601 37 41 38
-123.111 -943.676 -1607 37 41 38
-119.702 -944.746 -1609 37 41 38
-116.358 -946.406 -1612 38 42 39
-113.002 -948.068 -1615 39 42 39
-109.634 -949.734 -1618 38 41 38
-105.991 -949.054 -1617 36 39 36
-102.924 -953.659 -1625 36 39 36
-99.1494 -951.811 -1622 38 42 39
-96.0377 -956.422 -1630 40 43 40
-92.7214 -959.274 -1635 38 41 38
-89.4929 -963.303 -1642 37 40 37
-86.0775 -965.574 -1646 37 40 37
-83.0961 -973.127 -1659 35 38 35
-80.3454 -984.201 -1678 32 36 33
-77.6487 -997.037 -1700 32 36 31
-75.3773 -1016.91 -1734 34 37 34
-72.8741 -1035.61 -1766 34 37 34
-70.2697 -1054.9 -1799 31 34 31
-67.6678 -1076.54 -1836 31 33 32
-64.453 -1090.55 -1860 34 36 34
-60.776 -1098.12 -1873 34 37 34
-57.0123 -1105.11 -1885 39 40 37
-53.0559 -1109.16 -1892 38 40 35
-48.9658 -1110.88 -1895 37 39 34
-44.9339 -1114.36 -1901 39 40 35
-40.9617 -1120.18 -1911 45 44 42
-36.869 -1123.66 -1917 50 49 48
-245.887 -999.7 -1686 34 37 35
-240.946 -994.744 -1678 37 40 37
-236.751 -992.757 -1675 38 41 38
-232.153 -988.996 -1669 38 42 37
-227.585 -985.241 -1663 38 41 36
-223.316 -982.675 -1659 36 39 34
-219.066 -980.113 -1655 36 39 34
-214.577 -976.37 -1649 36 39 34
-209.988 -972.041 -1642 37 40 35
-205.684 -968.901 -1637 38 41 36
-201.529 -966.356 -1633 38 41 36
-197.271 -963.224 -1628 38 41 36
-193.157 -960.687 -1624 38 41 38
-189.297 -959.338 -1622 39 42 39
-184.874 -955.035 -1615 39 42 39
-180.485 -950.737 -1608 40 43 40
-176.899 -950.582 -1608 41 44 41
-172.667 -946.884 -1602 40 44 41
-168.992 -946.144 -1601 39 43 40
-165.324 -945.408 -1600 39 43 40
-161.762 -945.266 -1600 41 45 42
-157.806 -942.764 -1596 42 46 43
-154.16 -942.038 -1595 41 45 42
-150.331 -940.134 -1592 40 44 41
-146.885 -940.596 -1593 40 44 41
-143.077 -938.699 -1590 41 45 42
-139.81 -940.347 -1593 36 40 37
-136.445 -941.408 -1595 33 37 34
-132.906 -941.291 -1595 34 38 35
-129.531 -942.357 -1597 37 41 38
-126.148 -943.427 -1599 37 41 38
-122.834 -945.089 -1602 35 39 36
-119.433 -946.164 -1604 38 42 39
-116.314 -949.601 -1610 39 42 39
-113.1 -952.45 -1615 38 41 38
-109.728 -954.123 -1618 37 40 37
-106.279 -955.209 -1620 36 39 36
-103.076 -958.656 -1626 36 39 36
-99.3573 -957.389 -1624 36 40 37
-96.1205 -960.842 -1630 38 41 38
-92.6312 -961.939 -1632 37 40 37
-89.4065 -965.986 -1639 36 39 36
-85.9947 -968.268 -1643 34 38 35
-82.867 -974.088 -1653 36 40 37
-79.9354 -982.857 -1668 36 40 37
-77.2584 -995.751 -1690 32 36 33
-74.9201 -1014.54 -1722 34 37 34
-72.6478 -1036.27 -1759 35 38 35
-70.2911 -1059.19 -1798 32 35 32
-67.763 -1082.1 -1837 32 34 33
-64.5778 -1096.77 -1862 34 37 35
-60.8609 -1103.79 -1874 36 39 36
-57.0916 -1110.8 -1886 37 40 37
-53.0735 -1113.7 -1891 38 41 36
-48.9821 -1115.42 -1894 36 39 34
-44.8779 -1117.15 -1897 37 37 33
-40.8897 -1122.41 -1906 44 42 40
-36.7852 -1125.32 -1911 52 51 50
-246.832 -1007.3 -1691 36 39 37
-241.301 -999.935 -1679 37 40 37
-236.958 -997.343 -1675 37 40 37
-232.774 -995.351 -1672 36 40 35
-228.058 -990.982 -1665 37 40 35
-223.646 -987.808 -1660 36 39 34
-219.125 -984.044 -1654 36 39 34
-214.894 -981.474 -1650 36 39 34
-210.172 -976.53 -1642 37 40 35
-205.864 -973.375 -1637 39 42 37
-201.457 -969.629 -1631 37 40 35
-197.686 -968.86 -1630 37 40 35
-193.207 -964.528 -1623 38 41 38
-188.878 -960.796 -1617 38 41 38
-185.15 -960.038 -1616 38 41 38
-180.755 -955.72 -1609 38 41 38
-176.833 -953.782 -1606 38 41 38
-172.71 -950.66 -1601 38 42 39
-169.351 -951.698 -1603 39 43 40
-165.468 -949.771 -1600 38 42 39
-161.903 -949.628 -1600 39 43 40
-157.944 -947.115 -1596 40 44 41
-154.294 -946.385 -1595 39 43 40
-150.367 -943.879 -1591 41 45 42
-146.644 -942.563 -1589 42 46 43
-143.201 -943.03 -1590 41 45 42
-139.668 -942.906 -1590 33 37 34
-136.392 -944.565 -1593 33 37 34
-133.105 -946.226 -1596 33 37 34
-129.643 -946.705 -1597 35 39 36
-126.415 -948.965 -1601 38 42 39
-123.017 -950.041 -1603 36 40 37
-119.537 -950.528 -1604 37 41 38
-116.56 -955.166 -1612 38 42 39
-113.198 -956.843 -1615 38 41 38
-109.756 -957.931 -1617 39 42 39
-106.371 -959.614 -1620 38 41 38
-103.038 -961.893 -1624 36 39 36
-99.5047 -962.397 -1625 35 39 36
-96.0269 -963.496 -1627 38 41 38
-92.825 -967.559 -1634 37 40 37
-89.4294 -969.849 -1638 35 38 35
-85.9645 -971.549 -1641 34 38 35
-82.7381 -976.212 -1649 37 41 38
-79.8129 -985.021 -1664 36 40 37
-76.9594 -995.607 -1682 33 37 34
-74.7674 -1016.26 -1717 34 37 34
-72.5454 -1038.69 -1755 36 39 36
-70.3912 -1064.66 -1799 34 37 34
-68.0432 -1090.64 -1843 32 35 32
-64.6685 -1102.42 -1863 34 37 34
-60.8811 -1108.28 -1873 38 41 38
-56.9289 -1111.78 -1879 39 42 39
-52.9228 -1114.69 -1884 40 43 38
-48.7397 -1114.06 -1883 38 40 36
-44.7036 -1116.97 -1888 37 37 33
-40.7748 -1123.44 -1899 38 37 35
-36.74 -1128.14 -1907 51 50 49
-247.926 -1015.53 -1697 37 40 38
-242.089 -1006.94 -1683 35 38 35
-237.308 -1002.54 -1676 35 38 35
-233.118 -1000.54 -1673 36 39 35
-228.396 -996.148 -1666 36 39 34
-223.573 -991.166 -1658 37 40 35
-219.185 -987.982 -1653 37 40 35
-214.953 -985.4 -1649 37 40 35
-209.972 -979.238 -1639 39 42 37
-205.793 -976.665 -1635 39 42 37
-201.511 -973.5 -1630 37 40 35
-197.738 -972.727 -1629 37 40 35
-193.257 -968.376 -1622 38 41 38
-189.394 -967.013 -1620 37 40 37
-185.083 -963.267 -1614 37 40 37
-181.025 -960.72 -1610 36 39 36
-176.988 -958.176 -1606 37 40 37
-172.969 -955.636 -1602 38 41 38
-169.288 -954.889 -1601 37 41 38
-165.509 -953.549 -1599 39 43 40
-161.741 -952.213 -1597 40 44 41
-157.884 -950.284 -1594 39 43 40
-154.236 -949.551 -1593 41 45 42
-150.404 -947.629 -1590 40 44 41
-146.772 -946.903 -1589 40 44 41
-143.417 -947.968 -1591 39 43 40
-139.878 -947.844 -1591 36 40 37
-136.512 -948.914 -1593 35 39 36
-133.221 -950.583 -1596 35 39 36
-129.757 -951.063 -1597 36 40 37
-126.368 -952.142 -1599 37 41 38
-122.971 -953.224 -1601 35 39 36
-119.642 -954.904 -1604 37 41 38
-116.444 -957.777 -1609 39 43 40
-113.226 -960.653 -1614 40 43 40
-109.919 -962.936 -1618 41 44 41
-106.596 -965.222 -1622 39 42 39
-103.128 -966.32 -1624 37 40 37
-99.5916 -966.826 -1625 37 41 38
-96.1697 -968.526 -1628 37 40 37
-92.7923 -970.822 -1632 36 39 36
-89.3433 -972.528 -1635 34 37 34
-85.7773 -973.046 -1636 35 39 36
-82.4586 -976.541 -1642 37 41 38
-79.3542 -983.012 -1653 36 40 37
-76.3395 -991.27 -1667 34 38 34
-73.9172 -1008.45 -1696 34 37 34
-71.988 -1034.55 -1740 35 38 35
-70.2566 -1066.59 -1794 33 36 33
-67.9915 -1093.88 -1840 33 35 34
-64.5511 -1104.52 -1858 35 38 35
-60.7713 -1110.41 -1868 38 41 38
-56.7965 -1113.33 -1873 40 43 40
-52.7157 -1114.47 -1875 41 44 40
-48.5231 -1113.24 -1873 43 45 41
-44.5292 -1116.76 -1879 41 43 38
-40.5739 -1122.08 -1888 41 41 39
-36.5791 -1127.39 -1897 47 47 46
-32.6815 -1137.46 -1914 52 52 52
-248.438 -1021.41 -1699 36 38 35
-242.591 -1012.77 -1685 35 38 33
-237.801 -1008.35 -1678 34 37 34
-234.022 -1008.15 -1678 37 40 35
-229.284 -1003.73 -1671 38 41 36
-224.175 -997.528 -1661 38 41 36
-219.512 -993.127 -1654 37 40 35
-215.143 -989.933 -1649 38 41 36
-210.029 -983.142 -1638 41 44 39
-206.227 -982.358 -1637 41 44 39
-201.688 -977.977 -1630 38 41 36
-197.548 -975.401 -1626 38 41 36
-193.308 -972.229 -1621 37 40 37
-189.444 -970.86 -1619 38 41 38
-185.131 -967.097 -1613 39 42 39
-181.298 -965.736 -1611 38 41 38
-177.474 -964.379 -1609 39 42 39
-173.446 -961.827 -1605 39 43 40
-169.225 -958.08 -1599 38 42 39
-165.655 -957.932 -1599 40 44 41
-161.782 -955.991 -1596 41 45 42
-157.924 -954.053 -1593 39 43 40
-154.178 -952.717 -1591 40 44 41
-150.536 -951.984 -1590 40 44 41
-146.901 -951.255 -1589 40 44 41
-143.452 -951.726 -1590 40 44 41
-140.001 -952.199 -1591 40 44 41
-136.717 -953.873 -1594 42 46 43
-133.422 -955.549 -1597 41 45 42
-129.952 -956.031 -1598 39 43 40
-126.558 -957.115 -1600 37 41 38
-123.156 -958.201 -1602 35 39 36
-119.821 -959.889 -1605 34 38 35
-116.619 -962.775 -1610 38 41 38
-113.466 -966.261 -1616 39 42 39
-110.016 -967.359 -1618 39 42 39
-106.623 -969.057 -1621 37 40 37
-103.282 -971.356 -1625 36 39 36
-99.8015 -972.463 -1627 36 40 37
-96.4313 -974.767 -1631 37 40 37
-93.0442 -977.074 -1635 36 39 36
-89.4763 -977.592 -1636 35 39 36
-86.0623 -979.905 -1640 35 39 36
-82.6314 -982.221 -1644 35 39 36
-79.3276 -986.332 -1651 34 38 35
-76.3146 -994.627 -1665 35 39 34
-73.5893 -1007.7 -1687 33 36 33
-71.5541 -1032.13 -1728 32 35 32
-67.9031 -1096.51 -1836 33 35 35
-64.4337 -1106.61 -1853 37 39 38
-60.6618 -1112.52 -1863 39 42 40
-56.6337 -1114.26 -1866 39 42 39
-52.5648 -1115.41 -1868 41 44 41
-48.4358 -1115.36 -1868 42 45 42
-44.4495 -1118.91 -1874 40 43 38
-40.4802 -1123.65 -1882 41 41 39
-36.5338 -1130.18 -1893 44 44 42
-32.6075 -1139.1 -1908 54 54 53
-248.66 -1026.1 -1699 35 36 33
-243.239 -1019.24 -1688 34 37 32
-238.297 -1014.19 -1680 34 37 32
-234.09 -1012.17 -1677 36 39 34
-229.351 -1007.74 -1670 39 42 37
-224.374 -1002.11 -1661 38 41 36
-219.707 -997.687 -1654 38 41 36
-215.073 -993.271 -1647 38 41 36
-209.959 -986.449 -1636 40 43 38
-206.032 -985.058 -1634 41 44 39
-201.62 -981.26 -1628 39 42 37
-197.723 -979.877 -1626 38 41 36
-193.241 -975.485 -1619 38 41 38
-189.495 -974.713 -1618 37 40 37
-185.41 -972.137 -1614 39 42 39
-181.683 -971.371 -1613 40 44 41
-177.742 -969.405 -1610 40 43 40
-173.708 -966.841 -1606 39 42 39
-169.799 -964.883 -1603 38 42 39
-165.801 -962.327 -1599 40 44 41
-161.823 -959.774 -1595 40 44 41
-157.964 -957.827 -1592 38 42 39
-154.314 -957.087 -1591 39 43 40
-150.67 -956.351 -1590 40 44 41
-146.939 -955.016 -1588 41 45 42
-143.579 -956.09 -1590 42 46 43
-140.301 -957.768 -1593 42 46 43
-136.924 -958.848 -1595 40 44 41
-133.623 -960.532 -1598 38 42 39
-130.148 -961.016 -1599 36 40 37
-126.828 -962.705 -1602 36 40 37
-123.342 -963.196 -1603 34 38 35
-120.002 -964.891 -1606 35 39 36
-116.722 -967.189 -1610 36 39 36
-113.566 -970.691 -1616 38 41 38
-109.977 -970.593 -1616 38 41 38
-106.783 -974.1 -1622 36 39 36
-103.373 -975.809 -1625 36 39 36
-99.7667 -975.719 -1625 36 40 37
-96.2795 -976.833 -1627 37 40 37
-92.9553 -979.752 -1632 38 42 39
-89.4457 -980.872 -1634 37 41 38
-85.9805 -982.596 -1637 37 41 38
-82.5532 -984.922 -1641 37 41 38
-79.157 -987.851 -1646 35 39 36
-76.0607 -994.985 -1658 36 40 37
-73.3047 -1007.52 -1679 37 40 37
-71.2026 -1030.86 -1718 34 37 34
-67.5555 -1094.94 -1825 35 37 37
-64.177 -1106.28 -1844 37 39 39
-60.4869 -1113.42 -1856 39 41 41
-56.4404 -1114.57 -1858 37 40 37
-52.4421 -1116.92 -1862 39 42 39
-48.2707 -1115.68 -1860 39 42 39
-44.2748 -1118.64 -1865 39 42 37
-40.2789 -1122.2 -1871 41 41 39
-36.334 -1128.16 -1881 45 45 43
-32.5164 -1140.13 -1901 54 54 52
-249.175 -1032.02 -1701 37 38 36
-244.178 -1026.94 -1693 34 37 32
-239.219 -1021.87 -1685 33 36 31
-234.858 -1019.23 -1681 34 37 32
-229.968 -1014.18 -1673 35 38 33
-224.575 -1006.7 -1661 37 40 35
-219.371 -999.834 -1650 37 40 35
-214.873 -996.004 -1644 38 41 36
-210.018 -990.362 -1635 40 43 38
-205.837 -987.754 -1631 40 43 38
-201.056 -982.122 -1622 39 42 37
-197.169 -980.733 -1620 37 40 35
-192.577 -975.716 -1612 37 40 37
-189.077 -976.151 -1613 37 41 38
-185.115 -974.169 -1610 38 42 39
-181.62 -974.61 -1611 38 42 39
-177.569 -972.03 -1607 37 41 38
-173.537 -969.454 -1603 37 41 38
-169.632 -967.487 -1600 38 42 39
-165.845 -966.128 -1598 39 43 40
-161.764 -962.959 -1593 39 44 41
-158.105 -962.212 -1592 37 44 40
-154.548 -962.073 -1592 42 46 43
-150.708 -960.124 -1589 42 46 43
-147.162 -959.992 -1589 44 48 45
-143.707 -960.466 -1590 42 46 43
-140.425 -962.152 -1593 39 43 40
-136.959 -962.632 -1594 36 40 37
-133.909 -966.135 -1600 34 38 35
-130.426 -966.622 -1601 34 38 35
-127.178 -968.922 -1605 35 39 36
-123.605 -968.81 -1605 35 39 36
-120.407 -971.72 -1610 37 41 38
-117.043 -973.425 -1613 35 39 36
-113.737 -975.736 -1617 35 38 35
-110.21 -976.24 -1618 36 39 36
-107.009 -979.764 -1624 38 41 38
-103.465 -980.273 -1625 36 39 36
-100.039 -981.993 -1628 35 39 36
-96.424 -981.906 -1628 35 39 36
-93.0376 -984.234 -1632 36 40 37
-89.5248 -985.359 -1634 35 39 36
-86.1617 -988.296 -1639 34 38 35
-82.7269 -990.633 -1643 35 39 36
-79.2752 -992.973 -1647 38 42 39
-76.0361 -998.33 -1656 37 41 38
-73.1948 -1009.72 -1675 34 38 35
-70.9337 -1030.75 -1710 34 37 34
-67.393 -1096.33 -1819 34 37 34
-63.9202 -1105.91 -1835 35 39 37
-60.2468 -1113.09 -1847 37 41 40
-56.2471 -1114.85 -1850 37 40 37
-52.2064 -1116 -1852 38 41 38
-48.1055 -1115.96 -1852 38 41 37
-44.1951 -1120.74 -1860 38 41 36
-40.2498 -1125.52 -1868 45 45 43
-36.3468 -1132.72 -1880 45 45 43
-32.5451 -1145.34 -1901 54 54 52
-249.692 -1037.96 -1703 38 39 38
-245.264 -1035.29 -1699 34 37 32
-239.861 -1028.37 -1688 33 36 31
-235.489 -1025.72 -1684 33 36 31
-230.312 -1019.42 -1674 35 38 33
-225.047 -1012.52 -1663 37 40 35
-219.435 -1003.8 -1649 37 40 35
-215.065 -1000.56 -1644 37 40 35
-210.078 -994.282 -1634 39 42 37
-206.021 -992.27 -1631 39 42 37
-200.864 -984.787 -1619 37 40 35
-197.102 -984 -1618 37 40 35
-192.989 -981.392 -1614 37 40 37
-189.247 -980.613 -1613 38 41 38
-185.396 -979.229 -1611 38 42 39
-181.782 -979.064 -1611 39 43 40
-177.949 -977.687 -1609 38 42 39
-173.801 -974.492 -1604 36 40 37
-169.677 -971.301 -1599 36 40 37
-165.889 -969.935 -1597 39 43 40
-161.909 -967.359 -1593 38 43 40
-158.146 -966.001 -1591 36 43 39
-154.589 -965.861 -1591 40 44 41
-150.748 -963.904 -1588 42 46 43
-147.2 -963.77 -1588 44 48 45
-143.744 -964.247 -1589 42 46 43
-140.374 -965.334 -1591 37 41 38
-137.082 -967.029 -1594 36 40 37
-134.029 -970.548 -1600 36 40 37
-130.543 -971.037 -1601 37 41 38
-127.291 -973.347 -1605 36 40 37
-123.869 -974.448 -1607 35 39 36
-120.739 -977.977 -1613 37 41 38
-117.147 -977.87 -1613 39 42 39
-113.979 -981.404 -1619 38 41 38
-110.445 -981.91 -1620 37 40 37
-107.039 -983.631 -1623 36 39 36
-103.557 -984.75 -1625 34 37 34
-100.067 -985.871 -1627 34 38 35
-96.4505 -985.783 -1627 36 40 37
-93.1204 -988.728 -1632 35 39 36
-89.6045 -989.858 -1634 34 38 35
-86.1857 -992.203 -1638 34 38 35
-82.6493 -993.339 -1640 35 39 36
-79.2976 -996.901 -1646 36 40 37
-75.9198 -1000.47 -1652 36 40 36
-72.9537 -1010.09 -1668 36 39 36
-70.54 -1028.8 -1699 34 37 34
-68.8148 -1060.22 -1751 32 35 32
-66.7854 -1090.43 -1801 33 35 33
-63.5587 -1103.7 -1823 36 39 38
-59.9738 -1112.12 -1837 37 41 40
-56.0536 -1115.09 -1842 38 40 38
-52.0835 -1117.47 -1846 39 42 39
-48.0962 -1119.84 -1850 39 42 39
-44.163 -1124.04 -1857 40 43 38
-40.1993 -1128.24 -1864 42 42 40
-36.2629 -1134.26 -1874 43 43 41
-32.4197 -1145.12 -1892 54 54 52
-245.774 -1041.25 -1701 33 36 31
-240.362 -1034.29 -1690 34 37 32
-235.981 -1031.63 -1686 37 40 35
-230.795 -1025.3 -1676 36 39 34
-225.792 -1019.59 -1667 36 39 34
-219.899 -1009.6 -1651 36 39 34
-215.259 -1005.13 -1644 38 41 36
-210.396 -999.431 -1635 37 40 35
-205.701 -994.353 -1627 37 40 35
-200.921 -988.669 -1618 38 41 36
-197.036 -987.268 -1616 37 40 35
-192.803 -984.038 -1611 38 41 38
-189.182 -983.865 -1611 40 43 40
-185.448 -983.085 -1610 39 43 40
-181.946 -983.53 -1611 40 44 41
-177.777 -980.316 -1606 38 42 39
-173.74 -977.716 -1602 35 39 36
-169.83 -975.731 -1599 36 40 37
-166.142 -974.969 -1598 39 43 40
-162.258 -972.991 -1595 39 44 41
-158.587 -972.237 -1594 36 42 38
-154.922 -971.485 -1593 36 40 37
-151.168 -970.128 -1591 39 43 40
-147.518 -969.384 -1590 40 44 41
-143.783 -968.034 -1588 41 45 42
-140.588 -970.344 -1592 40 44 41
-137.032 -970.219 -1592 39 43 40
-134.065 -974.363 -1599 39 43 40
-130.66 -975.463 -1601 38 42 39
-127.405 -977.784 -1605 36 40 37
-124.135 -980.108 -1609 36 40 37
-120.697 -981.216 -1611 38 42 39
-117.47 -984.154 -1616 40 44 41
-114.081 -985.877 -1619 41 44 40
-110.544 -986.385 -1620 38 41 37
-107.201 -988.723 -1624 36 39 35
-103.458 -987.411 -1622 35 38 35
-100.218 -990.972 -1628 33 37 34
-96.6554 -991.493 -1629 33 37 34
-93.2037 -993.233 -1632 35 39 35
-89.7943 -995.586 -1636 36 40 37
-86.4208 -998.549 -1641 36 40 37
-82.9249 -1000.3 -1644 36 40 37
-79.6577 -1005.09 -1652 38 42 39
-76.2177 -1008.07 -1657 39 43 38
-73.0626 -1015.3 -1669 38 41 37
-70.5199 -1032.27 -1697 33 36 33
-68.4435 -1058.36 -1740 31 34 31
-66.3626 -1087.5 -1788 34 36 35
-63.3711 -1104.47 -1816 38 41 41
-59.8312 -1113.53 -1831 38 42 41
-55.8903 -1115.92 -1835 39 41 41
-51.9887 -1119.52 -1841 40 42 40
-48.1131 -1124.34 -1849 41 44 41
-44.131 -1127.33 -1854 41 44 41
-40.1487 -1130.95 -1860 42 43 40
-36.2564 -1138.21 -1872 43 44 41
-32.3971 -1148.51 -1889 52 52 50
-28.4477 -1158.21 -1905 55 53 49
-246.142 -1046.61 -1702 33 36 31
-240.58 -1039.01 -1690 36 39 34
-236.055 -1035.72 -1685 37 40 34
-231.005 -1029.97 -1676 37 40 33
-226.132 -1024.85 -1668 37 39 33
-220.232 -1014.82 -1652 36 39 33
-215.716 -1010.93 -1646 37 40 35
-210.586 -1003.98 -1635 39 42 37
-205.761 -998.268 -1626 39 42 37
-201.227 -993.786 -1619 38 41 36
-197.336 -992.377 -1617 37 40 37
-193.217 -989.746 -1613 39 42 39
-189.353 -988.345 -1611 39 43 40
-185.616 -987.562 -1610 39 43 40
-181.884 -986.782 -1609 37 43 39
-178.048 -985.392 -1607 37 43 40
-174.006 -982.78 -1603 37 41 40
-170.09 -980.785 -1600 37 41 38
-166.501 -980.633 -1600 39 43 40
-162.608 -978.645 -1597 39 43 40
-158.83 -977.274 -1595 39 43 40
-155.062 -975.907 -1593 40 44 41
-151.305 -974.543 -1591 40 44 41
-147.373 -971.958 -1587 42 46 41
-143.913 -972.439 -1588 41 45 40
-140.45 -972.923 -1589 40 44 40
-137.07 -974.022 -1591 40 44 41
-133.934 -976.96 -1596 39 43 42
-130.777 -979.901 -1601 37 41 38
-127.6 -982.845 -1606 35 39 36
-124.324 -985.179 -1610 36 40 37
-121.106 -988.127 -1615 38 42 39
-117.649 -989.243 -1617 39 43 39
-114.255 -990.974 -1620 40 43 38
-110.711 -991.484 -1621 37 40 35
-107.033 -990.774 -1620 35 38 33
-103.423 -990.679 -1620 34 38 33
-100.062 -993.034 -1624 33 37 32
-96.6236 -994.779 -1627 33 37 32
-93.2875 -997.751 -1632 33 37 33
-89.7652 -998.891 -1634 34 38 35
-86.393 -1001.87 -1639 36 40 37
-82.949 -1004.24 -1643 36 40 37
-79.5845 -1007.83 -1649 36 40 37
-76.2861 -1012.65 -1657 38 42 37
-73.1721 -1020.53 -1670 36 39 34
-70.5 -1035.74 -1695 34 37 33
-68.1113 -1057.06 -1730 34 37 34
-65.902 -1083.89 -1774 34 37 34
-63.0089 -1102.16 -1804 39 42 39
-59.6233 -1113.71 -1823 39 42 39
-55.7576 -1117.32 -1829 38 42 41
-51.9506 -1122.77 -1838 40 43 40
-48.026 -1126.39 -1844 39 42 39
-44.0991 -1130.63 -1851 40 43 40
-40.0767 -1133.03 -1855 41 44 37
-36.1727 -1139.72 -1866 43 46 41
-32.306 -1149.46 -1882 51 52 52
-28.3985 -1160.43 -1900 57 55 53
-24.4495 -1173.23 -1921 55 51 50
-246.801 -1053.22 -1705 34 37 32
-241.227 -1045.58 -1693 36 36 32
-236.692 -1042.28 -1688 38 38 34
-231.491 -1035.89 -1678 37 40 34
-226.474 -1030.13 -1669 38 39 32
-220.566 -1020.05 -1653 39 40 34
-215.913 -1015.53 -1646 37 40 35
-211.036 -1009.78 -1637 37 40 35
-206.075 -1003.42 -1627 37 40 35
-201.659 -999.537 -1621 37 40 35
-198.004 -999.354 -1621 37 40 37
-193.753 -996.093 -1616 37 41 38
-189.761 -994.07 -1613 39 43 40
-185.784 -992.05 -1610 39 43 40
-182.049 -991.266 -1609 38 42 39
-178.099 -989.254 -1606 38 42 40
-174.055 -986.63 -1602 39 43 42
-170.35 -985.857 -1601 39 43 40
-166.652 -985.088 -1600 39 43 40
-162.857 -983.707 -1598 40 44 41
-158.974 -981.714 -1595 41 45 42
-155.3 -980.956 -1594 41 45 40
-151.442 -978.97 -1591 40 44 38
-147.785 -978.219 -1590 40 44 37
-144.134 -977.471 -1589 40 44 41
-140.488 -976.727 -1588 39 43 41
-137.28 -979.061 -1592 40 44 43
-133.887 -980.167 -1594 38 42 41
-130.814 -983.737 -1600 35 39 36
-127.556 -986.078 -1604 34 38 35
-124.282 -988.423 -1608 36 40 37
-121.14 -992 -1614 37 41 38
-117.61 -992.506 -1615 38 42 38
-114.358 -995.473 -1620 38 41 36
-110.675 -994.757 -1619 38 41 36
-107.063 -994.658 -1619 35 38 33
-103.581 -995.791 -1621 33 36 31
-100.152 -997.542 -1624 32 36 31
-96.7704 -999.91 -1628 35 39 34
-93.4862 -1003.51 -1634 34 38 33
-90.0112 -1005.27 -1637 33 37 34
-86.5239 -1007.03 -1640 34 38 35
