ply
format ascii 1.0
comment Created by Open3D
element vertex 1393
property double x
property double y
property double z
property uchar red
property uchar green
property uchar blue
end_header
-851.557 55.7848 -1786 102 85 77
-846.699 55.7155 -1785 102 83 77
-841.383 55.6154 -1783 101 83 76
-836.555 55.5467 -1782 101 85 77
-832.208 55.5094 -1782 100 84 76
-662.545 54.3267 -1787 138 114 104
-658.497 54.2985 -1787 143 117 107
-654.455 54.2705 -1787 145 116 107
-649.692 54.182 -1785 146 119 108
-645.305 54.124 -1784 150 122 112
-640.21 54.0058 -1781 155 126 116
-635.135 53.8877 -1778 159 129 118
-632.209 53.9517 -1781 162 133 121
-627.864 53.8948 -1780 162 135 122
-623.18 53.8078 -1778 166 137 125
-618.858 53.7512 -1777 170 141 128
-614.892 53.7251 -1777 173 144 130
-609.901 53.6086 -1774 174 145 131
-605.954 53.5828 -1774 176 146 133
-602.691 53.6178 -1776 177 146 135
-598.75 53.5925 -1776 181 150 139
-594.815 53.5674 -1776 182 150 139
-591.218 53.5726 -1777 182 151 140
-587.292 53.5479 -1777 183 151 138
-582.386 53.4329 -1774 186 152 139
-578.803 53.4386 -1775 192 153 140
-573.602 53.2941 -1771 195 156 141
-569.388 53.2401 -1770 197 158 143
-565.184 53.1863 -1769 196 158 143
-562.259 53.2529 -1772 197 159 144
-559.011 53.2896 -1774 196 159 144
-556.072 53.3564 -1777 192 155 135
-552.503 53.3633 -1778 190 153 133
-549.244 53.4004 -1780 187 150 130
-545.981 53.4375 -1782 187 150 130
-542.41 53.445 -1783 183 146 125
-539.141 53.4824 -1785 181 144 123
-535.569 53.49 -1786 175 141 123
-531.997 53.4978 -1787 174 139 121
-528.426 53.5058 -1788 173 138 119
-525.442 53.5737 -1791 170 136 117
-521.867 53.5819 -1792 170 136 117
-518.292 53.5903 -1793 171 136 117
-515.292 53.6586 -1796 173 134 117
-511.713 53.6673 -1797 174 133 116
-507.57 53.6165 -1796 172 132 115
-503.997 53.6254 -1797 173 134 116
-500.702 53.6644 -1799 172 133 115
-496.298 53.5842 -1797 171 132 113
-491.907 53.5042 -1795 172 134 114
-488.889 53.5735 -1798 170 134 114
-484.513 53.494 -1796 171 134 117
-481.756 53.5933 -1800 174 137 121
-477.923 53.5735 -1800 175 137 124
-474.622 53.6136 -1802 174 136 122
-470.794 53.5942 -1802 175 138 123
-467.23 53.6047 -1803 177 140 123
-464.179 53.6749 -1806 177 140 123
-460.355 53.656 -1806 181 143 124
-457.293 53.7263 -1809 182 144 123
-452.217 53.5593 -1804 184 146 125
-448.409 53.541 -1804 187 148 128
-444.358 53.4931 -1803 188 151 129
-440.804 53.5047 -1804 186 150 127
-437.008 53.4869 -1804 186 150 126
-434.176 53.5878 -1808 187 152 127
-430.14 53.5405 -1807 175 144 119
-426.113 53.4935 -1806 164 137 108
-421.859 53.4171 -1804 167 141 110
-416.922 53.252 -1799 243 230 193
-412.01 53.0872 -1794 248 238 198
-406.439 52.834 -1786 242 236 192
-402.259 52.7584 -1784 236 232 182
-398.537 52.7422 -1784 230 226 175
-394.818 52.7263 -1784 227 220 168
-391.103 52.7104 -1784 219 213 158
-388.042 52.7833 -1787 206 201 145
-384.757 52.8267 -1789 196 191 135
-380.828 52.7818 -1788 193 189 133
-377.118 52.7665 -1788 207 204 150
-373.201 52.7218 -1787 236 233 182
-368.672 52.5889 -1783 253 250 199
-364.572 52.5152 -1781 255 252 206
-360.483 52.4417 -1779 252 249 204
-356.807 52.4272 -1779 239 235 191
-352.737 52.3541 -1777 222 220 170
-348.481 52.2516 -1774 221 220 169
-344.824 52.2377 -1774 229 227 173
-340.593 52.1356 -1771 236 235 184
-336.948 52.122 -1771 243 241 193
-333.306 52.1087 -1771 248 246 202
-329.852 52.1247 -1772 251 248 207
-325.845 52.0528 -1770 252 249 214
-322.214 52.0399 -1770 253 250 214
-318.224 51.9683 -1768 253 250 214
-314.424 51.9262 -1767 255 252 220
-310.806 51.9137 -1767 255 252 223
-306.843 51.8427 -1765 254 252 227
-303.063 51.8012 -1764 254 252 229
-299.459 51.7891 -1764 255 253 231
-296.025 51.8066 -1765 254 253 235
-292.258 51.7655 -1764 253 252 237
-288.661 51.7539 -1764 254 254 241
-285.229 51.7719 -1765 253 254 246
-281.475 51.7313 -1764 253 254 247
-277.728 51.6909 -1763 253 253 251
-273.987 51.6505 -1762 253 253 250
-270.253 51.6104 -1761 253 253 249
-266.525 51.5704 -1760 253 253 253
-263.102 51.5892 -1761 253 253 252
-259.824 51.6375 -1763 253 253 251
-256.104 51.598 -1762 252 253 248
-252.678 51.6171 -1763 252 253 246
-249.249 51.6365 -1764 253 253 249
-245.539 51.5974 -1763 254 254 251
-241.973 51.5878 -1763 253 253 253
-238.409 51.5783 -1763 253 253 250
-234.981 51.5982 -1764 253 253 249
-231.418 51.589 -1764 252 253 245
-227.729 51.5506 -1763 252 252 242
-224.3 51.5709 -1764 252 252 239
-220.868 51.5913 -1765 250 254 238
-217.188 51.5534 -1764 250 254 238
-213.756 51.5742 -1765 251 255 239
-210.203 51.5658 -1765 250 254 238
-206.417 51.4992 -1763 250 253 236
-202.641 51.4327 -1761 250 252 227
-199.214 51.454 -1762 250 252 225
-195.562 51.417 -1761 252 251 210
-192.243 51.4677 -1763 247 247 203
-188.918 51.5186 -1765 241 240 194
-185.691 51.5988 -1768 234 232 184
-182.248 51.6207 -1769 229 226 178
-178.802 51.6428 -1770 230 225 179
-175.353 51.665 -1771 233 228 182
-171.805 51.6582 -1771 236 232 186
-168.258 51.6516 -1771 245 242 197
-164.62 51.6158 -1770 250 247 202
-161.169 51.6386 -1771 248 248 204
-157.804 51.6906 -1773 247 244 199
-154.433 51.7428 -1775 231 226 180
-150.97 51.7659 -1776 194 192 139
-147.504 51.7892 -1777 169 166 114
-144.116 51.8418 -1779 145 137 90
-140.405 51.7779 -1777 112 100 62
-136.78 51.7434 -1776 83 70 37
-133.086 51.6799 -1774 72 57 37
-129.547 51.6747 -1774 77 63 42
-125.44 51.4367 -1766 77 65 42
-121.504 51.257 -1760 86 73 51
-117.661 51.1068 -1755 94 79 59
-114.163 51.1022 -1755 104 89 62
-110.414 50.9814 -1751 110 95 69
-106.988 51.0062 -1752 111 93 69
-103.617 51.0603 -1754 120 107 80
-100.41 51.2019 -1759 116 104 77
-97.1846 51.3436 -1764 90 79 46
-94.3646 51.7182 -1777 94 83 52
-91.1869 51.9182 -1784 82 71 41
-87.7856 52.002 -1787 57 49 19
-84.3731 52.086 -1790 93 86 55
-80.9041 52.141 -1792 125 122 81
-77.2552 52.0797 -1790 159 156 114
-73.7796 52.135 -1792 200 198 155
-70.375 52.2485 -1796 234 233 197
-66.9923 52.3913 -1801 253 252 217
-63.4142 52.3887 -1801 252 251 219
-59.9361 52.4735 -1804 253 253 222
-56.2905 52.4131 -1802 252 252 221
-52.7119 52.411 -1802 252 252 222
-49.1881 52.4671 -1804 252 252 221
-45.7327 52.6107 -1809 252 253 217
-42.2112 52.6962 -1812 252 252 216
-38.6781 52.7819 -1815 251 250 214
-35.1334 52.8677 -1818 250 250 205
-31.5424 52.8955 -1819 244 244 197
-27.9169 52.8652 -1818 239 237 186
-24.309 52.8642 -1818 238 236 186
-20.69 52.8343 -1817 242 240 191
-17.1032 52.8917 -1819 247 245 198
-13.5013 52.9202 -1820 252 249 204
-9.90634 53.007 -1823 254 251 208
-6.29957 53.0939 -1826 255 251 207
-2.67801 53.1228 -1827 253 250 205
0.946458 53.0937 -1826 253 250 204
4.58448 53.2682 -1832 245 242 192
8.22392 53.2976 -1833 224 221 169
11.8868 53.4143 -1837 208 204 149
15.5741 53.5602 -1842 199 195 141
19.2501 53.619 -1844 200 197 141
22.8969 53.5908 -1843 209 204 148
26.5398 53.5627 -1842 219 214 157
30.1791 53.5347 -1841 228 222 167
33.7962 53.4778 -1839 235 228 174
37.4871 53.5373 -1841 236 229 177
41.2533 53.6843 -1846 240 230 181
45.0397 53.8314 -1851 248 237 190
48.8726 54.0077 -1857 221 207 166
52.7297 54.1842 -1863 202 183 148
56.4899 54.2445 -1865 217 194 165
60.1294 54.1886 -1863 221 193 170
63.7615 54.133 -1861 223 194 172
67.4586 54.1355 -1861 222 192 171
71.118 54.1091 -1860 221 191 172
74.8946 54.1701 -1862 221 191 173
78.5956 54.1732 -1862 218 186 171
82.3854 54.2345 -1864 219 184 167
86.1839 54.296 -1866 221 182 164
89.8464 54.2703 -1865 222 180 165
93.5558 54.2739 -1865 222 181 166
97.2139 54.2485 -1864 218 179 164
100.923 54.2525 -1864 215 175 162
104.577 54.2274 -1863 215 175 163
108.343 54.2606 -1864 214 176 162
112.055 54.2649 -1864 212 174 162
115.83 54.2985 -1865 211 173 161
119.545 54.3032 -1865 207 170 158
123.195 54.2788 -1864 207 171 158
127.047 54.3419 -1866 204 169 157
130.767 54.347 -1866 206 167 151
134.488 54.3522 -1866 208 168 150
137.914 54.241 -1862 204 165 147
141.782 54.3048 -1864 201 163 145
145.581 54.3395 -1865 201 163 145
149.305 54.3454 -1865 199 162 145
153.03 54.3513 -1865 198 160 144
156.84 54.3865 -1866 200 159 144
160.312 54.3053 -1863 199 160 144
163.948 54.2825 -1862 201 163 147
167.673 54.2891 -1862 203 162 147
171.306 54.2665 -1861 203 162 146
174.937 54.2442 -1860 202 161 146
178.95 54.3386 -1863 204 166 153
182.583 54.3166 -1862 203 165 152
186.115 54.2655 -1860 201 164 151
190.047 54.3313 -1862 203 165 150
193.782 54.3389 -1862 206 166 151
197.412 54.3174 -1861 206 164 148
201.147 54.3252 -1861 202 162 146
204.994 54.3624 -1862 201 162 146
208.511 54.3121 -1860 196 158 143
212.478 54.3789 -1862 196 158 142
216.57 54.4749 -1865 195 157 141
220.558 54.5419 -1867 191 153 136
224.917 54.6969 -1872 192 154 137
229.175 54.8228 -1876 191 153 136
232.831 54.8026 -1875 190 153 136
236.611 54.8119 -1875 191 154 137
240.52 54.8506 -1876 188 153 136
244.176 54.8309 -1875 182 147 130
248.358 54.9284 -1878 180 145 128
253.36 55.2016 -1887 179 143 129
257.582 55.2995 -1890 175 140 125
261.542 55.339 -1891 172 138 123
265.79 55.4373 -1894 169 133 119
270.336 55.5942 -1899 165 129 115
274.76 55.7222 -1903 166 130 115
278.617 55.7331 -1903 158 132 119
282.773 55.8029 -1905 155 129 116
286.94 55.8728 -1907 152 126 113
291.117 55.9429 -1909 150 125 112
295.46 56.0424 -1912 150 125 112
299.66 56.1129 -1914 147 122 110
304.347 56.2715 -1919 144 120 109
421.724 57.6199 -1951 107 85 81
425.128 57.5484 -1948 111 87 83
428.522 57.477 -1945 112 90 83
431.907 57.4058 -1942 118 96 84
435.06 57.3051 -1938 139 116 102
437.972 57.1749 -1933 160 134 119
441.554 57.1335 -1931 179 149 132
445.362 57.1219 -1930 189 160 144
449.868 57.1993 -1932 199 170 157
453.446 57.1583 -1930 204 175 162
457.494 57.1768 -1930 208 180 166
461.546 57.1955 -1930 213 184 171
465.119 57.1551 -1928 214 185 173
469.175 57.1741 -1928 220 187 173
473.48 57.223 -1929 223 188 174
478.536 57.3611 -1933 214 185 170
483.863 57.5291 -1938 211 173 156
488.46 57.6083 -1940 205 166 147
494.847 57.8957 -1949 210 170 148
500.252 58.0645 -1954 211 165 151
506.457 58.323 -1962 190 143 127
512.18 58.5221 -1968 157 110 93
-639.752 50.5769 -1791 137 115 107
-636.087 50.5799 -1792 142 120 110
-631.366 50.4985 -1790 146 122 112
-625.607 50.3326 -1785 150 124 114
-620.574 50.2234 -1782 151 125 114
-616.597 50.1991 -1782 154 128 116
-610.908 50.0342 -1777 155 129 118
-606.612 49.9821 -1776 157 129 119
-602.666 49.9583 -1776 160 130 120
-599.063 49.9628 -1777 164 133 124
-595.461 49.9676 -1778 164 134 124
-592.525 50.0285 -1781 167 136 126
-588.59 50.0054 -1781 170 138 125
-584.661 49.9824 -1781 172 139 126
-580.41 49.9316 -1780 177 139 125
-574.55 49.7408 -1774 178 140 124
-570.33 49.6904 -1773 179 141 125
-567.079 49.7243 -1775 180 142 126
-562.554 49.6463 -1773 179 141 126
-559.304 49.6805 -1775 177 140 125
-556.988 49.7987 -1780 174 138 118
-553.413 49.805 -1781 175 139 119
-549.53 49.7836 -1781 172 136 116
-546.265 49.8183 -1783 169 133 113
-543.3 49.881 -1786 166 130 111
-540.328 49.9438 -1789 165 130 111
-536.747 49.9508 -1790 160 127 110
-532.869 49.9302 -1790 160 127 111
-528.996 49.9097 -1790 158 126 110
-525.714 49.945 -1792 155 122 107
-522.428 49.9806 -1794 153 120 105
-518.85 49.9884 -1795 155 122 107
-515.558 50.0241 -1797 159 123 109
-511.978 50.0322 -1798 160 124 109
-508.398 50.0404 -1799 159 124 109
-505.099 50.0765 -1801 159 123 108
-501.517 50.085 -1802 158 123 107
-497.659 50.0659 -1802 159 124 106
-493.532 50.0191 -1801 160 125 107
-490.501 50.0836 -1804 158 124 105
-485.842 49.9816 -1801 159 124 108
-482.004 49.9631 -1801 161 126 111
-479.232 50.0557 -1805 162 127 114
-474.867 49.982 -1803 163 128 114
-471.298 49.9916 -1804 165 130 115
-467.988 50.0292 -1806 170 132 116
-465.959 50.2052 -1813 172 134 117
-460.846 50.0492 -1808 173 134 116
-457.78 50.1147 -1811 172 132 113
-452.7 49.9591 -1806 174 135 115
-449.137 49.9696 -1807 177 137 118
-444.094 49.8144 -1802 178 140 119
-441.52 49.9358 -1807 177 141 119
-437.96 49.9467 -1808 178 140 116
-434.639 49.9855 -1810 175 139 114
-431.313 50.0243 -1812 170 137 111
-427.04 49.9528 -1810 160 130 102
-422.544 49.854 -1807 147 118 90
-417.138 49.645 -1800 216 202 166
-412.453 49.5191 -1796 250 240 202
-407.106 49.3106 -1789 243 236 194
-402.469 49.1851 -1785 237 233 184
-398.968 49.1976 -1786 232 229 178
-394.802 49.1275 -1784 229 222 170
-391.307 49.1403 -1785 223 217 164
-388.027 49.1806 -1787 214 209 155
-384.742 49.2211 -1789 200 195 138
-381.026 49.2068 -1789 193 189 132
-377.314 49.1925 -1789 192 190 133
-373.396 49.1509 -1788 206 203 149
-369.072 49.0545 -1785 235 232 178
-364.763 48.9583 -1782 250 247 197
-360.875 48.9173 -1781 255 254 207
-356.793 48.849 -1779 249 246 201
-352.723 48.7808 -1777 231 229 178
-349.057 48.7676 -1777 223 221 169
-345.005 48.6997 -1775 225 224 169
-340.772 48.6046 -1772 230 229 177
-336.935 48.5645 -1771 237 235 186
-333.293 48.5521 -1771 245 243 198
-329.654 48.5397 -1771 250 248 205
-325.649 48.4727 -1769 252 249 214
-322.383 48.5154 -1771 253 250 214
-318.212 48.4212 -1768 254 251 214
-314.234 48.3547 -1766 254 251 219
-310.266 48.2884 -1764 255 252 222
-306.31 48.2221 -1762 254 253 226
-302.364 48.156 -1760 254 252 228
-298.938 48.1722 -1761 255 253 229
-295.342 48.1613 -1761 254 253 233
-291.75 48.1503 -1761 254 253 235
-288.487 48.1942 -1763 255 254 238
-284.894 48.1836 -1763 254 254 244
-281.305 48.1731 -1763 254 254 245
-277.245 48.0808 -1760 253 253 250
-273.666 48.0706 -1760 253 253 250
-270.089 48.0606 -1760 253 253 250
-266.514 48.0506 -1760 253 253 253
-262.793 48.0135 -1759 253 253 253
-259.667 48.0857 -1762 253 253 251
-255.949 48.0489 -1761 252 252 248
-252.238 48.0122 -1760 252 252 247
-248.957 48.0575 -1762 253 253 249
-245.252 48.0212 -1761 253 253 250
-241.827 48.0395 -1762 253 253 252
-238.265 48.0306 -1762 253 253 249
-234.838 48.0492 -1763 253 253 248
-231.278 48.0406 -1763 252 253 245
-227.591 48.0048 -1762 251 252 243
-224.291 48.051 -1764 251 252 240
-220.735 48.0428 -1764 250 254 238
-217.057 48.0075 -1763 249 254 238
-213.506 47.9996 -1763 250 254 239
-210.076 48.019 -1764 250 254 239
-206.175 47.9297 -1761 250 253 238
-202.403 47.8677 -1759 251 251 232
-199.093 47.9148 -1761 251 251 231
-195.555 47.9076 -1761 252 252 217
-192.236 47.9549 -1763 251 251 213
-188.804 47.9751 -1764 248 249 208
-185.474 48.0226 -1766 244 244 200
-181.932 48.0159 -1766 240 239 195
-178.593 48.0636 -1768 241 238 197
-175.05 48.0571 -1768 244 240 199
-171.411 48.0236 -1767 248 244 203
-167.967 48.0446 -1768 251 249 210
-164.335 48.0113 -1767 252 251 212
-160.981 48.0597 -1769 251 252 214
-157.531 48.0811 -1770 251 250 209
-154.166 48.1297 -1772 240 237 195
-150.794 48.1784 -1774 201 201 149
-147.249 48.173 -1774 201 199 147
-143.786 48.1948 -1775 167 160 112
-140.084 48.1353 -1773 119 109 68
-136.621 48.1573 -1774 84 72 35
-132.781 48.0439 -1770 74 59 36
-129.104 47.9848 -1768 74 59 37
-125.364 47.8987 -1765 79 66 42
-121.155 47.6229 -1755 89 74 52
-117.589 47.5914 -1754 104 89 67
-114.224 47.6414 -1756 110 93 66
-110.473 47.5288 -1752 105 88 62
-107.045 47.552 -1753 108 90 66
-103.908 47.7109 -1759 117 105 79
-100.635 47.8157 -1763 100 90 63
-97.3462 47.9205 -1767 77 67 36
-94.361 48.1882 -1777 83 73 42
-91.0301 48.2933 -1781 61 51 21
-87.6841 48.3985 -1785 68 61 28
-84.1814 48.4225 -1786 131 125 91
-80.7205 48.4737 -1788 164 162 118
-77.166 48.4709 -1788 188 186 143
-73.7357 48.5494 -1791 226 224 182
-70.3332 48.6552 -1795 247 247 211
-66.9154 48.7611 -1799 252 253 218
-63.3413 48.7587 -1799 253 252 222
-59.7345 48.7294 -1798 253 252 221
-56.1947 48.7544 -1799 252 252 220
-52.5929 48.7253 -1798 252 252 221
-49.1317 48.8318 -1802 252 252 220
-45.6551 48.9385 -1806 253 252 216
-42.1397 49.0182 -1809 252 251 214
-38.6553 49.1522 -1814 251 251 212
-35.0934 49.2051 -1816 250 250 204
-31.4891 49.2039 -1816 244 243 196
-27.9005 49.2299 -1817 239 237 186
-24.3215 49.2831 -1819 239 237 187
-20.712 49.2823 -1819 244 242 193
-17.112 49.3087 -1820 250 248 200
-13.5082 49.3353 -1821 253 250 204
-9.90597 49.389 -1823 254 250 207
-6.29588 49.4429 -1825 254 250 204
-2.67791 49.4969 -1827 252 249 202
0.946938 49.4969 -1827 241 238 189
4.58431 49.6325 -1832 223 220 168
8.23707 49.7411 -1836 205 202 147
11.8993 49.8227 -1839 198 193 138
15.582 49.9316 -1843 201 196 141
19.2285 49.9051 -1842 204 201 147
22.8711 49.8788 -1841 214 210 155
26.51 49.8526 -1840 224 219 164
30.1452 49.8266 -1839 229 222 170
33.7949 49.8277 -1839 235 228 176
37.5061 49.9103 -1842 239 232 180
41.2518 50.0201 -1846 241 230 182
45.038 50.1572 -1851 239 226 180
48.8707 50.3215 -1857 197 180 142
52.6994 50.4588 -1862 200 178 147
56.4575 50.515 -1864 213 187 161
60.1272 50.49 -1863 214 183 163
63.7933 50.4652 -1862 215 183 163
67.5285 50.4947 -1863 216 181 161
71.1535 50.443 -1861 214 179 161
74.8918 50.4729 -1862 214 179 161
78.7191 50.557 -1865 212 177 161
82.5149 50.6141 -1867 213 175 157
86.273 50.6443 -1868 215 172 152
89.9875 50.6475 -1868 213 170 152
93.7028 50.6508 -1868 212 169 151
97.3667 50.6272 -1867 211 168 152
101.027 50.6037 -1866 209 166 151
104.741 50.6074 -1866 208 165 150
108.63 50.6928 -1869 202 161 147
112.231 50.6425 -1867 202 161 146
115.887 50.6195 -1866 201 160 145
119.604 50.6238 -1866 196 157 142
123.323 50.6283 -1866 193 155 140
126.974 50.6058 -1865 191 154 140
130.622 50.5833 -1864 194 153 135
134.555 50.6696 -1867 195 152 132
138.205 50.6474 -1866 191 151 132
142.157 50.734 -1869 187 148 129
145.966 50.7664 -1870 185 147 128
149.619 50.7446 -1869 183 146 129
153.188 50.6959 -1867 183 145 128
156.918 50.7016 -1867 186 144 128
160.134 50.5445 -1861 184 144 127
163.942 50.5775 -1862 184 145 128
167.666 50.5836 -1862 184 143 127
171.392 50.5898 -1862 183 141 125
175.213 50.6233 -1863 184 143 127
179.327 50.7385 -1867 182 145 133
182.87 50.6908 -1865 184 147 135
186.708 50.7248 -1866 184 147 135
190.551 50.7588 -1867 185 147 134
194.191 50.7387 -1866 184 145 132
197.298 50.5827 -1860 183 142 129
201.356 50.6716 -1863 182 140 123
205.207 50.7064 -1864 184 141 123
208.615 50.6324 -1861 179 139 122
212.812 50.7489 -1865 178 138 120
217.143 50.8929 -1870 178 138 119
221.141 50.9554 -1872 173 136 117
225.509 51.0997 -1877 172 135 117
229.533 51.1625 -1879 173 137 120
233.195 51.1438 -1878 172 139 121
237.233 51.207 -1880 172 139 122
241.024 51.2158 -1880 168 135 120
245.078 51.2792 -1882 165 132 117
249.142 51.3429 -1884 166 133 118
254.155 51.5974 -1893 163 129 116
258.39 51.6887 -1896 154 122 108
262.777 51.8073 -1900 151 118 105
267.464 51.9807 -1906 153 119 106
272.318 52.1816 -1913 151 117 103
280.949 52.3657 -1919 134 113 104
431.59 53.9395 -1959 101 84 80
434.337 53.7906 -1953 106 88 80
437.736 53.7244 -1950 114 95 86
440.221 53.5481 -1943 124 102 92
444.052 53.5372 -1942 137 113 97
447.421 53.4713 -1939 145 120 106
451.48 53.4883 -1939 163 136 126
455.073 53.4503 -1937 174 147 137
458.661 53.4123 -1935 176 149 139
462.245 53.3746 -1933 183 156 148
466.307 53.3923 -1933 188 161 152
469.643 53.3271 -1930 194 164 153
474.443 53.4279 -1933 195 164 152
479.508 53.5566 -1937 193 164 152
495.589 54.0272 -1952 192 152 134
506.696 54.3699 -1963 206 160 145
-604.097 46.6943 -1792 148 118 110
-600.462 46.6984 -1793 150 119 111
-596.162 46.6506 -1792 153 122 113
-591.212 46.551 -1789 156 122 110
-587.593 46.5557 -1790 157 122 109
-582.997 46.4825 -1788 161 124 109
-576.796 46.2796 -1781 165 127 111
-571.917 46.1809 -1778 166 128 111
-568.335 46.1862 -1779 163 125 109
-564.754 46.1917 -1780 161 124 108
-561.173 46.1973 -1781 162 125 110
-558.845 46.3068 -1786 161 125 105
-555.567 46.3386 -1788 158 122 102
-551.67 46.3186 -1788 156 120 100
-549.308 46.4284 -1793 153 119 99
-545.409 46.4087 -1793 149 115 96
-541.817 46.415 -1794 145 112 94
-538.826 46.4733 -1797 144 113 99
-535.826 46.5316 -1800 144 113 100
-532.227 46.5384 -1801 142 112 100
-528.628 46.5452 -1802 138 109 98
-524.738 46.5264 -1802 136 108 97
-521.721 46.5851 -1805 138 107 97
-503.725 46.6227 -1810 139 110 98
-499.85 46.6048 -1810 143 113 98
-495.431 46.5357 -1808 144 113 98
-492.114 46.5697 -1810 143 113 96
-487.982 46.5265 -1809 144 114 98
-484.662 46.5608 -1811 147 116 101
-480.542 46.5179 -1810 147 117 103
-477.483 46.5781 -1813 150 119 105
-473.893 46.5869 -1814 152 120 107
-470.044 46.5702 -1814 157 120 107
-467.227 46.6564 -1818 160 123 109
-462.868 46.5887 -1816 161 122 108
-458.016 46.4698 -1812 162 123 108
-453.686 46.4024 -1810 165 127 111
-450.114 46.4121 -1811 167 127 113
-446.049 46.3707 -1810 168 129 114
-442.725 46.4063 -1812 168 131 115
-439.155 46.4164 -1813 172 133 113
-435.583 46.4267 -1814 170 131 110
-431.536 46.3859 -1813 164 129 105
-427.968 46.3964 -1814 156 124 97
-423.932 46.3559 -1813 146 115 88
-418.049 46.111 -1804 183 167 134
-412.668 45.9176 -1797 250 238 202
-407.319 45.7244 -1790 244 236 196
-402.905 45.6336 -1787 237 234 186
-399.177 45.6197 -1787 235 232 182
-395.231 45.5802 -1786 229 224 171
-391.512 45.5666 -1786 221 216 164
-388.23 45.6039 -1788 220 214 164
-384.943 45.6414 -1790 210 205 148
-380.8 45.5772 -1788 198 194 136
-377.722 45.6404 -1791 188 186 126
-373.8 45.6018 -1790 187 185 127
-369.472 45.5125 -1787 203 201 144
-364.954 45.3979 -1783 229 226 172
-361.064 45.3598 -1782 247 244 193
-356.781 45.271 -1779 254 251 203
-353.107 45.2587 -1779 242 240 189
-349.045 45.1956 -1777 229 227 175
-344.993 45.1327 -1775 224 223 169
-340.568 45.0192 -1771 227 225 173
-336.923 45.0075 -1771 234 232 181
-332.905 44.945 -1769 241 239 193
-329.269 44.9336 -1769 248 246 203
-325.637 44.9223 -1769 251 248 213
-322.008 44.911 -1769 252 249 212
-317.841 44.8239 -1766 254 251 214
-314.222 44.813 -1766 254 251 217
-310.255 44.7515 -1764 254 252 220
-306.299 44.6901 -1762 254 253 225
-302.525 44.6542 -1761 254 252 227
-298.757 44.6186 -1760 254 252 227
-295.332 44.6336 -1761 254 254 232
-291.739 44.6236 -1761 254 254 233
-288.149 44.6136 -1761 255 254 236
-284.561 44.6037 -1761 255 254 241
-280.976 44.594 -1761 255 254 243
-277.077 44.5337 -1759 253 253 249
-273.5 44.5244 -1759 253 253 250
-269.926 44.515 -1759 253 253 251
-266.202 44.4805 -1758 253 253 253
-262.335 44.4209 -1756 253 253 253
-258.921 44.4372 -1757 253 253 251
-255.213 44.4031 -1756 253 253 250
-251.799 44.4197 -1757 253 253 249
-248.524 44.4618 -1759 253 253 249
-245.103 44.4786 -1760 253 253 250
-241.818 44.5208 -1762 253 253 251
-238.257 44.5126 -1762 253 254 248
-234.83 44.5298 -1763 253 254 247
-231.008 44.4713 -1761 252 253 245
-227.454 44.4634 -1761 251 252 243
-223.774 44.4305 -1760 252 253 241
-220.477 44.4734 -1762 250 254 239
-216.803 44.4407 -1761 249 254 239
-213.256 44.4333 -1761 250 254 239
-209.83 44.4514 -1762 251 254 239
-205.934 44.3686 -1759 251 252 238
-202.396 44.3617 -1759 252 251 237
-199.199 44.4305 -1762 252 251 236
-195.548 44.3985 -1761 252 252 224
-192.12 44.4171 -1762 252 252 221
-188.69 44.436 -1763 250 251 216
-185.258 44.4548 -1764 249 249 212
-181.616 44.4233 -1763 248 248 210
-178.183 44.4424 -1764 248 247 212
-174.845 44.4868 -1766 250 248 213
-171.404 44.506 -1767 252 249 214
-167.866 44.5004 -1767 252 251 219
-164.422 44.5199 -1768 251 250 218
-160.975 44.5395 -1769 251 251 219
-157.615 44.5845 -1771 251 251 215
-154.073 44.5792 -1771 244 244 206
-150.703 44.6244 -1773 218 219 169
-146.995 44.569 -1771 226 225 176
-143.538 44.5892 -1772 194 188 140
-139.921 44.5592 -1771 142 133 90
-136.385 44.5546 -1771 97 87 47
-132.626 44.4746 -1768 90 75 48
-129.099 44.4701 -1768 84 68 42
-125.218 44.3401 -1763 81 65 41
-121.15 44.1347 -1755 92 76 52
-117.652 44.1306 -1755 102 86 62
-114.155 44.1267 -1755 112 94 66
-110.595 44.0978 -1754 109 91 64
-107.163 44.1193 -1755 112 94 70
-103.905 44.2163 -1759 107 96 70
-100.745 44.3636 -1765 84 75 49
-97.5081 44.4859 -1770 74 65 35
-94.3046 44.6335 -1776 84 75 45
-90.9758 44.7309 -1780 71 62 32
-87.5336 44.7781 -1782 116 109 74
-84.0369 44.8004 -1783 173 166 130
-80.537 44.8227 -1784 191 189 145
-77.0338 44.8452 -1785 218 217 175
-73.6508 44.943 -1789 244 243 203
-70.2132 45.016 -1792 251 252 216
-66.7643 45.089 -1795 254 255 220
-63.2334 45.112 -1796 254 253 223
-59.7324 45.1601 -1798 252 251 220
-56.1303 45.1331 -1797 252 252 220
-52.5033 45.081 -1795 253 252 220
-49.0482 45.1798 -1799 253 252 219
-45.5524 45.2535 -1802 252 252 214
-42.0683 45.3525 -1806 251 251 212
-38.5474 45.4265 -1809 250 250 210
-35.0535 45.5508 -1814 248 248 202
-31.4707 45.5748 -1815 242 242 194
-27.8842 45.5989 -1816 238 236 185
-24.3073 45.6482 -1818 238 236 185
-20.7112 45.6726 -1819 245 243 193
-17.1114 45.6971 -1820 251 249 200
-13.5151 45.7468 -1822 253 251 204
-9.91649 45.8217 -1825 252 249 206
-6.29911 45.8465 -1826 251 248 199
-2.67929 45.8966 -1828 243 240 190
0.948976 45.9719 -1831 223 220 167
4.58915 46.0473 -1834 205 201 148
8.24126 46.1229 -1837 197 193 139
11.9118 46.2236 -1841 196 191 138
15.5561 46.199 -1840 204 200 146
19.2174 46.2247 -1841 207 204 151
22.8703 46.2254 -1841 217 212 159
26.4947 46.176 -1839 227 222 169
30.1441 46.177 -1839 231 224 172
33.8121 46.2032 -1840 235 229 177
37.5048 46.2546 -1842 239 233 181
41.2727 46.3815 -1847 244 234 186
45.0364 46.4834 -1851 222 209 164
48.8954 46.6608 -1858 180 160 126
52.7542 46.8131 -1864 197 172 143
56.5161 46.8652 -1866 205 175 152
60.2541 46.8923 -1867 208 173 155
63.9624 46.8944 -1867 207 171 153
67.6711 46.8966 -1867 208 169 151
71.3422 46.8738 -1866 205 166 148
75.0903 46.9014 -1867 205 166 147
78.8429 46.9293 -1868 201 164 147
82.6004 46.9571 -1869 199 161 143
86.3161 46.96 -1869 199 159 139
89.9844 46.9378 -1868 199 156 139
93.7998 46.9912 -1870 198 155 139
97.4154 46.9441 -1868 197 154 137
101.24 46.9977 -1870 197 154 138
104.906 46.9761 -1869 196 152 137
108.8 47.0552 -1872 192 152 134
112.407 47.0086 -1870 191 150 132
116.194 47.0376 -1871 189 147 130
119.793 46.9913 -1869 186 146 129
123.516 46.9954 -1869 183 144 126
127.173 46.9746 -1868 180 142 124
130.967 47.0041 -1869 180 138 119
134.695 47.0085 -1869 177 134 114
138.571 47.0634 -1871 174 134 115
142.38 47.0934 -1872 172 133 115
145.961 47.048 -1870 170 133 115
149.774 47.0782 -1871 169 132 116
153.511 47.0833 -1871 167 129 114
157.081 47.0383 -1869 168 129 112
160.644 46.9933 -1867 166 129 112
164.377 46.9987 -1867 167 130 114
167.931 46.9541 -1865 165 129 115
171.754 46.9851 -1866 163 127 113
175.583 47.0161 -1867 163 127 113
179.609 47.0977 -1870 165 128 116
183.256 47.0787 -1869 164 127 115
187.101 47.1102 -1870 164 127 115
191.054 47.1669 -1872 166 128 115
194.704 47.1483 -1871 166 128 115
198.352 47.1298 -1870 166 127 114
201.997 47.1114 -1869 166 124 109
205.75 47.1184 -1869 168 125 109
209.505 47.1255 -1869 163 125 108
213.489 47.1831 -1871 161 124 105
218.064 47.367 -1878 160 123 104
222.196 47.4502 -1881 157 123 103
226.703 47.6092 -1887 154 122 104
230.869 47.6927 -1890 151 121 105
235.421 47.8521 -1896 147 120 106
-586.889 43.0966 -1800 144 114 103
-580.662 42.9096 -1793 144 113 100
-574.792 42.7468 -1787 143 112 99
-572.149 42.8234 -1791 142 111 98
-567.272 42.7328 -1788 141 111 100
-564.935 42.8333 -1793 142 112 102
-561.954 42.8864 -1796 141 112 98
-558.966 42.9393 -1799 138 108 94
-475.445 43.0473 -1820 134 110 102
-471.842 43.0555 -1821 140 109 101
-468.754 43.1112 -1824 141 110 101
-464.892 43.096 -1824 142 110 101
-460.781 43.0573 -1823 147 115 104
-455.676 42.9244 -1818 149 117 106
-452.336 42.9569 -1820 152 118 109
-447.513 42.8479 -1816 154 122 111
-444.421 42.9042 -1819 156 123 112
-440.351 42.8663 -1818 160 123 109
-436.769 42.8757 -1819 158 122 107
-432.473 42.8145 -1817 151 118 98
-428.661 42.8005 -1817 145 115 92
-423.684 42.669 -1812 142 113 89
-418.731 42.5377 -1807 148 132 101
-412.654 42.289 -1797 236 223 189
-407.988 42.1816 -1793 244 235 196
-403.117 42.051 -1788 236 231 183
-399.163 42.0146 -1787 235 231 182
-395.217 41.9783 -1786 230 225 172
-391.279 41.9421 -1785 220 215 164
-387.783 41.9531 -1786 218 212 162
-384.5 41.9877 -1788 215 210 153
-380.574 41.9519 -1787 206 202 144
-377.288 41.9867 -1789 198 196 136
-373.37 41.9512 -1788 189 186 130
-369.253 41.8923 -1786 180 177 121
-364.737 41.7868 -1782 199 196 141
-360.85 41.7517 -1781 224 221 168
-356.969 41.7168 -1780 244 241 191
-353.096 41.6821 -1779 244 242 189
-349.229 41.6474 -1778 231 229 177
-345.176 41.5895 -1776 224 222 171
-340.941 41.5083 -1773 226 224 173
-337.102 41.4741 -1772 232 230 180
-332.894 41.3932 -1769 239 237 191
-329.072 41.3593 -1768 244 241 198
-325.258 41.3255 -1767 248 245 209
-321.633 41.3152 -1767 251 248 211
-317.47 41.2349 -1764 253 250 213
-314.034 41.2482 -1765 253 250 216
-310.069 41.1915 -1763 254 251 220
-305.941 41.1117 -1760 253 252 224
-301.999 41.0553 -1758 254 253 225
-298.578 41.0692 -1759 254 253 226
-294.819 41.0364 -1758 254 254 231
-291.233 41.0271 -1758 254 254 232
-287.812 41.0413 -1759 255 254 233
-284.229 41.0322 -1759 255 254 240
-280.647 41.0233 -1759 255 254 242
-276.596 40.9445 -1756 253 253 249
-273.181 40.9591 -1757 253 253 249
-269.303 40.9039 -1755 253 253 250
-265.739 40.8955 -1755 253 253 254
-262.028 40.8639 -1754 253 253 254
-258.617 40.8789 -1755 253 253 252
-254.914 40.8475 -1754 253 253 251
-251.361 40.8395 -1754 253 253 250
-248.233 40.9015 -1757 253 253 249
-244.817 40.917 -1758 253 253 249
-241.399 40.9327 -1759 253 253 250
-237.843 40.9251 -1759 253 253 249
-234.423 40.9409 -1760 253 253 248
-230.607 40.8871 -1758 253 254 247
-227.188 40.9031 -1759 253 254 245
-223.64 40.8961 -1759 251 252 242
-219.844 40.8426 -1757 250 254 239
-216.426 40.859 -1758 250 254 238
-212.886 40.8523 -1758 251 254 238
-209.347 40.8456 -1758 252 253 238
-205.693 40.8158 -1757 252 252 238
-202.505 40.8791 -1760 253 252 238
-199.193 40.9193 -1762 253 252 238
-195.653 40.9131 -1762 253 253 231
-192.332 40.9535 -1764 251 252 227
-188.791 40.9475 -1764 250 251 223
-185.251 40.9416 -1764 250 251 219
-181.61 40.9127 -1763 251 251 219
-178.076 40.9071 -1763 252 250 221
-174.642 40.9247 -1764 254 252 222
-171.205 40.9425 -1765 255 254 224
-167.671 40.9373 -1765 254 254 228
-164.138 40.932 -1765 253 253 227
-160.697 40.9502 -1766 250 252 226
-157.343 40.9916 -1768 250 251 222
-153.807 40.9867 -1768 249 249 217
-150.444 41.0283 -1770 239 239 196
-146.824 41.0005 -1769 245 244 201
-143.452 41.0423 -1771 226 220 175
-139.837 41.0147 -1770 176 167 123
-136.304 41.0105 -1770 120 110 66
-132.622 40.9598 -1768 99 84 49
-128.949 40.9095 -1766 80 65 31
-125.143 40.8129 -1762 85 66 36
-121.146 40.6468 -1755 103 85 56
-117.581 40.62 -1754 104 86 57
-113.956 40.5701 -1752 111 93 63
-110.655 40.6361 -1755 111 94 64
-107.282 40.679 -1757 110 93 68
-104.079 40.7914 -1762 93 82 56
-100.913 40.9271 -1768 68 59 33
-97.6151 41.0166 -1772 79 70 40
-94.3546 41.1294 -1777 87 78 48
-90.8195 41.1265 -1777 96 87 57
-87.3834 41.17 -1779 157 149 114
-83.8928 41.1905 -1780 188 181 145
-80.399 41.2111 -1781 221 218 179
-76.9019 41.2318 -1782 246 244 208
-73.566 41.3451 -1787 254 254 219
-70.1325 41.4122 -1790 252 252 217
-66.6504 41.4564 -1792 255 255 222
-63.1258 41.4775 -1793 252 252 220
-59.5644 41.4756 -1793 252 252 220
-56.0035 41.4738 -1793 252 252 220
-52.3846 41.4259 -1791 253 252 219
-48.9376 41.5168 -1795 252 251 217
-45.4751 41.6079 -1799 253 252 211
-41.9971 41.699 -1803 251 250 210
-38.4822 41.7672 -1806 249 249 208
-34.9751 41.8585 -1810 247 247 203
-31.435 41.9269 -1813 241 240 194
-27.8833 41.9953 -1816 237 235 184
-24.2931 42.0177 -1817 240 238 186
-20.7106 42.0632 -1819 248 246 194
-17.1202 42.1089 -1821 252 250 199
-13.5221 42.1547 -1823 252 250 201
-9.91074 42.1774 -1824 248 246 200
-6.30236 42.2465 -1827 241 238 186
-2.68213 42.3158 -1830 227 224 171
0.949461 42.362 -1832 207 204 148
4.5915 42.4314 -1835 199 194 140
8.24099 42.4779 -1837 200 195 142
11.8985 42.5245 -1839 203 198 146
15.5471 42.5249 -1839 209 204 152
19.1959 42.5254 -1839 210 207 154
22.8199 42.4798 -1837 219 214 160
26.465 42.4806 -1837 227 221 167
30.1431 42.5277 -1839 233 226 174
33.8294 42.575 -1841 240 234 181
37.5443 42.6455 -1844 245 239 187
41.3384 42.7855 -1850 249 238 192
45.1079 42.8793 -1854 190 177 133
48.8938 42.9733 -1858 172 150 118
52.7242 43.0905 -1863 188 160 134
56.5143 43.1616 -1866 193 160 140
60.2522 43.1866 -1867 195 158 142
64.0631 43.2579 -1870 194 156 140
67.7414 43.2368 -1869 195 155 138
71.4163 43.2158 -1868 192 153 134
75.2085 43.2644 -1870 192 152 133
78.9248 43.2668 -1870 189 151 133
82.6859 43.2924 -1871 187 148 131
86.4519 43.3183 -1872 184 146 128
90.126 43.2979 -1871 185 145 129
93.8971 43.3239 -1872 185 144 129
97.673 43.35 -1873 183 143 126
101.454 43.3762 -1874 183 141 126
105.295 43.4257 -1876 181 139 124
109.088 43.4522 -1877 178 140 123
112.764 43.4326 -1876 176 137 120
116.438 43.413 -1875 174 134 117
119.981 43.3472 -1872 173 135 117
123.645 43.3278 -1871 171 133 116
127.237 43.2854 -1869 169 131 114
131.314 43.4053 -1874 168 129 112
135.122 43.4326 -1875 165 125 108
139.011 43.4832 -1877 160 123 107
143.136 43.6035 -1882 157 122 106
146.814 43.5848 -1881 154 121 106
150.89 43.6821 -1885 152 119 107
154.244 43.5711 -1880 149 116 103
158.252 43.6455 -1883 149 115 100
161.499 43.5113 -1877 145 113 100
165.252 43.5165 -1877 143 112 99
168.736 43.4521 -1874 140 111 101
172.761 43.5271 -1877 140 111 101
176.423 43.5094 -1876 139 111 100
180.659 43.6309 -1881 141 108 96
184.231 43.5902 -1879 141 109 97
188.096 43.6193 -1880 141 108 97
192.171 43.6948 -1883 143 108 97
195.843 43.6777 -1882 144 110 98
199.194 43.591 -1878 145 111 99
202.963 43.5974 -1878 148 111 99
206.954 43.6502 -1880 149 111 99
-430.063 39.2576 -1823 136 109 91
-425.541 39.1804 -1820 133 107 88
-419.413 38.9527 -1810 128 113 82
-413.56 38.7468 -1801 215 202 169
-408.43 38.6056 -1795 249 238 201
-403.555 38.4861 -1790 236 229 183
-399.821 38.4743 -1790 232 226 177
-395.869 38.4411 -1789 229 224 171
-391.706 38.3865 -1787 221 215 164
-387.988 38.3751 -1787 209 203 153
-384.703 38.4067 -1789 202 197 140
-380.988 38.3954 -1789 204 199 141
-377.276 38.3844 -1789 206 204 144
-373.776 38.3948 -1790 201 198 143
-369.655 38.341 -1788 187 184 129
-365.136 38.2445 -1784 183 180 126
-361.446 38.2339 -1784 197 194 140
-357.359 38.1805 -1782 219 216 162
-353.482 38.1486 -1781 231 230 175
-349.219 38.0742 -1778 228 227 173
-345.554 38.064 -1778 223 221 170
-341.123 37.9684 -1774 224 222 172
-337.282 37.9371 -1773 230 228 179
-332.883 37.8418 -1769 236 234 188
-329.248 37.8321 -1769 240 238 194
-325.432 37.8012 -1768 244 241 204
-321.623 37.7704 -1767 249 246 208
-317.461 37.697 -1764 251 248 211
-313.847 37.6878 -1764 253 249 216
-309.884 37.636 -1762 254 251 220
-305.584 37.5417 -1758 253 252 224
-301.647 37.4902 -1756 253 252 224
-298.399 37.5242 -1758 254 253 225
-294.475 37.4729 -1756 253 253 229
-290.892 37.4644 -1756 254 254 231
-287.64 37.4986 -1758 255 255 233
-283.735 37.4478 -1756 255 254 239
-280.001 37.4183 -1755 255 254 241
-276.43 37.4102 -1755 253 253 249
-272.861 37.4022 -1755 253 253 249
-269.448 37.4158 -1756 253 253 249
-265.731 37.3867 -1755 253 253 255
-262.169 37.3791 -1755 253 253 255
-258.757 37.3929 -1756 253 253 253
-254.907 37.3429 -1754 253 253 252
-251.64 37.3782 -1756 253 253 251
-248.226 37.3922 -1757 253 253 249
-244.81 37.4064 -1758 253 253 249
-241.529 37.442 -1760 253 253 249
-237.971 37.435 -1760 253 253 249
-234.416 37.4283 -1760 253 253 249
-230.6 37.379 -1758 253 253 248
-226.794 37.33 -1756 252 253 246
-223.125 37.3022 -1755 251 252 243
-219.712 37.3171 -1756 251 254 237
-216.297 37.3321 -1757 250 254 236
-212.879 37.3472 -1758 252 253 237
-209.46 37.3624 -1759 253 253 238
-205.804 37.3352 -1758 253 252 239
-202.384 37.3506 -1759 254 252 237
-198.848 37.3448 -1759 254 252 237
-195.425 37.3604 -1760 253 253 236
-191.999 37.376 -1761 252 253 233
-188.464 37.3706 -1761 250 253 230
-184.931 37.3652 -1761 252 252 227
-181.502 37.3811 -1762 253 253 227
-177.868 37.3548 -1761 254 252 228
-174.339 37.3498 -1761 254 252 228
-171.103 37.4085 -1764 254 252 229
-167.666 37.4248 -1765 253 253 232
-164.133 37.42 -1765 253 253 232
-160.692 37.4367 -1766 250 254 232
-157.427 37.4957 -1769 250 252 228
-153.716 37.4489 -1767 251 251 225
-150.439 37.5081 -1770 249 249 214
-146.903 37.5038 -1770 252 251 215
-143.367 37.4997 -1770 247 242 200
-139.675 37.4532 -1768 212 204 159
-136.223 37.4705 -1769 161 151 105
-132.543 37.4244 -1767 119 105 62
-128.872 37.3783 -1765 88 72 31
-125.068 37.2899 -1761 98 78 43
-121.35 37.2229 -1758 111 91 58
-117.645 37.156 -1755 111 91 59
-114.343 37.2162 -1758 111 94 61
-110.967 37.2554 -1760 106 90 59
-107.828 37.3792 -1766 98 83 56
-104.548 37.4608 -1770 74 63 37
-101.139 37.5002 -1772 64 54 28
-97.8324 37.5821 -1776 82 73 43
-94.3518 37.6005 -1777 108 99 69
-90.8679 37.619 -1778 144 135 104
-87.3808 37.6377 -1779 179 171 137
-83.8432 37.6352 -1779 208 202 166
-80.3064 37.6328 -1779 247 244 211
-76.8133 37.6517 -1780 254 253 221
-73.3992 37.7131 -1783 254 253 222
-69.9738 37.7745 -1786 252 253 219
-66.5742 37.8571 -1790 254 255 221
-63.0183 37.8553 -1790 251 252 216
-59.5294 37.8959 -1792 252 253 219
-55.9394 37.8731 -1791 252 252 220
-52.383 37.8715 -1791 253 252 218
-48.8816 37.9124 -1793 252 251 215
-45.3979 37.9745 -1796 253 250 208
-41.9726 38.1001 -1802 250 249 207
-38.4811 38.1836 -1806 248 248 206
-34.9934 38.2882 -1811 246 246 204
-31.4167 38.3084 -1812 241 241 197
-27.8671 38.371 -1815 237 235 184
-24.2924 38.4125 -1817 239 238 184
-20.6872 38.4119 -1817 246 245 190
-17.1197 38.4959 -1821 246 245 191
-13.5217 38.5378 -1823 241 240 188
-9.92131 38.6009 -1826 232 230 181
-6.31252 38.6852 -1830 221 218 163
-2.68792 38.7696 -1834 205 202 147
0.950985 38.7907 -1835 196 191 134
4.60137 38.8754 -1839 197 192 137
8.24523 38.8544 -1838 203 198 145
11.8981 38.8759 -1839 206 200 150
15.5466 38.8762 -1839 209 203 152
19.1953 38.8767 -1839 213 208 155
22.8192 38.8351 -1837 223 217 163
26.4642 38.8358 -1837 229 222 168
30.1422 38.8789 -1839 238 231 176
33.8468 38.9432 -1842 242 235 183
37.6042 39.0499 -1847 250 243 193
41.3818 39.1568 -1852 245 232 188
45.2282 39.306 -1859 162 147 105
49.0239 39.3919 -1863 167 143 113
52.8358 39.4779 -1867 178 147 123
56.6034 39.5218 -1869 180 144 127
60.3472 39.5446 -1870 180 143 128
64.1297 39.5886 -1872 180 142 127
67.8119 39.5694 -1871 180 142 125
71.4524 39.5291 -1869 179 140 122
75.2465 39.5734 -1871 179 141 122
79.0913 39.6391 -1874 179 141 122
82.8163 39.6414 -1874 177 141 123
86.4032 39.5803 -1871 174 140 124
90.316 39.6676 -1875 174 137 124
93.9445 39.6279 -1873 173 136 122
97.8265 39.6941 -1876 171 133 120
101.721 39.7604 -1879 169 132 118
105.516 39.7845 -1880 169 131 118
109.317 39.8087 -1881 163 129 115
113.062 39.8118 -1881 161 127 112
116.932 39.8574 -1883 158 124 108
120.618 39.8397 -1882 157 124 107
124.434 39.8644 -1883 157 123 107
128.527 39.9738 -1888 154 120 106
-414.237 35.1692 -1804 186 175 141
-408.874 35.0218 -1797 244 235 197
-403.769 34.894 -1791 237 230 184
-400.033 34.8833 -1791 231 224 177
-395.858 34.8337 -1789 229 222 170
-391.914 34.8037 -1788 222 216 165
-388.194 34.7934 -1788 211 205 155
-384.908 34.822 -1790 197 192 135
-381.19 34.8118 -1790 193 188 131
-377.266 34.7822 -1789 199 195 136
-373.557 34.7723 -1789 203 200 145
-369.438 34.7236 -1787 200 197 144
-365.535 34.6944 -1786 189 186 136
-361.436 34.646 -1784 185 182 129
-357.349 34.5975 -1782 194 192 135
-353.671 34.5881 -1782 211 209 152
-349.602 34.54 -1780 218 216 160
-345.35 34.4726 -1777 218 216 163
-341.498 34.4442 -1776 219 217 167
-337.463 34.3964 -1774 224 222 174
-333.251 34.3293 -1771 232 230 184
-329.612 34.3206 -1771 238 235 191
-325.607 34.2732 -1769 241 238 200
-321.796 34.2453 -1768 246 243 205
-317.632 34.1788 -1765 250 247 208
-314.194 34.1898 -1766 253 248 217
-309.875 34.1042 -1762 254 251 221
-305.576 34.0187 -1758 253 252 224
-301.81 33.9913 -1757 253 252 223
-298.221 33.9834 -1757 253 252 223
-294.467 33.9563 -1756 253 253 228
-291.05 33.9679 -1757 254 254 230
-287.468 33.9604 -1757 255 255 233
-283.727 33.9335 -1756 255 254 239
-279.993 33.9068 -1755 255 254 241
-276.107 33.8609 -1753 253 253 249
-272.387 33.8344 -1752 253 253 249
-268.981 33.8467 -1753 253 253 249
-265.421 33.8397 -1753 253 253 255
-262.013 33.8521 -1754 253 253 255
-258.455 33.8452 -1754 253 253 253
-255.19 33.8771 -1756 253 253 252
-251.49 33.8511 -1755 254 254 252
-248.219 33.8832 -1757 253 253 251
-244.524 33.8575 -1756 253 253 250
-241.248 33.8897 -1758 253 254 248
-237.694 33.8834 -1758 253 253 249
-234.01 33.858 -1757 253 253 249
-230.462 33.852 -1757 254 254 251
-226.658 33.8074 -1755 252 253 248
-222.992 33.7823 -1754 251 252 244
-219.456 33.7766 -1754 252 254 236
-216.168 33.8094 -1756 252 254 234
-212.51 33.7846 -1755 254 253 239
-209.216 33.8176 -1757 254 253 240
-205.798 33.8315 -1758 253 252 242
-202.263 33.8262 -1758 254 252 236
-198.616 33.8017 -1757 254 252 235
-195.308 33.835 -1759 249 252 237
-191.776 33.8301 -1759 249 252 235
-188.245 33.8251 -1759 249 252 233
-184.716 33.8202 -1759 251 253 231
-181.291 33.8348 -1760 253 254 232
-177.662 33.8109 -1759 255 253 232
-174.137 33.8063 -1759 254 252 232
-171.001 33.8787 -1763 253 252 232
-167.566 33.8935 -1764 252 253 236
-163.942 33.87 -1763 252 253 236
-160.597 33.9042 -1765 250 254 236
-157.245 33.9385 -1767 251 253 233
-153.625 33.9152 -1766 254 253 232
-150.265 33.9498 -1768 253 253 225
-146.816 33.9652 -1769 251 251 220
-143.282 33.9613 -1769 254 250 212
-139.592 33.9193 -1767 238 231 187
-135.988 33.8966 -1766 198 188 142
-132.239 33.8356 -1763 145 131 81
-128.795 33.8513 -1764 114 98 50
-125.136 33.8097 -1762 118 96 55
-121.416 33.7489 -1759 113 92 54
-117.977 33.7651 -1760 116 95 59
-114.535 33.7813 -1761 110 93 57
-111.153 33.8166 -1763 97 82 49
-108.069 33.9481 -1770 85 73 44
-104.604 33.9645 -1771 69 58 30
-101.25 34.0194 -1774 70 59 32
-97.7747 34.036 -1775 95 86 54
-94.2431 34.0336 -1775 140 131 100
-90.8144 34.0695 -1777 179 171 139
-87.2801 34.0672 -1777 198 192 158
-83.7467 34.065 -1777 238 233 199
-80.2139 34.0628 -1777 254 250 223
-76.7681 34.0991 -1779 253 251 225
-73.3149 34.1356 -1781 253 251 226
-69.9326 34.2104 -1785 252 253 218
-66.4979 34.2661 -1788 252 253 218
-62.9462 34.2645 -1788 252 253 215
-59.4281 34.282 -1789 252 253 216
-55.8754 34.2806 -1789 252 253 218
-52.3816 34.3175 -1791 252 251 217
-48.9348 34.3928 -1795 252 251 215
-45.4472 34.4491 -1798 253 251 208
-41.9714 34.5246 -1802 250 249 208
-38.4587 34.5811 -1805 247 247 206
-34.9538 34.6568 -1809 244 243 206
-31.3812 34.6751 -1810 239 238 197
-27.8663 34.7701 -1815 234 232 182
-24.3185 34.846 -1819 234 232 179
-20.7322 34.8838 -1821 237 236 181
-17.1381 34.9216 -1823 234 233 177
-13.551 34.9978 -1827 226 224 169
-9.94277 35.055 -1830 215 212 159
-6.31925 35.0931 -1832 205 201 146
-2.69078 35.1696 -1836 199 194 139
0.952512 35.2079 -1838 198 193 138
4.60124 35.2271 -1839 200 196 141
8.25846 35.2656 -1841 202 199 143
11.9172 35.285 -1842 206 200 150
15.5631 35.2662 -1841 208 202 151
19.2156 35.2667 -1841 214 209 155
22.8683 35.2672 -1841 227 221 164
26.4923 35.2296 -1839 233 227 169
30.1742 35.2686 -1841 240 234 176
33.901 35.3461 -1845 245 238 183
37.6643 35.4428 -1850 251 242 191
41.4924 35.5779 -1857 215 201 157
45.3 35.6748 -1862 149 133 91
49.1015 35.7527 -1866 163 135 107
52.9193 35.8306 -1870 170 137 116
56.6625 35.8512 -1871 170 133 118
60.3456 35.8335 -1870 170 135 119
64.128 35.8735 -1872 170 134 118
67.955 35.9327 -1875 170 132 115
71.6799 35.9345 -1875 168 130 111
75.4053 35.9363 -1875 166 128 109
79.258 35.9958 -1878 164 126 107
83.0348 36.0171 -1879 162 127 110
86.7241 36.0001 -1878 160 128 114
90.7952 36.1366 -1885 161 127 114
94.5438 36.1391 -1885 157 123 110
98.4496 36.1991 -1888 154 121 109
102.26 36.2208 -1889 152 119 107
106.412 36.3578 -1896 152 119 107
113.9 36.3442 -1895 142 113 101
-409.774 31.4651 -1801 231 225 190
-404.661 31.3506 -1795 234 227 179
-400.246 31.2885 -1792 229 222 172
-396.069 31.2441 -1790 224 217 166
-392.123 31.2172 -1789 219 214 161
-388.184 31.1905 -1788 210 206 152
-384.683 31.1986 -1789 200 196 138
-381.607 31.2419 -1792 190 185 127
-377.889 31.2328 -1792 186 182 123
-373.965 31.2064 -1791 188 185 130
-369.842 31.1628 -1789 197 194 140
-365.935 31.1365 -1788 197 194 146
-361.427 31.0582 -1784 187 184 133
-357.541 31.0323 -1783 184 181 127
-353.86 31.0239 -1783 193 189 135
-349.789 30.9807 -1781 203 199 146
-345.924 30.955 -1780 209 206 156
-341.874 30.9122 -1778 212 210 162
-338.025 30.8867 -1777 218 217 170
-333.619 30.8092 -1773 225 224 178
-329.603 30.7666 -1771 231 229 185
-325.599 30.7241 -1769 237 234 194
-321.788 30.6991 -1768 243 239 199
-317.624 30.6395 -1765 247 243 204
-314.008 30.632 -1765 251 248 213
-309.692 30.5553 -1761 252 250 216
-305.742 30.5133 -1759 252 251 219
-301.803 30.4714 -1757 253 251 220
-298.214 30.4644 -1757 253 251 221
-294.292 30.4227 -1755 251 251 227
-290.712 30.4158 -1755 253 252 229
-286.97 30.3917 -1754 254 253 231
-283.074 30.3503 -1752 255 254 238
-279.188 30.3091 -1750 255 254 239
-275.313 30.2679 -1748 254 254 244
-271.759 30.2615 -1748 254 253 246
-268.36 30.2724 -1749 253 252 246
-264.809 30.2661 -1749 253 253 250
-261.558 30.2946 -1751 253 253 251
-258.301 30.3231 -1753 253 253 251
-254.748 30.3171 -1753 253 253 252
-251.197 30.3112 -1753 253 253 252
-247.789 30.3227 -1754 253 253 254
-244.24 30.3168 -1754 253 253 252
-240.83 30.3285 -1755 253 253 248
-237.418 30.3402 -1756 253 253 249
-233.738 30.3173 -1755 253 253 249
-230.194 30.3119 -1755 253 253 250
-226.265 30.2548 -1752 253 253 249
-222.732 30.2495 -1752 252 253 246
-219.075 30.2271 -1751 252 254 239
-215.916 30.2738 -1754 252 255 237
-212.505 30.2861 -1755 253 253 240
-209.092 30.2984 -1756 253 253 240
-205.559 30.2935 -1756 252 252 241
-202.028 30.2889 -1756 253 252 237
-198.385 30.2669 -1755 253 252 236
-194.859 30.2623 -1755 251 252 236
-191.444 30.275 -1756 250 252 235
-188.026 30.2879 -1757 250 253 235
-184.606 30.3008 -1758 252 254 235
-181.08 30.2966 -1758 252 254 236
-177.556 30.2923 -1758 254 253 236
-174.033 30.2882 -1758 254 254 237
-170.9 30.3532 -1762 253 254 238
-167.467 30.3665 -1763 253 254 241
-163.938 30.3626 -1763 253 254 241
-160.502 30.3761 -1764 251 253 240
-156.974 30.3723 -1764 252 253 237
-153.447 30.3688 -1764 253 253 236
-150.091 30.3997 -1766 253 254 231
-146.812 30.4478 -1769 254 254 229
-143.279 30.4445 -1769 254 252 221
-139.589 30.4068 -1767 248 243 205
-135.985 30.3864 -1766 219 212 169
-132.311 30.3489 -1764 182 170 118
-128.938 30.3803 -1766 147 133 82
-125.203 30.3257 -1763 133 114 67
-121.827 30.3573 -1765 117 98 54
-118.175 30.3201 -1763 120 101 58
-114.792 30.3517 -1765 104 87 49
-111.402 30.3835 -1767 85 69 33
-108.006 30.4154 -1769 77 64 33
-104.602 30.4473 -1771 67 57 28
-101.134 30.4621 -1772 61 52 24
-97.7173 30.4942 -1774 125 118 85
-94.1346 30.4748 -1773 174 167 134
-90.812 30.5414 -1777 196 190 157
-87.1798 30.5049 -1775 226 223 189
-83.6975 30.5201 -1776 253 250 216
-80.0765 30.4839 -1774 254 252 225
-76.6367 30.5165 -1776 253 252 225
-73.2308 30.5663 -1779 252 252 226
-69.8134 30.6162 -1782 253 254 219
-66.4591 30.7005 -1787 253 254 218
-62.8742 30.6818 -1786 253 254 215
-59.4267 30.732 -1789 251 252 216
-55.8116 30.6963 -1787 250 251 216
-52.3511 30.7466 -1790 253 252 214
-48.9336 30.8313 -1795 253 252 213
-45.4967 30.9161 -1800 252 250 208
-41.9937 30.9666 -1803 249 249 208
-38.4578 31 -1805 245 245 205
-34.9529 31.0679 -1809 240 239 203
-31.3978 31.1014 -1811 236 234 194
-27.8503 31.1523 -1814 230 228 180
-24.2912 31.2032 -1817 228 226 173
-20.7089 31.237 -1819 228 226 172
-17.1095 31.2538 -1820 222 219 164
-13.5284 31.3221 -1824 213 210 155
-9.93167 31.3905 -1828 202 200 145
-6.3191 31.459 -1832 194 190 136
-2.69071 31.5276 -1836 194 190 136
0.953006 31.5791 -1839 199 195 142
4.60363 31.5963 -1840 201 198 143
8.26275 31.6308 -1842 201 199 142
11.9299 31.6654 -1844 204 198 148
15.5881 31.6657 -1844 207 200 149
19.236 31.649 -1843 218 213 157
22.8802 31.6323 -1842 228 222 164
26.5205 31.6157 -1841 234 228 169
30.2226 31.6679 -1844 241 235 176
33.9553 31.7373 -1848 247 240 184
37.7244 31.824 -1853 245 235 184
41.5808 31.9623 -1861 173 159 117
45.5178 32.1351 -1871 135 119 80
49.2845 32.1705 -1873 148 121 95
53.0878 32.2232 -1876 154 123 103
56.8731 32.2588 -1878 157 122 107
60.6345 32.2774 -1879 152 120 105
64.4347 32.3132 -1881 153 121 105
68.2433 32.3491 -1883 153 119 103
72.0604 32.3851 -1885 152 118 100
