ply
format ascii 1.0
comment Created by Open3D
element vertex 1336
property double x
property double y
property double z
property uchar red
property uchar green
property uchar blue
end_header
-110.954 -74.5853 -1759 199 193 136
-107.51 -74.6213 -1760 199 193 136
-103.886 -74.5305 -1758 201 195 138
-100.328 -74.4824 -1757 203 197 140
-96.7746 -74.4344 -1756 205 199 142
-93.3321 -74.4714 -1757 206 200 143
-89.8865 -74.5087 -1758 207 201 144
-86.3884 -74.5035 -1758 209 203 146
-83.1268 -74.7106 -1763 211 205 148
-79.7104 -74.7907 -1765 209 202 150
-76.3299 -74.9134 -1768 209 202 150
-72.8146 -74.9092 -1768 207 200 148
-69.339 -74.9476 -1769 207 202 149
-65.7111 -74.8167 -1766 214 209 156
-62.2367 -74.8554 -1767 218 212 162
-58.7587 -74.8944 -1768 217 211 161
-55.3085 -74.9759 -1770 217 211 161
-51.7923 -74.9728 -1770 214 211 160
-48.331 -75.0547 -1772 211 207 156
-44.8621 -75.1366 -1774 207 201 151
-41.3856 -75.2189 -1776 202 196 146
-37.8802 -75.259 -1777 200 194 144
-34.4485 -75.4687 -1782 200 193 143
-30.9799 -75.6362 -1786 210 203 154
-27.4956 -75.804 -1790 214 208 160
-23.9823 -75.9296 -1793 212 208 160
-20.4915 -76.1824 -1799 205 202 155
-16.9958 -76.5201 -1807 204 198 156
-13.461 -76.8157 -1814 200 196 157
-9.94206 -77.4502 -1829 195 194 159
-290.841 -81.4647 -1822 167 171 151
-284.768 -80.7767 -1807 186 189 158
-279.381 -80.2679 -1796 196 197 164
-274.347 -79.8491 -1787 194 193 158
-269.656 -79.52 -1780 185 185 145
-266.042 -79.5037 -1780 182 182 142
-261.84 -79.3092 -1776 183 183 141
-257.656 -79.115 -1772 187 187 144
-253.347 -78.8764 -1767 194 194 150
-249.485 -78.7719 -1765 202 202 154
-245.215 -78.5339 -1760 202 203 154
-241.379 -78.43 -1758 195 195 147
-237.688 -78.3709 -1757 190 191 142
-233.87 -78.2675 -1755 189 190 141
-230.063 -78.1645 -1753 189 187 138
-226.394 -78.1061 -1752 189 187 137
-222.731 -78.0481 -1751 177 174 122
-219.324 -78.0793 -1752 175 173 118
-215.423 -77.9327 -1749 188 187 130
-211.657 -77.8306 -1747 212 210 155
-208.019 -77.7735 -1746 233 231 177
-204.387 -77.7167 -1745 246 245 191
-200.761 -77.66 -1744 251 249 195
-197.254 -77.6481 -1744 251 248 194
-193.97 -77.7254 -1746 249 247 190
-190.68 -77.8029 -1748 237 234 177
-187.383 -77.8806 -1750 227 224 168
-184.08 -77.9585 -1752 221 218 162
-180.668 -77.9921 -1753 216 214 157
-177.151 -77.9813 -1753 214 209 153
-173.637 -77.9708 -1753 210 206 150
-169.929 -77.8717 -1751 209 204 149
-166.326 -77.8171 -1750 207 202 145
-162.728 -77.7627 -1749 204 199 142
-159.318 -77.7977 -1750 203 197 140
-155.727 -77.7438 -1749 201 195 138
-152.315 -77.7791 -1750 200 194 137
-148.9 -77.8145 -1751 198 191 139
-145.566 -77.8945 -1753 196 189 137
-142.063 -77.886 -1753 196 189 136
-138.64 -77.9222 -1754 197 190 136
-135.06 -77.8694 -1753 195 188 134
-131.56 -77.8616 -1753 196 187 132
-128.061 -77.8537 -1753 198 191 134
-124.492 -77.8018 -1752 200 194 136
-121.205 -77.9278 -1755 201 195 136
-117.772 -77.965 -1756 201 195 137
-114.401 -78.0469 -1758 201 195 138
-110.834 -77.9958 -1757 201 195 138
-107.394 -78.0338 -1758 202 196 139
-103.892 -78.0273 -1758 204 198 141
-100.334 -77.9769 -1757 206 200 143
-96.7802 -77.9267 -1756 208 201 145
-93.3375 -77.9655 -1757 210 203 147
-89.8917 -78.0044 -1758 211 205 148
-86.4918 -78.088 -1760 212 206 150
-83.0844 -78.1715 -1762 213 207 151
-79.7602 -78.3441 -1766 213 206 154
-76.2913 -78.3838 -1767 215 208 156
-72.7776 -78.3794 -1767 214 207 155
-69.2647 -78.3753 -1767 212 207 154
-65.6778 -78.2825 -1765 214 209 157
-62.205 -78.3231 -1766 221 215 165
-58.7289 -78.3639 -1767 223 217 167
-55.3117 -78.4936 -1770 219 213 163
-51.8245 -78.5347 -1771 211 208 157
-48.3338 -78.5761 -1772 207 203 152
-44.9153 -78.7507 -1776 205 199 149
-41.4347 -78.8369 -1778 201 195 145
-37.9251 -78.8789 -1779 199 193 143
-34.4505 -79.0095 -1782 203 196 146
-30.9817 -79.1849 -1786 212 206 156
-27.4665 -79.2719 -1788 217 211 163
-23.9703 -79.4477 -1792 215 211 163
-20.4813 -79.7124 -1798 208 205 157
-16.9591 -79.933 -1803 206 200 159
-13.4618 -80.4197 -1814 199 196 158
-9.95895 -81.217 -1832 195 194 159
-285.731 -84.6777 -1813 179 182 151
-279.398 -83.8661 -1796 193 194 162
-274.672 -83.5217 -1789 197 196 162
-270.127 -83.2243 -1783 193 193 154
-266.058 -83.0675 -1780 186 186 145
-262.003 -82.9109 -1777 183 183 141
-257.817 -82.7078 -1773 185 185 142
-253.219 -82.3652 -1766 190 190 146
-248.935 -82.1163 -1761 198 198 152
-245.091 -82.0075 -1759 205 205 158
-241.256 -81.899 -1757 203 202 154
-237.432 -81.7907 -1755 196 196 147
-233.752 -81.7292 -1754 189 190 141
-230.339 -81.7614 -1755 188 186 137
-226.537 -81.6538 -1753 190 188 138
-222.999 -81.6396 -1753 184 182 130
-219.463 -81.6258 -1753 173 172 115
-215.806 -81.5655 -1752 171 170 111
-211.912 -81.4125 -1749 188 186 129
-208.151 -81.3063 -1747 214 212 156
-204.517 -81.2467 -1746 234 233 179
-200.773 -81.141 -1744 248 245 193
-197.266 -81.1286 -1744 254 251 199
-193.982 -81.2094 -1746 254 250 197
-190.473 -81.1974 -1746 252 249 196
-187.181 -81.2786 -1748 244 242 188
-183.881 -81.3599 -1750 233 230 176
-180.37 -81.3485 -1750 224 221 168
-177.061 -81.4303 -1752 217 214 161
-173.548 -81.4193 -1752 214 211 155
-169.939 -81.362 -1751 212 210 152
-166.526 -81.3982 -1752 212 207 150
-163.017 -81.3878 -1752 210 205 148
-159.51 -81.3777 -1752 209 203 146
-155.825 -81.2751 -1750 208 203 146
-152.498 -81.3583 -1752 207 201 144
-148.91 -81.3025 -1751 207 200 148
-145.492 -81.3397 -1752 203 196 144
-141.991 -81.3308 -1752 202 195 143
-138.648 -81.4148 -1754 201 194 141
-135.299 -81.4992 -1756 200 193 139
-131.718 -81.4444 -1755 199 191 137
-128.215 -81.4363 -1755 198 192 137
-124.713 -81.4283 -1755 199 194 138
-121.212 -81.4207 -1755 200 195 138
-117.846 -81.5062 -1757 202 196 139
-114.343 -81.4988 -1757 202 196 139
-110.841 -81.4918 -1757 203 197 140
-107.401 -81.5315 -1758 204 198 141
-103.899 -81.525 -1758 206 200 143
-100.34 -81.4721 -1757 208 202 145
-96.8412 -81.466 -1757 211 204 150
-93.4495 -81.5528 -1759 214 207 153
-89.9994 -81.5935 -1760 215 210 154
-86.5461 -81.6345 -1761 215 210 156
-83.1838 -81.7683 -1764 214 209 156
-79.7651 -81.856 -1766 218 213 160
-76.2527 -81.8509 -1766 219 213 161
-72.7408 -81.8463 -1766 221 216 163
-69.1905 -81.7956 -1765 221 216 163
-65.6446 -81.7451 -1764 218 213 160
-62.2089 -81.8338 -1766 219 213 163
-58.7324 -81.8764 -1767 222 216 166
-55.2838 -81.9656 -1769 217 211 161
-51.8569 -82.1013 -1772 206 203 152
-48.364 -82.1445 -1773 203 199 148
-44.9433 -82.3269 -1777 204 198 148
-41.4605 -82.4169 -1779 203 197 147
-37.9914 -82.5535 -1782 203 197 147
-34.4719 -82.5973 -1783 208 202 152
-30.9662 -82.688 -1785 213 207 158
-27.4374 -82.7325 -1786 217 211 163
-23.9718 -83.0088 -1792 216 212 164
-20.4825 -83.2854 -1798 210 207 159
-16.9789 -83.6085 -1805 207 201 160
-13.47 -84.0707 -1815 200 196 158
-9.94867 -84.7648 -1830 196 195 160
-286.38 -88.5062 -1817 173 176 145
-280.038 -87.6595 -1800 190 191 159
-275.15 -87.2516 -1792 200 199 165
-270.296 -86.8443 -1784 199 199 160
-266.075 -86.6319 -1780 191 191 151
-262.02 -86.4685 -1777 185 185 143
-257.688 -86.2082 -1772 184 184 141
-253.666 -86.0455 -1769 185 185 141
-249.375 -85.7857 -1764 190 190 144
-245.524 -85.6722 -1762 203 203 156
-241.547 -85.5104 -1759 208 206 159
-237.718 -85.3975 -1757 204 204 156
-233.9 -85.2848 -1755 195 196 147
-230.354 -85.2697 -1755 191 189 140
-226.681 -85.2061 -1754 189 187 136
-223.141 -85.1913 -1754 187 185 134
-219.477 -85.1284 -1753 181 179 122
-215.943 -85.1141 -1753 167 166 106
-212.168 -85.0029 -1751 172 170 112
-208.283 -84.8436 -1748 189 188 131
-204.53 -84.7331 -1746 210 209 154
-200.786 -84.6226 -1744 229 227 175
-197.165 -84.5612 -1743 250 247 196
-193.883 -84.6455 -1745 254 250 198
-190.595 -84.7299 -1747 255 251 200
-187.193 -84.7661 -1748 255 252 201
-183.893 -84.851 -1750 250 247 196
-180.381 -84.8391 -1750 238 235 184
-176.971 -84.8759 -1751 226 223 173
-173.658 -84.9614 -1753 220 217 164
-170.047 -84.9017 -1752 215 212 156
-166.537 -84.8907 -1752 212 208 152
-163.121 -84.9286 -1753 210 206 150
-159.52 -84.8696 -1752 209 204 148
-155.924 -84.8108 -1751 208 203 146
-152.508 -84.8493 -1752 207 201 145
-149.004 -84.8394 -1752 207 200 148
-145.584 -84.8784 -1753 208 201 149
-142.081 -84.869 -1753 207 200 148
-138.657 -84.9083 -1754 205 198 145
-135.154 -84.8993 -1754 204 197 144
-131.727 -84.9392 -1755 206 200 145
-128.296 -84.979 -1756 203 198 143
-124.721 -84.9225 -1755 199 194 140
-121.22 -84.9143 -1755 200 195 139
-117.787 -84.955 -1756 202 196 140
-114.22 -84.8992 -1755 203 197 141
-110.785 -84.9403 -1756 204 198 142
-107.347 -84.9815 -1757 204 197 142
-103.964 -85.0714 -1759 206 200 144
-100.403 -85.0165 -1758 211 205 149
-96.9025 -85.0101 -1758 216 210 156
-93.4554 -85.0521 -1759 218 212 158
-90.0563 -85.1429 -1761 219 214 160
-86.6007 -85.1856 -1762 220 216 163
-83.1891 -85.2768 -1764 219 215 162
-79.7701 -85.3682 -1766 222 218 165
-76.2575 -85.3632 -1766 225 220 167
-72.7455 -85.3584 -1766 225 220 167
-69.234 -85.3536 -1766 224 219 167
-65.7232 -85.3493 -1766 224 219 167
-62.2128 -85.3452 -1766 218 212 162
-58.7361 -85.3896 -1767 214 208 158
-55.3185 -85.5309 -1770 219 213 163
-51.8894 -85.6724 -1773 213 210 159
-48.4489 -85.8141 -1776 203 200 149
-44.9967 -85.9561 -1779 206 200 150
-41.4864 -86.0016 -1780 209 203 153
-37.9725 -86.0474 -1781 209 203 153
-34.4548 -86.0934 -1782 212 206 157
-30.9682 -86.2362 -1785 216 210 162
-27.4238 -86.2343 -1785 218 212 164
-23.9465 -86.4742 -1790 216 211 164
-20.4724 -86.8107 -1797 212 207 160
-16.9706 -87.1479 -1804 207 201 160
-13.4783 -87.7264 -1816 200 196 158
-9.9493 -88.4019 -1830 195 194 159
-285.926 -91.9962 -1814 174 177 148
-280.213 -91.3177 -1801 188 189 158
-274.861 -90.741 -1790 202 201 167
-270.011 -90.3168 -1782 203 203 164
-265.944 -90.1464 -1779 196 196 156
-261.743 -89.9256 -1775 189 189 147
-257.56 -89.7053 -1771 184 184 141
-253.253 -89.4344 -1766 185 185 141
-249.392 -89.3161 -1764 187 187 141
-245.401 -89.1473 -1761 197 197 151
-241.563 -89.0295 -1759 209 207 161
-237.869 -88.9625 -1758 209 209 161
-234.182 -88.8958 -1757 206 207 158
-230.369 -88.7787 -1755 202 200 149
-226.696 -88.7125 -1754 195 193 142
-223.156 -88.6972 -1754 195 193 142
-219.492 -88.6315 -1753 193 192 135
-215.957 -88.6167 -1753 180 179 119
-212.182 -88.501 -1751 174 172 114
-208.536 -88.4362 -1750 175 173 116
-204.895 -88.3715 -1749 190 189 133
-201.26 -88.3072 -1748 210 208 155
-197.405 -88.1422 -1745 230 227 176
-194.007 -88.1792 -1746 247 244 193
-190.607 -88.2167 -1747 254 251 201
-187.205 -88.2544 -1748 254 252 202
-183.695 -88.2418 -1748 255 252 203
-180.29 -88.2799 -1749 253 250 201
-176.983 -88.3687 -1751 242 239 191
-173.571 -88.4073 -1752 229 226 175
-170.156 -88.446 -1753 219 216 162
-166.738 -88.485 -1754 212 209 154
-163.225 -88.474 -1754 211 208 153
-159.622 -88.4126 -1753 211 206 151
-156.024 -88.3514 -1752 208 203 148
-152.692 -88.4419 -1754 209 204 149
-149.099 -88.3812 -1753 208 201 149
-145.677 -88.4215 -1754 207 200 148
-142.252 -88.4623 -1755 207 200 148
-138.745 -88.4527 -1755 205 198 146
-135.24 -88.4436 -1755 204 197 145
-131.885 -88.5352 -1757 201 196 141
-128.305 -88.4761 -1756 200 195 140
-124.8 -88.4674 -1756 199 194 141
-121.297 -88.4592 -1756 200 195 140
-117.794 -88.4512 -1756 202 197 142
-114.228 -88.3928 -1755 204 199 144
-110.792 -88.4357 -1756 205 200 145
-107.293 -88.4284 -1756 208 201 147
-103.912 -88.5218 -1758 210 204 150
-100.41 -88.5149 -1758 214 209 154
-96.9088 -88.5083 -1758 221 216 163
-93.4616 -88.5523 -1759 224 219 166
-90.1134 -88.6969 -1762 225 220 167
-86.6556 -88.7413 -1763 224 221 168
-83.1474 -88.7357 -1763 226 223 170
-79.7303 -88.8309 -1765 225 222 169
-76.2625 -88.876 -1766 226 222 169
-72.7091 -88.8206 -1765 225 220 167
-69.1994 -88.8159 -1765 224 218 168
-65.6903 -88.8112 -1765 222 216 166
-62.2169 -88.8572 -1766 216 211 161
-58.7401 -88.9035 -1767 212 206 156
-55.3222 -89.0506 -1770 212 206 156
-51.8929 -89.1979 -1773 209 206 155
-48.4248 -89.2951 -1775 206 202 152
-44.9997 -89.4932 -1779 206 200 150
-41.4892 -89.5406 -1780 207 201 151
-37.9537 -89.538 -1780 213 207 157
-34.4378 -89.5859 -1781 219 213 165
-30.9528 -89.7346 -1784 222 216 168
-27.3949 -89.6823 -1783 221 215 167
-23.9481 -90.0327 -1790 217 211 163
-20.4737 -90.3833 -1797 210 204 157
-17.0094 -90.9353 -1808 207 201 160
-13.4717 -91.2863 -1815 201 197 159
-9.94994 -92.04 -1830 195 194 159
-286.892 -95.9495 -1820 175 178 149
-281.166 -95.2441 -1807 181 183 152
-275.495 -94.5391 -1794 200 201 166
-271.091 -94.2562 -1789 207 207 169
-266.56 -93.9209 -1783 201 201 161
-262.056 -93.586 -1777 192 192 150
-258.16 -93.4623 -1775 187 187 144
-253.844 -93.1808 -1770 187 187 143
-249.833 -93.005 -1767 186 186 140
-245.976 -92.882 -1765 189 188 142
-241.992 -92.7069 -1762 201 200 154
-238.157 -92.5847 -1760 206 206 158
-234.332 -92.4627 -1758 207 208 159
-230.517 -92.3411 -1756 208 206 155
-226.841 -92.2722 -1755 205 203 152
-223.171 -92.2037 -1754 202 199 148
-219.632 -92.188 -1754 199 198 143
-215.972 -92.1201 -1753 193 192 136
-212.318 -92.0523 -1752 185 182 126
-208.788 -92.0373 -1752 173 170 114
-205.144 -91.9703 -1751 175 173 117
-201.619 -91.956 -1751 189 186 132
-197.871 -91.8367 -1749 209 206 153
-194.354 -91.8229 -1749 230 227 173
-190.73 -91.7566 -1748 246 244 191
-187.325 -91.7958 -1749 253 250 200
-183.813 -91.7827 -1749 254 251 203
-180.406 -91.8224 -1750 255 252 204
-177.096 -91.9147 -1752 252 248 203
-173.682 -91.9548 -1753 246 243 195
-170.168 -91.9426 -1753 235 232 182
-166.75 -91.9832 -1754 222 219 167
-163.329 -92.0239 -1755 214 211 159
-159.451 -91.803 -1751 214 210 158
-155.945 -91.7918 -1751 213 209 156
-152.529 -91.8333 -1752 210 206 153
-149.194 -91.9277 -1754 210 203 152
-145.687 -91.9172 -1754 209 202 151
-142.262 -91.9594 -1755 207 201 148
-138.913 -92.0544 -1757 206 199 147
-135.48 -92.097 -1758 204 197 145
-131.97 -92.0877 -1758 200 194 141
-128.46 -92.0785 -1758 200 194 140
-124.951 -92.0696 -1758 199 194 141
-121.236 -91.9038 -1755 200 195 141
-117.668 -91.8431 -1754 202 197 142
-114.106 -91.7827 -1753 202 197 142
-110.674 -91.827 -1754 203 198 143
-107.239 -91.8718 -1755 207 202 148
-103.919 -92.0214 -1758 211 207 153
-100.36 -91.9618 -1757 215 212 158
-96.9156 -92.0072 -1758 221 217 165
-93.5211 -92.1053 -1760 226 222 171
-90.0684 -92.1512 -1761 230 226 175
-86.5633 -92.1451 -1761 231 228 176
-83.0588 -92.1389 -1761 231 228 177
-79.555 -92.1333 -1761 229 226 173
-76.0518 -92.1278 -1761 226 222 170
-72.5905 -92.175 -1762 225 219 168
-69.0866 -92.17 -1762 224 218 168
-65.6575 -92.27 -1764 222 216 166
-62.2212 -92.3701 -1766 214 210 159
-58.7441 -92.418 -1767 208 203 152
-55.3261 -92.5709 -1770 204 198 148
-51.9257 -92.7764 -1774 206 201 150
-48.4554 -92.8775 -1776 211 206 155
-44.9775 -92.9788 -1778 208 202 152
-41.492 -93.0804 -1780 208 202 152
-37.9563 -93.0776 -1780 217 211 161
-34.4402 -93.1274 -1781 223 217 169
-30.9551 -93.282 -1784 223 217 169
-27.4428 -93.3845 -1786 221 215 167
-23.9497 -93.5919 -1790 214 208 161
-20.4865 -94.0086 -1798 207 201 154
-17.0105 -94.5302 -1808 205 199 158
-13.4727 -94.8951 -1815 200 197 158
-9.96693 -95.8354 -1833 194 193 158
-286.598 -99.49 -1818 178 181 152
-281.186 -98.8671 -1807 175 178 146
-275.668 -98.19 -1795 195 196 160
-270.959 -97.7868 -1788 208 208 170
-266.579 -97.4935 -1783 203 203 165
-262.075 -97.1461 -1777 194 194 152
-257.888 -96.9082 -1773 189 189 146
-253.576 -96.616 -1768 189 189 145
-249.851 -96.5427 -1767 188 188 142
-245.854 -96.3606 -1764 187 187 141
-242.284 -96.3427 -1764 191 191 145
-238.444 -96.2156 -1762 201 202 154
-234.748 -96.1436 -1761 205 206 157
-230.927 -96.0173 -1759 208 206 156
-227.245 -95.9458 -1758 209 207 156
-223.442 -95.8201 -1756 208 205 154
-219.773 -95.7492 -1755 202 200 148
-216.111 -95.6786 -1754 200 199 146
-212.454 -95.6084 -1753 198 195 141
-209.042 -95.6474 -1754 184 181 127
-205.393 -95.5776 -1753 173 170 115
-202.095 -95.6717 -1755 175 172 116
-198.338 -95.5481 -1753 189 187 130
-194.701 -95.479 -1752 207 206 149
-190.853 -95.3015 -1749 227 225 169
-187.339 -95.2877 -1749 243 241 188
-183.721 -95.2195 -1748 252 249 200
-180.315 -95.2606 -1749 254 251 202
-177.008 -95.3564 -1751 254 251 204
-173.694 -95.4525 -1753 254 251 204
-170.277 -95.4944 -1754 250 248 199
-166.762 -95.482 -1754 241 239 190
-163.434 -95.579 -1756 227 225 175
-159.644 -95.4038 -1753 221 218 168
-156.135 -95.3922 -1753 217 214 163
-152.714 -95.4353 -1754 214 211 159
-149.375 -95.533 -1756 214 210 159
-145.781 -95.468 -1755 212 207 156
-142.353 -95.5118 -1756 209 204 152
-139.002 -95.6102 -1758 208 202 149
-135.49 -95.6003 -1758 207 200 148
-132.054 -95.6448 -1759 203 196 144
-128.615 -95.6898 -1760 202 195 143
-125.102 -95.6804 -1760 202 197 144
-121.383 -95.5084 -1757 204 199 145
-117.878 -95.4997 -1757 205 200 145
-114.374 -95.4911 -1757 206 201 146
-110.745 -95.3743 -1755 208 203 149
-107.308 -95.4206 -1756 211 207 154
-103.868 -95.4673 -1757 215 212 159
-100.367 -95.4599 -1757 219 216 163
-96.9776 -95.5614 -1759 219 216 165
-93.581 -95.663 -1761 222 219 168
-90.126 -95.7107 -1762 230 227 177
-86.6186 -95.7043 -1762 234 231 180
-83.1591 -95.7524 -1763 232 229 177
-79.651 -95.7466 -1763 228 225 172
-76.1005 -95.6864 -1762 227 222 171
-72.6368 -95.7353 -1763 224 218 168
-69.1699 -95.7845 -1764 221 215 165
-65.6994 -95.8339 -1765 218 212 162
-62.2256 -95.8836 -1766 210 207 156
-58.7815 -95.9878 -1768 206 201 151
-55.3612 -96.1465 -1771 201 195 145
-51.9294 -96.3053 -1774 201 195 145
-48.4588 -96.4102 -1776 211 206 155
-44.9807 -96.5154 -1778 215 209 158
-41.4716 -96.5666 -1779 213 208 157
-37.959 -96.618 -1780 216 210 160
-34.4619 -96.7239 -1782 217 211 163
-30.992 -96.9387 -1786 217 211 163
-27.4756 -97.0451 -1788 215 209 161
-24.0184 -97.4232 -1795 209 203 156
-20.488 -97.5844 -1798 205 199 153
-16.9929 -98.0173 -1806 204 198 157
-13.4736 -98.5046 -1815 200 197 158
-9.98395 -99.6435 -1836 194 193 158
-286.619 -103.137 -1818 184 187 158
-281.363 -102.548 -1808 176 178 146
-276.611 -102.129 -1801 188 189 153
-271.737 -101.655 -1793 207 207 169
-266.899 -101.18 -1785 208 208 170
-262.832 -100.99 -1782 198 198 156
-258.053 -100.517 -1774 190 190 147
-254.025 -100.327 -1771 187 187 143
-250.153 -100.195 -1769 189 189 143
-246.012 -99.9491 -1765 188 188 142
-242.439 -99.9304 -1765 187 187 141
-238.598 -99.7988 -1763 194 195 147
-234.899 -99.7242 -1762 202 203 154
-231.076 -99.5931 -1760 208 206 157
-227.262 -99.4624 -1758 207 205 155
-223.713 -99.4452 -1758 208 205 154
-219.915 -99.3152 -1756 206 204 153
-216.374 -99.2987 -1756 204 202 150
-212.713 -99.2258 -1755 203 200 149
-209.177 -99.2097 -1755 196 193 140
-205.642 -99.1938 -1755 182 179 124
-202.34 -99.2914 -1757 172 169 111
-198.466 -99.1065 -1754 174 172 113
-194.938 -99.0917 -1754 187 186 125
-191.085 -98.9074 -1751 203 202 142
-187.674 -98.9495 -1752 220 219 162
-183.945 -98.8225 -1750 238 236 184
-180.535 -98.8652 -1751 251 249 198
-177.021 -98.8516 -1751 255 252 203
-173.707 -98.951 -1753 254 252 204
-170.192 -98.938 -1753 253 251 205
-166.489 -98.8123 -1751 253 251 203
-163.167 -98.9128 -1753 248 246 198
-159.474 -98.7877 -1751 234 232 184
-156.146 -98.8886 -1753 222 219 170
-152.638 -98.8768 -1753 218 215 165
-149.386 -99.0345 -1756 219 215 164
-145.708 -98.9105 -1754 216 212 162
-142.445 -99.0689 -1757 213 208 157
-138.933 -99.0582 -1757 212 206 154
-135.5 -99.1043 -1758 211 204 152
-131.989 -99.094 -1758 208 203 150
-128.552 -99.1407 -1759 206 201 148
-124.969 -99.0746 -1758 207 202 149
-121.392 -99.009 -1757 208 203 149
-117.887 -98.9999 -1757 209 204 149
-114.318 -98.9348 -1756 212 207 154
-110.816 -98.9262 -1756 215 210 157
-107.377 -98.9743 -1757 216 213 160
-103.934 -99.0228 -1758 218 215 164
-100.432 -99.0149 -1758 223 220 169
-97.04 -99.1201 -1760 225 222 172
-93.6411 -99.2256 -1762 223 220 171
-90.1327 -99.2187 -1762 227 224 175
-86.7234 -99.3245 -1764 230 227 176
-83.1652 -99.2618 -1763 228 225 174
-79.6569 -99.2557 -1763 226 223 170
-76.1493 -99.2499 -1763 225 221 169
-72.7659 -99.413 -1766 222 216 166
-69.2534 -99.4077 -1766 217 211 161
-65.816 -99.5152 -1768 213 207 157
-62.3359 -99.5667 -1769 207 204 153
-58.8523 -99.6184 -1770 204 199 149
-55.3966 -99.7267 -1772 202 196 146
-51.904 -99.7789 -1773 200 194 144
-48.4352 -99.8877 -1775 208 202 152
-44.9082 -99.8842 -1775 218 213 160
-41.4047 -99.9371 -1776 218 213 162
-37.9191 -100.047 -1778 214 208 158
-34.4645 -100.269 -1782 212 206 158
-30.9769 -100.435 -1785 210 204 156
-27.493 -100.658 -1789 207 201 153
-24.0201 -100.994 -1795 203 197 150
-20.5237 -101.33 -1801 203 197 151
-17.013 -101.722 -1808 201 196 155
-13.5266 -102.509 -1822 199 196 158
-9.99556 -103.408 -1838 195 192 157
-286.957 -106.901 -1820 187 190 161
-281.696 -106.291 -1810 178 180 149
-276.632 -105.741 -1801 178 179 144
-272.365 -105.484 -1797 203 203 165
-267.368 -104.935 -1788 214 214 175
-262.558 -104.444 -1780 205 205 163
-258.218 -104.13 -1775 193 193 150
-253.901 -103.817 -1770 186 186 142
-249.889 -103.621 -1767 187 187 141
-246.031 -103.484 -1765 187 187 141
-242.321 -103.406 -1764 188 187 140
-238.616 -103.328 -1763 187 187 139
-234.784 -103.192 -1761 191 192 143
-231.225 -103.174 -1761 202 200 152
-227.409 -103.039 -1759 203 201 152
-223.603 -102.904 -1757 201 198 147
-219.932 -102.828 -1756 202 200 149
-216.267 -102.752 -1755 203 201 150
-212.729 -102.735 -1755 205 202 151
-209.312 -102.777 -1756 203 200 148
-205.775 -102.76 -1756 195 192 138
-202.356 -102.803 -1757 183 181 123
-198.82 -102.787 -1757 175 173 113
-195.398 -102.83 -1758 176 174 110
-191.427 -102.581 -1754 188 186 123
-187.796 -102.507 -1753 203 201 141
-184.064 -102.376 -1751 221 220 164
-180.549 -102.361 -1751 237 236 181
-176.934 -102.289 -1750 249 246 194
-173.622 -102.392 -1752 253 251 202
-170.109 -102.379 -1752 253 252 207
-166.502 -102.307 -1751 253 251 204
-163.086 -102.352 -1752 255 254 207
-159.577 -102.34 -1752 251 249 202
-156.248 -102.444 -1754 238 236 188
-152.911 -102.549 -1756 226 223 175
-149.568 -102.654 -1758 222 218 167
-145.969 -102.584 -1757 219 215 164
-142.618 -102.689 -1759 217 211 161
-139.023 -102.62 -1758 215 209 158
-135.511 -102.609 -1758 214 207 155
-132.074 -102.657 -1759 213 208 155
-128.635 -102.705 -1760 212 208 155
-125.05 -102.637 -1759 210 206 154
-121.54 -102.627 -1759 210 206 153
-118.03 -102.618 -1759 213 209 155
-114.457 -102.55 -1758 217 212 159
-110.888 -102.483 -1757 220 215 162
-107.446 -102.533 -1758 221 217 164
-103.942 -102.524 -1758 222 219 167
-100.439 -102.517 -1758 225 222 171
-97.0474 -102.625 -1760 227 224 175
-93.7015 -102.793 -1763 225 222 173
-90.1396 -102.727 -1762 222 219 170
-86.73 -102.837 -1764 222 219 169
-83.1716 -102.772 -1763 225 222 172
-79.7083 -102.824 -1764 223 220 168
-76.2415 -102.876 -1765 220 216 165
-72.8127 -102.987 -1767 217 211 161
-69.298 -102.982 -1767 214 208 158
-65.8583 -103.093 -1769 209 204 153
-62.376 -103.146 -1770 205 202 151
-58.8569 -103.141 -1770 202 197 147
-55.4008 -103.253 -1772 203 197 147
-51.8787 -103.249 -1772 202 197 145
-48.4116 -103.362 -1774 205 200 147
-44.8863 -103.358 -1774 213 208 155
-41.4312 -103.53 -1777 217 211 160
-37.922 -103.585 -1778 216 210 160
-34.4671 -103.815 -1782 213 207 159
-31.014 -104.104 -1787 209 203 155
-27.5412 -104.393 -1792 205 199 151
-24.022 -104.565 -1795 201 195 148
-20.5367 -104.971 -1802 201 195 148
-17.0519 -105.552 -1812 197 193 152
-13.5128 -106.017 -1820 198 195 157
-10.0072 -107.181 -1840 195 192 157
-286.665 -110.432 -1818 192 195 166
-282.03 -110.045 -1812 185 187 155
-277.269 -109.597 -1805 174 175 140
-272.538 -109.149 -1798 195 195 156
-267.689 -108.641 -1790 215 215 175
-262.874 -108.134 -1782 213 213 171
-258.385 -107.749 -1776 197 197 154
-254.065 -107.424 -1771 186 186 142
-250.051 -107.222 -1768 187 186 140
-246.051 -107.019 -1765 187 187 141
-242.203 -106.878 -1763 193 191 143
-238.635 -106.859 -1763 190 190 142
-234.937 -106.778 -1762 186 187 138
-231.244 -106.699 -1761 194 192 144
-227.298 -106.498 -1758 200 198 149
-223.876 -106.54 -1759 196 194 143
-220.2 -106.462 -1758 196 194 143
-216.531 -106.383 -1757 200 198 147
-212.867 -106.305 -1756 206 203 152
-209.567 -106.409 -1758 207 204 152
-205.909 -106.332 -1757 204 201 148
-202.257 -106.255 -1756 196 194 136
-198.723 -106.238 -1756 184 182 123
-195.08 -106.162 -1755 178 176 110
-191.333 -106.025 -1753 178 176 112
-187.811 -106.009 -1753 190 188 126
-184.289 -105.994 -1753 205 204 145
-180.667 -105.919 -1752 219 217 159
-176.948 -105.783 -1750 233 232 176
-173.536 -105.83 -1751 246 245 194
-169.928 -105.755 -1750 251 251 206
-166.42 -105.742 -1750 254 252 206
-163.099 -105.849 -1752 253 251 205
-159.59 -105.836 -1752 254 253 208
-156.171 -105.884 -1753 252 250 205
-152.836 -105.992 -1755 241 237 193
-149.495 -106.1 -1757 230 224 176
-145.814 -105.967 -1755 223 218 169
-142.629 -106.197 -1759 219 213 164
-139.113 -106.186 -1759 217 212 161
-135.598 -106.175 -1759 215 210 158
-132.01 -106.104 -1758 214 210 157
-128.645 -106.214 -1760 214 210 158
-125.06 -106.143 -1759 213 210 159
-121.549 -106.133 -1759 212 209 157
-118.107 -106.184 -1760 217 214 161
-114.531 -106.114 -1759 224 219 166
-111.023 -106.105 -1759 226 222 169
-107.516 -106.096 -1759 226 222 170
-103.951 -106.027 -1758 226 222 171
-100.504 -106.079 -1759 222 219 168
-97.1103 -106.192 -1761 224 221 172
-93.6557 -106.244 -1762 225 222 173
-90.1979 -106.297 -1763 221 219 169
-86.7861 -106.411 -1765 217 214 165
-83.2726 -106.404 -1765 215 213 163
-79.8501 -106.518 -1767 217 214 163
-76.334 -106.511 -1767 218 214 163
-72.942 -106.686 -1770 216 211 160
-69.4604 -106.741 -1771 211 205 155
-65.938 -106.735 -1771 206 200 150
-62.4514 -106.79 -1772 204 200 149
-58.9614 -106.846 -1773 203 197 147
-55.4677 -106.901 -1774 204 198 148
-51.9121 -106.837 -1773 203 198 146
-48.4427 -106.953 -1775 204 199 146
-44.8898 -106.889 -1774 209 204 151
-41.4346 -107.067 -1777 213 208 157
-37.9463 -107.184 -1779 216 211 161
-34.4892 -107.422 -1783 215 209 160
-31.0511 -107.781 -1789 210 204 156
-27.6049 -108.2 -1796 206 200 153
-24.0641 -108.319 -1798 202 196 148
-20.5953 -108.859 -1807 199 193 146
-17.0627 -109.219 -1813 196 192 152
-13.5509 -109.94 -1825 197 194 156
-10.0025 -110.783 -1839 194 192 157
-281.898 -113.618 -1811 190 191 161
-277.446 -113.281 -1806 175 176 141
-273.016 -112.944 -1801 186 186 148
-267.711 -112.231 -1790 206 206 167
-263.043 -111.77 -1783 213 212 169
-258.115 -111.184 -1774 209 208 163
-253.943 -110.911 -1770 195 194 147
-250.072 -110.765 -1768 186 185 138
-246.072 -110.556 -1765 185 184 137
-242.086 -110.347 -1762 189 187 139
-238.655 -110.39 -1763 192 191 142
-234.823 -110.244 -1761 193 194 144
-231 -110.099 -1759 190 188 138
-227.188 -109.955 -1757 196 194 144
-223.767 -109.998 -1758 200 198 148
-220.093 -109.917 -1757 195 192 140
-216.549 -109.899 -1757 193 190 137
-213.128 -109.943 -1758 196 193 142
-209.704 -109.988 -1759 206 203 152
-206.043 -109.908 -1758 212 209 157
-202.504 -109.89 -1758 206 203 149
-198.966 -109.874 -1758 196 193 138
-195.43 -109.857 -1758 183 181 121
-191.786 -109.778 -1757 175 173 113
-188.148 -109.7 -1756 177 175 115
-184.515 -109.622 -1755 186 183 123
-180.785 -109.481 -1753 200 197 136
-177.064 -109.342 -1751 216 214 157
-173.551 -109.327 -1751 230 228 174
-170.039 -109.312 -1751 240 239 189
-166.529 -109.298 -1751 251 249 200
-163.113 -109.347 -1752 253 251 203
-159.785 -109.458 -1754 254 252 207
-156.273 -109.445 -1754 255 252 210
-152.936 -109.557 -1756 253 250 209
-149.592 -109.669 -1758 243 240 196
-145.992 -109.594 -1757 235 232 187
-142.56 -109.644 -1758 224 224 178
-139.046 -109.632 -1758 220 220 171
-135.533 -109.621 -1758 218 217 167
-131.945 -109.547 -1757 216 214 164
-128.582 -109.661 -1759 215 213 162
-125.142 -109.713 -1760 215 213 159
-121.698 -109.765 -1761 216 214 160
-118.251 -109.817 -1762 221 219 165
-114.67 -109.745 -1761 226 223 172
-111.158 -109.736 -1761 227 225 175
-107.647 -109.726 -1761 227 224 177
-104.077 -109.655 -1760 227 224 175
-100.57 -109.647 -1760 224 221 171
-97.2286 -109.825 -1763 222 219 170
-93.7166 -109.817 -1763 221 218 168
-90.2565 -109.872 -1764 221 218 166
-86.8424 -109.989 -1766 219 215 163
-83.3738 -110.044 -1767 211 207 155
-79.9019 -110.1 -1768 209 204 154
-76.4699 -110.218 -1770 213 208 156
-73.0305 -110.336 -1772 214 209 157
-69.5053 -110.33 -1772 209 204 153
-65.9807 -110.324 -1772 205 199 149
-62.527 -110.444 -1774 203 198 146
-58.9662 -110.376 -1773 204 198 146
-55.4723 -110.434 -1774 206 199 147
-51.9163 -110.367 -1773 204 200 149
-48.4466 -110.487 -1775 204 200 149
-44.8935 -110.421 -1774 205 202 150
-41.438 -110.604 -1777 209 206 156
-37.9707 -110.788 -1780 214 211 162
-34.5307 -111.096 -1785 221 215 165
-31.0884 -111.467 -1791 215 209 160
-27.6532 -111.962 -1799 208 202 155
-24.1731 -112.396 -1806 202 196 149
-20.6312 -112.643 -1810 198 192 146
-17.083 -112.952 -1815 196 192 153
-13.5669 -113.698 -1827 195 192 156
-10.0306 -114.755 -1844 194 192 160
-282.078 -117.318 -1812 192 193 164
-277.162 -116.776 -1804 179 180 145
-272.433 -116.299 -1797 176 176 139
-267.435 -115.693 -1788 200 200 163
-262.771 -115.217 -1781 213 212 168
-257.992 -114.676 -1773 215 214 169
-253.965 -114.46 -1770 206 204 157
-250.235 -114.373 -1769 195 193 145
-246.232 -114.158 -1766 186 184 136
-242.381 -114.007 -1764 184 183 135
-238.676 -113.922 -1763 187 187 138
-234.709 -113.707 -1760 190 191 141
-230.889 -113.557 -1758 192 190 140
-227.207 -113.473 -1757 189 187 136
-223.531 -113.389 -1756 194 192 143
-219.987 -113.369 -1756 201 198 147
-216.691 -113.48 -1758 200 197 145
-213.025 -113.396 -1757 198 195 144
-209.603 -113.442 -1758 197 194 143
-206.178 -113.489 -1759 203 200 149
-202.406 -113.342 -1757 207 204 152
-198.757 -113.26 -1756 206 203 150
-195.224 -113.243 -1756 201 199 142
-191.584 -113.162 -1755 188 186 128
-187.842 -113.016 -1753 178 176 116
-184.531 -113.129 -1755 178 173 113
-181.006 -113.113 -1755 186 181 121
-177.281 -112.969 -1753 198 195 136
-173.863 -113.018 -1754 212 209 153
-170.248 -112.939 -1753 224 222 170
-166.543 -112.795 -1751 240 238 188
-163.22 -112.91 -1753 250 248 198
-159.708 -112.896 -1753 253 251 206
-156.108 -112.818 -1752 255 252 209
-152.688 -112.869 -1753 255 253 212
-149.435 -113.049 -1756 253 252 210
-145.922 -113.036 -1756 248 246 204
-142.734 -113.281 -1760 237 238 194
-139.216 -113.269 -1760 230 231 185
-135.698 -113.257 -1760 225 225 178
-132.032 -113.117 -1758 222 221 173
-128.52 -113.105 -1758 222 220 171
-125.01 -113.094 -1758 221 220 166
-121.639 -113.212 -1760 223 222 169
-118.194 -113.266 -1761 226 224 172
-114.615 -113.192 -1760 228 226 175
-111.105 -113.182 -1760 228 226 176
-107.595 -113.173 -1760 227 225 177
-104.086 -113.164 -1760 226 224 175
-100.578 -113.155 -1760 225 222 172
-97.292 -113.403 -1764 222 219 170
-93.7778 -113.395 -1764 219 216 166
-90.2642 -113.387 -1764 219 216 164
-86.8498 -113.508 -1766 220 216 164
-83.3809 -113.565 -1767 216 212 160
-79.8183 -113.494 -1766 208 203 152
-76.4332 -113.68 -1769 202 197 145
-73.0367 -113.866 -1772 203 198 145
-69.472 -113.796 -1771 207 202 151
-66.0607 -113.983 -1774 207 201 151
-62.5676 -114.041 -1775 208 202 150
-59.0377 -114.036 -1775 208 201 150
-55.5083 -114.031 -1775 209 202 151
-52.0086 -114.091 -1776 207 204 153
-48.4507 -114.022 -1775 204 201 150
-44.8973 -113.954 -1774 203 200 149
-41.4648 -114.207 -1778 206 203 152
-37.9954 -114.397 -1781 213 210 160
-34.5723 -114.779 -1787 221 215 165
-31.1257 -115.161 -1793 219 213 164
-27.7017 -115.737 -1802 211 205 158
-24.1885 -116.056 -1807 203 197 150
-20.6785 -116.503 -1814 199 193 146
-17.1315 -116.887 -1820 194 189 150
-13.5829 -117.464 -1829 193 190 155
-10.0368 -118.49 -1845 193 192 161
-282.726 -121.224 -1816 195 196 168
-277.341 -120.464 -1805 189 189 156
-272.76 -120.039 -1799 173 172 137
-268.206 -119.614 -1793 188 187 152
-263.384 -119.056 -1785 210 209 167
-258.451 -118.433 -1776 215 214 170
-254.418 -118.21 -1773 211 211 165
-250.54 -118.054 -1771 204 202 154
-246.533 -117.831 -1768 193 192 144
-242.815 -117.743 -1767 189 189 140
-238.832 -117.521 -1764 186 187 138
-234.997 -117.366 -1762 186 187 138
-231.172 -117.212 -1760 196 194 145
-227.357 -117.058 -1758 198 196 146
-223.679 -116.972 -1757 198 196 145
-220.132 -116.952 -1757 200 198 147
-216.587 -116.932 -1757 200 198 147
-212.922 -116.846 -1756 196 194 143
-209.502 -116.894 -1757 191 189 138
-205.962 -116.875 -1757 195 192 141
-202.309 -116.79 -1756 205 202 149
-198.774 -116.772 -1756 211 208 155
-195.241 -116.755 -1756 209 208 152
-191.601 -116.671 -1755 201 200 143
-187.966 -116.588 -1754 191 189 131
-184.652 -116.704 -1756 185 180 122
-181.229 -116.754 -1757 181 176 117
-177.6 -116.671 -1756 184 179 118
-174.076 -116.655 -1756 194 191 133
-170.457 -116.574 -1755 208 206 153
-166.748 -116.426 -1753 226 224 172
-163.141 -116.345 -1752 241 239 188
-159.54 -116.264 -1751 248 246 199
-156.122 -116.316 -1752 252 250 204
-152.614 -116.302 -1752 254 252 209
-149.363 -116.488 -1755 254 252 208
-145.852 -116.475 -1755 254 253 209
-142.666 -116.728 -1759 251 251 207
-139.228 -116.781 -1760 245 245 201
-135.71 -116.769 -1760 237 237 192
-132.193 -116.757 -1760 229 230 181
-128.605 -116.679 -1759 227 227 177
-125.021 -116.602 -1758 227 225 174
-121.65 -116.723 -1760 228 226 176
-118.137 -116.713 -1760 228 226 177
-114.56 -116.636 -1759 228 226 175
-111.051 -116.626 -1759 226 224 174
-107.543 -116.616 -1759 227 225 176
-103.977 -116.54 -1758 228 225 175
-100.644 -116.73 -1761 226 223 172
-97.3005 -116.92 -1764 223 220 171
-93.7327 -116.845 -1763 219 216 166
-90.3232 -116.97 -1765 214 211 160
-86.8573 -117.028 -1766 212 209 158
-83.3409 -117.02 -1766 211 208 157
-79.8705 -117.08 -1767 210 207 154
-76.4398 -117.205 -1769 199 196 143
-72.9195 -117.199 -1769 196 193 140
-69.478 -117.325 -1771 204 199 148
-65.9921 -117.385 -1772 208 202 152
-62.4673 -117.379 -1772 215 208 158
-59.0429 -117.573 -1775 219 213 163
-55.4818 -117.501 -1774 219 213 163
-51.9839 -117.563 -1775 212 209 158
-48.455 -117.558 -1775 207 204 153
-44.9518 -117.62 -1776 206 203 152
-41.4684 -117.749 -1778 205 200 150
-37.9987 -117.944 -1781 207 201 151
-34.6141 -118.471 -1789 215 209 159
-31.1631 -118.865 -1795 219 213 164
-27.7194 -119.392 -1803 215 209 162
-24.2308 -119.853 -1810 206 200 153
-20.7145 -120.315 -1817 200 194 147
-17.18 -120.843 -1825 194 187 149
-13.6212 -121.437 -1834 192 188 153
-10.054 -122.363 -1848 194 192 160
-282.441 -124.733 -1814 193 194 167
-276.905 -123.882 -1802 196 196 164
-272.33 -123.444 -1796 181 180 146
-267.633 -122.938 -1789 175 174 139
-262.966 -122.433 -1782 205 205 163
-258.766 -122.134 -1778 215 215 171
-254.441 -121.766 -1773 218 218 172
-250.704 -121.674 -1772 213 212 164
-246.695 -121.445 -1769 205 203 155
-242.975 -121.354 -1768 198 199 150
-238.99 -121.125 -1765 196 197 148
-235.285 -121.035 -1764 196 197 148
-231.324 -120.807 -1761 200 198 150
-227.765 -120.786 -1761 205 203 154
-223.954 -120.628 -1759 204 202 151
-220.402 -120.607 -1759 202 200 149
-216.606 -120.45 -1757 205 203 152
-213.063 -120.43 -1757 206 204 153
-209.521 -120.411 -1757 202 200 149
-205.864 -120.323 -1756 198 195 144
-202.212 -120.236 -1755 198 195 142
-198.679 -120.217 -1755 203 200 147
-195.148 -120.199 -1755 206 205 149
-191.509 -120.113 -1754 205 204 148
-188.09 -120.164 -1755 199 196 140
-184.774 -120.283 -1757 191 187 130
-181.245 -120.266 -1757 181 177 119
-177.819 -120.318 -1758 180 177 116
-174.291 -120.302 -1758 185 182 123
-170.764 -120.286 -1758 192 190 134
-166.953 -120.066 -1755 206 203 150
-163.342 -119.982 -1754 220 217 164
-159.554 -119.762 -1751 231 228 179
-156.136 -119.816 -1752 243 240 192
-152.366 -119.596 -1749 250 247 201
-149.121 -119.788 -1752 254 251 206
-145.782 -119.911 -1754 255 254 209
-142.435 -120.034 -1756 253 253 209
-139.162 -120.226 -1759 250 249 206
-135.645 -120.214 -1759 246 244 202
-132.055 -120.133 -1758 241 240 193
-128.47 -120.053 -1757 237 236 189
-125.032 -120.11 -1758 233 231 183
-121.661 -120.235 -1760 228 226 179
-118.148 -120.224 -1760 228 226 178
-114.57 -120.145 -1759 228 226 175
-111.188 -120.271 -1761 225 223 172
-107.614 -120.193 -1760 224 222 172
-104.105 -120.183 -1760 222 220 169
-100.711 -120.31 -1762 220 217 166
-97.3644 -120.506 -1765 219 216 167
-93.7412 -120.361 -1763 217 214 164
-90.3314 -120.489 -1765 210 207 156
-86.7668 -120.412 -1764 206 203 152
-83.3013 -120.473 -1765 208 205 154
-79.8325 -120.534 -1766 209 206 153
-76.4036 -120.663 -1768 204 201 148
-72.926 -120.724 -1769 201 198 145
-69.4451 -120.786 -1770 204 198 148
-65.998 -120.917 -1772 208 202 152
-62.473 -120.911 -1772 215 208 158
-59.0149 -121.041 -1774 224 218 168
-55.4869 -121.036 -1774 230 224 174
-51.9592 -121.031 -1774 227 224 173
-48.4867 -121.163 -1776 219 216 165
-45.0065 -121.295 -1778 211 208 157
-41.4954 -121.36 -1779 206 201 150
-38.0021 -121.492 -1781 207 201 151
-34.6172 -122.035 -1789 209 203 153
-31.1139 -122.236 -1792 214 208 159
-27.6912 -122.848 -1801 214 208 161
-24.2062 -123.323 -1808 209 203 156
-20.705 -123.866 -1816 202 196 149
-17.1627 -124.342 -1823 194 187 149
-13.615 -125.023 -1833 192 187 152
-10.0821 -126.386 -1853 194 191 159
-282.623 -128.449 -1815 185 186 160
-277.546 -127.785 -1806 195 195 165
-272.356 -127.051 -1796 193 192 158
-267.957 -126.671 -1791 177 176 141
-263.581 -126.292 -1786 201 201 159
-259.081 -125.843 -1780 217 217 173
-254.896 -125.536 -1776 222 222 176
-251.011 -125.37 -1774 218 217 169
-246.579 -124.923 -1768 211 209 161
-242.998 -124.899 -1768 197 198 148
-239.147 -124.735 -1766 189 190 141
-235.441 -124.642 -1765 190 191 142
-231.609 -124.478 -1763 191 189 141
-228.045 -124.456 -1763 197 195 146
-224.229 -124.294 -1761 202 200 149
-220.423 -124.131 -1759 202 200 149
-216.75 -124.04 -1758 203 201 150
-212.84 -123.808 -1755 206 204 153
-209.421 -123.858 -1756 206 204 153
-205.883 -123.839 -1756 201 198 147
-202.231 -123.748 -1755 194 191 139
-198.584 -123.659 -1754 193 190 137
-195.166 -123.711 -1755 199 197 141
-191.527 -123.622 -1754 201 200 144
-188.108 -123.674 -1755 201 198 143
-184.791 -123.798 -1757 195 193 136
-181.262 -123.78 -1757 185 183 126
-177.734 -123.763 -1757 181 179 120
-174.406 -123.887 -1759 181 179 120
-170.78 -123.801 -1758 185 183 125
-167.064 -123.644 -1756 191 188 132
-163.45 -123.558 -1755 202 199 143
-159.751 -123.402 -1753 215 212 160
-156.061 -123.246 -1751 228 225 175
-152.555 -123.231 -1751 238 235 187
-149.135 -123.287 -1752 247 244 198
-145.629 -123.273 -1752 252 249 204
-142.205 -123.33 -1753 253 253 208
-138.858 -123.457 -1755 254 252 209
-135.504 -123.585 -1757 252 249 208
-131.992 -123.572 -1757 248 245 200
-128.555 -123.631 -1758 242 240 194
-125.115 -123.689 -1759 236 234 188
-121.741 -123.818 -1761 229 227 180
-118.226 -123.807 -1761 226 224 176
-114.646 -123.725 -1760 225 223 172
-111.198 -123.785 -1761 222 220 169
-107.563 -123.634 -1759 222 220 169
-104.174 -123.764 -1761 222 219 169
-100.72 -123.825 -1762 219 216 166
-97.4287 -124.097 -1766 217 214 165
-93.8563 -124.018 -1765 214 211 162
-90.391 -124.079 -1766 209 206 155
-86.8733 -124.071 -1766 206 203 151
-83.3563 -124.063 -1766 203 200 149
-79.7947 -123.985 -1765 203 200 147
-76.4106 -124.188 -1768 205 202 149
-72.8916 -124.181 -1768 207 204 151
-69.373 -124.174 -1768 208 202 152
-65.9297 -124.309 -1770 210 204 154
-62.4787 -124.443 -1772 214 207 157
-58.9539 -124.437 -1772 215 209 158
-55.492 -124.572 -1774 220 213 163
-51.9934 -124.637 -1775 225 221 170
-48.4911 -124.703 -1776 230 226 175
-45.0107 -124.839 -1778 229 225 174
-41.5227 -124.975 -1780 218 214 163
-38.0696 -125.253 -1784 208 203 153
-34.601 -125.53 -1788 207 200 150
-31.1168 -125.808 -1792 209 203 154
-27.663 -126.296 -1799 211 205 158
-24.1682 -126.715 -1805 210 204 157
-20.6955 -127.415 -1815 204 198 151
-17.1926 -128.185 -1826 197 191 152
-13.6459 -128.956 -1837 193 189 154
-10.083 -130.078 -1853 194 191 159
-282.962 -132.241 -1817 182 184 159
-277.419 -131.34 -1805 193 193 164
-272.382 -130.659 -1796 196 197 163
-268.282 -130.414 -1793 184 185 149
-263.606 -129.878 -1786 187 187 146
-259.689 -129.707 -1784 211 211 169
-254.92 -129.101 -1776 222 222 177
-251.035 -128.93 -1774 222 220 174
-246.742 -128.542 -1769 219 217 170
-243.158 -128.519 -1769 210 209 160
-239.306 -128.349 -1767 200 200 151
-235.864 -128.399 -1768 196 197 148
-232.025 -128.231 -1766 197 195 146
-228.456 -128.208 -1766 196 194 146
-224.633 -128.041 -1764 201 199 149
-220.946 -127.946 -1763 203 201 150
-216.894 -127.634 -1759 202 200 149
-212.861 -127.323 -1755 203 201 150
-209.322 -127.303 -1755 205 203 152
-205.551 -127.137 -1753 206 203 152
-201.905 -127.045 -1752 202 200 148
-198.377 -127.025 -1752 197 195 143
-195.074 -127.151 -1754 197 195 137
-191.546 -127.132 -1754 199 196 140
-188.233 -127.259 -1756 201 198 143
-184.914 -127.385 -1758 201 198 143
-181.383 -127.367 -1758 196 193 137
-177.954 -127.422 -1759 190 187 131
-174.522 -127.478 -1760 182 179 122
-170.991 -127.461 -1760 180 178 118
-167.27 -127.299 -1758 184 182 124
-163.653 -127.211 -1757 194 192 135
-159.858 -126.978 -1754 204 201 147
-156.165 -126.818 -1752 214 211 158
-152.57 -126.73 -1751 225 222 170
-149.149 -126.788 -1752 234 231 185
-145.643 -126.774 -1752 242 239 194
-142.219 -126.832 -1753 249 247 202
-138.713 -126.818 -1753 253 252 207
-135.285 -126.877 -1754 255 253 210
-131.93 -127.009 -1756 253 250 204
-128.494 -127.069 -1757 248 244 199
-125.056 -127.129 -1758 239 237 191
-121.683 -127.261 -1760 229 227 181
-118.237 -127.322 -1761 222 220 173
-114.657 -127.238 -1760 217 215 165
-111.272 -127.372 -1762 216 214 163
-107.696 -127.289 -1761 217 215 162
-104.243 -127.351 -1762 221 219 168
-100.787 -127.413 -1763 221 219 170
-97.3828 -127.548 -1765 220 218 169
-93.8653 -127.539 -1765 216 213 163
-90.4509 -127.674 -1767 216 213 162
-86.8323 -127.521 -1765 215 212 160
-83.3643 -127.586 -1766 208 205 152
-79.8475 -127.578 -1766 208 202 152
-76.3747 -127.642 -1767 207 203 151
-72.8985 -127.707 -1768 208 205 152
-69.4974 -127.917 -1771 211 206 155
-66.0104 -127.983 -1772 213 207 157
-62.5199 -128.049 -1773 212 206 156
-59.026 -128.115 -1774 212 205 154
-55.4973 -128.109 -1774 212 205 154
-51.969 -128.104 -1774 212 207 156
-48.4685 -128.172 -1775 218 213 163
-45.015 -128.384 -1778 227 221 171
-41.5733 -128.668 -1782 226 222 172
-38.0733 -128.809 -1784 221 218 168
-34.6236 -129.166 -1789 210 203 153
-31.1024 -129.308 -1791 208 201 152
-27.6196 -129.666 -1796 209 203 156
-24.1437 -130.169 -1803 210 204 157
-20.6632 -130.816 -1812 206 200 154
-17.1848 -131.753 -1825 200 196 157
-13.6398 -132.546 -1836 194 191 157
-10.0785 -133.699 -1852 192 191 160
-284.08 -136.417 -1824 179 181 157
-278.369 -135.417 -1811 189 189 161
-272.713 -134.417 -1798 195 195 161
-268.908 -134.315 -1797 189 190 154
-264.371 -133.839 -1791 178 178 138
-260.006 -133.439 -1786 201 201 160
-255.376 -132.89 -1779 218 218 175
-251.202 -132.566 -1775 227 225 180
-247.046 -132.242 -1771 225 223 176
-243.32 -132.143 -1770 217 215 167
-239.465 -131.969 -1768 206 205 157
-236.154 -132.094 -1770 201 202 153
-232.574 -132.071 -1770 204 202 153
-228.866 -131.973 -1769 202 200 151
-225.037 -131.801 -1767 201 199 150
-220.968 -131.48 -1763 202 200 149
-217.039 -131.234 -1760 201 199 148
-213.124 -130.989 -1757 202 200 149
-209.701 -131.042 -1758 203 201 150
-205.689 -130.723 -1754 205 203 152
-202.155 -130.703 -1754 205 203 152
-198.623 -130.683 -1754 202 200 149
-195.315 -130.812 -1756 202 200 143
-191.783 -130.792 -1756 200 197 141
-188.466 -130.922 -1758 202 199 144
-184.933 -130.903 -1758 203 201 145
-181.607 -131.034 -1760 203 201 145
-178.173 -131.09 -1761 199 196 141
-174.638 -131.073 -1761 189 187 129
-171.105 -131.055 -1761 181 179 119
-167.572 -131.038 -1761 179 177 118
-163.855 -130.873 -1759 183 181 123
-160.147 -130.708 -1757 192 189 133
-156.359 -130.469 -1754 203 200 145
-152.846 -130.453 -1754 215 212 157
-149.249 -130.364 -1753 226 223 175
-145.657 -130.275 -1752 236 233 186
-142.233 -130.335 -1753 240 238 190
-138.727 -130.321 -1753 247 245 198
-135.222 -130.307 -1753 254 253 207
-131.868 -130.442 -1755 255 254 209
-128.507 -130.578 -1757 253 249 204
-125.068 -130.64 -1758 247 245 199
-121.695 -130.776 -1760 237 234 188
-118.249 -130.838 -1761 227 224 178
-114.734 -130.827 -1761 219 217 168
-111.283 -130.89 -1762 212 209 159
-107.767 -130.879 -1762 209 207 154
-104.194 -130.794 -1761 210 208 158
-100.797 -130.932 -1763 211 209 160
-97.3372 -130.997 -1764 215 213 164
-93.8213 -130.987 -1764 218 216 166
-90.4086 -131.126 -1766 220 217 166
-86.8901 -131.118 -1766 221 218 166
-83.3724 -131.109 -1766 222 219 166
-79.8554 -131.101 -1766 216 210 160
-76.3822 -131.168 -1767 215 210 159
-72.8644 -131.16 -1767 216 213 160
-69.465 -131.376 -1770 217 212 161
-65.9797 -131.443 -1771 217 211 161
-62.5261 -131.585 -1773 214 208 158
-59.0651 -131.727 -1775 211 204 153
-55.5341 -131.722 -1775 210 203 151
-52.0034 -131.716 -1775 208 202 152
-48.5006 -131.786 -1776 212 206 156
-45.0447 -132.004 -1779 218 212 162
-41.554 -132.148 -1781 225 221 171
-38.0983 -132.441 -1785 229 226 177
-34.6077 -132.66 -1788 220 213 163
-31.0707 -132.73 -1789 208 201 152
-27.5915 -133.099 -1794 206 200 153
-24.1194 -133.615 -1801 208 202 155
-20.6538 -134.355 -1811 206 200 153
-17.177 -135.317 -1824 200 196 157
-13.6708 -136.503 -1840 193 191 156
-284.733 -140.392 -1828 174 176 150
-278.859 -139.288 -1814 182 184 156
-273.348 -138.338 -1802 193 194 160
-269.085 -138.002 -1798 193 194 158
-264.545 -137.514 -1792 181 181 141
-260.032 -137.027 -1786 189 189 148
-255.402 -136.463 -1779 213 213 171
-251.228 -136.13 -1775 230 228 182
-247.071 -135.797 -1771 235 233 187
-243.345 -135.695 -1770 224 222 174
-239.761 -135.67 -1770 212 212 163
-236.312 -135.722 -1771 204 205 155
-232.729 -135.698 -1771 207 205 156
-229.019 -135.598 -1770 210 208 159
-225.188 -135.421 -1768 210 208 159
-221.491 -135.321 -1767 209 207 157
-217.431 -134.992 -1763 208 206 155
-213.389 -134.664 -1759 207 205 154
-209.961 -134.718 -1760 206 204 153
-206.061 -134.467 -1757 205 203 152
-202.406 -134.37 -1756 206 204 153
-198.757 -134.272 -1755 204 202 151
-195.447 -134.405 -1757 204 203 149
-191.802 -134.309 -1756 202 201 146
-188.378 -134.366 -1757 202 201 145
-184.952 -134.423 -1758 201 200 144
-181.419 -134.404 -1758 202 201 145
-177.989 -134.462 -1759 199 198 142
-174.557 -134.52 -1760 194 193 135
-171.122 -134.579 -1761 189 187 127
-167.589 -134.561 -1761 182 180 122
-164.058 -134.544 -1761 178 176 118
-160.437 -134.451 -1760 179 177 119
-156.821 -134.359 -1759 187 185 127
-153.384 -134.419 -1760 198 196 138
-149.69 -134.251 -1758 215 212 163
-146.005 -134.083 -1756 230 227 179
-142.329 -133.915 -1754 236 234 185
-138.741 -133.824 -1753 242 240 191
-135.235 -133.81 -1753 250 246 198
-131.731 -133.796 -1753 255 252 207
-128.52 -134.088 -1757 255 251 207
-125.152 -134.228 -1759 253 250 207
-121.777 -134.368 -1761 248 244 200
-118.328 -134.432 -1762 242 238 193
-114.875 -134.496 -1763 234 231 182
-111.357 -134.485 -1763 221 218 168
-107.84 -134.474 -1763 212 209 158
-104.323 -134.463 -1763 208 206 156
-100.864 -134.529 -1764 206 204 155
-97.4022 -134.595 -1765 208 206 157
-93.8308 -134.509 -1764 208 206 156
-90.4176 -134.652 -1766 206 203 152
-86.9481 -134.719 -1767 209 206 153
-83.4752 -134.786 -1768 215 212 159
-79.9539 -134.778 -1768 223 217 167
-76.4331 -134.77 -1768 213 208 157
-72.9131 -134.762 -1768 211 208 155
-69.472 -134.907 -1770 216 210 160
-65.9863 -134.977 -1771 220 214 164
-62.5676 -135.199 -1774 222 215 166
-59.0711 -135.269 -1775 217 210 159
-55.5709 -135.339 -1776 210 203 151
-52.038 -135.334 -1776 203 197 147
-48.56 -135.481 -1778 203 197 147
-45.0746 -135.629 -1780 210 204 154
-41.6282 -135.929 -1784 218 214 165
-38.1875 -136.306 -1789 224 221 172
-34.6499 -136.378 -1790 220 213 163
-31.1085 -136.451 -1791 212 205 157
-27.5942 -136.677 -1794 208 202 155
-24.1084 -137.131 -1800 208 202 155
-20.6559 -137.967 -1811 207 201 154
-17.1505 -138.727 -1821 200 196 157
-13.6499 -139.944 -1837 193 190 155
-284.918 -144.148 -1829 169 171 145
-279.503 -143.251 -1818 175 178 149
-274.287 -142.434 -1808 188 189 156
-269.712 -141.932 -1802 195 196 161
-265.016 -141.352 -1795 188 188 149
-260.642 -140.93 -1790 181 181 141
