ply
format ascii 1.0
comment Created by Open3D
element vertex 739
property double x
property double y
property double z
property double nx
property double ny
property double nz
property uchar red
property uchar green
property uchar blue
end_header
-863.839 -1754.79 -1671.94 0.521218 0.405403 -0.75178 35 25 15
-877.604 -1738.31 -1672.29 0.563882 0.362136 -0.738956 46 37 27
-873.201 -1740.32 -1670.78 0.553172 0.374121 -0.741862 43 34 24
-793.495 -1813.97 -1667.22 0.32708 -0.331003 -0.638916 86 75 60
-787.028 -1807.13 -1667.87 0.377522 -0.570858 -0.608118 75 64 50
-771.78 -1806.82 -1665.3 -0.114959 0.940997 -0.0544273 77 62 54
-786.309 -1804.2 -1662.86 0.150308 -0.0719599 -0.345123 72 60 49
-797.64 -1788.07 -1663.03 0.377972 0.376808 -0.848633 33 27 24
-802.291 -1783.58 -1662.03 0.379089 0.451705 -0.814439 32 29 27
-760.545 -1803.02 -1665.77 -0.342532 0.671012 -0.00840729 79 63 54
-836.677 -1765.85 -1667.6 0.350433 0.505012 -0.788553 29 24 19
-838.649 -1758.87 -1662.84 0.320506 0.528155 -0.786399 29 25 18
-822.063 -1772.93 -1665.52 0.387226 0.480278 -0.786428 29 23 20
-808.998 -1780.34 -1663.22 0.398423 0.464093 -0.789577 30 29 28
-825.955 -1767.59 -1663.79 0.373467 0.493743 -0.785122 29 23 19
-850.778 -1754.97 -1665.08 0.372912 0.494497 -0.783082 32 24 17
-554.862 -1435.13 -1666.94 -0.646902 0.327762 -0.620396 22 22 20
-514.293 -1452.05 -1665.35 0.397402 -0.00636677 -0.91593 24 24 22
-529.156 -1440 -1666.9 0.332039 0.40556 -0.851521 22 22 20
-525.041 -1436.48 -1664.21 0.357981 0.340645 -0.861619 23 23 21
-511.277 -1444.83 -1663.04 0.289291 0.225658 -0.872285 24 24 22
-482.817 -1470.31 -1664.43 0.671906 0.013465 -0.35268 53 52 51
-509.745 -1455.92 -1662.8 0.460483 -0.112371 -0.878164 24 24 22
-481.149 -1453.15 -1664.18 0.684441 0.015742 -0.3436 53 53 51
-480.262 -1442.19 -1663.18 0.671415 0.0137297 -0.354519 53 52 51
-455.71 -1583.85 -1667 0.825559 -0.568002 -0.0261596 210 210 209
-450.152 -1576.11 -1666.07 0.878743 -0.5163 -0.0111633 119 120 118
-443.788 -1558.42 -1662.93 0.989292 -0.05178 -0.0708751 81 125 127
-580.595 -1154.27 -1665.49 -0.845783 0.17178 -0.399683 143 142 142
-579.242 -1139.87 -1663.99 -0.895425 -0.00200557 -0.0457364 158 157 158
-510.795 -1234.22 -1667.39 -0.332747 0.240374 -0.86746 25 25 25
-517.83 -1218.54 -1663.59 -0.500877 -0.107297 -0.842052 22 22 22
-519.998 -1210.93 -1663.73 -0.537753 -0.130257 -0.805117 21 21 21
-558.219 -1187.51 -1661.73 0.432486 0.00139533 -0.911006 22 20 21
-517.633 -1203.9 -1664.63 -0.512716 0.108037 -0.76151 21 21 21
-512.492 -1193.62 -1666.44 -0.3356 0.113663 -0.89514 22 22 22
-505.033 -1232.33 -1667.62 0.0342162 -0.0102262 -0.942094 26 24 25
-501.411 -1225.15 -1667.42 0.156464 -0.0719729 -0.958159 26 24 25
-496.697 -1226.27 -1665.99 0.344635 -0.0621369 -0.908006 26 24 26
-500.178 -1211.86 -1666.96 0.205733 -0.0143893 -0.957261 25 23 24
-494.966 -1217.01 -1666.01 0.367769 -0.000328899 -0.903981 26 24 25
-495.611 -1210.84 -1666.46 0.317653 -0.0151769 -0.919851 25 23 24
-507.374 -1188.96 -1667.03 -0.170117 0.189122 -0.924374 23 22 22
-653.9 -1036.45 -1663.13 0.178048 -0.590878 -0.779019 21 21 21
-645.538 -1031.15 -1662.83 0.344481 -0.553259 -0.771905 15 15 15
-640.492 -1028.38 -1662.27 0.352103 -0.555159 -0.762159 15 15 15
-628.219 -1027.65 -1666.42 -0.426991 -0.680888 -0.516797 16 15 15
-633.961 -1024.05 -1666.82 -0.123851 -0.632395 -0.626552 16 14 15
-462.465 -1010.71 -1664.02 0.946779 0.102525 -0.0362627 24 24 22
-463.284 -999.269 -1663.12 0.960374 -0.0627479 0.192149 51 50 49
-606.777 -830.961 -1665.17 -0.215879 0.541583 -0.756312 25 24 22
-591.427 -831.542 -1667.69 -0.177264 0.632341 -0.703185 31 27 26
-601.713 -825.187 -1662.87 -0.0276404 0.403524 -0.863647 25 24 22
-589.425 -823.08 -1664.53 -0.235714 0.338882 -0.864268 27 24 23
-588.738 -816.338 -1662.86 -0.246016 0.276686 -0.915288 27 24 23
-561.912 -833.234 -1666.85 0.0922016 0.409863 -0.892124 88 86 85
-563.218 -828.774 -1665.32 0.147659 0.332442 -0.914336 83 80 79
-583.959 -816.029 -1663.21 -0.177183 0.346022 -0.902856 27 24 23
-572.733 -823.775 -1665.57 0.108967 0.213459 -0.95432 26 22 22
-568.656 -819.552 -1664.06 0.14047 0.209552 -0.95451 39 35 35
-584.58 -811.91 -1661.47 -0.129269 0.370509 -0.911713 28 24 24
-567.533 -814.167 -1662.52 0.118653 0.285461 -0.932647 30 26 25
-573.62 -791.565 -1661.87 -0.00560849 0.0302747 -0.990693 29 25 26
-566.812 -790.142 -1661.7 0.131211 0.103171 -0.974889 28 24 25
-636.221 -754.303 -1662.91 -0.352428 0.160349 -0.769347 13 13 15
-650.781 -503.571 -1664.18 -0.23884 0.769398 -0.427787 76 70 72
-639.325 -503.035 -1666.66 -0.406624 0.539609 -0.363943 16 10 13
-629.088 -493.007 -1667.13 -0.486211 0.495058 -0.709071 20 14 17
-629.395 -484.68 -1661.81 -0.544058 0.446283 -0.710858 20 16 18
-622.724 -474.016 -1662.29 -0.59378 0.416191 -0.707262 12 9 12
-617.839 -470.148 -1665.46 -0.538701 0.458621 -0.652788 13 10 13
-607.028 -461.681 -1662.53 -0.0760736 0.853301 -0.0859088 14 10 14
-597.026 -462.523 -1665.26 -0.0673788 0.875963 -0.139518 15 11 15
-586.34 -459.631 -1664.24 -0.31794 0.795776 0.0595647 14 10 14
-724.559 -1168.49 -1656.86 -0.254914 -0.0971693 -0.893784 25 25 25
-725.199 -1166.08 -1656.96 -0.262577 -0.0388988 -0.903131 25 25 25
-720.265 -1167.92 -1656.74 -0.0363148 -0.0891672 -0.936312 25 25 25
-522.722 -1800.72 -1655.81 -0.692403 0.333475 -0.619162 43 43 38
-516.667 -1796.54 -1658.25 -0.667149 0.441032 -0.597737 40 41 35
-507.464 -1787.2 -1658.92 -0.689534 0.479787 -0.528634 52 53 48
-502.56 -1779.06 -1658.8 -0.781129 0.466792 -0.414509 86 87 82
-497.076 -1767.73 -1654.93 -0.763892 0.48844 -0.395757 105 106 100
-506.589 -1743.95 -1660.46 0.0376048 0.682914 -0.0513869 74 66 58
-656.69 -1727.77 -1656.07 -0.138317 0.596323 -0.428744 114 88 84
-649.501 -1728.37 -1660.33 -0.201815 0.354611 -0.609028 135 100 96
-635.45 -1730.52 -1659.54 0.118496 0.559884 -0.377357 128 97 90
-649.76 -1716.73 -1659.01 -0.544591 0.302378 -0.679172 136 102 99
-643.964 -1713.89 -1659.47 -0.227961 0.317778 -0.799782 147 107 103
-643.541 -1710.28 -1657.34 -0.189033 0.47398 -0.790313 155 108 104
-634.437 -1721 -1657.26 0.51151 0.206383 -0.765818 145 104 98
-444.312 -1554.97 -1656.37 0.941112 0.0537447 0.0414697 73 133 138
-447.442 -1541.95 -1657.91 0.944602 0.120195 0.0538391 70 158 164
-448.716 -1526.87 -1660.52 0.836803 0.407761 0.289257 26 31 28
-455.032 -1516.06 -1659.27 0.860219 0.327868 0.26412 23 25 22
-455.762 -1506.36 -1657.97 0.936886 0.00570824 0.286106 25 27 24
-453.632 -1501.76 -1661.27 0.931093 -0.12658 0.281137 26 28 25
-453.283 -1486.22 -1657.24 0.841532 -0.0799244 0.534379 24 25 22
-454.872 -1469.93 -1657.16 0.901742 0.154126 0.390437 19 22 19
-456.505 -1461.7 -1656.11 0.910449 0.125359 0.388547 25 27 24
-456.786 -1446.64 -1658.91 0.962025 -0.0112926 0.176703 21 23 19
-455.761 -1439.19 -1659.12 0.950255 -0.11783 0.24213 24 26 22
-561.64 -1430.99 -1661.07 -0.671748 -0.0378346 -0.69269 40 40 39
-563.107 -1420.69 -1660.83 -0.590719 0.174687 -0.687928 89 89 89
-486.272 -1122.95 -1660.83 0.372128 -0.028614 -0.890642 27 26 24
-484.974 -1111.49 -1661.65 0.372928 -0.105871 -0.900489 27 26 24
-685.975 -694.519 -1656.24 -0.194135 -0.152437 -0.963934 13 13 15
-671.605 -706.19 -1655.88 -0.115738 -0.106027 -0.987861 12 11 14
-680.853 -698.385 -1656.31 -0.142883 -0.193873 -0.969769 13 13 15
-681.185 -695.081 -1656.83 -0.149859 -0.174413 -0.973821 13 13 15
-666.972 -701.166 -1657.53 -0.1193 -0.192062 -0.97092 12 12 14
-665.499 -691.315 -1659.14 -0.134297 -0.146002 -0.974143 13 14 16
-683.93 -688.178 -1657.48 -0.214023 -0.11997 -0.965272 13 13 15
-687.996 -676.179 -1656.5 -0.440646 0.11157 -0.869481 13 11 14
-677.843 -685.258 -1658.87 -0.179895 -0.146785 -0.971707 13 13 15
-681.724 -678.468 -1659.37 -0.292856 -0.0847912 -0.929426 12 12 14
-669.82 -686.4 -1659.52 -0.132546 -0.159057 -0.975119 13 13 15
-667.084 -679.688 -1660.94 -0.085669 -0.203315 -0.971281 12 12 14
-676.259 -677.135 -1660.98 -0.185091 -0.17342 -0.956283 12 12 13
-689.096 -659.878 -1656.92 -0.449022 0.0024653 -0.88164 12 12 14
-697.577 -645.886 -1656.05 -0.410373 -0.126688 -0.883215 13 13 15
-685.691 -648.55 -1659.52 -0.462084 -0.0230245 -0.865351 13 13 15
-686.119 -641.294 -1660.04 -0.325054 0.00894621 -0.923906 14 13 16
-533.023 -715.721 -1656.53 0.706532 -0.160429 -0.604767 13 13 15
-533.814 -704.28 -1660.35 0.782717 -0.141662 -0.556043 12 12 14
-531.299 -693.32 -1659.82 0.729382 -0.178589 -0.603518 9 9 11
-527.69 -687.981 -1656.65 0.750001 -0.179615 -0.568302 21 20 23
-525.465 -675.27 -1658.38 0.74598 -0.162607 -0.545378 14 14 17
-522.249 -670.889 -1656.35 0.638708 -0.142441 -0.59696 44 43 46
-523.328 -658.612 -1655.41 0.703318 0.022366 -0.597516 21 20 23
-519.21 -645.781 -1655.74 0.794318 -0.279444 -0.412012 76 76 77
-652.728 -499.867 -1656.43 -0.315343 0.697674 -0.606181 35 26 31
-641.201 -494.245 -1658.85 -0.496639 0.483712 -0.736534 19 11 15
-635.019 -487.282 -1658.73 -0.556757 0.486471 -0.681616 20 16 19
-630.468 -481.029 -1658.33 -0.59487 0.414172 -0.680581 19 15 18
-622.52 -468.831 -1658.46 -0.486067 0.483951 -0.672894 12 9 12
-619.814 -466.736 -1658.64 -0.436104 0.569601 -0.597564 12 9 12
-605.517 -462.045 -1658.73 -0.116775 0.916113 -0.174762 14 10 14
-587.372 -459 -1655.48 -0.265482 0.860354 -0.00630897 13 11 14
-795.706 -1833.07 -1666.73 0.145748 -0.208921 -0.594845 74 64 53
-782.84 -1838.24 -1666.47 -0.210016 -0.0451032 -0.601892 48 44 40
-860.654 -1743.61 -1663.84 0.445094 0.447988 -0.770271 35 26 16
-874.11 -1729.79 -1664.16 0.544818 0.370187 -0.748327 35 27 17
-869.802 -1733.32 -1663.85 0.531525 0.383882 -0.750992 35 27 17
-858.259 -1739.73 -1660.07 0.431636 0.454509 -0.77523 35 26 16
-873.153 -1725.04 -1661.52 0.562409 0.352679 -0.744371 35 27 17
-865.901 -1726.06 -1657.75 0.532103 0.374545 -0.754732 35 27 17
-733.368 -1145.78 -1653.62 -0.148309 0.239856 -0.946956 26 26 26
-731.768 -1137.01 -1651.01 -0.124403 0.243476 -0.961228 25 25 25
-720.653 -1146.23 -1651.58 0.0811331 0.242166 -0.907952 25 25 25
-721.529 -1141.29 -1650.17 0.108094 0.235895 -0.908395 24 24 24
-700.576 -1183.11 -1652.95 0.034173 -0.0832199 -0.990368 26 25 25
-700.355 -1176.47 -1653.32 0.0384996 -0.0700729 -0.991676 27 25 26
-685.736 -1185.23 -1652.85 0.0489403 -0.064576 -0.985869 23 23 24
-686.914 -1178.2 -1653.34 0.0349272 -0.0620638 -0.989545 24 24 25
-707.239 -1161.27 -1655.03 0.190234 -0.00195187 -0.957576 26 25 25
-692.681 -1168.95 -1654.76 -0.11234 -0.0297608 -0.976314 30 27 26
-691.945 -1163.78 -1654.83 -0.152812 0.026358 -0.957265 26 24 25
-675.671 -1185.46 -1651.96 0.0658654 0.00935346 -0.985373 15 15 16
-673.943 -1177.63 -1651.85 0.0686814 0.0422059 -0.984217 17 16 17
-671.334 -1174.02 -1651.99 0.0601418 -0.0190127 -0.976651 27 26 27
-680.81 -1171.02 -1653.95 0.0745407 -0.120384 -0.968445 21 20 21
-674.408 -1166 -1654.55 0.0649032 -0.20246 -0.957315 17 15 17
-662.785 -1170.76 -1651.88 0.0598554 -0.0813151 -0.957519 99 98 99
-706.624 -1154.76 -1654.16 -0.030885 0.13025 -0.925121 24 24 24
-706.408 -1149.79 -1653.15 -0.124785 0.161351 -0.912076 23 23 23
-693.237 -1160.61 -1654.39 -0.143139 0.0620268 -0.949596 24 23 23
-709.497 -1146.29 -1651.85 -0.215051 0.196656 -0.873039 23 23 23
-698.306 -1145.36 -1653.86 -0.236357 -0.000280304 -0.901533 22 21 21
-699.695 -1140.25 -1654.09 -0.314218 -0.0350534 -0.883836 22 21 21
-661.338 -1158.9 -1653.31 0.358328 -0.123765 -0.887271 141 140 140
-662.138 -1141.23 -1654.74 0.598098 -0.0299198 -0.796732 192 192 192
-739.507 -1128.22 -1649.08 -0.309773 0.132587 -0.941283 25 26 24
-723.522 -1136 -1649.5 0.121801 0.251305 -0.955202 23 23 23
-711.92 -1133.95 -1649.28 -0.462583 0.0152421 -0.790004 24 23 23
-727.348 -1034.16 -1651.46 -0.767434 -0.0327279 -0.617007 28 27 24
-713.681 -1032.26 -1653.02 -0.717073 -0.0662173 -0.666606 28 27 24
-729.189 -1019.32 -1650.28 -0.79755 0.030143 -0.562928 28 27 25
-725.745 -1014.22 -1654.02 -0.698018 -0.0548196 -0.675751 26 25 24
-714.467 -1013.41 -1651.25 -0.753768 -0.0308718 -0.647928 28 27 25
-749.958 -1004.96 -1652.62 -0.935992 0.0755783 -0.334361 26 24 25
-748.929 -991.881 -1653.75 -0.941589 0.0124747 -0.33701 26 24 25
-729.312 -1000.21 -1650.92 -0.788743 0.0410368 -0.549764 28 26 25
-711.969 -1005.22 -1654.9 -0.792352 -0.0672499 -0.606397 29 27 26
-730.705 -998.837 -1649.51 -0.839943 0.036108 -0.478992 28 26 25
-715.6 -997.088 -1650.24 -0.769501 0.021579 -0.631888 29 28 26
-713.218 -993.016 -1652.15 -0.778856 0.0897856 -0.608979 29 27 25
-749.257 -980.222 -1652.5 -0.970623 -0.0253126 -0.250916 25 24 23
-747.851 -963.887 -1650.42 -0.968742 0.181697 -0.140057 25 24 22
-728.185 -979.531 -1652.01 -0.73861 0.185304 -0.591089 29 26 25
-712.608 -982.372 -1649.51 -0.720587 0.171615 -0.667174 28 26 24
-723.732 -963.748 -1654.9 -0.670472 0.268145 -0.607958 26 25 24
-746.929 -961.133 -1654.85 -0.959501 0.259772 -0.137306 24 23 21
-745.006 -949.313 -1650.46 -0.963052 0.14671 -0.189835 26 24 23
-633.124 -784.648 -1654.73 -0.320132 -0.0439416 -0.925915 27 24 25
-648.879 -749.51 -1652.15 -0.296051 0.689822 -0.589147 14 14 16
-639.553 -745.239 -1652.72 -0.388785 0.62965 -0.639684 15 14 16
-634.622 -741.01 -1653.71 -0.413695 0.460259 -0.689766 15 14 16
-513.351 -632.154 -1654.04 0.864684 -0.248964 -0.347767 97 97 99
-509.964 -616.027 -1653.33 0.879482 -0.129652 -0.20066 83 82 84
-508.602 -607.916 -1653.83 0.941525 -0.166184 -0.168941 97 97 98
-504.87 -596.826 -1649.1 0.891834 -0.175998 -0.278901 36 35 38
-785.277 -1792.17 -1643.43 0.144296 0.497474 -0.628539 41 34 31
-781.691 -1800.31 -1646.51 0.0484705 0.621053 -0.467341 65 54 46
-765.856 -1800.87 -1649.32 -0.41549 0.862171 -0.0941501 90 72 61
-844.912 -1731.86 -1647.67 0.437977 0.457858 -0.769581 35 26 15
-836.373 -1735.43 -1645.87 0.362608 0.505669 -0.783052 32 25 17
-818.966 -1749.72 -1647.3 0.343542 0.515076 -0.7842 29 23 17
-815.946 -1746.18 -1643.42 0.366821 0.50769 -0.778557 30 24 19
-825.601 -1740.87 -1645.09 0.335226 0.521136 -0.784585 30 23 18
-787.351 -1775.39 -1643.14 0.337428 0.49616 -0.808471 32 26 25
-801.738 -1763.51 -1646.4 0.380835 0.489445 -0.784176 27 24 24
-806.221 -1758.72 -1645.8 0.39237 0.488679 -0.778964 28 25 24
-605.648 -1811.19 -1648.33 0.388357 0.818369 -0.369744 99 91 85
-595.654 -1812 -1645.94 -0.0614285 0.8836 -0.159295 101 94 88
-586.05 -1802.67 -1648.39 -0.649952 0.406347 0.482584 99 93 89
-583.632 -1801.25 -1645.5 -0.685663 0.401544 0.510371 96 91 87
-585.308 -1786.46 -1646.68 -0.523164 -0.142988 0.766929 63 59 55
-649.507 -1776.89 -1644.97 0.26972 -0.16949 0.846169 64 62 60
-648.672 -1773.25 -1644.36 0.204813 -0.200498 0.972123 62 61 59
-644.255 -1768.69 -1643.37 0.183588 -0.172271 0.989784 75 73 72
-643.09 -1766.63 -1643.2 0.181703 -0.152514 0.981844 74 73 71
-611.628 -1774.3 -1644 1.00869 0.0630224 -0.133102 93 83 78
-633.102 -1765.89 -1643.79 0.235708 -0.0654704 0.853252 71 69 67
-625.945 -1757.3 -1643.76 0.138341 -0.0350165 1.03036 63 65 63
-619.682 -1759.35 -1644.62 0.0238936 0.0355044 1.06028 73 73 71
-616.658 -1754.58 -1643.63 0.100352 0.0458817 0.945358 77 74 72
-615.743 -1733.08 -1646.23 0.272905 0.661804 0.014704 96 71 64
-597.886 -1770.61 -1646.5 0.0658021 -0.274583 0.562167 43 40 36
-586.694 -1779.46 -1643.71 -0.332032 -0.262223 0.767221 44 42 38
-608.64 -1767.56 -1643.23 0.759088 0.159361 -0.331996 61 56 52
-604.526 -1760.68 -1644.53 -0.0274623 0.0620367 0.729341 63 59 57
-602.367 -1761.17 -1644.51 -0.0133373 0.035234 0.692475 60 56 53
-588.248 -1756.39 -1643.27 -0.0196339 0.281463 0.771833 58 54 51
-484.077 -1424.17 -1648.4 0.549666 -0.0639587 -0.819265 27 26 24
-461.361 -1424.67 -1647.69 0.919368 0.0236529 0.358782 103 103 102
-462.035 -1412.66 -1645.66 0.965073 0.0120561 0.250984 118 118 117
-487.796 -1394.36 -1643.22 0.592924 0.424954 -0.635894 26 25 23
-491.816 -1386.16 -1643.54 0.495531 -0.10386 -0.815901 23 22 20
-485.224 -1401.35 -1646.34 0.515843 0.254644 -0.781461 25 24 22
-462.382 -1402.72 -1643.26 0.973973 -0.0308249 0.244903 162 162 161
-476.911 -1395.29 -1647.89 0.631835 0.149174 -0.495103 43 42 40
-555.466 -1361.8 -1648.4 -0.36442 0.427811 -0.770446 99 99 99
-548.153 -1354.48 -1648.62 -0.701421 0.475743 -0.476015 30 30 31
-551.877 -1347.29 -1645.97 -0.376466 0.274387 -0.78884 95 95 96
-459.1 -1180.23 -1648.65 0.783884 -0.021146 -0.0969042 57 55 55
-460.81 -1167.85 -1645.86 0.68838 0.0288311 -0.377025 59 58 58
-459.34 -1156.7 -1647.48 0.921847 0.028685 0.19459 105 105 104
-459.984 -1144.36 -1647.68 0.935076 0.0573458 0.17236 82 82 80
-458.811 -1128.92 -1648.64 0.969301 -0.0211452 0.205022 135 134 133
-460.48 -1114.96 -1647.74 0.840948 0.113738 -0.0746583 103 102 102
-460.114 -1096.73 -1648.98 0.934413 0.0982958 0.126646 112 111 111
-755.16 -1025.15 -1645.89 -0.93324 0.119009 -0.294106 28 26 26
-753.951 -1017.8 -1644.53 -0.949534 0.150966 -0.242517 27 25 25
-716.756 -586.25 -1649.09 -0.612768 -0.107491 -0.759487 13 12 15
-716.738 -573.792 -1647.2 -0.717176 0.183523 -0.643156 14 13 18
-714.426 -560.687 -1644.32 -0.801903 0.202037 -0.565603 15 14 19
-713.418 -550.331 -1646.39 -0.729834 0.0164808 -0.649725 14 13 18
-714.055 -542.523 -1647.46 -0.664837 -0.0853309 -0.738231 13 12 17
-474.489 -925.186 -1649.28 0.690839 0.119419 -0.283093 114 113 114
-475.121 -917.499 -1642.91 0.651154 0.48854 -0.465312 25 22 22
-483.516 -900.953 -1645.89 0.880323 0.0516581 0.169565 185 129 62
-480.879 -893.183 -1648.05 0.947474 -0.130134 0.141981 151 125 97
-516.14 -802.882 -1647.12 0.619517 0.430083 -0.442405 74 71 70
-519.643 -799.162 -1647.1 0.633749 0.47735 -0.366612 75 72 71
-496.875 -833.749 -1648.56 0.713474 0.452737 -0.430812 135 133 133
-503.233 -824.629 -1644.61 0.670772 0.540207 -0.372672 128 126 126
-524.558 -785.027 -1644.43 0.777838 0.283371 -0.298925 112 109 109
-527.458 -771.63 -1646.74 0.777687 0.250857 -0.434485 59 56 56
-498.005 -443.704 -1644.3 0.423111 0.665059 0.620648 26 24 28
-489.496 -447.654 -1645.6 0.38744 0.730472 0.570821 29 26 31
-476.664 -460.296 -1646.03 0.416117 0.64585 0.62233 29 23 27
-484.523 -448.46 -1648.02 0.387846 0.730692 0.557366 29 26 30
-299.112 -631.076 -1647.4 0.304915 0.824538 0.44626 204 168 167
-282.739 -635.834 -1649.43 0.306506 0.821595 0.458586 202 167 166
-610.981 -426.755 -1643.53 -0.631486 -0.111636 -0.772303 10 8 11
-611.133 -397.564 -1646.6 -0.0441396 0.322463 -0.87187 19 17 21
-606.029 -434.418 -1644.01 -0.532228 -0.461807 -0.720622 14 12 15
-594.023 -439.84 -1648.18 -0.777787 -0.495378 -0.342836 19 16 19
-605.009 -419.067 -1648.25 -0.743101 0.0782995 -0.611212 13 10 14
-603.9 -406.504 -1647.38 -0.625174 0.372485 -0.499277 16 14 17
-602.727 -402.752 -1644.05 -0.363706 0.363346 -0.552499 15 13 16
-857.856 -1727.06 -1652.89 0.514926 0.392313 -0.760942 35 26 17
-862.687 -1707.37 -1645.51 0.599036 0.328196 -0.728834 34 27 17
-866.777 -1713.81 -1652.43 0.591688 0.331155 -0.734791 35 28 17
-870.211 -1699.05 -1644.96 0.634776 0.287905 -0.71657 33 26 16
-472.018 -460.014 -1655.59 0.39856 0.593317 0.59249 31 25 29
-400.096 -593.368 -1647.78 0.31108 0.0983441 0.835811 97 84 89
-386.276 -595.964 -1645.58 0.314382 0.0925245 0.841458 95 82 87
-379.956 -599.287 -1651.99 0.315117 0.106221 0.829669 97 84 89
-374.939 -598.965 -1644.7 0.310864 0.284276 0.706317 126 107 112
-367.456 -600.47 -1643.14 0.310483 0.387983 0.645045 145 123 127
-410.962 -587.218 -1639.54 0.381814 0.271397 0.687295 85 73 78
-326.54 -616.598 -1646.63 0.232012 0.847652 0.363324 204 171 172
-319.625 -619.73 -1643.63 0.538555 0.748901 0.23013 205 169 173
-315.416 -622.425 -1645.96 0.593723 0.713711 0.242531 205 169 173
-359.717 -603.936 -1652.59 0.309508 0.43891 0.615468 154 130 133
-344.539 -609.417 -1650.91 0.299238 0.684861 0.462804 196 164 166
-340.195 -611.129 -1646.07 0.293246 0.750886 0.421007 205 172 174
-335.786 -613.303 -1644.33 0.253781 0.80168 0.396716 205 171 173
-310.738 -625.623 -1652.58 0.408127 0.76349 0.377541 205 169 171
-309.024 -627.837 -1642.93 0.451433 0.773917 0.362963 205 169 170
-775.155 -1798.3 -1637.58 -0.23354 0.925165 -0.349486 11 9 7
-762.79 -1795.65 -1637.31 -0.406758 0.830941 -0.259767 76 61 52
-810.865 -1744.51 -1639.53 0.369053 0.503593 -0.780312 30 25 21
-823.966 -1735.27 -1640.17 0.343818 0.517435 -0.783199 30 24 20
-812.334 -1742.09 -1638.97 0.365924 0.503837 -0.781775 30 24 20
-785.279 -1779.59 -1640.93 0.313069 0.498448 -0.792534 31 26 25
-802.241 -1757.88 -1642.4 0.381398 0.492362 -0.781719 29 26 26
-789.633 -1765.44 -1639.43 0.349603 0.509022 -0.787256 29 24 22
-804.868 -1753.78 -1641.43 0.380765 0.496136 -0.7795 29 26 23
-806.296 -1744.49 -1636.87 0.368316 0.501594 -0.782123 29 26 22
-748.746 -1782.65 -1639.62 -0.832828 0.257576 0.381197 85 65 58
-716.99 -1790.89 -1637.41 -0.538241 0.312563 0.238764 96 79 72
-714.334 -1784.07 -1638.77 -0.543662 0.224632 0.249243 90 76 69
-701.248 -1795.8 -1637.22 0.0468393 -0.56396 0.70396 83 83 82
-735.155 -1067.95 -1638.44 -0.558255 -0.0807607 -0.779289 24 24 23
-729.545 -1075.68 -1642.16 -0.684997 -0.0911353 -0.645076 26 24 23
-725.661 -1074.34 -1638.58 -0.816953 -0.0651418 -0.515197 27 25 23
-731.013 -1066.19 -1642.53 -0.69368 -0.0382272 -0.659044 26 25 24
-737.131 -1061.58 -1637.45 -0.542434 -0.11901 -0.774137 24 24 24
-736.99 -1043.8 -1640.08 -0.574734 -0.275617 -0.707026 24 24 24
-738.907 -1040.63 -1637.72 -0.576921 -0.212175 -0.703023 25 24 24
-723.706 -1055.46 -1637.53 -0.836 0.0206531 -0.537238 27 26 24
-721.708 -1044.96 -1641.32 -0.816245 -0.065775 -0.571868 29 28 25
-667.387 -1084.76 -1641.35 0.763392 0.0460122 -0.606389 8 5 6
-664.456 -1080.5 -1637.91 0.664393 -0.107852 -0.727881 5 3 4
-661.849 -1065.82 -1642.65 0.432572 -0.331288 -0.819325 75 75 75
-638.325 -1785.23 -1637.92 0.449033 0.0100247 0.404544 88 80 74
-612.931 -1782.05 -1642.47 0.990635 0.0758142 -0.121995 103 90 84
-658.363 -1453.79 -1640.98 0.0836647 -0.0902844 -0.978533 22 22 20
-654.627 -1448.43 -1640.06 0.221511 -0.0270017 -0.947511 24 24 22
-658.326 -1440.43 -1641.23 0.268538 0.0734096 -0.92254 21 21 21
-655.293 -1434.17 -1637.79 0.436411 0.215663 -0.856557 22 22 22
-571.847 -1478.84 -1638.67 -1.00077 0.18759 -0.152157 20 20 22
-569.781 -1464.94 -1641.14 -0.999933 0.102819 -0.0867038 17 16 16
-571.638 -1456.82 -1639.11 -0.924388 -0.102033 -0.302352 19 19 19
-572.843 -1434.24 -1637.1 -0.95949 0.0992712 -0.275614 20 21 21
-485.403 -1526.27 -1641.23 0.491851 0.028917 -0.866538 21 21 19
-484.961 -1523.36 -1641.29 0.507445 0.00701649 -0.854 21 21 19
-462.713 -1532.54 -1637.02 0.698289 0.424461 0.220119 200 195 189
-480.312 -1518.41 -1641.66 0.649416 0.0688868 -0.476095 55 55 53
-464.133 -1519.37 -1640.77 0.852035 0.114753 0.51862 149 149 148
-680.137 -500.321 -1637.22 -0.253788 0.535501 -0.773513 28 24 29
-669.107 -493.511 -1639.38 -0.485671 0.461419 -0.732703 26 20 24
-664.889 -489.124 -1638.91 -0.451788 0.511286 -0.723428 25 20 24
-463.722 -1036.97 -1640.52 0.904901 0.0730653 0.258377 38 36 35
-463.924 -1024.14 -1640.45 0.879952 0.0389344 0.251103 30 27 26
-465.001 -999.942 -1638.22 0.968171 0.0808824 0.139216 35 31 30
-464.41 -989.877 -1638.19 0.945081 -0.0333534 0.171617 32 28 27
-467.534 -976.007 -1642.08 0.778224 0.334524 -0.294902 31 27 24
-468.358 -968.797 -1636.84 0.937372 0.113624 0.0488225 25 21 20
-467.816 -955.521 -1636.9 0.967797 -0.0177864 -0.042201 25 21 20
-470.662 -938.587 -1641.28 0.9343 0.218876 0.0437396 39 35 34
-493.964 -568.787 -1638.15 0.885438 -0.335668 -0.0709447 39 39 42
-486.932 -554.685 -1643.8 0.783226 -0.518314 -0.145061 51 50 52
-483.435 -543.417 -1637.14 0.909623 -0.332666 0.179015 14 14 16
-657.143 -486.258 -1640.88 -0.427597 0.554266 -0.710291 25 21 25
-647.94 -474.599 -1637.97 -0.577998 0.41651 -0.69191 22 19 22
-642.6 -467.81 -1639.66 -0.643954 0.370695 -0.664968 20 17 20
-634.155 -463.102 -1642.6 -0.519249 0.576696 -0.611901 19 16 20
-625.77 -457.093 -1637.65 -0.274834 0.825913 -0.498064 15 13 16
-610.655 -456.935 -1642.1 -0.27607 0.49127 -0.535325 18 16 19
-779.745 -1794.12 -1633.02 -0.233287 0.881143 -0.374205 17 14 12
-769.117 -1794.41 -1630.72 -0.246976 0.891632 -0.385967 39 32 27
-821.273 -1730.91 -1635.74 0.34144 0.515641 -0.785279 30 24 20
-812.11 -1735.91 -1634.8 0.360618 0.501481 -0.786136 29 23 20
-784.993 -1758.43 -1631.24 0.331782 0.517658 -0.778678 29 25 22
-782.7 -1773.74 -1633.38 0.279102 0.536023 -0.75756 35 30 27
-805.488 -1744.55 -1636.38 0.371185 0.500325 -0.781646 29 26 22
-790.425 -1754.88 -1633.28 0.356596 0.510987 -0.778465 29 25 21
-802.149 -1738.83 -1630.39 0.389934 0.492411 -0.777723 28 26 22
-751.303 -1787.33 -1635.27 -0.748751 0.576026 0.0510549 97 74 65
-713.771 -1789.64 -1635.85 -0.368476 0.166084 0.409873 99 87 81
-706.759 -1793.41 -1636.25 0.0687182 -0.352567 0.855853 105 104 102
-761.075 -1062.42 -1634.61 -0.909395 -0.144742 -0.342149 28 28 28
-761.459 -1051.68 -1636.07 -0.857284 -0.018608 -0.411806 29 27 28
-759.762 -1037.02 -1631.96 -0.975554 0.171988 -0.146768 30 28 28
-755.235 -1126.55 -1633.51 -0.882817 -0.0610917 -0.375433 26 26 26
-755.409 -1120.31 -1631.71 -0.92209 0.00112025 -0.295485 27 27 27
-735.616 -1113.19 -1631.76 -0.614868 0.0161312 -0.661868 26 26 25
-730.636 -1128.37 -1634.74 -0.692077 0.0130475 -0.60054 26 26 25
-730.241 -1118.53 -1635.3 -0.693927 0.0196778 -0.611373 26 25 24
-732.954 -1115.62 -1633.56 -0.592083 0.0218307 -0.697216 26 25 25
-755.215 -1106.63 -1634.78 -0.907179 -0.0348747 -0.376945 26 26 26
-735.62 -1101.61 -1633.05 -0.669553 -0.00665664 -0.642095 26 25 24
-755.92 -1095.97 -1634.87 -0.856102 -0.0173489 -0.484953 25 25 25
-737.934 -1096.55 -1631.81 -0.650121 -0.00698238 -0.651223 25 25 25
-733.18 -1107.4 -1633.99 -0.631182 0.00715795 -0.680034 26 25 24
-733.002 -1101.18 -1635.18 -0.662702 0.00503872 -0.662091 26 25 24
-725.39 -1092.02 -1636.59 -0.85624 -0.0102523 -0.480118 27 26 25
-660.144 -1093.59 -1632.42 0.753831 0.045977 -0.630349 10 8 8
-756.697 -1085.49 -1636.29 -0.786285 -0.124447 -0.545821 25 25 25
-740.563 -1076.98 -1631.78 -0.536166 -0.0830114 -0.795401 24 23 23
-440.857 -1591.7 -1634.88 0.292191 -0.108253 -0.937414 18 17 14
-435.612 -1602.05 -1631.09 0.403093 -0.109327 -0.906855 23 22 19
-435.199 -1585.34 -1633.25 0.401668 -0.073159 -0.881832 18 17 14
-439.384 -1571.61 -1630.68 0.578314 0.57493 -0.60358 21 20 18
-455.64 -1559.13 -1631.18 0.527572 0.174585 -0.100362 74 75 74
-445.933 -1567.51 -1631.76 0.514188 0.506297 -0.525972 34 33 31
-458.439 -1548.37 -1633.85 0.715357 0.18814 0.155507 138 113 81
-460.079 -1538.25 -1635.12 0.782474 0.364304 0.317486 208 174 134
-642.184 -1181.64 -1635.96 0.724342 0.0261677 -0.675988 16 14 15
-639.208 -1179.98 -1631.65 0.786887 0.114468 -0.601422 19 17 18
-642.837 -1165.92 -1632.54 0.801444 0.153445 -0.57883 18 18 19
-644.256 -1153.17 -1630.24 0.826127 0.167019 -0.531308 17 17 19
-649.607 -1141.66 -1634.4 0.850598 0.21064 -0.476883 45 44 45
-575.833 -1177.52 -1636.94 -0.945101 0.180164 0.296552 18 16 17
-573.578 -1165.43 -1632.48 -0.9777 0.0729232 0.127791 18 16 17
-575.691 -1149.45 -1633.11 -0.936315 -0.112243 -0.168054 18 16 17
-578.735 -1140.64 -1632.46 -0.809816 -0.25465 -0.472768 16 14 15
-713.762 -728.3 -1632.02 -0.682371 -0.41219 -0.601427 71 71 73
-715.979 -717.791 -1633.67 -0.803096 -0.243007 -0.525005 49 49 50
-718.853 -704.14 -1629.78 -0.832113 -0.00531148 -0.513559 18 18 20
-714.672 -701.664 -1636.4 -0.681079 0.111358 -0.706711 113 113 114
-709.001 -730.227 -1636.38 -0.627988 -0.3856 -0.669594 188 188 189
-721.793 -671.674 -1631.5 -0.833981 -0.261447 -0.471098 42 42 44
-720.066 -668.664 -1637.12 -0.797262 -0.233286 -0.536035 59 58 60
-721.071 -654.724 -1636.19 -0.862894 -0.0554723 -0.471542 174 174 175
-519.955 -730.693 -1631.96 0.856714 -0.19573 -0.0627532 35 34 37
-519.278 -712.753 -1633.68 0.901701 0.0670511 -0.16598 23 21 24
-519.989 -697.795 -1635.02 0.914617 -0.0189569 -0.145034 51 50 52
-519.381 -691.234 -1635.83 0.932144 -0.0940025 -0.114166 54 54 55
-516.214 -676.211 -1634.12 0.947315 -0.274088 0.0650959 11 11 13
-512.607 -663.511 -1630.93 0.955991 -0.257089 0.0727117 14 14 16
-508.603 -641.928 -1636.27 0.915485 -0.0842725 -0.138876 59 59 61
-606.212 -300.803 -1632.6 -0.581207 0.287582 -0.736432 22 20 24
-577.6 -313.256 -1636.13 0.331051 -0.379715 -0.766054 14 13 18
-565.468 -315.508 -1634.84 0.501238 -0.325227 -0.637367 15 15 19
-564.69 -313.346 -1633.45 0.478975 -0.308046 -0.625859 15 15 19
-567.046 -298.811 -1632.16 0.709638 -0.394662 -0.47814 16 15 19
-600.771 -293.061 -1636.1 -0.296391 0.326744 -0.798139 22 21 26
-600.568 -279.109 -1630.65 -0.294721 0.548303 -0.66856 26 25 30
-590.047 -278.281 -1635.53 -0.209428 0.63706 -0.743098 26 25 30
-564.399 -289.703 -1634.77 0.667002 -0.113009 -0.590574 17 16 20
-575.896 -275.052 -1631.71 0.0892587 0.839814 -0.525269 25 24 29
-567.995 -280.551 -1633.32 0.563294 0.646261 -0.359141 21 20 24
-533.092 -333.627 -1635.23 0.374209 0.448953 0.0636105 14 12 15
-528.563 -320.42 -1632.87 0.223649 0.468433 0.226183 13 12 14
-555.22 -309.417 -1632.7 0.248667 0.474728 -0.377013 15 15 17
-538.454 -306.847 -1635.2 0.0758558 0.57388 -0.247388 14 14 16
-777.477 -1792.02 -1626.48 -0.262875 0.907629 -0.34805 59 48 41
-765.108 -1792.51 -1629.09 -0.267907 0.881881 -0.387826 65 53 45
-781.939 -1764.9 -1630.55 0.304515 0.520178 -0.779742 31 26 24
-784.806 -1751.23 -1626.44 0.346043 0.509028 -0.77229 30 28 23
-787.172 -1746.91 -1625.5 0.369883 0.502365 -0.775557 29 27 23
-752.541 -1787.14 -1627.91 -0.533277 0.787174 -0.196833 98 77 67
-715.042 -1791.17 -1628.19 -0.461416 0.629771 -0.0278989 96 77 67
-685.034 -1782.75 -1628.24 -0.27147 -0.497005 0.515843 54 49 48
-673.393 -1782.15 -1628.79 0.2877 -0.586568 0.450856 62 58 56
-741.417 -1773.29 -1625.47 -0.79689 0.369934 0.213711 84 64 56
-734.727 -1759.91 -1627.89 -0.649968 0.149332 0.318002 75 59 51
-717.306 -1779.17 -1627.68 -0.542782 0.443801 0.091088 88 71 62
-729.401 -1756.06 -1626.65 -0.758142 0.172911 0.398474 81 62 54
-494.405 -1663.58 -1627.4 0.318154 -0.495097 -0.807561 23 20 19
-488.968 -1660.89 -1626.76 0.318527 -0.49699 -0.80743 24 21 19
-478.109 -1658.51 -1624.82 0.291501 -0.512427 -0.807491 22 21 19
-474.109 -1650.92 -1629.24 0.275655 -0.493823 -0.81406 23 22 20
-469.555 -1648.26 -1629.25 0.287519 -0.473006 -0.821289 23 22 20
-456.757 -1645.71 -1625.45 0.359882 -0.454016 -0.814801 22 21 19
-449.437 -1641.04 -1624.99 0.342917 -0.434194 -0.831623 22 20 18
-442.573 -1638.1 -1624.34 0.296856 -0.442459 -0.846086 26 22 22
-439.916 -1633.43 -1625.96 0.30921 -0.404667 -0.859255 25 21 20
-629.573 -1624.7 -1628.36 0.641309 -0.0282253 -0.763766 111 107 105
-576.151 -1350.94 -1627.79 -0.814866 0.314532 -0.473671 21 21 21
-572.184 -1345.19 -1628.94 -0.766667 0.40944 -0.455455 18 18 18
-466.836 -1429.33 -1628.78 0.913748 -0.0835873 0.321228 37 37 35
-465.93 -1420.24 -1625.18 0.853549 -0.109656 0.0973905 28 27 25
-465.236 -1408.44 -1625.4 0.884383 -0.0316518 0.192341 32 31 29
-466.431 -1388.08 -1625.78 0.936835 -0.0172397 0.306917 32 33 31
-464.494 -1374.14 -1624.24 0.951324 -0.014838 0.0892862 25 25 23
-464.65 -1359.68 -1628.32 0.866555 0.0461569 -0.0875246 52 52 50
-464.757 -1348.97 -1626.06 0.844519 0.00279402 -0.140771 27 27 25
-462.887 -1337.62 -1628.81 0.688194 -0.0378014 -0.461466 52 51 50
-658.119 -1323.98 -1625.73 0.221624 0.21011 -0.943566 56 57 57
-729.352 -886.082 -1627.28 -0.889048 0.141433 -0.34005 26 23 24
-727.817 -873.201 -1625.14 -0.914014 0.244733 -0.285466 26 23 23
-723.145 -862.803 -1626.25 -0.775413 0.42414 -0.384881 25 22 23
-714.086 -853.017 -1630.5 -0.684132 0.486913 -0.531894 23 21 22
-714.336 -840.307 -1625 -0.831364 0.161031 -0.496289 23 21 22
-713.701 -832.338 -1625.3 -0.733442 0.20179 -0.597591 23 21 22
-472.197 -901.652 -1626.76 0.707076 0.257975 -0.396823 90 87 86
-473.706 -894.177 -1627.16 0.66535 0.292979 -0.62267 74 64 63
-492.045 -867.75 -1624.27 0.761918 0.454583 0.472999 29 25 23
-482.472 -878.322 -1627.41 0.80986 0.496638 0.0589393 22 16 15
-493.441 -860.303 -1626.38 0.824122 0.366985 0.392131 28 25 23
-498.985 -841.853 -1624.98 0.913182 0.209286 0.298133 29 25 24
-450.777 -1033.8 -1628.12 0.56649 0.00478913 -0.815569 32 28 29
-444.512 -1035.81 -1629.17 0.549921 -0.0177928 -0.833815 31 27 29
-442.464 -1025.51 -1627.98 0.574493 -0.0143462 -0.815388 32 27 30
-449.402 -1016.75 -1628.44 0.609502 3.9133e-05 -0.774478 33 28 30
-440.455 -1022.45 -1625.95 0.616485 0.0375331 -0.779821 32 27 30
-450.461 -1007.63 -1625.5 0.708663 0.136661 -0.680892 33 29 29
-448.978 -1006.68 -1626.35 0.714318 0.146845 -0.675709 33 29 29
-605.148 -288.645 -1630.54 -0.330033 0.50875 -0.661191 26 25 29
-605.08 -277.67 -1625.14 -0.566066 0.381258 -0.67267 26 25 29
-601.282 -275.201 -1627.48 -0.438452 0.461405 -0.69977 25 24 29
-585.285 -271.12 -1628.03 -0.04722 0.735887 -0.677517 26 25 30
-581.655 -270.347 -1627.58 -0.00071071 0.709128 -0.678221 26 25 30
-562.702 -276.295 -1625.91 0.311805 0.521228 -0.712769 20 20 23
-565.731 -274.12 -1626.16 0.342383 0.524734 -0.677486 20 19 23
-574.106 -263.219 -1625.39 0.0992184 0.166133 -0.916324 25 24 28
-572.187 -267.999 -1626.27 0.149128 0.432952 -0.783097 24 23 27
-562.066 -258.615 -1625.11 0.629112 -0.332509 -0.553125 29 26 30
-568.732 -256.817 -1626.16 0.357728 -0.154853 -0.782928 27 25 29
-564.572 -247.161 -1625.1 0.603255 -0.180862 -0.58079 26 24 28
-533.338 -332.962 -1626.99 0.688712 0.201906 0.219358 16 13 14
-529.257 -319.245 -1629.25 0.269327 0.380643 -0.13344 13 12 13
-549.012 -300.67 -1625.92 0.139428 0.553673 -0.730315 14 14 16
-554.967 -296.019 -1625.21 0.283131 0.112073 -0.779366 14 14 16
-541.796 -302.534 -1625.67 0.198001 0.688674 -0.481948 14 14 16
-528.703 -311.925 -1626.49 0.66223 -0.0263153 0.287323 14 13 14
-554.928 -290.8 -1626.04 0.391046 -0.0596915 -0.789118 15 15 17
-558.748 -286.419 -1629.87 0.592506 -0.0709505 -0.680968 16 16 20
-775.801 -1788.18 -1618.74 -0.254969 0.90711 -0.355516 80 65 55
-770.56 -1790.93 -1623.05 -0.239229 0.901228 -0.372017 67 55 46
-780.582 -1765.46 -1618.71 0.179447 0.571844 -0.690998 41 35 31
-787.65 -1744.02 -1623.84 0.374504 0.501101 -0.775178 29 27 22
-784.684 -1743.5 -1621.35 0.363608 0.506835 -0.778194 29 27 22
-778.951 -1755.44 -1621.82 0.267429 0.520692 -0.74555 35 30 26
-754.616 -1786.86 -1623.41 -0.37917 0.876753 -0.30674 97 78 67
-714.036 -1787.33 -1618.08 -0.200301 0.639748 -0.0698601 82 66 56
-682.947 -1782.4 -1623.52 -0.39384 -0.383674 0.37548 61 52 50
-674.926 -1785.7 -1619.71 -0.219439 -0.194255 0.335293 52 46 43
-742.402 -1775.25 -1624.54 -0.814233 0.437439 0.177672 88 67 58
-735.66 -1761.67 -1621.95 -0.802078 0.178828 0.344841 81 63 55
-716.265 -1780.42 -1622.44 -0.426414 0.619703 -0.00129325 91 71 62
-719.527 -1762.32 -1622.28 -0.721339 0.376511 0.234453 84 62 54
-718.796 -1759.23 -1621.22 -0.766567 0.24832 0.349324 84 63 55
-626.653 -1601.18 -1619.04 0.747925 -0.0219585 -0.649596 22 18 17
-626.373 -1592.79 -1618.92 0.721006 -0.011019 -0.689104 19 16 16
-561.16 -1599.7 -1623.51 -0.987469 -0.174952 0.0387686 14 14 15
-561.748 -1585.77 -1620.97 -0.824768 -0.0533383 0.00893474 22 23 23
-642.687 -1557.84 -1618.81 0.565452 -0.0668846 -0.801521 29 22 18
-623.888 -1578.12 -1622.45 0.70763 0.0640972 -0.695946 15 13 14
-623.934 -1567.41 -1619.2 0.73682 0.157106 -0.651457 21 18 19
-642.624 -1554.26 -1618.31 0.551369 -0.152475 -0.800409 29 21 18
-625.37 -1551.76 -1621.28 0.620439 -0.0920322 -0.771387 23 21 23
-623.581 -1547.33 -1621.77 0.56811 -0.139855 -0.804507 25 23 24
-449.782 -1334.27 -1621.43 0.363894 0.0658953 -0.910191 28 27 25
-445.139 -1332.03 -1620.68 0.347929 0.0491895 -0.923825 27 26 24
-445.281 -1322.92 -1619.9 0.324728 -0.0323834 -0.925687 26 25 23
-449.79 -1314.54 -1619.04 0.379508 -0.0507034 -0.839635 26 25 23
-446.272 -1309.95 -1620.18 0.446812 0.0134975 -0.822233 26 25 23
-449.787 -1302.68 -1619.17 0.437151 0.0869511 -0.846839 26 25 23
-447.29 -1303.54 -1619.88 0.447077 0.0791214 -0.848116 26 25 23
-451.954 -1292.37 -1617.76 0.311494 0.00429307 -0.944187 26 25 23
-437.161 -1295.47 -1618.25 0.364956 -0.0450075 -0.924342 26 25 23
-438.332 -1287.27 -1618.53 0.385733 -0.0264946 -0.914681 26 25 23
-439.55 -1279.23 -1619.15 0.403453 0.0313065 -0.904706 26 25 23
-442.02 -1272.75 -1619.18 0.41238 0.108339 -0.894159 27 26 23
-442.653 -1269.98 -1618.85 0.43446 0.126317 -0.879645 27 26 24
-459.986 -1245.06 -1622.8 0.884916 -0.0918048 0.271377 20 21 20
-447.564 -1242.59 -1618.51 0.699041 -0.0738059 -0.296141 26 25 24
-437.555 -1239.69 -1618.69 0.539927 0.00525462 -0.807487 27 25 23
-696.04 -630.961 -1619.88 -0.823407 0.0359931 -0.555974 19 14 18
-695.044 -623.193 -1619.86 -0.839047 0.0584714 -0.527761 19 14 19
-707.788 -608.011 -1624.05 -0.878508 -0.0418396 -0.498182 15 11 15
-696.631 -599.909 -1622.31 -0.841363 -0.0327253 -0.556914 20 15 19
-695.695 -593.229 -1623.98 -0.84493 -0.0575038 -0.566133 21 16 20
-732.326 -582.493 -1618.12 -0.924561 -0.182145 -0.309569 168 168 169
-708.82 -582.83 -1624.01 -0.891977 -0.0418713 -0.42078 87 84 87
-731.399 -569.765 -1624.18 -0.919205 0.00726796 -0.361383 105 105 107
-710.042 -566.815 -1621.41 -0.907223 -0.0698349 -0.38324 92 91 94
-730.785 -558.956 -1619.82 -0.937714 0.129666 -0.302776 87 87 90
-712.559 -557.182 -1618.66 -0.890603 0.00158614 -0.407046 45 44 48
-732.278 -545.375 -1620.58 -0.839585 -0.0606465 -0.504568 38 34 40
-712.103 -545.233 -1618.22 -0.858796 0.0459714 -0.44754 44 46 51
-696.667 -581.276 -1622.72 -0.833346 -0.0228021 -0.562992 21 16 20
-696.609 -571.778 -1623.41 -0.839962 -0.0250996 -0.545105 20 15 19
-699.12 -563.597 -1623.63 -0.808545 -0.0389348 -0.579429 20 15 20
-707.918 -553.819 -1623.46 -0.833461 0.041841 -0.513511 25 21 26
-700.091 -544.156 -1618.53 -0.772237 0.136318 -0.605996 21 16 21
-534.038 -344.913 -1622.67 0.860852 -0.0726432 0.292491 18 14 15
-625.406 -335.165 -1618.33 -0.725351 -0.233623 -0.338707 14 12 14
-628.165 -324.533 -1618.73 -0.854993 -0.00615863 -0.478927 14 12 15
-622.491 -317.409 -1621.64 -0.730287 0.227885 -0.613867 15 13 16
-617.641 -311.028 -1622.91 -0.651672 0.251638 -0.711475 17 13 16
-615.853 -299.078 -1619.06 -0.542537 0.342254 -0.770864 16 13 14
-783.426 -1788.43 -1630.77 -0.138577 0.80171 -0.42803 43 35 30
-781.972 -1779.89 -1620.98 -0.136962 0.814804 -0.449058 72 59 50
-782.302 -1771.36 -1628.57 0.212921 0.572031 -0.714602 40 34 30
-799.975 -1733.33 -1625.27 0.3976 0.486705 -0.77777 28 24 20
-711.553 -1804.72 -1623.66 -0.385396 0.327013 0.115801 73 59 52
-713.652 -1810.89 -1630.06 -0.494921 0.480339 0.06685 93 75 66
-711.695 -1804.02 -1623.52 -0.378569 0.336943 0.109505 73 59 52
-708.608 -1810.77 -1620.02 -0.290404 0.33226 0.0994921 70 57 50
-777.165 -1786.15 -1615.44 -0.259468 0.906826 -0.353449 82 67 57
-763.087 -1786.7 -1616.6 -0.211112 0.911119 -0.377341 78 64 54
-775.043 -1744.15 -1610.8 0.263608 0.554149 -0.788339 31 27 24
-782.381 -1732.73 -1613 0.304048 0.533907 -0.783656 31 27 24
-751.341 -1782.42 -1615.31 -0.419849 0.843114 -0.20417 100 79 67
-679.725 -1783.06 -1611.95 -0.439861 -0.18509 0.30911 67 56 53
-742.685 -1776.68 -1615.94 -0.757063 0.626383 0.0666845 98 74 64
-734.65 -1761.29 -1617.96 -0.878658 0.204834 0.358803 84 64 56
-731.337 -1754.1 -1614.42 -0.870466 0.195178 0.400546 82 61 53
-714.588 -1750.16 -1617.44 -0.799673 0.158908 0.444027 83 63 56
-710.642 -1746.94 -1614.07 -0.861281 -0.0940185 0.343445 99 79 77
-720.789 -1731.67 -1614.88 -0.610716 -0.10673 0.646891 65 50 42
-709.312 -1740.05 -1613.52 -0.852557 -0.126211 0.335595 99 80 79
-711.311 -1734.7 -1614.09 -0.743194 -0.106276 0.394624 86 71 69
-687.249 -1768.4 -1614.58 -0.930924 -0.22795 0.340923 88 70 68
-551.253 -1803.2 -1616.17 -0.258716 0.235555 0.352381 55 52 49
-550.217 -1792.79 -1614.34 -0.242937 0.0442414 0.534945 56 53 51
-556.574 -1776.57 -1616.34 -0.197724 -0.306166 0.46582 38 36 34
-560.183 -1736.14 -1618.13 -0.306466 0.661208 -0.0213931 97 86 82
-476.966 -1763.44 -1616.76 0.483772 0.602289 -0.249181 59 47 42
-478.205 -1761.69 -1614.38 0.493815 0.596812 -0.255034 60 48 42
-499.11 -1739.96 -1615.48 0.442545 0.80341 -0.0892116 66 53 46
-493.928 -1742.96 -1615.33 0.200949 0.95855 0.0897767 52 45 40
-652.751 -1725.64 -1618.86 0.862552 -0.236272 -0.32806 98 76 71
-644.859 -1720.19 -1613.4 0.771976 -0.203775 -0.343318 113 86 82
-636.798 -1624.14 -1613.28 0.793688 -0.0873751 -0.576013 28 23 19
-635.122 -1611.31 -1614.71 0.757593 -0.0339123 -0.642557 26 23 20
-632.628 -1623.17 -1616.55 0.78685 -0.0510511 -0.555227 28 23 20
-634.375 -1612.01 -1616.43 0.759717 -0.0378206 -0.63949 27 23 20
-635.987 -1594.64 -1613.53 0.711868 0.0168942 -0.700004 26 24 23
-633.205 -1607.04 -1618.13 0.728725 -0.0145549 -0.674117 25 21 19
-627.17 -1599.42 -1617.68 0.744145 -0.0174655 -0.654624 22 19 18
-632.209 -1589.12 -1616.13 0.684474 0.0291 -0.724932 25 23 23
-560.538 -1583.88 -1616.29 -0.507527 -0.00348615 -0.130125 29 29 29
-580.495 -1330.93 -1616.46 -0.833233 -0.00943816 -0.512989 20 21 20
-581.271 -1317.48 -1614.77 -0.836524 -0.0366133 -0.450335 21 21 21
-578.855 -1302.24 -1617.52 -0.941755 0.129805 -0.111078 20 20 21
-576.501 -1289.47 -1614.12 -0.987353 0.0426359 0.0285708 20 20 20
-630.144 -1283.86 -1613.47 0.508628 -0.132999 -0.84608 24 22 25
-631.495 -1270.57 -1617.57 0.517548 -0.162224 -0.837946 20 19 22
-626.4 -1262.7 -1614.09 0.634715 -0.0766601 -0.76546 19 17 20
-629.541 -1249.35 -1617.26 0.683541 0.0074197 -0.732749 16 16 19
-626.738 -1241.97 -1614.7 0.699958 -0.0199023 -0.712635 19 19 21
-576.615 -1284.98 -1612.75 -0.994917 -0.041448 0.0202762 20 20 20
-431.893 -1181.34 -1616.22 0.576201 -0.0267195 -0.824435 27 25 24
-429.109 -1175.6 -1613.56 0.625312 -0.0482388 -0.78167 27 26 24
-430.232 -1164.03 -1616.1 0.632497 -0.0559381 -0.771918 26 25 24
-450.556 -1153.11 -1615.67 0.490649 0.00242955 -0.807946 27 25 26
-449.691 -1137.83 -1613.12 0.482726 -0.0224565 -0.852662 26 24 25
-430.869 -1151.51 -1617.1 0.581724 0.046961 -0.806283 28 26 27
-428.905 -1142.91 -1614.85 0.574149 0.0209119 -0.811921 28 26 27
-428.353 -1140.21 -1614.41 0.577404 -0.0141042 -0.80907 28 26 27
-448.636 -1127.27 -1612.38 0.454164 -0.14237 -0.878784 26 24 25
-431.026 -1132.51 -1617.34 0.527078 -0.121399 -0.836682 27 25 26
-428.019 -1127.84 -1614.64 0.587405 -0.117355 -0.798079 27 25 26
-426.304 -1114.64 -1612.37 0.6653 -0.0522503 -0.74573 29 25 26
-447.649 -1102.9 -1614.01 0.474978 -0.0805531 -0.869271 28 25 26
-447.804 -1093.52 -1614.25 0.47786 -0.0749066 -0.868994 28 25 26
-426.427 -1101.41 -1612.7 0.68329 -0.05941 -0.725552 31 26 27
-426.213 -1098.61 -1612.72 0.693497 -0.0504659 -0.715848 31 26 27
-449.604 -1076.15 -1616.31 0.526849 0.0930402 -0.839073 29 25 26
-448.934 -1066.17 -1614.43 0.523759 0.092619 -0.842002 29 25 26
-496.682 -863.852 -1614.35 0.894107 0.303687 0.244319 26 22 21
-503.344 -842.146 -1612.55 0.936343 0.287554 0.189958 28 23 22
-448.655 -1027.3 -1615.01 0.657519 0.0986612 -0.739432 33 28 30
-430.93 -1025.21 -1616 0.758793 0.0994047 -0.639261 34 30 30
-432.259 -1023.81 -1617.27 0.739687 0.101527 -0.656129 34 29 30
-449.417 -1007.88 -1612.46 0.718818 0.150583 -0.672291 33 29 29
-450.701 -998.245 -1613.73 0.741461 0.179169 -0.647055 33 29 28
-451.569 -990.576 -1613.99 0.722955 0.185125 -0.663667 34 30 28
-438.486 -993.175 -1615.14 0.760852 0.147211 -0.630675 34 30 29
-435.151 -997.279 -1612.12 0.773249 0.160674 -0.61183 34 30 29
-454.904 -975.812 -1614.53 0.698326 0.224408 -0.676774 34 30 27
-439.356 -976.482 -1613.03 0.736575 0.228142 -0.634916 33 29 29
-455.468 -964.505 -1614.49 0.703895 0.216106 -0.671262 34 30 27
-444.242 -965.331 -1614.67 0.703999 0.166195 -0.682997 34 30 26
-455.511 -957.552 -1616.59 0.706082 0.114157 -0.692245 34 30 26
-451.446 -950.413 -1617.03 0.710818 0.101332 -0.69143 34 30 26
-555.2 -379.977 -1613.95 0.789909 -0.101365 0.485475 13 8 10
-554.046 -368.992 -1612.78 0.627239 -0.354164 -0.264248 15 11 12
-547.562 -364.217 -1612.76 0.639656 -0.69221 -0.161161 16 11 13
-537.641 -354.845 -1616.65 0.836401 -0.478748 0.148031 16 12 13
-628.067 -341.952 -1616.33 -0.709907 -0.25246 -0.322758 12 11 13
-625.415 -331.836 -1617.7 -0.753052 -0.226678 -0.338254 13 12 14
-630.731 -312.205 -1611.62 -0.765282 0.0662374 -0.586955 17 15 16
-624.864 -307.519 -1616.2 -0.659174 0.227467 -0.711144 18 15 17
-619.643 -301.564 -1617.24 -0.583912 0.296486 -0.751247 16 14 16
-776.94 -1782.49 -1608.81 -0.246198 0.893876 -0.363185 80 66 55
-766.915 -1782.57 -1607.3 -0.201959 0.890891 -0.376674 88 72 60
-776.834 -1750.68 -1605.32 0.260331 0.553174 -0.789226 31 27 25
-773.057 -1739.7 -1605.4 0.250753 0.548893 -0.77139 33 28 26
-754.15 -1781.73 -1610.1 -0.280468 0.897745 -0.271846 97 79 66
-671.299 -1791.29 -1605.81 -0.243787 -0.126547 0.316084 54 48 45
-745.879 -1779.65 -1606.86 -0.331689 0.913249 -0.0504792 97 76 65
-737.702 -1770.93 -1608.97 -0.755695 0.612258 0.13852 96 72 62
-731.755 -1757.15 -1611.16 -0.890799 0.276328 0.32578 83 61 53
-726.681 -1743.77 -1606.73 -0.87093 0.206704 0.421105 82 59 52
-724.382 -1732.77 -1606.38 -0.656827 -0.0924812 0.723794 74 55 47
-703.91 -1757.64 -1605.61 -0.719511 -0.142683 0.297322 94 112 114
-689.54 -1757.34 -1611.95 -0.917698 -0.209283 0.31619 97 75 77
-680.46 -1485.22 -1608.55 -0.516195 0.186622 -0.808307 32 31 30
-720.775 -1479.64 -1606.81 -0.638518 0.155789 -0.659379 27 27 26
-722.795 -1465.16 -1609.83 -0.741954 -0.0994379 -0.615529 25 27 25
-724.403 -1456.54 -1610.01 -0.775123 -0.0709857 -0.604565 25 26 25
-725.105 -1448.56 -1612.01 -0.818431 -0.176447 -0.522148 25 27 27
-730.359 -1433.79 -1607.12 -0.814324 -0.127011 -0.552096 25 26 25
-697.506 -1474.14 -1608.8 -0.710452 0.078472 -0.644487 23 24 21
-700.175 -1465.48 -1607.05 -0.690909 0.0896823 -0.668912 23 25 21
-693.872 -1468.85 -1611.78 -0.720161 0.0584977 -0.639285 23 24 20
-676.288 -1472.95 -1607.11 -0.783707 0.147619 -0.53813 31 29 28
-675.904 -1459.78 -1612.14 -0.994145 -0.0680999 -0.106238 31 29 28
-696.347 -1450.21 -1609.94 -0.757278 0.126449 -0.567679 24 25 22
-700.806 -1443.38 -1606.59 -0.706823 0.171458 -0.644952 23 25 22
-676.06 -1451.74 -1605.71 -0.942306 -0.0320214 -0.234591 24 24 23
-675.376 -1436.36 -1611.71 -0.944697 0.199769 -0.257917 27 27 27
-623.181 -1671.43 -1610.86 0.77247 0.129523 -0.61502 132 163 163
-613.099 -1680.74 -1607.02 0.697559 0.1907 -0.650102 114 91 85
-640.072 -1652.88 -1608.32 0.732346 -0.0120183 -0.707006 30 22 18
-638.126 -1638.01 -1606.8 0.77044 -0.0801215 -0.654966 28 21 16
-548.49 -1719.49 -1610 -0.491694 0.0233544 0.366604 135 125 121
-544.8 -1722 -1611.95 -0.608672 0.0745505 0.33427 133 123 118
-553.711 -1716.85 -1609.73 -0.730297 0.203812 0.324636 164 156 155
-553.411 -1707.16 -1610.44 -0.868754 0.27477 0.196617 155 146 144
-552.847 -1705.03 -1608.47 -0.768873 0.200499 0.218219 149 141 139
-551.855 -1692.56 -1609.35 -0.960285 0.130409 0.252017 118 104 102
-401.262 -1626.19 -1611.38 0.335085 -0.170874 -0.915546 26 22 21
-394.237 -1622.29 -1605.86 0.639027 -0.0183216 -0.748289 25 22 20
-402.015 -1607.68 -1609.85 0.521686 0.0926526 -0.837422 25 21 18
-401.844 -1601.77 -1609.97 0.566114 -0.0431129 -0.817663 23 19 16
-397.489 -1605.2 -1606.56 0.598342 0.0543859 -0.790288 24 21 18
-399.484 -1585.99 -1610.12 0.62854 -0.0120372 -0.770783 27 24 19
-459.315 -1575.84 -1610.21 0.568747 0.240228 -0.423219 52 51 49
-456.424 -1565.88 -1607.92 0.470679 0.402564 -0.727885 27 26 24
-454.5 -1551.99 -1609.48 0.349049 0.23665 -0.661993 29 28 26
-455.206 -1533.47 -1607.44 0.208362 0.16349 -0.81086 27 26 24
-579.038 -1267.4 -1608.04 -0.995626 -0.0700303 0.0196043 20 20 21
-579.074 -1256.64 -1610.46 -0.987278 0.0172056 0.115818 18 17 18
-576.751 -1246.48 -1608.51 -0.953792 0.123201 0.268861 16 15 15
-470.009 -1330.15 -1607.24 0.949255 -0.155974 0.247428 24 24 22
-466.364 -1318.15 -1610.84 0.953197 -0.174277 0.236044 25 25 23
-465.448 -1305.64 -1610.14 0.97418 0.00234451 0.127016 25 25 23
-467.787 -1296.71 -1608.49 0.948993 0.132118 0.236685 25 24 22
-467.118 -1282.42 -1607.58 0.942435 -0.123321 0.285789 27 26 22
-466.435 -1269.74 -1607.25 0.933498 0.0241659 0.301968 26 25 22
-466.935 -1258.04 -1609.49 0.960612 0.0580649 0.245312 28 27 24
-466.361 -1244.03 -1610.63 0.896491 -0.0271448 0.449426 27 26 23
-458.96 -1431.95 -1612.13 0.41391 0.119487 -0.871378 27 26 24
-455.865 -1415.93 -1609.02 0.479153 0.160865 -0.815157 26 25 23
-438.684 -1415.91 -1610.61 0.323893 0.410062 -0.777109 26 25 23
-432.007 -1422.96 -1611.69 0.317344 0.490605 -0.75832 26 25 23
-734.526 -920.524 -1608.4 -0.809434 0.185565 -0.484803 31 27 27
-732.866 -908.437 -1611.35 -0.875233 0.235838 -0.199483 28 25 26
-729.916 -897.42 -1611.31 -0.853745 0.136209 -0.376666 30 26 25
