ply
format ascii 1.0
comment Created by Open3D
element vertex 738
property double x
property double y
property double z
property double nx
property double ny
property double nz
property uchar red
property uchar green
property uchar blue
end_header
-198.23 7.34379 -1462.97 -0.514109 -0.410829 0.674422 101 82 43
-206.24 10.8409 -1463.51 -0.35902 -0.689594 0.567194 101 82 39
-202.75 12.7806 -1461.16 -0.360185 -0.5025 0.677116 98 80 40
-231.464 20.7904 -1462.19 0.111495 -0.719891 0.625151 114 94 51
-106.777 194.057 -1462.16 -0.927454 -0.274173 0.182783 179 140 129
-110.254 203.792 -1466.89 -0.952388 -0.183969 0.180756 187 147 137
-109.848 215.373 -1463.86 -0.961307 -0.0476231 0.197651 184 145 136
-109.086 224.265 -1462.59 -0.97978 0.0975708 0.0902992 183 143 134
-109.596 236.956 -1463.55 -0.968963 -0.101392 -0.0878327 170 133 124
-112.174 243.745 -1461.86 -0.948251 -0.286327 -0.0455391 152 119 112
-113.793 250.919 -1465.53 -0.96192 -0.231992 0.0330937 124 97 92
-114.335 259.247 -1465.14 -1.00987 -0.0633282 0.0491197 100 77 75
-126.118 284.095 -1464.66 -0.586672 -0.508971 0.660018 15 13 27
-131.039 288.558 -1466.74 -0.693528 -0.286131 0.576621 15 12 24
-127.328 297.438 -1461.71 -0.787058 0.271247 0.282936 15 13 26
-120.665 305.592 -1464.33 -0.798349 0.50132 -0.13988 16 13 26
-116.582 269.29 -1465.82 -0.840569 -0.250873 0.245464 63 49 55
-119.545 278.106 -1463.56 -0.669452 -0.449596 0.472675 34 29 41
74.0842 29.5079 -1465.86 0.535668 0.224159 0.815972 160 133 56
-24.7863 108.666 -1464.5 0.611153 0.311696 0.6197 151 122 80
-28.3174 112.578 -1463.86 0.572518 0.41467 0.660109 159 125 98
11.4359 71.7864 -1461.11 0.598959 0.310225 0.701692 83 70 41
-193.99 -1172.72 -1470.68 -0.066054 0.986429 -0.0719123 78 74 75
-100.927 -856.956 -1458.98 -0.053526 -0.00723263 0.908705 39 46 75
-103.695 -852.781 -1458.13 -0.0420848 -0.0264358 0.910368 40 47 76
-129.781 -845.699 -1455.53 -0.874569 0.0392388 0.446931 62 71 102
-131.047 -837.131 -1459.76 -0.908777 0.187164 0.308321 52 61 91
-129.718 -830.276 -1460.94 -0.831434 0.213703 0.404002 49 58 88
-120.575 -820.186 -1454.61 -0.805729 0.442694 0.405942 52 60 89
-124.238 -817.669 -1459.34 -0.735437 0.174187 0.630037 48 56 85
-134.338 -807.468 -1456.56 -0.732047 -0.188735 0.597768 60 70 102
-136.894 -801.437 -1460.91 -0.790353 -0.229047 0.500055 50 60 91
-108.868 -838.751 -1460.89 0.0959787 -0.3226 0.898068 59 66 100
-101.588 -845.727 -1455.83 0.045555 -0.223526 0.864498 50 57 89
-108.069 -838.854 -1460.27 0.0982377 -0.325143 0.889971 58 66 100
-102.564 -829.791 -1455.26 0.221325 -0.612141 0.768603 66 75 108
-96.4996 -823.077 -1460.49 0.470555 -0.466147 0.717431 59 68 101
-109.267 -801.567 -1454.99 0.507819 0.622943 0.598687 42 50 84
-107.884 -800.54 -1458.14 0.511512 0.655621 0.572543 41 49 83
-95.8354 -820.125 -1460.27 0.577648 -0.345953 0.696964 54 64 97
-216.125 -420.457 -1456.19 -0.907717 0.288434 0.17669 75 85 126
-52.0147 -1163.37 -1458.5 0.441096 0.906577 -0.00717748 62 57 55
-47.9716 -1165.47 -1458.67 0.402208 0.958098 -0.00157162 65 61 59
-35.9032 -1168.23 -1458.4 0.0828934 0.962156 0.00401706 145 143 143
-54.8581 -1160.68 -1458.26 0.485822 0.867054 -0.0153608 64 58 55
-48.5658 -1151.48 -1455.83 0.0761618 0.649748 0.0605975 75 62 59
-64.5654 -1145.83 -1459.17 -0.540516 0.503532 0.291878 145 124 117
-58.8097 -1140.24 -1457.76 -0.78917 0.450986 0.339926 132 110 101
-39.3125 -1156.64 -1456.42 -0.728307 0.481437 0.0905937 63 53 50
-41.7589 -1154.29 -1456.73 -0.620693 0.485934 0.0833228 61 50 47
-28.7547 -1145.41 -1459.75 0.686861 0.569867 0.256707 178 152 141
-33.1528 -1142.89 -1456.28 0.522095 0.592627 0.462756 174 148 134
52.3719 -718.965 -1455.9 0.599678 -0.244813 0.595781 59 73 106
53.6214 -711.784 -1457.18 0.455392 -0.0986486 0.650757 61 75 108
55.9729 -709.075 -1459.66 0.237222 0.0843245 0.714256 64 77 109
55.9317 -706.467 -1458.68 0.410208 0.0438773 0.650979 62 76 108
61.8333 -705.067 -1455.46 0.887682 0.00817787 0.278404 57 72 105
74.6542 -654.329 -1455.71 0.804859 -0.203247 0.306937 57 71 105
80.4481 -642.961 -1461 0.708764 -0.248075 0.508574 58 71 106
76.1835 -635.101 -1454.74 0.438306 -0.18205 0.650156 61 74 108
76.4547 -625.189 -1455.06 -0.0418213 -0.0823678 0.987664 58 67 99
79.5719 -625.978 -1455.65 0.0415259 -0.094839 0.938722 58 68 101
84.4551 -625.151 -1459.16 0.548149 -0.20083 0.710589 59 72 107
87.5465 -613.393 -1459.22 0.614102 -0.218756 0.680651 59 71 106
86.0719 -609.121 -1455.71 0.453777 -0.237814 0.775204 58 69 103
-71.8522 -605.739 -1457.64 0.800842 -0.143693 0.5733 34 43 74
-67.7998 -588.312 -1456.21 0.71391 -0.182248 0.666622 31 38 69
-68.0218 -584.495 -1455.47 0.716354 -0.153533 0.658851 31 39 69
-66.4244 -582.23 -1457.06 0.755822 -0.121992 0.624213 29 38 68
-63.689 -574.773 -1460.43 0.825282 -0.0802132 0.557605 29 38 69
-65.0576 -568.282 -1456.78 0.811137 -0.106597 0.57286 31 40 71
-24.1435 -577.851 -1460.79 -0.628737 -0.197887 0.752493 53 65 97
-26.9113 -560.627 -1459.23 -0.503177 -0.234353 0.818932 52 65 93
-15.4748 -606.257 -1455.4 -0.689647 -0.137557 0.710957 55 66 98
-16.3796 -595.225 -1456.17 -0.66869 0.00852511 0.743044 57 68 100
-17.841 -591.968 -1457.6 -0.667149 -0.0102003 0.740969 58 69 101
-16.1768 -584.954 -1456.01 -0.599265 -0.0951259 0.781064 59 70 102
-689.994 -12.5062 -1457.94 0.233639 -0.816388 0.484429 110 93 85
-686.708 -12.9731 -1459.89 0.292329 -0.780115 0.49805 108 92 86
-677.7 -7.0392 -1459.53 0.411536 -0.716183 0.510973 103 88 83
-675.275 -3.25439 -1457.98 0.487896 -0.654609 0.53087 102 86 82
-665.714 7.14373 -1458.07 0.557567 -0.514128 0.645961 107 89 85
-658.397 10.9193 -1460.37 0.438678 -0.55025 0.695119 114 96 93
-657.666 13.1258 -1459.21 0.427142 -0.499016 0.721524 124 105 102
-654.92 20.5487 -1456.08 0.318006 -0.279459 0.870586 165 142 137
-747.99 27.1435 -1457.03 -0.229583 -0.153612 0.910478 201 174 164
-735.283 33.0099 -1456.7 -0.107963 0.2985 0.942445 208 183 173
-743.632 32.8517 -1457.09 -0.201666 0.0892262 0.946323 204 180 171
-738.588 36.8326 -1458.55 -0.106936 0.293449 0.934038 201 176 167
-738.998 39.9914 -1460.26 -0.0826744 0.32593 0.924451 198 174 165
-726.585 36.7858 -1459.77 -0.0557628 0.307535 0.930135 210 183 172
-720.295 29.1811 -1455.44 -0.00289732 0.4506 0.888922 218 188 176
-710.013 31.0472 -1457.4 -0.048646 0.66484 0.734978 210 182 170
-699.834 29.7443 -1455.54 -0.0380581 0.750458 0.658747 214 185 173
-716.624 35.1373 -1460.1 -0.0468129 0.546227 0.805296 212 184 172
-697.09 33.028 -1458.91 -0.0290385 0.749621 0.662444 201 175 164
-684.595 27.7449 -1454.91 0.0818226 0.614625 0.779337 227 195 184
-676.322 31.8384 -1457.21 0.0223484 0.505858 0.858212 222 192 182
-690.726 36.4387 -1460.76 -0.0463114 0.69297 0.71645 191 168 158
-676.692 32.9325 -1457.78 0.0115635 0.508263 0.855596 220 191 180
-669.638 32.3594 -1457.02 -0.0412248 0.439328 0.903216 220 191 181
-655.194 23.1065 -1454.95 0.25861 -0.159317 0.938247 186 160 154
-670.632 36.7875 -1460.17 -0.0180241 0.4792 0.879246 200 176 167
-668.141 33.2102 -1457.37 -0.0519015 0.436049 0.904314 218 190 180
-663.023 33.3244 -1456.77 -0.0521895 0.406344 0.91592 220 191 182
-659.827 39.1285 -1459.75 -0.0521373 0.491663 0.867192 199 175 167
-78.8388 151.461 -1459.64 -0.726508 -0.6869 0.0827444 115 89 81
-84.6749 158.35 -1458.91 -0.757077 -0.61143 0.205781 130 99 91
-81.5555 154.851 -1456.01 -0.754147 -0.636409 0.110104 124 96 89
-96.6178 171.755 -1457.33 -0.774235 -0.612225 -0.0765909 147 111 102
-102.146 179.209 -1458.9 -0.865641 -0.47417 -0.0866356 159 121 111
-94.1942 169.745 -1459.6 -0.816462 -0.546537 -0.03756 144 110 100
-104.853 192.154 -1457.38 -0.938352 -0.186067 0.221068 171 132 122
-106.406 199.026 -1458.32 -0.922146 -0.190689 0.29598 180 140 131
-107.753 209.696 -1458.16 -0.939214 -0.131739 0.264326 181 142 133
-109.42 220.585 -1459.79 -0.979356 -0.0163149 0.127751 182 142 134
-108.98 228.567 -1459.54 -0.992091 0.0692109 -0.0480532 180 141 132
-110.347 236.226 -1456.9 -0.978406 -0.124441 -0.098169 169 132 125
-111.967 244.198 -1455.72 -0.961068 -0.232007 0.0215258 156 122 117
-113.811 255.297 -1460.28 -0.984007 -0.142061 0.0708854 127 99 96
65.6401 -34.3702 -1457.61 0.827627 -0.0864671 0.555314 148 114 42
65.7722 -34.0276 -1457.72 0.82834 -0.0836134 0.555278 148 114 42
14.2906 44.1794 -1455.28 0.411916 0.260747 0.871175 120 100 39
11.9327 53.2246 -1455.49 0.391831 0.151901 0.894227 101 83 43
18.6203 50.8786 -1458.77 0.420898 0.230502 0.871107 102 86 41
14.0932 53.8491 -1456.87 0.414236 0.175192 0.882414 99 82 43
10.9458 56.5935 -1455.71 0.397758 0.148463 0.893293 97 80 43
11.1154 65.2366 -1458.21 0.528733 0.227003 0.797014 80 67 40
14.4559 66.1163 -1460.76 0.600281 0.286585 0.729804 79 66 40
69.861 -17.753 -1456.04 0.698796 -0.283158 0.638474 156 124 46
71.2868 -4.49877 -1454.92 0.702289 0.0203207 0.678653 168 136 54
71.3495 7.11273 -1457.93 0.671704 0.0632682 0.699291 166 136 57
64.433 18.6366 -1456.32 0.535777 0.260913 0.793965 163 137 61
67.0787 18.9855 -1458.34 0.530672 0.254866 0.800524 163 136 59
73.2347 -11.0642 -1456.29 0.724973 -0.203162 0.659823 164 131 49
72.9798 -3.01973 -1457.58 0.752216 0.0483223 0.628717 168 136 54
31.7678 314.989 -1460.24 0.846523 -0.0774405 -0.237391 30 25 33
31.8671 319.387 -1456.25 0.832222 0.0179013 0.166995 34 29 37
25.5692 329.561 -1459.74 0.673836 0.52344 -0.231996 36 31 39
-152.339 -747.138 -1451.96 -0.586538 -0.055961 0.464874 46 59 86
-153.452 -738.618 -1453.5 -0.842335 -0.0649967 0.533492 44 55 79
-154.515 -733.278 -1448.83 -0.725403 -0.143676 0.602226 51 63 89
-121.02 -734.486 -1451.63 0.734305 -0.00665278 0.627273 64 75 108
-158.728 -723.682 -1452.72 -0.800092 -0.33678 0.467253 44 54 77
-156.752 -726.489 -1449.99 -0.780496 -0.274474 0.494865 47 58 82
-166.441 -704.68 -1450.45 -0.861564 -0.263131 0.379101 46 55 79
-120.402 -743.191 -1453.53 0.848143 0.142719 0.509714 58 69 103
-120.202 -731.957 -1451.71 0.676069 -0.109207 0.677218 65 76 110
-110.041 -722.224 -1453.97 0.408449 -0.436633 0.791763 65 76 109
-110.448 -720.92 -1452.79 0.418059 -0.436261 0.788816 65 76 109
-110.13 -713.902 -1449.74 0.469797 -0.325534 0.810708 65 76 109
-108.014 -710.847 -1449.98 0.468098 -0.302987 0.823577 64 75 107
-103.105 -706.213 -1449.82 0.443752 -0.29285 0.842197 55 66 97
15.8721 -1137.48 -1451.43 -0.461502 0.854828 0.0961148 83 68 66
20.9353 -1131.33 -1449.78 -0.579586 0.834709 0.0119039 84 67 66
30.6081 -1171.19 -1453.01 0.00515804 0.874184 -0.118321 153 132 122
39.1947 -1167.13 -1450.06 -0.0156053 0.845798 0.115271 150 129 121
47.3587 -1166.27 -1449.64 0.171639 0.899614 0.338515 136 112 107
58.5105 -1167.33 -1450.09 0.328935 0.927023 0.197898 106 84 82
60.8949 -1164.95 -1451.27 0.329082 0.958677 0.18088 96 75 74
60.4119 -1159.96 -1453.32 0.20062 0.561669 -0.151523 109 95 101
62.0957 -1161.75 -1449.95 0.264773 0.756574 0.0221911 77 65 67
59.3794 -1146.01 -1452.34 0.110294 0.0072529 -0.607951 118 116 132
85.3729 -1168.89 -1454.07 0.511691 0.273422 -0.645973 119 118 120
87.3233 -1166.91 -1450.19 0.598142 0.269435 -0.571939 128 127 127
81.6656 -1153.16 -1454.32 0.541677 0.305764 -0.728504 129 130 136
78.8151 -1145 -1453.85 0.653341 0.047199 -0.700239 111 112 122
76.3186 -1138.23 -1454.2 0.789959 -0.0970383 -0.581776 104 106 116
32.8105 -1137.37 -1450.24 -0.0155489 0.827678 0.27203 116 96 93
24.8031 -1128.16 -1450.32 -0.626608 0.700333 0.0075677 82 66 64
72.0927 -616.285 -1449.89 0.371553 -0.308161 0.830097 59 70 103
73.8336 -644.074 -1452.16 0.76064 -0.196689 0.481865 61 74 107
78.0338 -637.003 -1454.38 0.687745 -0.117267 0.522165 63 77 113
75.4702 -623.584 -1454.21 0.0169022 -0.109065 0.972097 58 68 99
81.1286 -612.897 -1451.66 0.458727 -0.188791 0.74407 63 76 109
76.2107 -609.288 -1449.32 0.392144 -0.282675 0.802274 60 70 103
84.2922 -608.526 -1453.46 0.371196 -0.245294 0.819046 58 69 102
-71.0049 -584.446 -1452.02 0.663539 -0.181432 0.678682 34 43 73
-72.3955 -582.122 -1449.9 0.645882 -0.187804 0.665457 35 45 75
-69.6488 -565.533 -1449.53 0.828862 -0.107065 0.548185 33 43 76
-66.7865 -563.515 -1453.34 0.816248 -0.109707 0.568493 33 42 74
-8.90016 -605.147 -1450.16 -0.597954 -0.0392359 0.7784 55 67 100
-6.76595 -595.679 -1449.41 -0.515515 0.0387006 0.850019 57 69 103
-13.3085 -587.907 -1454.32 -0.588397 -0.0354709 0.793268 59 70 102
-9.63967 -588.028 -1452.05 -0.558362 0.0175029 0.818425 59 71 104
-172.086 -97.9039 -1449.22 -0.849248 0.147039 0.482849 120 97 49
-171.985 -89.1944 -1451.5 -0.870762 0.0698466 0.450025 103 83 46
-174.579 -78.949 -1454.06 -0.814016 -0.171693 0.522487 109 88 46
-174.647 -71.7835 -1450.71 -0.820905 -0.203386 0.518888 105 85 47
-175.196 -61.72 -1450.88 -0.8245 0.0270805 0.552548 96 78 45
-175.965 -56.2865 -1452.76 -0.851313 0.04999 0.508665 95 77 44
-175.938 -50.8246 -1452.16 -0.84365 -0.0568908 0.507405 96 79 43
-182.708 -33.9146 -1454.82 -0.814489 -0.264308 0.507109 109 90 47
-178.414 -38.8706 -1451.26 -0.778779 -0.271835 0.564929 110 90 46
-750.01 -18.3468 -1451.64 -0.345161 -0.493154 0.680343 158 130 121
-761.237 -10.4107 -1453.02 -0.518684 -0.117189 0.788812 195 162 154
-120.669 55.5534 -1450.82 -0.218992 0.288563 0.878809 118 96 46
-115.512 63.5941 -1450.35 -0.356461 0.253069 0.844777 146 120 48
-224.822 70.7003 -1455.07 -0.306424 0.0874354 0.947535 135 110 43
-121.178 291.636 -1453.61 -0.706349 -0.407398 0.589998 25 23 32
-123.377 300.252 -1452.17 -0.828521 -0.114373 0.332574 22 20 29
-122.03 309.836 -1450.1 -0.925502 0.121305 -0.14275 21 19 27
-114.05 269.048 -1452.39 -0.951531 -0.026753 0.243212 135 106 110
-112.933 276.468 -1451.76 -0.89117 -0.0518593 0.382275 104 82 85
-114.734 286.193 -1450.14 -0.784983 -0.379491 0.470504 53 43 47
-119.266 292.689 -1450.41 -0.718682 -0.399831 0.577745 31 27 35
-119.511 317.813 -1450.65 -0.834652 0.193885 -0.358904 18 17 26
-112.007 325.668 -1451.03 -0.722821 0.573369 0.261438 17 16 26
-107.354 332.574 -1452.39 -0.649097 0.623141 0.272594 17 16 26
-105.448 337.594 -1454.76 -0.695067 0.503545 0.242412 17 16 26
62.6037 -36.6835 -1453.67 0.819037 -0.150192 0.549678 150 117 41
60.276 -29.8379 -1449.39 0.841269 -0.105512 0.528861 156 123 41
20.2892 27.9495 -1449.71 0.193606 0.39298 0.869003 124 101 37
34.6475 26.4317 -1452.09 0.171177 0.612871 0.766137 130 108 47
30.1798 29.2511 -1453.22 0.146107 0.596403 0.785258 126 104 41
40.4035 21.5105 -1449.65 0.22642 0.619345 0.752661 137 114 55
46.3389 24.2527 -1453.4 0.135756 0.618653 0.768548 133 110 51
52.5668 21.5092 -1451.93 0.15828 0.535421 0.804615 145 122 57
-54.7683 104.241 -1450.09 0.115592 0.601062 0.806449 97 73 55
-68.1633 105.176 -1449.89 -0.40222 0.390071 0.726862 94 77 64
-65.37 110.215 -1450.58 -0.150121 0.186692 0.782148 106 82 70
-61.7942 111.837 -1450.59 0.0116216 0.0853757 0.802282 105 79 67
-53.1052 106.484 -1451.17 0.172596 0.488566 0.8334 95 71 57
-57.2276 115.884 -1449.54 0.258393 -0.418552 0.586783 104 77 69
-54.3298 111.628 -1451.26 0.241168 0.0820459 0.73391 100 74 64
-37.3374 102.088 -1453.06 0.339925 0.39094 0.835995 122 98 74
-34.1174 97.2671 -1450.31 0.390097 0.355621 0.756636 147 122 77
-35.083 101.059 -1453.34 0.421425 0.350283 0.788262 133 109 76
-82.0332 -1158.05 -1443.28 -0.679768 0.640821 0.0252046 172 149 139
-76.115 -1148.62 -1443.75 -0.314591 0.55934 0.191643 170 147 138
-120.54 -1135.88 -1445.69 -0.0650486 0.866578 0.481487 162 143 133
-116.238 -1133.94 -1447.46 0.129465 0.871753 0.45387 163 142 133
-109.398 -1136.39 -1446.12 0.415645 0.780836 0.456455 163 140 129
-99.3853 -905.011 -1447.52 -0.598774 -0.0833136 0.711327 35 41 65
-106.678 -900.559 -1448.32 -0.611819 0.00312363 0.762514 33 38 62
-121.178 -853.226 -1447.93 -0.724761 -0.301752 0.61519 74 83 117
-107.085 -891.082 -1448.39 -0.633627 -0.0403992 0.743419 32 40 64
-104.918 -886.246 -1445.99 -0.686816 -0.132077 0.710668 36 43 68
-99.5776 -886.906 -1442.38 -0.73425 -0.16032 0.679752 33 40 64
-213.869 -457.214 -1445.32 -0.888253 0.0620926 0.4458 58 69 111
-213.658 -450.459 -1446.38 -0.847181 0.0846618 0.51407 62 74 117
-211.904 -438.259 -1444.45 -0.836032 -0.0159201 0.535421 61 74 117
-214.821 -436.241 -1448.57 -0.786873 0.00273964 0.614666 62 75 119
-214.922 -425.573 -1449.78 -0.870837 0.123412 0.419215 73 84 126
-211.449 -415.197 -1445.24 -0.88779 0.17143 0.403698 75 86 129
-48.9009 -1163.35 -1444.77 0.344438 0.817466 -0.071366 63 57 55
-41.1112 -1161.95 -1446.07 -0.386279 0.643098 -0.0990081 64 56 55
-59.3237 -1151.42 -1446.42 0.354807 0.81911 0.127076 103 85 80
-71.2591 -1147.93 -1447.95 -0.136831 0.566191 0.143634 153 131 122
-65.2436 -1146.7 -1443.37 0.140869 0.597577 0.110041 140 120 114
-55.9721 -1145.65 -1443.47 -0.148211 0.717257 0.307723 147 124 113
-59.0976 -1140.84 -1443.25 -0.532924 0.647723 0.0169433 156 134 126
-41.3359 -1161.76 -1443.56 -0.555931 0.546801 -0.163173 62 53 53
-42.1261 -1154.51 -1446.69 -0.575107 0.485228 0.0540974 82 67 63
-33.1348 -1152.88 -1443.7 0.30825 0.779617 0.493454 171 144 130
-26.3526 -1153.98 -1447.76 0.207838 0.726129 0.404145 174 149 135
-3.11368 -586.823 -1448.06 -0.513222 0.0788733 0.85417 59 72 107
1.41021 -601.929 -1445.2 -0.389532 0.0373853 0.908914 59 72 106
4.25809 -596.359 -1443.67 -0.420753 -0.00945002 0.902688 59 72 108
2.6144 -584.959 -1444.51 -0.494382 0.0302751 0.866129 59 72 108
-8.33422 -572.63 -1448.65 -0.466346 -0.24402 0.842731 59 70 104
-12.2739 -568.567 -1448.85 -0.557194 -0.219573 0.78744 59 70 102
-10.9568 -566.881 -1447.63 -0.56419 -0.209469 0.781919 59 70 103
-6.93755 -562.105 -1443.35 -0.530657 -0.242587 0.795199 58 71 105
1.57731 -577.421 -1444.66 -0.498468 -0.0949199 0.84733 58 71 108
-72.1721 -556.447 -1444.75 0.847107 -0.0809042 0.520508 34 45 78
-66.2816 -544.214 -1445.8 0.758177 -0.277883 0.583538 36 44 77
-64.6904 -536.358 -1445.56 0.820964 -0.161838 0.525104 36 44 76
-64.76 -526.082 -1444.97 0.843288 0.000186702 0.527747 35 44 76
-63.6144 -518.103 -1446.75 0.847317 -0.0421595 0.50658 34 42 75
-64.9977 -513.768 -1443.04 0.834154 -0.0509778 0.529928 34 42 76
-11.9154 -549.272 -1445.76 -0.674684 -0.0979113 0.728616 57 69 101
-10.4241 -548.653 -1444.22 -0.663405 -0.101687 0.738828 57 69 102
-13.3182 -539.289 -1445.88 -0.586736 -0.0189647 0.789113 59 70 103
-12.0972 -537.773 -1445.16 -0.585787 0.033279 0.786474 59 71 104
-187.898 -310.818 -1445.71 -0.791933 0.30409 0.515403 73 79 118
-183.99 -300.564 -1448.19 -0.742588 0.435113 0.507786 64 69 104
-179.521 -296.466 -1444.08 -0.770555 0.402178 0.460224 57 60 93
-178.306 -289.761 -1445.87 -0.827689 0.213111 0.465923 53 56 86
-181.434 -270.646 -1447.67 -0.764183 0.00129997 0.62177 45 46 68
-178.698 -269.197 -1443.87 -0.784483 -0.0187538 0.603859 48 49 73
-182.419 -259.669 -1448.57 -0.894442 0.0418389 0.430698 74 71 68
-181.231 -254.121 -1445.12 -0.877069 -0.094423 0.449731 85 78 61
-184.497 -247.333 -1448.24 -0.885619 -0.273679 0.344215 84 77 56
-196.268 -226.242 -1448.31 -0.781841 -0.295817 0.475131 126 107 54
-187.034 -238.934 -1445.64 -0.837614 -0.420538 0.352884 87 78 51
-185.953 -238.708 -1442.92 -0.846487 -0.419694 0.343432 90 79 50
-119.83 47.7927 -1448.18 -0.214081 0.374899 0.872647 107 87 45
-115.649 56.1258 -1448.67 -0.433435 0.26625 0.830703 132 108 46
-106.65 55.4948 -1443.53 -0.414315 0.226262 0.878775 147 119 46
-109.531 63.1407 -1447.33 -0.386464 0.257399 0.856658 148 120 48
-104.1 60.7542 -1444.12 -0.363601 0.250563 0.892482 147 119 47
-102.09 65.6856 -1444.78 -0.333403 0.244924 0.907776 147 118 48
-186.601 71.3417 -1448.86 -0.0220133 0.303296 0.953968 141 115 53
-98.3975 72.1005 -1445.54 -0.263693 0.243501 0.922817 144 116 47
-107.237 78.1776 -1448.98 -0.37337 0.303571 0.835217 124 102 48
-97.5343 82.7589 -1448.42 -0.164804 0.420633 0.864402 138 111 44
-90.7208 72.6435 -1443.66 -0.20629 0.24946 0.940799 142 115 49
-86.8356 77.1941 -1443.71 -0.27218 0.214982 0.92645 142 116 57
60.588 -261.245 -1444.82 0.655147 -0.489703 0.599403 114 95 46
61.6949 -262.371 -1447.27 0.681124 -0.450644 0.578743 109 93 49
67.4351 -254.153 -1448.49 0.772868 -0.248311 0.467746 135 111 51
63.2937 -250.643 -1443.51 0.590046 0.0981069 0.674209 139 115 54
41.162 -234.34 -1444.88 0.644231 0.227724 0.723514 80 63 36
45.4323 -233.265 -1448.87 0.597084 0.277606 0.740821 78 62 33
42.3035 -227.305 -1448.67 0.686939 0.333918 0.629358 113 91 40
50.4576 -243.033 -1444.79 0.127586 0.534425 0.778234 103 83 48
58.0723 -243.156 -1445.71 0.238804 0.634648 0.706164 115 94 50
39.4 -218.152 -1448.11 0.762689 0.117275 0.62391 145 117 47
38.5668 -213.948 -1446.9 0.801961 0.015136 0.57695 141 112 42
40.8385 -204.993 -1448.86 0.787312 -0.115628 0.583829 134 103 36
40.7731 -195.767 -1444.67 0.846076 -0.233367 0.445828 129 100 35
44.6303 -188.398 -1448.49 0.821698 -0.156176 0.493068 135 105 39
18.8132 226.359 -1445 0.849562 -0.032029 -0.305369 174 133 131
19.7156 237.818 -1445.11 0.804282 -0.157489 -0.159299 164 123 121
23.8332 249.673 -1446.24 0.853826 -0.230481 -0.0993143 132 101 100
25.889 258.621 -1445.92 0.80405 -0.281384 0.105964 51 37 41
22.5906 318.955 -1444.66 0.796086 0.154031 0.368118 38 34 41
15.22 334.142 -1445.62 0.737306 0.523639 0.462816 51 49 55
-1.98476 352.727 -1447.96 0.692798 0.499555 -0.0485769 33 30 40
-3.00913 352.795 -1444.66 0.699405 0.523367 0.089748 36 33 42
5.46113 345.112 -1447.6 0.623491 0.733873 0.150487 53 49 58
13.5836 337.666 -1447.13 0.689983 0.606653 0.385785 52 49 56
29.6266 265.165 -1447.13 0.712935 -0.606764 0.0749404 23 16 22
34.1103 270.227 -1446.32 0.797771 -0.532672 0.133005 16 12 19
-159.836 -719.198 -1440.67 -0.644689 -0.432629 0.313145 59 70 99
-163.502 -711.191 -1441.42 -0.806292 -0.410959 0.246651 57 68 95
-166.108 -703.379 -1442.37 -0.877954 -0.252159 0.213577 53 63 89
-136.666 -726.665 -1439.37 0.439884 -0.179247 0.874918 71 82 114
-128.105 -721.159 -1442.63 0.353796 -0.261818 0.898937 66 77 109
-133.033 -711.195 -1438.28 0.500828 -0.10661 0.889087 73 84 116
-127.171 -709.037 -1440.61 0.370814 -0.0802806 0.914374 70 81 114
-124.465 -712.756 -1441.62 0.357257 -0.136288 0.908991 68 79 112
-120.25 -705.78 -1442.54 0.287578 -0.00185171 0.954838 66 77 110
-169.973 -666.514 -1438.04 -0.84549 -0.2449 0.427783 58 69 99
-172.72 -656.979 -1437.48 -0.883631 -0.153987 0.359865 55 65 94
18.5056 -1133.64 -1441.6 -0.588196 0.794399 0.125622 97 80 80
29.2959 -1174.4 -1437.46 0.134988 0.928821 0.163764 162 145 137
34.0488 -1172.83 -1438.07 0.0349567 0.870948 0.232073 159 141 134
47.6164 -1167.84 -1437.4 -0.10122 0.946991 0.172182 126 102 96
58.1108 -1169.41 -1440.67 0.316622 0.914289 0.198898 89 71 68
51.1036 -1167.81 -1439.64 0.0777278 0.946512 0.161245 124 101 96
66.5901 -1162.28 -1440.78 0.344156 0.900234 0.206122 24 21 20
29.8371 -1144.45 -1439.43 0.211109 0.79998 0.186453 134 110 106
31.4866 -1143.58 -1438.04 0.28518 0.826937 0.155148 135 111 106
62.618 -1153.06 -1438.53 0.0794061 0.919108 0.182743 118 101 96
91.5841 -1172.76 -1440.74 0.82974 0.243095 -0.35078 143 141 138
90.3835 -1158.09 -1441.85 0.833435 0.212474 -0.45188 126 124 122
88.4326 -1152.07 -1442.11 0.835348 0.19128 -0.505912 125 124 123
87.8167 -1146.88 -1440.35 0.857602 0.168014 -0.482109 127 127 126
85.6378 -1141.78 -1441.11 0.879705 0.110593 -0.447158 122 122 124
81.9682 -498.665 -1439.2 0.631149 0.113276 0.687824 66 77 116
84.8603 -503.416 -1441.01 0.58895 0.146722 0.771522 59 69 106
82.3446 -496.357 -1439.75 0.623091 0.15204 0.70041 68 80 119
84.8529 -494.926 -1442.28 0.663928 0.0364103 0.707483 68 80 121
79.3977 -485.495 -1438.68 0.570312 -0.118939 0.790513 60 70 110
85.133 -477.377 -1442.78 0.619398 -0.152816 0.762748 60 70 110
82.0762 -463.719 -1438.85 0.460811 -0.0175413 0.849517 62 71 112
86.8831 -465.51 -1442.18 0.549236 -0.100937 0.810068 60 69 108
-167.992 -147.303 -1439.91 -0.69656 0.139787 0.691627 135 109 47
-167.572 -136.771 -1440.22 -0.714788 -0.00801807 0.686187 131 106 47
-167.048 -126.681 -1438.28 -0.744531 -0.0402111 0.658869 121 98 45
-170.103 -34.9788 -1440.16 -0.744987 -0.192693 0.624691 101 84 45
-172.159 -30.6877 -1441.16 -0.734427 -0.142405 0.651634 94 78 44
-165.108 -114.533 -1438.37 -0.728287 0.12453 0.666649 123 99 45
-165.069 -110.462 -1439.24 -0.715208 0.137267 0.681992 122 98 47
-166.957 -106.039 -1441.74 -0.690621 0.134031 0.714306 112 91 46
-165.094 -95.6597 -1439.4 -0.790833 -0.0207423 0.592941 102 82 43
-165.592 -89.9514 -1439.29 -0.812286 0.00781415 0.563209 99 79 43
-74.8328 69.3789 -1437.38 -0.292005 0.184351 0.938274 139 113 56
-79.847 76.4833 -1440.66 -0.32998 0.143375 0.931199 141 115 61
-79.6048 82.434 -1441.48 -0.384286 0.138444 0.913288 138 112 53
-73.9294 85.2025 -1439.64 -0.33838 0.136877 0.91403 136 108 50
-78.9211 94.3798 -1442.95 -0.501986 0.143521 0.844396 138 110 46
-80.0541 153.337 -1440.67 -0.697749 -0.697926 0.0853425 119 93 90
-81.4544 155.735 -1439.28 -0.775059 -0.581662 0.0938732 121 94 92
-84.2756 164.612 -1440.3 -0.81491 -0.390356 0.344214 130 101 100
56.9035 -311.564 -1440.58 0.718956 0.135838 0.680003 54 55 80
58.3984 -309.751 -1442.1 0.732734 0.132834 0.664289 51 52 76
56.9239 -304.167 -1441.29 0.696192 0.137349 0.694586 48 51 75
49.1125 -297.747 -1436.98 0.582433 0.172851 0.792084 47 50 73
46.1061 -287.356 -1436.98 0.661834 0.129543 0.735182 45 47 70
53.4439 -290.451 -1442.55 0.644556 0.283245 0.696553 49 52 79
49.46 -282.304 -1440.97 0.709253 0.108412 0.691451 57 60 85
50.0348 -274.223 -1441.36 0.722156 -0.098817 0.658905 84 79 78
45.5956 -250.723 -1436.99 0.326959 0.583759 0.706435 112 94 52
-43.1387 121.387 -1437.19 0.364245 -0.942068 0.0289958 114 83 71
-36.5653 123.536 -1441.66 0.510992 -0.856107 -0.0576853 117 86 75
-29.3372 126.942 -1438.74 0.574375 -0.768694 -0.254048 137 100 86
-68.0638 143.457 -1439.52 -0.627867 -0.789098 0.00832723 115 90 86
-23.9122 133.592 -1442.95 0.688967 -0.679879 -0.258028 149 108 94
-16.988 143.455 -1441.36 0.822941 -0.510847 -0.187894 153 112 99
-14.4355 147.731 -1440.32 0.842555 -0.496729 -0.13084 149 109 96
-6.27282 158.578 -1440.96 0.742406 -0.661256 0.0567928 148 109 99
-0.675575 168.32 -1441.54 0.885349 -0.426095 0.0845494 164 123 117
1.11343 173.064 -1438.2 0.888354 -0.412304 0.153291 175 133 127
9.13536 189.694 -1442.74 0.928998 -0.348475 -0.0676557 168 127 122
11.7524 194.728 -1440.41 0.897236 -0.40981 -0.100897 166 124 120
17.4316 207.813 -1438.31 0.904783 -0.295399 -0.0401712 166 127 122
19.0099 212.988 -1441.11 0.857643 -0.234976 0.000489523 154 119 117
19.4848 222.926 -1440.82 0.822388 -0.049198 -0.025992 154 118 116
-94.3721 -641.369 -1433.43 0.572188 -0.182359 0.793004 48 61 94
-92.6349 -636.697 -1434.29 0.730265 -0.0254818 0.659409 44 57 89
-95.7699 -627.411 -1431.57 0.545079 -0.0130194 0.815286 49 63 96
-90.3507 -619.853 -1435.86 0.723709 -0.256134 0.635407 46 58 91
-89.5379 -617.357 -1435.18 0.697635 -0.275713 0.655403 46 59 91
-183.462 -601.89 -1437.04 -0.792613 -0.293848 0.466986 48 58 89
-183.251 -599.834 -1430.44 -0.698462 -0.282409 0.519253 60 71 106
-186.492 -593.429 -1434.01 -0.773216 -0.424591 0.410686 52 61 93
-187.695 -581.23 -1431.41 -0.824117 -0.101878 0.545117 56 66 100
-188.382 -572.099 -1431.43 -0.819334 -0.134942 0.537108 56 66 100
-190.118 -565.837 -1432.45 -0.818291 -0.146404 0.535228 54 65 98
-194.76 -548.541 -1434.4 -0.749613 -0.23997 0.557777 57 67 99
-195.802 -543.652 -1432.63 -0.734868 -0.25056 0.565193 62 72 104
-198.469 -537.52 -1434.03 -0.792992 -0.178257 0.519459 59 69 102
-192.602 -552.39 -1434.34 -0.75973 -0.16617 0.590908 52 63 94
-206.119 -453.916 -1433.27 -0.812034 0.160882 0.549798 67 78 121
-208.112 -448.656 -1437.13 -0.840591 0.0876373 0.520411 65 76 120
-204.45 -447.253 -1431.09 -0.816518 0.032817 0.565167 61 71 114
-206.352 -426.96 -1435.36 -0.825253 0.0459829 0.540447 66 77 121
-207.007 -420.509 -1437.16 -0.805951 0.0782145 0.562556 71 81 125
-202.58 -417.92 -1433.03 -0.744445 0.13913 0.638896 66 77 120
-73.2299 -487.109 -1435.34 0.87719 0.17929 0.44292 28 36 74
-73.4322 -484.745 -1435.36 0.878103 0.106226 0.458519 28 36 74
-73.8978 -472.085 -1431.4 0.649495 -0.163485 0.67368 31 39 75
17.8962 -578.238 -1434.71 -0.351635 -0.218499 0.896004 66 79 117
20.5152 -577.489 -1433.7 -0.319788 -0.216127 0.904848 67 81 119
20.8335 -576.18 -1433.37 -0.308789 -0.19945 0.908898 68 81 119
9.51816 -567.434 -1435.97 -0.498367 -0.253138 0.812644 63 76 114
9.14949 -562.27 -1434.72 -0.44305 -0.276419 0.837946 63 76 114
20.9764 -569.664 -1432.38 -0.258608 -0.125528 0.931165 68 81 120
15.4706 -559.796 -1432.31 -0.274846 -0.182627 0.917374 66 79 117
-70.3229 -532.942 -1436.82 0.670556 -0.0934601 0.708806 38 47 81
-70.3706 -510.267 -1434.81 0.73255 -0.148402 0.658951 38 46 81
-2.22813 -542.182 -1436.67 -0.646426 -0.0177003 0.768166 59 71 110
2.15813 -553.528 -1434.96 -0.491793 -0.227168 0.82626 58 71 110
6.29953 -548.569 -1432.48 -0.39887 -0.104027 0.878222 60 72 111
8.51389 -549.821 -1432 -0.316751 -0.134077 0.906558 61 73 112
21.9021 -551.958 -1431.21 -0.0403776 -0.0830463 0.991646 68 80 120
15.0304 -552.636 -1431.37 -0.171088 -0.147544 0.951558 65 77 116
0.427267 -541.22 -1434.98 -0.60236 0.0199369 0.795422 60 72 111
2.63019 -535.566 -1434.19 -0.523808 0.0454439 0.832072 60 72 111
12.3335 -535.692 -1431.3 -0.185178 -0.00415305 0.964552 63 74 114
18.6988 -546.381 -1430.82 -0.00789725 -0.0212299 0.999402 69 80 120
-0.456999 -520.266 -1435.78 -0.504097 0.00137534 0.84464 62 73 111
5.33438 -533.223 -1433.06 -0.414747 0.0269274 0.88104 60 71 111
4.128 -526.218 -1433.41 -0.439981 0.0442612 0.878336 60 71 111
6.28482 -523.699 -1432.47 -0.354572 0.0461681 0.916339 61 72 112
-175.84 17.2711 -1435.68 -0.404355 -0.0816341 0.859832 142 117 50
-173.338 20.6232 -1434.74 -0.316929 -0.0149337 0.923241 146 120 50
-172.668 22.7398 -1434.72 -0.315512 0.0508977 0.926868 145 120 50
-170.03 33.5915 -1436.44 -0.309638 0.260816 0.868537 135 111 49
-162.966 -19.559 -1431.64 -0.713838 0.104581 0.670822 79 67 42
-165.863 -10.8966 -1432.96 -0.654174 -0.0411027 0.709067 103 87 45
-166.3 -6.64477 -1432.51 -0.690137 -0.0549464 0.680525 111 93 47
-165.717 4.23064 -1432.23 -0.666995 0.0640538 0.715654 117 98 49
-164.528 11.5949 -1431.81 -0.533396 0.00932573 0.774068 122 102 50
-162.319 14.8902 -1431.09 -0.543953 0.036596 0.754311 113 95 50
47.9003 -349.592 -1431.29 0.723843 0.00155433 0.688799 71 77 113
53.5164 -365.414 -1435.74 0.551093 0.0732745 0.827921 46 51 85
54.0494 -359.284 -1436.13 0.617748 0.093094 0.770244 40 43 74
51.9655 -347.703 -1435.21 0.648954 0.0229669 0.753046 52 54 86
46.4736 -338.662 -1430.82 0.628997 0.0461722 0.754365 53 56 86
49.1832 -335.213 -1432.47 0.528004 -0.0431048 0.830396 50 53 81
50.7731 -335.248 -1433.4 0.523649 -0.0561671 0.836149 53 56 85
49.6423 -328.55 -1432.13 0.439749 -0.0963835 0.890685 50 53 81
50.0433 -319.852 -1433.32 0.553394 0.0748302 0.816734 60 62 91
47.4238 -51.201 -1436.58 0.809191 -0.092408 0.569018 152 119 36
51.8767 -37.7206 -1436.22 0.819674 -0.289104 0.479149 157 125 41
53.5872 -28.2935 -1436.11 0.865229 -0.054604 0.444569 163 133 50
-36.8941 6.77332 -1431.77 0.18447 0.202188 0.953217 133 106 42
-33.4344 7.05113 -1432.34 0.148548 0.208622 0.956053 134 107 43
-39.3814 13.7663 -1431.69 0.172818 0.0531834 0.97943 127 101 41
-36.2553 19.7223 -1433.06 0.18929 0.0939744 0.968592 125 100 42
-28.4873 13.5357 -1433.27 0.0812142 0.0900301 0.988746 131 106 45
-34.4283 18.7706 -1433.15 0.163137 0.0859697 0.976147 126 101 43
-7.47391 159.085 -1435.84 0.788452 -0.578745 0.105992 155 115 105
-6.55784 160.284 -1436.45 0.776667 -0.59456 0.13207 156 116 106
-5.36091 166.642 -1431.7 0.81275 -0.458711 0.359087 183 139 132
3.70892 180.842 -1433.56 0.863074 -0.441814 0.189884 169 128 123
8.36916 188.313 -1435.45 0.900999 -0.4097 0.0602691 168 128 123
10.3258 192.092 -1435.21 0.894415 -0.4275 0.0327311 165 124 120
15.9117 205.078 -1436.35 0.901692 -0.329463 0.0261978 163 124 120
17.8861 210.879 -1435.96 0.918627 -0.230796 0.137407 153 118 115
17.7257 219.746 -1432.04 0.840196 -0.0234319 0.406396 126 98 95
19.0686 225.916 -1433.72 0.841885 0.0100481 0.163512 154 120 116
21.9009 243.49 -1432.83 0.860112 -0.198921 -0.124363 176 137 131
22.2288 246.786 -1431.82 0.88973 -0.159556 -0.104581 173 135 129
23.3851 260.158 -1431.51 0.913379 -0.0893334 0.180298 97 73 72
-124.127 -751.241 -1425.37 -0.0123415 0.115745 0.690404 68 82 113
-146.381 -703.299 -1430.08 -0.173483 -0.0157235 0.778634 70 82 115
-169.027 -658.486 -1428.79 -0.647903 -0.000570586 0.639144 64 76 110
-84.3194 -551.465 -1426.5 0.628266 -0.192043 0.73521 41 52 85
-83.0634 -550.617 -1427.85 0.665602 -0.163896 0.705185 40 51 84
-80.3517 -541.325 -1428.93 0.76371 -0.146875 0.627693 41 52 87
-80.914 -534.628 -1429.26 0.603456 0.0562475 0.760424 42 53 88
-90.6338 -527.649 -1425.6 0.526885 0.165532 0.818981 42 53 90
-80.0714 -530.466 -1430.48 0.530165 0.0362744 0.820803 41 52 88
-84.4626 -520.816 -1427.76 0.45019 -0.0869463 0.870701 38 48 86
-83.2349 -520.461 -1428.31 0.448562 -0.103613 0.872328 38 48 86
-82.7433 -515.502 -1426.8 0.441321 -0.251076 0.85931 38 47 86
-199.859 -507.41 -1426.5 -0.836213 -0.141392 0.505909 60 72 107
-200.712 -498.91 -1427.31 -0.824917 -0.108681 0.536648 58 70 106
-202.18 -490.82 -1428.71 -0.754758 -0.15269 0.632167 57 68 105
-201.331 -486.315 -1427.13 -0.745252 -0.1108 0.656103 59 70 107
-203.362 -477.375 -1426.99 -0.803215 -0.150667 0.565472 67 77 116
-203.705 -472.891 -1426.21 -0.820937 -0.131799 0.536899 67 78 117
-163.182 -279.594 -1428.73 -0.567114 0.108001 0.808552 60 64 95
-163.732 -273.379 -1430.1 -0.558372 0.132069 0.813982 64 66 95
-154.141 -271.705 -1424.94 -0.484306 0.128539 0.860951 76 77 99
-160.93 -263.493 -1430.11 -0.548538 0.0929886 0.819101 78 71 70
-155.883 -267.498 -1426.49 -0.481483 0.108834 0.865025 78 76 88
-165.156 -250.693 -1429.6 -0.50103 -0.276856 0.814963 105 90 53
-166.719 -247.383 -1429.5 -0.509066 -0.293104 0.801728 112 95 53
-162.711 -249.401 -1428.03 -0.495035 -0.24578 0.821434 110 94 52
-161.545 -243.654 -1426.52 -0.45814 -0.168682 0.842434 119 101 51
-166.469 -232.985 -1428.42 -0.329439 -0.00987034 0.924264 125 105 50
-161.577 -235.668 -1427.01 -0.338642 -0.00996349 0.91436 122 103 49
-167.01 -230.412 -1428.47 -0.311536 -0.0289412 0.931357 118 99 48
-166.71 -225.825 -1428.14 -0.278577 -0.0903972 0.937905 105 89 44
-153.109 -230.843 -1425.06 -0.250044 0.0835905 0.956853 113 95 43
-176.326 -218.711 -1429.16 -0.401489 -0.191553 0.888974 106 90 45
-173.146 -216.848 -1427.52 -0.360753 -0.212743 0.890911 103 88 46
-169.246 -213.589 -1424.73 -0.251884 -0.30845 0.91128 94 81 45
-176.249 -207.531 -1427.38 -0.50123 -0.0134055 0.851459 119 101 50
-177.676 -202.119 -1429.04 -0.540441 0.148063 0.820211 125 105 51
-176.993 -195.678 -1430.32 -0.586537 0.276496 0.754784 133 109 52
-170.602 -190.369 -1428.63 -0.506796 0.375455 0.757507 144 117 54
22.2281 -242.491 -1426.02 0.605722 0.136726 0.764373 94 75 35
20.5897 -231.108 -1426.09 0.702254 0.0599877 0.709209 108 86 34
24.1009 -225.715 -1429.57 0.728439 0.0429986 0.676177 114 90 35
42.4271 -314.817 -1428.44 0.593662 0.0907749 0.793753 73 77 109
43.4819 -309.34 -1430.56 0.632709 0.158769 0.753431 65 68 98
36.7376 -300.881 -1426.31 0.636226 0.163181 0.745486 49 52 78
39.1796 -295.367 -1429.5 0.672636 0.119658 0.723453 49 53 81
35.835 -281.772 -1428.11 0.624262 0.0935791 0.758082 72 72 94
36.0708 -281.438 -1428.36 0.626523 0.094144 0.756206 73 73 94
34.461 -269.202 -1425.57 0.578735 -0.181376 0.781172 100 84 52
39.5393 -271.708 -1430.25 0.593999 -0.0985814 0.778665 97 85 66
38.0479 -264.047 -1426.39 0.55448 -0.174154 0.787626 127 107 53
39.0304 -257.637 -1428.2 0.502773 0.216702 0.767217 141 119 59
34.5903 -255.508 -1426.56 0.425443 0.359074 0.79828 138 116 60
26.6814 -249.792 -1426.25 0.489905 0.315027 0.795115 100 82 42
39.8066 -254.18 -1430.13 0.485233 0.397053 0.721389 130 109 56
24.8375 -230.381 -1430.17 0.713654 0.0917268 0.691499 107 85 35
-158.915 -652.004 -1422.37 -0.325801 -0.0844953 0.903716 64 78 113
-160.48 -645.025 -1421.58 -0.426808 -0.160405 0.860264 64 78 113
-148.73 -649.489 -1422.98 0.205764 -0.215516 0.908529 69 83 118
-155.017 -648.61 -1421.27 -0.154346 -0.165324 0.932771 66 80 115
-163.042 -643.077 -1422.18 -0.535133 -0.163448 0.805844 63 77 112
-162.147 -639.19 -1420.28 -0.567476 -0.295902 0.762217 64 78 114
-164.757 -633.874 -1419.26 -0.62035 -0.371046 0.700687 65 78 113
-148.784 -640.761 -1421.23 0.0806251 -0.161483 0.934113 68 82 118
-155.901 -634.578 -1418.69 -0.201892 -0.202144 0.843059 63 77 114
-141.704 -637.75 -1423.54 0.281266 -0.16078 0.934115 71 84 120
-143.318 -636.035 -1422.73 0.256957 -0.106644 0.952222 71 84 120
-130.463 -634.167 -1424.48 0.107267 -0.294817 0.934325 70 83 118
-156.095 -628.777 -1418.58 0.096072 -0.0857572 0.868024 63 77 114
-147.757 -625.68 -1420.85 0.234979 -0.0362888 0.963138 69 83 120
-146.759 -624.054 -1420.73 0.193553 -0.0654306 0.966821 69 83 120
-145.268 -619.364 -1419.99 0.0607172 -0.145745 0.970738 69 84 121
-139.89 -625.11 -1421.11 0.0818087 -0.161552 0.964758 70 84 120
-138.252 -626.273 -1421.43 0.069994 -0.189258 0.959599 71 84 120
-132.907 -622.513 -1418.99 -0.114592 -0.305549 0.938127 69 82 118
-122.367 -626.567 -1420.04 -0.02008 -0.399249 0.903221 66 79 116
-122.615 -624.492 -1418.98 -0.0139014 -0.390161 0.902957 66 79 116
-117.454 -626.904 -1421.27 0.138017 -0.371034 0.898895 64 77 114
-113.168 -627.962 -1423.29 0.266028 -0.31849 0.901176 62 75 112
-113.204 -623.633 -1421.92 0.289764 -0.319452 0.890781 62 75 112
-112.595 -613.999 -1419.23 0.335281 -0.254792 0.905773 63 76 113
-105.551 -618.992 -1423.46 0.361916 -0.315922 0.874129 58 71 107
-106.713 -608.813 -1419.41 0.347349 -0.204426 0.901323 58 71 108
-99.2941 -610.816 -1423.71 0.474929 -0.254149 0.826698 53 66 101
-84.4552 -457.213 -1419.46 0.397129 -0.383321 0.810499 55 63 106
-80.8373 -455.973 -1419.91 0.331876 -0.441435 0.816711 55 63 107
-36.9914 -1163.17 -1421.25 0.176811 0.821631 0.236947 133 115 105
-32.6784 -1166.48 -1420.64 0.213385 0.842296 0.267364 161 138 125
-66.5112 -1150.8 -1423.03 -0.539821 0.676638 0.43232 167 141 134
-51.5548 -1156.63 -1422.93 0.40953 0.761192 0.147669 105 89 85
-56.2037 -1151.49 -1424.46 0.33976 0.723045 0.140849 125 103 98
-49.9084 -1145.26 -1424.57 -0.0922923 0.571401 0.323014 124 107 104
-47.8441 -1157.96 -1425.25 0.327482 0.722591 0.0359925 100 83 78
-35.8592 -1149.81 -1420.99 0.185635 0.686765 0.157585 118 99 90
-44.2667 -1145.52 -1424.13 -0.103638 0.516408 0.255456 113 97 91
-44.3974 -1144.29 -1419.68 -0.18481 0.669142 0.459346 119 101 93
-37.2033 -1141.4 -1424.46 0.0836908 0.483682 0.224086 89 75 69
-33.3705 -1144.43 -1424.54 0.226245 0.478351 0.125901 91 77 72
-30.5163 -1143.1 -1419.37 -0.065814 0.843539 0.306583 83 71 65
-18.4541 -1167.69 -1423.78 -0.265637 0.861711 0.359254 161 138 128
-2.59923 -1169.05 -1423.52 0.0123751 0.860302 0.410882 169 140 126
9.67495 -1174.8 -1419.52 0.0282252 0.828203 0.568552 164 135 119
0.833997 -1171.82 -1419.47 0.104609 0.871262 0.299174 163 134 120
10.569 -1174.1 -1420.73 0.0171828 0.817436 0.593002 163 134 119
18.2524 -1172.31 -1423.95 0.194678 0.76892 0.401134 160 132 118
15.926 -1151.19 -1420.71 -0.53039 0.606838 -0.109389 102 89 84
15.6027 -1145.21 -1422.2 -0.768649 0.517408 -0.130084 98 87 83
19.0594 -1138.5 -1421.14 -0.797686 0.595436 0.00798069 95 85 81
-158.745 -216.897 -1423.91 -0.198757 -0.324532 0.925881 96 81 40
-161.177 -213.753 -1423.29 -0.188695 -0.327202 0.92979 101 84 40
-154.489 -215.222 -1422.73 -0.170151 -0.300999 0.940204 98 82 38
-152.234 -211.219 -1421.29 -0.170587 -0.257532 0.950567 104 86 37
-146.225 -209.819 -1419.63 -0.22802 -0.267457 0.932025 102 84 36
-159.055 -205.173 -1421.42 -0.232663 -0.130885 0.949077 118 97 41
-165.022 -198.525 -1423.1 -0.360529 0.13907 0.892093 131 108 47
-157.756 -201.75 -1420.71 -0.251525 -0.0600265 0.950431 124 101 43
-147.803 -205.759 -1418.91 -0.24045 -0.22994 0.938115 109 89 36
-143.396 -218.675 -1421 -0.211422 -0.170065 0.944697 102 84 40
-143.716 -210.965 -1419.3 -0.248463 -0.275945 0.923661 100 83 37
-162.909 -192.175 -1424.25 -0.364759 0.409974 0.8114 154 126 56
-159.66 -190.058 -1423.02 -0.39416 0.331872 0.825896 148 121 56
-154.503 -192.432 -1419.65 -0.381692 0.0772272 0.89712 133 108 51
-157.108 -176.882 -1424.36 -0.502098 0.208715 0.825394 140 113 51
-149.604 -178.178 -1419.49 -0.517176 0.231752 0.814338 140 115 53
-147.482 -172.809 -1419.75 -0.486033 0.131657 0.832363 126 103 46
-100.355 278.715 -1419.02 -0.832875 0.0912923 0.535661 139 101 103
-102.762 291.256 -1423.83 -0.888432 0.0269473 0.446965 133 102 102
-101.402 295.312 -1423.15 -0.857168 0.0833733 0.494045 119 94 94
-98.3039 303.26 -1421.1 -0.764083 0.155668 0.616994 95 75 78
-99.0774 312.265 -1424.12 -0.749101 0.162235 0.612868 54 45 50
-95.8484 312.059 -1420.96 -0.674587 0.227177 0.677067 65 53 58
-95.3263 320.362 -1424.25 -0.613748 0.42373 0.621021 27 22 30
-85.2092 326.159 -1423.69 -0.50766 0.6054 0.603465 23 19 27
-76.9171 327.887 -1418.89 -0.460564 0.641089 0.628973 24 21 29
-75.7185 332.145 -1420.07 -0.470217 0.606685 0.631045 26 22 29
-76.9035 337.02 -1421.35 -0.491757 0.511756 0.640223 37 30 37
-77.9669 342.332 -1421.13 -0.542818 0.413303 0.665733 49 40 46
19.5808 -215.159 -1423.79 0.617446 -0.124395 0.76098 108 88 45
19.097 -209.567 -1422.81 0.587678 -0.0747536 0.769288 114 93 49
17.8967 -203.604 -1422.74 0.499657 0.0778491 0.815426 140 114 56
15.5376 -201.135 -1421.66 0.537233 0.0548245 0.78606 144 116 54
13.7786 -191.488 -1421.64 0.714438 -0.148174 0.615442 145 116 44
17.4255 -179.759 -1423.46 0.865607 -0.203134 0.475304 139 110 37
17.4983 -177.915 -1423.8 0.900631 -0.188974 0.441281 137 108 35
17.0354 -163.49 -1419.14 0.852342 -0.157678 0.393578 136 108 36
20.2835 -157.891 -1422.19 0.721912 -0.174797 0.545675 132 104 39
21.9894 -153.828 -1422.5 0.69474 -0.162934 0.533215 130 103 39
-0.908571 177.238 -1423.22 0.80454 -0.555281 0.183829 174 133 127
3.76384 182.982 -1425.94 0.817029 -0.549537 0.166572 172 131 126
7.36043 189.137 -1422.13 0.846049 -0.502175 0.132319 172 131 126
8.84892 192.551 -1422.8 0.873597 -0.43683 0.154707 170 130 125
11.5493 202.407 -1422.4 0.936509 -0.240796 0.215213 158 121 117
12.7118 208.198 -1419.78 0.957207 -0.17804 0.145137 175 138 134
17.004 221.426 -1424.11 0.894269 -0.260623 0.191875 199 159 153
18.7021 225.975 -1419.86 0.927992 -0.350957 0.092516 218 174 167
23.2978 240.59 -1421.41 0.9141 -0.320554 0.0336635 198 154 148
24.6412 244.14 -1423.52 0.910485 -0.265614 -0.0923702 198 155 148
25.0148 258.259 -1421.06 0.987978 0.0389622 -0.0793294 154 118 114
-172.622 -603.11 -1417.89 -0.449936 -0.174542 0.827371 63 76 113
-170.28 -591.228 -1416.67 -0.362675 -0.0685869 0.881708 62 76 113
-170.058 -586.335 -1416.15 -0.355829 -0.0803639 0.908123 62 76 113
-178.834 -580.291 -1418.87 -0.619828 -0.120754 0.719897 60 73 110
-177.863 -571.076 -1417.35 -0.668279 -0.103413 0.651316 59 73 109
-175.047 -571.448 -1416.15 -0.520586 -0.0828458 0.778418 61 74 111
-169.554 -567.494 -1413.6 -0.306412 -0.0689878 0.930455 64 78 116
-178.892 -561.814 -1418.02 -0.648167 -0.0722175 0.73638 56 69 105
-182.072 -547.979 -1417.27 -0.720116 -0.150485 0.668999 60 74 110
-174.92 -556.358 -1413.61 -0.58284 -0.183435 0.776155 59 72 108
-184.077 -542.615 -1418.75 -0.765491 -0.0783757 0.633673 60 73 110
-179.694 -540.993 -1414.01 -0.699875 -0.0922019 0.705361 62 75 111
-182.798 -532.357 -1416.37 -0.762392 -0.0886959 0.635211 60 72 109
-183.319 -525.049 -1415.28 -0.770858 -0.126914 0.626907 57 69 104
-186.381 -516.927 -1416.48 -0.664783 -0.258074 0.672294 54 67 104
-183.95 -512.627 -1412.75 -0.61331 -0.14736 0.76405 64 76 113
-159.356 -604.631 -1415.28 -0.100808 -0.21467 0.907976 65 80 117
-165.45 -598.002 -1415.38 -0.247827 -0.143828 0.902231 64 78 115
-156.552 -603.894 -1415.07 -0.0480864 -0.272698 0.901798 67 82 119
-147.486 -602.632 -1414.46 -0.117416 -0.398744 0.88746 70 84 123
-165.518 -590.209 -1414.26 -0.403089 -0.160093 0.867676 66 80 117
-165.448 -586.765 -1414.09 -0.395343 -0.134682 0.888109 65 79 116
-143.099 -604.572 -1415.01 -0.152614 -0.337334 0.923728 71 85 123
-146.965 -118.419 -1418.57 -0.675874 0.0381921 0.72268 104 85 40
-145.085 -101.003 -1417.11 -0.5702 0.00510706 0.812665 114 93 41
-137.693 -122.893 -1414.15 -0.422466 0.000483393 0.898645 112 91 40
-141.637 -114.003 -1415.58 -0.502375 -0.00015639 0.846634 112 91 41
-140.33 -107.044 -1414.9 -0.457112 -0.0170764 0.878904 114 93 42
-143.316 -100.196 -1416.25 -0.527472 -0.000432109 0.840502 115 93 41
-144.785 -98.781 -1417.01 -0.564828 0.017985 0.815795 114 92 41
-140.284 -96.4583 -1414.8 -0.466656 -0.00918271 0.878071 115 93 40
-139.944 -91.7238 -1414.66 -0.484002 0.00331374 0.867389 113 92 40
-139.496 -83.8435 -1414.34 -0.541897 0.00467046 0.835648 108 89 40
-143.567 -75.7058 -1416.38 -0.650613 -0.0369514 0.750949 106 86 39
-145.814 -69.0926 -1418.62 -0.747305 0.0848793 0.657868 110 89 38
-143.738 -74.6554 -1416.43 -0.664361 -0.0143643 0.740627 105 86 39
-139.76 -63.3342 -1414.07 -0.702335 0.16003 0.696477 100 82 39
-144.059 -57.1595 -1417.85 -0.686578 -0.174619 0.709948 109 90 41
10.2417 -217.534 -1415.86 0.517269 0.0314758 0.718234 124 99 43
13.6371 -209.31 -1416.61 0.628324 -0.0300862 0.701911 125 100 43
12.5579 -199.014 -1415.42 0.531636 0.00760266 0.710253 130 103 46
12.9106 -192.684 -1414.38 0.503299 -0.00485452 0.688838 125 98 44
17.2703 -180.804 -1415.06 0.728011 -0.185304 0.5373 129 101 40
18.0334 -178.134 -1415.73 0.813163 -0.181017 0.461272 131 103 38
15.911 -170.54 -1416.44 0.777741 -0.0765137 0.442347 132 105 37
12.3029 -158.466 -1414.13 0.665907 0.0228432 0.681756 139 112 48
14.8829 -157.759 -1416.01 0.675542 -0.0678551 0.632605 137 111 46
20.8897 -148.812 -1418.88 0.621254 -0.0790716 0.635507 134 108 47
-4.46418 173.11 -1418.58 0.883424 -0.466232 -0.0698796 153 117 112
-0.707219 178.386 -1417.22 0.806869 -0.566652 0.0750054 172 133 126
2.93434 185.79 -1414.35 0.800218 -0.464423 0.302907 175 135 130
7.59241 192.018 -1417 0.854836 -0.428821 0.193643 175 134 129
11.247 205.151 -1414.45 0.940457 -0.182689 0.143952 176 138 134
12.1385 209.581 -1413.3 0.947267 -0.0898185 0.169389 184 146 141
16.39 221.594 -1418.16 0.909622 -0.344994 0.145031 220 175 169
19.7275 232.671 -1417.28 0.944334 -0.269921 0.125918 199 155 149
22.5302 241.903 -1416.2 0.917075 -0.316734 0.187373 195 151 145
24.5068 248.102 -1415.13 0.915736 -0.276245 0.235881 196 152 147
24.9956 260.86 -1416.67 0.982764 0.018454 0.0310402 152 118 113
-103.322 -533.704 -1410.96 0.444102 0.0481559 0.855815 55 68 108
-108.584 -522.367 -1410.69 0.506511 0.172082 0.823856 55 68 111
-116.473 -512.066 -1406.64 0.464651 -0.0635232 0.859436 59 73 119
-112.525 -516.753 -1409.3 0.503519 0.115314 0.847719 58 71 117
-182.503 -508.49 -1410.98 -0.591243 -0.0994124 0.793986 65 77 114
-179.099 -504.838 -1407.88 -0.624722 -0.0634257 0.785247 61 72 109
-182.208 -497.825 -1410.4 -0.638509 0.0475119 0.759234 61 72 109
-175.947 -489.842 -1407.14 -0.533236 0.187172 0.778605 68 79 117
-175.534 -484.189 -1408.52 -0.482007 0.233326 0.798694 72 83 122
-175.88 -476.33 -1410.16 -0.427703 0.0944152 0.868504 66 77 115
-174.542 -478.781 -1408.84 -0.472265 0.165001 0.834321 67 78 117
-175.411 -472.934 -1410.19 -0.418126 0.0594469 0.88244 62 73 112
-179.091 -462.323 -1411.62 -0.348695 -0.0185442 0.925859 62 72 112
-181.161 -452.392 -1412.37 -0.526108 0.000112796 0.833957 59 69 108
-170.081 -461.412 -1407.43 -0.319293 0.0211921 0.941629 69 80 122
-179.271 -452.831 -1411.46 -0.497798 -0.00879555 0.849636 60 70 110
-176.054 -444.837 -1410.58 -0.482623 0.0352733 0.861186 59 70 110
-175.386 -448.441 -1410 -0.459818 0.0245743 0.871908 62 72 112
-173.024 -442.805 -1408.92 -0.438731 -0.00404614 0.888357 63 73 114
-172.867 -437.802 -1408.64 -0.427573 0.0485328 0.888327 64 74 114
-178.536 -427.489 -1412.43 -0.499829 0.0210303 0.864499 67 77 118
-176.803 -420.897 -1412.52 -0.437819 0.115952 0.881445 65 75 115
-170.727 -416.073 -1411.23 -0.357417 0.166676 0.907584 71 81 123
-29.0014 -439.947 -1412.58 -0.0222585 -0.404144 0.889489 37 43 67
-68.2271 -429.323 -1410.45 0.0363653 -0.349485 0.925229 55 63 104
-64.4204 -428.804 -1410.79 0.0445417 -0.340342 0.919297 53 61 102
-70.9074 -420.8 -1407.91 0.0622321 -0.218965 0.967118 54 62 104
-62.3145 -421.153 -1408.75 0.0763646 -0.256905 0.948827 52 60 102
-60.605 -418.362 -1408.29 0.0646964 -0.229459 0.957262 49 58 100
-59.0276 -420.866 -1408.8 0.0453514 -0.28468 0.929487 50 59 99
-56.7017 -417.387 -1407.99 -0.0263979 -0.265635 0.931106 46 55 95
-44.5875 -432.549 -1412.52 -0.300987 -0.44898 0.836439 43 51 76
