ply
format ascii 1.0
comment Created by Open3D
element vertex 744
property double x
property double y
property double z
property double nx
property double ny
property double nz
property uchar red
property uchar green
property uchar blue
end_header
1480.38 -147.988 -1403.55 0.214404 -0.0110019 0.971583 122 100 44
1487.11 -150.887 -1405.17 0.187627 0.0300486 0.977328 123 100 45
1490.43 -159.479 -1405.02 0.156392 0.132647 0.966864 124 102 47
1494.94 -159.289 -1405.98 0.190178 0.155432 0.956906 130 107 48
1488.64 -152.657 -1405.43 0.179693 0.052647 0.976497 123 100 45
1481.89 -143.862 -1403.74 0.233319 -0.0377724 0.969608 123 100 45
1487.91 -143.259 -1405.15 0.22137 -0.0246165 0.973819 126 103 46
1482.8 -146.492 -1404.11 0.217787 -0.0265054 0.972606 123 100 45
1487.58 -139.465 -1405.01 0.22623 -0.0109914 0.971833 126 103 46
1483.1 -138.553 -1403.86 0.232699 -0.00586329 0.969071 124 101 46
1488.27 -148.575 -1405.38 0.197227 0.00797888 0.977595 124 101 45
1491.64 -140.834 -1406.01 0.209596 -0.0123263 0.976042 129 105 47
1478.93 -133.524 -1403.05 0.179619 0.0687597 0.974477 121 99 46
1483.91 -131.392 -1404.24 0.184232 0.0531872 0.976069 122 101 48
1481.69 -127.679 -1404.14 0.140091 0.074016 0.981421 121 100 47
1477.67 -124.39 -1404.09 0.0823447 0.110823 0.986571 120 99 45
1482.85 -125.055 -1404.56 0.120905 0.0728813 0.984588 120 100 47
1488.06 -133.021 -1405.11 0.207171 0.0259618 0.973943 125 102 47
1489.69 -127.754 -1405.69 0.165271 0.0622266 0.981492 118 97 46
1430.14 -122.344 -1400.93 0.0471239 -0.197052 0.979832 115 94 40
1437.8 -122.088 -1401.5 0.0827772 -0.141761 0.980264 117 95 42
1435.13 -112.531 -1401.82 0.148354 0.0396863 0.970545 115 94 40
1442.9 -122.482 -1402.11 0.111357 -0.111751 0.979081 118 96 43
1450.2 -122.818 -1402.82 0.112261 -0.0617839 0.982615 121 99 46
1442.42 -113.284 -1402.41 0.120049 0.0119513 0.969831 116 95 42
1448.14 -116.488 -1402.4 0.143666 -0.0637789 0.97188 118 96 44
1446.01 -113.221 -1402.24 0.0970204 -0.026403 0.970317 117 95 43
1439.19 -107.88 -1402.42 0.0819073 0.0528016 0.971931 114 93 39
1438.22 -111.519 -1402.3 0.127308 0.0546407 0.969572 115 94 40
1430.1 -103.148 -1400.94 -0.0584426 0.102418 0.986935 114 94 36
1436.61 -105.504 -1402.05 0.0440095 0.0582682 0.975404 113 93 38
1440.61 -109.304 -1402.51 0.0940571 0.0429537 0.970379 114 94 40
1446.28 -109.882 -1402.06 0.0560896 -0.00340043 0.969666 116 95 42
1441.75 -100.407 -1402.11 0.0598469 0.00347864 0.977391 112 92 39
1447.61 -100.399 -1402.12 0.0618556 0.0496657 0.979845 115 93 42
1360.69 -483.038 -1400.44 -0.139003 -0.0860967 0.987662 68 79 124
1360.64 -478.128 -1400.16 -0.121911 -0.0963408 0.98727 61 72 118
1364.43 -479.189 -1400.28 -0.0968659 -0.101667 0.987655 62 74 120
1360.71 -469.997 -1399.41 -0.129404 -0.009375 0.972846 62 74 120
1366.27 -473.654 -1399.6 -0.0156229 -0.0874677 0.973653 60 72 119
1361 -470.153 -1399.38 -0.127403 -0.0129414 0.972874 62 74 120
1356.03 -465.199 -1400.31 -0.171098 0.161179 0.952704 69 80 127
1363.28 -464.083 -1399.92 -0.0795914 0.208383 0.943439 67 79 126
1369.69 -471.149 -1400.14 0.13895 -0.0559491 0.955831 60 72 119
1383.86 -73.5751 -1398.15 -0.362491 -0.174774 0.896217 113 89 37
1380.73 -75.4761 -1399.31 -0.430511 -0.237981 0.853235 114 90 37
1389.09 -71.9832 -1395.97 -0.250562 -0.169984 0.937087 112 89 36
1379.76 -67.7387 -1398.59 -0.445576 -0.107024 0.877568 113 90 38
1384.75 -64.0915 -1396.08 -0.385411 -0.0620111 0.913804 113 91 40
1383.66 -60.1189 -1396.45 -0.418475 -0.0336635 0.904774 112 90 41
1381.44 -63.0199 -1397.52 -0.432698 -0.0538835 0.894305 112 90 39
1384.21 -53.0075 -1396.42 -0.413004 0.0259826 0.911479 115 94 42
1387.6 -53.7 -1395.08 -0.384879 0.0269371 0.917328 112 91 43
1417.61 -71.8605 -1394.62 0.122517 -0.0134822 0.982224 107 89 38
1428.18 -74.4822 -1396.32 0.132333 -0.142711 0.968265 108 88 36
1418.23 -67.5493 -1394.73 0.117553 0.0211925 0.990993 109 91 39
1425.53 -69.0471 -1395.18 0.0890482 -0.052825 0.988696 109 89 37
1423.56 -63.6036 -1394.81 0.0516775 -0.0775086 0.993337 112 90 37
1380.46 -47.9277 -1398.12 -0.368961 0.0262245 0.918792 123 100 44
1390.57 -45.6429 -1395.56 -0.262644 0.141966 0.94822 126 103 45
1383.84 -43.7159 -1397.7 -0.288777 0.104909 0.941171 131 106 45
1388.36 -44.0446 -1396.62 -0.271937 0.140868 0.944579 130 106 46
1391.14 -45.1395 -1395.54 -0.250559 0.153017 0.950811 127 104 46
1397.3 -40.1168 -1395.63 -0.179894 0.235401 0.952878 140 114 47
1381.84 -39.0211 -1398.93 -0.247724 0.157411 0.944754 135 110 46
1388.1 -38.3495 -1398.09 -0.191823 0.215482 0.949965 137 112 47
1386.83 -33.1783 -1399.75 -0.130864 0.301155 0.941124 134 110 49
1394.47 -37.3775 -1397.52 -0.1609 0.288873 0.932023 139 113 48
1401.78 -38.3278 -1395.27 -0.173849 0.323973 0.920162 141 115 49
1396.38 -33.3091 -1398.85 -0.10707 0.383897 0.906827 142 116 49
1398.22 -30.9174 -1400.02 -0.0584885 0.461391 0.878316 142 116 50
1424.98 -43.7401 -1394.44 0.171123 0.339405 0.886495 132 106 45
1405.35 -36.913 -1395.44 -0.123571 0.415079 0.881903 141 115 49
1410.03 -36.1726 -1395.63 -0.0257775 0.490225 0.839964 138 113 48
1406.33 -30.8192 -1399.62 -0.0132716 0.592316 0.805452 141 115 50
1413.05 -30.585 -1400.63 0.0954414 0.648297 0.761037 138 113 48
1419.5 -34.3739 -1399.51 0.203389 0.582789 0.784047 138 112 48
1425.86 -35.8324 -1399.7 0.161545 0.530211 0.824962 137 111 47
1421.73 127.455 -1398.24 -0.516037 -0.792389 0.3014 161 123 106
1424.23 126.78 -1396.79 -0.444032 -0.826577 0.315164 158 119 104
1415.04 139.039 -1398.82 -0.806742 -0.370679 0.447391 160 126 108
1416.36 133.771 -1399.61 -0.774827 -0.458585 0.376297 171 137 116
1436.49 123.14 -1400.46 -0.0474815 -0.932227 0.315339 135 97 89
1432.13 125.179 -1394.61 -0.217305 -0.892091 0.37266 149 110 100
1436.29 123.555 -1398.94 -0.0669496 -0.92616 0.331727 138 100 91
1442.93 124.306 -1398.03 0.116151 -0.926366 0.348814 142 105 98
1446.42 126.445 -1395.31 0.289362 -0.848127 0.397444 140 103 97
1454.55 134.234 -1396.31 0.653068 -0.508395 0.519448 138 104 99
1457.66 136.903 -1398.77 0.695305 -0.398082 0.600672 149 114 109
1458.13 137.822 -1398.87 0.690457 -0.385387 0.610896 148 113 108
1462.81 146.31 -1398.09 0.597501 -0.451302 0.630439 128 94 90
1460.35 142.033 -1399.06 0.663724 -0.360775 0.633633 140 105 100
1469.17 148.831 -1400.43 0.537799 -0.539686 0.609114 121 88 86
1471.01 151.83 -1398.68 0.489151 -0.581752 0.626754 133 97 94
1474.38 156.399 -1396.56 0.448976 -0.603187 0.651089 137 99 96
1480.46 158.457 -1398.7 0.523303 -0.587751 0.593814 139 100 95
1478.01 155.303 -1399.95 0.482779 -0.586446 0.624392 151 110 104
1483.54 165.231 -1395.66 0.621299 -0.376142 0.669032 147 114 115
1485.74 161.792 -1400.19 0.637317 -0.500694 0.540509 167 125 121
1408.66 -267.58 -1394.44 -0.226229 -0.291916 0.933086 122 96 35
1410.52 -262.608 -1393.97 -0.178478 -0.0413106 0.933096 125 100 41
1413.35 -259.095 -1394.27 -0.123343 0.173122 0.930428 128 103 43
1416.59 -264.322 -1394.07 -0.0190376 -0.170277 0.936846 125 99 43
1420.75 -259.73 -1394.23 0.140733 -0.076075 0.939337 128 101 47
1421.92 -258.618 -1394.53 0.198935 -0.0468666 0.943593 128 101 48
1401.83 165.361 -1391.46 -0.72195 -0.531737 0.438999 169 135 129
1413.9 149.001 -1394.33 -0.72267 -0.458581 0.508223 141 106 90
1417.35 143.837 -1393 -0.723575 -0.349341 0.568229 145 108 94
1406.4 159.153 -1392.06 -0.654492 -0.604958 0.452905 133 100 84
1413.77 154.187 -1388.68 -0.640531 -0.558113 0.51877 140 104 87
1404.47 162.519 -1390.51 -0.684673 -0.564528 0.457464 154 121 112
1401.41 167.497 -1389.62 -0.72949 -0.506324 0.454241 172 138 133
1397.8 170.362 -1392.82 -0.769417 -0.484512 0.4134 175 140 134
1396.31 176.187 -1389.33 -0.784644 -0.40294 0.462364 179 143 136
1390.09 185.359 -1394.35 -0.85568 -0.326987 0.400525 184 150 145
1393.2 180.764 -1391.8 -0.822619 -0.341384 0.44508 182 146 140
1389.31 190.53 -1391.76 -0.83504 -0.353921 0.414519 185 151 147
1386.92 193.212 -1393.75 -0.846493 -0.372895 0.37189 183 152 148
1385.65 197.575 -1391.1 -0.81135 -0.388301 0.421823 184 154 150
1383.59 203.5 -1390.36 -0.800784 -0.298831 0.483949 186 158 152
1384.34 210.59 -1388.31 -0.759138 -0.0442649 0.620245 192 163 156
1382.54 213.823 -1391.64 -0.801566 -0.0270165 0.573087 190 163 156
1420.37 198.198 -1393.5 -0.618691 -0.177353 0.688309 182 145 139
1422.5 201.168 -1391.44 -0.626545 -0.152788 0.694728 171 135 130
1419.69 204.894 -1392.3 -0.62146 -0.163013 0.694343 176 139 133
1418.49 203.349 -1393.49 -0.617919 -0.166104 0.696207 177 141 134
1420.24 213.392 -1389.86 -0.610995 -0.195186 0.687835 177 141 135
1420.75 207.743 -1390.75 -0.622269 -0.169481 0.688946 177 140 134
1379.23 245.714 -1392.35 -0.859694 -0.155951 0.381768 131 107 105
1378.29 255.579 -1395.37 -0.881714 -0.152338 0.359406 120 97 95
1377.48 260.674 -1389.73 -0.946393 -0.18359 0.255982 117 102 99
1381.82 219.088 -1392.54 -0.843774 -0.0551947 0.517184 181 156 147
1382.71 223.846 -1389.13 -0.839213 -0.138916 0.505541 164 139 130
1381.69 228.265 -1391.28 -0.869838 -0.145908 0.444459 148 123 114
1381.39 230.462 -1392.03 -0.864589 -0.153531 0.44128 139 114 107
1417.23 218.958 -1391.26 -0.509789 -0.259283 0.73028 145 114 111
1421.64 215.899 -1388.45 -0.546735 -0.230506 0.715892 162 129 124
1417.88 222.278 -1390.42 -0.478321 -0.285769 0.740069 142 112 109
1417.15 225.703 -1390.83 -0.486349 -0.283586 0.735234 142 112 110
1418.35 234.861 -1390.47 -0.480361 -0.292369 0.733866 144 114 111
1422.21 235.569 -1389.15 -0.475927 -0.27513 0.745349 141 112 109
1508.75 -1168.6 -1384.87 -0.166896 0.934894 0.300628 90 68 65
1510.01 -1169.68 -1387.11 -0.0616425 0.937449 0.200392 109 86 82
1517 -1170 -1384.62 0.0941847 0.896188 0.211677 131 107 102
1523.24 -1173.19 -1385.79 0.216816 0.934372 0.165079 142 114 107
1517.35 -1161.89 -1387.62 -0.680842 0.5413 0.130304 108 92 88
1518.09 -1165.95 -1382.81 -0.224453 0.703243 0.262532 126 106 102
1517.95 -1157.98 -1386.41 -0.783976 0.554983 0.0824511 99 85 81
1519.67 -1155.49 -1386.5 -0.789144 0.587194 0.119734 97 83 79
1534.06 -1181.28 -1382.56 0.385873 0.800566 0.426366 110 100 94
1529.23 -1178.12 -1384.29 0.36915 0.851721 0.302833 126 107 101
1534.83 -1180.11 -1387.15 0.306496 0.841609 0.422084 105 91 85
1538.38 -1181.95 -1382.99 0.30813 0.812803 0.470851 100 93 89
1544.27 -1181.24 -1385.24 0.194552 0.845114 0.486329 96 91 89
1523.76 -1163.59 -1384.47 -0.184133 0.729621 0.282963 125 106 102
1552.36 -1180.8 -1386.9 0.0174446 0.916962 0.391771 125 120 118
1558.25 -1179.27 -1388.38 -0.0624501 0.937488 0.344653 95 90 89
1527.83 -1157.56 -1381.9 -0.369217 0.784256 0.253594 112 95 90
1525.79 -1155.42 -1385.67 -0.580361 0.719125 0.203442 102 87 83
1427.59 148.567 -1380.34 -0.419004 -0.463222 0.724473 142 99 89
1422.39 152.738 -1379.43 -0.554884 -0.602559 0.565638 149 104 92
1411.56 164.536 -1379.06 -0.633716 -0.546276 0.540897 166 129 120
1417.87 159.097 -1377.09 -0.603555 -0.59606 0.534681 138 96 86
1415.49 158.898 -1380.35 -0.621075 -0.589381 0.520248 140 100 88
1392.41 272.559 -1359.57 -0.440828 0.115055 0.873739 171 143 142
1388.28 275.612 -1364.03 -0.741015 0.101229 0.65632 169 143 141
1392.91 274.555 -1359.64 -0.488326 0.0980356 0.848839 169 141 140
1395.99 286.198 -1359.18 -0.573444 0.0960448 0.81141 161 131 130
1390.4 290.699 -1363.64 -0.645972 0.0991467 0.753428 140 114 112
1394.9 288.64 -1360.17 -0.58282 0.109475 0.802289 156 127 125
1395.55 298.029 -1360.7 -0.575645 0.125409 0.80647 122 99 98
1398.13 294.026 -1358.49 -0.503555 0.137396 0.854628 153 124 122
1394.95 299.99 -1361.12 -0.60966 0.093839 0.77693 104 84 85
1399.91 303.213 -1359.16 -0.361285 0.101494 0.88819 94 75 76
1397.25 308.778 -1359.95 -0.439209 -0.0191423 0.820526 50 41 44
1399.66 309.869 -1359.31 -0.277688 -0.0217788 0.871342 46 36 40
1403.88 303.433 -1358.52 -0.150963 0.190362 0.953132 95 75 76
1406.29 307.15 -1359.17 -0.0129722 0.195243 0.91653 69 55 57
1413.96 309.485 -1359.64 -0.152674 0.384926 0.850439 82 67 71
1391.72 315.377 -1363.79 -0.747359 0.206738 0.592891 28 25 30
1403.78 311.417 -1359.03 0.0351541 -0.043816 0.87121 43 33 37
1396.03 318.993 -1361.98 -0.581899 0.251031 0.674042 26 22 27
1399.28 319.263 -1360.14 -0.47264 0.195057 0.648335 24 20 25
1401.83 323.748 -1362.73 -0.346874 0.355336 0.647337 23 19 23
1409.19 314.314 -1362.32 0.162406 0.0993183 0.880968 47 38 42
1413.62 312.97 -1360.92 -0.10491 0.270525 0.864474 69 57 62
1409.95 316.333 -1364.27 0.224957 0.0924494 0.905418 43 35 39
1408.41 318.23 -1362.88 0.0979701 0.0352343 0.773705 37 30 34
1410.77 318.201 -1363.98 0.126236 0.0405786 0.854593 44 36 41
1419.59 316.18 -1359.12 -0.294965 0.273081 0.877386 75 65 72
1419.77 319.488 -1361.13 -0.190461 0.255368 0.878462 61 53 59
1423.41 318 -1359.21 -0.225145 0.348412 0.878017 61 53 60
1404.56 326.607 -1363.73 -0.268306 0.408597 0.745836 24 20 23
1407.69 327.196 -1364.09 -0.30179 0.115793 0.724167 33 28 32
1409.76 326.342 -1363.85 -0.299173 -0.0853439 0.678486 38 33 38
1418.64 326.742 -1363.56 -0.277018 0.00678495 0.786669 53 46 53
1425.51 326.16 -1362.9 -0.197587 0.408033 0.850173 44 37 45
1426.78 329.792 -1364.34 -0.202267 0.428429 0.812501 37 30 37
1433.82 163.175 -1364.09 0.00116894 -0.430087 0.828644 130 86 81
1538.46 -1164.17 -1357.09 0.441614 0.71656 0.46852 34 30 28
1544.18 -1169.98 -1355.21 0.435379 0.717544 0.466813 34 30 29
1541.83 -1167.66 -1356.6 0.443231 0.715756 0.468862 33 29 28
1538.51 -1164.29 -1358.16 0.454576 0.713189 0.471994 33 29 27
1540.55 -1166.82 -1362.13 0.378841 0.732652 0.44426 39 34 32
1549.96 -1175.86 -1359.88 0.364015 0.747828 0.443714 45 40 39
1548.88 -1175.17 -1357.14 0.40061 0.730732 0.455281 39 34 33
1464.01 116.302 -1636.28 -0.586244 0.147173 -0.789841 27 26 37
1466.99 111.859 -1637.5 -0.507691 0.0968145 -0.826598 28 27 37
1471.31 113.281 -1638.01 -0.420835 0.0366253 -0.82331 24 23 33
1485.21 -423.491 -1630.79 -0.174178 0.219568 -0.937905 68 82 129
1486.87 -414.212 -1630.2 -0.121513 0.0748052 -0.98645 69 83 128
1491.14 -424.713 -1631.59 -0.065547 0.085841 -0.978175 68 82 127
1490.38 -417.494 -1631.02 -0.0919261 0.0676693 -0.988556 68 83 126
1490.76 -415.145 -1630.78 -0.088766 0.0707782 -0.990699 67 81 125
1497.1 -416.42 -1631.32 -0.0561365 0.0827433 -0.978916 63 76 118
1505.06 -437.238 -1631.56 0.0187756 0.119005 -0.974963 65 77 116
1507.63 -436.219 -1631.09 0.079424 0.119775 -0.966761 64 76 115
1505.72 -426.449 -1631.39 0.0317566 0.0311578 -0.978149 67 79 121
1517.26 -427.102 -1630.24 0.107312 -0.166027 -0.962124 56 67 105
1499.49 -423.457 -1631.86 -0.0440534 0.00577343 -0.986121 66 79 121
1510.72 -421.753 -1630.93 0.105868 0.00156113 -0.964847 64 77 118
1501.12 -416.025 -1631.29 0.020066 0.129124 -0.961543 58 70 110
1510.12 -418.716 -1630.89 0.13155 0.0499502 -0.955877 61 73 114
1517.85 -424.496 -1630.6 0.089989 -0.14068 -0.963233 58 70 108
1512.28 -424.618 -1630.18 0.135476 -0.0713502 -0.966804 65 78 120
1523.12 -424.522 -1630.59 0.12478 -0.197199 -0.957963 53 65 101
1516.31 -414.032 -1630.19 0.0931597 0.254094 -0.939893 61 75 116
1524.25 -420.423 -1630.71 0.142374 -0.0316398 -0.953289 62 75 116
1480.71 -1170.65 -1625 0.0692668 0.991217 -0.00495177 162 160 154
1484.65 -1170.43 -1628.72 0.092509 0.990455 -0.0533661 162 160 154
1492.36 -1170.77 -1626.64 -0.0301724 0.971655 0.0751413 146 145 138
1496.37 -1170.51 -1627.69 -0.0535735 0.95952 0.113544 129 127 122
1502.16 -1172.27 -1625.65 0.0527502 0.9212 0.176827 94 93 90
1508.69 -1172.85 -1624.74 0.197341 0.904187 0.159445 56 55 53
1508.11 -1169.95 -1628.72 0.139944 0.912977 0.146695 60 60 57
1513.97 -1166.89 -1627.18 0.172367 0.899949 0.181883 57 57 55
1518.12 -1162.47 -1624.66 0.160427 0.89475 0.167431 67 66 63
1520.9 -1159.36 -1629.1 0.385987 0.758362 0.0861229 89 85 82
1450.53 122.137 -1625.05 -0.473549 0.237633 -0.847859 41 38 41
1452.72 119.465 -1626.87 -0.508465 0.238967 -0.823635 37 35 41
1457.93 121.55 -1629.35 -0.561322 0.260171 -0.785199 33 31 40
1457.76 128.555 -1627.81 -0.527627 0.25458 -0.807664 35 33 40
1469.94 117.889 -1625.22 -0.60855 0.174993 -0.756277 23 21 31
1471.08 117.066 -1628.07 -0.535056 0.134559 -0.774465 23 22 32
1453.23 132.598 -1624.93 -0.476051 0.281672 -0.831082 42 39 42
1459.52 132.887 -1628.18 -0.547642 0.249849 -0.795857 32 30 38
1453.95 136.959 -1624.24 -0.48397 0.299329 -0.819429 41 39 41
1462.52 140.014 -1628.52 -0.57385 0.195797 -0.795706 29 29 34
1459.58 144.025 -1624.02 -0.571292 0.322226 -0.741035 35 34 37
1465.93 145.856 -1629.11 -0.693772 0.24485 -0.620526 28 27 32
1467.21 151.859 -1625.99 -0.731198 0.408917 -0.492012 31 29 35
1473.3 156.872 -1628.12 -0.785506 0.527816 -0.223448 26 24 32
1473.98 159.815 -1625.42 -0.727891 0.495449 -0.393072 35 32 38
1477.24 123.441 -1625.97 -0.394754 0.198025 -0.793434 23 22 31
1486.52 126.182 -1627.24 0.172792 0.117276 -0.941508 15 14 22
1492.85 128.435 -1625.02 0.164461 0.118369 -0.94123 16 15 22
1476.5 162.831 -1626.5 -0.758973 0.337145 -0.354334 32 29 36
1475.61 169.498 -1625.09 -0.753501 -0.183748 -0.533669 33 30 38
1471.7 175.675 -1626.55 -0.73981 -0.469843 -0.499768 29 27 35
1468.65 180.527 -1628.16 -0.777925 -0.364136 -0.506773 28 26 35
1470.64 178.289 -1628.66 -0.754598 -0.484247 -0.495573 27 26 35
1466.13 187.9 -1626.73 -0.785109 0.156327 -0.425329 29 27 36
1474.06 -465.942 -1619.95 -0.355064 -0.497738 -0.785579 49 60 90
1471.78 -462.758 -1621 -0.377168 -0.456022 -0.797123 49 60 91
1498.77 -481.418 -1619.4 -0.253353 -0.553963 -0.78031 53 65 100
1491.78 -476.514 -1620.01 -0.317419 -0.496321 -0.799804 53 65 99
1494.36 -475.153 -1622.08 -0.315026 -0.486016 -0.81213 53 65 100
1477.02 -467.989 -1619.76 -0.324794 -0.530397 -0.780085 49 60 92
1485.14 -469.092 -1621.91 -0.296527 -0.531528 -0.787773 51 63 98
1476.65 -465.311 -1621.62 -0.30755 -0.523918 -0.79278 50 61 94
1483.61 -467.961 -1622.16 -0.292142 -0.538665 -0.786356 51 62 97
1493.25 -473.33 -1622.62 -0.311551 -0.47882 -0.817518 53 65 100
1503.86 -480.702 -1620.76 -0.165106 -0.55941 -0.802485 54 66 101
1510.22 -481.374 -1621.02 -0.11269 -0.545548 -0.824378 55 68 102
1503.3 -477.88 -1622.67 -0.188638 -0.524241 -0.822331 56 68 103
1511.64 -479.897 -1622.41 -0.133203 -0.512204 -0.84516 58 70 104
1515.99 -481.189 -1622.68 -0.167825 -0.507527 -0.83759 61 75 105
1520.73 -481.257 -1623.11 0.025043 -0.424429 -0.846549 63 76 107
1523.2 -481.219 -1623.04 0.176779 -0.375435 -0.85787 63 76 108
1432.58 -438.074 -1620.38 -0.0293492 -0.315761 -0.931508 48 58 87
1438.38 -440.483 -1619.65 -0.111566 -0.373646 -0.902413 46 55 84
1443.16 -443.918 -1618.81 -0.0729431 -0.471634 -0.865764 42 50 81
1442.43 -439.131 -1620.47 -0.0586576 -0.35363 -0.918484 45 54 86
1449.83 -438.404 -1620.51 -0.0742401 -0.372083 -0.90448 49 58 98
1460.74 -454.775 -1618 -0.512648 -0.290404 -0.798064 46 55 85
1466.76 -461.758 -1619.12 -0.452687 -0.422188 -0.77785 48 58 87
1469.54 -460.121 -1621.33 -0.420322 -0.402555 -0.802766 49 60 91
1463.64 -450.91 -1620.69 -0.506081 -0.215778 -0.827193 48 58 88
1459.05 -449.758 -1618.18 -0.496985 -0.177508 -0.848818 45 54 84
1459.63 -444.842 -1619.42 -0.400029 -0.241299 -0.854373 50 60 96
1453.02 -439.913 -1619.63 -0.142683 -0.356487 -0.890023 50 60 101
1463.47 -441.751 -1622.91 -0.446946 -0.25838 -0.83525 53 64 103
1464.13 -444.871 -1622.35 -0.484401 -0.215193 -0.829023 51 62 98
1428.72 -435.076 -1621.29 0.0530734 -0.254741 -0.947329 47 58 89
1434.39 -438.061 -1620.4 -0.0589651 -0.315519 -0.933005 48 58 87
1429.67 -429.564 -1622.44 0.066043 -0.148639 -0.971763 51 61 93
1435.55 -430.112 -1621.94 0.0206451 -0.143866 -0.972416 50 59 89
1441.82 -435.483 -1621.66 -0.109618 -0.281224 -0.941329 47 57 89
1441.65 -437.114 -1621.16 -0.0871821 -0.307682 -0.934891 46 56 88
1449.47 -432.253 -1622.94 -0.166409 -0.320011 -0.921043 52 62 106
1444.86 -431.617 -1622.73 -0.123506 -0.224163 -0.954341 50 59 96
1429.67 -420.832 -1623.69 0.122658 -0.0366058 -0.979638 59 70 103
1436.92 -420.334 -1621.65 0.142858 0.0726905 -0.960165 53 63 95
1428.83 -415.246 -1622.79 0.104621 0.0928109 -0.961437 59 71 106
1438 -418.373 -1621.26 0.139225 0.119073 -0.954972 52 63 95
1435.29 -414.31 -1621.1 0.195783 0.145042 -0.950951 54 65 97
1444.54 -422.01 -1622.7 -0.0896322 0.0240436 -0.964653 53 63 100
1440.77 -415.292 -1620.81 0.0914225 0.116932 -0.952815 52 63 96
1450.36 -414.595 -1623.67 -0.252181 0.0128766 -0.963889 67 79 123
1462.21 -465.291 -1613.46 -0.54587 -0.52107 -0.649812 47 56 87
1468.76 -469.497 -1614.49 -0.435036 -0.572734 -0.682135 47 57 85
1472.8 -470.129 -1616.14 -0.365036 -0.566656 -0.731251 48 59 87
1467.53 -465.764 -1616.93 -0.450408 -0.492444 -0.733538 47 58 86
1468.25 -467.416 -1616.1 -0.444636 -0.525468 -0.713471 47 57 86
1494.19 -486.721 -1613.39 -0.387201 -0.630555 -0.663682 51 62 95
1500.2 -489.625 -1612.71 -0.278543 -0.673997 -0.670402 51 62 97
1507.69 -490.996 -1612.19 -0.07426 -0.67931 -0.735979 56 67 104
1515 -491.706 -1611.68 -0.0384944 -0.67836 -0.735719 57 70 104
1513.24 -487.28 -1616.17 -0.0790064 -0.595551 -0.77597 54 67 102
1522.92 -488.68 -1616.37 0.041338 -0.441828 -0.796579 57 70 106
1482.06 -475.229 -1615.37 -0.337482 -0.601029 -0.708775 50 61 95
1483.1 -477.389 -1613.97 -0.368125 -0.615406 -0.681678 49 60 93
1493.18 -485.539 -1613.97 -0.392851 -0.617575 -0.671639 51 62 95
1489.85 -484.163 -1612.87 -0.408297 -0.623518 -0.654853 50 61 94
1488.98 -478.019 -1617.45 -0.325699 -0.526173 -0.767965 52 64 98
1481.04 -472.227 -1617.63 -0.312478 -0.569233 -0.748778 50 61 95
1507.13 -486.41 -1616.58 -0.105984 -0.636696 -0.753076 53 64 100
1437.62 -450.908 -1612.34 0.0283417 -0.644179 -0.749831 43 52 81
1477.44 206.087 -1613.2 -0.83708 0.393631 -0.342062 24 21 30
1478.58 209.656 -1612.9 -0.829116 0.302884 -0.459081 27 23 31
1480.19 214.523 -1612.86 -0.793954 0.227235 -0.554934 29 25 34
1485.73 215.5 -1617.24 -0.745925 0.309206 -0.48848 26 23 32
1486.41 221.67 -1611.92 -0.736342 0.228251 -0.601306 29 24 33
1489.6 222.227 -1613.02 -0.701334 0.20665 -0.584512 29 24 33
1492.94 222.975 -1611.04 -0.735478 0.229898 -0.61231 29 24 33
1496.85 220.489 -1615.96 -0.653181 0.15684 -0.541623 28 23 32
1937.35 67.3064 -1613.02 0.215367 0.56024 0.762797 132 117 116
1940.93 66.8857 -1613.35 0.184875 0.532847 0.790362 131 116 116
1947.92 68.1427 -1615.97 0.162642 0.461588 0.822518 131 115 116
1952.65 68.0113 -1616.51 0.180454 0.493956 0.814692 131 115 115
1955.6 66.4199 -1614.78 0.234751 0.418432 0.833135 127 112 112
1436.17 -1081.3 -1608.53 0.525206 -0.393554 -0.410751 65 69 83
1437.69 -1081.73 -1610.52 0.518668 -0.373654 -0.524436 67 72 85
1435.6 -1082.26 -1612.38 0.522506 -0.348348 -0.420496 67 71 85
1439.82 -1080.86 -1614.23 0.480277 -0.293523 -0.512321 71 75 89
1435.27 -1082.42 -1614.49 0.514245 -0.313903 -0.380628 68 72 86
1444.96 -1053.14 -1611.01 0.358782 -0.06518 -0.14014 82 83 96
1457.96 -1050.74 -1608.53 -0.0677827 -0.205779 -0.378358 66 68 78
1460.07 -1046.98 -1609.3 -0.0616824 -0.223853 -0.552067 65 68 80
1459.67 -1044.05 -1608.48 -0.107241 -0.126377 -0.524867 67 69 79
1501.42 220.629 -1606.87 -0.734509 0.199218 -0.54326 29 24 33
1507.68 214.589 -1608.38 -0.72135 0.121427 -0.370097 26 23 31
1501.85 218.382 -1613.8 -0.728933 0.210254 -0.490778 28 24 33
1500.07 217.597 -1617.84 -0.693899 0.257605 -0.436791 28 25 33
1533.73 -513.244 -1600.52 -0.316451 -0.250256 -0.896822 52 65 103
1538.32 -518.488 -1601.31 -0.237605 -0.360794 -0.864949 55 69 108
1541.19 -522.017 -1600.65 -0.166847 -0.501923 -0.834963 72 86 127
1547.63 -516.701 -1602.95 0.0383289 -0.358517 -0.898026 83 97 143
1538.84 -515.941 -1602.05 -0.240376 -0.270905 -0.893217 57 70 111
1546.23 -511.099 -1604.59 -0.0639592 -0.187977 -0.936931 71 84 130
1476.57 -484.272 -1602.2 -0.388004 -0.708073 -0.589098 47 59 85
1432.52 -462.016 -1603.08 0.161279 -0.611431 -0.7359 46 56 86
1436.86 -461.568 -1602.17 0.100477 -0.635317 -0.722806 46 56 86
1444.2 -459.886 -1604.54 -0.0843078 -0.693263 -0.69129 43 52 82
1532.35 -508.77 -1600.5 -0.315353 -0.246605 -0.902234 55 68 106
1526.87 -503.179 -1601.26 -0.229251 -0.442725 -0.839513 57 70 109
1526.39 -499.138 -1604.71 -0.124056 -0.605878 -0.770798 57 70 110
1530.37 -499.439 -1604.59 -0.112189 -0.621575 -0.760065 56 69 107
1540.36 -509.312 -1603.64 -0.253509 -0.136143 -0.931144 56 69 110
1543.36 -507.506 -1604.65 -0.250099 -0.0721301 -0.949149 53 66 109
1537.03 -498.504 -1605.42 -0.084118 -0.488882 -0.836465 57 70 109
1547.01 -503.95 -1605.83 -0.269208 0.0147808 -0.972 47 60 105
1553.08 -510.139 -1604.36 0.13114 -0.253578 -0.943307 84 97 144
1559.5 -504.068 -1604.6 0.145393 -0.23541 -0.960238 72 85 130
1558.61 -501.584 -1605.41 0.0981357 -0.200027 -0.969883 65 77 122
1565.39 -508.754 -1602.16 0.18764 -0.248445 -0.951688 83 96 141
1568.06 -506.689 -1602.08 0.209891 -0.251229 -0.944275 84 96 141
1564.15 -503.771 -1603.82 0.173632 -0.250404 -0.954156 77 89 134
1566.2 -502.934 -1603.68 0.185337 -0.25693 -0.950764 78 90 135
1570.94 -494.73 -1605.41 0.188159 -0.237103 -0.96351 69 82 122
1570.99 -486.65 -1605.13 0.349453 -0.0657248 -0.903441 57 68 105
1570.54 -477.413 -1604.84 0.55268 -0.0557448 -0.811824 58 69 106
1571.47 -471.14 -1605.45 0.597752 -0.193711 -0.775614 68 81 122
1576.28 -503.859 -1600.13 0.363195 -0.24785 -0.89984 98 112 155
1574.18 -495.48 -1603.58 0.281901 -0.216115 -0.920365 78 92 132
1579.9 -495.284 -1600.31 0.453723 -0.172852 -0.843672 92 106 145
1573.75 -491.174 -1604.63 0.266444 -0.10174 -0.924569 63 76 113
1579.54 -489.92 -1600.33 0.504793 0.0782631 -0.803067 70 83 119
1576.04 -485.092 -1601.62 0.471821 0.164874 -0.822283 57 68 104
1575.33 -477.961 -1600.87 0.551538 0.0184582 -0.797354 60 71 109
1448.87 62.0982 -1600.01 -0.622645 -0.068199 -0.757272 17 14 19
1453.44 48.0354 -1599.99 -0.459021 -0.439978 -0.693094 20 15 20
1460.84 49.7769 -1601.61 -0.025179 -0.473476 -0.756735 25 21 25
1455.22 50.5845 -1601.7 -0.376213 -0.394287 -0.738412 20 16 21
1462.19 52.6472 -1603.01 0.01122 -0.411718 -0.798598 26 22 26
1464.28 56.3899 -1604.95 0.014604 -0.342203 -0.856748 27 23 26
1464.95 55.9192 -1604.73 0.0495344 -0.376836 -0.843811 27 23 27
1470.18 56.1976 -1604.01 0.221162 -0.518834 -0.785536 31 27 29
1455.39 61.6248 -1603.45 -0.385105 -0.0469407 -0.892532 20 16 21
1460.94 58.6592 -1604.93 -0.186699 -0.179571 -0.88529 23 19 24
1454.02 66.6559 -1602.8 -0.359429 0.0224108 -0.922042 19 16 21
1461.24 64.3742 -1605 -0.256321 -0.00627508 -0.93368 22 18 23
1465.22 60.942 -1606.1 -0.0927551 -0.200749 -0.900283 25 21 25
1473.58 59.4796 -1605.73 0.171715 -0.499468 -0.783312 32 27 28
1477.36 58.5724 -1599.94 0.45439 -0.616632 -0.616369 35 29 30
1478.83 63.7369 -1605.84 0.249257 -0.520657 -0.722984 34 28 28
1485.28 68.6835 -1603.44 0.39675 -0.511198 -0.70056 43 36 34
1527.14 -22.0313 -1601.08 0.0957311 0.0409313 -0.971897 145 116 42
1530.94 -22.8093 -1600.44 0.201839 0.0472137 -0.964273 141 114 43
1526.79 -18.6217 -1601.06 0.0705027 0.0374069 -0.97514 139 112 42
1529.73 -9.61119 -1600.87 0.152498 -0.0513682 -0.968975 134 108 42
1524.88 -15.3455 -1601.35 0.00245405 0.0275133 -0.977135 143 115 42
1528.07 -8.6418 -1601.16 0.109931 -0.0461533 -0.968071 137 110 42
1533.43 -5.59251 -1599.91 0.24289 -0.0419609 -0.963876 138 111 42
1529.29 1.60228 -1600.1 0.173822 0.121079 -0.945716 139 112 41
1374.05 -492.73 -1593.93 -0.1182 -0.607024 -0.779366 59 67 103
1371.71 -487.249 -1596.98 -0.222478 -0.519632 -0.820135 59 68 102
1379.25 -487.653 -1598.24 -0.0938093 -0.585767 -0.801149 64 72 108
1348.98 -481.085 -1594.58 -0.324637 -0.445005 -0.828635 44 51 89
1348.77 -478.005 -1595.94 -0.345413 -0.398406 -0.837334 46 53 91
1351.29 -475.156 -1597.87 -0.297775 -0.371043 -0.866427 45 52 90
1354.54 -478.166 -1597.26 -0.221718 -0.430632 -0.874096 40 47 85
1342.86 -467.71 -1595.79 -0.55723 -0.123717 -0.803154 55 64 102
1344.33 -470.486 -1596.3 -0.516621 -0.198775 -0.810016 55 63 101
1350.39 -469.268 -1599.82 -0.364464 -0.246371 -0.876535 50 58 97
1344.64 -467.283 -1597 -0.526752 -0.134117 -0.817263 55 64 102
1359.51 -481.451 -1596.37 -0.224506 -0.45793 -0.858936 44 52 89
1363.84 -483.834 -1596.15 -0.255272 -0.467981 -0.84427 51 60 96
1357.85 -476.098 -1598.83 -0.18237 -0.430521 -0.885984 41 49 86
1362.24 -479.381 -1598.03 -0.214706 -0.452028 -0.864692 45 54 91
1368.98 -483.88 -1597.88 -0.268757 -0.470735 -0.838097 55 64 99
1384.29 -488.026 -1597.09 0.0580756 -0.621623 -0.774354 63 71 107
1380.02 -490.367 -1595.82 -0.0219263 -0.623178 -0.773692 60 68 105
1387.4 -488.128 -1596.23 0.116214 -0.650387 -0.743665 62 71 105
1387.26 -485.112 -1599.26 0.0516486 -0.600057 -0.792934 64 73 107
1394.34 -484.021 -1598.66 0.141667 -0.65403 -0.734668 60 69 100
1401.33 -480.923 -1598.97 0.25222 -0.666571 -0.698954 54 62 97
1403.47 -483.109 -1595.34 0.283423 -0.697335 -0.657107 53 60 97
1409.77 -477.773 -1597.77 0.31886 -0.693819 -0.647508 49 56 93
1413.85 -474.912 -1598.95 0.308779 -0.692443 -0.652023 50 57 92
1417.69 -475.327 -1596.54 0.316624 -0.706 -0.633498 49 57 90
1418.12 -472.685 -1599.32 0.302775 -0.69425 -0.65383 49 57 90
1423.95 -472.542 -1596.27 0.323162 -0.702204 -0.633307 46 55 85
1340.04 -459.789 -1593.93 -0.607182 0.00562953 -0.792174 56 67 105
1341.22 -451.599 -1594.97 -0.559346 -0.0230018 -0.82146 57 70 107
1347.1 -460.759 -1599.51 -0.536138 -0.0534565 -0.827964 55 64 103
1347.95 -451.451 -1599.2 -0.554437 0.0719291 -0.819408 56 68 107
1338.68 -442.889 -1594.2 -0.481949 -0.0714803 -0.868878 49 62 100
1337.6 -442.902 -1593.57 -0.496626 -0.0806776 -0.860873 48 61 98
1348.5 -448.953 -1599.4 -0.533802 0.0578735 -0.831549 57 69 108
1346.26 -438.019 -1598.73 -0.414747 0.031564 -0.900791 51 65 105
1342.38 -433.262 -1596.8 -0.429504 -0.0181562 -0.889021 50 64 104
1339.74 -431.502 -1595.89 -0.45503 -0.0476076 -0.872342 51 66 105
1339.24 -425.855 -1596.2 -0.48742 -0.017466 -0.854415 51 65 105
1453.68 81.5341 -1595.92 -0.48852 0.350383 -0.715081 21 19 25
1456.91 85.3403 -1596.89 -0.515622 0.310852 -0.729597 25 22 29
1455.14 90.1173 -1593.97 -0.669843 0.195878 -0.671813 22 18 25
1428.35 109.709 -1599.38 -0.48179 0.219316 -0.791975 74 66 53
1429.91 112.835 -1597.88 -0.498109 0.189336 -0.764097 63 56 45
1456.65 93.6321 -1595.31 -0.687568 0.0932093 -0.686102 22 19 26
1456.9 101.047 -1595.27 -0.712944 0.0333089 -0.648044 22 19 27
1459.34 101.194 -1599.54 -0.603909 -0.0585882 -0.74313 24 21 29
1456.77 110.061 -1596.77 -0.69653 -0.0815728 -0.575198 22 20 28
1455.15 117.373 -1600.39 -0.68368 0.163072 -0.499993 22 20 28
1493.41 74.5052 -1599.54 0.422635 -0.334356 -0.841364 41 37 44
1497.37 69.161 -1595.19 0.448281 -0.256465 -0.812557 68 56 52
1498.62 76.3015 -1595.8 0.551848 -0.166389 -0.810309 57 47 46
1499.77 84.2474 -1599.8 0.529205 -0.46788 -0.695871 29 26 33
1503.96 84.2849 -1596.81 0.462028 -0.462844 -0.736269 36 30 32
1510.37 85.9484 -1595.28 0.347748 -0.560375 -0.754079 51 42 38
1505.72 87.6319 -1598.72 0.41911 -0.557967 -0.723326 30 24 28
1512.14 90.5326 -1596.55 0.423611 -0.46931 -0.758359 45 37 34
1515.78 91.2981 -1593.91 0.507608 -0.361531 -0.764365 74 58 42
1516.26 97.9287 -1594.5 0.629095 -0.130043 -0.7582 57 45 32
1514.52 104.296 -1597.07 0.646971 -0.149463 -0.739857 31 28 28
1515.76 99.8996 -1595.24 0.634202 -0.121118 -0.756924 48 39 30
1512.96 106.558 -1599.39 0.656558 -0.184362 -0.72897 21 20 28
1516.45 113.63 -1598.48 0.659855 -0.224329 -0.718844 22 21 27
1518.69 112.444 -1595.89 0.675849 -0.242652 -0.700173 29 28 29
1437.62 120.674 -1597.08 -0.489928 0.271109 -0.750743 59 54 49
1434.63 119.469 -1595.72 -0.486967 0.203246 -0.760963 56 50 43
1449.39 123.34 -1595.97 -0.579468 0.269844 -0.630519 51 46 44
1441.18 124.185 -1593.62 -0.481329 0.367433 -0.740233 72 66 58
1355.82 -1086.3 -1597.69 -0.312335 -0.143018 0.00268776 97 98 113
1414.37 -1087.72 -1593.43 0.937663 -0.109305 0.19582 62 60 72
1421.38 -1079.68 -1596.72 0.74845 -0.215227 0.233568 64 64 77
1418.04 -1085.26 -1599.66 0.822488 -0.23359 0.204589 63 61 74
1419.77 -1085.23 -1601.85 0.761905 -0.240809 0.204516 64 63 76
1426.55 -1079.55 -1602.27 0.578345 -0.262805 0.212076 66 68 80
1420.36 -1087.43 -1605.83 0.720959 -0.248575 0.197972 66 66 77
1426.82 -1076.66 -1598.6 0.550271 -0.0834236 0.331941 74 76 88
1423.02 -1075.03 -1593.27 0.671696 0.0252565 0.391565 77 77 89
1427.97 -1043.43 -1597.7 0.260329 0.112438 -0.0650327 84 87 101
1420.16 -1039.73 -1592.92 0.423708 0.165751 0.148349 74 78 94
1416.84 -1037.68 -1589.86 0.438795 0.181667 0.146089 71 76 92
1422.17 -1036.12 -1589.37 0.413381 0.185954 0.107595 71 76 93
1421.56 -1034.92 -1588.05 0.449275 0.185369 0.149765 69 75 92
1449.4 -1063.34 -1589.58 0.349099 0.221036 0.61883 98 101 114
1442.31 -1055.89 -1593.06 0.390041 0.0747705 0.252641 90 92 106
1435.79 -1049.96 -1589.44 0.523278 0.0519173 0.700277 96 101 115
1434.13 -1042.95 -1589.29 0.5098 0.0934707 0.693502 93 98 112
1433.72 -1043.12 -1593.5 0.368748 0.123875 0.352514 95 98 113
1453.52 -1063.52 -1590.94 0.0027685 -0.0295505 0.265945 94 95 108
1460.02 -1064.23 -1588.45 -0.558168 -0.257012 0.00245757 90 90 104
1459.26 -1057.69 -1589.66 -0.630248 -0.253764 -0.0363769 83 83 96
1457.3 -1047.64 -1588.51 -0.462572 -0.113192 -0.665309 77 81 92
1456.18 -1046.79 -1592.64 -0.552453 -0.144302 -0.291844 71 71 80
1478.29 -1085.58 -1590.75 0.836027 -0.319508 -0.160715 90 91 111
1482.14 -1080.09 -1592.83 0.662367 -0.288312 -0.388748 87 90 112
1484.51 -1077.91 -1593.43 0.553958 -0.335889 -0.523401 90 92 113
1486.99 -1075.89 -1593.42 0.462485 -0.43524 -0.59307 92 96 115
1489.97 -1074.77 -1591.54 0.489832 -0.538786 -0.541235 92 97 115
1497.46 -1066.45 -1591.56 0.589992 -0.575184 -0.495403 84 88 111
1501.45 -1065.44 -1587.3 0.698943 -0.552647 -0.340571 87 92 112
1501.21 -1062.81 -1589.56 0.598361 -0.39263 -0.302813 87 90 112
1504.17 -1056.29 -1590.34 0.701259 -0.339719 -0.506796 83 86 110
1504.62 -1050.32 -1593.11 0.724268 -0.251104 -0.610106 80 82 107
1507.2 -1051.21 -1589.32 0.764154 -0.343785 -0.55782 82 86 109
1508.88 -1043.72 -1590.46 0.716218 -0.248994 -0.635901 81 85 108
1430.67 -1040.34 -1590.31 0.406217 0.145105 0.366935 87 91 106
1454.83 -1037.23 -1592.09 -0.195174 0.218761 -0.59529 74 75 81
1454.06 -1034.31 -1590.23 -0.112597 0.238414 -0.755433 72 74 81
1459.51 -1025.14 -1588.18 -0.167623 0.094685 -0.346218 72 70 78
1458.46 -1028.04 -1592.64 -0.131548 0.451016 -0.639719 90 87 90
1465.15 -1020.32 -1589.6 -0.382462 0.134438 -0.203042 77 78 91
1469.67 -1018.55 -1592.16 -0.240231 0.253254 -0.317576 87 88 103
1417.93 144.82 -1588.41 -0.581235 0.664486 -0.462874 46 38 31
1427.42 150.015 -1588.07 -0.540127 0.655067 -0.483163 21 17 23
1443.29 -264.606 -1590.07 -0.215991 -0.343272 -0.915237 98 84 43
1447.84 -264.13 -1591.09 -0.144053 -0.386531 -0.920461 96 83 44
1444.36 -262.22 -1591.11 -0.209034 -0.303208 -0.924 101 87 45
1444.95 -257.044 -1590.97 -0.207127 -0.015815 -0.905696 113 96 53
1432.43 -256.211 -1588.64 -0.257319 0.179847 -0.900506 126 106 61
1437.88 -252.995 -1587.99 -0.227736 0.41557 -0.830303 129 109 64
1443.92 -256.274 -1590.6 -0.213213 0.0570865 -0.896655 116 99 55
1450.4 -255.292 -1590.68 -0.116497 0.13534 -0.848432 113 97 55
1452.57 -264.485 -1591.16 -0.0233351 -0.400857 -0.920016 94 81 47
1458.65 -266.562 -1588.82 0.229952 -0.336613 -0.900453 93 82 53
1456.92 -262.346 -1590.82 0.146812 -0.333345 -0.908574 98 84 48
1458.96 -260.006 -1590.54 0.175592 -0.206817 -0.894637 103 89 50
1463.96 -261.657 -1587.96 0.427656 -0.275481 -0.859157 98 83 43
1452.77 -255.063 -1590.52 -0.061075 0.174135 -0.83145 113 97 56
1455.45 -252.361 -1588.97 -0.00202113 0.486234 -0.752096 119 103 61
1463.64 -252.351 -1588.92 0.100353 0.366706 -0.806708 121 105 59
1469.36 -256.264 -1589.28 0.180278 -0.217089 -0.903977 116 96 50
1474.4 -251.228 -1589.38 0.010029 0.127376 -0.844412 130 107 55
1470.34 -251.804 -1589.38 0.0297297 0.16804 -0.862853 127 105 55
1478.75 -251.004 -1589.31 0.0215677 0.0392971 -0.801231 134 110 59
1483.66 -252.743 -1588.74 0.0938935 -0.221989 -0.747556 134 112 64
1483.77 -250.577 -1588.69 0.0559258 0.000566841 -0.717796 137 113 63
1493.86 -250.229 -1587.81 0.197606 0.0204798 -0.740685 143 116 69
1524.55 -310.227 -1593.49 0.0308178 0.399225 -0.908034 53 59 93
1534 -309.15 -1591.23 0.242123 0.366111 -0.876423 69 76 116
1555.13 60.7659 -1593.78 0.216095 0.176779 -0.959278 170 140 52
1552.12 68.4447 -1592.09 0.207103 0.274702 -0.934684 170 140 52
1555.54 65.0786 -1592.37 0.221566 0.237055 -0.94569 173 143 55
1565.35 59.2492 -1590.64 0.2633 0.151688 -0.935942 173 143 55
1569.19 59.4179 -1589.12 0.310851 0.11076 -0.92475 173 143 54
1560.8 65.741 -1590.83 0.20681 0.263213 -0.935366 177 147 59
1565.23 67.1301 -1589.32 0.20847 0.266761 -0.92811 176 146 58
1572.99 37.0362 -1588.04 0.35106 -0.0984644 -0.916109 163 133 56
1443.82 70.8721 -1589.94 -0.875956 0.0165254 -0.439206 21 19 22
1445.05 76.8718 -1590.02 -0.81369 0.147776 -0.506807 22 19 23
1446.68 78.2258 -1591.88 -0.751437 0.197818 -0.557594 20 18 22
1450.34 86.2088 -1590.32 -0.652626 0.273882 -0.665216 20 18 22
1452.74 87.3543 -1592.14 -0.645506 0.267747 -0.671833 20 17 23
1453.01 89.5705 -1591.73 -0.669282 0.226347 -0.672706 19 17 22
1453.49 98.8201 -1587.72 -0.602903 0.198462 -0.70822 20 17 21
1454.61 103.313 -1588.81 -0.63488 0.0909721 -0.634648 23 20 25
1455.26 109.993 -1590.75 -0.682473 -0.0860856 -0.568887 25 22 27
1454.46 112.661 -1588.68 -0.630447 -0.169829 -0.598006 28 25 25
1455.39 111.97 -1592.2 -0.706813 -0.137416 -0.564652 24 22 26
1471.49 -1012.89 -1583.59 -0.267275 0.157073 -0.0937641 85 89 112
1474.02 -1009.41 -1582.49 -0.398632 0.182226 -0.179952 85 89 113
1514.54 -1040.73 -1584.93 0.727589 -0.321488 -0.589206 86 92 113
1519.67 -1030.38 -1586.86 0.584104 -0.47663 -0.633992 95 101 122
1523.31 -1029.6 -1582.72 0.167251 -0.487381 -0.81321 108 112 133
1476.5 -1008.38 -1585.17 -0.289462 0.169523 -0.161546 84 89 113
1478.49 -1001.68 -1582.15 -0.757048 0.358158 -0.530972 78 84 109
1482.4 -1000.66 -1585.95 -0.621602 0.463858 -0.693399 75 83 110
1482.8 -996.01 -1582.54 -0.61175 0.451215 -0.646825 69 78 106
1483.51 -994.955 -1582.22 -0.584555 0.447431 -0.654807 67 76 104
1493.03 -995.28 -1586.25 -0.240212 0.477339 -0.833507 70 78 103
1523.62 -993.974 -1585.17 0.730485 0.261871 -0.243437 51 61 83
1501.71 -942.931 -1582.14 -0.464436 -0.0915969 -0.866946 45 59 88
1507.69 -944.637 -1585.5 -0.392572 -0.147846 -0.914101 46 60 88
1504.2 -937.635 -1583.77 -0.453298 -0.0536843 -0.894667 45 59 88
1507.08 -933.896 -1585.18 -0.40805 0.00158436 -0.922695 47 61 89
1514.97 -941.818 -1586.98 -0.173439 -0.0758589 -0.952486 45 59 85
1520.45 -944.436 -1585.82 0.0834527 -0.110675 -0.934347 44 57 83
1522.48 -939.437 -1585.3 0.204094 0.0188874 -0.923517 43 57 82
1514.73 -937.582 -1586.96 -0.166389 0.0126179 -0.955792 46 60 86
1520.62 -938.206 -1586.04 0.122528 0.03205 -0.936009 43 57 82
1502.4 -932.408 -1582.38 -0.486782 -0.0119009 -0.871017 45 60 89
1510.9 -926.851 -1585.66 -0.22117 0.0547405 -0.947192 47 61 90
1505.02 -924.419 -1584.09 -0.397053 -0.03442 -0.903177 45 59 89
1509.99 -925.22 -1585.43 -0.233828 0.0294372 -0.941563 47 61 89
1514.24 -932.462 -1586.58 -0.158352 0.101188 -0.953769 47 61 88
1520.48 -931.514 -1585.39 0.166418 0.121173 -0.913232 44 57 83
1514.56 -920.521 -1585.9 0.00445932 -0.0290047 -0.961248 46 59 88
1522.58 -925.014 -1584.32 0.327189 0.0255966 -0.881665 41 54 79
1496.17 -914.847 -1582.5 -0.554827 -0.202241 -0.805615 43 57 88
1499.66 -909.537 -1584.15 -0.369015 -0.0105716 -0.876016 44 58 89
1498.56 -903.416 -1582.82 -0.348001 0.289101 -0.851025 42 56 87
1500.54 -916.353 -1583.9 -0.460545 -0.140109 -0.857809 44 57 88
1510.22 -919.393 -1585.82 -0.157038 -0.0637566 -0.966099 47 61 90
1508.61 -914.759 -1586.04 -0.157416 -0.0893542 -0.9679 47 61 91
1505.87 -911.823 -1585.61 -0.202017 -0.0423755 -0.944651 46 60 91
1510.7 -912.995 -1586.08 -0.0732624 -0.0477849 -0.979112 47 61 91
1516.29 -916.992 -1586.1 0.0579175 -0.0615948 -0.973976 46 59 88
1518.64 -915.897 -1586 0.131119 -0.0656079 -0.967025 45 58 86
1516.55 -911.578 -1586.19 0.095357 -0.00623916 -0.966512 45 59 88
1522.81 -908.779 -1585.27 0.267672 0.0632528 -0.895729 42 56 83
1501.87 -905.681 -1583.68 -0.259345 0.1865 -0.884115 43 57 88
1508.49 -907.653 -1585.11 -0.0706523 0.111237 -0.94601 45 59 90
1502.76 -902.494 -1582.85 -0.201238 0.344957 -0.881088 42 56 87
1515.94 -902.178 -1584.15 0.141038 0.241226 -0.869768 42 57 86
1516.33 -904.142 -1584.83 0.142384 0.163244 -0.88316 43 57 87
1521.87 -905.874 -1585.29 0.312358 0.107666 -0.852619 41 55 83
1517.86 -896.218 -1583.38 0.110004 0.185044 -0.766357 41 55 84
1523.36 -897.752 -1583.72 0.556823 0.136824 -0.624636 36 50 77
1525.07 -947.117 -1583.37 0.359903 -0.144135 -0.877628 44 57 81
1526.74 -944.728 -1583.42 0.322167 -0.127117 -0.898239 46 59 85
1527.33 -934.99 -1582.81 0.418151 0.120474 -0.869161 42 55 82
1525.62 -931.607 -1583.32 0.384728 0.117905 -0.872172 41 54 80
1525.03 -924.333 -1583.56 0.377726 -0.0270113 -0.87848 40 53 78
1527.05 -917.682 -1583.9 0.287039 -0.147257 -0.913672 42 55 81
1533.55 -916.261 -1583.02 0.431339 -0.195017 -0.806645 42 54 83
1528.05 -913.744 -1584.19 0.299362 -0.0714994 -0.88677 42 55 82
1535.32 -914.537 -1583.11 0.491049 -0.179402 -0.755166 42 54 83
1581.73 -409.95 -1583.35 0.774885 0.320271 -0.515545 53 61 102
1578.88 -403.578 -1583.49 0.772789 0.285418 -0.497582 51 59 100
1577.03 -398.921 -1586.36 0.805205 0.127375 -0.499354 54 62 105
1578.21 -395.386 -1584.65 0.801427 0.056969 -0.507 54 63 105
1579.68 -394.491 -1582.14 0.798041 0.0363182 -0.517723 53 60 103
1461.55 -220.622 -1583.49 0.092722 0.490301 -0.801733 170 141 63
1476.09 -221.025 -1582.88 0.0174318 0.343998 -0.772843 158 130 63
1509.41 -220.066 -1582.78 -0.0743405 0.463081 -0.811937 150 122 59
1488.3 -119.423 -1587.34 0.309523 -0.308846 -0.866105 124 97 34
1491.45 -121.523 -1584.83 0.240329 -0.31966 -0.880598 123 96 34
1497.69 -124.37 -1583.12 0.0845033 -0.151684 -0.961288 124 96 36
1495.26 -113.533 -1587 0.394931 -0.402228 -0.7944 124 96 34
1500.3 -112.233 -1585.1 0.295692 -0.300588 -0.859837 124 96 35
1505.3 -120.166 -1583.06 0.00503852 0.027082 -0.991612 126 97 37
1511.74 -122.119 -1584.57 -0.13907 0.0436054 -0.990512 130 100 37
1503.47 -118.455 -1582.99 0.0734483 -0.0171895 -0.98032 125 96 36
1508.67 -112.8 -1583.8 0.0111608 -0.0479782 -0.959197 128 98 37
1513.96 -122.077 -1585.12 -0.155344 0.0374588 -0.990495 133 102 37
1522.62 -123.376 -1586.27 -0.00709476 -0.0843667 -0.97085 138 106 36
1516.88 -116.162 -1585.38 -0.143423 0.0384768 -0.986448 137 105 37
1517.62 -112.104 -1585.22 -0.181769 0.0568 -0.993011 139 107 38
1522.84 -116.667 -1586.17 -0.0872748 0.0358547 -0.989682 143 111 39
1504.98 -112.157 -1584.11 0.146568 -0.157505 -0.9175 125 97 36
1506.67 -106.593 -1585.74 0.218094 -0.34157 -0.839435 127 98 37
1510.66 -102.892 -1587.08 0.18748 -0.347346 -0.833516 129 99 36
1513.57 -110.964 -1584.68 -0.097794 -0.0193497 -0.965388 133 102 37
1521.82 -108.79 -1585.73 -0.115867 0.0281194 -0.993025 143 111 39
1517.89 -105.291 -1585.77 -0.057407 -0.0852656 -0.9572 137 105 36
1522.18 -103.222 -1586.18 -0.0337851 -0.103602 -0.961518 139 107 36
1521.71 -98.1679 -1587.63 0.115076 -0.295774 -0.893382 131 100 33
1449.11 -55.6829 -1587.16 0.357919 0.424766 -0.840832 173 144 61
1461.47 -59.1391 -1587.06 -0.0688023 0.335633 -0.889197 168 138 61
1452.52 -57.0581 -1586.65 0.316799 0.405252 -0.850073 172 142 61
1458.42 -53 -1586.04 -0.00468271 0.196669 -0.931728 167 137 61
1437.19 -45.8555 -1586.85 0.270307 0.431756 -0.863597 175 146 59
1436.98 -45.1343 -1586.57 0.2699 0.423108 -0.866988 175 146 59
1440.65 -46.8153 -1586.37 0.273972 0.422771 -0.863392 176 147 61
1446.51 -47.0401 -1585.03 0.236698 0.350818 -0.879561 174 145 62
1451.04 -46.5484 -1584.89 0.106712 0.253632 -0.90632 169 140 60
1441.06 -40.7365 -1584.04 0.248881 0.296781 -0.90801 174 145 59
1450.06 -41.1757 -1584.21 0.00644195 0.149814 -0.924592 163 133 57
1431.43 -34.8546 -1585.04 0.277571 0.294049 -0.912029 164 136 53
1435.27 -35.4894 -1584.14 0.251271 0.278893 -0.923667 167 139 54
1430.04 -32.8525 -1584.83 0.276159 0.293145 -0.912783 159 132 51
1433.85 -32.2947 -1583.82 0.221422 0.279597 -0.931103 158 131 49
1440.7 -35.8087 -1583.43 0.165621 0.231623 -0.933442 163 135 54
1450.07 -39.7515 -1583.99 -0.0220859 0.114391 -0.932846 161 131 55
1442.54 -29.3601 -1583.05 -0.0260837 0.197554 -0.950494 139 112 44
1450.62 -33.5784 -1584.49 -0.171847 0.0213517 -0.954624 142 111 46
1455.98 -48.2773 -1585.68 -0.00383937 0.174204 -0.931272 166 135 59
1458.48 -50.1673 -1585.89 -0.0625953 0.139055 -0.945216 165 135 59
1461.86 -49.5528 -1586.79 -0.245157 0.0274929 -0.952259 160 130 57
1454.23 -44.2869 -1584.93 -0.0357585 0.147669 -0.932495 163 133 57
1462.93 -40.0364 -1586.83 -0.189828 0.00594517 -0.971013 146 115 48
1467.99 -39.9532 -1587.27 -0.154289 0.0700549 -0.976077 145 114 48
1457.58 -37.248 -1585.94 -0.209844 -0.00514969 -0.958529 144 112 47
1459.43 -35.4363 -1586.37 -0.216274 -0.0151383 -0.965555 138 106 44
1455.47 -33.2648 -1585.6 -0.221652 -0.00866255 -0.960453 136 105 43
1459.64 -29.3054 -1586.26 -0.213124 0.00819337 -0.966464 132 101 41
1468.86 -34.6568 -1587.14 -0.167331 0.0291268 -0.971738 143 112 46
1470.22 -34.3941 -1587.2 -0.171352 0.0469079 -0.968487 143 113 46
1468.54 -33.2094 -1587.11 -0.160494 0.0192423 -0.973159 142 111 45
1472.57 -31.203 -1587.37 -0.249879 0.0667477 -0.948711 145 115 46
1537.86 88.187 -1586.43 -0.0333685 0.228179 -0.966315 164 133 50
1544.89 89.4731 -1586.79 -0.0704201 0.277987 -0.947739 158 128 43
1558.22 79.996 -1586.42 0.245271 0.288333 -0.91134 178 148 59
1567.22 74.8468 -1586.96 0.0834996 0.296559 -0.938027 173 143 54
1562.23 79.8222 -1585.89 0.143217 0.282658 -0.92679 177 147 58
1565.99 78.7804 -1585.94 0.0618347 0.273015 -0.942117 173 143 54
1552.11 84.6487 -1587.48 0.181828 0.258326 -0.926535 163 133 45
1558.68 82.3027 -1585.83 0.229673 0.267047 -0.918875 177 147 58
1548.78 88.4467 -1587.69 0.00843214 0.25444 -0.949264 153 123 37
1558.18 88.5192 -1584.8 0.183937 0.23851 -0.931403 171 141 51
1561.3 84.9884 -1584.88 0.167773 0.237445 -0.935863 176 146 56
1567.12 86.3213 -1583.91 0.0470674 0.254652 -0.947832 171 140 51
1570.75 83.8378 -1584.25 0.0482836 0.233479 -0.95119 168 138 49
1565.44 88.9543 -1583.39 0.106718 0.250683 -0.944514 173 142 53
1572.12 87.0151 -1583.12 0.0739828 0.278469 -0.936162 167 137 48
1529.98 95.6201 -1584.96 0.285915 0.19554 -0.918589 150 122 45
1531.09 96.2004 -1584.53 0.284045 0.207572 -0.913924 152 123 46
1526.75 103.264 -1585.85 0.57152 0.0662418 -0.810143 112 92 40
1533.13 101.669 -1581.83 0.441437 0.220855 -0.851232 150 122 47
1540.99 96.2957 -1582.57 0.0162549 0.437582 -0.874181 161 131 48
1543.75 92.0595 -1585.35 -0.0684127 0.347003 -0.923839 160 129 45
1525.88 107.867 -1586.99 0.658605 -0.0144171 -0.74134 90 76 41
1530.35 107.749 -1582.66 0.615947 0.0597004 -0.774134 118 96 37
1529.51 116.906 -1584.55 0.739673 -0.175769 -0.664652 71 61 32
1548.44 97.1403 -1583.3 -0.153822 0.478366 -0.855211 148 118 31
1556.11 94.3651 -1583.73 0.183779 0.311765 -0.903326 167 136 46
1554.63 98.9405 -1582.7 0.0447771 0.42584 -0.873395 152 122 31
1573.26 72.3728 -1586.54 0.209741 0.185069 -0.943543 170 140 51
1580.01 73.6525 -1584.41 0.250013 0.121754 -0.950508 173 143 54
1572.9 79.5068 -1585.05 0.0798971 0.192824 -0.956315 169 139 49
1577.47 80.9059 -1583.7 0.173471 0.172315 -0.948001 171 141 52
1581.25 77.7762 -1583.29 0.256723 0.133601 -0.949794 174 144 56
1588.34 73.4703 -1582.23 0.199972 0.181484 -0.957248 169 138 54
1576.61 85.6821 -1582.58 0.181765 0.279417 -0.921415 171 141 52
1580.68 82.9699 -1582.2 0.257749 0.204039 -0.930694 175 144 56
1528.77 119.064 -1586.19 0.732345 -0.207759 -0.650084 66 58 34
1531.24 118.799 -1582.71 0.740752 -0.180543 -0.663211 70 60 32
1532.28 127.195 -1582.68 0.700678 -0.134158 -0.65794 62 54 36
1806.22 73.1302 -1582.71 0.240315 0.78542 0.556054 144 126 126
1812.05 73.2332 -1584.78 0.16209 0.734706 0.642614 142 125 127
1809.25 75.255 -1586.61 0.185822 0.752377 0.614474 143 125 127
1531.01 138.944 -1586.55 0.450873 0.236972 -0.647474 68 57 37
1530.63 131.604 -1586.2 0.680005 -0.13135 -0.634365 64 57 42
1527.57 138.931 -1591.84 0.469997 0.0471656 -0.652985 77 65 39
1527.36 134.005 -1591.57 0.535624 -0.0464388 -0.656483 77 66 40
1533.09 133.56 -1582.3 0.564465 0.164445 -0.685332 61 52 36
1531.99 151.675 -1588.26 0.330667 0.177112 -0.327462 78 65 40
1533.16 146.327 -1585.83 0.384159 0.207389 -0.32126 75 62 40
1527.81 145.361 -1592.66 0.355727 0.127265 -0.59067 80 66 38
1529.65 142.263 -1589.69 0.415203 0.145586 -0.52499 77 65 39
1536.23 149.238 -1582.34 0.402313 0.223035 -0.141909 74 61 41
