ply
format ascii 1.0
comment Created by Open3D
element vertex 1335
property double x
property double y
property double z
property uchar red
property uchar green
property uchar blue
end_header
-834.465 -646.086 -1523 186 170 169
-832.115 -646.132 -1523 185 171 172
-829.765 -646.177 -1523 185 171 172
-825.785 -644.95 -1520 184 170 171
-823.439 -644.996 -1520 183 169 170
-820.552 -644.617 -1519 183 169 170
-816.591 -643.389 -1516 183 169 170
-813.175 -642.586 -1514 185 171 172
-808.695 -640.933 -1510 186 172 173
-804.76 -639.705 -1507 186 172 173
-800.834 -638.476 -1504 186 172 173
-797.979 -638.097 -1503 185 171 172
-794.068 -636.868 -1500 184 170 171
-791.221 -636.488 -1499 184 170 171
-787.851 -635.683 -1497 185 171 172
-784.487 -634.878 -1495 186 172 173
-782.175 -634.923 -1495 188 174 175
-779.34 -634.543 -1494 190 173 175
-777.029 -634.587 -1494 190 173 175
-774.199 -634.206 -1493 189 172 174
-770.854 -633.401 -1491 187 170 172
-767.516 -632.596 -1489 186 169 171
-763.669 -631.365 -1486 187 170 172
-760.343 -630.559 -1484 188 171 173
-756.513 -629.328 -1481 189 172 174
-753.2 -628.522 -1479 190 173 175
-749.893 -627.716 -1477 191 174 176
-746.593 -626.909 -1475 192 175 177
-743.298 -626.102 -1473 191 174 176
-740.009 -625.296 -1471 191 174 176
-737.227 -624.914 -1470 190 173 175
-733.948 -624.107 -1468 192 175 177
-731.173 -623.725 -1467 192 175 177
-728.898 -623.768 -1467 190 173 175
-726.127 -623.386 -1466 189 172 174
-722.865 -622.578 -1464 190 173 175
-719.609 -621.77 -1462 191 174 176
-715.868 -620.537 -1459 190 173 175
-712.626 -619.729 -1457 188 171 173
-709.389 -618.921 -1455 191 174 176
-706.158 -618.112 -1453 192 175 177
-702.932 -617.304 -1451 195 178 180
-701.162 -617.772 -1452 196 179 181
-698.906 -617.814 -1452 194 177 179
-696.17 -617.43 -1451 194 177 179
-692.959 -616.621 -1449 196 179 181
-689.277 -615.387 -1446 198 181 183
-686.079 -614.577 -1444 195 178 180
-682.887 -613.768 -1442 195 178 180
-680.173 -613.384 -1441 195 178 182
-677.932 -613.426 -1441 195 178 182
-675.691 -613.467 -1441 194 177 181
-672.981 -613.083 -1440 194 177 181
-670.275 -612.699 -1439 194 177 181
-667.572 -612.314 -1438 193 176 180
-665.333 -612.356 -1438 195 178 182
-662.173 -611.545 -1436 191 174 178
-659.018 -610.735 -1434 190 173 177
-656.327 -610.35 -1433 192 175 179
-654.095 -610.391 -1433 196 178 182
-651.408 -610.006 -1432 196 178 182
-649.177 -610.047 -1432 192 175 179
-647.398 -610.514 -1433 189 172 176
-645.164 -610.555 -1433 189 172 179
-642.931 -610.596 -1433 189 172 179
-640.25 -610.21 -1432 188 171 179
-638.017 -610.251 -1432 186 169 177
-635.784 -610.292 -1432 186 169 175
-633.108 -609.906 -1431 187 170 176
-630.435 -609.521 -1430 189 172 178
-627.765 -609.135 -1429 190 173 179
-625.097 -608.749 -1428 188 170 176
-623.305 -609.216 -1429 187 169 175
-621.074 -609.256 -1429 188 171 177
-619.276 -609.722 -1430 189 172 178
-617.475 -610.189 -1431 188 171 179
-614.81 -609.803 -1430 187 170 178
-613.005 -610.269 -1431 185 170 178
-610.343 -609.883 -1430 185 170 178
-608.109 -609.923 -1430 186 171 177
-605.45 -609.537 -1429 186 171 177
-603.639 -610.003 -1430 186 171 177
-602.245 -610.896 -1432 186 171 177
-600.006 -610.936 -1432 184 169 175
-597.349 -610.549 -1431 182 167 173
-595.111 -610.589 -1431 180 165 171
-593.287 -611.055 -1432 180 165 171
-591.46 -611.522 -1433 179 164 170
-589.629 -611.988 -1434 179 164 170
-586.975 -611.601 -1433 177 163 166
-584.732 -611.641 -1433 175 161 164
-582.895 -612.107 -1434 173 161 168
-580.65 -612.146 -1434 175 163 170
-578.808 -612.613 -1435 175 163 170
-576.561 -612.652 -1435 175 163 170
-575.514 -613.972 -1438 175 163 168
-573.659 -614.438 -1439 175 163 168
-571.802 -614.905 -1440 175 163 172
-570.336 -615.798 -1442 173 161 170
-567.682 -615.41 -1441 171 159 168
-565.815 -615.876 -1442 170 158 167
-563.554 -615.915 -1442 169 157 166
-561.682 -616.382 -1443 170 158 167
-559.807 -616.848 -1444 171 159 167
-557.542 -616.887 -1444 173 161 169
-556.045 -617.78 -1446 173 161 170
-554.542 -618.673 -1448 170 158 167
-553.033 -619.567 -1450 166 154 163
-551.516 -620.46 -1452 165 153 162
-549.615 -620.927 -1453 167 155 164
-547.334 -620.965 -1453 169 157 166
-545.802 -621.859 -1455 169 156 169
-543.891 -622.325 -1456 171 158 171
-541.976 -622.791 -1457 173 160 175
-540.057 -623.257 -1458 171 158 173
-538.135 -623.723 -1459 168 155 170
-536.944 -625.044 -1462 165 152 167
-534.645 -625.083 -1462 167 152 165
-533.075 -625.977 -1464 168 153 166
-530.773 -626.015 -1464 163 150 165
-528.832 -626.481 -1465 159 146 161
-527.247 -627.374 -1467 158 145 160
-525.655 -628.268 -1469 158 145 160
-523.7 -628.734 -1470 155 143 160
-522.096 -629.628 -1472 155 143 160
-520.839 -630.949 -1475 154 145 161
-519.22 -631.843 -1477 154 145 161
-517.595 -632.737 -1479 156 147 163
-515.963 -633.63 -1481 155 146 162
-514.324 -634.524 -1483 158 149 164
-512.334 -634.99 -1484 161 152 167
-510.683 -635.884 -1486 161 152 166
-509.026 -636.778 -1488 162 153 167
-508.044 -638.527 -1492 160 151 167
-506.37 -639.421 -1494 155 146 162
-505.365 -641.171 -1498 147 139 159
-504.346 -642.921 -1502 141 133 153
-502.981 -644.243 -1505 135 128 148
-501.605 -645.565 -1508 135 128 148
-500.22 -646.887 -1511 137 129 147
-499.484 -649.066 -1516 136 128 146
-498.404 -650.816 -1520 138 131 151
-496.984 -652.139 -1523 142 135 155
-495.23 -653.033 -1525 143 135 155
-493.469 -653.927 -1527 143 135 155
-491.059 -653.965 -1527 143 138 155
-488.648 -654.003 -1527 147 142 159
-486.236 -654.04 -1527 153 145 163
-484.458 -654.934 -1529 156 148 166
-482.674 -655.828 -1531 157 149 169
-480.569 -656.294 -1532 159 151 171
-477.524 -655.474 -1530 153 147 168
-474.795 -655.083 -1529 153 147 168
-471.452 -653.835 -1526 154 142 163
-849.178 -646.863 -1520 184 170 171
-849.065 -648.611 -1524 184 170 171
-847.827 -649.509 -1526 187 173 172
-846.029 -649.981 -1527 187 173 172
-843.675 -650.027 -1527 187 170 172
-840.77 -649.647 -1526 187 170 172
-837.317 -648.842 -1524 189 173 172
-833.871 -648.036 -1522 188 172 171
-832.069 -648.508 -1523 185 171 172
-828.63 -647.702 -1521 184 170 171
-825.196 -646.896 -1519 183 169 170
-822.851 -646.942 -1519 182 168 169
-819.426 -646.135 -1517 182 168 169
-816.007 -645.329 -1515 182 168 169
-812.593 -644.523 -1513 183 169 170
-808.65 -643.29 -1510 185 171 172
-805.249 -642.483 -1508 187 173 174
-801.854 -641.676 -1506 187 173 174
-797.934 -640.443 -1503 188 174 175
-794.553 -639.635 -1501 188 174 175
-791.177 -638.828 -1499 186 172 173
-787.807 -638.02 -1497 184 170 171
-783.918 -636.786 -1494 184 170 171
-781.607 -636.831 -1494 187 173 174
-778.775 -636.449 -1493 190 173 175
-775.945 -636.067 -1492 189 172 174
-773.636 -636.111 -1492 189 172 174
-770.293 -635.303 -1490 188 171 173
-766.956 -634.494 -1488 187 170 172
-763.625 -633.685 -1486 187 170 172
-760.299 -632.877 -1484 185 168 170
-756.469 -631.641 -1481 186 169 171
-753.156 -630.832 -1479 188 171 173
-749.85 -630.023 -1477 191 174 176
-747.562 -630.066 -1477 192 175 177
-744.264 -629.256 -1475 191 174 176
-740.972 -628.446 -1473 191 174 176
-738.187 -628.063 -1472 191 174 176
-734.905 -627.253 -1470 190 173 175
-731.628 -626.443 -1468 190 173 175
-728.855 -626.059 -1467 189 172 174
-726.084 -625.676 -1466 189 172 174
-723.316 -625.292 -1465 191 174 176
-719.566 -624.054 -1462 193 176 178
-715.826 -622.816 -1459 192 175 177
-712.583 -622.005 -1457 190 173 175
-709.346 -621.194 -1455 189 172 174
-706.115 -620.383 -1453 191 174 176
-702.89 -619.571 -1451 194 177 179
-701.119 -620.04 -1452 194 177 179
-698.864 -620.083 -1452 192 175 177
-696.128 -619.698 -1451 192 175 177
-693.395 -619.313 -1450 196 179 181
-689.712 -618.074 -1447 198 181 183
-686.037 -616.834 -1444 199 182 184
-682.845 -616.022 -1442 198 181 183
-679.659 -615.209 -1440 199 182 186
-676.949 -614.823 -1439 198 181 185
-674.711 -614.865 -1439 195 178 182
-672.473 -614.907 -1439 192 175 179
-669.302 -614.093 -1437 192 175 179
-667.066 -614.135 -1437 193 176 180
-664.367 -613.749 -1436 196 179 183
-661.209 -612.935 -1434 193 176 180
-658.058 -612.122 -1432 192 175 179
-655.37 -611.735 -1431 192 175 179
-653.141 -611.776 -1431 194 176 180
-650.912 -611.817 -1431 194 176 180
-648.683 -611.858 -1431 191 174 178
-646.453 -611.899 -1431 190 173 177
-644.223 -611.94 -1431 190 173 181
-641.993 -611.981 -1431 191 174 182
-639.762 -612.022 -1431 191 174 182
-637.531 -612.063 -1431 188 171 179
-634.855 -611.676 -1430 186 169 175
-632.183 -611.289 -1429 187 170 176
-629.954 -611.329 -1429 191 174 180
-627.724 -611.369 -1429 193 176 182
-625.057 -610.982 -1428 192 174 180
-622.828 -611.022 -1428 191 173 179
-620.599 -611.063 -1428 188 171 177
-618.803 -611.531 -1429 188 171 177
-617.003 -611.999 -1430 188 171 179
-614.34 -611.611 -1429 188 171 179
-612.536 -612.08 -1430 184 169 177
-610.302 -612.12 -1430 182 167 175
-608.068 -612.16 -1430 186 171 177
-605.834 -612.2 -1430 183 168 174
-604.021 -612.668 -1431 182 167 173
-602.205 -613.136 -1432 182 167 173
-599.966 -613.176 -1432 180 165 171
-597.309 -612.788 -1431 180 165 171
-595.072 -612.828 -1431 181 166 172
-592.833 -612.867 -1431 182 167 173
-590.595 -612.907 -1431 179 164 170
-588.767 -613.375 -1432 179 164 170
-586.116 -612.986 -1431 177 163 166
-584.285 -613.454 -1432 176 162 165
-582.45 -613.922 -1433 175 163 170
-580.611 -614.39 -1434 176 164 171
-578.365 -614.43 -1434 175 163 170
-576.521 -614.897 -1435 174 162 169
-575.074 -615.794 -1437 174 162 167
-573.221 -616.262 -1438 176 164 169
-571.365 -616.729 -1439 175 163 172
-569.901 -617.626 -1441 174 162 171
-567.643 -617.665 -1441 173 161 170
-565.776 -618.133 -1442 172 160 169
-563.515 -618.172 -1442 172 160 169
-561.643 -618.64 -1443 174 162 171
-559.38 -618.679 -1443 172 160 167
-557.117 -618.718 -1443 173 161 168
-555.237 -619.186 -1444 172 160 169
-553.738 -620.082 -1446 168 156 165
-552.612 -621.408 -1449 164 152 161
-551.098 -622.304 -1451 164 152 161
-549.198 -622.772 -1452 167 155 164
-547.295 -623.24 -1453 169 157 166
-545.764 -624.137 -1455 170 157 170
-543.852 -624.604 -1456 171 158 171
-541.937 -625.072 -1457 171 158 173
-540.018 -625.54 -1458 170 157 172
-538.096 -626.007 -1459 168 155 170
-536.905 -627.333 -1462 166 153 168
-534.973 -627.801 -1463 167 152 165
-533.037 -628.269 -1464 168 153 166
-530.735 -628.307 -1464 163 150 165
-528.794 -628.775 -1465 161 148 163
-527.208 -629.671 -1467 161 148 163
-525.259 -630.139 -1468 160 147 162
-523.305 -630.606 -1469 155 143 160
-522.058 -631.933 -1472 154 142 159
-520.8 -633.259 -1475 154 145 161
-519.533 -634.585 -1478 154 145 161
-517.907 -635.482 -1480 153 144 160
-516.273 -636.379 -1482 152 143 159
-514.633 -637.276 -1484 155 146 160
-512.641 -637.743 -1485 157 148 162
-510.645 -638.211 -1486 160 151 165
-508.988 -639.108 -1488 163 154 168
-508.006 -640.864 -1492 161 152 168
-506.332 -641.761 -1494 154 145 161
-504.989 -643.087 -1497 146 138 158
-503.637 -644.414 -1500 139 131 151
-502.274 -645.741 -1503 134 126 146
-500.902 -647.068 -1506 136 128 148
-499.851 -648.824 -1510 139 131 149
-499.446 -651.44 -1516 138 130 148
-498.694 -653.627 -1521 137 131 151
-496.946 -654.524 -1523 141 135 155
-494.868 -654.992 -1524 143 135 155
-492.785 -655.46 -1525 144 136 156
-491.021 -656.357 -1527 143 138 155
-488.93 -656.824 -1528 145 140 157
-486.836 -657.292 -1529 149 141 159
-485.055 -658.189 -1531 152 144 162
-482.636 -658.227 -1531 156 148 168
-480.531 -658.694 -1532 158 150 170
-477.487 -657.871 -1530 156 150 172
-474.759 -657.478 -1529 156 150 172
-471.106 -655.795 -1525 158 146 167
-849.132 -649.233 -1520 184 170 171
-848.461 -650.561 -1523 185 171 172
-847.781 -651.889 -1526 186 172 172
-845.983 -652.362 -1527 185 171 171
-843.629 -652.408 -1527 185 170 171
-840.723 -652.027 -1526 184 169 170
-837.271 -651.219 -1524 189 174 174
-833.825 -650.41 -1522 192 177 177
-830.93 -650.029 -1521 190 176 177
-827.494 -649.22 -1519 186 172 173
-824.064 -648.411 -1517 184 170 171
-821.722 -648.457 -1517 182 168 169
-818.3 -647.647 -1515 182 168 169
-815.422 -647.266 -1514 183 169 170
-812.01 -646.456 -1512 186 172 173
-808.604 -645.646 -1510 186 172 173
-805.738 -645.264 -1509 187 173 174
-801.809 -644.026 -1506 189 175 176
-798.42 -643.216 -1504 189 175 176
-795.037 -642.406 -1502 189 175 176
-791.66 -641.595 -1500 189 174 175
-787.762 -640.357 -1497 188 173 174
-783.873 -639.118 -1494 184 169 170
-780.516 -638.307 -1492 186 171 172
-777.165 -637.496 -1490 188 171 173
-774.34 -637.112 -1489 187 170 172
-772.036 -637.157 -1489 188 171 173
-769.215 -636.773 -1488 189 172 174
-766.396 -636.389 -1487 187 170 172
-763.067 -635.578 -1485 186 169 171
-759.743 -634.766 -1483 183 166 168
-755.914 -633.525 -1480 184 167 169
-752.604 -632.713 -1478 188 171 173
-749.806 -632.329 -1477 191 174 176
-746.506 -631.516 -1475 189 172 174
-743.716 -631.132 -1474 189 172 174
-740.425 -630.319 -1472 191 174 176
-738.143 -630.362 -1472 191 174 176
-734.861 -629.549 -1470 190 173 175
-731.087 -628.308 -1467 190 173 175
-728.315 -627.922 -1466 189 172 174
-725.546 -627.537 -1465 189 172 174
-722.78 -627.152 -1464 191 174 175
-719.031 -625.91 -1461 192 175 176
-715.783 -625.096 -1459 192 175 176
-712.54 -624.281 -1457 191 174 175
-709.303 -623.467 -1455 192 175 177
-706.073 -622.653 -1453 192 175 177
-702.848 -621.838 -1451 193 176 178
-701.077 -622.309 -1452 195 178 180
-698.34 -621.923 -1451 195 178 180
-695.606 -621.537 -1450 194 177 179
-692.875 -621.15 -1449 195 178 181
-689.193 -619.906 -1446 197 180 183
-685.995 -619.091 -1444 197 180 183
-682.803 -618.275 -1442 198 181 184
-679.145 -617.03 -1439 197 180 184
-676.437 -616.643 -1438 195 178 182
-674.201 -616.685 -1438 193 176 180
-671.964 -616.727 -1438 192 175 179
-669.261 -616.339 -1437 191 174 179
-666.56 -615.952 -1436 189 172 177
-663.863 -615.565 -1435 191 174 178
-661.168 -615.177 -1434 190 173 177
-658.476 -614.789 -1433 190 173 178
-655.787 -614.401 -1432 191 174 179
-653.556 -614.442 -1432 193 176 181
-650.871 -614.054 -1431 193 176 181
-648.642 -614.096 -1431 192 175 180
-646.412 -614.136 -1431 192 175 180
-644.182 -614.177 -1431 190 173 181
-641.952 -614.218 -1431 189 172 180
-639.721 -614.259 -1431 189 172 179
-637.49 -614.3 -1431 187 170 177
-634.815 -613.911 -1430 184 167 173
-632.142 -613.523 -1429 185 168 174
-629.913 -613.563 -1429 187 170 177
-627.244 -613.175 -1428 187 170 177
-625.016 -613.215 -1428 190 173 179
-622.788 -613.256 -1428 188 171 177
-620.559 -613.296 -1428 187 170 176
-618.33 -613.336 -1428 187 170 176
-616.531 -613.806 -1429 186 169 176
-613.87 -613.417 -1428 185 168 175
-612.068 -613.887 -1429 183 167 174
-610.263 -614.356 -1430 183 167 174
-608.028 -614.397 -1430 182 167 173
-605.794 -614.437 -1430 181 166 172
-603.981 -614.906 -1431 180 165 171
-602.165 -615.376 -1432 181 166 172
-599.926 -615.416 -1432 180 165 171
-597.27 -615.026 -1431 179 164 170
-595.032 -615.066 -1431 178 163 169
-592.794 -615.106 -1431 177 162 168
-590.555 -615.146 -1431 177 162 168
-588.727 -615.615 -1432 176 161 167
-586.486 -615.655 -1432 175 160 166
-584.245 -615.694 -1432 175 160 166
-582.41 -616.164 -1433 176 163 169
-580.166 -616.204 -1433 176 163 169
-578.326 -616.673 -1434 174 162 169
-576.482 -617.143 -1435 174 162 169
-575.035 -618.042 -1437 178 166 172
-573.581 -618.942 -1439 175 163 169
-571.723 -619.411 -1440 174 162 169
-570.258 -620.311 -1442 174 162 169
-567.997 -620.35 -1442 175 163 171
-566.522 -621.25 -1444 176 164 172
-563.867 -620.859 -1443 174 162 171
-561.215 -620.468 -1442 171 159 168
-558.954 -620.507 -1442 170 158 166
-557.078 -620.976 -1443 170 158 166
-555.199 -621.446 -1444 169 157 166
-553.316 -621.915 -1445 168 156 165
-552.192 -623.245 -1448 167 155 164
-550.679 -624.145 -1450 166 154 163
-549.159 -625.045 -1452 167 155 164
-547.256 -625.514 -1453 171 159 168
-546.1 -626.844 -1456 173 160 173
-544.56 -627.744 -1458 171 158 171
-542.642 -628.214 -1459 169 156 170
-540.72 -628.683 -1460 167 154 168
-539.164 -629.583 -1462 164 151 165
-537.601 -630.483 -1464 164 151 165
-535.3 -630.522 -1464 165 151 165
-532.998 -630.56 -1464 163 149 163
-530.697 -630.599 -1464 161 148 163
-528.755 -631.068 -1465 163 150 165
-526.811 -631.537 -1466 164 151 167
-524.505 -631.575 -1466 161 148 164
-523.267 -632.906 -1469 157 145 161
-522.02 -634.237 -1472 156 144 160
-521.115 -635.999 -1476 156 146 162
-519.847 -637.33 -1479 156 146 162
-517.868 -637.799 -1480 154 145 160
-516.583 -639.13 -1483 153 144 159
-514.595 -639.599 -1484 155 146 160
-512.603 -640.069 -1485 159 150 164
-510.607 -640.538 -1486 160 151 165
-508.95 -641.438 -1488 160 151 165
-507.968 -643.2 -1492 161 151 166
-505.955 -643.669 -1493 159 149 164
-504.277 -644.569 -1495 150 141 160
-503.263 -646.332 -1499 139 130 149
-501.902 -647.663 -1502 133 124 143
-501.197 -649.858 -1507 138 129 148
-499.813 -651.189 -1510 142 134 152
-500.067 -654.677 -1518 138 130 148
-498.983 -656.44 -1522 135 128 149
-496.908 -656.91 -1523 137 130 151
-494.83 -657.379 -1524 141 133 153
-493.071 -658.279 -1526 143 135 155
-491.305 -659.18 -1528 144 137 155
-488.893 -659.217 -1528 145 138 156
-487.117 -660.118 -1530 149 141 159
-485.017 -660.587 -1531 153 145 163
-482.914 -661.056 -1532 155 147 167
-480.494 -661.093 -1532 154 146 166
-477.45 -660.267 -1530 156 149 170
-474.411 -659.442 -1528 156 149 170
-470.76 -657.752 -1524 157 147 168
-849.086 -651.603 -1520 183 169 170
-848.972 -653.365 -1524 185 171 172
-848.29 -654.697 -1527 186 172 173
-845.936 -654.743 -1527 185 171 172
-843.582 -654.79 -1527 184 170 171
-841.228 -654.836 -1527 183 169 170
-837.225 -653.596 -1524 186 172 173
-833.231 -652.356 -1521 187 173 174
-830.338 -651.973 -1520 185 171 172
-827.448 -651.59 -1519 184 170 171
-823.475 -650.349 -1516 185 171 172
-820.593 -649.965 -1515 184 170 171
-817.174 -649.153 -1513 182 168 169
-814.838 -649.199 -1513 182 168 169
-811.965 -648.815 -1512 184 170 171
-809.094 -648.431 -1511 185 171 172
-806.76 -648.477 -1511 185 171 172
-803.361 -647.664 -1509 186 172 173
-800.498 -647.28 -1508 187 173 174
-796.58 -646.037 -1505 188 174 175
-792.67 -644.795 -1502 190 173 175
-788.77 -643.552 -1499 190 173 175
-784.878 -642.309 -1496 189 172 174
-780.995 -641.065 -1493 189 172 174
-777.121 -639.821 -1490 189 172 174
-774.296 -639.437 -1489 188 171 173
-771.473 -639.052 -1488 188 171 173
-768.654 -638.666 -1487 189 172 174
-765.837 -638.281 -1486 189 172 174
-763.023 -637.896 -1485 190 173 175
-759.187 -636.651 -1482 188 171 173
-755.36 -635.406 -1479 188 171 173
-752.56 -635.021 -1478 190 172 174
-749.255 -634.205 -1476 191 173 175
-746.462 -633.819 -1475 188 171 173
-743.167 -633.004 -1473 189 172 174
-739.879 -632.188 -1471 189 172 174
-736.596 -631.371 -1469 188 171 173
-733.818 -630.985 -1468 189 172 174
-731.044 -630.598 -1467 190 173 175
-728.272 -630.212 -1466 190 173 175
-725.503 -629.825 -1465 191 174 176
-723.23 -629.868 -1465 192 176 175
-718.989 -628.192 -1461 192 176 175
-715.74 -627.374 -1459 194 178 177
-712.009 -626.127 -1456 195 179 178
-708.773 -625.31 -1454 193 176 178
-705.544 -624.492 -1452 193 176 178
-702.321 -623.675 -1450 192 175 177
-700.552 -624.147 -1451 190 173 175
-697.817 -623.759 -1450 188 171 173
-695.084 -623.372 -1449 189 172 174
-692.354 -622.984 -1448 192 175 179
-689.151 -622.165 -1446 194 177 181
-686.428 -621.777 -1445 192 175 179
-682.761 -620.528 -1442 195 178 182
-679.104 -619.279 -1439 196 179 183
-676.866 -619.321 -1439 195 178 182
-674.159 -618.932 -1438 193 176 180
-671.455 -618.543 -1437 192 175 179
-668.753 -618.155 -1436 189 172 178
-666.519 -618.196 -1436 186 169 175
-663.821 -617.807 -1435 187 170 174
-661.127 -617.418 -1434 187 170 174
-658.435 -617.029 -1433 188 171 177
-656.203 -617.07 -1433 190 173 179
-653.515 -616.681 -1432 191 174 180
-651.285 -616.722 -1432 190 173 179
-648.601 -616.332 -1431 189 172 178
-646.371 -616.373 -1431 188 171 177
-643.691 -615.983 -1430 187 168 177
-641.462 -616.024 -1430 187 168 177
-639.68 -616.496 -1431 186 169 175
-637.004 -616.106 -1430 185 168 174
-634.774 -616.147 -1430 182 165 171
-632.101 -615.757 -1429 183 166 172
-629.432 -615.366 -1428 186 169 177
-627.204 -615.407 -1428 186 169 177
-624.976 -615.448 -1428 186 169 175
-622.747 -615.488 -1428 185 168 174
-620.518 -615.529 -1428 188 170 176
-618.289 -615.569 -1428 188 170 176
-616.06 -615.609 -1428 186 168 174
-613.4 -615.219 -1427 185 167 173
-611.599 -615.69 -1428 184 167 173
-609.795 -616.161 -1429 185 168 174
-607.988 -616.633 -1430 183 168 174
-605.754 -616.673 -1430 181 166 172
-603.941 -617.144 -1431 181 166 172
-602.125 -617.616 -1432 181 166 172
-599.886 -617.656 -1432 180 165 171
-597.23 -617.264 -1431 179 164 170
-594.992 -617.304 -1431 179 164 170
-593.168 -617.776 -1432 177 162 168
-590.515 -617.384 -1431 177 162 168
-589.099 -618.287 -1433 177 162 168
-586.447 -617.895 -1432 176 161 169
-584.205 -617.934 -1432 175 160 168
-582.371 -618.406 -1433 175 160 166
-580.127 -618.445 -1433 175 160 166
-578.287 -618.916 -1434 175 163 170
-576.041 -618.956 -1434 177 165 172
-574.995 -620.29 -1437 175 163 170
-573.143 -620.761 -1438 172 160 167
-571.684 -621.664 -1440 173 161 166
-569.823 -622.135 -1441 174 162 167
-567.958 -622.606 -1442 175 163 170
-566.09 -623.077 -1443 175 163 170
-563.437 -622.685 -1442 174 162 171
-561.176 -622.724 -1442 171 159 168
-559.302 -623.195 -1443 172 160 169
-557.039 -623.234 -1443 171 159 168
-555.544 -624.137 -1445 171 159 168
-553.277 -624.176 -1445 171 159 168
-552.153 -625.511 -1448 171 159 168
-550.64 -626.414 -1450 170 158 167
-548.742 -626.885 -1451 169 157 166
-547.594 -628.22 -1454 169 157 166
-546.061 -629.123 -1456 172 159 172
-544.895 -630.458 -1459 169 156 169
-542.975 -630.929 -1460 166 153 166
-541.052 -631.4 -1461 164 151 164
-539.125 -631.871 -1462 163 150 163
-537.562 -632.774 -1464 163 150 163
-534.895 -632.381 -1463 162 149 164
-532.96 -632.852 -1464 162 149 164
-530.658 -632.89 -1464 160 148 163
-528.717 -633.361 -1465 162 150 165
-526.772 -633.832 -1466 163 150 167
-524.824 -634.303 -1467 162 149 166
-523.585 -635.638 -1470 159 147 162
-522.336 -636.974 -1473 157 145 160
-521.077 -638.309 -1476 157 145 162
-519.808 -639.645 -1479 158 146 163
-517.83 -640.116 -1480 155 146 160
-516.893 -641.884 -1484 154 145 159
-514.903 -642.355 -1485 155 146 160
-512.91 -642.826 -1486 157 148 162
-510.913 -643.297 -1487 158 149 163
-508.912 -643.767 -1488 160 151 165
-507.93 -645.536 -1492 163 151 166
-505.917 -646.007 -1493 162 150 165
-504.576 -647.343 -1496 152 143 161
-503.225 -648.679 -1499 141 132 150
-502.198 -650.448 -1503 134 125 143
-501.824 -653.082 -1509 137 128 146
-500.437 -654.419 -1512 140 132 150
-500.358 -657.487 -1519 138 130 148
-499.273 -659.256 -1523 135 127 149
-496.87 -659.294 -1523 136 128 150
-495.441 -660.631 -1526 138 130 150
-493.356 -661.102 -1527 143 135 155
-491.267 -661.572 -1528 145 137 155
-489.175 -662.043 -1529 145 137 155
-487.079 -662.514 -1530 149 141 159
-485.613 -663.851 -1533 153 145 163
-482.877 -663.455 -1532 155 147 167
-480.143 -663.059 -1531 156 148 168
-476.788 -661.797 -1528 157 149 169
-473.753 -660.968 -1526 157 149 169
-470.415 -659.706 -1523 156 148 168
-849.598 -654.403 -1521 183 169 170
-849.483 -656.171 -1525 186 172 173
-848.244 -657.078 -1527 186 172 173
-846.444 -657.555 -1528 184 170 171
-844.088 -657.601 -1528 183 169 170
-841.182 -657.218 -1527 183 169 170
-837.179 -655.972 -1524 184 170 171
-833.185 -654.727 -1521 184 170 171
-829.746 -653.913 -1519 183 169 170
-825.768 -652.667 -1516 184 170 171
-821.799 -651.421 -1513 187 173 174
-818.923 -651.037 -1512 187 173 174
-816.049 -650.652 -1511 185 171 172
-813.716 -650.697 -1511 185 171 172
-810.845 -650.312 -1510 184 170 171
-808.513 -650.358 -1510 186 172 173
-806.715 -650.834 -1511 187 173 174
-803.315 -650.018 -1509 186 172 173
-800.453 -649.633 -1508 187 173 174
-797.064 -648.817 -1506 189 175 176
-793.681 -648 -1504 191 176 177
-789.777 -646.753 -1501 192 177 178
-784.833 -644.643 -1496 191 176 177
-780.95 -643.395 -1493 189 174 175
-777.598 -642.578 -1491 189 172 174
-774.251 -641.76 -1489 188 171 173
-771.429 -641.374 -1488 188 171 173
-768.609 -640.987 -1487 188 171 173
-765.793 -640.601 -1486 189 172 174
-762.978 -640.214 -1485 190 173 175
-759.655 -639.396 -1483 191 174 176
-756.337 -638.578 -1481 190 173 175
-752.516 -637.328 -1478 191 173 175
-749.211 -636.509 -1476 190 172 174
-746.418 -636.122 -1475 187 170 172
-742.619 -634.872 -1472 188 171 173
-739.332 -634.053 -1470 189 172 174
-736.552 -633.665 -1469 187 170 172
-733.775 -633.277 -1468 186 169 171
-731 -632.889 -1467 187 170 172
-728.229 -632.501 -1466 189 172 174
-725.955 -632.544 -1466 191 174 176
-722.693 -631.725 -1464 193 177 176
-718.945 -630.473 -1461 193 177 176
-715.697 -629.653 -1459 195 179 178
-711.477 -627.97 -1455 196 180 179
-708.731 -627.581 -1454 192 175 177
-705.016 -626.328 -1451 193 176 178
-701.794 -625.508 -1449 192 175 177
-700.026 -625.982 -1450 191 174 176
-697.774 -626.024 -1450 190 173 175
-695.042 -625.635 -1449 191 174 176
-691.834 -624.814 -1447 191 174 178
-689.109 -624.424 -1446 191 174 178
-686.386 -624.035 -1445 192 175 179
-682.246 -622.349 -1441 195 178 182
-679.062 -621.527 -1439 196 179 183
-676.824 -621.569 -1439 193 176 180
-674.117 -621.179 -1438 191 174 178
-671.413 -620.789 -1437 190 173 177
-668.246 -619.966 -1435 189 172 178
-666.013 -620.008 -1435 187 170 176
-663.317 -619.617 -1434 186 169 173
-661.085 -619.659 -1434 187 170 174
-658.393 -619.268 -1433 189 172 178
-655.704 -618.877 -1432 190 173 179
-653.474 -618.918 -1432 190 173 179
-650.789 -618.528 -1431 189 172 178
-648.106 -618.136 -1430 187 170 175
-645.878 -618.177 -1430 186 169 174
-643.65 -618.218 -1430 188 170 180
-641.421 -618.259 -1430 187 169 179
-639.192 -618.3 -1430 188 171 177
-636.518 -617.909 -1429 186 169 175
-634.733 -618.382 -1430 185 168 174
-632.061 -617.991 -1429 186 169 175
-629.391 -617.599 -1428 189 172 179
-626.724 -617.207 -1427 188 171 178
-624.497 -617.247 -1427 186 169 175
-622.271 -617.288 -1427 185 168 174
-620.043 -617.328 -1427 187 170 176
-617.816 -617.369 -1427 185 168 174
-615.588 -617.409 -1427 182 165 171
-613.36 -617.45 -1427 184 167 173
-611.559 -617.923 -1428 186 169 175
-609.755 -618.396 -1429 186 169 175
-607.523 -618.436 -1429 187 172 178
-605.29 -618.476 -1429 182 167 173
-603.901 -619.382 -1431 179 164 170
-601.664 -619.422 -1431 179 164 170
-599.427 -619.462 -1431 179 164 170
-596.772 -619.069 -1430 181 166 172
-594.952 -619.542 -1431 181 166 172
-593.128 -620.015 -1432 179 164 170
-590.888 -620.055 -1432 177 162 168
-589.059 -620.528 -1433 178 163 169
-586.407 -620.134 -1432 178 163 171
-584.166 -620.174 -1432 175 160 168
-582.331 -620.647 -1433 174 159 165
-580.087 -620.687 -1433 175 160 166
-577.844 -620.726 -1433 176 164 171
-575.6 -620.766 -1433 178 166 173
-574.556 -622.105 -1436 174 162 169
-573.103 -623.011 -1438 171 159 166
-571.247 -623.483 -1439 173 161 167
-569.783 -624.389 -1441 176 164 170
-567.525 -624.429 -1441 175 163 170
-566.051 -625.335 -1443 173 161 168
-563.398 -624.941 -1442 171 159 168
-561.137 -624.98 -1442 169 157 166
-558.875 -625.019 -1442 170 158 167
-557 -625.492 -1443 168 156 165
-555.121 -625.964 -1444 168 156 165
-553.238 -626.437 -1445 170 158 167
-552.114 -627.777 -1448 172 159 170
-550.221 -628.249 -1449 172 159 170
-548.703 -629.155 -1451 171 158 169
-547.179 -630.061 -1453 170 157 168
-545.647 -630.967 -1455 170 157 170
-544.482 -632.307 -1458 167 154 167
-542.564 -632.78 -1459 165 151 164
-540.643 -633.253 -1460 165 151 164
-538.718 -633.725 -1461 164 151 164
-536.789 -634.198 -1462 163 150 163
-534.857 -634.67 -1463 162 149 164
-532.557 -634.709 -1463 162 149 164
-530.257 -634.747 -1463 161 149 164
-528.678 -635.654 -1465 161 149 164
-527.093 -636.56 -1467 163 150 167
-525.144 -637.032 -1468 162 149 166
-523.903 -638.373 -1471 159 147 162
-522.298 -639.279 -1473 158 146 161
-521.039 -640.619 -1476 156 146 162
-520.121 -642.394 -1480 157 147 163
-518.492 -643.3 -1482 155 146 160
-516.855 -644.207 -1484 155 146 160
-514.518 -644.245 -1484 158 149 163
-512.872 -645.152 -1486 159 150 164
-511.218 -646.058 -1488 159 150 164
-509.216 -646.531 -1489 160 151 165
-508.232 -648.305 -1493 162 150 165
-505.879 -648.344 -1493 159 147 162
-504.538 -649.684 -1496 151 142 160
-503.187 -651.025 -1499 143 134 152
-501.826 -652.366 -1502 136 127 145
-501.121 -654.576 -1507 137 128 146
-500.73 -657.22 -1513 137 129 147
-500.649 -660.299 -1520 136 128 146
-498.907 -661.206 -1522 136 128 150
-497.159 -662.113 -1524 136 128 150
-495.403 -663.02 -1526 139 131 151
-493.641 -663.927 -1528 145 137 157
-491.551 -664.399 -1529 148 140 159
-489.457 -664.872 -1530 147 139 158
-487.36 -665.344 -1531 150 142 160
-485.576 -666.251 -1533 154 146 164
-482.839 -665.854 -1532 156 148 168
-479.479 -664.587 -1529 157 149 169
-476.439 -663.755 -1527 159 151 172
-474.027 -663.792 -1527 158 150 171
-470.687 -662.525 -1524 156 148 168
-847.876 -655.479 -1518 184 170 171
-848.322 -657.685 -1523 186 172 173
-847.641 -659.027 -1526 186 172 173
-845.843 -659.505 -1527 185 171 172
-843.489 -659.552 -1527 183 169 170
-840.584 -659.166 -1526 182 168 169
-837.133 -658.349 -1524 185 171 172
-833.686 -657.531 -1522 185 171 172
-829.7 -656.281 -1519 184 170 171
-825.178 -654.599 -1515 185 171 172
-821.754 -653.781 -1513 189 175 176
-817.794 -652.53 -1510 189 175 176
-815.463 -652.576 -1510 188 174 175
-812.593 -652.19 -1509 189 175 176
-810.263 -652.235 -1509 183 169 170
-808.468 -652.713 -1510 185 171 172
-806.669 -653.191 -1511 186 172 173
-803.802 -652.805 -1510 185 171 172
-800.938 -652.418 -1509 183 169 170
-797.548 -651.598 -1507 182 168 169
-794.163 -650.779 -1505 183 169 170
-789.206 -648.662 -1500 183 169 170
-784.788 -646.977 -1496 186 172 173
-781.429 -646.157 -1494 185 171 172
-777.553 -644.904 -1491 186 169 171
-774.207 -644.084 -1489 187 170 172
-770.866 -643.263 -1487 187 170 172
-768.565 -643.308 -1487 188 171 173
-765.233 -642.487 -1485 190 173 175
-762.934 -642.531 -1485 190 173 175
-759.611 -641.71 -1483 193 176 178
-756.293 -640.889 -1481 191 174 176
-752.981 -640.068 -1479 191 173 175
-749.675 -639.246 -1477 190 172 174
-746.881 -638.857 -1476 188 171 173
-743.08 -637.602 -1473 189 172 174
-739.791 -636.78 -1471 189 172 174
-736.509 -635.958 -1469 187 170 172
-733.731 -635.569 -1468 183 166 168
-730.957 -635.179 -1467 184 167 169
-727.689 -634.357 -1465 187 170 172
-725.416 -634.4 -1465 189 172 174
-722.65 -634.01 -1464 192 176 175
-718.902 -632.754 -1461 193 177 176
-715.164 -631.498 -1458 193 177 176
-711.923 -630.675 -1456 193 177 176
-708.688 -629.851 -1454 192 175 177
-704.973 -628.594 -1451 191 174 176
-701.751 -627.77 -1449 191 174 176
-699.984 -628.246 -1450 191 174 176
-697.25 -627.855 -1449 192 175 177
-694.04 -627.031 -1447 193 176 178
-691.314 -626.64 -1446 192 175 179
-688.59 -626.249 -1445 191 174 178
-685.869 -625.858 -1444 191 174 178
-681.731 -624.166 -1440 194 177 181
-679.02 -623.775 -1439 197 180 184
-676.312 -623.383 -1438 197 180 184
-674.075 -623.425 -1438 195 178 182
-671.371 -623.033 -1437 193 176 180
-668.204 -622.208 -1435 189 172 178
-666.436 -622.683 -1436 185 168 174
-664.201 -622.725 -1436 186 169 173
-661.505 -622.333 -1435 187 170 174
-658.811 -621.941 -1434 189 172 178
-656.121 -621.548 -1433 190 173 179
-653.433 -621.156 -1432 189 172 178
-650.748 -620.763 -1431 188 171 177
-648.065 -620.371 -1430 188 170 174
-645.386 -619.978 -1429 188 170 174
-643.159 -620.019 -1429 188 171 181
-640.932 -620.06 -1429 186 169 179
-639.151 -620.535 -1430 186 169 175
-636.922 -620.576 -1430 186 169 175
-634.692 -620.617 -1430 186 169 175
-631.578 -619.79 -1428 188 171 177
-628.909 -619.397 -1427 189 172 178
-626.244 -619.003 -1426 188 171 177
-624.019 -619.044 -1426 190 173 179
-622.23 -619.518 -1427 188 171 177
-620.003 -619.559 -1427 189 172 178
-617.775 -619.6 -1427 183 166 172
-615.547 -619.64 -1427 179 162 168
-613.319 -619.68 -1427 184 167 173
-611.519 -620.155 -1428 186 169 175
-609.288 -620.195 -1428 187 170 176
-607.057 -620.236 -1428 182 167 173
-605.25 -620.71 -1429 178 163 169
-603.439 -621.185 -1430 178 163 169
-601.204 -621.225 -1430 179 164 170
-598.968 -621.265 -1430 179 164 170
-597.15 -621.739 -1431 180 165 171
-594.912 -621.779 -1431 179 164 170
-593.088 -622.254 -1432 174 159 165
-590.848 -622.294 -1432 177 162 168
-589.43 -623.203 -1434 178 163 169
-586.367 -622.374 -1432 179 164 172
-584.126 -622.413 -1432 177 162 170
-581.885 -622.453 -1432 176 161 167
-580.048 -622.927 -1433 179 164 170
-577.804 -622.967 -1433 179 167 174
-575.56 -623.007 -1433 178 166 173
-574.516 -624.351 -1436 174 162 169
-572.665 -624.825 -1437 171 159 166
-571.208 -625.734 -1439 173 161 168
-569.348 -626.208 -1440 176 164 171
-567.092 -626.248 -1440 176 164 171
-565.619 -627.157 -1442 174 162 169
-562.968 -626.761 -1441 171 159 168
-560.708 -626.801 -1441 166 154 163
-558.836 -627.275 -1442 160 148 157
-556.961 -627.749 -1443 163 151 160
-555.081 -628.223 -1444 169 157 166
-553.582 -629.132 -1446 173 161 170
-551.694 -629.606 -1447 173 160 171
-549.803 -630.081 -1448 171 158 169
-548.286 -630.99 -1450 169 156 167
-546.763 -631.899 -1452 167 154 165
-545.233 -632.808 -1454 168 155 168
-544.07 -634.153 -1457 167 154 167
-542.525 -635.063 -1459 167 152 165
-540.604 -635.537 -1460 166 151 164
-538.679 -636.011 -1461 166 153 166
-536.75 -636.485 -1462 166 153 166
-534.818 -636.959 -1463 163 151 166
-532.518 -636.998 -1463 162 150 165
-530.581 -637.472 -1464 160 148 163
-528.64 -637.946 -1465 160 148 163
-527.055 -638.855 -1467 161 148 165
-525.105 -639.329 -1468 160 147 164
-523.864 -640.674 -1471 158 146 161
-522.259 -641.584 -1473 158 146 161
-521 -642.929 -1476 156 147 163
-520.083 -644.71 -1480 156 147 163
-518.803 -646.055 -1483 157 148 162
-517.165 -646.965 -1485 156 147 161
-514.827 -647.003 -1485 158 149 163
-513.179 -647.913 -1487 159 150 164
-511.18 -648.387 -1488 160 151 165
-509.52 -649.297 -1490 161 152 166
-507.853 -650.206 -1492 161 149 164
-505.164 -649.809 -1491 158 146 161
-503.488 -650.718 -1493 150 141 159
-502.142 -652.064 -1496 144 135 153
-501.788 -654.717 -1502 138 129 147
-500.418 -656.063 -1505 136 127 145
-500.692 -659.588 -1513 135 127 145
-500.611 -662.678 -1520 135 127 145
-499.197 -664.024 -1523 136 128 150
-497.121 -664.498 -1524 136 128 150
-495.041 -664.972 -1525 138 130 150
-493.603 -666.319 -1528 145 137 157
-491.513 -666.792 -1529 147 139 159
-489.099 -666.83 -1529 147 139 159
-487.004 -667.304 -1530 150 142 160
-484.904 -667.778 -1531 152 144 162
-482.172 -667.379 -1530 154 146 166
-479.128 -666.544 -1528 157 149 169
-476.714 -666.582 -1528 160 152 174
-473.679 -665.746 -1526 159 151 173
-470.341 -664.474 -1523 156 148 168
-848.947 -658.712 -1520 181 168 169
-849.39 -660.925 -1525 183 170 171
-848.15 -661.839 -1527 186 172 173
-845.797 -661.885 -1527 186 172 173
-842.891 -661.499 -1526 184 170 171
-840.538 -661.546 -1526 181 167 168
-837.086 -660.725 -1524 185 171 172
-833.092 -659.471 -1521 186 172 173
-829.108 -658.216 -1518 185 171 172
-825.132 -656.961 -1515 185 171 172
-821.708 -656.14 -1513 188 174 175
-817.206 -654.451 -1509 189 175 176
-814.877 -654.497 -1509 188 174 175
-812.009 -654.109 -1508 188 174 175
-810.217 -654.589 -1509 185 171 172
-808.422 -655.068 -1510 185 171 172
-806.089 -655.114 -1510 184 170 171
-803.225 -654.726 -1509 183 169 170
-800.362 -654.337 -1508 179 165 166
-796.973 -653.515 -1506 176 162 163
-793.062 -652.259 -1503 175 161 162
-789.161 -651.002 -1500 177 163 164
-784.743 -649.311 -1496 181 167 168
-780.861 -648.054 -1493 182 168 169
-776.987 -646.797 -1490 186 169 171
-773.642 -645.973 -1488 186 169 171
-770.822 -645.583 -1487 186 169 171
-768.521 -645.628 -1487 189 172 174
-765.188 -644.804 -1485 193 176 178
-762.376 -644.414 -1484 195 178 180
-759.566 -644.024 -1483 194 177 179
-756.249 -643.2 -1481 191 174 176
-752.937 -642.376 -1479 190 172 174
-749.631 -641.551 -1477 191 173 175
-746.836 -641.161 -1476 191 174 176
-743.541 -640.336 -1474 192 175 177
-739.748 -639.076 -1471 190 173 175
-736.465 -638.251 -1469 186 169 171
-733.688 -637.86 -1468 185 168 170
-730.415 -637.035 -1466 187 170 172
-727.149 -636.209 -1464 189 172 174
-724.878 -636.253 -1464 189 172 174
-722.113 -635.861 -1463 191 175 174
-718.859 -635.035 -1461 192 176 175
-715.121 -633.774 -1458 192 175 176
-711.88 -632.948 -1456 191 174 175
-708.645 -632.121 -1454 190 173 175
-704.93 -630.86 -1451 189 172 174
-701.709 -630.033 -1449 190 173 175
-699.459 -630.076 -1449 192 175 177
-696.727 -629.683 -1448 193 176 178
-693.038 -628.421 -1445 193 176 178
-690.315 -628.028 -1444 192 175 179
-687.595 -627.636 -1443 191 174 178
-684.877 -627.243 -1442 194 177 181
-681.689 -626.415 -1440 192 175 179
-678.506 -625.587 -1438 191 174 178
-676.27 -625.629 -1438 192 175 179
-674.033 -625.671 -1438 193 176 180
-671.33 -625.278 -1437 193 176 180
-668.628 -624.885 -1436 190 173 179
-666.858 -625.362 -1437 187 170 176
-664.159 -624.968 -1436 184 167 172
-661.924 -625.01 -1436 185 168 173
-659.229 -624.616 -1435 187 170 176
-656.537 -624.222 -1434 188 171 177
-653.391 -623.393 -1432 189 172 178
-650.707 -622.999 -1431 189 172 178
-648.024 -622.605 -1430 190 172 176
-645.345 -622.211 -1429 190 172 176
-642.668 -621.816 -1428 187 170 179
-640.891 -622.293 -1429 183 166 175
-639.11 -622.77 -1430 182 165 171
-637.772 -623.682 -1432 185 168 174
-635.095 -623.287 -1431 186 169 175
-632.421 -622.893 -1430 186 169 175
-629.309 -622.062 -1428 187 170 176
-627.082 -622.103 -1428 187 170 176
-624.416 -621.708 -1427 188 171 177
-621.753 -621.313 -1426 187 170 176
-619.528 -621.354 -1426 188 171 177
-617.735 -621.83 -1427 181 164 170
-615.938 -622.306 -1428 176 159 165
-613.709 -622.347 -1428 181 164 170
-611.478 -622.387 -1428 182 166 172
-609.248 -622.427 -1428 182 166 172
-607.017 -622.468 -1428 179 164 170
-604.786 -622.508 -1428 178 163 169
-602.976 -622.984 -1429 180 165 171
-601.163 -623.46 -1430 181 166 172
-598.928 -623.5 -1430 179 164 170
-596.692 -623.541 -1430 179 164 170
-594.872 -624.017 -1431 179 164 170
-593.048 -624.493 -1432 175 160 166
-590.808 -624.533 -1432 174 159 165
-588.979 -625.009 -1433 177 162 168
-586.327 -624.613 -1432 179 164 172
-584.086 -624.652 -1432 177 162 170
-582.251 -625.128 -1433 175 160 166
-580.008 -625.168 -1433 178 163 169
-577.765 -625.208 -1433 177 165 172
-575.922 -625.684 -1434 175 163 170
-574.477 -626.596 -1436 173 161 168
-572.626 -627.072 -1437 171 159 166
-570.771 -627.548 -1438 173 161 168
-568.914 -628.024 -1439 176 164 171
-567.052 -628.499 -1440 176 164 172
-565.187 -628.975 -1441 176 164 172
-562.929 -629.015 -1441 173 161 170
-560.669 -629.054 -1441 169 157 166
-558.797 -629.53 -1442 165 153 162
-556.922 -630.005 -1443 169 157 166
-555.427 -630.918 -1445 175 163 172
-553.543 -631.394 -1446 177 165 174
-551.274 -631.433 -1446 175 162 173
-549.384 -631.909 -1447 171 158 169
-547.869 -632.821 -1449 169 156 167
-546.348 -633.733 -1451 167 154 165
-544.819 -634.646 -1453 166 153 166
-543.658 -635.995 -1456 166 153 166
-542.486 -637.345 -1459 166 151 164
-540.565 -637.821 -1460 166 151 164
-538.64 -638.296 -1461 166 153 166
-536.711 -638.772 -1462 167 154 167
-534.779 -639.248 -1463 163 151 166
-532.844 -639.723 -1464 160 148 163
-530.542 -639.762 -1464 157 145 160
-528.962 -640.675 -1466 158 146 161
-527.375 -641.587 -1468 159 146 163
-525.067 -641.626 -1468 159 146 163
-523.826 -642.976 -1471 158 146 161
-522.221 -643.888 -1473 158 146 161
-521.315 -645.675 -1477 156 147 163
-520.045 -647.025 -1480 155 146 162
-518.765 -648.376 -1483 157 148 162
-517.127 -649.288 -1485 155 146 160
-515.135 -649.764 -1486 156 147 161
-512.795 -649.802 -1486 159 150 164
-510.798 -650.278 -1487 161 152 166
-508.798 -650.753 -1488 162 153 167
-507.135 -651.666 -1490 162 150 165
-504.448 -651.267 -1489 158 146 161
-502.776 -652.18 -1491 152 143 160
-501.769 -653.967 -1495 145 136 153
-500.748 -655.755 -1499 138 129 147
-500.047 -657.98 -1504 136 127 145
-499.992 -661.081 -1511 134 126 144
-499.914 -664.182 -1518 135 127 145
-498.503 -665.532 -1521 135 127 148
-496.43 -666.008 -1522 134 126 147
-494.678 -666.921 -1524 139 131 151
-493.242 -668.272 -1527 144 136 156
-491.475 -669.186 -1529 145 137 157
-489.061 -669.223 -1529 145 137 157
-486.966 -669.699 -1530 149 141 160
-484.867 -670.174 -1531 152 144 163
-481.819 -669.336 -1529 155 147 167
-479.09 -668.936 -1528 159 151 171
-476.365 -668.535 -1527 160 152 173
-473.642 -668.135 -1526 160 152 173
-470.613 -667.296 -1524 158 150 170
-467.59 -666.457 -1522 156 148 168
-849.458 -661.515 -1521 181 169 170
-849.343 -663.302 -1525 180 168 169
-847.548 -663.784 -1526 183 169 170
-844.642 -663.395 -1525 185 171 172
-842.291 -663.442 -1525 184 170 171
-839.94 -663.489 -1525 182 168 169
-836.49 -662.665 -1523 183 169 170
-832.498 -661.407 -1520 184 170 171
-829.061 -660.582 -1518 185 171 172
-825.085 -659.323 -1515 185 171 172
-821.662 -658.499 -1513 186 172 173
-817.702 -657.239 -1510 185 171 172
-814.831 -656.85 -1509 184 170 171
-811.963 -656.461 -1508 185 171 172
-809.634 -656.506 -1508 188 174 175
-807.841 -656.988 -1509 186 172 173
-804.976 -656.598 -1508 185 171 172
-802.647 -656.644 -1508 184 170 171
-799.255 -655.818 -1506 181 167 168
-795.869 -654.993 -1504 180 166 167
-793.017 -654.603 -1503 181 167 168
-788.589 -652.906 -1499 184 170 171
-784.173 -651.209 -1495 184 170 171
-780.293 -649.947 -1492 185 171 172
-776.942 -649.121 -1490 187 170 172
-774.117 -648.73 -1489 186 169 171
-770.777 -647.903 -1487 186 169 171
-767.959 -647.512 -1486 189 172 174
-765.144 -647.121 -1485 193 176 178
-762.332 -646.73 -1484 195 178 180
-759.01 -645.902 -1482 193 176 178
-756.204 -645.511 -1481 190 173 175
-752.384 -644.248 -1478 191 173 175
-749.079 -643.42 -1476 192 174 176
-745.781 -642.592 -1474 192 175 177
-742.992 -642.2 -1473 193 176 178
-739.201 -640.936 -1470 192 175 177
-735.92 -640.108 -1468 188 171 173
-733.144 -639.715 -1467 190 173 175
-729.874 -638.887 -1465 191 174 176
-727.105 -638.494 -1464 191 174 176
-724.339 -638.102 -1463 190 173 175
-721.083 -637.272 -1461 191 175 174
-717.832 -636.443 -1459 193 177 176
-714.587 -635.614 -1457 193 176 178
-711.348 -634.785 -1455 191 174 176
-707.628 -633.518 -1452 188 171 173
-704.402 -632.689 -1450 187 170 172
-701.182 -631.859 -1448 188 171 173
-698.451 -631.465 -1447 191 174 176
-695.241 -630.635 -1445 193 176 178
-692.516 -630.241 -1444 193 176 178
-689.795 -629.847 -1443 192 175 179
-687.076 -629.453 -1442 191 174 178
-684.36 -629.058 -1441 189 172 176
-681.647 -628.664 -1440 189 172 176
-678.936 -628.27 -1439 190 173 177
-676.698 -628.312 -1439 192 175 179
-673.992 -627.917 -1438 193 176 180
-671.288 -627.522 -1437 191 174 178
-668.587 -627.127 -1436 187 170 176
-666.816 -627.606 -1437 184 167 173
-664.58 -627.648 -1437 182 165 171
-661.882 -627.253 -1436 183 166 172
-659.188 -626.857 -1435 185 168 174
-656.953 -626.899 -1435 187 170 176
-653.806 -626.067 -1433 190 173 179
-650.665 -625.235 -1431 191 174 180
-647.983 -624.839 -1430 192 174 178
-645.303 -624.443 -1429 191 173 177
-642.627 -624.047 -1428 189 172 180
-640.85 -624.526 -1429 185 168 176
-639.069 -625.004 -1430 185 168 174
-637.731 -625.919 -1432 188 171 177
-635.498 -625.96 -1432 188 171 177
-632.823 -625.564 -1431 187 170 176
-630.15 -625.168 -1430 187 170 176
-627.48 -624.771 -1429 187 170 176
-624.376 -623.938 -1427 185 168 174
-621.713 -623.541 -1426 183 166 172
-619.487 -623.582 -1426 186 169 175
-617.261 -623.622 -1426 182 165 171
-615.466 -624.1 -1427 179 162 168
-612.809 -623.703 -1426 183 166 172
-611.01 -624.181 -1427 180 165 171
-608.781 -624.222 -1427 179 164 170
-606.552 -624.262 -1427 182 167 173
-604.746 -624.74 -1428 182 167 173
-602.514 -624.78 -1428 183 168 174
-600.703 -625.258 -1429 183 168 174
-598.888 -625.736 -1430 181 166 172
-596.652 -625.776 -1430 181 166 172
-594.832 -626.253 -1431 182 167 173
-593.008 -626.731 -1432 180 165 171
-590.768 -626.771 -1432 180 165 171
-589.35 -627.686 -1434 181 166 172
-586.697 -627.289 -1433 181 166 174
-584.454 -627.329 -1433 180 165 173
-582.212 -627.368 -1433 179 164 170
-579.968 -627.408 -1433 179 164 170
-577.725 -627.448 -1433 176 164 171
-575.883 -627.925 -1434 174 162 169
-574.037 -628.403 -1435 170 158 165
-572.586 -629.318 -1437 172 160 167
-570.335 -629.358 -1437 176 164 171
-568.083 -629.398 -1437 177 165 172
-566.225 -629.875 -1438 173 161 170
-564.364 -630.352 -1439 172 160 169
-562.498 -630.83 -1440 173 161 170
-560.241 -630.869 -1440 173 161 170
-558.37 -631.347 -1441 175 163 172
-556.882 -632.262 -1443 174 162 171
-555.388 -633.178 -1445 175 163 172
-553.503 -633.655 -1446 174 162 171
-551.235 -633.694 -1446 174 161 172
-549.345 -634.172 -1447 172 159 170
-547.83 -635.087 -1449 169 156 167
-545.932 -635.564 -1450 166 153 164
-544.78 -636.918 -1453 164 151 164
-543.245 -637.834 -1455 164 151 164
-541.704 -638.75 -1457 165 150 163
-539.786 -639.227 -1458 163 148 161
-537.864 -639.705 -1459 163 150 163
-536.673 -641.059 -1462 164 151 164
-534.375 -641.098 -1462 161 149 164
-532.441 -641.575 -1463 157 145 160
-530.866 -642.491 -1465 156 144 159
-528.924 -642.968 -1466 158 146 161
-527.337 -643.884 -1468 160 147 164
-525.386 -644.361 -1469 160 147 164
-524.143 -645.716 -1472 158 146 161
-522.537 -646.631 -1474 159 147 162
-520.923 -647.547 -1476 156 147 163
-519.655 -648.902 -1479 154 145 161
-518.027 -649.818 -1481 157 148 162
-516.74 -651.173 -1484 155 146 160
-514.75 -651.65 -1485 156 147 161
-512.412 -651.688 -1485 159 150 164
-510.417 -652.165 -1486 162 153 167
-508.076 -652.204 -1486 163 154 168
-506.416 -653.12 -1488 163 151 166
-504.071 -653.158 -1488 159 147 162
-502.401 -654.074 -1490 150 141 157
-501.06 -655.428 -1493 144 135 151
-500.376 -657.661 -1498 138 129 147
-499.344 -659.456 -1502 136 127 145
-499.623 -663.006 -1510 135 127 145
-499.547 -666.118 -1517 134 126 144
-498.138 -667.473 -1520 135 127 147
-496.066 -667.951 -1521 136 128 148
-494.64 -669.306 -1524 142 134 154
-493.204 -670.662 -1527 144 136 156
-491.116 -671.139 -1528 144 136 156
-488.704 -671.177 -1528 144 136 156
-486.61 -671.654 -1529 147 139 159
-484.513 -672.131 -1530 151 143 163
-481.781 -671.729 -1529 156 148 168
-479.367 -671.767 -1529 161 153 173
-476.639 -671.365 -1528 160 152 172
-474.226 -671.402 -1528 159 151 171
-471.502 -670.999 -1527 158 150 170
-468.475 -670.158 -1525 156 148 168
-464.231 -667.557 -1519 153 145 165
-849.411 -663.885 -1521 181 169 170
-849.296 -665.678 -1525 179 167 168
-847.501 -666.162 -1526 180 166 167
-844.596 -665.772 -1525 182 168 169
-841.692 -665.382 -1524 184 170 171
-839.343 -665.429 -1524 184 170 171
-835.894 -664.602 -1522 182 168 169
-832.452 -663.776 -1520 183 169 170
-829.015 -662.949 -1518 183 169 170
-825.039 -661.685 -1515 184 170 171
-822.159 -661.294 -1514 186 172 173
-818.197 -660.03 -1511 185 171 172
-815.325 -659.639 -1510 184 170 171
-812.455 -659.249 -1509 185 171 172
-809.589 -658.857 -1508 187 173 174
-807.26 -658.903 -1508 186 172 173
-804.397 -658.512 -1507 185 171 172
-801.536 -658.121 -1506 185 171 172
-798.148 -657.293 -1504 184 170 171
-794.766 -656.464 -1502 184 170 171
-791.916 -656.073 -1501 187 172 173
-787.492 -654.369 -1497 190 175 176
-782.555 -652.229 -1492 186 172 173
-780.248 -652.274 -1492 186 172 173
-776.897 -651.445 -1490 186 171 172
-774.072 -651.052 -1489 186 171 172
-770.732 -650.223 -1487 187 170 172
-767.398 -649.393 -1485 187 170 172
-764.584 -649 -1484 188 171 173
-762.287 -649.045 -1484 190 173 175
-758.965 -648.214 -1482 191 174 176
-755.649 -647.384 -1480 191 174 176
-752.339 -646.554 -1478 192 175 177
-749.035 -645.723 -1476 192 175 177
-745.736 -644.892 -1474 191 174 176
-742.444 -644.061 -1472 193 176 178
-738.654 -642.792 -1469 192 175 177
-735.375 -641.961 -1467 189 172 174
-732.601 -641.567 -1466 192 175 177
-728.834 -640.298 -1463 192 175 177
-726.068 -639.904 -1462 191 174 177
-723.306 -639.509 -1461 191 174 177
-720.546 -639.115 -1460 192 175 176
-717.297 -638.282 -1458 193 176 177
-713.563 -637.012 -1455 193 176 178
-710.816 -636.618 -1454 191 174 176
-707.585 -635.785 -1452 189 172 174
-704.359 -634.952 -1450 188 171 173
-701.139 -634.119 -1448 187 170 173
-697.925 -633.286 -1446 188 171 174
-695.198 -632.89 -1445 191 174 176
