ply
format ascii 1.0
comment Created by Open3D
element vertex 1336
property double x
property double y
property double z
property uchar red
property uchar green
property uchar blue
end_header
-505.322 -428.222 -1073 215 201 202
-504.122 -428.651 -1074 213 199 200
-502.451 -428.681 -1074 212 198 199
-500.779 -428.711 -1074 210 196 199
-499.107 -428.741 -1074 207 193 196
-497.435 -428.771 -1074 209 195 198
-495.763 -428.801 -1074 209 195 198
-494.09 -428.831 -1074 209 195 198
-492.417 -428.861 -1074 210 196 199
-490.287 -428.491 -1073 211 197 200
-488.16 -428.122 -1072 211 197 200
-486.036 -427.752 -1071 209 195 198
-483.914 -427.382 -1070 206 192 195
-481.795 -427.013 -1069 210 196 199
-479.23 -426.243 -1067 213 199 202
-477.119 -425.873 -1066 215 201 204
-475.01 -425.503 -1065 214 200 203
-472.905 -425.133 -1064 211 197 200
-471.687 -425.562 -1065 208 194 197
-469.584 -425.192 -1064 206 192 195
-467.044 -424.422 -1062 205 191 194
-464.51 -423.652 -1060 210 193 195
-461.982 -422.881 -1058 210 193 195
-459.024 -421.711 -1055 206 194 197
-456.51 -420.941 -1053 207 195 198
-454.433 -420.57 -1052 208 196 199
-452.359 -420.199 -1051 209 197 200
-450.288 -419.828 -1050 212 200 203
-448.22 -419.456 -1049 215 203 206
-447.006 -419.885 -1050 220 208 213
-444.941 -419.514 -1049 222 210 215
-442.878 -419.142 -1048 221 210 217
-440.818 -418.771 -1047 218 207 214
-438.761 -418.399 -1046 217 205 210
-436.707 -418.027 -1045 220 208 213
-435.072 -418.056 -1045 225 210 216
-433.852 -418.484 -1046 226 211 217
-432.215 -418.512 -1046 223 211 218
-430.989 -418.941 -1047 221 209 216
-430.17 -419.769 -1049 222 211 221
-428.936 -420.198 -1050 226 215 225
-426.885 -419.825 -1049 225 214 226
-425.242 -419.854 -1049 225 214 226
-423.598 -419.882 -1049 223 216 227
-421.955 -419.91 -1049 224 217 228
-420.711 -420.338 -1050 217 212 223
-419.465 -420.766 -1051 219 214 225
-418.612 -421.595 -1053 222 215 226
-416.962 -421.623 -1053 222 215 226
-415.31 -421.651 -1053 221 213 227
-414.052 -422.08 -1054 220 212 226
-412.398 -422.107 -1054 217 212 225
-410.745 -422.135 -1054 215 210 223
-409.479 -422.564 -1055 216 211 226
-408.21 -422.992 -1056 215 210 225
-406.937 -423.421 -1057 214 209 222
-405.661 -423.849 -1058 214 209 222
-403.618 -423.476 -1057 217 209 225
-402.339 -423.904 -1058 218 210 226
-401.056 -424.333 -1059 215 207 223
-399.015 -423.96 -1058 212 204 220
-396.977 -423.586 -1057 210 201 219
-395.316 -423.614 -1057 208 199 217
-393.655 -423.641 -1057 205 196 212
-391.622 -423.268 -1056 203 194 210
-389.224 -422.493 -1054 201 192 206
-387.566 -422.521 -1054 202 193 207
-385.909 -422.548 -1054 203 194 210
-384.251 -422.575 -1054 203 194 210
-382.23 -422.201 -1053 204 195 209
-380.934 -422.629 -1054 204 195 209
-379.635 -423.057 -1055 205 196 210
-377.617 -422.683 -1054 206 197 211
-375.957 -422.71 -1054 206 197 211
-373.943 -422.335 -1053 205 196 210
-372.284 -422.362 -1053 205 196 210
-370.274 -421.988 -1052 206 197 211
-368.266 -421.613 -1051 201 192 206
-366.262 -421.238 -1050 202 193 207
-364.955 -421.666 -1051 204 195 209
-362.952 -421.291 -1050 206 197 211
-361.297 -421.317 -1050 208 199 213
-359.985 -421.745 -1051 209 200 214
-358.328 -421.771 -1051 208 200 214
-356.331 -421.396 -1050 208 200 214
-354.675 -421.422 -1050 210 201 215
-353.018 -421.448 -1050 211 202 216
-351.362 -421.474 -1050 210 201 215
-349.705 -421.5 -1050 209 200 214
-348.048 -421.525 -1050 210 202 216
-346.72 -421.953 -1051 210 202 216
-345.061 -421.978 -1051 207 202 215
-343.401 -422.004 -1051 207 202 215
-341.741 -422.03 -1051 208 203 216
-340.081 -422.055 -1051 208 203 216
-338.421 -422.081 -1051 208 203 216
-336.761 -422.106 -1051 208 203 216
-335.1 -422.131 -1051 206 201 214
-333.439 -422.156 -1051 205 200 213
-331.777 -422.182 -1051 207 202 215
-330.116 -422.207 -1051 210 205 218
-328.766 -422.633 -1052 213 208 221
-327.414 -423.06 -1053 213 208 221
-325.748 -423.085 -1053 211 207 220
-324.082 -423.11 -1053 210 206 219
-322.722 -423.537 -1054 211 206 219
-321.359 -423.963 -1055 213 208 221
-319.386 -423.586 -1054 212 208 221
-318.019 -424.013 -1055 210 206 219
-316.649 -424.439 -1056 210 206 221
-315.872 -425.669 -1059 211 207 222
-315.381 -427.302 -1063 210 206 223
-315.763 -430.14 -1070 210 206 223
-317.297 -434.587 -1081 204 200 219
-318.212 -438.23 -1090 201 197 216
-319.098 -441.874 -1099 203 201 222
-319.666 -445.116 -1107 202 200 221
-319.347 -447.151 -1112 199 200 220
-318.727 -448.785 -1116 198 199 219
-318.661 -451.223 -1122 195 196 216
-318.576 -453.661 -1128 192 193 213
-606.941 -479.205 -1198 203 183 181
-598.013 -473.638 -1184 203 183 181
-590.135 -468.871 -1172 202 184 181
-583.299 -464.904 -1162 200 182 179
-575.992 -460.536 -1151 201 182 179
-565.726 -453.766 -1134 203 184 181
-553.026 -444.994 -1112 209 189 187
-544.855 -439.823 -1099 212 192 190
-538.208 -435.852 -1089 213 193 190
-534.547 -434.282 -1085 216 196 193
-531.389 -433.112 -1082 220 200 198
-528.73 -432.342 -1080 222 202 200
-526.565 -431.972 -1079 218 201 202
-524.403 -431.602 -1078 219 202 203
-522.244 -431.233 -1077 219 202 204
-520.087 -430.863 -1076 219 202 204
-518.415 -430.893 -1076 219 202 204
-516.743 -430.923 -1076 218 201 203
-515.071 -430.954 -1076 214 200 202
-513.398 -430.984 -1076 211 197 199
-511.25 -430.614 -1075 209 195 195
-509.578 -430.644 -1075 208 194 194
-507.906 -430.674 -1075 211 197 198
-505.292 -429.903 -1073 213 199 200
-504.092 -430.334 -1074 211 197 198
-501.953 -429.963 -1073 210 196 197
-500.283 -429.993 -1073 210 196 198
-499.077 -430.424 -1074 209 195 197
-497.405 -430.454 -1074 209 195 198
-495.733 -430.484 -1074 209 195 198
-494.06 -430.514 -1074 209 195 198
-492.388 -430.544 -1074 209 195 198
-490.258 -430.173 -1073 210 196 199
-488.13 -429.802 -1072 209 195 198
-486.006 -429.431 -1071 208 194 197
-483.885 -429.06 -1070 208 194 197
-481.315 -428.288 -1068 211 197 200
-479.201 -427.916 -1067 213 199 202
-477.089 -427.545 -1066 214 200 204
-474.981 -427.173 -1065 213 199 203
-472.875 -426.801 -1064 210 196 200
-471.658 -427.232 -1065 208 194 198
-469.555 -426.86 -1064 208 194 197
-467.015 -426.087 -1062 208 194 197
-464.481 -425.314 -1060 210 193 196
-461.953 -424.54 -1058 209 192 195
-458.996 -423.366 -1055 206 194 197
-456.481 -422.592 -1053 208 196 199
-454.404 -422.219 -1052 209 197 200
-452.33 -421.847 -1051 210 198 201
-450.26 -421.474 -1050 212 200 203
-448.619 -421.503 -1050 215 203 206
-446.978 -421.532 -1050 220 207 211
-444.912 -421.159 -1049 223 210 214
-442.849 -420.786 -1048 223 211 218
-441.211 -420.814 -1048 221 209 216
-438.733 -420.04 -1046 220 208 213
-436.679 -419.667 -1045 221 209 214
-435.46 -420.097 -1046 224 211 216
-433.823 -420.125 -1046 223 210 215
-432.6 -420.555 -1047 224 212 220
-430.961 -420.583 -1047 224 212 220
-430.142 -421.415 -1049 224 213 223
-428.908 -421.845 -1050 226 215 225
-426.857 -421.471 -1049 225 214 226
-425.213 -421.499 -1049 225 214 226
-423.57 -421.528 -1049 222 215 226
-422.329 -421.958 -1050 221 214 225
-420.683 -421.986 -1050 219 214 225
-419.836 -422.817 -1052 218 213 224
-418.584 -423.248 -1053 218 211 222
-417.329 -423.678 -1054 217 210 221
-416.071 -424.108 -1055 219 211 225
-414.416 -424.136 -1055 221 213 227
-413.153 -424.566 -1056 219 214 227
-411.496 -424.594 -1056 217 212 225
-409.839 -424.622 -1056 215 211 226
-408.955 -425.454 -1058 214 210 225
-407.679 -425.884 -1059 213 209 222
-405.634 -425.509 -1058 213 209 222
-403.972 -425.537 -1058 215 207 223
-402.691 -425.967 -1059 215 207 223
-401.407 -426.397 -1060 213 204 220
-399.364 -426.023 -1059 211 202 218
-396.95 -425.246 -1057 210 201 219
-395.289 -425.273 -1057 209 200 218
-393.255 -424.898 -1056 206 197 213
-391.224 -424.523 -1055 203 194 210
-389.196 -424.148 -1054 203 194 208
-387.539 -424.175 -1054 205 196 210
-386.248 -424.605 -1055 204 195 211
-384.224 -424.23 -1054 203 194 210
-382.566 -424.257 -1054 202 193 207
-381.269 -424.686 -1055 203 194 208
-379.608 -424.713 -1055 205 196 210
-377.59 -424.338 -1054 207 198 212
-375.93 -424.365 -1054 207 198 212
-373.916 -423.989 -1053 206 197 211
-371.904 -423.613 -1052 205 196 210
-369.895 -423.237 -1051 205 196 210
-368.24 -423.263 -1051 205 196 210
-366.584 -423.29 -1051 205 196 210
-364.581 -422.914 -1050 204 195 209
-362.926 -422.94 -1050 204 195 209
-360.927 -422.563 -1049 205 196 210
-359.616 -422.992 -1050 208 199 213
-358.301 -423.421 -1051 209 201 215
-356.644 -423.448 -1051 210 202 216
-354.986 -423.474 -1051 211 202 216
-352.992 -423.097 -1050 212 203 217
-351.67 -423.526 -1051 210 201 215
-350.012 -423.552 -1051 209 200 214
-348.353 -423.578 -1051 208 200 214
-347.024 -424.007 -1052 207 199 213
-345.363 -424.032 -1052 205 200 213
-343.376 -423.655 -1051 206 201 214
-341.716 -423.681 -1051 209 204 217
-340.056 -423.706 -1051 210 205 218
-338.396 -423.732 -1051 210 205 218
-336.415 -423.354 -1050 209 204 217
-334.756 -423.379 -1050 206 201 214
-333.413 -423.807 -1051 204 199 212
-331.752 -423.833 -1051 205 200 213
-330.091 -423.858 -1051 206 201 214
-328.741 -424.286 -1052 208 203 216
-327.078 -424.311 -1052 208 203 216
-325.723 -424.74 -1053 207 203 216
-324.057 -424.764 -1053 207 203 216
-322.391 -424.789 -1053 210 205 218
-321.03 -425.217 -1054 211 206 219
-319.362 -425.242 -1054 210 206 219
-317.995 -425.67 -1055 209 205 218
-316.624 -426.098 -1056 209 205 220
-315.847 -427.333 -1059 209 205 220
-315.357 -428.972 -1063 208 204 221
-316.034 -432.225 -1071 208 204 221
-317.272 -436.286 -1081 204 200 219
-318.479 -440.347 -1091 201 197 216
-319.072 -443.601 -1099 203 201 222
-319.93 -447.259 -1108 203 201 222
-319.609 -449.302 -1113 200 201 221
-319.273 -451.346 -1118 197 198 218
-319.204 -453.794 -1124 195 196 216
-319.398 -456.645 -1131 192 193 213
-597.474 -475.09 -1183 202 182 180
-590.102 -470.706 -1172 201 183 180
-583.265 -466.723 -1162 199 181 178
-575.959 -462.338 -1151 202 182 179
-566.691 -456.345 -1136 205 185 182
-553.491 -447.137 -1113 210 190 188
-543.832 -440.741 -1097 209 189 187
-538.177 -437.557 -1089 209 189 186
-534.023 -435.579 -1084 214 194 191
-530.868 -434.405 -1081 220 200 198
-528.7 -434.033 -1080 221 201 199
-526.535 -433.662 -1079 218 202 201
-523.886 -432.889 -1077 217 201 200
-521.728 -432.517 -1076 217 200 202
-520.057 -432.548 -1076 217 200 202
-517.903 -432.176 -1075 218 201 203
-516.713 -432.609 -1076 217 200 202
-515.04 -432.639 -1076 213 199 202
-513.368 -432.669 -1076 211 197 200
-511.219 -432.298 -1075 209 195 196
-509.548 -432.328 -1075 206 192 193
-507.876 -432.358 -1075 207 193 194
-505.733 -431.986 -1074 211 197 198
-504.062 -432.016 -1074 211 197 198
-502.391 -432.047 -1074 211 197 198
-500.719 -432.077 -1074 211 197 198
-499.047 -432.107 -1074 210 196 197
-497.375 -432.137 -1074 209 195 198
-495.242 -431.765 -1073 207 193 196
-493.57 -431.795 -1073 207 193 196
-491.899 -431.825 -1073 209 195 198
-490.228 -431.855 -1073 210 196 199
-488.1 -431.482 -1072 209 195 198
-485.976 -431.109 -1071 208 194 197
-483.855 -430.737 -1070 208 194 197
-481.736 -430.364 -1069 210 196 199
-479.62 -429.991 -1068 211 197 200
-477.507 -429.618 -1067 214 199 205
-474.951 -428.842 -1065 216 201 207
-472.846 -428.469 -1064 215 200 206
-471.186 -428.499 -1064 213 198 204
-469.084 -428.125 -1063 211 197 200
-466.546 -427.349 -1061 209 195 198
-464.452 -426.976 -1060 209 192 196
-461.924 -426.199 -1058 208 191 195
-458.967 -425.02 -1055 205 193 196
-456.019 -423.84 -1052 208 196 199
-453.944 -423.466 -1051 209 197 200
-452.302 -423.495 -1051 210 198 201
-450.231 -423.121 -1050 212 200 203
-448.59 -423.149 -1050 213 201 204
-446.949 -423.178 -1050 218 204 207
-444.883 -422.804 -1049 223 209 212
-443.243 -422.832 -1049 225 213 220
-441.182 -422.458 -1048 224 212 219
-439.124 -422.083 -1047 222 210 215
-437.068 -421.709 -1046 221 209 214
-435.432 -421.737 -1046 221 209 214
-434.21 -422.169 -1047 221 209 214
-432.571 -422.197 -1047 223 211 220
-430.932 -422.225 -1047 225 213 222
-429.703 -422.657 -1048 227 216 226
-428.471 -423.088 -1049 226 215 225
-426.828 -423.117 -1049 225 214 226
-425.185 -423.145 -1049 225 214 226
-423.542 -423.173 -1049 222 215 226
-422.301 -423.605 -1050 221 214 225
-421.056 -424.036 -1051 217 212 223
-419.808 -424.468 -1052 217 212 223
-418.556 -424.899 -1053 219 212 223
-417.301 -425.331 -1054 219 212 223
-415.649 -425.359 -1054 222 214 228
-414.388 -425.791 -1055 224 216 230
-413.125 -426.223 -1056 221 216 229
-411.858 -426.654 -1057 219 214 227
-410.199 -426.682 -1057 213 209 224
-409.314 -427.518 -1059 213 209 224
-407.652 -427.545 -1059 213 209 222
-405.989 -427.573 -1059 212 208 221
-403.945 -427.197 -1058 214 206 222
-402.663 -427.629 -1059 213 205 221
-401 -427.657 -1059 212 203 219
-398.96 -427.281 -1058 211 202 218
-396.922 -426.904 -1057 213 204 222
-394.887 -426.528 -1056 213 204 222
-393.227 -426.556 -1056 209 200 216
-391.197 -426.179 -1055 206 197 213
-389.538 -426.206 -1055 207 198 212
-387.879 -426.234 -1055 208 199 213
-386.22 -426.261 -1055 205 197 213
-384.561 -426.288 -1055 201 193 209
-382.901 -426.315 -1055 202 193 207
-381.241 -426.342 -1055 203 194 208
-379.222 -425.965 -1054 204 195 209
-377.563 -425.992 -1054 204 195 209
-375.547 -425.615 -1053 205 196 210
-373.889 -425.642 -1053 206 197 211
-371.878 -425.264 -1052 206 197 211
-369.869 -424.887 -1051 205 196 210
-367.863 -424.509 -1050 205 196 210
-366.209 -424.536 -1050 207 198 212
-364.554 -424.562 -1050 207 198 212
-362.554 -424.184 -1049 206 197 211
-361.245 -424.615 -1050 205 196 210
-359.932 -425.046 -1051 206 197 211
-358.616 -425.476 -1052 208 200 214
-356.618 -425.098 -1051 209 201 215
-354.96 -425.124 -1051 211 202 216
-353.302 -425.15 -1051 212 203 217
-351.644 -425.176 -1051 211 202 216
-349.986 -425.202 -1051 210 201 215
-348.327 -425.228 -1051 208 200 214
-346.998 -425.659 -1052 206 198 212
-345.338 -425.684 -1052 203 198 211
-343.35 -425.306 -1051 206 201 214
-341.69 -425.331 -1051 208 203 216
-340.03 -425.357 -1051 209 204 217
-338.37 -425.382 -1051 209 204 217
-336.389 -425.003 -1050 209 204 217
-334.73 -425.028 -1050 207 202 215
-333.388 -425.458 -1051 206 201 214
-331.411 -425.079 -1050 204 199 212
-329.751 -425.104 -1050 202 197 210
-328.404 -425.534 -1051 203 198 211
-327.053 -425.964 -1052 204 199 212
-325.389 -425.989 -1052 203 199 212
-324.032 -426.419 -1053 204 200 213
-322.367 -426.444 -1053 207 202 215
-320.7 -426.468 -1053 208 203 216
-319.64 -427.303 -1055 207 203 216
-317.97 -427.328 -1055 208 204 217
-316.6 -427.757 -1056 209 205 220
-315.822 -428.997 -1059 209 205 220
-315.629 -431.047 -1064 208 204 221
-315.714 -433.503 -1070 209 205 222
-317.247 -437.984 -1081 205 201 220
-318.162 -441.656 -1090 202 198 217
-319.047 -445.328 -1099 203 201 222
-319.904 -449 -1108 203 201 222
-319.584 -451.051 -1113 199 200 220
-319.533 -453.508 -1119 196 197 217
-319.747 -456.371 -1126 194 195 215
-319.938 -459.233 -1133 193 194 214
-598.451 -477.748 -1185 204 185 183
-590.572 -472.944 -1173 201 183 181
-583.734 -468.945 -1163 199 181 179
-575.926 -464.139 -1151 203 183 179
-564.664 -456.51 -1132 206 186 182
-550.973 -446.863 -1108 210 190 188
-543.305 -442.055 -1096 213 193 191
-537.652 -438.859 -1088 215 195 192
-533.5 -436.873 -1083 217 197 194
-530.346 -435.694 -1080 220 200 198
-528.18 -435.321 -1079 222 202 200
-526.016 -434.948 -1078 217 199 198
-523.369 -434.172 -1076 217 199 198
-521.698 -434.202 -1076 215 200 202
-519.543 -433.829 -1075 215 200 202
-517.873 -433.86 -1075 215 200 201
-516.202 -433.89 -1075 216 201 202
-515.01 -434.324 -1076 215 201 204
-512.86 -433.951 -1075 214 200 203
-511.189 -433.981 -1075 216 201 202
-509.517 -434.012 -1075 216 201 202
-507.845 -434.042 -1075 212 198 199
-505.702 -433.669 -1074 210 196 197
-504.032 -433.699 -1074 211 197 197
-502.36 -433.729 -1074 212 198 198
-500.689 -433.759 -1074 211 197 198
-499.017 -433.789 -1074 210 196 197
-497.345 -433.82 -1074 207 193 196
-495.673 -433.85 -1074 207 193 196
-493.54 -433.476 -1073 208 194 197
-491.869 -433.506 -1073 208 194 197
-489.741 -433.132 -1072 207 193 196
-488.071 -433.162 -1072 207 193 196
-485.493 -432.384 -1070 210 196 199
-483.373 -432.009 -1069 213 199 202
-481.256 -431.635 -1068 210 197 200
-479.591 -431.665 -1068 211 198 201
-477.478 -431.29 -1067 213 200 204
-474.922 -430.511 -1065 215 202 206
-472.816 -430.137 -1064 216 202 206
-471.156 -430.166 -1064 215 201 205
-469.055 -429.791 -1063 213 199 202
-466.517 -429.012 -1061 211 197 200
-464.422 -428.637 -1060 212 198 201
-461.894 -427.858 -1058 211 197 200
-458.937 -426.673 -1055 207 195 199
-455.99 -425.489 -1052 208 196 200
-453.915 -425.114 -1051 212 200 203
-451.843 -424.738 -1050 213 201 204
-449.773 -424.362 -1049 213 201 204
-448.134 -424.391 -1049 215 203 206
-446.92 -424.824 -1050 220 206 208
-444.855 -424.449 -1049 226 212 214
-443.215 -424.477 -1049 227 215 221
-441.575 -424.506 -1049 226 214 220
-439.095 -423.725 -1047 223 211 216
-437.458 -423.754 -1047 220 208 213
-435.403 -423.377 -1046 219 207 212
-434.181 -423.811 -1047 220 208 213
-432.13 -423.434 -1046 222 211 221
-430.493 -423.463 -1046 224 213 223
-429.265 -423.896 -1047 227 216 226
-428.034 -424.329 -1048 227 216 226
-426.393 -424.357 -1048 225 214 227
-424.752 -424.385 -1048 225 214 227
-423.514 -424.819 -1049 224 215 227
-422.273 -425.252 -1050 223 214 226
-421.028 -425.685 -1051 224 217 227
-419.78 -426.118 -1052 225 218 228
-418.528 -426.551 -1053 225 218 228
-416.877 -426.579 -1053 224 217 227
-415.621 -427.013 -1054 219 213 226
-414.36 -427.446 -1055 219 213 226
-413.097 -427.879 -1056 218 213 227
-411.83 -428.313 -1057 218 213 227
-410.56 -428.746 -1058 218 214 229
-409.286 -429.179 -1059 215 211 226
-408.009 -429.612 -1060 210 206 219
-405.961 -429.235 -1059 210 206 219
-404.299 -429.263 -1059 216 208 224
-403.016 -429.696 -1060 214 206 222
-401.351 -429.724 -1060 212 203 219
-399.309 -429.346 -1059 212 203 219
-397.27 -428.968 -1058 212 203 221
-395.233 -428.591 -1057 213 204 222
-393.2 -428.213 -1056 211 202 218
-391.169 -427.835 -1055 208 199 215
-389.511 -427.862 -1055 208 199 213
-387.852 -427.889 -1055 208 199 213
-386.193 -427.917 -1055 206 197 213
-384.534 -427.944 -1055 203 194 210
-383.237 -428.377 -1056 204 195 208
-381.576 -428.404 -1056 205 196 209
-379.554 -428.025 -1055 206 197 211
-377.536 -427.647 -1054 205 196 210
-375.877 -427.674 -1054 205 196 210
-374.217 -427.7 -1054 206 197 211
-372.204 -427.321 -1053 206 197 210
-370.194 -426.942 -1052 206 197 210
-368.187 -426.563 -1051 205 196 210
-366.182 -426.184 -1050 206 197 211
-364.528 -426.21 -1050 206 197 211
-362.873 -426.237 -1050 206 197 211
-361.219 -426.263 -1050 206 197 211
-359.906 -426.696 -1051 206 197 211
-358.249 -426.722 -1051 205 197 211
-356.592 -426.748 -1051 207 199 213
-355.272 -427.18 -1052 207 198 212
-353.613 -427.207 -1052 207 198 212
-351.618 -426.827 -1051 205 196 210
-350.293 -427.259 -1052 203 194 208
-348.633 -427.285 -1052 203 195 209
-346.972 -427.311 -1052 203 195 209
-345.312 -427.336 -1052 202 197 210
-343.324 -426.956 -1051 203 198 211
-341.665 -426.982 -1051 206 201 214
-340.005 -427.007 -1051 205 200 213
-338.023 -426.626 -1050 205 200 213
-336.364 -426.652 -1050 204 199 212
-334.705 -426.677 -1050 203 198 211
-333.046 -426.703 -1050 203 198 211
-331.386 -426.728 -1050 204 199 212
-329.726 -426.753 -1050 205 200 213
-328.379 -427.184 -1051 209 203 216
-327.028 -427.616 -1052 208 202 215
-325.673 -428.048 -1053 206 202 215
-324.008 -428.072 -1053 206 202 215
-322.342 -428.097 -1053 208 203 216
-320.676 -428.122 -1053 209 204 217
-319.615 -428.96 -1055 208 204 217
-317.945 -428.985 -1055 207 203 216
-316.875 -429.823 -1057 208 204 217
-316.096 -431.067 -1060 208 204 217
-315.604 -432.719 -1064 209 205 223
-315.984 -435.59 -1071 208 204 222
-317.222 -439.682 -1081 205 201 220
-317.845 -442.961 -1089 204 200 219
-319.022 -447.054 -1099 202 200 221
-319.879 -450.741 -1108 202 200 221
-319.559 -452.8 -1113 200 201 221
-319.508 -455.266 -1119 197 198 218
-319.721 -458.14 -1126 197 196 216
-320.195 -461.42 -1134 194 193 213
-598.922 -480.007 -1186 201 183 181
-591.545 -475.589 -1175 200 182 180
-584.203 -471.17 -1164 199 181 179
-574.392 -464.727 -1148 201 181 176
-561.638 -455.853 -1126 206 186 181
-551.439 -449.002 -1109 211 191 188
-542.778 -443.365 -1095 214 194 191
-537.126 -440.157 -1087 215 195 192
-533.469 -438.568 -1083 217 197 194
-530.315 -437.384 -1080 219 199 197
-528.149 -437.01 -1079 220 200 198
-525.498 -436.231 -1077 220 200 198
-523.825 -436.261 -1077 220 200 198
-521.667 -435.887 -1076 215 201 204
-519.513 -435.512 -1075 215 201 204
-517.842 -435.543 -1075 214 200 201
-516.172 -435.573 -1075 214 200 201
-514.501 -435.604 -1075 215 201 204
-512.83 -435.634 -1075 215 201 204
-511.159 -435.665 -1075 215 198 200
-509.487 -435.695 -1075 215 198 200
-507.343 -435.32 -1074 212 198 199
-505.672 -435.351 -1074 213 199 200
-504.001 -435.381 -1074 213 199 198
-502.33 -435.411 -1074 212 198 197
-501.125 -435.847 -1075 210 196 197
-498.987 -435.472 -1074 208 194 195
-497.315 -435.502 -1074 209 195 198
-495.643 -435.532 -1074 206 192 195
-493.51 -435.157 -1073 207 193 196
-491.381 -434.781 -1072 209 195 198
-489.254 -434.406 -1071 209 195 198
-487.585 -434.436 -1071 208 194 197
-485.009 -433.654 -1069 208 194 197
-482.891 -433.279 -1068 208 194 197
-481.226 -433.308 -1068 207 195 198
-479.112 -432.932 -1067 209 197 200
-477.001 -432.556 -1066 211 199 202
-474.892 -432.18 -1065 211 199 202
-472.787 -431.804 -1064 213 199 202
-471.127 -431.834 -1064 212 198 201
-468.584 -431.051 -1062 211 197 200
-466.487 -430.675 -1061 209 195 198
-464.393 -430.298 -1060 210 198 201
-461.865 -429.516 -1058 210 198 201
-458.473 -427.921 -1054 208 196 201
-455.961 -427.138 -1052 208 196 201
-453.886 -426.761 -1051 210 198 201
-451.814 -426.384 -1050 211 199 202
-449.744 -426.007 -1049 211 199 202
-448.105 -426.035 -1049 212 200 203
-446.891 -426.47 -1050 214 200 201
-445.25 -426.499 -1050 222 208 209
-443.609 -426.528 -1050 226 214 219
-441.546 -426.15 -1049 227 215 220
-439.067 -425.367 -1047 224 212 217
-437.429 -425.395 -1047 222 210 215
-435.375 -425.017 -1046 222 210 215
-434.153 -425.452 -1047 221 209 214
-432.101 -425.074 -1046 222 213 223
-430.464 -425.103 -1046 223 214 224
-429.237 -425.537 -1047 227 216 225
-427.598 -425.566 -1047 226 215 224
-425.958 -425.594 -1047 225 213 228
-424.724 -426.029 -1048 226 214 229
-423.486 -426.464 -1049 225 216 228
-422.244 -426.898 -1050 223 214 226
-420.599 -426.927 -1050 223 214 224
-419.352 -427.361 -1051 224 215 225
-418.5 -428.203 -1053 222 215 224
-416.849 -428.231 -1053 220 213 222
-415.592 -428.666 -1054 216 211 224
-414.332 -429.101 -1055 217 212 225
-413.069 -429.536 -1056 219 214 229
-411.802 -429.97 -1057 220 215 230
-410.531 -430.405 -1058 219 214 229
-409.258 -430.84 -1059 216 211 226
-407.981 -431.275 -1060 213 208 221
-406.317 -431.303 -1060 212 207 220
-404.652 -431.331 -1060 214 206 222
-403.368 -431.766 -1061 213 205 221
-401.323 -431.387 -1060 211 203 219
-399.658 -431.415 -1060 211 203 219
-397.242 -430.628 -1058 210 201 219
-395.206 -430.249 -1057 209 200 218
-393.172 -429.87 -1056 205 197 213
-391.142 -429.49 -1055 205 197 213
-389.484 -429.517 -1055 207 199 213
-387.825 -429.545 -1055 209 201 215
-386.532 -429.979 -1056 209 200 216
-384.871 -430.007 -1056 206 197 213
-383.21 -430.034 -1056 204 195 207
-381.549 -430.061 -1056 202 193 205
-379.887 -430.088 -1056 200 191 205
-377.867 -429.708 -1055 201 192 206
-376.206 -429.735 -1055 204 195 209
-374.19 -429.355 -1054 207 198 212
-372.531 -429.381 -1054 207 198 210
-370.519 -429.001 -1053 206 197 209
-368.51 -428.62 -1052 206 197 211
-366.505 -428.239 -1051 207 198 212
-364.849 -428.266 -1051 208 199 213
-362.847 -427.885 -1050 209 200 214
-361.192 -427.911 -1050 208 199 213
-359.879 -428.345 -1051 206 197 211
-358.563 -428.779 -1052 204 196 210
-356.905 -428.805 -1052 205 197 211
-355.246 -428.832 -1052 209 200 214
-353.25 -428.45 -1051 210 201 215
-351.927 -428.884 -1052 208 200 214
-350.267 -428.91 -1052 206 198 212
-348.276 -428.528 -1051 206 198 212
-346.947 -428.962 -1052 206 198 212
-345.286 -428.988 -1052 205 200 213
-343.299 -428.606 -1051 205 200 213
-341.639 -428.632 -1051 207 202 215
-339.979 -428.657 -1051 206 201 214
-337.997 -428.275 -1050 205 200 213
-336.339 -428.3 -1050 204 199 212
-334.998 -428.734 -1051 204 199 212
-333.338 -428.759 -1051 204 199 212
-331.677 -428.784 -1051 204 199 212
-330.015 -428.81 -1051 204 199 212
-328.666 -429.243 -1052 207 199 213
-327.313 -429.676 -1053 209 201 215
-325.648 -429.701 -1053 207 202 215
-324.29 -430.134 -1054 205 200 213
-322.623 -430.159 -1054 206 201 214
-320.955 -430.184 -1054 208 203 216
-319.59 -430.617 -1055 207 203 216
-318.222 -431.05 -1056 207 203 216
-316.85 -431.483 -1057 206 203 213
-316.071 -432.732 -1060 207 204 214
-315.283 -433.982 -1063 208 204 223
-315.665 -436.864 -1070 207 203 222
-316.317 -440.155 -1078 203 199 218
-317.528 -444.263 -1088 201 197 216
-318.997 -448.78 -1099 200 198 219
-319.854 -452.481 -1108 203 201 222
-319.82 -454.956 -1114 200 201 221
-319.768 -457.432 -1120 196 197 217
-319.696 -459.908 -1126 198 196 215
-320.169 -463.201 -1134 196 194 213
-625.934 -500.482 -1232 197 181 180
-607.31 -487.11 -1199 198 180 178
-598.888 -481.863 -1186 201 183 181
-591.512 -477.428 -1175 199 181 179
-584.169 -472.992 -1164 199 181 179
-574.359 -466.523 -1148 200 180 175
-561.606 -457.615 -1126 206 186 181
-550.413 -449.925 -1107 212 192 189
-541.756 -444.266 -1093 213 193 190
-536.601 -441.452 -1086 214 194 191
-533.438 -440.264 -1083 216 196 193
-530.284 -439.075 -1080 219 199 197
-527.629 -438.293 -1078 220 200 198
-525.467 -437.917 -1077 222 202 200
-523.794 -437.947 -1077 221 201 199
-521.152 -437.165 -1075 216 202 205
-518.999 -436.789 -1074 216 202 205
-517.33 -436.819 -1074 215 201 202
-516.141 -437.257 -1075 214 200 201
-514.471 -437.287 -1075 214 200 203
-512.799 -437.318 -1075 215 201 204
-511.128 -437.348 -1075 216 199 201
-508.983 -436.972 -1074 215 198 200
-507.312 -437.002 -1074 212 198 199
-505.642 -437.033 -1074 212 198 199
-503.971 -437.063 -1074 210 196 196
-502.3 -437.093 -1074 209 195 195
-500.628 -437.124 -1074 210 196 198
-498.957 -437.154 -1074 212 198 200
-497.285 -437.184 -1074 212 198 201
-495.613 -437.214 -1074 208 194 197
-493.48 -436.838 -1073 209 195 198
-491.351 -436.461 -1072 212 198 201
-489.224 -436.083 -1071 211 197 200
-487.1 -435.706 -1070 210 196 199
-484.979 -435.329 -1069 210 196 199
-482.861 -434.952 -1068 208 194 197
-480.746 -434.574 -1067 207 195 198
-479.082 -434.604 -1067 208 196 199
-476.971 -434.226 -1066 209 197 200
-474.863 -433.849 -1065 208 196 199
-472.757 -433.471 -1064 209 195 198
-470.654 -433.093 -1063 208 194 197
-468.555 -432.715 -1062 208 194 197
-466.018 -431.93 -1060 207 193 196
-463.926 -431.552 -1059 206 194 196
-460.963 -430.359 -1056 209 197 199
-458.444 -429.573 -1054 210 198 202
-456.365 -429.194 -1053 209 197 201
-453.857 -428.408 -1051 211 199 202
-451.785 -428.029 -1050 211 199 202
-449.716 -427.651 -1049 210 198 202
-448.076 -427.68 -1049 209 197 201
-446.863 -428.116 -1050 212 198 200
-444.797 -427.737 -1049 219 205 207
-443.157 -427.766 -1049 224 212 218
-441.517 -427.795 -1049 226 214 220
-439.038 -427.008 -1047 226 214 219
-437.4 -427.036 -1047 225 213 218
-435.346 -426.657 -1046 224 212 217
-434.125 -427.093 -1047 221 209 214
-432.073 -426.714 -1046 223 213 223
-430.024 -426.335 -1045 226 216 226
-429.208 -427.179 -1047 228 217 226
-427.569 -427.207 -1047 227 216 225
-425.93 -427.236 -1047 226 214 229
-424.695 -427.672 -1048 227 215 230
-423.457 -428.108 -1049 225 216 228
-422.216 -428.545 -1050 224 215 227
-420.571 -428.573 -1050 222 213 224
-419.324 -429.009 -1051 222 213 224
-418.074 -429.446 -1052 219 212 222
-416.821 -429.882 -1053 218 211 221
-415.564 -430.319 -1054 218 213 226
-414.304 -430.755 -1055 220 215 228
-413.041 -431.192 -1056 222 217 231
-411.774 -431.628 -1057 222 217 231
-410.503 -432.065 -1058 220 215 229
-409.23 -432.501 -1059 217 212 226
-407.952 -432.938 -1060 213 208 221
-406.289 -432.966 -1060 211 206 219
-405.006 -433.402 -1061 211 203 219
-403.34 -433.43 -1061 212 204 220
-401.674 -433.458 -1061 212 204 221
-399.631 -433.077 -1060 211 203 220
-397.59 -432.697 -1059 213 204 222
-395.552 -432.316 -1058 209 200 218
-393.145 -431.526 -1056 204 196 212
-391.115 -431.145 -1055 203 195 211
-389.456 -431.173 -1055 205 197 212
-388.165 -431.609 -1056 208 200 215
-386.504 -431.636 -1056 211 202 218
-384.844 -431.663 -1056 212 203 219
-383.183 -431.691 -1056 206 197 209
-381.883 -432.127 -1057 201 192 204
-379.86 -431.745 -1056 198 189 203
-377.84 -431.363 -1055 200 191 205
-375.823 -430.982 -1054 204 195 209
-374.164 -431.008 -1054 206 197 211
-372.504 -431.035 -1054 207 198 211
-370.492 -430.653 -1053 206 197 210
-368.484 -430.271 -1052 205 196 210
-366.827 -430.298 -1052 206 197 211
-364.822 -429.915 -1051 209 200 214
-363.166 -429.942 -1051 212 203 217
-361.51 -429.968 -1051 211 202 216
-360.196 -430.404 -1052 207 198 212
-358.537 -430.43 -1052 205 197 211
-356.878 -430.457 -1052 206 198 212
-355.219 -430.483 -1052 210 201 215
-353.224 -430.1 -1051 211 202 216
-351.901 -430.535 -1052 211 203 217
-349.908 -430.152 -1051 209 201 215
-348.25 -430.178 -1051 207 199 213
-346.921 -430.613 -1052 208 200 214
-345.26 -430.639 -1052 206 201 214
-343.273 -430.256 -1051 205 200 213
-341.938 -430.691 -1052 206 201 214
-340.277 -430.717 -1052 207 202 215
-338.294 -430.333 -1051 207 202 215
-336.633 -430.358 -1051 206 201 214
-334.973 -430.384 -1051 204 199 212
-333.629 -430.819 -1052 204 199 212
-331.967 -430.844 -1052 204 199 212
-330.618 -431.279 -1053 205 200 213
-328.953 -431.304 -1053 211 203 217
-327.599 -431.739 -1054 213 205 219
-326.242 -432.174 -1055 209 204 217
-324.573 -432.199 -1055 205 200 213
-322.904 -432.224 -1055 208 203 216
-321.235 -432.249 -1055 210 205 218
-319.868 -432.683 -1056 208 204 217
-318.197 -432.708 -1056 207 203 216
-316.826 -433.142 -1057 208 205 215
-315.749 -433.987 -1059 207 204 214
-314.962 -435.241 -1062 207 203 222
-315.345 -438.135 -1069 205 201 220
-315.999 -441.438 -1077 202 198 217
-317.503 -445.972 -1088 199 195 214
-318.972 -450.506 -1099 198 196 217
-319.54 -453.811 -1107 201 199 220
-319.795 -456.706 -1114 198 199 219
-319.457 -458.781 -1119 197 198 218
-319.67 -461.677 -1126 200 198 218
-320.708 -465.802 -1136 198 196 216
-618.278 -496.292 -1217 197 181 180
-606.263 -488.171 -1197 199 181 179
-598.349 -483.311 -1185 200 182 180
-590.974 -478.858 -1174 197 179 177
-583.132 -473.997 -1162 198 180 178
-573.826 -467.911 -1147 200 180 175
-561.574 -459.377 -1126 206 186 181
-549.386 -450.841 -1105 211 191 188
-541.229 -445.569 -1092 212 192 189
-537.064 -443.56 -1087 212 192 189
-533.407 -441.958 -1083 215 195 192
-530.253 -440.765 -1080 219 199 197
-527.598 -439.98 -1078 221 201 199
-525.436 -439.602 -1077 223 203 201
-522.791 -438.817 -1075 223 203 201
-520.636 -438.439 -1074 218 204 207
-518.485 -438.062 -1073 217 203 206
-516.818 -438.092 -1073 216 202 203
-515.15 -438.123 -1073 214 200 201
-513.962 -438.562 -1074 214 200 203
-512.292 -438.592 -1074 214 200 203
-510.622 -438.623 -1074 217 200 202
-508.952 -438.653 -1074 216 199 201
-507.754 -439.092 -1075 214 200 201
-505.611 -438.714 -1074 212 198 199
-503.941 -438.745 -1074 209 195 196
-502.269 -438.775 -1074 207 193 194
-500.598 -438.806 -1074 209 195 198
-498.926 -438.836 -1074 211 197 200
-496.792 -438.458 -1073 211 197 200
-495.121 -438.488 -1073 206 192 195
-493.45 -438.518 -1073 207 193 196
-491.321 -438.139 -1072 211 197 200
-489.194 -437.761 -1071 212 198 201
-487.07 -437.382 -1070 213 199 202
-484.949 -437.003 -1069 213 199 202
-482.831 -436.625 -1068 211 197 200
-481.166 -436.655 -1068 204 192 195
-479.052 -436.275 -1067 205 193 196
-476.941 -435.897 -1066 206 194 197
-474.833 -435.517 -1065 205 193 196
-472.727 -435.138 -1064 207 193 196
-470.625 -434.759 -1063 208 194 197
-468.525 -434.379 -1062 209 195 198
-465.989 -433.591 -1060 210 196 199
-463.458 -432.802 -1058 206 194 195
-460.934 -432.013 -1056 208 196 197
-458.85 -431.633 -1055 207 195 198
-456.336 -430.844 -1053 207 195 198
-453.828 -430.055 -1051 208 196 199
-451.756 -429.675 -1050 209 197 200
-449.687 -429.295 -1049 210 198 203
-448.048 -429.323 -1049 211 199 204
-446.408 -429.352 -1049 213 199 202
-444.345 -428.972 -1048 217 203 206
-443.129 -429.41 -1049 221 209 216
-441.068 -429.029 -1048 225 213 220
-439.009 -428.649 -1047 226 214 219
-437.372 -428.677 -1047 226 214 219
-435.318 -428.297 -1046 225 213 218
-434.096 -428.735 -1047 222 210 215
-432.045 -428.354 -1046 223 212 222
-430.407 -428.382 -1046 227 216 226
-429.18 -428.82 -1047 229 218 227
-427.132 -428.439 -1046 229 218 227
-425.901 -428.877 -1047 229 217 232
-424.667 -429.315 -1048 228 216 231
-423.025 -429.343 -1048 224 215 227
-421.786 -429.781 -1049 223 214 226
-420.543 -430.219 -1050 223 214 226
-418.897 -430.248 -1050 223 214 226
-417.649 -430.686 -1051 221 214 225
-416.397 -431.124 -1052 221 214 225
-415.142 -431.562 -1053 221 216 229
-413.883 -432 -1054 223 218 231
-412.621 -432.438 -1055 223 218 231
-411.356 -432.876 -1056 223 218 231
-410.087 -433.314 -1057 221 216 229
-408.815 -433.752 -1058 217 212 225
-407.54 -434.19 -1059 213 208 221
-406.261 -434.628 -1060 210 205 218
-404.596 -434.656 -1060 209 201 217
-402.932 -434.684 -1060 210 202 218
-401.646 -435.122 -1061 212 204 222
-399.603 -434.74 -1060 212 204 222
-397.562 -434.358 -1059 207 199 217
-395.524 -433.975 -1058 205 197 215
-393.49 -433.593 -1057 205 197 213
-391.458 -433.21 -1056 205 197 213
-389.798 -433.238 -1056 205 197 213
-388.138 -433.265 -1056 207 199 215
-386.477 -433.293 -1056 209 200 216
-384.816 -433.32 -1056 208 199 215
-383.155 -433.347 -1056 207 198 210
-381.494 -433.374 -1056 204 195 207
-379.473 -432.991 -1055 201 192 206
-377.455 -432.608 -1054 203 194 208
-375.796 -432.635 -1054 206 197 211
-374.137 -432.662 -1054 207 198 212
-372.477 -432.689 -1054 207 198 212
-370.817 -432.716 -1054 205 196 210
-369.158 -432.743 -1054 204 195 209
-367.497 -432.77 -1054 205 196 210
-365.837 -432.796 -1054 208 199 213
-363.831 -432.412 -1053 211 202 216
-361.827 -432.028 -1052 210 202 216
-360.169 -432.055 -1052 209 201 215
-358.511 -432.081 -1052 208 200 214
-356.852 -432.107 -1052 207 199 213
-355.193 -432.134 -1052 209 200 214
-353.198 -431.749 -1051 210 201 215
-351.54 -431.775 -1051 210 202 216
-350.215 -432.212 -1052 209 201 215
-348.555 -432.238 -1052 206 198 212
-346.895 -432.264 -1052 206 198 212
-345.234 -432.29 -1052 205 200 213
-343.574 -432.316 -1052 204 199 212
-341.913 -432.342 -1052 206 201 214
-340.251 -432.368 -1052 208 203 216
-338.268 -431.982 -1051 209 204 217
-336.608 -432.008 -1051 207 202 215
-335.266 -432.444 -1052 205 200 213
-333.604 -432.47 -1052 204 199 212
-332.257 -432.906 -1053 205 200 213
-330.593 -432.932 -1053 205 200 213
-328.928 -432.957 -1053 214 206 220
-327.885 -433.805 -1055 215 207 221
-326.216 -433.83 -1055 209 204 217
-324.856 -434.266 -1056 206 201 214
-322.879 -433.88 -1055 209 204 217
-321.21 -433.905 -1055 210 205 218
-319.844 -434.341 -1056 207 203 216
-318.474 -434.777 -1057 208 204 217
-316.801 -434.802 -1057 209 206 216
-315.724 -435.649 -1059 208 205 215
-314.937 -436.908 -1062 207 203 222
-315.32 -439.813 -1069 206 202 221
-315.974 -443.129 -1077 203 199 218
-317.186 -447.269 -1087 200 196 215
-318.657 -451.82 -1098 198 196 218
-319.226 -455.137 -1106 200 198 220
-319.483 -458.044 -1113 198 199 219
-319.146 -460.127 -1118 197 198 218
-319.361 -463.033 -1125 200 198 219
-320.118 -466.763 -1134 198 196 217
-605.722 -489.634 -1196 199 181 179
-597.809 -484.755 -1184 198 180 178
-590.941 -480.695 -1174 196 177 175
-583.6 -476.224 -1163 198 179 177
-573.793 -469.706 -1147 202 182 177
-561.043 -460.729 -1125 207 187 182
-548.858 -452.161 -1104 212 192 189
-541.198 -447.277 -1092 213 193 190
-536.539 -444.851 -1086 213 193 190
-532.884 -443.243 -1082 214 194 191
-529.731 -442.045 -1079 218 198 196
-527.567 -441.667 -1078 220 200 198
-524.917 -440.878 -1076 221 201 199
-522.76 -440.499 -1075 224 204 202
-520.606 -440.12 -1074 220 206 209
-518.938 -440.151 -1074 218 204 207
-517.269 -440.181 -1074 215 201 202
-515.6 -440.212 -1074 214 200 201
-513.931 -440.243 -1074 214 200 203
-512.738 -440.683 -1075 215 201 204
-511.067 -440.714 -1075 218 201 203
-509.396 -440.745 -1075 217 200 202
-507.724 -440.775 -1075 214 200 201
-506.052 -440.806 -1075 212 198 199
-504.379 -440.836 -1075 208 194 195
-502.707 -440.867 -1075 207 193 194
-500.568 -440.487 -1074 208 194 197
-498.896 -440.517 -1074 208 194 197
-496.761 -440.138 -1073 206 192 195
-495.091 -440.168 -1073 202 188 191
-493.42 -440.198 -1073 203 189 192
-491.29 -439.818 -1072 207 193 196
-489.164 -439.438 -1071 209 195 198
-487.04 -439.058 -1070 212 198 201
-484.919 -438.677 -1069 213 200 203
-482.801 -438.297 -1068 210 197 200
-480.686 -437.917 -1067 209 197 200
-479.022 -437.947 -1067 209 197 200
-476.911 -437.566 -1066 209 197 200
-474.803 -437.185 -1065 208 196 199
-472.698 -436.805 -1064 207 193 196
-470.595 -436.424 -1063 205 191 194
-468.054 -435.632 -1061 205 191 194
-465.52 -434.841 -1059 207 193 196
-463.429 -434.459 -1058 207 195 196
-460.904 -433.667 -1056 206 194 195
-458.821 -433.286 -1055 206 194 197
-456.307 -432.494 -1053 207 195 198
-453.799 -431.702 -1051 209 197 200
-451.727 -431.32 -1050 208 196 199
-449.658 -430.938 -1049 208 196 201
-448.019 -430.967 -1049 212 200 205
-445.954 -430.585 -1048 212 198 201
-444.316 -430.614 -1048 215 201 204
-442.677 -430.643 -1048 219 207 214
-440.618 -430.261 -1047 224 212 219
-438.981 -430.289 -1047 225 213 218
-437.343 -430.318 -1047 225 213 218
-435.289 -429.936 -1046 225 213 218
-433.653 -429.964 -1046 225 213 218
-431.603 -429.582 -1045 225 214 224
-429.967 -429.61 -1045 227 216 226
-428.742 -430.05 -1046 228 217 226
-427.104 -430.078 -1046 230 219 228
-425.873 -430.518 -1047 230 220 234
-424.639 -430.958 -1048 229 219 233
-423.401 -431.397 -1049 224 215 227
-421.757 -431.426 -1049 222 213 225
-420.114 -431.454 -1049 224 215 227
-419.268 -432.305 -1051 225 216 228
-417.621 -432.333 -1051 224 217 228
-416.369 -432.773 -1052 223 216 227
-415.114 -433.212 -1053 223 217 230
-413.855 -433.652 -1054 223 217 230
-412.202 -433.68 -1054 221 216 229
-411.328 -434.531 -1056 221 216 229
-410.059 -434.971 -1057 219 214 227
-408.787 -435.411 -1058 217 212 225
-407.511 -435.85 -1059 215 210 223
-406.232 -436.29 -1060 212 207 220
-404.568 -436.318 -1060 209 201 217
-402.904 -436.346 -1060 208 200 216
-401.24 -436.374 -1060 211 203 221
-399.575 -436.402 -1060 211 203 221
-397.534 -436.018 -1059 209 201 219
-395.497 -435.634 -1058 206 198 216
-393.462 -435.25 -1057 203 195 211
-391.43 -434.866 -1056 201 193 209
-389.77 -434.894 -1056 201 193 209
-388.478 -435.333 -1057 205 197 213
-386.816 -435.361 -1057 209 200 216
-384.789 -434.976 -1056 210 201 217
-383.128 -435.004 -1056 207 198 211
-381.467 -435.031 -1056 204 195 208
-379.446 -434.646 -1055 202 193 207
-377.428 -434.261 -1054 203 194 208
-375.769 -434.288 -1054 206 197 211
-374.11 -434.315 -1054 207 198 212
-372.804 -434.755 -1055 207 198 212
-370.791 -434.369 -1054 206 197 211
-368.78 -433.984 -1053 206 197 211
-367.122 -434.011 -1053 207 198 212
-365.81 -434.45 -1054 207 198 212
-363.804 -434.064 -1053 207 198 212
-361.801 -433.679 -1052 206 198 212
-360.143 -433.705 -1052 208 200 214
-358.825 -434.144 -1053 210 202 216
-357.165 -434.17 -1053 208 200 214
-355.167 -433.784 -1052 208 199 213
-353.508 -433.811 -1052 208 199 213
-351.848 -433.837 -1052 209 201 215
-350.189 -433.863 -1052 209 201 215
-348.529 -433.889 -1052 206 198 212
-346.869 -433.915 -1052 205 197 211
-345.208 -433.941 -1052 204 199 212
-343.548 -433.967 -1052 204 199 212
-341.887 -433.993 -1052 207 202 215
-340.226 -434.019 -1052 208 203 216
-338.564 -434.044 -1052 208 203 216
-337.223 -434.482 -1053 207 202 215
-335.559 -434.508 -1053 206 201 214
-334.213 -434.946 -1054 206 201 214
-332.547 -434.972 -1054 205 200 213
-330.881 -434.997 -1054 204 199 212
-329.527 -435.435 -1055 209 201 215
-328.17 -435.873 -1056 210 202 216
-326.81 -436.311 -1057 206 201 214
-325.138 -436.336 -1057 206 201 214
-323.16 -435.949 -1056 209 204 217
-321.49 -435.974 -1056 208 203 216
-320.122 -436.411 -1057 206 202 215
-318.75 -436.849 -1058 210 206 219
-317.076 -436.874 -1058 209 206 216
-315.699 -437.312 -1059 210 207 217
-314.912 -438.575 -1062 209 205 224
-315 -441.078 -1068 208 204 223
-315.656 -444.407 -1076 205 201 220
-316.869 -448.562 -1086 202 198 217
-318.051 -452.718 -1096 199 197 219
-318.623 -456.048 -1104 201 199 221
-319.17 -459.378 -1112 198 199 219
-319.12 -461.882 -1118 197 198 218
-319.335 -464.799 -1125 199 197 218
-604.674 -490.682 -1194 199 181 179
-597.27 -486.196 -1183 199 181 179
-589.9 -481.709 -1172 198 178 175
-582.062 -476.81 -1160 198 178 175
-572.259 -470.267 -1144 201 181 176
-561.01 -462.489 -1125 207 187 182
-548.826 -453.888 -1104 212 192 189
-541.166 -448.986 -1092 214 194 191
-536.508 -446.55 -1086 215 195 192
-532.852 -444.936 -1082 216 196 193
-529.7 -443.734 -1079 218 198 196
-527.047 -442.942 -1077 218 198 196
-524.399 -442.15 -1075 220 200 198
-522.729 -442.181 -1075 223 203 201
-520.575 -441.801 -1074 220 206 209
-518.907 -441.831 -1074 218 204 207
-516.757 -441.451 -1073 216 202 203
-515.569 -441.893 -1074 216 202 203
-513.422 -441.512 -1073 216 202 205
-512.231 -441.954 -1074 215 201 204
-510.561 -441.985 -1074 216 199 201
-509.365 -442.427 -1075 216 199 201
-508.165 -442.869 -1076 214 200 201
-506.021 -442.488 -1075 211 197 198
-504.349 -442.519 -1075 208 194 195
-502.676 -442.549 -1075 208 194 195
-500.537 -442.168 -1074 208 194 197
-498.866 -442.199 -1074 208 194 197
-497.194 -442.229 -1074 206 192 195
-495.06 -441.848 -1073 205 191 194
-493.389 -441.878 -1073 207 193 196
-491.26 -441.497 -1072 209 195 198
-489.134 -441.115 -1071 209 195 198
-487.01 -440.733 -1070 211 197 200
-484.435 -439.939 -1068 210 198 201
-482.771 -439.97 -1068 207 195 198
-480.656 -439.588 -1067 206 194 197
-478.544 -439.206 -1066 207 195 198
-476.881 -439.235 -1066 209 197 200
-474.327 -438.441 -1064 210 198 201
-472.668 -438.471 -1064 211 197 200
-470.566 -438.089 -1063 208 194 197
-468.025 -437.294 -1061 208 194 197
-465.93 -436.912 -1060 209 195 198
-463.837 -436.529 -1059 205 193 194
-461.311 -435.734 -1057 204 192 193
-458.791 -434.939 -1055 205 193 196
-456.277 -434.143 -1053 208 196 199
-454.201 -433.76 -1052 210 198 201
-452.128 -433.377 -1051 209 197 200
-449.629 -432.581 -1049 208 196 201
-447.563 -432.198 -1048 212 200 205
-445.925 -432.227 -1048 214 200 203
-444.287 -432.256 -1048 215 201 204
-442.226 -431.872 -1047 218 206 213
-440.589 -431.901 -1047 223 211 218
-438.533 -431.517 -1046 224 212 217
-437.314 -431.959 -1047 224 212 217
-434.844 -431.162 -1045 224 212 217
-433.21 -431.191 -1045 226 214 219
-431.574 -431.219 -1045 226 215 225
-429.939 -431.248 -1045 227 216 226
-428.713 -431.689 -1046 228 217 226
-426.667 -431.305 -1045 230 219 228
-425.845 -432.159 -1047 229 220 234
-424.61 -432.6 -1048 227 218 232
-423.372 -433.041 -1049 224 215 227
-421.729 -433.07 -1049 223 214 226
-420.085 -433.098 -1049 225 216 228
-418.84 -433.539 -1050 225 216 228
-417.592 -433.981 -1051 223 216 227
-416.341 -434.422 -1052 222 215 226
-415.085 -434.863 -1053 222 214 228
-413.434 -434.891 -1053 222 214 228
-412.174 -435.332 -1054 219 214 227
-410.91 -435.774 -1055 219 214 227
-409.643 -436.215 -1056 219 214 227
-408.372 -436.656 -1057 218 213 226
-407.098 -437.097 -1058 218 213 226
-405.821 -437.539 -1059 216 211 224
-404.159 -437.567 -1059 214 206 222
-402.496 -437.595 -1059 211 203 219
-401.212 -438.036 -1060 210 202 220
-399.547 -438.064 -1060 210 202 220
-397.506 -437.679 -1059 210 202 220
-395.469 -437.293 -1058 209 201 219
-393.434 -436.908 -1057 207 199 215
-391.402 -436.522 -1056 205 197 213
-390.112 -436.963 -1057 204 196 212
-388.45 -436.991 -1057 205 197 213
-386.422 -436.605 -1056 207 198 214
-384.762 -436.632 -1056 208 199 215
-383.101 -436.66 -1056 206 197 211
-381.44 -436.687 -1056 205 196 210
-379.419 -436.301 -1055 204 195 209
-377.4 -435.914 -1054 203 194 208
-375.742 -435.941 -1054 204 195 209
-374.083 -435.969 -1054 204 195 209
-372.777 -436.409 -1055 205 196 210
-370.764 -436.023 -1054 205 196 210
-369.104 -436.049 -1054 207 198 212
-367.444 -436.076 -1054 208 199 213
-365.783 -436.103 -1054 206 197 211
-363.777 -435.716 -1053 202 193 207
-362.118 -435.743 -1053 202 194 208
-360.458 -435.769 -1053 207 199 213
-358.799 -435.796 -1053 210 202 216
-357.138 -435.822 -1053 209 201 215
-355.141 -435.435 -1052 211 202 216
-353.481 -435.461 -1052 210 201 215
-351.822 -435.487 -1052 210 202 216
-350.163 -435.513 -1052 211 203 217
-348.503 -435.54 -1052 208 200 214
-346.843 -435.566 -1052 206 198 212
-345.182 -435.592 -1052 203 198 211
-343.522 -435.617 -1052 204 199 212
-341.861 -435.643 -1052 205 200 213
-340.523 -436.083 -1053 206 201 214
-338.86 -436.109 -1053 206 201 214
-336.877 -435.721 -1052 206 201 214
-335.534 -436.16 -1053 206 201 214
-334.187 -436.6 -1054 207 202 215
-332.837 -437.04 -1055 207 202 215
-331.484 -437.479 -1056 206 201 214
-329.814 -437.505 -1056 207 199 213
-328.456 -437.945 -1057 207 199 213
-327.094 -438.384 -1058 205 200 213
-325.42 -438.409 -1058 208 203 216
-323.747 -438.435 -1058 211 206 219
-322.073 -438.46 -1058 209 204 217
-320.702 -438.899 -1059 208 204 217
-319.027 -438.924 -1059 212 208 221
-317.051 -438.534 -1058 211 208 218
-315.674 -438.974 -1059 211 208 218
-314.887 -440.242 -1062 211 207 226
-314.681 -442.34 -1067 210 206 225
-315.338 -445.681 -1075 207 203 222
-316.553 -449.852 -1085 203 199 218
-317.736 -454.023 -1095 199 197 219
-318.31 -457.366 -1103 199 197 219
-319.432 -461.538 -1113 196 197 217
-319.666 -464.466 -1120 197 198 218
-320.161 -467.809 -1128 198 196 217
-614.109 -498.702 -1209 198 182 181
-603.121 -491.312 -1191 198 180 178
-596.226 -487.221 -1181 200 182 180
-589.866 -483.542 -1172 198 179 177
-582.028 -478.625 -1160 198 179 177
-571.226 -471.231 -1142 201 181 176
-561.476 -464.661 -1126 207 187 182
-549.291 -456.027 -1105 212 192 189
-541.63 -451.106 -1093 215 195 192
-536.476 -448.249 -1086 217 197 194
-532.329 -446.216 -1081 219 199 196
-529.178 -445.009 -1078 219 199 197
-526.526 -444.214 -1076 217 197 195
-524.368 -443.832 -1075 219 199 197
-522.212 -443.45 -1074 222 202 200
-520.06 -443.068 -1073 218 204 207
-517.91 -442.686 -1072 217 203 206
-516.244 -442.717 -1072 216 202 204
-515.058 -443.16 -1073 217 203 205
-513.391 -443.191 -1073 216 202 205
-511.723 -443.222 -1073 215 201 204
-510.53 -443.666 -1074 215 198 200
-509.334 -444.109 -1075 216 199 201
-508.135 -444.553 -1076 214 200 202
-506.461 -444.584 -1076 212 198 200
-504.318 -444.201 -1075 210 196 197
-502.646 -444.232 -1075 208 194 195
-500.507 -443.849 -1074 207 193 196
-498.835 -443.88 -1074 208 194 197
-496.7 -443.497 -1073 209 195 198
-494.569 -443.114 -1072 210 196 199
-492.899 -443.144 -1072 212 198 201
-490.772 -442.761 -1071 213 199 202
-489.103 -442.792 -1071 210 197 200
-486.98 -442.408 -1070 209 196 199
-484.405 -441.612 -1068 208 196 199
-482.741 -441.642 -1068 207 195 198
-481.076 -441.672 -1068 207 195 198
-478.963 -441.288 -1067 208 196 199
-476.852 -440.905 -1066 210 198 201
-474.743 -440.521 -1065 212 200 203
-472.638 -440.137 -1064 211 198 201
-470.536 -439.753 -1063 208 195 198
-468.436 -439.369 -1062 207 193 196
-465.9 -438.571 -1060 208 194 197
-463.808 -438.187 -1059 204 192 194
-461.282 -437.389 -1057 204 192 194
-458.762 -436.591 -1055 203 191 195
-456.681 -436.206 -1054 205 193 197
-454.172 -435.408 -1052 209 197 200
-452.099 -435.023 -1051 210 198 201
-449.6 -434.225 -1049 212 200 204
-447.534 -433.84 -1048 216 204 208
-445.896 -433.869 -1048 218 204 206
-443.834 -433.484 -1047 218 204 206
-442.197 -433.512 -1047 217 205 211
-440.14 -433.127 -1046 221 209 215
-438.504 -433.156 -1046 223 211 216
-436.868 -433.185 -1046 223 211 216
-434.4 -432.385 -1044 222 210 216
-433.181 -432.828 -1045 224 212 218
-431.546 -432.857 -1045 226 215 225
-429.91 -432.885 -1045 227 216 226
-428.685 -433.328 -1046 229 218 228
-426.639 -432.942 -1045 230 219 229
-425.816 -433.799 -1047 226 217 231
