ply
format ascii 1.0
comment Created by Open3D
element vertex 1458
property double x
property double y
property double z
property uchar red
property uchar green
property uchar blue
end_header
-557.535 -756.395 -1141 21 21 25
-554.802 -755.113 -1139 23 23 27
-551.103 -752.504 -1135 25 25 29
-548.384 -751.221 -1133 24 24 28
-545.189 -749.274 -1130 24 24 28
-542.003 -747.328 -1127 23 23 27
-537.867 -744.054 -1122 23 23 27
-534.702 -742.107 -1119 22 22 26
-531.546 -740.159 -1116 22 22 26
-528.399 -738.21 -1113 23 23 27
-525.261 -736.262 -1110 24 24 28
-523.075 -735.64 -1109 22 22 26
-520.891 -735.017 -1108 23 23 27
-519.18 -735.058 -1108 27 27 31
-516.067 -733.108 -1105 28 28 32
-514.359 -733.149 -1105 28 28 32
-512.188 -732.526 -1104 30 30 34
-510.481 -732.566 -1104 27 27 31
-508.313 -731.942 -1103 24 24 28
-506.148 -731.319 -1102 26 26 30
-503.986 -730.694 -1101 27 25 32
-502.283 -730.734 -1101 27 25 32
-500.579 -730.774 -1101 26 25 32
-498.876 -730.813 -1101 27 26 33
-498.075 -732.18 -1103 28 27 34
-496.818 -732.883 -1104 25 24 31
-495.557 -733.586 -1105 19 20 26
-493.846 -733.625 -1105 15 16 22
-492.135 -733.664 -1105 20 19 26
-490.423 -733.703 -1105 29 28 35
-488.269 -733.077 -1104 34 33 40
-486.118 -732.452 -1103 30 29 36
-484.848 -733.154 -1104 26 25 32
-483.137 -733.193 -1104 27 26 33
-481.426 -733.23 -1104 27 26 33
-479.714 -733.269 -1104 25 24 31
-478.436 -733.971 -1105 26 25 32
-477.154 -734.673 -1106 24 23 30
-475.438 -734.71 -1106 23 22 30
-473.722 -734.748 -1106 24 23 31
-472.007 -734.786 -1106 25 24 32
-470.29 -734.823 -1106 23 22 30
-468.998 -735.525 -1107 22 21 29
-467.279 -735.562 -1107 23 22 30
-465.561 -735.599 -1107 24 23 31
-464.261 -736.301 -1108 24 23 31
-462.123 -735.673 -1107 23 22 30
-459.988 -735.045 -1106 22 21 29
-457.856 -734.417 -1105 21 20 28
-456.139 -734.453 -1105 22 21 29
-454.422 -734.489 -1105 22 21 29
-451.885 -733.196 -1103 22 21 29
-450.171 -733.232 -1103 23 23 31
-448.457 -733.268 -1103 21 21 29
-446.742 -733.304 -1103 20 22 29
-444.623 -732.675 -1102 21 23 30
-442.91 -732.71 -1102 22 24 31
-441.596 -733.41 -1103 22 24 31
-439.482 -732.781 -1102 23 25 31
-437.767 -732.816 -1102 24 26 32
-436.052 -732.851 -1102 24 26 33
-433.944 -732.221 -1101 24 26 33
-431.837 -731.591 -1100 25 27 34
-429.734 -730.96 -1099 25 27 34
-428.023 -730.994 -1099 25 27 34
-426.312 -731.029 -1099 25 27 34
-424.6 -731.063 -1099 26 28 35
-422.504 -730.432 -1098 25 27 34
-421.177 -731.131 -1099 24 26 33
-419.465 -731.165 -1099 23 25 32
-417.752 -731.199 -1099 24 26 33
-416.04 -731.232 -1099 25 27 34
-414.704 -731.931 -1100 25 27 34
-413.74 -733.296 -1102 24 26 33
-412.396 -733.995 -1103 25 27 34
-411.421 -735.359 -1105 24 26 33
-410.069 -736.058 -1106 25 26 36
-409.082 -737.422 -1108 23 24 34
-407.722 -738.121 -1109 21 22 32
-406.724 -739.485 -1111 24 25 35
-405.72 -740.849 -1113 29 31 39
-404.709 -742.213 -1115 28 30 38
-404.053 -744.243 -1118 26 28 35
-403.748 -746.939 -1122 26 28 35
-403.429 -749.635 -1126 28 30 37
-403.455 -752.997 -1131 23 25 32
-402.755 -755.027 -1134 20 22 29
-402.045 -757.057 -1137 20 22 29
-400.973 -758.422 -1139 20 22 29
-399.895 -759.787 -1141 20 22 29
-398.461 -760.485 -1142 21 23 31
-397.025 -761.184 -1143 21 23 31
-395.93 -762.548 -1145 22 23 35
-394.485 -763.247 -1146 22 23 35
-393.379 -764.611 -1148 23 24 34
-392.267 -765.975 -1150 22 23 33
-391.827 -768.672 -1154 22 23 33
-392.051 -772.701 -1160 23 24 34
-392.592 -777.396 -1167 24 25 35
-603.308 -777.952 -1172 27 27 31
-598.94 -774.679 -1167 24 24 28
-595.099 -772.07 -1163 23 23 27
-592.29 -770.788 -1161 22 22 26
-589.488 -769.506 -1159 21 21 25
-586.183 -767.56 -1156 23 23 25
-583.899 -766.941 -1155 24 24 26
-581.618 -766.322 -1154 24 24 28
-578.837 -765.039 -1152 21 21 25
-576.062 -763.756 -1150 20 20 24
-573.791 -763.136 -1149 21 21 25
-570.529 -761.188 -1146 21 21 25
-569.26 -761.897 -1147 20 20 24
-566.999 -761.277 -1146 20 20 24
-564.74 -760.656 -1145 18 18 22
-562.484 -760.036 -1144 17 17 21
-559.74 -758.752 -1142 19 19 23
-557.98 -758.795 -1142 21 21 25
-554.758 -756.845 -1139 23 23 27
-551.06 -754.23 -1135 23 23 27
-548.342 -752.944 -1133 23 23 27
-545.147 -750.993 -1130 24 24 28
-541.48 -748.377 -1126 25 25 29
-537.346 -745.096 -1121 25 25 29
-534.182 -743.144 -1118 22 22 26
-531.028 -741.192 -1115 21 21 25
-527.883 -739.239 -1112 22 22 26
-525.219 -737.951 -1110 23 23 27
-522.562 -736.663 -1108 22 22 26
-520.851 -736.704 -1108 24 24 28
-518.202 -735.414 -1106 27 27 31
-516.026 -734.79 -1105 28 28 32
-513.853 -734.166 -1104 27 27 31
-512.147 -734.206 -1104 27 27 31
-510.44 -734.246 -1104 26 26 30
-508.273 -733.621 -1103 25 25 29
-506.108 -732.996 -1102 27 27 31
-503.946 -732.371 -1101 31 28 35
-502.243 -732.41 -1101 33 30 37
-500.085 -731.785 -1100 30 29 36
-498.836 -732.49 -1101 30 29 36
-497.584 -733.194 -1102 30 29 36
-496.329 -733.899 -1103 27 26 33
-495.069 -734.603 -1104 22 21 28
-493.36 -734.642 -1104 20 19 26
-491.651 -734.681 -1104 21 20 27
-489.941 -734.72 -1104 31 30 37
-487.788 -734.093 -1103 35 34 41
-485.639 -733.466 -1102 30 29 36
-484.371 -734.17 -1103 28 27 34
-482.661 -734.208 -1103 29 28 35
-481.388 -734.913 -1104 29 28 35
-480.111 -735.616 -1105 27 26 33
-478.398 -735.654 -1105 26 25 32
-477.116 -736.358 -1106 24 23 30
-475.83 -737.061 -1107 23 22 30
-473.685 -736.433 -1106 24 23 31
-471.969 -736.471 -1106 24 23 31
-470.678 -737.174 -1107 23 22 30
-469.384 -737.878 -1108 22 21 29
-467.664 -737.915 -1108 23 22 30
-465.524 -737.286 -1107 22 21 29
-464.224 -737.989 -1108 23 22 30
-462.086 -737.36 -1107 24 23 31
-459.951 -736.73 -1106 23 22 30
-457.819 -736.101 -1105 23 22 30
-456.103 -736.138 -1105 24 23 31
-453.975 -735.508 -1104 25 24 32
-451.85 -734.878 -1103 25 24 32
-450.135 -734.914 -1103 25 24 32
-448.421 -734.95 -1103 23 22 30
-446.706 -734.986 -1103 20 22 29
-444.588 -734.355 -1102 21 23 30
-442.874 -734.39 -1102 22 24 31
-441.561 -735.092 -1103 22 24 31
-439.845 -735.127 -1103 23 25 31
-437.732 -734.496 -1102 25 27 33
-436.017 -734.531 -1102 25 27 34
-433.909 -733.9 -1101 24 26 33
-431.802 -733.268 -1100 24 26 33
-429.699 -732.636 -1099 25 27 34
-427.599 -732.004 -1098 27 29 36
-426.277 -732.705 -1099 28 30 37
-424.566 -732.739 -1099 27 29 36
-422.47 -732.107 -1098 24 26 33
-421.143 -732.807 -1099 25 27 34
-419.431 -732.841 -1099 24 26 33
-417.719 -732.875 -1099 23 25 32
-416.385 -733.576 -1100 24 26 33
-414.67 -733.609 -1100 25 27 34
-413.707 -734.977 -1102 26 28 35
-412.363 -735.677 -1103 26 28 35
-411.015 -736.377 -1104 25 27 34
-410.035 -737.745 -1106 25 26 36
-408.68 -738.445 -1107 23 24 34
-407.689 -739.813 -1109 22 23 33
-406.691 -741.18 -1111 25 26 36
-405.322 -741.88 -1112 29 31 38
-404.313 -743.247 -1114 27 29 36
-404.02 -745.949 -1118 24 26 33
-403.355 -747.984 -1121 25 27 34
-403.038 -750.686 -1125 26 28 35
-403.066 -754.056 -1130 24 26 33
-402.722 -756.757 -1134 23 25 32
-401.658 -758.125 -1136 23 25 32
-400.588 -759.493 -1138 21 23 30
-399.862 -761.528 -1141 22 24 31
-398.429 -762.228 -1142 23 25 32
-396.992 -762.928 -1143 22 24 31
-395.552 -763.628 -1144 23 24 36
-394.453 -764.996 -1146 22 23 35
-393.004 -765.695 -1147 21 22 32
-392.235 -767.731 -1150 21 22 32
-392.135 -771.101 -1155 22 23 33
-392.019 -774.472 -1160 23 24 34
-392.896 -779.845 -1168 24 25 35
-603.262 -779.733 -1172 26 26 30
-598.894 -776.453 -1167 24 24 28
-595.565 -774.503 -1164 23 23 27
-592.755 -773.218 -1162 22 22 26
-589.442 -771.268 -1159 22 22 26
-586.645 -769.982 -1157 24 24 26
-584.359 -769.362 -1156 25 25 27
-582.077 -768.742 -1155 24 24 28
-578.792 -766.79 -1152 22 22 26
-576.017 -765.504 -1150 21 21 24
-573.248 -764.217 -1148 21 21 24
-570.982 -763.597 -1147 22 22 26
-569.216 -763.641 -1147 22 22 26
-566.46 -762.354 -1145 21 21 25
-564.202 -761.732 -1144 19 19 23
-561.948 -761.11 -1143 19 19 23
-559.206 -759.822 -1141 20 20 24
-556.959 -759.2 -1140 21 21 25
-553.741 -757.245 -1137 20 20 24
-550.531 -755.291 -1134 20 20 24
-547.815 -754.001 -1132 22 22 26
-544.621 -752.046 -1129 23 23 27
-540.957 -749.424 -1125 25 25 29
-537.303 -746.802 -1121 24 24 28
-534.14 -744.845 -1118 22 22 26
-530.51 -742.222 -1114 23 23 27
-527.367 -740.265 -1111 25 25 29
-524.705 -738.973 -1109 25 25 29
-522.521 -738.348 -1108 23 23 27
-520.34 -737.723 -1107 25 25 29
-517.693 -736.431 -1105 28 28 32
-515.519 -735.805 -1104 27 27 31
-513.813 -735.846 -1104 26 26 30
-512.107 -735.886 -1104 25 25 29
-510.4 -735.926 -1104 26 26 30
-508.233 -735.3 -1103 27 27 31
-506.527 -735.34 -1103 28 28 32
-503.907 -734.047 -1101 30 27 34
-501.747 -733.42 -1100 32 29 36
-500.046 -733.459 -1100 30 29 36
-498.344 -733.499 -1100 29 28 35
-497.545 -734.872 -1102 30 29 36
-495.839 -734.911 -1102 28 27 34
-495.03 -736.284 -1104 23 22 30
-493.321 -736.323 -1104 19 18 26
-491.166 -735.695 -1103 21 20 27
-489.458 -735.734 -1103 32 31 38
-487.308 -735.106 -1102 35 34 41
-485.16 -734.477 -1101 29 28 35
-483.893 -735.183 -1102 26 25 32
-482.623 -735.888 -1103 28 27 34
-481.35 -736.594 -1104 29 28 35
-480.507 -737.966 -1106 29 28 35
-478.36 -737.337 -1105 28 27 34
-477.509 -738.71 -1107 26 25 32
-475.793 -738.748 -1107 24 23 31
-474.075 -738.786 -1107 24 23 31
-472.358 -738.823 -1107 23 22 30
-470.641 -738.861 -1107 21 20 28
-468.923 -738.898 -1107 21 20 28
-467.205 -738.936 -1107 23 22 30
-465.487 -738.973 -1107 24 22 30
-463.768 -739.01 -1107 24 22 30
-462.049 -739.047 -1107 22 21 29
-459.915 -738.416 -1106 22 21 29
-457.783 -737.785 -1105 25 24 32
-456.066 -737.822 -1105 28 27 35
-453.938 -737.19 -1104 28 28 36
-451.813 -736.559 -1103 26 26 34
-450.099 -736.595 -1103 25 24 32
-448.385 -736.631 -1103 23 22 30
-446.671 -736.667 -1103 20 22 29
-444.956 -736.703 -1103 21 23 30
-443.241 -736.738 -1103 23 23 31
-441.525 -736.773 -1103 23 23 31
-439.411 -736.141 -1102 24 25 31
-437.697 -736.176 -1102 26 27 33
-435.587 -735.543 -1101 26 26 34
-433.874 -735.578 -1101 25 25 33
-431.768 -734.945 -1100 23 25 32
-429.665 -734.312 -1099 25 27 34
-427.565 -733.678 -1098 27 29 36
-426.243 -734.381 -1099 28 30 37
-424.532 -734.415 -1099 27 29 36
-422.82 -734.449 -1099 25 27 34
-421.492 -735.151 -1100 25 27 34
-419.779 -735.186 -1100 26 28 35
-418.065 -735.22 -1100 25 27 34
-416.351 -735.253 -1100 24 26 33
-415.014 -735.955 -1101 25 27 34
-413.673 -736.657 -1102 26 28 35
-412.329 -737.36 -1103 26 28 35
-410.982 -738.061 -1104 25 27 34
-410.002 -739.432 -1106 23 24 35
-408.647 -740.134 -1107 22 23 34
-407.655 -741.504 -1109 22 24 33
-406.658 -742.875 -1111 25 27 36
-405.289 -743.576 -1112 28 30 37
-404.643 -745.616 -1115 26 28 35
-403.626 -746.986 -1117 25 27 34
-402.962 -749.025 -1120 27 29 36
-403.005 -752.402 -1125 26 28 35
-402.676 -755.11 -1129 25 27 34
-402.334 -757.819 -1133 25 27 35
-401.272 -759.189 -1135 25 27 35
-400.203 -760.56 -1137 24 26 33
-399.479 -762.6 -1140 24 26 33
-398.047 -763.301 -1141 24 26 33
-396.959 -764.672 -1143 22 24 31
-395.174 -764.705 -1143 22 23 35
-394.076 -766.075 -1145 21 22 34
-392.972 -767.446 -1147 20 21 31
-392.202 -769.485 -1150 20 21 31
-391.763 -772.194 -1154 22 23 33
-391.311 -774.903 -1158 24 25 35
-392.527 -780.959 -1167 25 26 36
-393.716 -787.014 -1176 25 26 36
-602.701 -780.847 -1171 26 26 30
-598.848 -778.227 -1167 23 23 27
-595.519 -776.272 -1164 23 23 27
-592.709 -774.984 -1162 22 22 26
-589.396 -773.029 -1159 22 22 26
-586.599 -771.74 -1157 22 22 24
-584.314 -771.119 -1156 23 23 25
-581.527 -769.83 -1154 24 24 28
-578.747 -768.541 -1152 22 22 26
-575.972 -767.252 -1150 21 21 23
-573.702 -766.629 -1149 21 21 23
-570.937 -765.339 -1147 21 21 25
-568.675 -764.717 -1146 22 22 26
-566.415 -764.094 -1145 21 21 25
-564.158 -763.471 -1144 21 21 25
-561.412 -762.18 -1142 21 21 25
-558.673 -760.889 -1140 21 21 25
-556.427 -760.265 -1139 21 21 25
-553.21 -758.306 -1136 20 20 24
-550.488 -757.015 -1134 20 20 24
-547.288 -755.055 -1131 22 22 26
-544.096 -753.095 -1128 23 23 27
-540.914 -751.135 -1125 24 24 28
-537.261 -748.506 -1121 23 23 27
-534.098 -746.545 -1118 22 22 26
-530.468 -743.916 -1114 24 24 28
-527.325 -741.955 -1111 26 26 30
-524.191 -739.993 -1108 25 25 29
-522.008 -739.365 -1107 23 23 27
-519.829 -738.739 -1106 25 25 29
-517.652 -738.112 -1105 27 27 31
-515.011 -736.817 -1103 27 27 31
-513.307 -736.857 -1103 26 26 30
-512.066 -737.566 -1104 25 25 29
-510.36 -737.606 -1104 26 26 30
-508.653 -737.646 -1104 27 27 31
-506.487 -737.018 -1103 28 28 32
-503.866 -735.722 -1101 29 26 33
-502.164 -735.762 -1101 30 27 34
-500.006 -735.133 -1100 28 27 34
-498.758 -735.841 -1101 29 28 35
-497.505 -736.549 -1102 31 30 37
-495.8 -736.588 -1102 28 27 34
-494.991 -737.964 -1104 22 21 29
-492.835 -737.335 -1103 18 17 25
-491.127 -737.374 -1103 20 19 26
-488.976 -736.745 -1102 29 28 35
-486.827 -736.115 -1101 31 30 37
-485.121 -736.154 -1101 26 25 32
-483.855 -736.861 -1102 24 23 30
-482.585 -737.568 -1103 24 23 30
-481.747 -738.943 -1105 26 25 32
-480.469 -739.651 -1106 29 28 35
-478.322 -739.02 -1105 29 28 35
-477.471 -740.396 -1107 27 26 33
-475.755 -740.434 -1107 25 24 32
-474.038 -740.471 -1107 23 22 30
-472.32 -740.509 -1107 21 20 28
-470.178 -739.878 -1106 21 20 28
-468.462 -739.915 -1106 22 21 29
-466.746 -739.953 -1106 24 23 31
-465.029 -739.99 -1106 26 23 31
-463.731 -740.697 -1107 25 22 30
-462.013 -740.733 -1107 22 21 29
-459.878 -740.101 -1106 21 20 28
-457.746 -739.469 -1105 24 23 31
-456.03 -739.505 -1105 27 26 34
-454.313 -739.542 -1105 26 28 35
-452.187 -738.909 -1104 26 28 35
-450.471 -738.945 -1104 24 23 31
-448.349 -738.311 -1103 23 22 30
-446.635 -738.348 -1103 21 23 30
-444.92 -738.383 -1103 22 24 31
-443.205 -738.419 -1103 25 24 31
-441.49 -738.455 -1103 24 23 30
-439.376 -737.821 -1102 25 24 31
-437.662 -737.856 -1102 26 25 32
-435.552 -737.221 -1101 27 26 34
-433.839 -737.257 -1101 26 25 33
-431.733 -736.622 -1100 23 25 32
-429.63 -735.987 -1099 24 26 33
-427.919 -736.021 -1099 26 28 35
-426.596 -736.726 -1100 26 28 35
-424.884 -736.76 -1100 25 27 34
-423.171 -736.794 -1100 25 27 34
-421.458 -736.829 -1100 26 28 35
-419.745 -736.863 -1100 26 28 35
-418.031 -736.897 -1100 25 27 34
-416.317 -736.93 -1100 25 27 34
-414.98 -737.634 -1101 26 28 35
-413.639 -738.338 -1102 26 28 35
-412.296 -739.041 -1103 25 27 34
-410.949 -739.745 -1104 24 26 33
-409.969 -741.119 -1106 21 22 34
-408.613 -741.822 -1107 21 22 34
-407.255 -742.525 -1108 20 23 32
-406.259 -743.899 -1110 22 25 34
-405.256 -745.272 -1112 25 28 35
-404.247 -746.646 -1114 25 28 35
-403.593 -748.689 -1117 26 28 35
-402.929 -750.734 -1120 29 31 38
-402.614 -753.448 -1124 27 29 35
-402.643 -756.832 -1129 25 27 33
-401.945 -758.876 -1132 25 26 36
-400.885 -760.25 -1134 25 26 36
-399.819 -761.624 -1136 24 26 33
-399.096 -763.668 -1139 25 27 34
-398.014 -765.042 -1141 25 27 34
-396.579 -765.745 -1142 22 24 31
-395.141 -766.448 -1143 20 21 33
-394.044 -767.822 -1145 20 21 33
-392.939 -769.196 -1147 20 21 31
-391.829 -770.569 -1149 21 22 32
-391.391 -773.284 -1153 23 24 34
-391.278 -776.67 -1158 24 25 35
-392.158 -782.068 -1166 24 25 35
-393.013 -787.467 -1174 24 25 35
-603.169 -783.295 -1172 26 26 30
-598.288 -779.33 -1166 23 23 27
-595.473 -778.04 -1164 22 22 26
-592.153 -776.081 -1161 22 22 26
-589.35 -774.79 -1159 21 21 25
-586.553 -773.498 -1157 21 21 24
-583.763 -772.207 -1155 22 22 25
-581.482 -771.583 -1154 22 22 26
-578.701 -770.291 -1152 21 21 25
-575.927 -768.999 -1150 20 20 22
-573.657 -768.375 -1149 20 20 22
-570.893 -767.083 -1147 21 21 25
-568.631 -766.459 -1146 21 21 25
-566.371 -765.834 -1145 21 21 25
-563.621 -764.54 -1143 22 22 26
-561.368 -763.916 -1142 20 20 24
-558.138 -761.953 -1139 20 20 24
-555.895 -761.328 -1138 21 21 25
-553.167 -760.033 -1136 23 23 27
-549.959 -758.069 -1133 24 24 28
-547.245 -756.775 -1131 24 24 28
-544.053 -754.81 -1128 25 25 29
-540.871 -752.845 -1125 25 25 29
-537.219 -750.211 -1121 23 23 27
-533.579 -747.576 -1117 22 22 26
-529.951 -744.941 -1113 23 23 27
-527.283 -743.644 -1111 24 24 28
-524.149 -741.677 -1108 23 23 27
-521.495 -740.38 -1106 24 24 28
-519.318 -739.751 -1105 25 25 29
-517.611 -739.792 -1105 25 25 29
-514.97 -738.494 -1103 25 25 29
-513.266 -738.535 -1103 26 26 30
-512.026 -739.245 -1104 27 27 31
-510.32 -739.286 -1104 27 27 31
-508.613 -739.326 -1104 27 27 31
-506.447 -738.697 -1103 27 27 31
-504.284 -738.067 -1102 30 27 34
-502.124 -737.437 -1101 31 28 35
-500.421 -737.477 -1101 28 29 35
-498.718 -737.516 -1101 29 30 36
-497.466 -738.226 -1102 29 30 36
-495.761 -738.265 -1102 25 26 32
-494.952 -739.645 -1104 21 20 28
-492.796 -739.014 -1103 19 18 26
-490.643 -738.383 -1102 20 19 27
-488.493 -737.752 -1101 27 26 34
-486.346 -737.121 -1100 28 27 35
-484.642 -737.159 -1100 25 24 32
-483.377 -737.868 -1101 25 24 32
-482.546 -739.247 -1103 25 24 32
-481.709 -740.626 -1105 25 24 32
-480.431 -741.335 -1106 27 26 34
-478.716 -741.373 -1106 28 27 34
-477.002 -741.411 -1106 26 25 32
-475.717 -742.119 -1107 24 23 31
-474 -742.157 -1107 22 21 29
-472.283 -742.195 -1107 21 20 28
-470.141 -741.562 -1106 22 21 29
-468.848 -742.27 -1107 24 23 31
-466.708 -741.637 -1106 25 24 32
-464.992 -741.674 -1106 26 23 31
-463.694 -742.382 -1107 25 22 30
-461.975 -742.419 -1107 23 22 30
-459.841 -741.786 -1106 22 21 29
-457.709 -741.152 -1105 22 21 29
-455.993 -741.188 -1105 23 22 30
-454.277 -741.225 -1105 23 25 32
-452.56 -741.261 -1105 24 26 33
-450.435 -740.627 -1104 24 22 30
-448.313 -739.992 -1103 24 22 30
-446.599 -740.028 -1103 22 24 31
-444.884 -740.064 -1103 24 26 33
-443.169 -740.1 -1103 26 25 32
-441.454 -740.135 -1103 25 24 31
-439.34 -739.5 -1102 25 24 31
-437.229 -738.864 -1101 26 25 32
-435.517 -738.899 -1101 26 25 33
-433.41 -738.263 -1100 26 25 33
-431.306 -737.627 -1099 22 24 31
-429.204 -736.99 -1098 23 25 32
-427.885 -737.696 -1099 25 27 34
-426.174 -737.731 -1099 25 27 34
-424.463 -737.765 -1099 24 26 33
-423.137 -738.471 -1100 24 26 33
-421.424 -738.505 -1100 27 29 37
-419.71 -738.539 -1100 26 28 36
-417.997 -738.573 -1100 24 26 34
-416.662 -739.279 -1101 24 26 34
-415.323 -739.984 -1102 27 29 37
-413.606 -740.018 -1102 26 28 36
-412.262 -740.723 -1103 25 27 35
-410.915 -741.428 -1104 25 27 35
-409.935 -742.805 -1106 22 23 35
-408.211 -742.838 -1106 23 24 36
-406.854 -743.543 -1107 21 24 33
-405.859 -744.92 -1109 21 24 33
-404.859 -746.296 -1111 22 25 32
-403.851 -747.673 -1113 23 26 33
-403.199 -749.721 -1116 25 27 34
-402.896 -752.441 -1120 28 30 37
-402.581 -755.162 -1124 26 28 34
-402.253 -757.882 -1128 24 26 32
-401.913 -760.603 -1132 25 26 36
-400.852 -761.98 -1134 25 26 36
-400.138 -764.029 -1137 23 25 33
-399.063 -765.405 -1139 23 25 33
-397.982 -766.782 -1141 24 26 33
-396.547 -767.487 -1142 22 24 31
-394.763 -767.519 -1142 21 22 34
-394.355 -770.24 -1146 21 22 34
-393.25 -771.617 -1148 21 22 32
-392.82 -774.339 -1152 22 23 33
-392.377 -777.06 -1156 23 24 34
-392.259 -780.453 -1161 23 24 34
-392.462 -784.519 -1167 24 25 35
-392.981 -789.258 -1174 23 24 34
-606.988 -787.708 -1176 30 30 34
-602.607 -784.405 -1171 27 27 31
-597.729 -780.431 -1165 24 24 28
-594.915 -779.138 -1163 23 23 27
-592.107 -777.844 -1161 22 22 26
-588.796 -775.88 -1158 21 21 25
-586.001 -774.586 -1156 21 21 25
-583.718 -773.961 -1155 21 21 25
-580.933 -772.667 -1153 21 21 25
-578.154 -771.371 -1151 20 20 24
-575.882 -770.746 -1150 19 19 21
-573.612 -770.121 -1149 19 19 21
-570.848 -768.825 -1147 20 20 24
-568.586 -768.2 -1146 21 21 25
-565.832 -766.904 -1144 22 22 26
-563.577 -766.278 -1143 22 22 26
-561.324 -765.651 -1142 21 21 25
-558.095 -763.684 -1139 19 19 23
-555.851 -763.057 -1138 19 19 23
-552.636 -761.089 -1135 22 22 26
-549.916 -759.791 -1133 24 24 28
-547.202 -758.493 -1131 25 25 29
-544.011 -756.524 -1128 24 24 28
-540.829 -754.555 -1125 23 23 27
-536.697 -751.243 -1120 21 21 25
-533.059 -748.603 -1116 21 21 25
-529.909 -746.633 -1113 22 22 26
-526.767 -744.662 -1110 23 23 27
-523.635 -742.691 -1107 24 24 28
-521.454 -742.061 -1106 25 25 29
-519.746 -742.102 -1106 25 25 29
-517.57 -741.472 -1105 25 25 29
-515.396 -740.842 -1104 24 24 28
-513.226 -740.212 -1103 25 25 29
-511.521 -740.253 -1103 28 28 32
-509.817 -740.293 -1103 28 28 32
-508.573 -741.005 -1104 27 27 31
-506.407 -740.374 -1103 27 27 31
-504.244 -739.743 -1102 28 25 32
-502.54 -739.783 -1102 28 25 32
-500.836 -739.823 -1102 24 26 32
-499.131 -739.863 -1102 24 26 32
-497.426 -739.902 -1102 24 26 32
-496.171 -740.613 -1103 20 22 28
-494.912 -741.324 -1104 18 17 25
-492.757 -740.692 -1103 18 17 25
-490.604 -740.06 -1102 20 19 27
-488.454 -739.427 -1101 25 24 32
-486.307 -738.794 -1100 27 26 34
-484.603 -738.833 -1100 26 25 33
-483.339 -739.543 -1101 27 26 34
-482.508 -740.926 -1103 26 25 33
-481.235 -741.636 -1104 25 24 32
-480.392 -743.018 -1106 26 25 33
-478.678 -743.056 -1106 26 25 32
-476.964 -743.094 -1106 25 24 31
-475.249 -743.132 -1106 25 24 32
-473.534 -743.17 -1106 23 22 30
-471.818 -743.208 -1106 23 22 30
-470.103 -743.246 -1106 24 23 31
-468.811 -743.956 -1107 24 23 31
-467.093 -743.993 -1107 24 23 31
-465.795 -744.703 -1108 26 23 31
-463.657 -744.068 -1107 25 22 30
-461.939 -744.105 -1107 23 22 30
-459.804 -743.47 -1106 23 22 30
-458.087 -743.507 -1106 22 21 29
-455.957 -742.871 -1105 21 20 28
-454.24 -742.908 -1105 20 22 29
-452.114 -742.272 -1104 21 23 30
-449.991 -741.636 -1103 25 22 30
-448.277 -741.672 -1103 25 22 30
-446.158 -741.036 -1102 23 25 32
-444.445 -741.072 -1102 24 26 33
-442.732 -741.107 -1102 26 25 32
-441.019 -741.143 -1102 25 24 31
-438.906 -740.506 -1101 25 24 31
-437.194 -740.541 -1101 26 25 32
-435.481 -740.577 -1101 24 23 31
-433.375 -739.939 -1100 24 23 31
-431.271 -739.301 -1099 23 25 32
-429.561 -739.336 -1099 24 26 33
-427.85 -739.371 -1099 26 28 35
-426.14 -739.405 -1099 25 27 34
-424.429 -739.44 -1099 25 27 34
-423.102 -740.147 -1100 25 27 34
-421.389 -740.181 -1100 27 28 38
-419.676 -740.216 -1100 26 27 37
-417.963 -740.25 -1100 24 25 35
-416.628 -740.957 -1101 24 25 35
-415.289 -741.664 -1102 24 25 35
-413.572 -741.697 -1102 24 25 35
-412.229 -742.404 -1103 24 25 35
-410.882 -743.111 -1104 25 26 36
-409.531 -743.817 -1105 23 24 36
-408.178 -744.524 -1106 25 26 38
-406.821 -745.23 -1107 22 25 34
-405.826 -746.61 -1109 20 23 32
-404.461 -747.317 -1110 21 24 31
-403.818 -749.37 -1113 22 25 32
-403.166 -751.423 -1116 23 25 32
-402.863 -754.149 -1120 25 27 34
-402.548 -756.875 -1124 24 26 32
-402.22 -759.602 -1128 23 25 31
-401.88 -762.329 -1132 24 25 35
-401.173 -764.382 -1135 25 26 36
-400.105 -765.762 -1137 24 25 35
-399.03 -767.142 -1139 23 24 34
-397.949 -768.522 -1141 23 25 32
-396.167 -768.555 -1141 22 24 31
-395.076 -769.935 -1143 21 22 34
-394.322 -771.988 -1146 20 21 33
-393.217 -773.368 -1148 20 21 31
-392.787 -776.095 -1152 21 22 32
-392.344 -778.823 -1156 24 25 35
-391.889 -781.55 -1160 25 26 36
-392.43 -786.299 -1167 26 27 37
-606.424 -788.821 -1175 30 30 34
-602.046 -785.512 -1170 27 27 31
-597.683 -782.201 -1165 24 24 28
-594.868 -780.904 -1163 23 23 27
-591.551 -778.936 -1160 22 22 26
-588.75 -777.639 -1158 21 21 25
-585.956 -776.342 -1156 22 22 26
-583.167 -775.044 -1154 22 22 26
-580.887 -774.418 -1153 21 21 25
-578.109 -773.119 -1151 21 21 25
-576.337 -773.165 -1151 20 20 22
-574.067 -772.538 -1150 20 20 22
-571.301 -771.24 -1148 21 21 25
-569.037 -770.612 -1147 22 22 26
-566.282 -769.313 -1145 22 22 26
-563.532 -768.014 -1143 22 22 26
-561.28 -767.386 -1142 22 22 26
-558.541 -766.087 -1140 19 19 23
-555.807 -764.786 -1138 17 17 21
-552.593 -762.814 -1135 18 18 22
-549.873 -761.513 -1133 21 21 25
-546.675 -759.54 -1130 22 22 26
-543.485 -757.566 -1127 22 22 26
-540.305 -755.593 -1124 21 21 25
-536.655 -752.946 -1120 20 20 24
-533.017 -750.299 -1116 20 20 24
-529.867 -748.324 -1113 22 22 26
-526.251 -745.677 -1109 24 24 28
-523.12 -743.701 -1106 25 25 29
-520.941 -743.07 -1105 25 25 29
-519.235 -743.111 -1105 24 24 28
-517.061 -742.48 -1104 25 25 29
-514.889 -741.848 -1103 24 24 28
-513.185 -741.889 -1103 25 25 29
-511.481 -741.93 -1103 29 29 33
-509.776 -741.97 -1103 29 29 33
-508.072 -742.011 -1103 26 26 30
-506.367 -742.051 -1103 26 26 30
-504.204 -741.419 -1102 26 23 30
-502.5 -741.459 -1102 26 23 30
-500.342 -740.826 -1101 21 23 29
-499.092 -741.539 -1102 21 23 29
-497.838 -742.251 -1103 21 23 29
-496.131 -742.291 -1103 18 20 26
-494.873 -743.003 -1104 17 16 24
-492.717 -742.37 -1103 18 17 25
-490.565 -741.736 -1102 20 19 27
-488.415 -741.102 -1101 23 22 30
-486.711 -741.141 -1101 24 23 31
-485.006 -741.18 -1101 25 24 32
-483.739 -741.892 -1102 25 24 32
-482.469 -742.604 -1103 25 24 32
-481.196 -743.316 -1104 24 23 31
-479.92 -744.027 -1105 24 23 31
-478.207 -744.066 -1105 24 23 30
-476.925 -744.777 -1106 24 23 30
-475.211 -744.816 -1106 25 24 32
-473.496 -744.854 -1106 24 23 31
-471.781 -744.892 -1106 24 23 31
-470.49 -745.603 -1107 25 24 32
-468.773 -745.641 -1107 25 24 32
-467.477 -746.352 -1108 23 22 30
-465.758 -746.389 -1108 25 23 31
-464.038 -746.427 -1108 25 23 31
-462.319 -746.464 -1108 24 23 31
-460.183 -745.828 -1107 24 23 31
-458.05 -745.191 -1106 23 22 30
-456.332 -745.228 -1106 22 21 29
-454.204 -744.59 -1105 21 21 29
-452.078 -743.953 -1104 21 21 29
-449.955 -743.315 -1103 26 23 31
-447.835 -742.678 -1102 26 23 31
-446.122 -742.714 -1102 23 25 32
-444.409 -742.75 -1102 23 25 32
-442.294 -742.112 -1101 25 24 31
-440.583 -742.147 -1101 25 24 31
-438.871 -742.183 -1101 26 25 32
-437.159 -742.218 -1101 27 26 33
-435.446 -742.254 -1101 24 23 31
-433.34 -741.615 -1100 24 23 31
-431.236 -740.976 -1099 25 25 33
-429.526 -741.011 -1099 27 27 35
-427.816 -741.045 -1099 26 28 35
-426.105 -741.08 -1099 26 28 35
-424.394 -741.115 -1099 27 29 36
-423.068 -741.823 -1100 28 30 37
-421.355 -741.858 -1100 26 27 37
-419.261 -741.217 -1099 26 27 37
-417.929 -741.926 -1100 26 27 37
-416.216 -741.96 -1100 25 26 36
-415.256 -743.343 -1102 22 23 33
-413.539 -743.377 -1102 21 22 32
-412.195 -744.085 -1103 23 24 34
-410.848 -744.793 -1104 25 26 36
-409.498 -745.502 -1105 25 26 37
-408.144 -746.21 -1106 25 26 37
-406.787 -746.918 -1107 22 25 34
-405.793 -748.3 -1109 20 23 32
-404.428 -749.009 -1110 21 24 31
-403.785 -751.066 -1113 22 25 32
-403.132 -753.124 -1116 22 24 31
-402.83 -755.856 -1120 23 25 32
-402.515 -758.589 -1124 25 27 33
-402.187 -761.321 -1128 24 26 32
-401.846 -764.054 -1132 24 25 35
-401.14 -766.112 -1135 24 25 35
-400.072 -767.496 -1137 24 25 35
-398.997 -768.879 -1139 24 25 35
-397.916 -770.261 -1141 24 26 33
-396.481 -770.969 -1142 22 24 31
-394.698 -771.002 -1142 21 22 34
-393.946 -773.06 -1145 20 21 33
-393.185 -775.119 -1148 19 20 30
-392.754 -777.852 -1152 21 22 32
-392.651 -781.26 -1157 25 26 36
-392.87 -785.345 -1163 28 29 39
-394.415 -792.13 -1173 27 28 38
-606.378 -790.606 -1175 30 30 34
-601.485 -786.615 -1169 26 26 30
-598.149 -784.643 -1166 23 23 27
-594.823 -782.67 -1163 22 22 26
-591.505 -780.698 -1160 22 22 26
-588.196 -778.724 -1157 21 21 25
-585.403 -777.424 -1155 22 22 26
-583.121 -776.796 -1154 22 22 26
-580.842 -776.169 -1153 22 22 26
-578.566 -775.541 -1152 22 22 26
-576.292 -774.913 -1151 22 22 24
-573.523 -773.612 -1149 22 22 24
-571.754 -773.657 -1149 22 22 26
-568.993 -772.354 -1147 23 23 27
-566.237 -771.052 -1145 21 21 25
-563.488 -769.75 -1143 21 21 25
-561.236 -769.12 -1142 21 21 25
-558.497 -767.818 -1140 20 20 24
-555.763 -766.515 -1138 17 17 21
-552.55 -764.538 -1135 17 17 21
-549.829 -763.234 -1133 18 18 22
-546.632 -761.257 -1130 18 18 22
-542.96 -758.605 -1126 21 21 25
-539.782 -756.627 -1123 21 21 25
-536.133 -753.974 -1119 23 23 27
-532.974 -751.995 -1116 22 22 26
-529.349 -749.342 -1112 21 21 25
-526.209 -747.362 -1109 22 22 26
-523.078 -745.381 -1106 23 23 27
-520.429 -744.075 -1104 23 23 27
-518.724 -744.117 -1104 22 22 26
-516.551 -743.484 -1103 25 25 29
-514.381 -742.851 -1102 24 24 28
-512.679 -742.892 -1102 25 25 29
-510.976 -742.932 -1102 30 30 34
-509.274 -742.973 -1102 30 30 34
-507.571 -743.014 -1102 26 26 30
-505.867 -743.054 -1102 24 24 28
-504.164 -743.095 -1102 26 23 30
-502.004 -742.46 -1101 29 26 33
-500.302 -742.5 -1101 25 27 33
-499.052 -743.215 -1102 23 25 31
-497.798 -743.929 -1103 22 24 30
-496.092 -743.968 -1103 18 20 26
-494.385 -744.008 -1103 18 17 25
-492.678 -744.047 -1103 19 18 26
-490.526 -743.412 -1102 19 18 26
-488.82 -743.452 -1102 20 19 27
-486.672 -742.816 -1101 20 19 27
-484.967 -742.855 -1101 20 19 27
-483.7 -743.569 -1102 22 21 29
-482.43 -744.281 -1103 24 23 31
-481.158 -744.995 -1104 23 22 30
-479.881 -745.709 -1105 22 21 29
-478.169 -745.747 -1105 22 21 28
-476.887 -746.46 -1106 23 22 29
-475.173 -746.498 -1106 23 22 30
-473.458 -746.536 -1106 24 23 31
-472.169 -747.25 -1107 25 24 32
-470.452 -747.287 -1107 27 26 34
-468.735 -747.325 -1107 27 26 34
-467.018 -747.363 -1107 25 24 32
-465.721 -748.076 -1108 23 22 30
-463.582 -747.438 -1107 24 23 31
-461.864 -747.475 -1107 25 24 32
-459.73 -746.837 -1106 24 23 31
-458.013 -746.874 -1106 23 22 30
-455.883 -746.236 -1105 22 21 29
-454.167 -746.273 -1105 23 22 30
-452.041 -745.634 -1104 24 23 31
-449.918 -744.995 -1103 27 24 32
-447.798 -744.356 -1102 27 24 32
-445.681 -743.716 -1101 23 25 31
-443.97 -743.752 -1101 22 24 30
-442.259 -743.788 -1101 24 23 30
-440.547 -743.824 -1101 25 24 31
-438.437 -743.184 -1100 27 26 33
-437.123 -743.895 -1101 28 27 34
-435.411 -743.931 -1101 29 28 36
-433.305 -743.29 -1100 27 26 34
-431.593 -743.325 -1100 27 26 34
-429.491 -742.684 -1099 29 28 36
-428.17 -743.395 -1100 27 29 36
-426.458 -743.43 -1100 27 29 36
-424.746 -743.464 -1100 27 29 36
-423.034 -743.499 -1100 27 29 36
-421.321 -743.534 -1100 24 25 35
-419.227 -742.892 -1099 25 26 36
-417.515 -742.926 -1099 27 28 38
-416.182 -743.636 -1100 25 26 36
-415.222 -745.022 -1102 22 23 33
-413.505 -745.056 -1102 22 23 33
-411.788 -745.089 -1102 24 25 35
-410.815 -746.475 -1104 24 25 35
-409.464 -747.185 -1105 26 27 37
-407.742 -747.219 -1105 26 27 37
-406.387 -747.928 -1106 22 25 34
-405.394 -749.314 -1108 20 23 32
-404.395 -750.7 -1110 21 24 31
-403.389 -752.086 -1112 21 24 31
-402.738 -754.148 -1115 21 23 30
-402.078 -756.21 -1118 22 24 31
-402.123 -759.625 -1123 25 27 33
-402.154 -763.041 -1128 26 28 34
-401.813 -765.78 -1132 26 27 37
-400.753 -767.166 -1134 25 26 36
-400.039 -769.228 -1137 22 23 33
-398.964 -770.615 -1139 24 25 35
-397.534 -771.324 -1140 25 27 34
-396.101 -772.034 -1141 23 25 32
-394.665 -772.743 -1142 24 25 37
-393.913 -774.806 -1145 21 22 34
-393.494 -777.545 -1149 19 20 30
-393.404 -780.961 -1154 22 23 33
-393.297 -784.378 -1159 27 28 38
-393.851 -789.148 -1166 29 30 40
-395.054 -795.272 -1175 27 28 38
-605.814 -791.715 -1174 29 29 33
-601.953 -789.064 -1170 25 25 29
-597.59 -785.739 -1165 23 23 27
-593.753 -783.087 -1161 22 22 26
-590.949 -781.784 -1159 21 21 25
-588.15 -780.481 -1157 21 21 25
-585.357 -779.178 -1155 20 20 24
-583.076 -778.549 -1154 21 21 25
-580.797 -777.92 -1153 24 24 28
-578.52 -777.29 -1152 25 25 29
-576.248 -776.661 -1151 23 23 26
-574.476 -776.706 -1151 21 21 24
-572.206 -776.076 -1150 20 20 24
-569.444 -774.771 -1148 21 21 25
-566.687 -773.466 -1146 20 20 24
-563.937 -772.161 -1144 21 21 25
-561.683 -771.53 -1143 20 20 24
-558.453 -769.55 -1140 20 20 24
-555.719 -768.243 -1138 20 20 24
-552.506 -766.262 -1135 20 20 24
-549.786 -764.955 -1133 20 20 24
-546.588 -762.973 -1130 22 22 26
-542.917 -760.315 -1126 21 22 26
-539.739 -758.332 -1123 21 22 26
-536.091 -755.674 -1119 22 22 26
-532.455 -753.015 -1115 21 21 25
-529.783 -751.707 -1113 22 22 26
-526.642 -749.722 -1110 23 23 27
-523.51 -747.738 -1107 22 23 26
-520.859 -746.428 -1105 22 23 26
-518.683 -745.794 -1104 23 23 26
-516.51 -745.16 -1103 25 25 28
-514.34 -744.525 -1102 26 26 30
-512.173 -743.891 -1101 26 26 30
-510.936 -744.607 -1102 28 28 32
-509.233 -744.648 -1102 27 27 31
-507.53 -744.688 -1102 24 24 28
-505.827 -744.729 -1102 23 23 27
-504.123 -744.769 -1102 26 24 31
-501.964 -744.133 -1101 25 23 30
-500.716 -744.85 -1102 23 23 31
-499.012 -744.89 -1102 26 26 34
-497.758 -745.605 -1103 26 27 33
-496.052 -745.645 -1103 21 22 28
-494.345 -745.685 -1103 17 16 24
-492.639 -745.725 -1103 16 15 23
-490.486 -745.088 -1102 18 17 25
-488.781 -745.127 -1102 18 17 25
-486.633 -744.49 -1101 18 17 25
-484.928 -744.529 -1101 18 17 25
-483.661 -745.244 -1102 20 19 27
-481.955 -745.283 -1102 23 22 30
-480.683 -745.998 -1103 24 23 31
-479.408 -746.713 -1104 23 22 30
-477.698 -746.751 -1104 23 22 29
-476.418 -747.466 -1105 24 23 30
-474.705 -747.504 -1105 24 23 31
-472.992 -747.543 -1105 24 23 31
-471.705 -748.257 -1106 26 25 33
-469.99 -748.295 -1106 27 26 34
-468.274 -748.333 -1106 27 26 34
-466.98 -749.047 -1107 27 26 34
-465.263 -749.085 -1107 26 25 33
-463.545 -749.123 -1107 25 24 32
-461.41 -748.483 -1106 23 22 30
-459.277 -747.843 -1105 23 22 30
-457.562 -747.881 -1105 23 22 30
-455.846 -747.918 -1105 24 23 31
-454.13 -747.954 -1105 23 22 30
-452.005 -747.314 -1104 22 21 29
-449.882 -746.674 -1103 24 22 30
-447.762 -746.033 -1102 22 20 28
-446.05 -746.069 -1102 21 22 28
-444.337 -746.105 -1102 23 24 30
-442.223 -745.464 -1101 23 22 30
-440.511 -745.5 -1101 24 23 31
-438.401 -744.859 -1100 28 27 34
-436.691 -744.894 -1100 28 27 34
-434.98 -744.93 -1100 27 27 35
-432.875 -744.288 -1099 27 27 35
-431.166 -744.323 -1099 29 28 36
-429.456 -744.358 -1099 29 28 36
-427.746 -744.393 -1099 25 25 33
-426.036 -744.428 -1099 25 25 33
-424.325 -744.462 -1099 24 26 33
-422.614 -744.497 -1099 23 25 32
-420.904 -744.531 -1099 26 28 36
-419.192 -744.565 -1099 26 28 36
-417.481 -744.6 -1099 26 28 36
-416.148 -745.311 -1100 24 26 34
-415.188 -746.7 -1102 23 25 33
-413.471 -746.734 -1102 22 24 32
-411.754 -746.768 -1102 22 24 32
-410.781 -748.157 -1104 22 24 32
-409.431 -748.868 -1105 26 27 38
-408.077 -749.58 -1106 26 27 38
-406.353 -749.613 -1106 24 26 35
-404.995 -750.324 -1107 22 24 33
-403.997 -751.713 -1109 24 26 33
-402.993 -753.102 -1111 24 26 33
-402.344 -755.169 -1114 24 26 34
-402.045 -757.914 -1118 24 26 34
-402.091 -761.337 -1123 30 31 37
-402.121 -764.759 -1128 28 29 35
-401.78 -767.505 -1132 26 28 36
-400.72 -768.894 -1134 24 26 34
-399.654 -770.283 -1136 23 23 32
-398.231 -770.994 -1137 24 24 33
-397.153 -772.383 -1139 24 26 33
-395.721 -773.094 -1140 22 24 31
-394.287 -773.805 -1141 21 22 33
-393.881 -776.551 -1145 21 22 33
-393.119 -778.618 -1148 20 21 31
-393.03 -782.042 -1153 21 22 32
-393.265 -786.144 -1159 24 25 36
-393.818 -790.925 -1166 25 26 37
-395.021 -797.063 -1175 23 25 35
-605.768 -793.497 -1174 28 28 32
-601.392 -790.164 -1169 24 24 28
-597.544 -787.507 -1165 21 21 25
-593.196 -784.174 -1160 21 21 25
-590.393 -782.868 -1158 21 21 25
-587.596 -781.562 -1156 22 22 26
-584.805 -780.255 -1154 20 20 24
-582.525 -779.624 -1153 20 20 24
-580.248 -778.994 -1152 22 22 26
-578.475 -779.039 -1152 25 25 29
-576.703 -779.085 -1152 24 24 28
-574.431 -778.453 -1151 22 22 26
-572.161 -777.822 -1150 21 21 25
-569.895 -777.191 -1149 19 19 23
-567.632 -776.559 -1148 19 19 23
-564.878 -775.251 -1146 20 20 24
-562.13 -773.942 -1144 20 20 24
-558.899 -771.957 -1141 21 21 25
-555.676 -769.971 -1138 21 21 25
-552.949 -768.662 -1136 22 22 26
-549.742 -766.676 -1133 21 21 25
-546.545 -764.689 -1130 21 21 25
-543.357 -762.702 -1127 19 21 25
-540.177 -760.715 -1124 19 21 25
-536.527 -758.05 -1120 21 21 25
-532.89 -755.385 -1116 21 21 25
-529.74 -753.397 -1113 21 21 25
-526.6 -751.409 -1110 23 23 27
-523.941 -750.096 -1108 22 24 26
-521.288 -748.784 -1106 22 24 26
-519.111 -748.149 -1105 24 24 26
-516.937 -747.513 -1104 26 26 28
-514.766 -746.877 -1103 26 26 30
-512.597 -746.241 -1102 26 26 30
-510.895 -746.282 -1102 26 26 30
-509.193 -746.323 -1102 24 24 28
-507.49 -746.363 -1102 23 23 27
-505.787 -746.404 -1102 24 24 28
-504.083 -746.444 -1102 26 25 32
-501.924 -745.807 -1101 26 25 32
-500.676 -746.525 -1102 27 26 34
-498.972 -746.565 -1102 29 28 36
-497.719 -747.282 -1103 29 28 35
-495.563 -746.644 -1102 26 25 32
-493.858 -746.684 -1102 22 21 29
-492.152 -746.724 -1102 19 18 26
-490.447 -746.763 -1102 19 18 26
-488.741 -746.802 -1102 18 17 25
-486.593 -746.164 -1101 18 17 25
-484.889 -746.203 -1101 20 19 27
-483.623 -746.92 -1102 23 22 29
-481.916 -746.959 -1102 24 23 30
-480.645 -747.675 -1103 24 23 30
-479.37 -748.392 -1104 23 22 29
-477.659 -748.43 -1104 23 22 29
-475.948 -748.469 -1104 24 23 30
-474.667 -749.185 -1105 24 23 30
-472.954 -749.223 -1105 24 23 30
-471.24 -749.262 -1105 25 24 32
-469.952 -749.977 -1106 27 26 34
-468.236 -750.016 -1106 27 26 34
-466.943 -750.731 -1107 27 26 34
-465.225 -750.769 -1107 27 26 34
-463.508 -750.807 -1107 26 25 33
-461.373 -750.166 -1106 26 25 33
-459.24 -749.525 -1105 26 25 33
-457.525 -749.562 -1105 26 25 33
-455.809 -749.599 -1105 26 25 33
-453.683 -748.957 -1104 25 24 32
-451.559 -748.316 -1103 24 23 31
-449.438 -747.674 -1102 22 21 28
-447.726 -747.71 -1102 19 18 25
-446.014 -747.747 -1102 21 20 27
-444.301 -747.783 -1102 24 23 30
-442.187 -747.14 -1101 25 24 32
-440.476 -747.176 -1101 25 24 32
-438.366 -746.533 -1100 27 26 33
-436.655 -746.568 -1100 28 27 34
-434.945 -746.604 -1100 25 27 34
-432.84 -745.961 -1099 25 27 34
-431.131 -745.996 -1099 27 26 34
-429.421 -746.031 -1099 26 25 33
-427.711 -746.066 -1099 25 24 32
-426.001 -746.101 -1099 25 24 32
-423.905 -745.456 -1098 25 27 34
-422.58 -746.17 -1099 25 27 34
-420.869 -746.204 -1099 25 28 35
-419.158 -746.239 -1099 25 28 35
-417.827 -746.952 -1100 25 28 35
-416.492 -747.665 -1101 23 26 33
-415.154 -748.378 -1102 22 24 31
-413.812 -749.092 -1103 21 23 30
-412.094 -749.126 -1103 22 24 31
-411.119 -750.518 -1105 24 26 33
-409.768 -751.231 -1106 24 25 37
-408.044 -751.264 -1106 25 26 38
-406.32 -751.298 -1106 24 25 35
-405.327 -752.69 -1108 23 24 34
-404.328 -754.082 -1110 24 26 33
-402.96 -754.794 -1111 23 25 32
-402.311 -756.866 -1114 23 24 34
-402.011 -759.616 -1118 25 26 36
-402.057 -763.047 -1123 29 28 35
-402.088 -766.478 -1128 27 26 33
-401.747 -769.229 -1132 24 26 33
-400.687 -770.621 -1134 23 25 32
-399.972 -772.693 -1137 26 25 33
-398.548 -773.406 -1138 27 26 34
-397.12 -774.118 -1139 24 26 33
-396.036 -775.511 -1141 22 24 31
-394.599 -776.223 -1142 22 23 33
-393.848 -778.295 -1145 21 22 32
-393.087 -780.367 -1148 20 21 31
-393.338 -784.479 -1154 21 22 32
-393.571 -788.59 -1160 23 24 36
-393.785 -792.702 -1166 22 23 35
-395.324 -799.533 -1176 20 23 34
-605.205 -794.602 -1173 26 26 30
-601.345 -791.938 -1169 23 23 27
-597.497 -789.275 -1165 21 21 25
-593.15 -785.934 -1160 21 21 25
-590.347 -784.625 -1158 22 22 26
-587.55 -783.316 -1156 22 22 26
-584.759 -782.006 -1154 20 20 24
-582.479 -781.374 -1153 20 20 24
-580.202 -780.742 -1152 23 23 27
-578.429 -780.787 -1152 26 26 30
-576.657 -780.833 -1152 24 24 28
-574.385 -780.2 -1151 22 22 26
-572.116 -779.568 -1150 20 20 24
-570.346 -779.612 -1150 18 18 22
-567.587 -778.302 -1148 19 19 23
-565.326 -777.669 -1147 20 20 24
-562.086 -775.679 -1144 21 21 25
-559.344 -774.367 -1142 21 21 25
-556.608 -773.055 -1140 22 22 26
-553.392 -771.065 -1137 23 23 27
-550.669 -769.752 -1135 22 21 27
-547.469 -767.761 -1132 20 19 25
-543.795 -765.091 -1128 19 21 25
-540.615 -763.1 -1125 19 21 25
-536.485 -759.751 -1120 21 21 25
-532.848 -757.081 -1116 21 21 25
-529.698 -755.087 -1113 21 21 25
-526.558 -753.094 -1110 21 21 25
-523.899 -751.779 -1108 21 22 25
-521.718 -751.143 -1107 22 23 26
-519.07 -749.827 -1105 25 25 27
-516.428 -748.511 -1103 25 25 27
-514.258 -747.874 -1102 24 24 28
-512.091 -747.236 -1101 24 24 28
-510.39 -747.277 -1101 25 25 29
-508.69 -747.318 -1101 23 23 27
-506.988 -747.358 -1101 23 23 27
-505.746 -748.078 -1102 26 26 30
-504.043 -748.118 -1102 27 26 34
-502.339 -748.159 -1102 31 30 38
-500.636 -748.199 -1102 33 32 40
-499.385 -748.918 -1103 31 30 38
-497.227 -748.279 -1102 29 28 35
-495.523 -748.319 -1102 29 28 35
-493.818 -748.359 -1102 28 27 35
-491.666 -747.719 -1101 25 24 32
-489.963 -747.759 -1101 25 24 32
-488.259 -747.799 -1101 25 24 32
-486.554 -747.838 -1101 26 25 33
-484.85 -747.877 -1101 27 26 34
-483.145 -747.916 -1101 27 26 33
-481.877 -748.634 -1102 26 25 32
-480.606 -749.352 -1103 24 23 30
-478.897 -749.391 -1103 24 23 30
-477.188 -749.43 -1103 23 22 29
-475.91 -750.147 -1104 25 24 31
-474.199 -750.186 -1104 26 25 32
-472.487 -750.224 -1104 25 24 31
-471.202 -750.942 -1105 25 24 32
-469.489 -750.98 -1105 27 26 34
-468.199 -751.698 -1106 27 26 34
-466.483 -751.735 -1106 26 25 33
-464.767 -751.773 -1106 28 27 35
-463.051 -751.81 -1106 28 27 35
-461.335 -751.848 -1106 28 27 35
-459.203 -751.206 -1105 28 27 35
-457.488 -751.243 -1105 27 26 34
-455.36 -750.6 -1104 25 24 32
-453.646 -750.637 -1104 23 22 30
-451.522 -749.994 -1103 22 21 29
-449.401 -749.35 -1102 22 21 29
-447.689 -749.387 -1102 19 18 26
-445.977 -749.423 -1102 20 19 26
-444.265 -749.459 -1102 24 23 30
-442.151 -748.815 -1101 25 24 32
-440.44 -748.851 -1101 25 24 32
-438.33 -748.207 -1100 26 25 32
-436.62 -748.243 -1100 26 25 32
-434.514 -747.598 -1099 25 27 34
-432.411 -746.953 -1098 24 26 33
-430.703 -746.988 -1098 24 23 31
-428.995 -747.023 -1098 22 21 29
-427.287 -747.058 -1098 24 23 31
-425.579 -747.093 -1098 27 26 34
-423.87 -747.128 -1098 26 28 35
-422.161 -747.163 -1098 25 27 34
-420.452 -747.197 -1098 22 25 32
-419.505 -748.593 -1100 22 25 32
-417.792 -748.627 -1100 25 27 34
-416.458 -749.342 -1101 26 28 35
-415.496 -750.737 -1103 25 27 34
-413.778 -750.771 -1103 23 25 32
-412.434 -751.486 -1104 23 25 32
-411.085 -752.2 -1105 24 26 33
-409.734 -752.915 -1106 24 25 36
-408.01 -752.949 -1106 24 25 36
-406.654 -753.663 -1107 23 24 34
-405.294 -754.377 -1108 23 24 34
-403.931 -755.091 -1109 24 26 33
-402.927 -756.486 -1111 22 24 31
-402.277 -758.562 -1114 23 25 33
-401.978 -761.319 -1118 26 28 36
-402.024 -764.758 -1123 25 24 31
-402.054 -768.196 -1128 25 24 31
-401.359 -770.272 -1131 23 25 32
-400.301 -771.668 -1133 23 25 32
-399.236 -773.063 -1135 26 25 33
-398.165 -774.458 -1137 27 26 34
-397.087 -775.853 -1139 25 27 34
-395.656 -776.568 -1140 24 26 33
-394.567 -777.963 -1142 23 24 34
-393.815 -780.039 -1145 21 22 32
-393.396 -782.798 -1149 20 21 31
-393.646 -786.918 -1155 21 22 32
-393.538 -790.357 -1160 21 22 33
-393.414 -793.797 -1165 20 21 32
-394.619 -799.962 -1174 20 23 34
-605.158 -796.381 -1173 25 25 29
-601.298 -793.712 -1169 23 23 27
-597.451 -791.043 -1165 22 22 26
-593.615 -788.373 -1161 22 22 26
-590.301 -786.382 -1158 22 22 26
-587.505 -785.07 -1156 20 20 24
-584.713 -783.757 -1154 21 21 25
-582.433 -783.123 -1153 20 20 24
-580.66 -783.17 -1153 23 23 27
-578.385 -782.536 -1152 25 25 29
-576.612 -782.581 -1152 22 22 26
-574.34 -781.947 -1151 20 20 24
-572.569 -781.992 -1151 20 20 24
-570.797 -782.038 -1151 18 18 22
-568.036 -780.723 -1149 21 21 25
-565.281 -779.409 -1147 20 20 24
-562.532 -778.095 -1145 21 21 25
-559.79 -776.781 -1143 21 21 25
-556.564 -774.785 -1140 22 22 26
-553.348 -772.791 -1137 23 23 27
-550.625 -771.475 -1135 23 22 29
-547.425 -769.479 -1132 20 19 26
-544.234 -767.484 -1129 19 21 25
-540.572 -764.808 -1125 19 21 25
-536.442 -761.451 -1120 21 21 25
-532.805 -758.774 -1116 21 21 25
-529.656 -756.777 -1113 21 21 25
-526.99 -755.459 -1111 20 20 24
-523.385 -752.781 -1107 21 21 25
-521.676 -752.823 -1107 21 21 25
-518.559 -750.825 -1104 24 24 26
-516.386 -750.186 -1103 24 24 26
-514.217 -749.547 -1102 23 23 27
-512.05 -748.908 -1101 23 23 27
-510.35 -748.949 -1101 24 24 28
-508.649 -748.99 -1101 23 23 27
-506.948 -749.031 -1101 24 24 28
-505.705 -749.751 -1102 27 27 31
-504.002 -749.792 -1102 30 29 37
-502.299 -749.833 -1102 33 32 40
-500.595 -749.873 -1102 34 33 41
-498.891 -749.913 -1102 31 30 38
-497.187 -749.953 -1102 27 26 33
-495.483 -749.993 -1102 29 28 35
-493.33 -749.353 -1101 32 31 38
-491.627 -749.392 -1101 32 31 38
-489.478 -748.752 -1100 39 38 46
-488.219 -749.471 -1101 39 38 46
-486.515 -749.511 -1101 38 37 45
-484.811 -749.55 -1101 34 33 41
-483.106 -749.589 -1101 30 29 36
-481.401 -749.628 -1101 27 26 33
-480.132 -750.348 -1102 25 24 31
-478.858 -751.067 -1103 24 23 30
-477.149 -751.106 -1103 24 23 30
-475.871 -751.825 -1104 25 24 31
-474.16 -751.864 -1104 26 25 32
-472.877 -752.583 -1105 26 25 32
-471.164 -752.622 -1105 25 24 32
-469.451 -752.66 -1105 26 25 33
-467.737 -752.698 -1105 27 26 34
-466.024 -752.736 -1105 26 25 33
-464.73 -753.455 -1106 27 26 34
-463.014 -753.493 -1106 28 27 35
-461.297 -753.53 -1106 27 26 34
-459.166 -752.886 -1105 26 25 33
-457.451 -752.923 -1105 25 24 32
-455.323 -752.279 -1104 24 23 31
-453.198 -751.634 -1103 23 22 30
-451.485 -751.671 -1103 21 20 28
-449.364 -751.026 -1102 22 21 29
-447.653 -751.064 -1102 20 19 27
-445.941 -751.1 -1102 21 20 27
-444.229 -751.136 -1102 23 22 29
-442.115 -750.49 -1101 25 24 32
-440.404 -750.526 -1101 25 24 32
-438.294 -749.881 -1100 24 23 30
-436.187 -749.234 -1099 24 23 30
-434.478 -749.27 -1099 26 28 35
-432.376 -748.624 -1098 24 26 33
-430.668 -748.659 -1098 23 22 30
-428.96 -748.694 -1098 23 22 30
-426.863 -748.047 -1097 26 25 33
-425.156 -748.082 -1097 28 27 35
-423.449 -748.117 -1097 26 28 35
-422.126 -748.834 -1098 26 28 35
-420.417 -748.868 -1098 23 26 33
-419.089 -749.585 -1099 23 26 33
-417.758 -750.301 -1100 24 26 33
-416.424 -751.018 -1101 24 26 33
-415.086 -751.734 -1102 23 25 32
-413.744 -752.45 -1103 23 25 32
-412.026 -752.484 -1103 24 26 33
-410.68 -753.2 -1104 26 28 35
-409.33 -753.916 -1105 25 26 36
-407.977 -754.632 -1106 24 25 35
-406.253 -754.666 -1106 22 23 33
-404.895 -755.382 -1107 21 22 32
-403.897 -756.78 -1109 22 24 31
-402.893 -758.178 -1111 22 24 31
-402.244 -760.259 -1114 23 25 32
-401.945 -763.022 -1118 26 28 35
-401.991 -766.468 -1123 25 24 31
-401.664 -769.231 -1127 26 25 32
-400.971 -771.312 -1130 23 25 32
-399.914 -772.711 -1132 22 24 31
-398.851 -774.109 -1134 25 24 32
-397.781 -775.507 -1136 25 24 32
-396.705 -776.906 -1138 24 26 33
-395.97 -778.987 -1141 26 28 35
-394.879 -780.385 -1143 22 23 33
-394.47 -783.149 -1147 21 22 32
-393.706 -785.23 -1150 20 21 31
-393.613 -788.677 -1155 20 21 31
-393.166 -791.442 -1159 20 21 31
-393.044 -794.889 -1164 20 21 31
-393.914 -800.385 -1172 20 23 34
-604.595 -797.481 -1172 27 27 31
-600.737 -794.805 -1168 25 25 29
-596.892 -792.13 -1164 22 22 26
-593.058 -789.454 -1160 22 22 26
-590.765 -788.82 -1159 22 22 26
-587.967 -787.505 -1157 20 20 24
-585.175 -786.189 -1155 21 21 25
-582.893 -785.554 -1154 19 19 23
-580.614 -784.919 -1153 22 22 26
-578.339 -784.284 -1152 25 25 29
-576.566 -784.329 -1152 22 22 26
-574.794 -784.374 -1152 21 21 25
-572.524 -783.739 -1151 21 21 25
-570.752 -783.784 -1151 19 19 23
-567.991 -782.467 -1149 21 21 25
-565.729 -781.83 -1148 20 20 24
-562.979 -780.514 -1146 21 21 25
-559.745 -778.515 -1143 22 22 26
-557.008 -777.197 -1141 22 22 26
-553.79 -775.197 -1138 23 23 27
-551.066 -773.879 -1136 23 22 29
-547.865 -771.879 -1133 22 21 28
-544.673 -769.878 -1130 20 21 25
-540.529 -766.516 -1125 20 21 25
-536.399 -763.151 -1120 21 21 25
-532.762 -760.468 -1116 20 20 24
-529.614 -758.467 -1113 20 20 24
-526.474 -756.464 -1110 21 21 25
-523.343 -754.462 -1107 21 21 25
-521.163 -753.822 -1106 21 21 25
-518.517 -752.501 -1104 22 22 24
-516.345 -751.861 -1103 25 25 27
-514.175 -751.22 -1102 24 24 28
-512.009 -750.58 -1101 23 23 27
-510.309 -750.621 -1101 23 23 27
-508.608 -750.662 -1101 23 23 27
-506.907 -750.702 -1101 25 25 29
-505.206 -750.743 -1101 27 27 31
-503.505 -750.784 -1101 30 29 37
-501.803 -750.824 -1101 32 31 39
-500.555 -751.547 -1102 32 31 39
-498.851 -751.587 -1102 30 29 37
-496.696 -750.945 -1101 27 26 33
-494.993 -750.985 -1101 29 28 35
-493.29 -751.025 -1101 32 31 38
-491.141 -750.383 -1100 33 32 39
-489.439 -750.423 -1100 32 31 39
-487.737 -750.462 -1100 33 32 40
-486.034 -750.501 -1100 31 30 38
-484.331 -750.541 -1100 29 28 36
-482.628 -750.58 -1100 27 26 33
-481.362 -751.301 -1101 27 26 33
-480.092 -752.022 -1102 26 25 32
-478.82 -752.744 -1103 25 24 31
-477.111 -752.782 -1103 25 24 31
-475.833 -753.504 -1104 25 24 31
-474.122 -753.542 -1104 26 25 32
-472.839 -754.263 -1105 27 26 33
-470.699 -753.619 -1104 26 25 33
-468.988 -753.657 -1104 26 25 33
-467.276 -753.695 -1104 26 25 33
-465.986 -754.416 -1105 26 25 33
-464.272 -754.454 -1105 25 24 32
-462.558 -754.491 -1105 26 25 33
-460.843 -754.529 -1105 26 25 33
-459.128 -754.566 -1105 24 23 31
-457 -753.921 -1104 24 23 31
-455.286 -753.958 -1104 26 25 33
-453.161 -753.312 -1103 26 25 33
-451.448 -753.349 -1103 24 23 31
-449.736 -753.385 -1103 20 19 27
-447.616 -752.739 -1102 20 19 27
-445.905 -752.776 -1102 22 21 28
