ply
format ascii 1.0
comment Created by Open3D
element vertex 722
property double x
property double y
property double z
property double nx
property double ny
property double nz
property uchar red
property uchar green
property uchar blue
end_header
16.5536 -903.015 -1883.05 0.636086 -0.0982479 -0.052316 177 131 92
18.7207 -905.966 -1887.15 0.614246 -0.0790109 -0.0472235 175 131 94
20.2644 -905.351 -1891.73 0.691417 -0.0350754 0.0167291 171 131 99
20.1293 -886.092 -1891.71 0.671013 -0.0749113 -0.157289 177 134 99
565.203 267.457 -1886.66 -0.0598499 0.599298 -0.813102 8 6 6
581.054 266.763 -1887.1 -0.0642772 0.598449 -0.803473 92 79 74
610.525 255.48 -1884.55 -0.0699689 0.572153 -0.799865 122 105 96
620.511 257.667 -1881.22 0.0587706 0.44977 -0.782057 177 157 140
608.815 247.53 -1884.99 0.573616 0.454231 -0.602602 236 208 187
621.588 253.613 -1881.44 0.160602 0.414973 -0.787277 204 184 167
628.93 253.071 -1879.73 0.147434 0.382134 -0.821295 216 195 181
-162.194 -688.465 -1878.02 0.552835 0.653279 -0.336557 218 219 240
-152.62 -689.644 -1874.67 0.34513 0.585042 -0.597751 194 192 208
-146.795 -686.295 -1874.72 0.12176 0.605602 -0.720723 199 199 214
-137.144 -684.147 -1875.9 -0.0539163 0.669685 -0.703666 211 208 224
-129.684 -684.619 -1878.4 -0.0219238 0.591563 -0.76938 208 200 215
-123.789 -680.988 -1876.07 -0.103189 0.600963 -0.764938 210 203 222
-120.615 -682.49 -1879.52 -0.0757615 0.471129 -0.875619 205 193 210
-110.768 -675.222 -1878.93 -0.404458 0.504817 -0.696792 210 202 219
-101.376 -663.37 -1873.17 -0.51773 0.61032 -0.599482 226 224 245
-94.8373 -658.325 -1873.42 -0.551001 0.559132 -0.619396 226 223 244
-90.7479 -656.056 -1875.31 -0.599016 0.513399 -0.60602 225 221 241
-85.9649 -645.506 -1877.12 -0.797154 0.157474 -0.572488 218 216 236
-87.7621 -636.542 -1875.08 -0.803644 -0.0222212 -0.593883 216 215 235
-89.439 -629.996 -1874.34 -0.765352 -0.0915406 -0.635298 216 215 236
-90.3539 -624.518 -1873.28 -0.714024 -0.0488359 -0.684369 217 216 237
-85.4907 -617.453 -1876.22 -0.684213 0.109614 -0.706999 212 211 233
-81.9711 -612.827 -1879.6 -0.750145 0.100478 -0.632615 206 206 227
89.1035 -637.741 -1874.38 -0.893417 0.181559 -0.40734 221 228 244
90.2379 -640.855 -1877.52 -0.88398 0.281499 -0.31695 218 225 242
90.9226 -625.176 -1877.47 -0.943032 0.0593439 -0.183308 214 219 240
91.877 -608.955 -1877.45 -0.977143 0.119612 -0.088042 215 221 243
91.5029 -603.784 -1874.89 -0.979946 0.0815226 -0.147839 217 222 245
92.8545 -596.157 -1877.84 -0.982598 0.101051 -0.151643 215 220 243
-23.8416 -578.695 -1876.93 0.809701 0.182665 -0.556963 197 199 218
-28.4871 -567.904 -1878.95 0.839871 0.15656 -0.530213 196 198 216
-22.674 -582.564 -1876.82 0.80537 0.176847 -0.563459 195 197 216
-25.9559 -559.67 -1874.22 0.859312 0.0807094 -0.50468 199 201 220
-26.9731 -557.434 -1876.66 0.86363 0.0603217 -0.502227 196 198 217
-26.5659 -538.211 -1873.41 0.795104 0.211864 -0.554976 194 197 216
-32.758 -529.521 -1876.88 0.712228 0.359 -0.603731 187 189 208
-35.6031 -526.936 -1878.93 0.686691 0.385728 -0.622983 185 187 207
-36.5203 -520.992 -1876.08 0.664572 0.376454 -0.649159 185 188 208
-42.4968 -513.386 -1877.35 0.388544 0.459393 -0.767341 170 175 193
-275.8 171.95 -1878.74 0.452532 0.133938 -0.878297 46 62 95
-249.362 79.4223 -1877.27 0.881252 0.12167 -0.420827 42 54 84
-249.788 86.8937 -1875.37 0.840401 0.137984 -0.46826 43 56 86
-249.212 95.654 -1874.66 0.617533 0.0759256 -0.69174 46 59 89
-254.866 99.7885 -1878.58 0.691578 0.228231 -0.617742 45 57 89
-80.5751 264.889 -1874.27 -0.390661 -0.382934 -0.813235 145 121 108
-81.5317 272.035 -1875.91 -0.365222 -0.277513 -0.870776 169 138 119
-61.3982 254.032 -1873.1 -0.0859784 -0.476695 -0.851051 233 194 167
-53.2323 257.156 -1874.13 0.0808139 -0.406532 -0.891971 237 198 170
-70.2486 262.239 -1875.3 -0.18124 -0.388668 -0.880347 201 166 143
-75.4187 273.414 -1876.46 -0.173057 -0.159595 -0.933729 195 158 132
-66.4765 269.547 -1876.39 -0.0495259 -0.148702 -0.967814 224 183 152
-54.5842 261.356 -1875.43 0.0476558 -0.303764 -0.938135 236 196 167
-56.9854 269.831 -1876.52 -0.0177994 -0.0838797 -0.99617 234 192 160
-100.534 280.587 -1872.82 0.0473785 -0.508225 -0.877265 75 67 66
-100.103 281.503 -1873.53 0.0357239 -0.517406 -0.875595 81 72 69
-85.5069 276.404 -1875.56 -0.35653 -0.30502 -0.868193 162 132 114
-78.8192 276.768 -1876.64 -0.216438 -0.158325 -0.933631 189 153 129
-86.8189 283.197 -1876.29 -0.166009 -0.291925 -0.906156 173 141 120
-104.305 290.425 -1879.52 -0.194133 -0.454081 -0.861831 94 84 85
-90.7508 292.144 -1877.91 0.167973 -0.264817 -0.895348 186 154 128
-85.2492 292.301 -1875.48 0.16412 0.0254188 -0.893214 196 161 131
-86.3984 296.769 -1874.23 0.346911 0.210463 -0.818158 198 162 132
-72.0711 275.257 -1876.16 -0.0482732 -0.0602783 -0.961798 207 167 137
-76.5476 286.597 -1874.49 0.115097 0.0810454 -0.956793 204 164 132
-61.8325 276.971 -1875.47 -0.0143452 0.0925442 -0.982261 225 181 145
-52.2117 277.569 -1876.91 -0.158882 0.0523075 -0.974 228 186 150
-54.4918 284.374 -1874.19 -0.208766 0.261352 -0.935086 220 173 133
-55.0346 287.649 -1872.62 -0.283183 0.348048 -0.90932 218 166 125
-133.005 303.264 -1873.6 0.939934 -0.00199746 -0.222649 51 64 98
-116.158 303.458 -1878.41 -0.0202425 -0.320845 -0.788235 90 83 92
-115.989 312.28 -1875.22 0.444145 0.0533852 -0.651483 126 117 118
-132.086 316.198 -1876.3 0.842017 -0.158184 -0.365364 72 80 107
-115.129 315.358 -1876.77 0.510493 0.154467 -0.631407 134 124 122
-128.272 334.077 -1879.63 0.804956 -0.241873 -0.203333 193 162 139
-127.606 339.294 -1878.47 0.913866 -0.217915 -0.0856322 214 171 138
-127.074 350.449 -1875.56 0.958772 0.028176 0.117544 214 162 121
-39.0559 302.525 -1874.18 -0.53922 0.460356 -0.711892 207 167 133
-32.8441 306.701 -1876.35 -0.661828 0.362731 -0.625591 214 178 144
-27.7635 316.141 -1875.13 -0.735933 0.464966 -0.464321 202 178 149
-22.3758 324.23 -1874.73 -0.760108 0.529913 -0.333996 186 174 147
-15.9684 333.231 -1875.6 -0.672876 0.670426 -0.174815 138 169 160
-8.7599 339.326 -1878.07 -0.452305 0.660659 -0.119306 80 130 130
3.65809 342.844 -1873.26 -0.0080646 0.56601 -0.230582 51 81 90
9.64403 342.463 -1878.35 0.693505 0.238171 -0.133653 69 88 103
16.0333 345.372 -1875.3 0.852308 0.281179 -0.179373 86 99 116
0.351073 378.018 -1874.15 -0.684 -0.68944 0.208003 236 183 151
-16.5155 391.29 -1880.46 -0.809061 -0.512542 0.273319 232 179 145
-17.4213 398.925 -1877.58 -0.843782 -0.187644 0.327444 222 166 131
-15.8424 400.975 -1873.53 -0.83257 -0.100903 0.440888 218 163 127
-12.6627 411.577 -1875.14 -0.880873 0.229705 0.330934 214 155 120
15.359 369.993 -1878.49 -0.417507 -0.848125 0.228894 237 186 152
27.0593 364.075 -1875.01 -0.401225 -0.888698 0.177555 239 186 151
9.45686 373.603 -1874.29 -0.525131 -0.801924 0.131415 236 185 152
-242.459 -493.556 -1870.52 0.970486 0.0114489 -0.146515 214 221 241
-93.1267 -580.058 -1865.92 -0.76998 -0.0563232 -0.623561 204 205 226
-90.7434 -584.591 -1867.05 -0.762674 -0.0739492 -0.62983 207 207 229
-92.158 -572.539 -1868.81 -0.758124 -0.0515501 -0.640164 205 206 227
-89.0051 -577.039 -1871.94 -0.77703 -0.0763675 -0.615171 203 203 224
-89.1037 -559.829 -1869.45 -0.689522 0.177769 -0.694296 199 200 221
-86.4226 -557.287 -1871.09 -0.69598 0.213283 -0.684164 195 197 217
-87.4127 -545.595 -1866.79 -0.763873 0.167189 -0.614764 197 200 220
-83.9743 -537.963 -1870.67 -0.81062 0.120745 -0.574532 195 197 217
-83.8474 -536.091 -1870.46 -0.805975 0.124477 -0.578506 196 198 218
-81.0893 -527.698 -1872.26 -0.742802 0.19199 -0.631691 193 195 216
-80.4386 -513.923 -1867.32 -0.567156 0.309852 -0.753479 190 192 213
-75.0507 -514.135 -1871.52 -0.517757 0.373809 -0.766662 186 189 209
11.054 -1140.09 -1871.97 0.181533 -0.925935 -0.254302 177 159 141
12.7751 -1139.94 -1870.58 0.129137 -0.943914 -0.228017 168 152 135
20.0889 -1140.96 -1872.34 -0.172529 -0.927745 -0.227488 190 177 156
33.7705 -1147.18 -1869.4 -0.348237 -0.930461 -0.0917743 213 210 203
52.7301 -1151.07 -1872.5 -0.333009 -0.919725 0.158018 204 202 200
55.4796 -1150.68 -1866.96 -0.262678 -0.933721 0.195128 202 202 200
-252.604 -325.93 -1869.45 0.653416 -0.391518 0.623336 196 202 220
-247.04 -315.625 -1868.21 0.75996 -0.238099 0.409607 198 204 220
-244.597 -310.147 -1869.95 0.882403 -0.131635 -0.0440219 206 211 225
-244.911 -305.838 -1868.71 0.900853 -0.12718 -0.214737 216 221 234
-243.533 -299.014 -1871.77 0.942108 -0.105151 -0.0544236 206 212 226
-241.891 -278.802 -1871.34 0.962857 -0.145919 0.103522 208 214 228
-241.163 -275.595 -1872.4 0.971587 -0.111275 0.0861997 208 215 228
-240.627 -268.889 -1870.7 0.981 -0.0668654 0.0392293 222 228 238
-237.908 -252.114 -1871.31 0.972368 -0.166397 -0.171365 238 245 251
-237.658 -250.51 -1871.57 0.971863 -0.16511 -0.176432 238 244 251
-235.996 -230.953 -1869.64 0.967218 -0.0552612 -0.127931 241 248 255
-235.948 -226.731 -1871.27 0.968199 -0.160649 -0.0498731 246 252 255
-230.093 -215.546 -1870.93 0.805403 -0.481292 -0.231404 201 209 221
-227.683 -210.938 -1871.64 0.795255 -0.426563 -0.335184 129 138 157
-218.794 -204.79 -1866.29 0.671928 -0.396573 -0.597068 52 64 93
-229.932 182.769 -1870.69 0.445 -0.111221 -0.884991 47 64 102
-230.361 187.11 -1870.87 0.449527 -0.0662864 -0.888199 47 64 102
-217.816 189.257 -1865.77 0.433502 -0.154418 -0.876583 47 66 104
-229.509 192.386 -1870.78 0.434349 -0.0517245 -0.894715 47 64 102
-226.337 200.962 -1870.52 0.426892 -0.149183 -0.873629 47 65 104
-223.942 197.38 -1868.93 0.391954 -0.102622 -0.900738 47 65 104
-218.044 204.738 -1868.22 0.306434 -0.195679 -0.919891 48 67 107
-214.676 202.277 -1866.2 0.318767 -0.167394 -0.92679 49 68 108
-210.13 209.796 -1866.64 0.296564 -0.269462 -0.904167 50 69 110
-204.292 214.647 -1867.15 0.279094 -0.386317 -0.868413 50 67 109
-200.441 216.598 -1867.26 0.260693 -0.420027 -0.860545 48 65 106
80.9979 -139.418 -1868.73 -0.945889 -0.155203 -0.249315 43 55 86
80.5771 -130.489 -1872.45 -0.940261 -0.148823 -0.204057 42 55 85
79.8786 -116.758 -1871.5 -0.928967 0.0181222 -0.214049 40 54 83
77.9313 -109.243 -1868.65 -0.918486 -0.112183 -0.263298 40 54 83
76.4653 -101.83 -1866.21 -0.891105 0.00747228 -0.319492 39 53 84
82.2315 -94.8073 -1870.59 -0.738507 0.340496 -0.566459 38 52 81
86.6408 -86.8186 -1871.96 -0.728381 0.301821 -0.597109 38 52 81
87.6876 -77.7834 -1869.48 -0.754804 0.257651 -0.581554 40 54 84
91.7766 -73.5206 -1872.09 -0.696292 0.296229 -0.650685 41 56 86
95.8788 -59.8635 -1870.57 -0.692963 0.249246 -0.672792 44 60 93
96.6968 -61.6491 -1871.52 -0.682946 0.303844 -0.671346 45 61 93
97.8529 -51.8784 -1871.65 -0.716747 0.0945631 -0.675808 43 59 92
98.8233 -35.2253 -1866.65 -0.742689 0.283982 -0.562668 42 56 87
-45.1965 303.032 -1869.48 -0.186048 0.564475 -0.577761 180 158 132
-39.5448 308.58 -1867.02 -0.448072 0.625819 -0.590518 185 161 133
-30.0357 315.636 -1870.12 -0.676557 0.560276 -0.462164 191 171 144
-26.8844 318.967 -1871.75 -0.723294 0.551249 -0.402832 191 173 147
-17.7739 331.176 -1869.15 -0.73328 0.630097 -0.168475 153 180 168
-12.2401 337.116 -1865.55 -0.680731 0.734979 -0.100112 138 195 193
-6.19144 340.395 -1871.28 -0.534745 0.789658 -0.181139 85 135 136
11.2645 347.555 -1867.07 0.446852 0.519217 -0.227517 75 103 118
14.2294 347.262 -1870.56 0.800852 0.335712 -0.207374 85 101 118
0.366553 378.549 -1867.55 -0.765641 -0.628539 0.136397 237 185 155
-6.22767 384.715 -1868.35 -0.782992 -0.568064 0.193573 236 184 153
-11.8309 392.204 -1871.58 -0.79834 -0.427377 0.362869 231 178 146
-12.6929 401.997 -1869.49 -0.865382 -0.0161326 0.385037 221 166 133
-9.10839 411.788 -1867.71 -0.944355 0.028706 0.183377 238 182 152
14.3482 371.749 -1868.14 -0.499702 -0.868509 -0.0476051 238 185 152
23.0453 365.599 -1869.42 -0.525076 -0.903856 -0.0691888 240 186 152
8.02366 374.673 -1868.71 -0.608643 -0.756388 0.0594837 237 185 153
53.5725 -782.293 -1878.79 0.16222 0.0662304 -0.246124 186 163 158
56.2282 -779.357 -1877.73 0.126704 0.0771665 -0.257254 189 166 161
37.4639 -763.087 -1877.75 0.502796 -0.0976634 0.0306344 155 128 124
39.9369 -774.068 -1878.71 0.345679 0.0232229 -0.162602 169 144 139
44.4575 -774.086 -1877.93 0.302204 0.0366523 -0.178661 173 149 143
49.8524 -772.406 -1876.76 0.257678 0.0462308 -0.186197 177 153 148
52.302 -765.88 -1875.38 0.247898 0.0407659 -0.172009 179 155 149
30.6083 -752.269 -1877.93 0.792544 -0.307084 0.30082 128 99 98
43.8355 -745.585 -1872.96 0.705395 -0.16115 0.16486 137 110 107
39.5462 -758.884 -1876.39 0.561964 -0.12659 0.0824431 149 123 119
45.1994 -756.117 -1874.61 0.515576 -0.0753077 0.0222809 154 128 124
53.6096 -752.489 -1873.63 0.397251 -0.0136216 -0.0711504 166 141 136
48.6907 -760.72 -1874.82 0.376083 -0.00531663 -0.0889713 167 142 137
60.8463 -754.637 -1873.69 0.197418 0.0595069 -0.20164 184 161 154
33.4952 -734.177 -1872.61 0.859259 -0.274613 0.323 119 93 92
37.2113 -742.459 -1872.96 0.787133 -0.27431 0.282373 129 100 99
45.6017 -737.681 -1870.87 0.811504 -0.152725 0.200476 127 101 99
48.3465 -738.674 -1871.11 0.760201 -0.126749 0.159093 132 107 103
51.7308 -741.598 -1872.19 0.625649 -0.0920342 0.0803104 145 119 116
60.7531 -741.469 -1872.63 0.420263 -0.00528851 -0.0662227 164 140 135
54.371 -722.372 -1871.53 0.761313 -0.0791247 0.148977 132 107 105
59.7617 -731.18 -1872.07 0.600405 -0.044968 0.0391214 147 123 119
47.2183 -705.98 -1873.83 0.62889 -0.00103756 0.0830452 133 114 116
54.8468 -707.42 -1875.88 0.498541 0.124496 0.0793332 145 126 130
55.0782 -718.079 -1872.6 0.695899 -0.054954 0.124407 137 113 111
-85.6334 -1147.11 -1864.69 0.0466114 -0.957904 -0.0826702 220 211 200
-86.2492 -1138.74 -1865.8 -0.145868 -0.909761 -0.233294 178 169 162
-84.1402 -1138.39 -1863.75 -0.321236 -0.809555 -0.284716 172 168 166
-77.3863 -1145.77 -1860.74 -0.753573 -0.431994 -0.272197 190 191 193
-194.037 -670.884 -1863.59 0.728773 0.63017 0.0632513 211 214 233
-197.022 -669.599 -1861.95 0.812812 0.577426 0.0858786 213 215 235
-201.455 -652.244 -1859.55 0.892075 0.219009 -0.267926 216 219 238
-187.881 -674.683 -1865.77 0.544947 0.768774 -0.116989 211 213 233
-179.147 -672.364 -1860.69 0.384892 0.456134 -0.638981 209 212 232
-171.003 -672.097 -1862.42 0.417331 0.576999 -0.483678 209 212 232
-164.873 -675.498 -1864.76 0.385163 0.659716 -0.349902 206 205 224
-206.441 -642.713 -1864.45 0.925503 0.241375 -0.227122 211 213 233
-207.055 -641.33 -1865.38 0.934276 0.233992 -0.191658 210 212 232
-204.907 -630.95 -1858.83 0.813079 0.0425838 -0.58501 216 221 240
-210.146 -625.707 -1864.2 0.930329 0.171338 -0.243173 216 219 239
7.29659 -637.087 -1859 0.609081 0.169357 -0.77066 215 213 232
66.1262 -673.722 -1865.34 -0.428455 0.809932 -0.20188 215 216 237
76.3942 -671.69 -1865.3 -0.581319 0.674463 -0.0596919 210 213 236
83.9093 -667.103 -1860.21 -0.649905 0.15642 -0.245889 209 212 234
84.3907 -658.263 -1863.5 -0.848833 0.226201 0.107598 210 215 237
84.3158 -648.108 -1864.09 -0.934006 0.0552927 -0.119312 218 225 243
82.7225 -639.178 -1860.66 -0.89909 -0.0472523 -0.401741 218 224 242
83.8855 -634.4 -1863.56 -0.898745 0.0567681 -0.42762 216 222 241
85.6855 -618.395 -1862.18 -0.903543 0.105081 -0.403439 217 222 243
84.776 -612.696 -1859.03 -0.887217 0.101844 -0.442887 220 224 245
86.9512 -601.369 -1860.34 -0.922473 0.071071 -0.346817 219 224 245
-217.391 -210.697 -1860.4 0.637869 -0.508719 -0.561643 84 94 120
-215.463 -207.901 -1860.43 0.655477 -0.44838 -0.588413 58 70 98
-225.61 -162.147 -1864.4 0.847252 0.248385 -0.413848 50 63 97
-226.46 -158.157 -1865.31 0.871379 0.155495 -0.430607 49 63 96
-224.673 -154.474 -1863 0.841354 -0.0360905 -0.485996 49 63 96
-211.885 -200.237 -1860.97 0.698183 -0.318923 -0.640276 38 51 78
-208.442 -188.281 -1863.31 0.641424 -0.306763 -0.657668 38 50 79
-210.135 -182.863 -1864.29 0.710986 0.110252 -0.549917 34 46 77
-216.134 -176.18 -1863.63 0.748191 0.455304 -0.411439 44 56 89
-212.874 -147.218 -1860.41 0.537907 -0.415794 -0.733819 51 64 93
-213.451 -139.647 -1864.1 0.591572 -0.286821 -0.749615 52 66 97
-211.084 -133.976 -1863.12 0.667249 -0.151432 -0.724679 52 65 96
-209.994 -128.708 -1861.91 0.726253 -0.0652626 -0.659904 49 62 93
-209.381 -120.827 -1861.03 0.821472 -0.096641 -0.47337 44 57 89
-129.673 274.683 -1866.06 0.696254 -0.210881 -0.620139 41 56 92
-114.093 275.237 -1862.33 0.79193 -0.0049386 -0.297221 43 54 83
-114.35 285.753 -1864.18 0.336018 -0.0222991 -0.50887 41 53 80
-129.963 288.729 -1861.45 0.935894 0.0728674 -0.151123 37 49 82
-114.3 289.417 -1864.11 0.266351 -0.054559 -0.505236 44 56 83
-114.192 300.548 -1865.21 0.556687 -0.00592995 -0.470721 98 94 107
-106.364 250.044 -1862.1 0.355637 -0.207314 -0.885565 43 53 83
-95.6095 252.989 -1861.25 0.121786 -0.139421 -0.931223 41 47 68
-99.8781 260.02 -1861.14 0.302001 -0.0881953 -0.877529 37 45 67
-91.1571 247.488 -1859.91 0.17316 -0.254053 -0.929249 40 46 68
-79.304 248.119 -1860.89 0.0185221 -0.495008 -0.816771 53 57 76
-84.6164 251.625 -1862.75 -0.150368 -0.375588 -0.839854 62 62 75
-98.1835 265.11 -1862.89 0.157279 -0.283107 -0.831496 46 50 67
-104.398 268.908 -1864.32 0.393896 -0.324839 -0.751445 40 47 68
-77.9837 247.244 -1860.49 0.0623282 -0.518704 -0.814008 54 59 78
-78.7755 300.429 -1861.94 0.24695 0.302896 -0.708288 178 147 122
-73.0448 298.856 -1860.67 0.232749 0.546093 -0.625123 180 147 119
-62.405 295.813 -1863.93 -0.0995153 0.644568 -0.721138 190 147 113
-53.6726 302.237 -1863.97 0.198811 0.601302 -0.433284 158 162 145
-125.092 306.192 -1859.91 0.785719 -0.311255 -0.39601 100 94 106
-112.773 302.486 -1863.41 0.729295 0.110414 -0.389745 110 104 112
-114.352 314.27 -1860.14 0.570595 -0.43564 -0.687344 195 170 159
-108.287 311.604 -1862.66 0.652726 0.469135 -0.452025 157 143 129
-120.377 318.292 -1865.79 0.656858 -0.308403 -0.616792 176 152 142
-116.934 327.059 -1862.27 0.705909 0.259182 -0.537897 186 151 124
-120.997 331.736 -1863.64 0.787705 0.328861 -0.48587 188 148 117
-18.7291 330.358 -1862.48 -0.72512 0.653606 -0.162614 153 188 177
-11.8998 337.994 -1860.26 -0.66718 0.73077 -0.12877 142 204 201
0.152321 343.788 -1865.21 -0.432799 0.884839 -0.303412 58 103 108
10.9557 350.014 -1861.45 -0.0483871 0.629891 -0.238626 81 121 133
16.8725 355.175 -1861.04 -0.186274 0.261621 -0.209133 122 141 144
5.63992 375.785 -1863.59 -0.710745 -0.672212 0.0093305 236 185 156
-4.40856 384.253 -1858.69 -0.878362 -0.452302 -0.0378225 235 188 161
-9.69801 396.361 -1860.94 -0.938894 -0.140889 0.0939442 223 172 144
-11.4226 400.217 -1866.29 -0.886234 -0.0647325 0.32066 224 171 140
-8.91277 410.864 -1865.78 -0.948814 0.0507295 0.161041 238 183 154
19.2671 366.29 -1862.55 -0.608337 -0.733861 -0.207404 228 181 151
20.728 365.462 -1863.8 -0.587313 -0.764215 -0.187211 230 182 151
-8.69361 414.732 -1859.3 -0.978112 -0.0507525 -0.0475248 221 167 140
-11.9102 428.236 -1864.97 -0.96859 -0.12573 -0.0731628 202 143 116
-12.5099 434.638 -1859.67 -0.921411 -0.00014785 -0.0217287 198 140 114
-247.144 -433.503 -1858.44 0.811531 0.104991 -0.554184 224 230 250
-242.168 -453.237 -1857.27 0.850816 0.144508 -0.457893 221 227 246
-244.668 -442.014 -1857.83 0.807032 0.161037 -0.554381 224 230 250
-241.918 -437.723 -1852.83 0.730277 0.1713 -0.642173 229 235 253
-248.125 -400.132 -1857.35 0.806188 0.183446 -0.555743 220 226 244
-242.274 -421.033 -1852.16 0.826985 -0.135667 -0.538241 228 235 253
-243.875 -417.445 -1856.24 0.803798 -0.151497 -0.570168 229 235 254
-244.468 -403.96 -1853.07 0.830943 0.187115 -0.513617 217 223 240
-248.203 -385.273 -1855.78 0.839701 -0.0316519 -0.530417 233 240 251
-249.519 -379.059 -1858.93 0.842405 -0.0667254 -0.522769 228 234 246
-245.39 -370.861 -1852.76 0.801254 -0.0236037 -0.571506 217 225 239
-75.3721 -479.286 -1854.85 -0.33428 0.277071 -0.89436 191 192 213
-66.3149 -474.623 -1856.58 -0.283553 0.246578 -0.923066 184 186 207
-65.0631 -472.941 -1856.58 -0.278673 0.246763 -0.922476 184 186 206
-61.0101 -474.472 -1858.04 -0.275508 0.216962 -0.938843 180 182 202
-58.6922 -473.823 -1858.47 -0.270686 0.190953 -0.949782 178 180 200
-51.1628 -472.113 -1853.48 0.340564 0.488019 -0.768691 143 145 162
14.7087 -646.468 -1854.62 0.593093 0.154259 -0.781823 218 216 237
16.5854 -638.458 -1852.6 0.552531 0.0749554 -0.825012 217 214 233
12.2977 -629.6 -1855.04 0.523895 0.094643 -0.843989 208 206 224
8.92849 -624.425 -1856.22 0.511734 0.128084 -0.846348 205 204 222
14.5015 -627.951 -1853.93 0.491011 0.0730535 -0.867399 205 203 221
7.19841 -612.717 -1853.35 0.550642 0.260348 -0.785726 209 208 227
62.1108 -668.821 -1857.41 -0.260306 0.791858 -0.400032 219 217 237
75.9689 -671.359 -1853.77 -0.29496 0.88306 -0.304528 220 218 239
85.0173 -663.186 -1854.44 -0.670889 -0.0677209 -0.319087 210 213 235
82.4803 -648.854 -1853.92 -0.922042 -0.298759 -0.182894 213 220 242
81.9764 -645.549 -1855.28 -0.919308 -0.218458 -0.262888 215 221 242
79.0962 -635.2 -1851.97 -0.880908 -0.0199017 -0.438083 214 219 240
79.1558 -632.704 -1852.21 -0.877498 0.0247692 -0.448908 214 219 240
81.9626 -616.421 -1855.46 -0.880385 0.11501 -0.473501 221 224 245
81.5434 -609.122 -1852.95 -0.867776 0.120268 -0.497165 220 224 245
84.1711 -600.711 -1855.14 -0.884229 0.124725 -0.432749 218 223 244
86.0536 -597.895 -1857.48 -0.912219 0.109719 -0.367101 218 224 245
-214.85 69.3081 -1855.8 0.390888 -0.27511 -0.867842 42 55 89
-211.449 70.8275 -1854.73 0.380945 -0.291984 -0.868159 40 53 88
-208.19 74.8839 -1853.85 0.445918 -0.230133 -0.842981 39 52 88
-218.191 93.1808 -1858.05 0.492355 0.0724109 -0.8653 45 58 95
-208.867 80.8866 -1854.86 0.440899 -0.0878762 -0.859175 41 54 91
-212.65 90.2223 -1855.49 0.434404 0.0560159 -0.880555 45 59 96
-217.773 93.4565 -1857.77 0.491604 0.0736688 -0.865235 45 59 96
-216.345 102.395 -1856.25 0.512413 -0.0325654 -0.84012 49 64 101
-213.608 109.584 -1856.07 0.488009 -0.222952 -0.824896 47 63 100
-211.315 106.484 -1853.46 0.464239 -0.140635 -0.854449 47 61 99
-211.492 123.326 -1858.33 0.678303 -0.141406 -0.660938 42 59 98
-213.415 128.984 -1858.59 0.560426 0.0619583 -0.774368 42 59 98
77.6084 -88.9578 -1854.24 -0.921447 0.18412 -0.344561 41 56 88
79.171 -81.684 -1856.22 -0.912363 0.153707 -0.348656 40 55 86
80.2312 -70.6494 -1854.88 -0.823966 0.145839 -0.48829 43 59 91
82.1507 -67.8994 -1856.99 -0.79898 0.224176 -0.52544 43 60 91
83.4655 -61.7951 -1857.6 -0.732129 0.184051 -0.633658 43 59 91
85.9654 -54.3509 -1858.64 -0.722701 0.119223 -0.659437 43 58 90
87.212 -42.6013 -1855.41 -0.698945 0.134967 -0.62665 42 56 88
91.3159 -40.7231 -1859.52 -0.693032 0.21132 -0.634881 42 56 87
82.6784 -24.8488 -1851.84 -0.706224 -0.0360108 -0.457199 41 57 89
82.707 -18.7662 -1851.74 -0.691833 0.328115 -0.60631 40 58 92
91.0239 -16.1832 -1854.47 -0.558804 0.222935 -0.723489 42 57 91
98.3822 -13.3579 -1857.87 -0.547628 0.236845 -0.734731 42 55 88
98.504 -10.0957 -1856.43 -0.600734 0.252441 -0.689974 41 55 88
102.46 -4.3451 -1856.97 -0.702823 0.253977 -0.617112 40 51 82
103.481 6.33971 -1855.8 -0.811576 0.165164 -0.49626 41 52 82
104.776 9.43141 -1856.51 -0.830417 0.187373 -0.447473 41 52 83
105.869 21.353 -1853.35 -0.708127 0.120006 -0.686395 38 48 77
681.877 247.354 -1862.15 -0.0649147 0.154671 -0.852157 213 186 163
683.091 248.749 -1862.72 -0.0309047 0.196181 -0.828276 216 188 164
689.071 246.278 -1862.9 -0.104816 0.0736535 -0.840204 190 166 145
-107.759 -586.866 -1851.69 -0.660415 0.0517343 -0.740706 213 213 236
-111.452 -583.07 -1848.49 -0.664216 0.0144208 -0.741965 214 213 236
-111.423 -572.283 -1848.06 -0.645594 0.0586224 -0.754222 213 213 235
-110.601 -566.915 -1848.2 -0.647627 0.0789487 -0.749001 214 214 236
-110.682 -561.166 -1846.58 -0.697267 0.140862 -0.693339 216 216 238
-108.642 -552.435 -1846.49 -0.729575 0.179684 -0.657386 220 219 242
-104.685 -552.128 -1850.85 -0.725314 0.187535 -0.658241 218 217 240
-102.743 -538.565 -1848.88 -0.661964 0.149739 -0.728876 219 219 242
-99.3675 -529.794 -1850.69 -0.655116 0.048042 -0.755477 206 206 229
-104.21 -528.118 -1846.09 -0.639548 0.151281 -0.751315 211 211 233
-241.693 -419.901 -1851.49 0.833075 -0.141896 -0.529642 229 235 253
-241.004 -417.792 -1850.68 0.841849 -0.146645 -0.517702 229 236 253
-241.876 -408.723 -1850.68 0.844374 0.0676586 -0.502971 223 229 244
-241.979 -393.761 -1846.47 0.817326 0.103595 -0.559892 215 221 235
-240.624 -383.217 -1844.97 0.759936 0.00863269 -0.62234 223 228 239
-240.969 -379.365 -1846.61 0.733879 -0.101743 -0.642699 233 239 248
-241.214 -373.129 -1847.91 0.709403 -0.1141 -0.674927 226 233 244
-92.1255 -474.764 -1845.08 -0.596729 0.234557 -0.764794 198 201 220
-82.9628 -477.109 -1851.44 -0.411266 0.275721 -0.862056 194 195 216
-82.9869 -470.188 -1848.88 -0.444012 0.276392 -0.845762 195 197 218
-79.6347 -466.271 -1849.67 -0.435238 0.27815 -0.854022 193 195 216
-76.1762 -463.515 -1850.06 -0.419624 0.324038 -0.845651 191 193 214
-71.465 -457.395 -1847.82 -0.358928 0.469547 -0.801348 188 190 210
-65.0871 -453.747 -1845.44 -0.054619 0.608948 -0.769679 182 183 203
-50.9263 -465.681 -1846.97 0.48802 0.531166 -0.693163 125 128 143
-57.6739 -459.42 -1847.13 0.242102 0.555567 -0.755123 133 134 153
-249.353 -303.568 -1851.66 0.786812 -0.0705813 -0.238011 234 239 246
-245.126 -313.023 -1845.63 0.677129 -0.0473427 -0.629477 213 218 228
-240.998 -285.665 -1847.99 0.712918 -0.40758 -0.494526 232 236 241
-241.092 -280.315 -1851.07 0.809828 -0.279714 -0.405392 222 226 231
-240.047 -277.183 -1851 0.804548 -0.243972 -0.434448 215 218 224
-233.378 -273.944 -1846.83 0.526139 -0.245166 -0.714842 227 230 237
-234.954 -261.669 -1851.2 0.623008 -0.230166 -0.564415 216 220 228
-230.326 -271.062 -1846.28 0.513432 -0.262348 -0.750063 232 235 241
-222.54 -261.022 -1844.74 0.434313 -0.154366 -0.885126 231 236 245
-228.419 -257.031 -1848.09 0.448128 -0.165136 -0.801553 228 232 241
-225.13 -246.948 -1850.43 0.606195 -0.442903 -0.608093 233 238 246
-221.301 -239.943 -1848.35 0.70277 -0.330858 -0.581784 232 238 245
-219.925 -235.05 -1847.37 0.741497 -0.168444 -0.620703 229 234 243
-134.995 235.514 -1850.2 0.170204 -0.580851 -0.765161 64 92 144
-131.25 228.279 -1845.94 0.0457332 -0.528337 -0.808931 56 80 129
-106.819 223.895 -1846.65 -0.178766 -0.469489 -0.843767 48 63 102
-119.016 231.012 -1849.35 -0.141651 -0.69565 -0.681119 46 67 113
-108.521 224.804 -1846.61 -0.168174 -0.503543 -0.831005 48 64 104
-123.799 233.628 -1850.96 -0.161296 -0.694017 -0.666643 48 72 120
-103.527 220.26 -1845.72 -0.174953 -0.352258 -0.901931 50 63 98
-97.2724 220.008 -1845.91 -0.0407502 -0.359794 -0.921591 49 59 92
-96.8559 229.379 -1850.64 0.0433837 -0.572639 -0.793395 46 56 88
-92.4641 231.351 -1850.99 0.19206 -0.537052 -0.817353 40 48 75
-80.9555 228.009 -1844.78 0.239805 -0.439877 -0.859118 49 60 89
-79.3618 232.474 -1847.33 0.181222 -0.518383 -0.822546 48 57 84
-66.4179 230.473 -1847.99 -0.206512 -0.542365 -0.804318 76 78 97
-51.879 224.101 -1848.51 -0.104867 -0.588615 -0.789344 78 80 99
-59.4136 226.757 -1848.84 -0.255735 -0.543808 -0.801171 98 97 112
-77.4483 236.128 -1849.87 0.135718 -0.542099 -0.806906 52 58 81
-64.4061 232.417 -1850.22 -0.264293 -0.573059 -0.780785 94 91 104
-115.338 251.904 -1849.34 0.553447 -0.0570011 -0.795314 46 57 88
-109.789 246.474 -1845.64 0.331729 -0.0422713 -0.86076 43 53 82
-107.784 259.28 -1851.29 0.309509 -0.121404 -0.821714 47 54 76
-126.597 270.954 -1847.18 0.892985 0.247529 -0.144468 33 45 78
-128.173 275.81 -1846.78 0.920229 0.319617 -0.00742556 33 44 77
-129.956 282.931 -1847.76 0.936103 0.187505 0.0416493 39 49 78
70.041 191.198 -1849.73 -0.132121 -0.164959 -0.954832 52 66 105
71.7827 196.752 -1851.15 -0.193772 -0.247254 -0.922689 52 66 105
-48.3452 309.394 -1850.87 -0.35261 0.889385 -0.298085 119 160 150
-34.3284 316.025 -1850.47 -0.502033 0.832703 -0.214648 118 156 145
-27.2141 322.718 -1844.8 -0.629058 0.753838 -0.175367 130 184 174
-21.3582 328.701 -1846.83 -0.707922 0.685416 -0.161793 152 212 206
-13.7454 339.232 -1844.88 -0.734595 0.635677 -0.224844 160 237 234
-8.75818 344.174 -1848.13 -0.657288 0.695446 -0.247487 138 212 210
-0.927528 350.1 -1849.21 -0.488726 0.797726 -0.372707 114 183 187
10.0095 355.974 -1849.09 -0.255752 0.745335 -0.343971 116 171 175
-189.482 -632.523 -1841.51 0.426653 0.292267 -0.512108 177 182 200
-162.891 -630.811 -1842.93 0.529234 0.339246 -0.777682 207 211 232
-168.609 -621.86 -1841.96 0.45428 0.394326 -0.788045 205 209 230
-194.316 -620.509 -1843.14 0.797314 0.331719 -0.109379 216 221 240
-192.582 -613.655 -1842.07 0.744422 0.247493 -0.118844 203 208 227
-191.658 -606.405 -1841.95 0.734275 0.0233491 -0.250859 204 208 228
-186.748 -620.722 -1843.5 0.306159 0.426352 -0.664753 189 195 214
-188.432 -613.235 -1843.1 0.40729 0.13111 -0.506059 155 161 179
-178.984 -608.777 -1841.59 0.287388 0.0603117 -0.882061 165 171 190
-172.184 -615.283 -1840.33 0.378064 0.284539 -0.843611 191 196 216
-175.364 -610.518 -1840.29 0.365879 0.15596 -0.864762 187 193 212
-188.72 -600.423 -1842.9 0.556848 -0.0567551 -0.622969 207 212 232
-188.524 -596.123 -1843.2 0.469853 -0.00894643 -0.757364 211 216 236
-175.059 -592.868 -1839.63 0.301124 0.102692 -0.934285 212 216 237
-172.434 -594.353 -1838.75 0.28851 0.0348551 -0.943539 212 216 237
-140.096 -656.387 -1842.87 0.246466 0.44171 -0.852757 220 225 243
-136.735 -648.993 -1839.79 0.175868 0.311827 -0.912162 220 225 243
-132.345 -657.45 -1842.96 0.0266408 0.514532 -0.82077 221 225 243
-128.269 -649.883 -1840.43 -0.120396 0.344932 -0.883658 223 227 247
-150.26 -642.24 -1841.26 0.383063 0.319591 -0.862812 212 215 235
-156.182 -639.965 -1843.03 0.44436 0.32485 -0.831235 208 211 232
-146.992 -646.695 -1841.46 0.387327 0.326975 -0.864772 216 221 239
-137.63 -642.166 -1838.43 0.157444 0.232789 -0.9465 217 220 240
-140.932 -637.614 -1837.53 0.139799 0.24788 -0.953598 216 217 238
-156.06 -633.15 -1840.3 0.436258 0.315563 -0.83764 208 211 232
-160.059 -622.522 -1838.29 0.410647 0.311898 -0.853289 210 214 235
-130.301 -646.815 -1839.68 -0.0491404 0.248592 -0.919748 222 226 245
-133.996 -638.792 -1838.24 0.0394434 0.164812 -0.966406 217 219 241
-121.554 -635.498 -1842.66 -0.489007 -0.0972038 -0.843827 225 224 247
-119.73 -635.66 -1843.54 -0.562929 -0.108962 -0.816964 226 224 247
-126.076 -632.676 -1841.03 -0.341161 -0.0422897 -0.887651 224 224 247
-126.128 -626.351 -1840.98 -0.524433 -0.0753414 -0.8275 228 227 250
107.409 -425.312 -1843.85 -0.938393 0.0433454 -0.281878 219 227 246
105.086 -412.959 -1840.23 -0.888669 -0.0212618 -0.4378 216 223 241
104.323 -407.292 -1837.58 -0.85917 0.0447999 -0.500638 212 220 239
107.261 -396.554 -1837.88 -0.875481 0.185915 -0.433205 218 225 245
109.173 -385.272 -1839.88 -0.94541 0.00543509 -0.222629 220 228 249
108.755 -376.959 -1842.02 -0.972937 -0.10755 -0.131844 217 225 245
-238.704 -363.029 -1844.33 0.682221 0.111405 -0.707968 221 229 247
-233.519 -360.661 -1837.74 0.3712 0.180985 -0.646956 211 217 234
-239.55 -351.644 -1842.18 0.640426 0.0654541 -0.726268 229 237 253
-239.072 -344.706 -1840.51 0.603538 -0.0129474 -0.755617 231 240 253
-241.413 -337.664 -1841.85 0.555563 -0.0503485 -0.724844 229 237 250
-243.17 -320.928 -1840.24 0.571865 -0.102566 -0.552079 207 211 224
-241.489 -315.723 -1840.43 0.611094 -0.115856 -0.612135 220 225 236
-191.66 81.3252 -1842.21 0.598719 0.0573222 -0.786454 49 65 101
-195.11 95.6255 -1843.04 0.577847 0.11918 -0.731383 46 62 101
-192.062 100.653 -1838.04 0.757447 0.169253 -0.4488 42 60 99
-189.241 81.2468 -1840.34 0.597556 0.065167 -0.784137 49 65 101
-189.274 93.9585 -1838.6 0.601785 0.185107 -0.591559 44 61 99
-179.159 101.31 -1837.53 0.134147 0.0467513 -0.956447 43 56 89
-196.92 110.638 -1842.56 0.611123 0.00990942 -0.725721 41 59 99
-194.784 113.494 -1841.82 0.564384 -0.0138445 -0.761417 42 61 99
-196.992 124.595 -1843.51 0.470699 -0.00780989 -0.845922 44 62 101
-196.413 133.426 -1843.29 0.561792 -0.0632384 -0.801884 46 63 103
-187.843 108.621 -1837.17 0.59428 0.0365328 -0.635218 42 59 97
-189.518 126.844 -1839.81 0.416518 0.0531709 -0.860436 46 64 102
-198.321 134.482 -1844.76 0.555312 -0.106485 -0.813372 46 63 102
-199.423 148.468 -1843.92 0.660515 0.0435761 -0.667267 47 66 105
-199.1 150.816 -1844.09 0.626945 -0.0274834 -0.666853 48 66 106
-192.832 152.708 -1838.46 0.582507 -0.107677 -0.729431 50 69 109
-189.923 159.611 -1841.2 0.549597 -0.28971 -0.672274 50 68 107
65.6011 -182.915 -1841.06 -0.70192 0.141581 -0.603882 43 55 88
66.5048 -177.926 -1841.51 -0.840497 0.0844388 -0.428188 46 58 90
65.1822 -167.847 -1840.27 -0.803971 0.018725 -0.56833 48 60 93
64.7865 -159.668 -1839.65 -0.802739 0.0453637 -0.595543 47 59 92
68.1755 -151.996 -1843.9 -0.844208 0.0701146 -0.529327 45 59 90
67.3927 -143.909 -1841.09 -0.845202 0.0769617 -0.528393 46 59 92
64.2155 -132.167 -1838.15 -0.782604 -0.0763614 -0.603383 46 60 92
68.1767 -127.953 -1843.83 -0.780822 -0.13448 -0.599031 46 60 94
64.823 -118.966 -1841.5 -0.691083 -0.0539116 -0.702193 48 63 97
62.5965 -110.877 -1839.77 -0.613979 -0.0479902 -0.771606 49 64 98
66.6385 -109.577 -1843.09 -0.701267 -0.0125488 -0.681109 48 63 97
64.068 -101.7 -1841.21 -0.532885 -0.159937 -0.823175 48 65 99
63.2261 -92.9031 -1839.43 -0.565484 0.00465971 -0.757183 45 60 93
62.7321 -85.5429 -1837.32 -0.51713 0.0877222 -0.768816 44 59 92
70.5072 -77.1824 -1841.79 -0.478142 -0.091533 -0.777219 44 61 94
5.94206 504.022 -1846.47 -0.728509 -0.0783739 -0.34721 73 63 70
-172.312 -1162.92 -1832.42 0.255599 -0.845052 -0.233612 205 204 201
-167.475 -1163.55 -1837.1 0.113203 -0.851227 -0.204923 203 201 200
-153.857 -1174.4 -1832.23 0.0780765 -0.93218 -0.200556 203 200 200
-143.991 -1168.68 -1835.07 0.375624 -0.779714 -0.374201 206 203 203
-141.646 -1165.07 -1833.9 0.483104 -0.609797 -0.392081 203 199 197
-141.832 -1157.94 -1832.01 0.395561 -0.54921 -0.240083 186 181 174
-132.717 -1155.93 -1834.14 0.240219 -0.729796 -0.316881 154 152 151
-117.942 -1153.72 -1832.11 0.127354 -0.95766 -0.224127 156 153 153
-111.568 -1152.31 -1835.31 0.080571 -0.982489 -0.218353 178 175 175
-55.1814 -1182.31 -1833.74 -0.0879776 -0.769307 -0.0465416 115 109 112
-95.0035 -1154.67 -1833.02 -0.056788 -0.81244 -0.249646 179 179 179
-79.9562 -1153.18 -1834.29 -0.445873 -0.711034 -0.195524 181 182 184
-69.2127 -1170.69 -1833.88 -0.819653 -0.529756 -0.279842 161 160 164
-64.6148 -1177.2 -1831.34 -0.610514 -0.680934 -0.246683 126 123 129
-75.1907 -1159.47 -1835.26 -0.734087 -0.54917 -0.149811 189 189 192
23.1881 -586.983 -1835.86 0.371042 0.0981261 -0.911884 214 212 231
32.9085 -588.902 -1832.36 0.280433 0.0814321 -0.943685 214 212 231
28.1391 -581.367 -1833.13 0.298659 0.158133 -0.929387 213 211 230
18.3747 -578.734 -1835.72 0.385904 0.219298 -0.881401 210 209 227
11.824 -570.893 -1836.19 0.503493 0.226811 -0.827928 203 203 222
21.7166 -574.421 -1833.37 0.328055 0.253617 -0.900696 209 207 226
31.4175 -575.69 -1831.11 0.259095 0.225737 -0.934269 211 209 228
36.7447 -588.402 -1831.45 0.208368 0.0721449 -0.962806 213 211 230
35.8849 -580.238 -1831.06 0.232338 0.111829 -0.956733 213 212 231
52.866 -588.758 -1831.04 -0.0130904 0.0259956 -1.0057 210 210 229
60.1777 -586.635 -1831.28 -0.0289045 0.0108237 -1.02727 213 212 231
55.5115 -585.801 -1831.17 -0.0349816 0.0126007 -1.01579 210 210 229
55.5171 -574.804 -1830.93 -0.149257 0.148966 -0.986349 212 212 231
9.27338 -562.072 -1835.61 0.51087 0.261652 -0.815636 188 189 207
15.7133 -562.261 -1831.84 0.459739 0.245719 -0.850286 197 197 216
13.3894 -555.48 -1830.79 0.487974 0.292602 -0.821119 187 188 208
-4.53174 -536 -1831.72 0.673906 0.308869 -0.650215 199 202 221
-9.65835 -517.003 -1834.11 0.882589 0.122277 -0.445954 210 215 235
-10.8335 -514.515 -1836.82 0.888655 0.111033 -0.443364 209 215 234
-11.1194 -507.278 -1836.8 0.874291 0.124709 -0.466421 205 211 230
-11.0452 -498.695 -1836.22 0.830336 0.183024 -0.50626 200 206 225
-8.63364 -494.513 -1831.35 0.845904 0.178878 -0.482767 202 207 226
-14.8351 -485.002 -1832.28 0.557505 0.529329 -0.612583 198 202 221
-83.5172 244.929 -1830.92 0.439174 0.0782868 -0.858539 41 54 89
-77.049 245.434 -1831.5 0.468171 -0.0331153 -0.739963 52 64 100
-109.171 252.336 -1834.79 0.598377 0.295561 -0.694876 36 47 79
-109.167 252.717 -1834.45 0.603847 0.325447 -0.688473 35 46 78
-129.114 273.393 -1834.27 0.853366 0.480361 -0.0530804 39 50 83
-119.779 262.15 -1835.29 0.734611 0.445725 -0.399276 36 49 81
-130.643 278.628 -1836.33 0.895139 0.295618 -0.017274 46 56 86
-130.637 283.219 -1835.12 0.891334 0.103997 -0.103774 58 66 92
-122.191 291.489 -1832.09 0.692462 -0.362873 -0.410748 102 101 115
-113.257 294.356 -1834.87 0.475464 -0.716151 -0.479399 147 130 130
-101.128 249.962 -1831.37 0.483811 0.434475 -0.735649 26 36 68
-95.6011 245.642 -1834.18 0.343144 0.0726416 -0.822007 38 48 79
-80.9992 250.267 -1832.77 0.343087 0.0670925 -0.810427 48 59 91
-87.1574 253.608 -1836.34 0.149338 -0.0689167 -0.874011 48 54 77
-87.9578 264.539 -1836.04 0.201525 0.160024 -0.872354 44 51 78
-84.7888 265.932 -1833.68 0.287595 0.311344 -0.849847 42 52 83
-87.4879 268.323 -1835.12 0.236989 0.216909 -0.862049 43 51 80
-75.6205 249.11 -1830.47 0.442131 -0.00728791 -0.716848 57 69 105
-94.1846 285.743 -1837.57 0.166202 -0.153858 -0.725325 135 122 121
-91.3398 281.304 -1834.24 0.291647 -0.154477 -0.649511 112 109 120
-92.2481 291.297 -1834.28 0.165623 -0.175247 -0.708342 143 127 124
-99.0177 297.269 -1831.35 0.575226 -0.592417 -0.44605 161 138 123
-90.2925 301.084 -1832.85 0.445847 -0.0838348 -0.50219 148 148 137
-50.7251 311.208 -1836.49 -0.256382 0.928615 -0.256618 106 173 169
-35.4108 318.515 -1835.64 -0.485745 0.824845 -0.256694 128 195 191
-26.2287 328.34 -1830.88 -0.644618 0.696209 -0.305327 157 232 233
-219.003 -421.99 -1830.5 0.533489 0.12066 -0.827047 227 230 247
-223.228 -372.757 -1830.73 0.524655 0.124895 -0.803464 231 235 247
-212.903 -420.049 -1826.34 0.516229 0.104648 -0.844388 227 229 245
-210.889 -417.674 -1824.75 0.518586 0.0988084 -0.844409 226 228 245
-216.695 -407.492 -1830.03 0.569416 -0.0882101 -0.806151 230 232 248
-214.109 -401.507 -1828.21 0.605551 -0.0433009 -0.786656 230 233 248
-212.995 -396.062 -1827.54 0.58511 -0.0195058 -0.801824 231 234 249
-217.484 -386.592 -1830.05 0.43529 0.117769 -0.887545 229 232 247
-209.587 -388.109 -1824.71 0.563861 0.0508099 -0.812735 231 235 249
-214.758 -372.149 -1824.34 0.528608 0.146295 -0.826429 233 239 251
-112.365 -473.962 -1825.23 -0.683024 0.118006 -0.71919 214 216 236
-109.072 -471.561 -1828.07 -0.680264 0.167089 -0.710578 208 210 230
-109.29 -463.827 -1825.23 -0.640198 0.210247 -0.735385 205 208 227
68.042 -570.412 -1830.49 -0.110436 0.174309 -0.886534 209 211 230
61.6664 -559.072 -1825.14 -0.175692 0.282368 -0.773859 210 211 231
72.0423 -563.593 -1829.41 -0.369693 0.268952 -0.703722 211 214 236
72.7795 -553.057 -1825.44 -0.51539 0.20613 -0.595119 206 209 230
72.1497 -550.046 -1823.27 -0.528047 0.178885 -0.562005 201 203 225
80.8936 -540.949 -1826.72 -0.768084 0.351453 -0.53324 208 212 234
84.5544 -532.584 -1827.86 -0.869209 0.301311 -0.408948 204 210 234
85.9082 -526.303 -1826.2 -0.879611 0.277123 -0.317829 201 208 231
88.0836 -516.631 -1823.15 -0.887402 0.337238 -0.228471 208 215 237
88.4873 -494.22 -1824.86 -0.904711 -0.233972 -0.330165 215 223 246
90.7295 -503.545 -1826.91 -0.938496 -0.0125656 -0.261478 218 225 249
91.3466 -493.443 -1830.5 -0.918017 -0.0748699 -0.347077 217 224 247
-26.1848 -468.521 -1828.22 0.514829 0.411152 -0.747553 208 210 230
-36.8409 -459.649 -1830.57 0.491364 0.429649 -0.754964 186 188 207
-25.0403 -465.88 -1825.87 0.544225 0.38507 -0.742576 205 208 228
-35.8611 -459.352 -1829.77 0.485062 0.432148 -0.757571 187 189 208
-21.3654 -477.184 -1830.2 0.446868 0.553106 -0.699208 207 209 229
-19.9763 -471.157 -1825.03 0.551668 0.450973 -0.693129 204 207 227
-195.015 -32.8795 -1826.45 0.77564 0.0891218 -0.535778 44 58 91
-194.972 -23.9408 -1826.33 0.744688 0.0330557 -0.602686 45 58 92
-194.853 -12.9739 -1828.66 0.642626 -0.101689 -0.733208 47 60 93
-189.689 -17.1432 -1825.61 0.611531 -0.00775331 -0.731086 49 61 94
-188.403 -9.24078 -1828.18 0.445588 -0.179718 -0.824127 51 63 96
-179.977 -8.82114 -1824.34 0.455707 -0.13798 -0.840916 51 62 94
-183.732 -0.0284941 -1829.46 0.459963 -0.281038 -0.837575 51 63 94
-178.903 6.57946 -1830.18 0.27591 -0.314874 -0.894046 49 62 94
-165.41 -1.67133 -1823.98 -0.0919514 -0.223766 -0.930401 49 61 95
-170.649 6.96804 -1827.76 0.100153 -0.408647 -0.89341 47 60 93
-175.357 9.46775 -1830.45 0.14733 -0.358071 -0.906071 48 61 93
-165.578 32.756 -1830.26 0.532987 0.0591126 -0.817444 41 55 88
-164.344 49.4138 -1827.27 0.415325 0.107345 -0.810134 48 61 96
-166.644 52.4038 -1828.08 0.435024 0.0743047 -0.809249 49 63 98
-169.832 61.9922 -1830.03 0.331701 -0.0740454 -0.865126 46 61 97
102.424 -366.236 -1825.01 -0.609226 0.00359081 -0.720624 231 236 248
104.608 -360.543 -1826.51 -0.613561 0.0380228 -0.560935 224 229 243
105.176 -351.45 -1828.76 -0.859639 -0.0837435 -0.110706 209 216 235
103.797 -344.319 -1827.34 -0.930835 -0.300417 0.0164358 196 203 223
98.6641 -333.714 -1825.1 -0.872309 -0.374888 -0.168815 213 218 233
95.7708 -322.965 -1826.8 -0.917664 -0.288128 -0.200689 206 211 226
94.3976 -315.696 -1828.32 -0.924332 -0.196884 -0.271692 204 210 225
92.5641 -312.187 -1825.44 -0.909291 -0.189939 -0.323026 208 214 227
93.1618 -300.594 -1831 -0.86517 -0.125109 -0.448639 206 212 230
90.8277 -291.938 -1827.23 -0.86334 -0.120583 -0.412292 215 221 234
86.7851 -281.598 -1825.33 -0.838637 -0.253676 -0.400011 211 217 231
79.3639 -267.363 -1824.2 -0.597323 -0.165892 -0.714767 202 208 221
87.4548 -269.586 -1830.56 -0.794698 -0.0961662 -0.573386 218 224 238
84.577 -262.92 -1829.99 -0.69587 -0.166639 -0.668746 221 228 238
69.3918 54.3375 -1828.24 -0.503485 -0.193087 -0.838649 50 67 102
65.2512 58.751 -1827.28 -0.451476 -0.163464 -0.869367 51 67 103
64.7277 68.9728 -1828.17 -0.42094 -0.0245374 -0.898697 51 68 104
67.1296 75.627 -1828.29 -0.388208 0.0221867 -0.915432 51 67 104
-47.2293 132.841 -1823.88 -0.160287 -0.10946 -0.965576 54 64 99
-34.8099 129.319 -1824.09 -0.0476127 -0.214253 -0.967343 48 60 97
46.2845 86.992 -1824.47 -0.334346 -0.0607803 -0.935547 49 64 100
48.6517 78.0458 -1824.53 -0.365548 -0.111334 -0.919312 52 67 103
48.0966 87.8223 -1824.96 -0.333841 -0.0453109 -0.937255 50 64 100
56.7274 86.2708 -1827.16 -0.352481 -0.114031 -0.918976 52 67 103
50.2956 93.757 -1825.29 -0.347254 -0.00884756 -0.927887 49 64 100
47.9926 99.7068 -1823.94 -0.319207 -0.00873408 -0.932486 49 63 99
55.3176 103.012 -1826.69 -0.44624 -0.0234681 -0.872896 52 65 103
-176.745 484.402 -1836.92 0.612631 0.638846 0.158311 74 63 68
-171.903 497.671 -1831.96 0.748465 0.514736 0.0941859 79 68 72
-171.197 490.928 -1826.55 0.705599 0.590606 -0.0643658 73 62 65
-171.374 506.334 -1838.71 0.767896 0.47128 0.207053 84 72 76
-168.632 498.215 -1823.85 0.689304 0.597535 -0.103069 74 63 66
-169.746 504.018 -1829.59 0.733386 0.51982 0.0520655 82 70 73
-150.589 -1174.56 -1818.15 -0.0609914 -0.99061 -0.0588752 200 197 197
-161.392 -1168.02 -1820.94 0.0858227 -0.885909 -0.115482 193 190 188
-141.882 -1173.84 -1818.58 0.162852 -0.957545 -0.167302 207 204 205
-162.277 -1161.3 -1818.36 0.290953 -0.90662 -0.00643717 206 204 202
-153.642 -1164.73 -1817.14 0.0844243 -0.916176 -0.0671755 193 190 187
-145.474 -1160.75 -1820.1 0.173262 -0.905335 -0.0687286 190 187 184
-147.423 -1159.56 -1818.52 0.136657 -0.976136 -0.0176372 191 189 186
-129.131 -1158.95 -1817.95 0.0837641 -0.857542 -0.190456 114 112 113
-123.148 -1157.35 -1822.27 0.138605 -0.883648 -0.237608 124 122 123
-107.463 -1159.2 -1818.8 -0.439096 -0.791814 -0.290274 119 117 116
-58.036 -1184.81 -1821.19 -0.343646 -0.898303 -0.209483 124 120 127
-55.7177 -1186.49 -1817.09 -0.266713 -0.904251 -0.212869 122 119 126
-95.1182 -1160.16 -1819.48 -0.473181 -0.73906 -0.306129 177 176 176
-86.3432 -1157.8 -1818.02 -0.333286 -0.767983 -0.482575 198 198 199
-81.8727 -1157.29 -1822.03 -0.532305 -0.698497 -0.305228 196 197 198
-68.5808 -1174.88 -1820.54 -0.737025 -0.61608 -0.171693 169 168 172
-75.1593 -1167.23 -1817.2 -0.560023 -0.647262 -0.172297 171 170 173
-208.159 -365.063 -1821.43 0.460863 -0.0449723 -0.872155 232 238 250
-210.774 -361.71 -1822.87 0.465258 -0.110302 -0.875457 229 236 249
-200.119 -368.914 -1816.87 0.430923 -0.0169969 -0.88986 236 241 253
-195.77 -355.837 -1817.33 0.42927 -0.125326 -0.887894 233 238 253
-200.595 -348.787 -1820.21 0.441451 -0.0801004 -0.883763 229 236 250
-202.34 -344.539 -1820.95 0.451551 -0.0325583 -0.876638 227 234 248
-206.206 -336.74 -1822.96 0.359133 0.0431933 -0.925272 227 235 249
-201.577 -341.561 -1820.26 0.482004 0.0261591 -0.862185 227 234 248
-200.628 -330.932 -1818.92 0.501166 0.0409167 -0.846317 230 238 251
-206.05 -325.125 -1821.85 0.408529 0.107192 -0.875431 230 238 252
-207.818 -319.418 -1821.96 0.379019 0.0965914 -0.878515 230 238 252
-197.193 -322.771 -1818.14 0.463053 -0.00550429 -0.869913 230 237 251
-198.703 -320.322 -1818.91 0.416711 0.0150061 -0.886409 230 237 251
-205.577 -308.8 -1820.33 0.352148 0.0382086 -0.916079 227 235 250
-200.153 -307.384 -1817.87 0.362988 0.124887 -0.911963 226 233 248
-204.307 -300.123 -1819.37 0.464175 0.0203049 -0.876718 230 238 250
-207.471 -292.498 -1821.65 0.529282 -0.0845369 -0.846332 237 245 254
-202.041 -294.975 -1817.81 0.529459 0.00548342 -0.842294 233 241 251
-205.364 -282.786 -1823.03 0.536422 -0.345772 -0.75104 239 245 254
-198.059 -278.021 -1819.68 0.557636 -0.440132 -0.695472 236 242 252
-197.294 -274.342 -1821.87 0.591927 -0.426534 -0.67734 237 243 253
-190.094 -265.953 -1818.22 0.426556 -0.288276 -0.816052 234 236 250
-75.4701 151.518 -1823.51 0.23939 -0.179797 -0.948649 44 57 89
-72.4878 156.035 -1822.98 0.297419 -0.170211 -0.935545 47 59 91
-64.5121 148.895 -1820.02 0.210765 -0.0729135 -0.953517 57 67 100
-52.4005 149.873 -1820.79 -0.0929106 0.107373 -0.976227 52 63 97
-56.2252 156.398 -1819.41 0.0819683 0.0350546 -0.9687 56 66 100
-64.8183 171.254 -1822.64 0.377835 -0.172426 -0.902618 53 63 95
-56.7362 163.109 -1819.72 0.152072 -0.08176 -0.948522 57 67 100
-58.6941 171.365 -1821.57 0.226931 -0.172113 -0.931868 56 66 99
-50.895 175.257 -1822.83 -0.0137398 -0.239648 -0.964517 56 66 101
-75.3725 224.363 -1820.58 0.637964 -0.401384 -0.507891 56 70 110
-77.1424 227.1 -1822.17 0.576769 -0.365413 -0.651896 53 67 107
91.9103 -353.867 -1817.42 -0.383713 0.167331 -0.867339 231 235 245
100.635 -352.374 -1820.86 -0.591714 0.00505747 -0.642788 224 230 246
99.4595 -346.819 -1820.16 -0.588772 -0.0295651 -0.577466 221 227 242
96.8023 -336.949 -1820.06 -0.65877 -0.256274 -0.517948 224 229 241
92.6953 -327.845 -1818.04 -0.610139 -0.214843 -0.577458 232 236 246
93.3508 -323.847 -1821.11 -0.751873 -0.222405 -0.419356 220 225 237
88.9949 -312.515 -1816.78 -0.753173 -0.207879 -0.607864 245 251 254
88.1714 -298.476 -1821.04 -0.893383 -0.138049 -0.356608 196 202 216
85.365 -286.633 -1819.56 -0.757094 -0.286237 -0.444156 215 221 234
73.5119 -275.69 -1816.71 -0.363269 -0.465201 -0.754865 242 246 251
83.6985 -279.955 -1821.89 -0.774565 -0.348176 -0.41361 202 208 222
82.6893 -275.704 -1822.86 -0.784812 -0.297316 -0.461378 189 196 211
74.827 -269.311 -1820.5 -0.431702 -0.323523 -0.769005 227 232 239
63.1434 -262.389 -1818.27 -0.396509 -0.315879 -0.827711 250 251 255
78.1574 -268.686 -1822.79 -0.567074 -0.225549 -0.706707 205 211 223
55.1022 -244.849 -1816.8 -0.523364 -0.124837 -0.760546 241 245 254
37.1456 198.209 -1823.31 -0.347695 -0.0312479 -0.844084 48 55 82
-40.8104 258.535 -1817.74 -0.374027 0.0601885 -0.857892 105 95 112
-43.6207 263.28 -1823.1 -0.262244 -0.0476824 -0.786509 97 94 117
-45.9955 268.649 -1823.52 -0.0377402 0.0518749 -0.910795 80 91 125
-46.367 318.424 -1821.77 -0.301916 0.837261 -0.439122 111 197 195
-39.5588 321.191 -1823.17 -0.408002 0.796596 -0.432086 105 196 194
-34.7911 325.586 -1820.89 -0.485032 0.754402 -0.427421 107 200 200
-22.7474 335.528 -1822.74 -0.688308 0.656741 -0.314448 172 245 247
-19.6545 342.572 -1817.93 -0.74376 0.527305 -0.371632 174 237 239
-162.736 -527.6 -1813.68 0.482692 0.24681 -0.808913 206 208 229
-170.114 -510.533 -1813.34 0.641289 0.278084 -0.731687 215 218 239
-163.331 -514.627 -1811.03 0.502877 0.208614 -0.817154 209 211 232
-173.501 -506.952 -1815.06 0.61537 0.298727 -0.73116 219 223 243
-174.518 -498.909 -1812.86 0.567288 0.277322 -0.76448 222 225 246
10.6476 -1155.19 -1816.03 0.0621049 -0.95512 -0.161063 175 167 169
31.6295 -1159.65 -1811.6 -0.20621 -0.94199 -0.17888 190 185 182
30.5651 -1158.48 -1816.71 -0.256708 -0.943665 -0.146409 166 162 161
33.4997 -1159.71 -1812.45 -0.201219 -0.950263 -0.124906 184 180 177
