ply
format ascii 1.0
comment Created by Open3D
element vertex 1503
property double x
property double y
property double z
property uchar red
property uchar green
property uchar blue
end_header
-162.839 -323.527 -865 45 49 46
-160.61 -322.693 -863 45 49 46
-158.758 -322.609 -863 43 47 44
-156.726 -322.152 -862 45 49 46
-154.52 -321.322 -860 49 53 50
-152.68 -321.241 -860 50 54 51
-150.84 -321.161 -860 51 55 52
-148.829 -320.709 -859 49 53 50
-146.652 -319.884 -857 50 54 51
-144.992 -320.181 -858 50 54 51
-142.995 -319.732 -857 48 52 49
-141.004 -319.284 -856 49 53 50
-138.856 -318.464 -854 49 54 51
-136.878 -318.019 -853 50 57 53
-134.748 -317.202 -851 53 57 54
-132.626 -316.386 -849 52 56 53
-130.669 -315.944 -848 53 57 54
-128.869 -315.876 -848 51 58 54
-127.22 -316.182 -849 50 57 53
-125.421 -316.115 -849 50 57 53
-123.622 -316.05 -849 48 55 51
-121.968 -316.358 -850 47 54 50
-120.17 -316.294 -850 49 53 50
-118.511 -316.604 -851 49 53 50
-116.713 -316.542 -851 46 50 47
-115.321 -317.597 -854 45 49 46
-113.917 -318.653 -857 47 51 48
-112.632 -320.081 -861 50 54 51
-111.46 -321.881 -866 49 53 50
-110.268 -323.681 -871 49 53 50
-109.056 -325.482 -876 49 53 50
-107.823 -327.282 -881 49 53 50
-106.571 -329.084 -886 50 54 51
-105.18 -330.514 -890 50 54 51
-103.774 -331.945 -894 51 55 52
-102.352 -333.376 -898 52 56 53
-100.801 -334.437 -901 50 54 51
-99.3493 -335.869 -905 48 55 49
-97.8813 -337.302 -909 48 54 49
-96.1862 -337.994 -911 49 53 48
-94.6906 -339.428 -915 46 50 45
-93.179 -340.863 -919 45 49 44
-91.4529 -341.556 -921 46 50 45
-89.8164 -342.622 -924 46 50 47
-88.1682 -343.688 -927 48 52 49
-86.3221 -344.013 -928 47 51 48
-84.4726 -344.339 -929 44 50 46
-82.7086 -345.037 -931 42 49 45
-80.8501 -345.365 -932 45 49 46
-78.9882 -345.694 -933 45 49 46
-77.0402 -345.654 -933 42 46 43
-75.3344 -346.725 -936 41 45 42
-73.4599 -347.057 -937 42 46 43
-71.5819 -347.39 -938 44 48 45
-69.7745 -348.094 -940 46 50 47
-67.8873 -348.428 -941 45 49 46
-65.9265 -348.394 -941 45 49 46
-64.0341 -348.73 -942 44 48 45
-62.0724 -348.697 -942 45 49 46
-60.1112 -348.666 -942 46 50 47
-58.1504 -348.635 -942 45 49 46
-56.1902 -348.605 -942 44 48 45
-54.2305 -348.577 -942 45 49 46
-52.2712 -348.549 -942 48 52 49
-50.3658 -348.892 -943 47 51 48
-48.5081 -349.607 -945 47 51 48
-46.5932 -349.952 -946 48 52 49
-44.7217 -350.668 -948 48 52 49
-42.7972 -351.015 -949 48 52 49
-40.8259 -350.994 -949 48 52 49
-38.8959 -351.343 -950 46 50 47
-36.962 -351.693 -951 47 51 48
-35.0244 -352.044 -952 46 50 47
-33.0829 -352.397 -953 45 49 46
-31.1702 -353.119 -955 41 45 42
-29.2189 -353.473 -956 40 44 41
-27.2637 -353.829 -957 41 45 42
-25.3574 -354.924 -960 42 46 43
-23.3902 -355.281 -961 43 47 44
-21.4636 -356.379 -964 45 49 46
-19.5045 -357.108 -966 46 50 47
-17.5736 -358.577 -970 47 51 48
-15.5941 -359.307 -972 51 54 51
-13.6344 -360.778 -976 52 55 52
-11.6582 -362.251 -980 53 55 53
-9.70484 -365.202 -988 60 60 58
-7.73388 -368.894 -998 80 80 79
-5.77833 -376.283 -1018 97 97 97
-238.072 -375.283 -990 90 86 89
-232.562 -369.85 -976 58 60 60
-226.88 -364.043 -961 51 53 53
-223.605 -362.028 -956 53 55 55
-219.427 -358.501 -947 58 62 60
-215.291 -354.978 -938 59 64 61
-210.059 -349.566 -924 55 62 58
-205.791 -345.671 -914 48 55 51
-201.791 -342.159 -905 44 50 47
-198.937 -340.539 -901 44 48 47
-196.101 -338.922 -897 40 44 42
-193.934 -338.439 -896 41 45 42
-191.131 -336.825 -892 43 47 46
-188.983 -336.346 -891 42 49 47
-186.421 -335.113 -888 40 48 46
-184.082 -334.259 -886 40 46 45
-181.547 -333.03 -883 41 47 46
-179.434 -332.556 -882 43 49 48
-176.925 -331.33 -879 45 49 48
-174.629 -330.483 -877 44 48 46
-172.146 -329.26 -874 44 48 45
-169.873 -328.415 -872 45 49 46
-167.61 -327.572 -870 45 49 46
-165.357 -326.73 -868 45 49 47
-163.114 -325.89 -866 49 53 50
-161.067 -325.428 -865 48 52 49
-159.026 -324.966 -864 45 49 46
-156.809 -324.13 -862 44 48 45
-154.782 -323.671 -861 47 51 48
-152.76 -323.214 -860 48 52 49
-150.744 -322.757 -859 48 52 49
-148.734 -322.302 -858 47 51 48
-146.73 -321.848 -857 48 52 49
-144.9 -321.771 -857 48 52 49
-142.904 -321.319 -856 46 50 47
-141.079 -321.244 -856 46 50 47
-138.93 -320.419 -854 48 54 50
-136.79 -319.596 -852 49 56 52
-134.66 -318.774 -850 51 55 52
-132.696 -318.328 -849 51 55 52
-130.584 -317.509 -847 53 57 54
-128.785 -317.44 -847 51 58 54
-127.138 -317.747 -848 49 56 52
-125.339 -317.68 -848 49 56 52
-123.542 -317.615 -848 49 56 52
-121.745 -317.55 -848 48 55 51
-120.091 -317.861 -849 48 54 51
-118.434 -318.172 -850 51 55 52
-116.774 -318.484 -851 50 54 51
-115.381 -319.546 -854 49 53 50
-113.976 -320.608 -857 49 53 50
-112.56 -321.67 -860 51 55 52
-111.39 -323.481 -865 51 55 52
-110.199 -325.293 -870 49 53 50
-108.864 -326.731 -874 48 52 49
-107.513 -328.169 -878 49 53 50
-106.386 -330.355 -884 52 56 53
-104.999 -331.794 -888 52 56 53
-103.596 -333.234 -892 51 55 52
-102.291 -335.048 -897 52 56 53
-100.742 -336.115 -900 50 54 51
-99.4013 -337.929 -905 48 55 49
-97.9325 -339.371 -909 48 54 48
-96.3422 -340.44 -912 50 54 49
-94.7401 -341.51 -915 48 52 47
-93.2277 -342.953 -919 47 51 46
-91.6 -344.024 -922 47 51 46
-89.8633 -344.723 -924 46 50 46
-88.119 -345.422 -926 46 50 47
-86.3672 -346.123 -928 47 51 48
-84.5167 -346.451 -929 45 51 48
-82.7517 -347.153 -931 43 50 46
-80.8923 -347.483 -932 45 49 46
-79.1141 -348.187 -934 44 48 45
-77.163 -348.146 -934 43 47 44
-75.3736 -348.851 -936 42 46 43
-73.4982 -349.185 -937 42 46 43
-71.6192 -349.52 -938 43 47 44
-69.6623 -349.483 -938 45 49 46
-67.8505 -350.192 -940 46 50 47
-65.9608 -350.53 -941 46 50 47
-63.9995 -350.496 -941 45 49 46
-62.1047 -350.835 -942 44 48 45
-60.2063 -351.176 -943 45 49 46
-58.1807 -350.772 -942 46 50 47
-56.2194 -350.743 -942 44 48 45
-54.2587 -350.714 -942 45 49 46
-52.2984 -350.686 -942 46 50 47
-50.4455 -351.404 -944 48 52 49
-48.5333 -351.75 -945 48 52 49
-46.6174 -352.097 -946 47 51 48
-44.745 -352.818 -948 46 50 47
-42.8194 -353.167 -949 48 52 49
-40.8471 -353.145 -949 48 52 49
-38.8751 -353.125 -949 48 52 49
-36.9424 -353.477 -950 48 52 49
-35.0426 -354.202 -952 46 50 47
-33.1001 -354.557 -953 44 48 45
-31.1864 -355.284 -955 42 46 43
-29.2647 -356.012 -957 40 44 41
-27.3063 -356.37 -958 41 45 42
-25.3705 -357.1 -960 44 48 45
-23.4023 -357.459 -961 43 47 44
-21.4524 -358.191 -963 43 47 44
-19.5146 -359.297 -966 44 48 45
-17.5645 -360.403 -969 46 50 47
-15.5861 -361.138 -971 51 54 51
-13.6135 -362.246 -974 53 55 54
-11.6523 -364.099 -979 52 54 54
-9.68038 -366.325 -985 60 60 58
-7.72239 -370.412 -996 82 82 80
-5.77561 -378.218 -1017 98 98 97
-238.682 -378.343 -992 91 87 90
-232.45 -371.732 -975 59 60 60
-227.476 -367.033 -963 48 50 50
-223.726 -364.243 -956 52 54 54
-219.778 -361.076 -948 58 61 60
-215.637 -357.53 -939 60 64 62
-211.082 -353.227 -928 55 62 58
-206.352 -348.547 -916 50 57 53
-202.123 -344.632 -906 42 49 45
-199.265 -343.003 -902 40 44 43
-196.426 -341.375 -898 39 43 41
-194.039 -340.509 -896 42 46 43
-191.448 -339.265 -893 42 47 46
-189.085 -338.403 -891 42 48 46
-186.731 -337.542 -889 40 48 46
-184.181 -336.304 -886 41 48 46
-182.056 -335.826 -885 41 48 46
-179.734 -334.969 -883 43 49 48
-177.221 -333.736 -880 46 50 49
-174.722 -332.503 -877 45 49 48
-172.435 -331.652 -875 45 49 46
-169.769 -330.044 -871 43 47 44
-167.699 -329.575 -870 42 46 44
-165.445 -328.728 -868 44 48 47
-163.389 -328.261 -867 49 53 50
-161.153 -327.417 -865 49 53 50
-159.295 -327.331 -865 47 51 48
-156.893 -326.111 -862 44 48 45
-154.865 -325.65 -861 44 48 45
-152.664 -324.811 -859 47 51 48
-150.649 -324.352 -858 47 51 48
-148.64 -323.894 -857 46 50 48
-146.636 -323.437 -856 48 52 49
-144.808 -323.359 -856 47 51 48
-142.98 -323.283 -856 43 47 44
-140.989 -322.829 -855 44 48 45
-138.841 -322 -853 47 53 50
-136.863 -321.549 -852 49 56 52
-134.573 -320.344 -849 52 56 53
-132.61 -319.896 -848 53 57 54
-130.653 -319.448 -847 55 60 57
-128.701 -319.002 -846 52 59 55
-127.055 -319.311 -847 48 55 51
-125.257 -319.244 -847 49 56 52
-123.461 -319.178 -847 49 54 51
-121.81 -319.49 -848 47 53 50
-120.296 -320.179 -850 49 55 52
-118.636 -320.492 -851 52 56 53
-116.973 -320.806 -852 51 55 52
-115.442 -321.498 -854 51 55 52
-114.037 -322.566 -857 51 55 52
-112.62 -323.635 -860 52 56 53
-111.32 -325.081 -864 53 57 54
-110.13 -326.903 -869 51 55 52
-108.921 -328.726 -874 50 54 51
-107.569 -330.173 -878 50 54 51
-106.322 -331.996 -883 52 56 53
-105.054 -333.82 -888 52 56 53
-103.651 -335.269 -892 52 56 53
-102.231 -336.718 -896 52 56 53
-100.795 -338.167 -900 50 54 51
-99.3437 -339.617 -904 49 55 50
-97.8762 -341.068 -908 47 54 48
-96.3928 -342.519 -912 51 55 50
-94.8935 -343.97 -916 51 55 50
-93.2767 -345.047 -919 50 53 48
-91.7476 -346.5 -923 48 52 47
-89.9106 -346.827 -924 45 49 45
-88.1654 -347.531 -926 44 48 45
-86.4126 -348.236 -928 45 49 46
-84.5611 -348.566 -929 43 49 45
-82.7063 -348.897 -930 41 48 44
-80.9348 -349.604 -932 44 48 45
-79.1557 -350.312 -934 44 48 45
-77.2861 -350.646 -935 44 48 45
-75.4132 -350.981 -936 44 48 45
-73.5367 -351.316 -937 42 46 43
-71.6567 -351.653 -938 41 45 42
-69.6989 -351.616 -938 43 47 44
-67.8138 -351.955 -939 45 49 46
-65.9252 -352.294 -940 46 50 47
-63.965 -352.26 -940 45 49 46
-62.0713 -352.602 -941 44 48 45
-60.1101 -352.57 -941 45 49 46
-58.1493 -352.539 -941 45 49 46
-56.2489 -352.883 -942 44 48 45
-54.2871 -352.854 -942 42 46 43
-52.3258 -352.826 -942 45 49 46
-50.4184 -353.174 -943 47 51 48
-48.5074 -353.522 -944 47 51 48
-46.6418 -354.246 -946 47 51 48
-44.7211 -354.597 -947 45 49 46
-42.7967 -354.948 -948 43 47 44
-40.8685 -355.3 -949 43 47 44
-38.9364 -355.654 -950 47 51 48
-36.9617 -355.634 -950 49 53 50
-35.0609 -356.364 -952 49 53 50
-33.1522 -357.095 -954 45 49 46
-31.2027 -357.452 -955 45 49 46
-29.2799 -358.185 -957 43 47 44
-27.3206 -358.544 -958 41 45 42
-25.3838 -359.279 -960 44 48 45
-23.4389 -360.015 -962 43 47 44
-21.4859 -360.751 -964 43 47 44
-19.5248 -361.489 -966 44 47 44
-17.5737 -362.602 -969 47 50 47
-15.5942 -363.342 -971 53 53 51
-13.6206 -364.457 -974 51 52 52
-11.6703 -366.695 -980 51 53 53
-9.68541 -368.56 -985 60 60 58
-7.73411 -373.046 -997 81 81 79
-5.7729 -380.151 -1016 98 98 96
-238.812 -380.648 -992 91 87 90
-232.338 -373.614 -974 61 62 63
-227.363 -368.886 -962 50 52 52
-222.911 -364.929 -952 53 55 55
-219.201 -362.126 -945 57 60 59
-215.294 -358.942 -937 63 67 66
-210.059 -353.464 -923 56 63 59
-206.013 -349.905 -914 52 57 55
-202.233 -346.731 -906 44 48 47
-199.152 -344.709 -901 41 45 44
-196.313 -343.071 -897 42 46 45
-193.71 -341.818 -894 42 46 44
-191.123 -340.567 -891 42 48 47
-188.975 -340.082 -890 42 48 47
-186.622 -339.216 -888 41 48 46
-184.072 -337.969 -885 41 49 47
-181.743 -337.107 -883 40 48 46
-179.627 -336.627 -882 41 49 47
-177.316 -335.767 -880 46 50 49
-174.817 -334.527 -877 46 50 49
-172.528 -333.671 -875 46 50 49
-170.055 -332.434 -872 42 46 43
-167.79 -331.581 -870 40 44 42
-165.534 -330.728 -868 44 48 45
-163.477 -330.259 -867 47 51 48
-161.426 -329.79 -866 46 50 47
-159.381 -329.323 -865 46 50 47
-157.159 -328.476 -863 46 50 47
-155.128 -328.012 -862 46 50 47
-152.924 -327.168 -860 47 51 50
-150.73 -326.325 -858 48 52 51
-148.72 -325.865 -857 46 50 49
-146.715 -325.405 -856 46 50 47
-144.716 -324.946 -855 47 51 47
-142.889 -324.869 -855 46 50 46
-140.899 -324.413 -854 46 53 49
-138.915 -323.958 -853 47 54 50
-136.775 -323.125 -851 49 56 52
-134.486 -321.913 -848 52 56 53
-132.525 -321.462 -847 52 57 54
-130.414 -320.632 -845 52 59 55
-128.618 -320.563 -845 51 58 54
-126.973 -320.874 -846 48 55 51
-125.176 -320.807 -846 48 55 51
-123.381 -320.74 -846 50 54 51
-121.875 -321.433 -848 47 51 48
-120.219 -321.747 -849 49 53 50
-118.421 -321.683 -849 51 55 52
-116.898 -322.378 -851 51 55 52
-115.368 -323.074 -853 52 56 53
-113.964 -324.149 -856 51 57 53
-112.679 -325.603 -860 50 57 53
-111.379 -327.057 -864 53 57 54
-110.062 -328.512 -868 53 56 53
-108.979 -330.724 -874 53 56 53
-107.626 -332.18 -878 52 56 54
-106.258 -333.636 -882 50 54 52
-104.992 -335.471 -887 49 53 50
-103.706 -337.307 -892 49 54 51
-102.171 -338.386 -895 49 54 51
-100.737 -339.844 -899 48 53 50
-99.2865 -341.303 -903 49 54 50
-97.9281 -343.14 -908 50 55 50
-96.3382 -344.222 -911 51 55 50
-94.9438 -346.061 -916 52 55 50
-93.3261 -347.144 -919 51 54 49
-91.7962 -348.606 -923 46 50 45
-89.9582 -348.935 -924 44 48 44
-88.3073 -350.021 -927 43 47 44
-86.4583 -350.352 -928 43 47 44
-84.6059 -350.684 -929 41 46 43
-82.75 -351.017 -930 41 47 43
-80.9776 -351.729 -932 43 47 44
-79.1974 -352.441 -934 43 47 44
-77.4097 -353.154 -936 43 47 44
-75.453 -353.113 -936 43 47 44
-73.5755 -353.451 -937 42 46 43
-71.6181 -353.413 -937 42 46 43
-69.7357 -353.752 -938 43 47 44
-67.8496 -354.093 -939 44 48 45
-65.8898 -354.058 -939 44 48 45
-63.9987 -354.4 -940 44 48 45
-62.038 -354.367 -940 44 48 45
-60.1417 -354.712 -941 47 51 48
-58.18 -354.68 -941 46 50 47
-56.2785 -355.027 -942 45 49 46
-54.3157 -354.998 -942 44 48 45
-52.3534 -354.969 -942 44 48 45
-50.445 -355.319 -943 47 51 48
-48.5329 -355.67 -944 47 51 48
-46.617 -356.021 -945 46 50 47
-44.6974 -356.374 -946 44 48 45
-42.774 -356.728 -947 43 47 44
-40.8469 -357.082 -948 45 49 46
-38.9159 -357.438 -949 48 52 49
-36.9812 -357.794 -950 49 53 50
-35.0794 -358.529 -952 49 53 50
-33.1348 -358.887 -953 47 51 48
-31.2191 -359.623 -955 47 51 48
-29.2953 -360.361 -957 46 50 47
-27.3349 -360.722 -958 45 49 46
-25.3971 -361.461 -960 46 50 47
-23.4513 -362.201 -962 45 49 46
-21.4749 -362.566 -963 43 47 44
-19.5351 -363.685 -966 45 48 44
-17.601 -365.181 -970 46 49 45
-15.6024 -365.549 -971 51 52 50
-13.6277 -366.67 -974 50 51 50
-11.6646 -368.546 -979 51 52 51
-9.67079 -370.046 -983 60 61 59
-7.72264 -374.559 -995 83 83 81
-5.77588 -382.461 -1016 97 97 96
-239.425 -383.729 -994 92 89 92
-232.465 -375.88 -974 63 63 65
-227.724 -371.509 -963 54 56 56
-223.033 -367.142 -952 55 57 57
-219.553 -364.707 -946 57 60 59
-215.182 -360.733 -936 60 64 63
-210.857 -356.763 -926 54 61 57
-206.126 -352.026 -914 48 54 51
-202.566 -349.219 -907 46 50 49
-199.039 -346.414 -900 45 49 48
-196.201 -344.767 -896 46 50 49
-193.599 -343.506 -893 46 50 49
-191.227 -342.632 -891 41 47 46
-189.077 -342.143 -890 42 48 47
-186.724 -341.272 -888 39 45 44
-184.172 -340.018 -885 40 48 46
-181.842 -339.15 -883 42 50 48
-179.521 -338.283 -881 41 49 47
-177.211 -337.418 -879 45 49 48
-174.712 -336.171 -876 45 49 48
-172.425 -335.309 -874 45 49 48
-169.952 -334.065 -871 45 49 46
-167.688 -333.206 -869 44 48 45
-165.433 -332.349 -867 46 50 47
-163.377 -331.877 -866 48 52 49
-161.327 -331.405 -865 47 51 48
-159.283 -330.935 -864 47 51 48
-157.062 -330.083 -862 47 51 48
-155.031 -329.616 -861 48 52 49
-152.828 -328.767 -859 48 52 51
-150.636 -327.919 -857 48 52 51
-148.626 -327.456 -856 49 53 52
-146.451 -326.611 -854 48 52 49
-144.625 -326.532 -854 48 52 49
-142.632 -326.072 -853 48 52 48
-140.81 -325.996 -853 45 52 48
-138.827 -325.538 -852 46 53 49
-136.688 -324.699 -850 47 54 50
-134.559 -323.862 -848 51 55 52
-132.596 -323.408 -847 52 56 53
-130.639 -322.956 -846 50 57 53
-128.687 -322.504 -845 49 56 52
-127.041 -322.817 -846 47 54 50
-125.244 -322.749 -846 47 54 50
-123.447 -322.682 -846 49 53 50
-121.796 -322.997 -847 48 52 49
-120.142 -323.314 -848 50 54 51
-118.484 -323.63 -849 51 55 52
-116.824 -323.948 -850 48 52 49
-115.43 -325.029 -853 49 53 50
-114.025 -326.111 -856 48 54 50
-112.74 -327.573 -860 48 55 51
-111.438 -329.037 -864 51 55 52
-110.121 -330.5 -868 52 55 52
-108.913 -332.345 -873 51 54 51
-107.561 -333.81 -877 51 55 53
-106.194 -335.275 -881 51 55 52
-104.811 -336.741 -885 50 54 51
-103.528 -338.587 -890 48 53 50
-101.997 -339.673 -893 46 53 49
-100.566 -341.14 -897 46 53 49
-99.2294 -342.988 -902 50 55 52
-97.8725 -344.837 -907 51 55 52
-96.2837 -345.925 -910 50 54 49
-94.8907 -347.775 -915 50 54 49
-93.3759 -349.244 -919 49 53 48
-91.7456 -350.335 -922 46 50 45
-89.9087 -350.666 -923 44 48 45
-88.1637 -351.379 -925 44 48 45
-86.4111 -352.092 -927 44 48 45
-84.5598 -352.426 -928 43 47 44
-82.7941 -353.141 -930 44 48 45
-81.0207 -353.856 -932 43 47 44
-79.2396 -354.573 -934 43 47 44
-77.3682 -354.911 -935 42 46 43
-75.4932 -355.249 -936 43 47 44
-73.5361 -355.21 -936 43 47 44
-71.5797 -355.171 -936 42 46 43
-69.6239 -355.133 -936 43 47 44
-67.7411 -355.476 -937 45 49 46
-65.8546 -355.82 -938 45 49 46
-63.9646 -356.165 -939 44 48 45
-62.0709 -356.51 -940 43 47 44
-60.1736 -356.857 -941 46 50 47
-58.2728 -357.205 -942 46 50 47
-56.3084 -357.174 -942 45 49 46
-54.4022 -357.524 -943 45 49 46
-52.4368 -357.496 -943 46 50 47
-50.5253 -357.847 -944 47 51 48
-48.5586 -357.821 -944 47 51 48
-46.6418 -358.175 -945 47 51 48
-44.7211 -358.529 -946 46 50 47
-42.7967 -358.885 -947 46 50 47
-40.8685 -359.242 -948 47 51 48
-38.9365 -359.599 -949 47 51 48
-37.0007 -359.958 -950 47 51 48
-35.098 -360.697 -952 47 51 48
-33.1524 -361.058 -953 47 51 48
-31.2029 -361.419 -954 46 50 47
-29.2802 -362.161 -956 47 51 48
-27.3495 -362.904 -958 47 51 48
-25.4106 -363.647 -960 48 52 49
-23.4636 -364.392 -962 48 52 49
-21.5086 -365.137 -964 47 51 48
-19.5454 -365.884 -966 46 50 46
-17.5922 -367.01 -969 47 51 46
-15.6267 -368.138 -972 49 52 49
-13.6489 -369.266 -975 50 51 49
-11.6945 -371.532 -981 53 53 51
-9.70545 -373.42 -986 59 62 59
-7.75 -377.96 -998 82 83 82
-5.77331 -384.395 -1015 97 97 97
-240.762 -387.989 -999 96 93 96
-232.832 -378.538 -975 68 68 69
-227.85 -373.753 -963 56 58 58
-223.391 -369.747 -953 56 58 58
-219.21 -366.134 -944 57 60 59
-214.61 -361.748 -933 58 62 61
-210.517 -358.142 -924 48 55 51
-206.239 -354.152 -914 43 49 46
-202.678 -351.327 -907 44 48 47
-199.591 -349.28 -902 47 51 50
-196.747 -347.622 -898 46 50 49
-193.922 -345.966 -894 45 49 48
-191.546 -345.086 -892 42 48 47
-189.393 -344.595 -891 43 49 48
-187.036 -343.718 -889 37 43 42
-184.481 -342.456 -886 39 45 44
-182.147 -341.583 -884 43 49 48
-179.619 -340.324 -881 42 50 48
-177.308 -339.454 -879 42 47 46
-174.807 -338.199 -876 46 50 49
-172.519 -337.332 -874 47 51 50
-170.24 -336.466 -872 46 50 48
-167.972 -335.602 -870 44 48 45
-165.714 -334.74 -868 45 49 46
-163.655 -334.264 -867 47 51 48
-161.601 -333.79 -866 47 51 48
-159.554 -333.317 -865 46 50 47
-157.33 -332.459 -863 47 51 48
-155.296 -331.989 -862 49 53 50
-153.09 -331.135 -860 50 54 52
-150.893 -330.282 -858 49 53 52
-148.707 -329.43 -856 49 53 52
-146.531 -328.58 -854 48 52 49
-144.534 -328.117 -853 48 52 49
-142.709 -328.038 -853 46 50 47
-140.721 -327.577 -852 41 48 44
-138.902 -327.501 -852 43 50 46
-136.762 -326.657 -850 47 54 50
-134.632 -325.815 -848 50 54 51
-132.824 -325.742 -848 50 54 51
-130.709 -324.902 -846 49 56 52
-128.757 -324.448 -845 48 55 51
-127.109 -324.763 -846 47 54 50
-125.311 -324.694 -846 47 54 50
-123.66 -325.011 -847 49 54 51
-121.862 -324.944 -847 51 55 52
-120.207 -325.262 -848 50 54 51
-118.548 -325.581 -849 48 52 49
-116.887 -325.901 -850 48 52 49
-115.492 -326.988 -853 46 50 47
-114.087 -328.076 -856 46 51 48
-112.669 -329.164 -859 48 53 50
-111.369 -330.636 -863 50 54 51
-110.053 -332.109 -867 51 54 51
-108.846 -333.965 -872 48 51 48
-107.496 -335.438 -876 51 55 52
-106.131 -336.912 -880 53 57 54
-104.867 -338.769 -885 53 57 54
-103.468 -340.244 -889 51 55 52
-102.052 -341.72 -893 50 55 51
-100.732 -343.578 -898 50 56 53
-99.2827 -345.055 -902 51 55 52
-97.925 -346.914 -907 51 55 52
-96.4413 -348.392 -911 50 54 49
-94.9416 -349.87 -915 49 53 48
-93.4259 -351.348 -919 50 54 49
-91.7948 -352.445 -922 48 52 47
-89.9569 -352.779 -923 46 50 46
-88.1156 -353.113 -924 47 51 48
-86.3642 -353.83 -926 48 52 49
-84.5139 -354.166 -927 45 49 46
-82.7493 -354.886 -929 43 47 44
-80.9771 -355.606 -931 43 47 44
-79.1971 -356.326 -933 43 47 44
-77.4095 -357.048 -935 44 48 45
-75.4528 -357.007 -935 44 48 45
-73.4968 -356.967 -935 45 49 46
-71.618 -357.31 -936 43 47 44
-69.6612 -357.272 -936 41 45 42
-67.705 -357.235 -936 42 46 43
-65.8196 -357.581 -937 44 48 45
-63.9988 -358.309 -939 43 47 44
-62.1041 -358.657 -940 43 47 44
-60.2058 -359.006 -941 44 48 45
-58.3039 -359.356 -942 45 49 46
-56.3982 -359.706 -943 45 49 46
-54.4313 -359.677 -943 45 49 46
-52.5204 -360.03 -944 45 49 46
-50.5522 -360.002 -944 45 49 46
-48.5845 -359.975 -944 47 51 48
-46.716 -360.712 -946 47 51 48
-44.745 -360.688 -946 46 50 47
-42.8196 -361.046 -947 46 50 47
-40.8903 -361.405 -948 47 51 48
-38.9573 -361.765 -949 46 50 47
-37.0204 -362.125 -950 48 52 49
-35.1167 -362.869 -952 49 53 50
-33.17 -363.231 -953 48 52 49
-31.2195 -363.595 -954 47 51 48
-29.2958 -364.341 -956 48 52 49
-27.3355 -364.707 -957 47 51 48
-25.3711 -365.074 -958 49 53 50
-23.4517 -366.205 -961 49 53 50
-21.52 -367.336 -964 46 50 47
-19.576 -368.468 -967 46 50 46
-17.6197 -369.601 -970 48 52 47
-15.6511 -370.735 -973 49 52 49
-13.6702 -371.871 -976 51 52 50
-11.7008 -373.769 -981 55 55 53
-9.73026 -376.43 -988 58 61 58
-7.7697 -380.998 -1000 81 83 81
-5.78201 -387.09 -1016 98 98 98
-234.156 -382.767 -980 74 73 75
-228.45 -376.781 -965 57 59 59
-223.749 -372.36 -954 56 58 58
-219.331 -368.335 -944 58 61 60
-215.19 -364.703 -935 57 61 60
-210.406 -359.905 -923 54 61 57
-206.128 -355.891 -913 46 52 49
-202.79 -353.439 -907 45 49 48
-199.48 -350.989 -901 47 51 50
-196.636 -349.322 -897 46 50 49
-194.246 -348.435 -895 45 49 48
-192.082 -347.938 -894 42 48 47
-189.711 -347.054 -892 42 48 47
-187.35 -346.172 -890 38 44 43
-184.791 -344.903 -887 40 46 45
-182.247 -343.635 -884 43 49 48
-179.31 -341.592 -879 42 48 47
-177.002 -340.716 -877 44 49 48
-174.504 -339.454 -874 46 50 49
-172.416 -338.97 -873 47 51 50
-170.138 -338.099 -871 45 49 47
-168.064 -337.618 -870 44 48 45
-165.805 -336.75 -868 43 47 44
-163.745 -336.271 -867 43 47 44
-161.503 -335.406 -865 45 49 46
-159.457 -334.931 -864 46 50 47
-157.416 -334.456 -863 47 51 48
-155.201 -333.595 -861 49 53 50
-153.173 -333.123 -860 49 53 50
-151.152 -332.652 -859 49 53 51
-148.962 -331.795 -857 49 53 52
-146.782 -330.94 -855 48 52 49
-144.782 -330.473 -854 46 50 47
-142.787 -330.008 -853 44 48 45
-140.798 -329.543 -852 41 48 44
-138.815 -329.08 -851 43 50 46
-136.836 -328.618 -850 47 54 50
-134.705 -327.771 -848 49 53 50
-132.74 -327.311 -847 49 53 50
-130.781 -326.853 -846 48 55 51
-128.979 -326.782 -846 49 56 52
-127.179 -326.712 -846 49 56 52
-125.528 -327.029 -847 48 55 51
-123.873 -327.347 -848 49 54 51
-122.072 -327.28 -848 50 54 51
-120.414 -327.6 -849 50 54 51
-118.752 -327.92 -850 50 54 51
-117.087 -328.242 -851 50 54 51
-115.555 -328.95 -853 50 54 51
-114.149 -330.044 -856 51 55 52
-112.73 -331.139 -859 50 54 51
-111.301 -332.235 -862 51 55 52
-110.113 -334.101 -867 52 56 53
-108.905 -335.968 -872 51 54 51
-107.677 -337.836 -877 49 53 50
-106.309 -339.318 -881 51 55 52
-104.924 -340.802 -885 52 56 53
-103.524 -342.285 -889 50 54 51
-102.107 -343.769 -893 50 54 51
-100.675 -345.254 -897 49 53 50
-99.3363 -347.124 -902 49 53 50
-97.8699 -348.61 -906 50 54 51
-96.3874 -350.096 -910 50 54 49
-94.889 -351.583 -914 50 54 49
-93.3747 -353.071 -918 51 55 50
-91.6451 -353.79 -920 48 52 47
-89.9079 -354.51 -922 47 51 47
-88.1631 -355.231 -924 46 50 47
-86.4107 -355.952 -926 47 51 48
-84.5595 -356.29 -927 45 49 46
-82.7939 -357.014 -929 42 46 43
-81.0207 -357.738 -931 42 46 43
-79.2398 -358.463 -933 42 46 43
-77.3684 -358.805 -934 44 48 45
-75.4128 -358.764 -934 46 50 47
-73.4578 -358.723 -934 44 48 45
-71.6565 -359.452 -936 42 46 43
-69.6986 -359.414 -936 41 45 41
-67.7414 -359.377 -936 41 45 41
-65.855 -359.725 -937 42 46 43
-63.965 -360.074 -938 43 47 43
-62.0714 -360.424 -939 42 46 42
-60.1741 -360.775 -940 41 45 42
-58.3352 -361.51 -942 43 47 44
-56.3688 -361.479 -942 44 48 45
-54.4605 -361.833 -943 45 49 46
-52.4929 -361.804 -943 43 47 44
-50.5794 -362.16 -944 44 48 45
-48.6106 -362.133 -944 46 50 47
-46.6917 -362.491 -945 45 49 46
-44.7217 -362.467 -945 44 48 45
-42.7973 -362.827 -946 46 50 47
-40.9122 -363.571 -948 47 51 48
-38.9782 -363.933 -949 47 51 48
-37.0403 -364.296 -950 48 52 49
-35.1724 -365.427 -953 47 51 48
-33.1878 -365.409 -953 46 50 47
-31.2035 -365.391 -953 45 49 46
-29.3115 -366.525 -956 45 49 46
-27.3501 -366.893 -957 46 50 47
-25.3848 -367.263 -958 48 52 49
-23.4643 -368.4 -961 46 50 47
-21.5092 -369.154 -963 46 50 47
-19.5663 -370.293 -966 48 52 47
-17.6292 -371.817 -970 49 53 48
-15.6917 -373.724 -975 48 51 48
-13.7056 -374.866 -978 51 52 50
-11.7786 -378.309 -987 54 54 52
-9.77489 -380.22 -992 56 59 56
-7.79709 -384.431 -1003 79 81 79
-5.80212 -390.56 -1019 97 97 97
-234.048 -384.666 -979 78 76 78
-228.814 -379.429 -966 58 60 60
-223.639 -374.197 -953 58 60 60
-219.221 -370.147 -943 59 62 61
-214.849 -366.101 -933 57 61 60
-210.295 -361.667 -922 55 60 57
-206.242 -358.02 -913 49 54 51
-202.679 -355.162 -906 46 50 49
-199.812 -353.482 -902 46 50 49
-196.746 -351.412 -897 46 50 49
-194.354 -350.519 -895 44 48 47
-192.188 -350.02 -894 42 48 47
-189.603 -348.74 -891 40 46 45
-187.243 -347.852 -889 38 44 43
-184.477 -346.184 -885 40 46 45
-181.936 -344.908 -882 41 47 46
-179.205 -343.244 -878 42 48 47
-176.898 -342.363 -876 45 50 49
-174.601 -341.484 -874 46 50 49
-172.511 -340.997 -873 46 50 49
-170.623 -340.902 -873 46 50 47
-168.35 -340.027 -871 43 47 44
-166.279 -339.544 -870 42 46 43
-164.024 -338.672 -868 41 45 42
-161.779 -337.802 -866 44 48 45
-159.545 -336.933 -864 46 50 47
-157.503 -336.455 -863 46 50 47
-155.286 -335.589 -861 48 52 49
-153.258 -335.114 -860 49 53 50
-151.059 -334.251 -858 50 54 51
-149.044 -333.779 -857 49 53 50
-146.863 -332.918 -855 47 51 48
-144.862 -332.449 -854 45 49 46
-142.698 -331.591 -852 45 49 46
-140.71 -331.124 -851 44 51 47
-138.728 -330.658 -850 44 51 47
-136.75 -330.193 -849 47 54 50
-134.62 -329.341 -847 48 53 50
-132.813 -329.267 -847 50 55 52
-131.007 -329.194 -847 49 56 52
-129.05 -328.734 -846 48 55 51
-127.248 -328.664 -846 48 55 51
-125.596 -328.983 -847 49 56 52
-123.795 -328.915 -847 50 55 52
-121.995 -328.847 -847 51 55 52
-120.338 -329.169 -848 50 54 51
-118.677 -329.491 -849 50 54 51
-117.014 -329.815 -850 51 55 52
-115.483 -330.527 -852 48 52 49
-114.077 -331.628 -855 50 54 51
-112.661 -332.729 -858 49 53 50
-111.361 -334.219 -862 51 55 52
-110.173 -336.097 -867 52 56 53
-108.84 -337.588 -871 53 56 53
-107.613 -339.466 -876 50 54 51
-106.367 -341.345 -881 49 53 50
-104.981 -342.837 -885 51 55 52
-103.58 -344.329 -889 50 54 51
-102.163 -345.822 -893 50 54 51
-100.729 -347.316 -897 49 53 49
-99.3904 -349.197 -902 47 51 48
-97.9231 -350.692 -906 50 54 51
-96.4399 -352.187 -910 50 54 49
-94.8368 -353.296 -913 50 54 49
-93.3237 -354.792 -917 51 55 50
-91.6949 -355.902 -920 48 52 47
-89.9567 -356.627 -922 46 50 46
-88.211 -357.352 -924 45 49 46
-86.3643 -357.691 -925 45 49 46
-84.6054 -358.418 -927 44 48 45
-82.8388 -359.145 -929 43 47 44
-80.9775 -359.487 -930 42 46 43
-79.1978 -360.217 -932 42 46 43
-77.4103 -360.947 -934 44 48 45
-75.4536 -360.906 -934 44 48 45
-73.4976 -360.865 -934 43 47 44
-71.6188 -361.212 -935 43 47 44
-69.7364 -361.56 -936 43 47 43
-67.8505 -361.909 -937 43 47 42
-65.8907 -361.872 -937 43 47 44
-64.0679 -362.609 -939 45 49 44
-62.1711 -362.961 -940 44 48 43
-60.2708 -363.314 -941 44 48 45
-58.3667 -363.668 -942 43 47 44
-56.4591 -364.023 -943 44 48 45
-54.5478 -364.379 -944 43 47 44
-52.577 -364.35 -944 42 46 43
-50.6604 -364.708 -945 43 47 44
-48.6884 -364.681 -945 44 48 45
-46.7664 -365.041 -946 45 49 46
-44.7458 -364.63 -945 46 50 47
-42.8204 -364.992 -946 47 51 48
-40.9344 -365.741 -948 46 50 47
-38.9992 -366.105 -949 47 51 48
-37.0603 -366.47 -950 48 52 49
-35.1545 -367.222 -952 48 52 49
-33.2057 -367.59 -953 46 50 47
-31.2204 -367.572 -953 45 49 46
-29.2967 -368.327 -955 45 49 46
-27.3362 -368.698 -956 46 50 47
-25.3984 -369.455 -958 48 52 49
-23.4769 -370.598 -961 46 50 47
-21.5432 -371.743 -964 46 50 47
-19.5971 -372.889 -967 47 51 47
-17.6569 -374.421 -971 47 51 46
-15.7001 -375.954 -975 47 50 47
-13.7269 -377.489 -979 49 51 48
-11.761 -379.795 -985 52 53 51
-9.78014 -382.489 -992 55 58 55
-7.79353 -386.34 -1002 78 80 78
-5.78821 -391.734 -1016 96 96 96
-233.462 -385.773 -976 80 78 80
-227.521 -379.32 -960 56 58 58
-223.53 -376.032 -952 58 60 60
-218.879 -371.563 -941 58 61 61
-214.739 -367.888 -932 57 61 60
-210.413 -363.822 -922 51 55 53
-206.584 -360.548 -914 48 52 49
-203.016 -357.672 -907 46 50 49
-200.146 -355.982 -903 45 49 48
-197.295 -354.294 -899 44 48 47
-194.898 -353.396 -897 43 47 46
-192.511 -352.499 -895 43 47 46
-190.135 -351.604 -893 41 46 45
-187.348 -349.924 -889 41 46 45
-184.58 -348.246 -885 41 46 45
-182.037 -346.963 -882 41 47 46
-179.305 -345.288 -878 42 48 47
-176.996 -344.402 -876 44 49 48
-174.498 -343.125 -873 44 48 47
-172.607 -343.028 -873 45 49 48
-170.523 -342.539 -872 44 48 46
-168.444 -342.052 -871 43 47 44
-166.18 -341.173 -869 42 46 43
-164.115 -340.689 -868 42 46 43
-161.682 -339.421 -865 43 47 44
-159.448 -338.547 -863 44 48 45
-157.225 -337.674 -861 47 51 48
-155.192 -337.195 -860 48 52 49
-153.164 -336.717 -859 48 52 49
-150.966 -335.849 -857 49 53 50
-148.953 -335.374 -856 48 52 49
-146.772 -334.508 -854 47 51 48
-144.772 -334.036 -853 46 50 47
-142.777 -333.564 -852 44 50 46
-140.788 -333.094 -851 43 50 46
-138.641 -332.234 -849 44 51 47
-136.826 -332.158 -849 47 54 50
-134.694 -331.3 -847 48 55 51
-132.886 -331.226 -847 48 54 51
-131.079 -331.153 -847 50 57 53
-128.968 -330.299 -845 48 55 51
-127.168 -330.229 -845 46 53 49
-125.517 -330.549 -846 47 54 50
-123.717 -330.481 -846 49 55 51
-121.918 -330.413 -846 51 55 52
-120.404 -331.127 -848 51 55 52
-118.882 -331.842 -850 49 53 50
-117.216 -332.167 -851 49 53 50
-115.682 -332.883 -853 51 55 52
-114.14 -333.601 -855 52 56 53
-112.722 -334.708 -858 51 55 52
-111.293 -335.817 -861 53 56 53
-109.979 -337.316 -865 52 55 52
-108.774 -339.205 -870 52 55 52
-107.549 -341.095 -875 52 55 52
-106.304 -342.985 -880 52 55 52
-105.039 -344.876 -885 51 54 51
-103.637 -346.377 -889 51 55 52
-102.219 -347.879 -893 51 55 51
-100.897 -349.771 -898 50 54 49
-99.4448 -351.273 -902 47 51 48
-97.9767 -352.777 -906 50 54 51
-96.4927 -354.281 -910 50 54 49
-94.8886 -355.396 -913 49 53 48
-93.2728 -356.512 -916 50 54 49
-91.6453 -357.629 -919 49 53 48
-89.9083 -358.358 -921 46 50 46
-88.1637 -359.087 -923 45 49 46
-86.4115 -359.817 -925 44 48 45
-84.5603 -360.159 -926 45 49 46
-82.7948 -360.891 -928 47 51 48
-81.0218 -361.624 -930 44 48 45
-79.241 -362.358 -932 42 46 43
-77.4526 -363.093 -934 43 47 44
-75.5756 -363.439 -935 43 47 44
-73.6164 -363.398 -935 44 48 45
-71.7345 -363.747 -936 44 48 43
-69.7744 -363.709 -936 44 48 43
-67.8875 -364.06 -937 44 48 43
-65.9969 -364.412 -938 45 49 46
-64.171 -365.153 -940 46 50 46
-62.205 -365.118 -940 47 51 46
-60.3036 -365.473 -941 48 52 49
-58.3985 -365.829 -942 45 49 46
-56.4299 -365.798 -942 46 50 47
-54.4618 -365.768 -942 44 48 45
-52.6056 -366.515 -944 44 48 45
-50.6343 -366.487 -944 44 48 45
-48.7149 -366.848 -945 44 48 45
-46.7918 -367.21 -946 46 50 47
-44.8175 -367.185 -946 46 50 47
-42.889 -367.549 -947 47 51 48
-40.9998 -368.303 -949 46 50 47
-39.0205 -368.281 -949 47 51 48
-37.1195 -369.036 -951 48 52 49
-35.1736 -369.405 -952 48 52 49
-33.2238 -369.774 -953 45 49 46
-31.2374 -369.756 -953 44 48 45
-29.3126 -370.516 -955 46 50 47
-27.3797 -371.276 -957 46 50 47
-25.4122 -371.65 -958 46 50 47
-23.4897 -372.8 -961 46 50 47
-21.5549 -373.952 -964 46 50 47
-19.6077 -375.104 -967 47 51 47
-17.6665 -376.646 -971 47 51 46
-15.7248 -378.576 -976 47 51 48
-13.7484 -380.12 -980 47 50 47
-11.7674 -382.052 -985 49 52 49
-9.77556 -384.373 -991 54 57 54
-7.80555 -389.023 -1003 76 79 78
-5.79697 -394.449 -1017 92 94 94
-233.594 -388.063 -976 78 76 78
-228.124 -382.366 -962 56 58 58
-223.187 -377.469 -950 56 58 58
-219.235 -374.166 -942 58 60 60
-215.091 -370.468 -933 56 60 59
-210.76 -366.378 -923 51 55 52
-206.701 -362.688 -914 47 51 48
-203.355 -360.191 -908 45 49 48
-200.259 -358.094 -903 45 49 48
-197.625 -356.792 -900 45 49 48
-195.007 -355.492 -897 44 48 47
-192.834 -354.986 -896 43 47 46
-190.242 -353.69 -893 43 47 46
-187.664 -352.396 -890 42 46 45
-184.892 -350.707 -886 42 47 46
-182.139 -349.021 -882 43 48 47
-179.202 -346.941 -877 43 49 48
-177.096 -346.445 -876 43 48 47
-174.596 -345.16 -873 45 49 48
-172.506 -344.667 -872 45 49 48
-170.422 -344.175 -871 44 48 46
-168.538 -344.08 -871 43 47 44
-166.273 -343.196 -869 43 47 44
-164.207 -342.709 -868 44 48 44
-161.959 -341.828 -866 44 48 44
-159.537 -340.554 -863 43 47 44
-157.313 -339.676 -861 47 51 48
-155.098 -338.799 -859 48 52 49
-153.071 -338.319 -858 48 52 49
-151.051 -337.839 -857 48 52 49
-149.036 -337.361 -856 48 52 49
-147.026 -336.885 -855 47 52 49
-145.022 -336.409 -854 46 51 48
-143.024 -335.935 -853 44 51 47
-141.032 -335.462 -852 44 51 47
-138.881 -334.596 -850 43 50 46
-136.902 -334.126 -849 49 56 52
-134.928 -333.657 -848 49 56 52
-132.96 -333.189 -847 48 55 51
-130.997 -332.722 -846 50 57 53
-129.04 -332.256 -845 49 56 52
-127.238 -332.185 -845 45 53 49
-125.438 -332.115 -845 45 52 48
-123.639 -332.045 -845 48 54 50
-121.985 -332.37 -846 52 56 53
-120.471 -333.088 -848 52 56 53
-118.808 -333.415 -849 51 55 52
-117.143 -333.742 -850 49 53 50
-115.61 -334.462 -852 49 53 50
-113.936 -334.791 -853 51 55 52
-112.522 -335.906 -856 50 54 51
-111.225 -337.413 -860 52 55 52
-109.913 -338.921 -864 53 56 53
-108.584 -340.43 -868 53 56 53
-107.363 -342.331 -873 53 56 53
-106.242 -344.624 -879 51 54 51
-104.859 -346.134 -883 52 55 51
-103.577 -348.036 -888 52 56 51
-102.16 -349.547 -892 52 56 51
-100.84 -351.45 -897 51 55 50
-99.3893 -352.962 -901 49 53 49
-97.9225 -354.474 -905 50 54 51
-96.3336 -355.595 -908 50 54 49
-94.8369 -357.109 -912 48 52 47
-93.2223 -358.231 -915 48 52 47
-91.5959 -359.355 -918 46 50 45
-89.9577 -360.479 -921 44 48 44
-88.3077 -361.604 -924 44 48 45
-86.459 -361.947 -925 45 49 46
-84.6067 -362.291 -926 46 50 47
-82.8403 -363.027 -928 47 51 48
-81.0663 -363.765 -930 46 50 47
-79.2846 -364.503 -932 41 45 42
-77.4951 -365.242 -934 40 44 40
-75.6171 -365.59 -935 41 45 41
-73.6568 -365.549 -935 43 47 43
-71.8505 -366.291 -937 44 48 43
-69.8873 -366.252 -937 44 48 43
-67.9247 -366.214 -937 42 46 42
-65.9627 -366.177 -937 42 46 43
-64.0696 -366.533 -938 43 47 43
-62.1067 -366.498 -938 45 49 44
-60.2084 -366.855 -939 47 51 48
-58.3065 -367.213 -940 47 51 48
-56.4009 -367.572 -941 44 48 45
-54.4338 -367.542 -941 45 49 46
-52.5786 -368.293 -943 45 49 46
-50.6083 -368.265 -943 45 49 46
-48.69 -368.628 -944 45 49 46
-46.8174 -369.383 -946 45 49 46
-44.8421 -369.358 -946 45 49 46
-42.9124 -369.724 -947 47 51 48
-41.0223 -370.482 -949 46 50 47
-39.083 -370.85 -950 46 50 47
-37.1398 -371.22 -951 46 50 47
-35.1928 -371.59 -952 47 51 48
-33.2419 -371.962 -953 45 49 46
-31.2544 -371.944 -953 43 47 44
-29.3286 -372.708 -955 45 49 46
-27.3661 -373.083 -956 46 50 47
-25.4261 -373.849 -958 45 49 46
-23.5025 -375.006 -961 45 49 46
-21.5666 -376.164 -964 45 49 46
-19.6184 -377.324 -967 45 49 45
-17.6943 -379.265 -972 45 49 44
-15.7333 -380.816 -976 48 52 49
-13.7419 -381.979 -979 47 50 47
-11.7619 -383.922 -984 47 50 47
-9.77106 -386.258 -990 57 60 57
-7.77867 -389.764 -999 76 79 78
-5.78876 -396.003 -1015 91 93 93
-233.009 -389.157 -973 83 81 84
-227.067 -382.627 -957 59 61 61
-222.608 -378.501 -947 58 60 60
-218.662 -375.178 -939 57 59 59
-214.521 -371.459 -930 54 58 57
-210.651 -368.143 -922 51 55 52
-206.818 -364.831 -914 46 50 47
-203.47 -362.319 -908 45 49 48
-200.372 -360.21 -903 44 48 47
-197.518 -358.501 -899 43 47 46
-194.9 -357.193 -896 45 47 47
-192.513 -356.286 -894 44 48 47
-190.136 -355.381 -892 43 47 46
-187.348 -353.68 -888 43 47 46
-184.579 -351.982 -884 42 46 45
-181.829 -350.286 -880 44 48 47
-179.303 -348.989 -877 43 49 48
-176.993 -348.093 -875 44 49 48
-174.494 -346.8 -872 45 49 48
-172.603 -346.702 -872 45 49 48
-170.518 -346.207 -871 43 47 45
-168.439 -345.714 -870 44 48 45
-166.366 -345.222 -869 44 48 45
-164.299 -344.732 -868 45 49 45
-162.05 -343.846 -866 45 49 44
-159.627 -342.564 -863 44 48 45
-157.401 -341.681 -861 45 49 46
-155.365 -341.196 -860 47 51 48
-153.157 -340.316 -858 48 52 49
-151.135 -339.833 -857 48 52 49
-149.293 -339.749 -857 48 52 49
-147.281 -339.269 -856 46 53 49
-145.104 -338.394 -854 45 52 48
-143.104 -337.917 -853 44 51 47
-141.111 -337.441 -852 43 50 46
-139.123 -336.967 -851 44 51 47
-136.979 -336.097 -849 50 57 53
-135.004 -335.625 -848 50 57 53
-133.034 -335.154 -847 49 56 52
-131.07 -334.685 -846 49 56 52
-128.959 -333.821 -844 47 55 51
-127.159 -333.749 -844 47 55 51
-125.508 -334.074 -845 48 55 51
-123.708 -334.004 -845 50 56 52
-122.053 -334.33 -846 53 57 54
-120.538 -335.053 -848 53 57 54
-118.874 -335.381 -849 52 56 53
-117.208 -335.71 -850 49 53 50
-115.674 -336.435 -852 47 52 49
-114 -336.766 -853 48 53 50
-112.585 -337.887 -856 49 53 50
-111.287 -339.403 -860 53 56 53
-109.974 -340.92 -864 53 56 53
-108.519 -342.043 -867 53 56 53
-107.299 -343.955 -872 52 55 51
-106.18 -346.262 -878 53 56 51
-104.799 -347.78 -882 53 56 51
-103.518 -349.694 -887 53 56 51
-102.217 -351.608 -892 52 55 50
-100.896 -353.522 -897 51 55 50
-99.334 -354.648 -900 51 55 51
-97.9767 -356.564 -905 52 56 52
-96.3869 -357.691 -908 48 52 47
-94.6813 -358.426 -910 45 49 44
-93.172 -359.949 -914 45 49 44
-91.447 -360.686 -916 45 49 44
-89.8121 -361.817 -919 45 49 45
-88.1653 -362.948 -922 44 48 45
-86.4133 -363.687 -924 45 49 46
-84.6535 -364.427 -926 45 49 46
-82.9755 -365.561 -929 44 48 45
-81.1111 -365.909 -930 43 47 44
-79.4135 -367.044 -933 40 44 41
-77.5379 -367.394 -934 40 44 39
-75.7398 -368.138 -936 42 46 41
-73.7763 -368.097 -936 43 47 42
-71.9669 -368.843 -938 43 47 42
-70.0005 -368.804 -938 44 48 43
-68.0348 -368.766 -938 41 45 40
-66.0696 -368.728 -938 41 45 42
-64.1733 -369.086 -939 40 44 40
-62.141 -368.658 -938 45 49 44
-60.2416 -369.017 -939 47 51 48
-58.3386 -369.377 -940 47 51 48
-56.432 -369.738 -941 45 49 46
-54.4638 -369.707 -941 46 50 47
-52.5518 -370.071 -942 45 49 46
-50.6362 -370.435 -943 44 48 45
-48.7168 -370.8 -944 45 49 46
-46.7937 -371.167 -945 44 48 45
-44.8668 -371.534 -946 45 49 46
-42.9361 -371.903 -947 50 54 51
-41.0016 -372.272 -948 49 53 50
-39.0633 -372.643 -949 46 50 47
-37.1212 -373.014 -950 44 48 45
-35.1752 -373.387 -951 44 48 45
-33.1904 -373.368 -951 43 47 44
-31.2716 -374.135 -953 42 46 43
-29.3447 -374.904 -955 42 46 43
-27.3811 -375.281 -956 43 47 44
-25.4401 -376.051 -958 44 48 45
-23.5154 -377.215 -961 45 49 46
-21.5785 -378.381 -964 46 50 47
-19.6495 -379.939 -968 46 50 46
-17.7222 -381.891 -973 45 49 44
-15.7581 -383.452 -977 46 50 47
-13.7634 -384.621 -980 47 51 48
-11.7564 -385.792 -983 47 50 47
-9.76651 -388.141 -989 54 57 54
-7.76736 -391.276 -997 75 77 76
-5.77486 -397.158 -1012 90 92 92
-233.861 -392.654 -976 81 81 83
-227.909 -386.085 -960 54 56 56
-222.971 -381.131 -948 53 55 55
-218.787 -377.386 -939 56 57 57
-214.875 -374.047 -931 53 57 56
-211 -370.711 -923 50 54 52
-207.162 -367.379 -915 46 50 47
-203.81 -364.852 -909 44 48 47
-200.486 -362.329 -903 44 48 47
-197.85 -361.011 -900 44 48 47
-195.229 -359.696 -897 44 46 46
-192.623 -358.382 -894 44 47 47
-190.031 -357.07 -891 44 48 47
-187.455 -355.76 -888 44 48 47
-184.684 -354.052 -884 43 47 46
-181.932 -352.346 -880 45 49 48
-179.405 -351.042 -877 45 49 48
-177.094 -350.14 -875 44 48 47
-174.593 -348.839 -872 44 48 47
-172.503 -348.341 -871 45 49 48
-170.615 -348.243 -871 45 49 47
-168.341 -347.347 -869 45 49 46
-166.269 -346.852 -868 44 48 45
-164.203 -346.359 -867 45 49 45
-162.142 -345.867 -866 46 50 45
-159.717 -344.577 -863 45 49 46
-157.673 -344.088 -862 43 47 44
-155.634 -343.6 -861 46 50 47
-153.422 -342.715 -859 49 53 50
-151.397 -342.229 -858 49 53 50
-149.378 -341.746 -857 48 52 49
-147.364 -341.263 -856 47 53 49
-145.185 -340.383 -854 45 52 48
-143.185 -339.903 -853 44 51 47
-141.19 -339.424 -852 44 51 47
-139.201 -338.947 -851 45 52 48
-137.056 -338.072 -849 49 56 52
-135.239 -337.995 -849 48 55 51
-133.266 -337.521 -848 48 55 51
-131.299 -337.049 -847 48 56 52
-129.184 -336.18 -845 47 55 51
-127.23 -335.71 -844 49 57 53
-125.43 -335.638 -844 49 56 52
-123.631 -335.568 -844 51 57 53
-121.977 -335.897 -845 53 57 54
-120.463 -336.623 -847 52 56 53
-118.801 -336.954 -848 51 55 52
-117.274 -337.682 -850 49 53 50
-115.739 -338.411 -852 47 54 50
-114.063 -338.743 -853 46 53 49
-112.648 -339.871 -856 49 53 50
-111.349 -341.396 -860 52 55 52
-109.908 -342.525 -863 51 54 51
-108.58 -344.051 -867 53 56 53
-107.236 -345.578 -871 54 57 52
-106.118 -347.898 -877 53 56 51
-104.619 -349.029 -880 53 56 51
-103.342 -350.954 -885 53 56 51
-102.045 -352.879 -890 53 56 51
-100.727 -354.804 -895 53 56 51
-99.2791 -356.334 -899 53 56 51
-97.8148 -357.864 -903 54 58 53
-96.3345 -359.395 -907 49 53 48
-94.7341 -360.53 -910 46 50 46
-93.1219 -361.666 -913 46 50 46
-91.3981 -362.407 -915 46 50 45
-89.8621 -363.94 -919 47 51 47
-88.2144 -365.079 -922 45 49 46
-86.4613 -365.821 -924 45 49 46
-84.7006 -366.565 -926 44 48 45
-82.9323 -367.31 -928 43 47 44
-81.1562 -368.056 -930 43 47 43
-79.3725 -368.803 -932 41 45 41
-77.581 -369.55 -934 41 45 40
-75.7009 -369.903 -935 42 46 41
-73.8173 -370.257 -936 44 48 43
-72.0069 -371.008 -938 42 46 41
-70.0394 -370.968 -938 43 47 42
-68.1451 -371.325 -939 42 46 41
-66.1063 -370.892 -938 41 45 42
-64.209 -371.251 -939 39 43 39
-62.1754 -370.821 -938 45 49 44
-60.275 -371.182 -939 47 51 48
-58.3711 -371.544 -940 45 49 46
-56.4633 -371.908 -941 46 50 47
-54.4361 -371.481 -940 46 50 47
-52.581 -372.242 -942 45 49 46
-50.6643 -372.609 -943 43 47 44
-48.7955 -373.371 -945 43 47 44
-46.8692 -373.74 -946 44 48 45
-44.9391 -374.109 -947 45 49 46
-43.0052 -374.48 -948 49 53 50
-41.0676 -374.851 -949 47 51 48
-39.085 -374.829 -949 45 49 46
-37.1417 -375.203 -950 44 48 45
-35.1947 -375.578 -951 45 49 46
-33.1739 -375.164 -950 45 49 46
-31.2561 -375.936 -952 43 47 44
-29.3302 -376.709 -954 41 45 42
-27.3676 -377.088 -955 42 46 43
-25.4542 -378.258 -958 44 48 45
-23.5284 -379.428 -961 44 48 45
-21.6128 -380.995 -965 46 50 47
-19.6807 -382.563 -969 46 50 45
-17.7685 -384.921 -975 44 48 43
-15.783 -386.096 -978 45 49 46
-13.771 -386.878 -980 48 51 48
-11.7629 -388.055 -983 46 49 46
-9.75215 -389.628 -987 54 57 54
-7.74825 -392.387 -994 78 81 80
-5.75511 -397.909 -1008 91 94 93
-233.996 -394.955 -976 81 81 83
-227.803 -387.944 -959 54 56 56
-222.864 -382.96 -947 53 54 54
-219.146 -380.002 -940 56 56 56
-214.998 -376.239 -931 54 58 57
-210.893 -372.479 -922 48 52 50
-207.055 -369.128 -914 45 49 46
-204.152 -367.394 -910 46 50 49
-200.824 -364.855 -904 45 49 48
-198.184 -363.53 -901 43 47 46
-195.559 -362.206 -898 43 45 45
-192.949 -360.885 -895 44 46 46
-190.14 -359.162 -891 44 48 47
-187.773 -358.247 -889 46 50 49
-184.79 -356.126 -884 44 48 47
-182.036 -354.409 -880 44 48 47
-179.712 -353.5 -878 45 49 48
-177.398 -352.593 -876 44 48 47
-174.893 -351.284 -873 43 47 46
-172.404 -349.978 -870 46 50 49
-170.517 -349.88 -870 46 50 48
-168.243 -348.979 -868 44 48 45
-165.98 -348.079 -866 45 49 46
-164.107 -347.985 -866 45 49 46
-162.234 -347.891 -866 47 51 46
-159.808 -346.595 -863 46 50 46
-157.762 -346.102 -862 44 48 44
-155.722 -345.611 -861 45 49 46
-153.688 -345.122 -860 47 51 48
-151.483 -344.232 -858 49 53 50
-149.462 -343.746 -857 49 53 50
-147.62 -343.661 -857 47 53 50
-145.438 -342.776 -855 44 51 47
-143.434 -342.293 -854 43 50 46
-141.436 -341.811 -853 44 51 47
-139.443 -341.33 -852 45 52 48
-137.295 -340.451 -850 45 52 48
-135.315 -339.973 -849 46 53 49
-133.184 -339.096 -847 47 54 50
-131.218 -338.62 -846 49 57 53
-129.104 -337.746 -844 49 57 53
-127.302 -337.673 -844 48 56 52
-125.501 -337.602 -844 50 57 53
-123.701 -337.531 -844 52 58 54
-122.191 -338.261 -846 51 55 52
-120.531 -338.592 -847 49 53 50
-118.868 -338.924 -848 47 51 48
-117.478 -340.056 -851 46 50 47
-115.804 -340.39 -852 46 52 48
-114.261 -341.124 -854 48 54 51
-112.711 -341.858 -856 50 54 51
-111.283 -342.993 -859 51 54 51
-109.842 -344.129 -862 50 53 50
-108.516 -345.664 -866 51 54 51
-107.173 -347.199 -870 54 57 52
-106.057 -349.533 -876 54 57 52
-104.678 -351.07 -880 55 58 53
-103.284 -352.607 -884 54 57 52
-101.988 -354.543 -889 53 56 51
-100.671 -356.48 -894 52 55 50
-99.2243 -358.018 -898 51 55 50
-97.7613 -359.558 -902 50 54 49
-96.2823 -361.097 -906 46 50 45
-94.6831 -362.239 -909 45 49 45
-93.0721 -363.382 -912 45 49 46
-91.3494 -364.127 -914 45 49 44
-89.7168 -365.271 -917 46 50 45
-88.0725 -366.416 -920 46 50 45
-86.4162 -367.562 -923 45 49 44
-84.6566 -368.31 -925 44 48 43
-82.9787 -369.457 -928 44 48 43
-81.2017 -370.207 -930 45 49 44
-79.4169 -370.958 -932 43 47 42
-77.5414 -371.312 -933 43 47 42
-75.7433 -372.065 -935 43 47 42
-73.8586 -372.421 -936 44 48 43
-72.0472 -373.176 -938 42 46 41
-70.0786 -373.136 -938 42 46 40
-68.1106 -373.097 -938 43 47 40
-66.1432 -373.06 -938 42 46 41
-64.2448 -373.421 -939 41 45 40
-62.2102 -372.988 -938 44 48 43
-60.373 -373.749 -940 45 49 46
-58.4036 -373.715 -940 44 48 45
-56.4949 -374.081 -941 46 50 47
-54.4665 -373.652 -940 46 50 47
-52.5545 -374.02 -941 46 50 47
-50.6388 -374.388 -942 44 48 45
-48.771 -375.155 -944 42 46 43
-46.8457 -375.526 -945 42 46 43
-44.9167 -375.897 -946 44 48 45
-43.0292 -376.667 -948 45 49 46
-41.0905 -377.041 -949 45 49 46
-39.1067 -377.019 -949 45 49 46
-37.1624 -377.395 -950 46 50 47
-35.1772 -377.375 -950 46 50 47
-33.1924 -377.356 -950 45 49 46
-31.2735 -378.132 -952 44 48 45
-29.3466 -378.909 -954 41 45 42
-27.3829 -379.291 -955 44 48 45
-25.4683 -380.467 -958 47 51 48
-23.566 -382.042 -962 45 49 46
-21.6473 -383.618 -966 44 48 45
-19.7119 -385.195 -970 45 49 45
-17.7784 -387.17 -975 44 48 43
-15.7918 -388.352 -978 45 49 46
-13.7928 -389.535 -981 47 51 48
-11.7814 -390.719 -984 48 52 49
-9.78723 -393.095 -990 54 57 54
-7.76813 -395.473 -996 80 83 81
-5.76975 -401.028 -1010 92 96 95
-235.571 -399.703 -982 83 83 85
-228.411 -391.022 -961 55 57 57
-223.935 -386.822 -951 53 54 54
-219.506 -382.626 -941 53 53 53
-215.354 -378.841 -932 51 55 54
-211.244 -375.059 -923 48 52 50
-207.401 -371.688 -915 45 49 46
-204.045 -369.132 -909 45 49 49
-200.94 -366.984 -904 44 48 47
-198.078 -365.245 -900 42 46 45
-195.454 -363.914 -897 42 45 44
-193.06 -362.99 -895 43 46 46
-190.463 -361.662 -892 44 48 47
-187.881 -360.337 -889 43 47 46
-185.105 -358.608 -885 42 46 45
-182.141 -356.476 -880 44 48 47
-179.61 -355.157 -877 44 48 47
-177.297 -354.244 -875 44 48 47
-174.994 -353.333 -873 43 47 46
-172.701 -352.423 -871 45 49 48
-170.614 -351.92 -870 46 50 49
-168.34 -351.013 -868 44 48 45
-166.267 -350.513 -867 44 48 45
-164.201 -350.013 -866 45 49 46
-162.327 -349.92 -866 47 51 46
-160.27 -349.423 -865 44 48 45
-158.219 -348.928 -864 46 50 47
-156.174 -348.434 -863 46 50 47
-154.134 -347.941 -862 46 50 48
-151.923 -347.046 -860 46 50 48
-149.722 -346.152 -858 49 53 50
-147.704 -345.664 -857 47 52 49
-145.521 -344.773 -855 44 51 47
-143.516 -344.287 -854 45 52 48
-141.517 -343.803 -853 45 52 48
-139.523 -343.319 -852 45 52 48
-137.373 -342.434 -850 45 53 49
-135.393 -341.954 -849 44 52 48
-133.26 -341.071 -847 47 54 50
-131.293 -340.593 -846 47 55 51
-129.331 -340.116 -845 49 56 52
-127.525 -340.043 -845 48 56 52
-125.721 -339.971 -845 48 55 51
-123.918 -339.9 -845 50 57 53
-122.116 -339.829 -845 51 56 53
-120.457 -340.163 -846 49 53 50
-118.795 -340.496 -847 48 52 49
-117.268 -341.233 -849 47 51 48
-115.734 -341.971 -851 48 52 49
-114.192 -342.709 -853 49 53 50
-112.643 -343.448 -855 51 54 52
-111.216 -344.589 -858 50 53 51
-109.65 -345.329 -860 49 52 49
-108.327 -346.873 -864 50 53 49
-106.988 -348.418 -868 52 55 51
-105.754 -350.365 -873 53 56 51
-104.499 -352.311 -878 54 57 52
-103.108 -353.857 -882 55 58 53
-101.93 -356.206 -888 55 58 53
-100.615 -358.154 -893 53 56 51
-99.2803 -360.103 -898 51 54 49
-97.8165 -361.651 -902 49 53 48
-96.3366 -363.199 -906 47 51 46
-94.6323 -363.947 -908 47 51 47
-93.1246 -365.497 -912 48 52 49
-91.4009 -366.246 -914 48 52 47
-89.8653 -367.798 -918 46 50 45
-88.2179 -368.949 -921 44 48 43
-86.5586 -370.102 -924 43 47 42
-84.7959 -370.854 -926 43 47 42
-83.0255 -371.608 -928 42 46 41
-81.2474 -372.362 -930 44 48 43
-79.3764 -372.717 -931 44 48 43
-77.5019 -373.073 -932 44 48 43
-75.6238 -373.43 -933 43 47 42
-73.7423 -373.788 -934 43 47 42
-71.934 -374.547 -936 42 46 39
-70.0432 -374.907 -937 42 46 39
