ply
format ascii 1.0
comment Created by Open3D
element vertex 1501
property double x
property double y
property double z
property uchar red
property uchar green
property uchar blue
end_header
-163.907 -378.725 -824 44 48 47
-161.503 -377.238 -821 43 47 48
-159.309 -376.213 -819 43 47 46
-157.125 -375.19 -817 43 47 46
-155.141 -374.628 -816 43 47 44
-152.975 -373.608 -814 44 48 45
-150.819 -372.59 -812 43 47 44
-148.857 -372.033 -811 43 47 44
-146.72 -371.018 -809 43 47 44
-144.592 -370.005 -807 44 48 45
-142.652 -369.452 -806 46 50 47
-140.543 -368.442 -804 46 50 47
-138.789 -368.35 -804 46 50 47
-136.866 -367.801 -803 47 51 48
-134.948 -367.254 -802 50 53 50
-133.202 -367.166 -802 51 54 50
-131.621 -367.537 -803 50 53 48
-129.714 -366.993 -802 49 52 47
-127.972 -366.909 -802 48 51 46
-126.388 -367.283 -803 47 50 45
-124.646 -367.2 -803 46 49 44
-123.059 -367.576 -804 46 49 44
-121.619 -368.411 -806 45 48 43
-120.468 -370.159 -810 46 49 44
-119.156 -371.452 -813 44 47 42
-117.831 -372.745 -816 37 40 35
-116.352 -373.582 -818 40 43 37
-114.725 -373.963 -819 41 44 39
-112.958 -373.888 -819 45 45 41
-111.598 -375.184 -822 48 48 42
-110.094 -376.025 -824 48 49 42
-108.713 -377.322 -827 48 48 44
-107.32 -378.62 -830 48 50 46
-105.788 -379.463 -832 46 49 44
-104.373 -380.763 -835 43 47 44
-102.701 -381.151 -836 43 47 43
-101.266 -382.452 -839 44 48 43
-99.8202 -383.754 -842 46 49 44
-98.2457 -384.601 -844 45 48 43
-96.7777 -385.904 -847 44 47 42
-95.2977 -387.209 -850 46 46 42
-93.8058 -388.514 -853 46 48 42
-92.5175 -390.73 -858 47 50 43
-90.8916 -391.581 -860 45 48 43
-89.2579 -392.433 -862 43 46 41
-87.6166 -393.286 -864 42 45 40
-85.9674 -394.14 -866 43 46 41
-84.3105 -394.995 -868 43 46 41
-82.7408 -396.306 -871 44 47 42
-81.1591 -397.617 -874 45 48 43
-79.4745 -398.475 -876 44 47 42
-77.6936 -398.879 -877 43 46 41
-76.082 -400.193 -880 41 44 37
-74.2896 -400.599 -881 39 42 36
-72.5759 -401.461 -883 39 42 37
-70.8544 -402.324 -885 39 42 37
-69.2028 -403.642 -888 39 42 37
-67.4633 -404.507 -890 38 41 36
-65.6422 -404.918 -891 40 43 38
-63.8175 -405.331 -892 42 45 40
-61.9891 -405.744 -893 40 43 38
-60.157 -406.159 -894 43 43 39
-58.256 -406.121 -894 45 45 41
-56.4187 -406.538 -895 46 46 42
-54.5775 -406.956 -896 44 47 42
-52.6738 -406.921 -896 44 47 42
-50.8274 -407.342 -897 44 47 42
-48.977 -407.764 -898 46 49 44
-47.1229 -408.187 -899 47 50 45
-45.2146 -408.157 -899 47 50 45
-43.355 -408.582 -900 47 50 45
-41.5375 -409.462 -902 46 49 44
-39.6681 -409.89 -903 48 51 46
-37.7947 -410.319 -904 49 52 47
-35.8777 -410.295 -904 51 54 49
-33.9987 -410.727 -905 50 53 48
-32.1157 -411.159 -906 49 52 47
-30.2288 -411.593 -907 48 51 46
-28.3066 -411.574 -907 48 51 46
-26.4429 -412.464 -909 49 52 49
-24.571 -413.355 -911 49 52 48
-22.6909 -414.247 -913 49 52 47
-20.8024 -415.14 -915 47 50 45
-18.9263 -416.488 -918 47 50 45
-17.0561 -418.292 -922 46 49 44
-15.2183 -421.457 -929 48 49 44
-13.4652 -428.253 -944 48 48 44
-12.3531 -461.361 -1017 46 46 43
-10.4405 -472.241 -1041 47 47 43
-8.37106 -479.947 -1058 51 53 50
-6.18925 -484.479 -1068 63 65 63
-3.95028 -487.197 -1074 78 78 78
-1.68751 -490.371 -1081 85 85 85
0.604755 -493.546 -1088 85 85 85
-201.717 -422.684 -912 64 66 67
-198.595 -420.233 -907 43 45 47
-196.365 -419.638 -906 42 46 45
-194.14 -419.045 -905 43 47 44
-191.285 -417.064 -901 46 50 47
-187.61 -413.235 -893 45 49 46
-182.516 -406.172 -878 45 49 48
-176.257 -396.339 -857 48 52 51
-170.905 -388.362 -840 44 48 47
-166.838 -383.165 -829 42 46 45
-164.016 -380.744 -824 41 45 44
-161.61 -379.25 -821 41 45 45
-159.22 -377.757 -818 42 46 44
-157.036 -376.729 -816 45 49 47
-155.053 -376.164 -815 46 50 47
-152.7 -374.677 -812 46 50 47
-150.733 -374.115 -811 46 50 47
-148.772 -373.554 -810 45 49 46
-146.817 -372.995 -809 44 48 45
-144.688 -371.977 -807 45 49 46
-142.746 -371.421 -806 48 52 49
-140.811 -370.866 -805 48 52 49
-138.88 -370.313 -804 47 51 48
-136.956 -369.761 -803 48 52 49
-135.037 -369.211 -802 48 51 47
-133.456 -369.582 -803 47 50 46
-131.708 -369.495 -803 48 51 46
-129.8 -368.948 -802 47 50 45
-128.056 -368.863 -802 46 49 44
-126.314 -368.779 -802 47 50 45
-124.728 -369.156 -803 47 50 45
-122.986 -369.075 -803 48 51 46
-121.698 -370.373 -806 47 50 45
-120.548 -372.131 -810 44 47 42
-119.234 -373.43 -813 40 43 38
-118.053 -375.189 -817 34 37 32
-116.428 -375.571 -818 41 44 39
-114.801 -375.954 -819 42 45 40
-113.17 -376.338 -820 46 46 42
-111.672 -377.182 -822 47 47 42
-110.166 -378.027 -824 46 46 41
-108.652 -378.872 -826 47 47 43
-107.26 -380.177 -829 47 49 45
-105.73 -381.024 -831 46 49 44
-104.191 -381.873 -833 44 48 45
-102.645 -382.721 -835 44 48 43
-101.212 -384.03 -838 44 48 43
-99.6482 -384.88 -840 44 47 42
-98.1934 -386.19 -843 43 46 41
-96.7266 -387.5 -846 44 47 42
-95.2478 -388.811 -849 46 46 42
-93.757 -390.123 -852 44 46 40
-92.3621 -391.894 -856 43 46 39
-90.8451 -393.207 -859 44 47 42
-89.1089 -393.606 -860 45 48 43
-87.5722 -394.921 -863 44 47 42
-85.9241 -395.78 -865 45 48 43
-84.1711 -396.181 -866 45 48 43
-82.6046 -397.499 -869 42 45 40
-81.119 -399.275 -873 43 46 41
-79.3447 -399.68 -874 44 47 42
-77.6555 -400.544 -876 44 47 42
-76.045 -401.865 -879 43 46 39
-74.2536 -402.273 -880 40 43 37
-72.5409 -403.139 -882 39 42 37
-70.8203 -404.007 -884 38 41 36
-69.0919 -404.875 -886 38 41 36
-67.3555 -405.744 -888 37 40 35
-65.6112 -406.615 -890 38 41 36
-63.7874 -407.03 -891 41 44 39
-62.0294 -407.902 -893 41 44 39
-60.1288 -407.862 -893 43 43 39
-58.2939 -408.281 -894 43 44 40
-56.4553 -408.7 -895 44 46 41
-54.552 -408.664 -895 43 46 41
-52.6492 -408.629 -895 42 45 40
-50.8036 -409.052 -896 42 45 40
-48.9542 -409.476 -897 43 46 41
-47.101 -409.901 -898 45 48 43
-45.244 -410.327 -899 46 49 44
-43.3831 -410.755 -900 46 49 44
-41.5184 -411.184 -901 45 48 43
-39.6499 -411.614 -902 47 50 45
-37.7774 -412.045 -903 50 53 48
-35.8613 -412.021 -903 50 53 48
-33.9831 -412.454 -904 49 52 47
-32.101 -412.889 -905 49 52 47
-30.215 -413.325 -906 49 52 47
-28.325 -413.762 -907 48 51 46
-26.431 -414.201 -908 48 51 46
-24.5599 -415.096 -910 48 51 46
-22.6807 -415.993 -912 48 51 46
-20.7703 -416.435 -913 48 51 46
-18.8973 -417.791 -916 50 53 48
-17.0487 -420.06 -921 48 51 46
-15.2446 -424.154 -930 48 51 46
-13.4596 -430.074 -943 49 50 46
-12.2638 -460.166 -1009 47 47 43
-10.4272 -473.84 -1039 47 47 43
-8.35271 -481.131 -1055 46 48 45
-6.18161 -486.142 -1066 57 60 57
-3.94542 -488.875 -1072 75 75 75
-1.68553 -492.066 -1079 85 85 85
0.604692 -495.714 -1087 85 85 85
-202.073 -425.398 -913 69 70 71
-198.947 -422.934 -908 47 49 51
-197.147 -423.266 -909 41 45 44
-194.485 -421.738 -906 41 45 43
-191.626 -419.747 -902 43 47 44
-187.946 -415.897 -894 41 45 42
-183.054 -409.261 -880 42 46 44
-176.374 -398.445 -857 45 49 48
-170.205 -388.567 -836 41 45 44
-166.748 -384.736 -828 41 45 44
-163.926 -382.303 -823 41 45 44
-161.521 -380.801 -820 42 46 45
-159.326 -379.765 -818 44 48 45
-157.141 -378.731 -816 46 50 47
-154.966 -377.698 -814 48 52 49
-152.802 -376.668 -812 47 51 48
-151.019 -376.566 -812 46 50 47
-149.055 -376.002 -811 47 51 48
-146.914 -374.977 -809 47 51 48
-144.784 -373.952 -807 47 51 48
-142.664 -372.93 -805 48 52 49
-140.729 -372.372 -804 49 53 50
-138.972 -372.279 -804 48 52 48
-137.047 -371.725 -803 46 50 46
-135.126 -371.171 -802 46 49 45
-133.212 -370.619 -801 48 51 46
-131.631 -370.994 -802 48 51 46
-129.723 -370.445 -801 48 51 46
-128.141 -370.821 -802 47 50 45
-126.398 -370.737 -802 46 49 44
-124.811 -371.116 -803 45 48 43
-123.068 -371.034 -803 47 50 45
-121.779 -372.339 -806 47 50 45
-120.478 -373.644 -809 46 49 44
-119.313 -375.412 -813 41 44 39
-117.986 -376.718 -816 33 36 31
-116.505 -377.564 -818 41 44 39
-114.876 -377.949 -819 42 45 40
-113.244 -378.335 -820 44 44 40
-111.881 -379.645 -823 45 45 41
-110.238 -380.032 -824 47 47 43
-108.855 -381.344 -827 48 48 44
-107.331 -382.194 -829 46 48 43
-105.799 -383.046 -831 44 47 42
-104.134 -383.438 -832 44 47 42
-102.589 -384.291 -834 47 50 45
-101.158 -385.606 -837 46 49 44
-99.595 -386.461 -839 44 47 42
-98.1414 -387.778 -842 43 46 41
-96.6757 -389.095 -845 44 47 42
-95.3103 -390.874 -849 44 47 42
-93.7084 -391.732 -851 44 46 41
-92.3148 -393.512 -855 43 46 41
-90.9048 -395.292 -859 43 46 41
-89.1674 -395.693 -860 43 46 41
-87.6296 -397.015 -863 46 49 44
-86.0799 -398.338 -866 46 49 44
-84.3235 -398.742 -867 44 47 41
-82.7539 -400.067 -870 42 45 39
-81.1722 -401.393 -873 43 46 41
-79.3967 -401.799 -874 44 47 42
-77.6177 -402.208 -875 47 50 45
-75.9217 -403.076 -877 44 47 41
-74.1334 -403.487 -878 41 44 39
-72.5061 -404.817 -881 40 43 38
-70.7865 -405.689 -883 40 43 38
-69.059 -406.562 -885 38 41 36
-67.3995 -407.895 -888 37 40 35
-65.5803 -408.311 -889 40 43 38
-63.7575 -408.728 -890 43 46 41
-62.0004 -409.605 -892 43 46 41
-60.1007 -409.565 -892 43 45 40
-58.2667 -409.986 -893 42 45 40
-56.4291 -410.407 -894 43 46 41
-54.5267 -410.371 -894 43 45 40
-52.6836 -410.795 -895 41 44 39
-50.8368 -411.22 -896 41 44 39
-48.9316 -411.187 -896 41 44 39
-47.1318 -412.073 -898 42 45 40
-45.2735 -412.502 -899 44 47 42
-43.3632 -412.473 -899 45 48 43
-41.4994 -412.904 -900 45 48 43
-39.6317 -413.336 -901 46 49 44
-37.7602 -413.77 -902 49 52 47
-35.8847 -414.204 -903 50 53 48
-34.0053 -414.64 -904 48 51 46
-32.1219 -415.077 -905 47 50 45
-30.2346 -415.515 -906 49 51 46
-28.3121 -415.496 -906 50 51 46
-26.419 -415.937 -907 48 51 46
-24.549 -416.838 -909 47 50 45
-22.6706 -417.739 -911 48 51 46
-20.7611 -418.184 -912 48 52 45
-18.8889 -419.546 -915 49 52 47
-17.0598 -422.286 -921 49 52 47
-15.2381 -425.943 -929 47 50 45
-13.5112 -433.728 -946 48 49 45
-12.2597 -462.145 -1008 48 48 44
-10.4942 -479.102 -1045 48 48 44
-8.35811 -483.68 -1055 48 51 46
-6.18558 -488.718 -1066 52 54 51
-3.94424 -491.007 -1071 67 67 67
-1.68342 -493.756 -1077 84 84 84
0.604074 -497.424 -1085 82 82 82
2.95211 -505.677 -1103 84 84 84
-201.324 -425.779 -909 70 71 72
-199.301 -425.644 -909 47 49 51
-197.063 -425.041 -908 39 43 42
-194.401 -423.505 -905 40 44 42
-191.542 -421.503 -901 40 44 41
-188.072 -418.101 -894 37 41 38
-183.177 -411.429 -880 39 43 41
-177.111 -401.958 -860 42 46 45
-170.523 -391.093 -837 42 46 45
-166.86 -386.774 -828 43 47 46
-163.837 -383.861 -822 43 47 46
-161.432 -382.351 -819 43 47 46
-159.238 -381.309 -817 45 49 48
-157.053 -380.27 -815 47 51 48
-154.879 -379.232 -813 47 51 48
-152.716 -378.196 -811 46 50 47
-150.748 -377.628 -810 45 49 46
-148.787 -377.061 -809 46 50 47
-146.831 -376.496 -808 45 49 46
-144.881 -375.932 -807 46 50 47
-142.759 -374.904 -805 47 51 48
-140.823 -374.343 -804 48 52 48
-139.065 -374.25 -804 49 53 48
-137.138 -373.692 -803 46 50 45
-135.217 -373.136 -802 46 49 44
-133.467 -373.046 -802 48 51 46
-131.719 -372.957 -802 48 51 46
-129.648 -371.94 -800 48 51 46
-128.066 -372.319 -801 47 50 45
-126.324 -372.234 -801 45 48 43
-124.894 -373.079 -803 46 49 44
-123.15 -372.997 -803 46 49 44
-121.86 -374.308 -806 46 49 44
-120.707 -376.085 -810 43 46 41
-119.539 -377.862 -814 40 43 38
-118.064 -378.711 -816 33 36 31
-116.582 -379.561 -818 42 43 39
-115.093 -380.412 -820 44 44 40
-113.458 -380.8 -821 43 43 39
-111.819 -381.189 -822 44 44 40
-110.311 -382.042 -824 47 47 43
-108.796 -382.897 -826 48 48 44
-107.273 -383.752 -828 45 47 42
-105.742 -384.608 -830 43 46 41
-104.203 -385.465 -832 43 46 41
-102.534 -385.86 -833 45 48 43
-101.104 -387.182 -836 45 48 43
-99.5421 -388.041 -838 44 47 42
-97.973 -388.902 -840 42 45 40
-96.6252 -390.689 -844 43 46 41
-95.1486 -392.014 -847 44 47 42
-93.6601 -393.34 -850 43 46 41
-92.1596 -394.667 -853 45 48 43
-90.6471 -395.994 -856 45 48 43
-89.0187 -396.86 -858 42 45 40
-87.4843 -398.189 -861 44 47 42
-85.9377 -399.519 -864 46 49 44
-84.3791 -400.85 -867 44 47 41
-82.7132 -401.719 -869 43 46 40
-81.1327 -403.051 -872 43 46 41
-79.5399 -404.385 -875 45 48 43
-77.6688 -404.333 -875 47 50 45
-75.9717 -405.206 -877 45 48 43
-74.1822 -405.619 -878 44 47 42
-72.5538 -406.956 -881 43 46 41
-70.7529 -407.371 -882 41 44 39
-69.0264 -408.248 -884 40 43 38
-67.292 -409.127 -886 41 44 39
-65.4759 -409.545 -887 42 45 40
-63.7277 -410.426 -889 42 45 40
-61.9021 -410.846 -890 41 44 39
-60.0728 -411.267 -891 43 46 41
-58.2397 -411.69 -892 44 47 42
-56.3398 -411.652 -892 45 48 43
-54.5015 -412.077 -893 46 46 42
-52.6593 -412.503 -894 44 46 41
-50.8134 -412.931 -895 42 45 40
-48.9091 -412.898 -895 42 45 40
-47.0576 -413.328 -896 43 46 41
-45.2025 -413.758 -897 44 47 42
-43.2952 -413.729 -897 44 47 42
-41.4344 -414.163 -898 45 48 43
-39.6137 -415.058 -900 45 48 43
-37.7011 -415.033 -900 46 49 44
-35.8287 -415.47 -901 47 50 45
-33.9899 -416.369 -903 49 52 47
-32.1075 -416.808 -904 48 51 46
-30.2545 -417.71 -906 49 50 46
-28.362 -418.152 -907 50 50 46
-26.4655 -418.595 -908 48 51 46
-24.565 -419.039 -909 49 52 47
-22.6605 -419.485 -910 48 51 45
-20.7747 -420.392 -912 44 48 41
-18.9219 -422.223 -916 46 49 43
-17.0709 -424.516 -921 49 52 47
-15.2317 -427.732 -928 48 51 46
-13.5629 -437.402 -949 46 48 44
-12.2068 -462.282 -1003 48 48 44
-10.4508 -479.327 -1040 48 48 44
-8.35567 -485.774 -1054 46 48 44
-6.17215 -489.917 -1063 47 50 46
-3.93583 -492.218 -1068 57 57 57
-1.67974 -494.982 -1074 81 81 80
0.601087 -497.286 -1079 85 85 85
2.92188 -502.817 -1091 86 86 86
-201.239 -427.558 -908 72 73 73
-198.997 -426.951 -907 48 50 50
-196.979 -426.816 -907 39 43 42
-194.318 -425.272 -904 38 42 41
-191.459 -423.259 -900 38 42 41
-187.778 -419.369 -892 38 42 41
-183.093 -413.132 -879 41 45 44
-176.818 -403.141 -858 44 48 47
-170.435 -392.688 -836 43 47 46
-166.368 -387.408 -825 45 49 48
-163.548 -384.949 -820 45 49 48
-161.344 -383.9 -818 45 49 48
-158.955 -382.384 -815 44 48 46
-156.966 -381.808 -814 45 49 46
-154.793 -380.764 -812 45 49 46
-152.63 -379.723 -810 46 50 47
-150.664 -379.152 -809 44 48 45
-148.703 -378.582 -808 44 48 45
-146.566 -377.546 -806 45 49 46
-144.619 -376.979 -805 46 50 47
-142.678 -376.414 -804 46 50 47
-140.742 -375.85 -803 46 50 46
-139.159 -376.224 -804 48 52 47
-137.23 -375.663 -803 44 48 43
-135.139 -374.636 -801 44 47 42
-133.39 -374.546 -801 48 51 46
-131.643 -374.457 -801 47 50 45
-129.735 -373.902 -800 47 50 45
-128.152 -374.282 -801 46 49 44
-126.409 -374.197 -801 45 48 43
-124.977 -375.047 -803 45 48 43
-123.232 -374.964 -803 45 48 43
-121.941 -376.282 -806 44 47 42
-120.639 -377.601 -809 43 46 40
-119.472 -379.387 -813 39 42 35
-117.998 -380.241 -815 34 35 30
-116.66 -381.562 -818 43 44 40
-115.029 -381.951 -819 45 45 41
-113.395 -382.341 -820 46 46 42
-112.03 -383.664 -823 46 46 41
-110.385 -384.056 -824 46 46 40
-109 -385.381 -827 48 47 43
-107.344 -385.774 -828 47 47 43
-105.94 -387.101 -831 44 46 41
-104.273 -387.496 -832 43 46 42
-102.602 -387.893 -833 44 47 43
-101.05 -388.756 -835 45 48 43
-99.3706 -389.155 -836 45 48 43
-97.8047 -390.02 -838 45 48 43
-96.3457 -391.352 -841 45 48 43
-94.987 -393.149 -845 44 46 41
-93.5018 -394.482 -848 43 46 41
-92.1127 -396.281 -852 44 47 42
-90.6013 -397.615 -855 43 46 41
-89.0778 -398.95 -858 42 45 40
-87.4406 -399.822 -860 45 48 43
-85.9947 -401.623 -864 45 48 44
-84.3377 -402.496 -866 44 47 42
-82.7681 -403.835 -869 43 46 41
-81.1864 -405.174 -872 42 45 40
-79.5017 -406.05 -874 43 46 41
-77.7203 -406.463 -875 44 47 42
-76.022 -407.341 -877 45 48 43
-74.2313 -407.755 -878 45 48 43
-72.6019 -409.1 -881 43 46 41
-70.7997 -409.516 -882 42 45 40
-68.9939 -409.934 -883 41 44 39
-67.2605 -410.817 -885 42 45 40
-65.5191 -411.702 -887 42 45 40
-63.6981 -412.123 -888 42 45 40
-61.943 -413.009 -890 42 45 40
-60.045 -412.969 -890 42 45 40
-58.2129 -413.394 -891 44 47 42
-56.3139 -413.356 -891 45 48 43
-54.4153 -413.319 -891 46 47 42
-52.5762 -413.748 -892 45 47 43
-50.7901 -414.641 -894 43 46 41
-48.8867 -414.608 -894 42 45 40
-47.0362 -415.04 -895 43 46 41
-45.2323 -415.937 -897 43 46 41
-43.3237 -415.908 -897 45 48 43
-41.4617 -416.343 -898 45 48 43
-39.5958 -416.78 -899 44 47 42
-37.6841 -416.754 -899 45 48 43
-35.7727 -416.73 -899 46 49 44
-33.9747 -418.098 -902 48 51 46
-32.0931 -418.539 -903 50 53 48
-30.241 -419.446 -905 51 53 48
-28.3494 -419.89 -906 51 53 48
-26.4829 -420.798 -908 50 53 48
-24.5812 -421.245 -909 50 53 47
-22.7004 -422.156 -911 49 52 45
-20.7884 -422.605 -912 44 47 40
-18.9137 -423.982 -915 44 47 41
-17.0821 -426.751 -921 48 51 46
-15.3074 -431.837 -932 48 51 45
-13.5432 -438.777 -947 46 49 44
-12.3122 -468.422 -1011 46 48 43
-10.4678 -482.314 -1041 48 48 44
-8.33739 -486.941 -1051 47 50 45
-6.17034 -492.033 -1062 47 50 45
-3.93097 -493.882 -1066 49 52 49
-1.67777 -496.66 -1072 72 73 71
0.601024 -499.44 -1078 87 87 86
2.92123 -505.001 -1090 87 87 87
-199.133 -429.199 -907 53 55 55
-197.331 -429.536 -908 38 42 41
-194.665 -427.983 -905 38 42 41
-191.59 -425.487 -900 38 42 41
-187.906 -421.576 -892 39 43 42
-183.218 -415.306 -879 43 47 46
-176.526 -404.318 -856 45 49 48
-170.754 -395.227 -837 44 48 47
-166.683 -389.919 -826 44 48 47
-163.46 -386.502 -819 44 48 47
-161.059 -384.976 -816 43 47 46
-158.868 -383.924 -814 44 48 46
-156.88 -383.345 -813 44 48 43
-154.707 -382.296 -811 44 48 45
-152.733 -381.72 -810 45 49 46
-150.579 -380.675 -808 45 49 46
-148.619 -380.102 -807 45 49 46
-146.665 -379.531 -806 47 51 48
-144.717 -378.962 -805 47 51 48
-142.597 -377.923 -803 45 49 46
-140.837 -377.827 -803 45 49 45
-139.253 -378.203 -804 46 50 45
-137.323 -377.639 -803 43 47 42
-135.399 -377.076 -802 41 45 40
-133.647 -376.985 -802 45 48 43
-131.732 -376.425 -801 46 49 42
-129.822 -375.867 -800 47 50 44
-128.078 -375.78 -800 46 49 44
-126.336 -375.694 -800 44 47 42
-124.75 -376.079 -801 44 47 42
-123.161 -376.465 -802 44 47 42
-121.872 -377.79 -805 44 47 42
-120.571 -379.116 -808 43 46 40
-119.405 -380.912 -812 41 44 37
-118.078 -382.239 -815 34 34 31
-116.739 -383.567 -818 45 45 41
-115.247 -384.427 -820 47 47 43
-113.61 -384.818 -821 49 49 45
-112.105 -385.68 -823 45 46 41
-110.459 -386.074 -824 45 46 39
-109.073 -387.405 -827 49 47 43
-107.416 -387.801 -828 48 47 43
-105.883 -388.666 -830 45 45 41
-104.217 -389.064 -831 43 46 43
-102.548 -389.462 -832 42 45 42
-100.996 -390.33 -834 42 46 41
-99.3181 -390.731 -835 44 47 42
-97.7533 -391.601 -837 45 48 43
-96.2955 -392.939 -840 45 48 43
-94.8255 -394.278 -843 46 46 42
-93.3436 -395.618 -846 45 46 42
-91.9579 -397.427 -850 44 47 42
-90.4497 -398.768 -853 43 46 41
-88.8256 -399.643 -855 42 45 40
-87.2955 -400.986 -858 44 47 42
-85.8529 -402.797 -862 44 47 44
-84.199 -403.675 -864 43 46 42
-82.728 -405.488 -868 41 44 39
-81.1474 -406.835 -871 41 44 39
-79.5547 -408.182 -874 41 44 38
-77.7721 -408.596 -875 42 45 38
-76.0726 -409.479 -877 45 48 43
-74.2808 -409.896 -878 45 48 43
-72.5677 -410.78 -880 44 47 42
-70.7665 -411.199 -881 43 46 41
-69.0398 -412.086 -883 42 45 40
-67.3053 -412.974 -885 41 44 39
-65.4888 -413.396 -886 40 43 38
-63.6687 -413.819 -887 43 45 40
-61.9146 -414.711 -889 44 44 40
-60.085 -415.137 -890 42 45 40
-58.2516 -415.563 -891 44 47 42
-56.3513 -415.525 -891 45 48 43
-54.4515 -415.488 -891 46 49 44
-52.6112 -415.919 -892 46 49 44
-50.8239 -416.817 -894 43 46 41
-48.9192 -416.784 -894 42 45 40
-47.0149 -416.752 -894 44 47 42
-45.2119 -417.653 -896 45 48 43
-43.3042 -417.624 -896 44 47 42
-41.3968 -417.596 -896 44 47 42
-39.5339 -418.035 -897 44 47 42
-37.6672 -418.475 -898 46 49 44
-35.7964 -418.917 -899 46 49 44
-33.9596 -419.825 -901 46 49 44
-32.1144 -420.735 -903 48 51 46
-30.2276 -421.181 -904 49 52 47
-28.3682 -422.093 -906 49 52 47
-26.4713 -422.54 -907 49 52 47
-24.5704 -422.989 -908 48 51 45
-22.6904 -423.905 -910 47 50 43
-20.7794 -424.357 -911 46 49 42
-18.9056 -425.741 -914 46 49 43
-17.0749 -428.524 -920 48 51 46
-15.2846 -433.171 -930 46 49 42
-13.5665 -441.545 -948 46 49 42
-12.1985 -466.222 -1001 46 49 43
-10.3942 -481.118 -1033 48 48 44
-8.31109 -487.633 -1047 47 49 44
-6.15705 -493.217 -1059 46 49 44
-3.9261 -495.542 -1064 47 50 47
-1.67252 -497.403 -1068 61 64 61
0.600823 -501.595 -1077 82 84 82
2.91777 -506.719 -1088 85 85 85
5.32486 -516.036 -1108 85 85 85
-200.368 -433.83 -912 60 61 61
-198.336 -433.693 -912 40 43 42
-195.445 -431.655 -908 38 41 40
-192.36 -429.146 -903 36 40 39
-188.246 -424.263 -893 37 41 40
-182.717 -416.06 -876 41 45 44
-176.028 -405.015 -853 46 50 49
-170.463 -396.351 -835 45 49 48
-166.797 -391.964 -826 44 48 47
-163.571 -388.529 -819 42 46 45
-161.169 -386.995 -816 40 44 43
-158.976 -385.937 -814 41 45 44
-156.987 -385.355 -813 43 47 42
-154.622 -383.827 -810 44 48 45
-152.838 -383.722 -810 44 48 45
-150.868 -383.145 -809 44 48 45
-148.72 -382.095 -807 45 49 46
-146.765 -381.521 -806 46 50 47
-144.815 -380.948 -805 46 50 47
-142.693 -379.904 -803 44 48 45
-140.757 -379.334 -802 44 48 44
-139.174 -379.712 -803 45 49 44
-137.416 -379.618 -803 46 50 45
-135.49 -379.052 -802 44 48 43
-133.571 -378.488 -801 46 49 43
-131.821 -378.398 -801 48 50 43
-129.91 -377.837 -800 48 50 43
-128.165 -377.749 -800 46 49 44
-126.421 -377.663 -800 44 47 42
-124.834 -378.049 -801 44 47 42
-123.245 -378.437 -802 43 46 41
-121.803 -379.298 -804 42 45 40
-120.652 -381.102 -808 42 45 40
-119.485 -382.907 -812 40 43 36
-118.157 -384.241 -815 31 31 29
-116.675 -385.105 -817 42 42 39
-115.184 -385.969 -819 46 46 42
-113.548 -386.363 -820 48 48 44
-112.044 -387.229 -822 44 44 40
-110.399 -387.624 -823 44 45 39
-108.883 -388.492 -825 48 46 42
-107.229 -388.89 -826 47 46 42
-105.827 -390.23 -829 45 45 41
-104.287 -391.101 -831 43 46 43
-102.617 -391.501 -832 42 45 41
-101.064 -392.374 -834 41 44 39
-99.3849 -392.777 -835 44 47 42
-97.819 -393.651 -837 45 48 43
-96.2455 -394.526 -839 44 47 42
-94.7767 -395.872 -842 45 45 41
-93.1855 -396.749 -844 45 46 42
-91.8031 -398.567 -848 44 47 42
-90.4044 -400.385 -852 43 46 41
-88.8852 -401.735 -855 43 46 41
-87.3541 -403.085 -858 44 47 42
-85.9105 -404.906 -862 44 47 44
-84.353 -406.257 -865 44 47 43
-82.7835 -407.61 -868 42 45 42
-81.295 -409.433 -872 41 44 39
-79.6991 -410.787 -875 40 43 37
-77.8242 -410.735 -875 41 44 37
-76.1236 -411.622 -877 44 47 42
-74.4152 -412.51 -879 45 48 43
-72.6989 -413.399 -881 45 48 43
-70.8943 -413.82 -882 44 47 42
-69.1643 -414.711 -884 43 46 41
-67.3503 -415.134 -885 40 43 38
-65.6066 -416.028 -887 40 43 38
-63.7832 -416.453 -888 44 45 41
-61.956 -416.88 -889 45 45 41
-60.1251 -417.308 -890 41 44 39
-58.2906 -417.737 -891 41 44 39
-56.389 -417.699 -891 44 47 42
-54.4879 -417.662 -891 46 49 44
-52.7053 -418.563 -893 45 48 43
-50.801 -418.529 -893 44 47 42
-48.897 -418.495 -893 43 46 41
-47.0463 -418.932 -894 44 47 42
-45.1916 -419.369 -895 45 48 43
-43.2847 -419.34 -895 45 48 43
-41.4244 -419.78 -896 44 47 42
-39.5603 -420.221 -897 46 49 44
-37.6923 -420.664 -898 47 50 45
-35.7805 -420.639 -898 47 50 45
-33.9445 -421.553 -900 45 48 43
-32.1002 -422.467 -902 43 46 41
-30.2143 -422.915 -903 45 48 43
-28.3244 -423.364 -904 46 49 44
-26.4889 -424.75 -907 47 50 45
-24.5868 -425.202 -908 47 50 44
-22.6806 -425.654 -909 45 48 41
-20.7932 -426.576 -911 46 49 42
-18.9182 -427.967 -914 47 50 44
-17.0863 -430.765 -920 47 50 45
-15.2619 -434.5 -928 45 48 41
-13.5612 -443.386 -947 45 48 41
-12.2067 -468.66 -1001 46 49 42
-10.3608 -481.762 -1029 47 47 43
-8.30867 -489.715 -1046 47 49 45
-6.13779 -493.923 -1055 47 50 45
-3.91769 -496.729 -1061 49 52 49
-1.67368 -500.004 -1068 57 60 57
0.600763 -503.75 -1076 77 79 77
2.90908 -507.496 -1084 85 85 84
5.32837 -518.735 -1108 84 84 84
-200.506 -436.099 -912 63 63 63
-198.473 -435.961 -912 42 43 44
-195.579 -433.913 -908 36 38 39
-192.279 -430.913 -902 34 38 37
-188.797 -427.437 -895 36 40 39
-182.843 -418.236 -876 41 45 44
-175.942 -406.656 -852 48 52 51
-170.171 -397.469 -833 46 50 48
-166.709 -393.536 -825 44 48 46
-163.484 -390.084 -818 43 47 45
-161.082 -388.542 -815 41 45 43
-158.89 -387.478 -813 42 46 44
-156.901 -386.893 -812 43 47 43
-154.728 -385.833 -810 43 47 43
-152.942 -385.728 -810 43 47 44
-150.972 -385.147 -809 43 48 46
-148.822 -384.092 -807 42 47 44
-146.865 -383.515 -806 43 47 44
-144.914 -382.939 -805 45 49 46
-142.969 -382.365 -804 45 49 46
-141.029 -381.792 -803 43 47 44
-139.442 -382.171 -804 46 49 43
-137.51 -381.601 -803 49 52 47
-135.583 -381.033 -802 47 50 45
-133.829 -380.94 -802 47 49 43
-131.911 -380.375 -801 49 51 45
-129.999 -379.81 -800 47 49 43
-128.092 -379.247 -799 45 48 43
-126.349 -379.16 -799 43 46 41
-124.764 -379.549 -800 44 47 42
-123.175 -379.939 -801 45 48 43
-121.886 -381.278 -804 43 46 41
-120.734 -383.092 -808 42 45 39
-119.567 -384.907 -812 42 45 39
-118.238 -386.247 -815 30 31 28
-116.897 -387.589 -818 37 37 34
-115.262 -387.984 -819 41 41 37
-113.625 -388.38 -820 44 44 40
-111.984 -388.776 -821 42 43 38
-110.34 -389.174 -822 42 44 39
-108.824 -390.047 -824 47 46 42
-107.172 -390.446 -825 47 46 42
-105.643 -391.321 -827 46 46 42
-104.107 -392.196 -829 43 46 41
-102.563 -393.072 -831 41 44 39
-101.011 -393.948 -833 40 43 38
-99.4522 -394.826 -835 41 44 39
-97.8852 -395.705 -837 43 46 41
-96.3105 -396.584 -839 43 46 41
-94.7281 -397.465 -841 43 46 41
-93.2485 -398.819 -844 44 47 42
-91.8652 -400.646 -848 45 48 43
-90.4654 -402.474 -852 45 48 43
-88.8413 -403.358 -854 45 48 43
-87.3112 -404.715 -857 45 48 43
-85.8688 -406.546 -861 44 47 44
-84.3124 -407.904 -864 44 47 43
-82.7439 -409.264 -867 43 46 41
-81.2566 -411.097 -871 41 44 38
-79.6617 -412.458 -874 41 44 38
-77.9656 -413.349 -876 42 45 38
-76.2618 -414.24 -878 44 47 42
-74.4653 -414.661 -879 47 50 45
-72.7478 -415.555 -881 46 49 44
-70.9421 -415.978 -882 46 49 44
-69.2109 -416.874 -884 45 48 43
-67.3957 -417.299 -885 42 45 40
-65.6508 -418.197 -887 41 44 39
-63.8261 -418.625 -888 42 44 39
-61.9977 -419.054 -889 42 44 39
-60.1656 -419.484 -890 41 44 39
-58.2643 -419.444 -890 41 44 39
-56.3636 -419.406 -890 42 45 40
-54.4633 -419.368 -890 46 47 43
-52.6817 -420.275 -892 46 48 43
-50.8351 -420.711 -893 44 47 42
-48.9299 -420.677 -893 43 46 41
-47.0252 -420.645 -893 44 47 42
-45.1714 -421.085 -894 46 49 44
-43.2654 -421.055 -894 45 48 43
-41.406 -421.497 -895 43 46 41
-39.5427 -421.941 -896 43 46 41
-37.6756 -422.386 -897 46 49 44
-35.8045 -422.832 -898 47 50 45
-33.9673 -423.75 -900 45 48 43
-32.1218 -424.67 -902 44 47 42
-30.2011 -424.649 -902 46 48 42
-28.3434 -425.571 -904 47 48 42
-26.4775 -426.494 -906 47 50 45
-24.5762 -426.947 -907 48 51 45
-22.6709 -427.402 -908 45 48 41
-20.7843 -428.329 -910 42 46 39
-18.9101 -429.728 -913 43 47 41
-17.0606 -432.069 -918 46 49 44
-15.2392 -435.823 -926 45 48 41
-13.4843 -442.874 -941 45 48 41
-12.0684 -465.455 -989 47 50 43
-10.3073 -481.449 -1023 47 47 43
-8.28241 -490.385 -1042 47 50 45
-6.11866 -494.616 -1051 49 52 47
-3.91283 -498.377 -1059 51 54 50
-1.67 -501.199 -1065 56 59 55
0.599447 -504.964 -1073 70 73 69
2.90307 -508.73 -1081 84 84 82
5.30798 -519.086 -1103 85 85 85
-201.306 -439.816 -915 66 66 67
-198.828 -438.715 -913 44 45 46
-195.931 -436.656 -909 35 37 39
-192.413 -433.159 -902 34 38 37
-188.717 -429.186 -894 36 40 39
-183.178 -420.897 -877 44 48 47
-176.064 -408.776 -852 47 51 50
-170.289 -399.541 -833 45 49 47
-166.622 -395.108 -824 43 47 44
-163.597 -392.117 -818 43 47 44
-161.193 -390.567 -815 42 46 43
-158.999 -389.498 -813 41 45 42
-157.01 -388.909 -812 41 45 42
-154.834 -387.844 -810 42 46 43
-153.048 -387.737 -810 43 47 44
-151.075 -387.154 -809 41 48 46
-148.925 -386.093 -807 42 47 45
-146.966 -385.513 -806 43 47 44
-145.014 -384.934 -805 44 48 45
-143.067 -384.356 -804 45 49 46
-141.126 -383.78 -803 45 49 45
-139.365 -383.684 -803 46 49 42
-137.433 -383.111 -802 47 50 45
-135.507 -382.539 -801 47 50 45
-133.753 -382.446 -801 49 49 45
-131.836 -381.878 -800 48 51 46
-129.925 -381.31 -799 48 51 46
-128.18 -381.222 -799 47 50 45
-126.436 -381.134 -799 45 48 43
-124.693 -381.048 -799 44 47 42
-123.259 -381.917 -801 45 48 43
-121.969 -383.263 -804 44 47 42
-120.817 -385.086 -808 42 45 40
-119.648 -386.91 -812 42 45 42
-118.173 -387.781 -814 32 32 28
-116.691 -388.654 -816 37 37 33
-115.059 -389.05 -817 42 42 38
-113.425 -389.448 -818 44 45 38
-111.924 -390.323 -820 45 46 39
-110.281 -390.723 -821 45 46 39
-108.766 -391.6 -823 46 48 42
-107.245 -392.478 -825 46 48 42
-105.587 -392.881 -826 46 46 42
-104.052 -393.76 -828 43 45 40
-102.509 -394.641 -830 41 45 40
-101.08 -395.998 -833 41 45 40
-99.4007 -396.405 -834 42 46 41
-97.9518 -397.763 -837 43 47 42
-96.4909 -399.122 -840 45 48 43
-94.9053 -400.007 -842 44 47 42
-93.4225 -401.368 -845 44 47 42
-92.036 -403.205 -849 44 47 42
-90.5269 -404.567 -852 44 47 42
-88.9016 -405.456 -854 44 47 42
-87.3705 -406.82 -857 45 48 43
-86.0269 -409.134 -862 45 48 44
-84.2719 -409.551 -863 44 47 42
-82.8 -411.392 -867 44 47 42
-81.2183 -412.76 -870 42 45 39
-79.6245 -414.128 -873 42 45 38
-77.8404 -414.549 -874 41 44 37
-76.2266 -415.92 -877 42 45 40
-74.431 -416.343 -878 45 48 43
-72.7145 -417.241 -880 46 49 44
-70.9096 -417.666 -881 46 49 44
-69.1794 -418.567 -883 46 49 44
-67.4413 -419.469 -885 42 45 40
-65.6952 -420.371 -887 41 44 39
-63.8693 -420.801 -888 42 45 40
-62.1094 -421.706 -890 42 45 40
-60.2063 -421.665 -890 42 45 40
-58.3037 -421.625 -890 42 44 39
-56.465 -422.059 -891 43 46 40
-54.5614 -422.022 -891 45 47 42
-52.7173 -422.459 -892 45 47 42
-50.8695 -422.897 -893 45 47 42
-49.0178 -423.337 -894 45 48 43
-47.1096 -423.304 -894 45 48 43
-45.2525 -423.747 -895 46 49 44
-43.343 -423.717 -895 45 48 43
-41.4802 -424.161 -896 44 47 42
-39.5695 -424.134 -896 44 47 42
-37.701 -424.581 -897 45 48 43
-35.7888 -424.556 -897 46 49 44
-33.9524 -425.479 -899 45 48 43
-32.0722 -425.93 -900 45 48 43
-30.188 -426.382 -901 45 48 42
-28.3311 -427.309 -903 48 50 43
-26.4369 -427.764 -904 49 52 46
-24.5657 -428.693 -906 48 51 44
-22.6861 -429.623 -908 46 49 42
-20.7983 -430.555 -910 43 46 39
-18.9022 -431.488 -912 43 46 39
-17.0535 -433.841 -917 44 47 40
-15.2001 -436.669 -923 45 48 41
-13.4217 -442.809 -936 44 47 40
-11.7956 -456.993 -966 45 48 41
-10.2537 -481.113 -1017 47 47 43
-8.24825 -490.568 -1037 44 47 42
-6.09937 -495.293 -1047 49 52 47
-3.90811 -500.021 -1057 49 52 47
-1.66803 -502.857 -1063 54 57 52
0.598829 -506.641 -1071 66 68 64
2.90767 -511.846 -1082 81 81 79
5.30202 -520.837 -1101 83 83 82
-201.226 -441.619 -914 73 73 75
-198.749 -440.513 -912 51 51 53
-195.636 -437.96 -907 40 42 42
-192.547 -435.411 -902 35 39 38
-188.426 -430.451 -892 37 41 40
-182.888 -422.119 -875 44 48 47
-175.773 -409.935 -850 47 51 50
-170.203 -401.135 -832 43 47 45
-166.738 -397.161 -824 41 45 42
-163.911 -394.636 -819 41 45 42
-161.305 -392.596 -815 41 45 42
-159.11 -391.521 -813 40 44 41
-157.118 -390.93 -812 41 45 42
-154.942 -389.858 -810 42 46 43
-153.154 -389.751 -810 41 45 42
-151.18 -389.164 -809 39 47 45
-149.028 -388.098 -807 42 48 45
-147.25 -387.995 -807 45 49 46
-145.114 -386.933 -805 45 49 46
-143.166 -386.352 -804 44 48 45
-141.224 -385.773 -803 43 47 44
-139.461 -385.676 -803 47 50 43
-137.528 -385.099 -802 46 49 44
-135.6 -384.525 -801 46 49 44
-133.846 -384.432 -801 50 50 46
-131.927 -383.86 -800 49 51 46
-130.015 -383.29 -799 48 51 46
-128.268 -383.2 -799 49 52 47
-126.523 -383.112 -799 47 50 45
-124.935 -383.505 -800 44 47 42
-123.498 -384.378 -802 44 47 42
-122.053 -385.252 -804 44 47 42
-120.9 -387.084 -808 44 47 42
-119.583 -388.438 -811 40 43 39
-117.964 -388.835 -812 32 33 29
-116.485 -389.712 -814 40 40 36
-114.857 -390.111 -815 42 42 38
-113.225 -390.511 -816 45 45 41
-111.591 -390.913 -817 46 46 42
-110.222 -392.272 -820 47 47 43
-108.709 -393.153 -822 46 49 43
-107.188 -394.035 -824 46 49 43
-105.532 -394.44 -825 48 48 44
-103.998 -395.324 -827 44 46 42
-102.579 -396.687 -830 42 45 40
-101.028 -397.573 -832 42 46 41
-99.4687 -398.46 -834 45 48 43
-98.1359 -400.303 -838 44 47 42
-96.6718 -401.669 -841 45 48 43
-94.9702 -402.081 -842 45 48 43
-93.4863 -403.449 -845 44 47 42
-91.9904 -404.818 -848 44 47 42
-90.5887 -406.665 -852 44 48 43
-88.9623 -407.558 -854 43 47 42
-87.4301 -408.929 -857 43 46 41
-85.9857 -410.778 -861 46 49 44
-84.3294 -411.674 -863 46 49 44
-82.761 -413.048 -866 44 47 42
-81.2737 -414.899 -870 43 46 41
-79.6788 -416.275 -873 42 45 40
-77.8935 -416.698 -874 41 44 39
-76.2785 -418.075 -877 42 45 40
-74.4818 -418.5 -878 44 47 43
-72.764 -419.403 -880 45 48 45
-70.9579 -419.831 -881 46 49 44
-69.2265 -420.736 -883 46 49 44
-67.4872 -421.642 -885 43 46 41
-65.6658 -422.073 -886 42 45 40
-63.9127 -422.982 -888 42 45 40
-62.0819 -423.415 -889 41 44 39
-60.2473 -423.849 -890 41 44 39
-58.3433 -423.809 -890 41 44 38
-56.5035 -424.246 -891 44 45 38
-54.5985 -424.208 -891 42 45 40
-52.7531 -424.648 -892 42 44 39
-50.904 -425.088 -893 45 45 41
-49.0511 -425.53 -894 45 48 43
-47.1416 -425.497 -894 46 49 44
-45.2832 -425.942 -895 44 47 42
-43.3724 -425.912 -895 43 46 41
-41.5084 -426.359 -896 45 48 43
-39.5963 -426.331 -896 44 47 42
-37.7266 -426.781 -897 45 48 43
-35.8131 -426.756 -897 46 49 44
-33.9376 -427.207 -898 44 47 42
-32.0583 -427.661 -899 44 47 42
-30.1749 -428.115 -900 46 49 43
-28.319 -429.047 -902 47 50 44
-26.4255 -429.504 -903 47 50 44
-24.5552 -430.438 -905 47 50 43
-22.6515 -430.897 -906 49 52 45
-20.7667 -431.834 -908 49 52 45
-18.8735 -432.771 -910 46 49 42
-17.0278 -435.137 -915 44 47 40
-15.1609 -437.504 -920 45 48 41
-13.3734 -443.201 -932 47 51 44
-11.7425 -456.983 -961 46 50 43
-10.1597 -478.849 -1007 45 47 41
-8.19012 -489.304 -1029 44 47 42
-6.08021 -495.957 -1043 48 51 47
-3.89585 -500.709 -1053 49 52 48
-1.66278 -503.56 -1059 54 57 52
0.596954 -507.363 -1067 63 66 62
2.89628 -512.12 -1077 76 77 75
5.267 -519.731 -1093 83 83 82
-202.028 -445.365 -917 76 76 78
-198.888 -442.796 -912 53 54 55
-195.557 -439.744 -906 39 41 41
-192.468 -437.182 -901 37 41 40
-188.346 -432.197 -891 41 44 44
-183.225 -424.791 -876 46 48 48
-177.138 -414.968 -856 46 50 49
-170.527 -403.697 -833 43 47 46
-166.855 -399.218 -824 42 46 43
-164.025 -396.68 -819 41 45 42
-161.814 -395.598 -817 41 45 42
-159.417 -394.033 -814 41 45 42
-157.422 -393.438 -813 41 45 42
-155.241 -392.361 -811 41 45 42
-153.26 -391.769 -810 42 46 43
-151.285 -391.179 -809 39 47 45
-149.316 -390.591 -808 42 48 45
-147.353 -390.004 -807 44 48 45
-145.395 -389.419 -806 45 49 46
-143.266 -388.352 -804 46 49 46
-141.146 -387.287 -802 46 49 46
-139.384 -387.189 -802 46 49 42
-137.452 -386.61 -801 47 50 44
-135.694 -386.515 -801 46 49 44
-133.771 -385.939 -800 48 50 45
-132.019 -385.846 -800 49 52 47
-130.105 -385.273 -799 50 53 48
-128.196 -384.701 -798 49 52 47
-126.61 -385.094 -799 48 51 46
-125.021 -385.489 -800 47 50 45
-123.429 -385.884 -801 44 47 42
-122.137 -387.244 -804 42 45 40
-120.984 -389.086 -808 43 46 41
-119.518 -389.966 -810 38 41 36
-117.9 -390.365 -811 34 35 31
-116.279 -390.765 -812 43 43 39
-114.654 -391.166 -813 43 43 39
-113.026 -391.569 -814 46 46 42
-111.531 -392.453 -816 48 48 44
-110.163 -393.819 -819 49 49 45
-108.651 -394.705 -821 49 50 46
-107.132 -395.592 -823 49 51 46
-105.476 -395.999 -824 47 47 43
-103.943 -396.888 -826 44 46 41
-102.526 -398.258 -829 43 46 41
-101.097 -399.629 -832 43 47 42
-99.6565 -401 -835 45 48 43
-98.2035 -402.372 -838 45 48 43
-96.7384 -403.745 -841 45 48 43
-95.1484 -404.639 -843 44 47 42
-93.5506 -405.534 -845 46 49 44
-92.0536 -406.91 -848 45 48 43
-90.651 -408.766 -852 46 49 44
-89.1276 -410.143 -855 45 48 43
-87.5923 -411.522 -858 43 46 41
-86.1447 -413.38 -862 44 48 43
-84.4851 -414.28 -864 44 47 42
-82.9134 -415.661 -867 44 47 42
-81.236 -416.564 -869 43 46 41
-79.6421 -417.946 -872 42 45 40
-77.8577 -418.371 -873 43 46 41
-76.1567 -419.277 -875 44 47 42
-74.363 -419.704 -876 46 49 44
-72.7311 -421.091 -879 45 48 45
-70.9259 -421.521 -880 45 48 43
-69.1955 -422.43 -882 46 49 44
-67.4571 -423.341 -884 45 48 43
-65.7108 -424.253 -886 43 46 41
-63.8844 -424.688 -887 40 43 38
-62.1243 -425.602 -889 39 42 37
-60.2885 -426.039 -890 40 43 38
-58.3833 -425.998 -890 41 44 38
-56.5421 -426.437 -891 43 44 37
-54.6358 -426.399 -891 42 45 40
-52.7892 -426.841 -892 43 45 40
-50.8818 -426.805 -892 45 45 41
-49.0847 -427.728 -894 44 47 42
-47.1739 -427.695 -894 45 48 43
-45.2635 -427.663 -894 44 47 42
-43.4021 -428.111 -895 43 46 41
-41.5368 -428.56 -896 42 45 40
-39.6233 -428.533 -896 44 47 42
-37.7103 -428.506 -896 46 49 44
-35.8375 -428.959 -897 46 49 44
-33.923 -428.935 -897 46 49 44
-32.0445 -429.391 -898 46 49 44
-30.162 -429.848 -899 46 49 44
-28.3069 -430.784 -901 46 49 44
-26.4143 -431.243 -902 46 49 44
-24.5448 -432.182 -904 46 49 43
-22.6669 -433.122 -906 46 49 42
-20.7579 -433.585 -907 47 50 43
-18.8656 -434.528 -909 46 49 42
-17.0021 -436.428 -913 47 50 43
-15.1547 -439.285 -919 46 49 42
-13.325 -443.577 -928 49 53 46
-11.6405 -455.04 -952 50 54 47
-10.0051 -473.674 -991 45 48 41
-8.13192 -488.007 -1021 46 49 44
-6.0552 -496.128 -1038 50 53 50
-3.88002 -500.904 -1048 53 56 53
-1.65766 -504.248 -1055 56 59 54
0.595775 -508.549 -1064 61 64 60
2.89282 -513.808 -1075 71 74 71
5.26102 -521.458 -1091 84 82 83
-199.029 -445.084 -912 53 53 55
-195.263 -441.041 -904 39 41 42
-191.962 -437.977 -898 39 43 42
-187.844 -432.966 -888 42 46 45
-183.773 -427.96 -878 45 47 47
-175.191 -412.238 -846 45 49 48
-170.647 -405.782 -833 44 48 46
-166.769 -400.793 -823 42 46 43
-163.74 -397.755 -817 43 47 44
-161.531 -396.667 -815 42 46 43
-159.333 -395.58 -813 41 45 42
-157.338 -394.983 -812 42 46 43
-155.159 -393.9 -810 43 47 44
-153.179 -393.305 -809 42 46 43
-151.204 -392.712 -808 40 48 46
-149.236 -392.121 -807 41 47 45
-147.273 -391.531 -806 43 47 44
-145.317 -390.942 -805 45 49 46
-143.366 -390.356 -804 47 50 47
-141.245 -389.285 -802 46 49 46
-139.481 -389.187 -802 48 50 43
-137.376 -388.119 -800 46 49 42
-135.62 -388.024 -800 46 49 44
-133.697 -387.444 -799 47 50 45
-131.946 -387.352 -799 49 52 47
-130.033 -386.775 -798 50 53 48
-128.286 -386.685 -798 50 53 48
-126.54 -386.596 -798 48 51 46
-125.108 -387.477 -800 47 50 45
-123.669 -388.359 -802 44 47 42
-122.222 -389.241 -804 41 44 39
-120.918 -390.609 -807 41 44 39
-119.454 -391.493 -809 37 40 36
-117.691 -391.41 -809 32 33 29
-116.073 -391.812 -810 45 45 41
-114.31 -391.732 -810 46 46 42
-112.826 -392.62 -812 48 48 43
-111.335 -393.509 -814 48 48 43
-109.971 -394.882 -817 48 48 43
-108.594 -396.256 -820 49 49 44
-107.206 -397.631 -823 50 50 45
-105.549 -398.04 -824 47 47 43
-104.015 -398.933 -826 43 45 40
-102.597 -400.31 -829 42 45 40
-101.046 -401.205 -831 44 47 42
-99.6061 -402.584 -834 45 48 43
-98.1542 -403.963 -837 45 48 43
-96.6902 -405.343 -840 44 47 42
-95.2142 -406.724 -843 43 46 41
-93.6152 -407.624 -845 46 49 44
-92.1172 -409.006 -848 45 48 43
-90.7136 -410.872 -852 47 50 45
-89.1893 -412.256 -855 46 49 44
-87.5506 -413.159 -857 44 47 42
-86.1042 -415.028 -861 45 48 43
-84.4456 -415.933 -863 45 48 43
-82.8749 -417.32 -866 44 47 42
-81.1985 -418.227 -868 42 45 40
-79.5143 -419.135 -870 42 45 40
-77.8221 -420.044 -872 43 46 41
-76.0351 -420.473 -873 45 48 43
-74.3293 -421.384 -875 46 49 44
-72.6157 -422.297 -877 45 48 45
-70.8941 -423.21 -879 44 47 42
-69.1646 -424.124 -881 44 47 42
-67.4272 -425.04 -883 44 47 42
-65.6818 -425.957 -885 44 47 42
-63.8563 -426.393 -886 42 45 40
-62.1671 -427.794 -889 40 43 37
-60.33 -428.233 -890 41 44 39
-58.4234 -428.191 -890 42 45 39
-56.581 -428.633 -891 44 45 38
-54.6734 -428.594 -891 42 45 40
-52.7663 -428.557 -891 42 44 40
-50.9168 -429.003 -892 44 44 40
-49.1184 -429.93 -894 45 45 41
-47.2591 -430.378 -895 44 46 41
-45.3453 -430.346 -895 44 47 42
-43.4319 -430.315 -895 42 45 40
-41.5653 -430.767 -896 40 43 38
-39.6505 -430.739 -896 43 46 41
-37.7362 -430.712 -896 46 49 44
-35.8621 -431.168 -897 46 49 44
-33.9463 -431.143 -897 47 50 45
-32.0664 -431.602 -898 47 50 45
-30.1491 -431.58 -898 47 50 45
-28.3263 -433.002 -901 47 50 45
-26.4031 -432.983 -901 47 50 45
-24.5344 -433.926 -903 46 49 43
-22.6324 -434.391 -904 44 47 40
-20.7492 -435.337 -906 43 46 39
-18.8162 -435.323 -906 45 48 41
-16.9765 -437.713 -911 47 50 43
-15.1156 -440.105 -916 48 51 44
-13.3198 -445.38 -927 50 53 46
-11.6239 -456.422 -950 55 58 51
-9.83011 -467.465 -973 49 52 45
-8.05779 -485.715 -1011 45 48 42
-6.00669 -494.358 -1029 50 53 48
-3.85676 -500.119 -1041 55 58 53
-1.6524 -504.922 -1051 55 58 53
0.593475 -508.765 -1059 59 62 57
2.88411 -514.531 -1071 70 73 70
5.23092 -520.779 -1084 83 80 81
-199.825 -448.848 -915 55 55 57
-195.401 -443.312 -904 39 41 43
-192.098 -440.232 -898 40 44 43
-187.977 -435.196 -888 42 46 45
-182.855 -427.714 -873 46 48 48
-176.766 -417.789 -853 46 50 49
-170.972 -408.361 -834 46 50 49
-167.09 -403.345 -824 44 48 45
-164.056 -400.292 -818 42 46 43
-161.843 -399.198 -816 43 47 44
-159.445 -397.616 -813 44 48 45
-157.449 -397.015 -812 43 47 44
-155.268 -395.927 -810 43 47 44
-153.286 -395.329 -809 42 46 43
-151.124 -394.244 -807 42 47 45
-149.156 -393.65 -806 42 47 44
-147.194 -393.057 -805 43 47 44
-145.238 -392.466 -804 45 49 46
-143.288 -391.876 -803 45 49 45
-141.344 -391.287 -802 43 47 43
-139.405 -390.701 -801 49 50 43
-137.472 -390.115 -800 49 51 44
-135.715 -390.019 -800 46 49 44
-133.791 -389.437 -799 47 50 45
-132.038 -389.343 -799 48 51 46
-130.124 -388.764 -798 50 53 48
-128.376 -388.673 -798 51 54 49
-126.629 -388.584 -798 49 52 47
-125.196 -389.469 -800 46 49 44
-123.601 -389.868 -801 43 46 41
-122.156 -390.755 -803 42 45 40
-120.853 -392.13 -806 40 43 38
-119.242 -392.532 -807 37 40 37
-117.628 -392.935 -808 31 33 29
-116.01 -393.34 -809 45 45 41
-114.39 -393.745 -810 49 49 45
-112.766 -394.152 -811 49 49 43
-111.276 -395.045 -813 48 49 42
-110.047 -396.911 -817 49 49 43
-108.538 -397.807 -819 49 50 43
-107.281 -399.674 -823 50 51 44
-105.623 -400.085 -824 45 45 41
-104.088 -400.983 -826 42 44 39
-102.669 -402.367 -829 43 46 41
-101.116 -403.266 -831 44 47 42
-99.5559 -404.167 -833 44 47 42
-98.2225 -406.038 -837 43 46 41
-96.7575 -407.425 -840 44 47 42
-95.2804 -408.813 -843 43 46 41
-93.5695 -409.232 -844 44 47 42
-92.0726 -410.622 -847 45 48 43
-90.5635 -412.013 -850 47 50 45
-89.1468 -413.889 -854 47 50 45
-87.5092 -414.797 -856 45 48 43
-86.164 -417.159 -861 44 47 42
-84.6021 -418.553 -864 43 46 41
-82.9324 -419.463 -866 43 46 41
-81.1612 -419.891 -867 41 44 39
-79.5694 -421.288 -870 40 43 38
-77.8761 -422.201 -872 42 45 40
-76.0006 -422.148 -872 45 48 43
-74.2958 -423.064 -874 46 49 44
-72.666 -424.465 -877 43 46 42
-70.8626 -424.899 -878 42 45 40
-69.134 -425.818 -880 42 45 40
-67.3975 -426.738 -882 44 47 42
-65.7273 -428.144 -885 43 46 41
-63.9006 -428.582 -886 41 44 38
-62.1401 -429.506 -888 40 43 36
-60.3038 -429.947 -889 39 42 36
-58.4638 -430.389 -890 40 43 38
-56.6201 -430.833 -891 42 44 38
-54.7726 -431.278 -892 42 44 39
-52.862 -431.241 -892 43 44 40
-51.0091 -431.688 -893 45 45 41
-49.1523 -432.137 -894 45 45 41
-47.2389 -432.103 -894 43 44 39
-45.3766 -432.555 -895 41 44 39
-43.5105 -433.007 -896 41 44 39
-41.594 -432.978 -896 41 44 39
-39.678 -432.949 -896 42 45 40
-37.7622 -432.923 -896 45 48 43
-35.8869 -433.38 -897 47 50 45
-33.9697 -433.356 -897 48 51 46
-32.0886 -433.816 -898 48 51 46
-30.1699 -433.795 -898 47 50 44
-28.3144 -434.741 -900 49 52 45
-26.392 -434.722 -900 49 52 45
-24.5242 -435.67 -902 47 50 43
-22.623 -436.137 -903 45 48 41
-20.7406 -437.088 -905 45 48 41
-18.8084 -437.074 -905 46 49 42
-16.9696 -439.477 -910 48 51 44
-15.126 -442.363 -916 49 52 45
-13.3146 -447.182 -926 51 54 47
-11.5585 -455.866 -944 56 59 52
-9.79641 -467.932 -969 52 55 48
-7.97559 -482.895 -1000 46 49 43
-5.95241 -492.065 -1019 48 51 44
-3.83705 -499.788 -1035 52 55 50
-1.64413 -504.615 -1045 54 57 52
0.592157 -509.927 -1056 58 61 56
2.88348 -516.688 -1070 69 72 69
5.21527 -521.52 -1080 83 80 81
7.66638 -531.665 -1101 82 80 81
-198.875 -448.687 -910 60 60 62
-195.108 -444.602 -902 38 40 42
-192.664 -443.478 -900 38 41 41
-188.111 -437.43 -888 41 45 44
-183.405 -430.894 -875 47 49 49
-176.684 -419.441 -852 48 51 50
-170.889 -409.965 -833 46 50 47
-167.006 -404.924 -823 43 47 44
-164.172 -402.346 -818 43 47 44
-161.76 -400.754 -815 44 48 45
-159.362 -399.165 -812 44 48 45
-157.367 -398.561 -811 43 47 44
-155.378 -397.958 -810 43 47 44
-153.395 -397.357 -809 43 47 44
-151.043 -395.776 -806 43 47 44
-149.262 -395.669 -806 43 48 45
-147.115 -394.582 -804 44 48 45
-144.98 -393.497 -802 45 49 46
-143.211 -393.395 -802 45 48 45
-141.267 -392.804 -801 45 49 44
-139.33 -392.214 -800 49 49 44
-137.569 -392.116 -800 49 50 44
-135.98 -392.509 -801 47 50 45
-133.886 -391.434 -799 46 49 44
-132.131 -391.34 -799 48 51 46
-130.379 -391.247 -799 49 52 47
-128.305 -390.176 -797 47 50 45
-126.4 -389.597 -796 47 50 45
-125.128 -390.976 -799 45 48 43
-123.38 -390.888 -799 43 46 41
-121.937 -391.78 -801 41 44 39
-120.788 -393.651 -805 41 44 39
-119.326 -394.544 -807 42 45 41
-117.565 -394.46 -807 35 36 33
-116.092 -395.355 -809 43 43 39
-114.47 -395.763 -810 47 47 43
-112.845 -396.171 -811 48 49 43
-111.354 -397.069 -813 49 50 43
-109.99 -398.457 -816 50 48 42
-108.481 -399.356 -818 48 48 42
-107.095 -400.745 -821 48 49 42
-105.569 -401.646 -823 48 48 44
-104.161 -403.037 -826 47 47 43
-102.741 -404.428 -829 45 45 41
-101.065 -404.844 -830 43 46 41
-99.6256 -406.236 -833 41 44 39
-98.1738 -407.63 -836 41 44 39
-96.7099 -409.024 -839 43 46 41
-95.2339 -410.419 -842 43 46 41
-93.524 -410.841 -843 43 46 41
-92.0281 -412.238 -846 44 47 42
-90.4136 -413.148 -848 46 49 44
-89.0001 -415.034 -852 49 52 47
-87.468 -416.433 -855 46 49 44
-86.2241 -419.295 -861 43 46 41
-84.7592 -421.183 -865 42 45 40
-83.0861 -422.098 -867 41 44 39
-81.3115 -422.527 -868 40 43 38
-79.6249 -423.444 -870 40 43 38
-77.8411 -423.876 -871 42 45 40
-76.0536 -424.309 -872 43 46 41
-74.3476 -425.229 -874 44 47 42
-72.7167 -426.637 -877 43 46 41
-70.8311 -426.587 -877 40 43 38
-69.1822 -427.997 -880 39 42 37
-67.4444 -428.922 -882 41 44 39
-65.6988 -429.848 -884 43 46 40
-63.945 -430.776 -886 42 45 39
-62.1834 -431.704 -888 40 43 36
-60.3458 -432.147 -889 36 39 33
-58.5045 -432.592 -890 37 40 35
-56.6595 -433.038 -891 41 44 39
-54.7492 -432.999 -891 42 42 38
-52.8395 -432.961 -891 42 42 38
-50.9874 -433.411 -892 44 44 40
-49.1315 -433.862 -893 43 43 39
-47.2717 -434.314 -894 41 42 37
-45.3574 -434.282 -894 38 41 36
-43.5407 -435.223 -896 41 44 39
-41.6229 -435.193 -896 45 48 43
-39.7498 -435.65 -897 45 48 43
-37.8306 -435.623 -897 45 48 43
-35.9519 -436.083 -898 47 50 45
-34.0312 -436.059 -898 46 49 44
-32.0751 -435.55 -897 45 48 43
-30.1572 -435.529 -897 45 48 42
-28.3026 -436.479 -899 46 49 44
-26.3809 -436.46 -899 48 51 45
-24.4867 -436.928 -900 46 49 44
-22.6136 -437.883 -902 45 48 43
-20.7321 -438.839 -904 46 49 44
-18.8006 -438.825 -904 48 51 45
-16.9627 -441.239 -909 50 53 46
-15.1035 -443.655 -914 50 53 46
-13.295 -448.499 -924 50 53 46
-11.5665 -458.198 -944 55 58 51
-9.75264 -467.899 -964 54 57 50
-7.90128 -480.512 -990 48 51 46
-5.89807 -489.729 -1009 48 51 46
-3.80633 -497.977 -1026 51 54 49
-1.63729 -504.77 -1040 55 58 53
0.588731 -509.138 -1049 56 59 54
2.85589 -513.993 -1059 63 66 62
5.20444 -522.732 -1077 82 82 81
7.61598 -530.502 -1093 82 81 82
-199.674 -452.471 -913 64 64 64
-196.114 -448.86 -906 38 40 42
-192.587 -445.253 -899 38 41 41
-188.458 -440.164 -889 42 46 45
-183.536 -433.1 -875 50 52 52
-176.811 -421.588 -852 49 52 50
-171.627 -413.547 -836 45 49 46
-167.328 -407.49 -824 45 49 46
-164.29 -404.405 -818 45 49 46
-161.677 -402.311 -814 44 48 45
-159.279 -400.713 -811 44 48 45
-157.285 -400.106 -810 43 47 44
-155.105 -399.006 -808 44 48 45
-153.125 -398.402 -807 45 49 46
-150.963 -397.306 -805 43 49 45
-149.183 -397.199 -805 42 49 45
-147.037 -396.107 -803 45 49 46
-145.083 -395.509 -802 45 49 46
-143.134 -394.913 -801 45 48 45
-141.191 -394.319 -800 48 51 46
-139.254 -393.726 -799 49 50 45
-137.495 -393.628 -799 49 49 45
-135.907 -394.023 -800 47 50 45
-133.813 -392.942 -798 46 49 44
-132.06 -392.848 -798 47 50 45
-130.308 -392.754 -798 47 50 46
-128.396 -392.17 -797 45 48 43
-126.49 -391.588 -796 44 47 42
-125.06 -392.482 -798 45 48 43
-123.467 -392.886 -799 42 45 40
-122.024 -393.782 -801 38 41 36
-120.723 -395.17 -804 41 44 39
-119.262 -396.068 -806 45 48 43
-117.648 -396.476 -807 40 42 37
-116.174 -397.375 -809 42 42 38
-114.693 -398.276 -811 47 47 43
-112.925 -398.195 -811 46 46 42
-111.433 -399.098 -813 48 48 44
-109.933 -400.001 -815 50 48 44
-108.425 -400.905 -817 50 49 45
-107.04 -402.301 -820 49 49 45
-105.515 -403.207 -822 49 49 45
-104.108 -404.604 -825 49 49 45
-102.689 -406.002 -828 48 48 44
