ply
format ascii 1.0
comment Created by Open3D
element vertex 1471
property double x
property double y
property double z
property uchar red
property uchar green
property uchar blue
end_header
-157.759 -61.9161 -1055 46 46 46
-156.059 -62.0797 -1058 44 44 44
-154.495 -62.3021 -1062 42 42 42
-153.058 -62.5832 -1067 37 37 37
-151.602 -62.8643 -1072 31 31 31
-150.267 -63.2043 -1078 25 25 25
-148.634 -63.4269 -1082 22 19 20
-146.851 -63.5911 -1085 18 16 16
-145.057 -63.7553 -1088 15 15 15
-142.858 -63.744 -1088 14 14 14
-140.014 -63.4399 -1083 11 11 11
-136.554 -62.8433 -1073 42 44 46
-133.262 -62.3056 -1064 43 45 47
-130.007 -61.7682 -1055 43 45 45
-127.153 -61.4068 -1049 45 47 47
-124.681 -61.2212 -1046 46 48 48
-122.223 -61.0359 -1043 46 48 46
-119.778 -60.8507 -1040 46 49 47
-117.572 -60.783 -1039 46 49 46
-115.371 -60.7152 -1038 47 49 47
-113.176 -60.6478 -1037 47 50 48
-110.878 -60.522 -1035 47 50 47
-108.694 -60.4549 -1034 45 48 45
-106.515 -60.388 -1033 45 48 45
-104.34 -60.3212 -1032 44 47 44
-102.171 -60.2547 -1031 43 46 43
-100.201 -60.3052 -1032 43 46 43
-98.0372 -60.239 -1031 42 45 42
-96.0645 -60.2898 -1032 42 45 42
-93.9975 -60.2823 -1032 43 46 43
-92.0203 -60.3334 -1033 42 45 42
-90.04 -60.3846 -1034 43 46 43
-88.1413 -60.4944 -1036 44 47 44
-86.0692 -60.4875 -1036 43 46 43
-84.079 -60.5393 -1037 41 44 41
-82.0063 -60.5328 -1037 41 44 41
-80.0884 -60.6431 -1039 42 45 42
-78.0131 -60.637 -1039 42 45 42
-76.0114 -60.6892 -1040 43 46 43
-73.8642 -60.6251 -1039 43 46 43
-71.9288 -60.736 -1041 44 47 44
-69.8518 -60.7305 -1041 44 47 44
-67.7755 -60.725 -1041 44 47 44
-65.7628 -60.7782 -1042 46 49 46
-63.7466 -60.8315 -1043 49 52 49
-61.6086 -60.7682 -1042 49 52 49
-59.4752 -60.7052 -1041 50 51 49
-57.4565 -60.7589 -1042 50 53 50
-55.3811 -60.7545 -1042 51 54 51
-53.255 -60.692 -1041 53 56 53
-51.1825 -60.6879 -1041 53 56 53
-49.1104 -60.6839 -1041 55 58 55
-46.9935 -60.6219 -1040 53 56 53
-44.881 -60.56 -1039 51 54 51
-42.814 -60.5566 -1039 50 53 50
-40.7082 -60.4951 -1038 56 59 56
-38.6438 -60.492 -1038 57 60 57
-36.5798 -60.489 -1038 58 61 58
-34.5161 -60.4862 -1038 57 60 57
-32.4526 -60.4836 -1038 56 59 56
-30.3894 -60.4812 -1038 57 60 57
-28.3265 -60.4789 -1038 58 61 58
-26.2638 -60.4768 -1038 57 60 57
-24.2246 -60.5331 -1039 55 58 55
-22.1603 -60.5313 -1039 53 56 53
-20.1155 -60.5879 -1040 54 57 54
-18.0495 -60.5863 -1040 52 55 52
-15.9837 -60.585 -1040 51 54 51
-13.9181 -60.5838 -1040 52 55 52
-11.8639 -60.6411 -1041 54 57 54
-9.8152 -60.7567 -1043 54 57 54
-7.75127 -60.8143 -1044 54 57 54
-5.68887 -60.9303 -1046 50 53 50
-3.61858 -61.0464 -1048 48 51 48
-1.54183 -61.221 -1051 46 49 46
0.548371 -61.5704 -1057 48 51 48
2.66742 -62.0366 -1065 51 54 51
4.8452 -62.8524 -1079 53 56 53
7.0592 -63.4936 -1090 54 55 52
9.30848 -64.0768 -1100 53 53 51
11.5453 -64.3688 -1105 49 49 45
13.7897 -64.6028 -1109 48 48 44
16.0212 -64.7205 -1111 45 45 41
18.2608 -64.8383 -1113 44 44 42
20.4717 -64.84 -1113 44 44 42
22.744 -65.0164 -1116 44 44 42
25.0059 -65.1348 -1118 43 43 41
27.2273 -65.1368 -1118 42 42 40
29.5015 -65.2556 -1120 41 41 39
31.784 -65.3745 -1122 43 43 41
34.0746 -65.4936 -1124 46 46 44
36.3089 -65.4963 -1124 48 48 46
38.5778 -65.5575 -1125 47 47 45
40.8872 -65.6772 -1127 48 48 46
43.1285 -65.6806 -1127 48 48 46
45.4505 -65.8006 -1129 48 48 46
47.823 -65.979 -1132 55 55 53
50.4291 -66.4491 -1140 66 66 65
-348.416 -67.425 -1082 46 50 49
-343.8 -66.959 -1075 48 52 52
-339.853 -66.6181 -1070 47 51 52
-336.878 -66.4644 -1068 44 48 47
-334.227 -66.3732 -1067 47 51 50
-331.273 -66.2202 -1065 47 51 50
-328.948 -66.1918 -1065 45 49 48
-326.32 -66.1015 -1064 46 50 49
-323.395 -65.9493 -1062 46 50 49
-320.783 -65.8595 -1061 44 48 47
-318.779 -65.8941 -1062 42 46 45
-315.88 -65.7428 -1060 43 47 46
-313.583 -65.7159 -1060 44 48 47
-310.703 -65.5651 -1058 43 47 46
-307.833 -65.4149 -1056 42 46 45
-304.397 -65.1409 -1052 46 50 49
-301.554 -64.9912 -1050 45 49 48
-297.868 -64.6562 -1045 46 50 49
-294.489 -64.3835 -1041 46 50 49
-290.568 -63.9876 -1035 48 52 51
-287.512 -63.7776 -1032 50 54 51
-283.641 -63.3825 -1026 50 54 51
-279.799 -62.9879 -1020 50 53 50
-275.713 -62.5322 -1013 49 52 50
-272.199 -62.2002 -1008 47 50 49
-268.709 -61.8689 -1003 45 49 48
-265.508 -61.5996 -999 46 50 48
-262.59 -61.3923 -996 46 48 46
-260.211 -61.3085 -995 45 48 45
-257.838 -61.2249 -994 46 49 46
-255.471 -61.1417 -993 46 49 46
-253.111 -61.0586 -992 47 50 47
-251.264 -61.0989 -993 48 51 48
-248.912 -61.0163 -992 47 50 47
-247.065 -61.0569 -993 46 49 46
-244.722 -60.9747 -992 47 50 47
-242.63 -60.9541 -992 48 51 47
-240.297 -60.8724 -991 49 52 48
-238.212 -60.8523 -991 48 51 48
-235.89 -60.771 -990 48 51 48
-234.047 -60.8126 -991 48 51 48
-231.733 -60.7317 -990 48 51 48
-229.658 -60.7124 -990 47 49 47
-227.584 -60.6931 -990 45 47 46
-225.513 -60.6742 -990 46 48 48
-223.217 -60.5942 -989 46 48 47
-221.152 -60.5756 -989 46 48 48
-219.531 -60.6797 -991 48 50 50
-217.684 -60.7226 -992 48 50 50
-215.836 -60.7657 -993 48 50 50
-214.2 -60.8701 -995 46 48 48
-212.557 -60.9746 -997 44 46 46
-210.697 -61.0182 -998 42 44 44
-209.044 -61.123 -1000 42 44 44
-207.177 -61.1667 -1001 43 45 45
-205.308 -61.2107 -1002 43 44 44
-203.436 -61.2548 -1003 43 44 44
-201.763 -61.3601 -1005 43 45 45
-199.885 -61.4044 -1006 43 45 45
-198.004 -61.449 -1007 44 46 46
-196.315 -61.5547 -1009 45 48 46
-194.427 -61.5994 -1010 45 48 45
-192.536 -61.6444 -1011 44 48 45
-190.643 -61.6894 -1012 43 46 45
-189.12 -61.8566 -1015 45 47 47
-187.403 -61.9628 -1017 46 48 48
-185.86 -62.1303 -1020 47 49 49
-184.127 -62.2367 -1022 50 50 50
-182.387 -62.3434 -1024 48 49 49
-180.465 -62.3893 -1025 47 49 49
-178.365 -62.3745 -1025 46 48 48
-176.612 -62.4816 -1027 48 50 50
-174.511 -62.4671 -1027 50 52 52
-172.748 -62.5743 -1029 49 50 50
-170.812 -62.621 -1030 47 47 47
-169.202 -62.7895 -1033 45 45 45
-167.418 -62.897 -1035 47 47 47
-165.628 -63.0049 -1037 48 48 48
-164.146 -63.2343 -1041 48 48 46
-162.494 -63.4032 -1044 48 48 46
-160.985 -63.6328 -1048 47 47 45
-159.309 -63.8018 -1051 45 45 44
-157.622 -63.9708 -1054 44 44 44
-155.925 -64.1401 -1057 45 45 45
-154.361 -64.3701 -1061 44 44 44
-153.07 -64.7215 -1067 39 39 39
-151.615 -65.0122 -1072 33 33 33
-150.14 -65.303 -1077 27 27 27
-148.509 -65.5333 -1081 22 19 20
-146.728 -65.7031 -1084 19 16 17
-144.935 -65.873 -1087 16 16 16
-142.607 -65.8007 -1086 15 15 15
-139.766 -65.4861 -1081 13 13 13
-136.438 -64.9297 -1072 43 45 47
-133.147 -64.3736 -1063 44 46 48
-130.017 -63.8785 -1055 48 50 50
-127.284 -63.5652 -1050 49 51 51
-124.572 -63.2523 -1045 48 50 50
-122.233 -63.1211 -1043 47 49 49
-119.788 -62.9298 -1040 46 48 47
-117.468 -62.7991 -1038 46 49 46
-115.27 -62.7291 -1037 49 51 50
-113.076 -62.6594 -1036 50 52 51
-110.886 -62.5897 -1035 48 51 48
-108.702 -62.5203 -1034 45 48 45
-106.626 -62.5115 -1034 43 46 43
-104.45 -62.4425 -1033 42 45 42
-102.179 -62.3132 -1031 44 47 44
-100.209 -62.3654 -1032 43 46 43
-98.045 -62.297 -1031 44 47 44
-95.9791 -62.2891 -1031 45 48 45
-93.914 -62.2814 -1031 43 46 43
-92.1168 -62.455 -1034 43 46 43
-90.0471 -62.4476 -1034 44 47 44
-88.1484 -62.5611 -1036 45 48 45
-86.1592 -62.6144 -1037 44 47 44
-84.0857 -62.6076 -1037 42 45 42
-82.0919 -62.6612 -1038 42 45 42
-80.0177 -62.6546 -1038 43 46 43
-77.9442 -62.6483 -1038 43 46 43
-75.9444 -62.7023 -1039 44 47 44
-73.8701 -62.6962 -1039 44 47 44
-71.8654 -62.7507 -1040 46 49 46
-69.8574 -62.8052 -1041 44 47 44
-67.7809 -62.7997 -1041 44 47 44
-65.768 -62.8546 -1042 47 50 47
-63.7516 -62.9097 -1043 49 52 49
-61.6135 -62.8443 -1042 50 53 50
-59.4799 -62.7791 -1041 49 52 49
-57.461 -62.8347 -1042 49 52 49
-55.3855 -62.8302 -1042 51 54 51
-53.2592 -62.7654 -1041 53 56 53
-51.1866 -62.7612 -1041 55 58 55
-49.0672 -62.6969 -1040 55 58 55
-46.952 -62.6327 -1039 56 59 56
-44.8414 -62.5686 -1038 55 58 55
-42.7762 -62.5651 -1038 53 56 53
-40.6722 -62.5015 -1037 57 60 57
-38.6469 -62.5586 -1038 57 60 57
-36.5827 -62.5556 -1038 56 59 56
-34.5521 -62.6129 -1039 55 58 55
-32.4864 -62.6102 -1039 56 59 56
-30.4211 -62.6076 -1039 58 61 58
-28.3287 -62.545 -1038 57 60 57
-26.2912 -62.6031 -1039 57 60 57
-24.2265 -62.6011 -1039 55 58 55
-22.162 -62.5992 -1039 55 58 55
-20.0977 -62.5975 -1039 54 57 54
-18.051 -62.6562 -1040 53 56 53
-15.985 -62.6549 -1040 53 56 53
-13.9058 -62.5934 -1039 53 56 53
-11.8534 -62.6525 -1040 52 55 52
-9.80656 -62.7723 -1042 53 56 53
-7.74446 -62.8317 -1043 53 56 53
-5.68388 -62.9516 -1045 51 54 51
-3.61886 -63.1321 -1048 49 52 49
-1.54489 -63.433 -1053 47 50 47
0.548937 -63.7341 -1058 49 52 49
2.67515 -64.3367 -1068 55 57 54
4.85008 -65.0599 -1080 57 57 55
7.06624 -65.723 -1091 54 54 52
9.30922 -66.266 -1100 52 52 50
11.5462 -66.568 -1105 48 48 44
13.7783 -66.7498 -1108 46 46 42
16.0225 -66.9317 -1111 43 43 41
18.2622 -67.0536 -1113 44 44 41
20.4918 -67.1154 -1114 44 44 42
22.7662 -67.2979 -1117 44 44 42
25.0079 -67.36 -1118 43 43 41
27.2538 -67.4224 -1119 42 42 40
29.5302 -67.5452 -1121 43 43 41
31.7865 -67.6079 -1122 43 43 41
34.047 -67.6708 -1123 45 45 43
36.3118 -67.734 -1124 46 46 44
38.5809 -67.7973 -1125 48 48 46
40.8905 -67.921 -1127 49 49 47
43.1319 -67.9244 -1127 50 50 48
45.454 -68.0485 -1129 49 49 47
47.8268 -68.2331 -1132 55 55 53
50.4332 -68.7193 -1140 61 62 60
-348.124 -69.589 -1081 49 53 52
-343.51 -69.1076 -1074 50 54 55
-340.2 -68.8842 -1071 46 50 51
-336.907 -68.6611 -1068 46 50 49
-334.57 -68.6311 -1068 45 49 48
-331.613 -68.473 -1066 45 49 48
-328.977 -68.3794 -1065 45 49 48
-326.349 -68.2861 -1064 46 50 49
-323.423 -68.1289 -1062 45 49 48
-320.509 -67.972 -1060 44 48 47
-318.207 -67.9437 -1060 43 47 46
-315.311 -67.7875 -1058 44 48 47
-313.019 -67.7596 -1058 40 44 43
-310.436 -67.668 -1057 38 42 41
-307.569 -67.5127 -1055 42 46 45
-304.134 -67.2298 -1051 43 47 46
-301.293 -67.0752 -1049 44 48 47
-297.894 -66.7931 -1045 46 50 49
-294.515 -66.5113 -1041 46 50 49
-290.594 -66.1023 -1035 49 53 52
-287.537 -65.8853 -1032 49 53 51
-283.666 -65.4772 -1026 49 53 51
-279.549 -65.0058 -1019 50 53 50
-275.737 -64.5987 -1013 49 52 50
-271.952 -64.1921 -1007 47 49 49
-268.464 -63.8498 -1002 45 49 48
-265.531 -63.6353 -999 45 49 48
-262.877 -63.4848 -997 46 48 48
-260.495 -63.3982 -996 46 49 46
-258.119 -63.3119 -995 46 49 46
-255.75 -63.2258 -994 46 49 46
-253.388 -63.1401 -993 48 51 48
-251.032 -63.0545 -992 48 51 48
-248.682 -62.9692 -991 48 51 48
-246.588 -62.9476 -991 48 51 48
-244.249 -62.8627 -990 49 52 49
-242.406 -62.905 -991 49 52 47
-240.075 -62.8206 -990 49 52 47
-237.992 -62.7998 -990 49 52 49
-235.91 -62.7793 -990 48 51 48
-234.067 -62.8223 -991 48 51 48
-231.753 -62.7388 -990 48 51 48
-229.677 -62.7187 -990 48 51 48
-227.603 -62.6989 -990 47 50 47
-225.532 -62.6793 -990 47 50 47
-223.236 -62.5966 -989 47 50 47
-221.17 -62.5774 -989 47 49 49
-219.328 -62.6217 -990 48 50 50
-217.484 -62.6661 -991 47 49 49
-215.854 -62.7738 -993 48 50 50
-214.218 -62.8817 -995 46 48 48
-212.575 -62.9896 -997 44 46 46
-210.926 -63.0977 -999 43 45 45
-209.062 -63.1429 -1000 43 45 45
-207.195 -63.1882 -1001 43 45 45
-205.325 -63.2334 -1002 43 45 45
-203.454 -63.2791 -1003 44 45 45
-201.579 -63.3247 -1004 44 46 46
-199.703 -63.3705 -1005 45 47 47
-198.02 -63.4796 -1007 45 47 47
-196.137 -63.5258 -1008 45 47 47
-194.251 -63.572 -1009 45 47 47
-192.552 -63.6814 -1011 43 47 45
-190.848 -63.791 -1013 43 47 46
-188.95 -63.8378 -1014 47 49 49
-187.234 -63.9475 -1016 47 49 49
-185.694 -64.1204 -1019 46 48 48
-184.143 -64.2934 -1022 48 48 48
-182.224 -64.3406 -1023 48 49 49
-180.48 -64.451 -1025 49 51 51
-178.38 -64.4356 -1025 51 53 53
-176.454 -64.4833 -1026 51 53 53
-174.526 -64.5312 -1027 50 52 52
-172.763 -64.6422 -1029 50 51 51
-170.993 -64.7531 -1031 47 47 47
-169.216 -64.8642 -1033 49 49 49
-167.432 -64.9755 -1035 47 47 47
-165.802 -65.1497 -1038 46 46 46
-164.16 -65.324 -1041 47 47 46
-162.508 -65.4983 -1044 46 46 45
-160.998 -65.7355 -1048 45 45 43
-159.322 -65.91 -1051 43 43 42
-157.635 -66.0848 -1054 44 44 44
-155.938 -66.2595 -1057 46 46 46
-154.374 -66.4971 -1061 45 45 45
-152.94 -66.7974 -1066 39 39 39
-151.486 -67.0978 -1071 35 35 35
-150.013 -67.3983 -1076 28 28 28
-148.384 -67.6362 -1080 22 19 20
-146.74 -67.8743 -1084 20 17 18
-144.814 -67.9871 -1086 17 17 17
-142.487 -67.9123 -1085 15 15 15
-139.649 -67.5875 -1080 15 15 15
-136.322 -67.0126 -1071 44 46 48
-133.158 -66.5008 -1063 45 47 48
-129.905 -65.9267 -1054 47 49 49
-127.295 -65.6657 -1050 49 51 51
-124.582 -65.3424 -1045 48 50 50
-122.243 -65.2069 -1043 47 49 49
-119.682 -64.9466 -1039 46 48 48
-117.365 -64.8118 -1037 46 48 47
-115.168 -64.7394 -1036 48 50 49
-112.976 -64.6673 -1035 47 49 49
-110.789 -64.5955 -1034 48 51 48
-108.606 -64.5237 -1033 46 49 46
-106.532 -64.5147 -1033 44 47 44
-104.357 -64.4434 -1032 46 49 46
-102.188 -64.3722 -1031 45 48 45
-100.12 -64.3638 -1031 44 47 44
-98.0531 -64.3555 -1031 45 48 45
-95.987 -64.3473 -1031 44 47 44
-94.0128 -64.4017 -1032 44 47 44
-92.1244 -64.5187 -1034 41 44 41
-90.1417 -64.5735 -1035 44 47 44
-88.2407 -64.6908 -1037 45 48 45
-86.2494 -64.7458 -1038 44 47 44
-84.2548 -64.8011 -1039 42 45 42
-82.1778 -64.7941 -1039 39 42 39
-80.1014 -64.7873 -1039 42 45 42
-78.0257 -64.7806 -1039 44 47 44
-75.9506 -64.7743 -1039 44 47 44
-73.9473 -64.8303 -1040 45 48 45
-72.0096 -64.9489 -1042 46 49 46
-69.9303 -64.9429 -1042 46 49 46
-67.8516 -64.9372 -1042 46 49 46
-65.8365 -64.9938 -1043 49 52 49
-63.7568 -64.9885 -1043 49 52 49
-61.6186 -64.9209 -1042 50 53 50
-59.4848 -64.8536 -1041 52 55 52
-57.4106 -64.8486 -1041 52 55 52
-55.3369 -64.8439 -1041 51 54 51
-53.2125 -64.7771 -1040 53 56 53
-51.1416 -64.7728 -1040 56 59 56
-49.024 -64.7063 -1039 56 59 56
-46.9559 -64.7023 -1039 58 61 58
-44.845 -64.6362 -1038 57 60 57
-42.8209 -64.6947 -1039 58 61 58
-40.7539 -64.6912 -1039 58 61 58
-38.6873 -64.688 -1039 57 60 57
-36.6209 -64.6848 -1039 56 59 56
-34.5882 -64.7441 -1040 56 59 56
-32.4892 -64.6791 -1039 56 59 56
-30.4236 -64.6765 -1039 57 60 57
-28.3583 -64.6739 -1039 56 59 56
-26.2933 -64.6717 -1039 55 58 55
-24.2052 -64.6073 -1038 56 59 56
-22.1425 -64.6054 -1038 55 58 55
-20.0994 -64.6659 -1039 55 58 55
-18.0351 -64.6643 -1039 52 55 52
-15.9709 -64.6629 -1039 51 54 51
-13.9069 -64.6617 -1039 52 55 52
-11.8544 -64.7228 -1040 52 55 52
-9.79801 -64.7842 -1041 52 55 52
-7.73766 -64.8457 -1042 51 54 51
-5.6789 -64.9696 -1044 49 52 49
-3.61915 -65.2181 -1048 47 50 47
-1.54354 -65.4669 -1052 45 48 45
0.550023 -65.9647 -1060 47 50 47
2.68288 -66.6493 -1071 51 54 51
4.86395 -67.3964 -1083 57 57 55
7.0733 -67.957 -1092 54 54 52
9.31845 -68.5178 -1101 52 52 50
11.5472 -68.7676 -1105 48 48 44
13.7795 -68.9553 -1108 45 45 42
16.0238 -69.1433 -1111 42 42 40
18.2638 -69.2692 -1113 42 42 40
20.4935 -69.333 -1114 43 43 41
22.7476 -69.4593 -1116 44 44 42
25.0099 -69.5858 -1118 43 43 41
27.256 -69.6502 -1119 43 43 41
29.5063 -69.7148 -1120 44 44 42
31.7891 -69.8418 -1122 44 44 42
34.0498 -69.9069 -1123 44 44 42
36.3148 -69.9721 -1124 45 45 43
38.5841 -70.0375 -1125 48 48 46
40.8939 -70.1653 -1127 48 48 46
43.1354 -70.1688 -1127 48 48 47
45.4578 -70.2971 -1129 50 50 49
47.8731 -70.5501 -1133 55 55 53
50.4816 -71.0523 -1141 59 59 58
-343.221 -71.2528 -1073 45 49 50
-339.914 -71.0222 -1070 46 50 51
-336.622 -70.7919 -1067 46 50 49
-334.287 -70.761 -1067 45 49 48
-331.643 -70.6642 -1066 45 49 48
-329.007 -70.5676 -1065 44 48 47
-326.378 -70.4713 -1064 43 47 46
-323.452 -70.309 -1062 44 48 47
-320.538 -70.1472 -1060 43 47 46
-318.235 -70.118 -1060 42 46 45
-315.339 -69.9567 -1058 40 44 43
-312.751 -69.8619 -1057 38 42 41
-309.876 -69.7014 -1055 39 43 42
-307.013 -69.541 -1053 41 45 44
-303.582 -69.2492 -1049 42 46 45
-300.746 -69.0896 -1047 42 46 45
-297.351 -68.7985 -1043 44 48 47
-294.258 -68.5738 -1040 46 50 49
-290.9 -68.2834 -1036 48 52 51
-287.284 -67.9276 -1031 48 52 51
-283.415 -67.5066 -1025 48 52 51
-279.574 -67.086 -1019 48 50 49
-275.761 -66.6659 -1013 48 50 50
-271.976 -66.2463 -1007 48 50 50
-268.756 -65.9587 -1003 46 50 49
-265.82 -65.7373 -1000 46 49 49
-262.9 -65.5162 -997 46 48 48
-260.518 -65.4269 -996 47 49 48
-258.142 -65.3379 -995 47 49 48
-255.516 -65.1833 -993 48 49 47
-253.155 -65.0948 -992 52 54 52
-250.801 -65.0066 -991 52 55 52
-248.704 -64.9841 -991 49 52 49
-246.112 -64.8307 -989 49 52 49
-244.024 -64.8086 -989 50 53 50
-242.183 -64.8524 -990 51 54 49
-240.097 -64.8308 -990 51 54 49
-237.772 -64.7439 -989 50 53 50
-235.931 -64.788 -990 49 52 49
-233.851 -64.767 -990 48 52 49
-231.773 -64.7462 -990 48 51 48
-229.697 -64.7255 -990 48 51 48
-227.623 -64.7051 -990 49 52 49
-225.552 -64.6849 -990 47 50 47
-223.256 -64.5996 -989 46 49 47
-221.19 -64.5798 -989 48 50 50
-219.347 -64.6254 -990 47 49 49
-217.722 -64.7365 -992 45 47 47
-216.09 -64.8476 -994 48 50 50
-214.237 -64.8938 -995 47 49 49
-212.807 -65.0704 -998 46 48 48
-210.945 -65.1167 -999 46 48 48
-209.498 -65.2936 -1002 46 48 48
-207.42 -65.2751 -1002 44 46 46
-205.548 -65.3219 -1003 44 46 46
-203.674 -65.3689 -1004 46 49 48
-201.798 -65.416 -1005 48 50 50
-199.72 -65.3982 -1005 46 48 48
-198.234 -65.5759 -1008 44 46 46
-196.348 -65.6234 -1009 43 45 45
-194.46 -65.6711 -1010 43 45 45
-192.76 -65.784 -1012 43 46 45
-191.053 -65.897 -1014 42 45 44
-189.153 -65.9453 -1015 45 47 47
-187.435 -66.0587 -1017 48 50 50
-185.71 -66.172 -1019 46 48 48
-183.978 -66.2856 -1021 46 47 47
-182.062 -66.3345 -1022 45 46 46
-180.143 -66.3834 -1023 46 48 48
-178.222 -66.4324 -1024 50 52 52
-176.47 -66.5466 -1026 50 52 52
-174.541 -66.596 -1027 49 51 51
-172.777 -66.7105 -1029 48 49 49
-171.007 -66.825 -1031 46 46 46
-169.394 -67.0045 -1034 48 48 48
-167.447 -67.0545 -1035 47 47 47
-165.816 -67.2343 -1038 47 47 47
-164.174 -67.414 -1041 47 47 47
-162.678 -67.6587 -1045 46 46 46
-160.859 -67.774 -1047 44 44 42
-159.184 -67.9543 -1050 43 43 42
-157.35 -68.0698 -1052 46 46 46
-155.656 -68.2501 -1055 45 45 45
-154.097 -68.4954 -1059 46 46 46
-152.666 -68.8054 -1064 42 42 42
-151.216 -69.1153 -1069 39 39 39
-149.747 -69.4254 -1074 32 32 32
-148.259 -69.7356 -1079 23 20 21
-146.482 -69.9167 -1082 21 18 19
-144.56 -70.0332 -1084 17 17 17
-142.237 -69.956 -1083 15 15 15
-139.402 -69.6209 -1078 17 17 17
-136.207 -69.0922 -1070 42 44 46
-133.045 -68.564 -1062 43 45 46
-129.916 -68.0361 -1054 44 46 46
-127.063 -67.6375 -1048 47 49 49
-124.474 -67.3685 -1044 46 48 48
-122.254 -67.2932 -1043 45 47 47
-119.693 -67.0246 -1039 46 48 48
-117.375 -66.8854 -1037 46 48 48
-115.178 -66.8108 -1036 46 48 48
-113.095 -66.8008 -1036 44 46 46
-110.798 -66.6622 -1034 45 48 45
-108.615 -66.5882 -1033 46 49 46
-106.541 -66.5789 -1033 45 48 45
-104.366 -66.5052 -1032 45 48 45
-102.197 -66.4319 -1031 44 47 44
-100.226 -66.4876 -1032 43 46 43
-98.0615 -66.4145 -1031 44 47 44
-96.0883 -66.4705 -1032 44 47 44
-94.0208 -66.4622 -1032 44 47 44
-92.1323 -66.583 -1034 43 46 43
-90.0623 -66.5751 -1034 45 48 45
-88.1631 -66.6961 -1036 45 48 45
-86.1737 -66.7529 -1037 43 46 43
-84.0998 -66.7457 -1037 43 46 43
-82.0265 -66.7385 -1037 41 44 41
-80.0311 -66.7958 -1038 43 46 43
-77.9572 -66.7889 -1038 43 46 43
-75.9571 -66.8467 -1039 45 48 45
-73.9535 -66.9045 -1040 45 48 45
-72.0157 -67.0268 -1042 47 50 47
-69.9362 -67.0207 -1042 47 50 47
-67.9224 -67.0791 -1043 48 51 48
-65.8421 -67.0733 -1043 49 52 49
-63.7623 -67.0677 -1043 50 53 50
-61.6238 -66.998 -1042 50 53 50
-59.547 -66.9928 -1042 50 53 50
-57.4155 -66.9234 -1041 51 54 51
-55.3416 -66.9186 -1041 51 54 51
-53.217 -66.8496 -1040 53 56 53
-51.0968 -66.7808 -1039 56 59 56
-49.0281 -66.7766 -1039 57 60 57
-46.9599 -66.7723 -1039 56 59 56
-44.8921 -66.7684 -1039 56 59 56
-42.8658 -66.8289 -1040 57 60 57
-40.7967 -66.8253 -1040 57 60 57
-38.7278 -66.8219 -1040 59 62 59
-36.6593 -66.8186 -1040 60 63 60
-34.6243 -66.8798 -1041 58 61 58
-32.5232 -66.8127 -1040 56 59 56
-30.4848 -66.8742 -1041 55 58 55
-28.388 -66.8074 -1040 53 56 53
-26.2955 -66.7409 -1039 53 56 53
-24.2072 -66.6745 -1038 54 57 54
-22.1444 -66.6725 -1038 54 57 54
-20.0817 -66.6706 -1038 54 57 54
-18.0192 -66.6689 -1038 52 55 52
-15.9723 -66.7317 -1039 53 56 53
-13.9081 -66.7305 -1039 53 56 53
-11.8554 -66.7936 -1040 53 56 53
-9.80824 -66.9211 -1042 52 55 52
-7.74573 -66.9846 -1043 51 54 51
-5.68482 -67.1124 -1045 50 53 50
-3.61945 -67.3047 -1048 48 51 48
-1.54513 -67.6256 -1053 47 50 47
0.550591 -68.1393 -1061 49 52 49
2.68812 -68.9102 -1073 52 55 52
4.86437 -69.5527 -1083 57 57 55
7.08685 -70.2597 -1094 54 54 52
9.31078 -70.6457 -1100 51 51 49
11.5377 -70.9035 -1104 47 47 45
13.7806 -71.1615 -1108 44 44 42
16.0251 -71.3554 -1111 43 43 41
18.2654 -71.4854 -1113 42 42 40
20.5136 -71.6155 -1115 43 43 41
22.77 -71.7458 -1117 45 45 43
25.0121 -71.8121 -1118 44 44 42
27.234 -71.8144 -1118 43 43 41
29.4824 -71.8811 -1119 44 44 42
31.7634 -72.0122 -1121 45 45 43
34.0224 -72.0793 -1122 44 44 42
36.318 -72.2108 -1124 46 46 44
38.6216 -72.3425 -1126 48 48 46
40.9336 -72.4745 -1128 47 47 45
43.139 -72.4139 -1127 47 47 46
45.4617 -72.5462 -1129 51 51 50
47.7926 -72.6787 -1131 53 53 52
50.3531 -73.1327 -1138 60 60 59
-347.866 -73.9752 -1080 48 52 51
-343.253 -73.4629 -1073 44 48 48
-339.945 -73.2252 -1070 45 49 50
-336.653 -72.9878 -1067 45 49 46
-334.318 -72.9559 -1067 45 49 47
-331.674 -72.856 -1066 43 47 46
-329.347 -72.8247 -1066 41 45 44
-326.102 -72.5888 -1063 40 44 43
-323.482 -72.4899 -1062 42 46 45
-320.87 -72.3912 -1061 42 46 45
-318.265 -72.2928 -1060 41 45 44
-315.369 -72.1266 -1058 40 44 43
-313.076 -72.0969 -1058 39 43 42
-310.199 -71.9312 -1056 40 44 43
-307.041 -71.698 -1053 41 45 44
-303.9 -71.465 -1050 41 45 44
-301.061 -71.3005 -1048 41 45 44
-297.663 -71.0003 -1044 43 47 46
-294.568 -70.7686 -1041 47 51 50
-290.927 -70.4013 -1036 48 52 51
-287.31 -70.0345 -1031 50 54 53
-283.441 -69.6003 -1025 49 53 52
-279.874 -69.2346 -1020 47 49 49
-276.059 -68.8014 -1014 47 49 49
-272.542 -68.4366 -1009 47 49 49
-269.316 -68.1401 -1005 47 51 50
-266.11 -67.8439 -1001 46 49 49
-263.188 -67.616 -998 47 49 49
-260.542 -67.4562 -996 47 49 49
-258.166 -67.3642 -995 49 50 50
-255.539 -67.2051 -993 51 51 49
-253.178 -67.1137 -992 53 55 52
-250.571 -66.9551 -990 53 56 53
-248.476 -66.932 -990 50 53 50
-245.886 -66.7738 -988 50 53 50
-243.8 -66.7511 -988 51 54 51
-241.716 -66.7286 -988 52 55 51
-240.119 -66.8415 -990 52 55 51
-237.794 -66.7518 -989 52 55 52
-235.952 -66.7974 -990 50 54 51
-234.109 -66.8433 -991 51 55 52
-232.028 -66.8217 -991 51 54 51
-229.95 -66.8004 -991 49 52 49
-227.874 -66.7793 -991 50 53 50
-225.8 -66.7584 -991 49 52 49
-223.728 -66.7378 -991 47 50 48
-221.434 -66.65 -990 48 50 50
-219.367 -66.6297 -990 49 51 51
-217.742 -66.7443 -992 48 50 50
-215.892 -66.7915 -993 48 50 50
-214.041 -66.8391 -994 48 50 50
-212.4 -66.9541 -996 49 51 51
-210.753 -67.069 -998 50 52 52
-209.099 -67.1842 -1000 48 50 50
-207.024 -67.1652 -1000 45 47 47
-205.362 -67.2806 -1002 44 47 46
-203.49 -67.3291 -1003 45 49 48
-201.615 -67.3777 -1004 46 48 48
-199.738 -67.4265 -1005 46 48 48
-198.252 -67.6096 -1008 44 46 46
-196.171 -67.5915 -1008 43 45 45
-194.477 -67.7079 -1010 43 45 45
-192.777 -67.8242 -1012 44 46 46
-191.07 -67.9407 -1014 43 45 45
-189.17 -67.9905 -1015 43 45 45
-187.451 -68.1073 -1017 46 48 48
-185.726 -68.2242 -1019 45 47 47
-183.995 -68.3413 -1021 44 45 45
-181.9 -68.3247 -1021 42 44 44
-180.159 -68.442 -1023 43 45 45
-178.238 -68.4928 -1024 47 49 49
-176.313 -68.5435 -1025 48 50 50
-174.387 -68.5945 -1026 47 49 49
-172.793 -68.7793 -1029 47 48 48
-171.023 -68.8974 -1031 47 47 47
-169.409 -69.0825 -1034 48 48 48
-167.623 -69.2008 -1036 47 47 47
-165.99 -69.3861 -1039 46 46 46
-164.347 -69.5714 -1042 45 45 45
-162.536 -69.6902 -1044 44 44 44
-160.719 -69.8091 -1046 43 43 42
-159.047 -69.9949 -1049 44 44 43
-157.364 -70.1807 -1052 46 46 46
-155.67 -70.3667 -1055 46 46 46
-153.965 -70.5529 -1058 46 46 46
-152.679 -70.9391 -1064 45 45 45
-151.229 -71.2587 -1069 43 43 43
-149.621 -71.5118 -1073 38 38 38
-148.272 -71.8983 -1079 27 25 25
-146.495 -72.0849 -1082 24 22 23
-144.439 -72.1384 -1083 18 18 18
-142.118 -72.0589 -1082 14 14 14
-139.285 -71.7132 -1077 17 17 17
-135.837 -71.0352 -1067 40 42 44
-132.806 -70.557 -1060 39 41 43
-129.927 -70.1459 -1054 44 46 46
-127.074 -69.7351 -1048 45 47 47
-124.604 -69.5243 -1045 45 47 47
-122.264 -69.3802 -1043 45 47 47
-119.703 -69.1032 -1039 46 48 48
-117.385 -68.9596 -1037 45 47 47
-115.188 -68.8827 -1036 46 48 48
-113.105 -68.8724 -1036 45 47 47
-110.808 -68.7295 -1034 45 48 45
-108.73 -68.7197 -1034 46 49 46
-106.55 -68.6435 -1033 45 48 45
-104.376 -68.5677 -1032 44 47 44
-102.205 -68.4919 -1031 42 45 42
-100.137 -68.4829 -1031 43 46 43
-98.1653 -68.5405 -1032 44 47 44
-96.0968 -68.5318 -1032 44 47 44
-94.1202 -68.5898 -1033 44 47 44
-92.1404 -68.6477 -1034 44 47 44
-90.0702 -68.6396 -1034 45 48 45
-88.1709 -68.7645 -1036 43 46 43
-86.1812 -68.8231 -1037 41 44 41
-84.1072 -68.8155 -1037 43 46 43
-82.0338 -68.8081 -1037 42 45 42
-80.0381 -68.8672 -1038 43 46 43
-77.9641 -68.8601 -1038 43 46 43
-75.9637 -68.9196 -1039 43 46 43
-73.96 -68.9793 -1040 43 46 43
-72.022 -69.1054 -1042 45 48 45
-69.9424 -69.0991 -1042 48 51 48
-67.9284 -69.1592 -1043 49 52 49
-65.7847 -69.087 -1042 50 53 50
-63.7679 -69.1475 -1043 51 54 51
-61.6292 -69.0757 -1042 51 54 51
-59.4951 -69.0039 -1041 50 53 50
-57.3654 -68.9325 -1040 49 52 49
-55.2401 -68.8612 -1039 51 54 51
-53.1193 -68.7901 -1038 52 55 52
-51.0029 -68.7193 -1037 54 57 54
-48.9852 -68.781 -1038 56 59 56
-46.9188 -68.7768 -1038 54 58 55
-44.896 -68.839 -1039 57 61 58
-42.8283 -68.8351 -1039 58 61 58
-40.8002 -68.8975 -1040 57 60 57
-38.7312 -68.894 -1040 60 63 60
-36.6625 -68.8907 -1040 62 65 62
-34.5941 -68.8876 -1040 59 62 59
-32.4947 -68.8184 -1039 59 62 59
-30.4289 -68.8155 -1039 57 60 57
-28.336 -68.7467 -1038 56 59 56
-26.2725 -68.7443 -1038 55 58 55
-24.186 -68.6758 -1037 56 59 56
-22.125 -68.6738 -1037 56 59 56
-20.0835 -68.7381 -1038 54 57 54
-18.0382 -68.8027 -1039 52 55 52
-15.989 -68.8674 -1040 54 57 54
-13.9227 -68.866 -1040 54 57 54
-11.8792 -68.9972 -1042 52 55 52
-9.81851 -69.0625 -1043 52 55 52
-7.7464 -69.0617 -1043 50 53 50
-5.68531 -69.1936 -1045 49 52 49
-3.61976 -69.3918 -1048 48 51 48
-1.54527 -69.7227 -1053 46 49 46
0.551162 -70.3185 -1062 50 53 50
2.68836 -71.047 -1073 54 56 54
4.87378 -71.8419 -1085 55 56 54
7.081 -72.3722 -1093 52 53 51
9.30312 -72.7702 -1099 51 51 49
11.5387 -73.1022 -1104 47 47 45
13.7818 -73.3683 -1108 45 45 43
16.0122 -73.5021 -1110 44 44 42
18.267 -73.7022 -1113 43 43 41
20.5154 -73.8364 -1115 43 43 41
22.7923 -74.037 -1118 43 43 41
25.0142 -74.0391 -1118 43 43 41
27.2607 -74.1076 -1119 44 44 42
29.5113 -74.1763 -1120 44 44 42
31.7662 -74.2453 -1121 44 44 42
33.9951 -74.2483 -1121 46 46 44
36.2888 -74.3839 -1123 48 48 46
38.5907 -74.5197 -1125 50 50 48
40.8646 -74.5895 -1126 51 51 49
43.1045 -74.5932 -1126 51 51 50
45.3852 -74.6633 -1127 50 50 50
47.7545 -74.8663 -1130 52 52 51
50.3132 -75.3344 -1137 56 57 55
-347.578 -76.1306 -1079 49 53 52
-343.287 -75.6736 -1073 42 45 46
-339.66 -75.3582 -1069 44 46 48
-336.37 -75.1137 -1066 42 46 43
-334.35 -75.1514 -1067 43 47 45
-331.706 -75.0484 -1066 42 46 45
-329.069 -74.9458 -1065 40 44 43
-326.133 -74.7732 -1063 40 44 43
-323.513 -74.6712 -1062 41 45 44
-320.9 -74.5696 -1061 40 44 43
-318.595 -74.5384 -1061 42 46 45
-315.697 -74.3671 -1059 41 45 44
-313.402 -74.3367 -1059 40 44 43
-310.522 -74.1661 -1057 41 45 44
-306.779 -73.7853 -1052 42 46 45
-303.639 -73.5454 -1049 43 47 46
-300.515 -73.3059 -1046 43 47 46
-297.121 -72.9968 -1042 45 48 47
-294.03 -72.7581 -1039 47 51 50
-290.674 -72.4498 -1035 49 53 53
-287.059 -72.072 -1030 51 55 54
-283.468 -71.6947 -1025 50 54 53
-279.9 -71.3179 -1020 49 51 51
-275.813 -70.8018 -1013 48 50 50
-272.838 -70.5658 -1010 47 49 49
-269.61 -70.2603 -1006 45 49 48
-266.136 -69.8854 -1001 45 49 48
-263.476 -69.7205 -999 45 47 47
-260.566 -69.486 -996 47 49 49
-257.931 -69.3216 -994 49 51 51
-255.306 -69.1575 -992 51 51 51
-253.202 -69.1332 -992 51 53 51
-250.595 -68.9698 -990 52 55 52
-248.5 -68.9459 -990 51 54 51
-245.909 -68.7831 -988 50 53 50
-244.069 -68.8293 -989 51 54 51
-241.738 -68.7366 -988 54 57 52
-239.899 -68.7832 -989 55 58 53
-237.576 -68.6909 -988 54 57 54
-235.736 -68.7379 -989 51 55 52
-233.658 -68.7156 -989 51 55 52
-231.582 -68.6935 -989 51 54 51
-229.74 -68.7409 -990 48 51 48
-227.665 -68.7193 -990 47 50 47
-225.821 -68.7672 -991 49 52 49
-223.748 -68.7458 -991 48 51 48
-221.678 -68.7247 -991 48 50 50
-219.609 -68.7039 -991 49 51 51
-217.762 -68.7525 -992 50 52 52
-216.13 -68.8706 -994 49 51 51
-214.276 -68.9195 -995 49 51 51
-212.633 -69.0378 -997 51 53 53
-210.983 -69.1563 -999 51 53 53
-209.118 -69.2057 -1000 48 50 50
-207.044 -69.1861 -1000 46 48 48
-205.381 -69.305 -1002 45 48 47
-203.508 -69.3549 -1003 43 47 46
-201.634 -69.405 -1004 46 48 48
-199.757 -69.4552 -1005 45 47 47
-198.074 -69.5747 -1007 43 45 45
-196.189 -69.6253 -1008 42 44 44
-194.303 -69.676 -1009 43 45 45
-192.604 -69.7959 -1011 43 45 45
-190.899 -69.9159 -1013 43 45 45
-189.187 -70.0361 -1015 41 43 43
-187.469 -70.1564 -1017 43 45 45
-185.744 -70.277 -1019 46 48 48
-183.831 -70.3286 -1020 44 46 46
-182.095 -70.4494 -1022 43 45 45
-180.176 -70.5014 -1023 42 44 44
-178.428 -70.6224 -1025 45 47 47
-176.502 -70.6747 -1026 45 47 47
-174.743 -70.7961 -1028 46 48 48
-172.977 -70.9176 -1030 46 47 47
-171.204 -71.0391 -1032 47 47 47
-169.425 -71.1609 -1034 47 47 47
-167.477 -71.214 -1035 45 45 46
-166.006 -71.4738 -1039 44 44 45
-164.046 -71.5271 -1040 42 42 42
-162.396 -71.7183 -1043 41 41 41
-160.58 -71.8408 -1045 42 42 42
-158.91 -72.0321 -1048 44 44 44
-157.229 -72.2235 -1051 44 44 44
-155.536 -72.4153 -1054 44 44 44
-153.979 -72.6756 -1058 46 46 46
-152.55 -73.0048 -1063 46 46 46
-151.102 -73.3341 -1068 45 45 45
-149.635 -73.6633 -1073 40 40 40
-148.149 -73.9928 -1078 31 29 29
-146.373 -74.185 -1081 28 25 26
-144.452 -74.3088 -1083 21 21 21
-142 -74.1583 -1081 16 16 16
-139.039 -73.7337 -1075 17 17 17
-135.722 -73.1038 -1066 37 39 41
-132.567 -72.5428 -1058 39 41 43
-129.816 -72.1879 -1053 45 47 47
-126.965 -71.7648 -1047 45 47 47
-124.496 -71.5474 -1044 46 48 48
-122.275 -71.4675 -1043 47 49 49
-119.829 -71.2508 -1040 47 49 49
-117.396 -71.0343 -1037 46 48 48
-115.198 -70.9551 -1036 46 48 48
-113.115 -70.9445 -1036 45 47 47
-110.818 -70.7972 -1034 46 49 46
-108.635 -70.7187 -1033 47 50 47
-106.56 -70.7087 -1033 46 49 46
-104.385 -70.6307 -1032 45 48 45
-102.215 -70.5526 -1031 44 47 44
-100.146 -70.5434 -1031 44 47 44
-98.1741 -70.6027 -1032 43 46 43
-96.1055 -70.5937 -1032 44 47 44
-94.1287 -70.6533 -1033 45 48 45
-92.2379 -70.7816 -1035 46 49 46
-90.1654 -70.7732 -1035 44 47 44
-88.1789 -70.8334 -1036 42 45 42
-86.1059 -70.8253 -1036 40 43 40
-84.0337 -70.8175 -1036 41 44 41
-81.9621 -70.8099 -1036 40 43 40
-79.9683 -70.8708 -1037 42 45 42
-77.896 -70.8635 -1037 41 44 41
-75.9706 -70.9932 -1039 42 45 42
-73.9667 -71.0546 -1040 42 45 42
-72.0285 -71.1845 -1042 45 48 45
-69.9487 -71.178 -1042 48 51 48
-67.9345 -71.24 -1043 49 52 49
-65.7907 -71.1656 -1042 48 51 48
-63.7125 -71.1596 -1042 50 53 50
-61.5757 -71.0855 -1041 49 52 49
-59.4432 -71.0117 -1040 48 51 48
-57.3154 -70.9382 -1039 47 50 47
-55.2451 -70.9329 -1039 51 54 51
-53.0729 -70.7915 -1037 53 56 53
-51.0075 -70.7866 -1037 54 57 54
-48.9425 -70.7821 -1037 56 59 56
-46.8779 -70.7778 -1037 56 60 57
-44.9001 -70.91 -1039 57 61 58
-42.8322 -70.906 -1039 59 62 59
-40.7647 -70.9022 -1039 58 61 58
-38.6975 -70.8986 -1039 60 63 60
-36.6306 -70.8951 -1039 61 64 61
-34.564 -70.8918 -1039 58 61 58
-32.4664 -70.8205 -1038 56 59 56
-30.4316 -70.8859 -1039 56 59 56
-28.3385 -70.815 -1038 55 58 55
-26.2496 -70.7443 -1037 55 58 55
-24.1882 -70.7419 -1037 55 58 55
-22.1483 -70.808 -1038 53 56 53
-20.0853 -70.8061 -1038 53 56 53
-18.0572 -70.9408 -1040 52 55 52
-15.9905 -70.9393 -1040 54 57 54
-13.9373 -71.0061 -1041 54 57 54
-11.8803 -71.0731 -1042 52 55 52
-9.81938 -71.1404 -1043 52 55 52
-7.75452 -71.2078 -1044 49 52 49
-5.69125 -71.3436 -1046 48 49 47
-3.62354 -71.5478 -1049 49 50 48
-1.5498 -72.025 -1056 47 48 46
0.552253 -72.5706 -1064 50 51 49
2.69612 -73.3892 -1076 54 56 53
4.8832 -74.1398 -1087 53 55 53
7.09459 -74.686 -1095 52 52 50
9.31243 -75.0278 -1100 50 50 48
11.5398 -75.3016 -1104 48 48 46
13.7832 -75.5756 -1108 46 46 44
15.9992 -75.6451 -1109 45 45 43
18.2522 -75.8513 -1112 42 42 40
20.5172 -76.0577 -1115 43 43 41
22.774 -76.1961 -1117 42 42 40
24.9941 -76.1983 -1117 43 43 41
27.2875 -76.4054 -1120 43 43 41
29.5403 -76.4763 -1121 43 43 41
31.7692 -76.4791 -1121 45 45 43
34.0285 -76.5503 -1122 47 47 45
36.2921 -76.6217 -1123 48 48 46
38.5599 -76.6934 -1124 49 49 47
40.832 -76.7654 -1125 52 52 50
43.0702 -76.7692 -1125 51 51 50
45.3489 -76.8414 -1126 50 50 50
47.7166 -77.0504 -1129 54 54 52
50.1851 -77.3962 -1134 56 56 55
-347.29 -78.2828 -1078 49 53 52
-343.321 -77.8849 -1073 43 46 46
-340.012 -77.6328 -1070 46 48 50
-336.404 -77.3087 -1066 44 48 45
-334.383 -77.3475 -1067 44 48 46
-331.427 -77.169 -1065 41 45 44
-328.793 -77.0634 -1064 40 44 43
-325.858 -76.8857 -1062 42 46 45
-323.24 -76.7808 -1061 41 45 44
-320.63 -76.6763 -1060 40 44 43
-318.327 -76.6442 -1060 42 46 45
-315.728 -76.5403 -1059 42 46 45
-313.137 -76.4366 -1058 41 45 44
-310.259 -76.2611 -1056 42 46 45
-306.809 -75.9414 -1052 43 47 46
-303.669 -75.6945 -1049 45 49 48
-300.544 -75.448 -1046 44 48 47
-297.436 -75.2019 -1043 48 50 50
-294.342 -74.9562 -1040 48 51 51
-291.264 -74.7109 -1037 49 53 54
-287.644 -74.322 -1032 50 54 53
-283.219 -73.7176 -1024 50 53 52
-279.653 -73.3298 -1019 49 51 51
-276.112 -72.9426 -1014 47 49 49
-272.864 -72.6278 -1010 46 48 49
-269.636 -72.3133 -1006 44 48 47
-266.427 -71.9993 -1002 44 48 47
-263.502 -71.7577 -999 45 47 47
-260.592 -71.5164 -996 47 49 49
-257.956 -71.3471 -994 48 50 50
-255.588 -71.2501 -993 51 51 51
-253.227 -71.1533 -992 51 53 51
-250.872 -71.0567 -991 51 54 51
-248.524 -70.9606 -990 50 53 50
-246.182 -70.8645 -989 49 52 49
-244.093 -70.8405 -989 49 51 50
-242.006 -70.8166 -989 53 55 51
-240.164 -70.8646 -990 56 59 54
-237.599 -70.698 -988 55 58 55
-235.759 -70.7463 -989 50 53 50
-233.681 -70.7234 -989 47 51 48
-231.604 -70.7005 -989 48 51 48
-229.53 -70.6781 -989 48 51 48
-227.687 -70.7272 -990 48 51 48
-225.843 -70.7765 -991 50 53 50
-223.77 -70.7546 -991 49 52 49
-221.923 -70.8042 -992 47 49 48
-219.63 -70.7113 -991 48 50 50
-218.002 -70.8327 -993 49 51 51
-215.933 -70.8115 -993 50 52 52
-214.297 -70.9333 -995 49 51 51
-212.44 -70.9837 -996 50 52 52
-210.792 -71.1057 -998 51 53 53
-208.929 -71.1565 -999 49 51 51
-206.856 -71.1364 -999 48 50 50
-205.195 -71.2588 -1001 47 50 49
-203.528 -71.3813 -1003 44 48 47
-201.653 -71.4328 -1004 45 47 47
-199.776 -71.4846 -1005 46 48 48
-198.093 -71.6075 -1007 45 47 47
-196.208 -71.6596 -1008 43 46 45
-194.321 -71.7118 -1009 42 45 44
-192.623 -71.8351 -1011 43 45 45
-190.917 -71.9588 -1013 43 45 45
-189.205 -72.0824 -1015 42 44 44
-187.302 -72.1353 -1016 43 45 45
-185.761 -72.3302 -1019 46 48 48
-183.849 -72.3835 -1020 45 47 47
-182.112 -72.5077 -1022 43 45 45
-180.193 -72.5612 -1023 43 45 45
-178.445 -72.6858 -1025 45 47 47
-176.518 -72.7397 -1026 46 48 48
-174.589 -72.7936 -1027 46 48 48
-172.825 -72.9188 -1029 46 47 47
-171.054 -73.0439 -1031 47 47 47
-169.441 -73.2401 -1034 45 45 45
-167.655 -73.3655 -1036 43 43 44
-166.021 -73.562 -1039 43 43 45
-164.22 -73.6877 -1041 42 42 42
-162.411 -73.8137 -1043 39 39 39
-160.595 -73.9397 -1045 40 40 40
-158.773 -74.0659 -1047 43 43 43
-157.094 -74.263 -1050 43 43 43
-155.551 -74.5309 -1054 43 43 43
-153.993 -74.7989 -1058 46 46 46
-152.421 -75.067 -1062 47 47 47
-150.833 -75.3353 -1066 47 47 47
-149.37 -75.6742 -1071 43 43 43
-147.888 -76.0134 -1076 34 31 32
-146.116 -76.2113 -1079 28 26 27
-144.199 -76.3387 -1081 23 23 23
-141.75 -76.1837 -1079 17 17 17
-138.793 -75.7467 -1073 17 17 17
-135.48 -75.0984 -1064 38 40 42
-132.454 -74.5916 -1057 44 46 47
-129.581 -74.1558 -1051 45 47 47
-126.734 -73.7203 -1045 45 47 47
-124.389 -73.5673 -1043 46 48 48
-122.052 -73.4145 -1041 47 49 49
-119.61 -73.1914 -1038 47 49 49
-117.294 -73.0391 -1036 47 49 49
-115.209 -73.0281 -1036 46 48 48
-113.016 -72.9468 -1035 45 47 47
-110.721 -72.7953 -1033 46 49 46
-108.645 -72.7848 -1033 48 51 48
-106.467 -72.7041 -1032 46 49 46
-104.294 -72.6236 -1031 46 49 46
-102.224 -72.6139 -1031 45 48 45
-100.156 -72.6044 -1031 45 48 45
-98.1833 -72.6653 -1032 43 46 43
-96.2076 -72.7265 -1033 45 48 45
-94.2287 -72.788 -1034 46 49 46
-92.2464 -72.8494 -1035 46 49 46
-90.1738 -72.8408 -1035 43 46 43
-88.1871 -72.9027 -1036 41 44 41
-86.114 -72.8945 -1036 39 42 39
-84.0415 -72.8865 -1036 38 41 38
-81.9698 -72.8786 -1036 37 40 37
-79.9758 -72.9413 -1037 41 44 41
-77.9033 -72.9338 -1037 42 45 42
-75.9046 -72.9969 -1038 44 47 44
-73.9736 -73.1305 -1040 44 47 44
-72.0352 -73.2642 -1042 45 48 45
-70.0223 -73.3278 -1043 47 50 47
-67.9409 -73.3213 -1043 48 51 48
-65.8599 -73.3149 -1043 47 50 47
-63.7796 -73.3089 -1043 47 50 47
-61.5814 -73.1623 -1041 47 50 47
-59.4488 -73.0864 -1040 49 52 49
-57.3207 -73.0105 -1039 48 51 48
-55.1971 -72.935 -1038 50 53 50
-53.0779 -72.8596 -1037 54 57 54
-51.0122 -72.8547 -1037 56 59 56
-48.947 -72.8501 -1037 55 59 56
-46.8822 -72.8455 -1037 56 60 57
-44.9042 -72.9817 -1039 58 62 59
-42.8362 -72.9776 -1039 60 63 60
-40.7684 -72.9735 -1039 60 63 60
-38.6638 -72.8996 -1038 59 62 59
-36.634 -72.9663 -1039 57 60 57
-34.5672 -72.963 -1039 56 59 56
-32.4694 -72.8896 -1038 56 59 56
-30.3759 -72.8164 -1037 56 59 56
-28.3138 -72.8136 -1037 55 58 55
-26.252 -72.811 -1037 55 58 55
-24.1905 -72.8087 -1037 53 56 53
-22.1503 -72.8767 -1038 51 54 51
-20.0872 -72.8748 -1038 51 54 51
-18.0415 -72.9432 -1039 51 54 51
-15.9919 -73.0117 -1040 53 56 53
-13.9386 -73.0805 -1041 53 56 53
-11.8814 -73.1495 -1042 52 55 52
-9.8297 -73.2889 -1044 51 54 51
-7.76266 -73.3583 -1045 47 50 47
-5.69722 -73.498 -1047 48 48 46
-3.62732 -73.7082 -1050 49 49 47
-1.55141 -74.1993 -1057 48 48 46
0.553346 -74.8311 -1066 50 50 48
2.69888 -75.6034 -1077 55 55 53
4.88815 -76.376 -1088 52 53 51
7.09525 -76.8679 -1095 51 51 49
9.31329 -77.2197 -1100 49 49 47
11.5408 -77.5015 -1104 47 47 45
13.772 -77.7133 -1107 47 47 45
15.9863 -77.785 -1108 45 45 45
18.2375 -77.9972 -1111 42 42 40
20.4823 -78.1394 -1113 42 42 40
22.7149 -78.2117 -1114 42 42 40
24.974 -78.3543 -1116 43 43 41
27.2413 -78.4972 -1118 43 43 41
29.5169 -78.6403 -1120 43 43 41
31.7438 -78.6432 -1120 45 45 43
34.0316 -78.7867 -1122 47 47 45
36.2954 -78.8603 -1123 48 48 46
38.5634 -78.934 -1124 48 48 45
40.7996 -78.9378 -1124 50 50 48
43.0742 -79.0119 -1125 50 50 49
45.3531 -79.0864 -1126 52 52 52
47.7634 -79.3717 -1130 56 56 54
50.234 -79.7275 -1135 55 56 54
-347.004 -80.4315 -1077 48 52 51
-343.036 -80.0224 -1072 43 47 47
-339.411 -79.6885 -1068 44 46 48
-336.122 -79.4297 -1065 43 47 44
-333.79 -79.395 -1065 44 48 46
-331.15 -79.2862 -1064 41 45 44
-328.517 -79.1776 -1063 41 45 44
-325.585 -78.9949 -1061 43 47 46
-322.969 -78.8871 -1060 42 46 45
-320.662 -78.8539 -1060 41 45 44
-318.359 -78.821 -1060 41 45 44
-315.462 -78.6398 -1058 42 46 45
-313.169 -78.6074 -1058 41 45 44
-310.29 -78.4269 -1056 42 46 45
-306.84 -78.0982 -1052 44 48 47
-303.7 -77.8442 -1049 44 48 47
-300.575 -77.5907 -1046 45 49 48
-297.465 -77.3376 -1043 47 49 49
-294.089 -77.0108 -1039 47 50 50
-291.013 -76.7586 -1036 48 52 53
-287.116 -76.2846 -1030 48 52 52
-283.247 -75.8112 -1024 49 53 52
-279.681 -75.4124 -1019 50 50 50
-276.14 -75.0141 -1014 46 47 48
-272.892 -74.6904 -1010 45 47 49
-269.395 -74.293 -1005 44 48 47
-266.454 -74.0441 -1002 44 47 46
-263.265 -73.7217 -998 46 48 48
-260.618 -73.5473 -996 47 49 49
-257.722 -73.2995 -993 46 48 48
-255.614 -73.2735 -993 50 50 50
-253.507 -73.2478 -993 50 52 51
-251.15 -73.1484 -992 50 53 50
-248.8 -73.0495 -991 51 54 51
-246.455 -72.9507 -990 49 52 50
-244.364 -72.9259 -990 47 49 49
-242.03 -72.8276 -989 48 51 47
-240.188 -72.8769 -990 53 56 51
-237.622 -72.7057 -988 53 56 53
-235.544 -72.6818 -988 49 52 49
-233.467 -72.6582 -988 46 50 47
-231.393 -72.6349 -988 48 51 48
-229.32 -72.6116 -988 49 52 49
-227.48 -72.6622 -989 49 52 49
-225.865 -72.7864 -991 49 52 49
-223.792 -72.7638 -991 48 51 48
-221.945 -72.8148 -992 45 48 45
-219.874 -72.7927 -992 46 49 47
-218.024 -72.8441 -993 48 50 50
-215.954 -72.8224 -993 49 51 51
-214.102 -72.8742 -994 50 52 52
-212.461 -72.9994 -996 51 53 53
-210.813 -73.1249 -998 50 52 52
-208.95 -73.1772 -999 48 50 50
-207.084 -73.2297 -1000 48 50 50
-205.421 -73.3555 -1002 49 51 51
-203.548 -73.4084 -1003 48 50 50
-201.874 -73.5344 -1005 47 49 49
-199.994 -73.5877 -1006 48 50 50
-198.309 -73.7141 -1008 47 49 49
-196.227 -73.6944 -1008 45 48 47
-194.533 -73.8212 -1010 44 47 46
-192.641 -73.875 -1011 44 48 47
-190.936 -74.0021 -1013 43 46 45
-189.224 -74.1294 -1015 42 45 44
-187.32 -74.1836 -1016 42 45 44
-185.597 -74.3112 -1018 45 47 47
-183.867 -74.4388 -1020 46 48 49
-182.13 -74.5667 -1022 44 46 46
-180.211 -74.6217 -1023 44 46 46
-178.637 -74.8227 -1026 45 47 47
-176.708 -74.8781 -1027 47 49 49
-174.946 -75.0065 -1029 47 49 49
-173.01 -75.0622 -1030 46 47 47
-171.071 -75.118 -1031 46 46 46
-169.293 -75.247 -1033 44 44 44
-167.671 -75.4489 -1036 42 42 42
-165.878 -75.5781 -1038 41 41 43
-164.078 -75.7074 -1040 40 40 41
-162.271 -75.8369 -1042 38 38 38
-160.304 -75.8937 -1043 38 38 38
-158.485 -76.0236 -1045 40 40 40
-156.81 -76.2263 -1048 43 43 43
-155.419 -76.5745 -1053 43 43 43
-153.863 -76.8501 -1057 45 45 45
-152.292 -77.126 -1061 44 44 44
-150.706 -77.4018 -1065 45 45 45
-149.105 -77.6777 -1069 45 45 45
-147.49 -77.9539 -1073 38 35 36
-145.723 -78.1573 -1076 29 27 28
-143.946 -78.361 -1079 24 24 24
-141.633 -78.2744 -1078 19 19 19
-138.677 -77.825 -1072 20 20 20
-135.493 -77.2308 -1064 40 42 44
-132.467 -76.7096 -1057 44 46 47
-129.471 -76.1888 -1050 45 47 47
-126.625 -75.741 -1044 45 47 47
-124.281 -75.5837 -1042 45 47 47
-121.947 -75.4265 -1040 46 48 48
-119.506 -75.1972 -1037 46 48 48
-117.305 -75.1131 -1036 46 48 48
-115.22 -75.1018 -1036 46 48 48
-112.918 -74.9457 -1034 44 46 46
-110.839 -74.9347 -1034 45 48 45
-108.761 -74.924 -1034 46 49 46
-106.477 -74.7685 -1032 45 48 45
-104.405 -74.7583 -1032 45 48 45
-102.234 -74.6758 -1031 44 47 44
-100.165 -74.6658 -1031 46 49 46
-98.1928 -74.7286 -1032 47 50 47
-96.2169 -74.7916 -1033 46 49 46
-94.3288 -74.927 -1035 43 46 43
-92.3444 -74.9904 -1036 43 46 43
-90.2697 -74.9815 -1036 41 44 41
-88.2807 -75.0452 -1037 42 45 42
-86.2054 -75.0367 -1037 40 43 40
-84.0496 -74.9561 -1036 39 42 39
-81.9776 -74.948 -1036 39 42 39
-79.9834 -75.0124 -1037 42 45 42
-77.9859 -75.0771 -1038 43 46 43
-75.9118 -75.0696 -1038 44 47 44
-73.9807 -75.2069 -1040 46 49 46
-71.973 -75.2721 -1041 47 50 47
-69.8947 -75.2652 -1041 48 51 48
-67.8822 -75.3309 -1042 48 51 48
-65.7399 -75.252 -1041 47 50 47
-63.6633 -75.2458 -1041 46 49 46
-61.5281 -75.1674 -1040 47 50 47
-59.3973 -75.0894 -1039 50 53 50
-57.3262 -75.0836 -1039 49 52 49
-55.2555 -75.0782 -1039 49 52 49
-53.0829 -74.9284 -1037 53 56 53
-51.0171 -74.9234 -1037 58 62 59
-48.9989 -74.9908 -1038 55 59 56
-46.8867 -74.9139 -1037 56 60 57
-44.8653 -74.9817 -1038 57 61 58
-42.799 -74.9774 -1038 59 62 59
-40.7724 -75.0456 -1039 59 63 60
-38.6302 -74.8973 -1037 57 60 57
-36.6022 -74.9659 -1038 55 58 55
-34.5039 -74.8902 -1037 57 60 57
-32.4412 -74.8869 -1037 57 60 57
-30.3787 -74.8839 -1037 56 59 56
-28.2892 -74.8089 -1036 56 59 56
-26.2292 -74.8063 -1036 56 59 56
-24.1927 -74.8761 -1037 53 56 53
-22.1525 -74.9459 -1038 51 54 51
-20.0891 -74.9439 -1038 52 55 52
-18.0432 -75.0143 -1039 52 55 52
-15.9935 -75.0848 -1040 51 54 51
-13.9399 -75.1556 -1041 50 53 50
-11.8825 -75.2265 -1042 50 53 50
-9.83063 -75.3699 -1044 50 53 50
-7.76339 -75.4412 -1045 48 51 48
-5.69775 -75.585 -1047 48 49 47
-3.63112 -75.8733 -1051 48 50 48
-1.55155 -76.3062 -1057 48 49 47
0.553922 -77.0281 -1067 52 52 50
2.70415 -77.8945 -1079 56 56 54
4.89311 -78.6168 -1089 52 52 50
7.10241 -79.1227 -1096 49 49 47
9.32264 -79.4845 -1101 47 47 45
11.5421 -79.7021 -1104 47 47 45
13.7733 -79.9199 -1107 48 48 46
15.9878 -79.9935 -1108 46 46 46
18.2228 -80.1396 -1110 42 42 41
20.4659 -80.2858 -1112 44 44 42
22.7375 -80.5045 -1115 43 43 41
24.9764 -80.579 -1116 43 43 41
27.244 -80.7261 -1118 43 43 41
29.4933 -80.801 -1119 44 44 42
31.7752 -80.9484 -1121 45 45 43
34.0349 -81.0238 -1122 46 46 44
36.2988 -81.0994 -1123 46 46 43
38.5672 -81.1753 -1124 47 47 43
40.8397 -81.2514 -1125 48 48 46
43.1166 -81.3276 -1126 49 49 48
45.3977 -81.4041 -1127 52 52 52
47.7679 -81.6254 -1130 56 56 54
50.2388 -81.9913 -1135 57 57 56
-346.718 -82.5767 -1076 47 51 50
-342.752 -82.1563 -1071 44 47 47
-339.447 -81.89 -1068 44 46 47
-336.158 -81.624 -1065 43 48 46
-333.512 -81.5117 -1064 43 47 46
-330.873 -81.3999 -1063 43 47 46
-328.242 -81.2883 -1062 42 47 46
-325.312 -81.1007 -1060 43 47 46
-323.002 -81.0663 -1060 42 46 45
-320.393 -80.9558 -1059 42 46 45
-318.092 -80.922 -1059 43 47 46
-315.495 -80.8121 -1058 42 46 45
-313.201 -80.7789 -1058 41 45 44
-310.617 -80.6697 -1057 41 45 44
-307.456 -80.4082 -1054 43 47 46
-304.31 -80.1472 -1051 44 48 47
-301.468 -79.9628 -1049 46 50 49
-297.782 -79.5502 -1044 44 47 47
-294.685 -79.2905 -1041 46 49 48
-291.043 -78.8789 -1036 48 52 52
-287.146 -78.3918 -1030 48 52 52
-283.277 -77.9055 -1024 47 51 50
-279.71 -77.4955 -1019 49 50 50
-275.896 -77.0103 -1013 46 48 48
-272.92 -76.7535 -1010 44 46 47
-269.423 -76.3453 -1005 44 46 46
-266.216 -76.0134 -1001 46 48 48
-263.028 -75.6821 -997 47 50 49
-260.383 -75.503 -995 47 49 49
-257.748 -75.3243 -993 46 48 48
-255.64 -75.2976 -993 48 50 50
-253.533 -75.271 -993 50 52 51
-251.176 -75.169 -992 51 53 52
-249.076 -75.143 -992 50 53 50
-246.48 -74.9657 -990 49 52 49
-244.142 -74.8646 -989 49 51 49
-242.055 -74.8393 -989 49 52 49
-240.213 -74.89 -990 51 54 50
-237.887 -74.7896 -989 50 53 50
-235.806 -74.7651 -989 49 52 49
-233.727 -74.7407 -989 48 51 48
-231.651 -74.7167 -989 47 50 46
-229.576 -74.6928 -989 48 51 48
-227.503 -74.6693 -989 48 51 48
-225.888 -74.7969 -991 47 50 47
-223.815 -74.7737 -991 44 47 44
-221.744 -74.7506 -991 46 49 46
-219.674 -74.7279 -991 48 50 49
-217.827 -74.7808 -992 48 50 50
-215.976 -74.8339 -993 46 48 49
-214.124 -74.8871 -994 49 51 52
-212.482 -75.0158 -996 48 50 50
-210.623 -75.0694 -997 48 50 50
-208.762 -75.1232 -998 50 52 52
-206.691 -75.1019 -998 49 51 51
-205.031 -75.2312 -1000 49 51 51
-203.366 -75.3608 -1002 49 51 51
-201.693 -75.4904 -1004 47 49 48
-200.014 -75.6202 -1006 46 48 47
-198.329 -75.7501 -1008 46 48 47
-196.247 -75.7299 -1008 46 49 48
-194.36 -75.7852 -1009 46 49 48
-192.47 -75.8404 -1010 48 51 50
-190.767 -75.971 -1012 44 47 46
-188.87 -76.0268 -1013 43 46 45
-187.155 -76.1577 -1015 44 47 47
-185.433 -76.2888 -1017 46 48 48
-183.885 -76.4949 -1020 46 48 49
-182.148 -76.6262 -1022 46 48 48
-180.229 -76.6828 -1023 46 48 48
-178.655 -76.8894 -1026 47 49 49
-176.553 -76.8713 -1026 47 50 49
-174.794 -77.0032 -1028 46 48 48
-172.859 -77.0606 -1029 46 47 47
-171.088 -77.1928 -1031 45 46 46
-169.31 -77.3253 -1033 42 43 42
-167.688 -77.5327 -1036 40 41 41
-165.894 -77.6654 -1038 39 40 41
-164.094 -77.7983 -1040 39 39 40
-162.287 -77.9314 -1042 38 39 38
-160.473 -78.0646 -1044 38 38 38
-158.653 -78.1981 -1046 38 38 37
-156.975 -78.4063 -1049 40 40 40
-155.582 -78.7642 -1054 40 40 40
-154.024 -79.0474 -1058 42 42 42
-152.307 -79.2561 -1061 40 40 40
-150.721 -79.5395 -1065 42 42 42
-148.981 -79.7484 -1068 42 42 42
-147.367 -80.0322 -1072 41 39 39
-145.602 -80.2413 -1075 32 29 30
-143.827 -80.4507 -1078 26 26 26
-141.515 -80.3616 -1077 21 21 21
-138.691 -79.9744 -1072 22 22 22
-135.379 -79.2892 -1063 40 42 44
-132.23 -78.6792 -1055 39 41 43
-129.36 -78.2186 -1049 42 44 44
-126.516 -77.7583 -1043 45 47 47
-124.055 -77.5222 -1040 46 48 48
-121.842 -77.4352 -1039 47 49 49
-119.403 -77.1996 -1036 45 47 47
-117.204 -77.1132 -1035 45 47 47
-115.232 -77.1759 -1036 47 49 49
-113.038 -77.09 -1035 45 47 47
-110.85 -77.0043 -1034 44 46 44
-108.772 -76.9932 -1034 45 47 45
-106.591 -76.908 -1033 44 47 45
-104.516 -76.8975 -1033 44 47 44
-102.343 -76.8126 -1032 45 47 45
-100.273 -76.8025 -1032 46 48 45
-98.2976 -76.867 -1033 46 49 46
-96.3195 -76.9315 -1034 44 47 44
-94.4293 -77.0708 -1036 42 45 42
-92.4427 -77.1359 -1037 42 45 42
-90.2786 -77.0523 -1036 42 45 42
