ply
format ascii 1.0
comment Created by Open3D
element vertex 1424
property double x
property double y
property double z
property uchar red
property uchar green
property uchar blue
end_header
-57.1452 429.863 -1061 245 243 194
-55.0244 430.641 -1063 248 246 196
-53.0446 432.636 -1068 246 244 194
-50.9492 433.822 -1071 248 246 197
-48.7962 434.603 -1073 251 249 198
-46.6787 435.791 -1076 251 249 198
-44.549 436.98 -1079 250 248 199
-42.2895 436.955 -1079 242 239 189
-40.0304 436.932 -1079 238 235 183
-37.8067 437.314 -1080 240 237 184
-35.5463 437.293 -1080 240 237 184
-33.3169 437.679 -1081 242 239 186
-31.0837 438.065 -1082 239 237 177
-28.8466 438.453 -1083 236 234 174
-26.5809 438.437 -1083 233 231 171
-24.3155 438.422 -1083 227 225 166
-22.0503 438.409 -1083 229 227 168
-19.7854 438.397 -1083 238 236 179
-17.5206 438.387 -1083 250 247 196
-15.2419 437.973 -1082 255 253 204
-12.9915 438.369 -1083 247 245 199
-10.7568 439.577 -1086 244 242 197
-8.51743 441.19 -1090 248 246 203
-6.27294 443.615 -1096 251 248 207
-4.00698 446.445 -1103 254 251 210
-1.715 450.086 -1112 253 250 209
0.620765 458.181 -1132 243 241 202
3.08503 473.158 -1169 234 234 202
-285.836 467.601 -1138 212 217 195
-276.834 456.754 -1112 205 210 184
-271.157 451.254 -1099 194 197 161
-267.253 448.632 -1093 191 194 158
-263.377 446.014 -1087 198 201 166
-260.251 444.629 -1084 201 202 163
-257.379 443.657 -1082 216 216 183
-255.225 443.917 -1083 249 249 217
-252.835 443.768 -1083 252 251 226
-250.91 444.439 -1085 254 253 222
-248.75 444.703 -1086 254 253 218
-246.588 444.967 -1087 254 251 210
-244.199 444.823 -1087 253 251 207
-241.812 444.681 -1087 253 251 205
-238.987 443.723 -1085 252 252 206
-236.391 443.175 -1084 252 252 207
-233.154 441.403 -1080 250 250 206
-229.937 439.633 -1076 248 248 204
-226.316 437.049 -1070 239 238 196
-222.724 434.468 -1064 233 230 191
-219.574 432.706 -1060 238 238 196
-216.649 431.354 -1057 247 247 207
-213.941 430.413 -1055 253 252 218
-211.445 429.881 -1054 255 253 218
-208.955 429.351 -1053 255 253 218
-206.276 428.415 -1051 255 253 219
-203.8 427.889 -1050 251 250 213
-201.14 426.956 -1048 245 245 207
-198.11 425.211 -1044 239 239 199
-195.474 424.282 -1042 237 238 195
-192.849 423.355 -1040 236 238 193
-190.418 422.837 -1039 242 242 200
-187.812 421.914 -1037 249 247 208
-185.753 422.213 -1038 253 250 213
-183.514 422.106 -1038 254 252 215
-181.103 421.594 -1037 255 252 216
-178.697 421.083 -1036 255 252 217
-176.298 420.574 -1035 253 250 213
-173.904 420.067 -1034 244 241 202
-171.35 419.155 -1032 237 235 189
-169.134 419.057 -1032 239 236 197
-166.92 418.96 -1032 249 246 209
-164.707 418.864 -1032 249 246 210
-162.496 418.77 -1032 247 244 209
-160.131 418.271 -1031 252 249 214
-157.924 418.18 -1031 254 251 217
-155.569 417.684 -1030 254 251 218
-153.367 417.595 -1030 254 251 219
-151.168 417.507 -1030 254 251 217
-149.259 418.232 -1032 254 251 215
-146.915 417.741 -1031 254 251 212
-144.857 418.063 -1032 253 250 211
-142.658 417.98 -1032 252 249 210
-140.597 418.304 -1033 250 247 208
-138.131 417.414 -1031 247 244 204
-135.806 416.93 -1030 248 245 204
-133.747 417.258 -1031 249 247 201
-131.556 417.182 -1031 248 246 201
-129.242 416.702 -1030 248 246 202
-127.302 417.438 -1032 247 245 199
-125.113 417.366 -1032 246 244 197
-122.806 416.89 -1031 247 245 197
-120.856 417.629 -1033 246 244 198
-118.668 417.561 -1033 245 243 198
-116.481 417.493 -1033 245 243 199
-114.296 417.427 -1033 243 241 192
-112.22 417.767 -1034 241 239 190
-110.034 417.703 -1034 241 239 191
-108.058 418.449 -1036 242 240 192
-106.074 419.195 -1038 242 240 192
-103.883 419.135 -1038 243 241 197
-101.692 419.077 -1038 237 235 190
-99.5989 419.423 -1039 241 239 193
-97.3144 418.963 -1038 252 250 203
-95.1268 418.908 -1038 234 232 185
-93.0295 419.258 -1039 244 242 194
-90.8414 419.206 -1039 250 247 206
-88.7394 419.558 -1040 248 246 203
-86.634 419.911 -1041 249 247 201
-84.4441 419.863 -1041 252 249 207
-82.4129 420.622 -1043 253 250 209
-80.2202 420.575 -1043 253 250 209
-78.1779 421.337 -1045 252 249 209
-75.9825 421.293 -1045 250 247 208
-73.8583 421.653 -1046 249 246 207
-71.7305 422.015 -1047 245 243 199
-69.5993 422.378 -1048 242 240 192
-67.4644 422.742 -1049 242 240 191
-65.4504 423.913 -1052 241 239 190
-63.4244 425.085 -1055 240 238 189
-61.3863 426.258 -1058 239 237 188
-59.3363 427.433 -1061 241 239 190
-57.2203 428.205 -1063 246 244 195
-55.0965 428.979 -1065 249 247 196
-53.0143 430.157 -1068 249 247 197
-50.8726 430.933 -1070 250 248 199
-48.723 431.71 -1072 251 249 199
-46.6521 433.293 -1076 251 249 198
-44.4824 434.073 -1078 250 248 200
-42.2655 434.451 -1079 240 238 188
-40.0447 434.83 -1080 235 232 181
-37.8202 435.211 -1081 237 234 181
-35.526 434.787 -1080 236 233 180
-33.2979 435.17 -1081 237 234 181
-31.0373 435.152 -1081 237 235 175
-28.8035 435.538 -1082 238 236 176
-26.5412 435.522 -1082 236 234 174
-24.3017 435.91 -1083 233 231 172
-22.0379 435.897 -1083 241 238 181
-19.7559 435.483 -1082 250 247 192
-17.5106 435.875 -1083 254 252 202
-15.2473 435.865 -1083 248 245 196
-12.996 436.26 -1084 239 237 189
-10.7605 437.46 -1087 242 240 195
-8.52039 439.065 -1091 248 246 202
-6.26938 441.073 -1096 251 249 206
-4.00479 443.887 -1103 253 250 208
-1.71546 447.91 -1113 255 251 210
0.619343 454.751 -1130 249 246 207
-287.676 468.169 -1146 211 215 194
-276.92 454.525 -1113 207 210 186
-271.492 449.465 -1101 195 198 163
-267.341 446.45 -1094 184 187 152
-263.95 444.663 -1090 195 198 162
-260.339 442.47 -1085 197 198 157
-257.466 441.504 -1083 198 199 160
-254.605 440.539 -1081 215 215 177
-251.987 439.984 -1080 240 240 207
-249.839 440.245 -1081 252 251 217
-247.918 440.915 -1083 254 252 217
-245.764 441.178 -1084 255 252 211
-243.607 441.443 -1085 255 252 209
-241.227 441.302 -1085 254 252 208
-238.628 440.756 -1084 253 253 207
-236.036 440.212 -1083 252 252 207
-232.803 438.45 -1079 249 249 205
-229.59 436.691 -1075 248 248 206
-226.185 434.528 -1070 240 239 198
-222.804 432.367 -1065 230 227 188
-219.861 431.022 -1062 231 231 189
-216.523 428.866 -1057 243 243 203
-213.615 427.525 -1054 252 251 217
-210.922 426.591 -1052 255 252 217
-208.438 426.064 -1051 255 252 217
-205.764 425.134 -1049 255 253 219
-203.101 424.206 -1047 254 253 217
-200.64 423.684 -1046 250 250 213
-197.806 422.354 -1043 242 242 202
-195.361 421.836 -1042 238 240 196
-192.738 420.915 -1040 241 243 198
-190.125 419.995 -1038 245 245 203
-187.703 419.482 -1037 249 247 208
-185.288 418.97 -1036 254 251 214
-183.232 419.269 -1037 254 251 213
-180.998 419.164 -1037 255 252 215
-178.767 419.061 -1037 255 253 217
-176.366 418.554 -1036 254 251 214
-173.804 417.646 -1034 245 242 202
-171.417 417.143 -1033 237 235 189
-168.873 416.238 -1031 239 236 197
-166.662 416.142 -1031 247 244 206
-164.612 416.451 -1032 249 246 209
-162.403 416.357 -1032 247 244 209
-159.884 415.458 -1030 249 246 211
-157.681 415.367 -1030 252 249 217
-155.329 414.874 -1029 254 251 219
-153.131 414.786 -1029 254 251 219
-150.788 414.296 -1028 254 251 217
-148.884 415.016 -1030 254 251 215
-146.831 415.335 -1031 254 251 214
-144.634 415.252 -1031 253 250 211
-142.439 415.17 -1031 252 249 210
-140.381 415.492 -1032 251 248 207
-138.052 415.01 -1031 249 246 204
-135.86 414.932 -1031 248 246 202
-133.67 414.855 -1031 247 245 201
-131.609 415.182 -1032 247 245 200
-129.419 415.107 -1032 246 244 200
-127.23 415.034 -1032 245 243 195
-125.042 414.962 -1032 243 241 193
-122.736 414.49 -1031 244 242 193
-120.787 415.224 -1033 243 241 195
-118.6 415.156 -1033 240 238 193
-116.415 415.09 -1033 239 237 193
-114.231 415.024 -1033 239 237 189
-112.264 415.763 -1035 239 237 188
-110.078 415.7 -1035 236 234 186
-107.996 416.04 -1036 234 233 186
-105.912 416.381 -1037 237 236 189
-103.824 416.723 -1038 243 241 196
-101.635 416.664 -1038 237 235 189
-99.4465 416.607 -1038 233 231 184
-97.2592 416.551 -1038 252 250 203
-95.0727 416.497 -1038 239 237 190
-92.9766 416.845 -1039 242 240 193
-90.7898 416.793 -1039 247 244 203
-88.689 417.143 -1040 245 242 200
-86.5848 417.495 -1041 249 247 201
-84.4772 417.847 -1042 253 250 208
-82.2872 417.8 -1042 254 251 210
-80.2516 418.556 -1044 253 250 209
-78.0588 418.511 -1044 252 249 209
-75.8667 418.467 -1044 249 246 207
-73.6752 418.425 -1044 246 243 204
-71.553 418.785 -1045 243 240 196
-69.4934 419.546 -1047 241 239 191
-67.4262 420.309 -1049 240 238 189
-65.4755 421.874 -1053 240 238 189
-63.4485 423.04 -1056 239 237 188
-61.4096 424.206 -1059 240 238 188
-59.3586 425.374 -1062 242 240 191
-57.2417 426.142 -1064 247 245 196
-55.117 426.911 -1066 250 248 197
-53.034 428.082 -1069 251 249 198
-50.8914 428.853 -1071 250 248 199
-48.7863 430.026 -1074 251 249 199
-46.6257 430.8 -1076 253 251 200
-44.4985 431.976 -1079 251 249 201
-42.2807 432.352 -1080 243 241 191
-40.0221 432.328 -1080 238 235 184
-37.7988 432.707 -1081 237 234 181
-35.5059 432.286 -1080 235 232 179
-33.3099 433.067 -1082 235 232 179
-31.0485 433.049 -1082 236 234 174
-28.8138 433.432 -1083 239 237 177
-26.5508 433.416 -1083 241 239 179
-24.3104 433.802 -1084 243 241 183
-22.0457 433.789 -1084 251 249 192
-19.7813 433.778 -1084 255 252 197
-17.5007 433.367 -1083 250 247 197
-15.2387 433.358 -1083 234 231 182
-13.0007 434.15 -1085 229 228 180
-10.7545 434.944 -1087 240 239 192
-8.51563 436.539 -1091 249 247 202
-6.27156 438.935 -1097 251 249 205
-3.99885 440.933 -1102 253 250 207
-1.7099 444.132 -1110 253 249 208
0.618328 451.734 -1129 252 249 210
3.04714 462.539 -1156 240 239 207
-287.007 464.642 -1144 209 213 192
-277.753 453.514 -1117 205 209 184
-271.58 447.265 -1102 196 199 166
-267.918 445.079 -1097 187 190 155
-264.038 442.491 -1091 190 192 155
-260.427 440.311 -1086 201 202 162
-257.079 438.539 -1082 192 193 150
-253.986 437.176 -1079 183 184 142
-251.142 436.219 -1077 197 197 155
-248.77 436.074 -1077 233 234 195
-246.402 435.931 -1077 250 251 212
-244.715 437.003 -1080 254 254 212
-242.793 437.671 -1082 252 251 208
-240.642 437.936 -1083 253 251 208
-238.05 437.394 -1082 252 251 206
-235.463 436.853 -1081 252 252 208
-232.453 435.506 -1078 249 251 206
-229.03 433.353 -1073 250 250 208
-225.843 431.607 -1069 243 241 201
-222.466 429.46 -1064 231 228 189
-219.527 428.122 -1061 229 229 187
-216.194 425.979 -1056 240 239 201
-213.492 425.049 -1054 250 249 215
-210.8 424.121 -1052 255 254 219
-208.318 423.597 -1051 255 253 218
-205.645 422.673 -1049 255 254 220
-202.984 421.75 -1047 255 254 219
-200.524 421.231 -1046 252 251 215
-197.692 419.909 -1043 243 243 203
-195.249 419.394 -1042 239 241 198
-192.442 418.076 -1039 243 245 201
-190.016 417.564 -1038 247 248 205
-187.415 416.652 -1036 247 246 207
-185.003 416.143 -1035 234 233 195
-182.597 415.636 -1034 224 223 186
-180.546 415.934 -1035 239 239 203
-178.147 415.43 -1034 252 252 217
-175.925 415.329 -1034 253 252 216
-173.536 414.828 -1033 246 245 207
-171.154 414.328 -1032 235 235 193
-168.613 413.428 -1030 236 236 198
-166.406 413.333 -1030 243 243 206
-164.359 413.64 -1031 244 244 208
-162.153 413.547 -1031 236 235 202
-159.637 412.653 -1029 230 229 198
-157.591 412.964 -1030 230 229 201
-155.24 412.474 -1029 230 230 201
-153.044 412.387 -1029 231 230 201
-150.702 411.9 -1028 232 231 202
-148.799 412.616 -1030 233 233 202
-146.605 412.532 -1030 234 233 202
-144.411 412.449 -1030 235 234 201
-142.22 412.368 -1030 236 235 201
-140.029 412.288 -1030 238 239 201
-137.84 412.209 -1030 239 239 202
-135.52 411.732 -1029 239 240 203
-133.594 412.456 -1031 245 245 208
-131.534 412.781 -1032 241 242 204
-129.345 412.707 -1032 240 241 203
-127.158 412.634 -1032 241 241 196
-124.971 412.563 -1032 240 240 196
-122.786 412.493 -1032 239 239 195
-120.602 412.424 -1032 241 242 198
-118.418 412.357 -1032 238 239 195
-116.349 412.69 -1033 236 237 192
-114.166 412.625 -1033 236 235 186
-112.092 412.96 -1034 236 234 186
-110.015 413.297 -1035 231 230 182
-107.935 413.635 -1036 229 230 182
-105.852 413.974 -1037 230 231 183
-103.665 413.915 -1037 239 238 190
-101.479 413.857 -1037 236 235 189
-99.2945 413.8 -1037 222 221 176
-97.2042 414.144 -1038 248 247 204
-94.9275 413.691 -1037 248 247 204
-92.9241 414.436 -1039 245 244 201
-90.6512 413.985 -1038 238 237 197
-88.639 414.732 -1040 243 242 200
-86.536 415.082 -1041 248 247 202
-84.4295 415.432 -1042 253 251 209
-82.2407 415.385 -1042 254 252 210
-80.2063 416.137 -1044 252 250 209
-78.0148 416.092 -1044 250 248 208
-75.8239 416.049 -1044 248 245 206
-73.7043 416.406 -1045 245 242 203
-71.5126 416.365 -1045 241 239 195
-69.5207 417.52 -1048 238 236 188
-67.3883 417.88 -1049 238 236 187
-65.3765 419.038 -1052 239 237 189
-63.4128 420.595 -1056 239 237 189
-61.433 422.153 -1060 240 238 187
-59.3251 422.916 -1062 244 242 192
-57.2095 423.679 -1064 248 246 197
-55.086 424.444 -1066 251 249 198
-52.9546 425.21 -1068 253 251 200
-50.8627 426.376 -1071 253 251 202
-48.7588 427.542 -1074 253 251 201
-46.6428 428.709 -1077 254 252 201
-44.5146 429.878 -1080 252 251 203
-42.296 430.252 -1081 246 245 195
-40.0366 430.229 -1081 242 240 189
-37.8125 430.605 -1082 241 238 185
-35.5517 430.584 -1082 239 236 184
-33.322 430.963 -1083 237 234 182
-31.0883 431.343 -1084 237 235 175
-28.8243 431.326 -1084 240 238 178
-26.5604 431.31 -1084 246 244 184
-24.2968 431.296 -1084 253 251 193
-22.0537 431.681 -1085 255 254 196
-19.7884 431.669 -1085 250 247 192
-17.4909 430.863 -1083 234 231 179
-15.2442 431.252 -1084 226 223 173
-13.0054 432.04 -1086 230 231 182
-10.7485 432.431 -1087 241 240 193
-8.5187 434.415 -1092 244 242 196
-6.26232 436.002 -1096 248 246 202
-3.99668 438.386 -1102 251 249 205
-1.70743 441.169 -1109 253 249 206
0.615816 447.534 -1125 252 249 210
3.07171 463.845 -1166 242 241 209
-287.342 462.745 -1146 209 213 192
-277.344 450.47 -1116 205 209 185
-271.915 445.468 -1104 198 201 171
-267.763 442.488 -1097 194 197 159
-264.127 440.319 -1092 188 191 153
-260.756 438.555 -1088 197 198 160
-257.168 436.39 -1083 196 198 153
-253.839 434.631 -1079 177 179 133
-250.997 433.681 -1077 169 170 121
-247.935 432.329 -1074 178 179 134
-245.574 432.187 -1074 202 203 159
-243.668 432.852 -1076 234 234 191
-241.532 433.114 -1077 251 250 208
-239.616 433.781 -1079 254 253 211
-237.253 433.644 -1079 253 252 209
-234.893 433.508 -1079 253 254 208
-231.888 432.17 -1076 248 250 203
-229.112 431.234 -1074 251 251 208
-225.713 429.097 -1069 246 245 204
-222.339 426.962 -1064 232 231 191
-219.194 425.231 -1060 230 230 186
-216.07 423.502 -1056 234 233 194
-213.167 422.177 -1053 249 247 210
-210.479 421.254 -1051 255 252 215
-207.802 420.333 -1049 254 252 216
-205.332 419.815 -1048 254 252 216
-202.868 419.298 -1047 254 252 217
-200.41 418.783 -1046 253 252 217
-197.769 417.868 -1044 244 245 207
-195.325 417.357 -1043 240 244 201
-192.518 416.046 -1040 243 246 203
-189.908 415.137 -1038 246 248 203
-187.127 413.83 -1035 247 248 208
-184.54 412.925 -1033 161 162 124
-181.963 412.022 -1031 91 96 65
-179.92 412.319 -1032 107 112 81
-177.529 411.818 -1031 155 160 129
-175.145 411.318 -1030 201 204 173
-172.934 411.22 -1030 203 206 175
-170.725 411.122 -1030 190 193 160
-168.19 410.228 -1028 160 163 129
-166.15 410.533 -1029 132 135 102
-164.107 410.838 -1030 109 114 84
-161.903 410.746 -1030 96 98 72
-159.392 409.858 -1028 85 87 62
-157.349 410.167 -1029 83 87 66
-155.001 409.68 -1028 80 82 60
-152.66 409.195 -1027 80 83 59
-150.617 409.507 -1028 84 87 65
-148.571 409.821 -1029 86 89 68
-146.379 409.738 -1029 91 95 73
-144.05 409.258 -1028 101 103 81
-141.863 409.177 -1028 106 109 84
-139.678 409.098 -1028 112 117 87
-137.494 409.02 -1028 116 120 94
-135.312 408.943 -1028 120 124 99
-133.389 409.663 -1030 133 138 112
-131.332 409.986 -1031 145 150 122
-129.147 409.913 -1031 156 161 132
-127.086 410.239 -1032 169 172 138
-124.901 410.168 -1032 171 176 141
-122.717 410.098 -1032 172 178 142
-120.534 410.03 -1032 175 181 143
-118.352 409.963 -1032 170 176 136
-116.171 409.897 -1032 164 171 127
-113.991 409.832 -1032 166 167 120
-111.921 410.166 -1033 167 168 121
-109.741 410.104 -1033 164 165 117
-107.666 410.44 -1034 166 167 119
-105.69 411.174 -1036 170 171 121
-103.407 410.718 -1035 175 176 124
-101.227 410.661 -1035 180 183 140
-99.143 411.002 -1036 179 183 144
-96.9625 410.947 -1036 207 207 175
-94.6912 410.497 -1035 216 216 184
-92.6933 411.237 -1037 220 220 188
-90.5131 411.186 -1037 219 222 187
-88.5041 411.929 -1039 234 236 197
-86.4044 412.276 -1040 243 245 200
-84.3822 413.021 -1042 251 252 210
-82.1946 412.975 -1042 251 252 210
-80.0846 413.326 -1043 250 251 209
-77.9711 413.678 -1044 249 249 208
-75.854 414.031 -1045 243 243 203
-73.663 413.989 -1045 239 239 199
-71.6094 414.741 -1047 237 237 194
-69.548 415.494 -1049 233 234 189
-67.4147 415.852 -1050 236 236 187
-65.402 417.003 -1053 238 238 188
-63.3173 417.759 -1055 238 238 188
-61.2827 418.912 -1058 239 240 189
-59.2361 420.066 -1061 245 244 194
-57.1237 420.826 -1063 247 245 197
-55.0035 421.586 -1065 252 250 201
-52.9249 422.743 -1068 251 249 200
-50.7868 423.506 -1070 252 250 202
-48.6862 424.666 -1073 253 251 200
-46.6168 426.222 -1077 253 251 200
-44.4486 426.988 -1079 250 250 201
-42.2333 427.36 -1080 248 247 197
-40.0513 428.128 -1082 246 244 193
-37.8264 428.502 -1083 247 243 190
-35.5647 428.482 -1083 246 242 190
-33.3341 428.858 -1084 243 240 189
-31.071 428.841 -1084 243 240 181
-28.8082 428.824 -1084 245 242 183
-26.5455 428.808 -1084 250 247 188
-24.2832 428.794 -1084 254 253 195
-22.0414 429.177 -1085 248 246 188
-19.7591 428.77 -1084 233 231 173
-17.5135 429.155 -1085 224 221 168
-15.2639 429.541 -1086 228 225 174
-13.0102 429.929 -1087 232 233 184
-10.7623 430.714 -1089 235 234 188
-8.51398 431.895 -1092 237 235 191
-6.25895 433.473 -1096 237 237 193
-3.98728 435.052 -1100 241 239 195
-1.70496 438.214 -1108 247 244 200
0.612762 442.96 -1120 250 247 208
3.04638 457.595 -1157 244 244 211
-285.923 458.032 -1141 208 212 195
-277.184 447.837 -1116 206 209 187
-271.513 442.463 -1103 202 204 177
-267.852 440.303 -1098 199 202 167
-264.701 438.948 -1095 192 194 156
-261.085 436.793 -1090 188 189 148
-257.495 434.641 -1085 189 191 145
-254.164 432.893 -1081 186 188 139
-250.853 431.147 -1077 175 177 126
-247.792 429.803 -1074 176 175 120
-245.433 429.662 -1074 182 181 128
-243.302 429.923 -1075 188 188 142
-240.946 429.785 -1075 218 219 177
-238.813 430.048 -1076 251 252 210
-236.678 430.312 -1077 254 254 214
-234.324 430.178 -1077 252 252 204
-231.325 428.847 -1074 254 254 205
-228.342 427.518 -1071 251 251 205
-225.374 426.192 -1068 246 246 204
-222.003 424.07 -1063 234 234 193
-218.863 422.349 -1059 227 228 184
-215.742 420.631 -1055 232 231 190
-212.843 419.313 -1052 243 242 202
-210.36 418.795 -1051 251 249 214
-207.684 417.879 -1049 255 253 218
-205.215 417.364 -1048 255 254 219
-202.753 416.85 -1047 255 254 221
-200.296 416.338 -1046 254 252 220
-197.656 415.429 -1044 249 249 219
-195.214 414.92 -1043 236 239 206
-192.408 413.618 -1040 219 221 189
-189.617 412.317 -1037 204 204 171
-186.841 411.018 -1034 183 184 154
-183.9 409.323 -1030 97 99 70
-181.331 408.426 -1028 83 86 61
-178.947 407.927 -1027 85 89 65
-176.569 407.429 -1026 85 89 65
-174.366 407.33 -1026 96 98 74
-172.165 407.233 -1026 103 106 81
-169.966 407.136 -1026 107 112 85
-167.605 406.645 -1025 91 95 71
-165.572 406.948 -1026 75 79 56
-163.536 407.252 -1027 73 77 56
-161.341 407.16 -1027 75 77 60
-158.992 406.674 -1026 76 78 62
-156.954 406.982 -1027 78 80 67
-154.613 406.498 -1026 78 81 63
-152.574 406.808 -1027 77 80 61
-150.385 406.723 -1027 79 83 65
-148.198 406.639 -1027 83 85 68
-146.013 406.557 -1027 89 90 73
-143.829 406.476 -1027 96 97 80
-141.508 406 -1026 95 98 78
-139.328 405.921 -1026 94 98 76
-137.15 405.844 -1026 98 100 80
-135.104 406.163 -1027 97 99 80
-133.056 406.484 -1028 95 99 79
-131.131 407.201 -1030 94 99 77
-128.949 407.128 -1030 93 98 75
-126.892 407.452 -1031 95 99 75
-124.589 406.986 -1030 96 100 76
-122.529 407.312 -1031 95 99 75
-120.233 406.85 -1030 93 97 73
-118.171 407.178 -1031 90 93 69
-115.881 406.718 -1030 88 91 67
-113.817 407.049 -1031 86 86 63
-111.642 406.986 -1031 84 84 61
-109.573 407.319 -1032 82 82 58
-107.502 407.653 -1033 82 82 55
-105.427 407.988 -1034 80 79 52
-103.249 407.93 -1034 81 80 52
-100.975 407.479 -1033 83 84 58
-98.8965 407.818 -1034 78 81 55
-96.7212 407.763 -1034 78 79 58
-94.547 407.71 -1034 83 83 63
-92.4628 408.052 -1035 90 90 69
-90.4626 408.79 -1037 101 102 80
-88.3696 409.134 -1038 121 123 97
-86.2732 409.48 -1039 147 148 117
-84.3352 410.615 -1042 179 179 147
-82.1489 410.568 -1042 201 201 169
-79.9632 410.523 -1042 214 215 183
-77.853 410.874 -1043 224 224 192
-75.6667 410.831 -1043 228 228 195
-73.5516 411.183 -1044 233 234 198
-71.5011 411.931 -1046 234 235 197
-69.5094 413.073 -1049 234 235 194
-67.3772 413.429 -1050 237 237 190
-65.3657 414.573 -1053 238 238 189
-63.2821 415.325 -1055 241 242 190
-61.1908 416.078 -1057 243 245 195
-59.1474 417.225 -1060 249 249 200
-57.0383 417.98 -1062 250 248 200
-54.9729 419.13 -1065 251 249 201
-52.846 419.887 -1067 253 251 202
-50.7586 421.039 -1070 253 251 203
-48.6592 422.192 -1073 254 253 201
-46.5476 423.346 -1076 255 254 200
-44.4239 424.501 -1079 254 252 201
-42.2881 425.657 -1082 252 250 200
-40.0291 425.634 -1082 250 247 198
-37.8053 426.006 -1083 251 246 193
-35.5449 425.986 -1083 249 246 192
-33.3156 426.36 -1084 245 244 189
-31.0538 426.342 -1084 247 242 183
-28.7922 426.326 -1084 252 247 189
-26.5309 426.311 -1084 254 249 192
-24.2922 426.69 -1085 245 239 182
-22.0292 426.677 -1085 225 219 164
-19.7664 426.666 -1085 215 209 159
-17.5199 427.048 -1086 215 208 156
-15.2834 427.826 -1088 218 211 158
-13.0388 428.604 -1090 223 218 165
-10.7859 429.384 -1092 227 224 173
-8.53259 430.559 -1095 225 223 174
-6.27258 432.127 -1099 229 226 178
-3.99587 433.697 -1103 231 229 181
-1.70404 435.662 -1108 232 230 183
0.613944 441.559 -1123 240 238 199
3.04199 454.536 -1156 242 241 208
-286.26 456.142 -1143 207 211 198
-276.777 444.809 -1115 212 215 193
-271.603 440.265 -1104 212 214 187
-268.187 438.516 -1100 207 210 175
-265.033 437.169 -1097 205 207 167
-261.415 435.026 -1092 197 198 154
-258.297 433.684 -1089 183 185 136
-254.724 431.547 -1084 177 179 128
-251.641 430.209 -1081 185 187 133
-248.343 428.475 -1077 192 191 136
-245.75 427.937 -1076 187 186 135
-242.938 427.003 -1074 184 184 138
-240.585 426.866 -1074 188 189 146
-238.012 426.333 -1073 210 212 169
-235.665 426.199 -1073 238 239 199
-233.321 426.066 -1073 252 252 210
-230.763 425.538 -1072 252 252 209
-227.999 424.614 -1070 253 253 208
-224.824 422.899 -1066 248 248 204
-221.669 421.187 -1062 233 233 190
-218.533 419.476 -1058 229 230 188
-215.211 417.372 -1053 229 229 189
-212.319 416.062 -1050 236 236 198
-209.841 415.547 -1049 243 242 210
-207.171 414.637 -1047 237 236 206
-204.904 414.521 -1047 228 227 198
-202.445 414.011 -1046 209 208 182
-199.992 413.502 -1045 181 180 157
-197.545 412.994 -1044 147 147 127
-195.104 412.489 -1043 118 120 99
-192.115 410.798 -1039 95 97 76
-189.51 409.9 -1037 92 92 71
-186.735 408.609 -1034 91 93 73
-183.618 406.53 -1029 77 78 60
-181.053 405.637 -1027 68 69 53
-178.498 404.747 -1025 67 70 53
-176.126 404.253 -1024 75 79 62
-173.759 403.76 -1023 77 79 61
-171.733 404.058 -1024 86 89 71
-169.54 403.962 -1024 104 108 89
-167.347 403.868 -1024 106 110 91
-165.318 404.169 -1025 84 88 71
-163.126 404.078 -1025 63 66 52
-161.094 404.381 -1026 64 65 54
-158.903 404.292 -1026 59 60 50
-156.561 403.81 -1025 61 62 55
-154.376 403.723 -1025 59 62 49
-152.191 403.638 -1025 54 58 44
-150.009 403.553 -1025 56 60 46
-147.827 403.471 -1025 61 63 51
-145.789 403.782 -1026 66 67 55
-143.468 403.308 -1025 71 72 59
-141.153 402.836 -1024 73 74 61
-139.115 403.151 -1025 77 79 66
-136.94 403.074 -1025 87 88 76
-134.897 403.392 -1026 88 90 78
-132.852 403.711 -1027 85 89 75
-130.931 404.423 -1029 88 93 78
-128.752 404.351 -1029 92 96 81
-126.575 404.28 -1029 93 97 82
-124.399 404.211 -1029 96 100 84
-122.342 404.535 -1030 100 104 87
-120.049 404.075 -1029 99 103 86
-117.876 404.009 -1029 95 98 83
-115.817 404.337 -1030 92 93 80
-113.644 404.273 -1030 89 90 75
-111.471 404.211 -1030 89 90 75
-109.407 404.542 -1031 89 90 74
-107.338 404.875 -1032 87 87 68
-105.267 405.208 -1033 83 83 64
-103.092 405.15 -1033 85 84 64
-100.919 405.094 -1033 87 88 69
-98.746 405.039 -1033 85 87 68
-96.5742 404.985 -1033 76 77 62
-94.4032 404.932 -1033 79 79 64
-92.3224 405.272 -1034 79 79 64
-90.3253 406.006 -1036 77 78 64
-88.2356 406.348 -1037 77 77 62
-86.2254 407.084 -1039 79 78 61
-84.2076 407.82 -1041 83 82 62
-82.1034 408.166 -1042 88 88 68
-79.8423 407.73 -1041 91 91 71
-77.81 408.469 -1043 104 104 82
-75.6249 408.427 -1043 123 122 99
-73.4405 408.386 -1043 145 145 118
-71.3933 409.129 -1045 171 172 141
-69.4709 410.656 -1049 196 197 163
-67.4041 411.401 -1051 217 217 176
-65.2675 411.756 -1052 233 233 188
-63.2472 412.895 -1055 241 242 193
-61.157 413.644 -1057 248 250 203
-59.0032 414.002 -1058 247 249 201
-56.8995 414.752 -1060 249 250 201
-54.891 416.287 -1064 254 252 202
-52.7178 416.648 -1065 254 252 202
-50.6832 418.185 -1069 254 252 202
-48.587 419.331 -1072 255 253 204
-46.5219 420.869 -1076 255 253 203
-44.3582 421.626 -1078 255 253 204
-42.2256 422.776 -1081 254 251 204
-40.007 423.144 -1082 253 249 202
-37.7845 423.514 -1083 252 248 197
-35.5254 423.494 -1083 249 246 193
-33.328 424.257 -1085 249 247 190
-31.0653 424.24 -1085 252 247 187
-28.8029 424.223 -1085 254 249 190
-26.5407 424.208 -1085 242 236 178
-24.2564 423.803 -1084 220 214 156
-22.017 424.181 -1085 204 197 141
-19.7737 424.561 -1086 187 180 131
-17.5425 425.332 -1088 183 174 122
-15.3031 426.105 -1090 180 171 117
-13.0795 427.661 -1094 179 170 114
-10.8097 428.045 -1095 188 183 127
-8.54355 428.822 -1097 192 190 135
-6.2805 430.381 -1101 195 188 138
-3.99735 431.551 -1104 200 196 145
-1.70634 433.895 -1110 204 202 151
0.611991 437.804 -1120 216 217 181
3.00867 447.186 -1144 232 233 203
5.62338 466.343 -1193 226 228 205
-285.347 452.263 -1140 205 209 195
-276.62 442.187 -1115 215 218 194
-271.449 437.67 -1104 219 222 193
-268.278 436.328 -1101 221 222 182
-265.124 434.988 -1098 220 221 175
-261.985 433.651 -1095 213 214 165
-258.624 431.92 -1091 202 202 150
-255.049 429.796 -1086 181 182 129
-251.964 428.465 -1083 185 187 133
-248.433 426.346 -1078 195 195 141
-245.84 425.811 -1077 195 195 145
-242.575 424.092 -1073 194 194 148
-240.001 423.561 -1072 192 193 150
-237.656 423.427 -1072 191 192 151
-235.093 422.899 -1071 205 206 168
-232.537 422.372 -1070 242 241 207
-229.988 421.848 -1069 250 250 214
-227.445 421.325 -1068 249 250 209
-224.276 419.62 -1064 245 246 207
-221.127 417.918 -1060 231 232 194
-218.203 416.612 -1057 217 218 185
-214.886 414.52 -1052 201 201 173
-212.199 413.612 -1050 172 173 148
-209.523 412.707 -1048 144 145 126
-207.055 412.196 -1047 121 122 106
-204.593 411.687 -1046 103 104 90
-202.331 411.574 -1046 89 89 75
-199.688 410.674 -1044 77 77 65
-197.245 410.17 -1043 70 71 60
-194.621 409.274 -1041 69 70 60
-191.823 407.987 -1038 68 69 59
-189.039 406.702 -1035 71 72 62
-186.27 405.419 -1032 75 76 66
-183.159 403.352 -1027 66 67 58
-180.423 402.072 -1024 60 61 52
-177.876 401.187 -1022 60 63 54
-175.512 400.697 -1021 61 64 55
-173.153 400.207 -1020 60 61 51
-171.135 400.504 -1021 68 70 59
-168.949 400.409 -1021 78 81 70
-166.927 400.708 -1022 91 94 80
-164.903 401.008 -1023 104 107 94
-162.877 401.309 -1024 82 85 75
-160.69 401.219 -1024 63 64 56
-158.505 401.13 -1024 59 60 52
-156.169 400.651 -1023 60 61 55
-153.989 400.565 -1023 56 59 50
-151.959 400.872 -1024 50 53 43
-149.779 400.789 -1024 51 54 44
-147.457 400.315 -1023 56 58 50
-145.282 400.234 -1023 58 59 52
-143.109 400.154 -1023 59 60 51
-140.937 400.076 -1023 61 62 54
-138.631 399.607 -1022 63 64 57
-136.597 399.922 -1023 68 68 63
-134.691 400.629 -1025 74 76 70
-132.52 400.555 -1025 75 78 71
-130.477 400.873 -1026 80 84 76
-128.306 400.802 -1026 80 83 75
-126.136 400.732 -1026 84 87 78
-123.967 400.663 -1026 84 87 76
-122.037 401.376 -1028 88 92 80
-119.75 400.919 -1027 94 98 85
-117.697 401.244 -1028 96 98 86
-115.64 401.57 -1029 96 98 86
-113.47 401.507 -1029 94 98 82
-111.194 401.055 -1028 93 97 80
-109.134 401.384 -1029 90 94 76
-106.967 401.325 -1029 85 88 69
-105.005 402.046 -1031 80 82 62
-102.936 402.379 -1032 78 80 59
-100.668 401.933 -1031 82 83 66
-98.5961 402.268 -1032 82 83 67
-96.521 402.605 -1033 79 80 66
-94.2598 402.163 -1032 80 81 66
-92.1823 402.501 -1033 79 80 65
-90.1884 403.23 -1035 78 79 66
-88.102 403.571 -1036 76 76 66
-86.0121 403.913 -1037 79 77 69
-83.9996 404.645 -1039 79 77 68
-81.9008 404.989 -1040 81 79 70
-79.7218 404.944 -1040 86 84 75
-77.6926 405.68 -1042 90 89 77
-75.6558 406.417 -1044 89 88 76
-73.4705 406.376 -1044 90 89 76
-71.3541 406.725 -1045 90 91 73
-69.3666 407.854 -1048 100 102 81
-67.2389 408.206 -1049 112 112 85
-65.1696 408.948 -1051 139 138 109
-63.1525 410.08 -1054 182 181 148
-61.0656 410.824 -1056 214 214 179
-58.9151 411.18 -1057 231 231 195
-56.8682 412.316 -1060 243 243 204
-54.8094 413.452 -1063 248 247 201
-52.6395 413.812 -1064 252 251 204
-50.6081 415.339 -1068 254 253 205
-48.515 416.479 -1071 254 252 204
-46.4532 418.008 -1075 252 250 202
-44.3339 419.15 -1078 254 252 204
-42.2025 420.292 -1081 254 251 204
-40.0221 421.048 -1083 253 250 203
-37.7987 421.415 -1084 251 248 198
-35.5387 421.395 -1084 247 245 192
-33.3098 421.765 -1085 251 248 192
-31.0483 421.747 -1085 253 248 188
-28.7606 421.342 -1084 233 228 168
-26.5017 421.327 -1084 204 199 141
-24.2655 421.702 -1085 179 174 115
-22.0253 422.078 -1086 165 160 102
-19.7993 422.844 -1088 153 146 92
-17.5974 424.388 -1092 151 142 89
-15.365 425.545 -1095 151 142 88
-13.1321 427.092 -1099 144 135 79
-10.8728 428.251 -1102 144 137 83
-8.60894 429.8 -1106 144 137 85
-6.31708 430.574 -1108 157 149 97
-4.02056 431.736 -1111 162 156 106
-1.71157 432.901 -1114 169 165 115
0.612628 436.009 -1122 185 186 149
2.99921 443.394 -1141 218 220 189
5.592 461.272 -1187 224 226 207
-288.437 454.712 -1153 201 205 190
-277.951 441.935 -1121 211 213 188
-272.033 436.262 -1107 223 225 197
-268.127 433.745 -1101 233 233 193
-264.974 432.414 -1098 235 234 188
-262.076 431.478 -1096 232 231 182
-258.953 430.151 -1093 218 217 166
-255.61 428.433 -1089 206 205 153
-252.752 427.503 -1087 199 197 146
-248.984 425.003 -1081 212 213 161
-246.158 424.078 -1079 206 206 158
-242.664 421.976 -1074 206 206 161
-239.643 420.663 -1071 206 207 167
-236.858 419.744 -1069 206 208 170
-234.303 419.22 -1068 207 209 175
-231.973 419.089 -1068 210 209 181
-229.429 418.568 -1067 224 223 195
-227.105 418.441 -1067 225 226 194
-224.15 417.138 -1064 191 191 162
-221.003 415.446 -1060 148 148 121
-217.875 413.757 -1056 113 114 90
-214.562 411.677 -1051 80 83 62
-211.677 410.384 -1048 67 71 52
-209.006 409.484 -1046 69 73 58
-206.544 408.976 -1045 67 71 57
-204.088 408.471 -1044 63 68 55
-201.832 408.358 -1044 61 65 52
-199.577 408.247 -1044 60 62 52
-197.135 407.746 -1043 61 62 55
-194.513 406.855 -1041 63 65 58
-191.901 405.967 -1039 63 65 57
-188.934 404.298 -1035 67 68 60
-185.986 402.632 -1031 68 68 63
-182.879 400.578 -1026 60 61 56
-180.147 399.306 -1023 58 58 53
-177.604 398.426 -1021 55 57 52
-175.071 397.548 -1019 53 56 51
-172.717 397.062 -1018 54 55 48
-170.705 397.357 -1019 50 51 44
-168.524 397.264 -1019 57 58 51
-166.509 397.561 -1020 71 72 60
-164.651 398.249 -1022 89 91 80
-162.628 398.548 -1023 99 102 92
-160.444 398.459 -1023 87 88 78
-158.418 398.761 -1024 70 72 62
-156.083 398.285 -1023 64 67 59
-153.904 398.199 -1023 61 62 54
-151.726 398.115 -1023 57 58 50
-149.697 398.421 -1024 56 57 49
-147.376 397.951 -1023 55 58 51
-145.202 397.87 -1023 52 55 48
-143.17 398.18 -1024 51 52 45
-140.859 397.713 -1023 51 53 48
-138.69 397.636 -1023 54 57 52
-136.522 397.561 -1023 58 58 56
-134.486 397.875 -1024 58 59 56
-132.318 397.802 -1024 55 58 53
-130.151 397.73 -1024 64 67 64
-127.986 397.659 -1024 69 71 67
-125.821 397.589 -1024 77 78 71
-123.658 397.521 -1024 82 85 76
-121.733 398.23 -1026 88 91 81
-119.567 398.164 -1026 91 95 80
-117.518 398.487 -1027 89 93 77
-115.465 398.811 -1028 92 96 79
-113.298 398.749 -1028 93 97 79
-111.025 398.3 -1027 97 101 81
-108.862 398.239 -1027 98 102 81
-106.805 398.568 -1028 96 102 80
-104.744 398.898 -1029 89 95 73
-102.78 399.617 -1031 85 89 67
-100.71 399.949 -1032 87 89 70
-98.542 399.894 -1032 79 81 63
-96.3748 399.841 -1032 79 80 65
-94.2083 399.789 -1032 79 80 63
-92.0426 399.738 -1032 80 82 64
-90.052 400.463 -1034 80 81 66
-87.9688 400.802 -1035 80 80 67
-85.965 401.529 -1037 79 79 68
-83.8729 401.87 -1038 78 78 67
-81.856 402.599 -1040 77 77 66
-79.6782 402.555 -1040 81 79 70
-77.6501 403.286 -1042 86 84 74
-75.5421 403.631 -1043 87 85 75
-73.4303 403.978 -1044 89 87 80
-71.3152 404.325 -1045 86 86 76
-69.2626 405.061 -1047 84 85 73
-67.2022 405.797 -1049 84 83 67
-65.1961 406.922 -1052 82 81 63
-63.0582 407.274 -1053 84 83 64
-60.9167 407.627 -1054 91 91 66
-58.883 408.754 -1057 111 111 85
-56.73 409.109 -1058 137 137 109
-54.6764 410.239 -1061 177 177 141
-52.5613 410.983 -1063 213 214 176
-50.5331 412.502 -1067 235 236 196
-48.3981 413.248 -1069 247 247 205
-46.3847 415.155 -1074 253 252 209
-44.2687 416.29 -1077 255 254 210
-42.1405 417.426 -1080 254 252 206
-39.9264 417.79 -1081 251 249 202
-37.7084 418.156 -1082 250 248 195
-35.4866 418.523 -1083 251 250 198
-33.2302 418.504 -1083 242 240 189
-31.0028 418.873 -1084 216 214 156
-28.745 418.857 -1084 180 177 119
-26.5362 419.614 -1086 159 154 97
-24.3194 420.373 -1088 152 147 86
-22.0944 421.133 -1090 147 142 81
-19.8795 422.281 -1093 141 133 74
-17.6845 424.203 -1098 139 130 74
-15.4828 426.512 -1104 141 132 77
-13.2324 428.049 -1108 136 125 68
-10.9655 429.588 -1112 122 114 60
-8.67427 430.742 -1115 114 106 55
-6.36488 431.51 -1117 120 111 58
-4.05084 432.666 -1120 132 124 74
-1.71987 432.665 -1120 145 138 90
0.615047 435.369 -1127 157 155 116
2.9975 440.778 -1141 191 192 160
5.54654 455.074 -1178 218 222 201
-291.276 456.713 -1165 194 198 183
-277.548 438.916 -1120 195 198 174
-272.371 434.452 -1109 212 214 186
-268.707 432.342 -1104 234 233 197
-265.067 430.235 -1099 237 235 191
-262.407 429.696 -1098 237 235 189
-259.518 428.768 -1096 232 229 181
-256.405 427.451 -1093 219 216 168
-253.076 425.745 -1089 207 204 157
-249.766 424.041 -1085 206 208 159
-246.476 422.34 -1081 213 214 170
-242.98 420.25 -1076 211 212 172
-239.732 418.554 -1072 211 214 180
-236.947 417.641 -1070 205 207 178
-233.953 416.339 -1067 179 181 156
-231.409 415.82 -1066 136 135 115
-228.871 415.302 -1065 101 100 79
-226.127 414.396 -1063 84 83 63
-223.184 413.102 -1060 80 79 66
-220.463 412.2 -1058 75 75 61
-217.548 410.91 -1055 70 71 56
-214.443 409.233 -1051 64 68 52
-211.559 407.947 -1048 61 66 51
-208.691 406.663 -1045 63 68 55
-206.232 406.159 -1044 63 68 55
-203.78 405.657 -1043 62 67 54
-201.527 405.545 -1043 60 65 53
-199.085 405.046 -1042 62 64 56
-196.649 404.548 -1041 61 61 56
-194.032 403.663 -1039 59 62 55
-191.426 402.78 -1037 61 63 56
-188.465 401.122 -1033 60 61 54
-185.703 399.854 -1030 59 60 57
-182.6 397.812 -1025 53 53 50
-179.872 396.548 -1022 54 54 50
-177.332 395.674 -1020 51 53 48
-174.974 395.189 -1019 51 54 49
-172.622 394.706 -1018 53 54 47
-170.611 394.999 -1019 51 52 45
-168.266 394.519 -1018 49 50 43
-166.254 394.815 -1019 54 55 43
-164.238 395.111 -1020 61 63 53
-162.22 395.409 -1021 77 80 70
-160.2 395.708 -1022 93 94 82
-158.176 396.008 -1023 85 87 76
-155.997 395.922 -1023 74 78 66
-153.819 395.837 -1023 66 67 58
-151.643 395.754 -1023 61 62 52
-149.614 396.058 -1024 59 60 51
-147.295 395.59 -1023 54 57 48
-145.123 395.51 -1023 51 54 45
-143.092 395.818 -1024 52 53 46
-140.92 395.741 -1024 51 53 47
-138.614 395.278 -1023 50 53 48
-136.447 395.203 -1023 55 55 52
-134.281 395.129 -1023 54 56 52
-132.116 395.056 -1023 51 54 49
-129.953 394.985 -1023 55 56 52
-127.666 394.529 -1022 58 58 55
-125.752 395.232 -1024 63 63 62
-123.47 394.778 -1023 68 69 65
-121.548 395.483 -1025 75 76 71
-119.386 395.417 -1025 79 81 72
-117.339 395.739 -1026 83 84 73
-115.177 395.676 -1026 86 87 75
-113.016 395.613 -1026 89 93 76
-110.856 395.553 -1026 96 101 83
-108.803 395.878 -1027 97 101 83
-106.85 396.591 -1029 96 102 83
-104.789 396.919 -1030 97 102 82
-102.823 397.633 -1032 94 99 77
-100.655 397.578 -1032 88 90 73
-98.4885 397.524 -1032 87 88 72
-96.3223 397.471 -1032 85 86 74
-94.157 397.419 -1032 83 84 70
-91.9926 397.369 -1032 81 82 67
-90.003 398.089 -1034 80 81 67
-87.921 398.426 -1035 82 83 69
-85.9183 399.149 -1037 84 85 71
-83.8273 399.488 -1038 86 87 74
-81.7329 399.828 -1039 80 81 68
-79.6349 400.169 -1040 76 76 65
-77.6081 400.896 -1042 76 76 65
-75.5011 401.239 -1043 80 79 69
-73.3905 401.584 -1044 85 83 76
-71.2765 401.929 -1045 86 86 78
-69.225 402.66 -1047 86 87 77
-67.1018 403.008 -1048 88 87 77
-65.0988 404.126 -1051 87 86 76
-63.024 404.86 -1053 85 84 74
-60.8837 405.211 -1054 87 86 71
-58.7954 405.948 -1056 85 84 68
-56.6992 406.685 -1058 85 84 67
-54.5953 407.424 -1060 85 85 62
-52.5329 408.548 -1063 84 84 61
-50.5058 410.058 -1067 102 102 76
-48.3719 410.8 -1069 138 138 108
-46.2733 411.927 -1072 174 174 142
-44.1625 413.055 -1075 213 212 178
-42.0787 414.569 -1079 236 236 198
-39.8679 414.931 -1080 242 242 202
-37.688 415.678 -1082 243 241 194
-35.4674 416.043 -1083 234 232 187
-33.243 416.408 -1084 197 196 154
-30.9861 416.391 -1084 169 167 118
-28.7824 417.143 -1086 165 162 112
-26.5707 417.896 -1088 161 158 106
-24.3955 419.419 -1092 161 157 100
-22.1837 420.559 -1095 150 145 87
-19.9778 422.084 -1099 155 145 85
-17.7876 424.378 -1105 153 144 86
-15.5726 426.673 -1111 156 146 89
-13.3446 429.354 -1118 134 123 65
-11.0877 432.035 -1125 115 105 52
-8.77842 433.566 -1129 111 102 52
-6.44126 434.33 -1131 110 102 48
-4.08846 434.327 -1131 119 111 60
-1.73277 433.558 -1129 131 124 76
0.6191 435.861 -1135 140 136 96
3.00629 439.703 -1145 168 167 133
5.55761 453.53 -1181 218 221 199
-280.612 441.359 -1133 176 180 155
-273.447 433.805 -1114 177 180 153
-269.287 430.929 -1107 196 195 163
-265.401 428.445 -1101 209 206 166
-262.5 427.521 -1099 217 214 173
-259.61 426.598 -1097 226 222 178
-256.497 425.288 -1094 225 221 178
-253.167 423.593 -1090 219 216 173
-249.858 421.899 -1086 209 210 166
-246.567 420.208 -1082 214 216 179
-242.846 417.743 -1076 188 190 158
-239.6 416.057 -1072 132 134 110
-236.816 415.149 -1070 96 99 78
-233.605 413.467 -1066 76 79 60
-230.847 412.564 -1064 67 67 50
-228.315 412.049 -1063 68 69 53
-225.577 411.149 -1061 67 67 53
-222.85 410.251 -1059 66 67 59
-219.925 408.967 -1056 66 67 58
-216.809 407.298 -1052 65 66 55
-213.917 406.018 -1049 63 68 54
-210.838 404.353 -1045 62 67 54
-208.177 403.464 -1043 65 70 57
-205.526 402.577 -1041 65 70 57
-203.277 402.465 -1041 64 69 56
-200.837 401.967 -1040 63 68 57
-198.593 401.858 -1040 62 64 58
-196.352 401.75 -1040 62 62 59
-193.925 401.256 -1039 58 61 54
-191.321 400.379 -1037 55 58 51
-188.544 399.117 -1034 54 57 49
-185.601 397.47 -1030 54 57 54
-182.5 395.441 -1025 50 52 48
-179.949 394.57 -1023 53 52 47
-177.409 393.701 -1021 52 54 48
-175.05 393.219 -1020 51 53 47
-172.867 393.124 -1020 52 53 46
-170.685 393.031 -1020 54 55 48
-168.339 392.553 -1019 50 51 44
-166.163 392.462 -1019 47 49 40
-164.149 392.757 -1020 51 54 45
-162.132 393.053 -1021 53 56 47
-160.112 393.35 -1022 71 72 61
-158.09 393.649 -1023 89 90 80
-156.064 393.948 -1024 92 95 84
-153.736 393.479 -1023 82 83 73
-151.561 393.396 -1023 72 74 64
-149.533 393.699 -1024 67 69 58
-147.215 393.234 -1023 62 64 53
-145.044 393.154 -1023 59 61 50
-143.014 393.46 -1024 58 59 50
-140.843 393.383 -1024 54 56 49
-138.539 392.924 -1023 51 54 48
-136.373 392.849 -1023 55 54 50
-134.208 392.776 -1023 56 57 51
-132.045 392.704 -1023 56 58 52
-129.882 392.633 -1023 58 59 54
-127.721 392.563 -1023 56 57 53
-125.807 393.262 -1025 55 56 54
-123.523 392.811 -1024 56 57 55
-121.482 393.128 -1025 60 60 58
-119.321 393.063 -1025 63 64 59
-117.047 392.615 -1024 67 68 61
-114.89 392.553 -1024 70 71 64
-112.845 392.875 -1025 75 80 66
-110.688 392.814 -1025 82 87 72
-108.638 393.138 -1026 88 93 77
-106.793 394.23 -1029 93 97 81
-104.732 394.556 -1030 95 99 82
-102.768 395.266 -1032 97 102 83
-100.601 395.211 -1032 98 99 85
-98.4352 395.157 -1032 93 94 81
-96.2703 395.105 -1032 90 91 81
-94.015 394.671 -1031 88 89 78
-91.9429 395.003 -1032 83 85 73
-89.8674 395.337 -1033 81 82 71
-87.7886 395.672 -1034 81 82 69
-85.7892 396.39 -1036 81 83 68
-83.7821 397.11 -1038 83 84 71
-81.6888 397.448 -1039 77 78 65
-79.6685 398.17 -1041 75 76 62
-77.5662 398.51 -1042 75 76 63
-75.4604 398.851 -1043 78 79 67
-73.3509 399.193 -1044 83 82 71
-71.2381 399.537 -1045 85 85 73
-69.0555 399.499 -1045 87 88 76
-67.0016 400.227 -1047 90 91 79
-65.0018 401.338 -1050 89 90 78
-62.9901 402.451 -1053 85 86 74
-60.8509 402.8 -1054 84 82 72
-58.7637 403.532 -1056 85 84 74
-56.6151 403.883 -1057 84 83 74
-54.5659 404.999 -1060 83 82 70
-52.4552 405.735 -1062 84 83 70
-50.384 406.853 -1065 84 82 68
-48.2554 407.591 -1067 83 83 69
-46.1621 408.711 -1070 82 83 68
-44.0156 409.451 -1072 94 92 75
-41.9391 410.956 -1076 108 107 85
-39.7726 411.698 -1078 129 127 103
-37.5982 412.441 -1080 149 147 113
-35.3829 412.803 -1081 153 152 119
-33.1638 413.167 -1082 156 156 124
-30.9408 413.531 -1083 176 174 135
-28.7934 415.043 -1087 180 178 136
-26.6052 416.173 -1090 178 177 132
-24.4494 418.069 -1095 172 169 118
-22.2731 419.965 -1100 171 166 112
-20.0761 421.863 -1105 172 162 102
-17.8907 424.525 -1112 170 160 99
-15.6763 427.188 -1119 174 163 103
-13.4449 430.235 -1127 133 122 62
-11.1606 432.519 -1133 111 101 46
-8.83592 434.04 -1137 111 102 49
-6.47759 434.418 -1138 109 103 47
-4.11883 435.178 -1140 110 103 50
-1.74719 434.795 -1139 121 113 62
0.621371 435.177 -1140 134 128 85
3.02311 439.758 -1152 156 153 116
5.56869 451.976 -1184 211 212 187
-283.922 444.134 -1147 162 166 144
-274.522 433.14 -1119 149 151 127
-269.867 429.506 -1110 151 150 121
-266.459 427.811 -1106 153 150 110
-263.31 426.504 -1103 153 150 110
-259.94 424.814 -1099 168 164 123
-256.824 423.512 -1096 198 195 157
-253.26 421.44 -1091 216 214 177
-249.95 419.756 -1087 179 180 145
-246.204 417.303 -1081 110 111 85
-242.938 415.625 -1077 73 75 52
-239.468 413.563 -1072 70 72 55
-236.464 412.276 -1069 69 73 58
-233.476 410.99 -1066 63 67 53
-230.287 409.321 -1062 63 64 50
-227.546 408.425 -1060 63 64 51
-224.816 407.53 -1058 65 67 54
-222.097 406.638 -1056 66 68 59
-219.18 405.362 -1053 61 64 53
-216.279 404.088 -1050 62 65 53
-213.392 402.816 -1047 62 67 55
-210.52 401.547 -1044 62 67 55
-207.664 400.279 -1041 64 69 58
-205.217 399.782 -1040 64 69 57
-202.971 399.67 -1040 63 68 57
-200.727 399.56 -1040 63 67 61
-198.485 399.451 -1040 63 65 63
-196.245 399.344 -1040 61 62 61
-193.82 398.854 -1039 55 58 54
-191.216 397.982 -1037 52 55 49
-188.441 396.727 -1034 53 56 49
-185.5 395.091 -1030 57 60 57
-182.401 393.073 -1025 59 60 56
-179.851 392.208 -1023 64 62 56
-177.312 391.344 -1021 62 63 56
-174.783 390.482 -1019 59 60 53
-172.603 390.388 -1019 55 56 48
-170.425 390.295 -1019 59 60 52
-168.083 389.82 -1018 56 57 49
-166.073 390.113 -1019 51 54 47
-163.899 390.024 -1019 51 54 47
-161.885 390.318 -1020 48 51 45
-159.869 390.614 -1021 57 58 50
-157.85 390.91 -1022 72 73 65
-155.827 391.208 -1023 86 87 79
-153.652 391.124 -1023 92 95 85
-151.478 391.042 -1023 91 94 83
-149.452 391.343 -1024 86 89 77
-147.279 391.263 -1024 75 76 64
-144.965 390.802 -1023 68 69 57
-142.936 391.106 -1024 67 68 58
-140.767 391.03 -1024 64 65 57
-138.464 390.573 -1023 59 59 53
-136.432 390.881 -1024 58 56 50
-134.267 390.808 -1024 57 57 50
-132.102 390.736 -1024 57 58 50
-129.939 390.665 -1024 57 60 53
-127.777 390.596 -1024 54 57 50
-125.739 390.909 -1025 50 53 46
-123.457 390.461 -1024 50 52 49
-121.416 390.777 -1025 51 53 50
-119.257 390.712 -1025 55 55 52
-116.984 390.267 -1024 58 58 55
-114.828 390.205 -1024 59 59 57
-112.674 390.144 -1024 62 67 57
-110.52 390.084 -1024 65 70 58
-108.474 390.406 -1025 71 75 63
-106.631 391.491 -1028 80 83 69
-104.676 392.196 -1030 86 89 74
-102.613 392.521 -1031 96 97 81
-100.547 392.848 -1032 101 102 88
-98.4777 393.175 -1033 98 100 86
-96.2186 392.742 -1032 97 100 90
-94.0557 392.691 -1032 96 99 89
-91.9826 393.022 -1033 89 92 82
-89.9062 393.354 -1034 83 86 77
-87.8264 393.687 -1035 80 83 73
-85.8259 394.401 -1037 78 81 70
-83.7372 394.736 -1038 77 80 69
-81.5664 394.692 -1038 76 78 66
-79.6258 395.789 -1041 76 77 64
-77.5246 396.127 -1042 74 75 63
-75.4199 396.467 -1043 73 74 63
-73.3819 397.187 -1045 74 75 66
-71.268 397.529 -1046 75 77 68
-69.0185 397.111 -1045 80 82 73
-66.9657 397.835 -1047 88 89 79
-64.9051 398.559 -1049 91 92 80
-62.8368 399.285 -1051 86 86 74
-60.7606 400.012 -1053 84 84 72
-58.6767 400.74 -1055 85 85 74
-56.5849 401.469 -1057 87 86 79
-54.4852 402.199 -1059 85 84 77
-52.3285 402.55 -1060 87 86 79
-50.2625 403.662 -1063 85 83 75
-48.1844 404.775 -1066 81 81 75
-46.0512 405.509 -1068 84 84 79
-43.91 406.245 -1070 87 86 79
-41.8389 407.741 -1074 83 81 72
-39.6408 408.098 -1075 84 81 70
-37.5085 409.217 -1078 84 83 64
-35.3313 409.957 -1080 83 82 61
-33.0848 409.938 -1080 80 80 57
-30.8958 410.68 -1082 88 87 58
-28.778 412.562 -1087 131 130 99
-26.6642 414.825 -1093 174 173 138
-24.5257 417.088 -1099 183 180 138
-22.3827 419.732 -1106 182 179 134
-20.1744 421.619 -1111 183 176 123
-17.9616 423.885 -1117 181 172 116
-15.752 426.912 -1125 185 175 118
-13.5093 429.94 -1133 136 125 66
-11.2137 432.21 -1139 112 102 45
-8.88561 434.102 -1144 106 97 40
-6.51403 434.478 -1145 107 102 43
-4.13113 434.096 -1144 109 102 46
-1.75547 434.473 -1145 117 108 55
0.625964 435.991 -1149 126 118 75
3.03189 438.648 -1156 152 147 110
5.53275 446.619 -1177 206 206 178
-285.003 443.384 -1152 155 159 139
-277.068 434.763 -1130 144 145 122
-272.149 430.766 -1120 144 144 115
-267.276 426.773 -1110 144 143 102
-264.358 425.858 -1108 141 139 98
-260.034 422.64 -1100 135 131 90
-256.917 421.346 -1097 145 143 109
-253.353 419.287 -1092 137 136 104
-249.583 416.846 -1086 84 86 62
-245.841 414.408 -1080 69 70 55
-242.579 412.74 -1076 67 68 55
-239.113 410.691 -1071 65 68 58
-235.893 409.028 -1067 66 70 58
-232.911 407.75 -1064 70 74 61
-229.727 406.091 -1060 69 70 58
-226.778 404.818 -1057 66 70 55
-224.056 403.929 -1055 68 72 57
-221.555 403.425 -1054 69 73 60
-218.853 402.54 -1052 65 69 55
-215.955 401.274 -1049 66 70 57
-213.072 400.011 -1046 60 65 51
-210.204 398.749 -1043 61 65 51
-207.551 397.871 -1041 65 69 56
-204.908 396.995 -1039 62 66 54
-202.861 397.266 -1040 60 63 52
-200.618 397.157 -1040 61 64 57
-198.377 397.049 -1040 60 62 59
-196.138 396.942 -1040 58 61 58
-193.715 396.455 -1039 56 59 55
-191.297 395.97 -1038 55 58 52
-188.339 394.341 -1034 57 60 53
-185.4 392.715 -1030 61 64 60
-182.302 390.71 -1025 63 64 59
-179.754 389.85 -1023 66 64 59
-177.216 388.991 -1021 66 67 60
-174.86 388.516 -1020 64 65 58
-172.679 388.422 -1020 58 59 51
-170.5 388.33 -1020 59 60 52
-168.157 387.858 -1019 57 59 52
-166.146 388.148 -1020 56 59 55
-163.971 388.06 -1020 55 58 53
-161.957 388.352 -1021 49 52 46
-159.783 388.266 -1021 49 50 43
-157.764 388.561 -1022 52 53 46
-155.743 388.857 -1023 61 62 55
-153.57 388.774 -1023 68 71 61
-151.397 388.692 -1023 79 82 72
-149.372 388.991 -1024 84 87 77
-147.2 388.912 -1024 82 83 72
-145.029 388.833 -1024 75 76 66
-142.999 389.136 -1025 70 71 63
-140.829 389.06 -1025 69 68 61
-138.525 388.606 -1024 64 62 56
-136.492 388.911 -1025 61 59 53
-134.195 388.46 -1024 59 59 51
-131.903 388.009 -1023 56 57 49
-129.743 387.939 -1023 55 58 50
-127.709 388.25 -1024 53 56 49
-125.549 388.182 -1024 50 53 45
-123.39 388.115 -1024 51 52 46
-121.233 388.05 -1024 51 52 46
-119.077 387.986 -1024 53 54 48
-116.807 387.544 -1023 56 56 50
-114.655 387.482 -1023 55 56 50
-112.614 387.801 -1024 53 56 53
-110.461 387.741 -1024 56 58 54
-108.31 387.683 -1024 57 58 54
-106.471 388.761 -1027 63 64 58
-104.518 389.462 -1029 71 71 63
-102.459 389.785 -1030 80 80 71
-100.299 389.732 -1030 89 90 76
-98.2346 390.057 -1031 97 98 85
-96.0741 390.005 -1031 102 105 93
