ply
format ascii 1.0
comment Created by Open3D
element vertex 1457
property double x
property double y
property double z
property uchar red
property uchar green
property uchar blue
end_header
18.283 36.3288 -517 165 116 104
19.1277 36.3284 -517 164 115 103
19.9723 36.328 -517 162 113 101
20.8169 36.3275 -517 161 112 100
21.7453 36.4676 -519 157 108 96
22.7672 36.7482 -523 153 104 92
23.7118 36.8882 -525 151 102 90
24.8502 37.3093 -531 157 106 94
26.0081 37.7303 -537 157 106 94
27.1355 38.081 -542 154 105 93
28.2275 38.3614 -546 155 106 94
29.2258 38.5013 -548 158 109 99
30.3406 38.7817 -552 160 111 101
31.2986 38.8512 -553 162 115 104
32.318 38.991 -555 166 119 108
33.2242 38.9903 -555 170 121 109
34.1303 38.9895 -555 180 131 119
35.0364 38.9887 -555 182 139 127
35.9424 38.9879 -555 183 140 128
36.9148 39.0573 -556 186 141 130
37.8223 39.0565 -556 185 140 129
38.7298 39.0557 -556 182 139 128
39.566 38.9845 -555 182 139 128
-502.56 81.3887 -1205 16 16 20
-500.67 81.3965 -1205 16 16 20
-499.607 81.5394 -1207 17 17 21
-499.362 81.8175 -1211 19 19 23
-499.105 82.0956 -1215 21 21 24
-496.788 82.0359 -1214 24 24 27
-495.29 82.1113 -1215 29 26 30
-490.37 82.2701 -1217 34 30 35
-487.654 82.1427 -1215 35 32 35
-485.345 82.0829 -1214 34 31 34
-483.436 82.0907 -1214 46 43 42
-480.734 81.9633 -1212 52 49 48
-479.223 82.0388 -1213 65 59 56
-477.315 82.0465 -1213 78 72 69
-474.622 81.919 -1211 91 74 77
-472.326 81.8591 -1210 92 75 78
-470.032 81.7993 -1209 82 68 70
-468.903 81.9424 -1211 71 57 59
-467.767 82.0854 -1213 58 45 49
-466.241 82.1609 -1214 48 35 39
-465.858 82.4394 -1218 41 34 38
-465.462 82.7179 -1222 40 33 37
-464.295 82.8611 -1224 40 32 36
-463.121 83.0043 -1226 38 30 34
-460.811 82.9444 -1225 39 32 36
-458.879 82.9521 -1225 51 44 48
-457.693 83.0954 -1227 61 51 53
-456.128 83.1709 -1228 57 47 49
-454.19 83.1787 -1228 55 43 46
-452.62 83.2542 -1229 54 42 45
-451.78 83.4652 -1232 40 32 34
-451.295 83.744 -1236 35 27 29
-13.0224 38.0928 -555 220 170 151
-12.1157 38.0932 -555 219 169 150
-11.1887 38.025 -554 215 165 146
-10.2649 37.9567 -553 217 164 145
-9.32749 37.8198 -551 216 163 144
-8.39657 37.6828 -549 219 165 143
-7.48583 37.6144 -548 220 166 144
-6.5663 37.4774 -546 213 163 138
-5.66369 37.409 -545 208 158 133
-4.75557 37.272 -543 206 156 132
-3.8611 37.2035 -542 206 156 132
-2.9644 37.0664 -540 204 154 131
-2.08192 37.0666 -540 203 153 130
-1.19944 37.0667 -540 197 148 126
-0.316368 36.9982 -539 193 144 122
0.563447 36.9296 -538 190 142 119
1.44 36.861 -537 188 140 117
2.30897 36.7238 -535 185 138 115
3.17735 36.6552 -534 183 136 113
4.03489 36.5179 -532 177 131 111
4.8951 36.4492 -531 176 130 110
5.74119 36.3119 -529 173 125 107
6.59323 36.2432 -528 168 120 102
7.44199 36.1744 -527 167 119 101
8.28748 36.1057 -526 168 120 102
9.12969 36.0369 -525 169 121 103
9.96862 35.9681 -524 170 122 104
10.8043 35.8993 -523 171 123 104
11.6589 35.8991 -523 170 122 103
12.5136 35.8989 -523 168 120 102
13.3427 35.83 -522 168 120 102
14.1684 35.7611 -521 170 122 108
14.9909 35.6922 -520 172 124 110
15.8406 35.6919 -520 172 123 113
16.6903 35.6916 -520 171 122 112
17.5399 35.6912 -520 168 119 107
18.3895 35.6909 -520 168 119 107
19.2391 35.6905 -520 167 118 106
20.1273 35.7587 -521 166 117 105
21.0992 35.9642 -524 165 116 104
22.1647 36.3069 -529 163 114 102
23.203 36.581 -533 160 111 99
24.2544 36.855 -537 158 109 97
25.4591 37.3349 -544 161 111 100
26.6383 37.7461 -550 159 109 98
27.7368 38.02 -554 158 109 97
28.7451 38.1567 -556 158 109 97
29.7065 38.2246 -557 159 110 100
30.6161 38.224 -557 160 111 101
31.5823 38.2919 -558 163 116 105
32.5516 38.3598 -559 166 119 108
33.5242 38.4277 -560 172 124 112
34.4386 38.427 -560 177 129 117
35.2897 38.3576 -559 178 136 124
36.1375 38.2882 -558 181 139 127
37.1148 38.356 -559 183 139 129
37.9592 38.2865 -558 183 139 129
-503.201 79.2463 -1202 22 22 26
-503.402 79.5837 -1207 17 17 21
-500.677 79.4594 -1205 15 15 19
-498.787 79.467 -1205 16 16 20
-498.133 79.6726 -1208 19 19 23
-497.469 79.878 -1211 22 22 26
-495.978 79.9517 -1212 24 24 28
-493.667 79.8934 -1211 28 25 30
-491.765 79.901 -1211 28 25 30
-489.863 79.9087 -1211 29 25 30
-489.571 80.1803 -1215 33 29 34
-487.662 80.1879 -1215 35 31 34
-485.353 80.1296 -1214 37 33 36
-483.444 80.1373 -1214 44 40 39
-480.742 80.0129 -1212 54 50 49
-479.23 80.0865 -1213 73 66 61
-477.322 80.0941 -1213 86 79 74
-474.238 79.9036 -1210 103 82 85
-471.943 79.8452 -1209 104 83 86
-470.429 79.9188 -1210 93 76 78
-469.298 80.0585 -1212 83 66 68
-468.546 80.2642 -1215 72 54 58
-467.016 80.3379 -1216 59 41 45
-466.631 80.6098 -1220 45 37 39
-465.851 80.8156 -1223 43 35 37
-464.303 80.8893 -1224 40 32 36
-462.373 80.8969 -1224 41 33 37
-460.443 80.9046 -1224 40 36 39
-458.887 80.9783 -1225 51 47 50
-457.328 81.052 -1226 66 54 57
-456.136 81.1918 -1228 62 50 53
-454.938 81.3317 -1230 56 46 48
-453.733 81.4715 -1232 53 43 45
-453.255 81.7437 -1236 39 35 36
-13.9547 37.2535 -556 220 172 153
-12.9994 37.1199 -554 219 171 152
-12.0942 37.1203 -554 218 170 151
-11.1688 37.0537 -553 216 168 149
-10.2653 37.054 -553 219 166 146
-9.31088 36.8533 -550 217 164 144
-8.38157 36.7196 -548 216 162 140
-7.47244 36.6529 -547 215 161 139
-6.56656 36.5862 -546 210 160 134
-5.65353 36.4524 -544 207 157 131
-4.75578 36.3856 -543 205 155 131
-3.85416 36.2518 -541 204 154 130
-2.95907 36.1179 -539 201 151 128
-2.08206 36.1851 -540 198 148 125
-1.19734 36.1182 -539 191 143 122
-0.315289 35.9843 -537 186 138 117
0.562326 35.9844 -537 181 133 110
1.43727 35.9174 -536 178 130 107
2.30894 35.8504 -535 175 129 107
3.1714 35.7164 -533 176 130 108
4.0349 35.6494 -532 170 124 104
4.88592 35.5154 -530 168 122 102
5.74125 35.4483 -529 166 119 102
6.58082 35.3142 -527 165 118 101
7.44209 35.3141 -527 165 117 100
8.2876 35.247 -526 165 117 100
9.12983 35.1799 -525 167 119 102
9.96878 35.1127 -524 170 122 105
10.8251 35.1126 -524 173 125 106
11.6814 35.1124 -524 172 124 105
12.5377 35.1122 -524 172 124 107
13.3685 35.0449 -523 172 124 107
14.1959 34.9777 -522 173 124 112
15.0777 35.0444 -523 173 124 112
15.9323 35.0441 -523 173 124 114
16.7869 35.0438 -523 173 124 114
17.6414 35.0434 -523 171 122 110
18.5313 35.1101 -524 170 121 109
19.4615 35.2437 -526 169 120 108
20.4754 35.5113 -530 168 119 107
21.5426 35.8459 -535 165 116 104
22.668 36.2475 -541 162 113 101
23.7695 36.582 -546 160 111 99
24.842 36.8495 -550 159 110 98
25.9745 37.1839 -555 160 111 101
27.0263 37.3844 -558 159 110 100
28.0378 37.5178 -560 158 109 97
29.0042 37.5842 -561 157 108 96
29.9204 37.5836 -561 159 110 100
30.8366 37.5829 -561 163 114 104
31.8093 37.6492 -562 165 118 107
32.7853 37.7155 -563 166 119 108
33.6447 37.6478 -562 172 125 114
34.5008 37.5801 -561 175 128 117
35.3536 37.5124 -560 174 133 121
36.2678 37.5116 -560 175 134 122
37.182 37.5108 -560 176 133 122
-504.025 76.8493 -1195 21 21 25
-503.413 77.0496 -1198 22 22 26
-503.209 77.3143 -1202 23 23 27
-502.992 77.5791 -1206 19 19 23
-500.269 77.4579 -1204 16 16 20
-498.38 77.4653 -1204 16 16 20
-497.316 77.6015 -1206 19 19 23
-497.066 77.8663 -1210 21 21 25
-495.576 77.9382 -1211 24 24 28
-493.267 77.8813 -1210 28 25 30
-491.366 77.8888 -1210 26 23 28
-489.87 77.9606 -1211 28 24 30
-489.176 78.1612 -1214 31 27 33
-487.67 78.2331 -1215 40 36 40
-485.76 78.2406 -1215 44 40 44
-483.85 78.2481 -1215 49 41 42
-481.146 78.1267 -1213 63 55 56
-479.633 78.1986 -1214 84 73 69
-477.33 78.1416 -1213 99 88 84
-474.637 78.0202 -1211 118 93 93
-472.731 78.0276 -1211 120 95 95
-471.214 78.0994 -1212 108 86 86
-469.306 78.1068 -1212 96 74 74
-468.939 78.372 -1216 84 62 64
-467.792 78.5084 -1218 68 46 48
-466.638 78.6448 -1220 48 36 38
-465.477 78.7811 -1222 45 33 35
-463.172 78.7241 -1221 39 32 36
-461.247 78.7315 -1221 41 34 38
-459.322 78.7389 -1221 39 36 38
-458.145 78.8753 -1223 50 47 49
-456.962 79.0117 -1225 71 59 62
-456.515 79.2771 -1229 72 60 63
-455.685 79.4782 -1232 62 52 53
-454.477 79.6146 -1234 55 45 46
-18.5632 36.4743 -558 222 173 151
-17.6517 36.4748 -558 227 174 156
-16.7102 36.4099 -557 227 174 156
-15.7719 36.345 -556 227 174 156
-14.8635 36.3455 -556 226 173 155
-13.9049 36.2152 -554 224 174 155
-12.9763 36.1502 -553 222 172 153
-12.0728 36.1506 -553 220 168 150
-11.149 36.0856 -552 220 168 150
-10.2285 36.0206 -551 218 165 146
-9.29427 35.8901 -549 216 163 144
-8.36657 35.7597 -547 213 159 138
-7.45905 35.6946 -546 210 156 135
-6.55477 35.6295 -545 205 155 129
-5.65375 35.5643 -544 203 153 127
-4.74722 35.4338 -542 199 150 126
-3.84722 35.3032 -540 197 148 124
-2.95922 35.238 -539 193 145 123
-2.07834 35.2381 -539 189 141 119
-1.19523 35.1729 -538 183 135 115
-0.314794 35.0422 -536 179 131 111
0.561208 35.0423 -536 174 126 105
1.43453 34.977 -535 171 123 102
2.30459 34.9117 -534 169 123 102
3.17139 34.8463 -533 169 123 102
4.03492 34.7809 -532 168 122 102
4.88595 34.6501 -530 164 118 98
5.74131 34.5847 -529 164 117 100
6.59338 34.5193 -528 166 119 102
7.44219 34.4538 -527 166 118 101
8.28772 34.3883 -526 165 117 100
9.14736 34.3882 -526 168 120 104
10.007 34.388 -526 173 125 109
10.8666 34.3879 -526 175 127 109
11.7039 34.3223 -525 174 126 108
12.5619 34.3221 -525 174 126 109
13.4198 34.3219 -525 174 126 109
14.2778 34.3216 -525 174 125 113
15.1645 34.3867 -526 174 125 113
16.0545 34.4518 -527 174 125 115
16.9477 34.5169 -528 173 124 114
17.8442 34.5819 -529 173 124 112
18.7793 34.7123 -531 171 122 110
19.7949 34.9734 -535 169 120 108
20.9008 35.3652 -541 168 119 107
22.0262 35.757 -547 166 117 105
23.1294 36.0834 -552 163 114 102
24.1618 36.279 -555 160 111 99
25.2039 36.4746 -558 160 111 99
26.2558 36.6702 -561 158 110 99
27.269 36.8004 -563 159 111 100
28.2387 36.8652 -564 159 111 98
29.2116 36.93 -565 158 110 97
30.1344 36.9294 -565 160 111 101
31.0022 36.8633 -564 166 117 107
31.9232 36.8627 -564 170 123 112
32.9025 36.9274 -565 171 124 113
33.7652 36.8613 -564 172 127 117
34.6246 36.7952 -563 172 127 117
35.4806 36.7292 -562 168 130 118
36.3981 36.7284 -562 169 131 119
-504.033 74.9289 -1195 21 21 25
-503 75.0615 -1197 21 21 25
-502.798 75.3196 -1201 23 23 27
-502.583 75.5777 -1205 22 22 26
-500.277 75.5223 -1204 18 18 22
-497.974 75.4668 -1203 17 17 21
-496.498 75.5368 -1204 19 19 23
-496.252 75.7951 -1208 19 19 23
-495.174 75.9279 -1210 23 23 27
-493.274 75.9351 -1210 27 24 29
-491.374 75.9424 -1210 26 23 28
-489.473 75.9497 -1210 29 24 32
-489.184 76.2081 -1214 29 24 32
-488.079 76.341 -1216 45 41 46
-486.167 76.3483 -1216 56 52 57
-483.857 76.2927 -1215 59 49 51
-481.55 76.2373 -1214 73 63 65
-480.036 76.3074 -1215 95 79 75
-477.337 76.189 -1213 115 99 95
-474.645 76.0706 -1211 133 103 102
-473.129 76.1407 -1212 134 104 103
-470.832 76.0851 -1211 120 95 93
-470.087 76.2808 -1214 106 81 79
-469.332 76.4766 -1217 93 67 67
-467.799 76.5467 -1218 75 49 49
-467.028 76.7424 -1221 51 37 38
-464.723 76.6869 -1220 48 34 35
-462.8 76.6941 -1220 38 34 37
-460.499 76.6385 -1219 40 36 39
-458.953 76.7086 -1220 37 34 35
-457.778 76.8416 -1222 47 44 45
-456.596 76.9746 -1224 74 62 65
-456.151 77.2334 -1228 79 67 70
-455.692 77.4922 -1232 67 57 57
-453.748 77.4995 -1232 57 47 47
-452.903 77.6955 -1235 45 41 42
-19.5101 35.6266 -559 224 176 153
-18.5637 35.5634 -558 223 175 152
-17.6206 35.5002 -557 226 172 154
-16.6806 35.4369 -556 227 173 155
-15.7439 35.3736 -555 226 172 154
-14.8105 35.3103 -554 226 172 154
-13.8802 35.247 -553 225 172 154
-12.9532 35.1837 -552 223 170 152
-12.0513 35.1841 -552 221 167 149
-11.1292 35.1207 -551 220 166 148
-10.2102 35.0573 -550 219 165 147
-9.27764 34.9301 -548 217 163 145
-8.35155 34.8029 -546 213 159 139
-7.44565 34.7394 -545 209 155 135
-6.54299 34.6759 -544 204 154 128
-5.64358 34.6124 -543 201 151 125
-4.73866 34.4851 -541 195 148 123
-3.84739 34.4216 -540 192 145 120
-2.95938 34.358 -539 188 142 120
-2.07462 34.2944 -538 182 136 114
-1.19312 34.2307 -537 178 132 112
-0.314884 34.1671 -536 175 129 109
0.560092 34.1035 -535 172 126 106
1.4318 34.0398 -534 169 123 103
2.30025 33.9761 -533 168 122 102
3.16543 33.9123 -532 166 120 100
4.03493 33.9123 -532 168 122 102
4.89521 33.8485 -531 164 118 98
5.74136 33.721 -529 164 117 100
6.59346 33.6572 -528 167 120 103
7.45641 33.6571 -528 166 119 102
8.30359 33.5933 -527 166 119 102
9.16489 33.5932 -527 172 124 109
10.0262 33.593 -527 177 129 114
10.9081 33.6566 -528 177 129 112
11.771 33.6564 -528 175 127 110
12.6339 33.6562 -528 174 126 109
13.4968 33.656 -528 174 126 109
14.3868 33.7195 -529 174 125 113
15.3089 33.8467 -531 173 124 112
16.2376 33.9739 -533 173 124 114
17.1727 34.1011 -535 172 123 113
18.1481 34.292 -538 172 123 111
19.1333 34.4828 -541 170 121 109
20.2022 34.8011 -546 168 119 107
21.2875 35.1194 -551 167 118 106
22.3488 35.374 -555 166 117 105
23.4231 35.6285 -559 163 114 102
24.4235 35.7555 -561 160 111 99
25.4303 35.8824 -563 158 109 97
26.4436 36.0094 -565 154 107 96
27.4149 36.0726 -566 155 108 97
28.3895 36.1357 -567 156 109 96
29.3156 36.1352 -567 156 109 96
30.1883 36.0708 -566 160 111 101
31.0577 36.0065 -565 166 117 107
32.0371 36.0696 -566 169 122 111
32.9614 36.0689 -566 171 124 113
33.8257 36.0045 -565 167 124 113
34.6868 35.9401 -564 167 124 113
35.6076 35.9393 -564 161 126 114
-511.529 72.98 -1195 21 21 25
-510.084 73.0482 -1196 21 21 25
-509.91 73.2996 -1200 21 21 25
-510.146 73.6121 -1205 22 22 26
-507.414 73.4971 -1203 21 21 25
-505.949 73.5653 -1204 20 20 24
-505.317 73.7557 -1207 21 21 25
-504.258 73.885 -1209 23 23 27
-501.531 73.7699 -1207 19 19 23
-498.395 73.5937 -1204 19 18 24
-496.506 73.6007 -1204 19 18 24
-495.438 73.7301 -1206 18 17 23
-494.363 73.8595 -1208 22 21 27
-492.874 73.9278 -1209 28 25 30
-490.975 73.9348 -1209 27 24 29
-489.885 74.0642 -1211 30 25 33
-489.997 74.3772 -1216 30 25 33
-488.889 74.5067 -1218 43 37 44
-486.974 74.5138 -1218 65 59 66
-484.263 74.3986 -1216 71 59 62
-482.35 74.4057 -1216 77 65 68
-480.043 74.3516 -1215 108 87 83
-477.344 74.2363 -1213 129 108 104
-474.652 74.1209 -1211 145 112 110
-472.746 74.128 -1211 146 113 111
-472.006 74.3187 -1214 134 104 101
-471.256 74.5094 -1217 117 87 84
-469.339 74.5165 -1217 103 74 73
-468.575 74.7073 -1220 86 57 56
-466.653 74.7144 -1220 60 43 43
-464.349 74.6602 -1219 56 39 39
-462.428 74.6673 -1219 47 39 42
-460.128 74.6131 -1218 48 40 43
-458.584 74.6814 -1219 45 37 39
-457.41 74.8109 -1221 52 44 46
-456.23 74.9405 -1223 79 63 67
-456.158 75.254 -1228 87 71 75
-455.7 75.5063 -1232 74 60 61
-453.755 75.5133 -1232 63 49 50
-452.543 75.643 -1234 55 45 46
-450.96 75.7114 -1235 47 37 38
-20.4603 34.7756 -560 224 177 153
-19.5107 34.714 -559 225 176 154
-18.531 34.5904 -557 224 175 153
-17.5894 34.5287 -556 224 171 153
-16.6511 34.4671 -555 224 171 153
-15.7444 34.4676 -555 224 170 152
-14.8109 34.4059 -554 223 169 151
-13.8555 34.2821 -552 224 170 152
-12.9536 34.2825 -552 224 170 152
-12.0298 34.2207 -551 222 166 149
-11.1093 34.159 -550 220 164 147
-10.192 34.0972 -549 215 162 145
-9.26101 33.9733 -547 213 160 143
-8.33653 33.8493 -545 210 156 136
-7.43224 33.7875 -544 207 153 133
-6.53119 33.7256 -543 203 153 128
-5.63339 33.6637 -542 199 149 124
-4.73885 33.6018 -541 191 144 119
-3.84756 33.5399 -540 187 140 115
-2.95404 33.4158 -538 183 137 116
-2.07475 33.4159 -538 180 134 113
-1.19323 33.3539 -537 177 130 112
-0.314385 33.2298 -535 175 128 110
0.560024 33.2299 -535 172 125 107
1.43176 33.1678 -534 170 123 105
2.29591 33.0437 -532 167 120 102
3.16543 33.0437 -532 165 118 100
4.02736 32.9816 -531 166 120 99
4.88602 32.9194 -530 164 118 97
5.74141 32.8573 -529 165 118 100
6.60602 32.8572 -529 168 121 103
7.4565 32.795 -528 169 122 104
8.31946 32.7949 -528 170 123 105
9.18241 32.7948 -528 176 128 112
10.0644 32.8568 -529 179 131 115
10.9496 32.9187 -530 177 129 113
11.8381 32.9806 -531 177 129 113
12.7298 33.0425 -532 176 128 111
13.6504 33.1666 -534 175 127 110
14.6046 33.3527 -537 174 125 113
15.5398 33.4766 -539 173 124 112
16.512 33.6627 -542 172 123 113
17.494 33.8487 -545 170 121 111
18.452 33.9726 -547 168 119 107
19.4873 34.2206 -551 168 119 107
20.5356 34.4687 -555 166 117 105
21.597 34.7167 -559 164 115 103
22.6311 34.9026 -562 162 113 101
23.6331 35.0264 -564 161 112 100
24.5981 35.088 -565 159 110 98
25.5663 35.1496 -566 157 108 96
26.5377 35.2112 -567 155 108 96
27.5123 35.2728 -568 155 108 96
28.4902 35.3343 -569 156 109 97
29.3679 35.2717 -568 159 112 100
30.2423 35.209 -567 164 115 106
31.1133 35.1463 -566 166 117 108
32.0943 35.2077 -567 165 118 107
33.0203 35.2071 -567 165 118 107
33.8863 35.1443 -566 161 120 109
34.749 35.0815 -565 162 121 110
-515.126 71.291 -1199 23 23 27
-513.248 71.298 -1199 22 22 26
-512.65 71.4833 -1202 22 22 26
-513.741 71.9066 -1209 24 24 28
-513.964 72.2109 -1214 24 24 28
-511.217 72.099 -1212 21 21 25
-508.897 72.0464 -1211 19 19 23
-506.998 72.0534 -1211 19 19 23
-505.516 72.1199 -1212 22 22 26
-502.369 71.9483 -1209 20 20 24
-498.816 71.7172 -1205 20 19 26
-496.1 71.6051 -1203 20 19 26
-494.623 71.6715 -1204 19 18 25
-493.96 71.857 -1207 23 22 29
-492.473 71.9235 -1208 29 26 31
-490.982 71.9899 -1209 30 27 32
-489.892 72.1159 -1211 32 27 35
-489.601 72.3611 -1215 36 31 39
-488.093 72.4276 -1216 38 31 39
-486.581 72.4942 -1217 67 60 68
-484.27 72.4415 -1216 81 67 70
-482.357 72.4484 -1216 81 67 70
-480.05 72.3958 -1215 123 98 94
-477.745 72.3431 -1214 140 115 111
-475.443 72.2904 -1213 154 119 115
-473.534 72.2973 -1213 155 120 116
-472.79 72.483 -1216 147 112 108
-472.037 72.6688 -1219 129 94 90
-470.118 72.6757 -1219 111 79 77
-468.966 72.8018 -1221 95 63 61
-467.042 72.8087 -1221 69 49 47
-464.737 72.756 -1220 64 44 42
-462.814 72.7629 -1220 56 44 47
-460.513 72.7101 -1219 56 44 47
-458.591 72.717 -1219 52 40 43
-457.792 72.9028 -1222 57 45 48
-456.61 73.029 -1224 82 64 68
-456.908 73.3939 -1230 95 77 81
-456.077 73.5799 -1233 83 65 67
-453.762 73.5271 -1232 69 51 53
-452.183 73.5937 -1233 66 49 51
-450.967 73.7199 -1235 63 46 48
-445.113 73.7406 -1235 105 79 79
-443.52 73.8072 -1236 104 78 78
-21.4137 33.9213 -561 224 176 153
-20.4243 33.8009 -559 223 175 152
-19.4763 33.741 -558 224 174 153
-18.4982 33.6205 -556 223 173 152
-17.5583 33.5605 -555 224 171 153
-16.6516 33.561 -555 224 171 153
-15.7165 33.501 -554 223 169 151
-14.7846 33.4409 -553 221 167 149
-13.8559 33.3808 -552 224 167 150
-12.9305 33.3207 -551 224 167 150
-12.0084 33.2606 -550 221 164 147
-11.0894 33.2005 -549 219 162 145
-10.1737 33.1403 -548 210 157 141
-9.24436 33.0197 -546 208 155 139
-8.3368 32.9594 -545 205 151 131
-7.43248 32.8992 -544 201 147 127
-6.53142 32.839 -543 195 145 121
-5.6336 32.7787 -542 192 142 118
-4.73904 32.7185 -541 184 138 113
-3.8406 32.5977 -539 180 134 109
-2.95418 32.5373 -538 178 132 112
-2.07487 32.5375 -538 176 130 110
-1.19111 32.4166 -536 174 127 110
-0.31447 32.3562 -535 173 126 109
0.559958 32.3563 -535 172 125 108
1.43171 32.2959 -534 170 123 106
2.29588 32.175 -532 168 121 104
3.16542 32.175 -532 166 119 102
4.02737 32.1145 -531 169 123 101
4.89527 32.1145 -531 170 124 102
5.75232 32.054 -530 172 126 106
6.61858 32.0539 -530 173 127 107
7.48483 32.0538 -530 175 129 109
8.35108 32.0537 -530 178 132 112
9.23471 32.1141 -531 181 133 116
10.1216 32.1744 -532 181 133 116
11.0117 32.2347 -533 179 131 116
11.9497 32.416 -536 179 131 116
12.8736 32.5367 -538 178 130 113
13.8295 32.718 -541 176 128 111
14.8224 32.9596 -545 176 127 115
15.7708 33.0803 -547 175 126 114
16.7865 33.322 -551 172 123 113
17.7511 33.4426 -553 168 119 109
18.7223 33.5632 -555 165 116 104
19.7353 33.7443 -558 165 116 104
20.758 33.9254 -561 163 114 102
21.7906 34.1064 -564 160 111 99
22.7926 34.2269 -566 158 109 97
23.7593 34.287 -567 159 110 98
24.6856 34.2865 -567 158 109 97
25.6571 34.3465 -568 157 108 96
26.6318 34.4065 -569 156 109 96
27.6097 34.4664 -570 157 110 97
28.5408 34.4659 -570 161 114 103
29.4202 34.4049 -569 166 119 108
30.3495 34.4043 -569 170 121 112
31.2239 34.3432 -568 168 119 110
32.1516 34.3426 -568 164 117 106
33.0209 34.2815 -567 163 116 105
33.887 34.2204 -566 158 119 108
-521.332 69.1644 -1196 22 19 24
-518.592 69.0554 -1194 22 19 24
-521.484 69.6984 -1205 23 21 26
-520.891 69.8787 -1208 23 21 26
-518.14 69.7698 -1206 23 23 27
-516.68 69.8344 -1207 21 21 25
-515.642 69.957 -1209 22 22 26
-515.448 70.1952 -1213 24 24 28
-514.817 70.3757 -1216 24 24 28
-512.068 70.2667 -1214 21 21 25
-509.324 70.1578 -1212 20 20 24
-507.424 70.1645 -1212 20 20 24
-505.94 70.2292 -1213 22 22 26
-503.207 70.1202 -1211 21 21 25
-499.651 69.8953 -1207 20 19 26
-496.932 69.7863 -1205 20 19 26
-495.041 69.793 -1205 20 19 26
-493.558 69.8577 -1206 24 23 30
-492.072 69.9223 -1207 31 28 33
-490.583 69.987 -1208 32 29 34
-489.494 70.1096 -1210 37 32 40
-488.802 70.2902 -1213 39 34 42
-487.698 70.4129 -1215 39 32 40
-486.188 70.4776 -1216 62 55 63
-483.878 70.4264 -1215 88 72 76
-482.364 70.4911 -1216 94 78 82
-480.452 70.4979 -1216 136 107 104
-478.145 70.4466 -1215 154 125 122
-476.233 70.4533 -1215 161 123 120
-474.711 70.5181 -1216 162 124 121
-473.575 70.6408 -1218 159 120 116
-472.819 70.8215 -1221 144 105 101
-470.896 70.8283 -1221 123 90 86
-468.973 70.835 -1221 106 73 69
-467.049 70.8418 -1221 78 57 54
-464.744 70.7904 -1220 70 49 46
-462.821 70.7972 -1220 67 49 53
-460.142 70.6878 -1218 65 47 51
-458.974 70.8105 -1220 63 44 48
-458.174 70.9914 -1223 65 46 50
-456.99 71.1142 -1225 89 67 71
-457.286 71.4692 -1231 107 85 89
-455.713 71.5341 -1232 99 76 79
-453.769 71.5408 -1232 83 60 63
-451.823 71.5474 -1232 77 54 56
-450.243 71.6123 -1233 79 56 58
-449.023 71.7351 -1235 98 74 74
-447.071 71.7419 -1235 110 86 86
-444.399 71.6323 -1233 104 77 77
-442.809 71.6971 -1234 106 79 79
-441.215 71.7619 -1235 116 89 89
-439.263 71.7686 -1235 112 85 85
-437.309 71.7752 -1235 108 79 81
-435.708 71.84 -1236 100 71 73
-23.3712 33.1807 -564 225 176 154
-22.3704 33.0637 -562 225 176 154
-21.3761 32.9466 -560 224 175 153
-20.4248 32.8882 -559 223 174 152
-19.4419 32.7711 -557 223 171 152
-18.4987 32.7127 -556 223 171 152
-17.5587 32.6544 -555 220 171 152
-16.652 32.6548 -555 220 171 152
-15.7169 32.5964 -554 222 169 150
-14.7582 32.4791 -552 219 166 147
-13.8312 32.4207 -551 218 162 145
-12.9074 32.3622 -550 216 160 143
-12.0087 32.3625 -550 214 158 141
-11.0897 32.304 -549 212 156 139
-10.1555 32.1867 -547 203 151 135
-9.22771 32.0692 -545 202 150 134
-8.32176 32.0107 -544 199 146 124
-7.43273 32.0109 -544 194 141 119
-6.53164 31.9523 -543 187 137 114
-5.6338 31.8937 -542 185 135 112
-4.73922 31.835 -541 180 133 109
-3.84076 31.7175 -539 176 129 105
-2.95432 31.6588 -538 173 125 107
-2.075 31.6589 -538 173 125 107
-1.19122 31.5413 -536 172 125 108
-0.314553 31.4826 -535 173 126 109
0.558848 31.4238 -534 173 126 109
1.42899 31.365 -533 172 125 108
2.29586 31.3062 -532 169 124 106
3.16541 31.3062 -532 170 125 107
4.03497 31.3062 -532 174 128 106
4.90452 31.3062 -532 177 131 109
5.77408 31.3062 -532 178 132 112
6.64362 31.3061 -532 179 133 113
7.52729 31.3649 -533 181 135 114
8.41422 31.4236 -534 183 137 116
9.3044 31.4823 -535 184 136 118
10.2169 31.5999 -537 182 134 116
11.1565 31.7763 -540 180 132 116
12.106 31.9526 -543 178 130 114
13.0413 32.0701 -545 176 128 111
14.0087 32.2465 -548 176 128 111
14.9859 32.4227 -551 176 127 115
16.0017 32.6578 -555 175 126 114
17.0001 32.8341 -558 170 121 112
17.9761 32.9515 -560 166 117 108
18.9587 33.0689 -562 163 114 102
19.9478 33.1862 -564 162 113 101
20.9434 33.3035 -566 161 112 100
21.9455 33.4208 -568 158 109 97
22.9139 33.4793 -569 157 108 96
23.8435 33.4788 -569 158 109 97
24.7732 33.4784 -569 158 109 97
25.7479 33.5368 -570 158 109 97
26.7259 33.5951 -571 155 108 95
27.6587 33.5946 -571 160 113 100
28.5414 33.5353 -570 167 119 108
29.5241 33.5936 -571 172 124 113
30.4035 33.5342 -570 173 124 116
31.2795 33.4747 -569 172 123 115
32.2087 33.4741 -569 167 121 110
33.0798 33.4147 -568 165 119 108
-530.476 67.6736 -1204 18 15 18
-527.276 67.5116 -1201 20 17 22
-524.96 67.4619 -1200 21 18 23
-523.082 67.4685 -1200 22 19 24
-522.073 67.5875 -1202 23 20 25
-523.222 67.9877 -1209 23 23 27
-522.191 68.1069 -1211 23 23 27
-519.436 68.001 -1209 22 22 26
-518.399 68.1201 -1211 19 19 23
-516.502 68.1268 -1211 20 20 24
-516.305 68.3584 -1215 23 23 27
-515.247 68.4776 -1217 23 23 27
-512.496 68.3717 -1215 22 22 26
-510.171 68.322 -1214 22 22 26
-507.849 68.2724 -1213 23 23 27
-506.364 68.3353 -1214 23 23 27
-504.044 68.2856 -1213 22 22 26
-500.485 68.067 -1209 20 19 26
-497.763 67.961 -1207 19 18 25
-495.047 67.8549 -1205 21 20 27
-493.974 67.9741 -1207 25 24 31
-492.486 68.037 -1208 31 28 33
-490.589 68.0436 -1208 33 30 35
-489.096 68.1064 -1209 39 34 42
-488.405 68.282 -1212 39 34 42
-487.304 68.4013 -1214 46 39 47
-486.195 68.5205 -1216 59 52 60
-484.681 68.5835 -1217 93 76 80
-482.768 68.59 -1217 110 93 97
-480.853 68.5966 -1217 144 112 110
-478.939 68.6032 -1217 166 134 132
-477.808 68.7225 -1219 165 126 123
-475.889 68.7291 -1219 167 128 125
-474.359 68.792 -1220 169 127 123
-473.213 68.9114 -1222 158 116 112
-470.903 68.8615 -1221 136 102 96
-469.363 68.9245 -1222 117 83 77
-467.056 68.8747 -1221 89 65 61
-464.37 68.7684 -1219 80 56 52
-462.448 68.7749 -1219 80 55 61
-460.526 68.7815 -1219 80 55 61
-459.357 68.9008 -1221 78 52 58
-458.555 69.0766 -1224 78 52 58
-457.37 69.196 -1226 99 73 77
-456.921 69.4283 -1230 121 95 99
-455.35 69.4913 -1231 117 89 93
-453.039 69.4414 -1230 102 74 78
-451.097 69.448 -1230 98 67 70
-449.884 69.5674 -1232 100 69 72
-448.302 69.6304 -1233 114 88 88
-446.354 69.6369 -1233 118 92 92
-444.045 69.5869 -1232 117 89 89
-442.457 69.6499 -1233 113 85 85
-440.865 69.7129 -1234 117 91 91
-438.914 69.7194 -1234 119 93 93
-436.962 69.7259 -1234 118 87 90
-435.362 69.7889 -1235 106 75 78
-24.336 32.3165 -565 224 176 153
-23.3718 32.2599 -564 226 176 153
-22.371 32.1461 -562 225 175 152
-21.3767 32.0322 -560 225 175 154
-20.4254 31.9755 -559 224 174 153
-19.4424 31.8616 -557 224 171 153
-18.4992 31.8049 -556 224 171 153
-17.5592 31.7481 -555 216 170 150
-16.6224 31.6914 -554 216 170 150
-15.6889 31.6346 -553 221 168 148
-14.7586 31.5777 -552 219 166 146
-13.8316 31.5209 -551 214 160 142
-12.9078 31.4641 -550 209 155 137
-12.009 31.4644 -550 207 153 135
-11.0699 31.3503 -548 205 151 133
-10.1372 31.2362 -546 195 144 128
-9.22799 31.1793 -545 194 143 127
-8.32202 31.1223 -544 192 140 116
-7.43296 31.1225 -544 186 134 110
-6.53185 31.0656 -543 181 131 108
-5.634 31.0085 -542 180 130 107
-4.73063 30.8943 -540 176 128 105
-3.84092 30.8373 -539 171 123 100
-2.95446 30.7802 -538 169 121 104
-2.07126 30.7231 -537 171 123 106
-1.19132 30.666 -536 173 126 109
-0.314634 30.6089 -535 175 128 111
0.558786 30.5517 -534 175 128 111
1.42894 30.4946 -533 172 125 108
2.30015 30.4946 -533 170 126 108
3.17136 30.4946 -533 174 130 112
4.04257 30.4946 -533 175 129 107
4.92299 30.5518 -534 178 132 110
5.80669 30.609 -535 179 133 113
6.69364 30.6661 -536 179 133 113
7.58387 30.7233 -537 181 135 113
8.49311 30.8376 -539 184 138 116
9.40888 30.9519 -541 184 136 117
10.3312 31.0662 -543 182 134 115
11.26 31.1805 -545 179 131 114
12.2176 31.3519 -548 177 129 112
13.1851 31.5234 -551 175 127 110
14.1623 31.6948 -554 174 126 109
15.1493 31.8662 -557 174 125 113
16.1461 32.0376 -560 171 122 110
17.1527 32.2089 -563 167 118 109
18.137 32.3231 -565 165 116 107
19.1277 32.4372 -567 160 111 99
20.0896 32.4941 -568 161 112 100
21.0918 32.6081 -570 160 111 99
22.0618 32.6649 -571 159 110 98
22.9948 32.6646 -571 157 108 96
23.9278 32.6641 -571 157 108 96
24.8607 32.6637 -571 158 109 97
25.8387 32.7205 -572 160 111 99
26.82 32.7772 -573 158 111 98
27.7076 32.7195 -572 164 117 104
28.642 32.719 -572 171 122 112
29.5764 32.7185 -572 175 126 116
30.4574 32.6607 -571 176 128 121
31.335 32.6029 -570 176 128 121
32.2094 32.5452 -569 172 127 116
-528.72 65.5221 -1200 20 17 21
-526.843 65.5284 -1200 20 17 22
-525.404 65.5895 -1201 20 17 22
-523.961 65.6505 -1202 22 19 25
-522.08 65.6569 -1202 23 20 26
-522.795 65.9911 -1208 23 21 26
-521.767 66.1067 -1210 25 23 28
-519.013 66.0039 -1208 23 23 26
-517.977 66.1196 -1210 19 19 22
-517.362 66.29 -1213 18 22 25
-516.736 66.4604 -1216 20 24 27
-515.254 66.5216 -1217 21 23 28
-512.925 66.4734 -1216 24 26 31
-510.598 66.4251 -1215 30 27 32
-508.275 66.3769 -1214 28 25 30
-506.371 66.3834 -1214 25 23 27
-504.466 66.3898 -1214 26 24 28
-501.734 66.2868 -1212 22 20 25
-498.595 66.1292 -1209 23 21 26
-495.465 65.9714 -1206 25 24 30
-494.39 66.0872 -1208 27 26 32
-492.493 66.0936 -1208 30 30 34
-490.596 66.1 -1208 29 29 33
-488.698 66.1064 -1208 40 33 40
-488.009 66.277 -1211 47 40 47
-486.909 66.3928 -1213 51 41 48
-486.201 66.5634 -1216 67 57 64
-485.086 66.6793 -1218 90 72 75
-483.568 66.7405 -1219 125 107 110
-481.65 66.7468 -1219 152 122 119
-479.732 66.7533 -1219 160 130 127
-478.99 66.924 -1222 170 132 129
-476.677 66.8756 -1221 167 129 126
-475.532 66.9915 -1223 171 131 126
-473.219 66.9432 -1222 160 120 115
-471.295 66.9495 -1222 150 111 104
-469.754 67.0107 -1223 137 98 91
-467.445 66.9623 -1222 109 75 69
-465.138 66.9139 -1221 104 70 64
-462.834 66.8654 -1220 103 71 72
-461.288 66.9266 -1221 104 72 73
-459.739 66.9877 -1222 100 67 69
-458.187 67.0489 -1223 92 59 61
-456.63 67.1101 -1224 104 72 75
-455.813 67.2809 -1227 130 98 101
-454.247 67.3421 -1228 137 104 107
-451.94 67.2936 -1227 121 88 91
-450.736 67.4096 -1229 113 80 78
-449.526 67.5257 -1231 112 79 77
-447.945 67.5869 -1232 130 97 94
-445.998 67.5932 -1232 136 103 100
-444.052 67.5996 -1232 130 95 92
-442.463 67.6607 -1233 125 90 87
-440.514 67.667 -1233 124 95 93
-438.564 67.6733 -1233 124 95 93
-436.26 67.6248 -1232 118 87 89
-435.016 67.7408 -1234 109 78 80
-433.765 67.8569 -1236 89 67 71
-431.809 67.8632 -1236 77 55 59
-25.304 31.449 -566 220 172 150
-24.3366 31.394 -565 222 174 152
-23.3309 31.2835 -563 224 175 153
-22.3317 31.1729 -561 223 174 152
-21.3772 31.1178 -560 220 171 151
-20.3893 31.0072 -558 221 172 152
-19.408 30.8965 -556 222 172 153
-18.4996 30.897 -556 218 168 149
-17.5596 30.8419 -555 215 169 149
-16.6229 30.7867 -554 213 167 147
-15.6893 30.7315 -553 215 165 143
-14.759 30.6763 -552 212 162 140
-13.8068 30.5655 -550 208 158 137
-12.9081 30.5659 -550 203 153 132
-11.9875 30.5106 -549 199 147 128
-11.05 30.3998 -547 195 143 124
-10.1375 30.3445 -546 190 141 122
-9.22825 30.2892 -545 187 138 119
-8.32226 30.2339 -544 182 134 112
-7.43319 30.2341 -544 178 130 108
-6.53206 30.1788 -543 175 127 104
-5.63419 30.1234 -542 172 124 101
-4.73081 30.0124 -540 169 122 99
-3.84107 29.957 -539 167 120 97
-2.96009 29.9571 -539 168 120 104
-2.07523 29.9017 -538 170 122 106
-1.19364 29.8462 -537 171 126 108
-0.314713 29.7351 -535 174 129 111
0.559772 29.7352 -535 176 129 113
1.43158 29.6797 -534 175 128 112
2.30444 29.6797 -534 174 128 112
3.18325 29.7353 -535 176 130 114
4.06533 29.7909 -536 177 132 109
4.95068 29.8464 -537 179 134 111
5.85015 29.9575 -539 181 135 114
6.74367 30.0131 -540 181 135 114
7.65457 30.1241 -542 180 134 113
8.572 30.2352 -544 182 136 115
9.49596 30.3463 -546 183 134 116
10.4074 30.4017 -547 181 132 114
11.3635 30.5683 -550 178 130 114
12.3293 30.7349 -553 178 130 114
13.3049 30.9014 -556 175 127 113
14.2903 31.0679 -559 172 124 110
15.2855 31.2344 -562 170 121 111
16.2905 31.4009 -565 168 119 109
17.2748 31.5118 -567 165 116 107
18.2657 31.6227 -569 163 114 105
19.2293 31.6779 -570 159 111 96
20.1961 31.7332 -571 157 109 94
21.1662 31.7884 -572 155 107 93
22.1395 31.8436 -573 155 107 93
23.0757 31.8432 -573 155 107 93
24.0539 31.8984 -574 155 107 93
24.9482 31.8424 -573 156 109 96
25.9295 31.8975 -574 160 113 100
26.8673 31.8971 -574 165 116 107
27.805 31.8966 -574 174 125 116
28.7427 31.8961 -574 180 131 123
29.6286 31.84 -573 179 130 122
30.5113 31.7839 -572 174 129 124
31.3906 31.7278 -571 176 131 126
-547.721 64.2401 -1213 22 19 20
-545.827 64.2465 -1213 24 21 22
-542.139 64.0409 -1209 24 22 20
-539.356 63.9412 -1207 23 21 19
-537.47 63.9474 -1207 20 20 24
-533.809 63.7418 -1203 19 19 23
-531.044 63.6421 -1201 22 19 24
-530.929 63.8602 -1205 23 20 25
-529.923 63.9725 -1207 23 19 24
-528.035 63.9788 -1207 24 20 25
-526.146 63.985 -1207 25 22 29
-524.258 63.9912 -1207 25 22 29
-524.533 64.2626 -1212 25 22 27
-522.636 64.2689 -1212 26 23 28
-519.879 64.1691 -1210 24 24 26
-518.412 64.2284 -1211 22 22 24
-517.368 64.3407 -1213 17 24 27
-515.893 64.4001 -1214 19 26 29
-513.99 64.4063 -1214 23 26 32
-511.666 64.3595 -1213 26 29 35
-509.344 64.3127 -1212 35 31 36
-507.444 64.319 -1212 34 30 35
-506.377 64.4314 -1214 27 24 27
-504.473 64.4376 -1214 30 27 30
-501.74 64.3377 -1212 30 27 30
-499.013 64.2378 -1210 32 29 32
-496.292 64.1378 -1208 30 30 34
-494.805 64.1971 -1209 29 29 33
-492.907 64.2033 -1209 30 32 36
-490.602 64.1564 -1208 31 33 37
-489.513 64.2689 -1210 41 33 39
-487.612 64.275 -1210 47 39 45
-486.513 64.3875 -1212 56 44 49
-486.208 64.6062 -1216 73 61 66
-485.889 64.825 -1220 97 76 79
-484.367 64.8843 -1221 129 108 111
-482.447 64.8906 -1221 153 123 120
-480.526 64.8968 -1221 162 132 129
-479.389 65.0093 -1223 161 126 122
-477.854 65.0687 -1224 164 129 125
-475.538 65.0218 -1223 173 134 129
-473.226 64.9748 -1222 163 124 119
-471.687 65.0342 -1223 159 115 107
-470.144 65.0936 -1224 150 106 98
-467.833 65.0467 -1223 131 87 79
-465.525 64.9996 -1222 128 84 76
-463.22 64.9526 -1221 128 89 86
-461.672 65.012 -1222 128 89 86
-460.122 65.0714 -1223 123 84 83
-458.193 65.0776 -1223 117 78 77
-456.637 65.1369 -1224 125 87 89
-455.82 65.3028 -1227 146 108 110
-453.883 65.3089 -1227 151 113 115
-451.946 65.3151 -1227 139 101 103
-450.376 65.3745 -1228 128 93 85
-448.802 65.4339 -1229 128 93 85
-446.86 65.44 -1229 146 107 100
-445.281 65.4994 -1230 149 110 103
-443.697 65.5588 -1231 145 104 97
-442.111 65.6182 -1232 139 98 91
-439.448 65.5178 -1230 132 101 96
-437.148 65.4707 -1229 129 98 93
-435.204 65.4767 -1229 118 87 88
-434.317 65.6426 -1232 112 81 82
-433.07 65.7553 -1234 98 74 77
-431.117 65.7615 -1234 82 58 61
-26.2753 30.5782 -567 219 173 151
-25.3046 30.5248 -566 221 173 152
-24.3371 30.4714 -565 220 172 151
-23.3315 30.3641 -563 220 172 151
-22.3322 30.2568 -561 219 171 150
-21.3777 30.2033 -560 217 169 150
-20.3898 30.096 -558 216 168 149
-19.4084 29.9886 -556 215 167 148
-18.4668 29.9351 -555 211 163 144
-17.5284 29.8816 -554 207 161 141
-16.5933 29.828 -553 205 159 139
-15.6897 29.8284 -553 203 155 132
-14.7326 29.7209 -551 198 150 127
-13.8072 29.6673 -550 191 145 121
-12.885 29.6137 -549 189 143 119
-11.966 29.5601 -548 188 140 119
-11.0503 29.5065 -547 184 136 115
-10.1378 29.4528 -546 183 135 114
-9.22851 29.3991 -545 180 132 111
-8.3225 29.3454 -544 172 128 108
-7.41975 29.2917 -543 168 124 104
-6.53227 29.2919 -543 167 121 97
-5.62398 29.1842 -541 165 119 95
-4.73097 29.1304 -540 165 119 97
-3.84835 29.1306 -540 165 119 97
-2.96022 29.0768 -539 167 120 105
-2.07534 29.023 -538 169 122 107
-1.19373 28.9691 -537 171 127 109
-0.315966 28.9692 -537 174 130 112
0.560759 28.9153 -536 177 130 115
1.4369 28.9154 -536 178 131 116
2.31305 28.9154 -536 178 131 116
3.20109 29.0233 -538 178 131 116
4.09568 29.1312 -540 179 135 111
4.98759 29.1851 -541 179 135 111
5.89361 29.293 -543 182 136 114
6.80617 29.4008 -545 182 136 114
7.71114 29.4547 -546 182 136 116
8.63513 29.5625 -548 182 136 116
9.56565 29.6703 -550 184 133 117
10.5027 29.778 -552 182 131 115
11.4463 29.8858 -554 179 131 116
12.4187 30.0474 -557 176 128 113
13.4008 30.2091 -560 171 122 112
14.3928 30.3707 -563 166 117 107
15.3946 30.5323 -566 163 114 105
16.3773 30.64 -568 159 110 101
17.397 30.8015 -571 156 107 97
18.3623 30.8552 -572 154 105 95
19.3308 30.9088 -573 154 106 89
20.3025 30.9625 -574 154 106 89
21.2775 31.0161 -575 153 105 90
22.2558 31.0697 -576 152 104 89
23.197 31.0693 -576 153 106 91
24.1381 31.0689 -576 155 108 93
25.0792 31.0685 -576 159 114 101
26.0203 31.068 -576 167 122 109
26.9614 31.0676 -576 174 125 118
27.9024 31.0671 -576 178 129 122
28.7933 31.0127 -575 180 132 127
29.6809 30.9583 -574 180 132 127
30.5651 30.9038 -573 174 130 128
-549.082 62.4478 -1216 23 22 23
-547.183 62.4539 -1216 24 23 24
-543.49 62.2546 -1212 24 22 21
-541.597 62.2607 -1212 23 21 20
-539.703 62.2668 -1212 25 22 26
-537.809 62.2729 -1212 27 24 28
-535.914 62.279 -1212 23 21 26
-534.46 62.3365 -1213 22 20 25
-533.002 62.394 -1214 21 18 23
-531.103 62.4001 -1214 21 18 23
-528.332 62.3034 -1212 24 21 27
-526.87 62.3609 -1213 25 22 28
-525.404 62.4184 -1214 26 22 26
-523.504 62.4245 -1214 28 24 28
-520.744 62.3278 -1212 27 24 25
-518.418 62.2824 -1211 27 24 25
-516.521 62.2885 -1211 23 25 27
-515.049 62.346 -1212 23 25 27
-513.15 62.3521 -1212 24 26 31
-511.25 62.3581 -1212 27 29 34
-509.35 62.3642 -1212 35 31 37
-507.45 62.3703 -1212 36 32 38
-505.966 62.4278 -1213 31 27 29
-504.479 62.4854 -1214 34 30 32
-502.16 62.44 -1213 36 32 34
-499.844 62.3946 -1212 41 37 39
-496.709 62.2462 -1209 40 37 41
-494.811 62.2522 -1209 37 34 38
-492.913 62.2582 -1209 37 35 40
-491.42 62.3157 -1210 36 34 39
-489.924 62.3733 -1211 45 37 44
-487.618 62.3278 -1210 53 45 52
-486.921 62.4884 -1213 64 52 57
-486.614 62.7004 -1217 77 65 70
-486.293 62.9126 -1221 97 76 79
-484.77 62.9702 -1222 128 107 110
-482.848 62.9762 -1222 152 120 117
-481.319 63.0339 -1223 158 126 123
-479.395 63.0399 -1223 166 129 125
-477.86 63.0975 -1224 168 131 127
-475.545 63.052 -1223 174 134 129
-473.619 63.058 -1223 166 126 121
-472.079 63.1156 -1224 165 121 113
-470.15 63.1216 -1224 161 117 109
-467.457 63.0245 -1222 145 102 95
-465.531 63.0305 -1222 142 99 92
-463.984 63.0881 -1223 142 102 96
-462.434 63.1457 -1224 142 102 96
-460.504 63.1517 -1224 140 100 96
-458.574 63.1577 -1224 139 99 95
-457.389 63.2669 -1226 143 105 103
-455.454 63.2729 -1226 155 117 115
-453.519 63.2789 -1226 158 120 118
-451.584 63.2849 -1226 153 115 113
-449.648 63.2908 -1226 150 113 104
-448.077 63.3484 -1227 148 111 102
-446.139 63.3544 -1227 154 115 107
-444.201 63.3604 -1227 152 113 105
-443.343 63.5212 -1230 152 112 105
-440.681 63.4239 -1228 148 108 101
-438.025 63.3265 -1226 139 107 104
-435.731 63.2808 -1225 134 102 99
-434.148 63.3383 -1226 118 91 91
-432.913 63.4476 -1228 115 88 88
-431.321 63.5051 -1229 100 78 80
-430.075 63.6144 -1231 89 67 69
-27.2978 29.7563 -569 217 171 149
-26.2759 29.6523 -567 216 170 148
-25.2605 29.5483 -565 217 169 148
-24.3377 29.5488 -565 215 167 146
-23.332 29.4448 -563 215 167 146
-22.3725 29.3929 -562 214 166 145
-21.3782 29.2889 -560 211 163 144
-20.3903 29.1847 -558 209 161 142
-19.4438 29.1329 -557 207 159 140
-18.5005 29.081 -556 204 156 137
-17.5605 29.0291 -555 201 155 135
-16.5937 28.9249 -553 196 150 130
-15.6617 28.873 -552 193 145 123
-14.733 28.821 -551 188 140 118
-13.7824 28.7167 -549 182 136 114
-12.8853 28.7171 -549 182 136 114
-11.9663 28.6651 -548 181 133 114
-11.0303 28.5607 -546 176 128 109
-10.1195 28.5087 -545 173 125 105
-9.22876 28.509 -545 169 121 101
-8.32274 28.4569 -544 163 118 98
-7.43362 28.4571 -544 161 116 96
-6.53246 28.405 -543 161 115 91
-5.63455 28.3529 -542 162 116 92
-4.74866 28.353 -542 163 117 94
-3.85562 28.3009 -541 164 118 95
-2.97133 28.301 -541 169 122 106
-2.08317 28.2488 -540 171 124 108
-1.20049 28.2489 -540 173 129 110
-0.317217 28.1967 -539 175 131 112
0.56384 28.1968 -539 178 131 115
1.4449 28.1968 -539 180 133 117
2.33029 28.2491 -540 180 133 118
3.22489 28.3538 -542 179 132 117
4.12603 28.4584 -544 181 136 114
5.02449 28.5107 -545 182 137 115
5.93708 28.6153 -547 183 137 116
6.8437 28.6675 -548 183 137 116
7.75359 28.7198 -549 183 137 116
8.6825 28.8243 -551 181 135 114
9.61794 28.9288 -553 182 133 116
10.5599 29.0333 -555 181 132 115
11.5291 29.1901 -558 177 129 115
12.508 29.3469 -561 173 125 111
13.4968 29.5037 -564 168 119 109
14.5209 29.7127 -568 164 115 105
15.5036 29.8171 -570 160 111 102
16.5217 29.9738 -573 157 108 99
17.4887 30.0259 -574 153 104 94
18.4588 30.0779 -575 151 102 92
19.4323 30.1299 -576 153 105 89
20.409 30.1819 -577 155 107 91
21.3889 30.2339 -578 154 106 92
22.3334 30.2335 -578 156 108 94
23.3182 30.2855 -579 159 112 99
24.2223 30.2328 -578 165 118 105
25.1667 30.2324 -578 171 126 114
26.1111 30.232 -578 179 134 122
27.0555 30.2315 -578 184 135 129
27.9513 30.1788 -577 182 133 127
28.8438 30.126 -576 181 134 130
29.7848 30.1255 -576 182 135 131
30.6723 30.0727 -575 176 133 131
-550.894 60.6955 -1220 24 24 26
-548.539 60.6517 -1219 24 24 26
-542.599 60.2098 -1210 26 23 24
-540.262 60.1659 -1209 27 24 25
-538.373 60.1719 -1209 29 25 28
-536.928 60.2275 -1210 30 26 29
-535.92 60.333 -1212 26 26 30
-534.466 60.3887 -1213 23 23 27
-533.008 60.4444 -1214 21 18 23
-531.547 60.5001 -1215 20 17 22
-528.774 60.4064 -1213 25 21 26
-526.442 60.3626 -1212 27 23 28
-524.545 60.3685 -1212 32 25 29
-522.648 60.3744 -1212 35 28 32
-520.32 60.3305 -1211 38 32 31
-518.424 60.3364 -1211 41 35 34
-516.954 60.3921 -1212 37 34 35
-515.055 60.398 -1212 32 29 30
-513.156 60.4039 -1212 28 28 32
-511.678 60.4596 -1213 30 30 34
-509.776 60.4655 -1213 38 33 41
-507.874 60.4714 -1213 41 36 44
-505.972 60.4773 -1213 39 33 34
-504.485 60.5331 -1214 39 33 34
-502.58 60.539 -1214 39 33 34
-500.263 60.495 -1213 46 40 41
-496.715 60.3013 -1209 50 43 47
-495.227 60.3571 -1210 49 42 46
-493.327 60.3629 -1210 45 41 46
-491.426 60.3687 -1210 39 35 40
-489.93 60.4245 -1211 39 32 40
-488.027 60.4303 -1211 52 45 53
-487.328 60.5859 -1214 68 57 62
-487.02 60.7914 -1218 78 67 72
-486.299 60.947 -1221 98 77 80
-484.776 61.0028 -1222 129 108 111
-483.249 61.0586 -1223 159 125 121
-481.719 61.1144 -1224 166 132 128
-479.793 61.1203 -1224 167 129 124
-478.257 61.1761 -1225 168 130 125
-475.939 61.132 -1224 173 131 127
-473.625 61.088 -1223 171 129 125
-472.084 61.1438 -1224 175 131 123
-469.772 61.0996 -1223 174 130 122
-467.845 61.1055 -1223 158 117 110
-466.299 61.1613 -1224 150 109 102
-464.749 61.2171 -1225 153 112 103
-463.196 61.2729 -1226 154 113 104
-461.262 61.2787 -1226 155 114 107
-459.703 61.3345 -1227 156 115 108
-457.768 61.3404 -1227 158 121 113
-455.46 61.2962 -1226 163 126 118
-453.525 61.302 -1226 165 128 120
-451.222 61.2578 -1225 162 125 117
-449.287 61.2636 -1225 162 123 114
-447.718 61.3194 -1226 160 121 112
-445.781 61.3251 -1226 160 121 112
-443.482 61.2809 -1225 156 117 108
-441.547 61.2867 -1225 161 122 115
-438.893 61.1923 -1223 163 124 117
-436.245 61.098 -1221 157 125 123
-433.958 61.0536 -1220 154 122 120
-432.383 61.1094 -1221 156 132 130
-430.804 61.1652 -1222 157 133 131
-429.221 61.2209 -1223 159 139 139
-428.683 61.4268 -1227 161 141 141
-427.436 61.5327 -1229 178 161 163
-28.2772 28.8772 -570 218 172 148
-27.3464 28.8778 -570 216 170 148
-26.2765 28.7264 -567 214 168 146
-25.261 28.6256 -565 215 167 146
-24.3382 28.6261 -565 214 166 145
-23.3325 28.5253 -563 213 165 144
-22.373 28.4751 -562 211 163 142
-21.3786 28.3743 -560 207 159 140
-20.4273 28.3241 -559 204 156 137
-19.4442 28.2232 -557 202 154 135
-18.5009 28.1729 -556 198 150 131
-17.5609 28.1227 -555 191 145 125
-16.594 28.0217 -553 186 140 120
-15.6621 27.9714 -552 183 135 114
-14.7066 27.8704 -550 180 132 111
-13.7828 27.8201 -549 176 130 110
-12.8856 27.8204 -549 174 128 108
-11.9666 27.77 -548 171 124 107
-11.0306 27.6689 -546 165 118 101
-10.1383 27.6692 -546 164 116 97
-9.229 27.6188 -545 162 114 95
-8.33826 27.619 -545 159 113 93
-7.4475 27.6192 -545 158 112 92
-6.55672 27.6194 -545 159 113 89
-5.65552 27.5689 -544 161 115 91
-4.75757 27.5184 -543 164 118 94
-3.87001 27.5185 -543 166 120 96
-2.98244 27.5187 -543 172 125 108
-2.09485 27.5188 -543 173 126 109
-1.20503 27.4682 -542 174 130 110
-0.319056 27.4683 -542 176 132 112
0.566923 27.4683 -542 179 132 115
1.45559 27.5191 -543 180 133 116
2.35184 27.6205 -545 181 134 119
3.24868 27.6711 -546 180 133 118
4.1488 27.7218 -547 177 131 111
5.05218 27.7725 -548 178 132 112
5.95883 27.8231 -549 179 133 113
6.86874 27.8738 -550 179 133 113
7.79604 27.975 -552 180 134 112
8.72988 28.0763 -554 179 133 111
9.67024 28.1776 -556 177 129 112
10.6362 28.3295 -559 175 127 110
11.6325 28.5321 -563 173 124 112
12.642 28.7346 -567 169 120 108
13.6166 28.8358 -569 165 116 106
14.6233 28.9876 -572 163 114 104
15.6398 29.1394 -575 160 111 102
16.6373 29.2406 -577 157 108 99
17.6108 29.291 -578 156 107 97
18.5554 29.2907 -578 154 105 95
19.5001 29.2904 -578 156 108 93
20.48 29.3408 -579 160 112 97
21.4632 29.3912 -580 160 113 100
22.411 29.3908 -580 163 116 103
23.3588 29.3905 -580 169 122 111
24.2646 29.3394 -579 176 129 118
25.2107 29.339 -579 180 135 124
26.1567 29.3386 -579 187 142 131
27.1027 29.3382 -579 188 140 135
28.0002 29.2871 -578 185 137 132
28.9445 29.2866 -578 183 137 134
29.837 29.2355 -577 184 138 135
-551.803 58.834 -1222 25 25 28
-548.095 58.6471 -1218 25 25 28
-543.054 58.3158 -1211 28 25 26
-540.268 58.2252 -1209 29 26 27
-539.27 58.3273 -1211 33 26 30
-537.821 58.3812 -1212 32 25 29
-536.811 58.4833 -1214 29 27 31
-534.472 58.4409 -1213 28 26 30
-533.453 58.543 -1215 29 25 28
-531.553 58.5487 -1215 31 27 30
-528.78 58.458 -1213 37 30 34
-526.448 58.4156 -1212 37 30 34
-524.984 58.4695 -1213 38 30 32
-522.654 58.427 -1212 41 33 35
-520.756 58.4328 -1212 54 45 44
-518.858 58.4385 -1212 56 47 46
-516.959 58.4442 -1212 52 44 45
-515.486 58.4982 -1213 43 35 36
-512.738 58.4074 -1211 33 30 33
-511.262 58.4614 -1212 34 31 34
-509.362 58.4671 -1212 42 36 42
-507.461 58.4728 -1212 48 42 48
-505.561 58.4785 -1212 51 43 45
-504.075 58.5324 -1213 48 40 42
-502.172 58.5381 -1213 45 37 38
-500.268 58.5438 -1213 48 40 41
-497.132 58.4047 -1210 53 45 49
-496.051 58.5069 -1212 56 48 52
-494.148 58.5126 -1212 56 48 53
-492.244 58.5183 -1212 49 41 46
-490.34 58.5239 -1212 48 40 47
-488.436 58.5296 -1212 56 48 55
-487.334 58.6319 -1214 75 63 68
-487.025 58.8307 -1218 87 75 80
-486.305 58.9814 -1221 108 86 88
-485.179 59.0837 -1223 132 110 112
-483.65 59.1377 -1224 159 125 121
-482.118 59.1917 -1225 169 135 131
-480.19 59.1974 -1225 172 134 128
-478.262 59.2031 -1225 171 133 127
-475.945 59.1605 -1224 175 133 128
-473.631 59.1178 -1223 175 133 128
-472.09 59.1719 -1224 177 133 125
-470.546 59.2258 -1225 174 130 122
-468.999 59.2798 -1226 163 120 113
-467.067 59.2855 -1226 157 114 107
-465.514 59.3395 -1227 158 116 105
-463.579 59.3452 -1227 162 120 109
-462.021 59.3992 -1228 167 125 115
-460.084 59.4049 -1228 170 128 118
-457.773 59.3621 -1227 170 132 122
-455.837 59.3678 -1227 173 135 125
-453.531 59.3251 -1226 175 137 127
-451.227 59.2823 -1225 174 136 126
-449.293 59.2879 -1225 171 131 122
-447.724 59.3419 -1226 172 132 123
-445.423 59.2991 -1225 169 130 121
-442.402 59.1594 -1222 168 129 120
-439.75 59.0682 -1220 179 140 133
-436.386 58.88 -1216 188 149 142
-427.291 59.2522 -1223 202 180 181
-426.399 59.4031 -1226 237 219 220
-424.111 59.3601 -1225 255 245 246
-30.2979 28.0923 -573 214 170 146
-29.2598 27.9949 -571 217 171 148
-28.2778 27.9464 -570 216 170 147
-27.299 27.8979 -569 214 168 147
-26.277 27.8004 -567 214 168 147
-25.3063 27.7519 -566 215 167 147
-24.3387 27.7034 -565 212 164 144
-23.333 27.6059 -563 209 161 141
-22.3735 27.5573 -562 205 157 137
-21.3791 27.4597 -560 202 154 135
-20.3912 27.3621 -558 199 151 132
-19.4446 27.3134 -557 196 148 130
-18.5013 27.2648 -556 191 143 125
-17.5613 27.2162 -555 182 135 117
-16.6244 27.1675 -554 177 130 112
-15.6624 27.0698 -552 176 128 109
-14.707 26.972 -550 174 126 107
-13.7831 26.9233 -549 169 122 105
-12.8859 26.9236 -549 167 120 103
-11.9669 26.8749 -548 166 119 104
-11.0309 26.7771 -546 162 115 100
-10.1385 26.7773 -546 162 114 96
-9.24617 26.7776 -546 161 113 95
-8.35378 26.7778 -546 160 113 95
-7.46137 26.778 -546 159 112 94
-6.56893 26.7782 -546 159 113 90
-5.66608 26.7293 -545 162 116 93
-4.77525 26.7295 -545 166 120 97
-3.8844 26.7296 -545 170 124 101
-2.99354 26.7297 -545 174 127 109
-2.10267 26.7298 -545 174 127 109
-1.21178 26.7299 -545 174 130 110
-0.321482 26.7791 -546 176 132 112
0.571052 26.7791 -546 178 131 114
1.46627 26.8282 -547 179 132 115
2.36476 26.8773 -548 180 133 117
3.26653 26.9263 -549 180 133 117
4.16398 26.9263 -549 175 128 110
5.07065 26.9754 -550 175 128 110
5.99143 27.0734 -552 175 127 109
6.91876 27.1715 -554 175 127 109
7.85262 27.2695 -556 177 131 110
8.80876 27.4165 -559 178 132 111
9.7747 27.5636 -562 175 127 111
10.7504 27.7106 -565 171 123 107
11.7566 27.9066 -569 171 122 110
12.7536 28.0536 -572 166 117 105
13.7364 28.1515 -574 163 114 104
