ply
format ascii 1.0
comment Created by Open3D
element vertex 1466
property double x
property double y
property double z
property uchar red
property uchar green
property uchar blue
end_header
-486.871 -684.052 -1013 20 19 27
-484.829 -683.415 -1012 18 17 25
-483.268 -683.454 -1012 18 17 25
-481.707 -683.493 -1012 19 18 25
-479.671 -682.855 -1011 21 20 27
-477.165 -681.542 -1009 22 21 27
-474.665 -680.229 -1007 23 22 28
-472.64 -679.591 -1006 21 20 26
-470.619 -678.954 -1005 21 20 26
-468.6 -678.315 -1004 21 21 25
-466.584 -677.677 -1003 22 22 26
-465.499 -678.39 -1004 23 23 27
-464.872 -679.778 -1006 20 20 24
-463.777 -680.491 -1007 17 17 21
-462.68 -681.204 -1008 16 16 20
-461.58 -681.917 -1009 15 15 19
-460.02 -681.953 -1009 16 16 20
-457.097 -679.963 -1006 20 19 25
-454.182 -677.971 -1003 22 21 27
-451.277 -675.979 -1000 22 22 26
-447.931 -673.312 -996 21 21 25
-445.045 -671.319 -993 21 20 26
-443.062 -670.679 -992 22 21 27
-441.082 -670.038 -991 24 24 28
-438.661 -668.721 -989 24 24 28
-436.688 -668.08 -988 24 24 28
-434.717 -667.439 -987 26 26 30
-432.75 -666.797 -986 30 30 34
-430.785 -666.156 -985 30 30 34
-428.824 -665.514 -984 31 30 36
-426.864 -664.872 -983 36 35 41
-425.341 -664.906 -983 36 35 42
-423.818 -664.94 -983 35 34 41
-422.723 -665.651 -984 34 33 40
-422.054 -667.038 -986 33 32 39
-421.378 -668.425 -988 32 32 41
-421.121 -670.489 -991 32 32 41
-420.854 -672.552 -994 31 33 40
-420.999 -675.293 -998 32 34 41
-420.291 -676.68 -1000 31 33 40
-420.415 -679.421 -1004 33 35 42
-420.108 -681.485 -1007 33 35 42
-418.961 -682.196 -1008 32 34 41
-418.224 -683.583 -1010 32 34 41
-417.068 -684.294 -1011 32 34 41
-415.498 -684.327 -1011 32 34 41
-413.928 -684.361 -1011 31 33 40
-412.766 -685.072 -1012 29 31 38
-412.006 -686.459 -1014 28 30 37
-411.24 -687.846 -1016 26 28 35
-410.467 -689.233 -1018 27 29 36
-409.689 -690.621 -1020 30 32 39
-408.503 -691.331 -1021 31 33 40
-407.713 -692.719 -1023 30 32 39
-406.519 -693.429 -1024 29 31 38
-404.927 -693.462 -1024 29 31 39
-403.728 -694.172 -1025 28 30 38
-402.918 -695.559 -1027 27 29 36
-401.711 -696.269 -1028 30 32 39
-400.89 -697.656 -1030 31 33 40
-400.063 -699.044 -1032 29 31 38
-399.229 -700.431 -1034 26 27 37
-398.388 -701.819 -1036 27 28 38
-396.775 -701.851 -1036 28 29 39
-395.544 -702.561 -1037 29 30 40
-394.309 -703.271 -1038 28 29 39
-392.692 -703.303 -1038 25 26 36
-391.452 -704.012 -1039 24 25 35
-390.584 -705.4 -1041 25 26 36
-389.335 -706.109 -1042 25 27 35
-388.084 -706.819 -1043 22 24 32
-386.829 -707.528 -1044 25 27 34
-385.201 -707.56 -1044 23 25 32
-383.941 -708.269 -1045 22 24 31
-382.312 -708.301 -1045 24 26 33
-381.047 -709.01 -1046 22 24 31
-379.416 -709.041 -1046 22 24 31
-377.784 -709.072 -1046 26 28 35
-376.512 -709.781 -1047 24 26 33
-374.879 -709.812 -1047 23 24 34
-373.245 -709.843 -1047 24 25 35
-371.611 -709.874 -1047 24 25 35
-370.33 -710.583 -1048 24 25 35
-368.695 -710.613 -1048 25 26 37
-367.409 -711.322 -1049 25 26 37
-365.771 -711.352 -1049 25 26 36
-364.48 -712.06 -1050 26 27 37
-363.186 -712.769 -1051 29 30 40
-361.545 -712.799 -1051 28 29 39
-360.588 -714.185 -1053 26 27 38
-360.306 -716.928 -1057 27 28 39
-361.03 -721.706 -1064 28 30 38
-363.42 -729.876 -1076 28 30 38
-369.471 -745.509 -1099 27 29 36
-375.115 -760.463 -1121 28 30 37
-378.692 -771.349 -1137 23 25 32
-380.229 -778.165 -1147 21 23 30
-380.745 -782.946 -1154 21 23 30
-379.926 -785.013 -1157 23 25 32
-378.443 -785.724 -1158 22 24 31
-376.957 -786.434 -1159 21 23 30
-375.468 -787.144 -1160 21 23 30
-373.653 -787.175 -1160 23 25 32
-371.838 -787.206 -1160 22 24 31
-370.661 -788.595 -1162 19 21 28
-601.439 -736.393 -1091 23 23 25
-596.469 -732.387 -1085 20 20 22
-592.065 -729.055 -1080 20 20 22
-588.769 -727.072 -1077 17 17 17
-585.483 -725.09 -1074 19 19 19
-582.206 -723.107 -1071 17 17 19
-579.48 -721.8 -1069 19 19 21
-577.301 -721.168 -1068 23 20 23
-575.123 -720.534 -1067 23 20 23
-571.875 -718.552 -1064 21 18 21
-568.099 -715.893 -1060 20 17 20
-565.405 -714.585 -1058 18 18 20
-561.65 -711.925 -1054 20 20 22
-557.908 -709.266 -1050 22 22 26
-554.177 -706.606 -1046 23 23 27
-550.459 -703.946 -1042 24 24 26
-546.752 -701.285 -1038 25 25 27
-543.583 -699.299 -1035 24 24 26
-540.947 -697.989 -1033 22 22 24
-538.316 -696.68 -1031 21 20 27
-535.692 -695.369 -1029 22 21 28
-534.111 -695.41 -1029 22 22 26
-532.014 -694.776 -1028 20 20 24
-529.918 -694.141 -1027 21 21 25
-527.825 -693.506 -1026 24 24 28
-525.223 -692.195 -1024 27 24 29
-522.115 -690.208 -1021 24 21 26
-520.036 -689.573 -1020 23 20 25
-516.942 -687.585 -1017 26 23 28
-513.858 -685.596 -1014 23 23 27
-511.793 -684.96 -1013 21 21 25
-509.731 -684.324 -1012 23 23 27
-508.174 -684.364 -1012 25 25 29
-507.118 -685.08 -1013 25 25 29
-505.559 -685.12 -1013 24 24 28
-504.497 -685.836 -1014 23 22 29
-502.936 -685.876 -1014 22 21 28
-501.375 -685.915 -1014 23 25 29
-500.307 -686.632 -1015 21 23 27
-498.743 -686.671 -1015 22 21 29
-497.18 -686.711 -1015 20 19 27
-495.616 -686.749 -1015 18 17 27
-493.565 -686.112 -1014 18 17 27
-492.002 -686.151 -1014 17 19 25
-490.439 -686.19 -1014 19 21 27
-488.876 -686.229 -1014 20 19 27
-486.832 -685.591 -1013 19 18 26
-484.791 -684.953 -1012 19 18 26
-483.23 -684.991 -1012 19 18 26
-481.668 -685.029 -1012 20 19 26
-479.633 -684.391 -1011 21 20 27
-477.127 -683.075 -1009 22 22 26
-474.627 -681.759 -1007 22 22 26
-472.603 -681.12 -1006 22 22 26
-470.581 -680.48 -1005 21 21 25
-468.563 -679.841 -1004 21 21 25
-466.547 -679.201 -1003 22 22 26
-464.998 -679.238 -1003 23 23 27
-463.911 -679.953 -1004 21 21 25
-463.28 -681.344 -1006 18 18 22
-461.725 -681.381 -1006 15 15 19
-460.17 -681.418 -1006 15 15 19
-458.615 -681.455 -1006 15 15 19
-456.151 -680.137 -1004 17 17 21
-453.693 -678.818 -1002 19 19 23
-450.79 -676.822 -999 19 19 23
-447.445 -674.148 -995 21 21 25
-444.562 -672.152 -992 23 23 27
-442.58 -671.509 -991 23 23 27
-440.601 -670.867 -990 23 23 27
-438.625 -670.225 -989 25 25 29
-436.21 -668.904 -987 26 26 30
-434.682 -668.94 -987 29 29 33
-432.715 -668.297 -986 30 30 34
-430.75 -667.654 -985 29 29 33
-428.789 -667.01 -984 28 28 32
-426.83 -666.367 -983 32 32 36
-424.874 -665.723 -982 35 34 41
-423.784 -666.435 -983 35 34 41
-422.689 -667.148 -984 35 34 41
-421.592 -667.86 -985 33 32 39
-420.918 -669.25 -987 32 31 41
-420.662 -671.318 -990 32 31 41
-420.397 -673.386 -993 30 32 39
-420.544 -676.133 -997 28 30 37
-420.678 -678.88 -1001 32 34 41
-420.381 -680.948 -1004 33 35 42
-420.074 -683.017 -1007 33 35 42
-418.927 -683.729 -1008 31 33 40
-418.604 -685.798 -1011 30 32 39
-417.035 -685.832 -1011 30 32 39
-415.465 -685.866 -1011 30 32 39
-414.713 -687.256 -1013 28 30 37
-413.14 -687.29 -1013 28 30 36
-411.973 -688.002 -1014 28 30 36
-411.207 -689.393 -1016 28 30 37
-410.434 -690.783 -1018 28 30 37
-409.254 -691.495 -1019 31 33 40
-408.47 -692.885 -1021 32 34 41
-407.281 -693.597 -1022 30 32 39
-406.486 -694.987 -1024 27 29 36
-405.289 -695.699 -1025 27 29 36
-403.695 -695.732 -1025 27 29 36
-403.278 -697.801 -1028 29 31 37
-402.46 -699.192 -1030 31 33 39
-401.636 -700.582 -1032 31 33 40
-400.418 -701.294 -1033 27 29 36
-399.196 -702.005 -1034 25 26 36
-397.971 -702.717 -1035 27 28 38
-396.36 -702.749 -1035 26 27 37
-395.13 -703.461 -1036 27 28 38
-393.517 -703.493 -1036 27 28 38
-392.282 -704.204 -1037 25 26 36
-391.043 -704.915 -1038 24 25 35
-390.177 -706.306 -1040 26 27 37
-388.93 -707.017 -1041 27 28 38
-387.68 -707.728 -1042 25 26 36
-386.426 -708.439 -1043 25 27 34
-385.17 -709.15 -1044 23 25 32
-383.91 -709.861 -1045 22 24 31
-382.281 -709.892 -1045 23 25 32
-381.016 -710.603 -1046 23 25 32
-379.022 -709.955 -1045 23 25 32
-377.753 -710.666 -1046 27 29 36
-376.121 -710.697 -1046 25 27 34
-374.49 -710.728 -1046 24 25 35
-372.858 -710.759 -1046 24 25 35
-371.226 -710.79 -1046 25 26 38
-369.947 -711.5 -1047 26 27 39
-368.664 -712.21 -1048 27 28 40
-367.028 -712.24 -1048 26 27 39
-365.741 -712.95 -1049 25 26 36
-364.103 -712.981 -1049 26 27 37
-362.81 -713.691 -1050 26 27 37
-361.515 -714.4 -1051 25 26 36
-360.558 -715.79 -1053 26 27 39
-360.617 -719.219 -1058 28 29 41
-361.678 -724.687 -1066 30 31 41
-364.065 -732.875 -1078 30 31 41
-370.112 -748.543 -1101 29 31 38
-376.422 -764.891 -1125 28 30 37
-378.993 -773.762 -1138 24 26 33
-380.529 -780.593 -1148 21 23 30
-380.383 -784.025 -1153 20 22 29
-379.566 -786.097 -1156 23 25 32
-378.085 -786.809 -1157 23 25 32
-376.6 -787.52 -1158 22 24 31
-375.436 -788.912 -1160 20 22 29
-373.621 -788.943 -1160 21 23 30
-372.448 -790.335 -1162 24 23 31
-371.267 -791.727 -1164 22 21 29
-600.844 -737.374 -1090 23 23 25
-595.875 -733.358 -1084 20 20 22
-592.022 -730.695 -1080 19 19 21
-588.727 -728.708 -1077 16 16 17
-585.986 -727.398 -1075 18 18 19
-583.251 -726.087 -1073 20 20 22
-579.979 -724.099 -1070 20 20 22
-577.258 -722.789 -1068 24 21 24
-575.081 -722.155 -1067 24 21 24
-571.295 -719.49 -1063 23 20 23
-568.057 -717.503 -1060 21 18 21
-564.828 -715.514 -1057 18 18 20
-561.075 -712.848 -1053 19 19 21
-557.865 -710.86 -1050 22 22 25
-554.135 -708.193 -1046 23 23 26
-550.417 -705.527 -1042 25 25 27
-546.711 -702.86 -1038 26 26 28
-543.542 -700.871 -1035 25 25 28
-540.382 -698.88 -1032 23 23 26
-537.753 -697.567 -1030 22 21 27
-535.65 -696.931 -1029 22 21 27
-533.551 -696.295 -1028 22 22 26
-531.972 -696.336 -1028 21 21 25
-529.877 -695.7 -1027 22 22 26
-527.27 -694.386 -1025 24 24 28
-524.669 -693.072 -1023 25 22 27
-522.074 -691.758 -1021 22 19 24
-519.485 -690.443 -1019 23 20 25
-516.394 -688.451 -1016 26 23 28
-513.818 -687.135 -1014 25 25 29
-511.753 -686.498 -1013 21 21 25
-510.195 -686.538 -1013 22 22 26
-508.636 -686.578 -1013 25 25 29
-507.579 -687.296 -1014 25 25 29
-506.018 -687.335 -1014 24 24 28
-504.457 -687.375 -1014 24 23 30
-502.896 -687.415 -1014 23 22 29
-501.336 -687.455 -1014 24 26 30
-499.774 -687.494 -1014 21 23 27
-498.212 -687.533 -1014 20 19 27
-496.651 -687.573 -1014 18 17 25
-495.088 -687.612 -1014 18 17 27
-493.039 -686.973 -1013 19 18 28
-491.478 -687.012 -1013 19 20 26
-490.4 -687.729 -1014 19 20 26
-488.837 -687.768 -1014 19 18 26
-486.794 -687.129 -1013 19 18 26
-484.752 -686.49 -1012 19 18 26
-483.192 -686.528 -1012 20 19 27
-482.106 -687.245 -1013 21 20 27
-479.594 -685.926 -1011 21 20 27
-477.089 -684.607 -1009 21 20 26
-475.061 -683.967 -1008 22 21 27
-473.035 -683.326 -1007 22 22 26
-470.544 -682.007 -1005 21 21 25
-468.525 -681.366 -1004 20 20 24
-466.045 -680.046 -1002 21 21 25
-464.961 -680.762 -1003 23 23 27
-463.411 -680.799 -1003 22 22 26
-462.322 -681.515 -1004 18 18 22
-460.77 -681.552 -1004 14 14 18
-459.219 -681.589 -1004 14 14 18
-457.211 -680.947 -1003 14 14 18
-455.206 -680.304 -1002 16 16 20
-452.751 -678.983 -1000 17 17 21
-449.851 -676.982 -997 17 17 21
-446.96 -674.981 -994 21 21 25
-444.078 -672.98 -991 25 25 29
-442.098 -672.336 -990 25 25 29
-440.121 -671.693 -989 23 23 27
-438.147 -671.049 -988 25 25 29
-435.734 -669.726 -986 27 27 31
-434.207 -669.761 -986 28 28 32
-432.241 -669.116 -985 29 29 33
-430.279 -668.472 -984 29 29 33
-428.319 -667.827 -983 28 28 32
-426.362 -667.182 -982 29 29 33
-424.84 -667.217 -982 31 30 37
-423.318 -667.251 -982 33 32 39
-422.226 -667.964 -983 35 34 41
-421.13 -668.678 -984 34 33 40
-420.884 -670.751 -987 33 32 41
-420.628 -672.824 -990 33 32 41
-420.363 -674.897 -993 30 32 39
-420.51 -677.649 -997 29 31 38
-420.223 -679.722 -1000 32 34 41
-420.347 -682.475 -1004 33 35 42
-420.04 -684.549 -1007 33 35 42
-419.309 -685.943 -1009 30 32 39
-418.57 -687.336 -1011 28 30 37
-417.413 -688.05 -1012 27 29 36
-415.842 -688.084 -1012 27 29 36
-414.68 -688.798 -1013 27 29 36
-413.107 -688.831 -1013 28 30 37
-412.346 -690.225 -1015 28 30 37
-411.173 -690.938 -1016 28 30 37
-409.998 -691.652 -1017 29 31 38
-409.221 -693.045 -1019 31 33 40
-408.037 -693.759 -1020 32 34 41
-407.248 -695.152 -1022 30 32 39
-406.453 -696.546 -1024 26 28 35
-405.256 -697.259 -1025 26 28 36
-404.45 -698.653 -1027 25 27 35
-403.637 -700.046 -1029 28 30 36
-402.818 -701.44 -1031 32 34 40
-401.603 -702.153 -1032 31 33 40
-400.385 -702.866 -1033 28 30 37
-399.163 -703.579 -1034 26 27 37
-397.554 -703.612 -1034 26 27 37
-395.945 -703.645 -1034 25 26 36
-394.716 -704.358 -1035 23 24 34
-393.105 -704.39 -1035 24 25 35
-392.25 -705.783 -1037 25 26 36
-391.011 -706.496 -1038 25 26 36
-390.144 -707.889 -1040 28 29 39
-388.898 -708.602 -1041 29 30 40
-387.648 -709.315 -1042 27 28 38
-386.395 -710.027 -1043 26 28 35
-385.138 -710.74 -1044 24 26 33
-383.511 -710.771 -1044 22 24 31
-382.249 -711.484 -1045 23 25 32
-380.62 -711.515 -1045 23 25 32
-378.99 -711.547 -1045 23 25 32
-377.361 -711.578 -1045 26 28 35
-375.731 -711.609 -1045 24 26 33
-374.459 -712.321 -1046 24 25 35
-372.827 -712.352 -1046 24 25 35
-371.195 -712.383 -1046 26 27 39
-369.916 -713.094 -1047 28 29 41
-368.282 -713.125 -1047 28 29 41
-366.998 -713.837 -1048 26 27 39
-365.362 -713.867 -1048 25 26 36
-364.073 -714.579 -1049 25 26 36
-363.126 -715.972 -1051 25 26 36
-361.828 -716.682 -1052 25 26 36
-361.212 -718.757 -1055 26 27 39
-361.269 -722.193 -1060 28 29 41
-362.327 -727.674 -1068 31 33 41
-365.048 -736.562 -1081 31 33 41
-372.434 -754.99 -1108 29 31 38
-376.725 -767.287 -1126 28 30 37
-379.294 -776.177 -1139 25 27 34
-380.165 -781.661 -1147 22 24 31
-380.022 -785.1 -1152 21 23 30
-379.205 -787.177 -1155 22 24 31
-377.726 -787.89 -1156 23 25 32
-376.569 -789.285 -1158 21 23 30
-375.405 -790.68 -1160 20 22 29
-373.912 -791.393 -1161 20 22 29
-373.057 -793.469 -1164 24 23 31
-600.25 -738.352 -1089 21 21 23
-595.283 -734.327 -1083 19 19 21
-591.979 -732.335 -1080 19 19 21
-588.684 -730.344 -1077 17 17 19
-585.943 -729.03 -1075 19 19 21
-583.207 -727.716 -1073 21 21 23
-579.936 -725.724 -1070 19 19 21
-577.756 -725.089 -1069 22 19 22
-575.038 -723.774 -1067 24 21 24
-571.79 -721.782 -1064 23 20 23
-567.478 -718.433 -1059 22 19 22
-564.251 -716.44 -1056 20 20 22
-560.5 -713.769 -1052 20 20 22
-557.823 -712.453 -1050 22 22 24
-554.623 -710.46 -1047 22 22 24
-550.375 -707.108 -1042 24 24 26
-547.196 -705.114 -1039 25 25 27
-543.5 -702.441 -1035 24 24 28
-540.341 -700.447 -1032 22 22 26
-537.712 -699.13 -1030 22 22 26
-535.61 -698.493 -1029 21 21 25
-532.991 -697.176 -1027 21 21 25
-531.413 -697.217 -1027 21 21 25
-528.804 -695.9 -1025 21 21 25
-526.715 -695.262 -1024 22 22 26
-524.115 -693.945 -1022 24 21 26
-521.522 -692.627 -1020 22 19 24
-518.935 -691.31 -1018 24 21 26
-516.353 -689.993 -1016 27 24 29
-513.777 -688.674 -1014 25 25 29
-511.713 -688.035 -1013 22 22 26
-510.155 -688.075 -1013 22 22 26
-508.597 -688.115 -1013 25 25 29
-507.539 -688.834 -1014 25 25 29
-505.978 -688.874 -1014 24 24 28
-504.418 -688.914 -1014 24 23 30
-502.857 -688.954 -1014 24 23 30
-501.296 -688.994 -1014 24 26 30
-499.734 -689.033 -1014 21 23 27
-498.173 -689.073 -1014 19 18 26
-496.611 -689.113 -1014 17 16 24
-495.049 -689.151 -1014 19 18 28
-493 -688.511 -1013 20 19 29
-491.439 -688.55 -1013 21 20 27
-490.361 -689.269 -1014 20 19 26
-488.316 -688.628 -1013 19 18 25
-486.755 -688.667 -1013 19 18 25
-485.193 -688.706 -1013 20 19 26
-483.63 -688.744 -1013 21 20 27
-482.068 -688.783 -1013 21 20 27
-479.556 -687.461 -1011 21 20 27
-477.524 -686.82 -1010 21 20 27
-475.022 -685.498 -1008 21 20 27
-472.997 -684.856 -1007 22 22 26
-470.974 -684.213 -1006 20 20 24
-468.488 -682.891 -1004 20 20 24
-466.007 -681.568 -1002 22 22 26
-464.923 -682.285 -1003 23 23 27
-462.912 -681.642 -1002 22 22 26
-461.364 -681.679 -1002 19 19 23
-459.815 -681.716 -1002 14 14 18
-458.267 -681.753 -1002 13 13 17
-456.718 -681.79 -1002 12 12 16
-453.807 -679.785 -999 15 15 19
-451.809 -679.141 -998 17 17 21
-449.364 -677.816 -996 18 18 22
-446.474 -675.811 -993 21 21 25
-443.594 -673.805 -990 25 25 29
-441.616 -673.16 -989 24 24 28
-439.641 -672.515 -988 24 24 28
-437.668 -671.869 -987 27 27 31
-435.698 -671.224 -986 27 27 31
-434.172 -671.259 -986 25 25 29
-432.206 -670.613 -985 25 25 29
-430.244 -669.967 -984 28 28 32
-428.284 -669.322 -983 30 30 34
-426.327 -668.675 -982 30 30 34
-424.373 -668.028 -981 28 27 34
-422.853 -668.062 -981 31 30 37
-421.762 -668.778 -982 34 33 40
-420.668 -669.493 -983 35 34 41
-420.424 -671.571 -986 35 34 42
-420.169 -673.648 -989 35 34 42
-419.905 -675.725 -992 32 34 41
-420.054 -678.484 -996 32 34 41
-420.189 -681.243 -1000 32 34 41
-419.894 -683.321 -1003 32 34 41
-419.589 -685.399 -1006 32 34 41
-418.859 -686.796 -1008 30 32 39
-418.536 -688.874 -1011 28 30 37
-416.967 -688.908 -1011 27 29 36
-415.808 -689.623 -1012 29 31 38
-414.646 -690.338 -1013 30 32 39
-413.073 -690.372 -1013 29 31 38
-412.312 -691.769 -1015 29 31 38
-411.14 -692.484 -1016 29 31 38
-410.367 -693.881 -1018 29 31 38
-409.187 -694.595 -1019 30 32 39
-408.004 -695.31 -1020 32 34 41
-407.215 -696.707 -1022 31 33 40
-406.42 -698.104 -1024 27 29 36
-405.619 -699.5 -1026 25 26 36
-404.811 -700.897 -1028 24 25 35
-403.996 -702.294 -1030 27 29 35
-402.785 -703.009 -1031 31 33 39
-401.181 -703.042 -1031 30 32 39
-399.965 -703.756 -1032 29 31 38
-398.745 -704.471 -1033 27 28 38
-397.522 -705.186 -1034 27 28 38
-395.912 -705.218 -1034 27 28 38
-394.684 -705.933 -1035 22 23 33
-393.452 -706.647 -1036 23 24 34
-392.217 -707.362 -1037 26 27 37
-390.979 -708.076 -1038 26 27 37
-390.112 -709.473 -1040 27 28 38
-388.866 -710.187 -1041 28 29 39
-387.616 -710.901 -1042 28 29 39
-386.363 -711.615 -1043 26 28 35
-384.737 -711.647 -1043 25 27 34
-383.479 -712.361 -1044 24 26 33
-381.852 -712.393 -1044 24 26 33
-380.588 -713.106 -1045 24 26 33
-378.959 -713.138 -1045 24 26 33
-377.33 -713.169 -1045 25 27 34
-376.059 -713.883 -1046 24 26 33
-374.428 -713.914 -1046 25 26 36
-372.796 -713.945 -1046 25 26 36
-371.519 -714.658 -1047 27 28 40
-369.885 -714.689 -1047 29 30 42
-368.251 -714.72 -1047 29 30 42
-366.967 -715.433 -1048 27 28 40
-365.68 -716.146 -1049 26 27 37
-364.389 -716.859 -1050 24 25 35
-363.441 -718.255 -1052 25 26 36
-362.142 -718.968 -1053 25 26 36
-361.525 -721.046 -1056 26 27 39
-361.579 -724.49 -1061 28 29 41
-362.636 -729.984 -1069 29 31 38
-366.706 -741.623 -1086 30 32 39
-372.739 -757.361 -1109 29 31 38
-377.028 -769.685 -1127 27 29 36
-379.262 -777.912 -1139 26 28 35
-380.134 -783.408 -1147 23 25 32
-379.99 -786.855 -1152 20 22 29
-378.845 -788.253 -1154 20 22 29
-377.694 -789.651 -1156 21 23 30
-376.537 -791.049 -1158 20 22 29
-375.373 -792.447 -1160 19 21 28
-374.203 -793.845 -1162 21 23 30
-599.656 -739.327 -1088 21 21 23
-595.241 -735.972 -1083 18 18 20
-591.936 -733.975 -1080 20 20 22
-589.188 -732.659 -1078 20 20 22
-586.445 -731.342 -1076 22 22 24
-583.708 -730.025 -1074 20 20 22
-580.436 -728.029 -1071 18 18 20
-577.713 -726.712 -1069 21 18 21
-574.996 -725.394 -1067 23 20 23
-571.21 -722.718 -1063 24 21 24
-567.436 -720.041 -1059 24 21 24
-564.209 -718.042 -1056 22 22 24
-560.991 -716.046 -1053 22 22 24
-557.782 -714.047 -1050 21 21 23
-554.581 -712.048 -1047 21 21 23
-550.861 -709.37 -1043 22 22 24
-547.154 -706.691 -1039 23 23 25
-543.459 -704.012 -1035 21 21 25
-540.823 -702.693 -1033 21 21 25
-538.193 -701.373 -1031 21 21 25
-535.048 -699.374 -1028 21 21 25
-532.431 -698.054 -1026 20 20 24
-530.338 -697.415 -1025 19 19 23
-528.247 -696.775 -1024 20 20 24
-525.645 -695.455 -1022 21 21 25
-523.049 -694.135 -1020 25 22 27
-520.97 -693.495 -1019 26 23 28
-518.384 -692.174 -1017 27 24 29
-515.297 -690.173 -1014 28 25 30
-513.738 -690.213 -1014 24 24 28
-511.673 -689.572 -1013 22 22 26
-509.611 -688.931 -1012 23 23 27
-508.557 -689.652 -1013 24 24 28
-507.499 -690.373 -1014 24 24 28
-505.938 -690.413 -1014 25 25 29
-504.378 -690.453 -1014 25 24 30
-502.817 -690.493 -1014 23 22 28
-501.256 -690.532 -1014 23 24 28
-499.695 -690.572 -1014 21 22 26
-497.642 -689.931 -1013 20 19 27
-496.572 -690.651 -1014 18 17 25
-494.522 -690.009 -1013 19 18 28
-492.961 -690.048 -1013 20 19 29
-490.915 -689.406 -1012 20 19 26
-489.839 -690.126 -1013 20 19 26
-488.277 -690.165 -1013 19 18 25
-486.236 -689.523 -1012 19 18 25
-485.154 -690.243 -1013 20 19 26
-483.592 -690.282 -1013 21 20 27
-481.553 -689.639 -1012 21 20 27
-479.518 -688.996 -1011 20 19 26
-477.485 -688.353 -1010 21 20 27
-475.456 -687.709 -1009 21 20 27
-473.429 -687.066 -1008 22 22 26
-470.937 -685.741 -1006 20 20 24
-468.45 -684.415 -1004 20 20 24
-466.435 -683.771 -1003 22 22 26
-464.423 -683.126 -1002 23 23 27
-462.413 -682.482 -1001 22 22 26
-460.406 -681.837 -1000 19 19 23
-458.861 -681.874 -1000 15 15 19
-457.316 -681.911 -1000 13 13 17
-455.314 -681.266 -999 11 11 15
-453.316 -680.62 -998 14 14 18
-451.32 -679.975 -997 18 18 22
-448.876 -678.647 -995 20 20 24
-446.438 -677.319 -993 22 22 26
-443.558 -675.309 -990 24 24 28
-441.58 -674.662 -989 22 22 26
-439.605 -674.016 -988 25 25 29
-437.633 -673.369 -987 29 29 33
-435.663 -672.722 -986 28 28 32
-434.137 -672.757 -986 24 24 28
-432.171 -672.11 -985 23 23 27
-430.209 -671.463 -984 26 26 30
-428.249 -670.815 -983 30 30 34
-426.293 -670.167 -982 31 31 35
-424.771 -670.201 -982 32 31 38
-422.819 -669.554 -981 33 32 39
-421.728 -670.27 -982 34 33 40
-420.634 -670.987 -983 36 35 42
-419.963 -672.386 -985 36 35 43
-419.71 -674.468 -988 36 35 43
-419.448 -676.551 -991 33 35 42
-420.02 -679.998 -996 33 35 42
-419.735 -682.081 -999 32 34 41
-419.441 -684.163 -1002 32 34 41
-419.138 -686.246 -1005 31 33 40
-418.409 -687.645 -1007 30 32 39
-418.088 -689.728 -1010 30 32 39
-416.933 -690.445 -1011 31 33 40
-416.185 -691.845 -1013 32 34 41
-415.022 -692.562 -1014 32 34 41
-413.447 -692.595 -1014 31 33 40
-412.278 -693.312 -1015 29 31 38
-411.106 -694.029 -1016 29 31 38
-409.931 -694.746 -1017 29 31 38
-408.752 -695.462 -1018 30 32 39
-407.97 -696.862 -1020 31 33 40
-406.783 -697.579 -1021 31 33 40
-406.387 -699.662 -1024 29 31 38
-405.585 -701.061 -1026 26 27 37
-404.778 -702.461 -1028 26 27 37
-403.963 -703.861 -1030 28 30 37
-402.361 -703.894 -1030 29 31 38
-401.537 -705.294 -1032 28 30 37
-400.319 -706.01 -1033 29 31 38
-398.712 -706.043 -1033 29 30 40
-397.873 -707.443 -1035 28 29 39
-396.262 -707.475 -1035 28 29 39
-395.033 -708.191 -1036 24 25 35
-393.8 -708.907 -1037 26 27 37
-392.563 -709.624 -1038 29 30 40
-391.323 -710.339 -1039 27 28 38
-390.455 -711.739 -1041 25 26 36
-389.207 -712.455 -1042 26 27 37
-387.956 -713.171 -1043 26 27 37
-386.331 -713.203 -1043 25 27 34
-384.706 -713.235 -1043 25 27 34
-383.448 -713.95 -1044 25 27 34
-381.82 -713.982 -1044 25 27 34
-380.557 -714.697 -1045 24 26 33
-378.928 -714.729 -1045 25 27 34
-377.298 -714.76 -1045 25 27 34
-376.028 -715.475 -1046 24 26 33
-374.397 -715.506 -1046 26 27 37
-372.765 -715.537 -1046 26 27 37
-371.488 -716.252 -1047 27 28 40
-369.855 -716.283 -1047 28 29 41
-368.221 -716.314 -1047 28 29 40
-366.937 -717.028 -1048 28 29 40
-365.65 -717.743 -1049 26 27 37
-364.012 -717.773 -1049 23 24 34
-362.72 -718.488 -1050 23 24 34
-361.768 -719.887 -1052 24 25 35
-361.152 -721.97 -1055 26 27 38
-361.89 -726.791 -1062 28 29 40
-363.962 -734.349 -1073 28 30 37
-367.35 -744.646 -1088 29 31 38
-372.372 -758.365 -1108 29 31 38
-376.662 -770.717 -1126 28 30 37
-378.898 -778.963 -1138 26 28 35
-380.102 -785.155 -1147 23 25 32
-379.628 -787.925 -1151 19 21 28
-378.814 -790.011 -1154 18 20 27
-377.662 -791.412 -1156 21 23 30
-376.83 -793.497 -1159 21 23 30
-375.988 -795.583 -1162 20 22 29
-374.815 -796.984 -1164 20 22 29
-599.613 -740.979 -1088 20 20 22
-595.747 -738.298 -1084 19 19 21
-592.442 -736.297 -1081 21 21 23
-589.692 -734.977 -1079 22 22 24
-586.948 -733.658 -1077 22 22 24
-584.209 -732.337 -1075 19 19 21
-580.393 -729.655 -1071 17 17 19
-577.67 -728.335 -1069 20 17 20
-574.415 -726.333 -1066 23 20 23
-570.63 -723.65 -1062 25 22 25
-567.394 -721.647 -1059 24 21 24
-563.632 -718.964 -1055 22 22 24
-560.948 -717.643 -1053 22 22 24
-557.739 -715.64 -1050 20 20 22
-554.539 -713.637 -1047 20 20 22
-550.82 -710.953 -1043 21 21 23
-547.639 -708.949 -1040 21 21 23
-543.943 -706.264 -1036 21 21 25
-540.258 -703.579 -1032 20 20 24
-537.107 -701.574 -1029 20 20 24
-534.487 -700.252 -1027 21 21 25
-531.871 -698.929 -1025 20 20 24
-529.78 -698.288 -1024 21 21 25
-527.691 -697.647 -1023 22 22 26
-525.09 -696.323 -1021 23 23 27
-522.496 -695 -1019 26 23 28
-520.419 -694.359 -1018 26 23 28
-517.325 -692.353 -1015 27 24 29
-515.256 -691.711 -1014 27 24 29
-513.697 -691.751 -1014 23 23 27
-511.633 -691.109 -1013 21 21 25
-509.571 -690.466 -1012 22 22 26
-508.517 -691.189 -1013 24 24 28
-506.958 -691.228 -1013 24 24 28
-505.4 -691.269 -1013 25 25 29
-504.338 -691.991 -1014 24 24 28
-502.777 -692.031 -1014 23 23 27
-501.216 -692.071 -1014 22 22 26
-499.655 -692.11 -1014 22 22 26
-498.094 -692.15 -1014 21 20 28
-496.043 -691.507 -1013 19 18 26
-494.482 -691.546 -1013 19 18 28
-492.435 -690.903 -1012 21 20 30
-490.876 -690.941 -1012 20 19 26
-489.316 -690.981 -1012 19 18 25
-487.757 -691.02 -1012 19 18 25
-485.716 -690.376 -1011 20 19 26
-484.636 -691.097 -1012 20 19 26
-483.076 -691.136 -1012 20 19 26
-481.515 -691.175 -1012 20 19 26
-479.48 -690.53 -1011 20 19 26
-477.447 -689.886 -1010 21 20 27
-475.418 -689.241 -1009 21 20 27
-473.391 -688.596 -1008 21 21 25
-470.899 -687.267 -1006 20 20 24
-468.412 -685.939 -1004 20 20 24
-466.397 -685.293 -1003 23 23 27
-463.922 -683.964 -1001 23 23 27
-461.914 -683.318 -1000 21 21 25
-459.909 -682.672 -999 18 18 22
-458.365 -682.709 -999 16 16 20
-456.364 -682.062 -998 13 13 17
-454.366 -681.416 -997 12 12 16
-452.825 -681.452 -997 14 14 18
-450.831 -680.806 -996 19 19 23
-448.84 -680.158 -995 20 20 24
-445.953 -678.143 -992 22 22 26
-443.522 -676.812 -990 24 24 28
-441.098 -675.481 -988 23 23 27
-439.569 -675.516 -988 24 24 28
-437.597 -674.868 -987 28 28 32
-435.628 -674.22 -986 28 28 32
-433.661 -673.571 -985 25 25 29
-432.137 -673.606 -985 25 25 29
-430.174 -672.957 -984 28 28 32
-428.215 -672.309 -983 30 30 34
-426.258 -671.659 -982 31 31 35
-424.737 -671.694 -982 36 35 42
-422.785 -671.044 -981 35 34 41
-421.694 -671.762 -982 35 34 41
-420.6 -672.481 -983 36 35 42
-419.929 -673.883 -985 35 34 42
-419.676 -675.97 -988 34 33 41
-419.414 -678.057 -991 33 35 42
-419.564 -680.827 -995 34 36 43
-419.281 -682.915 -998 33 35 42
-418.989 -685.002 -1001 32 34 41
-419.104 -687.773 -1005 31 33 40
-418.375 -689.176 -1007 31 33 40
-418.054 -691.264 -1010 31 33 40
-416.899 -691.982 -1011 32 34 41
-416.151 -693.385 -1013 33 35 42
-414.987 -694.103 -1014 33 35 42
-413.821 -694.822 -1015 32 34 41
-412.245 -694.856 -1015 30 32 39
-411.073 -695.574 -1016 30 32 39
-409.494 -695.607 -1016 30 32 39
-408.719 -697.01 -1018 30 32 39
-407.537 -697.728 -1019 30 32 39
-406.352 -698.447 -1020 30 32 39
-405.957 -700.534 -1023 30 32 39
-405.552 -702.622 -1026 30 31 41
-404.351 -703.34 -1027 29 30 40
-403.93 -705.428 -1030 28 30 37
-402.328 -705.461 -1030 27 29 36
-401.504 -706.864 -1032 28 30 37
-400.286 -707.581 -1033 29 31 38
-398.679 -707.614 -1033 28 29 39
-397.456 -708.332 -1034 26 27 37
-396.23 -709.05 -1035 27 28 38
-394.619 -709.082 -1035 25 26 36
-393.388 -709.8 -1036 28 29 39
-392.153 -710.518 -1037 31 32 42
-390.915 -711.235 -1038 29 30 40
-390.048 -712.638 -1040 26 27 37
-388.802 -713.355 -1041 26 27 37
-387.552 -714.072 -1042 25 26 36
-386.299 -714.79 -1043 25 27 34
-384.674 -714.822 -1043 25 27 34
-383.416 -715.539 -1044 28 30 37
-381.789 -715.571 -1044 26 28 35
-380.161 -715.602 -1044 24 26 33
-378.896 -716.319 -1045 25 27 34
-377.267 -716.35 -1045 24 26 33
-375.997 -717.067 -1046 24 26 33
-374.366 -717.098 -1046 27 28 38
-372.734 -717.13 -1046 27 28 38
-371.457 -717.846 -1047 28 29 41
-369.824 -717.877 -1047 28 29 41
-368.542 -718.593 -1048 27 28 38
-366.906 -718.624 -1048 27 28 38
-365.271 -718.655 -1048 26 27 37
-363.982 -719.37 -1049 23 24 34
-363.035 -720.772 -1051 22 23 33
-362.082 -722.174 -1053 24 25 35
-361.464 -724.262 -1056 26 27 37
-362.2 -729.094 -1063 27 28 38
-364.271 -736.669 -1074 27 29 36
-366.982 -745.616 -1087 27 29 36
-372.341 -760.052 -1108 27 29 36
-376.296 -771.746 -1125 26 28 35
-378.533 -780.009 -1137 23 25 32
-379.407 -785.53 -1145 22 24 31
-379.266 -788.992 -1150 20 22 29
-378.125 -790.396 -1152 19 21 28
-377.304 -792.486 -1155 20 22 29
-376.473 -794.576 -1158 21 23 30
-375.31 -795.98 -1160 21 23 30
-374.783 -798.757 -1164 21 23 30
-600.122 -743.315 -1089 20 20 23
-596.255 -740.628 -1085 19 19 21
-592.4 -737.939 -1081 22 22 24
-589.65 -736.616 -1079 22 22 24
-586.905 -735.293 -1077 19 19 21
-583.624 -733.287 -1074 19 19 21
-580.893 -731.963 -1072 18 18 20
-578.169 -730.64 -1070 19 18 20
-574.372 -727.951 -1066 22 21 23
-571.125 -725.945 -1063 24 23 25
-567.352 -723.255 -1059 23 22 24
-564.658 -721.93 -1057 20 20 22
-561.439 -719.924 -1054 20 20 22
-558.228 -717.917 -1051 20 20 22
-555.027 -715.909 -1048 21 21 23
-551.834 -713.901 -1045 21 21 23
-547.597 -710.527 -1040 21 21 23
-543.376 -707.152 -1035 22 22 26
-539.693 -704.461 -1031 21 21 25
-537.067 -703.135 -1029 21 21 25
-533.925 -701.126 -1026 21 21 25
-531.831 -700.484 -1025 23 23 27
-529.221 -699.157 -1023 25 25 29
-527.134 -698.515 -1022 26 26 29
-524.535 -697.188 -1020 25 25 28
-522.455 -696.546 -1019 25 23 28
-519.867 -695.219 -1017 24 22 27
-517.285 -693.892 -1015 25 22 27
-515.216 -693.248 -1014 24 21 26
-513.657 -693.289 -1014 22 22 26
-511.593 -692.645 -1013 20 20 24
-510.034 -692.685 -1013 21 21 25
-508.477 -692.725 -1013 24 24 28
-506.919 -692.766 -1013 25 25 29
-505.859 -693.489 -1014 24 24 28
-504.298 -693.529 -1014 23 23 27
-502.738 -693.569 -1014 21 21 25
-501.177 -693.608 -1014 21 21 25
-499.616 -693.649 -1014 21 21 25
-498.054 -693.688 -1014 21 20 28
-496.003 -693.044 -1013 20 19 27
-494.443 -693.083 -1013 20 19 28
-492.883 -693.123 -1013 21 20 29
-490.837 -692.477 -1012 20 19 26
-489.277 -692.516 -1012 19 18 25
-487.718 -692.555 -1012 20 19 27
-485.677 -691.909 -1011 20 19 27
-484.597 -692.633 -1012 20 19 26
-483.037 -692.672 -1012 20 19 26
-481.476 -692.711 -1012 20 19 26
-479.441 -692.065 -1011 20 19 26
-477.409 -691.418 -1010 21 20 26
-475.38 -690.772 -1009 22 21 27
-473.353 -690.126 -1008 20 20 24
-470.861 -688.794 -1006 21 21 25
-468.375 -687.463 -1004 21 21 25
-466.36 -686.815 -1003 22 22 26
-463.884 -685.483 -1001 22 22 26
-461.415 -684.151 -999 20 20 24
-459.872 -684.189 -999 18 18 22
-457.869 -683.54 -998 17 17 21
-456.327 -683.578 -998 13 13 17
-454.329 -682.929 -997 14 14 18
-452.334 -682.281 -996 16 16 20
-450.795 -682.317 -996 19 19 23
-448.353 -680.984 -994 20 20 24
-445.467 -678.965 -991 21 21 25
-443.038 -677.63 -989 23 23 27
-441.062 -676.981 -988 23 23 27
-439.089 -676.331 -987 24 24 28
-437.118 -675.682 -986 26 26 30
-434.709 -674.347 -984 26 26 30
-433.186 -674.382 -984 26 26 30
-431.224 -673.731 -983 29 29 33
-429.702 -673.767 -983 30 30 34
-427.744 -673.116 -982 30 30 34
-426.223 -673.15 -982 31 31 35
-424.27 -672.5 -981 34 33 40
-422.319 -671.849 -980 35 34 41
-421.659 -673.254 -982 37 36 43
-420.565 -673.974 -983 37 36 43
-419.468 -674.694 -984 34 34 42
-419.642 -677.471 -988 32 32 40
-418.956 -678.877 -990 32 34 41
-419.108 -681.654 -994 34 36 43
-419.247 -684.431 -998 33 35 43
-418.955 -686.523 -1001 33 35 43
-418.652 -688.615 -1004 32 34 42
-418.341 -690.706 -1007 32 34 42
-418.02 -692.798 -1010 32 34 41
-416.865 -693.518 -1011 31 33 40
-416.117 -694.925 -1013 32 34 41
-414.954 -695.645 -1014 32 34 41
-413.787 -696.365 -1015 32 34 41
-412.211 -696.399 -1015 32 34 41
-410.634 -696.432 -1015 31 33 40
-409.461 -697.152 -1016 29 31 38
-408.284 -697.872 -1017 29 31 38
-407.103 -698.591 -1018 30 32 39
-406.318 -699.997 -1020 30 32 40
-405.923 -702.09 -1023 31 33 41
-405.124 -703.495 -1025 33 34 44
-403.924 -704.215 -1026 31 32 42
-403.897 -706.994 -1030 28 30 37
-402.295 -707.027 -1030 27 29 36
-401.082 -707.746 -1031 29 31 39
-399.866 -708.466 -1032 29 31 39
-398.646 -709.185 -1033 28 29 39
-397.423 -709.905 -1034 26 27 37
-395.814 -709.937 -1034 27 28 38
-394.586 -710.657 -1035 27 28 38
-392.975 -710.689 -1035 29 30 40
-392.12 -712.095 -1037 30 31 41
-390.882 -712.814 -1038 29 30 40
-389.641 -713.533 -1039 29 30 40
-388.396 -714.252 -1040 28 29 39
-387.148 -714.971 -1041 26 27 37
-386.267 -716.377 -1043 26 28 36
-384.642 -716.409 -1043 25 27 35
-383.384 -717.127 -1044 29 31 39
-381.757 -717.159 -1044 27 29 37
-380.13 -717.191 -1044 23 25 33
-378.865 -717.909 -1045 24 26 34
-377.236 -717.94 -1045 24 26 34
-375.966 -718.659 -1046 24 26 34
-374.335 -718.69 -1046 26 27 38
-373.059 -719.408 -1047 28 29 40
-371.426 -719.439 -1047 28 29 41
-369.793 -719.47 -1047 27 28 40
-368.511 -720.188 -1048 27 28 38
-366.876 -720.219 -1048 26 27 37
-365.24 -720.249 -1048 25 26 36
-363.951 -720.967 -1049 23 24 34
-363.005 -722.372 -1051 23 24 34
-362.051 -723.777 -1053 25 26 36
-361.776 -726.557 -1057 26 27 37
-362.511 -731.399 -1064 26 27 37
-363.901 -737.616 -1073 26 28 35
-367.289 -747.958 -1088 26 28 35
-372.31 -761.739 -1108 24 26 33
-375.595 -772.083 -1123 23 25 32
-378.501 -781.74 -1137 20 22 29
-379.375 -787.273 -1145 20 22 29
-379.564 -791.43 -1151 21 23 30
-378.422 -792.838 -1153 20 22 29
-377.599 -794.932 -1156 20 22 29
-376.442 -796.339 -1158 20 22 29
-375.602 -798.434 -1161 22 24 31
-605.618 -749.716 -1096 22 22 26
-600.632 -745.654 -1090 20 20 24
-596.213 -742.275 -1085 19 19 21
-592.905 -740.265 -1082 21 21 23
-590.154 -738.939 -1080 21 21 23
-586.863 -736.928 -1077 18 18 20
-584.125 -735.602 -1075 19 19 21
-580.851 -733.591 -1072 19 19 21
-577.586 -731.581 -1069 20 20 22
-574.33 -729.569 -1066 22 22 24
-570.545 -726.873 -1062 22 22 24
-567.31 -724.862 -1059 19 19 21
-564.617 -723.535 -1057 18 18 20
-561.397 -721.523 -1054 20 20 22
-558.187 -719.512 -1051 21 21 23
-554.985 -717.499 -1048 22 22 24
-551.264 -714.802 -1044 22 22 24
-547.03 -711.42 -1039 22 22 24
-543.335 -708.723 -1035 23 23 27
-539.652 -706.024 -1031 23 23 27
-536.504 -704.011 -1028 21 21 25
-533.884 -702.682 -1026 21 21 25
-531.271 -701.354 -1024 25 25 29
-529.18 -700.709 -1023 27 27 31
-527.093 -700.065 -1022 27 27 29
-524.494 -698.735 -1020 25 25 27
-522.415 -698.091 -1019 24 24 28
-520.337 -697.446 -1018 23 23 27
-517.754 -696.116 -1016 24 21 26
-515.684 -695.472 -1015 23 20 25
-514.123 -695.512 -1015 22 22 26
-512.058 -694.867 -1014 19 19 23
-509.995 -694.222 -1013 20 20 24
-508.938 -694.947 -1014 25 25 29
-507.379 -694.987 -1014 26 26 30
-505.819 -695.027 -1014 24 24 28
-504.258 -695.067 -1014 22 22 26
-502.202 -694.421 -1013 20 20 24
-500.643 -694.461 -1013 20 20 24
-499.576 -695.186 -1014 22 22 26
-498.015 -695.226 -1014 22 21 28
-495.964 -694.58 -1013 20 19 26
-494.404 -694.619 -1013 19 18 26
-492.843 -694.659 -1013 20 19 27
-490.798 -694.012 -1012 20 19 26
-489.238 -694.052 -1012 20 19 26
-487.679 -694.09 -1012 20 19 27
-486.119 -694.129 -1012 20 19 27
-484.558 -694.168 -1012 20 19 26
-482.998 -694.207 -1012 20 19 26
-481.438 -694.245 -1012 20 19 26
-479.403 -693.598 -1011 20 19 26
-477.37 -692.951 -1010 20 20 24
-475.341 -692.303 -1009 22 22 26
-473.784 -692.341 -1009 19 19 23
-470.823 -690.32 -1006 21 21 25
-468.803 -689.672 -1005 22 22 26
-466.322 -688.338 -1003 22 22 26
-463.847 -687.003 -1001 22 22 26
-461.377 -685.667 -999 21 21 25
-459.374 -685.018 -998 18 18 22
-457.373 -684.368 -997 17 17 21
-455.833 -684.406 -997 14 14 18
-454.293 -684.443 -997 16 16 20
-452.298 -683.793 -996 17 17 21
-450.758 -683.829 -996 19 19 23
-448.316 -682.493 -994 20 20 24
-445.431 -680.469 -991 22 22 26
-443.002 -679.132 -989 23 23 27
-440.58 -677.794 -987 22 22 26
-439.053 -677.83 -987 24 24 28
-437.083 -677.179 -986 25 25 29
-434.673 -675.84 -984 25 25 29
-433.151 -675.876 -984 28 28 32
-431.189 -675.224 -983 31 31 35
-429.667 -675.259 -983 30 30 34
-427.709 -674.607 -982 29 29 33
-425.755 -673.955 -981 33 33 37
-424.235 -673.99 -981 32 31 38
-422.285 -673.337 -980 34 33 40
-421.196 -674.059 -981 36 35 42
-420.103 -674.78 -982 36 35 42
-419.86 -676.876 -985 33 35 42
-419.183 -678.285 -987 31 33 40
-418.499 -679.694 -989 31 33 40
-419.074 -683.164 -994 31 33 40
-419.212 -685.947 -998 34 35 45
-418.92 -688.044 -1001 33 34 44
-418.618 -690.14 -1004 32 33 43
-417.891 -691.549 -1006 32 33 43
-417.572 -693.646 -1009 32 34 41
-416.831 -695.055 -1011 31 33 40
-415.672 -695.777 -1012 30 32 39
-414.511 -696.498 -1013 29 31 38
-413.345 -697.22 -1014 32 34 41
-411.771 -697.253 -1014 33 35 42
-410.601 -697.975 -1015 32 34 41
-409.427 -698.696 -1016 29 31 38
-407.849 -698.73 -1016 28 30 37
-407.07 -700.139 -1018 30 32 39
-406.285 -701.548 -1020 31 32 42
-405.89 -703.645 -1023 32 33 43
-404.695 -704.366 -1024 33 34 44
-403.891 -705.775 -1026 32 33 43
-403.472 -707.872 -1029 30 32 39
-402.262 -708.593 -1030 28 30 37
-400.66 -708.626 -1030 29 30 40
-399.446 -709.347 -1031 29 30 40
-398.228 -710.068 -1032 27 28 38
-397.391 -711.477 -1034 27 28 38
-395.782 -711.51 -1034 28 29 39
-394.173 -711.542 -1034 30 31 41
-393.323 -712.952 -1036 31 32 42
-392.088 -713.672 -1037 29 30 40
-390.85 -714.393 -1038 27 28 38
-389.609 -715.113 -1039 28 29 39
-387.991 -715.145 -1039 29 30 40
-387.116 -716.554 -1041 27 28 38
-385.865 -717.275 -1042 25 26 36
-384.241 -717.307 -1042 25 26 36
-383.352 -718.715 -1044 29 30 40
-381.725 -718.747 -1044 27 28 38
-380.462 -719.467 -1045 23 24 34
-378.833 -719.499 -1045 24 25 35
-377.204 -719.53 -1045 25 26 36
-375.934 -720.25 -1046 25 26 36
-374.661 -720.97 -1047 26 27 39
-372.672 -720.313 -1046 27 28 40
-371.041 -720.344 -1046 28 29 41
-369.762 -721.063 -1047 28 29 41
-368.48 -721.783 -1048 27 28 38
-366.845 -721.814 -1048 25 26 36
-365.21 -721.844 -1048 23 24 34
-363.921 -722.563 -1049 24 25 35
-362.974 -723.971 -1051 24 25 35
-362.021 -725.38 -1053 25 26 36
-361.746 -728.166 -1057 25 26 36
-362.14 -732.329 -1063 24 25 35
-364.21 -739.938 -1074 25 27 34
-366.92 -748.926 -1087 25 27 34
-371.606 -762.048 -1106 23 25 32
-376.233 -775.171 -1125 22 24 31
-378.469 -783.471 -1137 19 21 28
-379.343 -789.016 -1145 19 21 28
-379.532 -793.182 -1151 20 22 29
-378.718 -795.282 -1154 20 22 29
-377.894 -797.381 -1157 19 21 28
-377.06 -799.481 -1160 21 23 30
-375.893 -800.891 -1162 23 25 32
-610.026 -754.767 -1101 25 24 31
-605.023 -750.696 -1095 21 21 25
-600.038 -746.624 -1089 23 23 27
-596.171 -743.924 -1085 19 19 22
-592.864 -741.909 -1082 15 15 18
-590.658 -741.265 -1081 18 18 20
-586.821 -738.563 -1077 16 16 18
-583.54 -736.549 -1074 23 23 25
-580.267 -734.533 -1071 22 22 24
-577.004 -732.517 -1068 22 22 24
-573.749 -730.501 -1065 24 24 26
-570.504 -728.485 -1062 25 25 27
-567.268 -726.469 -1059 22 22 24
-564.041 -724.453 -1056 19 19 21
-561.355 -723.122 -1054 18 18 20
-558.145 -721.106 -1051 21 21 23
-554.944 -719.089 -1048 20 20 22
-550.695 -715.7 -1043 21 21 23
-546.988 -712.996 -1039 23 23 25
-543.294 -710.292 -1035 23 23 27
-539.088 -706.902 -1030 21 21 25
-535.941 -704.884 -1027 21 21 25
-533.323 -703.552 -1025 22 22 26
-531.23 -702.906 -1024 23 23 27
-528.622 -701.574 -1022 25 25 29
-526.021 -700.242 -1020 24 24 26
-523.94 -699.596 -1019 23 23 25
-521.862 -698.95 -1018 22 22 26
-519.786 -698.303 -1017 22 22 26
-517.204 -696.97 -1015 23 21 26
-515.644 -697.011 -1015 22 20 25
-514.083 -697.051 -1015 22 22 26
-512.523 -697.092 -1015 17 17 21
-509.955 -695.758 -1013 19 19 23
-508.397 -695.798 -1013 25 25 29
-506.838 -695.837 -1013 27 27 31
-505.28 -695.878 -1013 24 24 28
-503.224 -695.23 -1012 21 21 25
-501.667 -695.27 -1012 21 21 25
-500.603 -695.997 -1013 21 21 25
-499.044 -696.036 -1013 21 21 25
-497.975 -696.763 -1014 20 19 26
-495.924 -696.116 -1013 18 17 24
-494.364 -696.155 -1013 17 16 24
-492.804 -696.194 -1013 19 18 26
-490.758 -695.547 -1012 21 20 27
-489.199 -695.586 -1012 20 19 26
-487.639 -695.625 -1012 21 20 28
-485.599 -694.977 -1011 22 21 29
-484.52 -695.703 -1012 21 20 27
-482.482 -695.054 -1011 20 19 26
-480.923 -695.093 -1011 20 19 25
-478.89 -694.444 -1010 19 18 24
-476.859 -693.795 -1009 18 18 22
-475.303 -693.833 -1009 19 19 23
-473.276 -693.184 -1008 20 20 24
-470.785 -691.847 -1006 19 19 23
-468.766 -691.197 -1005 19 19 23
-466.285 -689.859 -1003 20 20 24
-464.273 -689.209 -1002 21 21 25
-461.802 -687.871 -1000 21 21 25
-459.337 -686.532 -998 19 19 23
-457.337 -685.882 -997 17 17 21
-455.796 -685.918 -997 17 17 21
-453.8 -685.267 -996 16 16 20
-451.807 -684.616 -995 16 16 20
-449.816 -683.964 -994 18 18 22
-447.829 -683.313 -993 19 19 23
-445.395 -681.973 -991 20 20 24
-443.414 -681.321 -990 21 21 25
-440.544 -679.292 -987 22 22 26
-439.017 -679.328 -987 24 24 28
-436.604 -677.987 -985 26 26 30
-434.638 -677.334 -984 28 28 32
-433.115 -677.37 -984 29 29 33
-431.154 -676.717 -983 30 30 34
-429.632 -676.752 -983 30 30 34
-427.239 -675.41 -981 30 30 34
-425.72 -675.444 -981 31 31 35
-424.201 -675.479 -981 30 29 36
-422.25 -674.825 -980 34 33 40
-421.161 -675.548 -981 36 35 42
-420.069 -676.271 -982 35 34 41
-419.826 -678.372 -985 32 34 41
-419.149 -679.784 -987 33 35 42
-418.465 -681.195 -989 33 35 42
-419.039 -684.674 -994 33 35 42
-419.178 -687.463 -998 31 32 42
-418.886 -689.564 -1001 30 31 41
-418.584 -691.665 -1004 30 31 41
-417.442 -692.388 -1005 32 33 43
-417.124 -694.489 -1008 32 34 42
-415.972 -695.213 -1009 31 33 41
-415.227 -696.625 -1011 31 33 40
-414.476 -698.037 -1013 32 34 41
-412.904 -698.071 -1013 31 33 40
-411.737 -698.794 -1014 35 37 44
-410.567 -699.517 -1015 32 34 41
-409.394 -700.24 -1016 32 34 41
-408.217 -700.963 -1017 32 34 42
-407.037 -701.686 -1018 29 31 39
-405.853 -702.408 -1019 29 30 40
-405.46 -704.51 -1022 27 28 38
-404.267 -705.233 -1023 27 28 38
-403.464 -706.645 -1025 29 30 40
-403.046 -708.746 -1028 30 32 39
-401.448 -708.78 -1028 29 31 38
-400.627 -710.192 -1030 29 30 40
-399.413 -710.914 -1031 30 31 41
-398.195 -711.637 -1032 29 30 40
-397.358 -713.049 -1034 27 28 38
-395.749 -713.082 -1034 27 28 38
-394.521 -713.804 -1035 30 31 41
-393.29 -714.526 -1036 31 32 42
-392.433 -715.938 -1038 28 29 39
-390.818 -715.971 -1038 26 27 37
-389.576 -716.693 -1039 27 28 38
-388.332 -717.415 -1040 27 28 38
-387.456 -718.827 -1042 26 27 37
-385.833 -718.859 -1042 25 26 36
-384.209 -718.891 -1042 27 28 38
-383.32 -720.303 -1044 28 29 39
-382.059 -721.025 -1045 27 28 38
-380.431 -721.057 -1045 24 25 35
-378.439 -720.398 -1044 25 26 36
-377.173 -721.12 -1045 25 26 36
-375.903 -721.841 -1046 24 25 35
-374.272 -721.873 -1046 27 28 40
-372.641 -721.904 -1046 29 30 42
-371.01 -721.935 -1046 28 29 40
-369.731 -722.656 -1047 27 28 39
-368.098 -722.687 -1047 27 28 38
-366.814 -723.408 -1048 26 27 37
-365.179 -723.439 -1048 23 24 34
-363.89 -724.159 -1049 22 23 33
-362.944 -725.571 -1051 26 27 37
-361.991 -726.982 -1053 28 29 39
-361.373 -729.083 -1056 28 29 39
-362.109 -733.947 -1063 27 28 38
-363.84 -740.882 -1073 25 27 34
-366.215 -749.199 -1085 24 26 33
-370.903 -762.35 -1104 22 24 31
-375.867 -776.192 -1124 21 23 30
-378.105 -784.511 -1136 16 18 25
-378.98 -790.068 -1144 19 21 28
-379.5 -794.934 -1151 21 23 30
-378.686 -797.038 -1154 20 22 29
-378.188 -799.833 -1158 19 21 28
-377.353 -801.937 -1161 20 22 29
-376.185 -803.35 -1163 21 23 30
-609.43 -755.753 -1100 26 25 32
-604.429 -751.673 -1094 22 22 26
-599.996 -748.279 -1089 22 22 26
-595.58 -744.885 -1084 19 19 23
-592.274 -742.865 -1081 16 16 20
-590.07 -742.219 -1080 18 18 20
-586.778 -740.198 -1077 16 16 18
-583.498 -738.179 -1074 21 21 23
-580.225 -736.159 -1071 21 21 23
-577.502 -734.825 -1069 21 21 23
-574.246 -732.805 -1066 22 22 24
-570.999 -730.784 -1063 23 23 25
-567.762 -728.764 -1060 23 23 25
-564.533 -726.742 -1057 21 21 23
-561.847 -725.41 -1055 20 20 22
-558.103 -722.7 -1051 21 21 23
-554.902 -720.679 -1048 21 21 23
-550.654 -717.282 -1043 22 22 24
-546.421 -713.884 -1038 22 22 24
-542.728 -711.175 -1034 22 22 26
-539.047 -708.464 -1030 21 21 25
-535.899 -706.441 -1027 21 21 25
-533.283 -705.107 -1025 23 23 27
-530.671 -703.771 -1023 24 24 28
-528.065 -702.436 -1021 24 24 28
-525.465 -701.1 -1019 24 24 26
-523.385 -700.453 -1018 23 23 25
-521.821 -700.493 -1018 22 22 26
-519.235 -699.157 -1016 22 22 26
-517.164 -698.509 -1015 22 22 26
-515.603 -698.549 -1015 22 22 26
-513.536 -697.901 -1014 23 23 27
-511.473 -697.253 -1013 22 22 26
-509.915 -697.294 -1013 22 22 26
-508.356 -697.333 -1013 24 24 28
-506.799 -697.374 -1013 24 24 28
-505.24 -697.414 -1013 22 22 26
-503.184 -696.765 -1012 21 21 25
-501.627 -696.804 -1012 21 21 25
-500.564 -697.533 -1013 21 21 25
-499.004 -697.572 -1013 22 22 26
-497.936 -698.301 -1014 21 20 27
-495.885 -697.652 -1013 20 19 26
-494.813 -698.38 -1014 19 18 26
-493.251 -698.419 -1014 19 18 26
-491.204 -697.77 -1013 20 19 26
-489.159 -697.12 -1012 20 19 26
-487.6 -697.159 -1012 21 20 28
-486.04 -697.198 -1012 22 21 29
-484.002 -696.549 -1011 22 21 28
-481.966 -695.898 -1010 21 20 27
-480.885 -696.626 -1011 21 21 25
-478.851 -695.976 -1010 20 20 24
-476.821 -695.325 -1009 19 19 23
-474.322 -693.985 -1007 19 19 23
-472.769 -694.023 -1007 19 19 23
-470.279 -692.683 -1005 19 19 23
-468.261 -692.032 -1004 19 19 23
-466.247 -691.38 -1003 19 19 23
-463.772 -690.039 -1001 20 20 24
-461.764 -689.387 -1000 20 20 24
-459.299 -688.046 -998 20 20 24
-457.299 -687.394 -997 19 19 23
-455.302 -686.741 -996 16 16 20
-453.308 -686.089 -995 15 15 19
-451.77 -686.125 -995 16 16 20
-449.78 -685.473 -994 19 19 23
-447.792 -684.82 -993 20 20 24
-445.808 -684.166 -992 20 20 24
-443.378 -682.823 -990 21 21 25
-440.508 -680.79 -987 23 23 27
-438.982 -680.826 -987 23 23 27
-436.568 -679.482 -985 26 26 30
-434.161 -678.138 -983 29 29 33
-432.64 -678.173 -983 29 29 33
-431.118 -678.208 -983 29 29 33
-429.16 -677.553 -982 29 29 33
-427.204 -676.899 -981 29 29 33
-425.685 -676.934 -981 29 29 33
-424.166 -676.968 -981 27 26 33
-422.216 -676.313 -980 31 30 37
-421.127 -677.038 -981 34 33 40
-420.462 -678.452 -983 35 34 41
-419.791 -679.867 -985 34 36 43
-419.114 -681.282 -987 34 36 43
-418.854 -683.387 -990 34 36 43
-419.427 -686.873 -995 35 37 44
-419.144 -688.979 -998 32 33 43
-418.433 -690.394 -1000 32 33 43
-418.133 -692.499 -1003 32 33 43
-417.408 -693.915 -1005 32 33 43
-417.09 -696.02 -1008 33 34 44
-415.938 -696.745 -1009 33 34 44
-414.783 -697.47 -1010 31 33 40
-414.033 -698.885 -1012 30 32 39
-412.87 -699.61 -1013 31 33 40
-411.703 -700.335 -1014 35 37 44
-410.533 -701.059 -1015 32 34 41
-409.36 -701.783 -1016 31 33 40
-408.183 -702.508 -1017 31 32 42
-407.003 -703.233 -1018 29 30 40
-406.218 -704.648 -1020 30 31 41
-405.426 -706.063 -1022 28 29 39
-404.233 -706.787 -1023 28 29 39
-403.43 -708.202 -1025 30 31 41
-402.621 -709.618 -1027 30 32 39
-401.024 -709.651 -1027 30 32 39
-400.205 -711.066 -1029 31 32 42
-399.38 -712.481 -1031 32 33 43
-398.162 -713.205 -1032 32 33 43
-396.941 -713.929 -1033 31 32 42
-395.716 -714.653 -1034 30 31 41
-394.488 -715.377 -1035 30 31 41
-393.637 -716.793 -1037 29 30 40
-392.401 -717.517 -1038 28 29 39
-391.162 -718.24 -1039 27 28 38
-389.919 -718.964 -1040 27 28 38
-389.046 -720.379 -1042 26 27 37
-387.795 -721.103 -1043 26 27 37
-386.171 -721.135 -1043 26 27 37
-384.546 -721.167 -1043 26 27 37
-383.656 -722.582 -1045 27 28 38
-382.027 -722.614 -1045 27 28 38
-380.399 -722.646 -1045 26 27 37
-378.77 -722.677 -1045 25 26 36
-377.141 -722.709 -1045 25 26 36
-375.872 -723.432 -1046 25 26 36
-374.241 -723.464 -1046 25 26 38
-372.61 -723.495 -1046 26 27 39
-371.333 -724.217 -1047 26 27 37
-369.7 -724.248 -1047 28 29 39
-368.067 -724.279 -1047 30 31 41
-366.784 -725.002 -1048 30 31 41
-365.148 -725.033 -1048 27 28 38
-363.86 -725.755 -1049 26 27 37
-362.568 -726.478 -1050 26 27 37
-361.96 -728.583 -1053 27 28 38
-361.343 -730.69 -1056 28 29 39
-361.738 -734.872 -1062 26 27 37
-363.131 -741.13 -1071 25 27 34
-365.846 -750.157 -1084 23 25 32
-371.208 -764.721 -1105 22 24 31
-376.504 -779.286 -1126 21 23 30
-379.071 -788.315 -1139 17 19 26
-379.942 -793.884 -1147 19 21 28
-380.127 -798.07 -1153 20 22 29
-379.31 -800.178 -1156 20 22 29
-378.809 -802.979 -1160 21 23 30
-377.646 -804.395 -1162 20 22 29
-376.153 -805.12 -1163 20 22 29
-609.388 -757.426 -1100 27 26 33
-604.387 -753.335 -1094 22 22 26
-599.955 -749.933 -1089 21 21 25
-596.088 -747.22 -1085 19 19 23
-593.328 -745.884 -1083 18 18 22
-590.574 -744.548 -1081 19 19 22
-586.738 -741.835 -1077 17 17 20
-582.913 -739.121 -1073 20 20 22
-579.642 -737.096 -1070 21 21 23
-576.92 -735.76 -1068 21 21 23
-573.666 -733.734 -1065 22 22 24
-570.421 -731.709 -1062 22 22 24
-567.721 -730.373 -1060 22 22 24
-565.026 -729.035 -1058 21 21 23
-561.805 -727.01 -1055 19 19 21
-558.062 -724.295 -1051 20 20 22
