ply
format ascii 1.0
comment Created by Open3D
element vertex 737
property double x
property double y
property double z
property double nx
property double ny
property double nz
property uchar red
property uchar green
property uchar blue
end_header
-157.074 -283.641 -2123.22 0.764265 0.187272 0.435827 60 62 63
-146.189 -308.97 -2126.29 0.749506 0.228566 0.542436 68 69 71
-152.116 -295.068 -2122.5 0.610261 0.186325 0.595548 63 65 65
-157.404 -279.356 -2127.11 0.738704 0.233616 0.453055 60 61 63
-158.248 -277.109 -2126.71 0.722356 0.276985 0.441921 59 60 62
-172.869 -263.508 -2127.42 0.547707 0.315079 0.683859 118 106 95
-161.015 -270.871 -2126.68 0.424301 0.352043 0.667067 70 69 67
-413.517 -900.774 -2121.69 -0.491587 -0.0660917 0.762304 45 51 49
-419.166 -885.079 -2118.94 -0.701759 -0.0846259 0.586933 47 52 50
-414.135 -877.828 -2120.07 -0.851104 -0.176081 0.444771 49 53 50
-411.222 -869.116 -2120.07 -0.727345 0.0117587 0.59954 48 53 50
-425.073 -852.698 -2120.75 -0.622142 -0.217104 0.713983 47 53 51
-407.734 -859.167 -2117.79 -0.760159 0.142038 0.631489 46 50 47
-409.98 -853.413 -2120.84 -0.72447 0.0491846 0.677991 48 52 49
-368.098 -950.542 -2118.78 0.701273 -0.0856947 0.718115 44 50 49
-368.784 -942.792 -2116.85 0.688177 -0.0111421 0.730539 44 50 49
-372.861 -929.74 -2115.65 0.600638 0.00527523 0.827481 43 49 48
-370.368 -924.072 -2117.44 0.604072 -0.0601772 0.794197 42 49 48
-364.938 -917.457 -2121.15 0.61352 -0.176293 0.765757 42 50 48
-367.317 -911.344 -2115.7 0.582867 -0.251082 0.772633 43 51 49
-361.314 -905.199 -2118.17 0.613589 -0.276702 0.739625 42 50 48
-356.577 -896.878 -2119.66 0.730465 -0.149381 0.646709 44 52 50
-291.398 -602.042 -2121.35 0.798969 -0.0506754 0.586998 38 44 44
-292.816 -598.997 -2117.77 0.818792 -0.00998303 0.584491 40 46 45
-293.6 -580.894 -2116.07 0.809942 -0.0409374 0.616455 37 42 42
-292.948 -577.178 -2117.72 0.806332 0.0376274 0.617277 34 39 39
-296.852 -564.964 -2116.56 0.720329 0.245797 0.60399 30 34 34
-297.807 -560.632 -2118.92 0.764253 0.204336 0.552031 31 37 36
-441.722 -548.115 -2119.5 -0.83437 0.00666974 0.42942 51 57 56
-437.856 -538.49 -2116.46 -0.806882 0.119402 0.546794 50 57 56
-436.33 -534.964 -2115.52 -0.791786 0.127719 0.575879 50 57 55
-437.22 -519.903 -2120.98 -0.686677 -0.0696038 0.582098 49 55 55
-438.209 -512.201 -2115.61 -0.719529 -0.141813 0.617288 50 57 57
-442.02 -505.214 -2118.04 -0.801897 -0.134522 0.548973 50 57 56
-442.88 -499.79 -2117.74 -0.830557 -0.10082 0.535868 50 57 57
-442.049 -490.962 -2117.44 -0.820526 0.0431646 0.543018 51 57 57
-168.12 -798.392 -2120.09 -0.688052 -0.1267 0.716072 45 51 51
-163.803 -803.287 -2115.98 -0.66384 -0.128124 0.73018 45 51 50
-170.306 -787.988 -2120.38 -0.642317 -0.108102 0.753225 45 50 51
-170.973 -779.182 -2119.94 -0.647018 -0.0604081 0.761099 45 51 52
-171.239 -775.562 -2120.2 -0.645646 -0.044325 0.762307 45 51 51
-166.479 -767.074 -2115.83 -0.641014 -0.0609145 0.763612 45 51 52
-173.019 -756.824 -2120.51 -0.535766 -0.166687 0.822009 42 47 49
-112.665 -797.885 -2120.01 0.833735 -0.0222923 0.543792 47 52 51
-114.795 -796.441 -2116.47 0.7778 -0.0226558 0.612525 47 53 52
-111.401 -782.517 -2119.77 0.821491 -0.0911805 0.551036 49 53 52
-113.635 -777.457 -2115.99 0.755443 -0.0547312 0.643059 49 53 52
-109.993 -768.112 -2121.39 0.812177 0.058119 0.566846 47 52 52
-114.692 -755.408 -2119.1 0.805899 0.115527 0.555014 48 54 54
-119.701 -554.899 -2116.29 0.591151 -0.00571824 0.776412 53 59 61
-115.565 -548.452 -2120.77 0.704332 -0.0458972 0.695104 52 58 59
-117.117 -536.23 -2117.8 0.636153 0.0412747 0.745082 52 58 59
-114.216 -537.418 -2119.45 0.631011 0.0136699 0.745256 51 57 58
-123.352 -522.331 -2115.82 0.438914 0.183517 0.863929 52 58 60
-110.864 -525.469 -2119.99 0.529523 -0.0560602 0.834502 48 54 53
-114.048 -522.133 -2118.24 0.578939 0.0383409 0.760519 49 56 56
-119.386 -517.359 -2116.48 0.516041 0.162969 0.783927 51 57 58
-120.796 -508.433 -2115.97 0.560499 0.215576 0.756979 52 58 58
-108.692 -517.421 -2121.34 0.684083 0.0475939 0.626665 49 55 55
-124.836 -500.773 -2120.94 0.711954 0.229188 0.661338 53 60 59
-120.592 -500.492 -2121.35 0.656359 0.256099 0.687904 52 59 58
-120.03 -498.135 -2118.82 0.629984 0.194766 0.700868 52 58 57
-109.334 -506.222 -2116.99 0.851403 -0.128377 0.391498 48 56 54
-123.739 -491.692 -2116.2 0.626079 0.0799848 0.675884 51 58 57
-106.424 -491.126 -2119.92 0.869484 -0.00659659 0.371738 50 58 56
-107.521 -485.479 -2119.58 0.840325 0.119033 0.472887 50 58 56
-378.073 13.7562 -2121.01 -0.0519696 0.523774 0.835898 51 51 61
-367.086 9.69325 -2117.68 0.0478353 0.615764 0.791921 49 51 62
-358.947 6.4556 -2117.24 0.152086 0.566807 0.806126 50 54 65
-355.277 9.24747 -2119.04 0.11897 0.491218 0.850323 50 55 66
-346.709 7.97289 -2118.84 0.0698665 0.468462 0.867939 49 53 66
-343.935 10.4379 -2119.95 0.0524985 0.423502 0.895637 46 50 63
-336.71 8.08327 -2119.36 0.0095567 0.527068 0.845785 45 47 60
-330.227 9.65167 -2120.57 -0.0853018 0.566016 0.81179 98 99 107
-367.689 14.5389 -2121.45 -0.017263 0.608293 0.803125 48 51 62
-350.27 13.509 -2120.69 0.0569951 0.365086 0.92033 49 54 66
-323.405 5.93115 -2116.29 -0.201389 0.563541 0.79392 62 64 75
-210.789 -256.511 -2117.47 0.613152 0.264493 0.728667 220 195 174
-212.605 -251.698 -2116.36 0.641585 0.0999351 0.753671 212 188 168
-204.203 -244.32 -2120.35 0.607742 -0.328262 0.666885 150 133 118
-189.331 -258.16 -2116.13 0.368884 0.196948 0.612782 196 173 155
-178.859 -258.344 -2120.39 0.694016 -0.1394 0.666019 193 173 156
-198.757 -240.256 -2118.19 0.546701 -0.618655 0.523487 88 77 70
-189.657 -237.369 -2120.22 0.629353 -0.294849 0.493483 88 76 70
-179.628 -229.375 -2120.76 0.809809 -0.18542 0.5144 40 41 47
-180.697 -227.602 -2118.96 0.739178 -0.213022 0.599977 33 35 44
-183.076 -213.186 -2115.98 0.749042 0.133817 0.645554 41 41 49
-182.91 -210.381 -2117.36 0.765265 0.150231 0.627956 41 41 49
-182.636 -201.212 -2119.55 0.727953 0.112671 0.673053 35 34 43
-182.752 -196.684 -2119.96 0.703686 0.0566484 0.702063 33 32 41
-182.325 -190.899 -2120.09 0.675838 -0.0331819 0.733336 32 29 38
-183.457 -184.649 -2118.51 0.66207 -0.105946 0.741544 30 28 38
-178.698 -169.961 -2116.58 0.734788 -0.220672 0.639967 35 34 44
-163.555 -223.301 -2116.21 0.731509 -0.00900507 0.542839 40 40 48
-172.361 -220.302 -2118.11 0.703705 -0.0219202 0.657371 40 39 46
-171.263 -219.452 -2120.81 0.73356 0.00623872 0.66445 41 40 46
-327.949 292.1 -2126.54 -0.593783 0.247163 0.60768 119 99 98
-326.967 284.906 -2119.84 -0.473145 -0.068357 0.69725 92 78 81
-335.794 -724.328 -2113.66 0.727878 0.129058 0.671768 41 46 44
-338.275 -721.589 -2111.32 0.708611 0.0790536 0.698641 42 46 44
-333.135 -706.61 -2110.17 0.610839 -0.315858 0.714278 43 49 48
-329.936 -700.716 -2109.41 0.608792 -0.381584 0.692711 44 50 49
-321.899 -692.694 -2112.7 0.661677 -0.351452 0.662847 42 48 47
-322.942 -689.996 -2110.29 0.667559 -0.334055 0.668865 43 49 48
-317.004 -680.094 -2113.21 0.707105 -0.262188 0.667557 41 48 47
-318.649 -676.462 -2110.81 0.665163 -0.164051 0.720071 42 48 47
-312.82 -675.946 -2115.83 0.650052 -0.198363 0.711358 42 48 47
-317.992 -666.153 -2111.17 0.462407 0.0446986 0.875709 44 50 49
-316.093 -657.497 -2111.61 0.398816 -0.0651748 0.900321 45 50 49
-312.644 -665.193 -2113.93 0.52892 -0.0879084 0.822282 43 49 48
-155.382 -1083.13 -2114.79 -0.248691 -0.144151 0.93573 53 51 55
-151.456 -1087.75 -2115.3 -0.0418544 -0.237321 0.928245 51 51 53
-146.476 -1080.47 -2113.3 0.00662922 -0.244656 0.947183 49 50 52
-145.122 -1075.43 -2112.19 -0.0421715 -0.172991 0.957722 48 50 52
-139.761 -1079.14 -2113.69 0.179037 -0.242167 0.932115 46 48 50
-158.473 -1071.49 -2115.22 -0.386788 -0.0379672 0.917275 53 52 55
-153.83 -1050.2 -2115.29 -0.6211 0.356614 0.66161 45 47 49
-146.777 -1069.34 -2111.3 -0.19319 -0.0672975 0.964151 48 50 52
-143.265 -1065.49 -2111.08 -0.0665553 -0.0527029 0.964928 47 50 51
-140.408 -1071.21 -2111.91 0.103607 -0.139058 0.953952 47 49 51
-140.459 -1067.2 -2111.48 0.0886376 -0.087386 0.959502 47 50 51
-152.401 -1061.06 -2112.87 -0.447716 0.128002 0.875022 47 48 50
-149.978 -1056 -2112.53 -0.407497 0.18628 0.857406 46 48 50
-136.411 -1057.42 -2113.04 0.31901 0.0284587 0.91399 44 48 48
-136.886 -1055.03 -2112.93 0.272038 0.0801921 0.918967 44 48 48
-235.814 -603.577 -2112.31 -0.503125 -0.0867756 0.854971 46 52 56
-236.813 -598.059 -2112.81 -0.520833 -0.0814568 0.849389 47 52 57
-239.85 -590.192 -2113.84 -0.475268 -0.144248 0.867049 46 50 54
-245.652 -582.743 -2114.96 -0.329233 -0.218378 0.906797 45 49 52
-233.074 -588.411 -2110.49 -0.445247 -0.0453113 0.890492 46 52 55
-255.14 -576.366 -2114.93 -0.23149 -0.278303 0.913473 45 47 51
-253.686 -570.552 -2112.41 -0.196999 -0.27448 0.925563 44 47 51
-267.524 -562.002 -2114.94 -0.52705 -0.229339 0.811941 45 46 52
-262.576 -561.928 -2112.45 -0.398596 -0.202969 0.873496 46 47 52
-262.551 -557.217 -2112.13 -0.364186 -0.150553 0.898757 46 47 52
-247.93 -575.088 -2113.1 -0.181978 -0.194605 0.947111 44 48 51
-248.813 -572.657 -2112.62 -0.1561 -0.199319 0.950219 44 48 51
-246.302 -568.197 -2111.42 -0.0907661 -0.150351 0.972188 44 48 51
-231.789 -578.431 -2110.29 -0.289747 -0.0383008 0.9521 44 50 53
-230.817 -570.059 -2109.88 -0.194407 -0.0255476 0.980766 45 50 54
-242.589 -565.513 -2111.23 -0.0535437 -0.092471 0.98765 45 49 52
-251.399 -558.569 -2110.42 -0.111801 -0.106677 0.976756 45 48 52
-239.358 -569.055 -2111.27 -0.103589 -0.0846207 0.983883 44 49 52
-237.318 -561.621 -2110.65 -0.068964 -0.0532964 0.99358 46 51 54
-146.446 -110.969 -2109.12 0.907561 -0.144605 0.373055 25 27 34
-143.389 -107.104 -2115.63 0.963837 -0.0455552 0.110737 25 27 34
-144.506 -98.1367 -2114.23 0.976484 0.0653977 0.114611 25 27 35
-145.513 -91.1841 -2112.93 0.98454 0.0240305 0.0689931 26 28 36
-143.234 -74.4847 -2111.04 0.946566 -0.140782 0.0729439 29 30 39
-140.322 -63.4781 -2112.07 0.95401 -0.125973 0.240465 29 30 40
-205.669 185.551 -2112.6 0.950139 -0.171339 0.077511 219 197 187
-204.582 198.995 -2109.23 0.981222 -0.0708534 0.0669135 228 204 192
-204.148 210.529 -2110.68 0.993396 -0.00350732 -0.038444 240 210 199
-204.678 214.89 -2109.36 0.985285 0.0633115 0.0245142 238 207 197
-201.507 229.188 -2110.39 0.866831 -0.318851 0.325273 194 166 156
-204.167 253.66 -2108.69 0.769991 -0.146928 0.491944 96 78 73
-199.736 245.165 -2113.28 0.831264 -0.0767043 0.387873 105 87 83
-202.453 255.194 -2111.05 0.824016 -0.192548 0.433796 80 66 64
-194.737 264.751 -2111.24 0.755976 -0.425941 0.435349 49 41 43
-193.95 266.208 -2112.59 0.771467 -0.378557 0.423687 47 38 41
-195.807 283.155 -2111.92 0.718773 0.0997692 0.582026 52 41 44
-373.607 -1217.69 -2108.51 -0.481354 0.773203 -0.0215949 161 134 118
-368.442 -1209.34 -2108.4 -0.507563 0.837848 -0.0411753 162 135 119
-358.613 -1202.81 -2105.1 -0.46672 0.882066 0.0498118 148 122 108
-348.634 -1198.53 -2105.02 -0.341027 0.89404 0.141319 185 154 130
-329.479 -1199.31 -2104.41 -0.431569 0.680161 0.554341 209 174 145
-333.898 -1192.46 -2109.31 -0.3148 0.836322 0.328876 213 181 155
-327.251 -1195.31 -2105.23 -0.446676 0.738647 0.420513 215 180 153
-321.483 -1187.4 -2105.75 -0.557753 0.722893 0.204855 228 193 166
-315.404 -1179.41 -2107.39 -0.351646 0.594552 0.546324 239 206 179
-317.51 -1178.72 -2108.29 -0.427911 0.526708 0.612368 240 207 181
-305.899 -1182.03 -2105.99 0.0899609 0.735963 0.540562 240 206 178
-277.864 -1192.03 -2103.88 0.209748 0.881345 0.329566 150 116 90
-282.004 -1189.01 -2107.5 0.310999 0.891459 0.317856 152 117 90
-295.615 -1184.16 -2104.58 0.101674 0.893707 0.372751 228 191 163
-211.205 -1176.94 -2105.17 -0.227021 0.470817 0.695108 83 76 74
-204.5 -1174.87 -2105.87 -0.154353 0.501886 0.63127 89 81 77
-183.497 -1186.86 -2105.23 0.593232 0.791733 0.0467463 216 183 153
-200.896 -1175.86 -2107.6 0.061841 0.599186 0.444733 136 119 104
-188.196 -1182.68 -2108.37 0.58157 0.845574 -0.0063374 218 184 153
-154.252 -1217 -2109.28 0.421655 0.899458 -0.0543969 164 129 119
-166.402 -1206.6 -2108.57 0.68292 0.645214 -0.118084 202 166 141
-161.796 -1208.7 -2104.16 0.467537 0.839701 -0.0655618 181 145 129
-150.921 -1222.14 -2105.86 0.606728 0.723963 -0.0505446 150 117 107
-177.835 -1190.37 -2108.71 0.701622 0.680931 0.0436201 213 181 152
-171.861 -649.69 -2105.75 -0.124781 -0.0742463 0.98402 48 52 53
-167.81 -648.284 -2103.98 -0.209721 -0.128169 0.963768 50 54 55
-175.23 -637.421 -2105.47 -0.235486 -0.0592594 0.953926 48 52 53
-175.645 -632.11 -2105.32 -0.304807 -0.0822044 0.926409 48 52 53
-144.466 -643.747 -2103.23 0.275148 -0.0889358 0.948806 49 55 57
-139.643 -649.898 -2104.83 0.246154 -0.0922205 0.964731 49 55 56
-138.753 -646.804 -2104.84 0.276646 -0.0792375 0.952746 49 55 57
-142.197 -637.771 -2103.68 0.387645 -0.0721187 0.913465 49 56 59
-139.68 -637.786 -2104.54 0.364459 -0.0657155 0.922651 49 56 59
-138.844 -634.237 -2104.64 0.384209 -0.0823771 0.913976 50 57 60
-173.016 -628.234 -2104.02 -0.414478 -0.101359 0.901306 48 52 54
-177.661 -618.42 -2103.67 -0.179832 -0.0955693 0.967148 44 49 52
-133.136 -627.712 -2105.78 0.363326 -0.132756 0.913922 50 56 59
-130.161 -622.219 -2106.77 0.464107 -0.118092 0.863192 50 56 59
-135.551 -606.03 -2104.47 0.511049 0.144102 0.822625 52 58 60
-127.427 -650.009 -2108.18 0.442466 -0.122564 0.864327 50 55 57
-127.079 -633.949 -2108.89 0.446071 -0.0253608 0.870979 50 56 58
-125.936 -616.314 -2109.74 0.630667 -0.0333766 0.763551 50 56 58
-132.115 -601.866 -2108.04 0.603352 0.186545 0.754743 51 57 61
-135.532 -594.356 -2106.25 0.503175 0.114588 0.848018 53 59 62
-379.445 -59.6083 -2105.14 -0.836733 -0.068684 0.493888 33 34 42
-380.941 -49.8409 -2108.68 -0.879968 -0.0693144 0.439619 34 35 43
-379.943 -43.1358 -2105.31 -0.801469 -0.126417 0.574897 40 40 49
-379.762 -35.8581 -2104.3 -0.738903 -0.0353916 0.655749 42 41 51
-381.896 -26.9732 -2108.49 -0.734128 0.140896 0.650385 43 43 53
-376.507 -16.8832 -2107.47 -0.59497 0.145721 0.787756 47 48 58
-374.377 -23.3477 -2104 -0.599515 0.254209 0.76278 46 47 58
-367.088 -15.9703 -2103.09 -0.36847 0.334165 0.849624 52 53 64
-191.977 -206.859 -2109.05 0.636828 0.212287 0.738833 41 42 49
-196.864 -198.182 -2108.18 0.590658 0.130821 0.78195 38 37 47
-182.873 -209.021 -2106.25 0.687762 0.158454 0.706336 39 39 48
-181.354 -200.815 -2108.64 0.677124 0.17564 0.711937 38 38 47
-196.33 -195.856 -2109.19 0.616002 0.0688946 0.768723 36 35 45
-185.779 -196.418 -2103.22 0.662919 0.0998404 0.731289 35 35 44
-182.738 -188.437 -2106.01 0.63732 -0.00528421 0.764567 32 31 41
-195.148 -182.971 -2107.83 0.659305 -0.184172 0.728458 32 31 41
-194.84 -178.773 -2105.99 0.664791 -0.248647 0.708239 32 31 41
-180.159 -179.551 -2107.83 0.647207 -0.21464 0.719125 33 32 42
-191.179 -172.477 -2106.6 0.639384 -0.233732 0.732831 33 32 42
-189.019 -173.539 -2108.97 0.650463 -0.250299 0.719588 33 32 42
-185.749 -164.067 -2107.69 0.644492 -0.135287 0.69466 34 33 43
-183.582 -163.385 -2109.13 0.699716 -0.11392 0.597887 34 33 43
-172.872 -222.011 -2104.82 0.599318 -0.593779 0.434226 38 39 47
-166.859 -212.409 -2106.78 0.818718 -0.0572302 0.561008 44 45 52
-166.545 -209.763 -2107.63 0.835988 0.0411592 0.541552 42 44 51
-169.983 -203.632 -2105.71 0.831919 0.16478 0.535329 33 35 42
-168.64 -186.649 -2107.53 0.828532 -0.183913 0.528982 30 32 39
-167.741 -183.142 -2107.01 0.818524 -0.202803 0.541033 29 31 38
-165.634 -174.905 -2108.03 0.788318 -0.111125 0.592853 31 33 40
-166.231 -169.089 -2108.17 0.74009 0.0701877 0.663856 32 34 41
-172.637 -163.608 -2107.89 0.648869 0.16827 0.618564 32 34 41
-293.372 320.569 -2108.07 -0.598403 0.295408 0.674126 100 82 83
-291.092 326.904 -2112.16 -0.594859 0.313028 0.672666 102 84 85
-286.321 330.044 -2109.16 -0.673486 0.195145 0.670741 95 77 78
-279.665 330.157 -2104.56 -0.546289 0.150998 0.683489 103 84 85
-373.76 -885.489 -2101.23 0.482126 -0.139708 0.803032 44 52 50
-374.272 -876.893 -2100.88 0.533863 0.0962267 0.74237 42 50 48
-413.51 -835.404 -2102.8 -0.489613 -0.14819 0.834489 46 53 51
-412.883 -837.244 -2102.87 -0.49266 -0.156994 0.824613 46 53 51
-409.494 -831.141 -2101.5 -0.379912 -0.090684 0.864567 45 53 51
-394.903 -846.979 -2102.87 -0.521113 -0.230974 0.604733 47 52 49
-395.754 -843.366 -2102.09 -0.518559 -0.181295 0.646893 46 52 49
-394.228 -840.893 -2100.44 -0.341793 -0.187299 0.776994 46 52 49
-381.285 -850.244 -2102.21 0.244619 -0.369398 0.847495 43 51 48
-377.075 -843.288 -2101.06 0.287758 -0.256766 0.811913 45 52 50
-391.051 -835.162 -2098.01 -0.115468 -0.137305 0.953986 45 52 50
-397.047 -827.863 -2098.67 -0.111546 -0.0680241 0.970758 45 53 51
-384.133 -839.182 -2096.54 -0.0945129 -0.140727 0.939972 47 53 51
-383.308 -831.291 -2097 0.0874393 -0.0863096 0.962014 45 52 50
-414.985 -824.644 -2102.84 -0.541215 0.183289 0.788717 45 53 51
-401.454 -825.779 -2099.37 -0.144453 -0.0310114 0.961108 45 52 50
-402.49 -818.438 -2100.31 -0.307555 0.054519 0.895712 46 53 50
-403.48 -813.767 -2101.73 -0.386065 -0.0219071 0.840899 47 53 51
-392.979 -827.171 -2097.71 -0.0950893 -0.0500519 0.993116 45 53 51
-394.807 -821.034 -2098.2 -0.17339 0.0466824 0.968525 45 53 50
-376.397 -823.71 -2098.81 0.372652 -0.152273 0.866642 45 52 50
-282.957 -506.643 -2101.64 0.18568 -0.260846 0.941911 29 34 34
-281.619 -507.622 -2101.93 0.180756 -0.266802 0.941782 29 34 34
-287.989 -505.986 -2100.08 0.317655 -0.210444 0.913717 33 39 39
-277.957 -501.129 -2099.78 0.0267918 -0.278322 0.947506 30 35 36
-282.085 -496.434 -2098.91 0.17364 -0.263799 0.935254 31 37 37
-211.267 -631.872 -2102.71 -0.410222 -0.227157 0.873138 46 52 56
-200.809 -632.871 -2102.13 -0.0755232 -0.297515 0.926196 45 50 53
-212.344 -624.997 -2102.38 -0.433053 -0.0670949 0.884998 46 53 56
-203.946 -623.672 -2100.58 -0.0990859 -0.0582633 0.958742 46 51 54
-210.907 -615.843 -2102.48 -0.341003 0.0284151 0.929927 46 52 56
-203.513 -610.36 -2102.09 -0.0279715 0.036979 0.988127 47 51 56
-201.579 -629.463 -2101.07 -0.0530201 -0.218273 0.945076 46 51 54
-200.864 -622.11 -2100.74 0.0147567 -0.0243013 0.975537 45 50 54
-198.762 -612.441 -2102.9 0.133497 0.0848847 0.983675 45 49 54
-178.886 -610.532 -2103.18 -0.107541 -0.0574138 0.988419 43 49 53
-394.614 -349.804 -2100.82 -0.811501 0.223658 0.518131 60 65 63
-389.486 -342.129 -2097.22 -0.72602 0.200824 0.644407 65 70 69
-393.151 -335.409 -2103.18 -0.737299 0.162315 0.655745 64 69 67
-363.489 -271.682 -2100.9 -0.515638 0.389837 0.710557 118 110 102
-354.399 -266.896 -2099.08 -0.352074 0.658198 0.6251 191 171 156
-346.839 -263.79 -2102.09 -0.235647 0.783833 0.564979 211 187 168
-337.765 -262.815 -2101.46 -0.30327 0.710492 0.580554 212 188 169
-326.002 -260.82 -2097.49 -0.477629 0.482275 0.687792 217 197 178
-327.486 -250.628 -2102.38 -0.640118 0.215202 0.737057 208 181 162
-355.857 -222.937 -2100.77 -0.465484 -0.679788 0.533271 49 47 57
-289.604 134.032 -2101.69 -0.501808 -0.80463 0.237826 164 192 191
-286.69 132.638 -2101.54 -0.506516 -0.802388 0.2724 163 191 190
-302.716 146.586 -2098.37 -0.709045 -0.562702 0.334639 172 188 184
-306.095 159.298 -2102.31 -0.911475 -0.0767219 -0.0732861 225 226 220
-292.153 138.621 -2097.83 -0.528234 -0.703414 0.427834 169 201 200
-305.912 160.45 -2101.66 -0.914679 -0.0426187 -0.0948532 228 228 222
-304.367 169.958 -2098.17 -0.92509 0.0133567 -0.171115 240 236 228
-305.922 181.059 -2101.14 -0.948864 -0.193666 -0.0559973 231 212 200
-306.806 186.474 -2099.1 -0.978589 -0.139223 -0.0354929 220 208 196
-307.271 197.136 -2099.43 -0.972172 -0.0941786 0.0717483 222 206 194
-311.656 207.892 -2102.18 -0.928586 -0.253987 0.123848 232 212 201
-313.673 210.544 -2101.41 -0.912286 -0.296381 0.139984 237 219 210
-311.933 227.16 -2099.29 -0.847181 0.180346 0.459414 245 214 203
-226.507 -259.672 -2102.42 0.526996 0.473189 0.695941 228 202 181
-219.437 -237.166 -2101.41 0.35241 -0.489351 0.784598 67 61 60
-223.33 -233.126 -2097.22 0.28328 -0.519856 0.800468 40 36 43
-213.963 -232.865 -2098.72 0.304463 -0.463944 0.798378 56 50 55
-203.627 -228.894 -2100.59 0.367797 -0.347712 0.785294 48 45 51
-203.49 -218.076 -2099.74 0.414302 0.0367743 0.885914 44 44 54
-206.68 -216.146 -2098.87 0.366168 0.120642 0.921072 45 46 56
-185.742 -223.118 -2098.47 0.656863 -0.431552 0.347287 36 36 44
-203.005 -219.234 -2099.97 0.42 -0.00805824 0.870609 43 43 53
-184.674 -222.151 -2100.68 0.651038 -0.375536 0.393845 38 37 45
-182.571 -220.162 -2103.12 0.647728 -0.299384 0.493069 40 39 47
-188.262 -212.483 -2099.07 0.636518 -0.0170292 0.723832 37 39 47
-228.521 136.113 -2102.36 0.652102 -0.724742 0.221468 164 141 130
-217.698 147.172 -2102.82 0.769669 -0.609658 -0.0170244 180 172 165
-215.022 152.73 -2100.42 0.817001 -0.502325 0.133138 192 198 194
-211.144 165.064 -2099.26 0.923359 -0.304298 0.136667 213 200 190
-209.098 178.032 -2102.57 0.973233 -0.0911418 0.189843 217 198 190
-209.272 180.971 -2102.35 0.963073 -0.112792 0.203195 216 200 191
-206.85 196.524 -2099.27 0.913539 -0.248351 0.282031 221 208 201
-205.523 199.902 -2100.82 0.929272 -0.211145 0.194379 225 209 201
-206.233 215.69 -2102.05 0.965526 0.150105 0.115076 237 209 198
-207.037 214.642 -2097.66 0.948124 0.157117 0.173779 236 212 202
-205.287 227.653 -2101.23 0.850561 -0.171749 0.296408 227 200 188
-371.15 -1215 -2094.01 -0.354114 0.906863 0.0992761 137 121 110
-367.66 -1209.06 -2096.03 -0.368688 0.902797 0.0692488 135 118 107
-355.876 -1201.33 -2095.45 -0.351147 0.93222 0.00912134 125 109 98
-346.873 -1197.55 -2094.88 -0.277913 0.967652 0.00667866 207 183 160
-336.192 -1199.79 -2092.37 -0.142882 0.708711 -0.00925537 213 175 147
-344.712 -1197.14 -2095.36 -0.28779 0.942457 0.0297633 222 194 168
-326.498 -1196.47 -2093.09 -0.54244 0.566539 0.192411 217 179 146
-316.47 -1189.52 -2094.03 -0.464577 0.821458 0.269898 218 180 150
-309.045 -1187.03 -2095.07 -0.273981 0.905001 0.352799 207 167 138
-296.43 -1187.2 -2092.81 -0.0673687 0.943641 0.307156 218 178 149
-290.517 -1188.69 -2091.46 0.118249 0.940081 0.250564 221 181 153
-287.751 -1188.72 -2095.87 0.207007 0.935793 0.228935 213 174 145
-409.423 -552.467 -2094.52 -0.572754 -0.0281286 0.813577 50 55 56
-405.437 -551.012 -2091.74 -0.557288 0.00526067 0.824189 50 56 56
-412.917 -538.743 -2094.49 -0.575593 -0.0753288 0.803711 50 56 56
-406.798 -542.783 -2091.49 -0.511667 -0.12703 0.850875 51 57 57
-409.575 -532.7 -2092.44 -0.597368 0.070855 0.785167 50 57 56
-411.445 -528.419 -2094.69 -0.623423 0.17614 0.745975 50 56 56
-404.645 -519.575 -2090.76 -0.61296 0.123694 0.761968 52 58 59
-411.878 -516.585 -2096.99 -0.582972 0.00145536 0.787097 51 57 56
-410.263 -507.452 -2091.89 -0.570013 -0.21571 0.784651 52 58 58
-413.889 -495.813 -2092.38 -0.578552 -0.013832 0.808376 52 58 57
-419.676 -494.276 -2096.79 -0.678945 -0.0121375 0.725483 51 57 56
-415.371 -486.045 -2094.52 -0.599384 0.0945089 0.783021 52 58 58
-409.878 -486.042 -2091.54 -0.468416 0.116364 0.87136 54 60 59
-192.784 -584.768 -2096.94 0.0336481 -0.130652 0.980023 48 53 57
-204.767 -569.219 -2096.16 0.00385907 -0.0784325 0.969843 50 56 60
-207.184 -562.95 -2095.74 -0.092443 -0.053996 0.947816 50 56 60
-206.702 -561.3 -2095.7 -0.0934801 -0.0470087 0.950544 50 57 60
-195.469 -580.556 -2097.03 0.0354157 -0.00682255 0.984215 49 53 58
-160.96 -631.212 -2096.6 -0.0770064 -0.135265 0.950084 47 53 57
-162.512 -624.872 -2096.63 -0.166829 -0.0202856 0.963481 47 53 57
-356.823 -217.202 -2095.7 -0.540088 -0.470849 0.698563 42 43 55
-355.338 -211.142 -2093.46 -0.533242 -0.231031 0.785563 40 40 52
-339.424 -223.964 -2090.75 -0.397263 -0.611712 0.658905 45 45 52
-329.805 -233.583 -2096.29 -0.472581 -0.713308 0.534146 55 50 51
-348.181 -217.167 -2090.87 -0.397919 -0.46089 0.763483 42 40 51
-321.089 -258.249 -2095.35 -0.500082 0.349896 0.770133 218 194 174
-314.245 -253.634 -2093.12 -0.435981 0.205771 0.876768 214 189 169
-308.304 -253.44 -2091.44 -0.28774 0.192213 0.938019 218 193 174
-303.917 -249.729 -2091.48 -0.164565 0.143948 0.97051 212 188 170
-319.427 -247.323 -2096.54 -0.564187 0.11306 0.816295 199 173 151
-318.887 -237.371 -2093.87 -0.404136 -0.404705 0.753159 94 83 78
-305.84 -243.194 -2091.48 -0.326073 0.0083846 0.93569 176 157 141
-296.737 -253.528 -2092.43 0.144544 0.229358 0.943833 218 193 174
-296.041 -249.081 -2092.56 0.138205 0.0638634 0.951664 212 189 170
-285.152 -259.55 -2094.38 0.260994 0.487937 0.800847 218 194 175
-282.652 -255.135 -2095.9 0.185925 0.292877 0.885516 221 196 177
-276.896 -253.664 -2095.1 -0.0134987 0.159356 0.928768 220 195 177
-293.988 -244.988 -2092.4 0.192344 -0.134983 0.933438 192 171 155
-285.501 -241.33 -2093.18 0.184427 -0.296365 0.904406 161 143 132
-285.777 -238.334 -2091.31 0.177547 -0.421502 0.861814 117 104 100
-325.479 -234.314 -2094.21 -0.416444 -0.704532 0.584606 53 48 50
-355.064 -206.22 -2093.72 -0.509852 -0.0165586 0.832215 41 41 53
-354.601 -201.045 -2094.94 -0.464805 0.144916 0.853164 44 44 55
-350.214 -203.631 -2091.8 -0.412732 0.178891 0.890349 44 44 55
-346.914 -196.608 -2093.24 -0.329701 0.276622 0.902815 47 46 56
-346.913 -188.181 -2095.32 -0.491791 0.0750605 0.843385 45 43 52
-234.552 -157.533 -2090.98 0.24381 0.229994 0.940186 40 39 49
-238.562 -153.793 -2091.09 0.188855 0.179369 0.96288 41 41 50
-241.972 -143.931 -2092.01 0.337819 0.141171 0.921365 34 33 43
-244.382 -140.416 -2091.51 0.396675 0.143546 0.901073 31 30 41
-228.99 -143.575 -2096.03 0.195446 0.206461 0.956647 30 30 40
-233.813 -138.353 -2096.98 0.238612 0.223074 0.943684 29 29 40
-242.357 -130.848 -2092.97 0.346481 -0.0349013 0.914842 27 26 37
-237.298 -130.235 -2094.61 0.267448 -0.100377 0.928152 26 27 37
-231.226 -132.597 -2096.46 0.134602 -0.0675511 0.961028 27 28 38
-234.35 -125.177 -2093.56 0.177949 -0.322055 0.913376 23 24 34
-229.944 -121.778 -2091.79 0.0363205 -0.409385 0.905902 21 22 31
-218.324 -158.799 -2096.78 0.285625 0.200385 0.92534 39 38 48
-222.702 -147.891 -2096.63 0.270302 0.079108 0.956931 32 33 43
-222.398 -142.129 -2096.8 0.137364 0.044688 0.975916 27 28 38
-215.219 -143.181 -2097 0.101663 -0.0796196 0.988371 25 26 36
-204.497 -139.784 -2097.02 0.180671 -0.207452 0.962531 24 26 36
-184.461 -159.759 -2095.71 0.657781 -0.127282 0.600357 32 35 42
-215.883 -134.939 -2094.46 -0.0174213 -0.227864 0.966648 24 25 35
-223.083 -129.465 -2093.75 -0.0518061 -0.258534 0.954209 24 25 35
-211.802 -135.407 -2094.62 0.0354233 -0.254319 0.959723 24 25 35
-211.745 -126.637 -2090.97 0.0291285 -0.353809 0.922777 22 24 33
-226.812 -122.145 -2091.68 -0.0317897 -0.387853 0.914792 21 22 32
-200.8 -124.363 -2092.8 0.27073 -0.371337 0.875217 22 24 32
-192.637 -118.719 -2092.57 0.375544 -0.460837 0.793799 23 24 34
-188.045 -120.035 -2096.22 0.452309 -0.458955 0.757795 25 24 34
-183.561 -111.905 -2092.1 0.534743 -0.426711 0.711093 31 31 41
-328.303 -601.362 -2088.15 0.439504 -0.201858 0.864644 45 53 51
-331.323 -596.151 -2085.56 0.430156 -0.193266 0.881028 45 53 51
-321.171 -594.401 -2089.53 0.453511 -0.257432 0.856198 44 52 50
-324.173 -591.032 -2087.07 0.438407 -0.232132 0.866996 44 52 50
-323.593 -586.314 -2085.63 0.412539 -0.225941 0.878151 44 52 50
-322.29 -578.299 -2085.67 0.409975 -0.0755192 0.887158 45 53 51
-323.609 -573.933 -2085.73 0.330893 0.0396033 0.927219 45 53 51
-318.842 -574.228 -2087.89 0.461325 -0.0334509 0.856147 44 52 50
-317.482 -563.577 -2087.63 0.4039 -0.0607486 0.894682 45 53 51
-319.544 -560.607 -2086.24 0.328303 -0.0644466 0.933427 46 54 52
-401.159 -551.823 -2089.15 -0.518681 0.0468349 0.845262 50 56 56
-401.236 -539.98 -2087.44 -0.515286 -0.0782617 0.848308 51 58 58
-405.119 -535.897 -2089.38 -0.542273 -0.0261868 0.829672 50 57 57
-393.247 -552.381 -2085.17 -0.370758 0.01862 0.922836 51 58 58
-397.67 -541.772 -2085.57 -0.483997 -0.108695 0.865086 52 59 59
-360.15 -303.273 -2090.14 -0.646684 0.190711 0.732216 59 62 62
-359.246 -297.761 -2090.74 -0.638872 0.166319 0.741239 57 61 61
-354.389 -294.28 -2089.39 -0.462632 0.22301 0.840349 56 61 61
-346.161 -301.292 -2084.73 -0.242855 0.352527 0.902284 61 66 66
-350.819 -295.466 -2088 -0.381279 0.270666 0.866338 56 61 61
-347.912 -287.314 -2088.71 -0.35389 0.141215 0.915232 51 55 56
-339.829 -285.827 -2085.15 -0.393635 0.0164778 0.913722 49 55 54
-346.526 -278.125 -2088.41 -0.3973 0.191801 0.877227 84 80 76
-346.535 -274.575 -2089.58 -0.379019 0.32174 0.825629 114 105 97
-345.022 -271.862 -2089.98 -0.337968 0.472381 0.770187 150 136 124
-333.74 -270.881 -2085.24 -0.348026 0.539015 0.708249 180 161 143
-324.809 -268.205 -2086.04 -0.226103 0.679569 0.660505 206 185 166
-317.628 -263.737 -2089.8 -0.262193 0.590076 0.715284 224 199 180
-309.519 -261.095 -2088.99 -0.167097 0.422938 0.840022 223 197 179
-267.431 -241.061 -2089.55 -0.133763 -0.334268 0.927687 132 117 110
-265.097 -237.448 -2086.99 -0.0780175 -0.427945 0.892604 83 75 75
-256.173 -244.492 -2090.74 0.0287956 -0.283204 0.961849 178 159 146
-254.533 -240.402 -2088.46 0.0339689 -0.38789 0.919723 121 107 100
-249.33 -235.723 -2086 0.121488 -0.485836 0.857453 61 53 53
-243.871 -236.396 -2089.01 0.303794 -0.450954 0.820646 73 65 63
-246.832 -234.121 -2085.46 0.198632 -0.498015 0.83093 52 46 48
-238.767 -230.474 -2086.3 0.442503 -0.514569 0.735765 42 39 46
-232.491 -223.969 -2087.87 0.542205 -0.266648 0.781392 41 41 50
-230.675 -222.455 -2088.83 0.542922 -0.162879 0.815952 44 45 53
-231.207 -215.406 -2088.36 0.548537 -0.040265 0.839099 47 48 55
-192.358 -225.495 -2087.6 0.641927 -0.519913 0.427168 36 36 42
-223.41 143.261 -2087.01 0.70413 -0.667189 -0.0173061 167 193 194
-219.447 148.529 -2087.95 0.799859 -0.544512 0.0222127 180 199 201
-213.12 165.495 -2089.14 0.885183 -0.301531 0.156778 203 208 204
-215.066 182.121 -2084.86 0.7578 0.0578806 0.477401 203 228 229
-213.804 180.131 -2087.58 0.851763 0.048363 0.323277 204 217 215
-229.64 225.624 -2089.96 0.549224 0.183841 0.760001 203 165 150
-236.039 227.725 -2085.99 0.562568 0.0933892 0.795133 193 152 138
-213.494 183.561 -2090.42 0.868044 0.0224869 0.384012 207 216 214
-214.853 191.012 -2086.63 0.778462 -0.155943 0.542506 213 232 233
-209.849 205.594 -2089.9 0.862856 -0.176611 0.45746 230 239 240
-209.745 209.645 -2088.83 0.867539 -0.133096 0.391443 236 231 227
-208.442 216.919 -2089.34 0.901224 -0.152959 0.146643 234 210 202
-211.401 -1197.79 -2082.9 0.29731 0.959435 0.0849152 251 213 185
-189.791 -1210.62 -2081.73 0.378517 0.702046 0.54306 229 191 166
-194.516 -1204.5 -2082.39 0.348818 0.817869 0.426733 240 200 177
-190.353 -1198.96 -2080.8 0.353921 0.683364 0.443822 201 169 149
-182.737 -1208.39 -2083.43 0.381363 0.590746 0.600141 223 184 159
-187.375 -1200.52 -2082.7 0.342442 0.576958 0.541429 206 172 150
-262.719 -1197.22 -2079.79 -0.318999 0.725755 0.474772 187 155 130
-255.375 -1189.35 -2082.21 -0.472396 0.773389 0.389812 221 186 159
-245.844 -1187.44 -2079.06 -0.23791 0.860974 0.377866 223 185 159
-232.833 -1187.57 -2080.56 0.248371 0.808307 0.308791 244 207 180
-235.77 -1185.07 -2083.2 0.121194 0.857746 0.192297 229 192 164
-216.169 -1192.43 -2078.12 0.217825 0.554194 0.469318 194 165 142
-224.91 -1188.32 -2079.82 0.294492 0.649444 0.372739 217 185 160
-210.827 -1196.23 -2078.16 0.189599 0.896988 0.0724317 231 195 169
-207.934 -1198.15 -2077.17 0.185678 1.1049 -0.200438 255 219 190
-219.136 -1183.75 -2084.48 -0.0901368 0.749732 0.180088 151 128 111
-210.215 -1182.89 -2083.45 -0.143064 0.792731 0.308076 119 102 91
-197.203 -1197.46 -2085.04 0.284071 0.868218 0.30454 198 168 150
-194.546 -1185.96 -2081.89 0.199389 0.882423 0.431565 92 84 80
-183.293 -1188.95 -2083.14 0.384305 0.853894 0.227085 188 156 135
-195.743 -1184.36 -2084.41 0.204497 0.910679 0.386216 99 90 84
-343.014 -113.188 -2081.95 -0.462965 -0.401342 0.775492 27 27 37
-327.895 -121.874 -2082.88 -0.161124 -0.412879 0.888987 27 27 38
-337.706 -113.216 -2079.87 -0.31538 -0.422203 0.83885 27 27 37
-305.942 -143.236 -2084.62 -0.359843 -0.101798 0.923228 29 30 40
-296.532 -159.298 -2084.02 -0.0697627 0.0237346 0.987124 38 38 48
-296.726 -154.062 -2083.87 -0.111598 -0.0207451 0.978225 33 34 44
-295.144 -152.354 -2083.52 -0.0788889 -0.057002 0.980054 34 34 44
-298.235 -145.858 -2082.79 -0.207475 -0.0897869 0.953767 31 32 41
-295.065 -144.63 -2082.2 -0.116532 -0.135125 0.965598 33 34 43
-290.138 -139.12 -2081.63 0.0420385 -0.148319 0.973793 32 32 43
-282.416 -144.419 -2084.51 0.158906 -0.0342205 0.980935 34 34 47
-322.433 -124.666 -2083.5 -0.120121 -0.41122 0.893939 27 27 38
-309.355 -131.427 -2083.5 -0.249611 -0.220602 0.930651 27 27 37
-309.227 -130.898 -2083.38 -0.243113 -0.220294 0.932607 27 27 37
-303.266 -129.918 -2081.5 -0.249522 -0.140159 0.955414 27 27 37
-314.693 -119.649 -2081.98 -0.036359 -0.327585 0.936512 26 26 36
-325.9 -112.132 -2078.56 -0.00194302 -0.403597 0.91349 30 29 40
-310.33 -123.14 -2082.36 -0.108605 -0.251018 0.950326 25 26 35
-308.735 -117.634 -2081.33 -0.0568559 -0.263972 0.954148 24 25 35
-307.08 -116.266 -2080.94 -0.0524761 -0.27164 0.951676 24 25 35
-292.965 -135.891 -2080.84 -0.0497409 -0.145344 0.970716 31 31 41
-291.864 -129.602 -2080.43 0.00608915 -0.0984256 0.976712 25 26 36
-287.344 -133.082 -2081.63 0.151338 -0.0992733 0.96878 27 28 39
-288.569 -130.256 -2080.9 0.123485 -0.114703 0.968732 25 26 37
-297.203 -119.125 -2079.74 -0.0889558 -0.113426 0.984667 21 22 32
-299.824 -115.079 -2079.77 -0.0561026 -0.177873 0.971723 24 25 35
-287.173 -124.132 -2080.83 0.156868 -0.121785 0.960591 21 22 32
-286.038 -116.228 -2079.07 0.140713 -0.185081 0.962212 19 19 30
-277.365 -116.181 -2082.23 0.285174 -0.281318 0.910336 21 22 34
-355.048 -97.7032 -2082.29 -0.698627 -0.292771 0.63203 30 32 41
-355.49 -92.1445 -2081.48 -0.701023 -0.141769 0.667735 32 34 43
-350.863 -107.468 -2083.69 -0.669258 -0.38021 0.635605 28 29 39
-346.442 -103.89 -2078.73 -0.53638 -0.386678 0.746955 30 30 40
-273.088 132.388 -2083.41 -0.533479 -0.637893 0.521487 153 191 193
-270.632 131.217 -2082.12 -0.470321 -0.691579 0.516514 148 188 188
-254.114 126.641 -2078.94 -0.246194 -0.725441 0.447816 135 175 175
-252.435 124.317 -2083.8 0.0800959 -0.823702 0.324032 148 180 182
-238.08 127.89 -2080.97 0.502325 -0.639963 0.158169 160 192 194
-232.282 130.807 -2080.05 0.618562 -0.738387 -0.265288 145 172 171
-277.124 139.156 -2081.89 -0.640782 -0.476736 0.601706 146 185 186
-245.504 143.702 -2078.57 0.52153 -0.491962 0.691362 155 199 204
-228.3 136.758 -2083.52 0.666738 -0.701572 -0.207237 155 182 180
-237.894 150.537 -2078.87 0.463605 -0.453948 0.752151 163 207 211
-224.797 -1194.95 -2078.6 0.575784 0.734653 0.348482 255 220 192
-216.839 -1191.08 -2073.89 -0.0652033 0.171455 0.720067 131 109 95
-215.101 -1195.53 -2073.49 -0.0164156 0.3657 0.580717 151 127 111
-204.208 -1187.81 -2075.87 0.0728091 0.572868 0.566653 117 100 91
-205.088 -1184.8 -2078.64 0.128385 0.697111 0.494165 120 103 92
-199.236 -1191.4 -2073.63 0.000563068 0.579396 0.672893 107 93 85
-187.36 -1194.49 -2072.67 0.134386 0.715067 0.694599 173 144 121
-187.187 -1190.64 -2077.05 0.220325 0.808064 0.513747 156 132 115
-156.939 -1220.47 -2074.62 0.596452 0.632784 0.280965 205 168 146
-169.41 -1197.94 -2075.74 0.718847 0.617734 0.234695 213 174 147
-164.439 -1201.98 -2078.36 0.810198 0.536723 0.137317 213 174 148
-171.781 -1197.33 -2073.3 0.671184 0.635182 0.336197 216 177 149
-318.872 -302.226 -2073.56 -0.345004 0.170372 0.916441 64 68 66
-317.672 -301.71 -2073.27 -0.327234 0.166536 0.92394 64 68 66
-323.697 -292.591 -2077.45 -0.455166 0.0935951 0.879387 57 61 60
-320.276 -287.815 -2076.23 -0.397889 0.112085 0.902725 55 58 57
-318.67 -285.578 -2076 -0.358795 0.159302 0.907821 58 60 59
-307.002 -287.665 -2072.36 -0.230903 0.225429 0.945652 49 54 54
-315.631 -280.62 -2076.58 -0.258873 0.290283 0.898298 80 78 74
-311.144 -280.2 -2075.66 -0.210906 0.351464 0.89961 82 80 76
-303.103 -278.169 -2074.85 -0.190445 0.447706 0.856775 108 104 97
-307.706 -276.351 -2077.15 -0.16813 0.497072 0.839984 130 122 114
-299.85 -273.165 -2077.49 -0.168802 0.636297 0.740716 199 179 165
-286.715 -275.971 -2072.56 -0.0601257 0.455524 0.84185 149 137 125
-295.339 -272.533 -2076.6 -0.138951 0.610137 0.762339 189 170 156
-249.959 -377.842 -2073.74 0.382653 -0.183527 0.901194 48 53 51
-244.059 -382.949 -2077.39 0.288872 -0.143093 0.93936 47 51 50
-241.057 -373.664 -2077.46 0.319792 -0.0552114 0.941848 47 51 49
-248.901 -366.263 -2074.27 0.344984 0.0283183 0.929211 48 53 51
-243.597 -365.8 -2077.04 0.332836 0.00251959 0.93833 46 51 49
-240.792 -360.112 -2077.96 0.284462 -0.0588672 0.949082 47 52 50
-255.822 128.329 -2076.5 -0.488651 -0.663164 0.496339 123 166 165
-254.1 129.151 -2073.52 -0.574922 -0.597161 0.54598 123 164 164
-251.533 127.091 -2076.01 -0.279451 -0.689184 0.476697 133 172 173
-238.755 127.766 -2074.13 0.359852 -0.77081 0.314574 140 176 178
-233.465 128.984 -2077.47 0.572461 -0.775899 -0.209196 139 167 167
-270.319 140.937 -2074.53 -0.502929 -0.503383 0.692194 149 195 196
-269.31 141.067 -2073.73 -0.478302 -0.510938 0.702031 152 198 199
-276.795 152.383 -2072.64 -0.534118 -0.535146 0.651869 146 190 189
-241.372 142.988 -2075.51 0.535659 -0.432614 0.682312 160 204 208
-246.306 149.274 -2073.96 0.621685 -0.482258 0.641297 157 201 205
-240.724 156.701 -2074.58 0.53272 -0.507203 0.686825 172 215 219
-232.679 150.237 -2077.56 0.398235 -0.415579 0.791386 175 217 221
-230.692 154.754 -2077.78 0.413463 -0.43357 0.779048 185 225 229
-236.245 162.806 -2073.55 0.535683 -0.462071 0.712411 181 220 225
-229.179 172.243 -2075.76 0.682119 -0.146209 0.658803 217 248 251
-227.855 176.838 -2076.66 0.724445 -0.088246 0.592107 215 246 249
-224.012 140.828 -2074.17 0.657204 -0.569523 0.156878 143 179 180
-220.903 145.355 -2073.09 0.77618 -0.51871 0.203773 155 191 192
-324.448 -450.241 -2071.88 -0.0668595 -0.00043412 0.980744 52 60 58
-313.484 -450.111 -2072.03 0.232146 -0.0520723 0.960802 51 59 56
-301.594 -415.616 -2072.18 -0.0625187 -0.151159 0.979923 54 62 59
-279.964 158.534 -2069.73 -0.477876 -0.549938 0.686328 158 201 201
-286.549 161.053 -2072.16 -0.472781 -0.49434 0.721328 153 198 197
-283.379 171.405 -2066.28 -0.502358 -0.330493 0.799351 185 227 228
-290.539 174.815 -2070.9 -0.531022 -0.109371 0.826131 196 235 237
-288.225 176.197 -2069.64 -0.508358 -0.0752527 0.842752 199 237 239
-279.531 182.992 -2066.95 -0.433415 0.109018 0.887368 210 246 251
-284.951 190.987 -2069.08 -0.446292 0.0697625 0.884398 198 237 240
-278.684 190.142 -2067.16 -0.420595 0.039421 0.893627 208 245 250
-280.829 196.407 -2067.69 -0.425742 0.0655192 0.888589 207 242 246
-288.625 202.629 -2071.95 -0.529966 0.166325 0.814635 214 240 242
-277.97 205.063 -2068.07 -0.414221 0.241279 0.85852 223 238 238
-213.733 213.98 -2069.37 0.908181 -0.0739983 0.30396 236 230 228
-215.186 216.365 -2066.61 0.85696 0.0255496 0.444093 238 235 233
-220.676 223.806 -2068.15 0.686197 0.226296 0.643057 240 224 217
-262.607 270.432 -2072.19 -0.0451996 -0.0956225 0.988528 252 219 207
-260.809 270.832 -2072.19 -0.00336022 -0.0864129 0.994719 254 221 210
-263.747 280.688 -2071.84 -0.191581 0.0627772 0.962408 250 218 207
-248.826 282.405 -2071.84 0.284829 0.174329 0.89219 212 192 185
-278.394 166.345 -2064.97 -0.472659 -0.329518 0.807413 182 225 228
-277.225 174.944 -2064.19 -0.457328 -0.0827421 0.864117 195 236 240
-261.877 -1212.81 -2049.47 0.0347091 0.781848 0.303518 137 104 88
-273.196 -1204.86 -2048.82 0.429633 0.895125 0.151309 181 143 120
-274.764 -1203.61 -2050.85 0.469142 0.896018 0.177786 183 145 121
-251.137 -1204.76 -2047.58 -0.537627 0.550396 0.607875 223 186 163
-228.075 -1201.31 -2051.54 0.364486 0.775013 0.297417 199 163 140
-226.587 -1204.45 -2053.23 0.363614 0.88499 0.341462 219 176 147
-224.967 -1199.08 -2047.32 0.199828 0.627529 0.363732 176 147 131
-206.544 -1204.09 -2051.94 0.236909 0.577843 0.323409 233 192 167
-210.846 -1199.61 -2049.19 0.38492 0.46199 0.345053 199 164 144
-195.387 -1211.33 -2050.21 0.0222605 0.61488 -0.203847 230 189 162
-184.855 -1210.89 -2052.63 -0.0305136 0.8595 0.0227934 214 178 157
-202.426 -1209.72 -2050.52 -0.0882097 0.534437 -0.138319 226 183 160
-273.996 -1187.6 -2048.92 0.0120035 0.805073 0.424147 102 90 82
-260.407 -1191.1 -2052.46 0.488969 0.707338 0.117628 153 128 113
-273.486 -1186.14 -2051.31 0.0468778 0.808357 0.365237 112 98 88
-246.075 -1196.16 -2053.14 -0.115823 0.737773 0.417503 194 159 138
-228.206 -1195.05 -2050.72 0.34473 0.619902 0.282668 162 138 124
-228.297 -1189.55 -2047.99 0.189863 0.606328 0.265904 159 136 125
-170.005 -1230.43 -2046.41 0.203357 0.868083 0.146509 125 102 95
-169.901 -1224.07 -2048.56 0.165504 0.924933 0.201863 118 96 90
-256.892 -1217.05 -2033.63 -0.164242 0.697592 0.227761 174 139 121
-258.077 -1213.67 -2032.22 -0.143332 0.715011 0.204189 181 145 126
-269.949 -1202.26 -2031.33 -0.625565 0.699125 -0.246323 223 184 161
-260.659 -1207.53 -2035.45 -0.189726 0.696925 0.129415 188 151 130
-262.66 -1199.38 -2029.23 -0.417586 0.726672 -0.0497465 200 164 143
-242.874 -1219.4 -2032.38 -0.40943 0.40035 0.685035 210 171 154
-243.421 -1212.11 -2035.5 -0.543281 0.310861 0.762728 238 197 175
-234.122 -1215.59 -2029.78 -0.162144 0.477473 0.863309 189 149 135
-234.528 -1209.33 -2032.05 -0.261763 0.442431 0.777129 216 176 157
-231.831 -1208.11 -2031.93 -0.175578 0.526162 0.693663 215 175 157
-233.055 -1203.92 -2032.66 -0.193172 0.495208 0.662884 222 182 159
-223.028 -1209.78 -2031.41 -0.0530853 0.864759 0.121625 220 178 162
-223.266 -1206.15 -2033.35 0.135631 0.786843 0.281114 179 135 116
-203.27 -1206.81 -2034.22 0.0522208 0.650725 -0.228686 189 157 145
-191.384 -1216.52 -2031.4 0.224041 0.8227 -0.0149192 204 171 156
-187.713 -1217.2 -2033.87 0.218377 0.838684 -0.0484348 206 173 158
-201.209 -1209.29 -2030.83 0.0981017 0.700964 -0.133037 177 147 136
-264.138 -1194.6 -2035.2 -0.268389 0.731178 0.256429 136 117 107
-241.317 -1190.62 -2031.95 -0.24665 0.824257 0.0719325 151 132 121
-234.069 -1188.61 -2032.53 -0.343498 0.689044 0.196422 149 131 123
-223.866 -1187.38 -2034.14 0.132757 0.903435 0.0182772 179 157 148
-212.277 -1193.45 -2029.94 0.636892 0.556451 0.144577 154 134 129
-214.412 -1190.24 -2031.66 0.556253 0.726142 0.0553922 164 143 136
-261.336 -1213.49 -2023.58 -0.313878 0.760408 0.0461101 201 163 141
-258.011 -1214.82 -2028.78 -0.185326 0.725185 0.156955 185 149 130
-213.199 -1226.33 -2016.44 0.198482 0.627455 0.10023 186 153 140
-204.028 -1222.53 -2020.85 0.14704 0.568334 0.0739296 133 108 101
-199.558 -1227.77 -2022.78 0.174107 0.621872 0.093526 171 140 129
-190.84 -1226.57 -2028.13 0.192459 0.730788 0.0355934 192 160 146
-186.816 -1233.33 -2029.27 0.177735 0.655188 0.10485 186 153 139
-242.434 -1220.44 -2298.74 0.110491 0.731338 -0.61806 94 73 73
-235.742 -1219.72 -2296.25 0.12298 0.733539 -0.633173 93 72 73
-217.12 -1223.13 -2295.98 0.129733 0.618411 -0.646135 130 105 101
-239.205 -470.492 -2289.06 -0.201423 -0.305066 -0.917747 54 57 54
-243.551 -465.803 -2289.29 -0.297088 -0.20939 -0.919877 54 57 54
-242.998 -462.444 -2290.11 -0.314847 -0.137325 -0.926362 55 58 54
-232.987 -466.253 -2291.52 -0.126515 -0.303354 -0.935123 53 56 53
-236.11 -460.144 -2292.46 -0.229954 -0.14719 -0.94164 56 59 55
-269.978 39.0532 -2288.4 -0.181193 0.42423 -0.862569 46 39 41
-275.648 104.619 -2290.26 -0.185751 -0.246053 -0.873289 48 46 49
-273.888 108.196 -2291 -0.155951 -0.286773 -0.867388 48 45 49
-261.75 103.676 -2289.33 -0.179296 -0.601989 -0.668328 48 42 43
-258.658 108.102 -2288.59 -0.165645 -0.579585 -0.685593 48 42 43
-345.273 -594.205 -2293.93 -0.765161 0.019015 -0.06953 47 52 53
-352.737 -837.377 -2283.72 -0.341599 0.00995423 -0.619446 47 50 53
-366.262 -710.275 -2285.87 -0.567316 0.321307 0.148083 47 52 51
-362.455 -698.521 -2288.08 -0.154234 -0.0841845 -0.0928031 47 52 52
-359.247 -685.67 -2284.45 -0.121942 -0.135084 -0.110993 47 52 52
-360.658 -677.325 -2285.93 -0.399932 -0.427569 0.0431249 49 55 54
-365.525 -661.125 -2285.1 -0.643634 -0.64805 0.186555 51 58 55
-209.511 -539.119 -2282.12 0.347774 -0.336959 -0.897499 51 54 61
-215.225 -536.719 -2283.52 0.298086 -0.341835 -0.984625 51 54 60
-193.179 -534.951 -2282.23 0.0210641 -0.250872 -0.934445 48 52 53
-206.813 -528.504 -2283.94 0.278215 -0.137413 -0.794683 50 53 57
-208.321 -519.373 -2283.61 0.457052 0.103093 -0.339169 46 49 50
-201.259 -527.192 -2284.39 0.165455 -0.129744 -0.798474 50 53 56
-190.383 -526.409 -2283.9 0.0722773 -0.189926 -0.88878 48 52 53
-191.967 -520.822 -2285.12 -0.057939 -0.141 -0.878287 48 52 52
-189.429 -522.88 -2284.34 0.0667927 -0.172998 -0.887311 48 52 53
-202.978 -517.362 -2284.55 0.336188 0.063941 -0.276698 44 47 48
-194.532 -517.584 -2285.63 -0.0776882 -0.0852729 -0.794024 47 51 51
-192.989 -511.828 -2285.62 -0.0969749 -0.069511 -0.755989 45 49 48
-181.571 -514.842 -2282.83 0.351415 -0.183942 -0.916484 49 53 55
-183.832 -508.758 -2284.74 0.17216 -0.149106 -0.963715 47 52 52
-236.833 -482.78 -2284.48 -0.164493 -0.412681 -0.88965 50 52 51
-231.289 -484.605 -2283.76 -0.0552405 -0.453266 -0.88585 48 50 48
-256.89 -465.637 -2283.35 -0.446885 -0.194295 -0.858349 56 60 59
-251.783 -456.171 -2285.65 -0.359934 0.0851294 -0.91508 55 59 55
-242.982 -479.908 -2284.73 -0.273583 -0.364 -0.885493 52 54 53
-244.325 -470.295 -2287.58 -0.301811 -0.280544 -0.89798 54 57 54
-236.558 -479.522 -2285.97 -0.157182 -0.392177 -0.900879 51 54 53
-237.169 -473.784 -2288.09 -0.15724 -0.348651 -0.913836 53 56 54
-250.752 -459.91 -2286.64 -0.387536 -0.032868 -0.905986 55 59 56
-225.579 -485.723 -2283.23 -0.0123235 -0.47379 -0.88036 46 50 47
-205.771 -488.064 -2282.89 -0.155004 -0.405889 -0.717391 37 41 41
-207.149 -488.099 -2282.06 -0.131189 -0.448894 -0.745486 36 40 40
-236.464 -615.663 -2279.88 0.355353 -0.269151 -0.8422 42 44 50
-232.932 -606.091 -2277.33 0.378065 -0.277613 -0.853735 44 47 52
-231.195 -600.48 -2277.2 0.419046 -0.299919 -0.850745 49 52 58
-228.651 -593.534 -2277.28 0.405332 -0.285573 -0.776984 50 54 58
-231.512 -589.65 -2279.67 0.417871 -0.295088 -0.800481 51 54 59
-232.01 -580.585 -2281.34 0.446789 -0.278327 -0.821928 53 56 62
-356.019 7.49883 -2277.58 -0.529422 -0.31984 -0.779627 39 38 45
-342.3 -9.05879 -2276.44 -0.475133 -0.254255 -0.802352 42 40 47
-332.783 -7.56335 -2279.23 -0.460437 -0.246166 -0.817261 35 34 41
-328.215 -9.81965 -2282.89 -0.480294 -0.163198 -0.719503 33 32 39
-332.262 -3.32592 -2278.6 -0.471073 -0.24078 -0.812466 35 34 41
-339.049 4.67472 -2276.27 -0.463689 -0.301648 -0.834282 35 34 41
-338.705 10.199 -2277.87 -0.443116 -0.1845 -0.847335 37 36 44
-331.387 4.12106 -2279.66 -0.492435 -0.260647 -0.8111 34 33 40
-335.68 6.45355 -2278.17 -0.485333 -0.28268 -0.824885 34 33 41
-365.509 20.9681 -2277.46 -0.613519 -0.177723 -0.763013 36 36 42
-360.008 16.0399 -2279.69 -0.536669 -0.188155 -0.810795 41 41 48
-360.285 22.142 -2280.47 -0.536008 -0.0885573 -0.832812 42 43 49
-361.174 27.7434 -2279.11 -0.544424 -0.0139961 -0.828624 41 42 48
-362.108 35.3449 -2277.1 -0.481401 0.135142 -0.860571 45 46 52
-353.07 34.1035 -2279.6 -0.415124 0.130549 -0.881995 47 49 55
-345.207 23.3402 -2278.1 -0.35413 0.114139 -0.883444 43 43 50
-335.292 12.6048 -2280.35 -0.44299 -0.148242 -0.846862 37 37 44
-345.824 25.4855 -2278.33 -0.360438 0.121832 -0.877854 44 44 51
-325.318 -7.84303 -2282.01 -0.471134 0.0640352 -0.622083 38 36 43
-308.978 -9.25689 -2276.07 -0.679732 0.130705 -0.408778 51 47 52
-311.828 1.00224 -2279.51 -0.777278 0.143659 -0.482135 52 48 53
-307.178 10.155 -2279.97 -0.523058 0.377365 -0.687878 50 46 51
-293.346 11.8472 -2280.71 -0.501216 0.63763 -0.552283 51 46 50
-301.83 15.3364 -2275.8 -0.222464 0.497088 -0.758151 48 44 48
-289.656 17.8258 -2276.11 -0.638733 0.491235 -0.561329 65 58 61
-285.903 26.419 -2279.78 -0.690301 0.454167 -0.521512 52 48 53
-282.963 33.0568 -2281.35 -0.711848 0.478972 -0.520166 47 44 48
-367.372 -718.693 -2283.09 -0.59733 0.3465 0.120714 47 52 51
-236.691 -618.125 -2280.2 0.365683 -0.272226 -0.84164 42 44 50
-233.819 -622.655 -2281.16 0.379443 -0.25961 -0.755643 41 43 49
-239.398 -615.456 -2283.13 0.354036 -0.270612 -0.836462 42 45 50
-222.284 -625.529 -2278.41 0.247203 -0.153182 -0.211156 41 44 46
-210.393 -627.328 -2275.94 0.162433 -0.0697329 0.117805 41 45 46
-205.433 -628.408 -2280.04 0.188213 -0.0724838 0.0679048 41 45 46
-201.367 -629.133 -2279.72 0.200866 -0.0455431 0.103513 41 45 46
-182.363 -624.769 -2282.74 0.247089 -0.131185 -0.0792106 40 44 47
-242.057 -596.376 -2285.72 0.408406 -0.298805 -0.839365 50 52 58
-242.07 -573.835 -2286.94 0.459156 -0.278174 -0.804016 53 56 63
-242.224 -558.027 -2284.32 0.52683 -0.17159 -0.321203 51 54 59
-177.782 -623.412 -2277.31 0.273508 -0.209369 -0.379494 38 43 45
