ply
format ascii 1.0
comment Created by Open3D
element vertex 737
property double x
property double y
property double z
property double nx
property double ny
property double nz
property uchar red
property uchar green
property uchar blue
end_header
71.9043 401.589 -1665.49 0.865867 -0.28731 -0.223374 227 179 145
-18.1383 -566.416 -1660.37 0.795351 -0.0755114 0.600292 210 214 235
-20.2075 -550.173 -1655.3 0.750356 -0.120747 0.646344 206 210 231
-19.6564 -546.399 -1654.73 0.736377 -0.16947 0.649781 205 209 230
-14.223 -540.219 -1658.22 0.706566 -0.255074 0.658083 202 206 228
-11.4188 -524.537 -1655.48 0.779369 -0.195962 0.5947 204 208 229
-9.97292 -526.783 -1658.14 0.775716 -0.201504 0.596732 201 205 226
-9.00031 -507.693 -1654.05 0.705866 -0.165944 0.681799 198 202 223
-5.05802 -501.851 -1655.66 0.647286 -0.220501 0.726772 197 201 222
-4.15334 -498.393 -1655.25 0.62337 -0.241287 0.741823 197 201 222
1.35236 -489.036 -1655.7 0.520913 -0.331947 0.777975 195 199 220
3.93497 -487.149 -1656.54 0.494118 -0.367152 0.783936 194 198 219
14.5988 -483.852 -1657.43 0.260123 -0.501303 0.794068 183 186 205
207.022 -1163.71 -1658.38 0.594929 0.734168 -0.336403 251 251 250
202.152 -1159.99 -1659.78 0.54509 0.780376 -0.301316 255 255 255
220.722 -1181.51 -1656.94 0.839024 0.525268 -0.147019 114 112 110
185.997 -1152.17 -1656.12 0.286328 0.944103 -0.0607075 253 253 253
65.5408 -1124.71 -1659.77 -0.752552 0.405285 0.529434 253 253 253
69.1047 -1118.37 -1655.43 -0.611054 0.498664 0.562239 250 250 250
56.632 -1103.48 -1658.41 -0.301637 0.868708 0.223527 235 236 237
59.5168 -1102.03 -1657.64 -0.298732 0.813326 0.278681 237 238 238
69.7089 -1100.89 -1655.14 -0.109474 0.754012 0.316977 245 245 245
75.5455 -1101.78 -1657.34 -0.0344117 0.74032 0.332772 251 252 251
89.0394 -1107.93 -1656.19 0.236163 0.757872 0.36775 253 254 253
107.818 -1120.81 -1655.79 0.711071 0.581492 0.183659 253 253 253
103.537 -1115.7 -1658.04 0.578497 0.635366 0.0447952 253 253 253
-162.063 -344.223 -1659.79 -0.76921 -0.0891452 0.660659 223 226 242
-162.77 -335.408 -1658.97 -0.839507 -0.0377344 0.514774 201 206 225
-166.857 -325.039 -1660.84 -0.857165 -0.162063 0.311569 113 125 156
-166.248 -312.68 -1657.37 -0.748982 -0.066711 0.62666 55 70 111
-167.55 -308.634 -1658.25 -0.785327 -0.0732847 0.583006 58 72 112
-165.126 -302.337 -1654.54 -0.711004 -0.0678781 0.67223 60 74 115
-168.376 -294.151 -1657.97 -0.829871 0.0836122 0.488228 58 72 112
-166.293 -285.477 -1658.56 -0.825621 0.238511 0.475957 57 72 112
-163.801 -267.466 -1658.56 -0.757792 0.0621036 0.628973 57 73 115
-159.653 -267.439 -1654.31 -0.656097 0.0773173 0.741301 59 76 120
-158.95 -257.289 -1654.76 -0.671299 0.0833954 0.731795 58 76 119
-160.351 -247.973 -1657.44 -0.689352 0.0929372 0.703438 55 73 115
-158.588 -240.303 -1657.45 -0.591598 0.203347 0.775726 57 75 117
-700.182 226.292 -1657.23 0.78275 -0.137879 0.593315 249 225 203
-697.054 230.402 -1659.6 0.728943 -0.238763 0.632094 250 227 208
-689.468 240.741 -1656.98 0.564039 -0.375368 0.638489 247 226 208
-684.187 242.924 -1656.68 0.505721 -0.425916 0.621193 246 225 206
-673.035 240.583 -1658.98 0.255064 -0.676072 0.605949 247 228 214
-676.291 245.254 -1655.17 0.402264 -0.562608 0.574468 247 226 211
-659.074 241.508 -1660.32 0.314255 -0.82397 0.459452 250 229 218
-651.811 246.439 -1659.32 0.363475 -0.860651 0.357961 247 224 215
-651.389 251.943 -1655.59 0.331364 -0.881736 0.317827 239 219 212
-650.004 251.586 -1656.35 0.329738 -0.886547 0.305458 237 216 209
-647.941 261.331 -1653.56 0.243464 -0.897248 0.263412 225 211 205
-641.645 257.204 -1656.45 0.26166 -0.93815 0.214258 221 204 199
-633.941 262.29 -1657.31 0.220761 -0.95022 0.193676 218 206 202
174.494 -290.645 -1657.58 0.674844 -0.566087 0.399926 92 98 118
185.695 -284.713 -1657.65 0.491392 -0.785164 0.310243 58 70 98
192.081 -281.366 -1659.41 0.542181 -0.695607 0.35937 59 72 107
201.94 -273.513 -1653.87 0.534476 -0.748539 0.349739 63 76 116
209.184 -267.127 -1653.62 0.649113 -0.624372 0.353566 61 74 113
216.051 -263.39 -1661.18 0.754635 -0.34374 0.451925 55 69 106
216.672 -245.057 -1655.17 0.886491 0.0968713 0.327329 49 63 101
217.45 -241.999 -1658.99 0.929232 0.156264 0.206855 49 63 101
207.524 -222.936 -1659.2 0.613221 0.321892 0.637562 48 64 104
197.994 -210.827 -1659.97 0.744045 0.120389 0.544889 45 61 100
204.47 -219.858 -1659.21 0.517037 0.383887 0.728952 50 66 107
198.239 47.7613 -1659.59 0.448334 0.0842767 0.69824 47 63 103
197.615 52.6898 -1659.71 0.497199 0.0106241 0.67073 45 59 96
201.359 62.8187 -1654.24 0.886157 -0.132646 -0.0323775 37 47 75
203.625 81.9376 -1657.32 0.603458 -0.125604 0.490998 43 58 94
206.326 91.2433 -1658.97 0.775471 -0.102551 0.418678 43 57 90
744.315 48.975 -1655.22 0.0825322 0.983104 0.169165 150 124 113
751.614 49.8519 -1658.8 0.0770151 0.984644 0.161216 147 123 113
768.227 49.0213 -1659.04 0.0615267 0.988902 0.13366 110 98 99
775.458 48.5368 -1657.81 0.0227293 1.00229 0.0959526 104 93 95
783.49 49.0557 -1657.21 0.00615089 1.00634 0.0953615 102 91 94
794.361 50.2183 -1654.64 0.0881461 0.672291 -0.292182 143 126 124
905.5 31.0311 -1654.57 0.315306 0.113784 -0.69424 168 145 149
904.318 35.1834 -1656.76 0.303532 0.124236 -0.688572 167 145 149
75.0064 388.643 -1653.26 0.813002 -0.162343 -0.340197 197 164 134
95.4549 385.288 -1657.15 0.359994 -0.745437 0.538981 133 207 208
73.4711 398.727 -1658.35 0.88208 -0.124959 -0.410312 219 171 138
98.345 396.79 -1657.37 0.491639 -0.467725 0.270079 187 197 186
97.7491 400.204 -1655.45 0.539763 -0.407166 0.234889 203 202 189
100.443 396.34 -1657.22 0.444536 -0.4935 0.30921 184 195 187
77.586 403.85 -1654.51 0.83938 -0.344898 -0.318487 215 169 137
82.5135 414.594 -1658.04 0.879243 -0.242456 -0.105767 235 188 160
83.7225 430.261 -1655.69 0.887976 -0.116016 -0.433146 243 197 171
84.9466 433.582 -1655.23 0.863148 -0.184349 -0.409974 246 201 176
88.2058 444.283 -1654.91 0.821541 -0.243315 -0.377357 245 205 182
92.1254 458.38 -1659.23 0.594446 -0.691211 -0.0921342 140 113 107
163.479 -673.801 -1654.53 0.596107 0.115817 0.188181 214 218 234
168.388 -674.14 -1661.97 0.461792 0.064719 0.0718922 211 209 221
166.046 -679.913 -1655.47 0.4975 0.0755487 0.196308 211 211 226
-87.7852 -1142.15 -1651.69 -0.610186 0.752982 -0.000215104 252 251 249
-80.9424 -1137.16 -1648.97 -0.515718 0.717689 0.184621 248 243 237
-90.1494 -1130.79 -1646.58 -0.440063 0.435457 0.579497 243 229 210
-75.2143 -1134.75 -1653.2 -0.496014 0.799875 0.206147 250 248 246
-79.9185 -1129.59 -1651.86 -0.530186 0.533671 0.246156 239 228 213
-71.3836 -1132.48 -1653.11 -0.482666 0.851084 0.203591 253 252 252
-17.7403 -1164.67 -1647.85 0.994648 0.191963 0.185876 165 163 164
-19.2445 -1159.08 -1646.8 0.923655 0.23266 0.214151 195 193 194
-5.88681 -1173.83 -1649.63 0.31735 0.655739 0.167234 127 124 123
9.3886 -1178.67 -1652.99 -0.118509 0.961757 0.144305 113 108 106
5.49019 -1154.42 -1648.06 -0.368697 0.819584 0.105318 110 107 107
-23.4202 -1143.81 -1651.49 0.836376 0.339547 0.241463 252 251 252
-26.0117 -1134.98 -1650.94 0.753332 0.462089 0.276898 254 254 254
-28.9897 -1128.3 -1651.65 0.365781 0.695913 0.347914 250 251 249
-7.27793 -1149.33 -1647.89 -0.336461 0.68407 0.307005 187 186 187
-1.79053 -1149.77 -1651.22 -0.498676 0.744742 -0.12665 110 109 109
4.31027 -1150.97 -1651.38 -0.419753 0.784575 0.0125351 112 111 111
11.6942 -1145.89 -1653.78 -2.60903e-05 0.775502 0.414144 169 169 170
-2.66245 -1132.01 -1648.47 -0.174364 0.864649 0.396106 211 211 212
13.1682 -1136.38 -1650.01 0.0339883 0.771112 0.48553 164 165 165
12.2118 -1132.17 -1653.73 -0.104258 0.800954 0.395734 163 163 164
-81.3854 -1124.39 -1649.08 -0.342455 0.791431 0.433322 243 237 231
169.406 -477.051 -1650.31 0.938943 0.029619 0.287274 212 218 237
169.455 -470.534 -1651.52 0.957019 0.00505396 0.199435 210 216 235
173.673 -454.711 -1654.11 0.957454 -0.203115 0.109581 209 215 234
172.568 -452.338 -1646.78 0.939382 -0.189088 0.217211 210 216 235
174.021 -433.114 -1647.66 0.990507 -0.0278851 0.14936 207 213 232
174.85 -418.656 -1648.37 0.993542 -0.0258015 0.10558 209 215 233
175.469 -410.431 -1653.29 0.981373 -0.047813 0.184467 203 208 227
174.599 -401.499 -1648.45 0.971711 0.0121262 0.196221 195 201 219
175.002 -395.214 -1649.6 0.96687 0.0398616 0.159875 192 197 215
174.866 -381.533 -1648.49 0.95705 0.0469433 -0.0466741 195 199 217
174.392 -361.651 -1646.75 0.955933 0.0667424 0.125915 205 207 224
174.478 -359.97 -1648.16 0.95489 0.0725711 0.156278 207 208 225
-732.522 197.886 -1653.01 0.204997 -0.827878 0.448729 200 171 149
-723.93 207.598 -1647.88 0.423997 -0.579319 0.668963 234 210 189
-716.591 205.959 -1650.74 0.217315 -0.667379 0.655257 217 192 169
-708.572 209.008 -1649.76 0.342756 -0.399305 0.701275 230 207 181
-808.495 213.75 -1649.9 -0.488753 0.362091 0.755788 235 204 193
-800.44 219.928 -1652.61 -0.299863 0.600617 0.737586 240 210 197
-794.918 218.286 -1647.39 -0.248954 0.660962 0.721876 253 224 211
-782.167 221.145 -1647.31 -0.260138 0.580059 0.76705 254 229 216
-782.244 228.12 -1653.75 -0.436969 0.418312 0.79984 252 231 220
-768.652 229.106 -1648.79 -0.223303 0.325818 0.898614 255 237 225
-773.42 233.067 -1650.63 -0.300345 0.224431 0.894797 250 233 221
-776.503 239.397 -1652.54 -0.292578 0.10048 0.917196 239 223 211
-765.151 241.264 -1650.14 -0.146345 0.0558937 0.972978 233 217 205
-771.596 246.259 -1652.11 -0.142384 -0.0292929 0.977308 222 204 193
-752.582 229.749 -1646.93 -0.163467 0.355704 0.913923 253 234 219
-720.157 209.386 -1647.9 0.300598 -0.571961 0.743029 240 217 196
-706.786 222.65 -1646.79 0.568377 0.0231397 0.741702 252 233 209
-752.027 237.011 -1647.62 -0.198552 0.194012 0.952217 240 222 210
-759.555 247.764 -1649.21 -0.16344 0.0187934 0.977058 218 201 190
186.431 -282.118 -1648.51 0.646855 -0.625628 0.215107 69 83 120
199.382 -274.352 -1651.08 0.553624 -0.72245 0.298117 62 76 116
205.318 -269.643 -1648.41 0.512911 -0.692715 0.324632 60 73 115
195.381 -239.084 -1647.26 0.288739 0.258392 0.897357 57 74 118
198.652 -239.431 -1647.85 0.178617 0.322612 0.919424 57 74 118
213.76 -256.401 -1652.83 0.825545 -0.152622 0.481934 53 67 105
216.029 -248.677 -1653.93 0.899843 -0.000113933 0.397298 49 64 102
195.605 -230.688 -1648.71 0.435428 0.179566 0.842269 53 71 114
196.495 -225.342 -1651.09 0.508248 0.257878 0.790563 52 69 112
198.154 -230.86 -1650.05 0.365663 0.241736 0.859653 54 71 114
190.074 -216.315 -1648.72 0.734281 0.083064 0.643145 50 67 109
190.575 -213.405 -1649.86 0.775822 0.0399712 0.594326 49 65 107
44.4088 193.003 -1648.99 0.295246 0.237138 0.922441 58 71 110
41.2742 199.082 -1647.74 0.332467 0.0360221 0.924091 54 65 103
57.2453 187.808 -1650.91 0.22805 0.255797 0.931941 55 70 110
46.056 194.24 -1649.9 0.306144 0.223544 0.921671 57 70 109
62.8547 183.641 -1650.66 0.206075 0.264594 0.933262 54 71 111
66.8116 185.668 -1651.84 0.15861 0.242303 0.943972 53 70 110
65.3973 188.075 -1652.39 0.166756 0.223965 0.951255 53 69 109
48.6356 204.906 -1653.23 0.515165 -0.0756235 0.797449 44 56 91
77.7458 178.067 -1649.27 -0.0769189 0.393294 0.893654 54 71 113
125.249 173.644 -1646.82 0.212346 0.089618 0.976612 58 74 117
73.7479 183.047 -1651.51 0.0664258 0.29041 0.935098 53 71 111
81.0973 181.359 -1650.01 -0.117947 0.367275 0.903548 53 70 112
90.0923 183.653 -1648.53 -0.192019 0.428459 0.878021 54 69 112
94.6555 188.634 -1650.51 -0.173282 0.475881 0.863622 55 70 113
95.7698 190.523 -1651.63 -0.153978 0.473476 0.86722 55 70 113
107.373 193.169 -1652.26 -0.0621129 0.69239 0.735379 56 70 113
111.791 193.742 -1653.2 0.0223965 0.701179 0.722921 61 75 118
123.378 185.849 -1649.33 0.161233 0.358314 0.892848 57 74 117
123.263 190.446 -1651.98 0.10563 0.53854 0.803606 61 77 121
177.242 99.0223 -1647.4 0.639829 0.0212706 0.768039 57 75 119
177.289 107.021 -1648.79 0.698743 0.161656 0.69949 59 77 121
176.27 117.716 -1653.7 0.513748 0.285128 0.81197 58 77 121
171.074 123.583 -1651.63 0.53572 0.24649 0.795021 52 71 115
-38.5929 -625.58 -1640.12 0.640787 0.109045 0.763603 237 237 255
-41.2609 -613.488 -1640.59 0.67981 0.15854 0.719733 234 234 253
-39.7532 -598.941 -1641.79 0.606947 -0.0565878 0.779842 228 229 250
-33.7518 -623.883 -1644.7 0.662604 0.0844612 0.742337 237 237 254
-35.2671 -604.916 -1646.15 0.648138 0.00687189 0.753438 229 230 251
-37.922 -594.259 -1641.58 0.606133 -0.129447 0.775347 226 227 248
-34.8398 -590.819 -1643.19 0.629264 -0.183239 0.74854 223 225 246
-29.3194 -579.104 -1645.64 0.70457 -0.133383 0.693828 215 218 238
-30.9955 -572.782 -1643.32 0.695298 -0.0575301 0.711084 219 222 243
-112.673 -560.927 -1640.77 -0.809125 -0.101692 0.519469 220 225 242
-113.483 -551.781 -1645.2 -0.840144 -0.0172695 0.535411 218 223 239
145.018 -1161.29 -1641.04 0.882589 0.291522 -0.154088 249 249 249
143.399 -1160.24 -1644.39 0.895403 0.276745 -0.101204 249 249 249
174.87 -1172.65 -1642.8 0.27768 0.823405 0.020081 140 136 136
167.768 -1166.04 -1643.91 0.260648 0.837484 0.0214365 133 129 128
156.005 -1155.55 -1642.43 0.783602 0.433096 -0.0161135 244 243 243
139.486 -1145.12 -1645.36 0.667585 0.476845 -0.0602826 237 237 237
154.737 -1151.3 -1643.09 0.58502 0.589167 0.0231097 240 240 240
130.532 -1138.51 -1645.29 0.479952 0.816723 -0.0421742 248 248 248
161.639 -1150.37 -1643.02 0.40052 0.890327 0.127608 233 232 232
172.043 -1151.4 -1640.69 0.210718 0.961643 0.0310802 226 224 223
180.924 -1150.9 -1641.46 0.0622734 0.991141 -0.0478618 234 233 233
208.084 -1157.99 -1645.42 0.569167 0.763586 -0.23578 242 242 240
217.665 -1172.05 -1644.98 0.84263 0.48734 -0.201487 140 139 137
212.954 -1162.92 -1645.67 0.709326 0.630521 -0.280518 218 218 216
192.72 -1151.87 -1645.62 0.227652 0.913922 -0.105141 249 249 248
65.5676 -1113.53 -1640.78 -0.280294 0.732694 0.533501 231 231 233
-150.659 -342.15 -1646.25 -0.675882 -0.184355 0.70872 187 194 215
-151.256 -332.654 -1644.17 -0.666477 -0.16602 0.726619 113 127 159
-151.711 -314.546 -1643.12 -0.674739 -0.0397312 0.733639 58 75 121
-151.854 -311.688 -1643.32 -0.661824 0.00330677 0.743865 61 79 124
-165.333 -295.67 -1641.24 -0.56649 0.0457552 0.767574 70 87 126
-155.364 -305.242 -1647.24 -0.672401 -0.0303455 0.745526 53 70 115
-162.964 -296.654 -1642.31 -0.623361 0.00462976 0.759455 62 80 122
-147.487 -346.309 -1644.43 -0.646717 -0.189532 0.728314 207 212 231
-148.938 -325.589 -1640.31 -0.633347 -0.172457 0.742936 71 88 132
-167.296 -290.627 -1639.53 -0.489387 0.0814763 0.779797 89 103 139
-162.671 -291.118 -1643.47 -0.641113 0.0644354 0.741887 59 77 121
-163.29 -278.791 -1642.33 -0.678757 0.109898 0.693568 60 74 113
-164.047 -269.034 -1641.12 -0.66401 0.0656432 0.727536 68 77 104
-153.984 -275.068 -1646.2 -0.510458 0.107453 0.847435 58 75 120
-155.837 -264.879 -1644.28 -0.582046 0.0472691 0.805121 62 78 119
-160.893 -257.475 -1642.21 -0.636224 0.101875 0.756955 61 78 118
-160.17 -256.6 -1642.39 -0.631508 0.105736 0.761456 61 78 120
-152.61 -252.346 -1645.22 -0.587551 0.116669 0.800323 62 81 126
-89.0617 100.601 -1643.83 -0.412905 -0.0474499 0.808338 49 68 110
-86.6454 101.157 -1642.53 -0.346233 0.0503956 0.831621 51 69 112
-82.8256 109.357 -1642.76 -0.220688 0.205671 0.88935 53 69 110
-75.0357 103.228 -1640.2 -0.236443 0.310632 0.888512 56 70 111
-70.1144 110.554 -1640.41 -0.312605 0.12388 0.901219 51 64 105
-82.0112 112.312 -1643.2 -0.229129 0.187878 0.897317 52 67 108
-80.3277 124.013 -1644.35 -0.408736 0.16796 0.842191 49 63 104
-68.824 116.479 -1639.78 -0.31766 -0.0747881 0.905921 50 65 106
-72.347 121.216 -1640.13 -0.37412 -0.0374348 0.874803 51 66 107
-74.6252 130.517 -1641.82 -0.522688 0.096623 0.824458 50 64 105
-76.3697 137.592 -1643.95 -0.571903 0.0714271 0.817904 49 63 104
-74.381 147.509 -1643.77 -0.490995 0.0916235 0.862847 52 66 107
-67.1484 142.263 -1640.61 -0.415312 0.161259 0.892108 51 65 106
-74.758 148.141 -1644.01 -0.492655 0.0948746 0.861625 52 67 108
-64.6436 150.672 -1640.6 -0.274803 0.156397 0.916244 53 67 108
-46.3654 149.475 -1640.62 -0.0486869 0.28123 0.95073 53 68 109
171.86 -119.766 -1641.71 0.670699 -0.0231528 0.577891 47 60 101
171.626 -116.92 -1640.27 0.738404 -0.0704207 0.528262 45 58 98
177.57 -107.071 -1646.13 0.781894 -0.232853 0.490294 42 54 93
182.627 -94.2688 -1645.63 0.683426 -0.425043 0.450037 43 55 94
185.369 -89.5311 -1646.08 0.642375 -0.412009 0.485688 43 56 95
188.489 -73.5841 -1640.9 0.850066 -0.193328 0.402503 45 56 93
74.0602 242.09 -1645.65 0.678569 0.0242803 0.726651 56 72 116
47.2614 267.146 -1641.75 -0.543172 0.565869 0.548395 93 94 113
57.9788 269.971 -1644.83 0.169705 0.552075 0.745681 60 76 110
72.0588 378.434 -1642.22 0.757443 -0.569049 -0.0400592 198 166 140
79.1987 387.55 -1642.67 0.704415 -0.460787 -0.0538601 223 199 178
81.8767 397.056 -1641.21 0.779698 -0.254269 -0.131485 220 193 169
82.8665 400.271 -1641.68 0.800561 -0.270701 -0.15781 221 189 161
98.8288 399.512 -1645.07 0.257363 -0.368335 0.842133 226 238 237
102.848 397.646 -1646.71 0.178104 -0.401708 0.83015 208 221 222
87.1294 411.445 -1644.83 0.832392 -0.396014 -0.147508 231 189 157
88.2036 412.569 -1641.99 0.812824 -0.383822 -0.123412 233 193 163
89.7707 427.316 -1645.49 0.860578 -0.153159 -0.375397 250 206 179
912.265 61.1698 -1641.28 0.333789 0.0732024 0.256477 121 124 144
-765.25 250.676 -1650.75 -0.136939 -0.0285818 0.977974 217 199 187
-771.174 253.235 -1653.04 -0.112546 -0.0587666 0.964504 217 198 186
-757.517 258.462 -1649.79 -0.114914 -0.0178842 0.92908 218 199 188
-759.184 258.143 -1650.25 -0.108594 -0.0239 0.935144 219 200 189
-744.917 252.009 -1645.13 -0.156317 0.0229482 0.923217 215 197 187
-679.073 256.263 -1650.13 0.458964 -0.532482 0.542802 247 224 207
654.893 296.122 -1641.58 -0.029471 -0.990936 0.00826484 163 156 146
-36.4047 -578.906 -1638.94 0.63885 -0.119922 0.752194 218 220 242
-115.728 -563.617 -1634 -0.703135 -0.0463821 0.690754 220 227 248
-111.09 -560.282 -1636.55 -0.742062 -0.0692322 0.627368 221 227 246
-110.923 -546.47 -1638.1 -0.728777 -0.145105 0.633638 218 224 242
-112.903 -539.522 -1638.31 -0.772464 -0.203883 0.575339 219 224 241
-115.421 -526.036 -1637.68 -0.808976 -0.191519 0.547325 228 233 249
-112.616 -516.424 -1632.67 -0.848631 -0.0190264 0.508577 225 230 247
-116.714 -504.165 -1638.49 -0.814019 -0.0406644 0.565878 225 230 247
-116.512 -496.778 -1635.89 -0.788417 -0.140855 0.587377 227 232 249
-117.623 -488.159 -1635.17 -0.758936 -0.0746264 0.643385 230 235 252
-124.334 -461.058 -1637.85 -0.689572 -0.146116 0.704812 234 237 252
-9.53155 -459.04 -1636.14 0.387484 -0.327816 0.859101 207 211 232
-2.44848 -453.125 -1635.83 0.240328 -0.32962 0.898381 212 216 237
1.85691 -449.172 -1635.56 0.180306 -0.266384 0.936871 209 213 234
12.5096 -455.122 -1637.51 0.0541803 -0.398687 0.765755 205 210 229
16.2301 -451.219 -1634.27 -0.113528 -0.378807 0.846908 202 206 226
2.93992 -436.051 -1633.66 0.26827 -0.160022 0.955673 190 194 214
10.2706 -438.238 -1634.09 0.0035503 -0.149572 0.961378 186 190 210
63.753 -507.742 -1635.05 -0.8859 -0.119445 0.397896 216 222 239
58.4891 -487.77 -1636.41 -0.656991 -0.38483 0.613196 204 209 225
58.6998 -489.686 -1637.44 -0.66829 -0.374069 0.611266 205 210 225
38.0805 -472.069 -1636.97 -0.361849 -0.583197 0.728172 195 199 215
25.8808 -460.106 -1634.72 -0.353011 -0.525645 0.725645 198 201 219
34.8542 -472.076 -1638.75 -0.37565 -0.585077 0.721682 195 199 215
51.8241 -481.167 -1637.66 -0.419694 -0.529078 0.725637 196 201 217
51.2884 -473.413 -1633.44 -0.36171 -0.528774 0.765248 199 204 219
46.1787 -473.349 -1634.62 -0.331446 -0.57181 0.750349 195 201 216
162.401 -559.099 -1637.87 0.765677 0.0345944 0.430286 221 227 244
-165.861 -251.219 -1638.46 -0.518952 0.133867 0.799108 61 76 111
-164.24 -239.599 -1637.69 -0.529017 0.288692 0.755383 59 73 101
-164.053 -239.153 -1637.49 -0.522922 0.290992 0.756213 59 73 100
-144.151 -285.191 -1637.68 -0.44458 0.069121 0.887366 57 73 115
-143.5 -280.827 -1638.36 -0.44266 0.0562218 0.89006 58 74 116
-128.548 -291.759 -1634.69 -0.530205 0.132404 0.829846 57 78 125
-133.903 -277.769 -1635.54 -0.488413 0.0326611 0.866667 57 74 118
-142.748 -277.131 -1639.49 -0.442149 0.0441318 0.891835 59 76 120
-143.15 -239.814 -1639.5 -0.580176 0.106708 0.777694 60 79 123
-163.426 -236.425 -1637.89 -0.565451 0.287818 0.729284 59 73 100
-161.655 -226.608 -1638.76 -0.672308 0.173562 0.658391 64 77 105
-150.348 -222.738 -1634.68 -0.473292 0.10828 0.843173 55 69 107
-154.875 -219.668 -1637.35 -0.484189 0.195445 0.828965 57 71 105
-70.7686 99.0032 -1637.19 -0.307351 0.290269 0.84023 54 69 111
-70.5711 123.997 -1639.32 -0.368157 -0.0337349 0.863836 51 67 108
-53.0141 104.155 -1636.37 -0.0380596 0.16092 0.938495 51 65 106
-61.7987 110.367 -1638.78 -0.217828 0.121397 0.89769 50 65 106
-51.544 101.743 -1636.02 -0.0251558 0.127319 0.954007 51 65 106
-52.0679 110.225 -1637.17 -0.0599234 0.131311 0.940091 51 66 107
-63.5582 112.489 -1639.16 -0.249539 0.0253167 0.907322 50 65 106
-56.3387 113.477 -1637.86 -0.0951968 0.0856679 0.918443 51 66 108
-55.1039 121.33 -1637.55 -0.0547583 -0.0192964 0.938663 50 66 107
-50.2701 116.61 -1637.56 -0.053658 0.0829253 0.953899 51 66 107
-46.78 122.676 -1636.79 -0.0991093 0.0181293 0.96918 50 64 105
-42.6132 122.688 -1636.04 -0.14615 0.0196833 0.968484 50 64 105
-64.6269 130.169 -1638.06 -0.294331 0.0111956 0.890164 50 64 105
-63.3611 136.168 -1638.78 -0.294988 0.122724 0.912272 49 63 104
-49.3417 131.277 -1636.39 -0.0804073 -0.013391 0.97717 49 63 104
-45.8371 127.63 -1636.18 -0.114097 -0.0249061 0.97493 48 63 104
-44.7994 133.392 -1635.84 -0.120952 0.0220346 0.974871 49 64 104
-53.1907 143.396 -1639.01 -0.0107169 0.141742 0.982417 51 65 106
-46.2069 140.652 -1637.73 -0.0917403 0.167722 0.964489 51 66 107
-44.0664 141.422 -1637.76 -0.110476 0.195149 0.957432 51 66 107
-37.8341 110.402 -1635.37 -0.175402 0.14716 0.970775 53 67 108
-35.7234 116.676 -1634.98 -0.200796 0.0792798 0.965039 52 66 107
-31.2685 119.4 -1633.77 -0.188598 0.0362233 0.96953 51 65 107
-30.7753 124.223 -1633.09 -0.162158 -0.014785 0.97273 50 64 106
-30.6233 129.826 -1633.59 -0.112606 0.037026 0.9762 51 65 106
-37.0038 134.74 -1635.04 -0.155094 0.0774954 0.964747 51 65 106
-19.5807 126.901 -1633.25 -0.0703559 0.11047 0.987931 50 64 105
-17.2422 139.034 -1634.54 -0.0168013 0.162916 0.986717 55 69 110
-14.068 135.713 -1634.06 -0.00466198 0.146072 0.989736 54 69 109
-27.1148 143.017 -1635.7 -0.0475182 0.185444 0.972993 55 69 111
-37.5295 148.093 -1638.49 -0.194419 0.204836 0.952335 55 69 110
-24.8103 144.937 -1635.98 -0.0252148 0.196292 0.974806 56 70 111
-18.5203 149.523 -1636.91 0.000109514 0.214911 0.97209 55 69 111
-12.7045 151.977 -1637.63 0.0259916 0.241682 0.963753 55 69 110
-2.27298 126.556 -1633.29 0.0344888 0.278629 0.956037 43 60 99
0.107828 138.567 -1635.21 0.0824514 0.174323 0.979651 53 68 109
9.59596 134.403 -1633.95 -0.160286 0.239403 0.942074 47 61 99
-5.35295 140.947 -1635.34 0.0749526 0.180926 0.979447 55 69 110
-3.65954 149.58 -1637.92 0.139985 0.268581 0.952515 54 69 110
1.13244 149.316 -1638.66 0.162721 0.302189 0.939984 52 66 108
11.0038 140.407 -1634.27 -0.169741 0.216248 0.931326 47 61 99
14.5903 148.548 -1633.94 -0.330737 0.199474 0.873672 48 61 98
50.7053 262.584 -1637.82 -0.122109 0.646134 0.747634 78 85 116
52.272 261.901 -1637.22 -0.0689093 0.64919 0.753156 77 84 116
63.0555 253.023 -1637.01 0.447183 0.395504 0.733399 65 82 124
57.5759 291.284 -1634.26 -0.583671 -0.151785 0.645982 74 90 123
63.1836 291.514 -1635.37 -0.658321 -0.155136 0.628512 64 80 113
58.1517 300.163 -1633.67 -0.480408 -0.500062 0.601618 87 101 128
20.8006 324.286 -1635.02 -0.179576 -0.438173 0.239573 124 127 132
24.2057 328.014 -1634.36 0.193982 -0.954159 -0.0373311 133 126 121
41.3049 334.495 -1634.5 0.515386 -0.716399 0.329585 162 147 136
27.5274 335.942 -1634.53 0.154846 -0.842457 0.281662 125 158 154
22.3098 345.003 -1635.27 -0.102217 -0.814412 0.486273 110 196 193
30.3197 344.667 -1638.19 0.18239 -0.820736 0.485239 117 193 189
34.0495 336.181 -1635.93 0.31279 -0.826004 0.270153 139 155 149
37.1664 344.584 -1635.28 0.444053 -0.689311 0.486083 151 168 157
47.0127 340.386 -1632.73 0.646331 -0.48246 0.427643 173 152 135
49.6835 344.524 -1636.11 0.580842 -0.456807 0.368191 156 163 147
-87.9978 -1142.59 -1628.59 -0.455511 0.879836 0.0896843 253 254 254
-82.7568 -1135.61 -1632.66 -0.404731 0.818555 0.256585 253 252 252
-75.8567 -1133.58 -1631.2 -0.304356 0.792595 0.334464 253 252 252
-64.3939 -1132.47 -1628.85 -0.263783 0.853369 0.0797862 253 253 253
-55.5034 -1130.5 -1631.58 -0.12638 0.811654 0.384062 253 253 253
-51.721 -1131.28 -1630.38 -0.116543 0.83351 0.431753 253 253 253
-19.9614 -1162.79 -1628.01 0.872565 0.354043 0.196305 202 201 202
-14.6035 -1164.65 -1632.62 0.861879 0.331775 0.159134 182 180 181
-13.8542 -1161 -1629.61 0.825759 0.366572 0.213449 205 204 205
-25.9335 -1152.61 -1625.31 0.845047 0.443363 0.257873 253 253 254
-12.8535 -1149.78 -1627.43 0.124229 0.601424 0.396332 237 237 239
-10.7116 -1145.24 -1628.35 -0.0313445 0.737815 0.364993 245 245 247
-28.84 -1137.08 -1632.74 0.73981 0.525223 0.307996 253 254 253
-23.1543 -1140.64 -1632.71 0.91542 0.372777 0.198529 251 251 252
0.743462 -1143.11 -1630.14 0.122071 0.939502 0.281972 219 219 220
10.3798 -1145.35 -1626.84 0.0779036 0.884127 0.449131 137 136 135
98.976 -606.153 -1632.44 -0.315746 -0.310248 0.884932 210 215 230
112.826 -614.595 -1630.83 -0.244687 -0.163007 0.942853 211 214 230
119.066 -623.847 -1632.74 -0.0186713 -0.312527 0.936062 213 215 231
117.312 -613.674 -1629.54 -0.179104 -0.206729 0.942894 213 216 231
126.56 -612.157 -1627.73 0.0285699 -0.302477 0.959089 220 220 236
114.922 -611.542 -1629.62 -0.244017 -0.160064 0.945109 211 215 230
104.104 -602.569 -1630.51 -0.282861 -0.227874 0.920515 211 216 231
116.116 -609.36 -1629.03 -0.223078 -0.161021 0.95147 212 215 231
120.04 -602.996 -1627.52 -0.132467 -0.154247 0.972756 215 217 233
121.547 -605.451 -1627.36 -0.117485 -0.172772 0.971084 216 218 234
92.3795 -587.286 -1632.08 -0.544867 -0.0668146 0.832099 216 222 237
94.4949 -578.818 -1630.28 -0.527258 -0.0372957 0.843876 214 220 235
92.3245 -576.22 -1631.64 -0.560051 -0.0197046 0.825896 213 219 234
106.091 -593.316 -1628.14 -0.240549 -0.177554 0.945068 213 218 233
112.484 -591.778 -1626.89 -0.136779 -0.187834 0.969695 211 216 231
110.434 -590.24 -1626.73 -0.162677 -0.179314 0.964851 212 218 233
124.216 -592.767 -1626.54 0.0699735 -0.120648 0.988473 219 219 236
125.598 -588.387 -1626.49 0.0737346 -0.100517 0.998216 218 219 235
125.79 -583.246 -1626.28 0.0897386 -0.115179 0.995302 214 215 231
153.155 -669.097 -1629.43 0.546302 -0.00107739 -0.0465927 214 218 235
142.108 -656.012 -1627.29 0.0641481 -0.263921 0.666827 220 220 236
144.224 -661.495 -1626.67 0.228045 -0.195547 0.427681 218 220 237
157.455 -657.386 -1627.14 0.762916 0.0963806 -0.380795 211 216 234
139.473 -647.955 -1629.77 0.295024 -0.0733925 0.78373 221 222 237
155.545 -646.894 -1626.99 0.907 0.221674 -0.301507 217 222 242
154.505 -646.907 -1630.35 0.843725 0.120828 -0.227851 217 222 241
137.359 -630.287 -1633.62 0.402414 -0.184352 0.839204 222 221 237
151.057 -627.314 -1626.64 0.865418 0.325846 0.320893 217 223 242
-37.3125 46.8218 -1626.03 -0.193678 0.0258753 0.948995 45 60 101
-25.9845 68.8493 -1627.19 -0.000332612 0.257126 0.953307 57 71 113
-34.353 71.1899 -1628.1 0.00670966 0.203626 0.951794 54 68 110
-34.0449 80.5171 -1630.6 -0.0236448 0.206181 0.953737 55 68 110
-26.0853 76.9443 -1629.61 0.00154713 0.265749 0.955819 57 71 112
-14.9941 70.2945 -1626.45 -0.0719786 0.239099 0.961319 58 72 113
-21.4948 77.5342 -1629.23 -0.0373489 0.242241 0.960155 56 70 111
-36.8227 86.7647 -1632.41 -0.153512 0.142228 0.957681 52 66 107
-28.5107 88.645 -1630.94 -0.0950647 0.100686 0.973402 52 66 108
-30.3803 90.815 -1631.42 -0.136225 0.0784275 0.973791 52 66 107
-14.945 89.995 -1629.46 -0.0831401 0.0205209 0.995522 51 65 106
-12.5173 93.5775 -1629.23 -0.08521 0.0124592 1.00135 51 66 106
-4.8545 80.0436 -1627.47 -0.177039 0.206884 0.952134 50 65 106
-8.60506 89.591 -1628.55 -0.128757 0.0358075 0.98104 50 65 106
-3.73144 96.6349 -1627.61 -0.199962 0.0274171 0.941009 49 65 105
-2.71091 92.8975 -1627.26 -0.2289 0.0419729 0.915947 49 65 105
175.709 -235.505 -1630.6 0.753155 -0.111836 0.559156 49 66 108
179.458 -223.104 -1632 0.63583 -0.142047 0.636494 49 66 108
176.177 -217.095 -1628.43 0.541436 -0.0323127 0.726744 50 67 110
173.375 -210.233 -1629.72 0.410702 -0.0728958 0.823071 54 70 113
162.948 -206.419 -1626.08 0.402832 -0.0461423 0.871828 58 73 115
168.891 -198.911 -1629.1 0.360596 -0.306847 0.810095 57 73 117
172.795 -199.243 -1631.53 0.361885 -0.27207 0.835311 59 75 119
168.992 -181.762 -1631.51 0.592605 0.0941122 0.741741 59 75 119
124.885 -10.9222 -1625.89 0.348399 -0.11513 0.92847 52 68 110
99.4464 41.6885 -1628.05 0.34123 0.122125 0.924904 50 67 109
123.885 26.9937 -1626.36 0.0491041 0.349339 0.922006 58 74 117
110.116 33.2129 -1628.43 0.13396 0.306464 0.930862 55 73 115
103.913 36.8946 -1628.34 0.24496 0.200947 0.933504 53 70 112
118.686 29.3153 -1627.27 0.0178402 0.407193 0.920583 58 74 117
122.039 33.3046 -1628.71 0.0312925 0.356895 0.935413 57 74 117
128.567 37.4937 -1630.23 0.0896212 0.355943 0.930112 57 74 117
66.0426 68.449 -1628.01 0.188692 0.221273 0.944157 53 71 113
66.0061 65.054 -1627.26 0.164942 0.257751 0.937281 56 73 115
21.774 157.693 -1632.24 -0.404975 0.267421 0.843449 62 75 113
35.713 156.484 -1631.82 0.225198 0.25188 0.91468 62 76 117
47.9046 252.279 -1630.85 -0.0937105 0.458758 0.819574 74 79 115
58.7045 280.208 -1632.15 -0.624059 0.422656 0.377503 85 102 137
63.2427 279.335 -1632.58 -0.694435 0.188991 0.476678 74 91 124
68.8557 283.247 -1630.08 -0.710735 -0.0156433 0.594354 59 76 109
72.1538 287.798 -1627.23 -0.653211 -0.0187931 0.613304 57 73 107
63.7473 297.127 -1633.51 -0.585956 -0.353922 0.613241 73 88 117
66.7792 294.744 -1633.13 -0.65389 -0.261674 0.617217 64 80 111
18.7556 321.517 -1632.02 -0.386092 -0.078957 0.278423 109 113 126
26.7703 327.743 -1631.2 0.313361 -0.996774 -0.0972445 139 121 116
37.8158 333.37 -1631.55 0.497505 -0.774777 0.237203 161 136 127
26.0304 342.034 -1631.33 0.0229744 -0.771205 0.522475 109 186 183
42.468 337.04 -1629.41 0.586076 -0.641582 0.43263 173 144 129
37.0722 347.624 -1632.01 0.464284 -0.62604 0.545898 152 165 152
45.2291 342.137 -1626.1 0.64047 -0.557086 0.547976 181 147 128
28.4948 354.756 -1629.14 0.0751193 -0.606465 0.772709 110 208 205
27.9504 358.198 -1627.53 0.0204598 -0.531825 0.807641 118 214 211
34.2168 351.4 -1631 0.226519 -0.683889 0.669408 108 196 190
32.0331 358.177 -1626.93 0.0675054 -0.573638 0.779889 111 209 206
95.4086 -731.735 -1635.15 -0.77269 0.403177 -0.335166 145 122 120
94.5575 -733.574 -1634.71 -0.752643 0.399589 -0.369499 145 121 118
106.609 -731.054 -1627.17 -0.842458 0.290881 -0.255734 157 132 130
110.125 -725.047 -1626.82 -0.875621 0.280912 -0.207888 159 135 134
121.698 -712.291 -1625.98 -0.852664 0.273626 -0.182179 160 137 137
122.34 -708.974 -1626.48 -0.845967 0.273506 -0.180646 160 137 137
119.187 -702.44 -1628.61 -0.878387 0.279277 -0.205675 158 133 132
127.39 -698.053 -1629.7 -0.727261 0.226265 -0.114 165 144 145
150.656 -682.844 -1636.79 0.284752 -0.0237898 0.307245 211 214 230
150.251 -687.022 -1636.49 0.266382 -0.0343392 0.35674 210 213 229
153.935 -695.69 -1637.29 0.217684 -0.050479 0.451826 208 210 225
-89.5719 -1144.63 -1622.71 -0.505293 0.814658 0.0383678 253 254 254
-79.6559 -1140.3 -1622.65 -0.389098 0.758893 0.226387 253 253 253
-68.3067 -1135.14 -1622.6 -0.351105 0.86249 0.0884735 253 253 253
-58.7315 -1133.9 -1621.1 -0.111576 0.929443 0.150126 253 253 253
-46.3755 -1136.53 -1620.52 0.114807 0.928847 0.308138 254 254 254
-17.0826 -1171.85 -1620.4 0.939955 0.224813 0.135152 123 120 120
-24.8302 -1157.4 -1623.33 0.79977 0.466456 0.271786 246 245 247
-11.5656 -1162.15 -1621.6 0.342065 0.516596 0.430358 205 203 207
-11.9814 -1158.9 -1622.86 0.278968 0.536999 0.440722 215 215 218
-9.60875 -1158.7 -1618.89 -0.0816855 0.652055 0.580873 220 219 224
-27.6964 -1147.49 -1621.49 0.710201 0.470597 0.357962 254 255 255
-18.5146 -1144.53 -1620.65 0.0478813 0.682257 0.426512 243 243 244
-32.3856 -1137.88 -1625.07 0.166481 0.803361 0.336113 242 243 240
-25.9833 -1138.66 -1621.29 -0.0743415 0.87368 0.259405 204 206 202
-10.5793 -1151.23 -1619.37 -0.16888 0.770972 0.463404 228 228 231
-9.6654 -1145.74 -1624.15 -0.0504827 0.815438 0.307918 239 239 241
7.56881 -1148.5 -1620.21 0.0508666 0.896589 0.424901 166 165 167
11.2925 -1146.03 -1625.28 0.0731296 0.88496 0.45699 130 129 127
105.818 -580.738 -1625.27 -0.25074 -0.177192 0.93289 215 220 236
104.775 -572.731 -1624.43 -0.374669 -0.109698 0.886902 215 220 235
109.808 -573.342 -1623.21 -0.215919 -0.176545 0.925249 215 220 235
121.832 -576.379 -1624.14 0.117908 -0.216463 0.965621 212 215 231
123.764 -571.431 -1622.8 0.109338 -0.232204 0.963042 215 218 234
155.955 -665.32 -1622.18 0.586529 0.0194302 -0.133133 213 217 233
142.784 -655.837 -1624.74 0.173186 -0.209007 0.519767 218 219 236
159.318 -655.688 -1618.87 0.646556 0.217327 -0.425275 213 217 233
139.992 -643.63 -1620.44 0.689583 0.142637 0.368493 206 210 226
155.383 -645.165 -1626.16 0.925771 0.240891 -0.272036 218 223 243
136.611 -628.781 -1623 0.606912 0.0490297 0.608791 195 197 213
154.206 -638.534 -1625.25 0.916521 0.236073 -0.134744 219 224 243
158.795 -649.766 -1621.01 0.745781 0.320028 -0.501016 214 218 236
-121.87 -291.787 -1622.66 -0.526462 0.0936501 0.824605 61 81 127
-114.751 -290.798 -1620.41 -0.566678 0.199731 0.799881 60 81 129
-140.163 -262.807 -1625.68 -0.369761 0.0681674 0.912391 57 72 111
-134.992 -258.969 -1624.64 -0.305273 0.139611 0.930861 57 72 112
-131.118 -255.555 -1623.67 -0.332088 0.156793 0.912715 57 72 113
-130.548 -248.518 -1624.82 -0.3545 0.115909 0.897101 56 72 114
-128.669 -238.945 -1624.57 -0.380489 0.0510453 0.878252 53 70 113
-119.611 -257.056 -1619.29 -0.262156 0.353869 0.827581 58 72 116
-120.102 -244.344 -1621.23 -0.283544 0.109006 0.907009 53 68 112
-122.185 -237.043 -1621.93 -0.248563 0.0562109 0.932648 50 66 109
18.0203 109.899 -1624.17 -0.120061 0.0988462 0.971037 53 67 104
15.0217 121.221 -1625.83 -0.308669 0.206432 0.905055 46 60 96
11.6424 174.566 -1619.27 -0.628989 0.154146 0.739571 33 50 85
15.3483 242.917 -1626.6 -0.532924 0.427033 0.727112 45 60 96
162.708 -278.948 -1620.45 0.358735 0.311462 0.861191 61 76 118
170.436 -284.52 -1623.75 0.591994 0.052041 0.784986 76 92 132
162.745 -276.544 -1621.66 0.343016 0.335523 0.858749 61 77 118
157.552 -263.857 -1620.94 0.342625 0.191559 0.884853 55 71 112
155.376 -258.417 -1619.21 0.369964 0.083049 0.913068 51 67 107
157.248 -261.264 -1620.6 0.345347 0.14126 0.897594 53 69 110
165.697 -252.971 -1623.86 0.19928 -0.0839813 0.974337 49 65 107
160.02 -246.308 -1620.57 0.330414 -0.0110044 0.924705 50 65 106
157.296 -242.052 -1619.16 0.353137 -0.0691878 0.920431 51 67 106
169.241 -241.08 -1625.57 0.389525 0.0307655 0.840789 53 69 112
167.492 -115.142 -1623.98 0.916435 -0.229069 0.306765 43 56 94
170.71 -106.524 -1622.74 0.951954 -0.204393 0.19272 40 54 91
132.092 -92.7187 -1618.91 0.302392 0.0840588 0.948529 57 75 118
131.555 -86.1303 -1619.51 0.273562 0.136793 0.948087 57 74 117
143.461 -90.8563 -1621.55 0.290003 0.027801 0.960152 58 76 118
148.925 -93.9101 -1621.14 0.330974 0.00421135 0.946316 58 76 118
155.124 -86.21 -1620.76 0.417381 0.0220058 0.900807 57 75 117
140.185 -80.2731 -1623.02 0.231854 0.222186 0.932806 56 74 117
132.614 -76.7691 -1622.79 0.217763 0.270686 0.928287 56 74 117
148.906 -79.2167 -1625.39 0.265138 0.289453 0.89732 57 75 117
174.268 -93.9657 -1624.22 0.848599 -0.330389 0.334188 44 57 93
175.276 -90.2444 -1622.25 0.814812 -0.308549 0.401052 46 60 97
159.75 -76.897 -1623.3 0.462967 0.0737176 0.850054 54 71 113
173.554 -78.1584 -1619.88 0.697795 -0.0339612 0.692154 48 64 102
174.886 -75.7966 -1621.47 0.732408 0.00856086 0.677696 49 64 102
162.682 -62.3694 -1620.48 0.441936 0.0801405 0.877006 55 73 114
163.152 -61.3908 -1621.76 0.425127 0.116207 0.879142 56 73 115
176.271 -57.8251 -1620.86 0.706987 -0.059974 0.671406 50 65 104
165.16 -54.4534 -1623.78 0.402333 0.169567 0.878301 58 76 117
167.646 -46.5608 -1625.33 0.379791 0.200193 0.882711 58 75 117
177.2 -51.306 -1622.88 0.693063 0.0916417 0.673158 51 66 105
170.694 -40.6226 -1624.9 0.468074 0.165098 0.835705 56 72 112
-93.6829 -1148.42 -1616.41 -0.656536 0.674115 -0.0231103 253 253 254
-81.8027 -1142.04 -1617.69 -0.402266 0.822191 0.0747848 253 253 253
-73.9661 -1138.8 -1616.41 -0.426187 0.852512 0.138068 253 253 253
-65.3807 -1135.98 -1611.09 -0.342721 0.921221 0.0957802 253 253 253
-54.8327 -1135.13 -1616.9 -0.0206514 0.956141 0.150507 253 253 253
-43.4487 -1137.61 -1619.15 0.145986 0.911734 0.291709 255 255 254
-13.6148 -1175.59 -1618.92 0.778451 0.303389 0.187671 129 126 127
-19.6046 -1171.05 -1617.68 0.941562 0.241112 0.154126 136 133 134
-27.4597 -1157.6 -1615.91 0.791589 0.494477 0.310393 245 245 246
-9.31896 -1177.89 -1612.77 0.611231 0.410019 0.226108 173 171 175
-6.48862 -1165.34 -1611.82 -0.163438 0.690703 0.552458 206 205 211
-8.23838 -1157.18 -1618.04 -0.135231 0.695717 0.570262 220 220 225
-31.5614 -1147.3 -1617.93 0.782467 0.457232 0.397204 253 253 254
-21.3144 -1147.08 -1613.33 0.210998 0.672272 0.415704 237 237 237
-35.7799 -1139.59 -1615.49 0.131066 0.831287 0.236478 247 247 246
-27.4158 -1139.35 -1612.84 -0.00549175 0.89212 0.16493 197 199 195
-3.53653 -1152.12 -1617.6 -0.119912 0.820592 0.453527 221 221 226
4.61926 -1151.89 -1614.67 -0.0483975 0.847725 0.43403 192 191 196
17.2488 -1150.86 -1615.12 -0.0127744 0.890303 0.43483 133 131 133
81.7494 -521.865 -1611.86 -0.447453 -0.495984 0.735261 203 209 226
73.2198 -517.979 -1615.53 -0.623724 -0.365793 0.666937 209 215 232
105.366 -539.122 -1613.37 -0.414578 -0.227378 0.875937 192 199 211
126.62 -534.985 -1612.76 0.412303 -0.118238 0.921219 213 216 231
69.6817 -509.956 -1618.35 -0.806236 -0.147247 0.48768 216 223 241
69.2594 -495.441 -1616.66 -0.741187 -0.0656608 0.509426 216 222 240
68.954 -490.92 -1616.52 -0.761559 -0.0838515 0.50424 215 221 239
65.555 -473.914 -1615.52 -0.841394 -0.243956 0.467683 214 219 236
62.6178 -467.297 -1617.37 -0.671992 -0.373117 0.589198 210 215 232
73.973 -513.157 -1612.56 -0.64696 -0.283837 0.635285 212 218 235
138.147 -557.87 -1616.17 0.416263 -0.158921 0.803854 217 217 234
148.284 -557.961 -1617.6 0.893001 -0.0438771 0.372001 214 220 240
130.411 -553.684 -1618.24 0.304472 -0.262594 0.929797 221 223 239
130.85 -544.616 -1615.41 0.429599 -0.182961 0.918819 221 223 239
-92.7504 -220.64 -1616.22 -0.573779 0.406009 0.616911 58 77 124
-89.6992 -211.877 -1613.24 -0.549536 0.134285 0.701547 53 71 118
-91.612 -197.506 -1613.99 -0.337003 -0.00831407 0.890721 55 73 120
-86.7862 -193.041 -1613.73 -0.307918 -0.0952383 0.880954 55 75 124
-83.9041 -186.229 -1616.75 -0.36826 0.234755 0.851026 56 74 120
-83.334 -174.023 -1618.25 -0.373451 0.0577995 0.909215 52 69 112
-84.0818 -171.574 -1618.34 -0.350927 0.00045904 0.919447 52 68 111
-73.0224 -180.263 -1612.3 -0.476988 0.236781 0.840952 56 74 122
-88.899 -160.56 -1618.43 -0.329812 -0.150931 0.93107 51 68 110
-87.3232 -155.362 -1617.36 -0.348138 -0.103519 0.929258 54 71 114
-76.1527 -165.391 -1614.56 -0.371486 -0.0509368 0.923932 53 69 113
-76.8112 -156.866 -1614.31 -0.353118 -0.04406 0.930188 55 72 116
-90.6199 -149.997 -1618.4 -0.366513 -0.0303439 0.922181 50 65 107
-88.0951 -139.532 -1618.98 -0.369388 0.199773 0.902866 54 71 115
-73.5517 -147.59 -1612.64 -0.347709 -0.0298179 0.930598 50 65 109
-79.5741 -140.375 -1615.57 -0.33387 0.0894162 0.926309 51 68 112
-80.5362 -125.335 -1618.93 -0.285141 0.216881 0.931981 59 76 120
-74.4004 -126.599 -1615.27 -0.427628 0.210558 0.864667 56 73 118
108.38 -92.8433 -1612.47 0.231128 0.111658 0.957579 55 69 112
111.231 -83.5861 -1614.63 0.311861 0.149045 0.929102 56 71 114
120.517 -89.8939 -1615.93 0.254866 0.207032 0.942531 57 72 115
120.115 -86.6919 -1616.66 0.263543 0.220564 0.936699 57 72 115
122.507 -85.399 -1617.65 0.252392 0.237141 0.937407 57 72 115
112.562 -82.2629 -1615.42 0.317658 0.170802 0.923995 57 71 114
109.315 -72.5099 -1616.3 0.412199 0.164059 0.889817 58 73 116
96.5862 -64.4396 -1612.49 0.377182 0.213968 0.891053 56 72 115
92.7385 -54.4161 -1612.5 0.430038 0.0981932 0.891113 51 68 111
91.5404 -44.3516 -1612.17 0.385322 -0.0205097 0.911572 50 67 110
106.045 -65.834 -1615.82 0.371309 0.152778 0.907805 57 73 116
109.224 -66.664 -1616.98 0.405184 0.129499 0.89811 58 73 116
107.639 -57.2779 -1617.59 0.313721 0.113967 0.936868 56 72 115
103.69 -46.8811 -1616.26 0.299328 -0.0121646 0.947471 52 69 112
92.066 -41.5407 -1612.17 0.356894 -0.0590926 0.921254 49 67 109
97.9894 -31.876 -1613.39 0.295925 -0.0768497 0.939686 49 67 109
94.6585 -26.1819 -1612.62 0.302254 0.00458912 0.950865 49 67 109
94.609 -19.5258 -1613.14 0.338807 0.0646173 0.935969 53 71 113
108.833 -35.0405 -1617.73 0.337026 0.0174604 0.931722 51 67 110
106.327 -21.8339 -1618.76 0.457687 0.0676126 0.883353 51 69 111
105.049 -16.1835 -1617.75 0.416397 0.00985288 0.904534 52 69 111
138.642 -123.631 -1617.85 0.49012 0.0409851 0.858921 52 68 111
138.149 -117.755 -1618.89 0.481653 0.0407663 0.867502 52 68 111
144.468 -115.501 -1612.03 0.538204 0.0515331 0.817539 58 76 120
130.311 -107.582 -1616.6 0.350507 0.0727406 0.927702 56 72 114
147.832 -107.045 -1612.71 0.466126 0.0168809 0.868998 57 76 120
149.91 -102.295 -1616.55 0.413396 -0.038494 0.901798 57 75 118
90.0226 443.388 -1614.41 0.986715 -0.0150288 -0.0759367 242 207 183
89.8473 445.288 -1612.78 0.987697 0.0376158 -0.0525351 242 208 183
91.721 461.667 -1612.34 0.846273 -0.334703 -0.215985 220 177 155
98.932 469.998 -1617.56 0.644354 -0.684176 -0.0303583 152 124 121
74.9434 476.239 -1617.65 0.488151 -0.0938251 0.0729648 153 128 118
96.1632 487.4 -1613.03 0.687839 0.464775 0.286163 81 73 81
111.95 479.347 -1613.64 0.41629 -0.9507 0.127302 73 60 72
115.588 486.374 -1614.4 0.364877 -0.773907 0.0236211 73 61 73
17.9656 504.589 -1616.25 0.706842 -0.271183 0.651728 79 68 72
43.7466 506.247 -1612.86 -0.0681307 -0.827748 0.496035 78 65 69
35.4277 511.793 -1617.41 -0.251668 -0.655663 0.520423 70 60 67
47.2519 506.144 -1612.34 0.0597862 -0.878458 0.446518 84 70 72
67.5069 505.938 -1612.73 -0.0725095 -0.813128 0.238967 92 76 76
70.5869 505.397 -1617.38 -0.169338 -0.841161 0.337843 96 79 78
25.7485 520.532 -1617.51 0.494331 0.0577084 0.839809 76 66 68
35.0576 516.657 -1612.39 -0.0374883 -0.571544 0.554076 73 61 68
86.0667 493.598 -1619.28 0.352689 0.405504 -0.13595 82 69 74
89.7441 488.605 -1613.2 0.460826 0.480098 0.246249 78 69 75
76.5402 507.063 -1616.3 -0.192853 -0.717694 0.280601 88 74 75
83.7195 511.973 -1618.78 0.105787 -0.393716 0.190159 92 80 82
104.75 492.262 -1617.76 0.551744 0.164934 -0.11769 79 69 75
-165.379 -1205.9 -1623.05 -0.521881 0.641575 0.0501265 194 191 190
-65.9993 -549.406 -1610.41 0.526228 -0.201342 0.803759 218 222 243
-69.2179 -539.545 -1608.41 0.411147 -0.0551918 0.89283 216 222 242
-72.8483 -530.274 -1606.39 0.357029 -0.0897656 0.930027 213 219 239
-68.5552 -527.005 -1607.59 0.403193 -0.0796637 0.894056 220 225 245
-61.8357 -538.775 -1611.24 0.561139 -0.104225 0.784498 220 224 244
-61.4245 -522.393 -1611.54 0.635514 -0.00383783 0.754741 227 231 251
-63.9114 -515.016 -1610.1 0.552081 -0.0298322 0.814128 228 232 251
-69.7374 -502.147 -1606.77 0.444296 -0.0157996 0.874608 227 233 251
-64.046 -514.103 -1610.02 0.548738 -0.0261305 0.817399 228 232 251
-62.7783 -494.066 -1609.01 0.516874 -0.249848 0.805465 227 233 252
-65.2516 -490.633 -1605.79 0.471541 -0.314257 0.823164 225 231 251
-54.2017 -480.395 -1611.97 0.651772 -0.252875 0.71846 225 229 250
-59.0083 -475.006 -1605.49 0.651417 -0.260633 0.727969 229 233 252
-54.108 -471.147 -1608.72 0.612221 -0.224943 0.755902 224 228 248
-52.4213 -469.226 -1609.82 0.59237 -0.18427 0.772972 222 225 246
157.066 -1161.52 -1611.44 0.583337 0.375939 -0.0296795 207 206 206
172.296 -1161.41 -1609.34 0.681806 0.58835 -0.0422554 158 156 155
169.901 -1159.72 -1610.58 0.632123 0.568062 -0.0599318 158 156 156
136.661 -1142 -1607.08 0.204001 0.985038 0.0578105 249 249 249
153.519 -1153.22 -1606.45 0.546408 0.589229 0.0606283 202 201 202
168.999 -1154.34 -1609.24 0.0860388 0.80369 0.168536 134 132 132
182.161 -1153.25 -1610.11 0.203751 0.938475 0.141528 120 117 117
188.712 -1169.67 -1607.18 0.678246 0.310616 0.0556397 94 89 90
194.473 -1174.5 -1608.8 0.434953 0.140753 0.1474 74 69 70
188.294 -1165.65 -1605.29 0.780652 0.455063 0.0407702 98 93 94
185.818 -1156.48 -1607.26 0.458789 0.834671 0.163942 117 114 114
200.586 -1161.8 -1609.61 0.56977 0.716275 0.229237 99 95 94
209.186 -1164.71 -1610.62 0.232623 0.571492 0.440352 87 85 84
223.747 -1176.79 -1609.66 0.838273 0.580722 0.122074 110 108 106
219.129 -1171.64 -1609.36 0.674348 0.521683 0.24118 103 102 100
79.4312 -1126.01 -1606.56 -0.129469 0.754195 0.263048 224 223 224
154.036 -647.49 -1611.38 0.675438 0.227678 -0.158069 211 215 233
149.909 -643.084 -1610.73 0.756606 0.213941 -0.0158126 208 212 230
-25.915 -1.838 -1610.22 -0.285639 0.0657789 0.943081 55 75 118
-19.4439 -7.99446 -1608.6 -0.176194 0.0656047 0.96786 55 74 116
-18.709 -2.10593 -1608.78 -0.145014 0.0743347 0.964555 55 75 118
-15.2482 -2.58162 -1608.34 -0.0994825 0.10931 0.962572 55 74 116
-20.689 4.79489 -1609.82 -0.188265 0.113618 0.944327 54 75 118
-16.1769 4.86349 -1609.37 -0.0843753 0.12511 0.948682 54 73 116
-13.8319 8.40863 -1609.77 -0.0564283 0.134032 0.94236 54 72 115
-6.1169 -2.66453 -1606.91 -0.0965074 0.210414 0.947701 55 70 111
-0.131711 0.123656 -1606.32 -0.194181 0.251891 0.927089 54 68 107
-0.631787 2.00207 -1606.92 -0.174883 0.226514 0.934544 54 68 108
1.41747 10.5018 -1608.26 -0.200962 0.150509 0.944711 53 68 107
8.71402 3.3767 -1605.74 -0.266468 0.262624 0.924634 52 66 105
6.13017 7.76181 -1606.97 -0.247437 0.194308 0.939189 53 67 106
-5.65056 16.6914 -1610.83 -0.0957163 0.184364 0.93844 55 70 111
3.14138 27.7327 -1611.39 -0.322691 0.269079 0.896176 50 64 105
3.30425 15.6256 -1608.74 -0.223111 0.139837 0.948663 53 67 107
5.87286 21.7582 -1609.11 -0.257167 0.16223 0.937491 52 66 107
9.67415 32.8905 -1610.1 -0.365786 0.211227 0.89742 51 65 106
10.2204 30.9736 -1609.51 -0.342607 0.196218 0.908198 51 65 106
10.6706 41.3699 -1611.12 -0.44716 0.278148 0.839545 55 69 110
79.9052 -41.1203 -1606.18 0.38958 0.0438793 0.9135 53 69 112
76.792 -32.985 -1605.15 0.352865 0.00934116 0.935066 55 71 114
91.1899 -38.2497 -1611.28 0.339418 -0.0831221 0.926332 49 67 109
89.9882 -31.904 -1610.51 0.332255 -0.0436417 0.936397 50 68 110
84.0458 -22.0502 -1608.89 0.359462 0.062147 0.92561 55 72 114
83.2864 -17.8123 -1609.5 0.308552 0.124832 0.934565 55 72 114
88.1785 -21.2464 -1610.63 0.357335 0.0667232 0.92785 54 72 114
142.556 -121.454 -1610.35 0.546008 0.0428907 0.801454 57 75 119
153.546 -112.52 -1606.1 0.57819 0.019034 0.787672 53 72 117
151.79 -105.787 -1608.48 0.479822 0.0272436 0.855047 57 76 121
155.27 -103.882 -1609.54 0.515377 -0.0079949 0.820472 54 73 116
158.963 -114.04 -1609.87 0.725732 -0.120904 0.625441 45 63 102
158.225 -110.962 -1609.13 0.676749 -0.0902231 0.677344 47 65 106
156.384 -95.3101 -1611.86 0.41443 0.041433 0.897323 57 75 118
74.0689 368.991 -1611.31 0.870941 -0.477271 -0.0419581 127 194 190
24.9325 382.367 -1604.98 -0.318942 -0.461841 0.802679 215 251 252
19.0835 391.014 -1605.23 -0.333509 -0.225726 0.900168 202 250 250
53.3522 382.337 -1605.97 0.305878 -0.134242 0.934722 240 251 252
56.7856 387.66 -1605.68 0.343988 -0.0453346 0.930969 243 252 253
56.3692 392.226 -1606.56 0.393397 -0.034192 0.911467 243 252 253
54.4369 398.25 -1606.45 0.479122 -0.0732706 0.868859 244 252 252
62.8968 403.424 -1608.69 0.521889 0.0303719 0.821283 245 253 254
51.6446 405.4 -1605.89 0.636744 -0.0883593 0.783671 246 252 252
64.217 406.742 -1608.17 0.5259 0.0235164 0.815014 245 254 255
64.4854 416.195 -1606.18 0.611304 0.0630534 0.74768 247 255 255
53.9697 420.071 -1611.02 0.71419 0.155475 0.679603 249 254 254
50.4513 427.102 -1609.82 0.674385 0.209351 0.710468 250 253 254
64.8588 426.285 -1605.24 0.581105 0.108486 0.7344 234 233 230
77.6884 377.559 -1611.21 0.937495 -0.33051 -0.146004 187 207 192
80.0755 385.076 -1605.18 0.953579 -0.0787797 -0.170242 190 206 192
79.3766 399.131 -1608.81 0.950018 -0.188264 0.14909 207 171 141
82.9794 407.06 -1608.53 0.876993 -0.355643 0.233924 214 179 152
89.4566 421.712 -1604.5 0.921677 -0.286954 0.0995094 226 197 176
