ply
format ascii 1.0
comment Created by Open3D
element vertex 737
property double x
property double y
property double z
property double nx
property double ny
property double nz
property uchar red
property uchar green
property uchar blue
end_header
81.9385 -11.4604 -1636.04 0.767153 0.26368 -0.562812 131 99 89
88.8622 -12.2085 -1639.63 0.711064 0.0278102 -0.65407 137 108 71
94.8976 -10.1453 -1634.94 0.743405 0.1466 -0.616336 136 105 77
-9.83644 256.7 -1636.93 0.596131 0.315222 -0.68743 10 10 13
-14.0114 258.925 -1640.09 0.61533 0.143623 -0.780272 10 10 14
-11.3873 259.719 -1637.91 0.606594 0.150826 -0.739131 11 10 14
-6.97028 265.471 -1634.91 0.630388 -0.0290556 -0.749869 11 10 15
-0.445051 227.602 -1636.03 0.273019 0.353354 -0.701334 9 8 13
-14.6599 278.9 -1638.22 0.548641 0.17329 -0.804355 12 11 17
-11.3873 278.46 -1635.56 0.622961 0.195443 -0.745543 11 11 16
-14.6457 286.781 -1636.01 0.570261 0.231806 -0.774509 11 10 17
-21.363 289.114 -1639.33 0.420014 0.221751 -0.868095 12 11 18
-13.681 280.541 -1637.02 0.578217 0.196713 -0.778493 11 11 17
-34.9544 301.312 -1640.31 0.243209 0.444686 -0.846353 17 16 23
-41.3943 310.733 -1638.61 0.328418 0.449342 -0.812294 16 15 22
-46.7221 313.356 -1640.51 0.206126 0.409867 -0.782039 18 17 24
-35.142 307.964 -1636.68 0.306132 0.476422 -0.804745 16 15 22
-23.1937 296.364 -1638.33 0.34915 0.303008 -0.875101 14 13 20
-17.3812 294.765 -1636.22 0.487238 0.225958 -0.827144 12 11 19
-48.2924 321.737 -1636.85 0.315518 0.446952 -0.766357 21 19 27
-91.2273 -977.858 -1632.48 0.655317 0.517688 0.558407 31 36 55
-97.9015 -972.186 -1629.24 0.549344 0.422393 0.670219 32 38 57
-94.5538 -957.757 -1633.27 0.790501 -0.0959973 0.602114 28 33 52
-96.0826 -951.893 -1629.68 0.774228 -0.112728 0.632867 29 35 54
-135.706 -939.183 -1629.42 -0.847664 -0.123999 -0.266623 49 60 86
-134.457 -931.311 -1633.4 -0.922453 -0.0640082 -0.362179 49 61 86
-136.111 -922.421 -1628.98 -0.923669 0.0547629 -0.372099 50 60 88
-134.468 -913.812 -1629.75 -0.923696 0.0609507 -0.107476 54 64 92
-134.817 -896.151 -1629.72 -0.884341 -0.0606553 -0.314446 54 64 92
-134.344 -897.573 -1629.8 -0.883452 -0.02594 -0.318478 54 64 92
-95.7736 -939.804 -1630.43 0.697545 -0.0168051 0.712335 33 39 58
-96.8748 -935.475 -1629.52 0.657989 0.0249146 0.749984 32 38 56
-91.7796 -926.522 -1632.1 0.501674 -0.12856 0.847084 30 35 54
-95.3404 -923.3 -1629.41 0.500287 -0.133176 0.85006 32 37 56
-84.0203 -921.187 -1634.04 0.374818 -0.254627 0.891171 31 34 54
-83.8059 -914.394 -1631.1 0.330666 -0.352924 0.878812 26 31 49
-81.841 -908.005 -1629.7 0.330731 -0.391975 0.863616 25 29 48
-190.825 -784.657 -1630.42 -0.778066 0.0425759 -0.630166 45 54 83
-191.457 -776.766 -1630.03 -0.831505 -0.0179664 -0.553151 45 54 84
-160.503 -792.421 -1632.67 -0.641915 0.0330172 -0.74115 65 74 107
-162.452 -790.828 -1631.27 -0.646875 0.0437465 -0.731879 64 73 106
-156.666 -796.321 -1635.04 -0.637868 0.0102691 -0.749991 67 76 110
-153.024 -786.094 -1634.17 -0.619182 0.0250524 -0.781428 70 78 113
-161.069 -781.598 -1629.57 -0.640391 0.0592115 -0.74663 65 74 107
-157.513 -785.852 -1631.86 -0.635026 0.0395364 -0.756767 67 76 110
-191.2 -766.734 -1631.76 -0.825123 0.0395751 -0.548479 44 53 85
-188.72 -756.581 -1631.71 -0.763901 0.346385 -0.511857 48 57 88
-180.449 -750.074 -1634.6 -0.409032 0.550444 -0.710598 54 64 95
-173.007 -743.077 -1632.46 -0.360541 0.543602 -0.746366 49 57 84
-175.776 -739.764 -1629.02 -0.476554 0.495768 -0.710962 51 59 87
-167.696 -741.976 -1633.61 -0.332978 0.526858 -0.767663 39 47 71
-169.637 -735.095 -1630.98 -0.444375 0.364364 -0.799549 40 46 68
-170.545 -730.421 -1629.6 -0.530408 0.285691 -0.794683 38 44 63
-147.308 -725.928 -1629.22 -0.523722 -0.00131701 -0.816307 42 51 81
-167.4 -714.243 -1629.7 -0.750152 0.0209423 -0.654268 31 37 58
-167.339 -707.946 -1630.04 -0.79251 -0.051562 -0.604465 32 39 59
-147.655 -712.161 -1629.22 -0.541309 -0.0667886 -0.795646 41 50 78
-26.9202 -1019.77 -1633.45 -0.659125 -0.032978 0.713854 95 91 110
-23.7099 -1038.72 -1633.71 -0.60244 -0.291305 0.692519 100 98 115
-23.3257 -1025.83 -1630.52 -0.548108 -0.0894429 0.779399 98 97 114
-24.3127 -1019.64 -1631.96 -0.570866 0.0209868 0.763189 90 89 107
-27.0326 -1014.04 -1634.32 -0.638616 0.0343185 0.748288 77 75 92
-18.1475 -1015.35 -1631.08 -0.328138 0.20038 0.886626 64 67 86
-24.648 -1006.44 -1634.36 -0.471546 0.0839913 0.864369 41 43 60
-12.9606 -1010.66 -1631.28 -0.223197 0.23921 0.936376 43 49 69
-13.4466 -1006.82 -1631.64 -0.213004 0.165544 0.952948 38 45 65
-14.5987 -997.232 -1630.96 -0.319762 -0.00114037 0.923179 34 42 62
-18.1629 -992.516 -1631.85 -0.491135 0.0707589 0.822092 36 44 63
-10.6715 -1002.85 -1630.91 -0.255376 0.0789533 0.947226 37 45 65
32.6094 -1038.86 -1630.06 0.965816 -0.109824 0.157976 103 104 128
34.2562 -1030.52 -1632.44 0.927007 -0.132262 0.272758 74 77 102
37.7756 -1017.16 -1630.87 0.901391 -0.0377543 0.179502 51 58 86
37.5121 -1013.71 -1629.44 0.860618 0.0792929 0.21698 49 57 85
33.4173 -997.025 -1634.18 0.812585 0.145613 0.460156 44 50 73
33.2107 -992.718 -1632.91 0.860316 -0.084967 0.377433 46 54 78
-38.1293 -818.799 -1629.04 -0.760472 -0.0654594 0.442533 33 39 55
-37.2227 -810.738 -1630.57 -0.691613 0.005102 0.606987 36 40 55
-44.5458 -800.623 -1633.53 -0.665782 -0.110382 0.50674 33 36 53
-35.6329 -807.888 -1630.11 -0.634719 0.105481 0.712319 40 43 58
-36.3358 -802.187 -1631.39 -0.563506 0.0385014 0.781027 41 43 59
53.2815 -891.377 -1631.52 0.979016 -0.074387 0.0787582 50 60 90
51.7948 -876.915 -1631.13 0.970487 0.134319 -0.00789146 49 60 91
51.0614 -874.367 -1634.24 0.97519 0.0909412 0.0168774 49 60 90
53.8576 -860.23 -1632.91 0.966191 -0.239569 0.0475881 46 60 90
57.2104 -847.685 -1631.05 0.969551 -0.177786 -0.0703222 48 62 92
57.8814 -842.987 -1632.47 0.970358 -0.135682 -0.100965 47 61 91
58.0398 -829.353 -1633.18 0.895265 0.230241 -0.344854 44 58 88
53.0941 -823.303 -1634.53 0.837276 0.459132 -0.411015 43 58 86
57.2201 -818.573 -1629.85 0.838453 0.138387 -0.299073 46 59 89
55.9891 -815.186 -1632.7 0.884021 -0.00322626 -0.313668 46 59 88
59.7169 -807.508 -1629.25 0.852838 -0.205166 -0.489906 45 58 88
-48.0286 -795.328 -1634.15 -0.730203 -0.113232 -0.105747 58 62 75
-33.7995 -791.956 -1629.05 -0.462167 -0.221114 0.775739 42 46 64
-49.9383 -775.446 -1631.82 -0.934455 0.152959 -0.277484 34 42 62
57.9694 -664.249 -1633.57 0.568057 -0.0855783 -0.81208 39 48 76
63.5139 -665.434 -1629.44 0.561159 -0.0757802 -0.823577 39 48 76
62.8576 -658.905 -1630.16 0.529914 0.0298315 -0.838991 38 47 73
61.3256 -655.62 -1631.38 0.605894 -0.0272487 -0.767298 37 46 72
62.8634 -648.162 -1629.97 0.656335 -0.0612939 -0.733899 37 46 72
60.8226 -644.535 -1632.21 0.763605 -0.164167 -0.611363 38 47 73
63.4869 -630.357 -1633.3 0.758013 -0.261357 -0.563164 40 49 76
67.3763 -622.076 -1631.45 0.816771 -0.369064 -0.440485 37 46 72
69.4096 -617.443 -1633.32 0.807373 -0.467505 -0.376451 37 46 72
77.389 -608.118 -1629.58 0.789831 -0.583513 -0.263731 34 43 70
-44.908 -598.02 -1629.44 -0.794574 -0.0299666 -0.628974 26 32 60
-41.8857 -593.011 -1632.92 -0.750079 0.0136169 -0.638395 26 32 61
-40.6895 -584.632 -1631.37 -0.831481 0.116039 -0.501045 20 27 53
-194.362 -317.399 -1631.48 -0.6979 0.150097 -0.562803 68 75 113
-191.751 -310.756 -1632.99 -0.833979 0.150178 -0.501836 84 93 134
-177.519 -303.374 -1634.28 -0.588146 0.479439 -0.638097 54 56 81
-186.828 -296.258 -1634.76 -0.759752 0.261768 -0.581464 86 94 139
-186.423 -293.55 -1633.79 -0.741225 0.253322 -0.607252 93 101 146
-174.762 -297.194 -1632.5 -0.665834 0.394011 -0.628043 51 54 78
-173.784 -290.643 -1630.32 -0.696092 0.328712 -0.628071 55 58 83
-186.644 -285.927 -1630.59 -0.718523 0.140994 -0.672957 85 94 137
-187.223 -281.796 -1630.04 -0.706004 0.111166 -0.699995 82 91 134
-174.266 -287.003 -1629.06 -0.701228 0.26927 -0.643618 57 60 86
-171.725 -278.387 -1631.94 -0.681146 0.11549 -0.70875 67 72 104
-184.479 -271.609 -1630.31 -0.706073 0.0581628 -0.694848 85 88 112
-179.658 -273.41 -1628.81 -0.712924 0.0531173 -0.68413 70 75 100
-173.579 -274.093 -1634.54 -0.682695 0.0474954 -0.719326 75 83 117
-172.065 -270.058 -1629.31 -0.763923 0.050102 -0.621047 51 56 74
-113.27 210.348 -1631.12 -0.515467 -0.246096 -0.828646 16 13 18
-119.743 217.308 -1629.18 -0.536944 -0.295377 -0.786119 17 14 19
-108.832 212.44 -1634.26 -0.500475 -0.204546 -0.845649 15 12 17
-81.7477 180.654 -1634.22 -0.787782 -0.231293 -0.548335 48 41 41
-88.4999 187.343 -1629.71 -0.716665 -0.467627 -0.445 23 21 24
-96.5645 193.603 -1630.98 -0.564281 -0.722245 -0.38309 19 17 22
-62.3799 201.57 -1630.44 -0.412503 0.823557 0.22501 9 6 14
-63.1084 203.76 -1629.05 -0.414883 0.808944 0.246674 9 6 14
-51.5075 201.524 -1632.98 -0.345401 0.658419 0.319464 8 6 14
-63.0873 212.437 -1629.23 -0.332339 0.710938 0.143227 11 8 16
-65.9568 216.432 -1632.86 -0.295536 0.67103 0.0841507 12 9 16
-130.048 228.227 -1628.93 -0.616548 -0.533269 -0.546494 18 15 21
-124.456 231.479 -1634.53 -0.594646 -0.461455 -0.632268 18 15 20
-125.966 233.383 -1633.99 -0.61361 -0.379484 -0.635931 18 15 21
-126.431 242.234 -1632.97 -0.643535 0.0261207 -0.748884 21 17 23
-116.918 224.636 -1634.71 -0.509843 -0.330593 -0.792693 17 14 19
-126.093 248.353 -1632.32 -0.590591 0.0082637 -0.806225 20 17 22
-131.013 255.588 -1629.31 -0.606469 -0.076341 -0.766761 19 17 21
-128.746 261.365 -1631.62 -0.56553 -0.0859395 -0.788167 19 16 20
-128.09 265.07 -1632.05 -0.544975 -0.102856 -0.806667 19 16 20
-55.7825 223.917 -1628.87 -0.334485 0.125738 -0.270942 21 18 23
-49.8479 231.561 -1633.93 -0.312818 -0.0960127 -0.456688 20 18 22
177.815 2.36267 -1631.48 0.668246 -0.00614715 0.696014 95 76 52
183.853 12.8853 -1628.22 0.718898 -0.0126972 0.665575 95 76 52
184.646 16.2969 -1628.22 0.731047 -0.022516 0.657849 94 75 52
187.59 24.6236 -1629.74 0.778409 -0.0844764 0.61218 93 73 52
188.611 30.5444 -1629.09 0.787303 -0.148155 0.593783 100 80 54
193.138 41.4041 -1630.84 0.673827 -0.300732 0.663994 103 82 56
196.869 41.4973 -1633.62 0.561204 -0.335058 0.734726 102 80 58
201.056 46.9253 -1632.53 0.430083 -0.36395 0.801694 109 88 70
211.565 51.013 -1634.27 0.284244 -0.192271 0.929106 149 128 126
203.199 58.6442 -1629.88 0.364522 -0.101948 0.921948 114 94 71
-7.74751 252.641 -1632.03 0.461679 0.0393592 -0.214322 10 8 13
-5.55931 258.566 -1630.59 0.620326 -0.0744195 -0.474351 11 9 15
-6.16029 267.302 -1633.57 0.658102 -0.032503 -0.708462 11 10 15
3.38873 231.46 -1630.67 0.355308 0.532287 -0.716605 9 8 14
1.33604 242.338 -1628.51 0.373795 0.334288 -0.580812 9 9 14
-1.77323 270.826 -1628.77 0.723846 -0.10634 -0.688931 12 10 18
-7.98034 277.35 -1632.57 0.682706 0.191324 -0.693997 12 11 17
-8.60692 284.394 -1630.08 0.732436 0.208464 -0.641682 14 12 19
-11.9351 290.202 -1633.02 0.654292 0.171931 -0.724971 12 11 19
-28.7472 307.118 -1634.48 0.299213 0.509859 -0.801049 16 15 23
-31.5144 315.404 -1628.85 0.405054 0.506075 -0.756214 16 15 23
-15.0719 302.302 -1630.73 0.509393 0.402303 -0.728011 13 12 20
-11.6031 294.88 -1631.97 0.659415 0.14767 -0.709944 12 11 19
-21.9431 307.402 -1630.69 0.364188 0.522548 -0.765278 15 14 22
-39.163 320.939 -1630.09 0.416124 0.459964 -0.780629 20 19 26
-47.0995 326.431 -1633.04 0.428985 0.465518 -0.780491 21 20 28
-170.704 -893.89 -1640.18 -0.851538 -0.110735 -0.432566 53 65 94
-172.663 -879.268 -1638.81 -0.843329 -0.112225 -0.416423 52 64 93
-176.728 -871.35 -1638.03 -0.827094 -0.0680903 -0.442929 50 61 89
-165.711 -868.76 -1639.74 -0.829505 -0.0502914 -0.474035 53 63 91
-173.195 -872.633 -1637.91 -0.830675 -0.0773228 -0.439252 51 62 90
-185.196 -859.824 -1639.43 -0.767679 0.143841 -0.578001 39 50 73
-173.623 -865.694 -1637.31 -0.809116 -0.00408896 -0.489678 48 58 85
-175.046 -871.451 -1637.86 -0.827274 -0.0673715 -0.444578 50 61 89
-185.02 -857.618 -1639.4 -0.757536 0.168223 -0.592286 38 49 71
-178.246 -855.67 -1636.58 -0.762404 0.121708 -0.56675 42 52 77
-183.091 -846.907 -1636.93 -0.684363 0.226024 -0.589524 41 52 77
-167.169 -863.505 -1638.62 -0.814225 -0.00347635 -0.504595 50 60 88
-166.322 -867.345 -1639.37 -0.825499 -0.0380641 -0.481443 52 62 90
-165.127 -849.047 -1639.35 -0.787701 0.0311143 -0.546031 52 61 89
-171.272 -851.072 -1636.44 -0.757606 0.101725 -0.565453 46 56 82
-185.089 -846.135 -1638.31 -0.66594 0.247578 -0.584608 42 52 78
-178.495 -838.021 -1635.02 -0.638171 0.224943 -0.622822 45 55 82
-170.334 -835.179 -1634.8 -0.679161 0.126033 -0.621813 50 60 88
-179.917 -842.899 -1635.85 -0.667366 0.219706 -0.60397 43 53 79
-185.179 -826.446 -1632.29 -0.525272 0.332237 -0.721003 44 54 82
-189.117 -826.982 -1637.17 -0.486666 0.380209 -0.717452 44 53 81
-191.834 -822.506 -1638.39 -0.432463 0.42805 -0.77516 43 52 80
-173.36 -830.577 -1633.92 -0.621768 0.187976 -0.652879 49 59 87
-179.723 -830.103 -1633.24 -0.565371 0.28625 -0.674964 45 55 83
-164.886 -839.21 -1638.31 -0.749297 0.0356271 -0.568637 53 63 92
-166.212 -839.858 -1637.65 -0.737307 0.0595906 -0.579874 52 62 91
-171.588 -841.63 -1635.29 -0.710129 0.130023 -0.600129 47 57 84
-162.868 -828.561 -1637.59 -0.743829 -0.042151 -0.577121 57 67 98
-168.144 -831.297 -1635.17 -0.677448 0.0960842 -0.621991 52 62 91
-72.4521 -893.896 -1641.03 0.513125 -0.187057 0.708145 27 32 52
-38.9851 178.386 -1632.16 -0.0153571 0.413379 -0.0866811 33 28 34
-46.4357 172.201 -1633.59 0.06026 0.343998 -0.448969 55 48 49
-33.7106 182.686 -1629.94 -0.318106 0.577466 0.107631 16 12 20
-31.054 172.723 -1638.86 -0.0623356 0.642279 -0.132054 64 59 64
-27.4588 177.407 -1635.8 -0.274587 0.6494 -0.0809275 42 39 45
-93.624 -1167.9 -1624.38 0.171416 -0.927648 0.319909 177 152 135
-86.0469 -1165.62 -1623.44 0.321439 -0.860452 0.304713 170 146 129
-75.9291 -1162.1 -1624.63 0.00909165 -0.625353 0.214314 114 99 91
-70.4531 -1167.72 -1626.06 -0.23801 -0.952828 0.0940356 81 74 72
-71.751 -1165.19 -1623.94 -0.245749 -0.840827 0.151464 84 76 73
-52.9625 -1162.24 -1627.61 0.834692 -0.470137 0.244457 63 54 50
-79.4327 -1150.28 -1623.54 0.985527 0.00686226 0.243408 143 119 105
-79.6854 -1146.03 -1624.19 0.962747 -0.0345703 0.260701 139 116 103
-78.591 -1140.77 -1625.88 0.945876 -0.0479202 0.27698 140 118 104
-67.9914 -1151.85 -1628.44 0.0404765 -0.202418 0.0768448 83 65 61
-50.8421 -1156.35 -1628.52 0.792224 -0.533992 0.116981 79 69 66
-61.2472 -1144.71 -1627.74 0.477685 -0.339431 0.18784 111 93 84
-145.344 -1136.62 -1623.83 -0.367492 -0.244002 0.0332598 84 73 65
-142.633 -1129.43 -1628.9 -1.02865 0.0608407 -0.112098 86 74 65
-142.428 -1124.72 -1625.66 -0.931574 0.0384672 -0.111083 90 79 73
-141.248 -1114.85 -1627.75 -0.735657 -0.0935608 -0.188484 94 87 86
-122.371 -1124.37 -1627.15 0.82574 -0.318334 -0.428901 153 130 123
-120.414 -1115.23 -1624.85 0.833539 -0.259428 -0.476663 159 133 123
-144.243 -1108.04 -1624.2 -0.640304 -0.352973 -0.474347 83 79 88
-145.804 -1098.18 -1627.68 -0.640233 -0.386863 -0.439052 80 76 86
-118.808 -1104.25 -1624.67 0.792487 -0.29125 -0.559205 161 134 125
-117.869 -1094.85 -1627.17 0.682248 -0.356127 -0.638501 158 132 123
-112.46 -1092.37 -1624.12 0.447826 -0.498949 -0.731646 162 134 124
-98.6107 -1091.8 -1626.1 -0.561813 -0.640955 -0.491383 119 101 96
-96.0139 -1125.26 -1626.07 0.269696 -0.130471 0.107408 125 109 105
-82.9477 -1125.21 -1626.05 0.839414 0.0825464 0.40056 118 101 94
-89.4379 -1122.52 -1624.84 0.325957 -0.0943814 0.198502 117 103 98
-71.2469 -661.489 -1623.73 -0.790949 0.12217 0.579039 58 64 89
-70.1061 -652.822 -1623.43 -0.832827 -0.0271202 0.525443 52 57 81
-55.5206 -652.962 -1627.64 -0.839317 -0.0189097 0.536553 52 57 81
-74.5912 -639.702 -1625.8 -0.814916 -0.195092 0.543663 47 52 80
-77.381 -630.839 -1627.49 -0.76497 -0.157106 0.61853 49 54 83
-73.0014 -641.392 -1623.93 -0.831949 -0.192417 0.51961 46 51 77
-55.27 -643.026 -1623.68 -0.832731 -0.101616 0.515128 49 53 77
-55.6306 -638.387 -1624.95 -0.827691 -0.122038 0.487612 47 51 75
-76.3589 -624.989 -1624.56 -0.769172 -0.143561 0.618811 50 54 82
-78.6792 -617.421 -1624.94 -0.747278 -0.143747 0.645694 47 52 81
-77.7242 -609.978 -1623.23 -0.738432 0.0429697 0.642008 47 51 81
-56.9787 -625.365 -1623.52 -0.750745 -0.0561976 0.509333 45 49 74
-57.4807 -619.168 -1625.12 -0.692118 -0.0221665 0.513666 42 47 72
-56.7555 -606.386 -1623.73 -0.705115 0.0630104 0.486526 40 43 66
-196.204 -588.741 -1625.51 -0.730508 -0.108791 -0.540862 41 49 79
-195.54 -580.784 -1627.81 -0.555767 -0.14949 -0.78369 44 52 83
-198.504 -579.356 -1625.98 -0.67085 -0.189549 -0.680727 43 51 81
-197.803 -570.648 -1628.6 -0.579601 -0.203417 -0.77318 31 37 67
-201.044 -561.31 -1627.99 -0.74199 -0.183372 -0.639671 33 40 70
-191.64 -601.596 -1624.24 -0.879912 -0.316344 -0.16689 40 48 77
-194.197 -594.191 -1628.54 -0.725714 -0.0563179 -0.620934 38 45 74
-6.67681 -941.776 -1623.75 -0.817107 -0.151096 0.559129 43 51 72
-15.3293 -924.988 -1627.23 -0.663859 -0.28723 0.678386 44 52 74
-14.246 -918.887 -1623.12 -0.715313 -0.222531 0.636281 45 53 74
-12.9685 -923.791 -1624.57 -0.684968 -0.27048 0.661225 45 53 75
-19.7682 -913.771 -1625.22 -0.699809 -0.265664 0.655118 46 53 74
-23.1282 -902.036 -1628.16 -0.813586 0.0354243 0.562807 48 51 71
-21.0288 -894.451 -1627.58 -0.850554 0.122805 0.515454 48 53 74
45.3326 -931.008 -1626.75 0.91901 -0.153265 0.334073 50 59 86
45.8748 -927.407 -1628.6 0.906833 -0.131537 0.413982 51 59 87
-40.2462 -661.422 -1625.42 -0.932245 0.104605 -0.348716 24 31 56
-39.281 -653.22 -1626.54 -0.914812 0.0826533 -0.380852 26 33 60
-38.8576 -643.201 -1624.66 -0.913834 -0.00137002 -0.408208 24 31 54
-38.8378 -635.485 -1625.46 -0.880748 -0.0863464 -0.454536 26 34 59
-37.4349 -637.235 -1627.36 -0.89947 -0.0306538 -0.412803 25 33 59
-42.5118 -622.796 -1625.63 -0.790149 -0.230865 -0.591355 33 41 68
-42.063 -618.29 -1628.12 -0.772725 -0.225242 -0.637873 38 45 74
-45.507 -608.253 -1627.19 -0.780914 -0.112281 -0.552913 35 41 70
68.386 -691.918 -1627.87 0.497312 0.160336 -0.850463 43 53 83
68.1217 -687.792 -1627.57 0.466234 0.138099 -0.870194 44 54 84
68.5633 -678.456 -1626.41 0.398616 0.0525314 -0.897353 45 55 85
80.6038 -698.263 -1622.29 0.619974 0.0738954 -0.64665 46 57 86
78.1808 -690.715 -1623.85 0.392002 0.110854 -0.880256 48 59 88
78.7267 -684.242 -1623.26 0.325347 0.0923901 -0.929858 48 59 89
79.7183 -677.754 -1622.58 0.292333 0.0681556 -0.944159 49 60 90
65.8981 -664.99 -1628.05 0.535535 -0.0745944 -0.836548 40 49 77
68.1863 -661.938 -1627.23 0.493141 -0.0360147 -0.85958 41 50 78
71.0805 -654.763 -1625.75 0.446577 0.0534032 -0.882331 42 51 79
71.2486 -668.257 -1625.61 0.390794 -0.063053 -0.907364 46 55 85
75.7756 -662.335 -1624.35 0.359049 -0.0520871 -0.920441 48 57 88
73.6463 -654.282 -1624.74 0.410066 0.0986594 -0.895757 45 54 83
-177.178 -176.428 -1627.6 -0.861957 -0.283012 -0.413367 151 124 44
-180.261 -167.774 -1625.22 -0.894573 -0.267737 -0.341172 145 118 38
-182.816 -158.664 -1626.06 -0.898383 -0.275915 -0.32105 140 114 36
-185.796 -152.361 -1623.47 -0.902029 -0.273333 -0.32329 144 117 39
-188.609 -142.983 -1624.82 -0.930626 -0.17747 -0.304056 143 116 39
-188.362 -129.498 -1624.15 -0.965492 -0.0762081 -0.185704 144 116 39
-188.774 -123.936 -1628.17 -0.95062 -0.24798 -0.149341 144 117 41
-195.791 -96.0498 -1628.42 -0.94866 -0.0958713 -0.289576 135 107 29
-196.05 -92.7668 -1628.33 -0.954054 -0.112602 -0.257111 135 107 30
-123.1 210.415 -1624.22 -0.707863 -0.271183 -0.493288 17 15 21
-111.434 198.348 -1626.27 -0.577101 -0.511484 -0.524922 17 14 19
-120.354 206.45 -1625.08 -0.66605 -0.318486 -0.563314 17 15 21
-107.312 195.852 -1626.07 -0.567037 -0.653026 -0.460605 17 14 20
-85.9558 174.081 -1623.86 -0.920506 0.068976 -0.322452 104 82 66
-84.244 172.082 -1627.89 -0.884973 0.0875897 -0.375714 96 77 66
-93.8816 189.349 -1625.1 -0.60182 -0.65948 -0.401981 27 23 27
-97.2839 191.187 -1625.29 -0.553018 -0.721448 -0.379541 23 20 25
-59.431 172.64 -1626.2 0.253976 0.0333191 -0.897629 35 26 27
-53.4572 182.326 -1625.41 0.248079 -0.0722494 -0.832147 21 16 21
-58.5081 202.094 -1627.51 -0.437508 0.732345 0.389432 9 6 14
-56.3861 209.118 -1625.28 -0.454031 0.557295 0.442404 11 8 15
-57.6407 212.424 -1626.25 -0.409394 0.546747 0.291301 13 9 16
-57.823 216.336 -1627.15 -0.379058 0.471205 0.123523 16 12 18
-50.1745 213.403 -1625.41 -0.476102 0.381276 0.111433 14 11 18
-126.324 221.257 -1626.21 -0.668007 -0.370969 -0.335988 17 14 20
-136.221 233.046 -1624.83 -0.729894 -0.543383 -0.207127 19 17 24
-134.93 239.696 -1628.38 -0.721397 -0.0308684 -0.67501 20 17 21
-137.358 247.222 -1623.85 -0.787513 -0.0423852 -0.593521 21 19 23
-131.281 245.165 -1629.03 -0.660654 0.0294487 -0.744409 20 17 22
-136.464 260.966 -1625.29 -0.715723 -0.0989267 -0.663765 20 18 22
-133.922 261.458 -1627.81 -0.658099 -0.09963 -0.703358 20 17 21
50.7053 113.777 -1623.14 -0.0488271 0.67187 0.744449 67 55 34
48.7593 118.86 -1627.82 -0.0541408 0.639579 0.774708 65 53 31
62.512 119.082 -1625.01 -0.167429 0.674155 0.557102 72 59 38
71.0325 121.889 -1627.26 0.0277719 0.690295 0.00891577 91 77 46
78.6247 121.368 -1628.32 0.18051 0.669816 -0.470951 112 94 53
93.6543 119.888 -1627.77 0.261148 0.627524 -0.287696 114 96 54
130.714 93.6528 -1623.02 0.25684 0.393297 0.869189 104 86 54
144.267 88.3349 -1623.15 0.257961 0.352038 0.894553 104 86 33
144.388 95.5939 -1626.96 0.26002 0.433256 0.850126 106 87 39
115.552 103.955 -1624.73 0.489043 0.462922 0.697329 94 75 45
113.975 107.561 -1626.28 0.484753 0.487769 0.687847 94 75 45
97.2771 118.711 -1625.82 0.270109 0.575896 0.0740665 102 84 49
109.683 112.367 -1625.3 0.476789 0.502915 0.670381 96 77 46
125.901 100.36 -1626.37 0.265429 0.505693 0.79735 102 84 53
-84.7801 -1123.76 -1618.76 0.820143 0.0106731 0.0877559 117 102 98
-52.8304 -1127.78 -1616.65 0.236028 -0.267546 0.14538 119 107 106
-50.95 -1119.12 -1617.65 0.283708 -0.286823 0.156642 117 104 101
-91.9153 -1106.87 -1617.63 -0.574993 -0.662463 -0.302958 117 104 104
-95.3812 -1103.57 -1617.78 -0.525795 -0.670769 -0.427505 128 110 108
-86.0427 -1112.02 -1617.71 -0.709448 -0.486633 0.113373 116 103 103
-76.5172 -1106.68 -1620.59 0.644545 -0.460968 0.249951 116 109 111
-72.5459 -1098.05 -1622.72 0.889083 -0.181898 0.210496 102 100 111
-66.2062 -1092.06 -1620.99 0.864571 -0.0238163 0.142353 98 98 111
-157.79 -1081.86 -1619.72 -0.73086 -0.375362 -0.151293 73 73 85
-151.554 -1019.65 -1622.31 -0.457511 -0.342096 0.815931 46 50 68
-149.071 -1011.91 -1619.1 -0.423455 -0.249425 0.828202 35 39 57
-147.77 -1008.65 -1617.24 -0.379816 -0.223503 0.826774 26 31 49
-152.868 -1000.62 -1619.53 -0.627651 -0.0813068 0.781876 43 46 66
-151.146 -997.358 -1618.44 -0.605099 -0.0410263 0.776967 41 45 65
-127.926 -1070.4 -1618.93 -0.00452842 -0.285642 0.280753 96 92 103
-120.035 -1071.95 -1620.29 -0.041691 -0.341223 0.468099 103 96 106
-114.53 -1072.21 -1622.11 0.041334 -0.362887 0.526571 108 99 106
-177.336 -621.506 -1622.1 -0.788566 -0.392858 -0.445437 36 44 71
-185.605 -610.691 -1620.99 -0.866886 -0.36324 -0.135927 38 45 73
-111.267 -676.63 -1622.73 -0.403299 -0.19012 0.0498385 54 62 91
-97.7079 -697.499 -1618.59 -0.671099 -0.151717 0.55855 47 57 85
-67.1141 -695.736 -1617.85 -0.842603 -0.0937231 0.541393 47 54 73
-54.4795 -696.322 -1622.35 -0.491606 -0.130896 0.517741 44 49 69
-55.5054 -689.255 -1620.75 -0.472588 -0.147348 0.552973 43 48 68
-71.398 -679.258 -1620.66 -0.824669 -0.199008 0.534952 48 57 81
-55.2605 -684.915 -1619.98 -0.43536 -0.158693 0.545935 41 47 66
-72.4725 -673.436 -1621.91 -0.80439 -0.105771 0.570689 50 58 84
-72.3753 -669.802 -1622.39 -0.800277 -0.00205821 0.577319 54 62 87
-55.2839 -673.915 -1621.36 -0.627056 -0.0805946 0.578248 48 54 75
25.0058 -1173.45 -1619.96 -0.416292 -0.857917 -0.118542 118 108 102
38.0992 -1176.18 -1618.65 -0.164008 -0.964313 -0.0654602 163 160 154
43.5532 -1176.44 -1618.39 -0.026679 -0.982853 -0.0267639 158 158 152
5.26645 -1154.22 -1622.03 -0.995427 -0.133775 -0.043473 155 128 118
2.85668 -1142.77 -1621.24 -0.96882 -0.206144 0.000452045 152 125 114
-46.1702 -1135.02 -1619.5 0.938393 -0.295331 -0.133998 83 68 56
-40.209 -1120.62 -1618.52 0.876094 -0.379722 -0.222575 96 79 68
-37.7604 -1117.42 -1618.47 0.845984 -0.385197 -0.288076 109 90 79
-2.3701 -1123.89 -1618.53 -0.921887 -0.24316 -0.323269 152 126 113
-4.92909 -1114.7 -1619.57 -0.927512 -0.291063 -0.289812 129 109 101
-30.2789 -1109.49 -1618.03 0.664202 -0.437103 -0.584885 166 140 128
-25.9952 -1103.67 -1619.1 0.577149 -0.455707 -0.692933 169 143 131
-8.88823 -1107.51 -1617.06 -0.761858 -0.391186 -0.387972 128 112 108
-11.045 -1102.47 -1618.29 -0.5267 -0.459864 -0.537615 138 121 115
-19.4412 -1094.83 -1621.11 0.325771 -0.588685 -0.771878 172 144 131
-8.33019 -1099.59 -1622.27 -0.822976 -0.168535 -0.512819 114 106 116
0.244069 -1132.79 -1620.79 -0.952187 -0.182563 -0.198187 150 125 114
-180.002 -174.692 -1619.85 -0.907181 -0.296521 -0.286302 149 122 41
-183.081 -165.203 -1617.47 -0.918655 -0.2538 -0.285865 142 115 35
-182.564 -166.786 -1617.39 -0.918696 -0.246837 -0.289825 143 115 35
-189.276 -144.242 -1620.93 -0.946408 -0.174037 -0.261226 144 117 38
-189.786 -138.117 -1619.14 -0.967042 -0.0461195 -0.22169 143 116 36
-189.182 -126.756 -1620.83 -0.96405 -0.148717 -0.149106 144 117 39
-190.533 -120.827 -1621.89 -0.947587 -0.272033 -0.114208 145 117 40
-196.592 -98.2478 -1618.42 -0.972392 -0.153094 -0.0580074 142 114 36
-197.626 -91.061 -1621.72 -0.969213 -0.134635 -0.139894 139 111 34
46.8923 -230.724 -1622.5 0.802624 0.306276 -0.495798 88 75 45
70.9336 -300.478 -1621.05 0.780643 0.431904 -0.425555 50 53 87
62.6036 -291.775 -1621.23 0.755046 0.59347 -0.260429 53 55 86
77.7171 -311.237 -1618.86 0.852011 0.316001 -0.382568 52 57 95
74.1239 -303.282 -1618.05 0.795542 0.430045 -0.410647 48 52 88
60.7259 -287.817 -1620.65 0.791267 0.466083 -0.300903 47 48 78
63.3417 -273.938 -1618.62 0.877476 -0.0260854 -0.471705 50 50 77
63.8709 -269.013 -1618.57 0.86102 0.0590667 -0.471783 48 47 70
84.2573 -37.7365 -1620.52 0.976859 -0.137741 -0.0796816 82 67 32
85.7626 -32.3738 -1621.21 0.93719 -0.221968 -0.152796 79 65 32
90.2579 -16.4359 -1620.15 0.88476 0.00489576 -0.399259 110 84 71
92.3821 -4.76053 -1617.16 0.86901 0.261309 -0.280128 125 92 82
90.9848 -3.68269 -1621.46 0.839365 0.330473 -0.395442 127 95 86
10.3805 122.73 -1617.41 0.534169 0.662695 0.536526 57 46 28
15.7415 120.535 -1619.91 0.525247 0.691875 0.501366 55 46 27
30.6294 109.232 -1616.82 0.277386 0.763671 0.568527 61 51 28
42.8452 108.48 -1618.66 -0.0378192 0.691715 0.716426 67 56 30
27.6221 113.812 -1621.82 0.303038 0.751489 0.542162 59 49 27
-124.796 -591.318 -1622.98 -0.336131 -0.0741431 0.241856 56 62 96
-122.793 -593.26 -1620.46 -0.337084 -0.0417368 0.452321 56 61 96
-124.892 -580.146 -1619.43 -0.3398 -0.0898563 0.54884 60 66 101
-127.486 -580.28 -1622.25 -0.328207 -0.114056 0.266198 60 66 100
-121.799 -584.687 -1617.24 -0.352803 -0.0569866 0.78138 60 65 100
-121.496 -592.984 -1618.74 -0.349147 -0.0520921 0.597934 58 63 98
-122.123 -588.815 -1618.52 -0.351303 -0.0569221 0.662205 59 64 100
-127.578 -575.495 -1621 -0.302227 -0.0819305 0.705757 61 67 102
-134.404 -568.581 -1626.6 -0.233321 -0.0927005 0.635499 62 68 104
-124.791 -574.516 -1618.35 -0.319029 -0.0615779 0.901793 61 66 102
-125.24 -567.897 -1618.99 -0.313106 -0.0674067 0.787183 61 66 102
-135.85 -555.947 -1627.26 -0.264599 -0.0291297 0.81423 58 64 100
-128.288 -565.316 -1621.4 -0.288867 -0.0617501 0.794941 60 66 102
-128.825 -557.676 -1622.14 -0.303943 0.00278377 0.815004 57 63 98
-133.717 -554.131 -1625.77 -0.274321 0.00439203 0.847738 57 63 99
-130.322 -544.595 -1626.32 -0.32903 0.134989 0.803586 50 56 90
-130.761 -549.255 -1625.09 -0.32532 0.0868194 0.771567 52 58 92
-123.049 -548.54 -1620.7 -0.334811 0.12651 0.804004 51 57 91
-122.734 -531.745 -1628.32 -0.339544 0.147122 0.795872 49 55 89
-123.514 -537.277 -1625.7 -0.335071 0.154387 0.807447 49 55 90
-81.5274 -1134.53 -1616.26 1.029 0.0212023 0.117852 123 105 98
-81.987 -1129.83 -1615.34 1.02361 0.0296113 0.0851416 121 103 97
-90.286 -1121.76 -1614.2 0.0540818 -0.422996 -0.160312 115 98 94
-83.7596 -1123.48 -1614.12 0.778476 -0.074136 -0.00128113 116 100 96
-78.12 -1112.38 -1610.87 0.511462 -0.255483 -0.213175 119 102 101
-53.2744 -1129.86 -1614.89 0.239384 -0.265186 0.135883 119 107 107
-50.1224 -1113.87 -1615.67 0.267562 -0.294671 0.0784541 116 102 100
-89.5531 -1112.3 -1612.3 -0.447976 -0.676327 -0.302671 121 103 99
-81.1268 -1110.75 -1617.18 0.0818598 -0.402682 0.150862 117 105 105
-74.049 -1101.96 -1614.2 0.83476 -0.464597 -0.170935 116 105 108
-73.1772 -1099.32 -1615.1 0.868443 -0.398615 -0.109795 111 103 109
-64.2126 -1090.82 -1611.26 0.934514 -0.0192151 -0.159462 95 94 109
-61.403 -1091.07 -1615.51 0.923837 -0.0522837 -0.00518033 98 97 110
-146.457 -1000.68 -1615.19 -0.49948 -0.108812 0.828197 30 34 54
-102.917 -1075.3 -1612.39 -0.0896645 -0.497933 -0.0402751 123 109 114
-100.989 -1060.69 -1615.25 -0.70503 -0.549425 0.189819 100 100 115
-106.896 -1052.54 -1613.8 -0.772218 -0.481036 0.132174 95 96 112
-114.962 -1042.91 -1613.58 -0.612959 -0.346954 0.30765 94 95 110
-80.5881 -737.651 -1615 -0.562442 -0.113524 0.534898 59 67 90
-81.022 -736.502 -1615.28 -0.552184 -0.11392 0.536901 59 67 90
-81.4259 -730.721 -1615.01 -0.530973 -0.116469 0.543807 58 66 89
-53.8907 -733.67 -1616.77 0.279697 -0.323141 0.701447 72 75 94
-50.1898 -729.865 -1615.2 0.22053 -0.423064 0.69745 63 67 85
-81.0971 -720.646 -1613.43 -0.585708 -0.148397 0.559882 57 65 89
-83.6397 -714.589 -1613.84 -0.615619 -0.165443 0.582907 56 64 89
-82.4341 -706.045 -1611.31 -0.676737 -0.159463 0.579302 56 64 89
-61.4265 -720.137 -1615.41 -0.507652 -0.173459 0.563915 57 63 81
-55.9665 -716.625 -1613.31 -0.240573 -0.189903 0.677773 60 64 82
-54.4754 -715.25 -1612.71 -0.190228 -0.187851 0.696921 57 61 79
-64.6663 -702.032 -1614.22 -0.74148 -0.219066 0.591367 50 56 74
-61.7991 -708.439 -1612.43 -0.565676 -0.317375 0.661245 55 60 79
-178.844 -695.484 -1612.6 -0.633867 0.139219 -0.739773 30 36 57
-173.306 -688.296 -1614.17 -0.753728 0.00308728 -0.639445 31 37 58
-179.501 -684.286 -1611.28 -0.704094 0.0325441 -0.705759 28 34 54
-168.797 -695.978 -1613.75 -0.765353 -0.0537757 -0.611504 44 53 78
-169.883 -694.762 -1610.81 -0.74315 -0.0399994 -0.639933 43 51 76
-156.314 -693.438 -1612.32 -0.822615 -0.179059 -0.533577 50 60 89
-155.557 -685.641 -1616.02 -0.835381 -0.137633 -0.520597 51 61 90
-1.77622 -928.13 -1613.07 -0.667297 -0.166787 0.696774 44 52 74
-5.7181 -920.043 -1616.26 -0.65124 -0.307849 0.68726 45 53 74
-8.7832 -910.89 -1614.43 -0.628059 -0.301748 0.714724 44 52 73
-13.99 -905.045 -1616.54 -0.714504 -0.126828 0.667576 46 53 74
-12.0438 -897.95 -1614.77 -0.750708 0.00226405 0.644955 46 53 75
-0.0721098 -931.317 -1610.63 -0.557974 -0.133329 0.788064 43 51 73
38.8936 -943.166 -1614.09 0.819745 -0.393587 0.37006 46 54 79
46.2757 -926.021 -1613.59 0.759841 -0.193889 0.240601 45 52 76
47.612 -918.624 -1611.54 0.544117 -0.0800452 0.340592 43 50 74
47.3125 -909.922 -1612.25 0.71204 -0.0644924 0.286235 45 54 81
-49.2824 -575.07 -1611.97 -0.534675 -0.0880638 -0.256996 22 25 44
-49.6092 -549.145 -1616.36 -0.754242 0.141066 -0.539284 14 18 37
-47.153 -536.44 -1616.02 -0.766314 0.129717 -0.50003 11 14 33
-47.9824 -525.72 -1613.47 -0.560779 0.0226149 -0.229322 12 15 32
85.001 -599.038 -1615.46 0.89267 -0.413241 -0.147292 35 43 71
88.9914 -589.06 -1614.12 0.919453 -0.387963 0.00536603 38 47 75
90.497 -584.529 -1612.09 0.912559 -0.382785 0.0159339 40 50 80
98.3203 -570.8 -1615.39 0.843686 -0.442343 -0.0548312 43 53 85
103.316 -561.428 -1615.55 0.915638 -0.330605 -0.0638004 40 51 84
105.247 -551.398 -1614.09 0.923512 -0.153638 -0.160431 42 53 87
106.173 -549.485 -1610.36 0.956312 -0.194956 -0.0688354 44 56 90
-188.054 -160.36 -1610.77 -0.870706 -0.308702 -0.377747 149 121 42
-188.429 -151.916 -1615.08 -0.91782 -0.203734 -0.316326 151 123 43
-190.082 -141.737 -1615.31 -0.964634 -0.110722 -0.209798 144 116 37
-190.787 -133.605 -1615.04 -0.960561 -0.020974 -0.241285 145 117 37
-191.824 -120.537 -1616.5 -0.943931 -0.212049 -0.173895 147 120 41
-196.11 -107.218 -1611.29 -0.966084 -0.149206 -0.150794 147 118 39
-198.419 -93.0961 -1613.23 -0.964615 -0.197895 -0.0641355 143 114 37
-200.023 -88.3408 -1612.95 -0.955596 -0.237284 -0.0978067 143 113 38
-200.803 -81.8139 -1615.53 -0.967268 -0.114682 -0.195032 143 114 40
-194.73 -115.177 -1611.44 -0.944066 -0.159997 -0.256652 150 121 42
82.3259 -336.709 -1616.28 0.889686 0.341903 -0.299876 62 70 120
80.551 -324.695 -1612.06 0.924861 0.213235 -0.225158 69 76 123
69.8027 -294.989 -1614.5 0.760047 0.479681 -0.414284 58 61 94
70.9377 -293.701 -1610.76 0.791097 0.411203 -0.433545 59 62 95
76.7848 -304.713 -1614.1 0.85028 0.366415 -0.346114 49 53 90
65.0301 -285.209 -1614.27 0.79341 0.265984 -0.508032 54 57 87
65.4688 -282.36 -1612.45 0.844362 0.158551 -0.483692 55 57 87
64.7804 -266.694 -1616.59 0.857117 0.133071 -0.445962 50 47 67
-41.2994 186.064 -1610.9 0.378001 -0.051256 -0.467438 16 12 19
-42.2383 191.717 -1616.2 -0.209723 0.389189 0.192001 10 7 15
-37.9205 197.473 -1616.75 -0.242068 0.35576 0.115713 10 7 16
-30.4484 202.276 -1613.73 0.317427 0.311844 -0.516504 8 6 14
-16.0513 207.349 -1614.76 -0.349262 0.354079 -0.374696 15 13 20
-12.8475 209.843 -1615.04 -0.379781 0.346082 -0.369582 16 13 20
-8.7566 238.537 -1613.03 0.165624 -0.203133 -0.471235 10 9 14
-8.89431 242.161 -1611.86 0.179909 -0.310273 -0.437656 10 10 15
-6.13931 249.747 -1614.94 0.367059 -0.68806 -0.118839 10 9 15
3.54251 256.643 -1614.84 0.571527 -0.65962 -0.385254 10 9 16
5.72341 260.736 -1615.9 0.714737 -0.415739 -0.458385 11 10 16
9.08612 266.801 -1614.33 0.793193 -0.0519097 -0.477198 11 10 17
-128.143 -1144.28 -1608.86 0.771857 -0.622505 0.0653102 156 141 136
-125.466 -1140.68 -1610.79 0.773901 -0.623309 0.0412337 154 137 132
-111.076 -1143.58 -1604.97 0.0689213 -0.645329 -0.0388477 143 131 124
-91.3605 -1166.63 -1606.16 0.301221 -0.919693 -0.228161 179 158 149
-67.8716 -1168.88 -1604.69 -0.461615 -0.884271 0.0293461 64 58 55
-70.3153 -1165.85 -1607.89 -0.544959 -0.844012 0.0647325 68 62 59
-56.5899 -1165.92 -1609.83 0.512348 -0.808123 -0.0403276 67 61 58
-81.1189 -1158.03 -1606.92 0.606254 -0.614924 0.155408 145 126 115
-79.5563 -1153.33 -1604.7 0.730452 -0.29714 0.189401 129 112 103
-81.7179 -1141.98 -1605.45 1.00589 0.101133 0.053714 119 102 99
-81.8197 -1139.83 -1609.56 1.00809 0.0593901 0.088326 120 103 99
-72.0593 -1151.61 -1608.67 0.229411 -0.126409 0.0255612 100 82 79
-63.2823 -1145.25 -1606.6 0.120113 -0.427742 -0.0198885 77 61 57
-59.7272 -1140.37 -1610.94 0.285888 -0.411002 0.0341379 91 77 74
-146.349 -1129 -1605.96 -0.561502 -0.407582 -0.343803 93 85 88
-121.986 -1134.42 -1608.02 0.765446 -0.583507 -0.0908854 153 132 123
-117.7 -1121.55 -1609.31 0.850131 -0.401115 -0.333404 157 129 119
-114.179 -1116.76 -1604.5 0.78788 -0.449096 -0.421225 159 131 120
-109.553 -1106.19 -1607.51 0.435654 -0.699855 -0.490774 164 136 126
-108.76 -1105.04 -1608.38 0.342944 -0.740634 -0.517789 166 137 127
-66.0954 -671.421 -1609.48 -0.885284 -0.177869 0.442125 47 54 75
-52.3905 -669.267 -1605.13 -0.733623 -0.0548755 0.46906 49 54 76
-64.9542 -662.756 -1607.02 -0.78825 -0.0746772 0.473861 50 56 77
-64.1343 -654.996 -1606.65 -0.654411 -0.0245021 0.537406 52 56 77
-65.3708 -649.383 -1609.57 -0.808235 -0.0352282 0.516335 50 55 77
-63.4667 -644.731 -1604.96 -0.706911 -0.00919198 0.644484 47 50 71
-66.9028 -632.811 -1609.93 -0.820216 -0.0715397 0.560852 51 54 78
-67.6643 -627.21 -1609.86 -0.785834 -0.0691087 0.599747 52 54 78
-67.3073 -620.532 -1608.78 -0.758861 -0.015173 0.626123 49 52 76
-66.4575 -614.184 -1609.14 -0.715814 0.0574992 0.524898 39 43 65
-61.8327 -612.319 -1606.28 -0.654215 0.105682 0.33375 28 32 51
-196.782 -591.573 -1607.8 -0.830214 -0.389919 -0.23628 40 46 76
-202.25 -584.433 -1605.98 -0.854401 -0.436433 -0.167963 40 47 78
-204.564 -578.841 -1605.91 -0.904116 -0.360384 -0.0624594 42 49 80
-208.95 -565.567 -1608.24 -0.932329 -0.261243 -0.0375467 41 47 79
-211.332 -557.581 -1607.19 -0.892283 -0.356786 0.0420771 40 47 80
-194.412 -594.385 -1610.09 -0.838023 -0.350921 -0.224468 39 45 75
-6.73903 -891.667 -1609.13 -0.722369 -0.0523973 0.684506 45 53 75
-5.37494 -886.754 -1605.72 -0.765338 -0.103289 0.635884 49 57 79
-7.68016 -872.979 -1604.88 -0.793494 -0.0436176 0.603406 48 56 79
-10.0561 -869.116 -1609.5 -0.753586 0.0663841 0.618964 46 54 77
-2.16274 -861.922 -1607.82 -0.470479 0.56645 0.659203 45 53 79
6.24478 -858.035 -1607.46 -0.365038 0.558286 0.675561 53 61 89
9.23786 -855.732 -1605.81 -0.440589 0.272712 0.730262 54 63 91
-1.17725 -848.447 -1609.5 -0.376779 -0.213385 0.873598 53 62 90
78.8465 -715.971 -1606.84 0.955033 -0.151406 0.234354 43 54 84
79.626 -712.114 -1607.52 0.968691 -0.132335 0.207181 42 53 84
-48.0983 -697.72 -1605.99 -0.314477 -0.0673298 0.555902 42 45 64
-49.1888 -670.579 -1607.04 -0.925589 0.111081 -0.0113696 28 33 53
-48.4436 -662.263 -1609.63 -0.921785 0.0791194 -0.0131706 30 36 57
84.125 -694.552 -1609.87 0.951946 -0.24196 -0.0255982 43 54 84
89.1302 -684.902 -1604.27 0.890563 -0.385845 -0.0552568 41 55 85
-195.308 -126.528 -1606.13 -0.884116 -0.0928166 -0.462465 150 121 44
-187.346 -163.709 -1609.3 -0.869972 -0.325801 -0.360824 147 118 40
-188.762 -158.878 -1610.57 -0.873338 -0.289309 -0.386348 152 123 44
-191.626 -145.258 -1608.05 -0.932875 -0.0795104 -0.333429 150 121 43
-192.103 -136.734 -1609.5 -0.947966 -0.0818879 -0.274985 145 117 38
-193.086 -127.892 -1610.02 -0.921059 -0.0802069 -0.350496 148 120 41
-195.479 -113.912 -1609.96 -0.948398 -0.130751 -0.272051 150 121 42
-197.126 -102.4 -1607.32 -0.975672 -0.0881119 -0.145523 147 119 40
-199.042 -92.7835 -1607.62 -0.960367 -0.199151 -0.0900946 144 115 39
-200.326 -88.4802 -1606.84 -0.954157 -0.251492 -0.032118 142 113 39
-202.729 -74.628 -1606.06 -0.970774 -0.13733 0.0206826 138 109 39
72.9786 -187.618 -1604.89 0.849925 -0.32838 -0.418271 96 71 34
76.9889 -175.279 -1608.01 0.839942 -0.343191 -0.396457 102 77 35
78.523 -171.534 -1604.82 0.919558 -0.256953 -0.130391 114 87 38
79.0881 -160.313 -1608.64 0.900534 -0.00586067 -0.0969015 123 96 40
79.4169 -144.177 -1607.52 0.922329 -0.147877 0.04549 133 105 42
79.5138 -142.303 -1606.57 0.910332 -0.159019 0.124329 136 108 44
81.8133 -124.275 -1610.12 0.936473 0.00141135 -0.0657547 127 100 38
80.3969 -123.51 -1606.37 0.916211 0.0105027 0.213196 137 108 42
174.645 5.85538 -1610.16 0.583665 0.137026 0.795744 104 86 56
169.588 18.8932 -1604.78 0.0850633 -0.00574596 0.934929 97 78 44
172.055 21.6839 -1607.13 0.333067 0.0243513 0.85481 101 82 46
149.795 35.6938 -1605 0.0875163 0.143613 0.979324 96 78 39
162.254 31.643 -1606.14 0.124718 0.235542 0.946344 104 85 45
161.435 36.5321 -1607.9 0.15104 0.265082 0.945889 101 83 43
164.191 37.5507 -1608.78 0.172714 0.250172 0.946652 103 85 45
152.034 44.7432 -1608.12 0.266488 0.242083 0.926267 98 80 39
144.765 50.4584 -1607.07 0.284411 0.307244 0.906643 107 89 47
160.588 41.8944 -1609.61 0.157296 0.237673 0.956321 97 79 38
158.089 46.5719 -1610.47 0.233839 0.231085 0.940686 95 77 36
170.202 36.148 -1609.76 0.261681 0.18191 0.934933 107 88 48
153.535 51.2259 -1610.55 0.306403 0.264312 0.91517 100 82 40
-43.4656 174.759 -1607.34 0.581059 0.0517083 -0.772493 60 45 42
-37.2702 184.071 -1605.29 0.742709 -0.300965 -0.625689 16 11 19
-102.841 -677.747 -1615.86 -0.468973 -0.166878 0.131223 53 62 90
-103.944 -671.383 -1615.07 -0.43645 -0.167711 0.10864 53 62 90
-98.7452 -673.685 -1611.96 -0.499656 -0.147413 0.210902 53 61 90
-102.673 -653.188 -1609.92 -0.470823 -0.130617 0.22888 52 60 89
-104.394 -660.352 -1612.74 -0.450597 -0.152321 0.145651 53 62 90
-101.511 -654.213 -1609.37 -0.47494 -0.128417 0.245748 52 60 89
-94.111 -691.855 -1613.67 -0.667616 -0.147481 0.468016 49 59 87
-91.0288 -698.67 -1614.32 -0.712766 -0.137312 0.562498 48 58 85
-97.1729 -688.699 -1614.45 -0.586725 -0.159415 0.331745 50 60 88
-95.8179 -680.287 -1611.57 -0.566774 -0.140661 0.287076 52 61 89
-87.5244 -688.306 -1608.93 -0.735516 -0.127414 0.507705 48 58 86
-92.6762 -677.986 -1609.27 -0.584719 -0.118597 0.367508 51 60 89
-89.5187 -669.774 -1605.86 -0.270304 -0.118818 0.540497 49 57 84
-95.0551 -667.896 -1608.47 -0.396883 -0.133629 0.344189 51 60 87
-94.705 -653.67 -1605.04 -0.3425 -0.119844 0.417462 49 57 85
-97.0146 -660.503 -1607.88 -0.424715 -0.131395 0.31364 51 60 88
-112.262 -649.449 -1615.95 -0.412282 -0.155133 0.0952074 53 61 90
-99.3496 -649.456 -1606.88 -0.406481 -0.115886 0.349083 50 59 88
-110.779 -650.129 -1614.74 -0.422381 -0.15345 0.0994966 53 61 91
-113.269 -634.197 -1614.18 -0.344022 -0.118221 0.321432 47 55 87
-112.84 -638.095 -1614.49 -0.36275 -0.122175 0.282517 47 56 87
-105.456 -630.108 -1607.54 -0.171054 -0.121981 0.465639 47 56 87
-102.92 -640.006 -1607.42 -0.16743 -0.124589 0.437522 48 57 87
-114.032 -620.34 -1613.45 -0.324682 -0.097583 0.42251 48 56 88
-110.664 -624.728 -1610.85 -0.300751 -0.110336 0.440928 48 56 88
-108.516 -618.016 -1608.52 -0.250997 -0.112999 0.518212 50 58 90
-108.994 -619.982 -1609.05 -0.266049 -0.113029 0.499675 49 57 90
-116.434 -610.416 -1615.1 -0.358742 -0.080106 0.534013 52 59 93
-113.506 -612.565 -1612.54 -0.33566 -0.092015 0.54019 52 59 92
-108.785 -605.09 -1608.3 -0.271842 -0.0888388 0.68951 55 62 96
-105.25 -615.144 -1605.92 -0.146266 -0.113251 0.551603 49 58 90
-97.5977 -643.32 -1604.54 -0.148137 -0.12026 0.483608 48 56 86
-238.763 24.1069 -1606.36 -0.849567 0.0175454 -0.167795 133 100 71
-227.863 24.327 -1610.31 -0.849341 0.0492366 -0.187184 134 100 72
-231.978 22.5547 -1606.09 -0.839834 0.0305492 -0.105847 133 99 71
-218.809 16.9052 -1605.69 -0.830082 0.149938 0.121391 131 98 80
-220.299 23.7773 -1613.48 -0.890504 0.0416309 -0.0815989 135 100 75
-216.834 20.8732 -1614.86 -0.923847 0.168794 -0.0461995 136 101 83
-95.0892 -1131.37 -1602.51 0.436138 -0.293587 -0.157895 128 109 104
-91.8371 -1126.57 -1604.34 0.477185 -0.242252 -0.105987 121 104 99
-81.9996 -1131.86 -1599.42 0.996426 -0.0293634 0.0464209 115 98 94
-89.8447 -1119.14 -1601.94 -0.196086 -0.585305 -0.358434 128 106 99
-89.7916 -1117.42 -1604.42 -0.14694 -0.599454 -0.351476 123 101 94
-73.8458 -1117.23 -1602.69 0.726867 -0.303968 -0.436692 120 103 100
-49.9804 -1129.3 -1604.25 0.46424 -0.294002 0.0152995 108 93 88
-95.1993 -1112.43 -1602.51 -0.134714 -0.689364 -0.513921 139 114 106
-68.9846 -1102.47 -1601.1 0.854962 -0.278851 -0.440153 112 98 99
-67.2061 -1094.8 -1602.32 0.866592 0.0335965 -0.452049 92 86 99
-60.2258 -1093.18 -1599.21 0.769692 -0.28696 -0.443767 97 90 92
-53.1385 -1092.82 -1603.65 0.78057 -0.159585 -0.153174 95 91 99
-103.942 -1075.89 -1603.49 -0.183455 -0.425001 0.117993 114 102 109
-104.013 -1052.55 -1601.34 -0.746367 -0.404411 0.49031 84 86 105
-106.453 -1046.03 -1599.78 -0.754899 -0.372092 0.520031 84 87 107
-92.8455 -1078.18 -1603.02 -0.533059 -0.442274 0.264908 92 91 105
-86.9578 -1075.96 -1600.87 -0.515791 -0.454736 0.426716 85 83 98
-92.688 -1069.57 -1604.19 -0.720885 -0.639983 0.294891 88 89 107
-94.9997 -1062.75 -1599.81 -0.7041 -0.577349 0.395582 84 85 104
-209.902 -556.992 -1599.91 -0.922174 -0.24113 0.112163 42 49 80
-219.573 -538.103 -1603.05 -0.945637 -0.210318 0.10175 48 56 92
-212.933 -551.456 -1603.09 -0.847667 -0.44214 0.2093 41 47 80
-216.382 -545.989 -1603.79 -0.86449 -0.410799 0.158507 43 51 85
-221.209 -529.583 -1599.24 -0.960012 -0.196654 0.00239434 49 57 93
-223.531 -519.057 -1601.51 -0.94676 -0.17312 -0.227732 59 68 108
-225.696 -509.363 -1600.65 -0.938627 -0.0971919 -0.314413 59 69 110
-55.2788 -599.539 -1602.97 -0.856499 0.126094 0.360779 35 38 57
-63.7639 -579.805 -1599.13 -0.350067 -0.0814208 0.268115 36 39 58
-57.6626 -584.482 -1600.02 -0.467661 -0.027308 0.139117 37 39 58
-67.4569 -574.847 -1599.73 -0.125853 -0.156388 0.384805 33 37 56
-70.8594 -569.259 -1600.56 0.00440715 -0.175228 0.51235 30 34 55
-65.9525 -570.427 -1601.59 -0.170736 -0.102519 0.512383 31 35 55
-60.6073 -572.338 -1603.97 -0.452926 0.06624 0.543034 33 36 54
-62.5169 -550.521 -1604.38 -0.513194 0.0359457 0.670937 27 29 48
-67.9384 -545.896 -1602.4 0.302105 -0.11073 0.848123 24 30 56
-70.9036 -539.01 -1602.81 0.259307 -0.105494 0.807959 26 32 60
-71.0343 -532.114 -1603.89 -0.0451091 -0.0270456 0.615705 28 33 58
-61.3173 -541.843 -1603.28 0.217302 -0.157972 1.00399 22 27 49
-1.8196 -787.432 -1600.54 -0.591983 0.0661272 0.775777 47 56 86
-27.4729 -739.601 -1602.8 -0.761102 -0.0614237 0.646112 52 59 85
-32.0202 -724.848 -1601.9 -0.654321 -0.360293 0.660729 49 55 79
-23.8545 -745.017 -1599.52 -0.710849 -0.0483651 0.704192 51 58 85
-40.8242 -714.3 -1603.87 -0.620664 -0.326926 0.72311 45 49 68
-35.6403 -718.9 -1601.47 -0.607299 -0.388934 0.70199 47 52 75
-40.9788 -710.5 -1601.99 -0.634156 -0.271993 0.705217 45 49 69
-40.7241 -705.24 -1599.71 -0.757297 -0.163627 0.655108 47 50 70
65.2355 -796.334 -1601.53 0.963422 0.00723539 0.212515 48 59 92
64.0374 -784.444 -1599.37 0.971108 0.111759 0.056989 46 58 90
102.729 -428.273 -1602.16 0.884723 0.373322 -0.235615 66 79 128
100.856 -425.964 -1604.55 0.870554 0.412138 -0.251701 66 79 128
98.4902 -418.827 -1601.72 0.863707 0.430263 -0.264037 69 81 130
-216.303 -404.304 -1599.75 -0.90642 0.139287 -0.371719 65 80 124
-214.985 -397.02 -1600.39 -0.934803 0.116797 -0.288335 63 79 122
-212.571 -388.281 -1603.43 -0.961389 0.144992 -0.191827 58 74 115
-213.293 -374.334 -1600.44 -0.947619 -0.02849 -0.273171 60 76 118
-211.98 -371.347 -1603.53 -0.936277 0.0322848 -0.306531 63 79 121
-212.081 -359.793 -1601.57 -0.929064 0.00956309 -0.300495 69 85 128
-210.866 -346.464 -1599.68 -0.98126 0.0766121 0.0276391 68 84 128
-210.364 -342.188 -1601.33 -0.97837 0.117801 0.0458241 70 85 129
-208.043 -331.704 -1598.75 -0.945034 0.270557 -0.0024943 80 94 138
-205.198 -322.911 -1602.11 -0.928025 0.245159 -0.161484 90 103 145
-203.055 -314.046 -1600.54 -0.94545 0.168527 -0.120614 88 100 139
-138.983 326.635 -1603.99 -0.836067 0.239572 0.167222 44 41 45
-135.063 335.19 -1599.17 -0.768539 0.48148 -0.363817 25 21 28
-128.294 339.787 -1602.37 -0.640217 0.72391 -0.240179 29 25 32
-120.103 346.092 -1603.72 -0.648613 0.741194 -0.169047 27 23 28
-115.44 351.544 -1599.63 -0.656252 0.73824 -0.12464 24 21 26
-108.755 358.475 -1599.43 -0.70936 0.691286 -0.203771 25 22 27
-100.413 366.97 -1599.38 -0.596054 0.436375 -0.132931 58 51 45
-92.1852 371.499 -1601.44 -0.389141 0.0829958 0.222166 107 91 71
94.5365 -397.706 -1603.23 0.957334 -0.0798596 -0.0848251 58 71 120
95.3174 -396.577 -1598.34 0.970674 -0.136839 -0.128051 60 72 121
95.0475 -383.605 -1601.11 0.959395 0.110077 -0.155854 57 69 118
91.4044 -368.438 -1598.94 0.920066 0.307618 -0.0923393 61 72 121
89.8878 -364.6 -1600.87 0.929479 0.249536 -0.14213 62 73 122
-184.026 -1164.28 -1598.92 0.105069 -0.966254 0.0851996 77 72 72
-170.857 -1166.32 -1593.99 0.101085 -0.987886 0.0752025 90 82 82
-161.446 -1165.06 -1592.61 0.160984 -0.990512 0.103325 78 68 66
-158.229 -1164.76 -1596.24 0.199107 -0.977275 0.125331 76 66 63
-189.385 -1159.36 -1594.3 0.106241 -0.894627 -0.0143618 79 72 72
-187.352 -1148.68 -1595.98 0.12812 -0.736493 -0.0185242 84 76 75
-151.691 -1136.69 -1595.3 -0.208365 -0.376983 -0.231325 76 69 70
-153.027 -1126.38 -1596.9 -0.811785 -0.416688 -0.399801 74 71 79
-155.308 -1121.9 -1596.73 -0.814777 -0.426445 -0.405688 74 71 79
-158.965 -1118.24 -1593.55 -0.780706 -0.4627 -0.419005 74 69 77
-163.975 -1104.67 -1594.77 -0.754269 -0.480528 -0.432439 74 68 80
-125.494 -1173.56 -1595.31 0.124612 -0.978567 0.143493 175 172 167
-131.458 -1163.6 -1594.35 0.273774 -0.883058 0.00268317 164 158 154
-117.091 -1171.91 -1591.89 0.12451 -0.983973 0.0793857 179 171 164
-105.92 -1171.38 -1596.62 0.226063 -0.955448 -0.038343 168 152 143
-103.962 -1171.07 -1596.46 0.233333 -0.952409 -0.0682409 167 149 140
-139.418 -1155.33 -1594.04 0.656797 -0.697368 0.0041981 158 149 146
-123.345 -1155.35 -1593.96 0.410615 -0.705563 -0.125481 151 137 133
-207.825 -566.395 -1593.34 -0.967987 -0.0760124 0.0167338 43 49 79
-209.361 -558.387 -1595.2 -0.95148 -0.14597 0.0280497 44 52 83
-211.465 -550.673 -1596.82 -0.868558 -0.35332 0.22231 42 50 83
-213.009 -546.616 -1594.04 -0.844113 -0.411374 0.178858 44 52 85
-218.55 -535.877 -1595.9 -0.915992 -0.316658 0.168723 45 52 87
-223.323 -522.112 -1595.42 -0.94765 -0.255087 -0.0553163 51 60 99
-224.924 -517.069 -1594.93 -0.936754 -0.279824 -0.122596 54 64 103
-73.56 -602.948 -1592.8 -0.38409 -0.0668053 0.291978 36 39 58
-54.4204 -599.146 -1594.09 -0.865633 0.0464655 -0.0125596 31 33 52
