ply
format ascii 1.0
comment Created by Open3D
element vertex 747
property double x
property double y
property double z
property double nx
property double ny
property double nz
property uchar red
property uchar green
property uchar blue
end_header
1412.31 -564.402 -1638.46 -0.523895 -0.0782485 0.824931 51 54 85
1408.99 -561.356 -1640.28 -0.527127 0.0877915 0.836613 48 51 83
1418 -561.726 -1635.2 -0.478136 0.00246811 0.881216 55 56 87
1417.57 -558.413 -1635.77 -0.499329 0.063102 0.866275 57 58 88
1442.5 -577.823 -1640.36 -0.614229 -0.00566103 0.678385 47 51 77
1443.87 -569.108 -1634.5 -0.590764 -0.0609917 0.7521 40 43 67
1443.11 -563.255 -1638.8 -0.574867 -0.0582195 0.767964 40 44 68
1442.72 -555.292 -1638.42 -0.573782 -0.0124823 0.67686 39 43 68
1412.3 -553.509 -1640.26 -0.567794 0.177317 0.802233 61 63 94
1415.89 -551.278 -1637.84 -0.592083 0.127265 0.792119 61 62 92
1417.95 -547.024 -1635.29 -0.679247 0.0463041 0.723871 49 52 80
1418.85 -538.198 -1634.88 -0.739967 0.0841876 0.666313 44 48 75
1415.71 -539.668 -1638.16 -0.714748 0.100925 0.689292 51 54 84
1416.07 -534.346 -1638.73 -0.726556 0.0908499 0.677744 43 47 77
1442.02 -550.118 -1640.56 -0.551781 0.0390998 0.566901 39 43 69
1442.07 -543.721 -1639.42 -0.545219 0.102025 0.475014 38 42 68
1416.12 -529.923 -1639.59 -0.715637 0.0939302 0.697155 41 46 75
1420.03 -530.081 -1635.33 -0.732053 0.122544 0.678337 37 41 68
1418.16 -521.14 -1639.17 -0.75096 0.195642 0.761546 41 46 76
1405.47 -507.631 -1638.18 -0.480723 0.18609 0.685146 47 53 86
1407.89 -507.121 -1638.44 -0.423087 0.124351 0.561671 48 54 86
1420.94 -518.452 -1637.06 -0.767649 0.265371 0.752102 42 47 76
1419.9 -511.919 -1638.86 -0.415704 0.0761559 0.421706 47 52 83
1414.07 -507.626 -1639.6 -0.160839 -0.0954559 0.203698 50 57 89
1441.24 -525.805 -1639.44 -0.63674 0.350114 0.593914 42 48 76
1442.97 -531.164 -1635.3 -0.612304 0.297247 0.54871 40 47 73
1440.91 -522.548 -1638.83 -0.648304 0.369428 0.610634 42 49 76
1437.68 -511.478 -1638.6 -0.424593 0.122878 0.371989 41 49 77
1552.21 -671.161 -1636.64 0.588156 -0.127024 -0.794339 42 51 79
1551.22 -667.699 -1637.99 0.630282 -0.147286 -0.729754 41 50 78
1554.72 -664.342 -1636.05 0.619879 -0.135692 -0.74719 39 49 76
1553.1 -663.091 -1637.58 0.66583 -0.167846 -0.689493 40 49 76
1554.94 -663.955 -1635.9 0.619334 -0.132227 -0.74906 39 49 76
1557.29 -653.142 -1635.13 0.727291 -0.153471 -0.640094 37 46 72
1555.76 -650.881 -1638.09 0.790667 -0.229624 -0.550265 39 48 75
1558.07 -643.087 -1636.17 0.814182 -0.14945 -0.551958 39 48 74
1558.45 -637.87 -1636.73 0.811919 -0.0957713 -0.551337 40 49 74
1557.11 -633.088 -1641.16 0.75223 -0.268388 -0.537264 42 51 77
1559.87 -631.795 -1637.52 0.757144 -0.239381 -0.554703 42 51 78
1561.15 -627.213 -1639.48 0.687945 -0.410184 -0.499106 48 57 86
1569.12 -616.932 -1640.25 0.871638 -0.386937 -0.205679 38 47 71
1571.44 -613.944 -1636.25 0.814967 -0.466405 -0.297817 39 48 74
1572.75 -612.319 -1640.56 0.836875 -0.371538 -0.223514 42 52 78
1579.85 -605.579 -1640.22 0.624648 -0.276813 -0.479667 52 63 95
1460.89 -602.8 -1635.77 -0.691924 -0.124662 -0.708595 40 47 79
1461.4 -593.295 -1636.54 -0.649307 -0.0124485 -0.735215 30 38 67
1465.44 -602.362 -1639 -0.637426 -0.0442581 -0.745886 43 52 86
1464 -593.025 -1638.58 -0.56411 -0.0404228 -0.809626 30 38 69
1460.4 -589.015 -1635.24 -0.694809 0.049308 -0.682787 25 33 61
1296.71 -45.578 -1638.03 -0.93088 -0.134593 -0.283647 143 113 37
1294.43 -38.6631 -1638.03 -0.915644 -0.229059 -0.273145 143 113 35
1292.37 -31.3555 -1638.1 -0.930683 -0.227307 -0.207604 140 110 33
1290.8 -23.7705 -1634.12 -0.950907 -0.189187 -0.0598418 143 111 39
1320.15 -64.8967 -1637.07 -0.80964 -0.0547323 -0.568459 95 78 36
1320.3 -60.9081 -1639.57 -0.809125 -0.0606625 -0.570651 96 78 36
1329.78 -59.3416 -1636.75 -0.734005 -0.0532527 -0.661694 92 75 38
1320.23 -56.7863 -1639.36 -0.807579 -0.0558093 -0.579367 93 76 36
1326.65 -56.313 -1634.5 -0.796604 -0.0428596 -0.597592 90 74 36
1319.18 -48.4517 -1640.31 -0.804022 -0.0590351 -0.58103 93 76 36
1327.63 -47.1837 -1635.97 -0.799704 -0.0627689 -0.589987 90 74 36
1329.74 -69.5697 -1634.98 -0.706405 0.0213691 -0.694264 94 78 38
1332.36 -63.9618 -1637.51 -0.686043 -0.0273891 -0.718256 97 79 41
1335.67 -63.5625 -1640.58 -0.635212 -0.0518969 -0.769828 100 81 44
1329.91 -48.4895 -1638.53 -0.768911 -0.0486603 -0.623807 90 74 37
1316.19 -35.3219 -1636.23 -0.783271 -0.0479146 -0.607877 89 73 35
1317.2 -46.0857 -1636.2 -0.800907 -0.0675399 -0.5817 97 80 37
1326.68 -44.474 -1635.12 -0.802632 -0.0741852 -0.58619 90 74 36
1326.15 -39.5375 -1634.98 -0.788059 -0.0964227 -0.600926 89 73 35
1316.83 -31.5306 -1640.76 -0.781943 -0.0501652 -0.610233 88 72 34
1316.11 -25.259 -1639.16 -0.783344 -0.0474256 -0.608611 89 73 34
1328.55 -28.9716 -1638.22 -0.72877 -0.0472278 -0.674901 90 73 36
1326.3 -23.7828 -1635.64 -0.768933 -0.0259505 -0.630628 91 74 35
1331.2 -40.5479 -1639.83 -0.749059 -0.0244363 -0.652237 90 73 38
1331.36 -36.6906 -1640.3 -0.725159 -0.0323472 -0.678647 90 73 38
1329.06 -27.1056 -1638.9 -0.727139 -0.0507356 -0.677717 90 73 36
1289.8 -18.0978 -1640.01 -0.899606 -0.185426 -0.301703 146 115 47
1287.74 -10.1476 -1639.2 -0.899729 -0.184907 -0.309385 144 110 59
1286.69 -8.54937 -1637.51 -0.914845 -0.198039 -0.253051 143 108 61
1286.35 1.97224 -1635.58 -0.910437 0.177798 -0.325998 137 97 80
1289.27 3.44174 -1638.33 -0.829423 0.265969 -0.416252 138 98 83
1292.26 9.6075 -1635.45 -0.810693 0.426995 -0.317974 140 98 83
1295.81 9.47501 -1638.55 -0.715027 0.455325 -0.480404 140 98 85
1302.8 10.2973 -1638.59 -0.626186 0.378048 -0.59328 131 94 76
1315.63 -17.6164 -1638.1 -0.795784 -0.0217595 -0.597888 88 72 34
1315.43 -13.5865 -1637.92 -0.802835 -0.00860309 -0.592528 88 72 33
1327.95 -21.0987 -1638.14 -0.756373 -0.0656122 -0.646164 90 73 35
1326.08 -19.2374 -1635.94 -0.781051 -0.0535604 -0.617082 90 73 35
1329.03 -10.6618 -1640.29 -0.707568 -0.0256405 -0.698238 91 74 36
1314.61 -4.0904 -1638.01 -0.766882 0.0517071 -0.597998 95 76 40
1313.49 -0.664925 -1638.84 -0.728248 0.0961152 -0.607494 102 79 46
1328.27 -9.05203 -1639.08 -0.720963 9.73022e-05 -0.681973 92 74 37
1325.73 0.367814 -1634.76 -0.793861 0.0301947 -0.600722 92 75 37
1582.69 -7.71188 -1638.85 0.704828 0.26602 -0.617472 138 105 87
1586.93 -9.43109 -1639.91 0.698349 0.110895 -0.65281 138 107 75
1591.17 -7.60908 -1635.42 0.755061 0.174371 -0.601053 133 101 80
1598.25 -14.2348 -1637.79 0.647814 -0.0846025 -0.738237 151 123 57
1601.87 -11.4721 -1639.79 0.648888 -0.117473 -0.752924 155 127 53
1602.74 -9.92248 -1638.17 0.654658 -0.105693 -0.749748 155 128 53
1606.55 0.0223129 -1638.93 0.635353 -0.0702944 -0.760632 155 127 54
1608.59 -2.4925 -1635.34 0.641838 -0.0849548 -0.751048 154 127 54
1611.81 2.21744 -1637.11 0.632677 -0.0791133 -0.76784 155 127 54
1616.17 5.15495 -1637.27 0.543323 -0.0545841 -0.82904 155 127 54
1710.85 79.0068 -1635.02 0.426571 0.0834194 0.902662 115 96 75
1714.92 75.6351 -1636.5 0.421097 0.0979207 0.901418 130 112 100
1714.12 85.661 -1640.44 0.32472 0.125601 0.920876 114 95 72
1712.37 86.4095 -1639.57 0.323268 0.123555 0.921207 111 92 67
1704.31 89.7011 -1635.2 0.145194 0.196629 0.945115 113 97 74
1696.06 96.3385 -1641.78 -0.0332907 0.356926 0.916617 112 97 69
1707.29 89.1892 -1637.38 0.199199 0.180437 0.936827 112 95 70
1707.45 87.5627 -1635.74 0.262472 0.154622 0.931191 112 94 68
1716.67 81.2833 -1639.19 0.383216 0.112097 0.909015 123 106 91
1491.29 173.907 -1634.69 -0.0556041 0.137749 -0.247816 16 12 15
1493.24 174.563 -1635 -0.120426 0.162555 -0.285797 15 11 16
1497.29 174.554 -1641.17 0.405932 -0.0319299 -0.015453 22 14 13
1489.59 179.83 -1636.53 -0.319134 0.319793 -0.34565 16 13 19
1450.89 203.704 -1637.67 -0.230911 0.642341 0.0766647 10 8 15
1457.69 207.174 -1636.51 -0.209812 0.391246 -0.151802 10 8 16
1462.16 210.116 -1636.16 -0.513271 0.583342 -0.399154 7 5 14
1464.82 211.678 -1636.8 -0.585758 0.56509 -0.457448 9 7 15
1468.86 215.246 -1636.7 -0.669287 0.606204 -0.479051 11 10 18
1497.69 172.947 -1636.83 0.286085 -0.0173668 -0.0849418 19 12 13
1465.18 232.308 -1634.98 -0.413536 -0.136387 -0.252347 8 7 13
1472.29 229.963 -1638.66 -0.635479 -0.114868 -0.12556 8 7 13
1455.75 233.526 -1635.91 -0.385006 -0.19932 -0.223108 10 9 14
1460.53 234.374 -1638.81 -0.392961 -0.195719 -0.195526 9 8 13
1463.39 234.528 -1640.12 -0.404997 -0.182132 -0.193343 9 8 13
1474.24 225.135 -1634.98 -0.689334 0.0861987 -0.201267 8 7 14
1486.18 236.976 -1641.4 0.370677 -0.331102 -0.790954 9 8 12
1492.45 236.393 -1638.8 0.273912 0.00155218 -0.643938 9 8 13
1497.57 234.808 -1636.78 0.285403 0.366023 -0.71215 9 8 13
1492.88 244.266 -1636.24 0.671151 -0.0195712 -0.51733 9 9 12
1496.29 240.867 -1635.26 0.439394 0.320696 -0.632546 9 8 13
1338.11 -985.494 -1632.69 -0.78975 -0.0452291 0.571021 52 57 77
1337.58 -980.704 -1633.16 -0.806379 -0.084902 0.548368 53 57 77
1338 -978.644 -1632.26 -0.789208 -0.113255 0.558824 53 57 77
1335.62 -972.861 -1634.71 -0.861952 -0.190105 0.469812 53 58 77
1337.73 -967.275 -1628.52 -0.800018 -0.25123 0.529956 52 57 76
1326.38 -946.009 -1634.95 -0.796876 -0.329012 0.4731 56 61 80
1333.17 -964.279 -1634.52 -0.835054 -0.268571 0.47889 52 57 76
1333.04 -958.627 -1631.61 -0.803332 -0.3075 0.506192 51 57 76
1329.74 -953.89 -1634.1 -0.810511 -0.323884 0.486541 53 59 78
1331.12 -948.993 -1628.48 -0.782836 -0.327451 0.518302 52 58 76
1324.84 -938.609 -1633.22 -0.727831 -0.32319 0.473802 54 60 80
1323.42 -933.697 -1633.64 -0.669771 -0.312588 0.463105 53 59 80
1322.81 -929.904 -1633.33 -0.659648 -0.30757 0.457619 52 59 79
1323.65 -922.947 -1631.83 -0.658295 -0.32504 0.487049 53 59 80
1364.06 -989.177 -1633.36 -0.776598 0.0567883 0.0837402 52 62 87
1365.12 -982.37 -1631.59 -0.831775 -0.133723 0.0429824 58 68 93
1375.94 -989.328 -1629.36 -0.893974 0.136577 0.0175825 59 69 95
1376.23 -980.97 -1631.4 -0.963836 -0.168881 -0.0232515 66 75 101
1363.76 -977.975 -1635.05 -0.826693 -0.187152 0.0818109 56 66 90
1362.63 -969.662 -1633.78 -0.753062 -0.152121 0.0623714 51 61 86
1374.79 -974.007 -1633.48 -0.956408 -0.209523 -0.0712231 60 70 96
1374.37 -975.565 -1631.39 -0.943569 -0.190744 -0.051547 59 69 95
1373.49 -970.281 -1632.99 -0.972063 -0.221633 -0.0958859 57 68 94
1377.66 -984.937 -1632.11 -0.957658 -0.0215481 -0.0158644 66 76 101
1361.69 -964.911 -1630.34 -0.642167 -0.124692 0.063354 47 56 81
1359.24 -960.059 -1629.92 -0.806147 -0.188933 -0.196072 47 58 84
1371.85 -962.602 -1633.08 -0.965092 -0.243321 -0.159349 54 65 91
1371.07 -958.042 -1633.12 -0.959362 -0.255379 -0.183702 52 63 90
1357.53 -955.533 -1630.07 -0.667139 -0.158805 -0.115453 45 56 81
1354.58 -948.522 -1631.7 -0.724364 -0.188275 -0.0972569 46 56 81
1368.8 -951.723 -1631.9 -0.917137 -0.252983 -0.242644 50 61 87
1366.32 -943.333 -1632.56 -0.878847 -0.179474 -0.328337 49 60 86
1411.75 -989.962 -1629.62 0.798163 0.103468 0.565452 25 30 50
1409.6 -983.387 -1628.89 0.652962 0.343153 0.637817 29 35 54
1414.11 -983.865 -1633.9 0.735208 0.295692 0.563173 27 32 52
1330.06 -680.136 -1629.22 -0.72288 -0.00863561 -0.670074 32 38 58
1329.19 -676.817 -1630 -0.690496 -0.0430421 -0.712892 29 35 54
1327.34 -666.576 -1628.81 -0.771436 -0.10885 -0.626571 26 32 51
1327.41 -657.225 -1630.24 -0.785032 -0.0888608 -0.617336 28 35 56
1329.4 -675.917 -1630.53 -0.6831 -0.0468047 -0.719829 28 34 53
1329.29 -665.91 -1632.5 -0.701338 -0.10509 -0.701199 26 32 51
1349.77 -671.74 -1628.48 -0.589805 -0.147645 -0.775049 48 56 86
1345.43 -669.176 -1629.82 -0.571333 -0.187491 -0.77804 38 47 77
1348.11 -668.309 -1631.62 -0.538926 -0.202352 -0.806075 37 46 77
1328.91 -655.817 -1633.34 -0.744649 -0.104924 -0.656439 30 37 60
1350.41 -660.333 -1629.17 -0.59218 -0.291115 -0.729895 42 49 78
1347.39 -659.632 -1631.81 -0.614576 -0.32511 -0.699814 45 52 80
1328.84 -647.924 -1633.88 -0.694916 -0.191813 -0.501047 43 51 82
1328.64 -645.276 -1633.59 -0.702779 -0.218167 -0.468206 46 54 87
1327.03 -639.13 -1631.96 -0.814694 -0.249196 -0.477481 47 54 88
1323.01 -633.353 -1634.5 -0.824366 -0.313296 -0.437314 51 59 92
1324.08 -629.028 -1629.99 -0.805272 -0.303936 -0.466847 49 57 89
1322.41 -626.861 -1633.53 -0.759504 -0.277533 -0.532729 49 57 90
1323.59 -626.579 -1629.58 -0.785822 -0.312032 -0.484675 48 56 87
1318.26 -619.656 -1632.54 -0.830144 -0.304187 -0.296939 43 51 81
1315.23 -614.791 -1633.51 -0.860882 -0.254452 -0.354597 41 49 78
1310.91 -604.291 -1634.15 -0.78994 -0.101295 -0.589975 38 45 75
1550.55 -1094.03 -1631.11 -0.462259 0.465464 0.650935 107 110 119
1557.86 -1092.83 -1633.64 -0.493624 0.428177 0.632755 106 108 116
1479.47 -1086.61 -1630.16 0.488418 -0.587738 -0.592128 161 135 126
1483.2 -1083.04 -1633.33 0.253372 -0.611798 -0.743712 168 139 128
1491.22 -1087.67 -1630.25 -0.344298 -0.592662 -0.730869 162 133 124
1487.06 -1083.79 -1632.32 -0.0832161 -0.6204 -0.780355 167 138 126
1468.22 -1053.17 -1634.34 0.458139 0.121765 0.46576 67 66 80
1455.41 -1047.72 -1631.86 0.651895 0.195456 0.343717 50 51 65
1459.85 -1050.25 -1631.98 0.569484 0.176158 0.386213 55 55 69
1451.86 -1043.68 -1631.17 0.353925 -0.0138858 0.252432 63 65 78
1465.35 -1050.33 -1629.88 0.398331 0.0948243 0.372902 63 62 75
1471.06 -1051.4 -1629.85 0.318407 0.0486107 0.445619 71 70 83
1480.42 -1052.49 -1630.59 -0.232706 -0.249493 0.586244 98 94 107
1488.88 -1052.27 -1629.53 -0.245264 -0.31441 0.787305 95 93 107
1483.07 -1050.18 -1632.76 -0.416416 -0.335865 0.786027 97 95 110
1479.59 -1044.92 -1634.18 -0.553135 -0.402529 0.732174 99 99 115
1482.77 -1043.62 -1631.46 -0.495214 -0.395629 0.773867 99 98 114
1488.39 -1049.58 -1630.1 -0.276576 -0.353143 0.703781 97 94 108
1512.53 -1081.21 -1633.57 0.561057 -0.43801 -0.262537 109 106 136
1513.24 -1085.84 -1632.01 0.221305 -0.338541 -0.286 110 105 128
1514.57 -1075.77 -1630.98 0.755801 -0.56815 -0.107297 109 106 134
1516.62 -1073.02 -1632.81 0.713202 -0.545589 -0.0888178 109 106 133
1522.62 -1065.01 -1631.75 0.628169 -0.526986 0.175544 106 101 122
1526.17 -1059.16 -1631.92 0.777854 -0.481626 0.166993 108 105 127
1528.61 -1055.73 -1633.84 0.883628 -0.471339 0.084682 111 108 132
1531.27 -1049.33 -1634.42 0.890749 -0.387605 0.145035 107 105 128
1532.84 -1041.44 -1632.17 0.940921 -0.204583 0.165975 107 106 129
1532.32 -1042.63 -1631.21 0.928053 -0.242588 0.172586 105 104 127
1559.16 -668.888 -1632.29 0.540963 -0.124345 -0.831695 41 50 79
1559.38 -670.146 -1631.96 0.537808 -0.113205 -0.831336 41 51 80
1562.84 -664.482 -1630.01 0.560881 -0.0658014 -0.824113 39 48 75
1557.39 -658.338 -1634.22 0.636514 -0.089265 -0.744743 37 46 72
1560.77 -661.484 -1631.61 0.548585 -0.0297109 -0.827104 38 47 74
1564.57 -663.749 -1628.81 0.563141 -0.0492063 -0.824263 39 48 75
1562.98 -655.616 -1630.2 0.57276 0.00849253 -0.795212 37 46 72
1559.82 -649.91 -1632.91 0.727337 -0.138273 -0.646098 38 47 72
1563.02 -640.136 -1629.74 0.721723 -0.0405861 -0.666193 38 47 73
1561.66 -645.736 -1631.43 0.72799 -0.136 -0.652724 38 47 73
1563.06 -638.404 -1630.17 0.724719 -0.044309 -0.664104 38 47 73
1564.98 -632.727 -1630.02 0.769633 -0.192558 -0.597432 38 47 73
1563.57 -627.504 -1634.5 0.764141 -0.318697 -0.52761 40 49 76
1567.61 -624.65 -1629.09 0.814167 -0.284088 -0.492427 37 46 72
1569.65 -616.967 -1633.51 0.80687 -0.473266 -0.370248 37 46 72
1572.6 -613.528 -1632.42 0.805472 -0.499014 -0.327666 37 46 73
1577.05 -608.423 -1629.93 0.790955 -0.578922 -0.266459 35 43 70
1577.89 -607.445 -1630.9 0.77716 -0.572215 -0.264193 36 45 72
1459.06 -601.367 -1634.32 -0.708608 -0.115861 -0.702135 36 43 75
1458.46 -592.545 -1633.35 -0.740014 0.0181047 -0.647718 26 33 61
1458.49 -586.104 -1630.27 -0.845497 0.11335 -0.478535 19 26 52
1460.34 -584.453 -1633.68 -0.778644 0.11169 -0.579423 21 29 55
1294.29 -42.8343 -1632.71 -0.937119 -0.240762 -0.166852 141 110 32
1293.15 -38.3183 -1632.64 -0.947559 -0.229853 -0.128837 140 110 30
1292.29 -29.4444 -1632.78 -0.970873 -0.146339 -0.0224151 140 109 31
1291.54 -27.5465 -1634.96 -0.956862 -0.182568 -0.0745189 141 110 34
1321.97 -65.3162 -1633.29 -0.798953 -0.0330355 -0.592598 91 75 35
1325.82 -65.8271 -1633.6 -0.765014 -0.0148893 -0.633888 91 75 36
1322.32 -61.29 -1632.99 -0.802589 -0.0319 -0.59423 90 74 35
1326.89 -59.9229 -1634.16 -0.781707 -0.0290324 -0.616148 90 74 36
1322.9 -53.7609 -1632.54 -0.817275 -0.0428716 -0.574779 90 74 36
1320.64 -47.6955 -1632.16 -0.811895 -0.0611887 -0.57475 92 75 36
1316.78 -43.3061 -1633.89 -0.79573 -0.0622899 -0.589776 95 77 36
1319.73 -42.0908 -1631.72 -0.802913 -0.0704944 -0.583133 90 74 35
1324.63 -40.4423 -1633.58 -0.798713 -0.0990588 -0.587411 89 73 35
1323.7 -40.2271 -1632.83 -0.801971 -0.0999535 -0.582926 89 73 35
1317.37 -34.0444 -1632.21 -0.787878 -0.0450771 -0.602634 89 73 34
1321.24 -29.0465 -1632.03 -0.790746 -0.0138007 -0.602648 89 73 34
1324.49 -33.2555 -1634.16 -0.771103 -0.067273 -0.622315 89 73 35
1322.27 -24.8911 -1632.09 -0.793976 3.33858e-05 -0.60064 90 74 35
1288.85 -18.5101 -1630.34 -0.939503 -0.266638 -0.0619549 141 108 47
1286 -10.4917 -1634.32 -0.943899 -0.285854 -0.109644 144 109 57
1285.73 -8.4079 -1633.04 -0.948257 -0.224597 -0.133107 142 106 62
1285.76 -2.95242 -1633.56 -0.942221 -0.0371753 -0.213467 139 101 72
1286.39 3.40115 -1629.78 -0.962159 0.153894 -0.0765626 137 96 80
1287.55 5.77607 -1629.84 -0.942517 0.228074 -0.0712194 138 97 82
1292.54 12.8998 -1632.02 -0.834801 0.41026 -0.253304 141 98 84
1300.66 12.8813 -1634.14 -0.735408 0.246004 -0.507503 123 90 67
1316.95 -17.1613 -1632.38 -0.798348 -0.0085384 -0.593614 91 74 35
1319.34 -18.3609 -1631.71 -0.80122 -0.00323454 -0.591269 91 74 35
1323.44 -19.8467 -1632.98 -0.799328 -0.0175985 -0.594743 91 74 35
1318.63 -15.0124 -1631.99 -0.804892 -0.010752 -0.586585 91 74 36
1315.52 -8.66473 -1632.77 -0.800699 0.00147694 -0.593477 91 74 35
1315.12 -1.54026 -1630.85 -0.788035 -0.0122095 -0.604046 92 75 36
1320.81 -9.1695 -1632.33 -0.810826 -0.00764031 -0.579757 91 74 36
1324.07 -8.91668 -1634.04 -0.80292 -0.0069303 -0.588571 91 74 36
1322.45 -0.869474 -1631.79 -0.812462 0.0117838 -0.579346 92 75 36
1558.03 -275.864 -1628.52 0.882079 0.0260171 -0.490781 42 42 69
1555.67 -264.44 -1628.5 0.7614 0.338776 -0.541375 42 40 65
1548.41 -258.934 -1632.62 0.756931 0.307692 -0.569132 47 41 56
1552.87 -263.806 -1631.64 0.738913 0.388103 -0.526231 44 42 67
1551.46 -256.862 -1629.08 0.69203 0.334002 -0.636004 62 55 64
1546.92 -248.31 -1630.11 0.786872 0.275145 -0.527169 87 75 47
1570.9 -215.489 -1633.19 0.681216 -0.124722 -0.693298 156 132 58
1547.8 -214.307 -1634.85 0.65244 -0.371085 -0.582689 108 89 49
1525.26 122.557 -1631.2 0.394079 0.800378 0.319229 52 43 27
1531.67 121.934 -1634.23 0.245053 0.825217 0.0575885 60 50 32
1537.9 119.827 -1630.82 -0.0546328 0.731121 0.480039 63 51 32
1543.67 122.216 -1631.32 -0.139904 0.556818 0.769521 64 53 34
1475.13 147.499 -1629.28 0.473931 0.62292 -0.0126905 88 74 59
1482.22 144.875 -1634.17 0.373171 0.897113 0.0102461 124 109 84
1481.25 145.934 -1628.89 0.358944 0.866239 -0.05706 118 103 76
1492.84 141.238 -1628.9 0.446207 0.863653 -0.25889 113 95 48
1486.62 143.333 -1631.97 0.39395 0.915334 -0.0693575 123 106 70
1461.8 151.396 -1629.42 0.364002 0.909055 -0.103162 136 129 130
1452.87 155.711 -1633.85 0.0597864 0.766693 -0.237818 136 130 131
1462.19 151.554 -1633.61 0.364917 0.92547 -0.0396184 145 141 142
1468.26 149.835 -1629.65 0.39929 0.802351 -0.0270665 111 101 97
1474.23 147.845 -1632.78 0.402156 0.784081 0.0489253 114 103 93
1500.39 135.318 -1633.83 0.44719 0.866413 -0.204788 84 67 33
1508.04 131.878 -1633.59 0.409686 0.878058 -0.038729 73 59 31
1513.74 129.42 -1631.45 0.37565 0.90718 0.00856181 72 58 30
1521.61 125.155 -1632.29 0.409001 0.825859 0.208784 56 45 26
1499.85 136.115 -1630.91 0.471472 0.853604 -0.168577 79 64 36
1545.04 124.142 -1633.21 -0.129855 0.475192 0.808149 66 55 36
1316.28 -1160.28 -1636 0.0834118 -0.973804 0.0325209 76 71 71
1318.36 -1154.94 -1632.03 0.187553 -0.942338 0.0929724 81 74 72
1317.89 -1157.95 -1639.47 0.136214 -0.956732 0.0576287 80 73 73
1319.6 -1150.46 -1628.63 0.248685 -0.918402 0.119299 82 73 71
1328.09 -1145.76 -1632.11 0.295492 -0.851589 0.109677 81 72 69
1322.38 -1148.88 -1634.13 0.268597 -0.911251 0.123785 82 73 71
1326.39 -1147.74 -1637.8 0.278462 -0.895145 0.118421 82 73 70
1335.81 -1146.09 -1636.31 0.297712 -0.885191 0.120668 82 72 70
1333.05 -1146.48 -1639.49 0.295695 -0.899215 0.126486 82 73 70
1333.11 -1146.67 -1640.46 0.294238 -0.902007 0.127326 82 73 71
1335.36 -1144.81 -1631.38 0.305699 -0.838152 0.106816 81 71 68
1457.8 178.484 -1631.25 0.120316 0.28444 -0.258031 37 32 36
1461.26 181.945 -1629.19 -0.0394893 0.370164 -0.0287349 21 17 23
1454.48 175.79 -1631.67 0.123829 0.258652 -0.407751 45 39 41
1450.62 176.239 -1630.65 0.16564 0.0749168 -0.681494 36 30 33
1464.18 180.234 -1631.43 -0.101318 0.534481 0.0434282 33 29 35
1464.77 173.658 -1637.15 0.0910962 0.647639 -0.0477372 72 67 70
1467.84 173.377 -1638.07 0.00568275 0.652513 -0.101599 69 64 68
1467.81 174.939 -1636.77 -0.0565956 0.651318 -0.0632041 60 56 61
1473.68 180.603 -1633.41 -0.341978 0.616513 -0.0307567 28 25 32
1313.56 -747.461 -1625.26 -0.686805 0.424985 -0.554015 51 60 92
1315 -742.633 -1623.6 -0.676196 0.362429 -0.603837 52 61 92
1321.88 -738.584 -1626.98 -0.534712 0.438608 -0.700162 51 59 87
1320.56 -730.679 -1622.87 -0.497726 0.269368 -0.821396 43 49 72
1327.18 -731.34 -1628.27 -0.53085 0.312663 -0.786661 41 47 68
1323.69 -729.632 -1624.6 -0.507754 0.290246 -0.811959 41 47 68
1352.66 -736.554 -1623.5 -0.515127 0.0924846 -0.840184 62 71 105
1352.37 -735.673 -1624.6 -0.518509 0.0921465 -0.83534 60 69 102
1352.59 -730.372 -1628.64 -0.544779 0.043983 -0.809807 47 56 86
1325.86 -722.155 -1623.12 -0.564218 0.252235 -0.772204 33 39 59
1329.26 -714.544 -1624.45 -0.730352 0.116585 -0.665643 30 36 55
1329.9 -713.426 -1625.19 -0.754458 0.085924 -0.646425 30 36 56
1346.03 -722.333 -1624.16 -0.603773 0.0530385 -0.756691 54 63 92
1350.88 -721.094 -1628.19 -0.500643 0.00978931 -0.830922 46 55 84
1344.86 -715.743 -1624.86 -0.680424 0.0029206 -0.68536 46 55 81
1346.67 -714.017 -1626.33 -0.648041 -0.0192599 -0.706778 46 55 82
1331.54 -710.726 -1627.93 -0.779393 0.00895146 -0.621608 31 38 57
1329.44 -701.455 -1623.63 -0.860566 -0.00377773 -0.507291 35 41 59
1329.81 -706.071 -1624.54 -0.846377 -0.00558101 -0.551228 33 39 58
1342.49 -710.417 -1624.14 -0.7434 0.00368624 -0.632526 42 49 72
1351.61 -710.958 -1628.65 -0.533898 -0.0518477 -0.784967 42 51 79
1345.99 -712.216 -1626.01 -0.685653 -0.0350385 -0.673028 46 54 80
1343.3 -704.096 -1624.75 -0.795699 -0.0731482 -0.577071 43 51 74
1348.35 -703.438 -1624.39 -0.774502 -0.188995 -0.572693 49 57 84
1362.57 -752.723 -1629.14 -0.422599 0.17978 -0.872572 64 70 101
1420.98 -794.787 -1624.29 0.347224 -0.161096 0.414972 40 46 71
1420.29 -785.721 -1625.4 0.382098 -0.205746 0.519776 38 44 67
1431.65 -575.226 -1626.65 -0.724403 0.00755736 0.694968 40 44 65
1435.35 -577.081 -1622.96 -0.783797 0.0726999 0.591912 38 42 60
1430.1 -571.837 -1627.99 -0.657413 -0.0300459 0.755115 38 42 64
1443.19 -574.924 -1628.51 -0.62439 -0.0211826 0.612297 40 43 66
1441.95 -576.115 -1625.12 -0.661804 0.00879531 0.520271 38 42 63
1442.6 -572.227 -1626.57 -0.623948 -0.028916 0.573234 37 40 61
1433.42 -563.591 -1622.91 -0.745402 -0.144445 0.645725 34 38 57
1428.8 -559.278 -1626.13 -0.657829 -0.138014 0.727738 39 41 64
1442.33 -562.367 -1622.43 -0.58535 -0.0670041 0.418185 31 34 54
1443.49 -557.801 -1626.56 -0.563447 -0.0441161 0.532395 34 37 58
1425.05 -552.782 -1628.07 -0.665926 -0.06388 0.685542 43 44 71
1425.06 -542.949 -1627.57 -0.733081 0.00267834 0.676138 41 43 69
1428.38 -550.831 -1624.13 -0.72087 -0.0943852 0.681736 39 41 65
1426.92 -544.451 -1625.59 -0.725455 -0.00830908 0.692167 40 42 67
1443.05 -554.442 -1624.79 -0.559259 -0.0200863 0.468492 32 35 56
1443.87 -546.318 -1623.18 -0.517937 0.0456968 0.319474 27 29 49
1429.48 -538.977 -1623.61 -0.717842 0.0574433 0.726268 38 40 64
1429 -536.116 -1624.46 -0.719042 0.078693 0.720552 38 41 64
1444.39 -537.355 -1627.97 -0.536928 0.127995 0.353808 30 34 56
1444.68 -534.854 -1624.52 -0.526315 0.12123 0.32682 29 32 53
1417.65 -508.62 -1624.78 -0.343681 -0.0515325 0.269144 43 48 76
1422.49 -508.011 -1624.15 -0.161317 -0.244353 0.0437454 42 48 76
1428.5 -530.615 -1625.53 -0.725874 0.098238 0.70827 38 40 65
1431.5 -525.238 -1622.96 -0.707307 0.12497 0.697556 39 42 66
1431.28 -519.491 -1625.69 -0.707913 0.251746 0.694583 42 47 73
1444.21 -525.462 -1626.18 -0.614813 0.291928 0.590108 39 45 70
1442.31 -519.999 -1626.05 -0.629698 0.316765 0.612854 39 45 70
1429.28 -517.392 -1628.81 -0.724602 0.308741 0.704068 43 48 76
1432.26 -516.049 -1626.7 -0.686112 0.350888 0.688451 43 49 76
1429.88 -508.414 -1624.4 -0.2071 -0.105481 0.121428 42 50 78
1426.83 -507.062 -1625.48 0.0366291 -0.396904 -0.159458 43 51 80
1441.54 -512.59 -1626.13 -0.417571 0.123159 0.356056 41 49 76
1441.54 -516.19 -1625.03 -0.528682 0.212984 0.490095 39 46 72
1440.48 -511.463 -1623.02 -0.529332 0.331186 0.503693 40 49 76
1448.16 -507.703 -1626.36 -0.186573 -0.520544 -0.274659 39 47 74
1278.56 -501.989 -1623.65 -0.934802 -0.269699 -0.212649 47 56 89
1276.96 -496.903 -1623.3 -0.937483 -0.278486 -0.198002 48 58 91
1275.66 -489.414 -1626.44 -0.926278 -0.190709 -0.291258 50 60 95
1274.57 -486.372 -1624.46 -0.940178 -0.166403 -0.27536 53 63 99
1274.05 -476.653 -1625.43 -0.928555 -0.0461011 -0.352984 59 68 106
1273.73 -472.506 -1623.89 -0.932151 0.0182463 -0.330178 61 71 110
1273.95 -467.786 -1622.74 -0.936543 0.111844 -0.309621 62 71 111
1274.81 -465.241 -1623.55 -0.929323 0.168093 -0.321496 63 72 112
1277.28 -462.924 -1627.72 -0.891227 0.206107 -0.383961 67 76 118
1592.53 -419.413 -1626.82 0.962009 0.159244 -0.157672 62 73 118
1591.93 -414.366 -1625.26 0.973356 0.107772 -0.123327 61 72 118
1606.35 -456.987 -1626.03 0.888681 0.197098 -0.388033 58 72 120
1604.16 -450.658 -1626.54 0.84509 0.305646 -0.346122 57 71 119
1599.73 -444.667 -1628.42 0.778409 0.558984 -0.216214 56 70 117
1598.12 -439.855 -1624.23 0.785438 0.462757 -0.349996 61 74 123
1291.38 -405.867 -1628.42 -0.873183 0.126409 -0.469082 68 80 125
1289.68 -403.688 -1622.62 -0.918583 0.149954 -0.314903 65 76 120
1291.9 -396.589 -1626.84 -0.93859 0.0242089 -0.25816 63 75 119
1290.95 -391.58 -1622.27 -0.968251 0.0209714 -0.18796 65 77 124
1292.26 -385.512 -1627.23 -0.967115 0.072635 -0.170044 66 78 124
1293.28 -380.256 -1626.56 -0.924505 0.139503 -0.257245 64 76 121
1293.7 -378 -1626.12 -0.922491 0.140679 -0.26531 64 76 121
1296.08 -368.388 -1624.97 -0.928316 0.228828 -0.248 64 74 118
1297.15 -362.623 -1623.93 -0.921296 0.224587 -0.276454 66 77 121
1297.57 -357.593 -1624.62 -0.894703 0.126791 -0.36148 66 77 122
1298.36 -349.737 -1626.34 -0.878465 -0.0543906 -0.318531 64 75 118
1296.17 -343.904 -1625.09 -0.903065 -0.107988 -0.260928 68 79 124
1294.25 -338.419 -1623.15 -0.929995 0.018509 -0.259083 70 82 127
1334.09 144.158 -1623.28 0.0750215 0.861075 0.267529 112 93 67
1335.81 144.363 -1626.2 -0.00140137 0.875855 0.0841225 84 69 49
1341.38 145.522 -1627.3 -0.0211916 0.801379 0.0884656 87 73 54
1348.77 147.724 -1625.26 -0.0794337 0.558907 0.519004 118 101 78
1349.02 148.459 -1628.85 -0.169801 0.726829 0.149105 99 87 70
1360.39 110.975 -1627.16 0.144635 0.569245 -0.817572 144 119 53
1365.59 108.9 -1627.16 0.0447338 0.603197 -0.7907 149 123 57
1353.85 114.192 -1627.92 0.120831 0.556481 -0.814099 146 121 54
1362.42 116.349 -1626.22 0.0506684 0.597396 -0.789182 149 123 56
1353.25 118.135 -1627.91 0.0623998 0.594653 -0.790458 151 124 57
1366.67 111.25 -1626.28 0.0180546 0.610333 -0.777856 147 121 56
1373.02 116.39 -1626.53 -0.162359 0.652966 -0.729483 148 121 57
1371.75 118.436 -1626.65 -0.134231 0.638116 -0.751158 149 122 56
1378.34 117.964 -1627.6 -0.18179 0.678546 -0.701561 148 121 56
1380.46 112.861 -1628.44 -0.228177 0.699356 -0.672135 147 120 57
1377.99 120.507 -1628.8 -0.1669 0.65089 -0.720757 148 122 56
1423.41 115.819 -1628.32 0.121991 0.5481 -0.824188 152 129 55
1550.34 115.106 -1624.36 -0.0548732 0.675468 0.742857 67 55 31
1557.55 117.606 -1625.07 -0.14217 0.671937 0.717418 68 55 35
1555.16 119.154 -1627.57 -0.0422558 0.629367 0.749195 68 55 34
1562.39 121.457 -1628.46 -0.0610893 0.634432 0.481166 75 62 38
1570.67 122.033 -1628.01 0.0397382 0.680924 -0.0219971 92 78 46
1573.12 121.674 -1624.26 -0.0142821 0.734583 0.155937 89 75 45
1580.29 121.697 -1627.1 0.163241 0.698895 -0.392148 111 94 54
1585.06 121.547 -1624.02 0.157186 0.753169 -0.120796 105 89 52
1590.61 120.295 -1624.13 0.239206 0.71465 0.0351601 99 84 50
1630.42 98.3864 -1625.91 0.205191 0.502322 0.827919 105 86 53
1636.65 93.1443 -1623.9 0.218012 0.403008 0.878744 104 85 46
1643.93 87.7882 -1622.75 0.31176 0.344353 0.880618 105 87 34
1634.2 94.7565 -1624.37 0.218811 0.430944 0.863535 104 86 49
1643.4 94.1882 -1626.05 0.280582 0.41113 0.855977 106 87 41
1615.25 104.426 -1624.91 0.493912 0.469839 0.690423 94 75 45
1613.56 108.611 -1626.73 0.476497 0.489905 0.691704 93 74 44
1616.52 105.781 -1627.21 0.479854 0.490473 0.682055 93 74 44
1607.57 112.105 -1622.83 0.496055 0.52151 0.671686 98 78 47
1596.99 118.924 -1626.87 0.272531 0.573525 -0.0575632 107 89 51
1609.92 113.784 -1626.72 0.45422 0.478645 0.641227 96 76 45
1620.26 100.062 -1623.83 0.382211 0.38306 0.825048 94 75 46
1624.75 101.499 -1627.15 0.29209 0.510149 0.775202 101 82 51
1632.83 99.5402 -1627.19 0.16291 0.525569 0.829787 105 86 52
1390.36 -1073.06 -1618.86 0.0936422 -0.427598 0.224748 119 105 109
1396.88 -1073.83 -1617.54 -0.0638086 -0.490101 0.0203935 123 109 113
1354.96 -1063.11 -1617.38 -0.215043 -0.373415 0.641756 96 94 105
1376.35 -1040.76 -1620.4 -0.353803 -0.339528 0.715929 96 96 108
1401.08 -1062.84 -1618.18 -0.521072 -0.523977 0.243592 108 107 118
1395.23 -1054.29 -1617.69 -0.723952 -0.425526 0.115188 97 98 114
1381.92 -1046.89 -1622.7 -0.0939598 -0.351327 0.497856 96 95 108
1384.62 -1046.65 -1622.02 -0.104409 -0.322441 0.348136 96 96 110
1378.27 -1041.59 -1619.77 -0.357546 -0.340912 0.63582 95 95 108
1393.77 -1051.37 -1619.88 -0.540469 -0.319264 0.133493 98 98 113
1402.45 -1069.02 -1619.99 -0.317687 -0.539936 0.17033 115 108 116
1365.07 -1031.24 -1621.35 -0.349757 -0.423431 0.831328 89 90 101
1370.12 -1038.42 -1622.39 -0.311719 -0.393187 0.859723 96 95 106
1375.12 -1038.18 -1620.47 -0.351719 -0.345221 0.772415 95 95 106
1367.32 -1028.36 -1619.78 -0.329861 -0.388234 0.859512 88 89 100
1372.4 -1030.51 -1619.43 -0.324837 -0.367606 0.854337 92 92 103
1355.7 -1025.22 -1621.76 -0.416693 -0.368767 0.826684 61 64 81
1363.23 -1026.24 -1619.86 -0.363757 -0.378744 0.848179 80 81 94
1357.32 -1016.71 -1618.22 -0.363517 -0.294192 0.860758 38 42 60
1361.83 -1021.21 -1618.36 -0.351305 -0.309393 0.874844 62 64 79
1370.51 -1025.04 -1617.81 -0.275902 -0.29007 0.908189 89 89 100
1373.31 -1027.38 -1618.02 -0.305812 -0.34986 0.880585 91 91 101
1378.72 -1034.69 -1617.37 -0.462385 -0.287629 0.639217 94 94 107
1355.21 -1011.46 -1616.98 -0.37981 -0.267511 0.855183 27 32 51
1322.92 -623.841 -1619.96 -0.794999 -0.40839 -0.423337 39 47 74
1320.62 -620.382 -1620.15 -0.826462 -0.386284 -0.318227 38 46 74
1316.53 -615.157 -1617.33 -0.932816 -0.280528 -0.0235231 38 45 73
1313.32 -608.777 -1622.15 -0.869543 -0.36366 -0.115877 39 46 74
1311.33 -604.866 -1619.1 -0.896719 -0.357852 -0.0124106 40 47 75
1388.91 -664.098 -1618.77 -0.39667 -0.164672 0.0811609 54 62 91
1403.79 -696.804 -1616.76 -0.702297 -0.14489 0.606767 47 57 84
1430.73 -695.67 -1622.25 -0.809053 -0.0867489 0.565877 47 55 76
1432.02 -689.195 -1619.47 -0.834331 -0.0788942 0.537504 47 54 74
1448.22 -699.328 -1622.19 -0.489087 -0.118507 0.441562 45 50 70
1444.07 -692.395 -1621.98 -0.491507 -0.141225 0.557953 43 49 69
1444.69 -693.277 -1621.28 -0.509814 -0.128592 0.514272 42 48 68
1431.21 -688.492 -1620.89 -0.810488 -0.0760214 0.561835 47 54 75
1431.02 -681.858 -1617.76 -0.86826 -0.17455 0.473731 52 59 80
1444.17 -687.664 -1622.1 -0.507134 -0.13308 0.56022 43 49 70
1444.65 -679.75 -1620.76 -0.498577 -0.129995 0.526577 42 48 68
1428.09 -674.714 -1620.94 -0.815669 -0.137446 0.556949 49 57 83
1430.45 -674.662 -1617.59 -0.85636 -0.10269 0.508333 52 58 81
1430.75 -667.294 -1618.48 -0.844214 0.0337443 0.516514 55 61 84
1444.98 -676.083 -1620.32 -0.553261 -0.10285 0.533079 44 50 71
1444.79 -669.473 -1618.91 -0.719793 -0.0386816 0.582456 51 57 79
1547.96 -915.052 -1620.23 0.901811 -0.229752 0.112926 47 55 84
1549.47 -910.438 -1622.04 0.953427 -0.163835 0.103991 48 57 85
1549.54 -905.802 -1618.72 0.922155 -0.0743799 0.131849 49 58 86
1551.77 -894.533 -1620.94 0.972695 -0.116323 0.116599 51 62 91
1485.7 -889.464 -1618.6 -0.819563 0.0696675 0.567744 48 55 77
1485.76 -886.08 -1618.25 -0.819282 0.0310328 0.567553 49 56 78
1486.57 -893.447 -1617.04 -0.792374 0.0615416 0.602239 46 54 75
1482.55 -880.001 -1620.9 -0.810326 -0.0779387 0.570655 48 55 78
1481.86 -874.539 -1620.04 -0.780679 -0.143199 0.60471 48 53 77
1472.29 -846.302 -1620.95 -0.490365 -0.338746 0.80349 50 52 69
1483.32 -870.052 -1617.32 -0.770688 -0.0947832 0.627815 48 54 77
1478.7 -860.507 -1622.37 -0.641256 -0.159016 0.744917 48 53 74
1481.32 -861.642 -1620.43 -0.677296 -0.0709869 0.72468 47 53 75
1478.36 -857.54 -1622.23 -0.597273 -0.185256 0.771612 48 53 74
1483.81 -853.43 -1617.5 -0.551196 -0.0868236 0.793083 47 54 76
1476.01 -849.239 -1620.32 -0.503379 -0.298697 0.798418 48 52 72
1468.44 -842.592 -1621.43 -0.545978 -0.310819 0.774886 51 52 67
1471.31 -844.178 -1620.42 -0.527652 -0.322752 0.784081 50 52 69
1464.79 -834.771 -1622.03 -0.723996 -0.135776 0.592893 50 52 66
1468.52 -835.375 -1616.99 -0.665995 -0.211822 0.7153 52 51 66
1464.27 -828.921 -1622.24 -0.798024 -0.011655 0.51636 49 50 65
1465.71 -823.443 -1621.34 -0.819584 0.0924124 0.50684 47 48 64
1475.36 -843.827 -1617.33 -0.525217 -0.333647 0.769534 47 51 71
1307.29 -264.755 -1622.86 -0.858625 0.0788175 -0.469946 99 98 100
1305.42 -252.837 -1617.73 -0.959437 -0.000901303 -0.238309 109 93 55
1306.54 -246.692 -1620.36 -0.926924 0.0380702 -0.25624 141 114 50
1307.57 -245.233 -1621.49 -0.900094 0.120874 -0.230238 137 110 45
1310.59 -239.769 -1622.46 -0.825493 0.537716 -0.0281051 123 96 33
1313.14 -237.712 -1620.97 -0.707847 0.53688 -0.165663 127 101 41
1320.3 -233.523 -1619.8 -0.45639 0.620208 -0.221749 139 116 55
1321.72 -229.363 -1616.99 -0.575636 0.352207 -0.454195 128 107 51
1325.89 -230.066 -1621.62 -0.553858 0.36409 -0.589711 133 114 61
1325.59 -232.068 -1622.35 -0.456444 0.511585 -0.449093 134 115 61
1328.34 -216.807 -1622.66 -0.878806 0.291378 -0.313305 169 142 67
1332.26 -230.11 -1619.69 -0.356386 0.497544 -0.768784 66 55 32
1337.48 -230.862 -1622.42 -0.428202 0.515756 -0.735047 67 55 32
1329.5 -222.202 -1622.34 -0.747947 0.181917 -0.484791 149 126 64
1332.3 -222.162 -1619.49 -0.575467 0.0907039 -0.690343 94 79 43
1326.71 -216.12 -1617.94 -0.855666 0.33838 -0.3091 167 141 65
1327.35 -208.219 -1619.78 -0.931735 0.12635 -0.312653 161 133 52
1327.47 -200.611 -1620.13 -0.934085 -0.0570195 -0.350147 149 122 41
1327.41 -194.321 -1622.2 -0.924312 -0.1023 -0.331716 145 119 39
1325.96 -190.493 -1619.25 -0.920093 -0.160352 -0.308451 146 119 39
1321.99 -180.523 -1617.71 -0.904449 -0.339965 -0.246897 149 122 40
1323.49 -182.702 -1619.66 -0.906673 -0.323927 -0.249344 149 122 40
1600.82 -124.617 -1619.63 0.737002 -0.181742 -0.643258 149 127 59
1601.64 -130.654 -1619.74 0.732467 -0.171719 -0.649936 149 127 59
1601.12 -123.987 -1620.26 0.727922 -0.187204 -0.655704 149 127 59
1581.79 -118.073 -1616.34 0.920734 0.0238764 -0.361006 114 90 36
1581.37 -106.736 -1616.55 0.942986 0.0232472 -0.305034 118 92 38
1594.14 -112.655 -1621.73 0.929384 -0.0162816 -0.192485 126 101 41
1581.18 -103.389 -1616.96 0.948708 0.0136477 -0.29808 117 92 38
1580.6 -96.7514 -1619.04 0.940697 -0.027165 -0.312929 112 89 38
1595.33 -104.421 -1621.2 0.964912 0.00454499 -0.133887 123 97 39
1580.24 -91.8546 -1621.49 0.915734 -0.0459818 -0.359634 104 83 36
1580.59 -84.7459 -1621.25 0.915237 -0.0495422 -0.360111 100 81 35
1580.56 -80.404 -1622.29 0.902082 -0.0506889 -0.392118 97 79 36
1580.73 -71.8314 -1618.17 0.965827 0.0209276 -0.157401 98 80 36
1599.1 -115.148 -1619.87 0.843529 -0.0970515 -0.435221 140 117 52
1601.82 -116.149 -1620.33 0.783861 -0.138234 -0.576818 147 125 57
1602.72 -109.759 -1621.89 0.780194 -0.0872267 -0.601575 149 127 57
1599.95 -103.975 -1620.28 0.884411 -0.0331518 -0.379947 137 114 49
1602.24 -104.617 -1620.93 0.818088 -0.04933 -0.54048 146 123 55
1596.45 -95.5105 -1622.15 0.936884 -0.00341185 -0.188466 123 98 40
1597.19 -92.5076 -1622.13 0.90807 -0.0181229 -0.275834 128 104 44
1600.52 -82.5727 -1622.2 0.854073 -0.0570196 -0.48277 145 121 56
1580.4 -66.7852 -1619.72 0.98008 0.0373415 -0.105122 94 77 37
1580.63 -59.6231 -1622.91 0.973476 -0.0115712 -0.13627 91 75 37
1581.76 -53.8317 -1621.02 0.957891 -0.113423 -0.164612 89 73 36
1583.61 -46.6065 -1621.87 0.949265 -0.159276 -0.198733 84 68 34
1374.41 -594.376 -1625 -0.315976 -0.0465811 0.00950775 52 58 92
1373.56 -602.158 -1628.45 -0.269988 0.0341344 -0.425041 41 48 82
1373.76 -596.01 -1626.43 -0.304236 -0.0340132 -0.146397 49 56 90
1376.12 -601.512 -1623.77 -0.301073 0.00303417 0.055443 47 54 88
1367.36 -579.897 -1627.51 -0.305342 -0.163001 -0.267459 60 66 99
1372.12 -584.382 -1624.81 -0.325085 -0.112201 0.0511879 57 63 97
1368.53 -583.703 -1628.27 -0.309352 -0.146823 -0.303608 57 64 97
1377.17 -582.872 -1618.4 -0.348114 -0.0673928 0.673712 59 64 100
1371.76 -589.095 -1627.6 -0.322092 -0.109181 -0.181203 55 61 94
1377.6 -600.426 -1621.01 -0.322986 -0.0247292 0.341232 52 58 92
1378 -601.958 -1620.77 -0.324148 -0.0250801 0.340473 51 57 92
1365.12 -572.584 -1627.83 -0.254527 -0.127579 0.26447 61 67 102
1369.49 -572.363 -1623.38 -0.27262 -0.0855214 0.687303 61 67 103
1367.32 -570.433 -1625.21 -0.252341 -0.0909809 0.64128 62 67 103
1368.38 -576.304 -1625.29 -0.285596 -0.126323 0.233581 61 67 101
1376.51 -570.584 -1617.52 -0.331027 -0.0642668 0.820314 60 65 101
1376.97 -573.801 -1617.01 -0.336342 -0.0612245 0.873985 61 66 102
1372.32 -572.856 -1620.66 -0.290877 -0.0652602 0.893516 61 67 103
1363.65 -563.881 -1627.9 -0.244729 -0.080326 0.722797 61 66 102
1374.01 -566.396 -1619.61 -0.308309 -0.0652808 0.777745 60 66 101
1371.98 -563.786 -1621.2 -0.297839 -0.0523645 0.795894 60 65 101
1366.28 -565.238 -1625.62 -0.235017 -0.0682404 0.827429 61 67 104
1372.81 -557.308 -1621.13 -0.312786 0.0244351 0.813712 56 62 97
1377.66 -563.679 -1617.18 -0.342612 -0.0181482 0.767524 58 63 98
1375.93 -554.591 -1619.45 -0.331134 0.09259 0.811764 53 59 93
1377.61 -559.99 -1617.68 -0.342002 0.0332231 0.782638 55 61 96
1376.71 -544.257 -1622.25 -0.329557 0.138801 0.806991 50 56 91
1375.85 -545.14 -1622.47 -0.329252 0.131757 0.802971 51 56 91
1366.91 -548.294 -1626.8 -0.32093 0.0781016 0.762245 52 58 92
1367 -551.148 -1625.97 -0.305384 0.0523978 0.795813 54 60 95
1376.62 -537.378 -1625.55 -0.334181 0.155219 0.811446 50 55 90
1371.94 -540.587 -1626.84 -0.333775 0.159971 0.825914 50 55 90
1376.26 -534.125 -1627.64 -0.337662 0.150662 0.803841 49 55 89
1290.08 17.3328 -1620.86 -0.9038 0.199887 -0.0156364 133 97 85
1291.63 16.4437 -1625.11 -0.885046 0.2602 -0.0923091 136 97 84
1290.32 22.5869 -1621.77 -0.851785 0.139441 -0.180211 129 96 75
1286.44 20.8099 -1618.51 -0.909544 0.129907 -0.0673236 134 98 81
1285.41 23.2225 -1619.15 -0.897643 0.0938541 -0.135831 134 99 77
1298.33 20.4866 -1627.61 -0.796069 0.106011 -0.450375 113 86 57
1296.44 24.6589 -1625.66 -0.782664 0.0647768 -0.428713 115 88 58
1304.42 21.1715 -1628.25 -0.756359 -0.0552633 -0.658667 91 74 35
1279.72 31.3665 -1620.19 -0.818557 0.0342691 -0.35611 134 101 69
1285.04 28.9673 -1621.85 -0.829809 0.0562676 -0.307816 132 99 69
1284.02 26.8824 -1620.3 -0.876967 0.0421703 -0.240178 133 99 71
1287.82 36.3674 -1626.05 -0.690966 0.0783602 -0.513177 130 101 64
1302.57 32.1791 -1627.23 -0.634818 0.0913337 -0.644209 113 91 49
1296.48 32.6823 -1626.79 -0.675249 0.0964275 -0.548534 121 95 58
1295.43 37.1095 -1627.91 -0.6233 0.0878178 -0.631735 122 97 56
1300.72 28.8686 -1626.49 -0.698894 0.0808845 -0.552942 113 89 52
1299.14 38.3259 -1628.08 -0.601858 0.0835479 -0.682945 118 95 52
1301.55 34.3026 -1627.64 -0.617409 0.0880443 -0.668881 114 92 50
1298.67 40.4573 -1628.43 -0.595624 0.0771705 -0.697873 118 95 51
1547.8 -1111.96 -1607.78 -0.521388 0.501678 0.62607 109 111 127
1557.82 -1102.85 -1611.74 -0.510681 0.494198 0.667566 106 109 119
1557.16 -1106.77 -1606.81 -0.519499 0.512295 0.649896 106 109 120
1556.23 -1107 -1607.26 -0.518546 0.511501 0.647144 107 109 121
1551.84 -1103.51 -1615.56 -0.501623 0.508181 0.635934 108 110 123
1483.4 -1040.78 -1614.79 0.0841482 -0.223763 0.148909 97 92 102
1453.48 -1032.1 -1614.98 0.00183935 0.0445246 0.625439 83 85 97
1452.09 -1030.09 -1613.53 -0.0259217 0.047579 0.71087 91 93 105
1452.06 -1027.2 -1610.52 -0.0975234 0.056153 0.829203 98 100 111
1457.87 -1033.12 -1614.41 -0.0889768 0.0310848 0.569062 75 76 89
1457.61 -1031.68 -1612.82 -0.0992135 0.0444235 0.631322 76 78 92
1469.2 -1034.98 -1613.56 -0.0910394 -0.0571627 0.560507 63 65 82
1465.4 -1028.57 -1606.93 -0.101762 -0.0131929 0.769197 68 72 89
1465.89 -1035.65 -1615.04 -0.164327 -0.0108319 0.510788 66 67 82
1464.61 -1031.49 -1610.45 -0.210901 0.0299215 0.668482 69 71 87
1472.71 -1038.13 -1616.36 -0.196036 -0.0387315 0.565162 68 70 85
1455.11 -1023.51 -1606.22 -0.114156 0.00582555 0.844048 89 92 105
1457.89 -1025.03 -1605.96 -0.148546 0.0301763 0.843346 84 87 101
1458.59 -1026.66 -1606.96 -0.204093 0.0660164 0.830784 82 85 99
1475.47 -1036.46 -1613.93 -0.0595313 -0.103165 0.651218 67 70 87
1475.63 -1031.56 -1608.37 0.228056 -0.21272 0.753508 60 66 87
1477.74 -1035.65 -1612.31 0.0982573 -0.17917 0.610488 70 72 90
1478.91 -1033.52 -1609.79 0.237686 -0.231571 0.661272 66 69 89
1484.45 -1039.18 -1613.05 0.127296 -0.228644 0.222835 92 88 99
1484.89 -1031.75 -1606.97 0.336422 -0.27602 0.611713 70 73 93
1487.41 -1034.99 -1609.18 0.224551 -0.250086 0.384803 83 82 97
1489.3 -1027.88 -1604.88 0.137712 -0.169494 0.854487 66 71 92
1492.97 -1038.25 -1610.01 0.149186 -0.234516 0.0706179 97 91 100
1498.49 -1038.88 -1611.69 0.249378 -0.25668 0.469814 79 76 89
1419.2 -748.135 -1598.75 0.729638 -0.240877 0.485406 33 40 63
1422.99 -736.4 -1602.75 0.067762 -0.186207 0.523116 46 54 77
1420.85 -742.421 -1598.95 0.671453 -0.257027 0.488706 34 41 64
1423.19 -735.976 -1603.08 0.028786 -0.181332 0.525453 47 55 78
1424.68 -728.264 -1604.55 -0.141222 -0.148941 0.5394 50 58 82
1424.92 -722.789 -1598.37 0.483819 -0.133744 0.512374 37 45 69
1424.76 -716.102 -1603.54 -0.065343 -0.0995496 0.524646 47 55 79
1424.48 -712.982 -1602.75 0.0231151 -0.0833276 0.517055 45 53 77
1426.1 -702.894 -1599.12 0.690061 -0.222243 0.52846 34 42 67
1305.4 -698.083 -1601.33 -0.681537 0.243417 -0.71095 37 42 67
1305.81 -699.411 -1601.93 -0.682208 0.264076 -0.694406 37 42 66
1308.66 -692.297 -1603.62 -0.628807 0.210494 -0.763122 37 43 65
1308.66 -687.86 -1603.26 -0.643946 0.147597 -0.768658 37 43 64
1308.91 -681.534 -1601.18 -0.683501 0.190477 -0.714853 31 36 58
1310.98 -677.528 -1601.85 -0.694058 0.206632 -0.701249 29 34 56
1327.38 -676.804 -1604.52 -0.685428 -0.021302 -0.696236 43 52 78
1332.64 -690.3 -1604.35 -0.659554 -0.0245866 -0.729068 50 61 90
1273.38 -502.874 -1598.54 -0.951137 0.00618799 -0.307796 52 61 101
1273.28 -500.861 -1598.43 -0.954517 0.0120891 -0.296128 51 59 99
1271.75 -490.418 -1599.67 -0.952988 -0.204019 -0.177453 58 67 109
1272.68 -490.963 -1602.28 -0.960131 -0.198965 -0.146447 58 68 109
1271.75 -486.61 -1603.13 -0.958781 -0.174455 -0.159142 58 68 109
1271.31 -480.493 -1604.05 -0.964851 -0.114111 -0.151076 58 68 109
1270.67 -472.129 -1600.97 -0.973386 -0.0255716 -0.147941 61 72 115
1271.08 -464.953 -1601.89 -0.978949 0.021486 -0.100299 65 76 120
1272.04 -460.934 -1603.34 -0.95467 0.128659 -0.109276 67 78 122
1274.37 -452.514 -1602.71 -0.875024 0.413073 -0.196727 68 79 122
1274.54 -449.627 -1602.04 -0.900757 0.311439 -0.221783 65 75 116
1275.06 -443.321 -1601.24 -0.937697 0.146572 -0.284592 62 72 112
1276.42 -438.901 -1602.42 -0.939385 0.157926 -0.282139 64 75 116
1277.83 -431.4 -1600.77 -0.941695 0.219717 -0.226388 66 79 121
1279.39 -425.906 -1601.67 -0.935263 0.251175 -0.222761 66 80 123
1280.39 -419.189 -1600.12 -0.926155 0.242882 -0.260782 66 79 122
1281.67 -419.542 -1603.96 -0.916272 0.277256 -0.263592 66 80 122
1283.39 -411.07 -1601.76 -0.907925 0.230491 -0.314372 64 78 120
1453.27 -1156.77 -1598.68 0.781417 -0.591081 -0.176975 104 96 91
1454.84 -1153.6 -1599.71 0.819216 -0.542788 -0.174236 107 96 91
1553.42 -882.272 -1599.08 0.764881 -0.225098 0.446718 43 51 78
1553.54 -870.797 -1601.99 0.918008 0.262531 0.0290399 45 56 86
1552.88 -868.922 -1599.18 0.915754 0.250916 0.07389 45 56 85
1553.68 -860.487 -1598.82 0.945174 -0.173634 0.146942 47 59 88
1559.21 -852.508 -1602.62 0.86532 -0.284513 0.331668 47 58 87
1557.6 -846.039 -1598.24 0.89277 -0.110129 0.411311 46 56 85
1560.61 -848.047 -1604.35 0.851248 -0.139072 0.3767 46 56 83
1557.53 -834.503 -1599.22 0.903234 0.029227 0.341832 45 54 83
1559.73 -841.075 -1602.75 0.863026 0.0356546 0.49132 44 53 79
1558.42 -827.194 -1598.71 0.841655 -0.0702084 0.320456 45 55 87
1561.98 -825.481 -1602.69 0.763316 -0.0128156 0.513811 44 53 82
1564.47 -817.711 -1602.42 0.819723 0.040828 0.384178 47 57 88
1563.33 -810.625 -1599.07 0.977724 -0.0102075 0.184372 50 61 94
1563.87 -803.756 -1599.83 0.980947 -0.0268546 0.190728 50 61 94
1564.57 -798.797 -1599.72 0.973793 -0.0388839 0.218279 49 60 94
1490.98 -796.42 -1604.28 -0.678071 0.404302 0.569962 43 51 77
1493.83 -795.095 -1602.48 -0.635107 0.383909 0.630728 43 51 79
1497.01 -789.516 -1601.56 -0.611877 0.143575 0.741481 44 53 82
1496.89 -781.298 -1599.79 -0.601247 -0.216492 0.753772 53 62 92
1491 -777.769 -1602.46 -0.645272 -0.312714 0.692162 50 57 86
1487.72 -774.391 -1603.63 -0.63049 -0.284941 0.686118 48 56 83
1474.26 -750.619 -1601.98 -0.731822 -0.123639 0.662526 49 56 83
1485.52 -770.466 -1602.8 -0.618024 -0.343084 0.672214 48 55 81
1485.57 -765.832 -1599.1 -0.616606 -0.436396 0.653672 48 55 81
1488.55 -770.065 -1599.5 -0.622907 -0.386803 0.668891 49 57 84
1479.79 -759.792 -1599.94 -0.647479 -0.359876 0.666503 45 54 78
1475.05 -754.585 -1601.87 -0.711018 -0.217612 0.659466 47 54 81
1474.99 -749.135 -1600.97 -0.724732 -0.0946166 0.677897 49 57 84
1404.38 161.833 -1601.84 -0.927194 0.33353 0.00799051 161 129 105
1404.45 163.013 -1598.93 -0.968489 0.236948 -0.0274955 149 118 96
1404.99 171.558 -1600.84 -0.954914 -0.0186195 -0.147441 115 88 70
1399.51 184.421 -1602.07 -0.816147 -0.553113 -0.104331 75 60 57
1396.02 190.161 -1602.61 -0.85633 -0.460452 -0.00766845 77 61 58
1395.04 193.832 -1601.49 -0.876118 -0.322505 0.00827939 79 62 57
1395.61 202.08 -1601.35 -0.920902 -0.0355524 0.00224351 76 60 54
1395.39 203.472 -1601.25 -0.911497 -0.0457784 -0.0428497 77 59 53
1388.34 217.244 -1600.35 -0.641465 -0.579428 -0.358137 77 59 52
1395.96 209.373 -1602.92 -0.855947 -0.0904247 0.0116839 66 51 47
1392.59 214.354 -1602.4 -0.684614 -0.433576 -0.122279 67 52 48
1404.61 175.028 -1601.9 -0.927241 -0.17354 -0.150475 101 77 63
1403.5 178.104 -1601.59 -0.882786 -0.360704 -0.147079 84 64 56
1619.92 36.0919 -1599.26 0.222635 0.175578 0.948882 100 83 47
1616.67 41.0385 -1599.62 0.263285 0.188465 0.941713 101 83 50
1609.66 47.8432 -1598.98 0.406183 0.189912 0.887408 97 78 45
1615.61 46.4971 -1600.73 0.288569 0.210929 0.932014 102 83 51
1626.76 31.7927 -1600.23 0.234347 0.178224 0.944968 100 82 45
1629.46 30.044 -1600.57 0.23315 0.151827 0.943501 99 81 45
1626.32 38.0737 -1601.43 0.227873 0.186166 0.952632 102 85 47
1626.34 34.5328 -1600.71 0.236166 0.1916 0.947509 101 83 46
1632.61 31.4197 -1601.73 0.242055 0.166524 0.944961 99 80 43
1639.56 31.5528 -1603.14 0.20138 0.140748 0.956538 96 78 41
1633.73 38.0978 -1602.73 0.213868 0.15102 0.957311 101 83 43
1639.36 33.7275 -1603.3 0.200952 0.145237 0.957465 97 79 41
1620.11 42.9184 -1601.1 0.243672 0.211944 0.947096 103 86 51
1626.54 43.2897 -1602.41 0.200761 0.187164 0.958698 104 87 49
1619.4 44.0445 -1601.21 0.247899 0.215694 0.946318 104 86 52
1625.8 45.1723 -1602.64 0.191952 0.192787 0.959759 105 87 50
1635.6 43.5541 -1603.35 0.199522 0.161589 0.95369 104 86 45
1638.9 42.007 -1603.7 0.213968 0.16877 0.947205 103 85 44
1637.43 45.8616 -1603.85 0.218172 0.196642 0.94152 106 88 46
1606.5 61.6002 -1599.99 0.434522 0.176766 0.877146 93 74 38
1611.23 53.2407 -1600.75 0.394352 0.193609 0.892683 96 77 44
