ply
format ascii 1.0
comment Created by Open3D
element vertex 1373
property double x
property double y
property double z
property uchar red
property uchar green
property uchar blue
end_header
-183.659 -1028.26 -1533 173 122 89
-180.261 -1028.75 -1534 175 124 91
-177.323 -1031.92 -1539 176 127 92
-173.798 -1031.75 -1539 178 130 89
-170.496 -1032.91 -1541 181 134 92
-167.512 -1036.09 -1546 180 133 90
-164.825 -1041.29 -1554 179 131 90
-162.519 -1049.17 -1566 182 131 91
-160.971 -1062.4 -1586 182 133 92
-159.135 -1074.3 -1604 174 128 87
-156.927 -1084.19 -1619 148 112 85
-154.748 -1094.74 -1635 120 90 67
-151.665 -1099.28 -1642 96 72 51
-148.372 -1102.47 -1647 94 81 70
-250.499 -1064.18 -1574 138 106 83
-244.653 -1054.47 -1560 139 102 78
-240.11 -1050.16 -1554 144 101 70
-235.75 -1046.54 -1549 146 102 69
-231.715 -1044.28 -1546 148 103 68
-227.401 -1040.67 -1541 148 103 71
-223.403 -1038.42 -1538 149 103 71
-218.993 -1034.14 -1532 151 104 73
-215.316 -1033.25 -1531 155 108 77
-211.507 -1031.68 -1529 159 110 78
-207.846 -1030.8 -1528 159 110 79
-204.325 -1030.59 -1528 159 110 79
-200.807 -1030.38 -1528 161 111 81
-197.29 -1030.18 -1528 165 116 83
-194.029 -1031.33 -1530 169 120 87
-190.637 -1031.81 -1531 172 120 88
-187.486 -1033.64 -1534 172 123 88
-184.203 -1034.8 -1536 175 124 91
-180.443 -1033.27 -1534 178 126 93
-177.732 -1037.8 -1541 177 127 92
-174.538 -1039.65 -1544 179 131 91
-171.111 -1040.15 -1545 181 133 92
-168.115 -1043.34 -1550 181 133 90
-165.84 -1051.25 -1562 180 131 91
-163.513 -1059.16 -1574 182 132 92
-161.844 -1071.78 -1593 183 133 93
-160.188 -1085.07 -1613 180 134 93
-157.57 -1092.31 -1624 183 137 100
-155.092 -1100.9 -1637 178 139 105
-151.54 -1102.09 -1639 151 119 86
-147.98 -1103.28 -1641 114 97 75
-144.676 -1106.5 -1646 100 88 74
-266.105 -1102.67 -1623 141 117 101
-257.967 -1084.06 -1596 143 116 96
-251.391 -1071.58 -1578 142 109 87
-245.216 -1060.46 -1562 141 104 78
-240.663 -1056.14 -1556 144 102 73
-235.837 -1050.47 -1548 145 101 70
-232.4 -1050.91 -1549 147 101 65
-228.075 -1047.28 -1544 150 105 71
-224.212 -1045.69 -1542 151 106 74
-219.788 -1041.4 -1536 153 107 76
-216.379 -1041.85 -1537 156 109 78
-212.276 -1038.92 -1533 159 110 78
-208.738 -1038.71 -1533 162 113 81
-204.934 -1037.15 -1531 163 114 83
-201.405 -1036.94 -1531 165 113 83
-197.878 -1036.74 -1531 167 117 85
-194.226 -1035.86 -1530 170 121 88
-190.83 -1036.34 -1531 173 121 89
-187.553 -1037.5 -1533 174 124 89
-184.39 -1039.34 -1536 175 125 91
-180.743 -1038.48 -1535 179 127 95
-178.027 -1043.04 -1542 180 129 95
-174.827 -1044.89 -1545 181 131 94
-171.505 -1046.06 -1547 181 131 92
-168.284 -1047.92 -1550 184 133 91
-166.008 -1055.86 -1562 182 131 91
-163.99 -1065.84 -1577 184 133 93
-162.617 -1080.54 -1599 185 134 94
-160.549 -1091.19 -1615 185 139 98
-158.02 -1099.13 -1627 195 145 100
-155.344 -1106.4 -1638 189 143 98
-151.6 -1106.25 -1638 185 143 99
-147.768 -1105.42 -1637 171 142 102
-144.646 -1110 -1644 149 129 96
-140.979 -1110.53 -1645 124 107 79
-266.541 -1108.19 -1624 143 119 101
-258.878 -1091.55 -1600 143 114 94
-252.286 -1079.01 -1582 144 110 90
-245.938 -1067.16 -1565 147 110 83
-241.064 -1061.46 -1557 148 108 79
-236.231 -1055.76 -1549 148 106 75
-232.488 -1054.84 -1548 151 105 69
-228.308 -1051.87 -1544 151 106 72
-224.295 -1049.6 -1541 152 107 74
-220.298 -1047.33 -1538 153 108 76
-216.741 -1047.11 -1538 156 109 78
-212.769 -1044.84 -1535 160 111 78
-209.223 -1044.63 -1535 161 112 80
-205.679 -1044.42 -1535 163 114 83
-201.873 -1042.85 -1533 167 115 85
-198.467 -1043.32 -1534 167 117 85
-194.678 -1041.76 -1532 168 119 86
-191.398 -1042.93 -1534 172 120 88
-187.867 -1042.73 -1534 175 124 89
-184.457 -1043.22 -1535 174 123 89
-180.809 -1042.36 -1534 177 124 92
-178.092 -1046.93 -1541 178 126 94
-174.779 -1048.11 -1543 178 128 92
-171.68 -1050.65 -1547 179 130 91
-168.564 -1053.19 -1551 183 132 90
-166.496 -1062.53 -1565 183 132 92
-164.261 -1071.18 -1578 184 133 93
-163.088 -1087.31 -1602 187 136 96
-161.01 -1098 -1618 190 144 103
-158.278 -1104.63 -1628 198 148 104
-155.406 -1110.57 -1637 196 147 102
-151.661 -1110.42 -1637 194 146 101
-147.828 -1109.59 -1636 190 148 102
-144.617 -1113.51 -1642 181 147 103
-141.036 -1114.72 -1644 171 141 100
-137.282 -1114.58 -1644 168 139 107
-266.816 -1113.05 -1624 152 128 112
-259.468 -1097.71 -1602 145 115 95
-253.184 -1086.48 -1586 145 112 92
-246.82 -1074.58 -1569 151 114 86
-241.157 -1065.42 -1556 152 112 83
-236.473 -1060.38 -1549 152 110 80
-232.726 -1059.46 -1548 156 110 74
-228.395 -1055.8 -1543 153 108 74
-224.38 -1053.51 -1540 152 107 74
-220.811 -1053.29 -1540 152 107 75
-217.104 -1052.38 -1539 155 108 77
-213.265 -1050.79 -1537 159 111 78
-209.983 -1051.94 -1539 160 111 79
-206.426 -1051.72 -1539 162 113 82
-202.475 -1049.46 -1536 164 113 83
-198.93 -1049.26 -1536 163 113 81
-195.131 -1047.69 -1534 163 114 81
-191.344 -1046.13 -1532 168 116 84
-187.813 -1045.93 -1532 171 119 86
-184.525 -1047.11 -1534 171 119 87
-180.876 -1046.24 -1533 173 121 90
-178.158 -1050.83 -1540 176 124 91
-175.07 -1053.38 -1544 177 127 91
-171.744 -1054.57 -1546 179 129 91
-168.627 -1057.12 -1550 183 132 91
-166.346 -1065.13 -1562 182 134 93
-164.324 -1075.19 -1577 184 135 94
-162.948 -1090.02 -1599 185 134 94
-160.975 -1101.44 -1616 196 147 106
-158.342 -1108.78 -1627 204 152 115
-155.375 -1114.07 -1635 200 149 112
-151.723 -1114.59 -1636 193 145 106
-147.978 -1114.44 -1636 192 146 102
-144.764 -1118.38 -1642 189 144 101
-141.18 -1119.59 -1644 190 145 102
-137.505 -1120.13 -1645 192 147 108
-278.397 -1133.64 -1646 74 74 73
-272.717 -1125.78 -1635 95 85 80
-266.105 -1113.8 -1618 151 129 113
-259.575 -1101.82 -1601 150 122 100
-253.606 -1091.92 -1587 144 114 93
-247.39 -1080.66 -1571 151 115 88
-241.872 -1072.15 -1559 151 112 81
-236.87 -1065.71 -1550 151 109 75
-233.418 -1066.16 -1551 155 110 74
-229.223 -1063.17 -1547 153 110 76
-225.486 -1062.25 -1546 151 107 75
-221.9 -1062.02 -1546 152 106 77
-217.893 -1059.73 -1543 156 109 78
-213.901 -1057.45 -1540 159 111 79
-210.336 -1057.23 -1540 161 111 79
-206.504 -1055.64 -1538 162 112 82
-202.552 -1053.37 -1535 162 113 82
-199.134 -1053.85 -1536 163 112 81
-195.205 -1051.59 -1533 163 112 80
-191.416 -1050.01 -1531 166 114 82
-188.006 -1050.5 -1532 167 115 85
-184.835 -1052.37 -1535 167 115 84
-181.062 -1050.81 -1533 171 119 87
-178.11 -1054.05 -1538 175 124 89
-175.137 -1057.3 -1543 176 125 88
-171.92 -1059.17 -1546 180 129 91
-168.8 -1061.74 -1550 184 132 92
-166.517 -1069.79 -1562 182 134 93
-164.388 -1079.2 -1576 184 135 94
-162.503 -1090.68 -1593 185 134 94
-160.641 -1102.83 -1611 201 150 110
-158.017 -1110.2 -1622 203 156 114
-155.153 -1116.2 -1631 198 152 108
-151.507 -1116.73 -1632 193 148 100
-148.13 -1119.31 -1636 191 147 101
-145 -1123.95 -1643 193 147 103
-141.325 -1124.48 -1644 195 149 106
-137.562 -1124.34 -1644 199 153 112
-277.84 -1135.14 -1641 76 74 74
-272.333 -1127.94 -1631 106 90 82
-265.888 -1116.59 -1615 156 129 114
-259.682 -1105.95 -1600 155 119 97
-253.229 -1093.93 -1583 140 110 89
-246.859 -1081.93 -1566 148 112 85
-241.812 -1075.46 -1557 150 112 82
-236.963 -1069.68 -1549 151 110 76
-233.359 -1069.44 -1549 154 109 73
-229.164 -1066.44 -1545 152 109 74
-225.574 -1066.2 -1545 152 108 75
-222.13 -1066.66 -1546 156 109 79
-218.26 -1065.05 -1544 159 112 81
-214.262 -1062.75 -1541 162 114 81
-210.827 -1063.22 -1542 163 114 81
-206.987 -1061.63 -1540 166 114 84
-202.893 -1058.66 -1536 165 113 81
-199.47 -1059.14 -1537 164 112 80
-195.534 -1056.87 -1534 164 112 80
-191.739 -1055.29 -1532 165 113 81
-188.201 -1055.09 -1532 167 114 84
-184.785 -1055.59 -1533 168 115 85
-181.249 -1055.4 -1533 170 118 86
-178.409 -1059.34 -1539 172 121 86
-175.431 -1062.6 -1544 176 125 88
-172.431 -1065.86 -1549 180 129 91
-169.192 -1067.75 -1552 183 131 91
-166.582 -1073.77 -1561 182 132 92
-164.14 -1081.16 -1572 183 133 93
-161.956 -1090.62 -1586 187 136 96
-159.809 -1100.77 -1601 203 152 112
-157.497 -1110.23 -1615 205 158 117
-154.837 -1117.63 -1626 200 155 112
-151.384 -1119.54 -1629 196 152 104
-148.101 -1122.82 -1634 196 151 103
-144.885 -1126.79 -1640 200 154 109
-141.126 -1126.64 -1640 204 156 113
-137.201 -1125.12 -1638 202 156 113
-133.938 -1129.11 -1644 207 159 114
-130.254 -1129.66 -1645 207 159 115
-126.643 -1130.9 -1647 205 157 114
-282.835 -1143.87 -1646 83 74 76
-276.267 -1132.46 -1630 80 76 77
-270.946 -1125.92 -1621 123 100 86
-265.341 -1118 -1610 166 133 115
-259.303 -1108 -1596 165 121 99
-252.853 -1095.93 -1579 146 114 88
-247.116 -1086.65 -1566 150 114 85
-242.22 -1080.84 -1558 152 114 83
-237.67 -1076.43 -1552 153 112 79
-233.904 -1075.49 -1551 152 108 72
-229.7 -1072.48 -1547 151 108 73
-226.101 -1072.24 -1547 154 110 76
-222.649 -1072.7 -1548 158 111 80
-218.204 -1068.31 -1542 160 113 80
-214.485 -1067.39 -1541 164 116 83
-211.183 -1068.55 -1543 167 118 85
-207.336 -1066.95 -1541 169 117 87
-203.237 -1063.97 -1537 168 116 84
-200.197 -1066.53 -1541 166 114 82
-196.12 -1063.55 -1537 165 113 81
-192.063 -1060.58 -1533 165 113 81
-188.519 -1060.38 -1533 167 115 84
-185.218 -1061.57 -1535 170 117 86
-181.673 -1061.38 -1535 172 119 87
-178.943 -1066.03 -1542 175 123 89
-176.068 -1070 -1548 178 127 91
-172.944 -1072.58 -1552 181 130 92
-169.695 -1074.48 -1555 184 132 92
-166.968 -1079.83 -1563 184 132 92
-164.101 -1084.49 -1570 183 132 92
-161.51 -1091.23 -1580 187 136 96
-159.175 -1100.04 -1593 202 151 111
-156.879 -1109.55 -1607 204 156 115
-154.33 -1117.67 -1619 201 155 113
-151.262 -1122.34 -1626 200 155 107
-147.982 -1125.64 -1631 201 156 108
-144.769 -1129.63 -1637 207 161 115
-141.185 -1130.86 -1639 209 161 118
-137.091 -1127.96 -1635 209 161 118
-133.506 -1129.19 -1637 210 162 118
-130.071 -1131.82 -1641 213 165 121
-126.389 -1132.37 -1642 212 164 121
-122.927 -1135 -1646 211 163 120
-287.17 -1149.86 -1647 79 72 72
-281.928 -1143.97 -1639 78 70 72
-275.878 -1134.61 -1626 88 82 83
-270.562 -1128.04 -1617 141 116 102
-265.29 -1121.48 -1608 174 140 121
-259.088 -1110.74 -1593 172 126 102
-252.958 -1100.02 -1578 153 116 89
-247.375 -1091.39 -1566 155 117 87
-242.474 -1085.56 -1558 155 116 85
-237.919 -1081.12 -1552 153 112 79
-233.998 -1079.48 -1550 151 108 74
-229.792 -1076.45 -1546 152 108 74
-226.338 -1076.91 -1547 155 110 76
-222.738 -1076.68 -1547 161 114 83
-218.432 -1072.96 -1542 164 117 84
-214.848 -1072.74 -1542 165 118 84
-211.404 -1073.21 -1543 168 119 84
-207.553 -1071.6 -1541 170 118 86
-203.581 -1069.3 -1538 170 118 86
-200.406 -1071.17 -1541 169 117 85
-196.58 -1069.57 -1539 167 115 83
-192.64 -1067.29 -1536 168 115 83
-188.962 -1066.39 -1535 169 116 84
-185.532 -1066.89 -1536 172 119 87
-182.218 -1068.09 -1538 174 121 89
-179.362 -1072.06 -1544 180 127 93
-176.593 -1076.74 -1551 182 130 94
-173.571 -1080.03 -1556 183 132 93
-170.309 -1081.93 -1559 185 133 93
-166.928 -1083.14 -1561 184 133 93
-163.644 -1085.05 -1564 184 133 93
-160.757 -1089.74 -1571 188 137 97
-158.44 -1098.59 -1584 200 149 109
-156.163 -1108.13 -1598 202 154 113
-153.727 -1116.99 -1611 200 154 112
-150.954 -1123.76 -1621 202 157 109
-147.863 -1128.46 -1628 205 160 113
-144.477 -1131.08 -1632 207 162 116
-141.073 -1133.7 -1636 210 164 121
-137.233 -1132.86 -1635 212 164 123
-133.726 -1134.8 -1638 214 166 123
-130.127 -1136.05 -1640 214 166 123
-126.443 -1136.61 -1641 214 166 123
-122.905 -1138.56 -1644 213 165 122
-287.474 -1154.87 -1647 78 73 73
-282.054 -1148.26 -1638 76 73 74
-276.17 -1139.55 -1626 91 84 79
-270.512 -1131.55 -1615 151 128 111
-265.57 -1126.36 -1608 175 143 121
-259.85 -1117.68 -1596 175 132 106
-253.867 -1107.61 -1582 158 118 87
-248.111 -1098.24 -1569 158 118 87
-243.353 -1093.08 -1562 155 116 85
-238.476 -1087.23 -1554 154 113 80
-234.395 -1084.88 -1551 154 112 77
-230.182 -1081.84 -1547 155 111 76
-226.576 -1081.6 -1547 157 112 77
-222.828 -1080.66 -1546 163 116 83
-218.662 -1077.63 -1542 168 121 85
-215.214 -1078.1 -1543 170 122 87
-211.763 -1078.58 -1544 171 122 87
-207.771 -1076.26 -1541 173 121 89
-204.06 -1075.35 -1540 172 120 88
-200.877 -1077.23 -1543 171 118 86
-197.042 -1075.62 -1541 170 117 85
-192.968 -1072.63 -1537 171 118 86
-189.407 -1072.42 -1537 172 119 87
-185.969 -1072.93 -1538 174 120 88
-182.409 -1072.73 -1538 175 122 90
-179.549 -1076.73 -1544 180 127 94
-176.778 -1081.42 -1551 183 130 94
-173.641 -1084.03 -1555 185 133 93
-170.268 -1085.24 -1557 188 136 96
-167.102 -1087.85 -1561 187 136 96
-163.501 -1087.68 -1561 188 137 97
-160.208 -1089.6 -1564 190 138 98
-157.504 -1095.7 -1573 195 144 104
-155.25 -1105.29 -1587 199 150 109
-152.837 -1114.18 -1600 199 153 110
-150.459 -1123.77 -1614 204 158 113
-147.472 -1129.18 -1622 207 161 116
-144.184 -1132.51 -1627 208 162 118
-140.703 -1134.45 -1630 208 161 118
-137.041 -1135 -1631 212 164 122
-133.457 -1136.25 -1633 214 166 123
-130.024 -1138.9 -1637 214 166 123
-126.498 -1140.85 -1640 214 166 123
-123.108 -1144.2 -1645 215 167 124
-287.779 -1159.89 -1647 74 70 69
-282.353 -1153.25 -1638 71 71 71
-276.633 -1145.21 -1627 114 97 89
-271.135 -1137.88 -1617 165 138 122
-266.017 -1131.97 -1609 175 140 118
-260.288 -1123.25 -1597 176 134 106
-253.975 -1111.72 -1581 164 123 89
-248.057 -1101.61 -1567 163 121 88
-243.142 -1095.73 -1559 160 118 86
-238.421 -1090.55 -1552 156 115 83
-234.341 -1088.19 -1549 156 114 78
-230.426 -1086.54 -1547 158 115 78
-226.669 -1085.6 -1546 162 117 81
-222.775 -1083.96 -1544 168 121 87
-218.751 -1081.62 -1541 172 124 88
-215.162 -1081.39 -1541 173 124 87
-211.438 -1080.46 -1540 174 123 88
-207.855 -1080.24 -1540 175 122 90
-204.275 -1080.02 -1540 176 123 91
-201.088 -1081.91 -1543 176 123 91
-197.378 -1081 -1542 173 120 88
-193.422 -1078.69 -1539 172 119 86
-189.606 -1077.08 -1537 173 119 87
-186.043 -1076.88 -1537 177 122 90
-182.483 -1076.69 -1537 178 124 92
-179.389 -1079.3 -1541 179 126 93
-176.508 -1083.32 -1547 182 130 94
-173.376 -1085.93 -1551 186 134 94
-170.119 -1087.85 -1554 186 135 95
-166.635 -1088.37 -1555 185 134 94
-162.939 -1087.5 -1554 187 136 96
-160.069 -1092.23 -1561 192 140 100
-157.069 -1096.26 -1567 195 144 104
-154.629 -1104.49 -1579 196 148 106
-152.519 -1115.52 -1595 198 152 107
-150.243 -1125.85 -1610 203 157 112
-147.172 -1130.59 -1617 210 162 118
-143.892 -1133.93 -1622 210 162 119
-140.591 -1137.28 -1627 208 160 117
-137.1 -1139.23 -1630 211 162 119
-133.433 -1139.78 -1631 212 164 120
-130.081 -1143.14 -1636 213 165 120
-126.63 -1145.8 -1640 214 166 123
-123.012 -1147.06 -1642 216 168 125
-119.387 -1148.33 -1644 218 168 126
-115.823 -1150.31 -1647 220 169 127
-286.687 -1159.28 -1639 75 69 68
-281.792 -1154.73 -1633 90 84 85
-276.077 -1146.65 -1622 151 126 110
-271.088 -1141.41 -1615 169 138 119
-265.97 -1135.47 -1607 178 139 118
-260.076 -1126.01 -1594 175 132 104
-254.085 -1115.84 -1580 170 127 92
-248.638 -1107.81 -1569 169 125 90
-243.557 -1101.19 -1560 165 122 89
-238.983 -1096.7 -1554 158 119 88
-235.045 -1095.04 -1552 158 118 83
-231.118 -1093.38 -1550 161 120 83
-227.204 -1091.72 -1548 166 121 85
-223.012 -1088.66 -1544 170 124 88
-219.125 -1087.02 -1542 172 124 88
-215.53 -1086.78 -1542 174 125 88
-211.662 -1085.15 -1540 176 125 90
-208.211 -1085.63 -1541 178 125 93
-204.625 -1085.41 -1541 176 123 91
-201.041 -1085.19 -1541 174 121 89
-197.331 -1084.28 -1540 173 120 88
-193.376 -1081.96 -1537 173 119 86
-189.684 -1081.05 -1536 173 119 85
-186.119 -1080.85 -1536 177 122 88
-182.676 -1081.36 -1537 179 124 92
-179.463 -1083.28 -1540 179 125 92
-176.466 -1086.61 -1545 181 129 94
-173.224 -1088.53 -1548 184 132 92
-169.861 -1089.76 -1550 184 133 93
-166.382 -1090.28 -1551 187 136 96
-162.796 -1090.11 -1551 191 140 100
-159.93 -1094.85 -1558 197 145 105
-156.632 -1096.8 -1561 199 147 107
-154.008 -1103.66 -1571 198 149 108
-151.531 -1111.92 -1583 198 154 110
-149.374 -1123 -1599 204 158 112
-146.416 -1128.47 -1607 209 161 116
-143.334 -1133.23 -1614 209 162 117
-140.22 -1137.99 -1621 209 161 118
-137.076 -1142.76 -1628 213 162 121
-133.492 -1144.02 -1630 212 163 120
-129.979 -1145.99 -1633 213 165 120
-126.532 -1148.66 -1637 213 165 122
-122.917 -1149.93 -1639 214 166 123
-119.076 -1149.1 -1638 216 167 124
-115.593 -1151.78 -1642 216 168 125
-112.161 -1155.17 -1647 217 168 123
-287.17 -1165.02 -1640 76 70 69
-281.576 -1157.61 -1630 110 97 96
-276.033 -1150.21 -1620 154 122 105
-271.379 -1146.37 -1615 168 131 111
-265.924 -1138.98 -1605 180 137 119
-259.865 -1128.77 -1591 176 133 105
-253.874 -1118.56 -1577 174 129 94
-248.428 -1110.49 -1566 173 128 92
-243.505 -1104.55 -1558 171 128 94
-238.776 -1099.33 -1551 166 125 94
-234.992 -1098.37 -1550 163 121 87
-231.067 -1096.7 -1548 163 120 85
-227.005 -1094.33 -1545 167 123 87
-222.816 -1091.26 -1541 170 124 88
-219.217 -1091.02 -1541 171 125 87
-215.62 -1090.79 -1541 172 124 85
-211.888 -1089.85 -1540 176 125 89
-208.163 -1088.92 -1539 178 125 93
-204.577 -1088.7 -1539 175 122 90
-201.255 -1089.9 -1541 172 120 87
-197.541 -1088.98 -1540 173 120 88
-193.582 -1086.65 -1537 173 118 86
-189.762 -1085.03 -1535 174 119 87
-186.196 -1084.83 -1535 175 121 87
-182.87 -1086.04 -1537 176 121 89
-179.537 -1087.26 -1539 177 123 90
-176.425 -1089.9 -1543 180 126 92
-173.072 -1091.13 -1545 184 132 92
-169.712 -1092.36 -1547 188 136 96
-166.452 -1094.3 -1550 192 141 101
-162.759 -1093.42 -1549 198 146 106
-159.689 -1096.77 -1554 203 149 109
-156.397 -1098.72 -1557 203 151 112
-153.387 -1102.79 -1563 200 150 110
-150.447 -1107.57 -1570 199 153 110
-148.036 -1116.58 -1583 206 158 112
-145.112 -1122.07 -1591 210 163 119
-142.241 -1128.26 -1600 210 163 120
-139.416 -1135.16 -1610 210 164 122
-136.8 -1144.18 -1623 213 162 120
-133.388 -1146.86 -1627 213 164 122
-130.037 -1150.24 -1632 213 165 122
-126.743 -1154.33 -1638 212 165 121
-123.047 -1154.91 -1639 212 163 120
-119.202 -1154.07 -1638 211 163 119
-115.716 -1156.77 -1642 208 161 115
-112.212 -1159.46 -1646 208 160 114
-104.707 -1159.94 -1647 208 161 118
-100.923 -1159.83 -1647 205 159 121
-97.139 -1159.72 -1647 212 161 122
-93.3563 -1159.62 -1647 212 164 125
-291.531 -1171.1 -1641 71 71 69
-286.428 -1165.79 -1634 80 72 67
-280.842 -1158.35 -1624 153 119 105
-275.648 -1152.35 -1616 168 130 114
-270.999 -1148.49 -1611 169 130 112
-265.381 -1140.35 -1600 176 136 115
-259.49 -1130.81 -1587 175 132 105
-253.825 -1121.98 -1575 174 129 98
-248.854 -1116.01 -1567 176 129 96
-244.08 -1110.76 -1560 173 129 96
-239.65 -1106.94 -1555 173 129 97
-235.549 -1104.55 -1552 173 128 94
-231.464 -1102.16 -1549 172 128 92
-227.249 -1099.07 -1545 171 128 94
-223.055 -1095.98 -1541 174 128 92
-219.31 -1095.03 -1540 174 128 90
-215.711 -1094.8 -1540 173 127 86
-212.115 -1094.57 -1540 177 126 90
-208.656 -1095.06 -1541 176 124 91
-204.929 -1094.12 -1540 174 121 89
-201.209 -1093.19 -1539 171 120 85
-197.496 -1092.27 -1538 173 118 86
-193.537 -1089.93 -1535 172 117 87
-189.965 -1089.72 -1535 171 115 86
-186.152 -1088.1 -1533 170 117 83
-182.708 -1088.62 -1534 172 119 86
-179.262 -1089.13 -1535 176 122 88
-175.927 -1090.36 -1537 182 127 93
-172.808 -1093.01 -1541 187 135 95
-169.454 -1094.25 -1543 193 140 100
-166.199 -1096.19 -1546 198 144 105
-162.512 -1095.31 -1545 203 148 109
-159.448 -1098.68 -1550 209 153 114
-156.061 -1099.93 -1552 207 154 114
-152.961 -1103.31 -1557 203 152 110
-149.648 -1105.27 -1560 198 152 109
-146.884 -1111.49 -1569 203 157 112
-143.988 -1117 -1577 208 162 120
-140.969 -1121.81 -1584 210 164 125
-138.525 -1131.57 -1598 209 163 124
-136.018 -1141.34 -1612 214 163 119
-132.709 -1144.73 -1617 212 163 119
-129.538 -1149.55 -1624 212 164 122
-126.336 -1154.37 -1631 208 162 119
-122.652 -1154.94 -1632 207 160 118
-118.892 -1154.81 -1632 206 158 115
-115.557 -1158.93 -1638 206 157 112
-112.126 -1162.35 -1643 201 154 110
-108.476 -1163.65 -1645 199 153 111
-104.755 -1164.24 -1646 196 150 110
-100.846 -1162.72 -1644 198 153 117
-97.0059 -1161.91 -1643 209 158 121
-93.2852 -1162.51 -1644 207 159 120
-89.5065 -1162.41 -1644 206 160 121
-85.8328 -1163.73 -1646 206 161 122
-291.67 -1175.46 -1640 71 69 68
-286.037 -1167.98 -1630 99 83 81
-280.454 -1160.5 -1620 174 132 120
-275.263 -1154.47 -1612 182 138 124
-270.787 -1151.31 -1608 185 140 124
-264.838 -1141.71 -1595 179 136 116
-258.953 -1132.12 -1582 175 133 107
-253.293 -1123.26 -1570 177 133 104
-248.646 -1118.7 -1564 180 133 100
-244.031 -1114.14 -1558 177 132 100
-239.908 -1111.73 -1555 173 130 98
-236.107 -1110.76 -1554 173 130 97
-231.564 -1106.22 -1548 173 130 95
-227.347 -1103.11 -1544 174 131 97
-223.006 -1099.3 -1539 175 131 96
-219.119 -1097.63 -1537 176 131 94
-215.383 -1096.68 -1536 176 129 88
-211.654 -1095.74 -1535 176 125 90
-208.339 -1096.94 -1537 174 122 89
-204.75 -1096.71 -1537 173 120 88
-201.033 -1095.78 -1536 172 119 85
-197.322 -1094.85 -1535 171 116 84
-193.745 -1094.64 -1535 171 115 85
-190.045 -1093.72 -1534 171 115 86
-186.352 -1092.81 -1533 172 118 86
-182.905 -1093.32 -1534 173 120 88
-179.337 -1093.12 -1534 177 123 90
-176.001 -1094.36 -1536 182 127 93
-172.769 -1096.31 -1539 187 133 94
-169.526 -1098.26 -1542 195 141 102
-166.378 -1100.93 -1546 200 145 107
-163.002 -1102.18 -1548 203 148 109
-159.825 -1104.85 -1552 209 153 114
-156.329 -1105.39 -1553 207 154 113
-153.027 -1107.36 -1556 201 150 108
-149.712 -1109.33 -1559 197 150 107
-146.572 -1112.73 -1564 198 152 107
-143.411 -1116.13 -1569 201 156 114
-140.318 -1120.25 -1575 202 157 118
-137.805 -1129.35 -1588 202 153 115
-135.234 -1138.44 -1601 201 153 112
-132.029 -1142.57 -1607 199 151 111
-128.718 -1145.98 -1612 198 149 111
-125.618 -1151.53 -1620 198 147 112
-121.956 -1152.11 -1621 199 147 114
-118.363 -1153.4 -1623 198 147 114
-115.044 -1157.54 -1629 195 147 114
-111.768 -1162.39 -1636 194 148 113
-108.196 -1164.41 -1639 189 144 108
-104.676 -1167.14 -1643 180 135 100
-100.892 -1167.03 -1643 187 143 111
-97.0505 -1166.21 -1642 196 149 111
-93.4417 -1168.24 -1645 193 147 109
-89.5475 -1166.72 -1643 192 147 109
-85.8722 -1168.05 -1645 199 153 115
-290.207 -1173.34 -1630 71 67 68
-284.767 -1166.55 -1621 113 90 89
-279.2 -1159.05 -1611 182 134 123
-273.683 -1151.55 -1601 191 142 130
-269.396 -1149.1 -1598 194 145 131
-263.796 -1140.9 -1587 187 142 122
-258.087 -1131.99 -1575 177 134 109
-253.245 -1126.68 -1568 177 133 105
-248.916 -1123.53 -1564 182 135 104
-244.296 -1118.95 -1558 179 135 103
-240.014 -1115.82 -1554 177 133 101
-235.907 -1113.41 -1551 178 134 101
-231.516 -1109.56 -1546 179 135 101
-227.151 -1105.72 -1541 178 135 103
-222.958 -1102.61 -1537 179 134 99
-219.071 -1100.94 -1535 178 132 95
-215.195 -1099.27 -1533 177 129 87
-211.607 -1099.03 -1533 176 125 90
-208.022 -1098.81 -1533 174 122 89
-204.439 -1098.58 -1533 173 120 88
-200.726 -1097.65 -1532 171 118 84
-197.15 -1097.43 -1532 170 115 83
-193.575 -1097.22 -1532 172 116 85
-189.879 -1096.3 -1531 175 118 89
-186.554 -1097.52 -1533 175 120 88
-183.102 -1098.04 -1534 176 122 90
-179.765 -1099.27 -1536 179 125 92
-176.42 -1100.51 -1538 183 128 95
-173.181 -1102.47 -1541 189 134 96
-169.819 -1103.72 -1543 198 144 106
-166.557 -1105.68 -1546 203 148 110
-162.862 -1104.79 -1545 207 152 113
-159.688 -1107.47 -1549 211 155 116
-156.195 -1108.02 -1550 209 155 115
-152.798 -1109.28 -1552 202 149 108
-149.2 -1109.12 -1552 199 150 106
-146.074 -1112.53 -1557 200 153 107
-142.925 -1115.95 -1562 196 149 106
-139.399 -1116.51 -1563 192 146 106
-136.911 -1125.65 -1576 192 143 105
-134.196 -1133.36 -1587 187 139 104
-130.938 -1136.78 -1592 185 136 102
-127.578 -1139.5 -1596 184 134 102
-124.589 -1145.79 -1605 184 131 104
-120.957 -1146.37 -1606 184 129 104
-117.395 -1147.67 -1608 184 131 106
-114.32 -1153.97 -1617 184 137 110
-111.409 -1162.41 -1629 183 139 110
-107.982 -1165.86 -1634 178 136 105
-104.533 -1169.31 -1639 178 136 105
-100.877 -1170.63 -1641 184 143 113
-97.1546 -1171.24 -1642 189 146 109
-93.2576 -1169.71 -1640 190 146 110
-89.4799 -1169.61 -1640 193 148 112
-85.7031 -1169.51 -1640 195 149 115
-82.1769 -1172.99 -1645 193 146 113
-78.3904 -1172.9 -1645 194 146 114
-290.525 -1178.41 -1630 72 66 67
-284.2 -1167.98 -1616 118 88 89
-278.638 -1160.44 -1606 178 132 124
-273.298 -1153.64 -1597 187 137 127
-268.34 -1148.29 -1590 192 141 129
-262.92 -1140.77 -1580 184 139 119
-257.713 -1133.99 -1571 178 135 110
-253.037 -1129.38 -1565 181 137 111
-248.87 -1126.94 -1562 185 139 110
-244.719 -1124.51 -1559 182 139 107
-240.276 -1120.64 -1554 182 138 106
-235.859 -1116.77 -1549 183 138 106
-231.469 -1112.91 -1544 184 140 107
-226.956 -1108.34 -1538 184 140 107
-222.62 -1104.49 -1533 182 136 102
-218.881 -1103.53 -1532 180 133 99
-215.008 -1101.85 -1530 179 131 91
-211.147 -1100.18 -1528 178 127 92
-207.977 -1102.11 -1531 178 126 92
-204.127 -1100.44 -1529 175 122 90
-200.813 -1101.66 -1531 173 120 87
-197.235 -1101.44 -1531 175 119 89
-193.785 -1101.95 -1532 173 117 87
-190.085 -1101.02 -1531 175 118 89
-186.634 -1101.54 -1532 175 119 89
-182.942 -1100.62 -1531 176 120 89
-179.843 -1103.3 -1535 179 124 92
-176.382 -1103.82 -1536 184 129 97
-173.143 -1105.79 -1539 191 136 100
-170.003 -1108.47 -1543 197 142 105
-166.63 -1109.73 -1545 203 149 110
-163.144 -1110.27 -1546 208 153 114
-159.758 -1111.53 -1548 210 154 115
-156.364 -1112.79 -1550 206 151 112
-152.865 -1113.34 -1551 200 145 106
-149.169 -1112.46 -1550 200 151 106
-145.856 -1114.45 -1553 203 154 107
-142.53 -1116.45 -1556 198 149 104
-138.924 -1116.3 -1556 188 139 99
-136.016 -1121.89 -1564 170 121 83
-132.986 -1126.76 -1571 160 109 78
-129.679 -1129.49 -1575 163 112 83
-126.275 -1131.5 -1578 164 114 87
-123.247 -1137.1 -1586 165 113 88
-119.504 -1136.25 -1585 168 115 93
-116.133 -1138.99 -1589 180 127 104
-113.028 -1144.6 -1597 185 135 107
-110.092 -1152.37 -1608 183 137 110
-106.842 -1157.27 -1615 177 133 104
-103.88 -1165.75 -1627 173 130 99
-100.432 -1169.22 -1632 172 129 98
-96.9633 -1172.7 -1637 178 127 99
-93.472 -1176.18 -1642 180 129 102
-89.7402 -1176.79 -1643 183 131 105
-86.1093 -1178.85 -1646 180 129 104
-290.845 -1183.5 -1630 69 64 65
-284.337 -1172.29 -1615 118 86 87
-278.597 -1164 -1604 175 131 124
-273.256 -1157.17 -1595 184 135 125
-267.622 -1148.89 -1584 183 133 121
-262.542 -1142.79 -1576 175 132 112
-257.832 -1138.16 -1570 178 135 111
-253.315 -1134.25 -1565 182 138 112
-248.983 -1131.08 -1561 188 142 114
-244.988 -1129.36 -1559 187 144 112
-240.54 -1125.47 -1554 184 140 108
-236.118 -1121.59 -1549 180 135 103
-231.572 -1116.98 -1543 181 138 106
-226.909 -1111.67 -1536 187 143 109
-222.718 -1108.52 -1532 186 141 108
-218.977 -1107.56 -1531 185 138 106
-214.962 -1105.15 -1528 184 135 98
-211.101 -1103.47 -1526 185 133 98
-207.66 -1103.96 -1527 182 130 96
-204.216 -1104.46 -1528 180 127 95
-200.508 -1103.52 -1527 178 125 93
-196.935 -1103.3 -1527 177 122 92
-193.617 -1104.53 -1529 176 120 91
-189.919 -1103.6 -1528 175 118 89
-186.472 -1104.12 -1529 175 118 91
-183.262 -1106.08 -1532 176 120 91
-179.922 -1107.32 -1534 179 124 94
-176.804 -1110.02 -1538 184 129 97
-173.445 -1111.27 -1540 188 133 97
-169.967 -1111.8 -1541 196 141 104
-166.811 -1114.5 -1545 201 146 108
-163.216 -1114.32 -1545 204 149 111
-159.725 -1114.87 -1546 205 149 110
-156.231 -1115.42 -1547 204 149 110
-152.932 -1117.41 -1550 203 150 110
-149.332 -1117.25 -1550 203 155 110
-145.827 -1117.81 -1551 208 157 111
-142.502 -1119.81 -1554 207 156 112
-138.986 -1120.38 -1555 203 151 111
-135.641 -1122.39 -1558 184 134 96
-132.283 -1124.41 -1561 162 112 75
-128.831 -1125.7 -1563 153 102 67
-125.211 -1125.57 -1563 153 104 72
-121.825 -1127.59 -1566 150 102 75
-118.2 -1127.46 -1566 146 99 76
-114.723 -1128.78 -1568 148 100 81
-111.379 -1131.53 -1572 152 101 83
-108.566 -1140.05 -1584 155 106 92
-105.368 -1144.97 -1591 158 111 95
-102.458 -1153.49 -1603 162 116 98
-99.494 -1162.02 -1615 166 119 101
-96.3568 -1169.11 -1625 180 124 110
-92.7186 -1170.44 -1627 180 124 112
-89.4 -1176.1 -1635 180 125 113
-86.1503 -1183.2 -1645 174 123 111
-63.4271 -1183.43 -1646 48 33 31
-284.123 -1175.16 -1612 109 78 78
-278.21 -1166.1 -1600 163 123 118
-272.014 -1155.6 -1586 177 131 121
-266.564 -1148.01 -1576 177 130 117
-262.165 -1144.81 -1572 174 133 112
-257.788 -1141.61 -1568 178 136 113
-253.27 -1137.68 -1563 179 136 110
-249.258 -1135.95 -1561 187 141 115
-245.101 -1133.49 -1558 188 145 114
-240.805 -1130.32 -1554 185 141 110
-235.92 -1124.23 -1546 180 135 103
-231.527 -1120.34 -1541 180 137 106
-227.011 -1115.73 -1535 184 141 109
-222.963 -1113.3 -1532 186 141 109
-219.075 -1111.6 -1530 187 140 109
-215.339 -1110.64 -1529 188 139 102
-211.472 -1108.95 -1527 188 136 101
-207.616 -1107.26 -1525 186 133 100
-203.905 -1106.31 -1524 182 129 97
-200.333 -1106.09 -1524 178 125 93
-197.151 -1108.05 -1527 178 123 93
-193.703 -1108.56 -1528 179 123 94
-190.003 -1107.62 -1527 178 121 92
-186.921 -1110.32 -1531 178 121 95
-183.463 -1110.84 -1532 180 124 97
-180.354 -1113.54 -1536 181 125 97
-176.998 -1114.79 -1538 186 130 100
-173.86 -1117.5 -1542 190 133 98
-170.374 -1118.03 -1543 195 139 103
-166.886 -1118.57 -1544 200 145 108
-163.394 -1119.12 -1545 203 147 110
-159.9 -1119.66 -1546 201 145 106
-156.402 -1120.21 -1547 202 147 108
-152.902 -1120.77 -1548 205 153 113
-149.302 -1120.6 -1548 205 157 112
-145.704 -1120.44 -1548 210 159 112
-142.29 -1121.73 -1550 212 160 114
-138.601 -1120.85 -1549 209 157 116
-135.266 -1122.87 -1552 206 155 115
-131.749 -1123.45 -1553 201 150 110
-128.477 -1126.2 -1557 184 133 92
-124.626 -1123.89 -1554 160 111 74
-121.179 -1125.21 -1556 136 92 61
-117.422 -1123.63 -1554 122 82 55
-114.042 -1125.67 -1557 112 74 51
-110.436 -1125.55 -1557 113 74 67
-107.518 -1132.66 -1567 113 77 73
-104.356 -1137.6 -1574 117 82 79
-101.29 -1144 -1583 120 85 83
-98.2456 -1151.11 -1593 121 87 87
-95.3933 -1161.12 -1607 129 90 87
-91.9067 -1163.91 -1611 130 92 89
-88.6764 -1170.31 -1620 126 88 85
-85.7722 -1181.78 -1636 116 78 77
-82.2438 -1185.3 -1641 95 63 59
-78.6454 -1188.1 -1645 74 49 45
-74.7563 -1186.57 -1643 53 37 33
-70.9204 -1185.77 -1642 47 35 33
-67.0082 -1183.53 -1639 49 38 37
-62.9947 -1179.12 -1633 55 41 42
-59.3359 -1181.22 -1636 60 42 44
-55.7658 -1185.49 -1642 62 43 43
-52.0738 -1187.6 -1645 60 45 45
-283.556 -1176.56 -1607 94 70 68
-276.43 -1162.34 -1588 143 112 106
-270.771 -1153.99 -1577 163 124 113
-265.336 -1146.37 -1567 172 131 117
-261.287 -1144.62 -1565 177 137 117
-257.251 -1142.87 -1563 181 140 117
-253.389 -1141.85 -1562 185 140 115
-249.215 -1139.38 -1559 185 140 115
-245.215 -1137.64 -1557 184 140 111
-240.761 -1133.72 -1552 183 140 109
-235.723 -1126.88 -1543 179 134 102
-231.633 -1124.43 -1540 173 130 100
-227.115 -1119.8 -1534 180 136 104
-223.356 -1118.82 -1533 183 138 106
-219.46 -1117.11 -1531 184 137 105
-215.154 -1113.22 -1526 186 137 100
-211.289 -1111.53 -1524 186 135 101
-207.164 -1108.38 -1520 183 131 98
-203.595 -1108.15 -1520 180 127 95
-199.897 -1107.2 -1519 175 122 90
-196.593 -1108.44 -1521 175 121 90
-193.282 -1109.68 -1523 180 124 95
-190.213 -1112.38 -1527 181 124 95
-187.127 -1115.09 -1531 181 124 98
-183.905 -1117.07 -1534 184 128 101
-180.67 -1119.05 -1537 186 130 102
-177.539 -1121.77 -1541 189 133 104
-173.939 -1121.57 -1541 192 135 102
-170.451 -1122.11 -1542 195 139 103
-166.745 -1121.2 -1541 195 140 101
-163.256 -1121.74 -1542 198 143 104
-159.765 -1122.29 -1543 202 146 108
-156.271 -1122.84 -1544 207 151 112
-152.773 -1123.4 -1545 212 158 119
-149.176 -1123.23 -1545 215 164 120
-145.675 -1123.8 -1546 217 165 119
-142.171 -1124.37 -1547 215 163 116
-138.484 -1123.49 -1546 210 159 117
-134.978 -1124.06 -1547 209 158 118
-131.554 -1125.37 -1549 207 156 115
-128.205 -1127.41 -1552 205 155 113
-124.441 -1125.81 -1550 201 152 114
-121 -1127.13 -1552 188 147 110
-117.324 -1126.27 -1551 135 99 65
-113.874 -1127.6 -1553 71 40 8
-110.202 -1126.75 -1552 55 32 14
-106.949 -1130.26 -1557 45 28 15
-103.74 -1134.5 -1563 45 30 20
-100.633 -1140.19 -1571 42 29 22
-97.5506 -1146.62 -1580 41 26 22
-94.4875 -1153.77 -1590 39 29 24
-91.0365 -1156.57 -1594 43 31 27
-87.7321 -1161.55 -1601 44 30 28
-84.7115 -1170.89 -1614 51 31 34
-81.2299 -1174.42 -1619 50 33 35
-78.0614 -1183.04 -1631 50 36 37
-74.2914 -1182.96 -1631 51 40 39
-70.6088 -1184.33 -1633 56 43 42
-66.7948 -1183.53 -1632 62 46 46
-62.909 -1181.28 -1629 65 49 49
-59.1467 -1181.21 -1629 67 49 49
-55.7588 -1189.13 -1640 64 49 48
-52.1306 -1192.69 -1645 59 46 45
-282.99 -1177.95 -1602 77 63 61
-276.216 -1165.14 -1585 122 98 94
-271.417 -1160.42 -1579 159 122 112
-265.632 -1151.3 -1567 174 132 118
-261.579 -1149.54 -1565 182 139 121
-257.043 -1145.58 -1560 185 142 122
-252.697 -1142.35 -1556 187 143 120
-248.692 -1140.61 -1554 186 143 117
-244.857 -1139.6 -1553 185 142 113
-240.564 -1136.39 -1549 183 140 109
-236.139 -1132.46 -1544 177 132 98
-232.041 -1130 -1541 172 126 95
-227.515 -1125.34 -1535 173 126 95
-223.604 -1123.62 -1533 174 126 95
-219.704 -1121.91 -1531 175 126 96
-215.393 -1118.01 -1526 178 127 94
-211.385 -1115.57 -1523 178 127 96
-207.53 -1113.87 -1521 177 125 96
-204.223 -1115.11 -1523 177 124 89
-200.382 -1113.42 -1521 178 123 88
-197.07 -1114.66 -1523 179 123 89
-193.75 -1115.91 -1525 181 124 92
-190.299 -1116.43 -1526 184 125 96
-186.967 -1117.68 -1528 182 126 97
-183.748 -1119.67 -1531 184 128 99
-180.399 -1120.93 -1533 187 131 104
-177.043 -1122.19 -1535 188 132 105
-173.792 -1124.19 -1538 189 133 101
-170.197 -1124 -1538 189 133 99
-166.713 -1124.55 -1539 191 136 99
-163.331 -1125.82 -1541 199 144 107
-159.734 -1125.64 -1541 207 152 113
-156.342 -1126.93 -1543 211 157 117
-152.843 -1127.49 -1544 214 162 120
-149.341 -1128.05 -1545 219 165 121
-145.459 -1125.7 -1542 221 167 122
-142.052 -1127 -1544 219 165 119
-138.458 -1126.85 -1544 217 163 120
-134.778 -1125.96 -1543 217 162 121
-131.104 -1125.09 -1542 214 161 120
-127.85 -1127.86 -1546 210 158 116
-124.176 -1126.99 -1545 207 159 118
-120.899 -1129.78 -1549 206 154 112
-117.302 -1129.64 -1549 205 156 115
-113.779 -1130.25 -1550 191 145 106
-110.182 -1130.12 -1550 131 105 68
-106.792 -1132.19 -1553 75 55 30
-103.389 -1134.26 -1556 56 39 20
-100.102 -1137.79 -1561 45 33 22
-96.978 -1143.52 -1569 44 34 27
-93.7585 -1148.51 -1576 44 31 28
-90.3361 -1151.33 -1580 48 35 33
-86.7864 -1152.69 -1582 49 38 37
-83.5961 -1159.15 -1591 50 42 41
-80.2645 -1164.16 -1598 55 43 44
-76.7577 -1166.99 -1602 58 44 45
-73.1875 -1169.09 -1605 62 47 45
-69.6042 -1171.19 -1608 64 50 49
-65.762 -1168.93 -1605 64 51 50
-62.0503 -1168.86 -1605 65 51 50
-58.7027 -1176.08 -1615 64 51 48
-55.3095 -1183.3 -1625 63 52 49
-51.9024 -1191.25 -1636 62 52 49
-48.3862 -1197.75 -1645 63 53 50
-33.2038 -1198.3 -1646 70 60 60
-25.5224 -1194.59 -1641 69 61 61
-21.6664 -1190.93 -1636 72 66 67
-17.9648 -1196 -1643 75 71 72
4.78333 -1192.32 -1638 81 77 76
-283.485 -1183.75 -1603 71 61 61
-276.352 -1169.41 -1584 98 80 79
-271.722 -1165.41 -1579 160 124 113
-266.1 -1156.99 -1568 181 140 124
-261.705 -1153.74 -1564 187 144 127
-257.166 -1149.76 -1559 189 146 127
-252.817 -1146.52 -1555 190 147 126
-248.65 -1144.03 -1552 189 146 120
-244.5 -1141.54 -1549 185 142 114
-240.677 -1140.53 -1548 177 134 105
-236.403 -1137.32 -1544 172 127 93
-232.602 -1136.32 -1543 168 121 90
-228.511 -1133.85 -1540 166 118 87
-224.438 -1131.39 -1537 167 118 87
-220.093 -1127.46 -1532 168 118 92
-215.633 -1122.8 -1526 172 122 93
-211.76 -1121.09 -1524 175 125 96
-207.761 -1118.65 -1521 177 125 97
-204.316 -1119.16 -1522 178 125 91
-200.473 -1117.46 -1520 177 124 90
-197.548 -1120.91 -1525 178 124 91
-194.093 -1121.43 -1526 183 126 95
-190.636 -1121.95 -1527 184 127 98
-187.543 -1124.68 -1531 183 127 98
-184.553 -1128.14 -1536 183 127 99
-180.953 -1127.94 -1536 184 128 101
-177.471 -1128.47 -1537 185 129 102
-173.985 -1129.01 -1538 185 130 98
-170.386 -1128.82 -1538 188 133 98
-166.681 -1127.9 -1537 197 142 105
-163.3 -1129.18 -1539 206 151 114
-159.912 -1130.47 -1541 212 157 119
-156.414 -1131.03 -1542 216 161 122
-153.013 -1132.32 -1544 220 166 125
-149.41 -1132.15 -1544 224 168 127
-145.715 -1131.26 -1543 224 169 127
-142.117 -1131.1 -1543 222 168 124
-138.432 -1130.21 -1542 222 168 124
-134.84 -1130.05 -1542 221 167 123
-131.164 -1129.17 -1541 218 165 121
-127.826 -1131.23 -1544 216 164 120
-124.394 -1132.55 -1546 212 164 121
-120.799 -1132.42 -1546 212 160 116
-117.356 -1133.75 -1548 210 161 116
-113.758 -1133.62 -1548 204 158 114
-110.232 -1134.23 -1549 191 158 114
-106.772 -1135.57 -1551 181 153 111
-103.37 -1137.65 -1554 149 125 86
-99.8917 -1139.01 -1556 105 85 52
-96.5903 -1142.56 -1561 60 46 25
-92.9689 -1142.45 -1561 53 39 23
-89.4629 -1143.81 -1563 55 43 29
-85.8389 -1143.72 -1563 58 51 39
-82.5838 -1148.75 -1570 61 51 44
-79.1967 -1152.31 -1575 67 52 47
-75.9311 -1158.08 -1583 66 50 46
-72.5379 -1162.39 -1589 72 55 49
-68.9445 -1163.77 -1591 74 58 53
-65.1783 -1162.24 -1589 72 56 53
-61.6156 -1164.36 -1592 70 54 51
-58.2217 -1170.14 -1600 68 53 52
-54.8595 -1177.4 -1610 66 53 52
-51.515 -1186.11 -1622 66 54 53
-48.145 -1195.56 -1635 68 57 54
-44.5797 -1201.36 -1643 68 57 53
-40.8042 -1202.05 -1644 67 58 57
-36.9568 -1200.54 -1642 69 59 58
-33.099 -1198.31 -1639 72 62 62
-29.3448 -1199.74 -1641 69 61 59
-25.4571 -1195.32 -1635 70 62 62
-21.6239 -1192.37 -1631 74 67 67
-10.3123 -1192.32 -1631 80 74 73
4.76557 -1191.57 -1630 79 74 73
8.55431 -1194.5 -1634 80 76 75
12.3692 -1198.17 -1639 0 0 0
-287.092 -1186.93 -1600 60 60 60
-283.273 -1186.61 -1600 69 61 61
-276.664 -1174.43 -1584 81 66 65
-271.511 -1168.19 -1576 159 124 112
-266.06 -1160.47 -1566 187 147 130
-261.33 -1155.73 -1560 189 147 129
-257.126 -1153.21 -1557 191 147 129
-252.777 -1149.96 -1553 190 148 126
-248.77 -1148.2 -1551 193 150 124
-245.091 -1147.92 -1551 187 144 117
-241.415 -1147.65 -1551 176 133 105
-237.128 -1144.42 -1547 168 123 89
-233.316 -1143.41 -1546 161 114 83
-229.511 -1142.41 -1545 158 110 79
-225.421 -1139.94 -1542 157 108 77
-220.772 -1134.51 -1535 158 111 86
-216.017 -1128.36 -1527 162 115 90
-212.276 -1127.38 -1526 167 118 93
-207.858 -1122.71 -1520 174 122 96
-204.545 -1123.95 -1522 177 125 93
-200.962 -1123.73 -1522 179 127 95
-197.899 -1126.45 -1526 180 127 95
-194.565 -1127.71 -1528 182 126 97
-190.849 -1126.76 -1527 181 124 97
-187.875 -1130.23 -1532 181 125 96
-184.399 -1130.76 -1533 182 126 97
-180.566 -1129.08 -1531 181 125 98
-176.976 -1128.88 -1531 181 125 98
-173.614 -1130.16 -1533 187 132 101
-170.022 -1129.97 -1533 196 141 107
-166.433 -1129.78 -1533 201 146 109
-163.164 -1131.81 -1536 205 149 112
-159.778 -1133.1 -1538 209 153 115
-156.386 -1134.4 -1540 214 159 120
-152.687 -1133.49 -1539 218 163 122
-149.286 -1134.79 -1541 222 166 125
-145.688 -1134.63 -1541 222 167 124
-141.999 -1133.73 -1540 223 169 125
-138.316 -1132.84 -1539 225 170 127
-134.728 -1132.68 -1539 225 171 127
-131.225 -1133.27 -1540 225 172 129
-127.72 -1133.86 -1541 223 171 129
-124.372 -1135.93 -1544 220 172 129
-120.855 -1136.53 -1545 221 171 123
-117.562 -1139.34 -1549 217 169 119
-113.958 -1139.21 -1549 213 168 117
-110.498 -1140.55 -1551 206 167 117
-106.753 -1138.96 -1549 202 166 115
-103.352 -1141.05 -1552 199 165 115
-99.6814 -1140.2 -1551 188 157 111
-96.2021 -1141.56 -1553 169 143 103
-92.476 -1139.99 -1551 133 112 76
-89.0466 -1142.09 -1554 86 68 35
-85.3845 -1141.26 -1553 70 60 32
-81.9383 -1143.37 -1556 75 61 44
-78.5296 -1146.22 -1560 73 57 48
-75.1511 -1149.81 -1565 74 59 53
-71.7045 -1152.67 -1569 74 58 53
-68.2401 -1155.53 -1573 74 59 55
-64.4705 -1153.25 -1570 74 60 55
-60.9091 -1154.65 -1572 72 58 54
-57.412 -1157.52 -1576 70 55 53
-54.0674 -1164.07 -1585 70 57 52
-50.65 -1169.89 -1593 71 59 54
-47.5204 -1183.78 -1612 70 59 55
-44.0858 -1191.81 -1623 72 61 57
-40.4766 -1196.17 -1629 72 62 61
-36.7275 -1196.86 -1630 72 62 60
-32.9335 -1196.09 -1629 73 63 61
-29.1803 -1196.79 -1630 71 63 61
-25.3138 -1192.35 -1624 71 63 63
-21.5151 -1190.12 -1621 75 68 67
-17.7633 -1190.1 -1621 74 68 67
-14.0982 -1197.43 -1631 78 72 71
-10.2604 -1190.07 -1621 82 76 75
-6.5172 -1191.53 -1623 78 73 72
-2.76308 -1192.26 -1624 75 71 70
0.995036 -1192.26 -1624 76 72 71
4.74754 -1190.79 -1622 80 74 73
8.53776 -1195.94 -1629 79 73 72
12.3378 -1198.89 -1633 0 0 0
-286.879 -1189.79 -1597 62 60 61
-282 -1184.99 -1591 68 60 60
-275.403 -1172.76 -1575 89 73 72
-270.612 -1167.99 -1569 168 131 121
-266.021 -1163.96 -1564 187 147 131
-261.29 -1159.2 -1558 190 149 131
-256.921 -1155.93 -1554 193 150 130
-252.737 -1153.41 -1551 193 151 128
-249.211 -1153.86 -1552 190 147 121
-245.21 -1152.1 -1550 191 148 121
-241.376 -1151.08 -1549 181 138 109
-237.703 -1150.81 -1549 168 123 91
-233.882 -1149.8 -1548 156 111 79
-229.919 -1148.05 -1546 150 104 73
-225.675 -1144.82 -1542 153 104 75
-221.453 -1141.6 -1538 153 107 83
-216.685 -1135.41 -1530 156 110 86
-212.793 -1133.69 -1528 159 112 88
-208.64 -1130.48 -1524 166 116 92
-205.449 -1132.47 -1527 174 122 96
-201.849 -1132.24 -1527 177 125 98
-198.771 -1134.98 -1531 178 126 98
-195.167 -1134.76 -1531 177 121 94
-191.439 -1133.8 -1530 175 119 92
-187.841 -1133.59 -1530 174 118 91
-184.125 -1132.64 -1529 176 120 93
-180.415 -1131.69 -1528 183 127 100
-176.596 -1130.01 -1526 189 133 106
-173.469 -1132.77 -1530 194 138 109
-169.769 -1131.84 -1529 196 141 109
-166.076 -1130.91 -1528 201 146 109
-162.815 -1132.95 -1531 204 148 111
-159.646 -1135.73 -1535 204 148 110
-156.256 -1137.03 -1537 207 152 113
-152.859 -1138.33 -1539 211 156 115
-149.453 -1139.64 -1541 214 158 115
-145.567 -1137.26 -1538 216 161 117
-141.974 -1137.1 -1538 218 164 120
-138.381 -1136.94 -1538 222 166 125
-134.703 -1136.05 -1537 225 169 128
-131.287 -1137.38 -1539 227 172 131
-127.697 -1137.23 -1539 226 174 132
-124.269 -1138.57 -1541 228 177 135
-120.755 -1139.17 -1542 225 177 127
-117.466 -1141.99 -1546 224 178 125
-113.791 -1141.12 -1545 221 176 121
-110.407 -1143.21 -1548 220 175 124
-106.804 -1143.09 -1548 214 172 125
-103.335 -1144.45 -1550 212 170 125
-99.5355 -1142.12 -1547 210 170 126
-96.1236 -1144.23 -1550 203 168 117
-92.3406 -1141.91 -1547 195 164 116
-88.8019 -1142.54 -1548 189 161 115
-85.1496 -1141.71 -1547 155 132 92
-81.7136 -1143.83 -1550 104 87 61
-78.214 -1145.21 -1552 81 68 49
-74.8504 -1148.82 -1557 72 60 47
-71.3727 -1150.95 -1560 75 61 53
-67.8385 -1152.35 -1562 73 62 55
-64.1723 -1151.54 -1561 71 60 54
-60.7055 -1154.42 -1565 70 59 54
-57.2571 -1158.04 -1570 67 55 51
-53.957 -1165.35 -1580 73 57 50
-50.4518 -1168.98 -1585 73 58 52
-47.1602 -1178.52 -1598 73 59 55
-43.6727 -1184.36 -1606 73 62 58
-40.1237 -1189.48 -1613 73 62 61
-36.4525 -1191.65 -1616 73 63 61
-32.7475 -1193.09 -1618 77 67 65
-28.9798 -1192.31 -1617 75 67 64
-25.2015 -1190.81 -1615 73 65 64
-21.406 -1187.83 -1611 77 70 69
-17.6953 -1189.29 -1613 80 73 72
-14.0533 -1197.38 -1624 82 75 74
-10.2781 -1195.89 -1622 83 77 75
-6.52833 -1197.36 -1624 79 74 73
-2.76595 -1197.35 -1624 78 74 73
0.996411 -1197.35 -1624 78 74 73
4.73827 -1192.19 -1617 78 74 73
8.50545 -1195.15 -1621 77 71 70
12.3064 -1199.59 -1627 0 0 0
-286.846 -1193.39 -1595 64 61 62
-282.499 -1190.82 -1592 69 63 63
-276.943 -1183.02 -1582 101 85 82
-271.956 -1177.47 -1575 173 136 126
-267.176 -1172.68 -1569 185 146 131
-261.755 -1164.91 -1559 188 148 130
-257.379 -1161.62 -1555 193 150 130
-253.024 -1158.34 -1551 193 151 126
-249.013 -1156.57 -1549 191 149 123
-245.013 -1154.79 -1547 188 146 120
-241.338 -1154.51 -1547 184 141 113
-237.512 -1153.49 -1546 174 129 97
-233.693 -1152.48 -1545 157 112 80
-230.031 -1152.22 -1545 145 100 69
-226.077 -1150.47 -1543 147 100 75
-221.992 -1147.98 -1540 146 100 78
-217.356 -1142.51 -1533 146 100 77
-213.732 -1142.26 -1533 149 103 79
-209.561 -1139.04 -1529 154 104 83
-206.085 -1139.55 -1530 157 107 84
-202.475 -1139.32 -1530 159 109 86
-199.256 -1141.33 -1533 161 111 87
-195.515 -1140.36 -1532 163 109 85
-191.405 -1137.16 -1528 168 113 86
-187.807 -1136.95 -1528 171 115 88
-183.85 -1134.5 -1525 178 122 95
-180.146 -1133.55 -1524 188 132 105
-176.448 -1132.61 -1523 192 136 109
-173.324 -1135.39 -1527 196 140 111
-169.738 -1135.19 -1527 200 145 113
-166.155 -1135 -1527 203 147 110
-162.786 -1136.3 -1529 205 149 112
-159.305 -1136.86 -1530 206 150 111
-155.923 -1138.17 -1532 207 152 111
-152.633 -1140.23 -1535 209 154 113
-149.039 -1140.06 -1535 212 156 114
-145.163 -1137.66 -1532 213 158 115
-141.487 -1136.76 -1531 216 161 118
-138.087 -1138.08 -1533 220 164 123
-134.591 -1138.67 -1534 224 168 127
-131.178 -1140.01 -1536 226 172 130
-127.674 -1140.6 -1537 228 177 134
-124.167 -1141.2 -1538 230 179 137
-120.656 -1141.81 -1539 227 180 131
-117.218 -1143.16 -1541 226 181 129
-113.624 -1143.03 -1541 224 179 126
-110.174 -1144.38 -1543 228 179 131
-106.647 -1145 -1544 225 178 135
-103.184 -1146.37 -1546 221 176 135
-99.454 -1144.77 -1544 218 174 135
-95.921 -1145.4 -1545 215 174 128
-92.0857 -1142.33 -1541 212 173 127
-88.6144 -1143.71 -1543 207 170 124
-84.9695 -1142.88 -1542 203 169 128
-81.4886 -1144.26 -1544 189 167 130
-78.1 -1147.14 -1548 173 155 123
-74.6937 -1150.02 -1552 156 140 112
-71.2237 -1152.16 -1555 122 108 86
-67.6537 -1152.82 -1556 89 77 59
-63.9974 -1152.01 -1555 77 64 50
-60.3852 -1151.94 -1555 77 64 54
-56.8832 -1154.09 -1558 75 62 55
-53.4705 -1158.47 -1564 78 61 55
-49.9029 -1159.9 -1566 74 59 54
-46.4743 -1165.03 -1573 75 60 56
-42.9593 -1168.68 -1578 79 65 61
-39.4714 -1173.82 -1585 80 69 64
-35.8384 -1175.26 -1587 83 72 69
-32.2979 -1180.4 -1594 83 72 70
-28.6713 -1183.33 -1598 79 69 65
-25.0578 -1187.74 -1604 76 68 66
-21.2969 -1185.5 -1601 76 69 68
-17.6491 -1189.92 -1607 77 71 70
-13.9823 -1195.08 -1614 81 73 71
-10.2261 -1193.59 -1612 81 75 72
-6.47109 -1190.62 -1608 81 75 73
-2.74667 -1192.83 -1611 79 74 73
0.989576 -1192.83 -1611 76 72 71
4.73779 -1195.8 -1615 76 72 71
8.5046 -1198.77 -1619 76 71 70
12.2974 -1202.48 -1624 79 73 72
-287.715 -1200.75 -1598 0 0 0
-283.178 -1197.42 -1594 63 59 60
-277.611 -1189.59 -1584 98 82 79
-271.749 -1180.26 -1572 173 136 124
-267.141 -1176.2 -1567 182 143 127
-261.887 -1169.14 -1558 185 145 126
-258.005 -1168.09 -1557 192 150 127
-253.477 -1164.05 -1552 193 151 128
-249.297 -1161.51 -1549 190 148 124
-245.452 -1160.48 -1548 187 145 119
-241.614 -1159.45 -1547 183 140 112
-237.475 -1156.93 -1544 176 131 99
-233.96 -1157.41 -1545 161 116 84
-230.591 -1158.64 -1547 142 97 65
-226.775 -1157.63 -1546 141 95 71
-222.389 -1153.63 -1541 141 95 75
-218.029 -1149.64 -1536 143 97 76
-214.394 -1149.39 -1536 144 98 76
-210.074 -1145.41 -1531 147 99 80
-206.455 -1145.17 -1531 147 98 77
-203.102 -1146.43 -1533 146 96 75
-199.873 -1148.45 -1536 146 96 75
-195.865 -1145.98 -1533 151 100 77
-191.748 -1142.77 -1529 162 109 84
-187.775 -1140.31 -1526 175 120 95
-184.18 -1140.1 -1526 186 130 105
-180.35 -1138.4 -1524 189 133 106
-176.88 -1138.94 -1525 190 134 107
-173.634 -1140.98 -1528 198 142 113
-169.82 -1139.29 -1526 203 147 116
-166.234 -1139.1 -1526 207 151 114
-162.757 -1139.66 -1527 209 152 115
-159.277 -1140.22 -1528 210 153 115
-155.896 -1141.54 -1530 210 154 113
-152.507 -1142.85 -1532 212 156 115
-148.916 -1142.68 -1532 214 157 116
-145.137 -1141.02 -1530 215 157 116
-141.462 -1140.12 -1529 216 160 117
-138.153 -1142.2 -1532 220 164 123
-134.656 -1142.79 -1533 225 170 129
-131.156 -1143.38 -1534 227 173 131
-127.735 -1144.72 -1536 228 178 132
-124.145 -1144.58 -1536 231 180 138
-120.4 -1142.95 -1534 228 182 136
-116.741 -1142.07 -1533 225 182 134
-113.236 -1142.69 -1534 227 182 134
-109.798 -1144.05 -1536 231 181 136
-106.284 -1144.67 -1537 228 180 137
-102.899 -1146.79 -1540 224 178 136
-99.3083 -1146.68 -1540 222 178 137
-95.6564 -1145.82 -1539 221 179 137
-91.8904 -1143.48 -1536 222 181 139
-88.3119 -1143.38 -1536 219 177 136
-84.8448 -1144.77 -1538 217 179 138
-81.4219 -1146.91 -1541 208 177 136
-77.9354 -1148.31 -1543 201 172 132
-74.5851 -1151.94 -1548 196 169 131
-71.1664 -1154.84 -1552 185 168 133
-67.5558 -1154.76 -1552 182 165 134
-63.9458 -1154.68 -1552 158 140 113
-60.3755 -1155.36 -1553 109 91 67
-56.8011 -1156.04 -1554 88 69 52
-53.3594 -1159.69 -1559 77 60 52
-49.7357 -1159.64 -1559 80 64 57
-46.2012 -1161.81 -1562 79 63 58
-42.7078 -1165.48 -1567 81 67 63
-39.1917 -1169.15 -1572 86 72 66
-35.63 -1172.09 -1576 86 74 70
-32.0907 -1176.51 -1582 85 74 71
-28.5419 -1181.68 -1589 81 72 68
-24.9139 -1184.63 -1593 79 71 69
-21.1877 -1183.11 -1591 79 72 70
-17.526 -1185.32 -1594 80 73 71
-13.8939 -1191.25 -1602 81 74 72
-10.1803 -1191.98 -1603 82 76 74
