ply
format ascii 1.0
comment Created by Open3D
element vertex 1458
property double x
property double y
property double z
property uchar red
property uchar green
property uchar blue
end_header
-149.44 -572.237 -1403 68 67 80
-146.681 -572.968 -1405 66 65 78
-143.916 -573.699 -1407 66 65 77
-141.343 -575.248 -1411 66 65 77
-138.363 -575.167 -1411 67 66 79
-135.576 -575.904 -1413 69 68 82
-132.876 -577.049 -1416 69 68 80
-130.072 -577.788 -1418 69 68 80
-127.082 -577.714 -1418 69 68 80
-124.005 -577.234 -1417 68 67 79
-121.446 -579.2 -1422 67 66 78
-118.618 -579.946 -1424 67 66 78
-115.782 -580.693 -1426 64 65 77
-113.413 -583.884 -1434 66 67 79
-110.626 -585.041 -1437 68 67 79
-107.828 -586.2 -1440 63 64 76
-105.018 -587.36 -1443 62 63 74
-102.338 -589.335 -1448 63 64 74
-99.8435 -592.533 -1456 64 65 77
-97.4492 -596.546 -1466 62 63 75
-94.37 -596.491 -1466 71 72 84
-91.8521 -600.099 -1475 91 90 98
-368.532 -596.077 -1427 82 84 90
-363.553 -592.934 -1420 77 79 85
-359.37 -591.047 -1416 67 69 76
-355.208 -589.164 -1412 64 65 75
-350.069 -585.616 -1404 62 64 74
-346.453 -584.573 -1402 62 65 74
-342.359 -582.7 -1398 63 64 74
-339.256 -582.496 -1398 65 66 75
-335.436 -581.045 -1395 63 65 73
-331.87 -580.013 -1393 64 65 75
-327.608 -577.735 -1388 62 63 73
-324.306 -577.124 -1387 62 63 73
-320.317 -575.268 -1383 63 65 74
-316.808 -574.247 -1381 61 62 72
-313.765 -574.059 -1381 63 64 74
-310.95 -574.289 -1382 65 64 75
-307.688 -573.69 -1381 64 63 75
-304.433 -573.093 -1380 65 64 76
-300.967 -572.082 -1378 64 63 75
-297.296 -570.66 -1375 64 63 75
-294.069 -570.069 -1374 65 64 76
-291.274 -570.311 -1375 65 64 76
-287.847 -569.31 -1373 65 64 76
-284.847 -569.14 -1373 65 64 76
-282.055 -569.387 -1374 65 64 76
-279.058 -569.221 -1374 65 64 77
-275.661 -568.229 -1372 64 63 77
-272.674 -568.067 -1372 62 61 73
-269.492 -567.493 -1371 64 63 75
-266.512 -567.334 -1371 64 63 77
-263.534 -567.178 -1371 64 63 77
-260.369 -566.61 -1370 63 62 76
-257.774 -567.284 -1372 65 64 76
-254.615 -566.72 -1371 66 65 77
-251.647 -566.571 -1371 64 63 75
-248.5 -566.011 -1370 63 62 74
-245.718 -566.278 -1371 63 62 74
-242.756 -566.135 -1371 63 62 74
-240.147 -566.819 -1373 61 60 70
-237.186 -566.678 -1373 59 58 70
-234.056 -566.127 -1372 58 57 69
-231.102 -565.991 -1372 60 59 71
-228.315 -566.269 -1373 64 63 75
-225.363 -566.136 -1373 66 65 77
-222.574 -566.417 -1374 65 64 76
-219.943 -567.111 -1376 60 59 73
-217.148 -567.395 -1377 58 57 71
-214.195 -567.269 -1377 60 59 73
-211.243 -567.145 -1377 65 64 78
-208.143 -566.61 -1376 69 68 82
-205.049 -566.078 -1375 67 66 80
-202.401 -566.782 -1377 65 64 78
-199.747 -567.487 -1379 65 64 78
-196.801 -567.372 -1379 66 65 79
-193.576 -566.435 -1377 66 65 79
-190.914 -567.145 -1379 65 64 78
-188.11 -567.446 -1380 65 64 78
-185.303 -567.748 -1381 66 64 79
-182.625 -568.463 -1383 66 64 81
-180.071 -569.59 -1386 65 63 80
-177.122 -569.486 -1386 64 63 79
-174.3 -569.795 -1387 65 64 78
-171.475 -570.105 -1388 65 64 78
-168.648 -570.417 -1389 65 64 78
-165.818 -570.73 -1390 67 66 80
-162.986 -571.045 -1391 68 67 81
-160.38 -572.182 -1394 67 66 80
-157.764 -573.321 -1397 65 64 78
-154.914 -573.641 -1398 65 64 78
-152.279 -574.782 -1401 67 66 79
-149.526 -575.515 -1403 67 66 78
-146.662 -575.839 -1404 66 65 77
-143.897 -576.575 -1406 66 65 77
-141.124 -577.313 -1408 65 64 76
-138.247 -577.641 -1409 65 64 77
-135.462 -578.382 -1411 67 66 80
-132.765 -579.534 -1414 65 64 76
-130.055 -580.687 -1417 63 62 74
-127.245 -581.432 -1419 65 64 76
-124.427 -582.178 -1421 67 66 78
-121.516 -582.517 -1422 67 66 78
-118.936 -584.495 -1427 66 65 77
-116.173 -585.656 -1430 63 64 76
-113.478 -587.228 -1434 65 66 78
-110.844 -589.21 -1439 67 66 78
-108.04 -590.375 -1442 63 64 76
-105.224 -591.542 -1445 63 64 75
-102.538 -593.528 -1450 64 65 75
-99.9011 -595.926 -1456 63 64 76
-97.0398 -597.096 -1459 61 62 74
-94.36 -599.497 -1465 72 73 85
-91.2819 -599.443 -1465 89 88 97
-367.979 -598.229 -1424 83 85 91
-363.259 -595.488 -1418 77 79 86
-359.586 -594.43 -1416 69 71 79
-355.421 -592.536 -1412 64 66 75
-350.529 -589.386 -1405 64 65 75
-346.908 -588.338 -1403 66 68 76
-343.054 -586.872 -1400 66 67 77
-339.459 -585.829 -1398 63 65 74
-335.636 -584.369 -1395 65 67 75
-332.307 -583.75 -1394 64 65 75
-328.04 -581.458 -1389 63 64 74
-324.032 -579.589 -1385 63 64 74
-320.277 -578.14 -1382 62 63 73
-316.997 -577.531 -1381 61 62 72
-313.952 -577.342 -1381 65 65 75
-310.685 -576.737 -1380 68 67 78
-307.648 -576.552 -1380 66 65 76
-304.173 -575.534 -1378 65 64 76
-300.709 -574.518 -1376 65 64 76
-297.473 -573.922 -1375 65 64 76
-294.458 -573.746 -1375 64 63 75
-291.447 -573.571 -1375 64 63 75
-288.228 -572.981 -1374 64 63 75
-285.431 -573.227 -1375 65 64 77
-282.427 -573.058 -1375 65 64 76
-279.426 -572.891 -1375 64 63 76
-276.026 -571.893 -1373 64 63 76
-272.836 -571.313 -1372 62 61 74
-269.652 -570.736 -1371 64 63 75
-266.475 -570.16 -1370 64 64 77
-263.69 -570.419 -1371 64 63 77
-260.523 -569.847 -1370 64 63 77
-257.738 -570.109 -1371 65 64 76
-254.766 -569.958 -1371 66 65 77
-251.612 -569.392 -1370 64 63 75
-248.647 -569.244 -1370 63 62 74
-245.863 -569.513 -1371 62 61 73
-242.545 -568.538 -1369 62 61 73
-240.114 -569.641 -1372 62 61 71
-237.153 -569.5 -1372 59 58 70
-234.194 -569.361 -1372 56 55 67
-230.901 -568.393 -1370 58 57 69
-228.117 -568.673 -1371 63 62 74
-225.003 -568.124 -1370 66 65 77
-222.381 -568.822 -1372 65 64 76
-219.752 -569.52 -1374 63 62 75
-216.96 -569.806 -1375 59 58 72
-214.32 -570.508 -1377 60 59 73
-211.367 -570.382 -1377 65 64 78
-208.416 -570.259 -1377 68 67 81
-205.467 -570.137 -1377 68 67 81
-202.814 -570.845 -1379 66 65 79
-199.72 -570.313 -1378 66 65 79
-196.774 -570.196 -1378 68 67 81
-193.83 -570.082 -1378 67 66 80
-191.026 -570.382 -1379 65 64 78
-188.356 -571.098 -1381 67 66 80
-185.411 -570.988 -1381 67 66 81
-182.732 -571.707 -1383 68 66 83
-180.176 -572.841 -1386 65 63 80
-177.481 -573.562 -1388 61 60 76
-174.527 -573.46 -1388 63 62 76
-171.823 -574.184 -1390 67 66 80
-168.868 -574.084 -1390 65 64 78
-166.034 -574.399 -1391 68 67 81
-163.198 -574.716 -1392 69 68 82
-160.589 -575.86 -1395 68 67 81
-157.969 -577.005 -1398 67 66 80
-155.226 -577.739 -1400 66 65 78
-152.477 -578.474 -1402 66 65 77
-149.613 -578.798 -1403 65 64 76
-146.852 -579.537 -1405 65 64 76
-143.878 -579.452 -1405 64 63 75
-141.106 -580.193 -1407 63 62 74
-138.327 -580.937 -1409 65 64 77
-135.733 -582.506 -1413 66 65 79
-132.842 -582.84 -1414 65 64 76
-130.039 -583.587 -1416 62 61 72
-127.319 -584.749 -1419 63 62 73
-124.675 -586.323 -1423 67 66 78
-121.758 -586.663 -1424 69 68 80
-119.089 -588.241 -1428 66 65 77
-116.241 -588.996 -1430 62 63 75
-113.544 -590.577 -1434 64 64 76
-110.831 -592.159 -1438 65 64 76
-107.878 -592.507 -1439 64 65 77
-105.14 -594.092 -1443 65 66 77
-102.669 -597.325 -1451 65 66 76
-100.028 -599.736 -1457 64 63 75
-97.0295 -600.09 -1458 62 62 74
-94.4147 -602.915 -1465 76 75 87
-91.1478 -601.627 -1462 86 85 93
-367.168 -599.95 -1420 84 86 91
-362.966 -598.038 -1416 79 81 87
-359.803 -597.819 -1416 72 74 83
-355.888 -596.336 -1413 66 67 77
-351.24 -593.59 -1407 65 66 76
-347.612 -592.535 -1405 65 67 74
-343.506 -590.639 -1401 65 66 75
-339.907 -589.589 -1399 64 65 75
-336.32 -588.542 -1397 64 65 75
-332.984 -587.919 -1396 64 65 75
-328.474 -585.193 -1390 63 64 74
-324.461 -583.312 -1386 64 65 75
-320.933 -582.276 -1384 63 64 74
-317.877 -582.083 -1384 61 62 72
-314.368 -581.052 -1382 65 64 74
-310.872 -580.023 -1380 67 66 78
-307.833 -579.837 -1380 67 66 78
-304.576 -579.232 -1379 66 65 77
-301.108 -578.21 -1377 65 64 76
-298.084 -578.031 -1377 66 65 77
-294.849 -577.433 -1376 64 63 75
-292.045 -577.676 -1377 64 63 75
-288.82 -577.083 -1376 66 65 77
-286.225 -577.749 -1378 65 64 78
-283.007 -577.159 -1377 63 62 75
-279.797 -576.572 -1376 63 62 76
-276.392 -575.567 -1374 62 61 73
-273.396 -575.403 -1374 62 61 73
-269.813 -573.984 -1371 62 61 73
-266.829 -573.824 -1371 62 63 75
-264.04 -574.084 -1372 65 65 77
-260.868 -573.509 -1371 66 65 77
-258.08 -573.772 -1372 63 62 74
-254.917 -573.201 -1371 63 62 74
-251.762 -572.632 -1370 63 62 74
-248.794 -572.483 -1370 62 61 73
-245.829 -572.336 -1370 62 61 73
-242.866 -572.19 -1370 62 61 73
-240.081 -572.464 -1371 64 63 74
-237.466 -573.157 -1373 63 62 73
-234.333 -572.6 -1372 59 58 68
-231.206 -572.044 -1371 59 58 70
-228.085 -571.491 -1370 63 62 74
-224.971 -570.939 -1369 66 65 77
-222.35 -571.64 -1371 68 67 80
-219.562 -571.926 -1372 65 64 78
-217.088 -573.047 -1375 63 62 76
-214.447 -573.752 -1377 63 62 76
-211.339 -573.21 -1376 64 63 77
-208.691 -573.918 -1378 65 64 78
-205.738 -573.796 -1378 65 64 78
-203.081 -574.507 -1380 65 64 78
-199.982 -573.972 -1379 65 64 78
-197.318 -574.687 -1381 68 67 81
-194.085 -573.739 -1379 69 68 82
-191.416 -574.457 -1381 68 67 81
-188.467 -574.345 -1381 69 65 80
-185.655 -574.65 -1382 69 66 82
-182.84 -574.957 -1383 67 65 82
-180.152 -575.682 -1385 67 65 82
-177.457 -576.407 -1387 63 61 78
-174.504 -576.303 -1387 61 60 74
-171.924 -577.448 -1390 64 63 77
-168.967 -577.347 -1390 67 66 80
-166.251 -578.079 -1392 67 66 82
-163.411 -578.398 -1393 69 68 83
-160.683 -579.132 -1395 68 67 81
-157.948 -579.869 -1397 66 63 77
-155.206 -580.607 -1399 66 64 77
-152.566 -581.761 -1402 66 65 77
-149.701 -582.087 -1403 67 66 78
-146.729 -582 -1403 67 66 78
-143.962 -582.744 -1405 67 66 78
-141.089 -583.075 -1406 67 66 78
-138.31 -583.823 -1408 67 66 78
-135.524 -584.572 -1410 67 66 79
-132.732 -585.322 -1412 67 66 78
-130.207 -587.317 -1417 64 63 75
-127.393 -588.071 -1419 65 64 75
-124.747 -589.654 -1423 68 67 79
-122.257 -592.068 -1429 70 69 81
-119.492 -593.24 -1432 69 68 80
-116.553 -593.585 -1433 63 64 76
-113.689 -594.346 -1435 64 64 76
-110.973 -595.937 -1439 66 65 75
-108.016 -596.287 -1440 65 66 78
-105.201 -597.466 -1443 63 64 76
-102.587 -599.89 -1449 63 64 75
-99.7426 -601.073 -1452 63 64 77
-96.5534 -600.187 -1450 65 65 78
-93.8894 -602.615 -1456 80 80 91
-366.615 -602.083 -1417 88 90 95
-362.931 -601.01 -1415 83 85 91
-360.276 -601.639 -1417 74 77 86
-355.348 -598.449 -1410 67 69 79
-351.703 -597.385 -1408 65 66 76
-347.576 -595.475 -1404 64 66 73
-343.715 -593.992 -1401 64 65 74
-340.113 -592.936 -1399 64 65 75
-336.524 -591.883 -1397 64 65 75
-333.186 -591.256 -1396 65 66 76
-329.145 -589.361 -1392 65 66 76
-325.829 -588.739 -1391 63 64 74
-321.824 -586.85 -1387 63 64 74
-318.299 -585.809 -1385 63 64 74
-314.786 -584.772 -1383 64 63 73
-310.834 -582.891 -1379 65 64 75
-307.572 -582.281 -1378 66 65 77
-304.539 -582.096 -1378 66 65 77
-301.289 -581.491 -1377 65 64 76
-298.047 -580.887 -1376 64 63 75
-295.241 -581.13 -1377 63 62 74
-292.221 -580.953 -1377 65 64 76
-288.994 -580.356 -1376 67 66 78
-286.397 -581.026 -1378 66 65 79
-283.177 -580.432 -1377 64 63 76
-279.761 -579.42 -1375 66 65 77
-276.558 -578.831 -1374 63 62 74
-273.56 -578.666 -1374 62 61 73
-270.171 -577.66 -1372 62 61 73
-267.183 -577.498 -1372 61 62 74
-264.39 -577.759 -1373 63 63 75
-261.215 -577.181 -1372 65 64 76
-258.046 -576.604 -1371 66 65 77
-254.884 -576.03 -1370 63 62 74
-251.912 -575.878 -1370 62 61 73
-248.943 -575.728 -1370 64 63 75
-245.976 -575.58 -1370 65 64 76
-242.834 -575.013 -1369 64 63 75
-240.224 -575.709 -1371 65 64 76
-237.262 -575.566 -1371 65 64 75
-234.302 -575.425 -1371 62 61 71
-231.175 -574.866 -1370 62 61 73
-228.221 -574.729 -1370 66 65 77
-224.941 -573.754 -1368 67 66 78
-222.32 -574.459 -1370 66 65 78
-219.373 -574.328 -1370 64 63 76
-216.743 -575.036 -1372 64 63 77
-214.263 -576.165 -1375 66 65 79
-211.618 -576.876 -1377 65 64 78
-208.966 -577.588 -1379 65 64 79
-206.159 -577.883 -1380 64 63 77
-203.496 -578.599 -1382 63 62 76
-200.246 -577.641 -1380 63 62 76
-197.435 -577.942 -1381 69 68 82
-194.341 -577.407 -1380 69 68 82
-191.668 -578.129 -1382 68 67 81
-188.579 -577.597 -1381 69 65 80
-185.63 -577.486 -1381 69 65 81
-182.816 -577.795 -1382 67 65 82
-179.868 -577.687 -1382 66 64 81
-177.178 -578.417 -1384 63 61 78
-174.481 -579.149 -1386 60 59 73
-171.902 -580.299 -1389 62 61 75
-168.946 -580.198 -1389 65 64 78
-166.349 -581.352 -1392 66 64 81
-163.508 -581.672 -1393 68 66 81
-160.893 -582.828 -1396 68 67 80
-158.268 -583.986 -1399 67 65 77
-155.631 -585.146 -1402 66 64 76
-152.983 -586.306 -1405 65 64 76
-149.896 -585.799 -1404 66 65 77
-146.92 -585.712 -1404 67 66 78
-143.842 -585.209 -1403 66 65 77
-141.071 -585.958 -1405 65 64 76
-138.195 -586.293 -1406 66 65 77
-135.7 -588.297 -1411 67 66 78
-132.81 -588.635 -1412 67 66 78
-130.192 -590.224 -1416 68 67 79
-127.648 -592.232 -1421 68 67 79
-124.909 -593.408 -1424 68 67 79
-122.415 -595.835 -1430 69 68 80
-119.729 -597.43 -1434 68 67 79
-116.703 -597.36 -1434 64 65 77
-113.756 -597.709 -1435 64 65 76
-110.961 -598.892 -1438 66 65 76
-107.929 -598.828 -1438 64 65 77
-105.409 -601.68 -1445 64 65 77
-102.789 -604.117 -1451 63 64 76
-100.076 -606.139 -1456 60 61 75
-97.1431 -606.913 -1458 66 67 80
-94.7833 -611.435 -1469 80 81 91
-91.8163 -612.213 -1471 85 85 92
-364.251 -601.216 -1407 91 93 98
-362.127 -602.702 -1411 85 87 93
-359.988 -604.189 -1415 75 78 87
-355.565 -601.834 -1410 68 70 79
-352.418 -601.617 -1410 64 65 75
-348.036 -599.269 -1405 63 65 74
-344.17 -597.778 -1402 64 66 75
-340.078 -595.863 -1398 64 65 75
-336.729 -595.23 -1397 62 63 73
-332.911 -593.747 -1394 65 66 76
-329.346 -592.693 -1392 66 67 77
-326.027 -592.067 -1391 64 65 75
-322.252 -590.593 -1388 64 65 75
-318.722 -589.546 -1386 64 65 75
-314.977 -588.077 -1383 64 63 73
-311.699 -587.461 -1382 64 63 74
-308.206 -586.422 -1380 65 64 76
-305.166 -586.236 -1380 65 64 76
-301.472 -584.777 -1377 65 64 76
-298.661 -585.019 -1378 64 63 75
-295.42 -584.414 -1377 63 62 74
-292.398 -584.235 -1377 65 64 76
-288.958 -583.21 -1375 66 65 77
-286.362 -583.884 -1377 66 65 78
-282.937 -582.864 -1375 66 65 77
-279.93 -582.693 -1375 67 66 78
-276.523 -581.677 -1373 65 64 76
-273.725 -581.934 -1374 64 63 75
-270.531 -581.346 -1373 64 63 75
-267.539 -581.183 -1373 60 61 73
-264.742 -581.445 -1374 59 59 71
-261.372 -580.44 -1372 62 61 73
-258.201 -579.86 -1371 67 66 78
-255.037 -579.283 -1370 64 63 75
-252.064 -579.13 -1370 64 63 75
-248.911 -578.556 -1369 66 65 77
-246.124 -578.829 -1370 66 65 77
-242.98 -578.259 -1369 68 67 79
-240.193 -578.536 -1370 69 68 80
-237.578 -579.237 -1372 66 65 77
-234.271 -578.251 -1370 63 62 73
-231.145 -577.689 -1369 65 64 76
-228.025 -577.129 -1368 68 67 79
-225.076 -576.993 -1368 70 69 81
-222.291 -577.28 -1369 67 66 78
-219.504 -577.569 -1370 66 65 78
-216.873 -578.281 -1372 66 65 79
-214.391 -579.416 -1375 68 67 81
-211.591 -579.71 -1376 69 67 82
-208.636 -579.584 -1376 69 67 84
-205.983 -580.302 -1378 67 66 80
-203.47 -581.442 -1381 65 64 78
-200.22 -580.479 -1379 62 61 75
-197.41 -580.781 -1380 65 64 78
-194.457 -580.664 -1380 67 66 80
-191.921 -581.811 -1383 65 64 78
-188.691 -580.856 -1381 68 65 79
-186.01 -581.585 -1383 68 64 80
-183.189 -581.895 -1384 64 62 79
-180.236 -581.786 -1384 64 62 79
-177.412 -582.1 -1385 63 61 77
-174.585 -582.415 -1386 60 59 73
-172.004 -583.572 -1389 59 58 72
-169.046 -583.47 -1389 61 60 74
-166.568 -585.05 -1393 63 61 77
-163.605 -584.952 -1393 64 63 76
-160.873 -585.695 -1395 64 63 75
-158.135 -586.44 -1397 64 63 75
-155.612 -588.025 -1401 65 64 76
-152.965 -589.193 -1404 65 64 76
-149.878 -588.683 -1403 65 64 76
-147.216 -589.853 -1406 65 64 76
-144.03 -588.928 -1404 66 65 77
-141.155 -589.262 -1405 66 65 77
-138.474 -590.437 -1408 66 65 77
-135.877 -592.033 -1412 66 65 77
-133.077 -592.791 -1414 66 65 77
-130.361 -593.971 -1417 67 66 78
-127.813 -595.99 -1422 68 67 79
-125.07 -597.172 -1425 67 66 78
-122.573 -599.613 -1431 66 65 77
-119.549 -599.541 -1431 67 66 78
-117.097 -602.403 -1438 65 66 78
-113.824 -601.078 -1435 66 66 78
-111.104 -602.687 -1439 66 65 77
-108.218 -603.459 -1441 63 64 76
-105.471 -605.071 -1445 64 65 77
-102.921 -607.94 -1452 63 64 76
-99.9977 -608.717 -1454 63 64 77
-97.1339 -609.915 -1457 70 71 84
-94.452 -612.37 -1463 81 82 91
-362.093 -605.669 -1410 84 86 92
-360.21 -607.594 -1415 73 76 84
-355.532 -604.797 -1409 66 68 77
-352.635 -605.007 -1410 63 64 74
-348.25 -602.646 -1405 63 64 74
-344.627 -601.575 -1403 64 65 75
-340.53 -599.649 -1399 63 64 74
-337.177 -599.012 -1398 61 62 72
-333.593 -597.949 -1396 64 65 75
-329.548 -596.032 -1392 66 67 77
-326.461 -595.83 -1392 65 66 76
-322.681 -594.347 -1389 64 65 75
-319.378 -593.722 -1388 66 67 77
-315.398 -591.816 -1384 67 66 76
-312.115 -591.197 -1383 65 64 75
-308.617 -590.151 -1381 65 64 76
-305.794 -590.391 -1382 64 63 75
-302.094 -588.923 -1379 62 61 73
-299.06 -588.739 -1379 60 59 71
-295.814 -588.13 -1378 60 59 70
-292.788 -587.951 -1378 63 62 74
-289.555 -587.346 -1377 66 65 77
-286.744 -587.597 -1378 67 66 78
-283.109 -586.144 -1375 67 66 78
-279.897 -585.546 -1374 67 66 78
-276.893 -585.376 -1374 65 64 76
-273.891 -585.209 -1374 62 61 73
-270.696 -584.617 -1373 64 63 75
-267.897 -584.879 -1374 61 62 74
-264.71 -584.291 -1373 60 60 72
-261.34 -583.28 -1371 62 61 73
-258.358 -583.122 -1371 63 62 74
-255.191 -582.541 -1370 62 61 73
-252.216 -582.387 -1370 63 62 74
-249.243 -582.235 -1370 66 65 77
-246.273 -582.085 -1370 65 64 76
-243.127 -581.512 -1369 66 65 77
-240.514 -582.214 -1371 70 69 81
-237.548 -582.07 -1371 67 66 78
-234.413 -581.502 -1370 66 65 77
-231.284 -580.937 -1369 66 65 77
-227.995 -579.949 -1367 70 69 81
-225.047 -579.813 -1367 71 70 82
-222.262 -580.101 -1368 69 68 80
-219.316 -579.968 -1368 70 69 81
-216.845 -581.108 -1371 69 68 82
-214.364 -582.249 -1374 69 68 82
-211.718 -582.968 -1376 70 68 83
-208.61 -582.418 -1375 68 66 83
-205.957 -583.14 -1377 66 65 79
-203.298 -583.863 -1379 66 65 79
-200.195 -583.319 -1378 62 61 75
-197.672 -584.469 -1381 63 62 76
-194.714 -584.35 -1381 64 63 77
-192.036 -585.08 -1383 60 59 73
-188.941 -584.543 -1382 60 56 71
-186.39 -585.699 -1385 60 56 72
-183.431 -585.587 -1385 57 55 72
-180.343 -585.055 -1384 59 57 74
-177.646 -585.793 -1386 59 57 74
-174.816 -586.11 -1387 57 56 70
-172.107 -586.851 -1389 57 56 70
-169.269 -587.171 -1390 60 59 73
-166.548 -587.915 -1392 62 61 75
-163.82 -588.66 -1394 64 63 75
-161.085 -589.408 -1396 62 61 73
-158.343 -590.156 -1398 63 62 74
-155.816 -591.75 -1402 64 63 75
-153.056 -592.502 -1404 66 65 77
-149.968 -591.989 -1403 66 65 77
-147.304 -593.166 -1406 65 64 76
-144.219 -592.657 -1405 67 66 78
-141.541 -593.837 -1408 67 66 78
-138.753 -594.596 -1410 64 63 75
-136.054 -595.779 -1413 64 63 75
-133.25 -596.542 -1415 65 64 76
-130.807 -598.992 -1421 66 65 77
-128.069 -600.179 -1424 67 66 78
-125.32 -601.368 -1427 65 64 76
-122.646 -602.98 -1431 65 64 76
-119.704 -603.329 -1432 66 65 77
-117.004 -604.943 -1436 66 65 77
-114.05 -605.296 -1437 67 66 78
-111.247 -606.492 -1440 67 66 78
-108.508 -608.111 -1444 64 65 77
-105.607 -608.889 -1446 64 65 77
-102.982 -611.353 -1452 64 65 77
-100.126 -612.556 -1455 65 66 79
-97.2583 -613.76 -1458 73 74 85
-94.2497 -614.124 -1459 84 83 91
-362.061 -608.638 -1409 84 86 92
-360.433 -611.005 -1415 72 75 82
-356.005 -608.624 -1410 63 65 73
-353.354 -609.266 -1412 63 64 74
-348.961 -606.891 -1407 63 64 74
-344.84 -604.951 -1403 63 64 74
-340.497 -602.583 -1398 63 64 74
-337.385 -602.373 -1398 64 65 75
-333.321 -600.443 -1394 64 65 75
-329.988 -599.807 -1393 65 66 76
-326.663 -599.173 -1392 66 67 77
-322.88 -597.681 -1389 66 66 76
-319.344 -596.623 -1387 66 66 76
-315.82 -595.566 -1385 67 66 76
-312.533 -594.943 -1384 66 65 76
-309.03 -593.891 -1382 65 64 76
-306.425 -594.561 -1384 65 64 76
-302.718 -593.085 -1381 61 60 72
-299.678 -592.9 -1381 60 59 71
-296.211 -591.858 -1379 61 60 70
-292.968 -591.248 -1378 62 61 72
-289.732 -590.64 -1377 65 64 76
-286.92 -590.891 -1378 66 65 77
-283.076 -589.001 -1374 66 65 77
-280.068 -588.829 -1374 67 66 78
-276.86 -588.23 -1373 62 61 73
-273.66 -587.632 -1372 60 59 71
-270.466 -587.037 -1371 63 62 74
-267.865 -587.729 -1373 64 63 75
-264.679 -587.138 -1372 62 61 73
-261.308 -586.121 -1370 65 64 76
-258.326 -585.963 -1370 66 65 77
-255.161 -585.378 -1369 62 61 73
-252.37 -585.65 -1370 63 62 74
-249.395 -585.497 -1370 66 65 77
-246.422 -585.346 -1370 67 66 78
-243.452 -585.197 -1370 67 66 78
-240.309 -584.622 -1369 68 67 79
-237.345 -584.477 -1369 68 67 79
-234.041 -583.479 -1367 67 66 78
-231.256 -583.764 -1368 69 68 80
-228.134 -583.198 -1367 71 70 82
-225.183 -583.06 -1367 71 70 83
-222.397 -583.35 -1368 70 69 82
-219.769 -584.069 -1370 69 68 82
-217.135 -584.789 -1372 69 68 82
-214.65 -585.936 -1375 68 67 81
-211.846 -586.233 -1376 66 65 79
-208.888 -586.105 -1376 67 66 80
-206.082 -586.405 -1377 64 63 77
-203.42 -587.132 -1379 63 62 76
-200.462 -587.01 -1379 61 60 74
-197.648 -587.315 -1380 61 60 74
-194.691 -587.196 -1380 62 61 75
-192.013 -587.93 -1382 58 57 71
-189.192 -588.24 -1383 57 54 68
-186.503 -588.977 -1385 58 54 69
-183.674 -589.29 -1386 55 53 70
-180.713 -589.18 -1386 57 55 72
-177.753 -589.072 -1386 60 58 75
-175.047 -589.815 -1388 59 58 72
-172.21 -590.135 -1389 59 59 73
-169.249 -590.032 -1389 61 61 75
-166.768 -591.63 -1393 64 63 77
-163.919 -591.955 -1394 65 64 77
-161.182 -592.706 -1396 63 62 74
-158.325 -593.034 -1397 61 60 72
-155.465 -593.364 -1398 63 62 74
-153.148 -595.817 -1404 67 66 78
-150.165 -595.726 -1404 67 66 78
-147.602 -597.333 -1408 66 65 77
-144.408 -596.397 -1406 67 66 78
-141.726 -597.583 -1409 67 66 78
-138.836 -597.923 -1410 65 64 76
-136.136 -599.112 -1413 64 63 75
-133.518 -600.727 -1417 65 64 76
-130.793 -601.919 -1420 68 67 79
-128.146 -603.537 -1424 68 67 79
-125.308 -604.309 -1426 66 65 77
-122.633 -605.929 -1430 65 64 76
-119.692 -606.28 -1431 65 64 76
-116.993 -607.903 -1435 66 65 77
-114.357 -609.952 -1440 67 66 78
-111.546 -611.155 -1443 67 66 78
-108.874 -613.206 -1448 65 65 77
-105.889 -613.565 -1449 64 65 77
-103.256 -616.043 -1455 67 68 80
-100.255 -616.405 -1456 67 68 80
-97.7169 -619.733 -1464 74 75 87
-94.3707 -617.982 -1460 85 84 92
-362.801 -612.911 -1411 85 87 93
-361.167 -615.291 -1417 74 77 84
-356.226 -612.027 -1410 64 67 74
-353.323 -612.24 -1411 65 66 76
-349.178 -610.285 -1407 62 63 73
-344.809 -607.9 -1402 61 62 72
-341.196 -606.82 -1400 61 62 72
-337.595 -605.741 -1398 62 63 73
-333.288 -603.366 -1393 62 63 73
-330.193 -603.16 -1393 64 65 75
-326.865 -602.522 -1392 63 64 74
-323.08 -601.022 -1389 64 64 74
-319.772 -600.39 -1388 66 65 75
-316.015 -598.895 -1385 66 65 75
-312.952 -598.7 -1385 65 64 75
-309.445 -597.642 -1383 65 64 76
-306.614 -597.883 -1384 66 65 75
-302.905 -596.399 -1381 63 62 73
-299.863 -596.212 -1381 62 61 73
-296.178 -594.733 -1378 63 62 72
-293.148 -594.551 -1378 64 63 73
-289.7 -593.508 -1376 64 63 73
-286.888 -593.761 -1377 64 63 74
-283.25 -592.291 -1374 64 63 75
-280.24 -592.117 -1374 64 63 75
-277.031 -591.515 -1373 65 64 76
-273.828 -590.914 -1372 63 62 74
-270.83 -590.746 -1372 63 62 74
-268.225 -591.441 -1374 65 64 76
-265.034 -590.847 -1373 64 63 75
-261.469 -589.394 -1370 65 64 76
-258.674 -589.664 -1371 66 65 77
-255.69 -589.506 -1371 63 62 74
-252.709 -589.35 -1371 64 63 75
-249.73 -589.195 -1371 66 65 77
-246.753 -589.043 -1371 66 65 77
-243.423 -588.033 -1369 69 68 80
-240.456 -587.885 -1369 69 68 80
-237.664 -588.168 -1370 68 67 79
-234.698 -588.023 -1370 68 67 79
-231.566 -587.451 -1369 68 67 80
-228.44 -586.881 -1368 71 70 84
-225.485 -586.742 -1368 71 70 84
-222.695 -587.034 -1369 68 67 81
-220.064 -587.756 -1371 67 66 80
-217.584 -588.908 -1374 67 66 80
-214.781 -589.205 -1375 67 66 80
-211.975 -589.503 -1376 65 64 78
-209.015 -589.374 -1376 64 63 77
-206.057 -589.248 -1376 64 63 77
-203.544 -590.407 -1379 61 60 74
-200.438 -589.856 -1378 59 58 72
-197.481 -589.735 -1378 61 60 74
-194.668 -590.043 -1379 62 61 75
-191.991 -590.781 -1381 60 59 73
-189.033 -590.665 -1381 59 57 71
-186.347 -591.406 -1383 63 60 75
-183.786 -592.576 -1386 63 61 78
-180.823 -592.466 -1386 61 59 77
-177.989 -592.784 -1387 61 59 77
-175.153 -593.104 -1388 60 60 74
-172.315 -593.426 -1389 60 60 74
-169.473 -593.749 -1390 62 63 77
-166.749 -594.501 -1392 64 63 77
-164.018 -595.255 -1394 64 63 76
-161.279 -596.01 -1396 67 66 78
-158.534 -596.767 -1398 66 65 77
-155.67 -597.098 -1399 65 64 76
-152.695 -597.005 -1399 67 66 78
-150.255 -599.047 -1404 67 66 78
-147.272 -598.956 -1404 65 64 76
-144.701 -600.575 -1408 67 66 78
-141.913 -601.34 -1410 68 67 79
-139.216 -602.535 -1413 67 66 78
-136.315 -602.878 -1414 67 66 78
-133.599 -604.075 -1417 65 64 76
-131.056 -606.127 -1422 65 64 76
-128.313 -607.327 -1425 66 65 77
-125.471 -608.102 -1427 66 65 77
-122.45 -608.027 -1427 65 64 76
-119.848 -610.084 -1432 66 64 76
-117.063 -611.291 -1435 66 65 77
-114.664 -614.629 -1443 67 66 78
-111.845 -615.838 -1446 66 65 77
-109.24 -618.326 -1452 66 66 78
-106.245 -618.687 -1453 65 65 77
-103.318 -619.475 -1455 68 68 80
-100.177 -618.988 -1454 66 67 79
-97.8425 -623.611 -1465 77 78 90
-364.315 -618.511 -1416 86 88 94
-361.394 -618.72 -1417 75 77 84
-357.208 -616.747 -1413 64 67 74
-354.046 -616.524 -1413 64 65 75
-349.397 -613.685 -1407 62 64 73
-345.517 -612.159 -1404 61 63 73
-341.409 -610.2 -1400 60 61 71
-338.048 -609.551 -1399 61 62 72
-333.736 -607.162 -1394 61 62 72
-330.399 -606.519 -1393 60 61 71
-327.069 -605.878 -1392 61 61 71
-323.98 -605.674 -1392 62 62 72
-320.202 -604.168 -1389 64 63 73
-316.669 -603.099 -1387 64 63 73
-313.373 -602.468 -1386 62 61 71
-309.638 -600.97 -1383 63 62 73
-306.805 -601.212 -1384 65 64 74
-302.873 -599.285 -1380 64 63 73
-299.614 -598.663 -1379 63 62 74
-296.147 -597.609 -1377 62 61 72
-292.904 -596.992 -1376 63 62 72
-289.88 -596.811 -1376 64 63 73
-287.275 -597.498 -1378 62 61 72
-284.045 -596.887 -1377 62 61 72
-281.026 -596.712 -1377 64 63 75
-277.606 -595.672 -1375 64 63 75
-274.596 -595.501 -1375 63 62 74
-271.195 -594.466 -1373 63 62 74
-268.586 -595.164 -1375 63 62 74
-265.005 -593.701 -1372 64 63 75
-261.821 -593.105 -1371 66 65 77
-259.022 -593.376 -1372 66 65 77
-255.848 -592.785 -1371 64 63 75
-252.864 -592.627 -1371 66 65 77
-250.066 -592.904 -1372 67 66 78
-246.905 -592.319 -1371 69 68 80
-243.573 -591.303 -1369 70 69 81
-240.604 -591.154 -1369 70 69 81
-237.81 -591.438 -1370 69 68 80
-234.671 -590.861 -1369 68 67 79
-231.539 -590.286 -1368 69 68 82
-228.413 -589.713 -1367 70 69 83
-225.459 -589.573 -1367 68 67 81
-222.832 -590.297 -1369 67 66 79
-220.359 -591.454 -1372 66 65 78
-217.717 -592.182 -1374 65 64 78
-215.069 -592.911 -1376 64 63 77
-212.259 -593.21 -1377 61 60 74
-209.295 -593.081 -1377 61 60 74
-206.034 -592.092 -1375 61 60 74
-203.373 -592.827 -1377 60 59 73
-200.415 -592.703 -1377 59 58 72
-197.459 -592.582 -1377 61 60 74
-194.787 -593.322 -1379 64 63 77
-191.969 -593.634 -1380 65 64 78
-189.285 -594.377 -1382 65 64 79
-186.46 -594.692 -1383 66 65 79
-184.031 -596.299 -1387 67 65 82
-181.063 -596.187 -1387 66 64 83
-178.483 -597.366 -1390 64 62 81
-175.639 -597.688 -1391 61 62 76
-172.668 -597.581 -1391 61 62 76
-169.821 -597.906 -1392 61 62 76
-166.97 -598.233 -1393 63 62 76
-164.353 -599.42 -1396 65 64 77
-161.262 -598.891 -1395 66 65 77
-158.404 -599.223 -1396 66 65 77
-155.542 -599.556 -1397 66 65 77
-152.678 -599.891 -1398 66 65 77
-150.026 -601.086 -1401 65 64 76
-147.361 -602.283 -1404 64 63 75
-144.789 -603.91 -1408 65 64 76
-142.099 -605.109 -1411 67 66 78
-139.3 -605.88 -1413 68 67 79
-136.59 -607.083 -1416 68 67 79
-133.869 -608.287 -1419 66 65 77
-131.136 -609.492 -1422 64 63 75
-128.301 -610.27 -1424 64 63 75
-125.371 -610.621 -1425 64 63 75
-122.696 -612.26 -1429 65 63 75
-120.004 -613.9 -1433 67 63 76
-117.297 -615.541 -1437 66 65 77
-114.733 -618.041 -1443 67 66 79
-111.913 -619.257 -1446 68 67 79
-109.382 -622.187 -1453 67 66 78
-106.456 -622.978 -1455 65 64 76
-103.523 -623.77 -1457 65 64 76
-100.445 -623.708 -1457 71 71 83
-97.9017 -627.073 -1465 85 86 97
-363 -619.31 -1410 87 89 95
-360.346 -619.959 -1412 77 79 86
-356.927 -619.293 -1411 65 68 75
-353.517 -618.63 -1410 61 62 72
-349.617 -617.092 -1407 60 62 72
-345.734 -615.557 -1404 62 65 74
-341.624 -613.586 -1400 63 64 74
-338.26 -612.934 -1399 61 62 72
-334.425 -611.408 -1396 61 62 72
-331.318 -611.198 -1396 62 63 73
-327.744 -610.115 -1394 64 63 73
-324.416 -609.472 -1393 64 63 73
-320.633 -607.957 -1390 64 63 73
-317.095 -606.882 -1388 64 63 73
-313.57 -605.81 -1386 62 61 71
-310.055 -604.74 -1384 61 60 70
-306.775 -604.11 -1383 62 61 71
-303.502 -603.481 -1382 64 63 73
-300.019 -602.419 -1380 64 63 75
-296.547 -601.359 -1378 64 63 73
-293.3 -600.738 -1377 63 62 72
-290.482 -600.992 -1378 64 63 73
-287.662 -601.247 -1379 62 61 71
-284.634 -601.068 -1379 61 60 70
-281.609 -600.892 -1379 64 63 75
-277.981 -599.41 -1376 64 63 75
-274.767 -598.802 -1375 63 62 74
-271.759 -598.631 -1375 63 62 74
-268.753 -598.463 -1375 63 62 74
-265.169 -596.991 -1372 64 63 75
-262.175 -596.827 -1372 65 64 76
-259.183 -596.665 -1372 64 63 75
-256.193 -596.504 -1372 62 61 73
-253.206 -596.346 -1372 65 64 76
-250.039 -595.755 -1371 65 64 76
-246.878 -595.166 -1370 67 66 78
-243.902 -595.013 -1370 68 67 79
-240.928 -594.863 -1370 68 67 79
-237.957 -594.714 -1370 68 67 79
-235.159 -595.002 -1371 67 66 78
-232.021 -594.423 -1370 69 68 81
-228.721 -593.413 -1368 68 67 81
-225.763 -593.272 -1368 64 63 77
-222.807 -593.133 -1368 63 62 74
-220.334 -594.296 -1371 62 61 73
-218.01 -595.895 -1375 60 59 73
-215.357 -596.627 -1377 61 60 74
-212.39 -596.495 -1377 60 59 73
-209.424 -596.365 -1377 59 57 74
-206.46 -596.236 -1377 60 59 74
-203.646 -596.543 -1378 61 60 74
-200.83 -596.851 -1379 62 61 75
-197.867 -596.728 -1379 63 62 76
-195.048 -597.039 -1380 66 65 79
-192.087 -596.92 -1380 66 65 79
-189.265 -597.235 -1381 67 66 81
-186.44 -597.551 -1382 67 65 82
-183.878 -598.734 -1385 68 66 85
-181.174 -599.487 -1387 67 65 84
-178.336 -599.808 -1388 64 62 81
-175.494 -600.131 -1389 62 63 77
-172.65 -600.456 -1390 62 63 77
-170.047 -601.647 -1393 60 61 75
-167.073 -601.543 -1393 62 61 75
-164.336 -602.305 -1395 65 64 78
-161.592 -603.068 -1397 65 64 76
-158.501 -602.538 -1396 65 64 76
-155.526 -602.442 -1396 67 66 78
-152.662 -602.779 -1397 66 65 77
-150.01 -603.98 -1400 66 65 77
-147.136 -604.321 -1401 65 64 76
-144.774 -606.819 -1407 63 62 74
-141.985 -607.594 -1409 63 62 74
-139.287 -608.801 -1412 64 63 75
-136.384 -609.148 -1413 66 65 77
-133.856 -611.22 -1418 66 65 77
-130.939 -611.57 -1419 65 64 76
-128.289 -613.215 -1423 63 62 74
-125.712 -615.292 -1428 64 63 75
-122.857 -616.077 -1430 66 65 77
-120.078 -617.295 -1433 68 64 77
-117.451 -619.376 -1438 69 67 81
-114.803 -621.459 -1443 68 67 81
-112.058 -623.112 -1447 67 66 80
-109.75 -627.35 -1457 66 65 78
-106.814 -628.145 -1459 67 66 78
-103.942 -629.372 -1462 64 63 75
-100.782 -628.879 -1461 73 73 84
-98.2957 -632.692 -1470 90 91 101
-364.261 -624.503 -1414 88 90 96
-361.341 -624.713 -1415 77 79 86
-357.66 -623.602 -1413 66 69 76
-353.992 -622.493 -1411 61 62 72
-349.839 -620.505 -1407 59 61 70
-345.953 -618.961 -1404 62 65 74
-342.084 -617.42 -1401 63 64 74
-338.474 -616.323 -1399 63 64 74
-334.636 -614.788 -1396 63 64 74
-331.765 -615.017 -1397 63 64 74
-327.951 -613.488 -1394 64 63 73
-324.62 -612.841 -1393 65 64 74
-321.066 -611.757 -1391 65 64 74
-317.524 -610.676 -1389 64 63 73
-313.767 -609.158 -1386 64 63 73
-310.251 -608.082 -1384 62 61 71
-306.746 -607.009 -1382 62 61 71
-303.693 -606.816 -1382 64 63 73
-299.555 -604.431 -1377 63 62 74
-296.303 -603.804 -1376 64 63 74
-293.058 -603.18 -1375 64 63 73
-290.453 -603.874 -1377 63 62 72
-287.425 -603.692 -1377 63 62 72
-284.813 -604.389 -1379 63 62 72
-281.786 -604.21 -1379 63 62 74
-278.357 -603.158 -1377 63 63 75
-274.939 -602.109 -1375 61 62 74
-271.731 -601.499 -1374 62 61 73
-268.725 -601.33 -1374 63 62 74
-265.142 -599.85 -1371 63 62 74
-262.147 -599.685 -1371 65 64 76
-259.344 -599.959 -1372 65 64 76
-256.54 -600.234 -1373 64 63 75
-253.548 -600.075 -1373 67 66 78
-250.377 -599.48 -1372 67 66 78
-247.212 -598.888 -1371 66 65 77
-244.054 -598.298 -1370 67 66 78
-241.078 -598.146 -1370 66 65 78
-238.279 -598.433 -1371 66 65 79
-235.306 -598.286 -1371 65 64 76
-232.165 -597.703 -1370 65 64 78
-229.198 -597.559 -1370 64 63 77
-226.234 -597.418 -1370 62 61 75
-223.271 -597.278 -1370 60 59 71
-220.793 -598.447 -1373 57 56 68
-218.304 -599.618 -1376 57 56 70
-215.648 -600.355 -1378 60 59 73
-212.521 -599.786 -1377 62 61 75
-209.858 -600.525 -1379 61 59 76
-206.888 -600.396 -1379 60 58 74
-204.068 -600.704 -1380 62 61 75
-200.954 -600.143 -1379 63 62 76
-197.99 -600.019 -1379 64 63 77
-195.027 -599.897 -1379 66 65 79
-192.345 -600.647 -1381 66 65 79
-189.656 -601.398 -1383 67 65 81
-186.69 -601.281 -1383 67 65 82
-184.124 -602.471 -1386 65 65 84
-181.417 -603.227 -1388 66 66 84
-178.574 -603.55 -1389 67 65 84
-175.729 -603.875 -1390 64 65 79
-172.756 -603.767 -1390 63 65 79
-170.029 -604.53 -1392 62 64 77
-166.936 -603.991 -1391 63 62 76
-164.437 -605.626 -1395 64 63 76
-161.229 -604.657 -1393 65 64 76
-158.825 -606.728 -1398 66 65 77
-155.51 -605.329 -1395 65 64 76
-152.866 -606.536 -1398 65 64 76
-150.21 -607.744 -1401 65 64 76
-147.332 -608.086 -1402 65 64 76
-144.76 -609.73 -1406 63 62 74
-142.173 -611.376 -1410 63 62 74
-139.274 -611.723 -1411 66 65 77
-136.371 -612.072 -1412 68 67 79
-133.749 -613.722 -1416 67 66 78
-130.927 -614.508 -1418 66 65 77
-128.278 -616.161 -1422 63 62 74
-125.525 -617.383 -1425 64 63 75
-122.846 -619.039 -1429 66 65 77
-120.151 -620.697 -1433 71 67 80
-117.604 -623.223 -1439 71 69 83
-114.714 -624.017 -1441 69 68 82
-112.205 -626.979 -1448 68 67 81
-109.591 -629.508 -1454 65 64 76
-106.879 -631.606 -1459 64 63 75
-103.792 -631.542 -1459 65 64 76
-100.705 -631.479 -1459 73 74 84
-97.8206 -632.716 -1462 89 90 100
-363.205 -625.725 -1409 87 89 94
-361.061 -627.269 -1413 76 79 85
-357.635 -626.595 -1412 68 71 78
-353.967 -625.48 -1410 64 65 75
-350.559 -624.811 -1409 60 62 72
-346.173 -622.372 -1404 61 64 73
-342.302 -620.822 -1401 61 62 72
-338.931 -620.162 -1400 62 63 73
-335.329 -619.061 -1398 63 64 74
-332.213 -618.848 -1398 63 64 74
-328.395 -617.31 -1395 63 63 73
-325.293 -617.101 -1395 64 63 73
-321.501 -615.569 -1392 65 64 74
-317.954 -614.481 -1390 66 65 75
-314.192 -612.954 -1387 65 64 74
-310.896 -612.314 -1386 63 62 72
-307.384 -611.234 -1384 63 62 72
-303.885 -610.157 -1382 62 61 71
-300.179 -608.641 -1379 63 62 74
-297.136 -608.452 -1379 62 61 72
-293.456 -606.941 -1376 61 60 70
-290.637 -607.198 -1377 62 61 71
-287.815 -607.455 -1378 64 63 73
-284.786 -607.274 -1378 65 64 74
-282.168 -607.976 -1380 65 64 76
-278.937 -607.358 -1379 63 63 75
-275.312 -605.862 -1376 61 62 74
-271.506 -603.929 -1372 63 62 74
-268.894 -604.639 -1374 63 62 74
-265.308 -603.15 -1371 64 63 75
-262.312 -602.984 -1371 64 63 75
-259.696 -603.699 -1373 64 63 75
-256.888 -603.976 -1374 65 64 76
-253.892 -603.815 -1374 66 65 77
-251.082 -604.096 -1375 63 62 74
-247.547 -602.621 -1372 62 61 73
-244.385 -602.027 -1371 63 62 74
-241.229 -601.436 -1370 64 63 76
-238.602 -602.163 -1372 62 61 75
-235.624 -602.014 -1372 62 61 73
-232.819 -602.306 -1373 62 61 74
-229.509 -601.284 -1371 61 60 74
-226.54 -601.141 -1371 61 60 74
-223.737 -601.438 -1372 60 59 72
-221.092 -602.175 -1374 59 58 71
-218.123 -602.038 -1374 59 58 72
-215.625 -603.217 -1377 60 59 73
-212.808 -603.521 -1378 61 60 74
-209.685 -602.95 -1377 60 59 73
-206.867 -603.258 -1378 58 57 72
-204.047 -603.568 -1379 60 59 73
-201.079 -603.441 -1379 61 60 74
-198.257 -603.754 -1380 62 61 75
-195.29 -603.631 -1380 67 66 80
-192.465 -603.948 -1381 69 68 82
-189.637 -604.266 -1382 67 66 80
-186.941 -605.023 -1384 67 66 81
-183.84 -604.47 -1383 66 67 83
-181.268 -605.667 -1386 66 66 84
-178.428 -605.992 -1387 65 63 82
-175.458 -605.882 -1387 60 61 76
-172.739 -606.647 -1389 60 62 76
-170.135 -607.851 -1392 61 64 77
-167.159 -607.746 -1392 65 64 78
-164.539 -608.952 -1395 64 63 76
-161.792 -609.724 -1397 65 64 76
-158.81 -609.624 -1397 64 64 76
-155.83 -609.527 -1397 63 63 75
-153.179 -610.739 -1400 63 62 74
-150.195 -610.645 -1400 64 63 75
-147.423 -611.425 -1402 65 64 76
-144.85 -613.079 -1406 64 63 75
-142.16 -614.298 -1409 66 65 77
-139.557 -615.954 -1413 69 68 80
-136.552 -615.869 -1413 69 68 80
-134.021 -617.964 -1418 67 66 78
-131.193 -618.753 -1420 66 65 77
-128.808 -621.723 -1427 65 64 76
-125.867 -622.079 -1428 65 64 76
-123.352 -624.616 -1434 67 66 78
-120.226 -624.105 -1433 68 64 77
-117.35 -624.903 -1435 70 68 82
-114.626 -626.572 -1439 71 70 84
-112.041 -629.115 -1445 69 68 82
-109.658 -632.964 -1454 68 67 79
-106.799 -634.203 -1457 67 66 78
-103.785 -634.573 -1458 65 64 76
-100.837 -635.38 -1460 73 73 84
-97.2114 -631.838 -1452 84 85 95
-359.503 -627.589 -1406 78 80 84
-357.358 -629.143 -1410 70 73 79
-353.691 -628.022 -1408 66 67 77
-350.535 -627.796 -1408 62 63 74
-346.395 -625.789 -1404 61 62 74
-342.766 -624.676 -1402 63 64 74
-339.391 -624.011 -1401 62 63 73
-336.023 -623.349 -1400 65 64 74
-332.426 -622.245 -1398 64 63 75
-328.841 -621.143 -1396 64 63 74
-325.267 -620.043 -1394 65 64 76
-321.475 -618.502 -1391 66 65 75
-318.157 -617.853 -1390 65 64 74
-313.939 -615.429 -1385 63 62 72
-311.094 -615.673 -1386 62 61 71
-307.136 -613.699 -1382 62 61 71
-303.858 -613.06 -1381 62 61 71
-300.588 -612.424 -1380 61 60 70
-297.11 -611.346 -1378 62 61 72
-293.856 -610.714 -1377 62 61 72
-291.032 -610.971 -1378 62 61 71
-287.998 -610.787 -1378 64 64 74
-284.966 -610.604 -1378 64 64 74
-282.142 -610.867 -1379 64 63 75
-278.911 -610.246 -1378 62 62 74
-275.086 -608.299 -1374 62 62 74
-271.678 -607.24 -1372 62 61 73
-268.477 -606.626 -1371 62 61 73
-265.089 -605.572 -1369 60 59 71
-262.095 -605.405 -1369 60 59 71
-259.482 -606.124 -1371 63 62 74
-256.863 -606.844 -1373 64 63 75
-254.052 -607.124 -1374 65 64 76
-251.24 -607.406 -1375 62 61 73
-248.065 -606.807 -1374 60 59 71
-245.074 -606.651 -1374 62 61 73
-241.91 -606.056 -1373 63 62 75
-239.1 -606.345 -1374 63 62 75
-235.945 -605.754 -1373 62 61 72
-233.305 -606.488 -1375 61 60 72
-229.821 -605.019 -1372 59 58 71
-227.179 -605.757 -1374 58 58 73
-224.204 -605.614 -1374 60 60 75
-221.392 -605.915 -1375 62 61 75
-218.577 -606.217 -1376 61 59 75
-215.917 -606.961 -1378 60 59 74
-212.942 -606.826 -1378 60 59 74
-210.121 -607.133 -1379 60 59 73
-207.147 -607.002 -1379 59 58 72
-204.323 -607.313 -1380 60 59 73
-201.205 -606.745 -1379 62 61 75
-198.237 -606.62 -1379 63 62 76
-195.271 -606.496 -1379 67 66 80
-192.724 -607.694 -1382 69 68 82
-189.893 -608.014 -1383 67 66 79
-187.193 -608.775 -1385 65 64 78
-184.221 -608.658 -1385 65 64 81
-181.381 -608.983 -1386 66 65 82
-178.539 -609.309 -1387 64 62 81
-175.568 -609.198 -1387 59 60 75
-172.971 -610.407 -1390 59 60 74
-170.241 -611.178 -1392 60 62 75
-167.264 -611.072 -1392 65 64 78
-164.642 -612.285 -1395 65 64 77
-162.009 -613.5 -1398 66 65 77
-159.137 -613.838 -1399 66 66 78
-156.262 -614.178 -1400 64 64 76
-153.494 -614.959 -1402 63 62 74
-150.611 -615.303 -1403 64 63 75
-147.62 -615.209 -1403 65 64 76
-144.94 -616.434 -1406 64 63 75
-142.349 -618.097 -1410 65 64 76
-139.446 -618.448 -1411 67 66 78
-136.637 -619.238 -1413 68 67 79
-134.105 -621.345 -1418 68 67 79
-131.367 -622.577 -1421 68 67 79
-128.888 -625.124 -1427 66 65 77
-126.033 -625.921 -1429 66 65 77
-123.515 -628.471 -1435 68 67 79
-120.468 -628.395 -1435 67 64 78
-117.668 -629.635 -1438 67 65 79
-114.857 -630.876 -1441 71 70 83
-112.344 -633.869 -1448 70 69 83
-109.425 -634.676 -1450 69 68 81
-106.938 -638.11 -1458 68 67 79
-103.92 -638.482 -1459 66 65 76
-100.899 -638.856 -1460 76 76 86
-96.7357 -631.794 -1444 83 83 91
-360.247 -631.921 -1408 79 81 85
-358.096 -633.483 -1412 74 76 82
-354.171 -631.907 -1409 69 70 79
-351.259 -632.127 -1410 63 64 74
-347.359 -630.557 -1407 62 63 73
-343.476 -628.989 -1404 63 64 74
-339.609 -627.425 -1401 60 61 71
-335.999 -626.311 -1399 62 61 71
-332.639 -625.648 -1398 62 61 73
-328.58 -623.645 -1394 62 61 73
-325.009 -622.54 -1392 65 64 76
-321.219 -620.99 -1389 67 66 76
-317.903 -620.337 -1388 65 64 74
-314.141 -618.794 -1385 63 62 72
-311.069 -618.593 -1385 63 62 72
-307.555 -617.501 -1383 63 62 72
-304.713 -617.751 -1384 64 63 73
-301.216 -616.664 -1382 63 62 72
-298.163 -616.471 -1382 61 60 70
-294.898 -615.835 -1381 61 60 71
-291.641 -615.201 -1380 63 62 72
-288.6 -615.016 -1380 63 63 73
-285.355 -614.386 -1379 62 63 73
-282.322 -614.205 -1379 62 61 74
-278.886 -613.135 -1377 62 61 73
-275.462 -612.067 -1375 61 60 72
-271.653 -610.112 -1371 61 60 72
-268.452 -609.495 -1370 63 62 74
-265.451 -609.324 -1370 61 60 72
-262.645 -609.601 -1371 59 58 70
-260.026 -610.323 -1373 62 61 73
-257.4 -611.047 -1375 63 62 74
-254.399 -610.884 -1375 61 60 72
-251.582 -611.167 -1376 59 58 70
-248.403 -610.564 -1375 58 57 69
-245.587 -610.851 -1376 60 59 70
-242.239 -609.808 -1374 61 60 71
-239.426 -610.099 -1375 61 60 72
-236.094 -609.061 -1373 61 60 70
-233.452 -609.799 -1375 60 59 70
-230.301 -609.208 -1374 59 58 70
-227.653 -609.95 -1376 57 58 74
-224.345 -608.92 -1374 59 59 75
-221.854 -610.108 -1377 62 60 77
-218.874 -609.968 -1377 61 59 78
-216.211 -610.716 -1379 61 59 77
-213.076 -610.138 -1378 62 60 77
-210.253 -610.446 -1379 63 62 76
-207.278 -610.314 -1379 63 62 76
-204.304 -610.184 -1379 64 63 77
-201.186 -609.613 -1378 61 60 74
-198.506 -610.372 -1380 62 61 75
-195.535 -610.248 -1380 65 64 78
-192.846 -611.009 -1382 65 64 78
-190.149 -611.773 -1384 67 66 79
-187.311 -612.095 -1385 65 64 76
-184.47 -612.42 -1386 67 63 80
-181.495 -612.305 -1386 68 64 82
-178.523 -612.191 -1386 66 64 83
-175.551 -612.08 -1386 62 63 78
-172.706 -612.412 -1387 63 64 77
-169.981 -613.187 -1389 63 62 74
-167.369 -614.405 -1392 65 64 76
-164.627 -615.183 -1394 67 66 78
-161.994 -616.404 -1397 66 65 77
-159.35 -617.627 -1400 66 65 78
-156.248 -617.086 -1399 67 66 78
-153.48 -617.871 -1401 66 65 77
-150.705 -618.658 -1403 64 63 75
-147.818 -619.005 -1404 64 63 75
-145.031 -619.794 -1406 64 63 75
-142.438 -621.467 -1410 64 63 75
-139.534 -621.82 -1411 66 65 77
-136.723 -622.614 -1413 69 68 80
-134.188 -624.732 -1418 68 67 79
-131.449 -625.971 -1421 67 66 78
-128.969 -628.532 -1427 67 66 78
-126.377 -630.654 -1432 66 65 77
-123.592 -631.897 -1435 67 66 78
-120.375 -630.94 -1433 68 66 83
-117.905 -633.947 -1440 66 65 79
-114.848 -633.874 -1440 68 67 79
-112.258 -636.444 -1446 69 68 80
-109.342 -637.255 -1448 68 67 79
-106.418 -638.068 -1450 66 65 77
-103.272 -637.562 -1449 69 68 78
-99.9247 -635.738 -1445 83 82 91
-361.505 -637.172 -1412 81 83 87
-359.344 -638.742 -1416 77 79 85
-355.407 -637.156 -1413 67 68 77
-351.487 -635.574 -1410 64 65 75
-347.337 -633.543 -1406 64 65 75
-343.454 -631.967 -1403 63 64 74
-340.072 -631.295 -1402 61 62 72
-336.217 -629.725 -1399 62 61 71
-332.855 -629.058 -1398 61 60 72
-328.793 -627.043 -1394 63 62 74
-325.219 -625.932 -1392 66 65 77
-321.658 -624.823 -1390 66 65 76
-318.337 -624.167 -1389 65 64 74
-314.343 -622.165 -1385 63 62 72
-311.269 -621.962 -1385 62 61 71
-307.975 -621.313 -1384 64 63 73
-304.909 -621.115 -1384 66 65 75
-301.628 -620.471 -1383 65 64 74
-298.57 -620.277 -1383 61 60 70
-295.088 -619.189 -1381 61 60 70
-292.04 -619 -1381 62 61 71
-288.785 -618.365 -1380 62 61 72
-285.331 -617.284 -1378 60 61 73
-282.298 -617.101 -1378 61 60 74
-278.862 -616.025 -1376 60 59 73
-275.237 -614.504 -1373 61 60 72
-271.827 -613.433 -1371 60 59 71
-268.82 -613.26 -1371 61 60 72
-265.815 -613.088 -1371 61 60 72
-263.004 -613.366 -1372 58 57 69
-260.192 -613.645 -1373 60 59 71
-257.378 -613.926 -1374 60 59 71
-254.376 -613.762 -1374 58 57 69
-251.377 -613.6 -1374 58 57 69
-248.561 -613.886 -1375 60 59 71
-245.743 -614.175 -1376 59 58 68
-242.394 -613.126 -1374 60 59 69
-239.404 -612.972 -1374 60 59 71
-236.416 -612.82 -1374 62 61 71
-233.601 -613.116 -1375 61 60 70
-230.616 -612.968 -1375 60 59 71
-227.963 -613.713 -1377 62 60 77
-224.978 -613.568 -1377 62 60 76
-222.317 -614.317 -1379 62 61 75
-219.013 -613.285 -1377 63 61 78
-216.348 -614.037 -1379 63 61 78
-213.212 -613.455 -1378 64 62 79
-210.387 -613.766 -1379 66 65 79
-207.108 -612.743 -1377 66 65 79
-204.433 -613.502 -1379 65 64 78
-201.167 -612.483 -1377 60 59 73
-198.488 -613.246 -1379 59 58 72
-195.517 -613.12 -1379 63 62 76
-192.968 -614.331 -1382 65 64 78
-190.27 -615.098 -1384 67 66 80
-187.7 -616.311 -1387 67 66 80
-184.453 -615.305 -1385 68 65 81
-181.741 -616.077 -1387 69 66 83
-178.764 -615.963 -1387 66 64 83
-175.662 -615.406 -1386 63 64 79
-172.815 -615.74 -1387 63 64 77
-170.088 -616.519 -1389 64 64 76
-167.234 -616.856 -1390 67 66 76
-164.494 -617.639 -1392 68 67 77
-162.213 -620.197 -1398 67 66 78
-159.337 -620.539 -1399 64 63 77
-156.682 -621.77 -1402 65 64 78
-153.687 -621.672 -1402 68 67 77
-150.8 -622.019 -1403 67 66 77
-148.016 -622.811 -1405 66 65 77
-145.225 -623.605 -1407 65 64 76
-142.528 -624.844 -1410 62 61 73
-139.621 -625.198 -1411 65 64 76
-136.905 -626.439 -1414 69 68 80
-134.273 -628.126 -1418 69 68 80
-131.532 -629.371 -1421 68 67 79
-129.141 -632.389 -1428 65 64 76
-126.456 -634.08 -1432 65 64 76
-123.756 -635.772 -1436 64 63 75
-120.871 -636.58 -1438 68 67 82
-118.061 -637.833 -1441 69 68 81
-115.08 -638.202 -1442 65 64 76
-112.329 -639.901 -1446 67 66 78
-109.335 -640.273 -1447 68 67 80
-106.338 -640.648 -1448 65 64 78
-102.767 -637.485 -1441 70 69 77
-99.3647 -635.21 -1436 84 83 91
-361.229 -639.727 -1410 85 87 91
-358.563 -640.399 -1412 77 79 85
-355.639 -640.618 -1413 67 68 76
-352.216 -639.933 -1412 65 66 76
-348.305 -638.344 -1409 65 66 76
-344.657 -637.212 -1407 64 65 75
-341.264 -636.535 -1406 64 64 74
-336.917 -634.05 -1401 63 62 72
-333.071 -632.474 -1398 62 61 72
-328.771 -629.996 -1393 63 62 73
-325.431 -629.331 -1392 65 64 76
-321.866 -628.216 -1390 66 65 75
-318.544 -627.555 -1389 66 65 75
-315.001 -626.446 -1387 63 62 72
-311.921 -626.242 -1387 61 60 70
-308.62 -625.589 -1386 64 63 73
-305.107 -624.487 -1384 67 66 76
-302.042 -624.29 -1384 65 64 74
-298.98 -624.094 -1384 63 62 72
-295.492 -623 -1382 61 60 70
-292.652 -623.26 -1383 61 60 70
-289.391 -622.621 -1382 62 61 71
-285.93 -621.534 -1380 59 60 72
-282.685 -620.899 -1379 61 60 74
-279.245 -619.817 -1377 61 60 73
-275.415 -617.838 -1373 60 59 71
-272.399 -617.66 -1373 61 60 72
-269.189 -617.036 -1372 62 61 73
-266.568 -617.762 -1374 63 62 74
-263.174 -616.692 -1372 59 58 70
-260.549 -617.422 -1374 58 57 69
-257.543 -617.255 -1374 59 58 70
-254.725 -617.539 -1375 60 59 71
-251.722 -617.376 -1375 61 60 72
-248.721 -617.215 -1375 61 60 72
-245.901 -617.504 -1376 62 61 71
-242.726 -616.898 -1375 63 62 72
-239.557 -616.295 -1374 62 61 73
-236.568 -616.142 -1374 64 63 74
-233.921 -616.888 -1376 64 63 74
-230.763 -616.29 -1375 61 60 72
-228.109 -617.039 -1377 61 60 75
-224.958 -616.446 -1376 63 62 76
-222.298 -617.198 -1378 62 61 75
-218.994 -616.161 -1376 63 61 78
-216.486 -617.365 -1379 63 61 78
-213.193 -616.332 -1377 65 64 78
-210.216 -616.196 -1377 66 65 80
-207.09 -615.615 -1376 67 66 80
-204.415 -616.378 -1378 65 64 78
-201.296 -615.801 -1377 59 58 72
-198.614 -616.568 -1379 57 56 70
-195.784 -616.889 -1380 63 62 76
-193.091 -617.659 -1382 66 65 79
-190.253 -617.983 -1383 67 66 80
-187.684 -619.203 -1386 67 68 82
-184.571 -618.637 -1385 69 67 83
-181.726 -618.967 -1386 68 65 82
-178.878 -619.299 -1387 65 63 81
-175.774 -618.739 -1386 62 63 76
-172.925 -619.074 -1387 60 61 74
-170.196 -619.858 -1389 62 63 75
-167.34 -620.196 -1390 65 65 75
-164.717 -621.429 -1393 67 66 76
-162.315 -623.556 -1398 68 67 79
-159.438 -623.899 -1399 67 66 79
-156.558 -624.245 -1400 66 65 79
-153.784 -625.037 -1402 68 67 77
-150.788 -624.941 -1402 68 67 79
-148.005 -625.737 -1404 65 64 76
-145.317 -626.981 -1407 64 63 75
-142.821 -629.117 -1412 62 61 73
-139.908 -629.473 -1413 64 63 75
-137.186 -630.722 -1416 67 66 78
-134.547 -632.417 -1420 67 66 78
-131.893 -634.114 -1424 68 67 79
-129.313 -636.257 -1429 65 64 76
-126.624 -637.957 -1433 64 63 75
-123.92 -639.658 -1437 64 63 75
-120.948 -640.026 -1438 68 67 81
-118.136 -641.285 -1441 69 68 80
-115.313 -642.546 -1444 66 65 77
-112.478 -643.809 -1447 66 65 77
-109.328 -643.294 -1446 67 66 78
-106.405 -644.115 -1448 65 64 77
-102.903 -641.38 -1442 76 75 83
-99.1504 -636.868 -1432 88 87 94
-361.723 -643.648 -1411 87 89 93
-359.815 -645.69 -1416 76 78 82
-355.873 -644.086 -1413 69 70 77
-352.696 -643.853 -1413 65 66 76
