ply
format ascii 1.0
comment Created by Open3D
element vertex 1459
property double x
property double y
property double z
property uchar red
property uchar green
property uchar blue
end_header
-290.513 -538.425 -1428 54 55 69
-287.83 -539.024 -1430 53 54 68
-284.543 -538.494 -1429 54 55 67
-282.052 -539.473 -1432 55 55 67
-278.965 -539.324 -1432 56 55 67
-276.267 -539.929 -1434 54 53 65
-273.181 -539.783 -1434 56 55 67
-270.852 -541.143 -1438 56 55 67
-267.949 -541.376 -1439 56 55 67
-265.228 -541.986 -1441 58 57 69
-262.501 -542.598 -1443 60 59 71
-259.768 -543.211 -1445 60 59 71
-257.384 -544.577 -1449 58 57 69
-254.809 -545.569 -1452 58 57 69
-252.398 -546.937 -1456 56 55 67
-249.457 -547.179 -1457 57 56 68
-247.361 -549.3 -1463 55 54 66
-245.575 -552.173 -1471 52 51 63
-243.097 -553.545 -1475 51 50 62
-241.581 -557.169 -1485 49 48 62
-239.222 -558.918 -1490 45 44 58
-238.428 -564.417 -1505 38 37 51
-237.572 -569.916 -1520 26 24 41
-237.117 -576.539 -1538 15 14 30
-235.219 -579.787 -1547 12 13 27
-232.236 -580.413 -1549 24 23 37
-227.916 -577.669 -1542 38 37 51
-223.191 -573.804 -1532 39 38 50
-218.079 -568.819 -1519 39 38 50
-213.307 -564.587 -1508 42 41 53
-209.699 -563.352 -1505 42 41 53
-205.967 -561.745 -1501 45 44 56
-202.66 -561.263 -1500 44 43 55
-198.561 -558.539 -1493 44 43 57
-195.017 -557.313 -1490 46 45 58
-191.101 -554.967 -1484 47 46 58
-187.338 -552.998 -1479 46 45 57
-183.474 -550.657 -1473 51 50 62
-179.514 -547.945 -1466 53 52 66
-176.067 -546.73 -1463 54 53 65
-172.515 -545.144 -1459 53 52 64
-169.098 -543.933 -1456 54 53 65
-166.152 -544.219 -1457 54 53 65
-162.867 -543.385 -1455 54 53 65
-159.591 -542.554 -1453 54 53 65
-156.541 -542.471 -1453 54 53 65
-153.387 -542.016 -1452 55 54 66
-150.342 -541.937 -1452 53 52 66
-147.399 -542.232 -1453 53 52 65
-144.354 -542.155 -1453 56 55 67
-141.214 -541.707 -1452 58 57 69
-138.269 -542.007 -1453 57 56 68
-135.321 -542.309 -1454 58 57 69
-132.279 -542.239 -1454 58 57 69
-129.238 -542.17 -1454 57 56 68
-126.373 -542.849 -1456 58 57 69
-123.33 -542.784 -1456 60 56 69
-120.288 -542.72 -1456 63 59 72
-117.167 -542.285 -1455 63 59 72
-114.052 -541.852 -1454 63 61 73
-111.094 -542.166 -1455 61 61 73
-108.133 -542.481 -1456 58 59 71
-105.385 -543.915 -1460 60 59 71
-102.551 -544.979 -1463 62 61 73
-99.6379 -545.671 -1465 63 62 74
-96.6513 -545.992 -1466 62 61 73
-93.789 -547.06 -1469 63 62 74
-90.915 -548.128 -1472 63 62 74
-87.9697 -548.826 -1474 60 59 71
-85.132 -550.27 -1478 60 59 71
-82.2784 -551.716 -1482 61 60 72
-79.3554 -552.791 -1485 61 60 72
-76.4721 -554.239 -1489 63 62 72
-73.5234 -555.317 -1492 65 64 74
-70.5158 -556.023 -1494 65 64 75
-67.4102 -555.987 -1494 65 64 76
-64.5203 -557.813 -1499 63 64 76
-61.5693 -559.269 -1503 63 64 76
-58.5634 -560.354 -1506 63 64 76
-55.6191 -562.185 -1511 63 64 76
-52.6545 -564.017 -1516 63 64 76
-49.7676 -566.966 -1524 64 65 77
-46.8479 -569.917 -1532 63 64 76
-43.8669 -572.498 -1539 64 65 77
-40.7778 -573.964 -1543 66 67 79
-37.8675 -578.407 -1555 68 69 81
-34.8852 -582.479 -1566 69 70 82
-31.8577 -586.553 -1577 82 82 92
-432.669 -578.944 -1506 69 71 78
-426.146 -574.48 -1495 67 66 74
-420.525 -571.173 -1487 67 66 74
-416.347 -569.791 -1484 67 66 74
-411.63 -567.644 -1479 65 64 74
-407.215 -565.885 -1475 65 64 74
-402.548 -563.745 -1470 66 65 75
-398.179 -561.991 -1466 66 65 75
-393.293 -559.475 -1460 65 64 74
-389.773 -558.877 -1459 64 63 73
-385.202 -556.751 -1454 64 63 73
-381.444 -555.775 -1452 63 62 72
-377.699 -554.802 -1450 62 61 71
-373.708 -553.45 -1447 62 61 71
-369.99 -552.482 -1445 61 60 70
-367.046 -552.663 -1446 60 59 69
-363.095 -551.318 -1443 61 60 70
-360.158 -551.503 -1444 59 59 70
-357.22 -551.689 -1445 58 59 71
-353.79 -551.114 -1444 59 60 72
-350.612 -550.923 -1444 58 59 71
-346.955 -549.97 -1442 57 58 70
-342.357 -547.495 -1436 57 58 70
-338.261 -545.786 -1432 58 59 71
-334.653 -544.841 -1430 55 56 68
-331.521 -544.661 -1430 56 57 69
-328.622 -544.862 -1431 55 56 68
-325.722 -545.066 -1432 53 54 66
-322.369 -544.51 -1431 53 54 66
-318.801 -543.576 -1429 54 55 67
-315.245 -542.644 -1427 53 54 66
-311.918 -542.094 -1426 52 53 67
-308.6 -541.547 -1425 53 54 68
-305.931 -542.141 -1427 53 54 68
-303.257 -542.736 -1429 50 51 65
-299.946 -542.194 -1428 51 52 66
-297.059 -542.413 -1429 51 52 66
-293.964 -542.254 -1429 54 55 69
-290.872 -542.097 -1429 53 54 68
-288.185 -542.7 -1431 54 55 69
-285.094 -542.545 -1431 53 54 66
-282.597 -543.53 -1434 55 56 68
-279.31 -543 -1433 57 56 68
-276.608 -543.609 -1435 55 54 66
-273.709 -543.84 -1436 57 56 68
-270.996 -544.451 -1438 55 54 66
-268.092 -544.685 -1439 55 54 66
-265.369 -545.3 -1441 55 54 66
-262.823 -546.293 -1444 56 55 67
-260.266 -547.288 -1447 58 57 69
-257.698 -548.284 -1450 59 58 70
-255.121 -549.281 -1453 57 56 68
-252.705 -550.658 -1457 57 56 68
-250.276 -552.035 -1461 57 56 68
-247.662 -553.035 -1464 54 53 65
-245.371 -554.792 -1469 52 51 63
-243.556 -557.683 -1477 52 51 63
-241.71 -560.574 -1485 49 48 62
-239.831 -563.465 -1493 45 44 58
-238.713 -568.243 -1506 37 36 50
-238.323 -574.907 -1524 26 24 41
-237.86 -581.57 -1542 16 15 31
-235.952 -584.838 -1551 11 12 27
-232.659 -584.713 -1551 21 20 34
-228.628 -582.706 -1546 35 34 48
-223.163 -576.932 -1531 39 38 50
-219.056 -574.554 -1525 41 40 52
-214.128 -569.919 -1513 45 44 56
-209.949 -567.17 -1506 43 42 54
-206.351 -565.929 -1503 45 44 56
-202.767 -564.691 -1500 46 45 57
-198.799 -562.326 -1494 48 47 61
-195.513 -561.845 -1493 46 45 58
-191.588 -559.485 -1487 45 44 56
-187.691 -557.127 -1481 45 44 56
-183.695 -554.396 -1474 51 50 63
-179.731 -551.667 -1467 53 52 66
-176.28 -550.445 -1464 53 52 64
-173.198 -550.352 -1464 54 53 65
-169.885 -549.51 -1462 56 55 67
-166.582 -548.669 -1460 56 55 67
-163.512 -548.582 -1460 57 56 68
-160.115 -547.369 -1457 55 54 66
-156.839 -546.534 -1455 55 54 66
-153.679 -546.077 -1454 54 53 65
-150.421 -545.245 -1452 55 54 66
-147.477 -545.542 -1453 56 55 67
-144.53 -545.841 -1454 56 55 67
-141.483 -545.765 -1454 56 55 67
-138.532 -546.067 -1455 56 55 67
-135.672 -546.745 -1457 56 55 67
-132.622 -546.674 -1457 56 55 67
-129.573 -546.605 -1457 56 55 67
-126.526 -546.538 -1457 57 56 68
-123.479 -546.472 -1457 58 57 69
-120.351 -546.033 -1456 59 58 70
-117.309 -545.97 -1456 59 58 70
-114.347 -546.284 -1457 60 59 71
-111.381 -546.6 -1458 61 60 72
-108.412 -546.916 -1459 59 58 70
-105.44 -547.235 -1460 61 60 72
-102.535 -547.93 -1462 65 64 76
-99.554 -548.252 -1463 64 63 75
-96.57 -548.575 -1464 62 61 73
-93.7742 -550.024 -1468 62 61 73
-90.839 -550.724 -1470 60 59 71
-88.0158 -552.176 -1474 60 59 71
-85.119 -553.254 -1477 62 61 73
-82.3215 -555.083 -1482 62 61 73
-79.4505 -556.539 -1486 63 62 73
-76.4607 -557.247 -1488 65 64 76
-73.5619 -558.705 -1492 66 65 75
-70.5999 -559.791 -1495 65 65 75
-67.6712 -561.252 -1499 63 63 75
-64.6833 -562.341 -1502 61 62 74
-61.7655 -564.18 -1507 62 63 75
-58.7108 -564.897 -1509 62 63 75
-55.6482 -565.615 -1511 63 64 76
-52.7168 -567.833 -1517 64 65 77
-49.7609 -570.052 -1523 65 66 78
-46.8417 -573.021 -1531 66 67 79
-43.9183 -576.365 -1540 66 67 79
-40.8521 -578.214 -1545 67 68 80
-37.8384 -581.188 -1553 68 69 81
-34.8812 -585.66 -1565 69 70 82
-31.9147 -590.881 -1579 81 81 91
-438.909 -586.2 -1515 79 81 88
-430.896 -579.769 -1499 70 72 79
-425.526 -576.825 -1492 68 67 75
-420.474 -574.271 -1486 68 67 75
-416.296 -572.881 -1483 67 66 74
-411.021 -569.948 -1476 65 64 74
-407.439 -569.336 -1475 65 64 74
-402.496 -566.797 -1469 66 65 75
-398.398 -565.418 -1466 66 65 75
-393.779 -563.272 -1461 64 63 74
-389.987 -562.285 -1459 64 63 73
-385.678 -560.53 -1455 64 63 73
-381.39 -558.778 -1451 63 62 72
-377.646 -557.8 -1449 62 61 71
-373.913 -556.823 -1447 60 59 69
-370.193 -555.85 -1445 60 59 69
-367.247 -556.032 -1446 60 59 69
-364.049 -555.831 -1446 60 59 69
-360.604 -555.248 -1445 59 58 69
-357.662 -555.436 -1446 56 57 69
-354.719 -555.625 -1447 57 58 70
-351.289 -555.047 -1446 57 58 70
-347.626 -554.089 -1444 57 58 70
-343.498 -552.365 -1440 56 57 69
-338.917 -549.878 -1434 56 57 69
-335.069 -548.544 -1431 55 56 68
-331.933 -548.362 -1431 56 57 69
-328.571 -547.798 -1430 56 57 69
-326.126 -548.769 -1433 56 57 69
-323.22 -548.975 -1434 56 57 69
-319.42 -547.652 -1431 56 57 69
-316.3 -547.479 -1431 53 54 66
-312.963 -546.925 -1430 53 54 68
-309.85 -546.756 -1430 53 54 68
-306.74 -546.589 -1430 52 53 67
-304.27 -547.57 -1433 52 53 67
-300.949 -547.023 -1432 53 54 68
-297.635 -546.479 -1431 52 53 67
-294.329 -545.937 -1430 52 53 67
-291.64 -546.542 -1432 53 54 68
-288.341 -546.003 -1431 52 53 67
-285.846 -546.992 -1434 52 53 67
-283.144 -547.601 -1436 54 55 68
-279.85 -547.068 -1435 56 55 67
-277.335 -548.061 -1438 55 54 66
-274.047 -547.531 -1437 55 54 66
-271.331 -548.146 -1439 57 56 68
-268.422 -548.381 -1440 56 55 67
-265.696 -548.999 -1442 54 53 65
-263.146 -549.998 -1445 54 53 65
-260.766 -551.379 -1449 56 55 67
-258.548 -553.142 -1454 58 57 70
-255.433 -553.003 -1454 56 55 67
-253.188 -554.768 -1459 54 53 65
-250.581 -555.773 -1462 55 54 66
-247.963 -556.78 -1465 56 55 67
-246.171 -559.687 -1473 54 53 65
-244.347 -562.595 -1481 52 51 63
-242.327 -565.123 -1488 47 46 60
-240.763 -568.791 -1498 44 43 57
-239.633 -573.597 -1511 37 36 50
-238.92 -579.542 -1527 26 24 41
-237.832 -584.727 -1541 16 14 31
-236.231 -588.774 -1552 11 12 28
-233.233 -589.407 -1554 18 17 31
-229.046 -587.008 -1548 31 30 43
-224.595 -583.853 -1540 37 36 48
-219.029 -577.669 -1524 41 40 52
-214.525 -574.142 -1515 44 43 55
-210.758 -572.513 -1511 44 43 55
-206.598 -569.749 -1504 44 43 55
-203.822 -570.776 -1507 45 44 56
-199.837 -568.396 -1501 47 46 60
-195.879 -566.019 -1495 46 45 58
-191.819 -563.265 -1488 45 44 56
-187.917 -560.893 -1482 46 45 57
-183.793 -557.766 -1474 52 51 63
-180.195 -556.156 -1470 52 51 65
-176.735 -554.926 -1467 51 50 62
-173.053 -552.942 -1462 53 52 64
-169.859 -552.472 -1461 53 52 64
-166.67 -552.005 -1460 54 53 65
-163.375 -551.16 -1458 55 54 66
-160.42 -551.452 -1459 55 54 66
-157.138 -550.612 -1457 56 55 67
-153.972 -550.151 -1456 55 54 66
-150.604 -548.937 -1453 55 54 66
-147.453 -548.48 -1452 57 56 68
-144.308 -548.025 -1451 57 56 68
-141.265 -547.949 -1451 56 55 67
-138.415 -548.63 -1453 57 56 68
-135.557 -549.312 -1455 54 53 65
-132.692 -549.996 -1457 53 52 64
-129.553 -549.549 -1456 56 55 67
-126.593 -549.859 -1457 56 55 67
-123.46 -549.415 -1456 57 56 68
-120.498 -549.728 -1457 56 55 67
-117.452 -549.665 -1457 57 56 68
-114.407 -549.603 -1457 60 59 71
-111.44 -549.921 -1458 61 60 72
-108.618 -550.994 -1461 60 59 71
-105.568 -550.937 -1461 62 62 74
-102.729 -552.013 -1464 65 65 77
-99.7427 -552.337 -1465 63 63 75
-96.7529 -552.662 -1466 60 61 73
-93.7598 -552.988 -1467 60 60 72
-90.9488 -554.447 -1471 60 60 72
-88.1219 -555.907 -1475 62 62 74
-85.2214 -556.992 -1478 63 63 75
-82.3649 -558.455 -1482 63 64 76
-79.4388 -559.543 -1485 63 64 76
-76.501 -560.632 -1488 64 64 76
-73.5513 -561.723 -1491 63 64 75
-70.7788 -564.322 -1498 61 62 73
-67.6616 -564.285 -1498 59 60 72
-64.7604 -566.133 -1503 59 60 72
-61.716 -566.854 -1505 62 63 75
-58.7416 -568.328 -1509 64 65 77
-55.6775 -569.051 -1511 63 64 76
-52.7445 -571.282 -1517 64 65 77
-49.7544 -573.138 -1522 66 67 79
-46.8664 -576.502 -1531 66 67 79
-43.8272 -578.36 -1536 65 66 78
-40.8735 -581.727 -1545 67 68 80
-37.9072 -585.471 -1555 67 68 80
-34.9664 -590.346 -1568 67 68 80
-32.0327 -596.353 -1584 82 83 93
-431.423 -583.679 -1500 73 75 81
-426.048 -580.717 -1493 71 70 78
-420.708 -577.759 -1486 69 68 76
-415.685 -575.193 -1480 66 65 73
-410.971 -573.02 -1475 65 64 72
-406.836 -571.628 -1472 66 65 73
-401.348 -568.297 -1464 66 65 75
-398.891 -569.239 -1467 66 65 77
-394.536 -567.467 -1463 64 63 74
-391.272 -567.249 -1463 62 61 71
-386.156 -564.32 -1456 61 60 70
-382.39 -563.332 -1454 60 59 69
-377.854 -561.185 -1449 62 61 71
-374.636 -560.977 -1449 62 61 71
-370.653 -559.61 -1446 61 60 70
-367.449 -559.406 -1446 61 60 70
-363.997 -558.817 -1445 63 62 72
-360.802 -558.617 -1445 61 60 71
-357.859 -558.805 -1446 55 56 68
-355.159 -559.382 -1448 56 57 69
-351.725 -558.801 -1447 56 57 69
-348.298 -558.222 -1446 55 56 68
-343.924 -556.102 -1441 53 54 66
-339.576 -553.985 -1436 54 55 67
-335.487 -552.256 -1432 56 57 69
-331.883 -551.302 -1430 56 57 69
-328.98 -551.506 -1431 56 57 69
-326.077 -551.712 -1432 56 57 68
-323.397 -552.304 -1434 56 57 69
-320.265 -552.128 -1434 56 57 69
-316.693 -551.183 -1432 54 55 67
-313.79 -551.396 -1433 52 53 67
-310.669 -551.225 -1433 51 52 66
-307.336 -550.672 -1432 53 54 69
-304.436 -550.889 -1433 52 53 67
-301.323 -550.724 -1433 53 54 68
-298.63 -551.328 -1435 52 53 67
-295.106 -550.398 -1433 51 52 65
-292.002 -550.238 -1433 53 54 67
-289.304 -550.848 -1435 53 54 67
-286.4 -551.075 -1436 53 54 68
-283.692 -551.687 -1438 54 55 69
-280.782 -551.917 -1439 55 54 66
-277.871 -552.149 -1440 54 53 65
-274.386 -551.232 -1438 53 52 64
-271.289 -551.084 -1438 55 54 66
-268.381 -551.32 -1439 56 55 67
-265.656 -551.942 -1441 55 54 66
-263.288 -553.33 -1445 54 53 66
-260.906 -554.719 -1449 56 55 68
-259.043 -557.258 -1456 56 55 69
-256.098 -557.501 -1457 53 52 65
-253.672 -558.893 -1461 52 51 63
-250.545 -558.757 -1461 52 51 63
-248.266 -560.534 -1466 53 52 64
-246.304 -563.077 -1473 51 50 62
-244.808 -566.766 -1483 48 47 59
-243.436 -570.838 -1494 45 44 58
-241.375 -573.381 -1501 42 41 55
-240.397 -578.598 -1515 37 36 50
-239.988 -585.343 -1533 28 26 43
-239.041 -590.94 -1548 15 13 30
-236.967 -593.866 -1556 13 12 29
-233.809 -594.12 -1557 21 20 34
-230.353 -593.614 -1556 30 29 43
-225.153 -588.532 -1543 38 37 49
-220.297 -584.217 -1532 40 39 51
-215.49 -579.906 -1521 40 39 51
-211.429 -577.503 -1515 41 40 52
-207.534 -575.485 -1510 42 41 53
-203.796 -573.85 -1506 46 45 57
-200.077 -572.218 -1502 46 45 59
-196.246 -570.206 -1497 45 44 58
-192.566 -568.579 -1493 47 46 58
-188.652 -566.191 -1487 48 47 59
-184.64 -563.426 -1480 51 50 63
-180.413 -559.902 -1471 51 50 64
-176.829 -558.284 -1467 51 50 62
-173.619 -557.81 -1466 52 51 63
-170.531 -557.718 -1466 52 51 63
-167.216 -556.866 -1464 53 52 64
-164.023 -556.397 -1463 54 53 65
-161.055 -556.691 -1464 56 55 67
-157.546 -555.084 -1460 56 55 67
-154.477 -555.001 -1460 54 53 65
-150.892 -553.019 -1455 55 54 66
-147.735 -552.559 -1454 57 56 68
-144.584 -552.101 -1453 57 56 68
-141.536 -552.024 -1453 59 58 70
-138.488 -551.949 -1453 60 59 71
-135.722 -553.016 -1456 56 55 67
-132.671 -552.944 -1456 54 53 65
-129.711 -553.254 -1457 55 54 66
-126.573 -552.806 -1456 56 55 67
-123.525 -552.739 -1456 58 57 69
-120.645 -553.433 -1458 58 57 69
-117.756 -554.128 -1460 59 58 70
-114.625 -553.687 -1459 60 60 72
-111.729 -554.386 -1461 60 59 71
-108.75 -554.706 -1462 60 60 72
-105.696 -554.649 -1462 61 62 74
-102.573 -554.214 -1461 63 64 76
-99.7957 -555.678 -1465 62 63 75
-96.7382 -555.625 -1465 60 61 73
-93.7455 -555.954 -1466 60 61 73
-90.8733 -557.042 -1469 61 62 74
-87.9893 -558.132 -1472 60 61 73
-85.2667 -560.361 -1478 61 62 74
-82.2974 -561.075 -1480 62 63 75
-79.3204 -561.79 -1482 62 63 75
-76.3873 -562.886 -1485 62 63 75
-73.689 -565.878 -1493 61 62 74
-70.6745 -566.598 -1495 60 61 73
-67.6975 -567.698 -1498 60 61 73
-64.8378 -569.936 -1504 62 63 75
-61.7897 -570.66 -1506 66 67 79
-58.7728 -571.765 -1509 65 66 78
-55.8175 -573.629 -1514 64 65 77
-52.7725 -574.737 -1517 64 65 77
-49.8134 -576.983 -1523 68 69 81
-46.7993 -578.851 -1528 68 69 81
-43.879 -582.237 -1537 68 69 81
-40.8422 -584.487 -1543 68 69 81
-37.854 -587.875 -1552 67 68 80
-34.8734 -592.023 -1563 67 68 80
-31.9484 -598.065 -1579 83 84 94
-432.528 -588.383 -1503 76 78 84
-426.571 -584.62 -1494 72 72 79
-420.943 -581.252 -1486 69 68 76
-416.76 -579.844 -1483 67 66 74
-411.479 -576.876 -1476 66 65 73
-407.063 -575.083 -1472 66 65 73
-402.395 -572.904 -1467 65 64 74
-398.297 -571.509 -1464 65 64 76
-394.755 -570.897 -1463 64 63 74
-391.49 -570.678 -1463 63 62 72
-387.167 -568.9 -1459 61 60 70
-383.129 -567.516 -1456 61 60 70
-379.368 -566.524 -1454 61 60 70
-375.362 -565.145 -1451 61 60 70
-371.372 -563.769 -1448 61 60 70
-367.907 -563.175 -1447 61 60 70
-363.947 -561.804 -1444 63 62 72
-360.752 -561.603 -1444 62 61 72
-357.561 -561.403 -1444 60 61 73
-354.864 -561.983 -1446 59 60 72
-351.919 -562.176 -1447 56 57 69
-348.008 -560.816 -1444 53 54 66
-344.114 -559.46 -1441 51 52 64
-339.763 -557.33 -1436 51 52 64
-335.906 -555.979 -1433 54 55 67
-332.066 -554.631 -1430 54 55 67
-328.931 -554.448 -1430 55 56 68
-326.484 -555.43 -1433 53 54 64
-323.575 -555.638 -1434 51 52 63
-320.664 -555.848 -1435 51 52 64
-317.752 -556.059 -1436 50 51 63
-314.62 -555.885 -1436 51 52 65
-311.057 -554.939 -1434 51 52 66
-307.935 -554.769 -1434 53 54 70
-305.028 -554.987 -1435 54 55 69
-301.909 -554.82 -1435 54 55 69
-299.001 -555.042 -1436 54 55 69
-295.886 -554.879 -1436 55 56 68
-292.773 -554.717 -1436 55 56 68
-289.462 -554.171 -1435 55 56 68
-287.155 -555.558 -1439 56 57 70
-284.439 -556.173 -1441 55 56 70
-281.326 -556.018 -1441 56 55 67
-278.795 -557.023 -1444 54 53 65
-275.49 -556.485 -1443 52 51 63
-272.192 -555.95 -1442 53 52 64
-269.087 -555.802 -1442 55 54 66
-266.354 -556.427 -1444 55 54 66
-264.343 -558.594 -1450 55 54 68
-261.769 -559.605 -1453 55 54 68
-259.54 -561.389 -1458 55 54 68
-256.941 -562.403 -1461 49 48 62
-254.331 -563.418 -1464 51 50 63
-251.367 -563.666 -1465 53 52 64
-248.91 -565.068 -1469 54 53 65
-246.939 -567.626 -1476 49 48 60
-245.602 -571.721 -1487 45 44 58
-243.893 -575.048 -1496 45 42 58
-241.988 -577.991 -1504 43 40 56
-240.368 -581.703 -1514 38 37 51
-239.805 -588.103 -1531 30 28 44
-239.17 -594.502 -1548 18 16 33
-236.942 -597.061 -1555 17 15 32
-234.386 -598.853 -1560 20 19 34
-230.626 -597.576 -1557 29 28 42
-226.004 -593.998 -1548 38 37 49
-221.279 -590.04 -1538 38 37 50
-216.173 -584.935 -1525 38 37 50
-211.962 -582.134 -1518 38 37 49
-207.92 -579.72 -1512 40 39 51
-204.583 -579.225 -1511 44 43 55
-200.585 -576.816 -1505 46 45 59
-196.876 -575.175 -1501 46 45 58
-192.67 -572.005 -1493 48 47 59
-188.5 -568.837 -1485 49 48 60
-184.989 -567.587 -1482 50 49 62
-181.124 -565.191 -1476 50 49 63
-177.045 -562.031 -1468 51 50 62
-173.713 -561.171 -1466 52 51 63
-170.39 -560.312 -1464 53 52 64
-166.963 -559.073 -1461 54 53 65
-163.886 -558.984 -1461 56 55 67
-160.701 -558.514 -1460 55 54 68
-157.522 -558.046 -1459 56 55 67
-154.56 -558.344 -1460 56 55 67
-151.388 -557.879 -1459 57 56 68
-148.119 -557.034 -1457 58 57 69
-144.861 -556.191 -1455 58 57 69
-141.709 -555.732 -1454 59 58 70
-138.658 -555.656 -1454 60 59 71
-135.702 -555.964 -1455 55 54 66
-132.469 -555.128 -1453 55 54 66
-129.513 -555.44 -1454 56 55 67
-126.467 -555.371 -1454 57 56 68
-123.592 -556.068 -1456 58 57 69
-120.626 -556.384 -1457 58 57 69
-117.819 -557.466 -1460 60 60 72
-114.844 -557.785 -1461 60 60 72
-112.018 -558.869 -1464 59 60 72
-109.106 -559.574 -1466 59 60 72
-106.115 -559.898 -1467 59 60 72
-103.19 -560.605 -1469 60 61 73
-100.054 -560.169 -1468 60 61 73
-97.0542 -560.497 -1469 59 60 72
-93.9876 -560.446 -1469 59 60 72
-91.1076 -561.541 -1472 61 62 74
-88.0363 -561.493 -1472 60 61 73
-85.3122 -563.735 -1478 61 62 74
-82.2857 -564.072 -1479 62 63 75
-79.4163 -565.554 -1483 62 63 75
-76.4794 -566.656 -1486 62 63 75
-73.7283 -569.285 -1493 62 63 75
-70.7122 -570.009 -1495 62 63 75
-67.7788 -571.497 -1499 62 63 75
-64.743 -572.224 -1501 64 65 77
-61.7405 -573.334 -1504 66 67 79
-58.7651 -574.827 -1508 65 66 78
-55.7735 -576.321 -1512 66 67 79
-52.8005 -578.197 -1517 66 68 79
-49.7418 -579.313 -1520 70 71 83
-46.7629 -581.574 -1526 70 71 83
-43.7881 -584.218 -1533 69 70 82
-40.8639 -588.006 -1543 69 70 82
-37.8253 -590.653 -1550 67 68 80
-34.8473 -594.825 -1561 68 69 81
-31.8844 -600.142 -1575 85 86 96
-432.772 -591.926 -1503 80 82 88
-427.097 -588.533 -1495 72 73 80
-422.03 -585.932 -1489 67 66 74
-417.275 -583.728 -1484 67 66 74
-412.268 -581.134 -1478 66 65 74
-407.845 -579.331 -1474 65 64 73
-402.62 -576.352 -1467 65 64 74
-399.064 -575.734 -1466 65 64 75
-395.247 -574.725 -1464 65 64 75
-391.442 -573.719 -1462 63 62 72
-387.649 -572.716 -1460 61 60 70
-383.869 -571.715 -1458 61 60 70
-379.319 -569.54 -1453 62 61 71
-376.089 -569.329 -1453 62 61 71
-372.092 -567.944 -1450 62 61 71
-367.858 -566.171 -1446 61 60 70
-364.149 -565.183 -1444 62 61 71
-360.703 -564.589 -1443 61 60 70
-357.265 -563.997 -1442 58 59 71
-354.816 -564.972 -1445 58 59 71
-351.141 -563.993 -1443 56 57 69
-347.719 -563.407 -1442 55 56 68
-344.066 -562.433 -1440 55 56 68
-339.952 -560.681 -1436 54 55 67
-336.327 -559.712 -1434 53 54 66
-332.714 -558.745 -1432 53 54 66
-329.114 -557.781 -1430 55 56 68
-326.436 -558.379 -1432 53 54 64
-323.754 -558.978 -1434 51 52 64
-320.841 -559.189 -1435 52 53 65
-317.928 -559.401 -1436 52 53 65
-315.013 -559.615 -1437 52 53 66
-311.228 -558.274 -1434 53 54 68
-307.889 -557.713 -1433 54 55 69
-304.771 -557.544 -1433 56 57 71
-302.075 -558.154 -1435 55 56 70
-299.166 -558.377 -1436 56 57 71
-296.255 -558.601 -1437 56 57 70
-293.139 -558.438 -1437 54 55 67
-290.025 -558.277 -1437 54 55 67
-287.113 -558.507 -1438 56 57 70
-284.595 -559.514 -1441 57 58 72
-281.676 -559.746 -1442 57 56 70
-278.948 -560.368 -1444 55 54 67
-276.023 -560.603 -1445 53 52 64
-272.719 -560.065 -1444 54 53 65
-269.608 -559.915 -1444 53 52 64
-266.684 -560.156 -1445 54 53 65
-264.123 -561.173 -1448 54 53 67
-261.732 -562.578 -1452 54 53 67
-259.504 -564.372 -1457 56 55 69
-256.729 -565.005 -1459 52 51 65
-254.47 -566.801 -1464 54 53 66
-251.848 -567.824 -1467 56 55 67
-249.384 -569.234 -1471 56 55 67
-248.581 -574.515 -1485 52 51 63
-246.397 -576.7 -1491 45 44 58
-244.842 -580.434 -1501 45 42 58
-242.603 -582.62 -1507 45 42 58
-241.929 -588.673 -1523 38 37 51
-239.308 -590.087 -1527 28 27 42
-239.146 -597.684 -1547 19 17 33
-237.681 -602.19 -1559 17 15 32
-234.814 -603.22 -1562 18 16 31
-231.048 -601.934 -1559 26 25 39
-227.004 -599.879 -1554 35 34 46
-222.263 -595.897 -1544 38 37 50
-217.284 -591.146 -1532 38 37 51
-212.636 -587.17 -1522 40 39 51
-208.584 -584.741 -1516 41 40 52
-204.694 -582.7 -1511 43 42 54
-201.094 -581.433 -1508 45 44 58
-197.114 -579.012 -1502 48 47 60
-193.033 -576.207 -1495 50 49 61
-189.364 -574.562 -1491 50 49 61
-185.214 -571.377 -1483 51 50 62
-181.099 -568.196 -1475 52 51 65
-177.503 -566.558 -1471 54 53 65
-173.688 -564.152 -1465 54 53 65
-170.599 -564.058 -1465 53 52 64
-167.396 -563.581 -1464 53 52 64
-164.2 -563.107 -1463 57 56 68
-161.229 -563.403 -1464 56 55 69
-158.147 -563.317 -1464 54 53 66
-154.855 -562.462 -1462 55 54 66
-151.781 -562.379 -1462 57 56 68
-148.81 -562.683 -1463 58 57 69
-145.337 -561.065 -1459 57 56 68
-142.175 -560.602 -1458 56 55 67
-138.924 -559.757 -1456 56 55 67
-135.868 -559.683 -1456 53 52 64
-132.54 -558.457 -1453 54 53 65
-129.583 -558.77 -1454 56 55 67
-126.448 -558.317 -1453 57 56 68
-123.828 -560.171 -1458 58 57 69
-120.609 -559.336 -1456 59 58 70
-117.964 -561.192 -1461 60 60 72
-114.906 -561.129 -1461 59 60 72
-112.078 -562.22 -1464 58 59 71
-109.09 -562.545 -1465 58 59 71
-106.244 -563.638 -1468 57 58 70
-103.175 -563.582 -1468 58 59 71
-100.175 -563.911 -1469 59 60 72
-97.1725 -564.242 -1470 58 59 71
-94.0381 -563.806 -1469 59 60 72
-91.1565 -564.907 -1472 59 60 72
-88.1435 -565.243 -1473 60 61 73
-85.3003 -566.731 -1477 61 62 74
-82.2742 -567.07 -1478 62 63 75
-79.5125 -569.328 -1484 62 63 75
-76.4175 -569.286 -1484 61 62 74
-73.6197 -571.547 -1490 61 62 74
-70.6555 -572.659 -1493 62 63 75
-67.7699 -574.539 -1498 63 64 76
-64.7346 -575.271 -1500 65 66 78
-61.8148 -577.154 -1505 65 66 78
-58.8356 -578.656 -1509 64 65 77
-55.8773 -580.542 -1514 65 67 78
-52.8289 -581.663 -1517 65 67 78
-49.9322 -584.703 -1525 69 70 82
-46.88 -586.21 -1529 70 71 83
-43.9545 -589.636 -1538 70 71 83
-40.9124 -591.914 -1544 69 70 82
-37.8944 -594.96 -1552 67 68 80
-34.8659 -598.39 -1561 68 69 81
-31.861 -602.972 -1573 85 88 97
-432.729 -595.079 -1502 82 84 90
-427.625 -592.457 -1496 72 73 80
-423.404 -591.027 -1493 67 65 73
-418.356 -588.414 -1487 66 65 73
-413.618 -586.199 -1482 66 65 74
-408.906 -583.989 -1477 65 64 74
-403.946 -581.387 -1471 64 63 73
-399.017 -578.789 -1465 64 63 73
-395.199 -577.774 -1463 65 64 74
-391.126 -576.367 -1460 64 62 73
-387.602 -575.752 -1459 63 62 72
-383.822 -574.745 -1457 61 60 70
-380.055 -573.741 -1455 62 61 71
-376.559 -573.133 -1454 63 62 72
-372.301 -571.346 -1450 63 62 72
-367.81 -569.167 -1445 62 61 71
-364.606 -568.961 -1445 60 59 69
-360.905 -567.97 -1443 59 58 68
-357.217 -566.981 -1441 55 56 68
-354.278 -567.175 -1442 55 56 68
-350.851 -566.583 -1441 54 55 67
-346.949 -565.208 -1438 57 58 70
-343.541 -564.622 -1437 58 59 71
-340.142 -564.037 -1436 59 60 72
-336.28 -562.67 -1433 55 56 68
-332.9 -562.09 -1432 55 56 68
-329.988 -562.297 -1433 55 56 68
-326.618 -561.721 -1432 55 56 66
-323.934 -562.323 -1434 53 54 65
-321.02 -562.536 -1435 53 54 66
-317.883 -562.357 -1435 53 54 66
-314.969 -562.572 -1436 51 52 64
-311.184 -561.223 -1433 52 53 66
-308.06 -561.05 -1433 52 53 67
-304.94 -560.88 -1433 53 54 67
-302.243 -561.493 -1435 54 55 67
-299.123 -561.326 -1435 55 56 70
-295.8 -560.769 -1434 56 57 70
-293.097 -561.388 -1436 53 54 67
-289.983 -561.226 -1436 51 52 64
-287.272 -561.847 -1438 54 55 68
-284.555 -562.47 -1440 55 56 70
-281.831 -563.094 -1442 56 55 69
-278.909 -563.329 -1443 54 53 67
-276.367 -564.346 -1446 53 52 64
-273.436 -564.584 -1447 54 53 65
-270.504 -564.824 -1448 53 52 64
-267.57 -565.065 -1449 53 52 64
-264.816 -565.697 -1451 54 53 67
-262.417 -567.111 -1455 54 53 67
-260.003 -568.526 -1459 54 53 67
-257.751 -570.331 -1464 54 53 67
-254.958 -570.968 -1466 54 53 67
-252.845 -573.165 -1472 55 54 66
-251.048 -576.14 -1480 55 54 66
-249.387 -579.506 -1489 51 50 63
-247.028 -581.315 -1494 46 45 59
-245.629 -585.458 -1505 45 41 58
-243.219 -587.269 -1510 44 41 57
-241.744 -591.413 -1521 37 36 50
-240.38 -595.946 -1533 26 25 39
-239.277 -601.256 -1547 20 19 33
-237.354 -604.622 -1556 17 15 32
-235.093 -607.213 -1563 17 15 31
-231.619 -606.696 -1562 25 24 38
-227.566 -604.628 -1557 35 34 46
-222.817 -600.621 -1547 38 37 50
-217.828 -595.842 -1535 39 38 52
-213.312 -592.231 -1526 41 40 52
-209.111 -589.399 -1519 42 41 53
-205.348 -587.733 -1515 44 43 55
-201.337 -585.294 -1509 46 45 59
-197.353 -582.858 -1503 46 45 59
-193.655 -581.2 -1499 49 48 60
-189.467 -577.994 -1491 50 49 61
-185.815 -576.341 -1487 52 51 63
-182.058 -574.302 -1482 53 52 66
-178.083 -571.491 -1475 54 53 65
-174.02 -568.296 -1467 55 54 66
-170.691 -567.427 -1465 55 54 66
-167.258 -566.173 -1462 54 53 65
-164.177 -566.083 -1462 55 54 66
-160.986 -565.606 -1461 54 53 67
-158.017 -565.907 -1462 53 52 65
-154.94 -565.821 -1462 54 53 65
-151.863 -565.737 -1462 55 54 66
-148.789 -565.656 -1462 57 56 68
-145.715 -565.575 -1462 58 57 69
-142.448 -564.723 -1460 57 56 68
-138.999 -563.099 -1456 55 54 66
-135.942 -563.024 -1456 55 54 66
-132.612 -561.791 -1453 57 56 68
-129.742 -562.493 -1455 57 56 68
-126.429 -561.264 -1452 56 55 67
-123.555 -561.969 -1454 57 56 68
-120.674 -562.675 -1456 59 58 70
-117.947 -564.156 -1460 59 60 72
-114.889 -564.093 -1460 58 59 71
-112.139 -565.577 -1464 58 59 71
-109.298 -566.675 -1467 57 58 70
-106.446 -567.776 -1470 56 57 69
-103.512 -568.491 -1472 59 60 72
-100.434 -568.436 -1472 61 62 74
-97.3573 -568.382 -1472 60 62 73
-94.153 -567.558 -1470 60 62 73
-91.1438 -567.893 -1471 60 61 73
-88.0115 -567.459 -1470 61 62 74
-85.3465 -570.114 -1477 62 63 75
-82.2072 -569.682 -1476 63 64 76
-79.4483 -571.954 -1482 63 64 76
-76.6134 -573.842 -1487 64 65 77
-73.7089 -575.344 -1491 63 64 76
-70.6463 -575.691 -1492 63 64 76
-67.7613 -577.583 -1497 63 64 76
-64.8128 -579.09 -1501 63 64 76
-61.8481 -580.599 -1505 63 64 76
-58.7893 -581.338 -1507 65 66 78
-55.8705 -583.621 -1513 63 66 77
-52.8574 -585.135 -1517 62 65 76
-49.9264 -587.807 -1524 67 68 80
-46.9053 -589.709 -1529 68 69 81
-43.9496 -592.77 -1537 67 68 80
-40.9079 -595.061 -1543 66 67 79
-37.8904 -598.125 -1551 66 67 79
-34.84 -601.19 -1559 70 71 83
-31.8376 -605.799 -1571 87 90 99
-433.552 -599.428 -1504 81 83 90
-428.155 -596.392 -1497 74 74 81
-423.929 -594.953 -1494 70 67 75
-418.875 -592.324 -1488 67 66 74
-413.853 -589.698 -1482 66 65 73
-409.415 -587.871 -1478 65 64 74
-405 -586.049 -1474 65 64 74
-399.789 -583.037 -1467 65 64 74
-394.883 -580.426 -1461 64 63 73
-391.884 -580.6 -1462 65 61 74
-387.556 -578.79 -1458 64 62 73
-384.039 -578.173 -1457 63 62 72
-380.27 -577.163 -1455 62 61 71
-376.513 -576.155 -1453 63 62 72
-372.512 -574.753 -1450 63 62 72
-368.527 -573.354 -1447 62 61 71
-365.064 -572.75 -1446 57 57 68
-361.61 -572.149 -1445 56 57 68
-357.666 -570.757 -1442 54 55 67
-354.723 -570.952 -1443 53 54 66
-351.292 -570.357 -1442 54 55 67
-347.144 -568.578 -1438 56 57 70
-343.256 -567.197 -1435 58 59 71
-340.333 -567.399 -1436 56 57 69
-336.939 -566.813 -1435 57 58 70
-333.32 -565.835 -1433 56 57 69
-330.173 -565.648 -1433 55 56 68
-327.03 -565.463 -1433 54 55 68
-323.889 -565.28 -1433 54 55 67
-320.976 -565.493 -1434 53 54 65
-317.618 -564.919 -1433 52 53 64
-314.706 -565.136 -1434 51 52 64
-311.358 -564.566 -1433 51 52 65
-308.233 -564.392 -1433 51 52 66
-305.11 -564.221 -1433 52 53 67
-301.99 -564.051 -1433 53 54 67
-298.873 -563.883 -1433 55 56 69
-295.965 -564.11 -1434 54 55 68
-293.056 -564.338 -1435 54 55 68
-289.741 -563.782 -1434 53 54 66
-287.232 -564.8 -1437 53 54 67
-284.713 -565.819 -1440 54 55 68
-281.988 -566.447 -1442 56 55 68
-279.257 -567.076 -1444 54 53 66
-276.903 -568.491 -1448 54 53 65
-273.588 -567.946 -1447 52 51 63
-270.841 -568.579 -1449 53 52 64
-267.718 -568.429 -1449 52 51 64
-264.963 -569.065 -1451 53 52 66
-261.48 -568.134 -1449 54 53 67
-259.613 -570.734 -1456 54 53 67
-257.365 -572.55 -1461 53 52 66
-255.099 -574.367 -1466 54 53 66
-253.844 -578.535 -1477 53 52 64
-252.036 -581.527 -1485 52 51 63
-250.698 -585.695 -1496 50 49 61
-248.488 -587.906 -1502 45 44 58
-246.582 -590.899 -1510 44 41 57
-244.321 -593.111 -1516 42 38 55
-243.149 -598.061 -1529 34 33 47
-241.611 -602.229 -1540 25 24 38
-239.873 -606.006 -1550 22 21 35
-237.179 -607.438 -1554 19 17 34
-234.922 -610.043 -1561 18 17 32
-231.747 -610.305 -1562 25 24 38
-227.984 -609.006 -1559 34 33 45
-223.516 -605.757 -1551 36 35 48
-218.374 -600.558 -1538 38 37 51
-213.988 -597.315 -1530 39 38 50
-209.639 -594.076 -1522 41 40 52
-205.461 -591.229 -1515 46 45 57
-201.714 -589.556 -1511 48 47 61
-197.724 -587.105 -1505 46 45 59
-193.891 -585.047 -1500 48 47 59
-189.825 -582.211 -1493 50 49 61
-186.292 -580.938 -1490 51 50 62
-182.035 -577.328 -1481 54 53 67
-178.543 -576.059 -1478 55 54 66
-174.234 -572.065 -1468 55 54 66
-171.251 -572.36 -1469 53 52 64
-167.693 -570.708 -1465 52 51 63
-164.604 -570.617 -1465 51 50 62
-161.625 -570.917 -1466 53 52 66
-158.428 -570.439 -1465 53 52 65
-155.343 -570.353 -1465 55 54 66
-152.258 -570.269 -1465 56 55 67
-149.175 -570.186 -1465 56 55 67
-145.795 -568.938 -1462 56 55 67
-142.623 -568.47 -1461 57 56 68
-139.362 -567.614 -1459 58 57 69
-136.11 -566.761 -1457 58 57 69
-132.776 -565.52 -1454 58 57 69
-129.991 -566.615 -1457 56 55 67
-126.76 -565.767 -1455 57 56 68
-124.048 -567.253 -1459 56 56 68
-120.989 -567.186 -1459 58 58 70
-118.254 -568.676 -1463 59 60 72
-115.109 -568.223 -1462 59 60 72
-112.2 -568.938 -1464 58 59 71
-109.358 -570.043 -1467 57 58 70
-106.504 -571.15 -1470 58 59 71
-103.569 -571.87 -1472 60 61 73
-100.557 -572.202 -1473 61 62 74
-97.4766 -572.148 -1473 60 62 73
-94.3966 -572.096 -1473 59 62 73
-91.3174 -572.045 -1473 62 63 75
-88.1792 -571.608 -1472 63 64 76
-85.4507 -573.89 -1478 62 63 75
-82.4192 -574.233 -1479 62 63 75
-79.5451 -575.742 -1483 62 63 75
-76.5004 -576.087 -1484 62 63 75
-73.7985 -579.152 -1492 61 62 74
-70.6847 -579.112 -1492 62 63 75
-67.8434 -581.403 -1498 61 62 74
-64.9344 -583.307 -1503 62 63 75
-61.9229 -584.437 -1506 62 63 75
-58.8994 -585.569 -1509 64 65 77
-55.9009 -587.089 -1513 64 66 77
-52.921 -589 -1518 63 65 76
-49.9535 -591.3 -1524 66 67 79
-47.0229 -594.377 -1532 65 66 78
-43.9735 -596.292 -1537 62 63 75
-40.9567 -598.985 -1544 63 64 76
-37.8866 -601.291 -1550 64 65 77
-34.7695 -603.211 -1555 72 73 85
-31.7333 -607.072 -1565 87 90 100
-434.378 -603.793 -1506 84 86 93
-429.26 -601.139 -1500 78 79 86
-424.74 -599.29 -1496 72 69 77
-420.242 -597.445 -1492 68 66 74
-415.208 -594.803 -1486 66 65 73
-409.927 -591.765 -1479 66 65 75
-405.507 -589.931 -1475 67 66 76
-400.835 -587.7 -1470 67 66 76
-396.19 -585.473 -1465 64 63 73
-391.303 -582.85 -1459 63 59 72
-387.245 -581.429 -1456 64 61 72
-383.995 -581.208 -1456 63 62 70
-380.225 -580.192 -1454 62 61 71
-376.727 -579.577 -1453 61 60 70
-372.724 -578.166 -1450 61 60 71
-368.992 -577.157 -1448 61 60 70
-365.272 -576.151 -1446 58 58 69
-362.065 -575.944 -1446 55 56 68
-358.366 -574.942 -1444 54 55 67
-354.678 -573.943 -1442 54 55 67
-351.247 -573.345 -1441 55 56 68
-347.341 -571.953 -1438 57 58 72
-343.929 -571.359 -1437 57 58 71
-340.288 -570.369 -1435 55 56 68
-337.599 -570.972 -1437 55 56 68
-333.973 -569.987 -1435 57 58 70
-331.512 -570.99 -1438 55 56 68
-327.443 -569.215 -1434 54 55 69
-324.524 -569.427 -1435 53 54 66
-321.381 -569.245 -1435 54 55 65
-317.797 -568.271 -1433 53 54 64
-315.103 -568.885 -1435 51 52 64
-312.186 -569.105 -1436 52 53 67
-309.052 -568.929 -1436 53 54 68
-305.921 -568.756 -1436 54 55 68
-303.214 -569.376 -1438 54 55 69
-299.876 -568.81 -1437 55 56 68
-296.545 -568.247 -1436 55 56 68
-293.629 -568.476 -1437 53 54 66
-290.105 -567.521 -1435 52 53 65
-287.593 -568.545 -1438 53 54 66
-284.873 -569.175 -1440 54 55 67
-281.95 -569.41 -1441 57 56 68
-279.414 -570.438 -1444 56 55 67
-276.866 -571.467 -1447 53 52 64
-273.93 -571.707 -1448 53 52 64
-271.179 -572.344 -1450 53 52 64
-268.607 -573.377 -1453 52 51 65
-266.024 -574.411 -1456 53 52 66
-263.251 -575.052 -1458 54 53 67
-260.649 -576.088 -1461 53 52 65
-258.919 -579.097 -1469 54 53 66
-256.46 -580.53 -1473 55 54 68
-254.329 -582.751 -1479 56 55 68
-252.006 -584.58 -1484 53 52 65
-250.502 -588.378 -1494 49 48 60
-248.626 -591.389 -1502 46 42 57
-246.719 -594.401 -1510 43 41 57
-245.263 -598.593 -1521 39 37 54
-242.966 -600.818 -1527 34 31 48
-241.431 -605.011 -1538 26 23 39
-239.387 -608.024 -1546 23 20 35
-237.769 -612.216 -1557 20 18 36
-234.751 -612.871 -1559 20 18 34
-231.727 -613.528 -1561 24 23 38
-228.111 -612.614 -1559 33 32 45
-223.784 -609.738 -1552 36 35 48
-219.205 -606.079 -1543 38 37 50
-214.527 -602.031 -1533 39 38 50
-210.306 -599.165 -1526 41 40 52
-205.981 -595.908 -1518 45 44 56
-202.36 -594.617 -1515 46 45 57
-198.096 -591.367 -1507 47 46 58
-194.386 -589.689 -1503 46 45 57
-190.312 -586.836 -1496 47 46 59
-186.895 -585.947 -1494 49 48 61
-182.627 -582.315 -1485 52 51 65
-178.883 -580.254 -1480 53 52 66
-174.805 -577.02 -1472 52 51 65
-171.229 -575.357 -1468 52 51 65
-167.9 -574.479 -1466 51 50 64
-164.694 -573.995 -1465 50 49 63
-161.714 -574.297 -1466 52 51 65
-158.624 -574.208 -1466 53 52 65
-155.428 -573.73 -1465 54 53 65
-152.238 -573.253 -1464 54 53 65
-149.359 -573.953 -1466 55 54 66
-145.875 -572.306 -1462 53 52 66
-142.799 -572.226 -1462 56 55 67
-139.438 -570.974 -1459 56 55 67
-136.278 -570.507 -1458 56 55 67
-133.032 -569.65 -1456 56 55 67
-130.063 -569.969 -1457 55 54 66
-127.091 -570.289 -1458 56 55 67
-124.201 -571.002 -1460 57 57 69
-121.221 -571.325 -1461 57 58 70
-118.319 -572.042 -1463 58 59 71
-115.33 -572.368 -1464 60 61 73
-112.338 -572.697 -1465 59 60 72
-109.418 -573.417 -1467 58 59 71
-106.49 -574.14 -1469 58 59 71
-103.696 -575.645 -1473 59 60 72
-100.749 -576.37 -1475 58 59 71
-97.6625 -576.316 -1475 57 58 70
-94.5125 -575.872 -1474 58 59 71
-91.4296 -575.821 -1474 61 62 74
-88.3475 -575.772 -1474 62 63 75
-85.4397 -576.896 -1477 62 63 75
-82.52 -578.021 -1480 61 62 74
-79.696 -579.93 -1485 61 62 74
-76.6971 -580.668 -1487 62 63 75
-73.8389 -582.579 -1492 62 63 75
-70.8183 -583.32 -1494 62 63 75
-67.9711 -585.624 -1500 62 63 75
-64.9699 -586.759 -1503 62 63 75
-61.9568 -587.895 -1506 62 63 75
-58.9707 -589.424 -1510 62 63 75
-55.9684 -590.953 -1514 62 63 75
-52.915 -592.094 -1517 63 64 76
-50.0464 -595.579 -1526 65 66 78
-47.0486 -597.894 -1532 65 66 78
-44.0262 -600.211 -1538 61 62 74
-41.0056 -602.919 -1545 62 63 75
-37.9806 -606.019 -1553 64 65 77
-34.8333 -607.56 -1557 74 75 87
-31.7709 -611.054 -1566 89 91 103
-434.052 -606.56 -1504 86 88 94
-429.508 -604.697 -1500 77 79 86
-424.417 -602.031 -1494 71 68 76
-420.203 -600.578 -1491 66 65 74
-415.726 -598.725 -1487 65 64 73
-410.995 -596.474 -1482 65 64 75
-406.015 -593.823 -1476 67 66 76
-401.884 -592.383 -1473 66 65 75
-397.23 -590.143 -1468 62 61 71
-392.065 -587.102 -1461 62 58 71
-388.266 -586.073 -1459 63 60 72
-384.479 -585.048 -1457 62 61 70
-380.181 -583.222 -1453 61 60 70
-377.203 -583.405 -1454 59 58 69
-373.709 -582.789 -1453 59 58 70
-369.713 -581.372 -1450 60 59 69
-366.239 -580.76 -1449 59 59 70
-362.523 -579.75 -1447 55 56 68
-358.819 -578.742 -1445 53 54 66
-354.881 -577.336 -1442 57 58 70
-351.448 -576.734 -1441 57 58 70
-347.297 -574.933 -1437 56 57 71
-344.604 -575.536 -1439 56 57 70
-340.719 -574.14 -1436 55 56 68
-338.026 -574.746 -1438 54 55 67
-334.396 -573.755 -1436 55 56 68
-332.162 -575.163 -1440 54 55 67
-328.086 -573.377 -1436 54 55 69
-324.935 -573.191 -1436 52 53 66
-321.787 -573.007 -1436 52 53 63
-318.421 -572.426 -1435 50 51 61
-315.721 -573.044 -1437 51 52 63
-312.58 -572.865 -1437 52 53 67
-309.227 -572.29 -1436 53 54 68
-306.307 -572.514 -1437 55 56 70
-303.386 -572.739 -1438 55 56 68
-300.254 -572.568 -1438 53 54 66
-296.919 -572 -1437 55 56 68
-293.999 -572.231 -1438 56 57 69
-290.876 -572.066 -1438 55 56 68
-287.955 -572.3 -1439 53 54 66
-285.231 -572.933 -1441 53 54 66
-282.305 -573.17 -1442 56 56 68
-279.958 -574.601 -1446 58 57 69
-277.213 -575.238 -1448 54 53 65
-274.463 -575.877 -1450 53 52 64
-271.706 -576.517 -1452 54 53 65
-268.573 -576.365 -1452 54 53 67
-265.625 -576.611 -1453 54 53 67
-263.218 -578.049 -1457 55 54 68
-260.796 -579.488 -1461 54 53 65
-258.711 -581.722 -1467 53 52 66
-256.603 -583.956 -1473 53 52 66
-255.332 -588.172 -1484 51 50 64
-252.827 -589.614 -1488 49 48 61
-251.146 -593.039 -1497 46 45 57
-248.931 -595.275 -1503 43 39 54
-247.511 -599.492 -1514 39 38 54
-246.368 -604.5 -1527 36 37 53
-244.216 -607.133 -1534 34 31 50
-242.823 -611.746 -1546 27 23 41
-240.296 -613.589 -1551 25 21 36
-237.902 -615.828 -1557 21 19 38
-235.334 -617.673 -1562 20 18 36
-232.153 -617.938 -1563 25 24 40
-228.531 -617.018 -1561 35 34 48
-224.486 -614.915 -1556 35 34 48
-219.754 -610.84 -1546 37 36 48
-215.066 -606.767 -1536 39 38 50
-210.699 -603.488 -1528 41 40 52
-206.367 -600.213 -1520 41 40 52
-202.74 -598.914 -1517 43 42 54
-198.338 -595.249 -1508 44 43 55
-194.882 -594.35 -1506 44 43 55
-190.672 -591.085 -1498 45 44 57
-186.999 -589.402 -1494 47 46 60
-182.975 -586.538 -1487 52 51 65
-179.224 -584.465 -1482 53 52 66
-175.496 -582.394 -1477 51 50 64
-172.024 -581.114 -1474 51 50 64
-168.567 -579.837 -1471 52 51 65
-165.461 -579.744 -1471 50 49 63
-162.246 -579.259 -1470 50 49 64
-159.145 -579.17 -1470 51 50 64
-155.833 -578.294 -1468 53 52 64
-152.531 -577.421 -1466 51 50 62
-149.238 -576.549 -1464 53 52 64
-146.155 -576.467 -1464 53 52 64
-142.976 -575.993 -1463 55 53 65
-139.707 -575.127 -1461 56 54 66
-136.353 -573.87 -1458 58 57 69
-133.471 -574.582 -1460 57 56 68
-130.492 -574.902 -1461 54 53 65
-127.51 -575.224 -1462 54 55 67
-124.44 -575.154 -1462 56 57 69
-121.62 -576.266 -1465 56 57 69
-118.465 -575.806 -1464 56 57 69
-115.394 -575.742 -1464 56 57 69
-112.4 -576.072 -1465 56 57 69
-109.255 -575.617 -1464 56 57 69
-106.332 -576.344 -1466 56 57 69
-103.401 -577.072 -1468 56 57 69
-100.531 -578.195 -1471 55 56 68
-97.5176 -578.533 -1472 55 56 68
-94.6287 -579.659 -1475 57 58 70
-91.6041 -580 -1476 60 61 73
-88.636 -580.736 -1478 60 61 73
-85.834 -582.653 -1483 61 62 74
-82.7329 -582.606 -1483 62 63 75
-79.901 -584.525 -1488 61 62 74
-76.7909 -584.482 -1488 60 61 73
-73.9785 -586.797 -1494 61 62 74
-70.9995 -587.935 -1497 61 62 74
-68.054 -589.468 -1501 62 63 75
-65.0922 -591.002 -1505 63 64 76
-62.1143 -592.537 -1509 63 64 76
-59.1203 -594.075 -1513 61 62 74
-56.0732 -595.221 -1516 61 62 74
-53.0838 -597.153 -1521 63 64 76
-50.0083 -598.303 -1524 66 67 79
-47.0745 -601.416 -1532 65 66 78
-44.0503 -603.747 -1538 63 64 76
-41.0281 -606.471 -1545 64 65 77
-37.9526 -608.804 -1551 65 66 78
-34.8076 -610.355 -1555 74 75 87
-31.7681 -614.261 -1565 88 89 103
-432.283 -607.295 -1497 84 86 93
-429.471 -607.855 -1499 76 78 85
-424.663 -605.579 -1494 70 68 76
-419.883 -603.307 -1489 67 66 75
-415.688 -601.849 -1486 66 65 76
-411.788 -600.798 -1484 65 64 76
-407.351 -598.941 -1480 65 64 74
-402.663 -596.683 -1475 65 64 74
-398.001 -594.428 -1470 63 62 72
-393.366 -592.177 -1465 64 60 73
-389.022 -590.334 -1461 63 59 72
-384.965 -588.897 -1458 61 60 70
-381.186 -587.868 -1456 61 60 70
-378.199 -588.052 -1457 59 58 68
-373.924 -586.22 -1453 58 57 69
-370.436 -585.602 -1452 59 58 68
-366.703 -584.583 -1450 59 59 69
-362.982 -583.566 -1448 56 57 69
-358.776 -581.746 -1444 56 57 69
-355.331 -581.138 -1443 58 59 71
-351.893 -580.531 -1442 57 58 70
-347.738 -578.72 -1438 55 56 70
-344.802 -578.923 -1439 55 56 70
-341.389 -578.324 -1438 55 56 68
-338.69 -578.932 -1440 53 54 66
-334.82 -577.533 -1437 53 54 66
-332.352 -578.547 -1440 55 56 68
-328.502 -577.153 -1437 55 56 68
-325.573 -577.367 -1438 54 55 67
-321.523 -575.576 -1434 54 55 65
-318.602 -575.794 -1435 55 56 66
-315.461 -575.612 -1435 56 57 67
-312.976 -576.636 -1438 54 55 68
-310.049 -576.859 -1439 54 55 69
-306.695 -576.282 -1438 56 57 71
-303.769 -576.508 -1439 57 58 70
-300.843 -576.736 -1440 55 56 68
-297.708 -576.566 -1440 55 56 68
-294.371 -575.997 -1439 55 56 68
-291.648 -576.63 -1441 54 55 67
-288.519 -576.465 -1441 53 54 66
-285.591 -576.702 -1442 54 55 67
-282.857 -577.339 -1444 56 56 68
-280.504 -578.778 -1448 57 56 68
-277.562 -579.02 -1449 56 55 67
-275.376 -580.86 -1454 55 54 66
-272.234 -580.705 -1454 54 53 65
-269.835 -582.148 -1458 54 53 67
-266.873 -582.395 -1459 55 54 68
-264.27 -583.442 -1462 55 54 68
-262.372 -586.086 -1469 54 53 65
-259.739 -587.135 -1472 54 53 66
-256.922 -587.786 -1474 53 52 65
-255.304 -591.23 -1483 51 50 64
-252.799 -592.681 -1487 49 48 61
-250.784 -595.328 -1494 46 45 57
-248.74 -597.976 -1501 41 40 54
-247.323 -602.218 -1512 38 38 53
-246.022 -606.857 -1524 34 35 51
-244.035 -609.904 -1532 32 30 49
-242.174 -613.35 -1541 27 25 42
-240.121 -616.397 -1549 24 23 37
-237.73 -618.65 -1555 22 20 39
-235.014 -620.108 -1559 20 18 36
-232.135 -621.17 -1562 25 24 38
-228.512 -620.245 -1560 35 34 48
-224.179 -617.334 -1553 36 35 49
-220.019 -614.825 -1547 38 37 49
-215.887 -612.318 -1541 41 40 52
-211.093 -607.827 -1530 43 42 54
-206.891 -604.929 -1523 44 43 55
-203.121 -603.225 -1519 44 43 55
-198.975 -600.333 -1512 45 44 56
-195.379 -599.031 -1509 45 44 56
-191.034 -595.35 -1500 47 46 59
-187.604 -594.45 -1498 51 50 64
-183.57 -591.568 -1491 52 51 64
-179.687 -589.086 -1485 51 50 63
-176.07 -587.4 -1481 51 50 63
-172.704 -586.509 -1479 51 50 63
-169.234 -585.224 -1476 52 51 64
-165.891 -584.337 -1474 51 50 63
-162.667 -583.849 -1473 53 51 68
-159.558 -583.758 -1473 51 50 65
-156.026 -582.085 -1469 53 52 64
-152.616 -580.81 -1466 50 49 61
-149.423 -580.329 -1465 54 53 65
-146.137 -579.455 -1463 55 54 66
-142.958 -578.978 -1462 57 55 67
-139.88 -578.899 -1462 57 55 67
-136.616 -578.03 -1460 57 56 68
-133.637 -578.35 -1461 56 55 67
-130.475 -577.881 -1460 57 56 68
-127.581 -578.6 -1462 56 57 69
-124.509 -578.53 -1462 56 57 69
-121.688 -579.648 -1465 55 56 68
-118.531 -579.186 -1464 54 55 67
-115.537 -579.516 -1465 55 56 68
-112.463 -579.452 -1465 55 56 68
-109.315 -578.995 -1464 54 55 67
-106.39 -579.726 -1466 55 56 68
-103.388 -580.063 -1467 55 56 68
-100.587 -581.588 -1471 55 56 68
-97.5717 -581.928 -1472 58 59 71
-94.8096 -583.851 -1477 60 61 73
-91.7171 -583.799 -1477 61 62 74
-88.7452 -584.539 -1479 60 61 73
-85.8237 -585.676 -1482 59 60 72
-82.8904 -586.815 -1485 60 61 73
-79.999 -588.35 -1489 61 62 74
-76.9884 -589.097 -1491 60 61 73
-74.1682 -591.425 -1497 62 63 75
-71.0863 -591.78 -1498 61 62 74
-68.137 -593.321 -1502 62 63 75
-65.1716 -594.864 -1506 65 66 78
-62.1488 -596.014 -1509 64 65 77
-59.114 -597.165 -1512 61 62 74
-55.9932 -597.528 -1513 61 62 74
-53.0084 -599.472 -1518 63 64 76
-50.0031 -601.418 -1523 65 66 78
-47.0082 -603.76 -1529 64 65 77
-43.9887 -606.104 -1535 64 65 77
-40.9711 -608.845 -1542 67 68 80
-37.9001 -611.192 -1548 66 67 79
-34.7373 -612.356 -1551 73 74 86
-31.6841 -615.891 -1560 85 86 100
-432.825 -611.268 -1498 85 87 94
-429.722 -611.423 -1499 75 77 84
-424.627 -608.726 -1493 66 65 73
-419.846 -606.44 -1488 66 65 74
-415.931 -605.38 -1486 68 67 77
-411.473 -603.509 -1482 67 66 78
-407.589 -602.455 -1480 66 65 76
-402.898 -600.183 -1475 66 65 75
-398.504 -598.322 -1471 65 64 74
-394.4 -596.871 -1468 65 62 74
-390.048 -595.016 -1464 63 59 72
-386.245 -593.977 -1462 61 60 70
-382.193 -592.534 -1459 61 60 72
-378.418 -591.501 -1457 60 59 70
-374.913 -590.876 -1456 58 57 68
-370.906 -589.442 -1453 59 58 69
-367.168 -588.416 -1451 57 56 68
-363.192 -586.988 -1448 57 58 70
-359.233 -585.562 -1445 58 59 71
-355.29 -584.14 -1442 57 58 70
-352.097 -583.935 -1442 58 59 71
-348.665 -583.327 -1441 56 57 70
-345.48 -583.126 -1441 55 56 70
-341.824 -582.118 -1439 53 54 66
-339.356 -583.134 -1442 52 53 65
-335.246 -581.322 -1438 53 54 66
-332.312 -581.533 -1439 54 55 67
-328.919 -580.939 -1438 54 55 67
-325.76 -580.75 -1438 54 55 66
-322.38 -580.159 -1437 54 55 65
-319.452 -580.378 -1438 55 56 66
-316.302 -580.195 -1438 56 57 67
-313.373 -580.417 -1439 56 57 69
-310.658 -581.044 -1441 54 55 67
-307.51 -580.867 -1441 56 57 70
-304.366 -580.691 -1441 56 57 69
-301.433 -580.92 -1442 54 55 67
-298.498 -581.151 -1443 54 55 67
-295.358 -580.98 -1443 55 56 68
-292.422 -581.214 -1444 54 55 67
-288.884 -580.243 -1442 54 55 67
-286.348 -581.285 -1445 54 55 67
-283.018 -580.72 -1444 56 56 68
-281.052 -582.971 -1450 57 56 68
-278.295 -583.615 -1452 56 55 67
-275.343 -583.859 -1453 55 54 66
-272.764 -584.908 -1456 54 53 65
-269.989 -585.556 -1458 54 53 67
-266.659 -585.001 -1457 53 52 66
-263.878 -585.653 -1459 53 52 65
-261.627 -587.51 -1464 54 53 65
-260.417 -591.775 -1475 55 54 66
-257.068 -591.226 -1474 52 51 63
-255.621 -595.091 -1484 52 51 65
-252.943 -596.149 -1487 50 49 62
-251.094 -599.212 -1495 45 44 56
-248.881 -601.475 -1501 40 39 53
-247.463 -605.741 -1512 38 38 52
-246 -610.007 -1523 34 35 50
-244.333 -613.873 -1533 29 27 46
-242.311 -616.938 -1541 27 26 43
-239.946 -619.203 -1547 26 25 39
-237.864 -622.269 -1555 24 22 41
-234.996 -623.335 -1558 22 20 38
-232.117 -624.403 -1561 26 25 39
-228.788 -624.272 -1561 35 34 48
-224.45 -621.345 -1554 36 35 49
-220.001 -618.021 -1546 38 37 49
-215.869 -615.499 -1540 39 38 50
-211.626 -612.581 -1533 42 41 53
-207.279 -609.266 -1525 43 42 54
-203.503 -607.552 -1521 44 43 55
-199.614 -605.441 -1516 45 44 56
-195.489 -602.534 -1509 44 43 55
-191.396 -599.63 -1502 47 46 59
-187.585 -597.527 -1497 49 48 62
-183.673 -595.028 -1491 51 50 62
-180.031 -593.329 -1487 49 48 60
-176.288 -591.233 -1482 50 49 61
-172.918 -590.337 -1480 50 49 61
-169.673 -589.842 -1479 51 50 62
-166.096 -588.152 -1475 52 51 63
-162.869 -587.661 -1474 53 51 68
-159.756 -587.57 -1474 51 49 64
-156.432 -586.684 -1472 55 54 66
-153.118 -585.799 -1470 55 54 66
-149.813 -584.917 -1468 56 55 67
-146.519 -584.037 -1466 56 55 67
-143.234 -583.159 -1464 55 54 66
-140.246 -583.477 -1465 55 55 67
-136.88 -582.205 -1462 56 55 67
-133.895 -582.527 -1463 55 55 67
-130.727 -582.055 -1462 56 55 67
-128.002 -583.574 -1466 54 55 67
-124.834 -583.105 -1465 55 56 68
-121.839 -583.434 -1466 55 56 68
-118.759 -583.366 -1466 57 58 70
-115.601 -582.903 -1465 59 60 72
-112.603 -583.237 -1466 59 60 72
-109.376 -582.379 -1464 58 59 71
-106.45 -583.114 -1466 59 60 72
-103.446 -583.452 -1467 60 61 73
-100.712 -585.384 -1472 60 61 73
-97.6926 -585.726 -1473 59 60 72
-94.8626 -587.262 -1477 58 59 71
-92.0168 -588.8 -1481 59 60 72
-88.9749 -589.147 -1482 60 61 73
-85.9875 -589.893 -1484 60 61 73
-83.0484 -591.038 -1487 59 60 72
-80.0438 -591.788 -1489 59 60 72
