ply
format ascii 1.0
comment Created by Open3D
element vertex 1383
property double x
property double y
property double z
property uchar red
property uchar green
property uchar blue
end_header
-112.68 464.646 -1453 206 176 151
-109.758 464.917 -1454 196 167 146
-106.833 465.188 -1455 173 143 124
-104.047 466.101 -1458 178 150 132
-101.735 469.252 -1468 187 160 144
-99.1137 471.125 -1474 139 112 101
-96.7293 474.278 -1484 59 44 39
-257.655 475.745 -1486 68 63 67
-254.003 474.67 -1483 119 99 93
-250.197 473.277 -1479 142 119 111
-246.075 471.246 -1473 119 94 85
-240.992 467.298 -1461 97 74 62
-236.449 464.313 -1452 129 106 93
-232.108 461.651 -1444 179 150 133
-228.754 460.908 -1442 173 142 126
-225.41 460.168 -1440 158 124 109
-222.077 459.429 -1438 131 105 88
-219.058 459.33 -1438 109 85 68
-216.192 459.553 -1439 91 72 59
-212.287 457.541 -1433 98 82 68
-209.576 458.086 -1435 84 70 55
-206.716 458.312 -1436 90 76 60
-203.286 457.264 -1433 87 71 55
-199.87 456.217 -1430 97 78 62
-197.294 457.085 -1433 139 120 96
-194.029 456.36 -1431 135 113 89
-191.042 456.275 -1431 124 96 72
-188.582 457.466 -1435 161 124 98
-185.719 457.701 -1436 189 149 123
-182.981 458.257 -1438 183 137 112
-179.985 458.176 -1438 176 133 111
-176.745 457.46 -1436 185 146 127
-173.031 455.471 -1430 178 145 132
-169.581 454.121 -1426 182 151 139
-166.5 453.728 -1425 194 167 156
-163.539 453.655 -1425 190 158 143
-161.143 455.175 -1430 180 146 130
-158.064 454.786 -1429 155 121 104
-155.424 455.671 -1432 193 156 137
-152.454 455.603 -1432 183 144 122
-149.799 456.49 -1435 171 128 105
-146.928 456.742 -1436 142 99 77
-144.354 457.95 -1440 124 82 59
-141.668 458.841 -1443 139 104 87
-138.777 459.097 -1444 113 81 65
-135.884 459.354 -1445 91 60 45
-132.804 458.977 -1444 94 62 47
-129.639 458.283 -1442 96 63 48
-126.484 457.591 -1440 124 94 76
-123.595 457.854 -1441 113 83 64
-120.787 458.435 -1443 108 80 58
-118.054 459.335 -1446 129 97 73
-115.468 460.872 -1451 160 128 103
-112.785 462.092 -1455 189 159 134
-109.709 461.725 -1454 205 175 154
-107.006 462.948 -1458 200 170 151
-104.072 463.219 -1459 161 139 123
-101.621 465.713 -1467 151 127 114
-99.3388 469.161 -1478 154 128 118
-97.2077 473.561 -1492 79 64 60
-256.847 471.186 -1482 82 74 78
-253.548 470.755 -1481 128 110 107
-249.916 469.689 -1478 112 93 88
-245.966 467.99 -1473 100 79 71
-241.049 464.388 -1462 100 77 67
-236.344 461.106 -1452 112 89 78
-232.486 459.414 -1447 165 136 121
-228.81 458.042 -1443 154 123 108
-225.31 456.989 -1440 128 94 78
-221.978 456.255 -1438 108 78 60
-218.961 456.158 -1438 96 69 51
-216.096 456.379 -1439 99 80 65
-212.488 455.015 -1435 126 104 88
-209.775 455.556 -1437 114 92 75
-206.624 455.147 -1436 111 85 68
-203.195 454.105 -1433 103 77 59
-199.362 452.115 -1427 130 103 85
-196.794 452.978 -1430 166 141 119
-193.808 452.892 -1430 172 145 122
-191.224 453.757 -1433 175 142 120
-188.63 454.623 -1436 181 142 117
-186.283 456.123 -1441 187 147 121
-183.535 456.675 -1443 177 136 110
-180.031 455.329 -1439 154 119 100
-176.79 454.617 -1437 164 135 120
-172.591 451.377 -1427 198 177 169
-169.149 450.036 -1423 246 229 223
-165.725 448.698 -1419 254 241 239
-163.122 449.574 -1422 239 223 217
-160.734 451.083 -1427 192 172 164
-157.662 450.697 -1426 154 126 112
-155.03 451.577 -1429 178 146 131
-152.281 452.141 -1431 183 149 131
-149.524 452.707 -1433 179 139 118
-146.761 453.273 -1435 164 123 102
-143.99 453.841 -1437 158 116 93
-141.507 455.357 -1442 159 124 107
-139.004 456.875 -1447 123 90 74
-135.824 456.183 -1445 101 68 54
-132.562 455.177 -1442 102 69 54
-129.403 454.488 -1440 117 84 68
-126.253 453.801 -1438 151 121 102
-123.455 454.377 -1440 143 113 93
-120.734 455.27 -1443 132 102 79
-118.084 456.48 -1447 128 98 75
-115.417 457.691 -1451 136 106 82
-112.813 459.218 -1456 164 134 109
-109.887 459.484 -1457 196 167 145
-107.179 460.698 -1461 193 164 145
-104.383 461.598 -1464 150 129 115
-102.061 464.706 -1474 112 90 80
-99.631 467.499 -1483 141 118 112
-97.4255 471.553 -1496 90 77 74
-257.426 469.175 -1486 89 80 84
-253.606 467.8 -1482 104 90 88
-249.299 465.479 -1475 74 59 56
-244.856 462.846 -1467 91 72 67
-239.789 458.953 -1455 89 65 58
-235.426 456.326 -1447 108 82 73
-231.581 454.646 -1442 132 103 88
-227.758 452.969 -1437 126 94 79
-224.897 453.184 -1438 122 88 72
-221.726 452.771 -1437 123 90 72
-218.56 452.359 -1436 138 107 88
-215.851 452.893 -1438 149 123 101
-212.543 452.17 -1436 162 127 102
-209.537 452.077 -1436 164 126 100
-206.533 451.986 -1436 171 125 97
-203.248 451.266 -1434 171 128 99
-198.576 447.402 -1422 176 135 106
-196.157 448.574 -1426 177 143 123
-192.774 447.545 -1423 188 154 133
-189.94 447.776 -1424 191 154 133
-187.497 448.951 -1428 187 146 121
-185.684 451.698 -1437 182 141 115
-182.946 452.246 -1439 171 133 107
-179.201 450.281 -1433 152 122 105
-175.606 448.633 -1428 184 161 151
-171.549 445.73 -1419 247 235 232
-168.125 444.399 -1415 255 251 250
-164.952 443.698 -1413 254 251 254
-162.363 444.569 -1416 255 252 252
-159.763 445.44 -1419 245 237 237
-157.483 447.254 -1425 204 179 170
-154.312 446.558 -1423 181 153 140
-151.576 447.119 -1425 188 158 144
-148.729 447.367 -1426 191 153 135
-145.981 447.931 -1428 184 144 125
-143.126 448.181 -1429 181 137 115
-140.955 450.628 -1437 169 133 112
-138.271 451.508 -1440 161 126 107
-135.765 453.016 -1445 167 132 115
-132.596 452.331 -1443 172 138 120
-129.526 451.96 -1442 181 146 128
-126.549 451.904 -1442 184 152 132
-123.83 452.79 -1445 186 154 132
-121.016 453.363 -1447 187 153 130
-118.358 454.564 -1451 175 146 122
-115.526 455.14 -1453 171 143 119
-112.919 456.657 -1458 178 150 125
-109.84 456.295 -1457 186 159 137
-107.205 457.814 -1462 162 135 115
-104.124 457.455 -1461 99 78 65
-101.601 459.602 -1468 110 90 82
-99.0504 461.749 -1475 115 96 93
-258.006 467.151 -1490 73 62 67
-253.324 464.217 -1481 68 58 57
-248.344 460.66 -1470 71 59 57
-243.08 456.479 -1457 85 66 63
-238.696 453.867 -1449 97 72 64
-234.672 451.885 -1443 113 85 76
-231.158 450.844 -1440 122 91 76
-227.5 449.491 -1436 129 95 80
-224.799 450.018 -1438 131 95 78
-221.628 449.608 -1437 141 103 84
-218.769 449.825 -1438 150 113 92
-215.756 449.73 -1438 162 127 103
-212.598 449.324 -1437 172 131 104
-209.591 449.232 -1437 173 131 103
-206.299 448.516 -1435 179 131 102
-202.876 447.489 -1432 183 141 112
-198.629 444.59 -1423 186 148 120
-195.796 444.816 -1424 194 157 133
-192.826 444.731 -1424 193 156 133
-189.99 444.961 -1425 189 151 129
-187.284 445.503 -1427 186 149 127
-185.216 447.607 -1434 178 141 119
-182.104 447.215 -1433 179 149 131
-178.373 445.265 -1427 189 169 160
-174.914 443.94 -1423 238 224 221
-170.991 441.369 -1415 255 253 254
-167.576 440.048 -1411 255 251 253
-164.414 439.352 -1409 255 253 255
-161.719 439.905 -1411 255 251 255
-159.13 440.771 -1414 255 253 254
-156.862 442.573 -1420 243 231 230
-154.136 443.129 -1422 216 196 190
-151.51 443.997 -1425 209 188 179
-148.664 444.244 -1426 197 168 153
-145.917 444.803 -1428 191 159 144
-143.064 445.052 -1429 192 158 141
-140.795 447.17 -1436 187 155 135
-138.019 447.733 -1438 183 151 131
-135.424 448.919 -1442 179 145 128
-132.355 448.55 -1441 177 143 125
-129.649 449.427 -1444 178 144 125
-126.757 449.683 -1445 176 146 126
-124.033 450.562 -1448 182 151 131
-120.964 450.198 -1447 192 160 139
-118.307 451.391 -1451 193 167 143
-115.317 451.341 -1451 182 157 133
-112.638 452.536 -1455 169 144 120
-109.491 451.866 -1453 152 127 106
-107.012 453.996 -1460 128 104 84
-103.936 453.639 -1459 110 89 77
-101.35 455.46 -1465 105 85 77
-98.6049 456.661 -1469 105 88 85
-96.2348 459.727 -1479 81 73 74
-252.358 459.399 -1476 75 64 64
-247.054 455.245 -1463 80 66 65
-242.307 452.027 -1453 81 62 57
-238.262 450.056 -1447 90 63 53
-234.245 448.088 -1441 103 73 61
-230.897 447.365 -1439 131 97 83
-227.084 445.711 -1434 153 117 100
-224.076 445.613 -1434 151 113 94
-220.761 444.896 -1432 167 123 101
-217.913 445.111 -1433 178 135 113
-214.913 445.018 -1433 183 140 118
-212.062 445.236 -1434 187 145 120
-208.917 444.834 -1433 197 155 130
-206.066 445.055 -1434 196 159 134
-202.788 444.346 -1432 192 158 133
-198.682 441.777 -1424 191 159 134
-195.711 441.691 -1424 194 159 133
-192.607 441.297 -1423 196 161 137
-189.641 441.215 -1423 189 154 132
-186.547 440.824 -1422 184 153 137
-184.361 442.604 -1428 209 179 166
-181.136 441.905 -1426 214 197 189
-177.296 439.659 -1419 233 223 222
-173.856 438.344 -1415 250 244 248
-170.192 436.411 -1409 252 248 251
-166.792 435.1 -1405 255 252 254
-163.759 434.719 -1404 254 251 254
-161.191 435.578 -1407 255 251 255
-158.837 437.057 -1412 255 252 255
-156.684 439.155 -1419 254 248 253
-153.961 439.707 -1421 230 218 219
-151.445 440.879 -1425 238 225 222
-148.496 440.815 -1425 232 217 206
-145.855 441.68 -1428 217 200 189
-142.902 441.618 -1428 211 192 181
-140.637 443.721 -1435 212 187 171
-137.768 443.971 -1436 206 181 164
-135.084 444.84 -1439 203 175 158
-132.114 444.782 -1439 203 175 159
-129.234 445.035 -1440 205 176 159
-126.264 444.981 -1440 202 176 158
-123.637 446.163 -1444 197 173 154
-120.661 446.111 -1444 198 176 155
-117.767 446.368 -1445 198 178 155
-114.791 446.318 -1445 191 171 148
-112.125 447.505 -1449 156 137 113
-109.142 447.458 -1449 135 116 96
-106.82 450.191 -1458 114 94 77
-103.749 449.837 -1457 111 91 85
-101.237 451.954 -1464 106 85 79
-98.7638 454.381 -1472 109 87 82
-96.4537 457.735 -1483 95 83 78
-250.198 452.443 -1464 99 77 71
-245.597 449.555 -1455 125 100 91
-241.535 447.597 -1449 134 103 91
-237.83 446.258 -1445 140 103 88
-233.819 444.303 -1439 147 108 92
-230.316 443.277 -1436 159 119 104
-226.67 441.944 -1432 169 129 112
-223.667 441.847 -1432 170 130 113
-220.204 440.826 -1429 179 138 120
-217.363 441.041 -1430 182 140 121
-214.52 441.256 -1431 188 145 123
-211.675 441.473 -1432 193 152 129
-208.244 440.458 -1429 194 154 131
-205.403 440.677 -1430 191 157 132
-202.134 439.974 -1428 192 160 136
-198.318 438.039 -1422 191 161 138
-195.49 438.263 -1423 198 171 154
-192.118 437.256 -1420 211 185 170
-189.027 436.866 -1419 215 190 177
-185.942 436.478 -1418 209 187 179
-183.121 436.707 -1419 204 184 178
-179.916 436.014 -1417 225 216 215
-176.846 435.63 -1416 245 238 240
-173.29 434.017 -1411 243 238 241
-169.877 432.713 -1407 251 248 250
-166.483 431.411 -1403 255 253 255
-163.573 431.341 -1403 254 251 254
-161.008 432.194 -1406 255 251 255
-158.431 433.047 -1409 254 250 254
-156.396 435.439 -1417 255 251 255
-153.787 436.294 -1420 251 246 246
-151.273 437.458 -1424 228 221 219
-148.432 437.701 -1425 246 240 233
-145.69 438.253 -1427 251 245 237
-142.841 438.498 -1428 255 247 240
-140.479 440.28 -1434 254 246 238
-137.422 439.914 -1433 254 245 238
-134.933 441.391 -1438 255 245 238
-132.058 441.641 -1439 255 245 237
-129.089 441.585 -1439 255 245 236
-126.298 442.145 -1441 255 243 233
-123.585 443.012 -1444 253 241 230
-120.442 442.347 -1442 251 240 227
-117.554 442.603 -1443 241 230 214
-114.662 442.86 -1444 219 207 191
-111.69 442.812 -1444 188 177 160
-108.719 442.765 -1444 150 137 124
-106.262 444.866 -1451 132 119 107
-103.278 444.821 -1451 126 110 107
-100.848 447.23 -1459 133 115 111
-98.2522 449.027 -1465 132 112 107
-95.6325 450.825 -1471 110 97 90
-93.1776 453.543 -1480 84 72 65
-253.174 449.335 -1464 126 102 96
-249.237 447.693 -1459 156 122 110
-244.985 445.439 -1452 161 125 112
-241.098 443.801 -1447 165 127 112
-237.07 441.859 -1441 176 131 114
-233.556 440.839 -1438 184 138 121
-230.057 439.82 -1435 187 144 129
-226.256 438.19 -1430 181 143 129
-223.259 438.094 -1430 167 131 118
-220.263 437.999 -1430 164 129 117
-216.966 437.294 -1428 163 129 117
-213.979 437.202 -1428 163 130 117
-210.993 437.111 -1428 172 144 130
-207.573 436.104 -1425 184 157 143
-204.884 436.628 -1427 187 164 149
-201.482 435.623 -1424 193 173 159
-198.233 434.926 -1422 203 184 171
-195.269 434.843 -1422 210 192 183
-192.036 434.149 -1420 214 197 190
-188.68 433.151 -1417 216 200 196
-185.731 433.071 -1417 197 183 182
-182.913 433.298 -1418 214 202 202
-179.458 431.999 -1414 237 232 234
-176.396 431.618 -1413 243 239 242
-172.971 430.322 -1409 250 246 249
-169.443 428.723 -1404 255 252 255
-165.938 427.125 -1399 255 252 255
-163.153 427.36 -1400 255 252 255
-160.596 428.207 -1403 255 251 255
-158.139 429.36 -1407 254 250 255
-155.998 431.43 -1414 254 251 255
-153.613 432.89 -1419 254 250 252
-150.997 433.74 -1422 247 243 245
-148.161 433.982 -1423 220 215 212
-145.424 434.53 -1425 206 202 199
-142.58 434.774 -1426 215 213 209
-140.223 436.543 -1432 227 227 225
-137.267 436.484 -1432 234 234 232
-134.594 437.341 -1435 245 243 241
-131.726 437.59 -1436 250 248 245
-128.766 437.535 -1436 251 248 245
-125.894 437.786 -1437 249 246 241
-123.019 438.038 -1438 249 245 240
-120.058 437.986 -1438 247 241 236
-117.178 438.241 -1439 243 238 230
-114.217 438.192 -1439 233 227 219
-111.179 437.84 -1438 203 198 189
-108.372 438.403 -1440 182 175 168
-105.851 440.184 -1446 216 208 202
-103.021 440.749 -1448 216 205 207
-100.391 442.228 -1453 203 190 189
-97.8755 444.316 -1460 185 170 166
-95.462 447.014 -1469 162 149 142
-93.0754 450.017 -1479 101 89 83
-254.926 444.096 -1457 118 91 89
-250.819 442.16 -1451 152 119 111
-247.594 441.75 -1450 170 127 113
-244.037 440.731 -1447 177 134 120
-240.329 439.41 -1443 176 133 119
-236.969 438.7 -1441 191 141 125
-233.457 437.687 -1438 195 146 130
-230.28 437.284 -1437 196 153 140
-226.951 436.579 -1435 191 157 147
-223.32 435.266 -1431 184 154 146
-220.17 434.868 -1430 182 157 152
-216.418 433.255 -1425 196 175 172
-213.289 432.86 -1424 212 194 193
-210.165 432.467 -1423 230 217 215
-206.756 431.467 -1420 239 228 226
-203.936 431.684 -1421 239 230 227
-200.689 430.991 -1419 238 231 229
-198.01 431.514 -1421 241 234 232
-195.049 431.431 -1421 242 232 229
-191.955 431.046 -1420 238 228 227
-188.733 430.358 -1418 229 220 220
-185.653 429.976 -1417 227 219 223
-182.578 429.595 -1416 242 235 239
-179.255 428.608 -1413 246 243 247
-176.072 427.927 -1411 253 249 253
-172.529 426.337 -1406 255 252 255
-169.13 425.052 -1402 255 252 255
-165.749 423.769 -1398 255 253 255
-162.619 423.094 -1396 255 254 255
-159.841 423.329 -1397 254 250 255
-157.623 425.08 -1403 254 251 255
-155.381 426.832 -1409 252 251 255
-152.791 427.676 -1412 254 251 255
-150.721 430.035 -1420 254 251 255
-147.89 430.275 -1421 252 250 251
-145.261 431.122 -1424 235 235 235
-142.42 431.364 -1425 225 229 228
-139.773 432.213 -1428 217 220 221
-137.018 432.76 -1430 213 216 217
-134.162 433.006 -1431 208 210 211
-131.212 432.95 -1431 205 207 207
-128.353 433.199 -1432 203 205 205
-125.491 433.448 -1433 199 202 199
-122.54 433.396 -1433 199 198 197
-119.673 433.647 -1434 200 197 198
-116.641 433.296 -1433 201 199 197
-113.772 433.55 -1434 213 211 209
-110.901 433.805 -1435 227 225 223
-108.101 434.364 -1437 243 240 240
-105.514 435.83 -1442 254 253 253
-102.978 437.6 -1448 255 249 253
-100.487 439.673 -1455 251 245 246
-97.7674 440.84 -1459 231 223 220
-95.5519 444.425 -1471 192 178 175
-93.2251 447.709 -1482 146 133 129
-91.0364 451.9 -1496 72 60 56
-260.012 444.642 -1469 76 61 69
-254.643 440.599 -1456 136 106 102
-250.886 439.282 -1452 158 121 111
-248.001 439.479 -1453 175 131 118
-244.44 438.468 -1450 178 135 123
-240.56 436.854 -1445 184 144 134
-237.033 435.847 -1442 190 147 138
-233.358 434.539 -1438 195 154 146
-229.381 432.628 -1432 201 167 161
-226.064 431.928 -1430 214 189 186
-222.602 430.928 -1427 232 214 212
-219.154 429.929 -1424 244 232 232
-215.872 429.234 -1422 249 238 240
-212.75 428.842 -1421 246 237 239
-209.634 428.452 -1420 242 237 238
-206.524 428.063 -1419 241 236 238
-203.42 427.675 -1418 242 238 239
-200.322 427.289 -1417 242 238 240
-197.648 427.808 -1419 246 242 244
-194.555 427.425 -1418 248 242 243
-191.604 427.344 -1418 244 239 241
-188.521 426.963 -1417 237 232 235
-185.575 426.884 -1417 245 237 241
-182.372 426.205 -1415 252 245 248
-179.053 425.226 -1412 254 251 252
-175.873 424.549 -1410 255 253 255
-172.334 422.971 -1405 253 249 252
-168.939 421.696 -1401 255 252 255
-165.442 420.121 -1396 255 251 254
-162.318 419.45 -1394 255 252 255
-159.431 419.383 -1394 255 252 255
-156.659 419.618 -1395 254 251 255
-154.544 421.659 -1402 253 249 255
-151.862 422.196 -1404 254 252 255
-149.809 424.539 -1412 255 251 255
-147.204 425.379 -1415 254 250 253
-144.588 426.22 -1418 252 251 253
-141.961 427.061 -1421 248 249 250
-139.323 427.905 -1424 246 245 244
-136.482 428.148 -1425 246 245 244
-133.638 428.392 -1426 245 244 243
-130.791 428.637 -1427 244 243 242
-127.672 427.983 -1425 244 243 242
-124.826 428.23 -1426 242 241 239
-122.061 428.78 -1428 242 239 238
-119.206 429.03 -1429 241 236 236
-116.267 428.981 -1429 241 236 235
-113.725 430.434 -1434 242 238 237
-110.777 430.387 -1434 250 248 247
-107.981 430.942 -1436 255 253 254
-105.47 432.698 -1442 254 251 253
-102.864 434.155 -1447 255 252 255
-100.238 435.613 -1452 254 251 251
-97.5257 436.772 -1456 255 252 250
-94.9927 438.832 -1463 251 245 243
-92.5574 441.492 -1472 188 176 174
-90.2077 444.753 -1483 110 95 93
-258.133 438.42 -1459 93 77 82
-253.662 435.909 -1451 150 117 109
-249.917 434.602 -1447 165 126 112
-247.044 434.798 -1448 180 136 122
-243.494 433.795 -1445 185 145 134
-239.627 432.193 -1440 186 149 143
-235.619 430.293 -1434 185 153 150
-232.125 429.295 -1431 213 183 181
-228.805 428.599 -1429 245 225 224
-225.18 427.304 -1425 253 244 244
-222.197 427.211 -1425 255 245 246
-219.062 426.819 -1424 253 248 250
-215.63 425.829 -1421 254 249 252
-212.661 425.74 -1421 255 250 253
-209.841 425.951 -1422 254 250 253
-206.437 424.966 -1419 255 251 254
-203.478 424.881 -1419 255 253 255
-200.238 424.198 -1417 255 252 254
-197.426 424.414 -1418 255 252 254
-194.337 424.034 -1417 252 249 252
-191.254 423.654 -1416 249 245 249
-188.176 423.276 -1415 246 242 246
-185.236 423.198 -1415 254 246 249
-182.168 422.823 -1414 255 251 253
-178.599 421.253 -1409 255 252 252
-175.426 420.582 -1407 255 253 254
-171.895 419.015 -1402 255 252 255
-168.627 418.048 -1399 255 253 255
-165.137 416.485 -1394 255 253 255
-162.134 416.118 -1393 255 252 255
-159.136 415.753 -1392 255 252 255
-156.032 415.09 -1390 254 251 255
-153.599 416.221 -1394 255 249 255
-151.15 417.352 -1398 255 250 255
-148.686 418.484 -1402 255 250 255
-145.999 419.02 -1404 255 252 254
-143.611 420.452 -1409 255 252 254
-141.103 421.587 -1413 254 251 253
-138.678 423.021 -1418 255 253 255
-136.042 423.859 -1421 255 253 255
-133.208 424.101 -1422 255 252 254
-130.554 424.941 -1425 255 252 252
-127.44 424.292 -1423 255 253 253
-124.686 424.836 -1425 255 253 253
-122.011 425.679 -1428 255 252 252
-119.157 425.928 -1429 254 251 250
-116.219 425.879 -1429 255 252 250
-113.44 426.428 -1431 255 251 249
-110.654 426.978 -1433 255 251 250
-107.861 427.528 -1435 254 251 253
-105.426 429.57 -1442 253 251 254
-102.75 430.718 -1446 253 254 255
-99.9896 431.57 -1449 253 253 253
-97.2845 432.721 -1453 254 252 251
-94.6938 434.468 -1459 253 247 248
-91.7649 434.727 -1460 199 189 189
-89.076 436.179 -1465 132 116 115
-262.889 438.32 -1469 64 47 50
-256.965 433.438 -1453 113 93 88
-253.556 432.735 -1451 156 121 105
-249.64 431.14 -1446 175 135 116
-246.429 430.739 -1445 185 142 126
-243.056 430.041 -1443 188 150 141
-239.195 428.451 -1438 187 153 150
-235.357 426.863 -1433 219 197 200
-232.028 426.17 -1431 253 234 237
-228.39 424.883 -1427 254 241 243
-225.086 424.194 -1425 255 247 248
-221.637 423.209 -1422 253 245 247
-218.663 423.117 -1422 254 251 253
-215.388 422.433 -1420 254 251 253
-212.273 422.047 -1419 255 251 252
-209.312 421.959 -1419 255 251 253
-206.061 421.279 -1417 255 252 254
-203.107 421.194 -1417 255 252 254
-200.155 421.111 -1417 255 252 254
-197.205 421.029 -1417 255 252 254
-194.119 420.651 -1416 252 249 253
-191.174 420.571 -1416 247 244 249
-188.098 420.196 -1415 249 245 250
-184.897 419.525 -1413 255 249 251
-181.706 418.856 -1411 255 251 252
-178.018 417.001 -1405 255 252 252
-174.73 416.038 -1402 255 251 254
-171.334 414.78 -1398 255 252 255
-168.317 414.413 -1397 253 251 254
-165.068 413.455 -1394 249 248 252
-162.183 413.387 -1394 249 249 251
-159.071 412.728 -1392 253 249 254
-156.08 412.367 -1391 254 249 254
-153.425 412.896 -1393 255 246 254
-150.764 413.427 -1395 253 247 252
-148.095 413.958 -1397 253 249 253
-145.627 415.083 -1401 254 251 252
-143.042 415.912 -1404 255 252 254
-140.846 417.927 -1411 255 254 255
-138.328 419.055 -1415 254 251 255
-135.699 419.887 -1418 254 252 255
-132.778 419.832 -1418 254 251 255
-130.042 420.37 -1420 255 252 255
-127.209 420.614 -1421 255 253 255
-124.548 421.45 -1424 255 252 255
-121.704 421.695 -1425 255 250 252
-118.941 422.238 -1427 255 249 249
-116.09 422.486 -1428 255 249 247
-113.393 423.326 -1431 255 252 250
-110.609 423.872 -1433 255 252 251
-107.892 424.715 -1436 255 251 253
-105.237 425.854 -1440 254 250 253
-102.708 427.586 -1446 249 253 252
-99.6726 427.248 -1445 251 252 253
-97.1107 428.982 -1451 254 254 254
-94.4603 430.421 -1456 253 250 252
-91.6644 431.27 -1459 211 203 204
-88.9787 432.711 -1464 179 160 158
-87.8002 441.837 -1495 104 83 80
-263.675 436.59 -1474 77 54 51
-256.858 430.263 -1453 127 103 97
-253.101 428.974 -1449 165 130 115
-248.328 425.91 -1439 175 139 122
-245.134 425.513 -1438 180 144 132
-241.945 425.116 -1437 185 155 149
-238.431 424.13 -1434 234 208 207
-234.767 422.849 -1430 247 233 238
-231.608 422.458 -1429 236 222 225
-228.135 421.477 -1426 247 234 237
-224.677 420.497 -1423 255 248 249
-221.545 420.109 -1422 255 250 251
-218.419 419.724 -1421 254 249 249
-215.299 419.339 -1420 253 251 252
-212.186 418.956 -1419 253 252 254
-209.225 418.87 -1419 255 253 255
-206.122 418.489 -1418 255 253 255
-203.024 418.11 -1417 255 251 255
-199.932 417.733 -1416 253 251 255
-196.985 417.651 -1416 253 251 255
-193.765 416.981 -1414 250 249 254
-190.691 416.608 -1413 248 246 251
-187.49 415.941 -1411 253 250 254
-184.037 414.686 -1407 255 251 254
-180.73 413.727 -1404 255 251 254
-177.438 412.77 -1401 255 252 255
-174.285 412.109 -1399 255 253 255
-170.896 410.86 -1395 253 247 250
-168.007 410.791 -1395 237 234 239
-164.882 410.134 -1393 227 226 231
-162.117 410.361 -1394 231 231 235
-159.005 409.707 -1392 245 241 246
-156.128 409.643 -1392 253 249 254
-153.252 409.58 -1392 254 248 252
-150.702 410.4 -1395 246 242 244
-147.716 410.045 -1394 241 239 240
-145.048 410.574 -1396 241 241 241
-142.577 411.692 -1400 247 245 247
-140.189 413.104 -1405 252 250 252
-137.685 414.224 -1409 255 252 255
-135.357 415.932 -1415 255 252 255
-132.631 416.465 -1417 255 252 255
-129.989 417.294 -1420 255 252 255
-127.157 417.535 -1421 255 252 255
-124.584 418.659 -1425 254 251 254
-121.911 419.49 -1428 254 252 254
-119.143 420.029 -1430 253 251 253
-116.124 419.687 -1429 254 250 250
-113.426 420.522 -1432 255 251 251
-110.564 420.77 -1433 255 251 252
-107.773 421.313 -1435 253 250 253
-105.121 422.444 -1439 251 249 252
-102.595 424.163 -1445 249 252 252
-99.9078 425.296 -1449 252 254 255
-97.1382 426.137 -1452 247 247 250
-94.357 426.978 -1455 255 254 255
-91.6271 428.114 -1459 253 244 244
-88.7602 428.665 -1461 243 222 218
-86.9426 434.497 -1481 184 159 151
-273.909 445.245 -1514 90 61 56
-264.818 435.431 -1481 116 87 80
-257.283 427.974 -1456 172 144 137
-252.299 424.637 -1445 192 158 145
-247.191 421.009 -1433 198 164 151
-244.181 420.908 -1433 198 167 157
-241.173 420.809 -1433 196 172 169
-238.001 420.418 -1432 240 219 219
-234.671 419.734 -1430 247 237 242
-231.675 419.639 -1430 234 223 228
-227.722 417.784 -1424 243 231 235
-224.112 416.519 -1420 254 244 246
-221.143 416.428 -1420 255 246 247
-218.023 416.045 -1419 255 250 251
-214.908 415.664 -1418 254 250 252
-211.8 415.284 -1417 255 252 254
-208.845 415.198 -1417 255 253 255
-205.747 414.82 -1416 255 252 255
-202.511 414.152 -1414 255 252 255
-199.568 414.07 -1414 255 252 255
-196.626 413.989 -1414 254 251 255
-193.549 413.617 -1413 251 248 253
-190.344 412.954 -1411 248 245 250
-187.28 412.584 -1410 252 249 254
-183.7 411.046 -1405 254 251 255
-180.399 410.095 -1402 253 250 254
-176.986 408.852 -1398 247 246 251
-173.84 408.196 -1396 237 230 234
-170.949 408.126 -1396 229 222 226
-168.179 408.35 -1397 220 217 222
-165.17 407.99 -1396 222 221 225
-162.283 407.924 -1396 229 229 233
-159.398 407.859 -1396 243 239 244
-156.289 407.21 -1394 253 248 252
-153.63 407.732 -1396 255 250 252
-150.749 407.67 -1396 253 252 252
-147.868 407.61 -1396 249 248 249
-145.093 407.843 -1397 243 243 244
-142.722 409.244 -1402 240 238 241
-140.033 409.771 -1404 240 237 241
-137.629 411.174 -1409 248 243 246
-135.015 411.994 -1412 249 244 247
-132.483 413.107 -1416 253 248 251
-129.753 413.638 -1418 255 252 254
-127.016 414.169 -1420 255 253 254
-124.534 415.577 -1425 255 252 253
-121.947 416.693 -1429 252 251 253
-119.261 417.52 -1432 252 252 254
-116.239 417.18 -1431 254 253 253
-113.618 418.3 -1435 254 252 252
-110.75 418.546 -1436 253 251 252
-107.954 419.085 -1438 253 251 254
-105.005 419.042 -1438 253 252 254
-102.483 420.749 -1444 249 252 253
-99.5228 420.708 -1444 251 252 254
-96.9652 422.417 -1450 250 250 253
-93.9948 422.378 -1450 249 246 249
-91.339 423.797 -1455 215 204 204
-88.7851 425.8 -1462 184 159 153
-87.3182 433.337 -1488 139 109 97
-274.52 443.111 -1518 151 112 102
-266.319 434.829 -1490 181 145 135
-258.591 427.135 -1464 199 166 160
-253.069 422.947 -1450 225 190 180
-247.091 417.887 -1433 249 215 205
-244.082 417.788 -1433 251 224 216
-240.907 417.398 -1432 246 227 223
-237.572 416.718 -1430 251 239 238
-234.247 416.039 -1428 247 239 243
-231.095 415.654 -1427 235 225 230
-227.63 414.687 -1424 239 228 234
-224.178 413.722 -1421 254 250 253
-221.053 413.341 -1420 255 247 249
-217.934 412.961 -1419 255 249 251
-214.821 412.582 -1418 255 251 252
-211.714 412.205 -1417 255 252 253
-208.613 411.829 -1416 255 253 255
-205.518 411.455 -1415 255 252 255
-202.286 410.791 -1413 255 252 255
-199.205 410.419 -1412 255 251 254
-196.269 410.34 -1412 253 248 251
-193.06 409.68 -1410 252 247 249
-190.132 409.603 -1410 253 250 254
-186.674 408.365 -1406 253 250 252
-183.364 407.419 -1403 245 243 246
-180.198 406.765 -1401 235 232 237
-176.915 405.822 -1398 225 223 229
-173.894 405.461 -1397 229 222 226
-171.002 405.392 -1397 226 220 224
-168.352 405.904 -1399 227 224 229
-165.222 405.257 -1397 234 233 237
-162.334 405.191 -1397 240 240 244
-159.447 405.126 -1397 249 245 250
-156.45 404.773 -1396 254 251 254
-153.678 405.001 -1397 254 253 254
-150.904 405.229 -1398 254 253 254
-148.021 405.169 -1398 253 253 254
-145.242 405.4 -1399 252 251 253
-142.665 406.212 -1402 251 249 252
-139.976 406.734 -1404 251 247 251
-137.574 408.127 -1409 251 245 246
-134.961 408.941 -1412 249 244 245
-132.43 410.046 -1416 247 241 242
-129.884 411.152 -1420 243 238 237
-127.323 412.259 -1424 245 239 238
-124.746 413.366 -1428 252 246 244
-121.983 413.896 -1430 252 252 251
-119.13 414.137 -1431 252 254 254
-116.273 414.379 -1432 253 253 253
-113.493 414.912 -1434 252 252 252
-110.32 413.999 -1431 254 254 254
-107.536 414.534 -1433 254 254 255
-105.036 416.227 -1439 252 252 254
-102.3 417.053 -1442 254 254 255
-99.483 417.592 -1444 254 254 255
-97.06 419.866 -1452 254 254 255
-94.2811 420.695 -1455 252 248 249
-91.428 421.236 -1457 217 205 203
-89.1137 424.38 -1468 184 159 150
-88.0457 433.884 -1501 158 125 112
-87.9758 449.169 -1554 131 98 85
-274.951 440.674 -1521 154 108 93
-267.998 434.481 -1500 153 109 98
-260.075 426.554 -1473 155 113 106
-253.49 420.66 -1453 161 121 110
-247.508 415.638 -1436 178 139 127
-244.153 414.96 -1434 181 149 136
-240.641 413.994 -1431 185 161 152
-237.808 414.187 -1432 209 189 182
-234.317 413.225 -1429 230 222 228
-231.002 412.553 -1427 228 220 226
-227.538 411.594 -1424 240 233 240
-224.246 410.925 -1422 255 248 254
-220.964 410.257 -1420 255 250 255
-217.539 409.303 -1417 255 250 255
-214.583 409.216 -1417 255 252 253
-211.33 408.553 -1415 255 252 253
-208.235 408.18 -1414 255 252 255
-205 407.52 -1412 255 252 255
-202.061 407.439 -1412 255 253 255
-198.843 406.781 -1410 255 250 252
-195.912 406.702 -1410 255 248 249
-192.846 406.336 -1409 255 249 248
-189.921 406.259 -1409 248 243 244
-186.864 405.896 -1408 234 229 230
-183.421 404.669 -1404 225 221 224
-180.126 403.732 -1401 225 221 224
-177.223 403.66 -1401 227 223 226
-174.074 403.014 -1399 229 223 227
-171.178 402.945 -1399 231 225 229
-168.405 403.165 -1400 237 234 239
-165.51 403.099 -1400 246 245 249
-162.501 402.745 -1399 251 251 254
-159.612 402.681 -1399 255 251 255
-156.612 402.33 -1398 253 251 255
-153.837 402.556 -1399 252 252 254
-150.843 402.208 -1398 252 252 255
-148.279 403.011 -1401 254 253 255
-145.184 402.377 -1399 255 252 255
-142.71 403.47 -1403 255 251 255
-139.921 403.702 -1404 255 252 255
-137.519 405.084 -1409 255 251 252
-134.907 405.893 -1412 252 248 249
-132.471 407.277 -1417 247 244 245
-129.924 408.374 -1421 237 236 236
-127.182 408.898 -1423 230 228 228
-124.521 409.71 -1426 233 229 227
-121.849 410.523 -1429 239 236 234
-118.999 410.762 -1430 246 244 242
-116.146 411.003 -1431 253 250 248
-113.369 411.531 -1433 254 253 251
-110.43 411.487 -1433 254 253 252
-107.793 412.592 -1437 254 254 254
-104.994 413.124 -1439 254 254 254
-102.33 414.232 -1443 255 251 251
-99.7189 415.627 -1448 255 253 253
-96.8209 415.875 -1449 255 255 255
-94.2436 417.559 -1455 253 249 249
-91.8307 420.105 -1464 222 209 206
-89.6851 424.086 -1478 188 163 154
-88.3626 432.371 -1507 170 136 121
-87.9974 446.108 -1555 129 94 78
-275.744 438.803 -1526 142 90 71
-269.497 433.806 -1509 158 106 92
-261.559 425.938 -1482 170 119 110
-254.086 418.651 -1457 164 119 108
-248.27 413.954 -1441 176 134 122
-244.566 412.706 -1437 173 137 122
-240.713 411.173 -1432 176 146 134
-237.381 410.504 -1430 195 167 156
-234.059 409.836 -1428 231 220 223
-230.748 409.169 -1426 231 221 225
-227.287 408.217 -1423 239 230 236
-224.156 407.84 -1422 253 246 253
-221.031 407.465 -1421 255 250 255
-217.606 406.517 -1418 255 248 255
-214.497 406.144 -1417 254 251 253
-211.395 405.773 -1416 255 253 255
-208.299 405.403 -1415 255 252 255
-205.208 405.034 -1414 255 252 255
-202.267 404.953 -1414 255 253 255
-198.904 404.015 -1411 255 252 254
-195.834 403.65 -1410 253 248 249
-192.769 403.286 -1409 238 232 231
-189.98 403.497 -1410 218 212 214
-186.79 402.85 -1408 214 209 211
-183.74 402.49 -1407 220 217 220
-180.697 402.132 -1406 223 220 223
-177.659 401.775 -1405 229 226 229
-174.502 401.133 -1403 236 231 234
-171.355 400.493 -1401 246 241 245
-168.699 400.997 -1403 253 250 254
-165.681 400.645 -1402 255 252 255
-162.553 400.009 -1400 255 252 255
-159.548 399.66 -1399 255 252 255
-156.55 399.311 -1398 255 252 255
-153.776 399.536 -1399 253 251 255
-150.784 399.19 -1398 254 251 255
-148.009 399.416 -1399 255 252 255
-145.127 399.358 -1399 255 251 255
-142.551 400.158 -1402 255 251 255
-139.865 400.673 -1404 255 251 255
-137.269 401.474 -1407 255 252 254
-134.758 402.562 -1411 254 250 252
-132.325 403.936 -1416 254 251 253
-129.781 405.025 -1420 250 247 249
-127.043 405.545 -1422 246 243 245
-124.472 406.636 -1426 241 238 239
-121.801 407.443 -1429 236 233 232
-118.952 407.681 -1430 234 232 229
-116.019 407.634 -1430 240 237 235
-113.008 407.304 -1429 248 247 245
-110.387 408.4 -1433 254 253 251
-107.45 408.357 -1433 254 253 253
-104.807 409.455 -1437 253 251 252
-102.006 409.984 -1439 255 251 251
-99.6106 412.224 -1447 255 251 252
-96.8495 413.04 -1450 255 254 255
-94.0122 413.572 -1452 254 251 251
-91.6063 416.099 -1461 224 211 207
-89.5891 420.62 -1477 183 158 150
-88.0933 427.989 -1503 175 140 125
-87.5102 440.483 -1547 140 102 86
-282.684 441.591 -1547 156 87 71
-275.454 435.201 -1525 165 112 95
-269.925 431.384 -1512 166 115 102
-262.337 424.146 -1487 165 117 106
-254.507 416.343 -1460 165 122 110
-248.86 411.966 -1445 172 129 116
-245.319 411.013 -1442 177 135 121
-241.289 409.207 -1436 187 146 134
-237.618 407.972 -1432 197 158 147
-233.966 406.739 -1428 232 218 215
-230.656 406.078 -1426 236 223 223
-227.037 404.848 -1422 237 225 228
-223.594 403.905 -1419 244 237 243
-220.477 403.533 -1418 251 245 251
-217.366 403.162 -1417 255 250 255
-213.959 402.223 -1414 255 253 255
-210.864 401.855 -1413 253 250 253
-207.922 401.772 -1413 254 251 254
-204.837 401.406 -1412 255 253 255
-202.044 401.61 -1413 252 250 252
-198.826 400.963 -1411 238 235 238
-195.895 400.885 -1411 218 216 218
-192.693 400.24 -1409 211 208 209
-190.039 400.733 -1411 211 208 211
-186.849 400.091 -1409 216 212 215
-183.798 399.734 -1408 225 222 225
-180.882 399.662 -1408 236 233 236
-177.841 399.308 -1407 245 243 245
-174.557 398.388 -1404 254 250 253
-171.654 398.319 -1404 255 251 254
-168.632 397.969 -1403 255 251 254
-165.616 397.62 -1402 254 250 253
-162.489 396.988 -1400 254 250 253
-159.6 396.925 -1400 255 252 254
-156.712 396.863 -1400 255 252 255
-153.825 396.802 -1400 255 251 255
-150.724 396.175 -1398 255 251 255
-147.95 396.4 -1399 255 252 255
-145.07 396.343 -1399 255 251 255
-142.394 396.853 -1401 255 252 255
-139.711 397.364 -1403 255 252 255
-137.411 399.009 -1409 255 252 255
-134.705 399.522 -1411 255 253 255
-132.18 400.603 -1415 255 253 255
-129.639 401.684 -1419 255 251 254
-126.904 402.2 -1421 255 253 255
-124.249 403 -1424 255 254 255
-121.498 403.518 -1426 255 254 255
-118.573 403.471 -1426 254 254 254
-115.892 404.274 -1429 252 252 251
-113.043 404.512 -1430 252 250 251
-110.19 404.751 -1431 253 250 251
-107.408 405.274 -1433 255 252 255
-104.912 406.93 -1439 255 253 254
-102.108 407.455 -1441 255 251 252
-99.2964 407.981 -1443 254 251 253
-96.6113 409.074 -1447 253 250 253
-94.0401 410.733 -1453 254 251 253
-91.4452 412.393 -1459 224 212 209
-89.5541 417.445 -1477 182 157 149
-88.3518 426.171 -1508 179 146 132
-87.589 437.723 -1549 152 115 100
-282.206 437.667 -1545 188 115 98
-274.984 431.325 -1523 173 119 106
-269.819 428.103 -1512 165 116 102
-262.586 421.487 -1489 160 113 100
-254.755 413.743 -1462 165 123 111
-249.622 410.248 -1450 167 124 112
-245.903 409.019 -1446 176 132 119
-241.698 406.944 -1439 184 142 129
-237.856 405.436 -1434 187 148 136
-233.71 403.364 -1427 226 207 204
-230.403 402.708 -1425 239 225 226
-226.948 401.77 -1422 235 224 227
-223.979 401.682 -1422 238 233 238
-220.39 400.465 -1418 247 241 247
-217.434 400.379 -1418 255 249 255
-214.177 399.73 -1416 255 252 255
-211.079 399.364 -1415 254 252 255
-207.987 399 -1414 255 253 255
-205.047 398.919 -1414 248 246 248
-202.25 399.121 -1415 227 224 227
-199.311 399.043 -1415 206 203 204
-196.096 398.402 -1413 205 203 204
-192.891 397.762 -1411 216 215 217
-190.099 397.969 -1412 230 227 230
-186.908 397.332 -1410 241 238 241
-183.857 396.977 -1409 250 247 250
-180.811 396.625 -1408 254 251 254
-177.772 396.273 -1407 254 251 254
-174.613 395.641 -1405 255 252 255
-171.22 394.447 -1401 254 251 254
-168.326 394.381 -1401 253 249 252
-165.197 393.753 -1399 251 247 250
-162.193 393.408 -1398 252 248 251
-159.423 393.627 -1399 255 250 253
-156.539 393.565 -1399 255 251 255
-153.546 393.224 -1398 255 250 255
-150.45 392.602 -1396 255 251 255
-147.787 393.107 -1398 255 252 255
-144.91 393.05 -1398 255 252 255
-142.237 393.556 -1400 255 252 255
-139.656 394.345 -1403 255 252 255
-137.065 395.134 -1406 255 252 255
-134.462 395.924 -1409 255 252 255
-131.848 396.716 -1412 255 252 255
-129.314 397.789 -1416 255 252 255
-126.497 398.02 -1417 255 253 255
-123.939 399.095 -1421 255 253 255
-121.365 400.171 -1425 254 252 253
-118.444 400.124 -1425 254 252 252
-115.685 400.64 -1427 254 252 252
-112.999 401.438 -1430 254 252 253
-110.07 401.395 -1430 255 253 255
-107.442 402.476 -1434 255 253 255
-104.725 403.277 -1437 254 251 254
-101.997 404.078 -1440 255 252 254
-99.3953 405.442 -1445 255 253 255
-96.7073 406.527 -1449 254 251 254
-94.133 408.173 -1455 253 250 253
-91.535 409.82 -1461 222 210 208
-89.58 414.554 -1478 179 157 148
-88.2004 422.373 -1506 182 149 137
-87.3289 433.276 -1545 162 128 114
-281.365 433.192 -1541 203 136 121
-274.695 427.743 -1522 173 120 106
-269.178 423.984 -1509 165 116 103
-262.307 417.98 -1488 163 116 103
-254.83 410.857 -1463 163 121 109
-249.697 407.389 -1451 168 125 112
-245.976 406.17 -1447 177 132 119
-241.939 404.391 -1441 183 140 126
-238.095 402.894 -1436 184 144 131
-233.782 400.558 -1428 217 192 188
-230.313 399.626 -1425 243 228 229
-226.699 398.415 -1421 238 227 230
-223.734 398.328 -1421 238 234 238
-220.149 397.12 -1417 248 241 246
-217.196 397.035 -1417 255 248 254
-213.942 396.391 -1415 255 252 255
-211.146 396.588 -1416 254 252 255
-208.2 396.507 -1416 245 243 245
-205.257 396.427 -1416 223 220 223
-202.457 396.628 -1417 210 207 210
-199.515 396.55 -1417 225 222 223
-196.297 395.913 -1415 240 238 239
-193.089 395.278 -1413 246 246 248
-190.026 394.924 -1412 254 253 254
-186.703 394.012 -1409 255 253 255
-183.655 393.661 -1408 255 252 255
-180.484 393.031 -1406 255 251 254
-177.45 392.683 -1405 255 252 255
-174.173 391.776 -1402 255 253 255
-170.91 390.871 -1399 255 252 255
-168.02 390.806 -1399 254 250 253
-165.015 390.462 -1398 254 250 253
-161.899 389.84 -1396 255 251 254
-159.248 390.337 -1398 255 249 253
-156.478 390.555 -1399 255 249 254
-153.486 390.216 -1398 255 250 255
-150.392 389.599 -1396 255 251 255
-147.624 389.821 -1397 255 252 255
-144.543 389.206 -1395 255 252 255
-141.978 389.988 -1398 255 252 255
-139.403 390.771 -1401 255 252 255
-136.914 391.833 -1405 255 253 255
-134.219 392.339 -1407 255 252 255
-131.61 393.124 -1410 255 253 255
-128.808 393.353 -1411 255 254 255
-126.181 394.14 -1414 255 254 255
-123.629 395.207 -1418 255 254 255
-120.807 395.438 -1419 255 252 253
-118.232 396.507 -1423 255 252 253
-115.641 397.576 -1427 255 252 253
-112.797 397.811 -1428 255 252 254
-110.104 398.604 -1431 254 251 254
-107.55 399.955 -1436 254 252 254
-104.758 400.471 -1438 255 252 254
-101.958 400.988 -1440 255 251 254
-99.2883 402.064 -1444 254 251 254
-96.6032 403.14 -1448 255 253 254
-93.7734 403.66 -1450 253 250 253
-91.2492 405.573 -1457 220 208 206
-89.0607 409.157 -1470 181 160 151
-87.6395 416.638 -1497 184 152 141
-86.7304 427.18 -1535 175 141 128
-285.052 430.802 -1544 193 130 117
-279.796 427.623 -1533 196 135 123
-273.867 423.332 -1518 169 117 103
-268.181 419.323 -1504 169 121 108
-262.029 414.481 -1487 167 120 107
-255.427 408.807 -1467 164 122 110
-250.116 405.087 -1454 167 123 110
-246.221 403.598 -1449 174 130 114
-242.684 402.668 -1446 180 137 123
-238.334 400.347 -1438 179 138 126
-234.019 398.029 -1430 201 170 163
-230.87 397.661 -1429 246 229 230
-227.09 396.181 -1424 251 240 245
-223.805 395.538 -1422 246 242 245
-220.374 394.618 -1419 252 245 249
-217.418 394.533 -1419 255 246 251
-213.859 393.338 -1415 253 247 252
-211.064 393.534 -1416 243 236 242
-208.267 393.731 -1417 217 214 217
-205.322 393.652 -1417 218 215 218
-202.379 393.573 -1417 241 238 241
-199.297 393.218 -1416 253 250 251
-196.221 392.864 -1415 254 252 253
-193.014 392.234 -1413 255 254 255
-189.952 391.883 -1412 254 252 254
-186.631 390.978 -1409 254 251 254
-183.454 390.352 -1407 255 253 255
-180.287 389.728 -1405 255 252 255
-177.003 388.827 -1402 255 252 255
-173.857 388.205 -1400 255 252 255
-170.722 387.584 -1398 255 252 255
-167.716 387.242 -1397 254 251 254
-164.833 387.179 -1397 254 251 253
-161.836 386.839 -1396 254 251 254
-159.186 387.331 -1398 255 250 253
-156.194 386.994 -1397 255 248 253
-153.317 386.935 -1397 255 250 255
-150.226 386.323 -1395 255 252 255
-147.567 386.82 -1397 255 252 255
-144.487 386.21 -1395 255 252 255
-141.924 386.986 -1398 255 252 255
-139.25 387.486 -1400 255 252 255
-136.764 388.54 -1404 255 252 255
-134.072 389.042 -1406 255 252 255
-131.373 389.544 -1408 253 249 252
-128.667 390.048 -1410 246 242 245
-126.132 391.106 -1414 246 242 245
-123.582 392.164 -1418 252 249 252
-120.846 392.671 -1420 254 253 254
-118.353 394.008 -1425 255 253 254
-115.596 394.516 -1427 255 252 253
-112.833 395.025 -1429 255 252 254
-109.908 394.983 -1429 255 253 255
-107.359 396.324 -1434 255 252 255
-104.717 397.389 -1438 255 252 255
-101.99 398.178 -1441 255 251 254
-99.1816 398.692 -1443 253 249 252
-96.3663 399.208 -1445 251 247 250
-93.6729 400.277 -1449 251 248 250
-91.0891 401.899 -1455 222 210 208
-88.724 404.627 -1465 181 160 151
-87.4305 412.602 -1494 184 151 141
-86.3583 422.235 -1529 178 145 133
-284.019 426.076 -1539 196 140 129
-279.14 423.477 -1530 177 122 110
-273.58 419.772 -1517 169 118 104
-268.078 416.071 -1504 171 123 109
-262.456 412.097 -1490 169 122 108
-256.373 407.296 -1473 165 122 109
-250.191 402.222 -1455 164 121 107
-246.465 401.021 -1451 168 124 108
-243.094 400.375 -1449 175 132 118
-238.739 398.072 -1441 177 136 123
-234.583 396.048 -1434 198 162 153
-230.943 394.854 -1430 247 230 230
-227.162 393.386 -1425 255 250 253
-223.561 392.195 -1421 254 250 252
-220.135 391.282 -1418 255 250 252
-217.335 391.475 -1419 248 240 244
-213.777 390.289 -1415 239 234 238
-210.834 390.208 -1415 238 233 237
-208.04 390.403 -1416 241 239 241
-205.099 390.324 -1416 248 245 248
-202.016 389.971 -1415 255 252 255
-199.08 389.894 -1415 255 252 255
-195.73 388.992 -1412 253 251 253
-192.804 388.919 -1412 254 252 255
-189.611 388.295 -1410 255 252 255
-186.295 387.397 -1407 255 251 254
-182.993 386.501 -1404 255 253 255
-179.704 385.606 -1401 255 252 255
-176.557 384.988 -1399 255 253 255
-173.419 384.371 -1397 253 249 252
-170.412 384.03 -1396 246 243 246
-167.532 383.966 -1396 242 239 242
-164.77 384.178 -1397 243 240 242
-161.659 383.566 -1395 246 243 246
-159.126 384.33 -1398 251 247 250
-156.247 384.27 -1398 254 248 253
-153.369 384.211 -1398 255 250 255
-150.169 383.329 -1395 255 252 255
-147.511 383.822 -1397 255 252 255
-144.432 383.217 -1395 255 252 255
-141.768 383.712 -1397 255 251 255
-138.998 383.934 -1398 255 251 255
-136.615 385.254 -1403 255 252 255
-134.021 386.027 -1406 254 251 253
-131.603 387.349 -1411 245 241 244
-128.801 387.574 -1412 222 218 221
-126.263 388.624 -1416 214 210 213
-123.796 389.949 -1421 220 217 220
-120.971 390.177 -1422 227 226 226
-118.308 390.955 -1425 235 234 234
-115.471 391.185 -1426 245 243 244
-112.79 391.965 -1429 250 248 250
-109.944 392.197 -1430 253 251 253
-107.244 392.978 -1433 254 251 254
-104.751 394.584 -1439 254 251 254
-101.951 395.093 -1441 254 251 254
-99.0753 395.329 -1442 253 250 253
-96.3297 396.115 -1445 250 247 250
-93.6374 397.175 -1449 246 242 245
-90.9921 398.511 -1454 213 201 199
-88.6903 401.492 -1465 178 157 148
-87.6314 410.502 -1498 185 152 143
-86.5515 420.06 -1533 182 148 138
-289.573 426.431 -1552 183 152 144
-283.91 422.75 -1539 190 138 128
-278.486 419.347 -1527 165 113 101
-273.115 415.946 -1515 168 117 101
-267.441 412 -1501 173 124 109
-261.827 408.057 -1487 173 125 110
-256.101 403.842 -1472 168 123 110
-250.268 399.357 -1456 170 125 110
-246.202 397.617 -1450 173 129 113
-242.833 396.975 -1448 175 132 118
-238.813 395.239 -1442 179 137 123
-234.33 392.682 -1433 192 151 140
-231.016 392.046 -1431 241 223 222
-227.394 390.863 -1427 255 252 254
-223.791 389.682 -1423 250 246 247
-220.206 388.502 -1419 234 228 230
-217.252 388.419 -1419 230 221 225
-213.998 387.79 -1417 251 248 251
-211.052 387.71 -1417 254 252 254
-208.108 387.63 -1417 255 253 255
-205.165 387.552 -1417 254 251 254
-202.082 387.201 -1416 255 252 255
-199.005 386.852 -1415 255 252 255
-195.795 386.23 -1413 254 251 254
-192.731 385.884 -1412 255 252 255
-189.539 385.265 -1410 255 253 255
-186.224 384.374 -1407 255 252 255
-183.054 383.758 -1405 252 249 252
-179.893 383.143 -1403 243 240 244
-176.49 381.984 -1399 227 224 229
-173.477 381.645 -1398 220 216 219
-170.47 381.307 -1397 214 210 213
-167.588 381.243 -1397 212 208 211
-164.826 381.453 -1398 216 212 215
-161.713 380.846 -1396 226 222 225
-159.066 381.331 -1398 233 229 232
-156.187 381.272 -1398 240 234 239
-153.42 381.486 -1399 247 241 247
-150.22 380.611 -1396 251 248 252
-147.561 381.1 -1398 254 251 255
-144.378 380.227 -1395 255 250 253
-141.715 380.719 -1397 255 250 254
-139.045 381.211 -1399 255 251 255
-136.563 382.249 -1403 254 248 252
-134.161 383.56 -1408 247 242 246
-131.647 384.6 -1412 236 232 235
-129.026 385.368 -1415 222 218 221
-126.393 386.137 -1418 213 209 212
-123.837 387.179 -1422 210 207 210
-121.01 387.406 -1423 204 203 204
-118.263 387.905 -1425 204 204 205
-115.509 388.406 -1427 209 206 208
-112.669 388.635 -1428 213 210 212
-109.902 389.138 -1430 222 219 222
-107.278 390.185 -1434 235 232 235
-104.638 391.234 -1438 244 242 244
-101.983 392.283 -1442 252 249 252
-99.3128 393.334 -1446 255 252 255
-96.4268 393.569 -1447 255 254 255
-93.6022 394.078 -1449 248 245 248
-91.083 395.947 -1456 207 195 192
-88.657 398.36 -1465 180 159 150
-87.1306 405.125 -1490 186 153 142
-86.0674 414.609 -1525 181 147 135
-282.88 418.065 -1534 185 137 126
-278.016 415.506 -1525 163 114 101
-273.192 412.95 -1516 169 118 102
-267.517 409.035 -1502 172 121 107
-261.904 405.122 -1488 173 124 110
-256.525 401.485 -1475 171 127 112
-251.032 397.579 -1461 175 129 113
-246.617 395.308 -1453 176 130 113
-243.077 394.4 -1450 175 132 118
-239.385 393.221 -1446 179 135 121
-234.895 390.684 -1437 187 141 128
-230.606 388.422 -1429 229 210 209
-226.99 387.249 -1425 249 237 238
-223.392 386.077 -1421 223 219 220
-219.968 385.178 -1418 231 225 228
-217.017 385.096 -1418 245 238 242
-213.766 384.472 -1416 249 246 250
-210.823 384.392 -1416 254 251 254
-208.029 384.585 -1417 254 252 254
-205.088 384.507 -1417 253 250 253
-202.006 384.159 -1416 253 250 252
-198.93 383.813 -1415 255 252 255
-195.721 383.196 -1413 253 251 253
-192.795 383.123 -1413 251 248 251
-189.467 382.238 -1410 243 239 242
-186.286 381.626 -1408 227 223 226
-183.115 381.015 -1406 212 209 212
-179.825 380.134 -1403 206 203 207
-176.802 379.796 -1402 207 204 209
-173.784 379.459 -1401 209 205 208
-170.894 379.395 -1401 211 207 210
-167.765 378.79 -1399 213 209 212
-165 378.999 -1400 217 213 216
-162 378.667 -1399 222 218 221
-159.347 379.148 -1401 222 218 221
-156.352 378.818 -1400 223 219 223
-153.472 378.76 -1400 225 221 226
-150.486 378.433 -1399 232 227 230
-147.611 378.378 -1399 243 238 241
-144.427 377.512 -1396 253 247 251
-141.865 378.27 -1399 255 251 254
-139.192 378.758 -1401 254 248 252
-136.707 379.788 -1405 252 246 250
-134.302 381.089 -1410 254 249 252
-131.97 382.661 -1416 254 250 253
-129.433 383.693 -1420 251 247 250
-126.613 383.915 -1421 240 236 239
-123.965 384.679 -1424 228 225 228
-121.135 384.904 -1425 220 219 221
-118.302 385.129 -1426 217 216 218
-115.385 385.086 -1426 216 213 216
-112.548 385.313 -1427 213 210 213
-109.861 386.082 -1430 208 204 207
-107.238 387.121 -1434 206 202 205
-104.527 387.892 -1437 210 206 209
-101.945 389.203 -1442 223 220 223
-99.2758 390.245 -1446 242 239 242
-96.5241 391.019 -1449 254 251 254
-93.6319 391.253 -1450 252 250 252
-91.049 392.838 -1456 217 206 203
-88.6844 395.502 -1466 181 160 151
-87.2151 402.484 -1492 181 150 140
-85.9226 410.814 -1523 180 147 135
-283.879 416.379 -1540 182 137 126
-278.093 412.489 -1526 160 113 100
-272.909 409.412 -1515 171 120 104
-267.594 406.068 -1503 173 123 109
-261.453 401.377 -1486 174 124 110
-255.907 397.499 -1472 172 128 112
-251.109 394.704 -1462 175 130 112
-246.864 392.721 -1455 179 132 114
-242.985 391.28 -1450 177 134 119
-239.13 389.84 -1445 180 135 120
-234.807 387.594 -1437 179 131 117
-230.842 385.889 -1431 209 189 186
-226.904 384.185 -1425 250 236 235
-223.465 383.292 -1422 247 241 244
-220.04 382.401 -1419 251 245 249
-217.089 382.319 -1419 254 250 253
-213.837 381.7 -1417 252 249 253
-210.893 381.621 -1417 253 250 254
-207.805 381.274 -1416 254 251 255
-204.722 380.927 -1415 253 250 253
-201.788 380.852 -1415 247 245 246
-198.715 380.508 -1414 234 234 236
-195.648 380.166 -1413 223 221 224
-192.723 380.093 -1413 214 211 214
-189.665 379.753 -1412 203 200 203
-186.613 379.414 -1411 200 197 200
-183.437 378.808 -1409 199 196 199
-180.143 377.934 -1406 202 199 202
-177.114 377.599 -1405 210 207 210
-173.967 376.996 -1403 218 215 218
-170.952 376.663 -1402 223 220 223
-167.942 376.332 -1401 227 224 227
-165.056 376.27 -1401 235 231 234
-161.94 375.672 -1399 243 239 242
-159.288 376.15 -1401 244 241 243
-156.294 375.823 -1400 244 240 244
