ply
format ascii 1.0
comment Created by Open3D
element vertex 1448
property double x
property double y
property double z
property uchar red
property uchar green
property uchar blue
end_header
-18.2621 -25.3079 -1366 50 54 88
-15.6087 -25.4001 -1371 53 56 91
-12.9263 -25.4739 -1375 60 63 100
-10.2281 -25.5477 -1379 66 68 106
-7.51406 -25.6216 -1383 76 76 117
-4.80148 -25.7882 -1392 97 100 144
-2.0591 -26.0289 -1405 110 115 160
0.733292 -26.2142 -1415 91 91 139
3.56537 -26.3995 -1425 89 91 137
6.41023 -26.4737 -1429 130 136 179
9.29689 -26.6221 -1437 163 171 206
12.2238 -26.7891 -1446 143 151 184
-262.299 -31.2626 -1509 93 93 115
-253.717 -30.5926 -1477 79 79 106
-244.25 -29.7986 -1439 64 64 94
-238.126 -29.3985 -1420 64 63 97
-230.094 -28.7501 -1389 65 64 99
-221.209 -27.9781 -1352 72 72 107
-215.869 -27.641 -1336 87 89 124
-209.958 -27.2213 -1316 67 70 105
-206.178 -27.0706 -1309 61 64 96
-202.428 -26.9202 -1302 56 59 92
-199.476 -26.8732 -1300 57 60 93
-196.23 -26.7851 -1296 54 57 89
-193.6 -26.7796 -1296 54 57 89
-190.824 -26.7536 -1295 51 54 86
-188.344 -26.769 -1296 52 55 87
-185.862 -26.7844 -1297 53 56 88
-183.236 -26.7793 -1297 51 54 84
-180.611 -26.7743 -1297 51 54 84
-178.125 -26.79 -1298 50 54 84
-175.367 -26.7644 -1297 53 56 86
-172.747 -26.7595 -1297 54 57 87
-170.39 -26.7961 -1299 53 57 86
-167.769 -26.7914 -1299 55 59 88
-164.894 -26.7455 -1297 55 59 88
-162.53 -26.7823 -1299 54 58 87
-159.543 -26.7159 -1296 55 59 88
-156.812 -26.691 -1295 55 59 88
-154.086 -26.666 -1294 54 58 87
-151.483 -26.6617 -1294 57 62 91
-148.651 -26.6164 -1292 59 64 93
-146.167 -26.633 -1293 60 65 94
-143.569 -26.6289 -1293 59 64 93
-140.972 -26.625 -1293 57 62 91
-138.377 -26.6211 -1293 57 62 91
-135.888 -26.6379 -1294 58 63 92
-133.292 -26.6343 -1294 56 61 90
-130.799 -26.6511 -1295 54 59 88
-128.303 -26.6681 -1296 54 59 88
-125.998 -26.7264 -1299 54 59 88
-123.777 -26.8051 -1303 53 58 87
-121.262 -26.8224 -1304 51 56 85
-118.834 -26.8602 -1306 54 59 92
-116.311 -26.8776 -1307 58 63 95
-113.698 -26.8743 -1307 57 62 93
-110.916 -26.8301 -1305 56 61 93
-108.142 -26.786 -1303 55 60 93
-105.702 -26.8242 -1305 55 60 91
-103.096 -26.8214 -1305 55 60 91
-100.568 -26.8391 -1306 55 60 91
-98.0372 -26.8568 -1307 57 61 92
-95.5029 -26.8747 -1308 56 60 91
-92.8944 -26.8721 -1308 54 61 92
-90.4247 -26.9107 -1310 54 60 91
-87.9478 -26.9494 -1312 54 59 90
-85.5936 -27.0292 -1316 55 60 91
-83.2243 -27.109 -1320 54 59 90
-80.7175 -27.1478 -1322 55 60 91
-78.2034 -27.1867 -1324 55 60 92
-75.8533 -27.2873 -1329 56 60 93
-73.4287 -27.3672 -1333 58 59 91
-70.8826 -27.4063 -1335 55 55 86
-68.4825 -27.507 -1340 52 52 81
-65.9155 -27.5463 -1342 49 50 77
-63.3413 -27.5855 -1344 45 46 73
-60.6692 -27.5838 -1344 50 50 79
-58.0409 -27.6028 -1345 43 43 72
-55.2855 -27.5602 -1343 43 44 74
-52.5776 -27.5382 -1342 50 51 81
-49.837 -27.4957 -1340 52 53 83
-47.0696 -27.4328 -1337 56 57 87
-44.3476 -27.3906 -1335 58 59 89
-41.7589 -27.4304 -1337 59 60 90
-39.1626 -27.4703 -1339 63 64 94
-36.5586 -27.5103 -1341 70 71 101
-34.0228 -27.6119 -1346 81 83 117
-31.4674 -27.7136 -1351 80 81 115
-28.8499 -27.7743 -1354 68 69 103
-26.2399 -27.8556 -1358 58 60 94
-23.6317 -27.9575 -1363 53 56 90
-20.9884 -28.0389 -1367 50 55 89
-18.3428 -28.141 -1372 50 54 88
-15.6547 -28.202 -1375 51 54 89
-12.9548 -28.2632 -1378 56 59 95
-10.2506 -28.3449 -1382 63 65 102
-7.52512 -28.4062 -1385 74 74 112
-4.79126 -28.4881 -1389 87 89 132
-2.05036 -28.6931 -1399 117 120 165
0.730204 -28.8981 -1409 93 93 141
3.56046 -29.1853 -1423 84 86 133
6.40591 -29.288 -1428 118 124 167
9.29714 -29.4728 -1437 150 158 193
12.2326 -29.6782 -1447 154 162 195
-264.045 -34.5141 -1519 85 85 108
-255.271 -33.7563 -1486 87 87 114
-245.106 -32.7946 -1444 58 58 86
-236.624 -32.038 -1411 58 57 90
-229.273 -31.4177 -1384 58 57 91
-221.706 -30.7526 -1355 76 76 112
-214.744 -30.1558 -1329 81 84 119
-209.486 -29.7864 -1313 65 68 103
-205.869 -29.644 -1307 60 63 94
-202.434 -29.5244 -1302 55 58 89
-199.635 -29.4954 -1301 57 60 92
-196.69 -29.4441 -1299 54 57 89
-193.904 -29.4154 -1298 54 57 89
-191.124 -29.3869 -1297 51 54 86
-188.64 -29.4038 -1298 50 53 85
-185.867 -29.3754 -1297 51 54 86
-183.241 -29.3698 -1297 49 53 83
-180.617 -29.3642 -1297 49 54 83
-177.993 -29.3587 -1297 50 54 83
-175.237 -29.3307 -1296 52 56 85
-172.618 -29.3255 -1296 54 58 87
-170.133 -29.3429 -1297 54 58 87
-167.644 -29.3603 -1298 54 58 87
-164.899 -29.3326 -1297 55 59 88
-162.41 -29.3503 -1298 55 59 88
-159.548 -29.3002 -1296 56 60 89
-156.817 -29.2727 -1295 56 60 89
-153.972 -29.2229 -1293 56 60 89
-151.37 -29.2182 -1293 56 61 90
-148.655 -29.1911 -1292 54 59 88
-146.058 -29.1865 -1292 55 60 89
-143.462 -29.1822 -1292 58 63 92
-140.977 -29.2004 -1293 57 62 91
-138.381 -29.1962 -1293 58 63 92
-135.681 -29.1694 -1292 58 63 92
-133.193 -29.188 -1293 56 61 90
-130.601 -29.184 -1293 54 60 89
-128.307 -29.2477 -1296 54 60 89
-125.904 -29.2891 -1298 55 60 89
-123.59 -29.353 -1301 54 59 88
-121.265 -29.4169 -1304 53 58 87
-118.838 -29.4584 -1306 54 59 92
-116.226 -29.4549 -1306 59 64 97
-113.614 -29.4515 -1306 61 66 98
-111.004 -29.4479 -1306 59 64 96
-108.311 -29.4221 -1305 57 62 95
-105.786 -29.4415 -1306 58 63 93
-103.178 -29.4383 -1306 57 62 93
-100.648 -29.4578 -1307 55 60 91
-98.1901 -29.4999 -1309 57 61 93
-95.5787 -29.4969 -1309 59 62 94
-92.9681 -29.494 -1309 56 63 94
-90.4963 -29.5364 -1311 56 62 93
-88.0173 -29.5787 -1313 55 60 91
-85.5311 -29.6212 -1315 55 60 91
-83.0375 -29.6637 -1317 54 59 90
-80.5977 -29.7288 -1320 56 61 92
-78.0875 -29.7715 -1322 57 62 94
-75.7413 -29.8818 -1327 56 61 94
-73.3207 -29.9696 -1331 58 59 91
-70.9377 -30.0799 -1336 54 55 87
-68.4844 -30.1678 -1340 53 53 83
-65.9666 -30.2334 -1343 50 50 78
-63.3902 -30.2764 -1345 43 44 71
-60.7613 -30.2971 -1346 48 48 78
-58.1289 -30.3178 -1347 42 42 72
-55.4106 -30.2936 -1346 41 42 72
-52.6968 -30.2695 -1345 46 48 77
-49.9129 -30.2004 -1342 50 52 81
-47.1413 -30.1315 -1339 56 57 87
-44.3821 -30.0626 -1336 57 58 88
-41.7601 -30.0838 -1337 57 57 87
-39.1344 -30.1051 -1338 58 59 89
-36.5051 -30.1264 -1339 65 66 96
-33.9732 -30.2379 -1344 78 79 113
-31.4683 -30.3944 -1351 80 81 115
-28.8294 -30.4385 -1353 76 77 111
-26.2407 -30.5501 -1358 64 66 100
-23.5977 -30.6169 -1361 56 59 93
-20.9583 -30.7062 -1365 53 57 92
-18.3032 -30.7956 -1369 54 57 92
-15.6324 -30.885 -1373 53 56 91
-12.9646 -31.0196 -1379 56 59 94
-10.2509 -31.0867 -1382 60 63 98
-7.5362 -31.1989 -1387 69 71 105
-4.7914 -31.2437 -1389 79 80 121
-2.05188 -31.4911 -1400 116 118 161
0.731263 -31.7385 -1411 101 103 151
3.55806 -31.986 -1422 85 89 135
6.41058 -32.1436 -1429 109 115 160
9.29741 -32.3238 -1437 134 142 178
12.233 -32.549 -1447 161 169 202
-262.836 -37.3854 -1512 74 74 98
-254.248 -36.5856 -1480 96 96 122
-248.339 -36.1572 -1463 60 60 88
-238.979 -35.2099 -1425 57 56 89
-230.937 -34.4361 -1394 55 53 87
-220.895 -33.3419 -1350 77 77 115
-214.266 -32.7419 -1326 79 81 117
-209.333 -32.3892 -1312 62 65 100
-205.718 -32.2341 -1306 57 61 90
-202.441 -32.1287 -1302 56 59 89
-199.641 -32.0973 -1301 54 57 89
-196.696 -32.0413 -1299 54 57 89
-193.91 -32.0102 -1298 57 60 92
-191.278 -32.0038 -1298 54 57 89
-188.646 -31.9975 -1298 51 54 86
-185.873 -31.9666 -1297 51 54 86
-183.388 -31.9852 -1298 49 54 83
-180.762 -31.9791 -1298 49 54 83
-177.999 -31.9485 -1297 51 55 84
-175.242 -31.918 -1296 53 57 86
-172.757 -31.9369 -1297 55 59 88
-170.269 -31.9558 -1298 55 59 88
-167.521 -31.9255 -1297 55 59 88
-164.905 -31.9201 -1297 55 59 88
-162.29 -31.9147 -1297 56 60 89
-159.553 -31.8847 -1296 57 61 90
-156.701 -31.8302 -1294 58 62 91
-153.977 -31.8006 -1293 58 63 92
-151.258 -31.7709 -1292 56 61 90
-148.545 -31.7414 -1291 54 59 88
-145.95 -31.7365 -1291 56 61 90
-143.245 -31.7072 -1290 60 65 94
-140.763 -31.727 -1291 60 65 94
-138.171 -31.7225 -1291 59 64 93
-135.686 -31.7425 -1292 58 63 92
-133.197 -31.7627 -1293 58 63 92
-130.706 -31.7828 -1294 55 62 91
-128.41 -31.8523 -1297 55 61 90
-125.908 -31.8727 -1298 56 61 90
-123.594 -31.9421 -1301 59 64 93
-121.176 -31.9873 -1303 58 63 92
-118.842 -32.057 -1306 57 62 95
-116.229 -32.053 -1306 57 62 95
-113.531 -32.0247 -1305 58 63 96
-110.922 -32.0211 -1305 58 63 96
-108.232 -31.993 -1304 57 62 95
-105.708 -32.0139 -1305 59 64 93
-103.181 -32.035 -1306 59 63 93
-100.728 -32.0807 -1308 57 60 92
-98.1931 -32.102 -1309 57 60 92
-95.6547 -32.1234 -1310 59 62 94
-92.971 -32.0956 -1309 57 64 94
-90.4992 -32.1417 -1311 57 63 94
-88.0201 -32.1878 -1313 55 60 91
-85.5338 -32.234 -1315 54 59 90
-83.1032 -32.3048 -1318 54 59 90
-80.6002 -32.3511 -1320 56 61 92
-78.031 -32.373 -1321 56 61 93
-75.6866 -32.4931 -1326 56 61 94
-73.2679 -32.5886 -1330 59 60 92
-70.8868 -32.7088 -1335 59 59 91
-68.4866 -32.8289 -1340 57 57 87
-65.9686 -32.9002 -1343 53 54 82
-63.3922 -32.947 -1345 47 48 76
-60.8083 -32.994 -1347 46 46 76
-58.1738 -33.0166 -1348 40 41 71
-55.4947 -33.0147 -1348 37 40 70
-52.816 -33.0129 -1348 40 43 71
-50.0261 -32.9378 -1345 44 47 75
-47.2132 -32.8383 -1341 53 54 84
-44.4499 -32.7633 -1338 55 56 86
-41.7614 -32.7374 -1337 56 56 86
-39.1357 -32.7606 -1338 56 57 87
-36.5063 -32.7838 -1339 64 65 95
-33.9996 -32.9296 -1345 75 76 108
-31.446 -33.0509 -1350 79 80 113
-28.8516 -33.1478 -1354 81 82 116
-26.2415 -33.2449 -1358 69 72 106
-23.6157 -33.342 -1362 58 61 95
-20.9743 -33.4392 -1366 52 56 91
-18.3305 -33.5609 -1371 54 57 92
-15.6556 -33.6583 -1375 54 57 92
-12.9744 -33.7802 -1380 57 58 93
-10.2512 -33.8288 -1382 60 61 96
-7.53644 -33.9509 -1387 61 64 98
-4.79154 -33.9997 -1389 72 73 113
-2.04755 -34.1954 -1397 107 108 151
0.728178 -34.3912 -1405 113 115 163
3.55817 -34.8074 -1422 88 91 138
6.41976 -35.0278 -1431 100 106 151
9.31711 -35.2484 -1440 125 133 169
12.2418 -35.4446 -1448 157 165 199
-263.715 -40.5499 -1517 72 72 97
-256.147 -39.8456 -1491 91 91 118
-248.517 -39.115 -1464 75 75 103
-238.317 -37.9574 -1421 56 53 86
-231.276 -37.2812 -1396 56 54 89
-220.903 -36.0448 -1350 75 75 112
-213.789 -35.3161 -1323 75 77 113
-209.021 -34.9615 -1310 65 68 103
-205.41 -34.794 -1304 60 64 93
-202.292 -34.7065 -1301 58 61 91
-199.802 -34.726 -1302 53 56 88
-197.006 -34.6923 -1301 53 56 88
-194.365 -34.6851 -1301 55 58 90
-191.726 -34.6782 -1301 52 55 87
-189.089 -34.6714 -1301 47 50 82
-186.166 -34.6114 -1299 48 51 83
-183.536 -34.6046 -1299 49 54 83
-180.907 -34.5981 -1299 49 54 83
-178.005 -34.5384 -1297 51 54 86
-175.248 -34.5054 -1296 54 57 88
-172.763 -34.5258 -1297 56 60 89
-170.144 -34.5197 -1297 56 60 89
-167.397 -34.4871 -1296 56 60 89
-164.91 -34.5078 -1297 55 59 87
-162.295 -34.5019 -1297 54 58 87
-159.435 -34.4429 -1295 54 58 87
-156.706 -34.4106 -1294 56 61 90
-153.982 -34.3786 -1293 57 62 91
-151.263 -34.3465 -1292 55 60 89
-148.435 -34.2879 -1290 55 60 89
-145.955 -34.3093 -1291 58 63 92
-143.25 -34.2775 -1290 61 66 95
-140.768 -34.2991 -1291 62 67 96
-138.176 -34.294 -1291 59 64 93
-135.69 -34.3158 -1292 58 63 92
-133.099 -34.3109 -1292 61 66 95
-130.609 -34.3328 -1293 57 64 93
-128.315 -34.4078 -1296 53 60 89
-126.01 -34.483 -1299 57 62 91
-123.693 -34.5582 -1302 58 63 93
-121.18 -34.5803 -1303 57 62 92
-118.755 -34.6291 -1305 56 61 94
-116.055 -34.5985 -1304 57 62 95
-113.448 -34.5943 -1304 56 61 94
-110.756 -34.5638 -1303 56 61 94
-108.153 -34.5599 -1303 57 62 95
-105.55 -34.5562 -1303 59 64 93
-103.185 -34.6319 -1306 57 61 92
-100.655 -34.6548 -1307 55 58 90
-98.1965 -34.7044 -1309 55 58 90
-95.658 -34.7275 -1310 58 61 93
-93.1163 -34.7506 -1311 54 61 91
-90.5023 -34.7472 -1311 55 61 92
-88.0902 -34.8236 -1314 55 60 91
-85.5367 -34.847 -1315 52 57 88
-83.043 -34.8971 -1317 52 57 88
-80.4809 -34.9207 -1318 55 60 91
-78.0336 -34.9974 -1321 56 61 92
-75.6321 -35.1006 -1325 55 60 92
-73.2703 -35.2304 -1330 59 60 92
-70.8361 -35.3339 -1334 61 61 92
-68.4378 -35.4638 -1339 60 60 90
-65.9709 -35.5674 -1343 56 56 85
-63.3943 -35.6179 -1345 52 53 81
-60.7652 -35.6422 -1346 50 50 80
-58.219 -35.7195 -1349 43 44 73
-55.5789 -35.744 -1350 38 42 71
-52.8569 -35.7156 -1349 37 41 69
-50.1022 -35.6609 -1347 40 44 71
-47.3205 -35.5797 -1344 51 52 82
-44.5179 -35.4722 -1340 54 55 85
-41.7941 -35.4177 -1338 56 56 86
-39.137 -35.4163 -1338 55 56 86
-36.5348 -35.4679 -1340 61 62 92
-33.9502 -35.5461 -1343 73 74 106
-31.3772 -35.6508 -1347 81 82 114
-28.81 -35.7821 -1352 85 86 120
-26.2037 -35.887 -1356 78 80 113
-23.5819 -35.9919 -1360 67 69 102
-20.9443 -36.097 -1364 54 59 93
-18.3178 -36.2551 -1370 54 57 92
-15.6562 -36.3868 -1375 56 59 94
-12.9749 -36.5186 -1380 59 60 95
-10.2664 -36.6241 -1384 59 61 95
-7.53669 -36.7031 -1387 58 61 95
-4.79171 -36.7558 -1389 71 71 111
-2.04615 -36.941 -1396 101 100 142
0.728723 -37.2056 -1406 120 122 170
3.5608 -37.6555 -1423 93 97 144
6.41998 -37.8674 -1431 95 101 146
9.33037 -38.1587 -1442 130 137 173
12.2591 -38.3708 -1450 147 155 189
15.3137 -38.8212 -1467 142 149 182
-264.072 -43.6486 -1519 79 79 104
-256.156 -42.8338 -1491 79 79 106
-248.866 -42.1059 -1466 86 86 114
-241.512 -41.3497 -1440 54 53 87
-231.45 -40.106 -1397 59 58 93
-221.238 -38.8055 -1352 85 86 121
-213.959 -37.9934 -1324 75 77 112
-209.348 -37.6409 -1312 63 66 101
-205.576 -37.4321 -1305 60 64 93
-202.455 -37.3381 -1302 57 61 91
-199.963 -37.359 -1303 54 57 89
-197.165 -37.3227 -1302 53 56 88
-194.373 -37.2864 -1301 53 56 88
-192.028 -37.3363 -1303 50 54 86
-189.241 -37.3003 -1302 46 50 82
-186.46 -37.2643 -1301 49 52 84
-183.825 -37.2572 -1301 50 54 84
-181.192 -37.2502 -1301 48 53 82
-178.424 -37.2146 -1300 51 54 85
-175.796 -37.2078 -1300 54 57 87
-173.036 -37.1725 -1299 56 59 88
-170.281 -37.1372 -1298 57 61 90
-167.533 -37.1021 -1297 58 62 90
-165.043 -37.1243 -1298 55 60 88
-162.301 -37.0894 -1297 53 58 87
-159.564 -37.0546 -1296 53 58 88
-156.833 -37.0198 -1295 55 60 89
-154.107 -36.9854 -1294 56 61 89
-151.386 -36.9509 -1293 54 59 88
-148.555 -36.8879 -1291 55 60 88
-145.96 -36.8824 -1291 56 61 90
-143.255 -36.8482 -1290 58 63 93
-140.773 -36.8713 -1291 60 65 94
-138.288 -36.8946 -1292 59 64 93
-135.8 -36.9178 -1293 59 65 94
-133.207 -36.9127 -1293 61 66 95
-130.816 -36.9646 -1295 58 64 94
-128.419 -37.0168 -1297 54 60 90
-126.014 -37.0689 -1299 56 61 90
-123.698 -37.1498 -1302 57 62 92
-121.278 -37.2023 -1304 56 61 92
-118.85 -37.2546 -1306 56 61 94
-116.149 -37.2216 -1305 58 63 96
-113.452 -37.1888 -1304 57 62 94
-110.845 -37.1844 -1304 56 61 93
-108.24 -37.1802 -1304 58 63 95
-105.635 -37.1762 -1304 57 62 91
-103.189 -37.2292 -1306 54 58 88
-100.658 -37.2537 -1307 53 56 88
-98.2 -37.307 -1309 55 58 90
-95.6615 -37.3318 -1310 56 60 91
-93.1197 -37.3567 -1311 55 62 91
-90.5747 -37.3817 -1312 57 63 93
-88.1605 -37.4637 -1315 57 62 93
-85.6049 -37.4889 -1316 55 61 91
-83.0461 -37.5141 -1317 56 61 92
-80.5449 -37.568 -1319 58 63 94
-78.0365 -37.622 -1321 58 63 94
-75.5207 -37.676 -1323 57 62 93
-73.1077 -37.7871 -1327 59 59 91
-70.7326 -37.9268 -1332 59 58 90
-68.338 -38.0665 -1337 57 57 87
-65.9242 -38.2063 -1342 54 55 84
-63.3967 -38.2892 -1345 54 55 83
-60.8126 -38.3437 -1347 51 51 81
-58.2211 -38.3983 -1349 44 45 75
-55.5809 -38.4246 -1350 39 43 72
-52.8981 -38.4226 -1350 37 41 69
-50.1412 -38.3637 -1348 35 39 67
-47.3575 -38.2765 -1345 46 47 77
-44.5528 -38.1609 -1341 52 53 83
-41.8268 -38.1023 -1339 55 55 85
-39.1677 -38.1008 -1339 56 57 88
-36.5634 -38.1563 -1341 60 61 92
-33.9767 -38.2403 -1344 70 71 103
-31.3784 -38.3244 -1347 81 82 115
-28.7897 -38.4371 -1351 89 90 124
-26.1854 -38.5498 -1355 86 87 119
-23.5827 -38.6911 -1360 77 78 111
-20.9297 -38.7756 -1363 61 65 98
-18.3184 -38.974 -1370 54 58 92
-15.6681 -39.1441 -1376 55 58 93
-12.9659 -39.2289 -1379 58 59 94
-10.2519 -39.3138 -1382 58 59 94
-7.52066 -39.3703 -1384 60 63 97
-4.78498 -39.4554 -1387 65 64 104
-2.04182 -39.626 -1393 86 84 127
0.728233 -39.9673 -1405 117 120 168
3.54592 -40.3088 -1417 102 106 153
6.42022 -40.7072 -1431 90 96 141
9.33072 -41.0204 -1442 132 140 174
12.2342 -41.1631 -1447 134 143 175
15.2516 -41.5619 -1461 150 157 190
-263.561 -46.6017 -1516 80 80 105
-256.338 -45.8533 -1492 74 74 101
-249.385 -45.136 -1469 88 89 117
-242.025 -44.327 -1443 64 63 97
-231.128 -42.8429 -1395 65 64 98
-220.593 -41.3902 -1348 84 83 118
-213.806 -40.6137 -1323 71 73 107
-209.197 -40.2365 -1311 63 66 100
-205.741 -40.0745 -1306 61 65 94
-202.619 -39.9739 -1303 57 61 91
-199.971 -39.9657 -1303 55 58 90
-197.324 -39.9574 -1303 53 56 88
-194.679 -39.9494 -1303 52 55 87
-192.036 -39.9413 -1303 51 56 87
-189.249 -39.9028 -1302 47 52 82
-186.611 -39.895 -1302 51 54 84
-183.974 -39.8874 -1302 52 56 85
-181.339 -39.8799 -1302 50 54 83
-178.431 -39.8112 -1300 52 56 86
-175.938 -39.8344 -1301 54 56 86
-173.043 -39.766 -1299 56 57 87
-170.419 -39.7589 -1299 57 61 88
-167.669 -39.7213 -1298 58 62 89
-164.923 -39.6839 -1297 55 60 89
-162.057 -39.616 -1295 53 58 88
-159.325 -39.5787 -1294 52 57 88
-156.718 -39.5724 -1294 54 59 88
-153.994 -39.5354 -1293 56 61 89
-151.392 -39.529 -1293 55 60 87
-148.676 -39.4923 -1292 55 60 88
-146.192 -39.5167 -1293 57 62 91
-143.372 -39.4498 -1291 58 63 94
-140.888 -39.4744 -1292 59 64 94
-138.294 -39.4688 -1292 59 64 93
-135.806 -39.4936 -1293 58 64 93
-133.212 -39.488 -1293 58 65 94
-130.822 -39.5438 -1295 59 64 95
-128.424 -39.5996 -1297 56 62 92
-126.019 -39.6554 -1299 56 61 90
-123.608 -39.7114 -1301 58 63 92
-121.189 -39.7673 -1303 57 62 91
-118.764 -39.8235 -1305 57 62 93
-116.064 -39.7881 -1304 58 63 95
-113.456 -39.7834 -1304 57 62 93
-110.85 -39.7789 -1304 57 62 93
-108.327 -39.8048 -1305 59 64 95
-105.801 -39.831 -1306 56 61 92
-103.351 -39.8877 -1308 53 57 88
-100.739 -39.8836 -1308 54 57 89
-98.279 -39.9404 -1310 57 60 92
-95.7383 -39.9669 -1311 57 61 92
-93.1944 -39.9936 -1312 57 62 93
-90.6473 -40.0204 -1313 57 62 93
-88.2309 -40.1082 -1316 56 61 92
-85.6083 -40.1046 -1316 54 60 90
-83.0493 -40.1315 -1317 55 62 92
-80.487 -40.1587 -1318 57 64 95
-77.9805 -40.2164 -1320 57 63 94
-75.3524 -40.2133 -1320 57 62 93
-73.0555 -40.3931 -1326 60 61 93
-70.523 -40.4511 -1328 58 59 90
-68.2385 -40.6615 -1335 57 57 87
-65.8285 -40.811 -1340 57 57 87
-63.3992 -40.9607 -1345 54 55 84
-60.8151 -41.0191 -1347 49 50 80
-58.2233 -41.0774 -1349 45 46 76
-55.5831 -41.1055 -1350 41 45 74
-52.9393 -41.1338 -1351 39 43 71
-50.2176 -41.1012 -1350 33 37 66
-47.465 -41.0384 -1348 41 42 72
-44.6874 -40.9452 -1345 49 49 80
-41.9534 -40.8825 -1343 53 53 85
-39.257 -40.8504 -1342 57 58 89
-36.5921 -40.8489 -1342 58 59 90
-33.978 -40.9083 -1344 64 65 97
-31.3796 -40.9983 -1347 76 77 109
-28.7482 -41.058 -1349 87 88 121
-26.1478 -41.1786 -1353 83 84 117
-23.5663 -41.3602 -1359 79 80 114
-20.9152 -41.4506 -1362 64 67 101
-18.2924 -41.6324 -1368 56 59 93
-15.646 -41.8143 -1374 54 57 91
-12.9476 -41.905 -1377 55 57 93
-10.2523 -42.0567 -1382 52 55 90
-7.52096 -42.1172 -1384 54 57 92
-4.79207 -42.2691 -1389 60 62 98
-2.04044 -42.3603 -1392 75 75 113
0.727227 -42.695 -1403 107 110 156
3.54355 -43.0907 -1416 106 110 156
6.42047 -43.5474 -1431 85 91 137
9.32462 -43.852 -1441 129 136 174
12.2516 -44.0959 -1449 122 130 165
15.2626 -44.4921 -1462 156 163 196
-265.659 -50.0345 -1528 79 78 101
-257.037 -48.9753 -1496 77 75 100
-250.584 -48.3093 -1476 79 77 101
-243.21 -47.4475 -1450 79 76 109
-229.813 -45.3758 -1387 64 62 93
-219.62 -43.8939 -1342 78 77 111
-213.815 -43.2629 -1323 67 69 102
-209.525 -42.9266 -1313 64 67 101
-206.065 -42.7539 -1308 61 65 94
-202.938 -42.6468 -1305 55 59 88
-200.286 -42.6379 -1305 54 57 89
-197.333 -42.5639 -1303 54 57 89
-194.837 -42.5879 -1304 56 59 91
-192.339 -42.6119 -1305 52 57 87
-189.402 -42.5383 -1303 49 53 83
-186.762 -42.5299 -1303 52 56 85
-184.264 -42.5545 -1304 53 57 86
-181.625 -42.5465 -1304 51 55 84
-178.85 -42.5058 -1303 54 58 87
-176.486 -42.5633 -1305 55 57 87
-173.583 -42.4904 -1303 56 57 86
-170.82 -42.4503 -1302 54 58 86
-167.805 -42.345 -1299 55 59 87
-165.057 -42.3051 -1298 54 59 89
-162.189 -42.2326 -1296 53 58 89
-159.331 -42.1606 -1294 53 58 89
-156.725 -42.1536 -1294 55 60 89
-154.12 -42.1468 -1294 57 62 90
-151.516 -42.1401 -1294 54 59 86
-148.798 -42.1009 -1293 54 59 87
-146.311 -42.1269 -1294 57 62 91
-143.489 -42.0556 -1292 59 64 95
-140.894 -42.0493 -1292 59 64 94
-138.299 -42.0432 -1292 58 63 92
-135.812 -42.0698 -1293 56 63 92
-133.218 -42.0639 -1293 58 65 94
-130.827 -42.1233 -1295 60 65 96
-128.33 -42.15 -1296 58 63 93
-126.025 -42.2421 -1299 56 61 90
-123.708 -42.3341 -1302 59 64 93
-121.288 -42.3939 -1304 59 64 93
-118.769 -42.4211 -1305 57 62 93
-116.158 -42.416 -1305 56 61 92
-113.461 -42.3784 -1304 56 61 92
-110.854 -42.3736 -1304 57 62 93
-108.331 -42.4013 -1305 60 65 96
-105.724 -42.3967 -1305 58 63 94
-103.276 -42.457 -1307 54 58 90
-100.744 -42.4851 -1308 54 57 89
-98.2831 -42.5458 -1310 57 60 92
-95.8154 -42.6064 -1312 59 62 94
-93.2694 -42.6348 -1313 57 62 93
-90.7202 -42.6633 -1314 54 59 90
-88.3688 -42.7893 -1318 53 58 89
-85.677 -42.753 -1317 50 56 85
-83.1159 -42.7818 -1318 52 59 88
-80.5515 -42.8106 -1319 55 62 93
-77.9838 -42.8396 -1320 55 61 92
-75.4127 -42.8688 -1321 55 60 91
-72.9484 -42.9629 -1324 59 60 92
-70.4728 -43.0572 -1327 59 60 92
-68.1392 -43.2489 -1333 58 58 88
-65.8313 -43.4731 -1340 57 58 88
-63.4019 -43.6325 -1345 56 57 87
-60.8176 -43.6947 -1347 51 52 83
-58.2258 -43.7568 -1349 46 48 78
-55.6266 -43.8192 -1351 42 46 75
-52.9415 -43.8169 -1351 40 44 73
-50.2569 -43.8146 -1351 35 39 68
-47.5374 -43.7801 -1350 42 43 73
-44.789 -43.7132 -1348 47 48 79
-42.0801 -43.6789 -1347 51 52 84
-39.3756 -43.6447 -1346 54 55 87
-36.7027 -43.6431 -1346 53 54 85
-34.03 -43.6416 -1346 59 60 92
-31.4275 -43.7374 -1349 70 71 103
-28.792 -43.801 -1351 80 81 114
-26.2068 -43.9619 -1356 84 85 119
-23.5846 -44.0905 -1360 81 82 116
-20.9775 -44.284 -1366 70 71 105
-18.3065 -44.3804 -1369 58 61 95
-15.658 -44.5742 -1375 53 56 90
-12.9576 -44.6708 -1378 55 58 95
-10.2453 -44.7676 -1381 50 53 89
-7.51584 -44.832 -1383 54 57 91
-4.79226 -45.0263 -1389 59 62 96
-2.04052 -45.1234 -1392 68 71 105
0.726742 -45.4475 -1402 100 102 146
3.54871 -45.9663 -1418 113 115 161
6.42074 -46.3879 -1431 90 93 142
9.33795 -46.7772 -1443 115 119 164
12.2521 -46.9722 -1449 120 124 167
15.2633 -47.3942 -1462 154 158 193
-265.323 -53.0293 -1526 77 75 97
-257.22 -52.0095 -1497 75 71 94
-250.935 -51.3374 -1478 75 70 93
-243.221 -50.3535 -1450 82 79 110
-218.485 -46.3391 -1335 77 76 111
-213.663 -45.8778 -1322 66 68 102
-209.375 -45.5209 -1312 64 67 101
-206.075 -45.3724 -1308 58 62 90
-202.948 -45.2587 -1305 53 57 87
-200.295 -45.2493 -1305 52 56 87
-197.341 -45.1706 -1303 54 58 89
-194.846 -45.1961 -1304 56 59 91
-192.2 -45.1871 -1304 51 56 85
-189.411 -45.1435 -1303 49 54 83
-186.77 -45.1346 -1303 52 56 85
-184.273 -45.1607 -1304 53 57 86
-181.494 -45.1174 -1303 52 56 85
-178.858 -45.1091 -1303 54 58 87
-176.494 -45.1701 -1305 55 57 86
-173.724 -45.1272 -1304 57 58 86
-170.959 -45.0846 -1303 54 57 86
-168.071 -45.0075 -1301 53 57 86
-165.319 -44.9652 -1300 53 58 89
-162.447 -44.8884 -1298 53 58 89
-159.462 -44.7771 -1295 54 59 90
-156.853 -44.7698 -1295 56 61 90
-154.246 -44.7625 -1295 57 62 91
-151.64 -44.7554 -1295 55 60 87
-148.919 -44.7138 -1294 55 60 88
-146.431 -44.7415 -1295 57 62 91
-143.606 -44.6658 -1293 60 65 96
-140.9 -44.6246 -1292 59 64 95
-138.199 -44.5835 -1291 59 64 93
-135.713 -44.6117 -1292 56 62 91
-133.121 -44.6055 -1292 56 62 91
-130.732 -44.6684 -1294 59 64 95
-128.237 -44.697 -1295 58 63 94
-125.933 -44.7945 -1298 57 62 91
-123.619 -44.8924 -1301 57 62 91
-121.2 -44.9556 -1303 59 64 93
-118.774 -45.0191 -1305 58 63 94
-116.252 -45.0481 -1306 56 61 92
-113.64 -45.0428 -1306 56 61 92
-110.944 -45.0032 -1305 58 63 94
-108.419 -45.0325 -1306 58 63 94
-105.81 -45.0276 -1306 58 63 94
-103.281 -45.0573 -1307 55 60 91
-100.748 -45.0869 -1308 56 59 91
-98.2876 -45.1513 -1310 58 61 93
-95.8197 -45.2158 -1312 58 61 93
-93.2735 -45.2458 -1313 56 61 92
-90.7933 -45.3105 -1315 54 59 90
-88.3728 -45.4097 -1318 53 58 89
-85.6808 -45.3713 -1317 49 54 84
-83.1826 -45.4363 -1319 53 59 88
-80.5551 -45.4326 -1319 56 63 94
-78.0464 -45.4977 -1321 54 60 91
-75.416 -45.4941 -1321 53 58 89
-72.9517 -45.5941 -1324 59 60 92
-70.4228 -45.6596 -1326 61 62 93
-68.0911 -45.8631 -1332 61 61 91
-65.736 -46.0666 -1338 59 59 89
-63.3576 -46.2702 -1344 57 58 88
-60.8203 -46.3706 -1347 54 55 86
-58.2717 -46.4711 -1350 47 49 80
-55.5879 -46.4685 -1350 41 45 74
-52.9439 -46.5003 -1351 38 42 71
-50.2591 -46.4979 -1351 35 39 68
-47.6099 -46.5301 -1352 42 43 73
-44.8575 -46.4591 -1350 46 47 77
-42.1446 -46.4227 -1349 51 52 82
-39.4359 -46.3865 -1348 53 54 84
-36.7588 -46.3847 -1348 52 53 83
-34.0568 -46.3487 -1347 58 59 91
-31.4522 -46.4504 -1350 67 68 101
-28.8146 -46.5178 -1352 78 79 113
-26.2273 -46.6886 -1357 86 87 121
-23.603 -46.8251 -1361 85 86 120
-20.9784 -46.9961 -1366 80 81 115
-18.3073 -47.0984 -1369 66 68 102
-15.6245 -47.2008 -1372 56 59 93
-12.9205 -47.269 -1374 58 61 96
-10.2235 -47.406 -1378 51 54 89
-7.51617 -47.5777 -1383 51 54 88
-4.78903 -47.7494 -1388 59 62 96
-2.04208 -47.9212 -1393 65 68 102
0.726776 -48.2308 -1402 85 87 131
3.54136 -48.6781 -1415 110 112 158
6.41206 -49.16 -1429 97 100 149
9.32543 -49.5732 -1441 93 97 143
12.2527 -49.8489 -1449 123 127 171
15.2535 -50.2623 -1461 139 143 179
18.2649 -50.5727 -1470 139 144 171
-265.336 -56.0901 -1526 80 78 100
-256.889 -54.9379 -1495 75 71 95
-250.778 -54.2638 -1477 77 72 97
-242.897 -53.1862 -1448 84 81 112
-228.177 -50.567 -1377 85 83 115
-217.84 -48.8668 -1331 77 76 111
-213.512 -48.489 -1321 67 68 103
-209.545 -48.1849 -1313 63 66 100
-206.242 -48.0279 -1309 57 61 88
-203.113 -47.9077 -1306 55 59 87
-200.458 -47.8975 -1306 52 57 87
-197.502 -47.8145 -1304 51 55 86
-195.005 -47.8414 -1305 52 55 87
-192.209 -47.7951 -1304 50 55 84
-189.565 -47.7856 -1304 51 55 84
-186.923 -47.7763 -1304 52 56 85
-184.282 -47.7672 -1304 52 56 85
-181.642 -47.7581 -1304 54 58 87
-179.279 -47.8225 -1306 54 58 87
-176.773 -47.8502 -1307 54 57 86
-174.132 -47.8416 -1307 55 58 87
-171.23 -47.76 -1305 54 58 87
-168.337 -47.6783 -1303 53 57 86
-165.327 -47.5603 -1300 53 58 89
-162.33 -47.4425 -1297 54 59 90
-159.592 -47.3981 -1296 54 59 90
-156.982 -47.3903 -1296 55 60 89
-154.372 -47.3826 -1296 56 61 89
-151.764 -47.3751 -1296 56 61 89
-149.042 -47.3311 -1295 57 62 91
-146.325 -47.2873 -1294 58 63 92
-143.502 -47.207 -1292 58 63 94
-140.798 -47.1637 -1291 60 65 95
-138.205 -47.1568 -1291 60 65 94
-135.614 -47.15 -1291 58 63 92
-133.127 -47.18 -1292 56 62 91
-130.637 -47.21 -1293 58 63 94
-128.243 -47.2766 -1295 58 63 94
-125.842 -47.3435 -1297 57 62 91
-123.435 -47.4103 -1299 56 61 90
-121.113 -47.5139 -1302 59 64 93
-118.689 -47.5809 -1304 59 64 95
-116.169 -47.6117 -1305 56 61 92
-113.646 -47.6425 -1306 55 60 91
-111.035 -47.637 -1306 57 62 93
-108.507 -47.6682 -1307 56 61 92
-105.977 -47.6993 -1308 55 60 91
-103.365 -47.6942 -1308 54 59 90
-100.907 -47.7622 -1310 56 59 91
-98.3672 -47.7937 -1311 57 60 92
-95.8242 -47.8254 -1312 57 60 92
-93.349 -47.8938 -1314 56 61 92
-90.7976 -47.9257 -1315 57 62 93
-88.3099 -47.9941 -1317 54 59 90
-85.7499 -48.0263 -1318 51 56 86
-83.1866 -48.0587 -1319 55 60 90
-80.62 -48.0912 -1320 58 63 94
-77.991 -48.0873 -1320 55 60 91
-75.3625 -48.0834 -1320 54 59 90
-72.845 -48.1527 -1322 59 60 92
-70.373 -48.2585 -1325 60 61 92
-67.9921 -48.4372 -1330 61 61 91
-65.69 -48.6889 -1337 61 61 91
-63.3134 -48.9043 -1343 58 59 89
-60.8232 -49.0469 -1347 55 56 88
-58.3176 -49.1897 -1351 48 50 82
-55.6729 -49.2233 -1352 39 42 73
-52.9856 -49.2207 -1352 36 40 69
-50.2987 -49.218 -1352 36 40 69
-47.6474 -49.252 -1353 41 42 72
-44.9261 -49.2134 -1352 41 42 72
-42.2091 -49.1749 -1351 49 50 80
-39.4963 -49.1365 -1350 50 51 81
-36.8151 -49.1346 -1350 50 51 81
-34.0837 -49.0601 -1348 53 54 86
-31.477 -49.1677 -1351 59 60 93
-28.816 -49.2026 -1352 71 72 106
-26.2479 -49.4196 -1358 85 86 120
-23.6041 -49.5276 -1361 87 88 122
-20.9948 -49.7449 -1367 87 88 122
-18.3082 -49.8167 -1369 73 75 109
-15.6253 -49.925 -1372 57 60 94
-12.9305 -50.0335 -1375 58 61 96
-10.224 -50.1421 -1378 53 56 91
-7.52196 -50.36 -1384 51 54 88
-4.78925 -50.5053 -1388 54 57 91
-2.04364 -50.7234 -1394 63 66 100
0.727332 -51.0509 -1403 75 77 121
3.54404 -51.524 -1416 104 107 152
6.40788 -51.9609 -1428 103 106 155
9.3194 -52.3979 -1440 78 82 128
12.2702 -52.7987 -1451 121 125 170
15.2647 -53.1997 -1462 124 128 165
18.2657 -53.4916 -1470 141 146 175
-263.785 -58.8024 -1517 79 77 99
-256.043 -57.7423 -1490 77 73 97
-249.093 -56.838 -1467 79 74 99
-240.729 -55.5854 -1435 80 77 108
-225.703 -52.7457 -1362 91 89 121
-217.524 -51.4564 -1329 73 72 107
-213.199 -51.0579 -1319 65 66 100
-209.236 -50.7373 -1311 61 64 98
-206.095 -50.6104 -1308 57 60 87
-203.279 -50.5608 -1307 58 62 90
-200.622 -50.5503 -1307 55 60 90
-197.664 -50.4626 -1305 51 55 85
-195.164 -50.491 -1306 49 52 84
-192.514 -50.4808 -1306 48 52 81
-189.72 -50.4322 -1305 52 56 85
-187.076 -50.4225 -1305 53 57 86
-184.432 -50.4128 -1305 55 58 87
-181.93 -50.4418 -1306 55 58 87
-179.425 -50.4711 -1307 54 58 87
-176.782 -50.4617 -1307 54 58 87
-174.008 -50.4141 -1306 55 59 88
-171.37 -50.405 -1306 55 59 88
-168.604 -50.3576 -1305 54 58 87
-165.589 -50.2332 -1302 54 59 89
-162.713 -50.1476 -1300 55 60 91
-159.724 -50.0233 -1297 56 61 92
-157.111 -50.0152 -1297 56 61 90
-154.38 -49.9685 -1296 56 61 90
-151.654 -49.922 -1295 55 60 89
-148.934 -49.8757 -1294 57 62 91
-146.219 -49.8295 -1293 59 64 93
-143.509 -49.7834 -1292 59 64 94
-140.696 -49.6991 -1290 58 63 93
-138.105 -49.6919 -1290 58 63 92
-135.726 -49.7618 -1292 59 64 93
-133.134 -49.7548 -1292 59 64 93
-130.644 -49.7865 -1293 58 63 93
-128.25 -49.8568 -1295 58 63 92
-125.849 -49.9272 -1297 58 63 92
-123.346 -49.9593 -1298 58 63 92
-120.933 -50.0299 -1300 59 64 93
-118.604 -50.1392 -1303 59 64 95
-116.086 -50.1716 -1304 57 62 93
-113.477 -50.1657 -1304 54 59 90
-111.04 -50.2368 -1306 56 61 92
-108.513 -50.2696 -1307 56 61 92
-105.901 -50.2641 -1307 54 59 90
-103.449 -50.3355 -1309 53 57 89
-100.835 -50.3303 -1309 54 57 89
-98.2972 -50.3637 -1310 56 59 91
-95.829 -50.4355 -1312 59 62 94
-93.2826 -50.4691 -1313 58 63 94
-90.7331 -50.5028 -1314 58 63 94
-88.3143 -50.6135 -1317 55 60 91
-85.6891 -50.6089 -1317 52 57 88
-83.0646 -50.6046 -1317 57 62 93
-80.5629 -50.6773 -1319 59 64 95
-78.0539 -50.75 -1321 56 61 92
-75.4805 -50.7845 -1322 55 60 91
-73.0139 -50.8958 -1325 59 60 92
-70.4829 -50.969 -1327 60 61 92
-68.0466 -51.1191 -1331 61 61 91
-65.6442 -51.3077 -1336 61 62 92
-63.2223 -51.4964 -1341 59 60 90
-60.8263 -51.7236 -1347 59 60 92
-58.2773 -51.8357 -1350 57 58 90
-55.6346 -51.8712 -1351 48 51 83
-53.0274 -51.9452 -1353 43 46 76
-50.3384 -51.9426 -1353 43 46 76
-47.685 -51.9785 -1354 44 45 75
-44.9615 -51.9376 -1353 42 43 73
-42.2736 -51.9353 -1353 46 47 77
-39.5276 -51.8564 -1351 46 47 77
-36.8443 -51.8545 -1351 48 49 79
-34.1107 -51.7759 -1349 51 52 84
-31.5252 -51.9278 -1353 56 57 89
-28.8601 -51.9646 -1354 66 67 101
-26.2492 -52.1167 -1358 78 79 113
-23.64 -52.3073 -1363 84 85 119
-20.9958 -52.4597 -1367 88 89 123
-18.3225 -52.5738 -1370 77 79 113
-15.6374 -52.688 -1373 61 63 97
-12.95 -52.8408 -1377 58 61 96
-10.2319 -52.917 -1379 56 59 93
-7.52777 -53.1468 -1385 54 57 91
-4.79639 -53.3383 -1390 53 56 90
-2.04813 -53.6067 -1397 60 63 97
0.727371 -53.8369 -1403 71 73 115
3.5342 -54.1824 -1412 102 104 148
6.39025 -54.6431 -1424 107 110 158
9.30692 -55.1808 -1438 80 83 131
12.2539 -55.6034 -1449 115 118 165
15.2133 -55.9111 -1457 117 121 159
18.2418 -56.3341 -1468 142 146 176
21.4727 -57.1794 -1490 136 140 165
-263.625 -61.8054 -1516 77 75 97
-255.369 -60.5681 -1486 76 73 96
-248.257 -59.5762 -1462 77 72 97
-240.742 -58.4625 -1435 75 72 102
-226.378 -55.6389 -1366 93 91 121
-217.372 -54.079 -1328 69 68 102
-213.049 -53.66 -1318 62 64 97
-209.088 -53.3227 -1310 59 62 94
-206.106 -53.2299 -1308 56 58 86
-203.134 -53.1372 -1306 60 63 91
-200.633 -53.1668 -1307 57 62 93
-197.826 -53.1152 -1306 55 59 89
-195.324 -53.1451 -1307 53 57 86
-192.524 -53.0938 -1306 50 54 83
-189.876 -53.0833 -1306 51 55 84
-187.229 -53.073 -1306 51 55 84
-184.725 -53.1033 -1307 54 56 86
-182.079 -53.0933 -1307 53 55 85
-179.572 -53.1241 -1308 53 57 86
-176.927 -53.1142 -1308 53 57 86
-174.15 -53.0641 -1307 55 59 88
-171.379 -53.014 -1306 57 61 90
-168.484 -52.9236 -1304 56 60 89
-165.471 -52.7926 -1301 54 59 88
-162.722 -52.7431 -1300 55 60 90
-159.855 -52.6532 -1298 55 60 91
-157.24 -52.6445 -1298 55 60 91
-154.507 -52.5954 -1297 57 62 93
-151.897 -52.587 -1297 57 62 91
-148.942 -52.4572 -1294 57 62 91
-146.227 -52.4086 -1293 58 63 92
-143.406 -52.3196 -1291 61 66 95
-140.703 -52.2715 -1290 60 65 94
-138.113 -52.2639 -1290 59 63 92
-135.733 -52.3374 -1292 59 63 92
-133.244 -52.3705 -1293 58 63 92
-130.651 -52.3633 -1293 56 61 90
-128.257 -52.4374 -1295 56 61 90
-125.952 -52.5519 -1298 57 62 91
-123.542 -52.626 -1300 58 63 92
-121.032 -52.6599 -1301 57 62 91
-118.61 -52.7343 -1303 58 63 94
-116.092 -52.7684 -1304 58 63 94
-113.484 -52.7621 -1304 54 59 90
-111.046 -52.837 -1306 56 60 91
-108.519 -52.8714 -1307 57 60 92
-105.988 -52.9061 -1308 55 60 91
-103.375 -52.9005 -1308 54 58 89
-100.917 -52.9757 -1310 53 56 88
-98.3024 -52.9704 -1310 56 59 91
-95.8341 -53.046 -1312 61 64 96
-93.2876 -53.0812 -1313 58 63 94
-90.807 -53.1571 -1315 57 62 93
-88.2519 -53.1927 -1316 54 59 90
-85.6936 -53.2285 -1317 54 59 90
-83.069 -53.2238 -1317 59 64 95
-80.5672 -53.3002 -1319 58 63 94
-78.0581 -53.3767 -1321 56 61 92
-75.4845 -53.413 -1322 55 60 91
-73.0177 -53.5302 -1325 59 60 92
-70.4866 -53.6072 -1327 61 62 94
-68.0502 -53.7649 -1331 62 62 92
-65.5985 -53.9229 -1335 61 62 92
-63.1314 -54.0809 -1339 58 59 89
-60.6488 -54.2392 -1343 59 60 92
-58.1941 -54.4379 -1348 62 63 95
-55.6787 -54.5964 -1352 56 58 90
-53.0694 -54.6742 -1354 49 51 82
-50.3782 -54.6714 -1354 47 48 80
-47.7227 -54.7092 -1355 45 46 76
-45.0303 -54.7066 -1355 42 43 73
-42.3071 -54.6638 -1354 43 44 74
-39.5589 -54.5808 -1352 44 45 75
-36.8462 -54.5384 -1351 48 49 79
-34.1378 -54.4961 -1350 51 52 84
-31.5035 -54.5751 -1352 55 56 88
-28.8403 -54.6138 -1353 62 63 96
-26.2312 -54.7738 -1357 70 71 103
-23.6239 -54.9743 -1362 81 82 114
-20.9969 -55.1749 -1367 86 87 121
-18.3502 -55.3756 -1372 82 83 117
-15.6724 -55.5362 -1376 68 70 104
-12.9789 -55.6968 -1380 61 64 99
-10.2547 -55.7769 -1382 59 62 97
-7.53359 -55.9379 -1386 55 58 92
-4.79664 -56.099 -1390 53 56 90
-2.04531 -56.3006 -1395 55 58 93
0.725857 -56.5024 -1400 63 65 105
3.52939 -56.9061 -1410 92 94 137
6.37264 -57.3099 -1420 109 112 158
9.29447 -57.9561 -1436 95 98 145
12.2207 -58.3199 -1445 104 107 154
15.2245 -58.8454 -1458 119 121 161
18.1682 -59.0077 -1462 139 143 175
21.3441 -59.7756 -1481 137 141 167
-262.249 -64.5052 -1508 75 73 95
-254.353 -63.2927 -1480 75 71 95
-247.592 -62.3375 -1458 75 69 94
-239.581 -61.0409 -1428 79 76 106
-227.385 -58.6339 -1372 90 87 117
-216.893 -56.6127 -1325 67 66 99
-212.899 -56.2584 -1317 62 63 96
-209.259 -55.9899 -1311 56 59 91
-206.118 -55.8499 -1308 58 59 86
-203.301 -55.7953 -1307 58 60 88
-200.798 -55.8264 -1308 56 61 91
-197.989 -55.7723 -1307 53 58 87
-195.335 -55.7608 -1307 51 55 84
-192.535 -55.707 -1306 51 55 84
-189.887 -55.696 -1306 52 56 85
-187.239 -55.6852 -1306 53 55 85
-184.594 -55.6745 -1306 53 54 84
-181.95 -55.6639 -1306 54 55 85
-179.307 -55.6536 -1306 54 58 87
-176.666 -55.6433 -1306 55 59 88
-173.76 -55.548 -1304 55 59 88
-171.126 -55.5382 -1304 55 60 89
-168.364 -55.4858 -1303 55 60 89
-165.608 -55.4337 -1302 55 60 89
-162.856 -55.3816 -1301 55 60 90
-160.111 -55.3298 -1300 56 61 92
-157.491 -55.3208 -1300 57 62 93
-154.635 -55.2267 -1298 58 63 94
-151.905 -55.1755 -1297 58 63 93
-149.066 -55.0818 -1295 57 62 92
-146.235 -54.9881 -1293 60 65 94
-143.525 -54.9373 -1292 60 65 94
-140.929 -54.9293 -1292 60 64 93
-138.227 -54.8788 -1291 57 61 90
-135.741 -54.9135 -1292 56 61 90
-133.251 -54.9482 -1293 58 63 92
-130.658 -54.9407 -1293 56 61 90
-128.264 -55.0182 -1295 56 61 90
-125.959 -55.1385 -1298 57 62 91
-123.359 -55.1313 -1298 57 62 91
-120.946 -55.2092 -1300 57 62 91
-118.435 -55.245 -1301 56 61 92
-116.009 -55.3231 -1303 58 63 94
-113.403 -55.3167 -1303 57 62 93
-111.052 -55.4376 -1306 58 62 94
-108.525 -55.4738 -1307 56 59 91
-105.994 -55.5101 -1308 56 61 92
-103.46 -55.5466 -1309 55 59 90
-100.923 -55.5833 -1310 55 58 90
-98.3078 -55.5775 -1310 57 60 92
-95.7664 -55.6145 -1311 59 62 94
-93.2928 -55.694 -1313 58 63 94
-90.6738 -55.6886 -1313 57 61 93
-88.1227 -55.726 -1314 55 59 92
-85.5683 -55.7635 -1315 55 60 91
-83.0106 -55.8011 -1316 57 62 93
-80.4495 -55.8388 -1317 58 63 94
-77.9442 -55.9191 -1319 56 61 92
-75.3745 -55.9572 -1320 57 62 93
-72.9116 -56.0801 -1323 59 60 92
-70.4373 -56.2033 -1326 60 61 93
-67.9517 -56.3265 -1329 62 62 92
-65.5038 -56.4921 -1333 60 61 91
-63.1349 -56.7427 -1339 58 59 89
-60.5618 -56.824 -1341 58 59 91
-58.1541 -57.0749 -1347 64 65 97
-55.6406 -57.2411 -1351 57 58 90
-53.0331 -57.3228 -1353 50 51 83
-50.4182 -57.4046 -1355 46 47 79
-47.7606 -57.4442 -1356 45 46 77
-45.0661 -57.4416 -1356 42 43 73
-42.3407 -57.3968 -1355 40 41 71
-39.6196 -57.3521 -1354 43 44 74
-36.8755 -57.2652 -1352 46 47 77
-34.1903 -57.2631 -1352 48 49 80
-31.5053 -57.2612 -1352 55 56 87
-28.8418 -57.3018 -1353 60 61 93
-26.2134 -57.4273 -1356 66 67 99
-23.5905 -57.5953 -1360 79 80 111
-20.9827 -57.8482 -1366 87 88 121
-18.3378 -58.0588 -1371 87 88 122
-15.6505 -58.1849 -1374 75 76 110
-12.9702 -58.3958 -1379 62 65 100
-10.2627 -58.5645 -1383 62 65 100
-7.53944 -58.7334 -1387 53 56 91
-4.80035 -58.9025 -1391 52 55 90
-2.04542 -59.0717 -1395 50 53 89
0.7259 -59.2834 -1400 56 59 97
3.52708 -59.6646 -1409 81 84 124
6.35953 -60.0036 -1417 108 110 154
9.2691 -60.6393 -1432 111 114 159
12.2129 -61.148 -1444 88 92 137
15.1836 -61.5723 -1454 110 112 154
18.1443 -61.8273 -1460 132 135 169
21.2444 -62.4213 -1474 138 142 169
-253.68 -66.0833 -1476 80 76 99
-247.607 -65.2624 -1458 74 68 92
-239.763 -63.9497 -1429 83 80 109
-225.907 -60.9822 -1363 86 83 113
-216.415 -59.1346 -1322 64 63 96
-212.75 -58.8533 -1316 60 62 94
-209.271 -58.617 -1311 55 58 90
-206.13 -58.4703 -1308 56 57 83
-203.469 -58.4579 -1308 57 59 85
-200.809 -58.4458 -1308 53 58 87
-198 -58.3891 -1307 51 56 85
-195.496 -58.4218 -1308 51 55 84
-192.694 -58.3655 -1307 52 56 85
-189.898 -58.3093 -1306 54 57 86
-187.25 -58.298 -1306 55 56 86
-184.746 -58.3314 -1307 54 55 85
-182.1 -58.3204 -1307 55 56 86
-179.592 -58.3541 -1308 56 60 89
-176.947 -58.3433 -1308 55 59 88
-174.037 -58.2435 -1306 54 58 87
-171.399 -58.2332 -1306 54 59 88
-168.632 -58.1783 -1305 55 60 89
-165.49 -57.9901 -1301 55 60 89
-162.741 -57.9356 -1300 55 60 90
-159.997 -57.8814 -1299 55 60 91
-157.379 -57.8718 -1299 56 61 92
-154.406 -57.7288 -1296 57 62 93
-151.797 -57.7197 -1296 57 62 93
-148.959 -57.6216 -1294 57 62 92
-146.244 -57.5682 -1293 58 63 92
-143.422 -57.4705 -1291 61 66 95
-140.828 -57.462 -1291 61 66 95
-138.128 -57.4091 -1290 59 63 92
-135.749 -57.4899 -1292 58 62 91
-133.259 -57.5264 -1293 58 62 91
-130.767 -57.5629 -1294 57 61 90
-128.37 -57.6441 -1296 58 62 91
-125.967 -57.7256 -1298 58 62 91
-123.461 -57.7625 -1299 56 60 89
-120.86 -57.7552 -1299 55 59 88
-118.441 -57.8371 -1301 57 60 92
-115.927 -57.8744 -1302 60 63 95
-113.409 -57.9121 -1303 61 64 96
-111.059 -58.0387 -1306 61 64 96
-108.531 -58.0765 -1307 60 63 95
-106 -58.1146 -1308 60 65 96
-103.466 -58.1529 -1309 56 60 92
-100.929 -58.1911 -1310 54 57 89
-98.3135 -58.1852 -1310 57 60 92
-95.7719 -58.2237 -1311 59 62 94
-93.2272 -58.2626 -1312 56 59 91
-90.6792 -58.3015 -1313 57 60 92
-88.1278 -58.3405 -1314 57 60 94
-85.6383 -58.4242 -1316 55 60 91
-83.0154 -58.4192 -1316 55 60 91
-80.5763 -58.5475 -1319 56 61 92
-78.0669 -58.6314 -1321 55 60 91
-75.436 -58.6269 -1321 56 61 92
-72.9158 -58.7113 -1323 59 60 92
-70.4414 -58.8402 -1326 60 61 93
-67.9045 -58.9248 -1328 62 63 93
-65.3602 -59.0096 -1330 61 62 92
-62.9971 -59.2719 -1336 60 61 91
-60.5202 -59.4457 -1340 60 61 93
-58.1143 -59.7084 -1346 62 63 95
-55.6438 -59.9268 -1351 57 58 90
-53.1147 -60.101 -1355 51 52 84
-50.4957 -60.1866 -1357 47 48 80
-47.8338 -60.2281 -1358 46 47 79
-45.1351 -60.2253 -1358 43 44 75
-42.3744 -60.1341 -1356 41 42 72
-39.6804 -60.1316 -1356 42 43 73
-36.9322 -60.0407 -1354 44 45 75
-34.1923 -59.9499 -1352 47 48 78
-31.5072 -59.9479 -1352 53 54 85
-28.8222 -59.9462 -1352 57 58 90
-26.1762 -60.0331 -1354 62 63 94
-23.5572 -60.2089 -1358 76 77 107
-20.9532 -60.4736 -1364 89 90 122
-18.3122 -60.6942 -1369 91 92 125
-15.6742 -61.0035 -1376 82 83 117
-12.9992 -61.2686 -1382 67 68 103
-10.2782 -61.4009 -1385 65 66 101
-7.55075 -61.5778 -1389 56 58 93
-4.80753 -61.7547 -1393 53 55 91
-2.04553 -61.8432 -1395 51 54 91
0.725945 -62.0648 -1400 56 59 95
3.52228 -62.3753 -1407 74 76 115
6.35541 -62.7746 -1416 105 107 150
9.27611 -63.5287 -1433 112 116 161
12.2136 -64.017 -1444 89 93 138
15.1845 -64.4611 -1454 103 105 148
18.1454 -64.7281 -1460 124 127 162
21.2456 -65.35 -1474 138 142 171
-260.541 -70.0911 -1498 78 76 97
-253.18 -68.9051 -1473 79 75 97
-245.584 -67.6265 -1446 77 71 94
-239.274 -66.676 -1426 89 86 115
-221.446 -62.4536 -1336 79 77 107
-216.756 -61.8789 -1324 63 64 96
-212.602 -61.4447 -1315 59 61 93
-209.125 -61.1978 -1310 54 57 89
-206.3 -61.1379 -1309 54 55 81
-203.481 -61.0784 -1308 55 57 83
-200.975 -61.1123 -1309 53 58 87
-198.012 -61.0063 -1307 52 57 86
-195.508 -61.0406 -1308 52 56 85
-192.706 -60.9818 -1307 52 56 85
-189.764 -60.8763 -1305 55 58 87
-187.262 -60.9111 -1306 57 58 88
-184.757 -60.946 -1307 57 58 88
-182.111 -60.9345 -1307 56 57 87
-179.329 -60.8765 -1306 58 60 90
-176.823 -60.9119 -1307 55 58 88
-174.048 -60.8543 -1306 55 59 88
-171.409 -60.8435 -1306 56 61 91
-168.643 -60.7862 -1305 57 62 93
-165.755 -60.6825 -1303 57 62 93
-163.126 -60.6722 -1303 55 60 91
-160.253 -60.5689 -1301 54 59 90
-157.389 -60.4659 -1299 55 60 91
-154.534 -60.3631 -1297 57 62 93
-151.806 -60.3068 -1296 57 62 93
-148.968 -60.2044 -1294 57 62 91
-146.366 -60.1952 -1294 57 62 91
-143.653 -60.1396 -1293 60 65 94
-141.055 -60.1307 -1293 62 67 96
-138.351 -60.0755 -1292 62 66 95
-135.862 -60.1134 -1293 60 64 93
-133.37 -60.1514 -1294 57 61 90
-130.775 -60.1432 -1294 58 62 91
-128.378 -60.228 -1296 60 64 93
-125.975 -60.3129 -1298 60 64 93
-123.469 -60.3517 -1299 57 61 90
-120.867 -60.344 -1299 54 58 87
-118.449 -60.4294 -1301 56 59 91
-115.934 -60.4687 -1302 58 61 93
-113.416 -60.5079 -1303 59 62 94
-110.981 -60.5938 -1305 60 63 95
-108.455 -60.6334 -1306 60 63 95
-105.926 -60.6732 -1307 61 66 97
-103.472 -60.7594 -1309 58 62 94
-100.858 -60.7531 -1309 57 60 92
-98.2445 -60.7468 -1309 56 59 91
-95.7047 -60.7872 -1310 57 60 92
-93.2328 -60.8741 -1312 58 61 93
-90.6156 -60.8684 -1312 58 61 94
-88.2003 -61.0021 -1315 59 62 96
-85.6436 -61.0429 -1316 56 60 92
-83.0835 -61.0841 -1317 55 59 90
-80.5813 -61.1718 -1319 55 60 91
-78.0717 -61.2597 -1321 55 60 91
-75.4977 -61.3011 -1322 56 61 92
-72.9202 -61.3429 -1323 60 61 93
-70.3926 -61.4312 -1325 61 62 94
-67.9086 -61.566 -1328 62 63 93
-65.3642 -61.6546 -1330 62 63 93
-62.9065 -61.8361 -1334 62 63 93
-60.3884 -61.9714 -1337 62 63 96
-57.9883 -62.2456 -1343 59 60 93
-55.4824 -62.4275 -1347 57 58 90
-53.0395 -62.7022 -1353 53 54 86
-50.4243 -62.7917 -1355 48 49 81
-47.8367 -62.9277 -1358 47 48 80
-45.1379 -62.9248 -1358 45 46 77
-42.4082 -62.8758 -1357 42 43 72
-39.7121 -62.8733 -1357 40 41 71
-37.0163 -62.8709 -1357 42 43 73
-34.2702 -62.776 -1355 46 47 78
-31.579 -62.774 -1355 52 53 85
-28.8667 -62.7258 -1354 55 56 88
-26.1778 -62.7239 -1354 60 61 92
-23.5413 -62.8614 -1357 70 71 101
-20.9237 -63.0916 -1362 85 86 119
-18.2731 -63.2757 -1366 91 92 126
-15.641 -63.5989 -1373 91 92 126
-12.9811 -63.9223 -1380 78 79 113
-10.2862 -64.1995 -1386 66 67 102
-7.5512 -64.3379 -1389 60 61 96
-4.81127 -64.5691 -1394 53 56 92
-2.04712 -64.6615 -1396 55 58 95
0.725992 -64.8468 -1400 58 61 95
3.51499 -65.0322 -1404 68 70 107
6.36029 -65.6346 -1417 101 103 145
9.24431 -66.1446 -1428 111 115 160
12.189 -66.7475 -1441 96 100 146
15.1645 -67.2578 -1452 100 101 146
18.0968 -67.4442 -1456 113 115 153
21.1172 -67.8624 -1465 135 138 170
24.2063 -68.3732 -1476 135 137 155
-251.65 -71.4229 -1464 82 78 99
-243.222 -69.8455 -1432 86 80 102
-231.571 -67.2939 -1380 101 98 129
-221.128 -65.036 -1334 72 70 101
-216.442 -64.4366 -1322 61 62 94
-212.777 -64.1301 -1316 57 59 90
-209.457 -63.9213 -1312 52 55 86
-206.629 -63.8589 -1311 51 53 77
-203.65 -63.7479 -1309 52 55 80
-200.988 -63.7346 -1309 53 58 86
-198.025 -63.6242 -1307 53 57 86
-195.52 -63.6599 -1308 54 57 86
-192.718 -63.5984 -1307 53 57 86
-189.776 -63.4885 -1305 54 57 86
-187.131 -63.4762 -1305 57 58 88
-184.628 -63.5125 -1306 58 59 88
-181.983 -63.5005 -1306 57 58 87
-179.478 -63.5373 -1307 57 58 88
-176.97 -63.5742 -1308 56 58 87
-174.059 -63.4655 -1306 55 59 88
-171.42 -63.4543 -1306 56 61 91
-168.524 -63.346 -1304 58 63 94
-165.765 -63.2864 -1303 57 62 93
-162.886 -63.1786 -1301 54 59 90
-160.14 -63.1194 -1300 51 56 87
-157.399 -63.0604 -1299 53 58 89
-154.425 -62.9046 -1296 56 61 92
-151.816 -62.8947 -1296 57 62 93
-149.093 -62.8362 -1295 59 64 94
-146.262 -62.7296 -1293 59 64 94
-143.551 -62.6716 -1292 60 65 94
-140.955 -62.6623 -1292 62 67 96
-138.146 -62.5562 -1290 63 65 95
-135.661 -62.5958 -1291 60 64 93
-133.276 -62.684 -1293 58 62 91
-130.783 -62.7239 -1294 58 62 91
-128.386 -62.8123 -1296 59 63 92
-125.885 -62.8525 -1297 60 64 93
-123.477 -62.9412 -1299 59 63 92
-120.875 -62.9334 -1299 55 59 88
-118.456 -63.0224 -1301 54 57 89
-116.03 -63.1116 -1303 55 58 90
-113.511 -63.1527 -1304 59 62 94
-111.073 -63.2422 -1306 61 64 96
-108.545 -63.2836 -1307 63 66 98
-106.094 -63.3733 -1309 64 69 100
-103.479 -63.3666 -1309 63 67 99
-100.864 -63.3599 -1309 61 64 96
-98.2508 -63.3535 -1309 59 62 94
-95.7108 -63.3955 -1310 59 61 93
-93.1677 -63.4378 -1311 60 63 95
-90.6214 -63.4801 -1312 60 63 96
-88.2059 -63.6195 -1315 60 63 97
-85.7791 -63.7591 -1318 56 59 92
-83.215 -63.802 -1319 56 59 91
-80.6475 -63.8449 -1320 56 61 92
-78.1358 -63.9365 -1322 56 61 92
-75.5596 -63.98 -1323 57 62 93
-72.98 -64.0235 -1324 61 63 95
-70.3439 -64.0188 -1324 62 63 95
-67.7596 -64.0627 -1325 61 62 93
-65.27 -64.2034 -1328 62 63 93
-62.8163 -64.3927 -1332 62 63 93
-60.2567 -64.4854 -1334 62 63 97
-57.8624 -64.7716 -1340 57 58 92
-55.486 -65.1063 -1347 57 58 91
-52.9644 -65.296 -1351 56 57 89
-50.3902 -65.4377 -1354 51 52 84
-47.8398 -65.6278 -1358 50 51 83
-45.1407 -65.6248 -1358 49 50 80
-42.4421 -65.622 -1358 44 45 73
-39.7731 -65.6677 -1359 39 40 70
-37.0732 -65.6652 -1359 40 41 71
-34.323 -65.5663 -1357 44 45 77
-31.6043 -65.5158 -1356 50 51 83
-28.9111 -65.5139 -1356 54 55 87
-26.2374 -65.5604 -1357 60 61 91
-23.5601 -65.6071 -1358 66 67 97
-20.9404 -65.8473 -1363 79 80 114
-18.301 -66.0875 -1368 86 87 121
-15.6533 -66.3761 -1374 90 91 125
-12.9914 -66.7135 -1381 84 85 119
-10.3091 -67.0991 -1389 68 69 103
-7.56255 -67.1951 -1391 62 63 98
-4.81157 -67.3397 -1394 57 59 96
-2.04871 -67.4844 -1397 55 58 95
0.72656 -67.6775 -1401 58 61 95
3.51521 -67.8226 -1404 64 67 103
6.34723 -68.306 -1414 92 95 134
9.24489 -68.9828 -1428 111 114 161
12.1982 -69.6598 -1442 105 107 155
15.1446 -70.0472 -1450 97 98 143
18.1104 -70.3866 -1457 105 106 145
21.1041 -70.726 -1464 138 140 173
24.1422 -71.1139 -1472 138 140 158
-257.619 -75.2433 -1481 85 83 102
-249.604 -73.7527 -1452 84 80 101
-241.709 -72.2629 -1423 88 82 104
-230.747 -69.8093 -1375 103 101 130
-220.646 -67.5603 -1331 67 66 95
-216.457 -67.0884 -1322 61 62 94
-212.953 -66.82 -1317 57 60 90
-209.631 -66.6026 -1313 54 58 87
-206.958 -66.5882 -1313 53 55 79
-204.131 -66.5235 -1312 52 55 79
-201.309 -66.4589 -1311 52 57 84
-198.342 -66.3438 -1309 55 57 86
-195.683 -66.3303 -1309 57 58 88
-192.879 -66.2663 -1308 54 58 87
-189.934 -66.1519 -1306 52 55 84
-187.287 -66.1389 -1306 54 55 85
-184.64 -66.1263 -1306 56 57 86
-182.135 -66.1644 -1307 56 57 85
-179.352 -66.1015 -1306 56 57 85
-176.846 -66.1399 -1307 57 59 87
-174.07 -66.0774 -1306 56 60 89
-171.3 -66.015 -1305 56 61 91
-168.536 -65.9528 -1304 59 64 95
-165.776 -65.8908 -1303 58 63 94
-162.897 -65.7784 -1301 54 59 90
-160.274 -65.7675 -1301 52 57 88
-157.41 -65.6555 -1299 53 58 89
-154.555 -65.5439 -1297 54 59 90
-151.826 -65.4828 -1296 57 62 93
-149.103 -65.4221 -1295 59 64 95
-146.385 -65.3616 -1294 60 65 96
