ply
format ascii 1.0
comment Created by Open3D
element vertex 1469
property double x
property double y
property double z
property uchar red
property uchar green
property uchar blue
end_header
-150.897 15.76 -1187 46 48 71
-148.504 15.7573 -1187 45 47 70
-146.236 15.7679 -1188 45 47 70
-143.844 15.7653 -1188 46 48 71
-141.81 15.8026 -1191 45 47 70
-139.531 15.8133 -1192 38 42 65
-137.364 15.8374 -1194 38 43 66
-135.077 15.8482 -1195 40 46 68
-132.788 15.8591 -1196 40 46 68
-130.386 15.8567 -1196 39 46 68
-128.306 15.8942 -1199 39 47 69
-125.901 15.8918 -1199 41 46 69
-123.599 15.9029 -1200 40 44 67
-121.396 15.9272 -1202 43 47 70
-118.987 15.925 -1202 45 49 72
-116.483 15.9097 -1201 45 49 70
-114.173 15.9208 -1202 46 48 72
-111.86 15.9321 -1203 48 49 75
-109.453 15.9301 -1203 48 49 77
-107.047 15.9281 -1203 51 53 81
-104.642 15.9263 -1203 53 57 85
-102.238 15.9244 -1203 53 57 84
-99.7517 15.9093 -1202 53 58 84
-97.2701 15.8944 -1201 50 57 85
-94.7932 15.8794 -1200 49 56 84
-92.3212 15.8646 -1199 51 56 83
-89.7788 15.8365 -1197 50 55 84
-87.3911 15.8348 -1197 49 54 83
-84.9332 15.8201 -1196 48 53 80
-82.5489 15.8186 -1196 47 52 79
-80.0983 15.8039 -1195 47 52 79
-77.7174 15.8025 -1195 47 52 80
-75.4631 15.8276 -1197 48 53 82
-73.2625 15.866 -1200 54 59 88
-71.1097 15.9176 -1204 56 60 90
-69.0556 15.9957 -1210 58 61 93
-66.9231 16.0605 -1215 61 65 95
-64.6651 16.099 -1218 62 66 95
-62.3956 16.1375 -1221 65 66 96
-60.0656 16.1628 -1223 63 64 93
-57.7753 16.2014 -1226 61 62 90
-55.3833 16.2136 -1227 57 58 88
-52.9877 16.2259 -1228 56 57 87
-50.6708 16.2646 -1231 56 57 87
-48.2249 16.2637 -1231 58 59 90
-45.8538 16.2893 -1233 60 61 93
-43.5103 16.3282 -1236 60 61 93
-41.122 16.3538 -1238 62 63 95
-38.6636 16.3531 -1238 59 60 92
-36.2641 16.3789 -1240 61 62 94
-33.8569 16.4047 -1242 65 66 98
-31.4167 16.4173 -1243 64 65 95
-28.9495 16.4168 -1243 62 63 94
-26.5252 16.4427 -1245 63 64 96
-24.1318 16.4951 -1249 65 64 99
-21.688 16.5211 -1251 74 73 109
-19.2826 16.5867 -1256 105 110 141
-16.8574 16.6525 -1261 181 188 219
-14.4125 16.7182 -1266 145 156 187
-276.576 14.5236 -1274 96 92 108
-274.143 14.5307 -1275 76 76 103
-271.921 14.5492 -1277 69 69 98
-269.272 14.545 -1277 66 67 101
-266.207 14.518 -1275 65 66 99
-263.153 14.4912 -1273 62 63 95
-260.314 14.4757 -1272 65 65 95
-257.279 14.4489 -1270 70 70 100
-253.252 14.3653 -1263 70 70 100
-250.049 14.3272 -1260 71 71 101
-246.665 14.2779 -1256 71 71 101
-243.104 14.2173 -1251 66 66 96
-239.952 14.1794 -1248 63 63 93
-237.003 14.153 -1246 61 60 92
-233.877 14.1153 -1243 60 59 91
-230.951 14.089 -1241 63 62 94
-228.403 14.0855 -1241 63 67 96
-225.493 14.0592 -1239 66 68 98
-222.593 14.0331 -1237 68 69 99
-219.704 14.007 -1235 68 68 98
-216.297 13.9469 -1230 68 68 98
-213.085 13.8982 -1226 69 69 99
-209.893 13.8496 -1222 70 70 100
-206.887 13.8124 -1219 68 68 98
-203.728 13.7639 -1215 67 67 98
-200.753 13.7268 -1212 69 70 101
-196.974 13.6332 -1204 68 69 101
-194.037 13.5962 -1201 66 67 98
-191.113 13.5592 -1198 64 65 95
-188.046 13.5111 -1194 61 62 92
-185.152 13.4743 -1191 62 63 93
-182.272 13.4375 -1188 62 63 93
-179.557 13.4121 -1186 60 61 93
-176.851 13.3867 -1184 54 55 87
-174.45 13.384 -1184 52 53 83
-172.05 13.3814 -1184 54 55 85
-169.509 13.3674 -1183 54 55 85
-166.972 13.3536 -1182 51 52 82
-164.72 13.3624 -1183 49 50 80
-162.328 13.3598 -1183 49 50 76
-159.937 13.3574 -1183 48 49 76
-157.814 13.3775 -1185 47 48 76
-155.684 13.3977 -1187 48 49 75
-153.159 13.3841 -1186 48 49 75
-150.895 13.3929 -1187 48 50 73
-148.627 13.402 -1188 47 49 72
-146.357 13.411 -1189 46 48 71
-144.083 13.42 -1190 46 48 71
-142.046 13.4517 -1193 46 48 71
-139.763 13.4609 -1194 40 44 67
-137.592 13.4812 -1196 39 44 66
-135.188 13.4791 -1196 40 46 68
-132.785 13.4771 -1196 41 47 69
-130.493 13.4864 -1197 41 47 69
-128.304 13.507 -1199 40 47 69
-125.899 13.505 -1199 40 45 68
-123.597 13.5143 -1200 41 45 68
-121.293 13.5238 -1201 43 47 70
-118.985 13.5332 -1202 43 47 70
-116.578 13.5314 -1202 44 48 69
-114.266 13.541 -1203 46 48 73
-111.951 13.5504 -1204 48 49 76
-109.543 13.5487 -1204 48 48 78
-107.046 13.5358 -1203 50 51 80
-104.728 13.5455 -1204 53 57 85
-102.406 13.5552 -1205 53 58 84
-99.833 13.5312 -1203 53 58 84
-97.3494 13.5184 -1202 50 58 84
-94.9496 13.517 -1202 49 56 83
-92.3196 13.4818 -1199 52 57 84
-89.7773 13.4579 -1197 52 57 85
-87.3896 13.4566 -1197 50 55 84
-85.0028 13.4553 -1197 49 54 81
-82.5475 13.4427 -1196 47 52 79
-80.0969 13.4302 -1195 46 51 78
-77.7811 13.4403 -1196 46 51 79
-75.4619 13.4504 -1197 47 52 81
-73.3223 13.4942 -1201 54 59 88
-71.1676 13.538 -1205 57 61 91
-69.1115 13.6044 -1211 58 61 93
-66.9771 13.6595 -1216 60 64 94
-64.7702 13.7035 -1220 62 66 95
-62.4458 13.725 -1222 65 66 96
-60.1138 13.7465 -1224 65 66 95
-57.8215 13.7793 -1227 61 62 90
-55.4275 13.7897 -1228 57 58 88
-53.0299 13.8001 -1229 59 60 90
-50.7112 13.833 -1232 57 58 88
-48.3024 13.8435 -1233 57 58 88
-45.9274 13.8652 -1235 59 60 91
-43.5448 13.887 -1237 60 61 93
-41.1213 13.8976 -1238 61 62 94
-38.663 13.897 -1238 60 61 93
-36.2635 13.9189 -1240 60 61 93
-33.8291 13.9296 -1241 62 63 95
-31.3909 13.9403 -1242 64 65 95
-28.9025 13.9286 -1241 64 65 96
-26.4822 13.9507 -1243 63 64 96
-24.0734 13.9839 -1246 66 65 100
-21.6183 13.9948 -1247 77 76 111
-19.2208 14.0506 -1252 107 112 144
-16.817 14.1177 -1258 178 185 217
-14.4123 14.2072 -1266 158 167 200
-11.9007 14.207 -1266 122 140 171
-278.345 11.9231 -1270 103 99 110
-277.223 11.9853 -1277 90 86 101
-275.429 12.0191 -1281 73 73 101
-272.343 11.9969 -1279 68 68 98
-269.69 11.9934 -1279 65 66 100
-266.412 11.9619 -1276 65 66 99
-263.77 11.9583 -1276 63 64 96
-260.515 11.9269 -1273 67 67 97
-257.275 11.8955 -1270 70 70 100
-253.449 11.836 -1264 69 69 99
-250.244 11.8047 -1261 70 70 100
-246.465 11.7454 -1255 70 70 100
-242.907 11.6954 -1250 66 66 96
-239.756 11.6643 -1247 63 63 93
-237 11.6519 -1246 61 61 91
-233.873 11.6209 -1243 61 61 91
-230.948 11.5992 -1241 64 64 94
-228.216 11.5869 -1240 64 68 97
-225.126 11.556 -1237 66 69 98
-222.23 11.5344 -1235 67 68 98
-219.523 11.5224 -1234 70 70 100
-216.118 11.4729 -1229 69 69 99
-213.082 11.4421 -1226 70 70 100
-209.89 11.402 -1222 70 70 100
-206.715 11.3622 -1218 68 68 98
-203.39 11.3129 -1213 68 68 98
-200.253 11.2731 -1209 69 69 100
-196.807 11.2146 -1203 67 68 99
-193.872 11.1841 -1200 65 66 96
-190.951 11.1537 -1197 63 64 94
-187.886 11.114 -1193 62 63 93
-185.149 11.0931 -1191 62 63 93
-182.423 11.072 -1189 61 62 92
-179.554 11.0419 -1186 60 60 91
-176.849 11.0209 -1184 55 55 87
-174.595 11.0281 -1185 53 54 84
-171.903 11.0073 -1183 56 57 87
-169.506 11.0051 -1183 54 55 85
-167.111 11.003 -1183 50 51 81
-164.857 11.0101 -1184 49 50 80
-162.463 11.0081 -1184 48 49 76
-160.07 11.0061 -1184 47 48 75
-157.945 11.0226 -1186 46 47 75
-155.813 11.0393 -1188 46 48 72
-153.286 11.0281 -1187 47 49 73
-151.02 11.0353 -1188 48 50 73
-148.75 11.0428 -1189 48 50 73
-146.478 11.0502 -1190 45 47 70
-144.324 11.067 -1192 46 48 71
-142.163 11.0837 -1194 46 49 72
-139.878 11.0912 -1195 42 46 69
-137.705 11.1081 -1197 40 45 68
-135.299 11.1064 -1197 41 46 69
-132.895 11.1047 -1197 41 47 69
-130.6 11.1122 -1198 42 48 70
-128.41 11.1292 -1200 41 47 69
-126.002 11.1276 -1200 41 46 69
-123.699 11.1353 -1201 43 47 70
-121.392 11.1431 -1202 44 48 71
-119.083 11.1508 -1203 45 48 71
-116.576 11.1401 -1202 45 48 70
-114.359 11.1571 -1204 47 48 75
-112.043 11.1649 -1205 48 48 77
-109.632 11.1636 -1205 48 48 78
-107.222 11.1622 -1205 49 50 80
-104.813 11.1609 -1205 52 55 84
-102.405 11.1596 -1205 53 57 84
-99.7486 11.1306 -1202 52 57 83
-97.3481 11.1294 -1202 49 57 84
-94.7903 11.1097 -1200 49 57 83
-92.2414 11.09 -1198 54 59 86
-89.701 11.0703 -1196 55 60 88
-87.3885 11.0785 -1197 50 55 83
-84.9306 11.068 -1196 48 53 81
-82.4774 11.0577 -1195 48 53 81
-80.0288 11.0475 -1194 45 50 77
-77.715 11.0557 -1195 45 50 79
-75.4608 11.0733 -1197 46 51 80
-73.2603 11.1001 -1200 54 59 89
-71.1666 11.1455 -1205 58 62 93
-69.1106 11.2001 -1211 60 63 94
-66.9762 11.2455 -1216 61 65 94
-64.8224 11.2909 -1221 63 67 96
-62.4959 11.3086 -1223 65 66 96
-60.1621 11.3263 -1225 64 65 94
-57.7736 11.3349 -1226 62 63 91
-55.3816 11.3434 -1227 60 61 91
-52.9429 11.3427 -1227 60 61 91
-50.6692 11.3791 -1231 59 60 90
-48.2626 11.3877 -1232 60 61 91
-45.8896 11.4056 -1234 60 61 91
-43.509 11.4235 -1236 59 60 92
-41.0875 11.4322 -1237 60 61 93
-38.6 11.4225 -1236 60 61 93
-36.2045 11.4405 -1238 60 61 93
-33.7741 11.4493 -1239 61 62 94
-31.3652 11.4674 -1241 63 64 94
-28.9021 11.467 -1241 63 64 94
-26.4605 11.4759 -1242 63 64 96
-24.0538 11.5033 -1245 70 70 104
-21.6007 11.5123 -1246 77 76 111
-19.1745 11.5397 -1249 112 117 150
-16.7767 11.5949 -1255 179 184 218
-14.3893 11.6779 -1264 167 174 208
-280.534 9.43764 -1280 102 97 109
-278.522 9.45693 -1283 83 79 95
-276.071 9.46149 -1284 71 71 99
-272.979 9.44397 -1282 67 68 98
-270.108 9.43385 -1281 64 65 99
-267.036 9.4164 -1279 65 66 99
-264.387 9.4137 -1279 64 65 96
-261.126 9.38895 -1276 68 68 98
-257.88 9.36423 -1273 69 69 99
-253.847 9.31029 -1266 69 69 99
-250.638 9.28566 -1263 70 70 100
-246.855 9.23901 -1257 69 69 99
-243.293 9.19976 -1252 65 65 95
-240.138 9.1754 -1249 63 63 93
-237.187 9.15827 -1247 62 62 92
-234.059 9.13382 -1244 64 64 94
-230.945 9.10941 -1241 65 65 95
-228.213 9.09986 -1240 64 68 97
-225.123 9.07552 -1237 65 68 97
-222.048 9.05136 -1234 68 69 99
-219.342 9.04175 -1233 71 69 99
-216.291 9.0175 -1230 71 68 99
-213.254 8.99344 -1227 71 71 101
-209.887 8.95461 -1222 71 71 101
-206.543 8.91597 -1217 69 69 99
-203.388 8.88454 -1213 70 70 100
-200.251 8.8533 -1209 70 70 100
-196.969 8.81462 -1204 67 68 98
-194.032 8.79078 -1201 64 65 95
-190.949 8.75964 -1197 62 63 93
-188.199 8.74303 -1195 63 64 94
-185.303 8.71928 -1192 63 64 94
-182.267 8.6881 -1188 62 63 93
-179.552 8.67173 -1186 60 59 91
-176.996 8.66269 -1185 58 57 90
-174.446 8.65354 -1184 57 58 88
-171.901 8.64455 -1183 59 60 90
-169.504 8.6429 -1183 57 58 88
-166.968 8.63382 -1182 51 52 82
-164.716 8.63952 -1183 48 49 79
-162.461 8.64523 -1184 48 49 77
-160.203 8.65083 -1185 48 49 77
-158.076 8.66388 -1187 46 47 75
-155.942 8.67696 -1189 45 47 71
-153.414 8.66816 -1188 45 47 70
-151.145 8.67398 -1189 46 48 71
-148.999 8.68697 -1191 45 47 70
-146.722 8.69282 -1192 43 45 68
-144.443 8.6987 -1193 44 46 69
-142.399 8.71918 -1196 44 47 70
-139.876 8.71052 -1195 42 46 69
-137.703 8.7236 -1197 41 45 68
-135.524 8.73684 -1199 42 46 69
-133.115 8.73554 -1199 40 46 68
-130.817 8.74154 -1200 42 48 70
-128.729 8.76213 -1203 43 49 71
-126.211 8.7536 -1202 44 48 71
-123.697 8.74511 -1201 45 49 72
-121.391 8.75105 -1202 45 49 72
-119.081 8.75716 -1203 45 49 72
-116.575 8.74873 -1202 48 50 73
-114.263 8.75488 -1203 50 51 79
-112.042 8.76833 -1205 52 52 82
-109.631 8.76725 -1205 52 52 82
-107.132 8.75892 -1204 52 52 82
-104.812 8.76516 -1205 54 55 83
-102.404 8.76415 -1205 55 58 85
-99.7475 8.74135 -1202 53 57 84
-97.266 8.73311 -1201 49 56 85
-94.7893 8.7249 -1200 51 57 85
-92.2403 8.7093 -1198 55 60 87
-89.7 8.69388 -1196 55 60 87
-87.3145 8.69301 -1196 50 55 82
-84.9297 8.69217 -1196 47 52 81
-82.5455 8.69135 -1196 48 53 81
-80.095 8.68329 -1195 46 51 78
-77.7791 8.68979 -1196 46 51 80
-75.523 8.70357 -1198 45 50 79
-73.2595 8.71737 -1200 53 58 89
-71.1658 8.75299 -1205 59 63 93
-69.1098 8.79588 -1211 62 66 95
-66.9204 8.82427 -1215 63 67 96
-64.7686 8.85994 -1220 63 67 96
-62.4953 8.8811 -1223 65 66 96
-60.2596 8.90955 -1227 63 64 93
-57.8201 8.90897 -1227 62 63 91
-55.4261 8.91568 -1228 61 62 92
-53.0286 8.92241 -1229 60 61 91
-50.6687 8.93642 -1231 60 61 91
-48.2621 8.9432 -1232 61 62 92
-45.9262 8.96451 -1235 61 62 92
-43.5085 8.97133 -1236 58 59 91
-41.0871 8.97817 -1237 58 59 91
-38.6308 8.97779 -1237 62 63 95
-36.1748 8.97742 -1237 62 63 95
-33.7464 8.98433 -1238 63 64 96
-31.3649 9.00579 -1241 64 65 93
-28.9018 9.00549 -1241 65 66 95
-26.4602 9.01248 -1242 67 68 100
-24.0149 9.01949 -1243 72 72 106
-21.5831 9.03378 -1245 81 80 116
-19.1282 9.04083 -1246 123 126 160
-16.7097 9.06968 -1250 174 178 211
-14.3095 9.12032 -1257 162 166 199
-281.189 6.87446 -1283 103 97 109
-278.52 6.87236 -1283 80 76 93
-275.639 6.86507 -1282 71 70 99
-272.977 6.863 -1282 67 68 98
-270.106 6.8556 -1281 65 66 100
-266.616 6.83216 -1277 65 66 98
-264.178 6.83566 -1278 65 66 96
-260.919 6.81763 -1275 68 68 98
-257.878 6.80512 -1273 70 70 100
-253.844 6.76576 -1266 70 70 100
-251.033 6.7585 -1265 70 70 100
-247.049 6.71936 -1258 69 69 99
-243.485 6.69079 -1253 65 65 95
-240.136 6.66774 -1249 64 64 94
-237.375 6.66058 -1248 65 65 95
-233.681 6.62691 -1242 66 66 96
-230.571 6.60913 -1239 66 66 96
-227.843 6.60219 -1238 62 66 95
-224.758 6.58445 -1235 63 65 95
-221.506 6.56157 -1231 66 67 97
-218.985 6.55987 -1231 71 69 100
-216.113 6.54768 -1229 72 69 100
-212.904 6.52487 -1225 71 71 101
-209.714 6.50193 -1221 71 71 101
-206.201 6.46852 -1215 69 69 99
-202.883 6.44032 -1210 69 69 99
-199.753 6.41762 -1206 69 69 99
-196.804 6.40026 -1203 66 67 97
-193.707 6.37746 -1199 63 64 94
-190.947 6.36547 -1197 62 63 93
-188.04 6.34819 -1194 63 64 94
-185.301 6.33624 -1192 61 62 92
-182.266 6.31354 -1188 61 62 92
-179.702 6.30695 -1187 59 59 91
-176.995 6.29506 -1185 59 58 91
-174.592 6.29383 -1185 56 57 87
-172.044 6.28715 -1184 56 57 87
-169.503 6.28063 -1183 55 56 86
-166.967 6.27413 -1182 52 53 83
-164.714 6.27827 -1183 49 50 80
-162.322 6.27697 -1183 50 51 79
-159.931 6.27583 -1183 49 50 78
-157.941 6.29062 -1186 46 47 75
-155.678 6.29482 -1187 44 46 69
-153.412 6.29903 -1188 44 46 69
-151.271 6.30855 -1190 44 46 69
-149.122 6.31795 -1192 44 46 69
-146.844 6.3222 -1193 44 46 69
-144.684 6.33177 -1195 43 45 68
-142.398 6.33605 -1196 41 44 67
-139.992 6.33505 -1196 39 43 66
-137.817 6.34466 -1198 40 44 67
-135.523 6.34898 -1199 41 45 68
-133.003 6.34259 -1198 41 47 69
-130.816 6.35224 -1200 42 48 70
-128.728 6.3672 -1203 43 49 71
-126.21 6.361 -1202 45 50 73
-123.799 6.36012 -1202 46 50 73
-121.592 6.36983 -1204 45 49 72
-119.179 6.36897 -1204 46 49 72
-116.671 6.36285 -1203 49 51 74
-114.357 6.36731 -1204 53 53 81
-112.041 6.3718 -1205 54 54 84
-109.63 6.37101 -1205 54 54 84
-107.131 6.36495 -1204 52 52 82
-104.811 6.36949 -1205 53 54 82
-102.403 6.36875 -1205 55 58 85
-99.7467 6.35203 -1202 54 58 85
-97.2652 6.34605 -1201 53 58 87
-94.7095 6.33479 -1199 53 58 87
-92.1625 6.32356 -1197 53 58 85
-89.6993 6.31763 -1196 53 58 85
-87.2408 6.31172 -1195 50 55 82
-84.8579 6.31111 -1195 49 54 83
-82.4758 6.31051 -1195 49 54 82
-80.0273 6.30465 -1194 48 53 80
-77.7134 6.30937 -1195 47 52 81
-75.4593 6.31939 -1197 44 49 78
-73.2589 6.33469 -1200 52 57 88
-71.1061 6.3553 -1204 60 64 94
-69.1092 6.39174 -1211 62 66 95
-66.9749 6.41765 -1216 62 65 96
-64.8212 6.44357 -1221 62 65 96
-62.5969 6.46422 -1225 64 65 95
-60.3082 6.47961 -1228 64 65 94
-57.8667 6.47919 -1228 63 64 92
-55.4708 6.48406 -1229 59 60 90
-52.985 6.4784 -1228 60 61 91
-50.6271 6.48858 -1230 60 61 91
-48.2225 6.4935 -1231 60 61 91
-45.9259 6.51427 -1235 58 59 89
-43.5433 6.5245 -1237 56 57 89
-41.1199 6.52947 -1238 58 59 91
-38.6617 6.52919 -1238 62 63 95
-36.233 6.53419 -1239 63 64 96
-33.7734 6.53394 -1239 62 63 95
-31.3646 6.54426 -1241 64 65 93
-28.9248 6.54932 -1242 68 69 98
-26.4813 6.55439 -1243 71 72 104
-24.0533 6.56476 -1245 75 74 110
-21.6003 6.56987 -1246 80 79 116
-19.1588 6.58027 -1248 131 134 168
-16.7764 6.61705 -1255 161 164 196
-14.4004 6.66966 -1265 141 143 174
-281.203 4.25048 -1271 94 87 96
-281.187 4.28922 -1283 105 99 112
-278.735 4.29134 -1284 79 75 94
-276.282 4.29331 -1285 70 70 98
-272.975 4.28208 -1282 66 66 97
-269.894 4.27406 -1280 64 65 99
-267.032 4.26954 -1279 64 65 98
-264.383 4.26838 -1279 65 66 98
-260.918 4.25372 -1275 68 68 98
-258.079 4.24924 -1274 72 72 102
-254.444 4.23129 -1269 71 71 101
-251.23 4.22018 -1266 68 68 98
-247.44 4.19908 -1260 67 67 97
-243.872 4.18119 -1255 65 65 95
-240.326 4.16347 -1250 64 64 94
-237.184 4.15243 -1247 66 66 96
-233.867 4.13792 -1243 67 67 97
-230.569 4.12358 -1239 67 67 97
-227.842 4.11925 -1238 61 65 94
-224.574 4.10479 -1234 61 64 93
-221.865 4.10048 -1233 66 67 95
-218.983 4.09286 -1231 72 69 100
-216.112 4.08525 -1229 73 70 101
-212.903 4.07086 -1225 71 71 101
-209.541 4.05332 -1220 69 69 99
-206.2 4.03579 -1215 68 68 98
-202.882 4.01828 -1210 69 69 99
-199.586 4.00064 -1205 69 69 99
-196.639 3.98981 -1202 65 66 96
-193.544 3.97567 -1198 61 62 92
-190.786 3.96818 -1196 62 63 93
-187.723 3.95407 -1192 63 64 94
-184.834 3.94315 -1189 62 63 93
-182.111 3.93571 -1187 61 62 92
-179.55 3.93159 -1186 59 59 91
-176.994 3.92749 -1185 57 56 89
-174.59 3.92671 -1185 55 56 86
-171.898 3.91932 -1183 54 55 85
-169.502 3.91856 -1183 51 52 82
-167.107 3.91767 -1183 50 51 81
-164.713 3.91693 -1183 49 50 80
-162.321 3.91621 -1183 50 51 79
-159.93 3.91549 -1183 49 50 78
-157.807 3.92141 -1185 46 47 74
-155.546 3.92402 -1186 44 46 69
-153.282 3.92664 -1187 44 46 69
-151.143 3.93258 -1189 44 46 69
-149.122 3.94169 -1192 44 46 69
-146.843 3.94434 -1193 44 46 69
-144.562 3.947 -1194 44 45 69
-142.278 3.94966 -1195 42 43 67
-139.874 3.94904 -1195 39 43 66
-137.702 3.95503 -1197 40 44 67
-135.522 3.96103 -1199 40 44 67
-133.113 3.96043 -1199 40 45 67
-130.815 3.96314 -1200 41 47 69
-128.727 3.97247 -1203 43 49 71
-126.209 3.9686 -1202 45 50 73
-123.695 3.96474 -1201 46 50 73
-121.389 3.9675 -1202 47 50 73
-119.179 3.97356 -1204 48 51 74
-116.67 3.96974 -1203 50 52 75
-114.262 3.96922 -1203 53 54 82
-111.947 3.97187 -1204 55 55 85
-109.447 3.96808 -1203 55 54 85
-106.952 3.9643 -1202 54 53 84
-104.636 3.96712 -1203 52 53 82
-102.232 3.96666 -1203 53 56 83
-99.6631 3.95961 -1201 53 57 84
-97.3456 3.96247 -1202 54 59 87
-94.7089 3.95215 -1199 53 58 86
-92.085 3.94185 -1196 53 58 85
-89.5488 3.93485 -1194 52 57 84
-87.1672 3.93445 -1194 51 56 83
-84.7864 3.93407 -1194 52 56 85
-82.4753 3.93699 -1195 50 54 82
-80.1608 3.93992 -1196 48 53 80
-77.843 3.94286 -1197 47 52 81
-75.585 3.94911 -1199 45 50 79
-73.3195 3.95536 -1201 53 58 89
-71.1648 3.96821 -1205 60 65 95
-69.1088 3.98766 -1211 64 68 97
-67.0296 4.00711 -1217 63 67 98
-64.8738 4.02327 -1222 61 64 96
-62.6476 4.03616 -1226 62 63 93
-60.357 4.04576 -1229 62 63 92
-57.9135 4.04549 -1229 62 63 91
-55.5156 4.04853 -1230 59 60 89
-53.0278 4.045 -1229 59 60 90
-50.6679 4.05135 -1231 60 61 91
-48.2222 4.05113 -1231 60 61 91
-45.8884 4.06079 -1234 58 59 89
-43.5079 4.06717 -1236 56 57 89
-41.0865 4.07027 -1237 58 59 91
-38.6303 4.07009 -1237 60 61 93
-36.1743 4.06992 -1237 62 63 95
-33.7732 4.07635 -1239 62 63 95
-31.3644 4.08278 -1241 63 64 92
-28.9479 4.08923 -1243 67 68 97
-26.5237 4.09568 -1245 69 70 102
-24.0918 4.10215 -1247 75 75 112
-21.6348 4.10534 -1248 79 79 117
-19.1894 4.11182 -1250 136 139 173
-16.803 4.13477 -1257 111 114 145
-282.53 1.69654 -1277 95 88 97
-281.186 1.70401 -1283 102 96 109
-278.952 1.70617 -1285 77 73 92
-276.281 1.70567 -1285 70 70 98
-272.761 1.69987 -1281 65 65 95
-269.682 1.69673 -1279 61 63 96
-266.613 1.69344 -1277 62 64 97
-263.762 1.69164 -1276 66 67 100
-260.507 1.68719 -1273 69 69 98
-257.47 1.68408 -1271 72 72 101
-254.444 1.68097 -1269 71 71 101
-250.832 1.6739 -1264 68 68 98
-247.243 1.66668 -1259 66 66 96
-243.871 1.66094 -1255 64 64 94
-240.133 1.65257 -1249 62 62 92
-236.993 1.64817 -1246 63 63 93
-233.678 1.64246 -1242 66 66 96
-230.569 1.63807 -1239 66 66 96
-227.657 1.63502 -1237 61 65 93
-224.755 1.63197 -1235 63 66 94
-221.684 1.62745 -1232 68 69 97
-218.627 1.62309 -1229 71 68 99
-215.936 1.62138 -1228 73 70 101
-212.555 1.61439 -1223 70 70 100
-209.196 1.60742 -1218 67 67 97
-205.86 1.60044 -1213 66 66 96
-202.714 1.5948 -1209 68 68 98
-199.585 1.58916 -1205 70 70 100
-196.475 1.58353 -1201 64 65 95
-193.382 1.5779 -1197 61 62 92
-190.786 1.57624 -1196 62 63 93
-187.723 1.57048 -1192 62 63 93
-184.833 1.56619 -1189 62 63 93
-182.111 1.56323 -1187 60 61 91
-179.549 1.56158 -1186 60 60 92
-177.142 1.56126 -1186 58 57 90
-174.59 1.55963 -1185 56 57 87
-171.898 1.55668 -1183 54 55 85
-169.501 1.55637 -1183 51 52 82
-167.106 1.55607 -1183 51 52 82
-164.713 1.55577 -1183 52 53 83
-162.458 1.55679 -1184 49 50 78
-160.065 1.5565 -1184 48 49 76
-157.94 1.55884 -1186 46 47 73
-155.677 1.55987 -1187 46 47 71
-153.411 1.5609 -1188 46 48 71
-151.269 1.56325 -1190 44 46 69
-149.246 1.56692 -1193 45 47 70
-146.843 1.56665 -1193 45 47 70
-144.562 1.5677 -1194 46 46 70
-142.397 1.56992 -1196 45 46 70
-139.991 1.56966 -1196 39 43 66
-137.816 1.57204 -1198 39 43 66
-135.634 1.57441 -1200 39 43 66
-133.224 1.57417 -1200 39 45 67
-130.923 1.57524 -1201 40 46 68
-128.834 1.57894 -1204 43 49 71
-126.523 1.58002 -1205 46 50 73
-123.901 1.57717 -1203 48 51 74
-121.591 1.57826 -1204 49 51 74
-119.277 1.57935 -1205 47 50 73
-116.67 1.57651 -1203 52 54 77
-114.261 1.5763 -1203 56 56 84
-112.04 1.57872 -1205 58 58 88
-109.538 1.57721 -1204 57 56 89
-106.952 1.57439 -1202 56 56 87
-104.723 1.57682 -1204 54 55 85
-102.232 1.57532 -1203 51 54 80
-99.6627 1.57252 -1201 52 56 81
-97.2643 1.57234 -1201 53 58 85
-94.6296 1.56823 -1198 53 58 85
-92.0077 1.56414 -1195 53 58 85
-89.5485 1.56266 -1194 53 58 86
-87.167 1.5625 -1194 53 58 86
-84.7861 1.56234 -1194 53 57 86
-82.5441 1.56481 -1196 50 55 83
-80.2276 1.56597 -1197 48 53 80
-77.9078 1.56713 -1198 47 52 81
-75.5847 1.5683 -1199 46 51 80
-73.3803 1.57209 -1202 55 58 90
-71.2827 1.5785 -1207 60 63 94
-69.2227 1.58622 -1213 63 67 96
-67.0844 1.59263 -1218 63 67 98
-64.9798 1.60035 -1224 62 65 97
-62.7497 1.60547 -1228 61 62 94
-60.4059 1.60797 -1230 60 61 91
-57.9604 1.60786 -1230 61 62 90
-55.5154 1.60776 -1230 59 60 90
-53.0277 1.60635 -1229 60 61 91
-50.6266 1.60756 -1230 60 61 91
-48.1829 1.60747 -1230 61 62 92
-45.8511 1.61131 -1233 59 60 90
-43.4021 1.61123 -1233 58 59 91
-41.0532 1.61507 -1236 61 62 94
-38.5989 1.615 -1236 60 61 93
-36.1742 1.61624 -1237 61 62 94
-33.7731 1.61878 -1239 62 63 95
-31.3643 1.62134 -1241 64 65 94
-28.9478 1.6239 -1243 67 68 98
-26.5237 1.62646 -1245 69 70 102
-24.0918 1.62903 -1247 70 71 109
-21.6521 1.6316 -1249 76 77 116
-19.22 1.63548 -1252 145 148 180
-16.8163 1.64328 -1258 106 109 138
-283.636 -0.880725 -1282 95 88 97
-282.282 -0.88462 -1288 97 92 105
-280.037 -0.885609 -1290 72 68 87
-276.926 -0.884012 -1288 69 69 96
-273.613 -0.881733 -1285 64 65 93
-270.314 -0.879456 -1282 59 62 94
-267.031 -0.877182 -1279 61 63 96
-263.762 -0.874911 -1276 65 66 99
-260.917 -0.874015 -1275 69 69 97
-257.47 -0.871064 -1271 72 72 100
-254.243 -0.868802 -1268 70 70 100
-250.633 -0.865173 -1263 69 69 99
-247.243 -0.862233 -1259 66 66 96
-243.482 -0.857926 -1253 63 63 93
-239.941 -0.854307 -1248 62 62 92
-236.993 -0.852594 -1246 62 62 92
-233.866 -0.850351 -1243 64 64 94
-230.568 -0.847427 -1239 64 64 94
-228.025 -0.847241 -1239 60 64 92
-224.937 -0.845006 -1236 64 66 94
-221.684 -0.842091 -1232 68 69 97
-218.805 -0.840546 -1230 70 68 99
-215.584 -0.837637 -1226 72 71 102
-212.207 -0.834047 -1221 71 70 101
-209.025 -0.831144 -1217 67 67 97
-205.86 -0.828245 -1213 66 66 96
-202.713 -0.825348 -1209 69 69 99
-199.585 -0.822454 -1205 69 69 99
-196.638 -0.820245 -1202 64 65 94
-193.543 -0.817357 -1198 61 62 91
-190.626 -0.815154 -1195 61 62 92
-187.723 -0.812954 -1192 60 62 92
-184.833 -0.810756 -1189 59 61 91
-182.111 -0.809243 -1187 58 60 91
-179.7 -0.809096 -1187 58 59 90
-177.142 -0.808269 -1186 59 59 90
-174.442 -0.806762 -1184 55 56 86
-172.043 -0.806621 -1184 54 55 86
-169.644 -0.806337 -1184 52 53 84
-167.106 -0.805518 -1183 52 53 83
-164.713 -0.805383 -1183 50 51 81
-162.321 -0.805249 -1183 49 51 79
-159.93 -0.805117 -1183 46 49 76
-157.54 -0.804987 -1183 46 49 74
-155.415 -0.80622 -1185 46 48 71
-153.153 -0.806774 -1186 46 48 71
-151.269 -0.80937 -1190 46 48 71
-149.121 -0.810607 -1192 45 47 70
-146.843 -0.811166 -1193 44 46 69
-144.562 -0.811726 -1194 45 47 70
-142.397 -0.812968 -1196 46 49 72
-139.991 -0.812852 -1196 41 46 69
-137.816 -0.814098 -1198 39 44 67
-135.747 -0.816024 -1201 38 43 66
-133.446 -0.816593 -1202 41 47 68
-131.032 -0.816484 -1202 41 47 68
-128.834 -0.817735 -1204 43 48 71
-126.418 -0.817631 -1204 46 50 74
-123.901 -0.816849 -1203 47 50 73
-121.59 -0.817427 -1204 47 49 73
-119.178 -0.817328 -1204 49 51 75
-116.67 -0.816552 -1203 52 54 77
-114.356 -0.817135 -1204 56 57 84
-112.04 -0.817721 -1205 58 58 88
-109.447 -0.816272 -1203 59 59 91
-107.041 -0.816183 -1203 57 58 89
-104.723 -0.816774 -1204 56 57 86
-102.232 -0.816011 -1203 48 52 78
-99.6628 -0.814571 -1201 50 55 80
-97.2642 -0.81449 -1201 55 60 87
-94.7085 -0.813054 -1199 53 58 85
-92.0846 -0.810943 -1196 55 60 87
-89.6234 -0.81019 -1195 56 61 89
-87.2399 -0.810117 -1195 52 57 85
-84.8571 -0.810046 -1195 52 57 85
-82.544 -0.810654 -1196 49 54 82
-80.2946 -0.811943 -1198 48 53 81
-78.0379 -0.813233 -1200 49 54 82
-75.7107 -0.813847 -1201 52 57 86
-73.5024 -0.815818 -1204 54 57 88
-71.4008 -0.819146 -1209 57 60 91
-69.2798 -0.822475 -1214 62 66 95
-67.1395 -0.825806 -1219 63 66 97
-64.9798 -0.829139 -1224 63 66 97
-62.6985 -0.831118 -1227 64 64 95
-60.3076 -0.831745 -1228 62 63 92
-57.9133 -0.832373 -1229 61 62 91
-55.4702 -0.832326 -1229 59 60 90
-52.9845 -0.831604 -1228 58 59 89
-50.5854 -0.832238 -1229 61 62 92
-48.1828 -0.832874 -1230 64 65 95
-45.8139 -0.83419 -1232 61 62 92
-43.3669 -0.834153 -1232 58 59 90
-40.9867 -0.835472 -1234 60 61 93
-38.5677 -0.836116 -1235 60 60 92
-36.145 -0.836762 -1236 60 61 92
-33.7186 -0.83741 -1237 61 62 93
-31.339 -0.839414 -1240 65 66 96
-28.9478 -0.84142 -1243 68 69 100
-26.545 -0.843428 -1246 73 74 106
-24.1111 -0.844761 -1248 76 78 114
-21.7214 -0.848126 -1253 82 85 123
-19.2814 -0.85014 -1256 136 139 170
-16.8831 -0.854863 -1263 93 96 123
-14.5483 -0.865003 -1278 102 104 127
-282.973 -3.45654 -1279 94 88 97
-281.187 -3.46623 -1283 94 89 103
-279.169 -3.47338 -1286 74 71 92
-276.927 -3.47784 -1288 67 66 94
-273.613 -3.46865 -1285 66 66 95
-270.104 -3.45693 -1281 61 63 95
-267.031 -3.45062 -1279 61 62 94
-263.556 -3.43877 -1275 63 64 96
-260.303 -3.42979 -1272 70 69 97
-256.66 -3.41543 -1267 71 70 99
-253.842 -3.41171 -1266 71 71 101
-250.039 -3.39469 -1260 70 70 100
-247.047 -3.38845 -1258 69 69 99
-243.483 -3.37415 -1253 66 66 96
-239.941 -3.35971 -1248 63 63 93
-237.183 -3.35621 -1247 62 62 92
-234.055 -3.34733 -1244 61 62 92
-231.127 -3.34115 -1242 61 62 92
-228.209 -3.33484 -1240 60 64 93
-225.302 -3.32868 -1238 63 66 95
-222.044 -3.31717 -1234 67 68 97
-218.805 -3.30566 -1230 69 69 101
-215.584 -3.29402 -1226 70 71 103
-212.381 -3.28254 -1222 70 69 102
-209.025 -3.26839 -1217 67 67 98
-205.86 -3.25694 -1213 67 67 97
-202.714 -3.2455 -1209 70 70 100
-199.42 -3.23139 -1204 67 67 97
-196.311 -3.21983 -1200 62 63 91
-193.382 -3.21111 -1197 61 62 91
-190.467 -3.20241 -1194 62 63 93
-187.566 -3.19371 -1191 60 64 93
-184.833 -3.18771 -1189 58 61 91
-182.111 -3.18172 -1187 57 60 92
-179.549 -3.17827 -1186 58 59 90
-176.844 -3.1723 -1184 59 60 90
-174.443 -3.1717 -1184 55 56 86
-172.043 -3.1711 -1184 53 54 85
-169.645 -3.17051 -1184 51 52 84
-167.248 -3.16993 -1184 51 52 83
-164.992 -3.17204 -1185 49 50 80
-162.321 -3.16612 -1183 44 47 74
-159.93 -3.16557 -1183 43 47 73
-157.674 -3.16769 -1184 44 48 73
-155.546 -3.17236 -1186 47 49 72
-153.411 -3.17718 -1188 48 50 73
-151.397 -3.18467 -1191 49 51 74
-149.246 -3.1895 -1193 48 50 73
-146.843 -3.18899 -1193 47 49 72
-144.683 -3.19383 -1195 42 46 69
-142.516 -3.19868 -1197 42 46 69
-139.991 -3.19552 -1196 38 44 66
-137.816 -3.20038 -1198 36 42 64
-135.748 -3.20792 -1201 35 41 63
-133.335 -3.20746 -1201 38 44 64
-130.924 -3.207 -1201 40 45 66
-128.727 -3.21189 -1203 45 49 72
-126.314 -3.21145 -1203 48 52 76
-123.901 -3.21102 -1203 46 50 75
-121.591 -3.21326 -1204 47 48 74
-119.277 -3.21537 -1205 50 51 76
-116.767 -3.21229 -1204 52 54 77
-114.356 -3.21189 -1204 56 57 85
-112.04 -3.21416 -1205 59 60 90
-109.538 -3.21111 -1204 58 59 91
-107.041 -3.20807 -1203 56 57 87
-104.81 -3.21304 -1205 54 55 83
-102.317 -3.21001 -1204 49 53 80
-99.7459 -3.20433 -1202 50 55 82
-97.3454 -3.20399 -1202 54 59 86
-94.7878 -3.19832 -1200 54 59 86
-92.0848 -3.18734 -1196 54 59 86
-89.6236 -3.18436 -1195 55 60 87
-87.2401 -3.18405 -1195 55 60 87
-84.7863 -3.18109 -1194 49 57 83
-82.4062 -3.1808 -1194 49 56 83
-80.2277 -3.1885 -1197 50 55 84
-77.973 -3.19356 -1199 50 55 84
-75.711 -3.19862 -1201 53 58 87
-73.5636 -3.20901 -1205 55 59 88
-71.46 -3.22207 -1210 58 62 91
-69.337 -3.23514 -1215 63 67 96
-67.1396 -3.24556 -1219 63 67 96
-64.98 -3.25864 -1224 64 68 97
-62.6476 -3.26374 -1226 65 65 95
-60.3078 -3.26885 -1228 63 63 93
-57.9134 -3.27131 -1229 60 61 91
-55.5155 -3.27377 -1230 58 59 89
-53.0277 -3.27092 -1229 56 57 87
-50.6267 -3.2734 -1230 60 61 91
-48.1829 -3.27323 -1230 63 64 94
-45.814 -3.27839 -1232 62 63 93
-43.4022 -3.28089 -1233 59 60 90
-40.9868 -3.28341 -1234 60 61 91
-38.5365 -3.28327 -1234 61 61 91
-36.145 -3.28846 -1236 61 61 91
-33.7186 -3.291 -1237 61 62 93
-31.3138 -3.29621 -1239 63 64 94
-28.9246 -3.30408 -1242 65 66 97
-26.545 -3.31463 -1246 72 73 106
-24.1304 -3.32252 -1249 80 82 115
-21.7215 -3.33308 -1253 90 93 126
-19.2661 -3.33833 -1255 123 128 156
-16.8431 -3.35157 -1260 79 84 109
-14.4572 -3.37811 -1270 104 109 130
-282.532 -6.025 -1277 94 89 98
-281.188 -6.05146 -1283 88 84 99
-279.822 -6.07808 -1289 69 68 92
-277.358 -6.08097 -1290 66 66 95
-274.041 -6.06502 -1287 66 66 96
-270.527 -6.04454 -1283 62 63 95
-267.45 -6.03335 -1281 61 62 93
-263.97 -6.01292 -1277 64 64 94
-260.714 -5.99707 -1274 70 67 96
-257.067 -5.97198 -1269 73 70 100
-253.643 -5.95147 -1265 72 72 102
-250.04 -5.92644 -1260 72 72 102
-246.656 -5.90598 -1256 71 71 101
-243.484 -5.8904 -1253 68 68 98
-240.327 -5.87469 -1250 64 64 94
-237.375 -5.86386 -1248 61 62 92
-234.433 -5.85289 -1246 60 61 91
-231.687 -5.84679 -1245 60 61 91
-228.763 -5.83586 -1243 60 64 93
-225.849 -5.8251 -1241 64 66 96
-222.225 -5.79559 -1235 67 68 98
-218.984 -5.77534 -1231 70 71 102
-215.761 -5.75527 -1227 70 71 103
-212.556 -5.73507 -1223 70 69 101
-209.198 -5.71035 -1218 66 66 97
-206.201 -5.69503 -1215 67 67 97
-203.05 -5.67505 -1211 70 70 100
-199.752 -5.65026 -1206 66 66 96
-196.476 -5.62563 -1201 62 63 92
-193.545 -5.6104 -1198 62 63 94
-190.628 -5.59505 -1195 63 64 95
-187.567 -5.57518 -1191 60 64 93
-184.834 -5.56469 -1189 58 61 91
-182.265 -5.5589 -1188 57 59 89
-179.702 -5.55298 -1187 57 58 88
-176.994 -5.54254 -1185 57 58 88
-174.591 -5.54148 -1185 53 54 84
-172.189 -5.54042 -1185 51 52 83
-169.789 -5.53939 -1185 50 51 83
-167.249 -5.53355 -1184 49 50 80
-164.853 -5.53254 -1184 45 46 76
-162.322 -5.52687 -1183 45 46 74
-160.066 -5.53056 -1184 46 47 74
-157.808 -5.53427 -1185 46 48 73
-155.809 -5.54718 -1188 47 49 72
-153.541 -5.55091 -1189 47 50 73
-151.525 -5.56399 -1192 47 50 73
-149.122 -5.56307 -1192 47 49 72
-146.844 -5.56684 -1193 46 48 71
-144.563 -5.57062 -1194 44 46 69
-142.398 -5.57907 -1196 41 44 67
-139.992 -5.57821 -1196 36 42 64
-137.932 -5.59121 -1199 34 40 62
-135.748 -5.5997 -1201 35 41 63
-133.447 -5.60355 -1202 43 48 70
-131.033 -5.60274 -1202 42 47 69
-128.835 -5.61127 -1204 45 49 72
-126.419 -5.61049 -1204 48 52 76
-123.902 -5.60507 -1203 47 51 76
-121.49 -5.60432 -1203 50 52 76
-119.377 -5.61756 -1206 51 53 77
-116.864 -5.61218 -1205 52 54 77
-114.357 -5.60682 -1204 54 56 83
-112.04 -5.61078 -1205 57 58 88
-109.63 -5.6101 -1205 58 59 89
-107.131 -5.60479 -1204 56 57 87
-104.811 -5.60865 -1205 54 55 83
-102.403 -5.60801 -1205 51 54 81
-99.9124 -5.60274 -1204 48 53 80
-97.4269 -5.59748 -1203 48 53 80
-94.8672 -5.58759 -1201 51 56 83
-92.1623 -5.56841 -1197 52 57 84
-89.6241 -5.55855 -1195 51 56 83
-87.1675 -5.55336 -1194 52 57 84
-84.7157 -5.54818 -1193 50 58 84
-82.4756 -5.55697 -1195 50 57 84
-80.2952 -5.57042 -1198 50 55 84
-78.0384 -5.57923 -1200 51 56 85
-75.7744 -5.58806 -1202 52 57 86
-73.686 -5.61085 -1207 55 59 88
-71.5194 -5.629 -1211 57 61 90
-69.3373 -5.64716 -1215 62 66 94
-67.0849 -5.66068 -1218 64 68 97
-64.9272 -5.68351 -1223 65 69 98
-62.5968 -5.69242 -1225 65 65 95
-60.3081 -5.70598 -1228 62 63 93
-57.9137 -5.71026 -1229 60 61 91
-55.4706 -5.70992 -1229 59 60 90
-53.028 -5.70958 -1229 57 58 88
-50.6269 -5.71391 -1230 59 60 90
-48.1832 -5.71361 -1230 62 63 93
-45.777 -5.71796 -1231 60 61 91
-43.3672 -5.72234 -1232 59 60 90
-40.9538 -5.72672 -1233 59 60 90
-38.5055 -5.72648 -1233 61 60 92
-36.116 -5.73554 -1235 60 61 92
-33.6915 -5.73997 -1236 62 63 94
-31.314 -5.7537 -1239 63 64 94
-28.9015 -5.7628 -1241 62 63 94
-26.5238 -5.78121 -1245 67 68 101
-24.0726 -5.7857 -1246 80 82 115
-21.7216 -5.81806 -1253 100 103 136
-19.2355 -5.81793 -1253 114 119 146
-16.8164 -5.84104 -1258 65 70 93
-14.4573 -5.89666 -1270 104 110 129
-282.091 -8.58544 -1275 97 92 101
-280.314 -8.60981 -1279 83 79 94
-279.39 -8.6611 -1287 66 65 89
-276.5 -8.65183 -1286 64 65 94
-274.043 -8.65603 -1287 64 65 95
-270.529 -8.6268 -1283 63 64 96
-267.87 -8.62433 -1283 63 63 94
-264.179 -8.58828 -1278 65 65 95
-260.716 -8.55899 -1274 73 70 99
-257.271 -8.52974 -1270 74 72 101
-253.445 -8.48725 -1264 71 71 101
-249.843 -8.45137 -1259 71 71 101
-246.657 -8.42894 -1256 70 70 100
-243.486 -8.4067 -1253 66 66 96
-240.329 -8.38434 -1250 63 63 93
-237.377 -8.36871 -1248 61 62 92
-234.622 -8.35997 -1247 60 61 91
-232.061 -8.35781 -1247 60 61 91
-228.948 -8.33556 -1244 60 64 93
-226.033 -8.3202 -1242 63 66 95
-222.407 -8.27792 -1236 67 68 98
-219.164 -8.24923 -1232 70 71 103
-216.114 -8.22711 -1229 69 70 102
-212.732 -8.19179 -1224 69 69 99
-209.543 -8.16305 -1220 66 66 96
-206.202 -8.1278 -1215 66 66 96
-202.884 -8.09244 -1210 68 68 98
-199.422 -8.05057 -1204 65 65 95
-196.314 -8.02197 -1200 63 64 94
-193.546 -8.00691 -1198 62 63 94
-190.789 -7.99188 -1196 62 63 95
-188.04 -7.97673 -1194 61 64 94
-185.302 -7.96175 -1192 60 62 92
-182.573 -7.9468 -1190 58 59 89
-180.006 -7.9384 -1189 56 57 87
-177.145 -7.91682 -1186 54 55 85
-174.74 -7.91529 -1186 53 54 84
-172.336 -7.91364 -1186 52 53 83
-169.79 -7.90548 -1185 50 51 82
-167.109 -7.89068 -1183 47 48 79
-164.855 -7.8959 -1184 46 47 77
-162.323 -7.88767 -1183 47 48 76
-160.203 -7.8996 -1185 47 48 75
-157.942 -7.90488 -1186 47 48 74
-155.941 -7.92351 -1189 47 49 72
-153.671 -7.92867 -1190 46 48 71
-151.526 -7.94067 -1192 44 48 71
-149.123 -7.93936 -1192 46 49 72
-146.845 -7.94473 -1193 45 47 70
-144.685 -7.95678 -1195 43 45 68
-142.518 -7.96869 -1197 42 44 67
-140.11 -7.96746 -1197 37 43 65
-138.048 -7.98621 -1200 36 41 64
-135.749 -7.99167 -1201 37 43 65
-133.448 -7.99715 -1202 47 51 74
-131.034 -7.996 -1202 45 49 72
-128.836 -8.00816 -1204 45 49 72
-126.42 -8.0069 -1204 45 49 73
-124.006 -8.00581 -1204 46 50 75
-121.592 -8.00473 -1204 51 53 76
-119.378 -8.01698 -1206 53 55 78
-116.865 -8.0093 -1205 53 55 78
-114.453 -8.00828 -1205 55 56 84
-112.134 -8.01394 -1206 57 58 88
-109.721 -8.01297 -1206 56 57 87
-107.221 -8.00537 -1205 55 56 85
-104.899 -8.01109 -1206 55 56 84
-102.488 -8.01018 -1206 55 58 86
-99.9961 -8.00265 -1205 53 57 84
-97.4276 -7.98851 -1203 51 56 83
-94.9469 -7.98088 -1202 53 58 85
-92.2399 -7.9535 -1198 52 57 84
-89.7747 -7.94606 -1197 50 55 82
-87.3142 -7.93865 -1196 51 56 83
-84.8583 -7.93125 -1195 49 57 83
-82.5452 -7.93716 -1196 50 57 84
-80.2958 -7.94971 -1198 51 56 84
-78.039 -7.96229 -1200 50 55 84
-75.7749 -7.97489 -1202 50 55 84
-73.6866 -8.0074 -1207 53 57 86
-71.4609 -8.02667 -1210 54 58 86
-69.3378 -8.05921 -1215 60 64 91
-67.0854 -8.07851 -1218 64 68 97
-64.9275 -8.1111 -1223 65 69 98
-62.5972 -8.1238 -1225 64 65 95
-60.2594 -8.13652 -1227 63 64 94
-57.867 -8.14264 -1228 62 63 93
-55.4711 -8.14877 -1229 59 60 90
-52.9853 -8.14166 -1228 58 59 89
-50.5862 -8.14784 -1229 59 60 90
-48.1444 -8.1474 -1229 61 62 92
-45.7402 -8.15362 -1230 60 61 91
-43.3323 -8.15986 -1231 58 59 89
-40.9209 -8.16612 -1232 59 60 91
-38.5058 -8.17239 -1233 61 60 93
-36.1162 -8.18532 -1235 61 61 93
-33.6918 -8.19164 -1236 61 62 94
-31.2889 -8.20461 -1238 62 63 93
-28.9017 -8.22423 -1241 62 63 94
-26.4814 -8.23724 -1243 69 70 102
-24.0341 -8.24365 -1244 78 80 114
-21.6351 -8.26995 -1248 114 117 151
-19.1896 -8.28303 -1250 106 111 136
-16.7363 -8.29612 -1252 58 64 86
-14.3777 -8.36887 -1263 106 112 131
-275.595 -10.8 -1234 83 79 84
-282.758 -11.1816 -1278 101 96 105
-280.974 -11.2133 -1282 80 77 92
-280.044 -11.28 -1290 66 66 90
-276.933 -11.2593 -1288 64 65 94
-274.258 -11.256 -1288 64 65 95
-270.954 -11.2264 -1285 64 65 96
-267.873 -11.2058 -1283 64 65 95
-264.182 -11.159 -1278 68 68 98
-260.719 -11.121 -1274 72 69 98
-257.477 -11.0917 -1271 72 70 99
-253.648 -11.0364 -1265 69 69 99
-250.044 -10.9898 -1260 68 68 98
-246.856 -10.9607 -1257 67 67 97
-243.877 -10.9403 -1255 65 65 95
-240.524 -10.9028 -1251 63 64 94
-237.569 -10.8825 -1249 61 62 92
-234.813 -10.871 -1248 61 62 92
-232.063 -10.8595 -1247 61 62 92
-228.583 -10.8132 -1242 61 63 93
-225.853 -10.802 -1241 64 66 96
-222.589 -10.7645 -1237 69 70 100
-219.166 -10.7183 -1232 71 72 104
-215.941 -10.6811 -1228 68 69 101
-213.082 -10.6611 -1226 68 68 98
-209.545 -10.6064 -1220 67 67 97
-206.205 -10.5606 -1215 65 65 95
-203.054 -10.5234 -1211 66 66 96
-199.59 -10.469 -1205 65 65 95
-196.479 -10.4319 -1201 63 64 94
-193.548 -10.4036 -1198 62 63 94
-190.95 -10.3926 -1197 61 62 94
-188.2 -10.3731 -1195 62 63 93
-185.304 -10.3448 -1192 61 62 92
-182.575 -10.3254 -1190 58 59 89
-180.008 -10.3145 -1189 56 57 87
-177.147 -10.2865 -1186 55 56 86
-174.741 -10.2844 -1186 56 57 87
-172.192 -10.2737 -1185 54 55 85
-169.792 -10.2718 -1185 52 53 83
-167.11 -10.2524 -1183 49 50 80
-164.995 -10.2679 -1185 51 52 82
-162.462 -10.2573 -1184 50 51 79
-160.34 -10.2727 -1186 48 49 76
-158.21 -10.2882 -1188 46 47 73
-156.205 -10.3124 -1191 46 47 71
-153.931 -10.3191 -1192 43 45 68
-151.782 -10.3347 -1194 44 46 69
-149.25 -10.3244 -1193 45 47 70
-146.969 -10.3313 -1194 43 45 68
-144.565 -10.3295 -1194 41 43 66
-142.519 -10.3539 -1197 41 43 66
-139.994 -10.3436 -1196 40 45 68
-138.05 -10.3766 -1200 40 45 68
-135.864 -10.3924 -1202 42 46 69
-133.56 -10.3993 -1203 47 51 74
-131.145 -10.3978 -1203 47 51 74
-128.944 -10.4136 -1205 46 50 73
-126.421 -10.4035 -1204 45 49 74
-124.11 -10.4107 -1205 47 51 76
-121.695 -10.4093 -1205 53 55 78
-119.478 -10.4252 -1207 54 56 79
-116.963 -10.4151 -1206 53 55 78
-114.549 -10.4138 -1206 56 57 85
-112.042 -10.4039 -1205 58 59 89
-109.631 -10.4026 -1205 56 57 87
-107.133 -10.3927 -1204 54 55 84
-104.813 -10.4002 -1205 55 56 84
-102.404 -10.399 -1205 56 60 87
-99.8312 -10.3806 -1203 56 60 87
-97.3476 -10.3708 -1202 55 60 87
-94.7899 -10.3525 -1200 55 60 87
-92.2409 -10.3341 -1198 53 58 85
-89.7757 -10.3245 -1197 50 55 82
-87.2421 -10.3061 -1195 48 53 80
-84.7882 -10.2965 -1194 47 55 81
-82.546 -10.3128 -1196 49 56 82
-80.2295 -10.3204 -1197 51 56 84
-78.0398 -10.3454 -1200 51 56 85
-75.9018 -10.379 -1204 50 55 84
-73.7484 -10.4126 -1208 52 56 85
-71.5206 -10.4377 -1211 52 56 84
-69.3385 -10.4713 -1215 58 62 89
-67.031 -10.4878 -1217 65 69 98
-64.8221 -10.5215 -1221 66 70 99
-62.4957 -10.538 -1223 65 66 96
-60.1618 -10.5545 -1225 64 65 95
-57.7733 -10.5625 -1226 62 63 93
-55.3813 -10.5705 -1227 59 60 90
-52.9427 -10.5698 -1227 57 58 88
-50.5044 -10.5692 -1227 58 59 89
-48.1057 -10.5773 -1228 61 62 92
-45.7034 -10.5854 -1229 60 61 91
-43.3328 -10.6021 -1231 59 60 90
-40.8881 -10.6016 -1231 59 60 91
-38.4749 -10.6098 -1232 62 61 94
-36.0874 -10.6266 -1234 62 63 94
-33.6649 -10.6348 -1235 61 62 93
-31.264 -10.6516 -1237 61 62 92
-28.8787 -10.6771 -1240 64 65 96
-26.4391 -10.6854 -1241 72 73 105
-24.0537 -10.7196 -1245 77 79 113
-21.67 -10.7623 -1250 117 120 154
-19.1898 -10.7621 -1250 84 89 114
-16.7365 -10.7791 -1252 55 60 82
-14.3665 -10.865 -1262 106 112 130
-276.492 -13.3312 -1238 83 79 84
-282.762 -13.7579 -1278 105 100 111
-280.758 -13.786 -1281 77 74 90
-279.179 -13.8358 -1286 65 65 89
-276.507 -13.8316 -1286 64 65 94
-274.049 -13.8384 -1287 64 65 95
-270.746 -13.8021 -1284 65 66 96
-267.459 -13.766 -1281 65 65 96
-263.978 -13.7192 -1277 68 68 98
-260.517 -13.6723 -1273 71 68 97
-257.277 -13.6364 -1270 70 68 97
-253.852 -13.5898 -1266 68 68 98
-250.444 -13.5432 -1262 67 67 97
-246.86 -13.486 -1257 66 66 96
-243.686 -13.4502 -1254 63 63 93
-240.527 -13.4144 -1251 62 62 92
-237.572 -13.3895 -1249 62 63 93
-234.628 -13.3646 -1247 61 62 92
-231.88 -13.3506 -1246 63 64 94
-228.77 -13.3152 -1243 64 65 95
-225.492 -13.2691 -1239 66 67 97
-222.232 -13.223 -1235 70 71 101
-218.991 -13.177 -1231 71 72 103
-215.944 -13.1417 -1228 69 69 101
-212.563 -13.0851 -1223 69 69 99
-209.72 -13.0606 -1221 67 67 97
-206.207 -12.9935 -1215 64 64 94
-202.889 -12.9371 -1210 64 64 94
-199.593 -12.8807 -1205 65 65 95
-196.482 -12.8352 -1201 65 65 95
-193.551 -12.8003 -1198 63 64 94
-191.112 -12.7975 -1198 61 62 93
-188.202 -12.7628 -1195 61 62 92
-185.462 -12.7387 -1193 61 62 92
-182.731 -12.7148 -1191 58 59 90
-180.01 -12.6907 -1189 55 56 86
-177.298 -12.6669 -1187 54 55 85
-174.891 -12.6643 -1187 55 56 86
-172.34 -12.6512 -1186 54 55 85
-170.081 -12.6593 -1187 52 53 83
-167.395 -12.6357 -1185 50 51 81
-164.998 -12.6332 -1185 51 52 81
-162.601 -12.6309 -1185 51 52 80
-160.612 -12.6606 -1188 49 50 77
-158.345 -12.6689 -1189 47 48 74
-156.338 -12.6987 -1192 45 47 71
-154.062 -12.707 -1193 42 44 67
-151.911 -12.7262 -1195 42 44 67
-149.377 -12.7134 -1194 43 45 68
-146.971 -12.7112 -1194 41 43 66
-144.688 -12.7198 -1195 40 42 65
-142.521 -12.7391 -1197 41 43 66
-139.996 -12.7265 -1196 41 45 68
-137.936 -12.7563 -1199 43 47 70
-135.639 -12.765 -1200 45 49 72
-133.451 -12.7844 -1202 44 48 71
-131.146 -12.7932 -1203 45 49 72
-129.053 -12.8233 -1206 45 49 72
-126.633 -12.8213 -1206 47 50 74
-124.318 -12.8302 -1207 49 53 77
-121.898 -12.8285 -1207 51 53 77
-119.579 -12.8374 -1208 52 54 78
-117.062 -12.8251 -1207 54 56 79
-114.55 -12.8129 -1206 56 58 85
-112.137 -12.8111 -1206 59 60 89
-109.724 -12.8096 -1206 58 59 89
-107.223 -12.7974 -1205 56 57 86
-104.814 -12.796 -1205 56 57 85
-102.321 -12.7839 -1204 56 59 86
-99.8324 -12.7718 -1203 54 58 85
-97.2679 -12.7492 -1201 54 58 85
-94.6331 -12.716 -1198 54 58 85
-92.1651 -12.7041 -1197 54 59 86
-89.7018 -12.6922 -1196 52 57 84
-87.1702 -12.6698 -1194 48 53 80
-84.7182 -12.6579 -1193 49 55 82
-82.4781 -12.6778 -1195 50 55 82
-80.1635 -12.6873 -1196 52 57 84
-77.9107 -12.7074 -1198 52 57 86
-75.8397 -12.7593 -1203 51 56 85
-73.6883 -12.8007 -1207 51 55 84
-71.4625 -12.8315 -1210 53 57 85
-69.2823 -12.8729 -1214 59 63 91
-66.9767 -12.8932 -1216 65 69 98
-64.7699 -12.9347 -1220 66 70 99
-62.4965 -12.9656 -1223 65 66 96
-60.1626 -12.9859 -1225 64 65 95
-57.7741 -12.9957 -1226 61 62 92
-55.382 -13.0055 -1227 59 60 90
-52.9864 -13.0153 -1228 59 60 90
-50.5874 -13.0252 -1229 59 60 90
-48.1063 -13.0139 -1228 61 62 92
-45.7412 -13.0344 -1230 61 62 92
-43.3685 -13.055 -1232 59 60 90
-40.9218 -13.0544 -1232 59 59 90
-38.5066 -13.0644 -1233 62 61 93
-36.0878 -13.0745 -1234 62 62 93
-33.6926 -13.0952 -1236 61 62 92
-31.2391 -13.0948 -1236 62 63 93
-28.879 -13.1367 -1240 66 67 98
-26.4394 -13.1469 -1241 74 75 108
-24.0347 -13.1783 -1244 81 83 116
-21.6356 -13.2204 -1248 126 129 162
-19.2054 -13.2519 -1251 68 72 96
-16.7635 -13.2834 -1254 57 62 83
-14.3211 -13.3256 -1258 108 114 131
-280.293 -16.045 -1255 83 79 86
-283.43 -16.3724 -1281 108 104 117
-281.859 -16.4314 -1286 74 72 88
-279.835 -16.4648 -1289 65 65 89
-277.586 -16.4856 -1291 65 65 93
-274.479 -16.4553 -1289 64 64 93
-270.962 -16.3994 -1285 63 64 94
-267.88 -16.3693 -1283 64 65 95
-264.189 -16.3009 -1278 67 68 98
-260.726 -16.2454 -1274 71 70 98
-257.079 -16.1771 -1269 69 69 97
-254.056 -16.1473 -1267 68 68 98
-250.647 -16.0918 -1263 66 66 96
-247.256 -16.0367 -1259 64 64 94
-244.079 -15.9943 -1256 63 63 93
-240.723 -15.939 -1252 62 63 93
-237.576 -15.8968 -1249 62 63 93
-234.632 -15.8673 -1247 62 63 93
-231.884 -15.8506 -1246 64 65 95
-228.589 -15.7958 -1242 66 67 97
-225.496 -15.7537 -1239 68 69 99
-222.056 -15.6862 -1234 69 70 100
-218.994 -15.6444 -1231 71 72 102
-215.42 -15.5644 -1225 69 70 100
-212.219 -15.51 -1221 68 68 98
-209.036 -15.4555 -1217 66 66 96
-206.211 -15.4266 -1215 64 64 94
-203.06 -15.3723 -1211 64 64 94
-199.761 -15.3053 -1206 64 64 94
-196.485 -15.2385 -1201 64 64 92
-193.554 -15.197 -1198 63 63 93
-190.955 -15.1812 -1197 61 62 92
-188.205 -15.1525 -1195 61 62 92
-185.62 -15.1366 -1194 61 62 93
-182.887 -15.1082 -1192 58 59 90
-180.164 -15.0797 -1190 52 53 84
-177.301 -15.0386 -1187 51 52 82
-174.894 -15.0357 -1187 53 54 83
-172.488 -15.0327 -1187 52 53 82
-170.083 -15.0298 -1187 52 53 82
-167.398 -15.0016 -1185 49 50 79
-165.139 -15.0115 -1186 50 51 79
-162.741 -15.0086 -1186 50 51 79
-160.614 -15.0312 -1188 48 49 76
-158.348 -15.0411 -1189 48 49 75
-156.341 -15.0764 -1192 46 48 71
-154.194 -15.099 -1194 44 46 69
-151.913 -15.1091 -1195 43 45 68
-149.504 -15.1066 -1195 43 45 68
-147.097 -15.104 -1195 41 43 66
-144.811 -15.1142 -1196 40 42 65
-142.404 -15.1118 -1196 42 44 67
-139.998 -15.1093 -1196 41 45 68
-137.823 -15.1323 -1198 42 46 69
-135.755 -15.1679 -1201 42 46 69
-133.564 -15.1909 -1203 45 49 72
-131.257 -15.2012 -1204 47 51 74
-129.162 -15.2369 -1207 47 51 74
-126.74 -15.2348 -1207 48 51 74
-124.423 -15.2453 -1208 49 51 74
-121.9 -15.2305 -1207 50 51 77
-119.679 -15.2537 -1209 52 53 78
-117.064 -15.2265 -1207 55 57 80
-114.647 -15.2245 -1207 57 58 84
-112.138 -15.21 -1206 59 60 88
-109.726 -15.2082 -1206 58 59 89
-107.314 -15.2064 -1206 55 56 86
-104.903 -15.2045 -1206 57 58 86
-102.407 -15.1901 -1205 56 59 86
-99.9169 -15.1758 -1204 54 58 85
-97.2694 -15.1364 -1201 54 58 85
-94.6346 -15.097 -1198 54 58 85
-92.1665 -15.0828 -1197 54 58 85
-89.7782 -15.0813 -1197 54 58 85
-87.2445 -15.0546 -1195 51 56 83
-84.7906 -15.0406 -1194 53 58 85
-82.5484 -15.0644 -1196 53 57 84
-80.2318 -15.0755 -1197 53 57 84
-77.977 -15.0993 -1199 53 57 85
-75.7778 -15.1358 -1202 52 56 85
-73.6283 -15.1849 -1206 52 56 85
-71.4045 -15.2215 -1209 54 58 87
-69.1693 -15.2581 -1212 58 62 91
-66.9227 -15.2947 -1215 62 66 95
-64.7709 -15.3565 -1220 63 67 96
-62.4463 -15.3807 -1222 66 67 97
-60.1144 -15.4048 -1224 66 67 97
-57.775 -15.429 -1226 64 65 95
-55.3378 -15.428 -1226 59 60 90
-52.9442 -15.4397 -1227 59 60 90
-50.547 -15.4514 -1228 60 61 91
-48.107 -15.4506 -1228 61 62 92
-45.7047 -15.4624 -1229 62 63 93
-43.334 -15.4868 -1231 60 61 91
-40.8892 -15.4861 -1231 59 59 89
-38.5072 -15.5106 -1233 62 62 92
-36.0591 -15.51 -1233 62 63 93
-33.6658 -15.5346 -1235 61 62 92
-31.2396 -15.5466 -1236 61 62 92
-28.8562 -15.5838 -1239 65 66 97
-26.4185 -15.5959 -1240 74 75 109
-24.0157 -15.6332 -1243 84 86 119
-21.6359 -15.6958 -1248 136 139 172
-19.2517 -15.7709 -1254 60 64 88
-16.8573 -15.8586 -1261 62 67 87
-283.872 -18.8125 -1271 87 82 90
-284.099 -18.9992 -1284 107 103 116
-282.303 -19.0527 -1288 73 70 87
-280.275 -19.0914 -1291 65 65 89
-277.591 -19.0858 -1291 65 65 92
-274.697 -19.0655 -1290 64 64 92
-271.388 -19.0156 -1287 61 61 91
-267.677 -18.9363 -1282 62 63 93
-264.194 -18.8719 -1278 66 67 97
-260.526 -18.793 -1273 70 70 98
-257.286 -18.7434 -1270 70 70 99
-254.262 -18.7088 -1268 68 69 99
-250.652 -18.6301 -1263 66 66 96
-246.868 -18.5365 -1257 63 63 93
-243.889 -18.5022 -1255 62 62 92
-240.535 -18.4383 -1251 61 62 92
-237.39 -18.3894 -1248 61 62 92
-234.824 -18.3846 -1248 62 63 93
-231.888 -18.3506 -1246 65 66 96
-228.594 -18.2871 -1242 65 66 96
-225.5 -18.2385 -1239 66 67 97
-222.06 -18.1603 -1234 69 70 100
-218.287 -18.053 -1227 68 69 99
-215.072 -17.9898 -1223 70 71 101
-212.049 -17.9415 -1220 68 68 98
-208.696 -17.8638 -1215 66 66 96
-205.705 -17.8156 -1212 65 65 95
-202.728 -17.7674 -1209 65 65 95
-199.434 -17.69 -1204 66 66 95
-196.325 -17.6273 -1200 65 65 93
-193.234 -17.5647 -1196 64 64 93
-190.799 -17.5608 -1196 61 61 91
-188.209 -17.5424 -1195 60 61 91
-185.624 -17.5241 -1194 59 60 90
-182.891 -17.4911 -1192 56 57 88
-180.016 -17.4435 -1189 54 55 85
-177.304 -17.4106 -1187 53 54 84
-174.75 -17.3925 -1186 52 53 81
-172.346 -17.389 -1186 51 52 81
-170.087 -17.4003 -1187 50 51 80
-167.542 -17.3824 -1186 49 50 78
-165.421 -17.4083 -1188 49 50 78
-163.019 -17.4052 -1188 50 51 77
-160.753 -17.4166 -1189 49 50 76
-158.484 -17.4282 -1190 48 49 75
-156.344 -17.4543 -1192 46 48 71
-154.197 -17.4806 -1194 45 47 70
-152.043 -17.5068 -1196 44 46 69
-149.757 -17.5185 -1197 44 46 69
