ply
format ascii 1.0
comment Created by Open3D
element vertex 1350
property double x
property double y
property double z
property uchar red
property uchar green
property uchar blue
end_header
-229.321 -1028.41 -1444 143 138 139
-226.4 -1030.3 -1447 144 138 139
-222.389 -1027.21 -1443 145 139 140
-219.764 -1030.53 -1448 147 140 142
-216.521 -1031.01 -1449 151 144 146
-213.129 -1030.78 -1449 156 146 148
-209.739 -1030.55 -1449 156 146 148
-206.778 -1032.46 -1452 151 142 144
-203.525 -1032.95 -1453 144 136 138
-200.545 -1034.87 -1456 136 128 130
-197.418 -1036.07 -1458 134 126 128
-194.417 -1038 -1461 134 126 128
-191.404 -1039.92 -1464 124 118 119
-188.122 -1040.43 -1465 124 116 118
-184.837 -1040.94 -1466 130 122 123
-181.797 -1042.87 -1469 129 121 122
-178.624 -1044.1 -1471 127 119 119
-175.324 -1044.62 -1472 127 119 121
-172.138 -1045.85 -1474 97 89 91
-169.173 -1048.5 -1478 95 87 89
-165.631 -1047.62 -1477 107 103 104
-162.315 -1048.15 -1478 109 106 107
-158.459 -1045.14 -1474 117 112 114
-154.939 -1044.26 -1473 135 127 129
-151.321 -1042.68 -1471 144 134 134
-147.614 -1040.4 -1468 138 129 131
-144.021 -1038.82 -1466 128 121 123
-140.439 -1037.25 -1464 123 119 122
-136.867 -1035.69 -1462 123 119 124
-133.397 -1034.84 -1461 129 127 130
-129.844 -1033.28 -1459 141 141 143
-126.649 -1034.56 -1461 147 147 147
-123.445 -1035.84 -1463 151 151 154
-120.152 -1036.42 -1464 150 148 152
-117.095 -1039.12 -1468 147 143 146
-113.942 -1041.13 -1471 144 140 143
-110.853 -1043.84 -1475 144 137 141
-107.527 -1044.43 -1476 143 136 139
-104.622 -1049.27 -1483 140 132 134
-101.48 -1051.99 -1487 137 129 133
-98.5191 -1056.83 -1494 132 122 128
-95.7177 -1063.8 -1504 133 122 129
-93.1781 -1074.31 -1519 124 112 117
-258.837 -1056.91 -1475 124 113 118
-252.236 -1043.74 -1457 125 117 119
-247.259 -1037.02 -1448 134 126 128
-243.674 -1036.04 -1447 141 133 135
-240.097 -1035.06 -1446 145 135 137
-236.528 -1034.08 -1445 141 133 135
-233.126 -1033.83 -1445 141 134 135
-229.569 -1032.86 -1444 143 137 138
-226.175 -1032.62 -1444 143 137 138
-222.629 -1031.66 -1443 142 136 137
-220.002 -1034.99 -1448 142 136 137
-216.456 -1034.04 -1447 142 136 137
-213.506 -1035.95 -1450 142 132 134
-210.11 -1035.72 -1450 137 127 129
-206.858 -1036.21 -1451 130 120 122
-203.324 -1035.28 -1450 127 119 121
-200.21 -1036.49 -1452 136 128 130
-197.36 -1039.13 -1456 138 130 132
-194.226 -1040.34 -1458 133 125 127
-191.217 -1042.28 -1461 126 120 121
-188.195 -1044.21 -1464 131 123 124
-185.036 -1045.44 -1466 135 126 126
-181.869 -1046.66 -1468 133 124 124
-178.694 -1047.9 -1470 130 121 121
-175.393 -1048.42 -1471 124 115 117
-172.323 -1050.37 -1474 99 91 93
-169.126 -1051.61 -1476 95 87 89
-165.697 -1051.43 -1476 111 107 108
-162.27 -1051.25 -1476 120 116 117
-158.737 -1050.37 -1475 122 118 120
-154.999 -1048.06 -1472 131 123 125
-151.278 -1045.76 -1469 136 126 126
-147.672 -1044.18 -1467 137 128 129
-144.077 -1042.6 -1465 135 128 130
-140.397 -1040.31 -1462 138 134 137
-137.201 -1041.59 -1464 146 142 147
-133.54 -1039.31 -1461 144 140 144
-130.161 -1039.16 -1461 135 132 135
-126.784 -1039.03 -1461 138 135 136
-123.578 -1040.31 -1463 145 145 148
-120.363 -1041.61 -1465 151 150 154
-117.06 -1042.19 -1466 152 148 151
-113.909 -1044.2 -1469 144 140 143
-110.821 -1046.92 -1473 143 136 140
-107.642 -1048.94 -1476 144 136 140
-104.663 -1053.09 -1482 148 139 141
-101.657 -1057.24 -1488 153 145 147
-98.7564 -1062.82 -1496 155 145 148
-96.2023 -1072.66 -1510 151 140 144
-93.8303 -1085.34 -1528 143 131 134
-260.349 -1066.52 -1482 126 114 119
-253.55 -1052.57 -1463 126 118 120
-248.041 -1043.66 -1451 126 118 120
-243.94 -1040.52 -1447 128 120 122
-240.691 -1040.97 -1448 129 119 121
-236.785 -1038.55 -1445 128 120 122
-233.38 -1038.3 -1445 127 120 122
-229.341 -1035.17 -1441 128 122 123
-226.264 -1036.36 -1443 130 124 125
-222.407 -1033.96 -1440 131 124 126
-219.328 -1035.16 -1442 134 126 128
-216.092 -1035.64 -1443 139 131 133
-213.295 -1038.28 -1447 140 132 134
-210.192 -1039.48 -1449 142 133 135
-207.082 -1040.69 -1451 144 136 138
-203.684 -1040.47 -1451 143 135 137
-200.288 -1040.25 -1451 138 130 132
-197.302 -1042.18 -1454 132 124 126
-194.17 -1043.4 -1456 130 122 124
-191.031 -1044.63 -1458 136 130 131
-188.27 -1048 -1463 142 134 134
-184.857 -1047.8 -1463 139 130 130
-181.693 -1049.04 -1465 136 126 126
-178.522 -1050.27 -1467 130 122 122
-175.224 -1050.8 -1468 123 115 117
-172.275 -1053.47 -1472 103 94 96
-169.079 -1054.72 -1474 95 85 86
-165.763 -1055.25 -1475 114 109 110
-162.335 -1055.08 -1475 125 121 122
-158.8 -1054.19 -1474 128 124 125
-154.956 -1051.16 -1470 132 124 126
-151.234 -1048.85 -1467 133 122 122
-147.629 -1047.25 -1465 133 123 125
-144.134 -1046.38 -1464 131 123 125
-140.356 -1043.37 -1460 127 123 124
-136.88 -1042.51 -1459 131 127 130
-133.409 -1041.65 -1458 135 131 134
-130.123 -1042.22 -1459 140 137 139
-126.486 -1039.94 -1456 141 138 141
-123.372 -1041.94 -1459 141 138 141
-120.163 -1043.24 -1461 142 138 141
-116.946 -1044.54 -1463 143 139 142
-113.799 -1046.56 -1466 146 142 145
-110.639 -1048.58 -1469 148 142 146
-107.685 -1052.74 -1475 148 141 144
-104.492 -1054.77 -1478 152 144 146
-101.493 -1058.94 -1484 153 145 145
-98.7963 -1066.68 -1495 159 149 150
-96.4331 -1078.71 -1512 164 152 154
-94.2383 -1093.59 -1533 172 155 157
-260.81 -1071.85 -1483 125 113 116
-253.654 -1056.39 -1462 132 122 124
-248.484 -1048.89 -1452 136 126 128
-244.207 -1045.01 -1447 134 126 128
-240.621 -1044.02 -1446 134 125 127
-237.044 -1043.04 -1445 136 128 130
-233.635 -1042.78 -1445 135 127 129
-229.91 -1041.09 -1443 132 126 127
-226.354 -1040.11 -1442 132 126 127
-222.495 -1037.71 -1439 137 130 131
-219.262 -1038.19 -1440 142 134 136
-216.028 -1038.67 -1441 144 136 138
-212.938 -1039.88 -1443 146 138 140
-209.841 -1041.09 -1445 145 137 139
-206.594 -1041.58 -1446 137 129 131
-203.203 -1041.36 -1446 135 127 129
-199.954 -1041.86 -1447 133 125 127
-196.837 -1043.08 -1449 134 126 128
-193.847 -1045.02 -1452 137 129 131
-191.107 -1048.41 -1457 137 129 131
-188.088 -1050.37 -1460 136 126 127
-184.931 -1051.6 -1462 137 127 127
-181.766 -1052.84 -1464 137 127 127
-178.472 -1053.36 -1465 131 123 123
-175.295 -1054.61 -1467 123 115 117
-172.227 -1056.58 -1470 109 100 102
-169.148 -1058.55 -1473 93 83 83
-166.168 -1061.24 -1477 117 111 112
-162.511 -1059.62 -1475 127 122 123
-158.864 -1058.01 -1473 137 133 134
-155.124 -1055.69 -1470 142 132 134
-151.192 -1051.93 -1465 142 130 129
-147.487 -1049.61 -1462 142 132 131
-143.896 -1048.02 -1460 144 134 134
-140.123 -1044.99 -1456 141 137 140
-136.652 -1044.13 -1455 137 133 136
-133.187 -1043.26 -1454 135 131 133
-129.817 -1043.12 -1454 135 132 133
-126.449 -1042.98 -1454 137 134 137
-123.336 -1045 -1457 137 134 137
-120.128 -1046.3 -1459 135 132 135
-116.832 -1046.89 -1460 136 132 135
-113.689 -1048.92 -1463 139 135 138
-110.532 -1050.94 -1466 142 136 139
-107.363 -1052.98 -1469 141 134 137
-104.393 -1057.16 -1475 144 133 133
-101.602 -1063.5 -1484 143 132 130
-99.0353 -1072.71 -1497 145 134 132
-96.9841 -1088.37 -1519 150 139 137
-94.5861 -1101.16 -1537 154 136 136
-262.329 -1081.56 -1490 123 110 113
-254.628 -1063.86 -1466 130 117 120
-249.099 -1054.87 -1454 133 121 124
-244.813 -1050.97 -1449 133 125 127
-240.886 -1048.53 -1446 136 128 130
-237.14 -1046.82 -1444 138 128 130
-233.729 -1046.56 -1444 135 125 127
-230.003 -1044.85 -1442 134 126 128
-226.288 -1043.15 -1440 135 127 129
-222.275 -1040.01 -1436 135 127 129
-218.893 -1039.77 -1436 134 126 128
-215.664 -1040.25 -1437 133 125 127
-212.432 -1040.74 -1438 141 131 133
-209.634 -1043.4 -1442 140 131 133
-206.248 -1043.17 -1442 134 126 128
-203.004 -1043.67 -1443 136 128 130
-199.757 -1044.18 -1444 132 125 127
-196.645 -1045.4 -1446 128 121 122
-193.524 -1046.64 -1448 127 119 119
-190.922 -1050.76 -1454 123 115 117
-188.165 -1054.17 -1459 123 114 115
-185.006 -1055.41 -1461 128 118 118
-181.716 -1055.93 -1462 134 124 124
-178.667 -1057.9 -1465 133 123 123
-175.247 -1057.71 -1465 127 117 117
-172.415 -1061.13 -1470 120 110 110
-169.217 -1062.38 -1472 97 87 87
-166.011 -1063.64 -1474 119 113 114
-162.578 -1063.46 -1474 127 122 123
-158.714 -1060.4 -1470 138 134 135
-154.87 -1057.35 -1466 145 135 135
-150.943 -1053.57 -1461 143 132 130
-147.344 -1051.97 -1459 143 133 131
-143.559 -1048.93 -1455 146 136 136
-140.083 -1048.05 -1454 142 138 141
-136.33 -1045.02 -1450 142 136 140
-132.873 -1044.15 -1449 142 136 139
-129.601 -1044.73 -1450 144 140 141
-126.326 -1045.31 -1451 142 139 140
-123.046 -1045.89 -1452 142 139 141
-119.847 -1047.2 -1454 137 134 137
-116.719 -1049.23 -1457 132 128 129
-113.579 -1051.27 -1460 131 127 130
-110.426 -1053.31 -1463 130 124 128
-107.406 -1056.79 -1468 127 119 123
-104.294 -1059.55 -1472 121 106 105
-101.644 -1067.36 -1483 113 102 98
-99.2089 -1078.04 -1498 116 103 100
-97.4727 -1097.37 -1525 119 105 102
-263.853 -1091.33 -1497 126 112 115
-256.127 -1073.54 -1473 130 118 120
-249.889 -1061.6 -1457 133 123 125
-245.252 -1056.23 -1450 137 129 131
-241.319 -1053.78 -1447 141 131 133
-237.566 -1052.05 -1445 139 130 132
-233.663 -1049.61 -1442 135 127 129
-230.097 -1048.63 -1441 135 127 129
-226.537 -1047.65 -1440 137 129 131
-222.52 -1044.49 -1436 138 130 132
-219.134 -1044.24 -1436 133 125 127
-215.451 -1042.55 -1434 129 121 123
-212.37 -1043.77 -1436 128 120 122
-209.283 -1044.99 -1438 126 118 120
-205.902 -1044.76 -1438 121 113 115
-202.945 -1046.71 -1441 119 111 113
-199.562 -1046.49 -1441 117 110 111
-196.725 -1049.18 -1445 120 114 114
-193.737 -1051.14 -1448 124 116 116
-190.737 -1053.11 -1451 125 117 119
-188.242 -1057.98 -1458 129 118 120
-184.956 -1058.5 -1459 133 121 122
-181.915 -1060.47 -1462 134 124 124
-178.619 -1061 -1463 135 123 124
-175.798 -1064.43 -1468 132 121 121
-172.722 -1066.42 -1471 122 112 112
-169.748 -1069.13 -1475 97 87 87
-166.193 -1068.22 -1474 121 115 114
-162.535 -1066.59 -1472 130 125 125
-158.671 -1063.51 -1468 130 126 127
-154.722 -1059.72 -1463 136 126 126
-150.798 -1055.93 -1458 141 130 128
-147.303 -1055.04 -1457 143 132 131
-143.518 -1051.99 -1453 145 135 135
-140.043 -1051.11 -1452 139 135 138
-136.291 -1048.06 -1448 145 139 143
-133.018 -1048.64 -1449 150 143 147
-129.564 -1047.77 -1448 149 145 146
-126.289 -1048.35 -1449 145 142 144
-123.011 -1048.94 -1450 140 137 139
-119.978 -1051.7 -1454 139 135 137
-116.766 -1053.02 -1456 139 135 136
-113.469 -1053.62 -1457 140 136 139
-110.395 -1056.39 -1461 137 131 134
-107.377 -1059.88 -1466 130 122 126
-104.195 -1061.93 -1469 125 110 110
-101.48 -1069.05 -1479 115 104 99
-99.2508 -1081.95 -1497 115 102 98
-97.707 -1103.53 -1527 122 108 103
-265.911 -1103.35 -1507 128 113 116
-258.326 -1086.22 -1484 132 120 122
-251.541 -1072.03 -1465 135 125 127
-246.541 -1065.17 -1456 141 131 133
-242.087 -1060.51 -1450 142 132 134
-237.83 -1056.58 -1445 140 131 133
-234.247 -1055.59 -1444 137 129 131
-230.352 -1053.14 -1441 132 126 127
-226.788 -1052.15 -1440 130 124 125
-222.456 -1047.52 -1434 131 124 126
-218.766 -1045.82 -1432 129 121 123
-215.238 -1044.84 -1431 128 120 122
-212.013 -1045.34 -1432 128 120 122
-209.077 -1047.29 -1435 127 119 121
-206.273 -1049.98 -1439 127 119 121
-203.029 -1050.49 -1440 135 127 129
-199.782 -1050.99 -1441 139 131 133
-196.942 -1053.69 -1445 140 132 133
-193.683 -1054.2 -1446 135 127 127
-190.948 -1057.63 -1451 135 127 129
-188.192 -1061.07 -1456 139 129 130
-185.033 -1062.32 -1458 140 128 129
-181.991 -1064.3 -1461 137 127 127
-178.816 -1065.56 -1463 134 124 124
-175.992 -1069.01 -1468 131 122 122
-172.794 -1070.27 -1470 118 110 110
-169.819 -1072.99 -1474 100 88 89
-166.15 -1071.35 -1472 119 111 111
-162.493 -1069.71 -1470 136 129 130
-158.197 -1063.72 -1462 138 130 134
-154.469 -1061.36 -1459 140 130 129
-150.343 -1056.1 -1452 142 130 128
-146.858 -1055.21 -1451 147 135 133
-143.182 -1052.87 -1448 143 134 133
-139.714 -1051.99 -1447 142 138 140
-135.876 -1048.2 -1442 148 142 145
-132.889 -1050.96 -1446 149 142 145
-129.348 -1049.36 -1444 147 142 142
-126.166 -1050.68 -1446 142 139 141
-122.891 -1051.26 -1447 139 135 137
-119.861 -1054.04 -1451 139 136 138
-116.573 -1054.63 -1452 142 138 139
-113.593 -1058.14 -1457 144 140 143
-110.592 -1061.65 -1462 141 135 138
-107.348 -1062.98 -1464 137 129 132
-104.238 -1065.77 -1468 131 118 122
-101.66 -1074.36 -1480 124 111 109
-99.4259 -1087.32 -1498 120 107 102
-98.0062 -1110.44 -1530 130 115 109
-266.032 -1107.36 -1506 123 108 114
-258.441 -1090.16 -1483 127 115 120
-251.821 -1076.64 -1465 132 121 119
-246.307 -1067.54 -1453 134 124 124
-242.023 -1063.6 -1448 136 128 129
-237.765 -1059.66 -1443 136 128 129
-234.183 -1058.66 -1442 134 126 126
-230.448 -1056.93 -1440 135 127 127
-226.725 -1055.21 -1438 139 130 133
-222.548 -1051.29 -1433 143 135 138
-219.009 -1050.31 -1432 142 134 138
-215.477 -1049.33 -1431 142 136 137
-211.804 -1047.63 -1429 144 137 138
-208.726 -1048.86 -1431 145 137 137
-205.784 -1050.83 -1434 145 135 137
-202.689 -1052.07 -1436 146 136 138
-199.587 -1053.31 -1438 143 133 134
-196.887 -1056.75 -1443 143 133 131
-193.63 -1057.27 -1444 139 131 133
-190.765 -1059.98 -1448 137 131 132
-187.883 -1062.7 -1452 138 130 129
-184.73 -1063.95 -1454 139 128 126
-181.944 -1067.41 -1459 134 124 124
-178.524 -1067.21 -1459 135 122 123
-176.427 -1075.06 -1470 136 123 124
-173.221 -1076.33 -1472 128 116 119
-170.238 -1079.06 -1476 101 84 88
-166.334 -1075.95 -1472 113 97 97
-162.783 -1075.04 -1471 138 125 125
-158.263 -1067.55 -1461 139 132 133
-154.11 -1062.26 -1454 145 134 131
-150.094 -1057.71 -1448 146 137 133
-146.615 -1056.82 -1447 151 143 140
-142.845 -1053.74 -1443 156 148 146
-139.482 -1053.58 -1443 156 149 149
-136.12 -1053.43 -1443 154 146 148
-132.944 -1054.74 -1445 151 144 146
-129.49 -1053.86 -1444 151 145 145
-126.13 -1053.72 -1444 150 146 145
-122.942 -1055.04 -1446 150 147 147
-119.911 -1057.83 -1450 147 144 146
-116.621 -1058.43 -1451 145 142 143
-113.719 -1062.68 -1457 144 141 143
-110.638 -1065.47 -1461 143 138 140
-107.466 -1067.54 -1464 141 133 134
-104.424 -1071.06 -1469 138 126 128
-101.841 -1079.7 -1481 133 119 119
-99.934 -1096.36 -1504 130 114 113
-98.8836 -1123.94 -1542 136 118 114
-267.568 -1117.29 -1513 117 99 104
-260.127 -1100.75 -1491 124 109 116
-253.481 -1087.17 -1473 127 113 115
-246.753 -1072.87 -1454 128 116 120
-241.96 -1066.69 -1446 136 127 130
-237.702 -1062.74 -1441 142 134 137
-233.795 -1060.26 -1438 142 135 137
-230.065 -1058.52 -1436 146 135 138
-226.506 -1057.53 -1435 149 138 141
-222.331 -1053.59 -1430 150 139 141
-218.795 -1052.61 -1429 150 141 143
-215.115 -1050.89 -1427 149 142 143
-211.744 -1050.66 -1427 149 141 142
-208.813 -1052.63 -1430 148 140 141
-205.727 -1053.87 -1432 145 137 139
-202.633 -1055.11 -1434 147 136 141
-199.532 -1056.36 -1436 145 135 139
-196.834 -1059.81 -1441 144 134 136
-193.577 -1060.33 -1442 140 134 135
-190.845 -1063.79 -1447 136 130 131
-187.833 -1065.79 -1450 137 129 129
-184.808 -1067.78 -1453 140 129 127
-181.897 -1070.52 -1457 136 125 123
-178.968 -1073.26 -1461 133 122 120
-176.143 -1076.73 -1466 134 123 121
-173.414 -1080.94 -1472 131 119 119
-170.312 -1082.95 -1475 93 81 84
-166.519 -1080.56 -1472 91 77 78
-162.41 -1075.98 -1466 128 114 115
-158.114 -1069.93 -1458 134 130 130
-153.75 -1063.15 -1449 143 131 131
-149.95 -1060.04 -1445 146 134 135
-146.372 -1058.41 -1443 151 139 140
-142.706 -1056.05 -1440 156 145 146
-139.443 -1056.63 -1441 158 149 151
-136.082 -1056.47 -1441 158 149 152
-132.815 -1057.06 -1442 159 150 154
-129.365 -1056.18 -1441 159 151 155
-126.008 -1056.04 -1441 158 151 149
-122.653 -1055.9 -1441 155 149 149
-119.547 -1057.96 -1444 148 144 147
-116.59 -1061.49 -1449 143 140 140
-113.376 -1062.83 -1451 144 141 141
-110.305 -1065.64 -1455 146 140 140
-107.218 -1068.45 -1459 148 137 135
-104.112 -1071.26 -1463 147 136 132
-101.403 -1078.47 -1473 142 128 125
-99.7119 -1097.39 -1499 143 126 124
-98.7362 -1125.83 -1538 121 102 100
-267.87 -1122.09 -1513 104 83 84
-260.769 -1106.96 -1493 122 105 108
-254.111 -1093.32 -1475 121 106 111
-247.371 -1078.96 -1456 121 109 114
-242.232 -1071.27 -1446 128 117 122
-237.639 -1065.81 -1439 133 124 128
-233.407 -1061.85 -1434 137 128 132
-229.683 -1060.1 -1432 145 133 137
-225.812 -1057.63 -1429 148 136 139
-221.958 -1055.15 -1426 148 136 138
-218.581 -1054.91 -1426 150 139 139
-215.055 -1053.92 -1425 147 138 139
-211.388 -1052.2 -1423 140 132 134
-208.463 -1054.18 -1426 143 137 139
-205.239 -1054.69 -1427 145 137 141
-202.153 -1055.94 -1429 145 135 140
-199.061 -1057.19 -1431 144 134 138
-196.234 -1059.92 -1435 145 135 137
-193.256 -1061.92 -1438 142 135 136
-190.399 -1064.66 -1442 139 131 132
-187.525 -1067.4 -1446 138 129 129
-184.633 -1070.14 -1450 141 127 124
-181.6 -1072.15 -1453 136 125 123
-178.923 -1076.38 -1459 130 122 118
-176.34 -1081.34 -1466 130 122 117
-173.961 -1087.78 -1475 131 120 117
-170.618 -1088.33 -1476 100 86 87
-166.705 -1085.19 -1472 94 75 75
-162.702 -1081.32 -1467 123 101 101
-158.29 -1074.51 -1458 137 120 117
-153.816 -1066.96 -1448 144 125 123
-149.805 -1062.37 -1442 150 133 133
-146.028 -1059.26 -1438 154 140 141
-142.469 -1057.63 -1436 159 146 148
-139.211 -1058.2 -1437 162 151 149
-135.761 -1057.31 -1436 160 148 148
-132.41 -1057.17 -1436 161 149 152
-129.149 -1057.76 -1437 161 153 154
-125.798 -1057.61 -1437 160 153 150
-122.448 -1057.47 -1437 157 151 148
-119.349 -1059.55 -1440 152 149 148
-116.397 -1063.09 -1445 152 145 143
-113.267 -1065.17 -1448 151 144 142
-110.201 -1067.99 -1452 151 143 141
-107.043 -1070.08 -1455 151 140 138
-103.943 -1072.9 -1459 156 138 136
-101.24 -1080.14 -1469 158 138 135
-99.2236 -1095.47 -1490 135 113 109
-97.8176 -1118.88 -1522 79 54 49
-276.28 -1145.83 -1538 79 51 50
-267.465 -1123.92 -1509 92 67 66
-260.366 -1108.73 -1489 120 102 101
-253.882 -1095.78 -1472 121 109 108
-247.141 -1081.35 -1453 126 113 114
-242.004 -1073.63 -1443 132 120 121
-237.743 -1069.64 -1438 136 125 126
-233.671 -1066.4 -1434 136 126 128
-229.782 -1063.9 -1431 141 130 130
-225.593 -1059.93 -1426 143 132 131
-221.742 -1057.45 -1423 145 134 134
-218.214 -1056.45 -1422 146 135 135
-214.845 -1056.21 -1422 142 132 132
-211.329 -1055.23 -1421 135 126 127
-208.405 -1057.22 -1424 136 129 133
-205.038 -1056.98 -1424 136 129 132
-201.815 -1057.49 -1425 137 130 133
-198.589 -1058.01 -1426 138 130 133
-195.771 -1060.75 -1430 142 134 136
-192.936 -1063.5 -1434 141 133 133
-190.085 -1066.25 -1438 139 130 130
-187.606 -1071.23 -1445 137 128 127
-185.223 -1076.95 -1453 139 125 122
-181.93 -1077.48 -1454 134 123 121
-179.001 -1080.24 -1458 131 123 120
-176.418 -1085.23 -1465 130 123 119
-173.921 -1090.96 -1473 125 114 113
-170.462 -1090.76 -1473 109 86 86
-166.552 -1087.61 -1469 119 87 85
-162.441 -1082.98 -1463 151 110 105
-158.142 -1076.88 -1455 155 113 105
-153.669 -1069.31 -1445 153 121 111
-149.557 -1063.96 -1438 153 127 120
-145.886 -1061.57 -1435 149 133 128
-142.33 -1059.93 -1433 157 145 143
-139.076 -1060.51 -1434 165 154 149
-135.724 -1060.36 -1434 163 152 148
-132.373 -1060.21 -1434 165 154 150
-128.934 -1059.32 -1433 163 156 151
-125.501 -1058.44 -1432 161 155 149
-122.244 -1059.04 -1433 161 156 150
-118.984 -1059.64 -1434 155 152 146
-115.963 -1062.47 -1438 160 153 149
-112.846 -1064.55 -1441 162 152 149
-109.792 -1067.38 -1445 161 148 146
-106.573 -1068.74 -1447 162 146 143
-103.56 -1072.32 -1452 165 136 134
-100.87 -1079.59 -1462 151 118 114
-98.6012 -1092.03 -1479 124 90 84
-96.7045 -1109.64 -1503 86 50 43
-94.7593 -1127.99 -1528 80 40 42
-274.257 -1141.02 -1525 77 48 47
-265.996 -1121.26 -1499 80 52 50
-259.437 -1108.24 -1482 110 88 87
-252.789 -1094.49 -1464 119 105 107
-246.571 -1082.25 -1448 126 111 113
-241.775 -1075.99 -1440 134 120 122
-237.517 -1071.98 -1435 138 126 129
-232.958 -1066.48 -1428 142 131 135
-229.239 -1064.73 -1426 147 137 137
-225.374 -1062.23 -1423 146 136 134
-221.526 -1059.73 -1420 144 135 135
-218.155 -1059.48 -1420 141 133 133
-214.937 -1059.98 -1421 134 127 126
-211.271 -1058.25 -1419 129 122 121
-208.056 -1058.76 -1420 123 118 119
-204.694 -1058.52 -1420 122 117 116
-201.334 -1058.29 -1420 123 118 117
-198.117 -1058.81 -1421 126 120 119
-195.444 -1062.31 -1426 133 126 124
-192.616 -1065.07 -1430 140 132 132
-190.035 -1069.32 -1436 138 129 129
-187.428 -1073.58 -1442 136 126 126
-184.795 -1077.83 -1448 134 118 114
-182.261 -1082.83 -1455 131 119 117
-179.572 -1087.09 -1461 131 120 119
-176.496 -1089.12 -1464 126 117 117
-173.763 -1093.39 -1470 120 107 111
-170.423 -1093.94 -1471 109 74 75
-166.513 -1090.77 -1467 143 98 94
-162.513 -1086.87 -1462 176 117 105
-158.429 -1082.23 -1456 184 125 112
-153.949 -1074.62 -1446 185 137 123
-149.83 -1069.25 -1439 171 133 120
-145.847 -1064.62 -1433 184 161 150
-142.192 -1062.23 -1430 211 202 198
-138.844 -1062.07 -1430 220 212 207
-135.403 -1061.17 -1429 211 203 197
-132.153 -1061.77 -1430 192 186 180
-128.719 -1060.88 -1429 182 177 169
-125.379 -1060.73 -1429 173 170 160
-122.04 -1060.59 -1429 161 157 147
-118.786 -1061.2 -1430 153 147 139
-115.609 -1062.55 -1432 149 142 137
-112.502 -1064.65 -1435 146 136 132
-109.307 -1066.01 -1437 145 133 129
-106.029 -1066.63 -1438 144 120 115
-103.32 -1073.19 -1447 140 102 92
-100.569 -1079.74 -1456 140 98 91
-97.911 -1087.79 -1467 136 92 86
-95.6536 -1101.03 -1485 95 51 47
-93.2514 -1113.52 -1502 79 41 42
-90.8308 -1126.77 -1520 78 41 43
-88.155 -1137.78 -1535 73 38 40
-279.869 -1152.98 -1534 77 49 49
-271.511 -1133.13 -1508 78 49 48
-264.346 -1117.79 -1488 81 51 51
-258.157 -1106.23 -1473 102 77 75
-252.56 -1096.92 -1461 127 111 106
-246.513 -1085.38 -1446 142 126 120
-242.22 -1081.34 -1441 154 138 132
-237.788 -1076.57 -1435 152 141 134
-232.735 -1068.8 -1425 158 148 142
-228.536 -1064.78 -1420 165 156 152
-224.522 -1061.52 -1416 174 166 164
-220.998 -1060.52 -1415 175 170 168
-217.788 -1061.02 -1416 166 162 158
-214.274 -1060.02 -1415 164 160 157
-211.065 -1060.53 -1416 167 164 161
-207.853 -1061.04 -1417 175 172 168
-204.639 -1061.55 -1418 184 181 175
-201.28 -1061.32 -1418 190 187 181
-198.063 -1061.84 -1419 190 185 180
-195.255 -1064.61 -1423 160 154 149
-192.295 -1066.63 -1426 135 127 127
-189.986 -1072.4 -1434 138 129 129
-187.641 -1078.16 -1442 135 125 124
-185.005 -1082.44 -1448 138 122 117
-182.593 -1088.21 -1456 134 119 116
-180.146 -1093.98 -1464 137 122 121
-176.817 -1094.52 -1465 122 108 110
-173.486 -1095.07 -1466 95 77 81
-170.037 -1094.88 -1466 109 74 73
-166.134 -1091.7 -1462 150 103 96
-162.252 -1088.52 -1458 189 126 108
-158.064 -1083.12 -1451 196 133 114
-153.804 -1076.97 -1443 202 151 133
-149.583 -1070.83 -1435 229 188 173
-145.809 -1067.67 -1431 254 244 232
-142.254 -1066.02 -1429 255 252 245
-138.807 -1065.11 -1428 255 252 248
-135.366 -1064.21 -1427 255 253 249
-132.117 -1064.81 -1428 254 252 250
-128.684 -1063.91 -1427 252 252 247
-125.345 -1063.77 -1427 252 252 245
-121.922 -1062.88 -1426 250 250 242
-118.671 -1063.49 -1427 251 246 238
-115.336 -1063.36 -1427 251 247 241
-112.159 -1064.72 -1429 251 244 239
-108.897 -1065.34 -1430 248 232 228
-105.706 -1066.71 -1432 240 215 207
-102.65 -1069.57 -1436 193 159 144
-100.06 -1077.65 -1447 146 108 96
-97.2865 -1084.24 -1456 138 97 88
-94.6009 -1092.32 -1467 96 54 50
-91.7406 -1098.92 -1476 84 46 45
-89.2581 -1110.73 -1492 75 40 40
-86.817 -1124.03 -1510 71 37 38
-84.5138 -1140.3 -1532 71 39 40
-283.321 -1155.98 -1531 78 48 48
-276.904 -1144.33 -1516 78 48 46
-267.678 -1120.62 -1485 82 52 51
-261.272 -1108.24 -1469 79 51 51
-255.647 -1098.89 -1457 188 163 158
-250.428 -1091.06 -1447 226 210 203
-245.772 -1085.49 -1440 241 227 220
-242.667 -1086.72 -1442 251 235 228
-238.393 -1082.68 -1437 254 242 234
-232.838 -1072.61 -1424 255 245 239
-228.315 -1067.07 -1417 255 249 244
-224.303 -1063.8 -1413 254 252 248
-220.782 -1062.79 -1412 254 252 247
-217.73 -1064.05 -1414 254 252 247
-214.368 -1063.8 -1414 253 252 247
-211.306 -1065.06 -1416 252 251 247
-207.944 -1064.82 -1416 255 252 246
-204.584 -1064.58 -1416 254 251 243
-201.226 -1064.35 -1416 254 253 244
-198.01 -1064.87 -1417 254 252 242
-195.203 -1067.65 -1421 252 249 242
-192.11 -1068.93 -1423 204 195 194
-189.805 -1074.72 -1431 140 130 130
-187.334 -1079.76 -1438 135 124 122
-184.832 -1084.8 -1445 142 125 119
-182.551 -1091.35 -1454 139 124 120
-179.735 -1094.9 -1459 118 102 100
-177.019 -1099.19 -1465 69 52 51
-173.329 -1097.49 -1463 91 69 70
-169.998 -1098.05 -1464 108 75 73
-166.096 -1094.85 -1460 142 100 94
-162.214 -1091.67 -1456 182 123 107
-158.244 -1087.74 -1451 200 135 113
-154.299 -1083.81 -1446 205 154 135
-149.962 -1076.89 -1437 255 222 205
-146.077 -1072.98 -1432 255 247 237
-142.117 -1068.32 -1426 255 254 250
-138.673 -1067.41 -1425 255 251 249
-135.236 -1066.5 -1424 254 251 250
-131.99 -1067.1 -1425 253 253 255
-128.56 -1066.2 -1424 251 253 254
-125.4 -1067.55 -1426 251 254 252
-122.06 -1067.41 -1426 253 255 252
-118.806 -1068.02 -1427 253 252 240
-115.467 -1067.89 -1427 245 233 225
-112.286 -1069.26 -1429 223 207 200
-108.945 -1069.13 -1429 221 200 196
-105.752 -1070.51 -1431 242 217 213
-102.623 -1072.63 -1434 241 218 206
-99.8276 -1078.5 -1442 251 223 211
-96.661 -1080.63 -1445 231 200 188
-93.8043 -1086.51 -1453 156 121 109
-90.849 -1091.63 -1460 83 45 43
-88.2214 -1101.25 -1473 78 41 40
-85.8218 -1114.61 -1491 71 35 35
-83.4497 -1129.46 -1511 69 37 37
-281.426 -1151.82 -1519 80 49 50
-274.482 -1137.85 -1501 81 49 49
-265.822 -1116.31 -1473 83 51 50
-259.615 -1104.64 -1458 131 102 100
-254.361 -1096.77 -1448 226 207 195
-249.332 -1089.66 -1439 204 186 181
-244.689 -1084.08 -1432 125 106 104
-241.262 -1083.79 -1432 114 95 94
-236.842 -1078.98 -1426 108 91 89
-231.798 -1071.14 -1416 108 90 88
-227.772 -1067.85 -1412 120 104 101
-224.085 -1066.08 -1410 139 127 124
-220.723 -1065.82 -1410 226 222 217
-217.364 -1065.57 -1410 255 254 248
-214.311 -1066.83 -1412 255 253 248
-210.952 -1066.58 -1412 253 252 252
-207.742 -1067.1 -1413 252 254 250
-204.53 -1067.61 -1414 251 253 251
-201.173 -1067.38 -1414 252 254 250
-197.958 -1067.9 -1415 255 253 246
-194.878 -1069.19 -1417 255 251 245
-191.925 -1071.23 -1420 254 248 241
-189.891 -1078.55 -1430 194 182 176
-187.028 -1081.35 -1434 155 130 123
-185.301 -1090.94 -1447 145 124 117
-182.886 -1096.76 -1455 131 110 101
-179.941 -1099.56 -1459 109 88 81
-176.98 -1102.37 -1463 73 52 51
-173.053 -1099.16 -1459 104 78 74
-169.612 -1098.96 -1459 116 81 75
-165.603 -1095 -1454 137 93 86
-161.954 -1093.31 -1452 181 120 108
-157.77 -1087.85 -1445 197 134 116
-154.049 -1085.42 -1442 200 151 132
-149.82 -1079.22 -1434 255 229 211
-145.835 -1074.54 -1428 255 250 242
-142.08 -1071.36 -1424 255 254 248
-138.734 -1071.2 -1424 255 252 250
-135.39 -1071.04 -1424 255 252 253
-132.14 -1071.64 -1425 253 253 253
-128.707 -1070.74 -1424 251 253 253
-125.367 -1070.6 -1424 253 252 253
-122.028 -1070.45 -1424 255 252 253
-118.691 -1070.32 -1424 255 251 249
-115.274 -1069.43 -1423 208 192 189
-112.099 -1070.8 -1425 84 63 61
-108.916 -1072.18 -1427 117 91 90
-105.577 -1072.06 -1427 154 123 126
-102.382 -1073.44 -1429 88 54 47
-99.5949 -1079.34 -1437 108 75 70
-96.5034 -1082.23 -1441 202 171 168
-93.5235 -1086.62 -1447 237 217 204
-90.3919 -1089.52 -1451 169 142 131
-87.6623 -1097.68 -1462 105 76 65
-85.0552 -1108.09 -1476 76 44 32
-82.5496 -1120.76 -1493 75 39 39
-279.528 -1147.6 -1507 80 48 49
-272.238 -1132.05 -1487 82 49 50
-264.144 -1112.71 -1462 83 52 52
-258.313 -1102.51 -1449 163 138 130
-253.25 -1095.37 -1440 230 214 198
-248.754 -1090.51 -1434 158 140 130
-244.118 -1084.9 -1427 72 52 48
-240.025 -1081.58 -1423 78 59 57
-235.953 -1078.26 -1419 81 63 58
-231.739 -1074.19 -1414 81 64 56
-228.359 -1073.92 -1414 100 83 74
-224.504 -1071.38 -1411 123 107 104
-220.979 -1070.36 -1410 228 221 215
-217.462 -1069.35 -1409 255 255 249
-214.256 -1069.86 -1410 254 253 248
-210.748 -1068.85 -1409 253 253 255
-207.541 -1069.37 -1410 252 252 250
-204.187 -1069.13 -1410 252 253 252
-201.121 -1070.41 -1412 251 253 253
-197.907 -1070.94 -1413 255 253 247
-195.241 -1074.5 -1418 255 250 244
-192.282 -1076.55 -1421 255 247 240
-189.844 -1081.63 -1428 211 198 191
-187.244 -1085.96 -1434 157 127 118
-185.002 -1092.56 -1443 140 112 98
-182.467 -1097.64 -1450 127 99 86
-179.902 -1102.73 -1457 121 94 82
-176.7 -1104.04 -1459 83 61 60
-173.015 -1102.33 -1457 114 89 83
-169.575 -1102.13 -1457 125 91 83
-165.566 -1098.15 -1452 135 92 83
-162.029 -1097.21 -1451 175 117 103
-157.952 -1092.49 -1445 195 134 116
-154.119 -1089.28 -1441 197 147 128
-149.783 -1082.3 -1432 255 222 204
-145.901 -1078.35 -1427 255 244 236
-142.043 -1074.41 -1422 255 253 250
-138.601 -1073.49 -1421 255 251 251
-135.07 -1071.83 -1419 255 252 253
-131.921 -1073.18 -1421 253 253 253
-128.492 -1072.28 -1420 251 253 253
-125.246 -1072.89 -1421 253 253 253
-122.083 -1074.25 -1423 255 252 253
-118.911 -1075.63 -1425 255 253 250
-115.407 -1073.98 -1423 217 202 198
-112.228 -1075.36 -1425 131 109 103
-109.041 -1076.74 -1427 171 143 134
-105.55 -1075.11 -1425 112 81 72
-102.284 -1075.74 -1426 97 65 53
-99.3621 -1080.15 -1432 90 61 51
-96.2117 -1082.3 -1435 133 107 99
-93.113 -1085.21 -1439 245 227 215
-90.1212 -1089.63 -1445 233 216 200
-87.2225 -1095.56 -1453 220 198 183
-84.4603 -1103.76 -1464 106 79 65
-82.0352 -1117.23 -1482 78 43 41
-276.884 -1140.26 -1491 81 47 47
-270.174 -1126.94 -1474 79 48 48
-261.921 -1106.76 -1448 107 79 79
-256.295 -1097.28 -1436 199 180 168
-251.785 -1092.4 -1430 240 221 204
-247.829 -1089.82 -1427 161 141 127
-243.033 -1083.42 -1419 92 71 59
-239.291 -1081.61 -1417 93 76 63
-235.229 -1078.28 -1413 91 76 59
-231.681 -1077.24 -1412 99 84 66
-228.14 -1076.21 -1411 113 97 79
-224.128 -1072.9 -1407 143 130 120
-220.766 -1072.64 -1407 241 234 227
-217.252 -1071.62 -1406 255 253 248
-213.896 -1071.37 -1406 255 253 249
-210.544 -1071.12 -1406 253 253 254
-207.488 -1072.4 -1408 252 252 250
-203.99 -1071.4 -1407 252 253 252
-201.069 -1073.45 -1410 251 253 253
-197.996 -1074.74 -1412 255 253 247
-195.054 -1076.79 -1415 255 249 243
-192.37 -1080.37 -1420 254 242 235
-189.931 -1085.47 -1427 205 184 175
-187.33 -1089.82 -1433 155 123 110
-184.703 -1094.17 -1439 142 103 85
-182.175 -1099.27 -1446 138 102 88
-179.616 -1104.39 -1453 144 111 103
-176.42 -1105.7 -1455 120 99 94
-172.978 -1105.5 -1455 142 117 111
-169.421 -1104.54 -1454 139 108 100
-165.415 -1100.55 -1449 130 90 81
-161.769 -1098.84 -1447 166 113 97
-157.916 -1095.61 -1443 191 131 115
-153.655 -1089.36 -1435 195 143 125
-149.538 -1083.87 -1428 250 210 189
-145.455 -1078.39 -1421 255 240 232
-141.907 -1076.7 -1419 255 249 247
-138.566 -1076.54 -1419 255 251 250
-135.035 -1074.87 -1417 255 252 253
-131.98 -1076.99 -1420 253 253 253
-128.55 -1076.08 -1419 251 253 253
-125.303 -1076.69 -1420 253 253 253
-121.88 -1075.79 -1419 255 252 253
-118.881 -1078.68 -1423 249 253 250
-115.54 -1078.55 -1423 220 203 197
-112.279 -1079.17 -1424 161 136 128
-109.014 -1079.8 -1425 126 93 82
-105.523 -1078.16 -1423 106 74 58
-102.043 -1076.53 -1421 98 69 54
-99.0598 -1080.2 -1426 102 76 61
-95.9198 -1082.36 -1429 126 103 87
-92.9611 -1086.79 -1435 241 226 209
-89.8504 -1089.72 -1439 234 222 204
-87.0825 -1097.19 -1449 219 202 186
-84.211 -1103.9 -1458 161 137 124
-81.7416 -1116.68 -1475 77 44 40
-79.5651 -1134.75 -1499 0 0 0
-274.607 -1134.37 -1477 80 47 45
-267.372 -1118.69 -1457 109 78 75
-260.418 -1103.8 -1438 178 155 148
-255.345 -1096.59 -1429 202 185 174
-251.023 -1092.45 -1424 240 221 205
-247.25 -1090.62 -1422 170 150 131
-243.147 -1087.27 -1418 117 97 75
-239.234 -1084.68 -1415 120 102 76
-235.338 -1082.11 -1412 123 107 78
-231.624 -1080.3 -1410 124 109 79
-228.083 -1079.26 -1409 134 119 91
-224.231 -1076.7 -1406 150 140 126
-221.181 -1077.97 -1408 239 233 223
-217.351 -1075.42 -1405 255 252 245
-213.842 -1074.4 -1404 254 252 248
-210.49 -1074.15 -1404 252 252 252
-207.435 -1075.44 -1406 253 252 251
-203.938 -1074.43 -1405 253 252 250
-201.018 -1076.49 -1408 253 253 250
-198.087 -1078.55 -1411 255 253 249
-195.557 -1082.9 -1417 255 249 242
-192.73 -1085.73 -1421 251 233 222
-190.286 -1090.86 -1428 196 163 147
-187.287 -1092.93 -1431 170 129 112
-184.79 -1098.06 -1438 148 102 87
-181.756 -1100.13 -1441 149 106 93
-178.835 -1102.97 -1445 157 120 112
-175.897 -1105.82 -1449 143 120 111
-172.584 -1106.38 -1450 157 132 122
-169.152 -1106.18 -1450 153 124 114
-165.379 -1103.7 -1447 129 92 82
-161.733 -1101.98 -1445 163 110 96
-157.771 -1097.98 -1440 190 129 114
-153.726 -1093.23 -1434 195 140 123
-149.502 -1086.95 -1426 240 196 178
-145.829 -1084.49 -1423 255 238 229
-142.072 -1081.28 -1419 255 250 245
-138.629 -1080.35 -1418 255 251 248
-135.287 -1080.19 -1418 255 252 253
-132.133 -1081.56 -1420 253 253 253
-128.699 -1080.65 -1419 251 253 253
-125.448 -1081.26 -1420 252 253 253
-122.021 -1080.36 -1419 254 253 253
-118.768 -1080.98 -1420 251 254 251
-115.43 -1080.84 -1420 239 220 209
-112.093 -1080.71 -1420 175 148 135
-108.834 -1081.34 -1421 131 97 83
-105.423 -1080.46 -1420 123 91 68
-101.874 -1078.05 -1417 121 95 77
-98.9657 -1082.5 -1423 124 100 82
-95.8292 -1084.67 -1426 150 127 106
-92.8092 -1088.37 -1431 239 224 206
-89.7042 -1091.3 -1435 234 219 202
-86.9426 -1098.8 -1445 235 219 204
-84.0771 -1105.55 -1454 204 184 174
-81.3922 -1115.34 -1467 82 52 45
-78.9662 -1129.69 -1486 77 44 42
-77.1633 -1154.68 -1519 78 44 42
-74.722 -1172.08 -1542 0 0 0
-281.144 -1150.33 -1491 0 0 0
-272.698 -1129.95 -1465 75 45 43
-265.667 -1114.98 -1446 132 104 100
-259.275 -1102.33 -1430 204 185 172
-254.394 -1095.86 -1422 217 202 191
-250.261 -1092.48 -1418 240 222 205
-246.498 -1090.65 -1416 165 146 125
-242.403 -1087.28 -1412 140 123 94
-238.5 -1084.68 -1409 151 134 99
-235.282 -1085.17 -1410 152 135 96
-231.732 -1084.13 -1409 155 138 99
-228.352 -1083.86 -1409 160 145 111
-224.655 -1082.05 -1407 157 147 128
-221.127 -1081.02 -1406 232 227 213
-217.297 -1078.45 -1403 255 253 242
-213.788 -1077.43 -1402 255 254 250
-210.287 -1076.41 -1401 253 253 253
-206.94 -1076.17 -1401 254 252 251
-203.741 -1076.69 -1402 255 253 251
-200.683 -1077.99 -1404 255 254 249
-197.898 -1080.83 -1408 255 254 250
-195.234 -1084.44 -1413 255 252 245
-192.82 -1089.58 -1420 243 228 217
-190.375 -1094.72 -1427 194 156 135
-187.637 -1098.34 -1432 179 132 112
-184.749 -1101.19 -1436 154 107 92
-181.843 -1104.04 -1440 150 104 92
-178.92 -1106.89 -1444 166 125 113
-176.102 -1110.52 -1449 148 125 114
-172.786 -1111.08 -1450 156 132 119
-169.116 -1109.35 -1448 159 131 119
-165.343 -1106.85 -1445 134 96 85
-161.474 -1103.6 -1441 156 102 89
-157.516 -1099.58 -1436 185 125 109
-153.584 -1095.57 -1431 189 132 115
-149.361 -1089.27 -1423 219 174 155
-145.486 -1085.27 -1418 254 238 230
-142.037 -1084.34 -1417 254 250 244
-138.595 -1083.41 -1416 254 252 248
-135.541 -1085.54 -1419 255 252 253
-132.194 -1085.39 -1419 253 253 253
-128.668 -1083.7 -1417 251 253 253
-125.24 -1082.79 -1416 252 253 253
-121.819 -1081.88 -1415 253 253 253
-118.739 -1084.04 -1418 255 254 250
-115.239 -1082.37 -1416 226 210 195
-111.986 -1083 -1417 127 104 85
-108.5 -1081.34 -1415 135 106 85
-105.174 -1081.22 -1415 141 114 83
-101.776 -1080.34 -1414 155 133 106
-98.7327 -1083.27 -1418 180 159 135
-95.6042 -1085.45 -1421 216 192 175
-92.5924 -1089.16 -1426 241 226 211
-89.6208 -1093.64 -1432 232 217 200
-86.7424 -1099.65 -1440 229 213 198
-83.7117 -1104.13 -1446 223 206 194
-80.9869 -1113.19 -1458 93 65 56
-78.4195 -1125.32 -1474 74 43 39
-76.49 -1148.13 -1504 78 45 43
-74.1781 -1167.13 -1529 82 46 44
-286.621 -1161.77 -1499 70 46 45
-278.646 -1143.61 -1476 75 46 45
-270.413 -1123.92 -1451 73 47 45
-263.592 -1109.66 -1433 166 143 140
-257.949 -1100.06 -1421 221 203 187
-253.263 -1094.33 -1414 229 213 201
-249.851 -1094.03 -1414 236 219 202
-246.093 -1092.19 -1412 163 146 123
-242.347 -1090.36 -1410 150 135 104
-238.613 -1088.52 -1408 173 156 117
-235.393 -1089.01 -1409 169 153 109
-231.842 -1087.96 -1408 173 157 110
-228.298 -1086.92 -1407 176 162 122
-224.601 -1085.11 -1405 169 160 134
-221.074 -1084.07 -1404 224 218 198
-217.244 -1081.49 -1401 255 254 241
-213.735 -1080.47 -1400 254 252 248
-210.235 -1079.44 -1399 253 255 255
-206.741 -1078.43 -1398 254 253 253
-203.836 -1080.5 -1401 255 252 251
-201.062 -1083.34 -1405 255 253 248
-198.272 -1086.19 -1409 253 253 251
-195.879 -1091.35 -1416 254 251 245
-193.184 -1094.98 -1421 237 223 214
-190.466 -1098.6 -1426 187 147 128
-187.333 -1099.92 -1428 179 126 108
-184.451 -1102.78 -1432 154 104 88
-181.425 -1104.88 -1435 143 96 80
-178.883 -1110.05 -1442 174 132 111
-175.823 -1112.15 -1445 154 131 117
-172.75 -1114.26 -1448 156 133 119
-169.198 -1113.29 -1447 165 141 126
-165.423 -1110.78 -1444 166 136 123
-161.552 -1107.51 -1440 178 133 117
-157.481 -1102.71 -1434 181 132 114
-153.549 -1098.68 -1429 170 121 101
-149.537 -1093.89 -1423 193 153 132
-145.657 -1089.87 -1418 251 236 227
-142.204 -1088.94 -1417 254 250 245
-138.855 -1088.77 -1417 255 255 251
-135.317 -1087.07 -1415 254 253 253
-132.069 -1087.68 -1416 253 253 253
-128.818 -1088.3 -1417 252 253 253
-125.298 -1086.61 -1415 252 253 253
-121.962 -1086.47 -1415 253 253 253
-118.542 -1085.56 -1414 252 250 244
-115.048 -1083.89 -1412 211 202 190
-111.722 -1083.76 -1412 160 148 131
-108.397 -1083.63 -1412 204 189 165
-105.074 -1083.5 -1412 235 220 190
-101.679 -1082.61 -1411 251 240 210
-98.6391 -1085.56 -1415 252 241 214
-95.4465 -1086.98 -1417 251 235 218
-92.5057 -1091.48 -1423 246 231 220
-89.4749 -1095.21 -1428 239 222 209
-86.4216 -1098.94 -1433 232 216 202
-83.5196 -1104.97 -1441 239 228 217
-80.6366 -1111.78 -1450 118 93 81
-78.0318 -1123.18 -1465 79 47 44
-76.0193 -1144.56 -1493 82 48 47
-73.8762 -1165.94 -1521 84 48 47
-290.604 -1167.06 -1499 0 0 0
-284.858 -1158.15 -1488 69 45 44
-275.766 -1135.25 -1459 72 45 45
-267.937 -1117.03 -1436 79 55 53
-261.696 -1105.04 -1421 189 173 166
-256.44 -1096.96 -1411 227 211 194
-252.131 -1092.77 -1406 237 220 204
-248.557 -1091.69 -1405 243 225 208
-245.514 -1092.95 -1407 217 201 178
-241.775 -1091.11 -1405 198 179 147
-238.389 -1090.82 -1405 213 197 153
-235.172 -1091.31 -1406 149 134 86
-231.293 -1088.71 -1403 173 157 106
-227.594 -1086.88 -1401 186 172 130
-224.388 -1087.39 -1402 165 156 127
-220.548 -1084.8 -1399 216 209 187
-217.191 -1084.54 -1399 255 251 237
-213.531 -1082.73 -1397 255 254 250
-210.183 -1082.48 -1397 253 254 254
-206.69 -1081.45 -1396 252 251 251
-203.641 -1082.76 -1398 255 251 250
-200.584 -1084.07 -1400 255 252 247
-197.802 -1086.93 -1404 253 253 251
-195.142 -1090.57 -1409 254 251 246
-192.732 -1095.75 -1416 214 202 194
-189.756 -1097.85 -1419 170 131 115
-187.161 -1102.27 -1425 174 118 101
-184.411 -1105.91 -1430 152 99 79
-181.639 -1109.56 -1435 139 90 68
-178.846 -1113.21 -1440 174 136 111
-176.152 -1117.64 -1446 167 141 126
-172.835 -1118.21 -1447 166 143 128
-169.281 -1117.23 -1446 188 168 152
-165.503 -1114.72 -1443 195 176 161
-161.405 -1109.89 -1437 206 180 160
-157.447 -1105.84 -1432 220 189 169
-153.3 -1100.25 -1425 202 167 147
-149.502 -1096.98 -1421 164 133 110
-145.623 -1092.95 -1416 246 227 216
-142.271 -1092.78 -1416 255 247 241
-138.921 -1092.61 -1416 255 250 248
-135.381 -1090.91 -1414 253 253 253
-132.038 -1090.75 -1414 253 253 253
-128.697 -1090.6 -1414 253 253 253
-125.18 -1088.9 -1412 253 253 253
-121.674 -1087.22 -1410 253 253 253
-118.43 -1087.85 -1411 253 253 250
-114.938 -1086.17 -1409 250 249 246
-111.536 -1085.26 -1408 252 251 246
-108.217 -1085.13 -1408 254 251 236
-104.825 -1084.24 -1407 253 251 234
-101.51 -1084.11 -1407 251 250 226
-98.406 -1086.31 -1410 248 247 221
-95.3564 -1089.28 -1414 233 226 208
-92.354 -1093.02 -1419 233 218 201
-89.329 -1096.76 -1424 243 227 216
-86.2815 -1100.51 -1429 255 246 237
-83.2695 -1105.03 -1435 252 244 234
-80.2858 -1110.32 -1442 152 128 118
-77.4834 -1118.7 -1453 83 52 48
-75.3438 -1137.86 -1478 83 49 46
-73.1362 -1157.79 -1504 83 49 45
-70.1592 -1166.94 -1516 0 0 0
-288.819 -1163.42 -1488 0 0 0
-283.092 -1154.48 -1477 73 46 46
-274.016 -1131.48 -1448 74 48 46
-266.204 -1113.18 -1425 78 54 50
-260.167 -1101.93 -1411 208 192 175
-255.474 -1096.16 -1404 224 209 192
-251.536 -1093.51 -1401 238 222 208
-247.792 -1091.65 -1399 245 228 216
-244.934 -1093.69 -1402 250 231 214
-241.203 -1091.84 -1400 252 237 215
-237.824 -1091.55 -1400 255 246 218
-234.616 -1092.05 -1401 254 245 212
-230.745 -1089.43 -1398 248 241 199
-227.216 -1088.38 -1397 220 214 177
-223.855 -1088.11 -1397 192 185 158
-220.654 -1088.62 -1398 223 217 196
-216.829 -1086.02 -1395 255 252 239
-213.633 -1086.55 -1396 255 252 246
-210.133 -1085.51 -1395 254 254 252
-206.492 -1083.71 -1393 253 253 250
-203.446 -1085.02 -1395 255 251 245
-200.25 -1085.56 -1396 255 252 247
-197.756 -1089.98 -1402 255 252 250
-195.097 -1093.64 -1407 251 242 237
-192.416 -1097.29 -1412 183 164 152
-189.446 -1099.39 -1415 160 120 101
-186.726 -1103.05 -1420 159 112 94
-183.985 -1106.72 -1425 168 123 102
-181.475 -1111.94 -1432 184 143 116
-178.81 -1116.38 -1438 190 162 137
-176.24 -1121.6 -1445 185 163 144
-173.16 -1123.72 -1448 189 170 153
-169.364 -1121.19 -1445 212 197 181
-165.7 -1119.44 -1443 225 215 200
-161.259 -1112.26 -1434 231 216 200
-157.414 -1108.97 -1430 222 206 189
-153.481 -1104.91 -1425 228 211 195
-149.68 -1101.63 -1421 201 183 166
-146.002 -1099.13 -1418 239 216 204
-142.339 -1096.63 -1415 255 241 234
-138.889 -1095.69 -1414 255 249 248
-135.349 -1093.98 -1412 255 252 250
-132.101 -1094.59 -1413 253 253 251
-128.576 -1092.89 -1411 253 253 252
-125.239 -1092.74 -1411 253 253 253
-121.645 -1090.27 -1408 251 252 252
-118.234 -1089.35 -1407 255 253 251
-114.747 -1087.67 -1405 254 252 249
-111.43 -1087.53 -1405 255 253 249
-108.114 -1087.4 -1405 248 248 244
-104.874 -1088.05 -1406 233 230 219
-101.63 -1088.7 -1407 214 210 197
-98.3825 -1089.36 -1408 240 235 220
-95.3339 -1092.34 -1412 224 214 198
-92.2675 -1095.32 -1416 235 219 202
-89.2461 -1099.08 -1421 248 236 222
-86.0811 -1101.3 -1424 255 247 236
-83.0773 -1105.84 -1430 253 245 240
-80.046 -1110.38 -1436 194 173 162
-77.3078 -1119.57 -1448 89 59 53
-75.0244 -1136.49 -1470 85 50 46
-72.6869 -1154.18 -1493 89 51 46
-69.7786 -1164.15 -1506 0 0 0
-288.39 -1165.22 -1484 76 44 44
-281.707 -1152.32 -1468 75 45 44
-273.02 -1130.79 -1441 74 47 45
-265.59 -1113.99 -1420 104 80 76
-260.296 -1105.83 -1410 236 226 213
-255.235 -1098.46 -1401 240 229 215
-251.659 -1097.37 -1400 234 220 206
-247.913 -1095.5 -1398 218 201 188
-244.529 -1095.2 -1398 218 191 168
-240.631 -1092.56 -1395 239 213 184
-237.43 -1093.05 -1396 252 233 207
-234.06 -1092.77 -1396 255 245 221
-230.691 -1092.49 -1396 252 248 223
-226.837 -1089.87 -1393 254 251 226
-223.482 -1089.6 -1393 255 252 231
-220.128 -1089.33 -1393 255 251 234
-216.778 -1089.07 -1393 255 253 241
-213.276 -1088.03 -1392 255 254 245
-210.083 -1088.55 -1393 254 253 247
-206.294 -1085.96 -1390 254 253 249
-203.252 -1087.27 -1392 253 251 245
-199.915 -1087.03 -1392 254 252 245
-197.286 -1090.7 -1397 253 248 243
-194.358 -1092.81 -1400 241 231 223
-191.828 -1097.26 -1406 164 143 127
-189.136 -1100.93 -1411 163 128 109
-186.423 -1104.61 -1416 210 176 158
-183.946 -1109.84 -1423 215 184 164
-181.565 -1115.86 -1431 210 182 157
-179.272 -1122.67 -1440 208 188 169
-177.06 -1130.25 -1450 194 178 160
-174.085 -1133.16 -1454 179 165 149
-169.801 -1127.5 -1447 214 202 190
-165.667 -1122.62 -1441 223 214 200
-161.227 -1115.41 -1432 223 212 199
-157.051 -1109.77 -1425 227 216 203
-153.233 -1106.47 -1421 240 228 216
-149.542 -1103.96 -1418 249 234 222
-145.763 -1100.67 -1414 255 236 223
-142.206 -1098.94 -1412 255 243 234
-138.661 -1097.21 -1410 255 249 245
-135.222 -1096.27 -1409 255 251 248
-131.884 -1096.11 -1409 253 253 251
-128.273 -1093.62 -1406 253 253 252
-124.944 -1093.47 -1406 253 253 253
-121.357 -1090.99 -1403 251 253 253
-117.954 -1090.07 -1402 255 253 247
-114.638 -1089.93 -1402 254 253 248
-111.404 -1090.58 -1403 249 247 243
-108.088 -1090.45 -1403 239 240 233
-104.849 -1091.1 -1404 243 240 229
-101.606 -1091.75 -1405 242 237 224
-98.2894 -1091.63 -1405 251 245 230
-95.2443 -1094.62 -1409 238 230 216
-92.1161 -1096.84 -1412 241 227 211
-88.9746 -1099.07 -1415 245 234 219
-85.9411 -1102.85 -1420 248 238 225
-82.885 -1106.63 -1425 253 246 240
-79.862 -1111.19 -1431 232 213 202
-76.9719 -1118.09 -1440 100 74 67
-74.449 -1131.2 -1457 86 55 50
-71.9443 -1145.86 -1476 92 53 48
-69.351 -1160.53 -1495 0 0 0
-287.379 -1164.65 -1477 0 0 0
-280.127 -1149.33 -1458 74 43 44
-271.834 -1129.29 -1433 74 45 45
-264.976 -1114.78 -1415 143 122 117
-259.687 -1106.58 -1405 244 237 231
-254.997 -1100.76 -1398 251 241 232
-251.424 -1099.66 -1397 236 222 210
-247.325 -1096.21 -1393 214 194 178
-243.95 -1095.91 -1393 163 134 105
-239.886 -1092.47 -1389 199 167 132
-236.866 -1093.76 -1391 222 194 161
-233.335 -1092.69 -1390 246 225 197
-229.977 -1092.4 -1390 251 242 226
-226.459 -1091.34 -1389 255 249 234
-222.948 -1090.29 -1388 254 249 234
-219.603 -1090.02 -1388 252 247 232
-216.26 -1089.75 -1388 255 252 241
-213.226 -1091.07 -1390 255 252 241
-210.034 -1091.59 -1391 254 251 243
-206.542 -1090.56 -1390 253 252 246
-203.496 -1091.88 -1392 243 246 243
-200.299 -1092.42 -1393 245 238 226
-197.524 -1095.32 -1397 241 230 219
-194.592 -1097.43 -1400 227 213 203
-192.195 -1102.69 -1407 168 148 134
-188.961 -1103.24 -1408 210 185 172
-186.251 -1106.93 -1413 226 204 190
-183.779 -1112.19 -1420 233 211 197
-181.275 -1117.45 -1427 235 215 200
-179.487 -1127.42 -1440 223 205 194
-176.906 -1132.68 -1447 196 179 166
-173.934 -1135.6 -1451 149 133 121
-170.357 -1134.61 -1450 216 203 193
-165.866 -1127.37 -1441 225 216 202
-161.081 -1117.79 -1429 230 220 206
-157.018 -1112.9 -1423 238 227 213
-153.416 -1111.15 -1421 247 232 221
-149.826 -1109.41 -1419 251 236 225
-145.834 -1104.54 -1413 250 231 220
-142.175 -1102.02 -1410 253 237 228
-138.63 -1100.29 -1408 255 247 243
-135 -1097.78 -1405 255 250 248
-131.573 -1096.84 -1404 254 254 250
-128.061 -1095.12 -1402 254 254 250
-124.826 -1095.75 -1403 253 253 251
-121.242 -1093.26 -1400 251 253 253
-117.842 -1092.34 -1399 253 254 245
-114.53 -1092.2 -1399 253 253 245
-111.298 -1092.84 -1400 255 254 248
-108.14 -1094.27 -1402 252 253 246
-104.825 -1094.15 -1402 255 252 239
-101.727 -1096.36 -1405 250 245 231
-98.4766 -1097.02 -1406 243 237 223
-95.2225 -1097.69 -1407 238 231 219
-91.8993 -1097.58 -1407 241 231 217
-88.9548 -1102.15 -1413 241 231 218
-85.7406 -1103.61 -1415 234 224 212
-82.7508 -1108.18 -1421 245 237 230
-79.6777 -1111.99 -1426 242 227 218
-76.7425 -1118.13 -1434 112 88 82
-74.1284 -1129.74 -1449 85 56 50
-71.4932 -1142.12 -1465 95 59 53
-68.9691 -1157.63 -1485 100 57 46
-285.976 -1162.46 -1468 77 43 43
-278.546 -1146.28 -1448 77 46 45
-271.216 -1130.12 -1428 68 39 38
-264.924 -1117.92 -1413 184 165 160
-260.003 -1111.27 -1405 255 239 235
-255.308 -1105.42 -1398 248 232 223
-251.73 -1104.32 -1397 234 216 204
-247.448 -1100.07 -1392 222 202 185
-243.72 -1098.19 -1390 196 175 147
-239.659 -1094.73 -1386 202 176 150
-236.301 -1094.44 -1386 217 191 165
-233.114 -1094.95 -1387 233 210 181
-229.925 -1095.45 -1388 236 221 201
-226.244 -1093.6 -1386 241 234 217
-223.219 -1094.9 -1388 232 223 206
-219.552 -1093.06 -1386 225 219 202
-216.366 -1093.58 -1387 255 251 238
-213.177 -1094.11 -1388 255 252 241
-210.289 -1096.22 -1391 255 253 245
-206.644 -1094.39 -1389 254 252 248
-203.596 -1095.71 -1391 249 248 244
-200.11 -1094.68 -1390 247 237 222
-197.196 -1096.8 -1393 239 226 211
-193.992 -1097.35 -1394 235 220 205
-191.47 -1101.84 -1400 230 215 202
-188.92 -1106.33 -1406 224 208 200
-186.212 -1110.04 -1411 227 210 200
-183.871 -1116.11 -1419 239 222 210
-180.985 -1119.03 -1423 235 218 208
-179.579 -1131.4 -1439 223 206 198
-177.854 -1142.19 -1453 184 168 158
-174.504 -1142.76 -1454 106 91 80
-170.327 -1137.84 -1448 207 194 185
-166.066 -1132.13 -1441 225 214 203
-160.937 -1120.15 -1426 242 229 218
-156.876 -1115.25 -1420 252 239 228
-153.169 -1112.71 -1417 255 247 234
-149.689 -1111.74 -1416 249 236 227
-145.803 -1107.63 -1411 227 211 200
-142.144 -1105.11 -1408 245 229 219
-138.698 -1104.15 -1407 255 245 240
-135.066 -1101.63 -1404 255 250 247
-131.543 -1099.9 -1402 255 253 249
-128.123 -1098.96 -1401 255 253 250
-124.798 -1098.81 -1401 254 254 251
-121.128 -1095.53 -1397 253 253 251
-117.73 -1094.6 -1396 252 253 247
