ply
format ascii 1.0
comment Created by Open3D
element vertex 1337
property double x
property double y
property double z
property uchar red
property uchar green
property uchar blue
end_header
-135.729 -459.7 -1410 183 176 185
-132.714 -459.313 -1409 182 175 184
-129.611 -458.601 -1407 183 176 185
-126.698 -458.543 -1407 184 177 186
-123.698 -458.16 -1406 183 176 185
-120.875 -458.431 -1407 181 174 184
-118.132 -459.028 -1409 183 174 186
-115.219 -458.975 -1409 183 174 186
-112.307 -458.924 -1409 182 173 185
-109.319 -458.548 -1408 183 174 184
-106.486 -458.825 -1409 181 173 182
-103.65 -459.103 -1410 172 164 172
-100.883 -459.708 -1412 164 155 165
-98.1078 -460.314 -1414 150 141 151
-95.3254 -460.921 -1416 133 124 134
-92.6009 -461.855 -1419 119 110 120
-89.8017 -462.465 -1421 117 108 118
-86.9949 -463.076 -1423 125 116 128
-84.0035 -462.712 -1422 135 126 137
-81.0739 -462.674 -1422 146 137 149
-78.0351 -461.988 -1420 151 142 154
-75.111 -461.953 -1420 158 148 158
-72.2891 -462.57 -1422 161 151 160
-69.4597 -463.189 -1424 164 153 162
-66.7161 -464.459 -1428 168 157 166
-63.9119 -465.405 -1431 164 153 162
-61.2663 -467.654 -1438 161 150 159
-58.5114 -469.253 -1443 150 139 147
-55.7365 -470.853 -1448 143 132 139
-52.8685 -471.804 -1451 154 143 150
-50.0231 -473.081 -1455 158 146 153
-47 -472.734 -1454 165 153 158
-43.9815 -472.388 -1453 168 156 162
-41.0237 -472.694 -1454 168 156 162
-37.9316 -471.376 -1450 99 87 90
-349.587 -465.079 -1392 157 146 150
-352.27 -472.596 -1415 167 158 170
-351.155 -475.102 -1423 166 158 168
-347.807 -474.603 -1422 152 144 152
-346.649 -477.109 -1430 142 135 143
-341.134 -473.611 -1420 143 136 144
-335.666 -470.117 -1410 147 140 148
-329.773 -465.96 -1398 154 146 154
-325.104 -463.474 -1391 163 156 164
-321.857 -462.988 -1390 166 159 167
-318.158 -461.839 -1387 165 158 166
-315.158 -461.69 -1387 165 158 166
-311.935 -461.21 -1386 163 156 164
-308.942 -461.065 -1386 161 154 162
-305.51 -460.255 -1384 159 151 159
-302.309 -459.781 -1383 152 143 153
-298.465 -458.31 -1379 147 138 148
-295.07 -457.507 -1377 151 142 152
-291.261 -456.041 -1373 156 149 157
-288.103 -455.574 -1372 165 158 166
-284.536 -454.444 -1369 172 165 173
-281.807 -454.643 -1370 175 168 176
-278.465 -453.849 -1368 178 171 179
-275.739 -454.052 -1369 179 172 180
-273.011 -454.256 -1370 178 171 179
-270.281 -454.46 -1371 177 170 178
-267.745 -454.998 -1373 175 168 176
-265.009 -455.205 -1374 172 165 173
-262.272 -455.414 -1375 170 163 171
-259.532 -455.624 -1376 169 162 169
-256.604 -455.504 -1376 169 164 172
-253.679 -455.386 -1376 167 162 170
-250.938 -455.599 -1377 166 159 167
-248.015 -455.483 -1377 171 164 172
-245.094 -455.369 -1377 176 169 177
-242.351 -455.587 -1378 176 169 177
-239.432 -455.475 -1378 175 168 175
-236.859 -456.026 -1380 172 165 171
-234.11 -456.247 -1381 173 166 174
-231.526 -456.8 -1383 176 169 177
-228.605 -456.694 -1383 173 166 174
-226.176 -457.579 -1386 161 154 162
-223.253 -457.475 -1386 153 146 155
-220.49 -457.703 -1387 145 138 147
-217.883 -458.262 -1389 142 135 143
-215.269 -458.821 -1391 145 138 146
-212.801 -459.712 -1394 151 144 153
-210.322 -460.604 -1397 159 152 161
-207.684 -461.167 -1399 160 153 162
-205.186 -462.06 -1402 157 150 159
-203.11 -463.944 -1408 154 147 157
-200.726 -465.169 -1412 156 147 159
-198.607 -467.053 -1418 156 148 156
-196.327 -468.609 -1423 152 145 152
-194.027 -470.166 -1428 146 139 145
-191.575 -471.394 -1432 128 120 127
-189.108 -472.623 -1436 104 96 103
-186.236 -472.866 -1437 123 116 124
-183.235 -472.781 -1437 134 127 136
-180.235 -472.697 -1437 138 131 139
-176.99 -471.958 -1435 139 132 141
-173.755 -471.219 -1433 146 139 148
-170.053 -469.168 -1427 157 150 159
-166.612 -467.776 -1423 170 163 174
-163.189 -466.385 -1419 175 168 179
-160.01 -465.654 -1417 178 171 182
-156.841 -464.924 -1415 182 175 186
-153.899 -464.853 -1415 180 173 184
-150.851 -464.455 -1414 178 171 182
-147.914 -464.386 -1414 178 171 182
-144.773 -463.663 -1412 179 172 182
-141.741 -463.269 -1411 178 171 180
-138.715 -462.876 -1410 179 172 182
-135.695 -462.485 -1409 182 175 184
-132.68 -462.096 -1408 182 175 184
-129.578 -461.379 -1406 184 177 186
-126.575 -460.993 -1405 187 180 189
-123.578 -460.608 -1404 185 178 187
-120.758 -460.88 -1405 180 173 182
-118.018 -461.481 -1407 180 173 184
-115.272 -462.084 -1409 179 171 183
-112.518 -462.688 -1411 173 164 176
-109.601 -462.637 -1411 168 159 169
-106.837 -463.244 -1413 161 152 161
-103.918 -463.196 -1413 147 139 147
-101.071 -463.477 -1414 136 127 137
-98.1524 -463.431 -1414 126 117 127
-95.3014 -463.715 -1415 120 111 121
-92.5777 -464.655 -1418 120 111 121
-89.7159 -464.941 -1419 131 122 132
-86.9121 -465.556 -1421 140 131 141
-83.9825 -465.518 -1421 147 138 148
-81.0536 -465.48 -1421 158 150 160
-78.0704 -465.116 -1420 161 152 164
-75.1979 -465.409 -1421 163 155 164
-72.4236 -466.358 -1424 163 155 163
-69.5888 -466.981 -1426 164 153 162
-66.8398 -468.259 -1430 167 156 165
-64.0302 -469.212 -1433 161 150 159
-61.422 -471.803 -1441 154 143 152
-58.7002 -473.74 -1447 146 135 143
-55.8002 -474.369 -1449 148 137 144
-52.9289 -475.326 -1452 161 149 156
-50.0113 -475.957 -1454 162 150 156
-46.9889 -475.608 -1453 166 154 159
-43.9408 -474.933 -1451 168 156 161
-41.0141 -475.568 -1453 156 144 149
-37.9749 -474.895 -1451 93 83 85
-346.737 -464.184 -1380 144 134 136
-351.939 -475.116 -1413 169 160 172
-351.075 -477.974 -1422 166 158 168
-348.706 -478.816 -1425 156 148 156
-344.63 -477.307 -1421 143 136 144
-340.334 -475.466 -1416 141 134 142
-335.11 -472.284 -1407 142 134 142
-329.693 -468.77 -1397 145 137 145
-325.491 -466.938 -1392 158 150 158
-322.009 -466.114 -1390 163 156 164
-318.538 -465.292 -1388 163 156 164
-315.988 -465.812 -1390 162 155 163
-312.532 -464.993 -1388 164 157 165
-309.533 -464.846 -1388 164 156 164
-305.875 -463.697 -1385 164 156 164
-302.451 -462.884 -1383 160 152 160
-298.822 -461.738 -1380 150 142 151
-295.423 -460.929 -1378 150 141 151
-291.61 -459.453 -1374 153 146 154
-288.448 -458.982 -1373 162 155 163
-284.877 -457.844 -1370 170 163 171
-281.733 -457.377 -1369 175 168 176
-278.595 -456.911 -1368 176 169 177
-275.868 -457.115 -1369 176 169 177
-273.338 -457.654 -1371 177 170 178
-270.408 -457.526 -1371 176 169 177
-267.87 -458.067 -1373 176 169 177
-265.326 -458.61 -1375 174 167 175
-262.585 -458.82 -1376 172 165 173
-259.465 -458.364 -1375 172 165 172
-256.911 -458.91 -1377 170 165 172
-253.797 -458.457 -1376 167 162 170
-250.69 -458.006 -1375 167 160 168
-247.77 -457.889 -1375 169 162 170
-245.03 -458.107 -1376 170 163 171
-242.288 -458.326 -1377 174 165 175
-239.37 -458.214 -1377 174 165 174
-236.797 -458.768 -1379 173 165 173
-234.388 -459.656 -1382 173 166 174
-231.801 -460.213 -1384 173 166 174
-229.042 -460.438 -1385 169 163 171
-226.444 -460.997 -1387 168 161 169
-223.356 -460.56 -1386 163 156 164
-220.593 -460.789 -1387 155 148 156
-217.827 -461.019 -1388 150 143 151
-215.213 -461.583 -1390 147 140 148
-212.746 -462.479 -1393 147 140 149
-210.419 -463.709 -1397 152 145 154
-207.928 -464.607 -1400 155 148 157
-205.427 -465.507 -1403 157 150 159
-203.203 -467.071 -1408 155 147 157
-200.676 -467.973 -1411 153 144 156
-198.558 -469.87 -1417 153 145 153
-196.417 -471.768 -1423 152 144 152
-194.117 -473.335 -1428 144 137 143
-191.663 -474.571 -1432 127 119 125
-189.327 -476.14 -1437 105 97 103
-186.322 -476.053 -1437 125 118 126
-183.447 -476.299 -1438 137 130 138
-180.444 -476.214 -1438 139 132 140
-177.195 -475.469 -1436 134 127 136
-173.835 -474.395 -1433 140 133 142
-170.251 -472.66 -1428 150 143 152
-166.806 -471.259 -1424 163 156 166
-163.264 -469.528 -1419 172 165 176
-160.197 -469.123 -1418 177 170 181
-156.802 -467.726 -1414 179 172 183
-153.861 -467.655 -1414 180 172 184
-150.707 -466.923 -1412 180 172 185
-147.668 -466.523 -1411 180 173 184
-144.531 -465.795 -1409 181 174 185
-141.605 -465.729 -1409 179 172 181
-138.582 -465.334 -1408 179 172 181
-135.661 -465.271 -1408 182 175 184
-132.646 -464.879 -1407 182 175 184
-129.637 -464.488 -1406 181 174 183
-126.633 -464.099 -1405 183 175 185
-123.635 -463.711 -1404 180 173 182
-120.813 -463.985 -1405 172 165 174
-118.072 -464.59 -1407 171 164 174
-115.406 -465.527 -1410 171 163 173
-112.569 -465.805 -1411 157 149 159
-109.651 -465.754 -1411 144 135 145
-106.886 -466.364 -1413 134 125 135
-104.039 -466.646 -1414 125 116 126
-101.046 -466.269 -1413 119 111 120
-98.1973 -466.553 -1414 121 113 122
-95.345 -466.839 -1415 126 119 128
-92.4894 -467.125 -1416 131 122 132
-89.6305 -467.413 -1417 144 135 145
-86.8294 -468.033 -1419 156 147 157
-83.9026 -467.994 -1419 162 154 163
-81.0336 -468.286 -1420 168 160 169
-78.2161 -468.909 -1422 169 161 171
-75.2852 -468.873 -1422 168 161 169
-72.5075 -469.829 -1425 166 158 166
-69.7182 -470.785 -1428 166 155 164
-67.0106 -472.402 -1433 166 155 163
-64.1936 -473.361 -1436 161 150 158
-61.578 -475.969 -1444 152 141 150
-58.8082 -477.59 -1449 146 134 143
-55.9798 -478.882 -1453 153 141 148
-53.0624 -479.516 -1455 164 152 159
-50.103 -479.822 -1456 164 152 159
-47.0751 -479.47 -1455 168 156 161
-43.9911 -478.461 -1452 172 160 165
-40.9763 -478.112 -1451 138 126 131
-37.7827 -475.458 -1443 89 79 79
-348.16 -468.995 -1385 130 120 120
-353.104 -479.661 -1417 170 161 172
-351.489 -481.523 -1423 166 157 168
-348.628 -481.694 -1424 162 152 161
-346.007 -482.204 -1426 147 140 147
-341.939 -480.687 -1422 140 133 140
-336.223 -476.807 -1411 142 134 142
-330.558 -472.932 -1400 143 135 143
-325.411 -469.736 -1391 153 145 153
-321.698 -468.568 -1388 161 154 162
-318.689 -468.416 -1388 166 159 167
-315.911 -468.602 -1389 165 158 166
-313.131 -468.79 -1390 167 160 168
-309.68 -467.967 -1388 168 160 168
-306.02 -466.809 -1385 166 158 166
-302.375 -465.654 -1382 164 156 164
-299.18 -465.174 -1381 159 151 160
-295.777 -464.36 -1379 153 144 154
-292.173 -463.21 -1376 151 144 152
-288.794 -462.399 -1374 157 150 158
-285.635 -461.927 -1373 165 158 166
-282.483 -461.456 -1372 170 163 171
-278.931 -460.314 -1369 172 165 173
-275.998 -460.183 -1369 173 166 174
-273.467 -460.725 -1371 176 169 177
-270.535 -460.596 -1371 177 170 178
-267.996 -461.141 -1373 176 168 176
-265.257 -461.351 -1374 176 169 177
-262.708 -461.898 -1376 179 172 180
-259.586 -461.439 -1375 177 170 176
-256.658 -461.318 -1375 171 165 173
-253.732 -461.197 -1375 167 162 170
-250.443 -460.408 -1373 169 162 170
-247.706 -460.626 -1374 171 164 172
-244.967 -460.845 -1375 171 164 172
-242.225 -461.066 -1376 172 163 173
-239.482 -461.288 -1377 171 162 171
-237.08 -462.181 -1380 170 162 170
-234.328 -462.405 -1381 171 163 171
-231.574 -462.63 -1382 172 164 172
-228.653 -462.522 -1382 170 164 172
-226.06 -463.085 -1384 170 163 171
-223.138 -462.98 -1384 166 159 167
-220.377 -463.21 -1385 161 154 162
-217.928 -464.111 -1388 161 154 162
-215.469 -465.012 -1391 157 150 158
-212.998 -465.915 -1394 152 145 154
-210.517 -466.818 -1397 152 145 153
-208.322 -468.391 -1402 154 147 155
-205.816 -469.296 -1405 155 148 157
-203.442 -470.537 -1409 154 146 156
-201.054 -471.778 -1413 152 143 155
-198.931 -473.688 -1419 151 143 151
-196.647 -475.264 -1424 149 142 149
-194.479 -477.175 -1430 143 136 142
-191.752 -477.753 -1432 129 121 127
-189.283 -478.998 -1436 106 98 104
-186.538 -479.578 -1438 125 118 126
-183.66 -479.825 -1439 135 129 137
-180.778 -480.074 -1440 134 127 135
-177.524 -479.323 -1438 131 124 133
-174.159 -478.242 -1435 136 129 138
-170.688 -476.828 -1431 146 139 148
-166.883 -474.418 -1424 159 152 161
-163.455 -473.008 -1420 166 159 169
-160.271 -472.267 -1418 169 162 173
-156.875 -470.861 -1414 171 164 176
-153.932 -470.789 -1414 176 168 180
-150.777 -470.052 -1412 179 171 185
-147.841 -469.983 -1412 180 172 184
-144.598 -468.917 -1409 179 172 183
-141.57 -468.518 -1408 178 172 181
-138.646 -468.453 -1408 178 172 181
-135.627 -468.056 -1407 180 173 183
-132.613 -467.661 -1406 181 174 184
-129.697 -467.601 -1406 179 172 181
-126.782 -467.541 -1406 178 171 180
-123.78 -467.151 -1405 173 166 176
-120.955 -467.427 -1406 163 156 166
-118.295 -468.368 -1409 157 150 159
-115.46 -468.647 -1410 149 142 151
-112.861 -469.923 -1414 137 130 139
-109.935 -469.872 -1414 128 119 129
-107.162 -470.486 -1416 121 112 122
-104.234 -470.437 -1416 120 111 121
-101.307 -470.39 -1416 129 122 131
-98.3119 -470.011 -1415 136 129 138
-95.4563 -470.299 -1416 142 135 144
-92.532 -470.255 -1416 145 136 146
-89.7351 -470.877 -1418 154 145 155
-86.8694 -471.169 -1419 165 156 166
-83.9412 -471.129 -1419 172 164 173
-81.1279 -471.755 -1421 172 165 173
-78.3071 -472.382 -1423 172 165 174
-75.4257 -472.679 -1424 175 167 176
-72.6427 -473.64 -1427 175 167 175
-69.7991 -474.271 -1429 172 161 170
-67.0882 -475.899 -1434 168 157 165
-64.3125 -477.196 -1438 163 152 159
-61.6916 -479.822 -1446 149 138 147
-58.957 -481.785 -1452 145 134 142
-56.0055 -482.09 -1453 157 145 152
-53.0503 -482.397 -1454 168 156 162
-50.0915 -482.705 -1455 171 159 165
-47.032 -482.019 -1453 171 159 164
-43.981 -481.334 -1451 175 163 168
-40.9951 -481.315 -1451 120 108 113
-37.6953 -477.316 -1439 87 77 77
-354.022 -483.888 -1420 165 156 166
-352.152 -485.421 -1425 165 156 167
-349.285 -485.593 -1426 166 155 164
-345.688 -484.745 -1424 155 148 154
-342.103 -483.898 -1422 142 134 141
-336.146 -479.652 -1410 142 134 142
-331.661 -477.451 -1404 144 136 144
-326.737 -474.573 -1396 150 142 150
-323.475 -474.077 -1395 157 150 157
-319.76 -472.903 -1392 163 156 163
-316.744 -472.751 -1392 165 158 165
-313.28 -471.921 -1390 167 160 168
-310.051 -471.432 -1389 168 160 168
-306.166 -469.927 -1385 166 158 166
-302.519 -468.763 -1382 164 156 164
-299.322 -468.281 -1381 165 157 165
-295.918 -467.46 -1379 162 153 163
-292.737 -466.981 -1378 153 146 153
-289.352 -466.164 -1376 155 148 156
-285.979 -465.349 -1374 164 157 165
-282.617 -464.536 -1372 167 160 168
-279.471 -464.064 -1371 170 163 171
-276.532 -463.932 -1371 173 166 174
-273.597 -463.801 -1371 174 167 175
-270.663 -463.671 -1371 176 168 176
-268.123 -464.219 -1373 177 169 177
-265.576 -464.768 -1375 177 170 178
-262.833 -464.981 -1376 179 172 180
-259.898 -464.857 -1376 177 170 176
-256.779 -464.396 -1375 172 166 173
-253.482 -463.6 -1373 170 165 173
-250.379 -463.143 -1372 170 163 171
-247.823 -463.7 -1374 170 163 171
-245.082 -463.921 -1375 171 164 172
-242.34 -464.143 -1376 170 161 171
-239.769 -464.703 -1378 170 162 171
-237.192 -465.264 -1380 171 163 171
-234.439 -465.49 -1381 172 164 171
-231.683 -465.717 -1382 171 163 171
-228.76 -465.608 -1382 169 162 170
-226.166 -466.174 -1384 167 160 168
-223.243 -466.068 -1384 165 158 166
-220.481 -466.3 -1385 164 157 165
-218.031 -467.207 -1388 160 153 161
-215.57 -468.114 -1391 155 148 156
-213.098 -469.023 -1394 156 149 157
-210.616 -469.932 -1397 155 148 156
-208.272 -471.179 -1401 154 147 155
-205.912 -472.427 -1405 153 146 155
-203.682 -474.011 -1410 152 145 155
-201.006 -474.589 -1412 153 144 156
-199.024 -476.847 -1419 151 143 150
-196.877 -478.77 -1425 148 141 147
-194.434 -480.022 -1429 143 136 142
-191.842 -480.939 -1432 131 123 129
-189.503 -482.528 -1437 106 98 104
-186.625 -482.776 -1438 125 118 126
-183.873 -483.361 -1440 135 128 136
-180.737 -482.939 -1439 133 126 134
-177.607 -482.52 -1438 130 123 132
-174.361 -481.766 -1436 135 128 137
-170.767 -480.008 -1431 146 139 148
-167.196 -478.252 -1426 159 152 161
-163.647 -476.498 -1421 164 157 167
-160.459 -475.751 -1419 166 159 170
-157.059 -474.336 -1415 169 161 174
-153.895 -473.593 -1413 173 165 179
-150.847 -473.186 -1412 178 170 184
-147.7 -472.446 -1410 178 171 183
-144.563 -471.708 -1408 178 171 182
-141.536 -471.306 -1407 177 172 181
-138.612 -471.241 -1407 180 174 184
-135.69 -471.177 -1407 180 173 184
-132.675 -470.779 -1406 177 170 181
-129.757 -470.718 -1406 171 164 175
-126.751 -470.323 -1405 165 158 169
-123.837 -470.265 -1405 159 152 163
-121.011 -470.542 -1406 153 146 157
-118.266 -471.156 -1408 141 134 143
-115.431 -471.436 -1409 132 125 135
-112.753 -472.387 -1412 129 122 132
-109.986 -473.004 -1414 130 122 130
-107.136 -473.288 -1415 129 121 130
-104.283 -473.573 -1416 132 123 133
-101.354 -473.525 -1416 143 135 144
-98.4271 -473.478 -1416 149 142 151
-95.5006 -473.433 -1416 153 146 155
-92.6403 -473.724 -1417 158 149 159
-89.7767 -474.016 -1418 163 154 164
-86.9096 -474.309 -1419 167 158 168
-84.0393 -474.603 -1420 172 164 173
-81.1084 -474.565 -1420 172 164 173
-78.3434 -475.53 -1423 174 167 176
-75.5137 -476.163 -1425 177 169 178
-72.6764 -476.797 -1427 177 169 177
-69.9292 -478.1 -1431 174 163 172
-67.2128 -479.739 -1436 167 156 164
-64.566 -482.046 -1443 154 143 150
-61.7628 -483.353 -1447 140 129 138
-58.9842 -484.996 -1452 146 134 143
-56.0699 -485.637 -1454 160 148 155
-53.1844 -486.613 -1457 167 155 160
-50.2525 -487.257 -1459 171 159 164
-47.1833 -486.567 -1457 173 161 166
-44.0923 -485.544 -1454 166 154 159
-41.0988 -485.524 -1454 103 91 96
-352.323 -488.648 -1425 167 158 169
-350.189 -489.849 -1429 166 155 165
-346.826 -489.337 -1428 156 147 154
-343.471 -488.827 -1427 140 133 139
-338.931 -486.607 -1421 141 133 141
-332.057 -480.966 -1405 144 136 144
-328.066 -479.437 -1401 149 141 149
-323.631 -477.227 -1395 152 145 151
-320.374 -476.729 -1394 161 154 160
-316.896 -475.892 -1392 166 159 165
-313.656 -475.398 -1391 167 160 168
-309.753 -473.881 -1387 167 160 168
-306.091 -472.707 -1384 168 160 168
-302.665 -471.877 -1382 167 159 167
-299.466 -471.391 -1381 165 157 166
-296.059 -470.565 -1379 163 154 164
-292.877 -470.082 -1378 158 152 158
-289.491 -469.26 -1376 155 148 154
-286.324 -468.781 -1375 157 150 158
-282.959 -467.962 -1373 160 153 161
-280.012 -467.827 -1373 166 159 167
-276.664 -467.012 -1371 172 165 173
-273.727 -466.88 -1371 172 165 173
-270.792 -466.75 -1371 173 165 173
-268.055 -466.961 -1372 174 166 174
-265.51 -467.514 -1374 172 165 173
-262.767 -467.728 -1375 172 165 173
-259.833 -467.603 -1375 173 166 172
-256.715 -467.14 -1374 171 165 172
-253.603 -466.678 -1373 172 167 175
-250.681 -466.557 -1373 171 164 172
-247.76 -466.438 -1373 170 163 171
-245.02 -466.66 -1374 169 162 170
-242.631 -467.563 -1377 168 161 169
-239.883 -467.787 -1378 169 161 169
-237.304 -468.352 -1380 170 162 168
-234.38 -468.24 -1380 168 160 168
-231.625 -468.469 -1381 166 159 167
-228.703 -468.359 -1381 166 159 167
-225.946 -468.59 -1382 168 161 169
-223.026 -468.483 -1382 165 158 166
-220.585 -469.395 -1385 164 157 165
-218.291 -470.646 -1389 161 154 162
-215.672 -471.221 -1391 156 149 157
-213.352 -472.474 -1395 160 153 161
-210.716 -473.05 -1397 154 147 155
-208.37 -474.305 -1401 150 143 151
-205.863 -475.223 -1404 152 145 154
-203.489 -476.48 -1408 153 145 155
-201.101 -477.737 -1412 151 142 154
-199.118 -480.011 -1419 150 142 149
-196.832 -481.608 -1424 149 141 147
-194.526 -483.206 -1429 142 135 141
-192.067 -484.468 -1433 129 121 127
-189.592 -485.729 -1437 103 95 101
-186.843 -486.316 -1439 124 117 124
-183.96 -486.567 -1440 136 129 137
-180.948 -486.481 -1440 135 128 136
-177.814 -486.058 -1439 133 126 135
-174.443 -484.962 -1436 137 130 139
-170.967 -483.529 -1432 145 138 147
-167.509 -482.099 -1428 158 151 160
-163.954 -480.333 -1423 164 157 166
-160.647 -479.244 -1420 166 159 170
-157.244 -477.819 -1416 168 160 173
-154.076 -477.071 -1414 172 164 178
-150.811 -475.987 -1411 175 168 180
-147.665 -475.242 -1409 175 168 179
-144.528 -474.499 -1407 176 169 179
-141.501 -474.094 -1406 173 168 178
-138.677 -474.366 -1407 171 165 176
-135.657 -473.964 -1406 171 164 175
-132.737 -473.901 -1406 169 162 173
-129.818 -473.839 -1406 165 158 169
-126.9 -473.779 -1406 154 147 158
-124.072 -474.057 -1407 143 136 147
-121.068 -473.662 -1406 139 132 143
-118.405 -474.617 -1409 134 127 138
-115.485 -474.562 -1409 131 124 134
-112.806 -475.519 -1412 134 127 137
-110.038 -476.14 -1414 141 133 141
-107.262 -476.762 -1416 146 138 146
-104.258 -476.376 -1415 147 139 148
-101.402 -476.665 -1416 155 147 155
-98.4035 -476.281 -1415 162 154 163
-95.5452 -476.572 -1416 162 153 163
-92.6835 -476.865 -1417 168 159 169
-89.8185 -477.158 -1418 170 161 171
-86.9502 -477.453 -1419 170 161 171
-84.0193 -477.413 -1419 172 163 173
-81.2034 -478.048 -1421 172 163 173
-78.435 -479.019 -1424 173 166 175
-75.5489 -479.32 -1425 172 165 173
-72.8122 -480.63 -1429 168 161 169
-70.1084 -482.279 -1434 166 158 164
-67.3846 -483.928 -1439 161 151 158
-64.6408 -485.578 -1444 149 138 145
-61.877 -487.23 -1449 142 131 140
-59.0117 -488.211 -1452 153 142 150
-56.0961 -488.856 -1454 164 152 159
-53.2092 -489.839 -1457 169 157 162
-50.207 -489.815 -1457 173 161 166
-47.1728 -489.456 -1456 172 160 165
-44.1128 -488.762 -1454 153 141 146
-40.8635 -485.717 -1445 93 81 86
-353.237 -492.914 -1428 166 155 165
-350.359 -493.087 -1429 166 155 165
-347.481 -493.262 -1430 158 149 154
-343.398 -491.714 -1426 146 136 139
-338.858 -489.479 -1420 140 132 139
-334.583 -487.592 -1415 144 136 143
-329.631 -484.674 -1407 147 139 147
-325.412 -482.792 -1402 151 143 149
-321.219 -480.913 -1397 160 152 159
-317.278 -479.381 -1393 164 156 163
-313.808 -478.54 -1391 165 158 166
-309.68 -476.668 -1386 168 161 169
-306.24 -475.831 -1384 170 163 171
-303.03 -475.34 -1383 170 161 171
-300.044 -475.193 -1383 167 159 168
-296.632 -474.362 -1381 163 156 162
-293.231 -473.532 -1379 160 155 162
-289.841 -472.704 -1377 154 148 156
-286.879 -472.565 -1377 151 144 152
-283.301 -471.397 -1374 152 145 153
-280.147 -470.918 -1373 159 152 160
-277 -470.441 -1372 165 158 166
-274.258 -470.65 -1373 167 160 168
-271.318 -470.519 -1373 172 164 172
-268.38 -470.389 -1373 170 163 171
-265.637 -470.602 -1374 167 159 167
-262.893 -470.817 -1375 164 157 165
-259.958 -470.691 -1375 166 159 167
-256.838 -470.225 -1374 171 164 172
-253.909 -470.102 -1374 173 167 175
-250.983 -469.981 -1374 172 165 173
-248.059 -469.861 -1374 171 164 172
-245.316 -470.084 -1375 172 165 173
-242.747 -470.651 -1377 171 164 173
-239.997 -470.876 -1378 168 161 170
-237.418 -471.445 -1380 166 158 165
-234.662 -471.674 -1381 167 159 167
-231.736 -471.562 -1381 168 160 168
-228.812 -471.452 -1381 168 160 168
-226.054 -471.684 -1382 167 160 169
-223.294 -471.918 -1383 166 159 168
-220.85 -472.835 -1386 163 156 164
-218.395 -473.753 -1389 160 153 161
-215.93 -474.672 -1392 161 154 162
-213.454 -475.593 -1395 159 152 161
-210.816 -476.173 -1397 152 145 154
-208.172 -476.755 -1399 149 142 150
-205.961 -478.36 -1404 150 143 152
-203.586 -479.625 -1408 153 146 155
-201.196 -480.89 -1412 153 144 156
-199.072 -482.838 -1418 151 143 150
-196.925 -484.787 -1424 148 141 147
-194.482 -486.055 -1428 144 137 143
-192.158 -487.665 -1433 130 123 129
-189.682 -488.935 -1437 102 94 100
-186.932 -489.526 -1439 122 115 121
-184.047 -489.778 -1440 136 129 136
-180.908 -489.351 -1439 138 131 139
-177.651 -488.586 -1437 135 128 137
-174.161 -487.142 -1433 135 129 138
-170.809 -486.04 -1430 140 134 143
-167.354 -484.601 -1426 150 144 153
-164.031 -483.503 -1423 158 152 161
-160.61 -482.066 -1419 162 155 166
-157.429 -481.312 -1417 166 158 171
-154.149 -480.219 -1414 171 163 176
-150.989 -479.467 -1412 173 166 177
-147.734 -478.378 -1409 173 166 176
-144.699 -477.969 -1408 173 166 176
-141.568 -477.222 -1406 167 161 172
-138.743 -477.495 -1407 162 155 167
-135.721 -477.091 -1406 158 150 164
-132.8 -477.027 -1406 157 150 161
-130.064 -477.644 -1408 156 149 160
-127.05 -477.243 -1407 148 141 152
-124.13 -477.184 -1407 140 133 144
-121.211 -477.126 -1407 138 131 142
-118.461 -477.748 -1409 138 131 140
-115.376 -477.014 -1407 142 135 144
-112.859 -478.655 -1412 150 143 152
-110.012 -478.941 -1413 158 150 157
-107.161 -479.229 -1414 159 152 159
-104.307 -479.518 -1415 160 152 160
-101.521 -480.147 -1417 164 156 165
-98.589 -480.1 -1417 171 163 172
-95.6576 -480.054 -1417 172 164 173
-92.858 -480.687 -1419 170 163 171
-89.9242 -480.644 -1419 172 164 173
-87.0524 -480.941 -1420 172 164 173
-84.1181 -480.901 -1420 170 163 171
-81.3559 -481.878 -1423 171 163 172
-78.527 -482.517 -1425 171 165 174
-75.7435 -483.497 -1428 169 163 172
-72.9483 -484.477 -1431 166 159 168
-70.337 -486.813 -1438 163 153 161
-67.51 -487.796 -1441 154 143 151
-64.716 -489.119 -1445 143 132 139
-61.906 -490.443 -1449 149 138 147
-59.0395 -491.43 -1452 163 152 161
-56.1224 -492.08 -1454 171 159 166
-53.2342 -493.07 -1457 172 160 166
-50.2995 -493.722 -1459 174 162 167
-47.2273 -493.022 -1457 171 160 166
-44.1335 -491.986 -1454 143 131 134
-40.826 -488.244 -1443 91 80 80
-353.41 -496.157 -1428 163 152 161
-351.267 -497.373 -1432 163 153 163
-347.651 -496.507 -1430 162 152 157
-344.53 -496.337 -1430 153 143 145
-339.74 -493.739 -1423 140 132 138
-334.51 -490.452 -1414 143 135 142
-330.964 -489.595 -1412 148 140 148
-325.107 -485.274 -1400 148 140 146
-321.146 -483.729 -1396 154 146 153
-316.749 -481.494 -1390 161 153 161
-312.833 -479.955 -1386 166 158 166
-309.383 -479.11 -1384 167 159 167
-305.724 -477.922 -1381 165 158 166
-302.739 -477.773 -1381 165 156 166
-299.756 -477.626 -1381 166 157 166
-296.346 -476.789 -1379 164 157 163
-293.373 -476.645 -1379 161 156 164
-290.192 -476.157 -1378 158 152 160
-287.018 -475.671 -1377 155 148 156
-283.645 -474.841 -1375 153 146 154
-280.691 -474.704 -1375 155 148 156
-277.336 -473.878 -1373 162 155 163
-274.391 -473.743 -1373 169 162 170
-271.251 -473.266 -1372 171 164 172
-268.314 -473.135 -1372 167 160 168
-265.572 -473.35 -1373 164 157 165
-262.637 -473.222 -1373 163 156 164
-259.705 -473.095 -1373 164 157 166
-256.962 -473.315 -1374 170 163 171
-254.217 -473.535 -1375 172 165 173
-251.104 -473.068 -1374 171 164 172
-248.721 -473.98 -1377 169 162 170
-245.613 -473.517 -1376 168 161 169
-243.04 -474.087 -1378 168 161 170
-240.287 -474.314 -1379 169 162 170
-237.704 -474.886 -1381 168 161 169
-234.775 -474.772 -1381 169 162 170
-231.68 -474.316 -1380 170 163 171
-228.757 -474.205 -1380 170 162 171
-225.999 -474.438 -1381 168 161 170
-223.239 -474.674 -1382 164 157 166
-220.796 -475.597 -1385 163 156 164
-218.5 -476.865 -1389 162 155 163
-216.033 -477.79 -1392 160 153 161
-213.556 -478.716 -1395 159 152 161
-210.917 -479.3 -1397 155 148 157
-208.42 -480.229 -1400 153 146 154
-206.206 -481.844 -1405 151 144 152
-203.828 -483.117 -1409 151 144 153
-201.435 -484.391 -1413 152 145 154
-199.168 -486.009 -1418 151 144 151
-197.158 -488.313 -1425 148 141 147
-194.711 -489.589 -1429 147 140 146
-192.25 -490.867 -1433 129 122 128
-189.773 -492.145 -1437 99 92 98
-187.021 -492.74 -1439 119 112 120
-184.135 -492.993 -1440 133 126 134
-180.743 -491.879 -1437 137 130 138
-177.612 -491.451 -1436 139 132 141
-174.123 -489.998 -1432 137 130 139
-170.771 -488.889 -1429 138 133 142
-167.433 -487.782 -1426 145 142 150
-164.225 -487.018 -1424 153 149 157
-160.8 -485.573 -1420 158 151 162
-157.615 -484.813 -1418 164 157 168
-154.222 -483.371 -1414 168 161 172
-151.061 -482.614 -1412 167 160 171
-147.91 -481.859 -1410 165 158 169
-144.87 -481.448 -1409 165 158 169
-141.736 -480.696 -1407 163 156 167
-139.006 -481.312 -1409 160 153 165
-135.979 -480.905 -1408 157 149 164
-133.052 -480.841 -1408 154 147 159
-130.311 -481.461 -1410 154 147 158
-127.291 -481.059 -1409 150 143 154
-124.366 -480.999 -1409 146 139 150
-121.355 -480.599 -1408 145 138 148
-118.685 -481.565 -1411 148 141 149
-115.595 -480.827 -1409 157 150 159
-112.993 -482.138 -1413 163 157 165
-110.142 -482.426 -1414 167 160 166
-107.287 -482.715 -1415 171 164 171
-104.356 -482.665 -1415 171 164 172
-101.569 -483.298 -1417 170 163 172
-98.6356 -483.25 -1417 175 168 177
-95.7705 -483.545 -1418 175 168 177
-92.9674 -484.182 -1420 173 166 174
-90.0302 -484.139 -1420 172 165 173
-87.0937 -484.097 -1420 170 163 171
-84.2171 -484.397 -1421 170 163 171
-81.3944 -485.039 -1423 171 164 172
-78.4539 -485.002 -1423 169 163 171
-75.9385 -487.691 -1431 168 161 170
-73.1358 -488.678 -1434 167 160 169
-70.3702 -490.007 -1438 160 149 158
-67.5888 -491.338 -1442 145 134 142
-64.7914 -492.669 -1446 140 129 136
-61.8925 -493.32 -1448 153 142 150
-58.986 -493.973 -1450 165 154 161
-56.1103 -494.968 -1453 171 159 165
-53.1862 -495.623 -1455 172 160 166
-50.2542 -496.28 -1457 173 161 166
-47.1523 -495.235 -1454 171 160 167
-44.0632 -494.192 -1451 128 118 119
-40.7321 -490.085 -1439 85 75 74
-353.584 -499.405 -1428 163 151 160
-351.441 -500.628 -1432 162 153 163
-347.823 -499.756 -1430 164 155 161
-344.458 -499.236 -1429 159 149 151
-339.668 -496.621 -1422 143 135 141
-335.148 -494.359 -1416 140 131 138
-331.361 -493.147 -1413 146 138 146
-325.964 -489.496 -1403 148 140 146
-321.764 -487.592 -1398 151 143 150
-316.905 -484.645 -1390 159 151 159
-313.664 -484.141 -1389 165 157 165
-309.759 -482.593 -1385 164 156 164
-306.096 -481.396 -1382 161 153 161
-303.107 -481.246 -1382 164 156 165
-299.903 -480.75 -1381 168 160 169
-296.491 -479.907 -1379 167 160 166
-293.304 -479.414 -1378 166 160 168
-290.334 -479.271 -1378 164 159 167
-286.95 -478.434 -1376 163 156 164
-283.784 -477.946 -1375 157 150 158
-280.828 -477.808 -1375 153 146 154
-277.471 -476.976 -1373 161 154 162
-274.525 -476.841 -1373 169 162 170
-271.384 -476.36 -1372 168 161 169
-268.445 -476.229 -1372 165 158 166
-265.508 -476.098 -1372 165 158 166
-262.574 -475.969 -1372 167 160 168
-259.831 -476.188 -1373 170 163 172
-257.087 -476.409 -1374 170 163 172
-254.34 -476.631 -1375 168 161 169
-251.592 -476.854 -1376 166 159 167
-248.842 -477.079 -1377 167 160 168
-245.732 -476.612 -1376 168 161 169
-242.982 -476.839 -1377 169 162 170
-240.055 -476.721 -1377 169 162 170
-237.475 -477.298 -1379 170 163 169
-234.378 -476.837 -1378 168 161 169
-231.624 -477.07 -1379 168 161 169
-228.867 -477.304 -1380 168 161 170
-226.108 -477.539 -1381 167 160 169
-223.347 -477.776 -1382 163 156 165
-221.063 -479.051 -1386 162 155 163
-218.606 -479.981 -1389 162 155 163
-215.982 -480.566 -1391 158 151 159
-213.659 -481.844 -1395 156 149 158
-211.019 -482.432 -1397 155 148 156
-208.372 -483.021 -1399 156 149 157
-206.159 -484.647 -1404 154 147 156
-203.782 -485.928 -1408 151 144 153
-201.532 -487.556 -1413 150 143 152
-199.264 -489.184 -1418 148 141 148
-197.114 -491.158 -1424 148 141 147
-194.669 -492.443 -1428 145 138 144
-192.476 -494.418 -1434 128 121 127
-189.996 -495.705 -1438 101 94 100
-187.241 -496.303 -1440 118 111 119
-184.095 -495.869 -1439 130 123 131
-180.83 -495.092 -1437 136 129 137
-177.45 -493.972 -1434 139 132 141
-174.206 -493.198 -1432 140 133 142
-170.973 -492.426 -1430 140 135 144
-167.631 -491.312 -1427 144 140 148
-164.419 -490.543 -1425 149 145 154
-160.99 -489.088 -1421 155 148 159
-157.913 -488.667 -1420 160 153 164
-154.623 -487.56 -1417 165 158 169
-151.347 -486.454 -1414 167 160 171
-148.19 -485.694 -1412 167 160 171
-145.146 -485.28 -1411 165 158 169
-141.804 -483.835 -1407 163 156 167
-138.974 -484.111 -1408 159 152 164
-135.947 -483.702 -1407 157 149 164
-133.116 -483.981 -1408 155 148 159
-130.466 -484.949 -1411 153 146 157
-127.443 -484.543 -1410 150 143 154
-124.513 -484.483 -1410 148 141 152
-121.499 -484.08 -1409 150 143 154
-118.658 -484.366 -1410 159 152 161
-115.65 -483.966 -1409 167 160 169
-112.967 -484.942 -1412 172 165 174
-110.116 -485.232 -1413 176 169 175
-107.263 -485.523 -1414 178 171 178
-104.258 -485.129 -1413 173 166 174
-101.403 -485.423 -1414 175 168 177
-98.5434 -485.719 -1415 176 169 178
-95.6135 -485.672 -1415 177 170 179
-92.8808 -486.657 -1418 175 168 176
-90.0096 -486.956 -1419 174 167 175
-87.1965 -487.6 -1421 171 164 172
-84.3166 -487.902 -1422 171 164 172
-81.4905 -488.549 -1424 173 166 174
-78.6567 -489.197 -1426 170 163 171
-76.0809 -491.561 -1433 167 159 168
-73.2727 -492.554 -1436 163 154 164
-70.5996 -494.578 -1442 150 139 148
-67.7617 -495.574 -1445 137 126 134
-64.9119 -496.571 -1448 142 131 138
-61.9648 -496.883 -1449 157 146 153
-59.0547 -497.54 -1451 167 156 162
-56.1757 -498.542 -1454 170 158 163
-53.2481 -499.201 -1456 170 158 163
-50.2436 -499.176 -1456 170 158 164
-47.1423 -498.125 -1453 168 157 163
-43.9627 -496.046 -1447 118 107 110
-40.3833 -488.827 -1426 85 75 75
-353.513 -502.305 -1427 167 155 162
-351.615 -503.888 -1432 162 153 163
-348.482 -503.714 -1432 163 153 161
-344.871 -502.838 -1430 159 149 151
-340.315 -500.558 -1424 144 133 140
-336.025 -498.632 -1419 137 127 134
-330.821 -495.304 -1410 140 132 140
-326.59 -493.385 -1405 147 139 145
-321.232 -489.713 -1395 150 142 149
-317.061 -487.799 -1390 155 147 155
-313.367 -486.59 -1387 157 149 157
-309.912 -485.734 -1385 158 150 158
-305.582 -483.478 -1379 161 153 161
-302.817 -483.678 -1380 163 154 164
-299.616 -483.178 -1379 163 154 164
-296.423 -482.68 -1378 166 159 165
-293.449 -482.534 -1378 164 158 166
-290.477 -482.39 -1378 163 158 166
-287.509 -482.247 -1378 164 157 165
-283.923 -481.056 -1375 160 153 161
-280.762 -480.567 -1374 155 148 156
-277.607 -480.08 -1373 155 148 156
-274.66 -479.943 -1373 160 153 161
-271.517 -479.46 -1372 163 156 164
-268.772 -479.676 -1373 166 159 167
-265.638 -479.195 -1372 168 161 169
-262.703 -479.065 -1372 170 163 171
-259.959 -479.286 -1373 168 161 170
-257.213 -479.508 -1374 168 161 170
-254.465 -479.731 -1375 168 161 169
-251.532 -479.607 -1375 168 161 169
-248.963 -480.181 -1377 171 164 172
-245.852 -479.711 -1376 171 164 172
-243.1 -479.94 -1377 170 163 171
-239.998 -479.473 -1376 167 160 168
-237.419 -480.053 -1378 167 160 166
-234.493 -479.938 -1378 167 160 167
-231.737 -480.172 -1379 165 158 166
-228.647 -479.711 -1378 162 155 164
-226.055 -480.296 -1380 160 153 162
-223.618 -481.23 -1383 160 153 161
-221.17 -482.165 -1386 162 155 163
-218.712 -483.101 -1389 161 154 162
-216.088 -483.691 -1391 155 148 156
-213.763 -484.977 -1395 156 149 157
-211.121 -485.568 -1397 156 149 156
-208.473 -486.161 -1399 156 149 156
-206.112 -487.45 -1403 156 149 158
-203.881 -489.087 -1408 151 144 153
-201.345 -490.03 -1411 150 143 152
-199.079 -491.669 -1416 148 141 148
-197.071 -494.003 -1423 145 138 144
-194.763 -495.643 -1428 143 136 142
-192.435 -497.284 -1433 128 121 127
-190.088 -498.926 -1438 104 97 103
-187.202 -499.182 -1439 119 112 120
-184.312 -499.438 -1440 129 122 130
-181.043 -498.656 -1438 134 127 135
-177.536 -497.182 -1434 141 134 143
-174.047 -495.71 -1430 142 136 145
-170.936 -495.28 -1429 140 135 144
-167.83 -494.851 -1428 142 138 146
-164.383 -493.384 -1424 145 141 150
-161.068 -492.266 -1421 152 145 155
-157.878 -491.496 -1419 158 151 162
-154.48 -490.035 -1415 164 157 168
-151.313 -489.268 -1413 168 161 172
-148.157 -488.503 -1411 167 160 171
-145.113 -488.086 -1410 166 159 170
-141.973 -487.325 -1408 164 157 168
-139.041 -487.256 -1408 160 152 164
-136.206 -487.536 -1409 156 148 162
-133.274 -487.471 -1409 155 147 158
-130.436 -487.753 -1410 151 144 154
-127.504 -487.691 -1410 149 142 153
-124.573 -487.63 -1410 150 143 154
-121.644 -487.57 -1410 156 149 160
-118.883 -488.204 -1412 164 157 166
-115.952 -488.147 -1412 168 161 170
-113.181 -488.783 -1414 172 165 174
-110.247 -488.729 -1414 176 169 176
-107.314 -488.677 -1414 178 171 178
-104.309 -488.28 -1413 173 166 174
-101.308 -487.885 -1412 173 166 175
-98.3818 -487.837 -1412 174 167 176
-95.5242 -488.136 -1413 174 167 176
-92.7943 -489.127 -1416 174 167 175
-89.9259 -489.428 -1417 174 167 175
-87.177 -490.422 -1420 173 166 174
-84.2978 -490.726 -1421 173 166 174
-81.4723 -491.376 -1423 175 168 176
-78.7497 -492.719 -1427 169 162 170
-76.0643 -494.408 -1432 164 156 165
-73.3589 -496.098 -1437 156 147 156
-70.7314 -498.48 -1444 141 130 139
-67.7941 -498.792 -1445 136 125 133
-64.943 -499.796 -1448 145 134 141
-62.0372 -500.456 -1450 159 148 153
-59.0831 -500.772 -1451 170 159 164
-56.2026 -501.779 -1454 173 161 166
-53.2736 -502.443 -1456 173 161 166
-50.2332 -502.073 -1455 172 160 165
-47.0026 -499.634 -1448 162 151 156
-43.6493 -495.472 -1436 107 97 99
-351.459 -502.371 -1418 163 151 157
-350.317 -505.029 -1426 165 156 165
-347.683 -505.561 -1428 164 155 162
-344.56 -505.388 -1428 160 150 152
-340.963 -504.508 -1426 146 136 142
-336.193 -501.862 -1419 140 130 137
-331.691 -499.573 -1413 140 132 140
-327.218 -497.288 -1407 146 138 144
-321.853 -493.591 -1397 148 140 146
-317.676 -491.665 -1392 149 141 149
-313.975 -490.448 -1389 152 144 152
-310.066 -488.88 -1385 156 148 156
-306.178 -487.314 -1381 161 153 161
-302.748 -486.457 -1379 162 153 162
-299.548 -485.954 -1378 159 151 160
-296.57 -485.805 -1378 162 155 161
-293.594 -485.659 -1378 161 154 161
-290.832 -485.865 -1379 162 156 164
-287.651 -485.369 -1378 165 158 166
-284.064 -484.171 -1375 164 157 165
-280.901 -483.678 -1374 161 154 162
-277.745 -483.188 -1373 153 146 154
-274.796 -483.051 -1373 155 148 156
-271.651 -482.563 -1372 161 154 162
-268.709 -482.429 -1372 167 160 168
-265.769 -482.297 -1372 169 162 170
-262.641 -481.814 -1371 171 164 172
-259.897 -482.036 -1372 170 163 172
-257.34 -482.611 -1374 170 163 171
-254.59 -482.836 -1375 168 161 169
-251.656 -482.71 -1375 169 162 170
-249.086 -483.289 -1377 171 164 172
-245.794 -482.465 -1375 169 162 170
-242.867 -482.344 -1375 164 157 165
-239.767 -481.874 -1374 162 155 163
-237.018 -482.107 -1375 163 156 163
-234.267 -482.342 -1376 164 157 164
-231.682 -482.928 -1378 163 156 164
-228.759 -482.814 -1378 163 155 164
-226.166 -483.403 -1380 163 155 164
-223.728 -484.343 -1383 162 155 163
-220.959 -484.584 -1384 163 156 164
-218.504 -485.526 -1387 160 153 161
-216.193 -486.819 -1391 157 150 158
-213.714 -487.764 -1394 156 149 157
-211.225 -488.709 -1397 153 146 154
-208.575 -489.305 -1399 153 146 152
-206.36 -490.952 -1404 154 147 155
-204.125 -492.6 -1409 153 146 154
-201.586 -493.549 -1412 150 143 152
-199.458 -495.548 -1418 147 140 147
-197.306 -497.547 -1424 145 138 144
-195.131 -499.547 -1430 140 133 139
-192.798 -501.199 -1435 129 122 128
-190.313 -502.502 -1439 103 96 102
-187.683 -503.457 -1442 117 110 118
-184.53 -503.017 -1441 130 123 131
-181.257 -502.229 -1439 137 130 138
-177.87 -501.095 -1436 141 134 143
-174.497 -499.962 -1433 142 136 145
-171.019 -498.482 -1429 140 135 144
-167.794 -497.701 -1427 140 136 145
-164.463 -496.574 -1424 143 140 148
-161.146 -495.449 -1421 151 144 153
-157.844 -494.325 -1418 154 147 157
-154.773 -493.9 -1417 161 154 165
-151.494 -492.78 -1414 168 161 172
-148.439 -492.358 -1413 169 162 173
-145.286 -491.59 -1411 165 158 169
-142.345 -491.52 -1411 158 151 162
-139.306 -491.103 -1410 153 146 158
-136.466 -491.384 -1411 152 144 158
-133.528 -491.318 -1411 150 143 154
-130.684 -491.602 -1412 150 143 153
-127.747 -491.539 -1412 152 145 156
-124.81 -491.478 -1412 157 150 161
-121.789 -491.07 -1411 163 156 166
-118.941 -491.359 -1412 169 162 171
-116.008 -491.302 -1412 172 165 174
-113.236 -491.942 -1414 175 168 177
-110.301 -491.888 -1414 175 168 176
-107.366 -491.835 -1414 174 167 175
-104.433 -491.784 -1414 177 170 178
-101.357 -491.038 -1412 173 166 175
-98.4294 -490.99 -1412 174 167 176
-95.5704 -491.29 -1413 174 167 176
-92.8392 -492.288 -1416 174 167 175
-89.9694 -492.591 -1417 173 166 174
-87.2805 -493.938 -1421 172 165 173
-84.5165 -494.94 -1424 171 164 172
-81.7407 -495.942 -1427 172 165 173
-78.8429 -496.251 -1428 166 159 167
-76.2605 -498.646 -1435 158 150 158
-73.5476 -500.347 -1440 147 139 147
-70.7166 -501.354 -1443 138 127 136
-67.8268 -502.015 -1445 143 132 140
-64.9744 -503.025 -1448 152 141 149
-62.0672 -503.689 -1450 164 153 159
-59.1116 -504.007 -1451 172 161 167
-56.1523 -504.327 -1452 175 163 168
-53.2261 -504.995 -1454 177 165 169
-50.2574 -505.317 -1455 171 159 163
-46.9604 -502.168 -1446 157 145 150
-43.5183 -496.937 -1431 100 89 90
-349.265 -506.502 -1421 166 156 165
-347.858 -508.821 -1428 163 154 163
-344.975 -509.002 -1429 163 153 155
-341.134 -507.76 -1426 155 144 150
-336.599 -505.453 -1420 147 136 144
-332.562 -503.861 -1416 144 134 143
-327.15 -500.137 -1406 146 137 144
-322.015 -496.773 -1397 145 137 143
-318.063 -495.189 -1393 150 142 149
-314.358 -493.964 -1390 157 149 157
-310.222 -492.03 -1385 161 153 161
-306.109 -490.1 -1380 163 155 163
-303.119 -489.946 -1380 165 157 165
-299.48 -488.731 -1377 166 158 166
-296.718 -488.936 -1378 164 157 164
-293.954 -489.142 -1379 162 155 163
-290.977 -488.996 -1379 164 157 165
-287.586 -488.142 -1377 164 157 165
-284.206 -487.29 -1375 162 155 163
-280.836 -486.44 -1373 161 154 162
-277.681 -485.946 -1372 159 152 160
-274.933 -486.162 -1373 157 150 158
-271.984 -486.025 -1373 160 153 161
-269.235 -486.244 -1374 163 156 164
-266.095 -485.757 -1373 167 160 168
-262.963 -485.271 -1372 169 162 170
-260.216 -485.494 -1373 169 162 170
-257.28 -485.365 -1373 169 162 171
-254.531 -485.591 -1374 169 162 170
-251.415 -485.112 -1373 169 162 170
-248.847 -485.694 -1375 170 163 171
-245.558 -484.865 -1373 167 160 168
-242.987 -485.45 -1375 164 157 165
-239.886 -484.977 -1374 163 156 164
-237.135 -485.211 -1375 163 156 164
-234.383 -485.447 -1376 164 157 165
-231.797 -486.037 -1378 163 156 164
-229.038 -486.275 -1379 163 155 163
-226.441 -486.868 -1381 164 156 164
-224 -487.813 -1384 167 160 168
-221.228 -488.056 -1385 166 159 167
-218.612 -488.651 -1387 161 154 162
-216.144 -489.601 -1390 158 151 159
-213.82 -490.903 -1394 155 148 156
-211.177 -491.502 -1396 149 142 149
-208.678 -492.454 -1399 151 144 150
-206.461 -494.112 -1404 151 144 152
-204.371 -496.122 -1410 156 149 157
-201.971 -497.429 -1414 151 144 153
-199.696 -499.088 -1419 145 138 146
-197.542 -501.1 -1425 144 137 143
-195.227 -502.762 -1430 137 130 136
-192.758 -504.072 -1434 129 122 128
-190.407 -505.735 -1439 103 96 102
-187.645 -506.345 -1441 116 109 117
-184.621 -506.253 -1441 131 124 132
-181.22 -505.109 -1438 141 134 142
-177.957 -504.318 -1436 142 135 144
-174.705 -503.529 -1434 142 135 144
-171.342 -502.391 -1431 139 134 143
-167.994 -501.254 -1428 140 136 144
-164.659 -500.12 -1425 144 141 149
-161.225 -498.636 -1421 151 144 153
-157.921 -497.505 -1418 152 145 155
-154.74 -496.726 -1416 158 151 162
-151.354 -495.248 -1412 164 157 168
-148.511 -495.525 -1413 166 159 170
-145.357 -494.752 -1411 162 155 166
-142.414 -494.681 -1411 158 151 162
-139.374 -494.262 -1410 156 149 161
-136.532 -494.545 -1411 151 143 157
-133.499 -494.128 -1410 148 141 153
-130.748 -494.764 -1412 150 143 154
-127.719 -494.35 -1411 156 149 160
-124.871 -494.639 -1412 163 156 166
-121.935 -494.578 -1412 166 159 168
-119.083 -494.87 -1413 170 163 171
-116.229 -495.162 -1414 172 165 174
-113.371 -495.456 -1415 175 168 177
-110.432 -495.401 -1415 175 168 176
-107.495 -495.348 -1415 173 166 174
-104.484 -494.946 -1414 174 167 175
-101.406 -494.196 -1412 174 167 176
-98.4076 -493.797 -1411 173 166 175
-95.5493 -494.1 -1412 175 168 177
-92.8188 -495.103 -1415 175 168 177
-89.9497 -495.409 -1416 173 166 174
-87.1387 -496.065 -1418 173 166 174
-84.3794 -497.073 -1421 173 166 174
-81.6086 -498.081 -1424 170 163 171
-78.826 -499.092 -1427 165 157 165
-76.2976 -501.852 -1435 155 147 155
-73.5833 -503.564 -1440 143 135 143
-70.8 -504.927 -1444 140 129 136
-67.9068 -505.593 -1446 147 136 143
-65.0059 -506.26 -1448 159 148 157
-62.0546 -506.578 -1449 168 157 164
-59.1403 -507.248 -1451 172 161 168
-56.2957 -508.618 -1455 175 163 168
-53.2152 -507.892 -1453 176 164 168
-50.2127 -507.867 -1453 173 161 164
-46.9506 -505.047 -1445 150 138 143
-43.3569 -498.035 -1425 94 82 83
-349.688 -510.111 -1422 169 159 168
-348.766 -513.161 -1431 162 153 162
-345.633 -512.984 -1431 163 153 155
-342.025 -512.093 -1429 156 145 151
-337.481 -509.77 -1423 148 137 144
-333.67 -508.525 -1420 145 134 143
-328.479 -505.135 -1411 144 135 142
-324.253 -503.18 -1406 144 136 142
-318.909 -499.439 -1396 147 139 145
-315.196 -498.205 -1393 156 148 155
-311.499 -496.973 -1390 162 154 162
-307.151 -494.672 -1384 164 156 164
-303.272 -493.088 -1380 163 155 163
-300.066 -492.578 -1379 165 157 165
-297.083 -492.428 -1379 165 157 165
-294.102 -492.278 -1379 162 155 163
-290.913 -491.774 -1378 162 155 163
-287.521 -490.914 -1376 166 159 167
-284.348 -490.413 -1375 168 161 169
-281.182 -489.914 -1374 167 160 168
-278.023 -489.417 -1373 160 153 161
-275.07 -489.278 -1373 157 150 158
-272.319 -489.497 -1374 159 152 160
-269.369 -489.361 -1374 161 154 162
-266.229 -488.87 -1373 167 160 168
-263.286 -488.737 -1373 169 163 171
-260.536 -488.961 -1374 166 159 167
-257.221 -488.12 -1372 166 159 167
-254.659 -488.703 -1374 167 160 168
-251.907 -488.932 -1375 168 161 169
-248.972 -488.806 -1375 169 162 170
-245.681 -487.971 -1373 168 161 169
-242.931 -488.204 -1374 168 161 169
-239.83 -487.729 -1373 166 159 167
-237.081 -487.965 -1374 164 157 165
-234.5 -488.557 -1376 163 156 164
-231.912 -489.15 -1378 160 153 161
-229.152 -489.39 -1379 158 150 158
-226.554 -489.986 -1381 160 153 161
-223.949 -490.583 -1383 163 156 164
-221.338 -491.182 -1385 165 158 166
-218.563 -491.427 -1386 162 155 163
-216.252 -492.736 -1390 159 152 160
-213.926 -494.047 -1394 157 150 158
-211.434 -495.004 -1397 155 148 156
-208.781 -495.608 -1399 155 148 154
-206.711 -497.63 -1405 157 150 157
-204.327 -498.945 -1409 156 149 157
-202.214 -500.968 -1415 151 144 153
-199.655 -501.93 -1418 148 141 148
-197.501 -503.955 -1424 143 136 142
-195.46 -506.335 -1431 140 133 139
-192.988 -507.653 -1435 130 123 129
-190.368 -508.62 -1438 107 100 106
-187.738 -509.587 -1441 117 110 118
-184.712 -509.494 -1441 128 121 129
-181.562 -509.05 -1440 141 135 143
-178.169 -507.9 -1437 143 136 145
-174.791 -506.753 -1434 140 133 142
-171.427 -505.607 -1431 140 134 143
-168.194 -504.816 -1429 140 136 144
-164.509 -502.615 -1423 143 139 148
-161.418 -502.181 -1422 150 143 152
-157.999 -500.689 -1418 152 145 155
-154.816 -499.906 -1416 160 153 162
-151.536 -498.771 -1413 163 156 165
-148.585 -498.697 -1413 163 156 166
-145.429 -497.919 -1411 164 157 168
-142.484 -497.847 -1411 166 159 170
-139.442 -497.425 -1410 164 157 169
-136.6 -497.71 -1411 159 151 165
-133.564 -497.29 -1410 156 149 161
-130.72 -497.578 -1411 159 152 163
-127.691 -497.162 -1410 165 158 169
-125.021 -498.157 -1413 169 162 172
-121.908 -497.391 -1411 172 165 174
-119.142 -498.037 -1413 172 165 173
-116.286 -498.331 -1414 173 166 175
-113.347 -498.274 -1414 175 168 177
-110.409 -498.219 -1414 174 167 175
-107.547 -498.518 -1415 175 168 176
-104.535 -498.113 -1414 174 167 175
-101.6 -498.063 -1414 174 167 176
-98.5953 -497.661 -1413 175 168 177
-95.6637 -497.614 -1413 178 171 180
-92.733 -497.567 -1413 175 168 176
-89.9302 -498.226 -1415 173 166 174
-87.1199 -498.887 -1417 176 169 177
-84.302 -499.549 -1419 173 166 174
-81.7633 -501.973 -1426 168 160 168
-79.1409 -504.045 -1432 163 155 161
-76.4413 -505.767 -1437 151 141 148
-73.7216 -507.489 -1442 141 131 138
-70.9328 -508.861 -1446 144 133 140
-68.034 -509.531 -1448 148 137 144
-65.0826 -509.85 -1449 160 149 156
-62.1706 -510.523 -1451 167 156 163
-59.1693 -510.493 -1451 170 159 165
-56.2458 -511.168 -1453 174 162 167
-53.1314 -510.086 -1450 173 161 165
-50.099 -509.709 -1449 171 159 162
-46.8436 -506.871 -1441 148 136 141
-347.652 -510.118 -1413 169 161 168
-347.968 -514.994 -1427 163 156 165
-345.084 -515.177 -1428 162 152 154
-342.2 -515.362 -1429 158 147 152
-337.178 -512.303 -1421 153 142 149
-333.84 -511.771 -1420 146 135 144
-329.112 -509.08 -1413 143 133 141
-324.879 -507.111 -1408 148 140 146
-319.529 -503.346 -1398 151 143 149
-315.13 -501.024 -1392 155 147 154
-311.432 -499.785 -1389 161 153 161
-306.863 -497.109 -1382 162 154 162
-303.426 -496.235 -1380 159 151 159
-300.218 -495.721 -1379 161 153 161
-297.018 -495.21 -1378 164 156 164
-294.037 -495.06 -1378 162 154 162
-290.849 -494.552 -1377 161 154 162
-287.458 -493.687 -1375 165 158 166
-284.078 -492.824 -1373 168 161 169
-280.915 -492.322 -1372 169 162 171
-277.96 -492.18 -1372 164 157 165
-275.209 -492.399 -1373 159 152 160
-272.456 -492.619 -1374 156 149 157
-269.505 -492.482 -1374 159 152 160
-266.557 -492.346 -1374 163 156 164
-263.611 -492.212 -1374 165 158 166
-260.477 -491.721 -1373 163 156 164
-257.351 -491.232 -1372 163 156 164
-254.787 -491.819 -1374 165 158 166
-251.667 -491.334 -1373 165 158 166
-248.916 -491.565 -1374 166 159 167
-245.804 -491.083 -1373 166 159 166
-243.053 -491.317 -1374 167 160 167
-239.951 -490.838 -1373 167 160 167
-237.373 -491.433 -1375 166 159 166
-234.788 -492.029 -1377 164 157 164
-232.197 -492.626 -1379 160 153 161
-229.267 -492.51 -1379 160 152 160
-226.667 -493.109 -1381 160 152 160
