ply
format ascii 1.0
comment Created by Open3D
element vertex 1403
property double x
property double y
property double z
property uchar red
property uchar green
property uchar blue
end_header
-185.327 -1018.35 -1379 109 118 144
-182.08 -1018.15 -1379 110 119 145
-178.836 -1017.94 -1379 103 111 136
-175.72 -1018.48 -1380 99 104 127
-172.601 -1019.03 -1381 98 102 125
-169.603 -1020.31 -1383 93 99 123
-166.356 -1020.12 -1383 94 101 125
-163.229 -1020.67 -1384 96 105 131
-160.561 -1024.18 -1389 92 100 123
-157.532 -1025.48 -1391 85 93 117
-154.495 -1026.77 -1393 84 92 116
-151.668 -1029.55 -1397 92 98 119
-148.929 -1033.07 -1402 91 96 121
-146.585 -1039.53 -1411 73 78 101
-144.707 -1049.68 -1425 63 69 90
-143.758 -1067.2 -1449 62 65 83
-143.474 -1090.61 -1481 62 57 74
-143.797 -1119.9 -1521 64 57 71
-143.106 -1142.56 -1552 70 61 71
-140.923 -1154.18 -1568 74 67 73
-137.879 -1159.18 -1575 84 78 79
-134.548 -1161.97 -1579 86 81 82
-130.786 -1161.09 -1578 84 81 82
-126.708 -1157.26 -1573 86 84 82
-122.654 -1153.45 -1568 89 87 85
-117.79 -1141.54 -1552 90 88 87
-112.266 -1122.29 -1526 95 92 93
-106.294 -1097.17 -1492 103 104 116
-100.344 -1070.58 -1456 109 113 131
-95.0948 -1049.88 -1428 114 120 139
-91.0694 -1041.69 -1417 118 124 144
-87.158 -1034.24 -1407 123 128 145
-83.771 -1032.68 -1405 122 126 145
-80.1076 -1027.44 -1398 121 126 146
-76.8075 -1026.62 -1397 119 125 145
-73.2495 -1022.13 -1391 119 123 146
-69.9719 -1021.31 -1390 119 121 146
-66.7956 -1021.97 -1391 119 120 146
-63.4327 -1019.69 -1388 117 118 142
-60.3446 -1021.83 -1391 116 118 146
-57.0379 -1020.29 -1389 115 116 145
-53.896 -1021.7 -1391 111 112 142
-50.709 -1022.38 -1392 107 109 141
-47.552 -1023.79 -1394 104 106 137
-44.3545 -1024.48 -1395 100 100 130
-41.2118 -1026.63 -1398 99 99 127
-38.0828 -1029.53 -1402 94 99 125
-34.9356 -1032.42 -1406 89 96 119
-31.8155 -1036.79 -1412 83 89 109
-28.7486 -1044.1 -1422 78 84 101
-25.6178 -1050.68 -1431 85 81 97
-22.4925 -1059.46 -1443 81 77 95
-19.3914 -1072.65 -1461 76 72 89
-16.273 -1090.25 -1485 74 71 86
-13.1819 -1119.61 -1525 77 72 86
-9.83632 -1140.88 -1554 68 61 70
-6.31241 -1154.09 -1572 60 53 63
-264.661 -1158.01 -1556 0 0 0
-259.11 -1149.52 -1545 0 0 0
-252.622 -1136.59 -1528 119 119 117
-243.123 -1109.53 -1492 108 111 120
-234.76 -1086.95 -1462 108 111 121
-226.384 -1063.65 -1431 112 115 128
-220.184 -1050.02 -1413 113 116 136
-215.605 -1043.82 -1405 109 116 138
-211.219 -1038.38 -1398 111 118 143
-207.313 -1035.18 -1394 111 120 145
-203.283 -1031.23 -1389 112 123 146
-199.999 -1031 -1389 109 118 142
-196.008 -1027.07 -1384 102 112 134
-192.6 -1026.11 -1383 104 114 135
-188.789 -1022.92 -1379 109 119 140
-185.671 -1023.45 -1380 113 121 145
-182.153 -1021.76 -1378 112 120 145
-179.037 -1022.3 -1379 103 111 137
-175.79 -1022.1 -1379 99 105 127
-172.67 -1022.65 -1380 101 105 128
-169.548 -1023.19 -1381 100 105 129
-166.543 -1024.49 -1383 97 102 127
-163.53 -1025.78 -1385 95 104 130
-160.626 -1027.82 -1388 96 103 125
-157.709 -1029.86 -1391 92 99 121
-155.113 -1034.13 -1397 85 93 116
-151.947 -1034.7 -1398 86 93 115
-149.628 -1041.19 -1407 89 92 117
-147.477 -1049.16 -1418 77 79 102
-146.09 -1063.05 -1437 67 69 89
-144.813 -1078.42 -1458 64 65 80
-144.701 -1103.41 -1492 69 62 75
-144.337 -1127.65 -1525 76 66 75
-143.081 -1145.97 -1550 80 68 73
-140.721 -1156.16 -1564 78 67 74
-137.77 -1161.92 -1572 82 74 74
-134.273 -1163.24 -1574 82 76 76
-130.518 -1162.36 -1573 82 78 79
-126.446 -1158.52 -1568 85 83 81
-122.478 -1155.42 -1564 88 86 84
-117.922 -1146.42 -1552 92 89 89
-113.128 -1134.48 -1536 96 93 96
-107.554 -1113.67 -1508 104 104 116
-101.698 -1088.45 -1474 109 112 130
-96.2011 -1065.45 -1443 115 120 140
-91.4285 -1049.1 -1421 122 128 147
-87.5655 -1042.35 -1412 127 132 147
-83.8646 -1037.09 -1405 129 133 151
-80.1397 -1031.09 -1397 126 130 150
-76.8383 -1030.27 -1396 120 126 146
-73.3313 -1026.49 -1391 123 125 148
-69.8987 -1023.46 -1387 123 125 149
-66.726 -1024.12 -1388 121 122 148
-63.5492 -1024.79 -1389 120 119 146
-60.325 -1024.72 -1389 119 120 148
-57.0604 -1023.92 -1388 117 118 147
-53.9561 -1026.07 -1391 111 112 141
-50.6926 -1025.27 -1390 109 111 143
-47.6051 -1028.17 -1394 109 109 139
-44.404 -1028.85 -1395 103 103 132
-41.2873 -1031.75 -1399 100 100 128
-38.1524 -1034.66 -1403 93 97 122
-35.0492 -1039.04 -1409 85 92 113
-31.9636 -1044.91 -1417 79 84 104
-28.8615 -1051.51 -1426 76 78 99
-25.7718 -1060.33 -1438 79 76 93
-22.6735 -1071.36 -1453 78 76 91
-19.6521 -1090.51 -1479 78 75 88
-16.5654 -1113.34 -1510 75 69 81
-13.3437 -1136.92 -1542 74 68 81
-9.90423 -1152.39 -1563 63 56 65
-6.32734 -1160.49 -1574 58 51 60
-253.572 -1144.44 -1532 130 130 127
-245.683 -1124.74 -1506 106 109 118
-237.599 -1103.55 -1478 109 111 122
-228.542 -1077.16 -1443 112 114 127
-221.214 -1058.24 -1418 116 118 138
-216.157 -1049.78 -1407 114 120 141
-211.307 -1042.08 -1397 113 121 144
-207.698 -1040.35 -1395 113 122 146
-203.514 -1035.64 -1389 112 121 143
-200.081 -1034.67 -1388 113 123 145
-196.372 -1032.21 -1385 112 121 143
-192.958 -1031.24 -1384 106 116 137
-189.14 -1028.04 -1380 108 116 138
-185.881 -1027.83 -1380 112 120 144
-182.359 -1026.13 -1378 111 119 143
-179.109 -1025.93 -1378 104 112 137
-175.989 -1026.47 -1379 104 110 132
-172.615 -1025.53 -1378 108 111 133
-169.494 -1026.08 -1379 105 109 133
-166.731 -1028.87 -1383 97 104 130
-163.597 -1029.42 -1384 94 103 129
-160.575 -1030.73 -1386 95 101 122
-157.773 -1033.52 -1390 90 97 117
-155.065 -1037.06 -1395 81 89 108
-152.662 -1042.83 -1403 82 89 111
-150.542 -1050.84 -1414 87 88 112
-148.268 -1058.1 -1424 79 78 101
-146.967 -1072.79 -1444 70 69 88
-145.474 -1086.74 -1463 62 63 76
-144.864 -1108.12 -1492 71 64 74
-144.026 -1128.75 -1520 76 67 74
-142.318 -1143.44 -1540 77 65 68
-139.978 -1153.67 -1554 75 64 69
-137.311 -1161.68 -1565 77 69 70
-133.997 -1164.5 -1569 79 73 73
-130.415 -1165.09 -1570 77 73 74
-126.508 -1162.72 -1567 83 79 78
-122.694 -1161.1 -1565 85 83 82
-118.206 -1152.8 -1554 89 87 87
-113.771 -1144.51 -1543 98 95 98
-108.603 -1128.07 -1521 110 109 120
-102.779 -1103.48 -1488 113 116 131
-97.0433 -1078.15 -1454 117 122 139
-92.0465 -1059.51 -1429 124 128 148
-87.85 -1049.03 -1415 127 132 147
-84.138 -1043.74 -1408 127 131 149
-80.4019 -1037.72 -1400 123 127 147
-76.8693 -1033.92 -1395 119 123 144
-73.4664 -1031.62 -1392 124 126 149
-70.0277 -1028.57 -1388 123 125 149
-66.7527 -1027.75 -1387 122 123 149
-63.712 -1030.64 -1391 121 120 148
-60.5666 -1032.06 -1393 117 119 147
-57.2478 -1030.51 -1391 115 117 145
-54.0554 -1031.19 -1392 111 114 142
-50.859 -1031.87 -1393 106 111 142
-47.7268 -1034.03 -1396 105 106 137
-44.4537 -1033.24 -1395 102 102 132
-41.363 -1036.9 -1400 97 98 124
-38.304 -1042.04 -1407 83 89 110
-35.2378 -1047.92 -1415 78 86 105
-32.1575 -1054.55 -1424 77 82 103
-29.1167 -1064.14 -1437 75 77 100
-26.0697 -1075.96 -1453 76 77 93
-22.9801 -1089.26 -1471 75 76 90
-19.9534 -1110.71 -1500 77 74 86
-16.8035 -1132.9 -1530 76 69 80
-13.4452 -1149.18 -1552 73 65 79
-9.94059 -1160.27 -1567 66 59 67
-6.33427 -1165.44 -1574 73 66 75
-2.6887 -1167.66 -1577 82 75 84
0.968691 -1167.66 -1577 84 79 87
4.63218 -1169.14 -1579 0 0 0
-254.359 -1151.59 -1535 146 146 142
-248.087 -1139.3 -1519 103 106 115
-241.411 -1124.77 -1500 108 110 121
-232.925 -1101.26 -1469 108 109 123
-224.277 -1076.26 -1436 111 112 132
-218.25 -1063.27 -1419 114 119 140
-212.76 -1052.53 -1405 115 122 144
-208.083 -1045.55 -1396 111 119 143
-204.186 -1042.32 -1392 112 122 143
-200.742 -1041.34 -1391 116 126 147
-196.454 -1035.87 -1384 117 127 148
-193.178 -1035.65 -1384 109 119 139
-189.629 -1033.93 -1382 108 116 138
-186.362 -1033.72 -1382 111 119 143
-182.567 -1030.52 -1378 113 121 145
-179.573 -1031.81 -1380 110 118 142
-176.061 -1030.11 -1378 109 115 137
-172.561 -1028.42 -1376 113 116 139
-169.563 -1029.72 -1378 111 114 139
-166.558 -1031.02 -1380 101 109 137
-163.664 -1033.07 -1383 96 105 131
-160.874 -1035.87 -1387 95 101 122
-158.407 -1040.92 -1394 90 97 116
-156.243 -1048.21 -1404 80 88 105
-153.707 -1053.26 -1411 80 85 108
-151.672 -1062.04 -1423 85 85 109
-149.479 -1070.08 -1434 79 77 100
-147.948 -1083.34 -1452 72 70 87
-146.037 -1094.37 -1467 65 66 77
-144.737 -1110.61 -1489 70 65 74
-143.24 -1126.11 -1510 71 64 71
-141.739 -1142.35 -1532 73 61 67
-139.596 -1154.12 -1548 69 60 64
-137.203 -1164.4 -1562 73 65 67
-134.148 -1169.47 -1569 77 70 71
-130.563 -1170.06 -1570 76 72 73
-126.57 -1166.94 -1566 81 77 76
-122.833 -1166.05 -1565 80 77 78
-118.569 -1159.95 -1557 83 80 82
-114.269 -1153.12 -1548 95 92 95
-109.441 -1140.33 -1531 108 107 117
-103.933 -1119.35 -1503 111 114 128
-98.2219 -1094.66 -1470 116 121 138
-92.9242 -1072.96 -1441 124 128 148
-88.5086 -1060.2 -1424 127 129 145
-84.532 -1051.91 -1413 123 126 144
-80.7801 -1045.86 -1405 117 121 141
-77.0664 -1039.82 -1397 119 123 144
-73.6548 -1037.5 -1394 126 128 151
-70.4096 -1037.42 -1394 126 127 152
-67.0688 -1035.86 -1392 124 125 151
-63.738 -1034.29 -1390 118 120 147
-60.6348 -1036.46 -1393 120 125 151
-57.3534 -1035.64 -1392 119 124 152
-54.2718 -1038.56 -1396 114 119 147
-51.0259 -1038.5 -1396 107 112 143
-47.8489 -1039.93 -1398 100 103 137
-44.5676 -1039.13 -1397 95 98 128
-41.5575 -1045.04 -1405 88 92 117
-38.4834 -1050.2 -1412 80 86 105
-35.5019 -1059.08 -1424 74 83 100
-32.4875 -1068.71 -1437 75 81 99
-29.4537 -1079.83 -1452 77 80 101
-26.4223 -1093.93 -1471 80 77 94
-23.3343 -1109.52 -1492 77 74 90
-20.2156 -1128.83 -1518 76 73 88
-16.9323 -1145.17 -1540 71 68 82
-13.4949 -1157.05 -1556 76 68 82
-9.93895 -1163.73 -1565 81 74 82
-6.32511 -1167.44 -1570 85 78 86
-2.6832 -1168.92 -1572 87 80 88
0.966345 -1168.17 -1571 87 83 88
4.61397 -1168.18 -1571 0 0 0
-254.485 -1155.76 -1534 159 157 153
-249.189 -1147.94 -1524 105 108 115
-243.783 -1139.37 -1513 103 106 116
-237.161 -1124.78 -1494 103 104 118
-228.6 -1100.43 -1462 107 108 127
-222.042 -1085.12 -1442 115 118 139
-215.732 -1070.57 -1423 117 122 144
-210.411 -1060.54 -1410 113 121 145
-205.594 -1052.79 -1400 113 122 146
-201.839 -1050.3 -1397 117 127 148
-197.247 -1043.3 -1388 116 126 146
-193.678 -1041.57 -1386 112 122 141
-189.983 -1039.1 -1383 109 117 137
-186.71 -1038.88 -1383 112 118 142
-183.173 -1037.17 -1381 113 119 144
-179.909 -1036.96 -1381 108 116 140
-176.902 -1038.26 -1383 108 114 136
-173.26 -1035.81 -1380 111 114 135
-170.373 -1037.86 -1383 109 111 134
-166.99 -1036.92 -1382 102 107 134
-164.562 -1041.98 -1389 96 105 131
-162.218 -1047.79 -1397 93 99 120
-159.498 -1051.36 -1402 89 96 114
-157.089 -1057.18 -1410 80 89 105
-155.081 -1066 -1422 77 81 106
-152.699 -1072.57 -1431 82 82 107
-150.379 -1079.89 -1441 77 75 99
-148.627 -1091.71 -1457 69 67 84
-146.103 -1098.28 -1466 68 67 75
-144.317 -1110.85 -1483 70 66 74
-142.263 -1121.92 -1498 68 62 70
-140.789 -1138.24 -1520 69 59 66
-138.581 -1149.31 -1535 66 58 62
-136.568 -1162.63 -1553 66 59 63
-133.787 -1169.96 -1563 72 65 69
-130.212 -1170.56 -1564 74 70 71
-126.228 -1167.42 -1560 78 74 73
-122.579 -1167.28 -1560 80 76 77
-118.398 -1161.9 -1553 82 79 80
-114.251 -1156.53 -1546 88 85 88
-109.708 -1146.68 -1533 102 101 111
-104.743 -1131.6 -1513 111 113 127
-99.2699 -1109.8 -1484 113 118 136
-93.8689 -1087.25 -1454 118 122 141
-89.2934 -1072.94 -1435 121 124 140
-85.107 -1062.38 -1421 124 127 144
-81.3322 -1056.3 -1413 123 126 143
-77.7612 -1052.47 -1408 120 126 145
-74.2144 -1048.65 -1403 122 126 147
-70.8434 -1047.07 -1401 122 127 149
-67.4342 -1044.75 -1398 124 130 153
-64.2234 -1045.42 -1399 119 123 148
-60.9649 -1045.35 -1399 117 124 155
-57.8721 -1048.27 -1403 115 121 151
-54.6057 -1048.21 -1403 107 114 143
-51.3398 -1048.15 -1403 102 107 138
-48.1087 -1048.84 -1404 97 100 125
-45.0651 -1054.02 -1411 91 93 118
-41.9598 -1058.45 -1417 84 86 112
-38.8544 -1063.63 -1424 78 84 103
-35.9663 -1076.29 -1441 79 81 101
-32.9996 -1088.95 -1458 79 81 98
-30.0759 -1106.09 -1481 77 78 93
-26.8478 -1115.02 -1493 75 70 94
-23.6738 -1129.18 -1512 71 67 83
-20.3716 -1141.1 -1528 72 69 82
-16.9843 -1152.28 -1543 72 70 80
-13.4927 -1160.48 -1554 76 67 79
-9.90554 -1163.46 -1558 83 76 82
-6.29601 -1165.69 -1561 85 78 84
-2.66552 -1164.93 -1560 87 80 86
0.960694 -1164.93 -1560 86 82 87
4.58103 -1163.44 -1558 89 82 88
8.22392 -1166.44 -1562 0 0 0
-255.444 -1163.72 -1538 168 166 160
-250.95 -1159.65 -1533 119 119 124
-246.161 -1154.06 -1526 106 107 116
-240.772 -1145.46 -1515 103 106 117
-233.56 -1127.8 -1492 107 109 126
-226.922 -1112.42 -1472 111 116 135
-220.534 -1097.8 -1453 114 120 141
-214.09 -1082.44 -1433 111 120 145
-208.477 -1070.87 -1418 107 118 141
-204.096 -1065.35 -1411 110 123 146
-199.181 -1056.81 -1400 110 123 146
-195.02 -1052.05 -1394 108 118 138
-190.89 -1047.3 -1388 108 114 134
-187.736 -1047.84 -1389 110 113 135
-184.313 -1046.87 -1388 110 113 135
-181.289 -1048.17 -1390 104 110 133
-177.873 -1047.21 -1389 103 108 133
-174.715 -1047.76 -1390 105 109 137
-171.678 -1049.07 -1392 105 109 137
-168.633 -1050.38 -1394 101 106 133
-165.937 -1053.96 -1399 95 103 129
-163.334 -1058.29 -1405 89 98 116
-161.047 -1064.88 -1414 85 94 108
-158.385 -1069.21 -1420 78 88 100
-156.132 -1076.56 -1430 81 80 106
-153.621 -1082.41 -1438 81 77 101
-151.074 -1088.25 -1446 77 72 93
-149.103 -1098.62 -1460 70 67 79
-146.47 -1104.47 -1468 72 65 74
-144.19 -1113.33 -1480 73 63 68
-141.665 -1120.69 -1490 71 60 62
-140.023 -1135.57 -1510 68 56 58
-138.106 -1148.94 -1528 62 54 56
-136.283 -1163.82 -1548 65 57 60
-133.426 -1170.43 -1557 71 64 67
-130.027 -1172.54 -1560 74 69 70
-126.129 -1170.14 -1557 75 72 72
-122.405 -1169.24 -1556 78 74 75
-118.228 -1163.85 -1549 78 74 75
-114.381 -1161.46 -1546 81 78 78
-109.905 -1152.32 -1534 88 86 89
-104.932 -1137.17 -1514 105 105 115
-99.8519 -1119.78 -1491 115 117 133
-94.8161 -1101.64 -1467 119 119 134
-89.9558 -1084.27 -1444 118 122 138
-85.8635 -1075.16 -1432 125 127 141
-82.1739 -1070.56 -1426 130 127 142
-78.5133 -1065.96 -1420 122 125 143
-75.3052 -1067.37 -1422 120 122 141
-71.6328 -1062.04 -1415 122 124 145
-68.3319 -1061.96 -1415 122 124 149
-64.802 -1058.13 -1410 116 117 141
-61.4706 -1057.3 -1409 111 115 146
-58.3509 -1060.24 -1413 110 113 145
-55.1354 -1061.67 -1415 104 107 139
-51.8745 -1062.36 -1416 99 101 133
-48.8152 -1067.56 -1423 97 96 122
-45.4042 -1065.25 -1420 90 89 114
-42.6597 -1079.46 -1439 83 83 107
-39.4448 -1083.16 -1444 79 83 103
-36.5568 -1097.37 -1463 83 80 99
-33.6488 -1113.83 -1485 78 77 94
-30.5166 -1125.79 -1501 69 70 85
-27.2563 -1135.51 -1514 69 65 86
-23.8887 -1142.98 -1524 73 69 83
-20.4882 -1151.21 -1535 76 72 85
-17.0036 -1157.19 -1543 74 70 83
-13.4645 -1161.67 -1549 76 69 78
-9.85956 -1161.65 -1549 79 72 76
-6.2747 -1165.4 -1554 82 75 80
-2.65486 -1163.89 -1552 86 79 85
0.956883 -1163.89 -1552 88 81 87
4.56591 -1163.14 -1551 86 79 83
8.20173 -1166.9 -1556 0 0 0
-255.241 -1166.41 -1535 172 170 164
-251.242 -1164.59 -1533 138 135 136
-247.254 -1162.78 -1531 111 109 115
-242.802 -1158.7 -1526 106 110 119
-237.435 -1150.07 -1515 103 106 124
-231.352 -1137.66 -1499 105 110 128
-226.108 -1129.04 -1488 109 115 135
-219.124 -1111.33 -1465 108 115 140
-213.429 -1099.71 -1450 101 110 134
-208.532 -1091.88 -1440 104 113 137
-203.115 -1081.03 -1426 108 118 142
-198.327 -1073.21 -1416 106 114 138
-193.864 -1066.92 -1408 101 109 133
-189.17 -1059.12 -1398 98 107 130
-186.387 -1061.94 -1402 101 111 132
-182.543 -1058.69 -1398 101 110 126
-179.745 -1061.51 -1402 101 106 123
-176.175 -1059.79 -1400 103 107 126
-174.099 -1067.16 -1410 106 110 131
-171.371 -1070.75 -1415 104 109 134
-167.553 -1067.52 -1411 97 105 125
-164.337 -1068.09 -1412 92 100 115
-161.917 -1073.95 -1420 85 92 102
-159.46 -1079.81 -1428 81 88 96
-156.312 -1081.15 -1430 80 83 97
-154.012 -1088.53 -1440 80 79 92
-151.248 -1092.89 -1446 78 73 85
-148.866 -1100.27 -1456 75 69 74
-146.139 -1105.39 -1463 74 66 70
-143.478 -1111.27 -1471 75 64 66
-140.876 -1117.9 -1480 73 59 58
-139.255 -1132.85 -1500 66 52 51
-137.36 -1146.28 -1518 61 51 51
-135.647 -1161.98 -1539 63 54 55
-133.064 -1170.88 -1551 70 62 63
-129.592 -1172.24 -1553 71 65 66
-125.869 -1171.34 -1552 71 68 71
-122.309 -1171.95 -1553 73 69 71
-118.287 -1168.04 -1548 74 70 71
-114.512 -1166.4 -1546 76 74 72
-110.031 -1157.22 -1534 77 77 75
-105.191 -1143.51 -1516 87 88 90
-100.369 -1129.07 -1497 106 108 113
-95.7012 -1115.38 -1479 118 111 118
-90.9944 -1100.19 -1459 123 122 131
-86.6822 -1088.78 -1444 130 128 141
-82.9603 -1084.16 -1438 133 129 148
-79.1567 -1078.03 -1430 127 127 150
-75.6564 -1075.68 -1427 124 123 146
-72.0188 -1071.07 -1421 121 120 147
-68.7485 -1071.75 -1422 116 116 148
-65.4283 -1071.67 -1422 112 112 139
-62.4144 -1076.87 -1429 106 109 144
-58.9138 -1073.79 -1425 103 106 142
-55.7056 -1075.98 -1428 100 103 138
-52.4472 -1077.43 -1430 98 99 133
-49.2488 -1080.38 -1434 92 93 121
-46.0962 -1084.85 -1440 86 88 114
-43.124 -1094.59 -1453 82 86 109
-40.1188 -1105.09 -1467 74 82 106
-37.0739 -1116.35 -1482 74 76 97
-34.0275 -1129.86 -1500 75 77 95
-30.7957 -1139.62 -1513 75 76 92
-27.3775 -1144.1 -1519 77 73 88
-23.9316 -1148.59 -1525 76 72 85
-20.4848 -1154.59 -1533 76 72 85
-16.9898 -1159.84 -1540 73 69 82
-13.445 -1163.59 -1545 76 69 78
-9.83878 -1162.83 -1544 79 72 76
-6.26167 -1166.58 -1549 83 76 81
-2.6491 -1165.07 -1547 83 76 82
0.954519 -1164.32 -1546 86 79 85
4.55055 -1162.81 -1544 87 80 85
8.16895 -1165.83 -1548 0 0 0
-254.207 -1165.27 -1527 0 0 0
-250.714 -1165.74 -1528 167 165 164
-247.381 -1166.98 -1530 134 131 135
-243.722 -1166.69 -1530 113 117 126
-238.81 -1160.31 -1522 110 113 131
-234.712 -1157.75 -1519 107 110 129
-230.174 -1152.9 -1513 106 109 130
-224.62 -1142.73 -1500 110 114 139
-219.424 -1134.1 -1489 103 111 133
-214.283 -1125.46 -1478 100 109 129
-208.77 -1114.56 -1464 106 116 136
-205.148 -1113.56 -1463 106 114 134
-197.259 -1088.97 -1431 101 109 129
-192.641 -1081.89 -1422 100 107 132
-188.866 -1079.39 -1419 105 112 143
-185.5 -1079.17 -1419 106 114 140
-182.264 -1079.72 -1420 105 110 135
-179.151 -1081.03 -1422 108 112 136
-175.784 -1080.82 -1422 113 117 140
-172.176 -1079.1 -1420 115 119 147
-168.936 -1079.66 -1421 113 117 140
-165.809 -1080.99 -1423 99 102 121
-162.447 -1080.8 -1423 86 89 102
-159.31 -1082.13 -1425 84 86 102
-156.602 -1086.5 -1431 78 83 94
-153.869 -1090.88 -1437 79 79 89
-151.318 -1096.77 -1445 81 74 83
-148.935 -1104.19 -1455 81 70 77
-146.208 -1109.33 -1462 75 66 76
-143.448 -1114.47 -1469 74 63 69
-140.848 -1121.14 -1478 76 62 63
-139.044 -1134.63 -1496 70 56 55
-136.975 -1146.6 -1512 60 50 50
-135.009 -1160.09 -1530 63 54 55
-132.273 -1167.52 -1540 69 61 63
-128.739 -1168.13 -1541 71 65 66
-125.121 -1167.98 -1541 70 67 68
-121.582 -1168.6 -1542 72 69 70
-117.811 -1166.94 -1540 73 70 71
-114.199 -1166.81 -1540 73 71 69
-109.942 -1159.86 -1531 72 70 66
-105.451 -1149.89 -1518 77 75 71
-100.82 -1137.65 -1502 96 93 89
-96.2649 -1125.42 -1486 123 112 109
-91.5362 -1110.16 -1466 129 122 126
-87.3229 -1100.22 -1453 131 125 137
-83.5757 -1095.58 -1447 134 129 152
-79.7465 -1089.42 -1439 129 128 154
-76.0619 -1084.79 -1433 120 119 145
-72.6091 -1083.19 -1431 114 114 142
-69.3115 -1083.87 -1432 110 111 143
-65.872 -1082.28 -1430 105 107 138
-62.7923 -1086.74 -1436 99 105 142
-59.561 -1088.94 -1439 96 102 139
-56.3554 -1091.9 -1443 93 100 134
-52.9481 -1091.08 -1442 92 96 131
-49.7523 -1094.81 -1447 84 89 110
-46.6299 -1100.8 -1455 82 88 106
-43.6786 -1112.1 -1470 79 85 102
-40.6303 -1122.64 -1484 72 82 103
-37.5923 -1135.46 -1501 74 79 93
-34.4299 -1146.76 -1516 75 78 91
-31.0144 -1151.27 -1522 76 75 89
-27.5172 -1153.5 -1525 76 72 85
-23.9748 -1154.23 -1526 74 70 83
-20.4681 -1157.23 -1530 72 68 81
-16.954 -1160.99 -1535 73 68 81
-13.4081 -1164 -1539 74 65 77
-9.81819 -1163.98 -1539 77 70 76
-6.24436 -1167 -1543 82 75 81
-2.64356 -1166.24 -1542 84 77 83
0.953787 -1166.99 -1543 83 79 84
4.55286 -1167 -1543 88 82 88
8.16804 -1169.27 -1546 86 82 86
-250.187 -1166.88 -1523 0 0 0
-247.023 -1168.88 -1526 173 173 172
-243.688 -1170.13 -1528 149 151 151
-239.247 -1166.02 -1523 120 120 129
-235.605 -1165.74 -1523 115 116 129
-231.814 -1164.7 -1522 113 115 133
-227.131 -1159.07 -1515 111 116 140
-222.926 -1155.75 -1511 108 118 138
-218.453 -1150.9 -1505 104 115 135
-213.725 -1144.53 -1497 108 120 140
-208.335 -1134.35 -1484 109 117 137
-202.458 -1121.11 -1467 104 111 130
-197.07 -1110.18 -1453 107 111 133
-192.551 -1103.84 -1445 115 115 141
-188.334 -1099.04 -1439 119 124 151
-184.533 -1096.53 -1436 119 126 150
-181 -1095.55 -1435 118 124 146
-177.226 -1093.05 -1432 122 124 142
-173.59 -1091.32 -1430 127 122 143
-169.965 -1089.59 -1428 112 110 126
-166.585 -1089.4 -1428 94 92 105
-162.978 -1087.68 -1426 85 84 94
-159.719 -1088.25 -1427 81 82 94
-156.784 -1091.12 -1431 80 83 82
-153.94 -1094.75 -1436 81 81 78
-151.389 -1100.67 -1444 82 76 73
-149.108 -1108.88 -1455 84 70 69
-146.377 -1114.04 -1462 76 67 71
-143.517 -1118.45 -1468 75 64 68
-140.63 -1122.85 -1474 75 61 64
-138.647 -1134.88 -1490 70 56 55
-136.499 -1146.14 -1505 60 50 48
-134.371 -1158.17 -1521 60 51 51
-131.824 -1167.15 -1533 67 59 61
-128.47 -1169.28 -1536 69 63 64
-124.778 -1168.37 -1535 70 67 68
-121.171 -1168.23 -1535 71 68 69
-117.488 -1167.33 -1534 73 70 71
-113.886 -1167.2 -1534 71 69 67
-109.638 -1160.22 -1525 75 67 65
-105.225 -1150.97 -1513 80 72 69
-100.735 -1140.2 -1499 96 88 83
-96.1817 -1127.91 -1483 130 114 111
-91.6421 -1114.88 -1466 124 113 112
-87.4841 -1105.65 -1454 117 106 110
-83.7879 -1101.75 -1449 125 113 126
-80.0052 -1096.33 -1442 125 116 132
-76.2561 -1090.92 -1435 116 106 124
-72.7946 -1089.31 -1433 114 105 122
-69.6339 -1092.27 -1437 111 104 122
-66.2709 -1092.19 -1437 103 103 127
-63.215 -1097.43 -1444 98 101 129
-60.0442 -1101.16 -1449 96 100 127
-56.7333 -1102.62 -1451 92 96 119
-53.3768 -1103.31 -1452 87 88 115
-50.154 -1107.05 -1457 85 86 95
-46.9725 -1112.31 -1464 83 84 90
-43.9373 -1122.14 -1477 83 82 89
-40.9239 -1134.24 -1493 76 77 88
-37.7861 -1144.83 -1507 78 78 81
-34.5833 -1155.43 -1521 80 78 83
-31.1114 -1158.43 -1525 76 73 81
-27.5488 -1158.39 -1525 73 70 80
-24.0023 -1159.12 -1526 73 69 84
-20.4782 -1161.38 -1529 74 70 84
-16.9403 -1163.63 -1532 72 67 80
-13.3885 -1165.9 -1535 74 65 76
-9.81013 -1166.64 -1536 77 70 76
-6.2394 -1169.67 -1540 83 76 82
-2.63973 -1168.15 -1538 86 79 85
0.953274 -1169.66 -1540 85 79 86
4.5495 -1169.67 -1540 85 81 86
8.15105 -1170.44 -1541 86 82 86
-247.314 -1173.86 -1526 0 0 0
-243.656 -1173.57 -1526 172 171 163
-239.056 -1168.67 -1520 164 163 161
-235.418 -1168.39 -1520 152 153 154
-231.629 -1167.35 -1519 136 138 144
-227.248 -1163.23 -1514 123 129 144
-223.631 -1162.97 -1514 118 129 148
-219.727 -1161.17 -1512 113 125 146
-215.834 -1159.38 -1510 114 126 146
-211.531 -1155.29 -1505 118 126 145
-206.426 -1146.6 -1494 119 125 143
-200.832 -1134.85 -1479 124 127 148
-195.845 -1126.18 -1468 133 128 159
-190.389 -1114.44 -1453 125 126 152
-185.778 -1107.32 -1444 117 119 141
-181.843 -1104.04 -1440 111 112 132
-177.805 -1100 -1435 104 101 119
-174.158 -1098.26 -1433 101 94 100
-170.522 -1096.52 -1431 93 88 89
-166.663 -1093.26 -1427 90 85 85
-163.283 -1093.07 -1427 89 84 84
-159.681 -1091.34 -1425 87 83 83
-156.748 -1094.22 -1429 83 83 79
-154.12 -1099.4 -1436 83 83 77
-151.671 -1106.11 -1445 82 77 69
-149.077 -1112.06 -1453 83 69 66
-146.548 -1118.77 -1462 79 69 71
-143.489 -1121.66 -1466 76 66 70
-140.794 -1127.62 -1474 76 62 65
-138.529 -1137.4 -1487 70 56 55
-136.386 -1148.71 -1502 61 50 48
-134.085 -1159.26 -1516 58 48 48
-131.375 -1166.75 -1526 65 57 59
-128.033 -1168.89 -1529 69 63 64
-124.598 -1170.27 -1531 67 66 66
-120.996 -1170.13 -1531 69 68 67
-117.242 -1168.46 -1529 70 68 66
-113.573 -1167.56 -1528 70 68 66
-109.334 -1160.56 -1519 74 66 64
-105.069 -1152.79 -1509 82 72 69
-100.583 -1141.98 -1495 101 92 89
-96.2286 -1131.93 -1482 136 117 115
-91.9364 -1121.9 -1469 131 115 114
-87.8869 -1114.15 -1459 124 109 108
-83.9432 -1107.18 -1450 118 104 104
-80.2093 -1102.51 -1444 112 102 106
-76.4511 -1097.07 -1437 114 102 109
-72.93 -1094.69 -1434 112 101 109
-69.6178 -1095.37 -1435 112 104 112
-66.5326 -1099.87 -1441 110 102 110
-63.4199 -1104.38 -1447 105 99 111
-60.3627 -1110.41 -1455 101 96 107
-57.0339 -1111.87 -1457 94 89 98
-53.77 -1114.86 -1461 92 84 97
-50.3155 -1114.03 -1460 83 84 92
-47.1875 -1120.84 -1469 81 82 89
-44.0477 -1128.42 -1479 84 81 88
-40.9164 -1137.53 -1491 77 77 83
-37.7043 -1145.87 -1502 75 72 75
-34.5323 -1157.27 -1517 73 70 72
-31.1065 -1161.81 -1523 72 69 71
-27.5988 -1164.07 -1526 72 69 79
-24.0459 -1164.8 -1527 73 69 83
-20.5288 -1167.83 -1531 76 72 85
-16.9488 -1167.8 -1531 72 66 79
-13.3603 -1167.02 -1530 72 65 74
-9.79591 -1168.54 -1532 78 71 77
-6.23422 -1172.34 -1537 84 77 83
-2.63739 -1170.81 -1535 87 80 86
0.950065 -1169.28 -1533 87 80 88
4.54297 -1171.57 -1536 87 83 88
8.12897 -1170.82 -1535 86 82 86
-243.144 -1174.69 -1521 0 0 0
-238.709 -1170.55 -1516 171 171 166
-235.231 -1171.04 -1517 173 173 169
-231.14 -1168.45 -1514 171 172 166
-226.915 -1165.09 -1510 168 168 169
-223.452 -1165.59 -1511 162 165 167
-219.549 -1163.79 -1509 141 146 149
-215.802 -1162.76 -1508 118 125 127
-211.781 -1160.2 -1505 113 117 121
-206.946 -1153.01 -1496 109 113 116
-201.612 -1142.75 -1483 107 110 112
-196.61 -1134.04 -1472 107 106 119
-191.007 -1121.49 -1456 105 102 106
-186.254 -1113.56 -1446 100 95 97
-182.436 -1111.04 -1443 96 89 91
-178.635 -1108.51 -1440 91 83 87
-174.728 -1105.23 -1436 88 80 83
-170.961 -1102.71 -1433 89 81 80
-167.093 -1099.44 -1429 94 85 82
-163.475 -1097.7 -1427 99 90 90
-160.093 -1097.51 -1427 100 92 91
-156.932 -1098.86 -1429 94 88 87
-154.194 -1103.29 -1435 88 84 81
-151.638 -1109.27 -1443 80 78 71
-149.047 -1115.24 -1451 84 71 66
-146.218 -1119.68 -1457 82 69 71
-143.167 -1122.58 -1461 81 68 73
-140.481 -1128.56 -1469 75 63 66
-137.945 -1136.08 -1479 69 55 54
-135.637 -1145.9 -1492 60 49 48
-133.179 -1154.96 -1504 57 47 48
-130.667 -1164.02 -1516 61 53 57
-127.429 -1166.94 -1520 66 59 63
-124.255 -1170.63 -1525 65 64 65
-120.742 -1171.25 -1526 67 67 66
-117.225 -1171.88 -1527 67 67 65
-113.259 -1167.91 -1522 68 66 64
-109.246 -1163.17 -1516 71 66 62
-104.983 -1155.38 -1506 77 71 66
-100.566 -1145.28 -1493 104 97 93
-96.3411 -1136.73 -1482 141 120 114
-92.2318 -1128.95 -1472 138 119 116
-88.05 -1119.64 -1460 133 117 114
-84.1572 -1113.41 -1452 129 118 113
-80.2473 -1106.41 -1443 120 112 112
-76.4872 -1100.95 -1436 115 106 107
-73.0152 -1099.33 -1434 115 105 108
-69.7476 -1100.78 -1436 111 104 109
-66.5177 -1103 -1439 115 103 106
-63.3184 -1105.99 -1443 111 102 108
-60.2671 -1112.05 -1451 105 97 103
-56.9829 -1114.28 -1454 100 92 97
-53.7221 -1117.28 -1458 100 90 99
-50.4432 -1120.28 -1462 95 93 100
-47.2426 -1125.59 -1469 91 88 93
-44.0991 -1133.2 -1479 87 82 83
-40.9366 -1141.58 -1490 77 76 70
-37.6729 -1148.43 -1499 75 70 67
-34.4585 -1158.34 -1512 72 68 66
-31.0814 -1164.44 -1520 74 70 69
-27.5766 -1166.7 -1523 71 67 78
-24.0423 -1168.2 -1525 71 68 77
-20.5258 -1171.24 -1529 78 73 84
-16.9574 -1171.98 -1530 74 66 80
-13.3583 -1170.43 -1528 72 63 75
-9.79447 -1171.95 -1530 76 69 75
-6.21708 -1172.71 -1531 82 75 81
-2.63011 -1171.17 -1529 85 79 85
0.946852 -1168.87 -1526 86 81 87
4.53073 -1171.94 -1530 87 82 90
8.10663 -1171.18 -1529 88 84 90
-230.344 -1167.98 -1507 0 0 0
-226.583 -1166.94 -1506 175 176 169
-222.828 -1165.9 -1505 176 173 165
-219.373 -1166.41 -1506 172 167 156
-215.771 -1166.15 -1506 159 154 143
-212.032 -1165.12 -1505 155 148 140
-207.468 -1159.45 -1498 152 144 136
-202.259 -1149.92 -1486 145 136 127
-197.11 -1140.4 -1474 115 106 108
-191.233 -1126.25 -1456 107 100 99
-186.346 -1117.51 -1445 106 98 98
-182.399 -1114.2 -1441 103 94 96
-178.349 -1110.12 -1436 101 88 90
-174.69 -1108.37 -1434 100 88 91
-171.282 -1108.16 -1434 102 91 90
-167.407 -1104.87 -1430 104 92 89
-163.783 -1103.13 -1428 108 95 96
-160.17 -1101.39 -1426 109 99 100
-157.777 -1108.16 -1435 105 95 96
-154.376 -1107.97 -1435 96 86 87
-151.712 -1113.19 -1442 81 79 72
-149.12 -1119.19 -1450 84 73 66
-146.391 -1124.42 -1457 85 70 68
-143.336 -1127.34 -1461 85 69 71
-140.551 -1132.57 -1468 77 65 69
-137.734 -1137.81 -1475 73 59 58
-135.432 -1147.67 -1488 61 50 48
-132.804 -1155.23 -1498 56 46 45
-130.044 -1162.01 -1507 59 52 55
-126.991 -1166.49 -1513 65 58 61
-123.667 -1168.65 -1516 64 62 62
-120.092 -1168.51 -1516 63 63 62
-116.672 -1169.91 -1518 65 65 63
-112.796 -1166.69 -1514 68 66 63
-108.941 -1163.48 -1510 69 66 61
-104.897 -1157.96 -1503 73 69 64
-100.616 -1149.36 -1492 107 97 93
-96.4543 -1141.54 -1482 137 116 102
-92.4028 -1134.5 -1473 133 117 107
-88.1533 -1124.38 -1460 134 119 110
-84.1399 -1116.58 -1450 146 127 117
-80.5085 -1113.4 -1446 145 129 123
-76.7368 -1107.92 -1439 135 118 112
-73.3557 -1107.83 -1439 125 109 103
-69.9753 -1107.75 -1439 120 107 104
-66.7346 -1109.98 -1442 116 104 106
-63.4805 -1112.21 -1445 111 102 106
-60.3377 -1116.76 -1451 106 97 101
-56.932 -1116.69 -1451 103 95 97
-53.6745 -1119.7 -1455 103 94 97
-50.3296 -1121.18 -1457 100 92 89
-47.1691 -1127.28 -1465 98 91 84
-44.0014 -1134.15 -1474 95 86 74
-40.8195 -1141.79 -1484 83 74 56
-37.5911 -1149.44 -1494 77 69 57
-34.3848 -1159.4 -1507 77 70 62
-30.9949 -1164.75 -1514 75 70 67
-27.5907 -1170.87 -1522 72 67 76
-24.0388 -1171.61 -1523 75 72 80
-20.5228 -1174.66 -1527 76 71 82
-16.9217 -1173.1 -1525 70 64 79
-13.3301 -1171.54 -1523 73 67 74
-9.75438 -1170.76 -1522 77 74 79
-6.19178 -1171.52 -1523 81 77 82
-2.61744 -1169.21 -1520 84 80 85
0.943849 -1168.44 -1519 84 80 85
4.51825 -1172.28 -1524 87 83 88
8.08449 -1171.52 -1523 90 86 90
-226.1 -1168 -1501 0 0 0
-222.649 -1168.51 -1502 177 173 169
-218.759 -1166.69 -1500 180 170 166
-215.311 -1167.21 -1501 170 158 154
-211.579 -1166.17 -1500 168 151 147
-207.16 -1161.26 -1494 167 149 144
-202.091 -1152.47 -1483 160 141 135
-196.943 -1142.9 -1471 128 111 101
-191.46 -1131.02 -1456 109 99 96
-186.825 -1123.8 -1447 109 100 99
-182.616 -1118.92 -1441 109 101 103
-178.685 -1115.6 -1437 111 98 95
-174.898 -1113.06 -1434 109 96 96
-171.366 -1112.08 -1433 110 98 97
-167.606 -1109.55 -1430 110 99 97
-164.092 -1108.58 -1429 112 100 100
-160.585 -1107.61 -1428 112 101 100
-157.634 -1110.52 -1432 108 97 97
-154.666 -1113.44 -1436 100 88 89
-151.681 -1116.36 -1440 88 81 78
-148.885 -1120.83 -1446 83 73 69
-146.061 -1125.31 -1452 86 73 73
-143.211 -1129.78 -1458 88 72 76
-140.43 -1135.04 -1465 83 70 74
-137.617 -1140.3 -1472 78 63 63
-135.41 -1150.98 -1486 65 52 51
-132.606 -1157.02 -1494 55 44 43
-129.852 -1163.83 -1503 57 49 51
-126.721 -1167.55 -1508 60 55 57
-123.486 -1170.5 -1512 62 60 60
-119.916 -1170.36 -1512 61 61 60
-116.425 -1170.99 -1513 66 65 64
-112.557 -1167.76 -1509 67 67 65
-108.781 -1165.31 -1506 69 66 63
-104.671 -1158.99 -1498 74 70 65
-100.398 -1150.36 -1487 99 91 82
-96.2423 -1142.51 -1477 135 118 107
-92.1979 -1135.43 -1468 134 117 110
-88.1364 -1127.59 -1458 135 118 112
-84.123 -1119.76 -1448 143 126 116
-80.5477 -1117.34 -1445 156 136 126
-76.9341 -1114.15 -1441 153 130 123
-73.3912 -1111.75 -1438 142 118 112
-70.0092 -1111.66 -1438 129 108 100
-66.9059 -1116.22 -1444 119 100 97
-63.5553 -1116.91 -1445 113 97 91
-60.2006 -1117.61 -1446 109 95 88
-56.999 -1121.41 -1451 104 93 84
-53.7745 -1125.21 -1456 101 91 86
-50.4926 -1128.24 -1460 98 91 86
-47.3536 -1135.13 -1469 97 90 83
-44.1429 -1141.26 -1477 97 88 77
-40.8676 -1146.62 -1484 88 77 64
-37.5599 -1151.98 -1491 79 71 60
-34.3339 -1161.21 -1503 74 68 59
-30.9288 -1165.81 -1509 75 69 64
-27.4416 -1168.09 -1512 72 67 75
-23.9881 -1172.7 -1518 75 70 79
-20.4393 -1173.44 -1519 73 68 80
-16.8748 -1173.42 -1519 66 61 76
-13.2843 -1171.09 -1516 75 68 77
-9.72728 -1171.07 -1516 86 83 88
-6.17052 -1171.06 -1516 95 93 96
-2.61013 -1169.51 -1514 95 92 95
0.940003 -1167.2 -1511 97 94 98
4.49113 -1168.74 -1513 99 95 98
8.04105 -1168.75 -1513 103 99 101
-217.999 -1166.16 -1493 174 172 168
-214.277 -1165.12 -1492 164 162 155
-210.561 -1164.09 -1491 163 151 143
-206.575 -1161.5 -1488 165 148 141
-202.06 -1155.79 -1481 163 142 135
-197.045 -1146.97 -1470 129 115 102
-191.821 -1136.59 -1457 114 102 98
-187.178 -1129.34 -1448 112 101 100
-182.834 -1123.66 -1441 112 103 103
-178.774 -1119.55 -1436 112 101 97
-175.107 -1117.78 -1434 108 98 96
-171.57 -1116.79 -1433 109 99 99
-167.571 -1112.69 -1428 110 100 101
-164.173 -1112.49 -1428 114 103 101
-160.889 -1113.08 -1429 114 101 98
-157.491 -1112.89 -1429 109 97 95
-154.311 -1114.26 -1431 101 91 89
-151.44 -1117.97 -1436 94 84 83
-148.546 -1121.68 -1441 85 75 72
-145.731 -1126.18 -1447 86 74 73
-142.693 -1129.12 -1451 87 73 76
-140.309 -1137.51 -1462 85 71 74
-137.593 -1143.57 -1470 82 65 67
-135.206 -1152.74 -1482 68 53 55
-132.497 -1159.58 -1491 57 45 46
-129.574 -1164.87 -1498 57 50 52
-126.367 -1167.82 -1502 59 55 57
-123.061 -1170.01 -1505 60 59 59
-119.662 -1171.42 -1507 61 61 61
-116.024 -1170.5 -1506 63 60 61
-112.392 -1169.59 -1505 59 59 57
-108.693 -1167.9 -1503 65 63 60
-104.725 -1163.11 -1497 79 74 71
-100.584 -1156 -1488 100 93 83
-96.6827 -1151.22 -1482 138 121 111
-92.4959 -1142.56 -1471 138 122 113
-88.3014 -1133.14 -1459 137 121 113
-84.1646 -1123.71 -1447 148 131 120
-80.6991 -1122.84 -1446 159 138 129
-76.9719 -1118.09 -1440 158 136 128
-73.4781 -1116.44 -1438 153 130 122
-70.0433 -1115.58 -1437 135 114 107
-66.8461 -1118.61 -1441 121 101 96
-63.4985 -1119.31 -1442 114 96 91
-60.1886 -1120.79 -1444 110 95 90
-56.9092 -1123.04 -1447 105 94 89
-53.7273 -1127.64 -1453 102 92 87
-50.3792 -1129.13 -1455 98 91 91
-47.3451 -1138.38 -1467 96 89 89
-44.1053 -1143.76 -1474 94 85 82
-40.8883 -1150.69 -1483 89 78 75
-37.5285 -1154.52 -1488 81 74 68
-34.2143 -1160.69 -1496 75 69 63
-30.8218 -1165.3 -1502 76 70 65
-27.3105 -1166.05 -1503 72 68 73
-23.8581 -1169.89 -1508 66 61 69
-20.3421 -1171.42 -1510 59 54 64
-16.7946 -1171.4 -1510 66 61 72
-13.221 -1169.05 -1507 82 75 83
-9.68086 -1169.04 -1507 94 92 95
-6.14106 -1169.03 -1507 100 99 100
-2.59937 -1168.25 -1506 99 99 99
0.93699 -1166.7 -1504 102 99 102
4.47881 -1169.03 -1507 107 103 106
8.02923 -1170.59 -1509 106 102 104
-217.238 -1165.61 -1486 0 0 0
-213.384 -1163.78 -1484 167 165 159
-209.259 -1160.39 -1480 164 156 149
-205.851 -1160.93 -1481 161 148 141
-201.757 -1157.55 -1477 162 144 136
-196.879 -1149.47 -1467 131 118 109
-192.315 -1142.97 -1459 115 103 101
-187.92 -1137.26 -1452 113 102 102
-183.307 -1129.98 -1443 113 102 100
-179.113 -1125.07 -1437 115 104 102
-175.072 -1120.94 -1432 114 104 103
-171.417 -1119.17 -1430 113 103 103
-167.302 -1114.27 -1424 113 103 103
-163.794 -1113.29 -1423 117 106 102
-160.631 -1114.66 -1425 116 103 99
-157.459 -1116.03 -1427 112 99 96
-154.172 -1116.63 -1428 104 93 91
-151.093 -1118.79 -1431 97 87 87
-148.311 -1123.3 -1437 90 80 78
-145.402 -1127.03 -1442 88 77 76
-142.568 -1131.55 -1448 91 77 80
-140.188 -1139.97 -1459 87 73 76
-137.57 -1146.84 -1468 80 63 65
-135.094 -1155.27 -1479 68 53 55
-132.122 -1159.79 -1485 58 46 49
-129.123 -1164.32 -1491 57 51 52
-126.013 -1168.08 -1496 62 56 57
-122.634 -1169.49 -1498 62 59 59
-119.089 -1169.34 -1498 60 60 60
-115.776 -1171.54 -1501 62 59 60
-112.227 -1171.41 -1501 62 61 57
-108.678 -1171.28 -1501 72 69 65
-104.78 -1167.25 -1496 84 80 77
-100.637 -1160.1 -1487 100 93 83
-96.7327 -1155.3 -1481 137 120 108
-92.4802 -1145.83 -1469 139 123 113
-88.1038 -1134.02 -1454 140 124 115
-84.1484 -1126.9 -1445 148 131 120
-80.5717 -1124.46 -1442 160 139 130
-76.8495 -1119.69 -1436 162 139 130
-73.5145 -1120.38 -1437 154 129 121
-70.1267 -1120.29 -1437 134 112 104
-66.8327 -1121.77 -1439 121 101 96
-63.3977 -1120.91 -1438 114 96 92
-60.0515 -1121.62 -1439 112 96 92
-56.8194 -1124.67 -1443 106 93 88
-53.6061 -1128.5 -1448 101 91 86
-50.4391 -1133.89 -1455 97 89 90
-47.369 -1142.41 -1466 94 86 89
-44.1877 -1149.37 -1475 92 84 84
-40.9369 -1155.55 -1483 89 78 76
-37.5731 -1159.4 -1488 81 74 69
-34.1633 -1162.47 -1492 77 70 65
-30.735 -1165.55 -1496 76 70 65
-27.2155 -1165.51 -1496 71 67 72
-23.728 -1167.04 -1498 64 60 65
-20.2178 -1167.8 -1499 63 59 66
-16.7254 -1170.11 -1502 71 66 75
-13.184 -1169.31 -1501 92 89 93
-9.66673 -1170.86 -1503 101 101 103
-6.12379 -1169.29 -1501 103 101 103
-2.59376 -1169.29 -1501 105 102 104
0.935 -1167.73 -1499 103 102 103
4.46924 -1170.07 -1502 107 103 106
8.0123 -1171.63 -1504 107 104 105
-213.354 -1167.13 -1482 0 0 0
-209.229 -1163.73 -1478 171 164 158
-205.682 -1163.48 -1478 165 154 147
-201.727 -1160.87 -1475 161 145 137
-197.251 -1155.12 -1468 132 119 112
-192.547 -1147.8 -1459 115 103 99
-188.277 -1142.85 -1453 113 102 101
-183.401 -1133.98 -1442 112 102 102
-179.08 -1128.25 -1435 114 104 104
-175.161 -1124.89 -1431 115 105 103
-171.503 -1123.11 -1429 114 103 101
-167.504 -1118.98 -1424 112 101 99
-163.991 -1117.99 -1423 113 102 98
-160.711 -1118.58 -1424 113 100 97
-157.649 -1120.75 -1427 111 98 95
-154.25 -1120.56 -1427 103 92 88
-151.064 -1121.94 -1429 98 88 88
-148.283 -1126.47 -1435 92 82 81
-145.375 -1130.22 -1440 90 79 78
-142.641 -1135.54 -1447 95 81 82
-140.068 -1142.43 -1456 89 77 80
-137.548 -1150.11 -1466 81 67 69
-135.165 -1159.36 -1478 70 57 59
-132.192 -1163.91 -1484 64 52 55
-129.191 -1168.46 -1490 62 54 56
-125.995 -1171.44 -1494 63 57 58
-122.454 -1171.29 -1494 64 59 60
-118.834 -1170.36 -1493 63 60 61
-115.375 -1171 -1494 64 61 62
-111.912 -1171.65 -1495 68 66 62
-108.228 -1169.95 -1493 84 80 75
-104.345 -1165.91 -1488 87 81 75
-100.351 -1160.3 -1481 97 90 82
-96.3908 -1154.7 -1474 137 122 108
-92.1498 -1145.18 -1462 141 124 113
-88.2699 -1139.59 -1455 141 124 115
-84.2492 -1131.66 -1445 148 131 121
-80.5562 -1127.64 -1440 160 139 128
-77.0487 -1125.98 -1438 162 139 129
-73.5513 -1124.32 -1436 153 128 119
-70.2107 -1125.02 -1437 133 110 101
-66.8196 -1124.94 -1437 119 99 95
-63.3852 -1124.08 -1436 112 95 91
-60.0815 -1125.57 -1438 109 93 89
-56.8874 -1129.41 -1443 106 92 88
-53.7443 -1134.83 -1450 101 90 85
-50.5342 -1139.46 -1456 97 89 89
-47.4257 -1147.23 -1466 96 88 89
-44.1805 -1152.65 -1473 96 89 84
-40.9306 -1158.86 -1481 90 80 75
-37.5421 -1161.94 -1485 78 71 65
-34.0895 -1163.46 -1487 73 66 61
-30.6278 -1164.99 -1489 72 66 61
-27.1023 -1164.17 -1488 66 62 67
-23.6294 -1165.71 -1490 65 61 64
-20.1474 -1167.25 -1492 72 68 71
-16.6673 -1169.57 -1495 87 83 87
-13.1468 -1169.55 -1495 98 98 97
-9.6395 -1171.1 -1497 103 102 104
-6.11466 -1171.09 -1497 103 101 104
-2.5914 -1171.87 -1498 104 101 104
0.934475 -1170.31 -1496 101 103 101
4.46583 -1172.66 -1499 106 103 104
8.00601 -1174.23 -1501 108 105 106
-208.349 -1162.32 -1470 0 0 0
-205.096 -1163.65 -1472 168 162 156
-201.424 -1162.61 -1471 164 151 142
-197.087 -1157.63 -1465 137 121 115
-192.78 -1152.65 -1459 117 104 100
-188.635 -1148.47 -1454 114 103 101
-183.878 -1140.35 -1444 114 104 102
-179.422 -1133.81 -1436 115 103 104
-175.251 -1128.86 -1430 117 104 103
-171.351 -1125.49 -1426 117 103 100
-167.353 -1121.34 -1421 112 101 99
-163.959 -1121.14 -1421 110 96 93
-160.68 -1121.73 -1422 109 95 92
-157.397 -1122.32 -1423 110 96 92
-154.003 -1122.14 -1423 105 94 90
-150.929 -1124.32 -1426 98 88 88
-147.738 -1125.71 -1428 92 82 81
-145.045 -1131.05 -1435 91 80 79
-142.221 -1135.61 -1441 94 80 81
-139.949 -1144.89 -1453 89 77 78
-137.62 -1154.18 -1465 84 70 71
-135.145 -1162.68 -1476 72 59 61
-132.351 -1168.82 -1484 64 52 55
-129.347 -1173.39 -1490 62 54 56
-125.809 -1173.23 -1490 63 55 57
-122.273 -1173.08 -1490 65 59 60
-118.579 -1171.36 -1488 63 60 61
-115.127 -1172.01 -1489 66 63 64
-111.522 -1171.08 -1488 73 71 67
-107.996 -1170.95 -1488 88 85 78
-104.049 -1166.1 -1482 91 86 75
-100.132 -1161.26 -1476 94 88 82
-96.1795 -1155.63 -1469 129 114 99
-91.9453 -1146.08 -1457 137 121 107
-87.8902 -1138.11 -1447 141 124 113
-84.1171 -1133.28 -1441 151 133 121
-80.4292 -1129.25 -1436 164 142 131
-76.9804 -1128.37 -1435 165 140 130
-73.4859 -1126.71 -1433 156 130 120
-70.0505 -1125.83 -1432 135 112 103
-66.7604 -1127.32 -1434 120 100 97
-63.3289 -1126.46 -1433 114 96 93
-60.0282 -1127.96 -1435 110 92 89
-56.9162 -1133.39 -1442 106 90 86
-53.8089 -1139.61 -1450 99 89 85
-50.6643 -1145.84 -1458 99 91 89
-47.515 -1152.85 -1467 99 91 89
-44.2636 -1158.29 -1474 97 90 84
-40.952 -1162.96 -1480 87 78 70
-37.5112 -1164.48 -1482 80 73 65
-34.0845 -1166.8 -1485 76 69 63
-30.5821 -1166.76 -1485 70 64 61
-27.0437 -1165.15 -1483 66 62 67
-23.5783 -1166.69 -1485 71 67 68
-20.0634 -1165.88 -1484 80 76 78
-16.5979 -1168.22 -1487 96 92 94
-13.1186 -1170.55 -1490 99 99 97
-9.63156 -1173.68 -1494 103 102 103
-6.10553 -1172.89 -1493 102 102 102
-2.58751 -1173.67 -1494 104 104 104
0.933108 -1172.1 -1492 103 106 103
4.45944 -1174.46 -1495 108 105 106
7.99439 -1176.04 -1497 0 0 0
-205.207 -1167.78 -1471 170 167 160
-201.807 -1168.32 -1472 166 157 149
-197.597 -1164.11 -1467 148 133 125
-193.545 -1160.7 -1463 117 103 96
-189.125 -1154.91 -1456 112 101 97
-184.357 -1146.75 -1446 111 103 97
-179.766 -1139.39 -1437 116 105 101
-175.587 -1134.42 -1431 115 104 100
-171.679 -1131.03 -1427 114 103 99
-167.675 -1126.86 -1422 110 98 96
-164.274 -1126.66 -1422 106 90 85
-160.875 -1126.46 -1422 104 88 82
-157.478 -1126.27 -1422 106 90 84
-153.974 -1125.29 -1421 106 92 89
-151.112 -1129.06 -1426 99 89 89
-147.918 -1130.46 -1428 93 83 83
-144.816 -1132.66 -1431 92 82 82
-141.9 -1136.44 -1436 94 79 80
-139.54 -1144.98 -1447 90 76 77
-137.035 -1152.72 -1457 84 70 71
-134.484 -1160.46 -1467 73 59 60
-131.797 -1167.42 -1476 59 49 51
-128.809 -1172.01 -1482 59 53 54
-125.286 -1171.85 -1482 62 54 54
-121.928 -1173.29 -1484 66 59 59
-118.403 -1173.14 -1484 64 61 62
-114.88 -1173 -1484 70 67 68
-111.357 -1172.86 -1484 81 77 75
-107.763 -1171.94 -1483 90 85 80
-103.894 -1167.86 -1478 92 85 77
-99.9819 -1162.99 -1472 94 89 79
-96.1649 -1158.92 -1467 124 110 95
-92.0565 -1150.91 -1457 134 118 104
-87.9966 -1142.9 -1447 139 122 110
-84.2188 -1138.06 -1441 150 131 119
-80.6386 -1135.59 -1438 163 140 127
-77.0198 -1132.34 -1434 162 137 126
-73.472 -1129.88 -1431 152 125 115
-70.0862 -1129.79 -1431 133 110 100
-66.6546 -1128.92 -1430 122 101 98
-63.2726 -1128.84 -1430 117 97 95
-59.9752 -1130.34 -1432 112 94 92
-56.985 -1138.16 -1442 108 92 90
-53.7996 -1142.83 -1448 101 91 87
-50.6559 -1149.08 -1456 99 90 87
-47.475 -1155.34 -1464 97 89 87
-44.1967 -1160.02 -1470 91 85 80
-40.8906 -1164.7 -1476 85 78 73
-37.4805 -1167.02 -1479 82 75 67
-34.0337 -1168.56 -1481 74 68 61
-30.4952 -1166.94 -1479 69 63 60
-27.0215 -1167.69 -1480 69 65 68
-23.5591 -1169.24 -1482 85 81 81
-20.0739 -1170 -1483 96 92 92
-16.5955 -1171.56 -1485 101 97 96
-13.1078 -1173.12 -1487 101 101 99
-9.61094 -1174.68 -1489 100 102 102
-6.09639 -1174.67 -1489 100 101 101
-2.57843 -1173.09 -1487 101 101 101
0.931331 -1173.09 -1487 102 102 100
4.45006 -1175.46 -1490 108 105 108
7.98276 -1177.83 -1493 0 0 0
-205.04 -1170.31 -1468 169 170 163
-201.506 -1170.06 -1468 170 163 155
-197.434 -1166.63 -1464 156 145 136
-193.517 -1164 -1461 128 116 106
-189.226 -1158.99 -1455 117 105 96
-184.328 -1150 -1444 116 106 93
-179.61 -1141.81 -1434 117 107 99
-175.556 -1137.61 -1429 115 104 99
-171.649 -1134.21 -1425 116 103 100
-167.88 -1131.62 -1422 112 98 95
-164.359 -1130.62 -1421 104 88 82
-160.845 -1129.62 -1420 98 82 76
-157.559 -1130.22 -1421 101 85 80
-153.837 -1127.65 -1418 105 91 87
-150.766 -1129.85 -1421 99 89 89
-147.787 -1132.84 -1425 94 84 84
-144.689 -1135.05 -1428 91 81 81
-142.073 -1141.23 -1436 96 79 81
-139.71 -1149.8 -1447 92 79 80
-136.92 -1155.19 -1454 86 72 73
-134.189 -1161.38 -1462 75 62 63
-131.243 -1165.99 -1468 61 51 53
-128.096 -1169.01 -1472 60 54 55
-124.592 -1168.85 -1472 66 58 58
-121.172 -1169.5 -1473 67 59 59
-117.829 -1170.94 -1475 62 59 60
-114.477 -1172.38 -1477 70 67 68
-110.967 -1172.25 -1477 85 82 80
-107.604 -1173.7 -1479 88 83 79
-103.809 -1170.4 -1475 90 83 77
-99.9676 -1166.31 -1470 91 86 70
-95.9536 -1159.84 -1462 118 104 92
-91.9154 -1152.59 -1453 134 119 108
-87.9818 -1146.13 -1445 140 123 113
-84.1456 -1140.47 -1438 144 127 117
-80.5682 -1137.99 -1435 160 137 127
-77.0596 -1136.31 -1433 156 132 120
-73.5613 -1134.63 -1431 145 118 106
-70.1223 -1133.75 -1430 132 108 98
-66.6422 -1132.09 -1428 125 105 100
-63.4823 -1135.97 -1433 121 101 98
-60.0899 -1135.89 -1433 116 97 95
-57.0146 -1142.16 -1441 110 94 92
-53.7532 -1145.27 -1445 103 92 88
-50.6129 -1151.54 -1453 97 88 86
-47.4028 -1157.03 -1460 92 85 83
-44.0697 -1160.15 -1464 86 79 76
-40.746 -1164.06 -1469 83 76 72
-37.2976 -1164.8 -1470 81 74 68
-33.8678 -1166.34 -1472 71 64 59
-30.367 -1165.51 -1471 73 65 61
-26.9262 -1167.06 -1473 82 77 74
-23.4443 -1167.03 -1473 95 91 88
-20.0033 -1169.38 -1476 98 94 92
-16.5596 -1172.53 -1480 100 98 96
-13.0706 -1173.3 -1481 99 102 99
-9.57714 -1174.08 -1482 101 101 101
-6.07495 -1174.07 -1482 101 100 98
-2.5728 -1174.07 -1482 103 101 99
0.928708 -1173.27 -1481 106 104 102
4.43447 -1174.86 -1483 108 105 106
7.95528 -1177.25 -1486 0 0 0
-204.733 -1172.05 -1464 172 171 165
-200.929 -1170.2 -1462 171 165 158
-197.003 -1167.55 -1459 163 155 146
-193.092 -1164.91 -1456 146 136 125
-189.069 -1161.47 -1452 131 116 103
-184.427 -1154.05 -1443 126 113 99
-179.58 -1145.02 -1432 131 118 105
-175.403 -1140.01 -1426 130 115 104
-171.86 -1139 -1425 129 112 103
-168.087 -1136.39 -1422 122 105 95
-164.33 -1133.79 -1419 106 89 79
-160.816 -1132.79 -1418 100 84 73
-157.531 -1133.39 -1419 109 91 80
-154.025 -1132.4 -1418 109 97 88
-150.951 -1134.61 -1421 106 95 93
-147.657 -1135.22 -1422 99 88 88
-144.765 -1139.03 -1427 92 82 84
-142.049 -1144.44 -1434 95 81 82
-139.495 -1151.45 -1443 92 79 79
-136.71 -1156.87 -1450 87 73 73
-133.894 -1162.29 -1457 77 63 64
-131.225 -1169.3 -1466 61 52 54
-127.991 -1171.54 -1469 58 53 54
-124.406 -1170.58 -1468 62 56 58
-121.073 -1172.03 -1470 65 58 60
-117.653 -1172.68 -1471 68 64 64
-114.152 -1172.54 -1471 77 75 70
-110.576 -1171.6 -1470 89 85 80
-107.08 -1171.47 -1470 91 85 79
-103.232 -1167.36 -1465 89 83 78
-99.5452 -1164.84 -1462 91 84 74
-95.6109 -1159.14 -1455 112 102 92
-91.7112 -1153.45 -1448 132 119 108
-87.9064 -1148.56 -1442 143 126 116
-84.2485 -1145.27 -1438 149 129 124
-80.5542 -1141.19 -1433 157 136 128
-77.1537 -1141.09 -1433 155 133 122
-73.5996 -1138.61 -1430 143 119 106
-70.2079 -1138.52 -1430 135 110 102
-66.817 -1138.44 -1430 129 108 103
-63.5155 -1139.95 -1432 122 102 98
-60.2472 -1142.27 -1435 118 98 95
-57.0445 -1146.17 -1440 112 95 89
-53.7443 -1148.49 -1443 102 91 87
-50.5351 -1153.21 -1449 96 87 85
-47.3306 -1158.72 -1456 89 80 80
-43.9727 -1161.05 -1459 87 77 73
-40.6845 -1165.77 -1465 83 76 71
-37.2414 -1166.52 -1466 75 69 64
-33.7939 -1167.27 -1467 69 62 58
-30.2593 -1164.85 -1464 83 75 70
-26.8674 -1167.99 -1468 95 89 84
-23.3932 -1167.96 -1468 100 95 92
-19.9463 -1169.53 -1470 102 98 96
-16.5124 -1172.69 -1474 102 100 98
-13.0423 -1174.26 -1476 97 99 99
-9.55645 -1175.04 -1477 101 101 101
-6.06167 -1175.03 -1477 105 103 102
-2.56716 -1175.03 -1477 108 106 104
0.926925 -1174.23 -1476 109 107 105
4.42505 -1175.83 -1478 108 105 106
7.93289 -1177.42 -1480 0 0 0
-204.007 -1171.36 -1457 174 171 164
-200.077 -1168.7 -1454 171 168 162
-196.3 -1166.85 -1452 167 162 155
-192.668 -1165.8 -1451 154 148 140
-188.781 -1163.16 -1448 151 134 120
-184.271 -1156.5 -1440 148 133 120
-179.802 -1149.85 -1432 155 138 124
-175.497 -1144.01 -1425 161 141 127
-171.71 -1141.39 -1422 161 139 127
-167.939 -1138.77 -1419 154 131 118
-164.185 -1136.16 -1416 141 120 107
-160.56 -1134.35 -1414 130 110 97
-157.281 -1134.96 -1415 128 109 95
-153.672 -1133.16 -1413 119 105 94
-150.712 -1136.18 -1417 112 98 95
-147.631 -1138.4 -1420 103 90 89
-144.842 -1143.03 -1426 95 85 85
-141.927 -1146.86 -1431 95 81 80
-139.57 -1155.5 -1442 96 80 79
-136.595 -1159.34 -1447 88 74 74
-133.691 -1163.98 -1453 72 59 60
-130.759 -1168.62 -1459 57 51 52
-127.451 -1170.06 -1461 56 52 53
-123.965 -1169.91 -1461 65 59 61
-120.563 -1170.56 -1462 70 64 66
-117.157 -1171.21 -1463 76 72 73
-113.748 -1171.87 -1464 86 83 77
-110.411 -1173.33 -1466 93 88 82
-106.992 -1174 -1467 95 89 83
-103.359 -1172.27 -1465 91 88 81
-99.6675 -1169.74 -1462 93 86 76
-95.6626 -1163.22 -1454 112 102 91
-91.7604 -1157.51 -1447 132 119 109
-87.8924 -1151.8 -1440 150 133 123
-84.2346 -1148.49 -1436 155 135 130
-80.5968 -1145.19 -1432 160 139 131
-77.1406 -1144.29 -1431 159 137 127
-73.5353 -1141 -1427 151 127 114
