ply
format ascii 1.0
comment Created by Open3D
element vertex 1447
property double x
property double y
property double z
property uchar red
property uchar green
property uchar blue
end_header
-51.1972 -728.171 -1326 62 72 102
-48.3444 -728.681 -1327 64 73 103
-45.4536 -728.643 -1327 40 49 80
-42.6915 -730.805 -1331 40 49 81
-39.8525 -731.87 -1333 42 51 81
-36.9775 -732.388 -1334 40 49 79
-34.0986 -732.909 -1335 41 50 79
-31.309 -735.628 -1340 44 53 81
-28.4133 -736.153 -1341 46 55 81
-25.5514 -737.778 -1344 47 56 81
-22.6599 -738.857 -1346 53 62 88
-19.7013 -737.742 -1344 55 69 94
-16.7516 -736.63 -1342 53 67 93
-13.8416 -737.167 -1343 52 65 92
-10.8868 -734.961 -1339 54 66 91
-7.9555 -733.307 -1336 55 67 92
-5.06358 -735.497 -1340 59 71 96
-2.15929 -739.337 -1347 66 78 97
-154.614 -837.86 -1514 69 74 96
-148.986 -825.01 -1491 59 67 101
-143.069 -809.954 -1464 63 72 103
-137.749 -797.67 -1442 78 87 118
-132.435 -784.839 -1419 71 84 117
-127.678 -774.779 -1401 63 74 106
-123.98 -770.807 -1394 57 68 100
-120.227 -766.285 -1386 51 65 96
-116.933 -764.531 -1383 49 63 92
-113.324 -760.569 -1376 50 64 93
-109.827 -757.163 -1370 49 63 92
-106.435 -754.313 -1365 53 67 98
-103.446 -754.228 -1365 53 67 98
-100.309 -753.042 -1363 55 68 101
-97.0402 -750.752 -1359 57 71 103
-93.8587 -749.018 -1356 57 72 103
-90.8253 -748.392 -1355 58 72 102
-87.408 -744.454 -1348 61 72 104
-84.2728 -742.728 -1345 58 69 101
-81.212 -741.557 -1343 56 67 99
-78.1607 -740.389 -1341 57 68 100
-74.9506 -737.567 -1336 53 67 98
-71.9248 -736.404 -1334 53 67 98
-69.0119 -736.347 -1334 57 71 102
-65.8519 -733.533 -1329 56 71 103
-62.9512 -733.482 -1329 53 67 99
-60.0962 -733.984 -1330 51 64 97
-57.0655 -732.281 -1327 51 65 94
-54.3342 -734.444 -1331 51 63 93
-51.3927 -733.85 -1330 72 81 111
-48.5654 -734.913 -1332 56 65 95
-45.6614 -734.875 -1332 33 42 73
-42.822 -735.943 -1334 43 52 84
-39.7947 -733.704 -1330 42 51 81
-37.0903 -737.534 -1337 40 49 77
-34.1769 -737.506 -1337 43 52 80
-31.2873 -738.031 -1338 44 53 81
-28.3723 -738.007 -1338 44 53 78
-25.5147 -739.641 -1341 45 54 78
-22.6275 -740.724 -1343 51 61 87
-19.7023 -740.707 -1343 54 68 93
-16.7649 -740.141 -1342 54 68 94
-13.8423 -740.129 -1342 55 69 96
-10.9035 -739.016 -1340 58 70 95
-7.98553 -739.009 -1340 55 66 92
-5.07139 -739.555 -1341 58 69 97
-2.16416 -743.964 -1349 63 75 95
-154.739 -841.849 -1514 71 76 100
-149.406 -830.605 -1494 59 67 101
-142.891 -812.141 -1461 63 71 103
-137.383 -798.688 -1437 74 83 113
-132.262 -786.907 -1416 69 82 115
-127.69 -777.911 -1400 64 76 108
-124.08 -774.475 -1394 57 69 100
-120.324 -769.932 -1386 53 67 98
-116.774 -766.503 -1380 52 66 95
-113.333 -763.633 -1375 50 64 93
-110.237 -762.987 -1374 49 63 92
-106.677 -759.012 -1367 51 65 96
-103.681 -758.927 -1367 52 66 98
-100.317 -756.069 -1362 52 65 98
-97.19 -754.879 -1360 54 68 100
-93.9344 -752.582 -1356 57 70 102
-90.9655 -752.507 -1356 59 71 103
-87.8679 -751.325 -1354 60 71 103
-84.7797 -750.145 -1352 57 69 101
-81.58 -747.859 -1348 55 67 99
-78.3986 -745.575 -1344 55 66 98
-75.0671 -741.63 -1337 55 67 99
-71.9288 -739.352 -1333 55 67 98
-68.9121 -738.186 -1331 54 68 99
-66.0041 -738.132 -1331 53 66 99
-63.0967 -738.079 -1331 52 65 98
-60.1898 -738.029 -1331 48 61 94
-57.1975 -736.873 -1329 49 63 92
-54.1736 -735.165 -1326 45 57 87
-51.2794 -735.123 -1326 67 76 106
-48.4585 -736.191 -1328 54 63 93
-45.6637 -737.816 -1331 44 53 84
-42.8242 -738.889 -1333 47 56 88
-39.9165 -738.856 -1333 41 50 80
-37.0924 -740.488 -1336 40 49 77
-34.0765 -738.242 -1332 43 52 80
-31.3125 -741.541 -1338 44 53 81
-28.3951 -741.517 -1338 45 54 79
-25.5352 -743.158 -1341 47 57 82
-22.6456 -744.246 -1343 52 63 88
-19.7182 -744.23 -1343 54 68 93
-16.7909 -744.215 -1343 55 69 95
-13.8947 -745.865 -1346 54 67 94
-10.9449 -744.747 -1344 52 64 89
-8.00983 -744.185 -1343 55 67 94
-5.08679 -744.734 -1344 56 67 95
-2.17226 -749.718 -1353 55 66 86
0.781484 -754.705 -1362 106 110 120
-154.865 -845.846 -1514 70 76 101
-149.428 -833.991 -1493 58 66 100
-143.399 -818.232 -1465 63 71 103
-137.877 -804.714 -1441 74 83 113
-132.65 -792.318 -1419 68 81 114
-127.794 -781.604 -1400 63 76 108
-124.181 -778.152 -1394 54 68 99
-120.683 -775.261 -1389 52 66 97
-117.207 -772.374 -1384 52 66 96
-113.508 -767.816 -1376 50 64 93
-110.407 -767.167 -1375 48 62 91
-106.998 -764.289 -1370 50 63 96
-103.689 -761.972 -1366 53 66 99
-100.324 -759.1 -1361 52 65 98
-97.1973 -757.904 -1359 52 65 98
-94.0799 -756.711 -1357 57 69 101
-91.1065 -756.636 -1357 59 70 102
-87.8091 -753.775 -1352 58 70 102
-84.8484 -753.705 -1352 55 68 99
-81.7673 -752.523 -1350 56 70 101
-78.4038 -748.556 -1343 58 69 101
-75.0718 -744.592 -1336 53 65 96
-72.203 -745.09 -1337 52 65 97
-69.1234 -743.361 -1334 50 63 95
-66.0575 -741.634 -1331 49 63 95
-63.1003 -741.025 -1330 50 64 96
-60.1028 -739.86 -1328 49 63 93
-57.2007 -739.812 -1328 43 57 87
-54.3401 -740.324 -1329 42 55 85
-51.553 -741.952 -1332 65 75 105
-48.6804 -742.469 -1333 54 63 93
-45.7694 -742.431 -1333 41 50 80
-42.891 -742.952 -1334 43 52 82
-40.0686 -744.589 -1337 41 50 82
-37.0668 -742.887 -1334 41 50 80
-34.2065 -743.972 -1336 43 52 82
-31.3143 -744.502 -1337 44 53 79
-28.3543 -743.364 -1335 48 57 85
-25.5368 -746.126 -1340 54 63 90
-22.6132 -746.107 -1340 58 67 91
-19.734 -747.76 -1343 55 69 92
-16.8294 -748.859 -1345 57 70 95
-13.9162 -749.96 -1347 57 68 96
-10.9781 -749.95 -1347 54 68 93
-8.0342 -749.386 -1346 55 67 94
-5.11358 -751.607 -1350 54 65 92
-2.17876 -754.945 -1356 57 67 85
0.781454 -757.728 -1361 97 101 112
-154.992 -849.854 -1514 68 75 99
-149.45 -837.381 -1492 59 67 101
-143.222 -820.424 -1462 66 74 107
-137.415 -805.159 -1435 71 79 111
-132.29 -793.267 -1414 67 79 112
-127.624 -783.624 -1397 61 74 106
-124.193 -781.277 -1393 55 68 101
-120.694 -778.373 -1388 51 64 97
-117.303 -776.032 -1384 49 62 95
-113.683 -772.013 -1377 49 62 94
-110.416 -770.239 -1374 48 63 94
-106.851 -766.227 -1367 54 69 101
-103.697 -765.02 -1365 57 71 104
-100.259 -761.574 -1359 55 68 101
-97.0618 -759.812 -1356 54 68 99
-94.0178 -759.174 -1355 56 70 101
-91.2479 -760.779 -1358 56 70 101
-88.0757 -759.025 -1355 57 71 102
-85.0431 -758.394 -1354 55 69 100
-81.7733 -755.525 -1349 58 72 103
-78.4092 -751.54 -1342 57 69 101
-75.2453 -749.237 -1338 49 63 94
-72.0456 -746.377 -1333 46 60 91
-69.1278 -746.32 -1333 49 62 94
-66.0616 -744.585 -1330 51 65 96
-63.1516 -744.532 -1330 51 65 96
-60.1064 -742.803 -1327 47 61 90
-57.2041 -742.755 -1327 39 53 84
-54.2206 -741.59 -1325 45 58 89
-51.44 -743.226 -1328 68 79 109
-48.6468 -744.864 -1331 51 60 90
-45.9097 -747.624 -1336 35 44 74
-42.9581 -747.028 -1335 40 49 79
-40.0112 -746.435 -1334 41 50 82
-37.0413 -745.284 -1332 36 45 75
-34.2342 -747.493 -1336 41 50 78
-31.2929 -746.907 -1335 46 55 81
-28.3986 -747.442 -1336 48 57 85
-25.5384 -749.098 -1339 53 62 89
-22.6822 -751.317 -1343 56 65 89
-19.8088 -753.537 -1347 53 67 90
-16.8556 -752.963 -1346 56 69 94
-13.9275 -753.51 -1347 60 71 99
-11.0114 -755.178 -1350 58 72 99
-8.07056 -755.729 -1351 58 71 97
-5.12905 -756.843 -1353 57 69 93
-2.18368 -759.637 -1358 58 68 87
0.784481 -763.552 -1365 86 91 102
-154.71 -851.615 -1510 69 75 97
-149.272 -839.647 -1489 58 66 100
-143.242 -823.738 -1461 64 72 105
-137.432 -808.401 -1434 67 76 108
-131.931 -794.197 -1409 66 77 109
-127.455 -785.636 -1394 61 73 106
-123.938 -782.715 -1389 57 70 103
-120.793 -782.051 -1388 51 64 97
-117.315 -779.136 -1383 47 60 93
-114.024 -777.351 -1380 51 64 97
-110.426 -773.316 -1373 53 68 99
-106.704 -768.158 -1364 59 74 105
-103.478 -766.382 -1361 59 74 106
-100.046 -762.92 -1355 56 69 102
-96.8548 -761.15 -1352 56 70 101
-93.7477 -759.946 -1350 56 70 101
-90.852 -760.433 -1351 55 69 100
-87.8876 -760.359 -1351 56 70 101
-84.9241 -760.288 -1351 54 68 99
-81.6582 -757.406 -1346 53 67 98
-78.5319 -755.653 -1343 52 65 98
-75.3632 -753.339 -1339 49 62 94
-72.2128 -751.028 -1335 47 61 92
-69.1844 -749.845 -1333 48 62 93
-66.1654 -748.664 -1331 49 63 94
-63.2033 -748.049 -1330 53 67 97
-60.2008 -746.873 -1328 48 62 91
-57.1215 -744.576 -1324 40 54 85
-54.3878 -746.779 -1328 49 62 92
-51.5209 -747.298 -1329 68 79 109
-48.7963 -750.069 -1334 52 61 91
-45.9471 -751.155 -1336 40 49 79
-43.0575 -751.68 -1337 43 52 82
-40.1339 -751.646 -1337 43 52 84
-37.2107 -751.614 -1337 40 49 78
-34.2622 -751.023 -1336 42 51 79
-31.4122 -752.683 -1339 46 55 81
-28.443 -751.534 -1337 50 59 85
-25.6165 -754.322 -1342 52 61 87
-22.667 -753.74 -1341 55 64 88
-19.8397 -757.658 -1348 55 67 90
-16.9195 -758.767 -1350 58 70 94
-13.9802 -759.316 -1351 60 72 98
-11.0203 -758.744 -1350 59 73 102
-8.08308 -759.86 -1352 60 73 98
-5.14456 -762.103 -1356 58 70 93
-2.18556 -763.224 -1358 58 68 89
0.784064 -766.033 -1363 74 80 93
-154.53 -853.931 -1507 64 69 94
-149.295 -843.04 -1488 60 68 102
-143.164 -826.49 -1459 64 72 105
-137.066 -809.381 -1429 69 78 110
-131.852 -796.81 -1407 71 82 114
-127.56 -789.341 -1394 62 74 106
-124.041 -786.406 -1389 57 70 103
-120.719 -784.606 -1386 51 64 97
-117.581 -783.941 -1385 47 60 94
-114.036 -780.45 -1379 53 66 99
-110.437 -776.395 -1372 57 72 103
-106.714 -771.213 -1363 61 76 108
-103.335 -768.297 -1358 60 75 107
-99.9063 -764.819 -1352 59 72 105
-96.8629 -764.172 -1351 60 74 105
-93.7553 -762.962 -1349 59 73 104
-90.8594 -763.452 -1350 56 70 101
-87.8298 -762.812 -1349 55 69 100
-84.9312 -763.306 -1350 51 65 96
-81.8468 -762.107 -1348 49 63 94
-78.4209 -757.518 -1340 51 64 97
-75.3689 -756.324 -1338 50 63 95
-72.1639 -753.437 -1333 48 62 93
-69.2932 -753.944 -1334 47 61 92
-66.2695 -752.757 -1332 49 63 94
-63.3504 -752.704 -1332 51 65 95
-60.2958 -750.958 -1329 48 62 91
-57.2548 -749.214 -1326 46 60 90
-54.3096 -748.604 -1325 49 62 92
-51.602 -751.385 -1330 64 75 105
-48.9096 -754.733 -1336 55 64 94
-45.9505 -754.129 -1335 41 50 80
-43.1574 -756.352 -1339 43 52 82
-40.1369 -754.623 -1336 43 52 83
-37.3248 -756.85 -1340 44 53 82
-34.316 -755.126 -1337 43 52 80
-31.4145 -755.664 -1338 45 54 80
-28.5729 -757.898 -1342 48 57 83
-25.7522 -761.265 -1348 51 60 85
-22.804 -761.245 -1348 54 63 87
-19.9002 -762.921 -1351 54 66 89
-16.9709 -764.035 -1353 56 68 92
-14.0537 -766.281 -1357 60 72 97
-11.062 -764.577 -1354 63 74 104
-8.10163 -764.569 -1354 60 72 97
-5.14871 -765.693 -1356 59 71 92
-2.18567 -766.255 -1357 56 68 89
0.783072 -767.949 -1360 62 70 84
-158.096 -858.649 -1508 75 80 97
-154.556 -857.38 -1506 63 68 93
-149.218 -845.868 -1486 59 67 101
-143.184 -829.81 -1458 64 72 105
-136.796 -810.913 -1425 69 78 110
-131.774 -799.42 -1405 70 81 113
-127.299 -790.779 -1390 65 77 109
-123.786 -787.83 -1385 61 74 107
-120.645 -787.159 -1384 56 69 102
-117.679 -787.629 -1385 52 65 98
-114.13 -784.121 -1379 55 68 101
-110.529 -780.047 -1372 59 73 104
-106.724 -774.272 -1362 63 77 109
-103.269 -770.774 -1356 65 78 111
-99.8411 -767.279 -1350 62 75 108
-96.7996 -766.629 -1349 58 72 103
-93.6939 -765.414 -1347 59 73 104
-90.6653 -764.769 -1346 56 70 101
-87.707 -764.695 -1346 54 68 99
-84.7496 -764.623 -1346 51 65 96
-81.793 -764.554 -1346 52 66 97
-78.5444 -761.648 -1341 55 66 98
-75.5439 -761.016 -1340 52 65 95
-72.3861 -758.683 -1336 49 63 92
-69.3505 -757.489 -1334 48 62 93
-66.4239 -757.432 -1334 47 62 94
-63.4028 -756.243 -1332 45 60 91
-60.4364 -755.624 -1331 43 57 86
-57.475 -755.007 -1330 43 57 87
-54.5595 -754.961 -1330 45 58 88
-51.6057 -754.349 -1329 62 73 103
-48.8767 -757.146 -1334 68 77 107
-46.0573 -758.809 -1337 51 60 90
-43.2575 -761.042 -1341 43 52 82
-40.2301 -759.305 -1338 41 50 80
-37.4114 -761.543 -1342 41 50 79
-34.2672 -756.973 -1334 40 49 76
-31.5345 -761.486 -1342 44 53 79
-28.5751 -760.894 -1341 47 56 82
-25.7734 -764.843 -1348 51 60 85
-22.8736 -766.525 -1351 54 63 86
-19.9903 -769.344 -1356 54 66 89
-17.0226 -769.329 -1356 56 68 91
-14.055 -769.316 -1356 59 71 96
-11.1039 -770.44 -1358 63 74 104
-8.13818 -771 -1359 61 72 95
-5.15288 -769.292 -1356 60 71 90
-2.19061 -770.992 -1359 60 72 93
0.783233 -770.991 -1359 62 72 88
3.75966 -771.56 -1360 89 98 111
-158.543 -864.397 -1511 73 80 97
-154.582 -860.833 -1505 63 71 95
-148.941 -847.552 -1482 59 67 101
-142.714 -830.274 -1452 66 74 107
-136.045 -809.574 -1416 66 75 107
-131.415 -800.315 -1400 65 76 108
-127.222 -793.347 -1388 63 75 107
-123.71 -790.385 -1383 60 73 106
-120.396 -788.568 -1380 58 71 104
-117.522 -789.611 -1382 57 70 103
-113.894 -785.515 -1375 59 72 104
-110.459 -782.565 -1370 62 76 107
-106.813 -777.905 -1362 65 78 110
-103.355 -774.391 -1356 64 77 110
-100.146 -772.593 -1353 61 74 107
-97.2393 -773.081 -1354 59 73 104
-93.9807 -770.718 -1350 59 73 104
-90.8081 -768.928 -1347 55 69 100
-87.5844 -766.57 -1343 51 65 96
-84.7571 -767.64 -1345 51 65 96
-81.4962 -764.717 -1340 55 69 100
-78.6098 -765.221 -1341 56 67 99
-75.6633 -765.157 -1341 54 67 97
-72.3921 -761.672 -1335 49 63 92
-69.5643 -762.753 -1337 45 59 90
-66.3795 -759.844 -1332 44 58 90
-63.5983 -761.502 -1335 40 55 86
-60.4412 -758.598 -1330 36 50 79
-57.5227 -758.549 -1330 34 48 77
-54.687 -759.643 -1332 41 54 84
-51.7652 -759.599 -1332 60 71 101
-49.1006 -763.548 -1339 64 73 103
-46.13 -762.939 -1338 52 61 90
-43.3903 -766.322 -1344 43 52 82
-40.3237 -764.007 -1340 40 49 79
-37.4424 -765.115 -1342 41 50 77
-34.4499 -763.945 -1340 42 51 77
-31.6076 -766.198 -1344 43 52 78
-28.7054 -767.313 -1346 47 56 82
-25.8522 -770.14 -1351 52 61 86
-22.9094 -770.69 -1352 55 64 86
-19.9921 -772.382 -1355 55 66 88
-17.024 -772.367 -1355 55 66 89
-14.0977 -774.634 -1359 61 73 98
-11.0967 -772.914 -1356 62 73 102
-8.16282 -776.326 -1362 61 71 95
-5.16486 -774.04 -1358 61 71 91
-2.19556 -775.747 -1361 61 73 94
0.784367 -775.177 -1360 65 75 92
3.76841 -776.319 -1362 77 86 100
-158.781 -869.021 -1512 68 74 93
-154.609 -864.291 -1504 59 67 91
-148.663 -849.224 -1478 57 67 99
-142.342 -831.291 -1447 59 70 103
-135.871 -811.642 -1413 63 74 106
-131.243 -802.34 -1397 61 72 104
-126.87 -794.192 -1383 60 72 104
-123.546 -792.364 -1380 62 75 106
-120.323 -791.113 -1378 62 75 108
-117.45 -792.161 -1380 60 74 106
-113.824 -788.046 -1373 59 73 104
-110.633 -786.804 -1371 62 76 107
-107.059 -782.695 -1364 64 77 110
-104.052 -782.607 -1364 62 75 108
-100.526 -778.505 -1357 61 74 107
-97.5363 -778.422 -1357 61 75 106
-94.2684 -776.047 -1353 59 73 104
-90.8841 -772.528 -1347 56 70 101
-87.7882 -771.306 -1345 52 66 97
-84.6388 -769.513 -1342 52 66 97
-81.5035 -767.724 -1339 54 68 99
-78.7341 -769.376 -1342 56 69 101
-75.7829 -769.312 -1342 54 68 98
-72.5611 -766.383 -1337 51 65 94
-69.5182 -765.177 -1335 50 64 95
-66.5347 -764.547 -1334 51 65 96
-63.6038 -764.493 -1334 45 59 90
-60.628 -763.868 -1333 36 50 79
-57.7872 -764.964 -1335 36 50 79
-54.8148 -764.344 -1334 42 55 85
-51.9251 -764.872 -1335 63 74 104
-49.0683 -765.976 -1337 59 68 96
-46.1685 -766.509 -1338 49 58 86
-43.3942 -769.336 -1343 47 56 86
-40.4477 -769.301 -1343 45 54 83
-37.5575 -770.414 -1345 45 54 81
-34.5558 -769.238 -1343 46 55 81
-31.634 -769.783 -1344 45 54 78
-28.772 -772.049 -1348 47 56 81
-25.912 -774.89 -1353 54 62 87
-22.9793 -776.015 -1355 56 64 86
-20.0234 -776.569 -1356 56 66 87
-17.0634 -777.127 -1357 55 66 89
-14.1198 -778.832 -1360 58 70 94
-11.1304 -778.249 -1359 57 69 94
-8.16353 -779.386 -1361 57 67 90
-5.17668 -778.808 -1360 59 69 90
-2.19407 -778.232 -1359 63 75 95
0.783955 -777.659 -1358 67 79 97
3.76886 -779.379 -1361 66 76 92
-159.441 -875.97 -1517 62 69 88
-154.945 -869.486 -1506 56 64 89
-148.889 -853.77 -1479 55 66 97
-142.462 -835.176 -1447 59 70 102
-135.697 -813.704 -1410 65 76 108
-131.354 -806.089 -1397 61 72 104
-127.161 -799.057 -1385 61 72 104
-123.47 -794.913 -1378 63 74 106
-120.162 -793.079 -1375 57 71 103
-116.953 -791.826 -1373 58 71 103
-113.505 -788.845 -1368 58 72 103
-110.16 -786.444 -1364 62 76 107
-106.992 -785.199 -1362 62 75 107
-104.063 -785.686 -1363 61 74 107
-100.759 -783.294 -1359 60 73 106
-97.8343 -783.787 -1360 61 75 106
-94.2082 -778.52 -1351 59 73 104
-91.2981 -779.018 -1352 57 71 102
-87.6007 -772.604 -1341 54 68 99
-84.5837 -771.956 -1340 54 68 99
-81.5111 -770.734 -1338 53 67 98
-78.6829 -771.818 -1340 55 69 100
-75.677 -771.177 -1339 55 69 99
-72.8394 -772.266 -1341 54 68 97
-69.7851 -771.055 -1339 51 65 96
-66.6903 -769.27 -1336 51 65 96
-63.7526 -769.215 -1336 47 61 92
-60.7245 -768.011 -1334 47 61 90
-57.9224 -769.688 -1337 50 64 93
-54.943 -769.065 -1336 58 71 100
-52.0465 -769.595 -1337 49 60 88
-49.2196 -771.28 -1340 40 49 77
-46.2763 -771.239 -1340 40 49 78
-43.4629 -773.504 -1344 39 48 78
-40.5419 -774.044 -1345 40 49 77
-37.6728 -775.738 -1348 41 50 77
-34.6105 -773.405 -1344 43 52 78
-31.8489 -777.981 -1352 46 55 79
-28.8602 -777.38 -1351 48 57 81
-25.972 -779.659 -1355 52 61 84
-22.9986 -779.638 -1355 54 62 84
-20.0698 -781.346 -1358 55 65 86
-17.0902 -781.331 -1358 56 66 88
-14.1316 -782.468 -1360 55 67 90
-11.1643 -783.608 -1362 56 68 91
-8.19445 -785.326 -1365 60 70 93
-5.19996 -785.321 -1365 62 71 94
-2.21197 -787.619 -1369 61 73 92
0.788167 -784.742 -1364 60 74 92
3.78042 -784.744 -1364 58 71 86
-159.05 -877.155 -1512 64 72 92
-154.356 -869.481 -1499 57 66 92
-148.512 -854.852 -1474 53 64 95
-142.189 -836.751 -1443 62 73 105
-135.62 -816.339 -1408 71 82 114
-131.183 -808.109 -1394 63 74 106
-126.993 -801.044 -1382 62 73 105
-123.575 -798.619 -1378 62 73 105
-119.826 -793.88 -1370 55 70 102
-116.796 -793.779 -1370 56 71 102
-113.518 -791.943 -1367 59 73 104
-110.254 -790.11 -1364 60 74 105
-107.004 -788.28 -1361 60 73 104
-103.922 -787.612 -1360 61 73 105
-100.622 -785.209 -1356 61 74 107
-97.629 -785.125 -1356 62 76 108
-94.2879 -782.148 -1351 60 74 105
-91.1726 -780.912 -1349 57 71 102
-87.7401 -776.784 -1342 55 69 100
-84.8448 -777.29 -1343 55 69 100
-81.7019 -775.483 -1340 53 67 98
-78.9844 -777.73 -1344 55 67 98
-75.9107 -776.507 -1342 57 70 100
-72.9009 -775.865 -1341 55 69 98
-69.7919 -774.069 -1338 51 65 96
-66.8466 -774.012 -1338 49 63 94
-63.9498 -774.534 -1339 43 58 89
-60.958 -773.903 -1338 46 60 89
-58.1446 -775.588 -1341 45 59 88
-55.1129 -774.383 -1339 54 67 96
-52.2463 -775.495 -1341 37 48 76
-49.2979 -775.452 -1341 38 47 75
-46.3845 -775.99 -1342 34 43 72
-43.5966 -778.843 -1347 32 41 71
-40.6062 -778.229 -1346 35 44 72
-37.8444 -782.243 -1353 40 49 75
-34.7943 -780.478 -1350 40 49 73
-31.8993 -782.184 -1353 43 52 76
-28.9273 -782.158 -1353 49 58 82
-26.0323 -784.448 -1357 51 60 84
-23.069 -785.005 -1358 52 60 82
-20.1606 -787.877 -1363 53 63 84
-17.1928 -789.017 -1365 54 65 87
-14.1954 -789.004 -1365 54 65 88
-11.2311 -791.305 -1369 58 70 93
-8.21925 -790.719 -1368 60 71 94
-5.23092 -793.026 -1372 61 71 94
-2.21553 -791.867 -1370 59 71 89
0.794703 -794.178 -1374 58 72 89
3.80864 -793.602 -1373 58 71 87
-158.66 -878.324 -1507 61 69 92
-153.766 -869.448 -1492 53 62 88
-147.832 -854.169 -1466 51 62 92
-141.62 -836.567 -1436 66 79 111
-135.35 -817.808 -1404 74 85 118
-131.2 -811.287 -1393 66 77 109
-127.285 -805.936 -1384 62 73 105
-123.591 -801.753 -1377 61 72 104
-120.016 -798.155 -1371 57 72 104
-116.725 -796.308 -1368 56 71 102
-113.448 -794.464 -1365 58 72 103
-110.267 -793.204 -1363 59 73 104
-107.016 -791.366 -1360 60 73 104
-103.934 -790.694 -1359 61 72 104
-100.559 -787.698 -1354 59 72 105
-97.4958 -787.032 -1353 60 73 105
-94.2982 -785.205 -1350 59 73 104
-90.9796 -782.218 -1345 56 70 101
-87.6838 -779.234 -1340 56 70 101
-84.7904 -779.742 -1341 56 70 101
-81.6492 -777.927 -1338 54 68 99
-78.8162 -779.022 -1340 56 68 99
-76.0884 -781.281 -1344 58 71 101
-72.9083 -778.892 -1340 55 69 99
-70.2166 -781.738 -1345 51 65 96
-67.0034 -778.773 -1340 49 63 93
-64.0996 -779.299 -1341 44 58 88
-61.1009 -778.664 -1340 45 59 89
-58.2374 -779.776 -1342 50 64 92
-55.2008 -778.565 -1340 57 70 98
-52.3296 -779.681 -1342 43 54 82
-49.3764 -779.638 -1342 40 49 80
-46.5622 -781.921 -1346 40 49 79
-43.7955 -785.368 -1352 36 45 75
-40.7313 -783.59 -1349 36 45 73
-37.9324 -787.042 -1355 40 48 75
-34.9012 -785.849 -1353 41 49 75
-31.9971 -787.563 -1356 41 50 74
-28.9946 -786.956 -1355 47 56 80
-26.1695 -791.579 -1363 49 59 81
-23.1904 -792.139 -1364 51 61 80
-20.2813 -795.605 -1370 53 63 84
-17.2577 -795.008 -1369 54 63 86
-14.2699 -796.156 -1371 54 63 87
-11.2735 -797.307 -1373 57 69 92
-8.2924 -800.783 -1379 60 72 93
-5.2812 -803.681 -1384 59 71 92
-2.23187 -800.774 -1379 60 72 90
0.800094 -802.516 -1382 62 73 91
3.82582 -800.195 -1378 60 70 88
-161.072 -876.685 -1497 71 76 94
-157.847 -877.133 -1498 60 68 91
-153.279 -869.973 -1486 56 65 92
-147.555 -855.795 -1462 59 70 99
-141.643 -839.867 -1435 69 81 111
-135.562 -822.191 -1405 73 84 116
-131.313 -815.055 -1393 65 76 108
-127.21 -808.508 -1382 61 72 104
-123.607 -804.89 -1376 61 72 104
-120.206 -802.446 -1372 61 74 107
-117.166 -802.344 -1372 60 73 106
-113.628 -798.736 -1366 58 71 104
-110.442 -797.471 -1364 57 71 102
-107.265 -796.209 -1362 55 68 99
-104.022 -794.364 -1359 57 69 101
-100.645 -791.354 -1354 56 70 101
-97.3628 -788.931 -1350 58 72 103
-94.0992 -786.512 -1346 58 72 103
-91.0572 -785.848 -1345 57 71 102
-87.8896 -784.019 -1342 56 70 101
-84.8628 -783.361 -1341 57 71 102
-81.9022 -783.289 -1341 57 71 102
-79.0012 -783.805 -1342 54 68 98
-76.04 -783.738 -1342 55 69 99
-73.025 -783.091 -1341 54 68 99
-70.2764 -785.365 -1345 51 64 96
-67.1606 -783.555 -1342 48 61 92
-64.2978 -784.666 -1344 45 59 88
-61.2899 -784.029 -1343 43 57 86
-58.3739 -784.561 -1344 47 61 88
-55.3304 -783.345 -1342 56 69 96
-52.3742 -783.299 -1342 49 60 88
-49.529 -785.007 -1345 49 58 90
-46.6019 -785.549 -1346 46 55 86
-43.8329 -789.012 -1352 44 53 83
-40.917 -790.143 -1354 42 51 79
-37.9367 -790.11 -1354 42 51 77
-34.931 -789.495 -1353 43 52 77
-32.048 -791.8 -1357 46 55 79
-29.062 -791.774 -1357 47 57 79
-26.2494 -797.002 -1366 48 57 78
-23.3293 -799.898 -1371 52 62 81
-20.3578 -801.63 -1374 54 64 85
-17.4112 -805.114 -1380 50 60 82
-14.3758 -805.1 -1380 51 63 86
-11.3405 -805.09 -1380 59 71 92
-8.33541 -807.998 -1385 60 72 93
-5.30465 -810.326 -1389 60 72 93
-2.245 -808.573 -1386 61 73 91
0.80376 -809.155 -1387 63 73 92
3.83747 -805.657 -1381 63 73 91
-160.995 -879.571 -1495 65 73 90
-157.562 -878.845 -1494 63 70 90
-152.792 -870.477 -1480 59 68 96
-147.48 -858.584 -1460 65 75 103
-141.666 -843.171 -1434 72 83 111
-135.872 -827.177 -1407 69 80 112
-131.52 -819.419 -1394 64 75 107
-127.32 -812.254 -1382 61 72 104
-123.893 -809.795 -1378 60 71 103
-120.485 -807.339 -1374 60 73 106
-117.096 -804.886 -1370 57 70 103
-113.893 -803.612 -1368 55 68 101
-110.537 -801.165 -1364 55 69 100
-107.121 -798.135 -1359 53 67 98
-103.805 -795.695 -1355 54 68 99
-100.285 -791.496 -1348 54 68 99
-97.1577 -790.237 -1346 55 69 100
-94.1101 -789.568 -1345 57 71 102
-91.2033 -790.075 -1346 57 71 102
-88.0307 -788.237 -1343 56 70 101
-84.9357 -786.989 -1341 55 69 100
-82.0948 -788.09 -1343 54 68 99
-79.0102 -786.848 -1341 50 64 92
-76.2754 -789.128 -1345 49 63 93
-73.1422 -787.304 -1342 50 64 95
-70.4413 -790.175 -1347 48 61 94
-67.2683 -787.769 -1343 45 59 89
-64.4487 -789.473 -1346 41 55 83
-61.4338 -788.832 -1345 38 52 81
-58.4674 -788.78 -1345 41 55 83
-55.419 -787.558 -1343 51 65 92
-52.6144 -789.858 -1347 49 60 88
-49.682 -790.4 -1348 52 61 93
-46.815 -792.118 -1351 49 58 89
-43.9028 -793.252 -1353 46 55 85
-40.9823 -794.387 -1355 43 52 79
-37.9972 -794.354 -1355 42 51 76
-34.9866 -793.736 -1354 43 52 76
-32.1699 -797.811 -1361 46 55 79
-29.1941 -798.371 -1362 47 57 78
-26.3872 -804.208 -1372 48 58 78
-23.3663 -804.187 -1372 52 62 81
-20.4345 -807.685 -1378 53 63 84
-17.426 -808.841 -1380 52 63 84
-14.4402 -811.758 -1385 55 67 88
-11.4159 -813.505 -1388 59 71 92
-8.38472 -815.841 -1392 58 70 91
-2.26139 -817.591 -1395 62 74 92
-160.273 -878.911 -1487 63 72 90
-156.643 -877 -1484 62 70 92
-151.788 -868.003 -1469 58 67 95
-146.597 -856.647 -1450 67 77 105
-141.195 -843.526 -1428 68 79 107
-135.603 -828.639 -1403 69 80 112
-131.634 -823.208 -1394 64 75 107
-127.522 -816.6 -1383 59 70 102
-124 -813.539 -1378 56 67 99
-120.589 -811.071 -1374 58 71 103
-117.368 -809.788 -1372 57 70 103
-113.908 -806.737 -1367 57 70 103
-110.632 -804.869 -1364 55 69 100
-107.135 -801.234 -1358 56 70 101
-103.818 -798.783 -1354 56 70 101
-100.446 -795.745 -1349 55 69 100
-97.3861 -795.07 -1348 56 70 101
-94.0512 -792.038 -1343 55 69 100
-91.0785 -791.958 -1343 55 69 100
-88.1723 -792.47 -1344 55 69 100
-85.1357 -791.805 -1343 53 67 98
-82.4103 -794.091 -1347 50 64 95
-79.2552 -792.252 -1344 49 63 90
-76.398 -793.364 -1346 46 60 88
-73.369 -792.71 -1345 45 59 90
-70.5544 -794.416 -1348 44 57 90
-67.5268 -793.767 -1347 44 58 87
-64.5042 -793.121 -1346 42 56 84
-61.4868 -792.477 -1345 40 54 83
-58.5178 -792.425 -1345 40 54 82
-55.5494 -792.376 -1345 52 66 94
-52.6206 -792.918 -1346 46 56 84
-49.7248 -794.052 -1348 47 56 87
-46.89 -796.367 -1352 46 55 86
-44.0056 -798.094 -1355 44 53 83
-41.1386 -800.414 -1359 42 51 77
-38.1422 -800.379 -1359 41 50 74
-35.2237 -802.114 -1362 44 53 77
-32.2922 -803.852 -1365 48 57 81
-29.3908 -806.77 -1370 47 57 79
-26.4099 -807.924 -1372 48 58 79
-23.5398 -813.202 -1381 50 60 79
-20.4817 -812.594 -1380 53 64 85
-17.4663 -813.755 -1382 57 69 90
-14.4317 -814.33 -1383 60 72 93
-11.4175 -816.675 -1387 58 70 91
-8.37987 -818.433 -1390 57 69 90
-5.3366 -821.371 -1395 59 71 92
-2.26016 -820.19 -1393 61 73 91
0.808214 -819.601 -1392 63 75 93
-160.844 -885.343 -1491 66 75 93
-156.885 -881.642 -1485 63 71 93
-151.817 -871.415 -1468 58 67 95
-146.522 -859.414 -1448 65 76 104
-141.12 -846.231 -1426 67 79 107
-135.818 -833.056 -1404 64 75 107
-131.938 -828.193 -1396 58 69 101
-128.002 -822.741 -1387 53 64 96
-124.378 -819.072 -1381 56 67 99
-120.782 -815.406 -1375 61 73 106
-117.642 -814.71 -1374 60 73 106
-114.007 -810.458 -1367 59 72 105
-110.729 -808.582 -1364 55 69 100
-107.149 -804.338 -1357 55 69 100
-104.139 -804.246 -1357 56 69 101
-100.459 -798.823 -1348 56 70 101
-97.3983 -798.144 -1347 58 72 103
-94.6235 -799.838 -1350 58 72 103
-91.3612 -797.388 -1346 57 71 102
-88.5114 -798.494 -1348 56 70 101
-85.3365 -796.641 -1345 53 67 98
-82.543 -798.345 -1348 47 61 92
-79.501 -797.683 -1347 48 62 92
-76.521 -797.615 -1347 46 60 90
-73.5417 -797.549 -1347 46 60 91
-70.7727 -799.855 -1351 44 57 89
-67.6355 -798.019 -1348 44 57 88
-64.6081 -797.369 -1347 45 59 88
-61.5858 -796.723 -1346 43 56 85
-58.612 -796.671 -1346 41 54 83
-55.5562 -795.437 -1344 51 64 93
-52.6662 -796.574 -1346 46 55 84
-49.731 -797.121 -1347 46 55 85
-47.0001 -801.222 -1354 44 53 83
-44.0112 -801.182 -1354 42 51 81
-41.053 -801.737 -1355 44 53 79
-38.119 -802.886 -1357 43 52 76
-35.3318 -807.587 -1365 48 57 80
-32.4622 -811.108 -1371 50 59 83
-29.4162 -810.489 -1370 49 59 80
-26.4713 -812.831 -1374 50 60 81
-23.4919 -814.585 -1377 52 62 81
-20.4846 -815.749 -1379 52 64 85
-17.4813 -817.507 -1382 58 70 91
-14.465 -819.268 -1385 60 72 93
-11.4355 -821.031 -1388 55 68 89
-8.39917 -823.389 -1392 56 69 90
-5.33741 -824.566 -1394 58 70 91
-2.26199 -823.971 -1393 62 74 92
0.806485 -821.013 -1388 64 77 93
-157.022 -885.703 -1485 61 69 91
-151.536 -873.043 -1464 59 70 100
-146.043 -859.794 -1442 66 79 107
-140.749 -847.148 -1421 63 77 104
-135.936 -836.893 -1404 62 73 105
-132.053 -832.006 -1396 61 72 104
-128.114 -826.529 -1387 57 68 100
-124.667 -824.035 -1383 56 68 100
-121.063 -820.352 -1377 57 70 102
-117.573 -817.269 -1372 57 70 103
-113.939 -812.998 -1365 58 71 104
-110.582 -810.518 -1361 57 71 102
-107.243 -808.04 -1357 56 69 101
-103.769 -804.376 -1351 56 69 102
-100.621 -803.095 -1349 57 71 102
-97.5557 -802.413 -1348 58 72 103
-94.6359 -802.925 -1349 56 70 101
-91.4409 -801.058 -1346 54 68 99
-88.5229 -801.574 -1347 53 67 98
-85.4744 -800.903 -1346 54 68 98
-82.5537 -801.425 -1347 48 62 91
-79.5703 -801.354 -1347 47 61 92
-76.7583 -803.07 -1350 45 59 89
-73.6058 -801.22 -1347 45 59 88
-70.782 -802.941 -1350 44 58 89
-67.6442 -801.097 -1347 44 58 88
-64.6163 -800.444 -1346 43 57 86
-61.5478 -799.2 -1344 40 51 81
-58.5759 -799.148 -1344 46 58 88
-55.4804 -797.314 -1341 49 61 91
-52.6729 -799.645 -1345 47 56 86
-49.7373 -800.195 -1346 45 54 84
-46.902 -802.53 -1350 43 52 83
-43.9844 -803.68 -1352 41 50 80
-41.1494 -806.615 -1357 42 52 77
-38.2365 -808.363 -1360 44 55 78
-35.3625 -811.303 -1365 49 60 81
-32.4193 -813.057 -1368 50 59 82
-29.5278 -816.596 -1374 50 60 80
-26.4943 -816.571 -1374 52 62 82
-23.4781 -817.144 -1375 55 65 84
-20.4578 -817.719 -1376 55 67 88
-17.4585 -819.485 -1379 56 68 89
-14.4567 -821.848 -1383 56 68 89
-11.4125 -822.431 -1384 55 70 89
-8.37606 -824.206 -1387 57 70 89
-5.31888 -824.794 -1388 60 72 91
-2.25589 -824.79 -1388 63 75 93
0.804943 -822.413 -1384 65 77 94
-157.372 -890.972 -1487 59 68 90
-151.358 -875.259 -1461 58 69 99
-145.664 -860.751 -1437 65 77 106
-140.277 -847.448 -1415 62 76 103
-135.572 -837.745 -1399 62 73 105
-131.98 -834.633 -1394 61 72 104
-128.319 -830.926 -1388 58 69 101
-124.957 -829.019 -1385 53 66 99
-121.346 -825.319 -1379 53 66 99
-117.848 -822.221 -1374 55 68 101
-114.29 -818.529 -1368 54 67 100
-110.679 -814.242 -1361 55 69 100
-107.258 -811.155 -1356 57 71 102
-103.783 -807.473 -1350 56 70 102
-100.71 -806.785 -1349 58 72 103
-97.6413 -806.1 -1348 58 72 103
-94.7892 -807.211 -1350 51 65 96
-91.7251 -806.531 -1349 51 65 96
-88.9295 -808.245 -1352 51 65 95
-85.74 -806.375 -1349 50 64 93
-82.8714 -807.497 -1351 47 61 90
-79.8174 -806.827 -1350 43 57 88
-77.0531 -809.149 -1354 41 55 85
-73.8343 -806.692 -1350 45 59 88
-70.8439 -806.629 -1350 46 60 89
-67.804 -805.971 -1349 46 60 89
-64.721 -804.717 -1347 43 57 86
-61.6017 -802.87 -1344 42 53 81
-58.6708 -803.415 -1345 60 71 101
-55.6532 -802.767 -1344 53 63 93
-52.7581 -803.914 -1346 49 58 88
-49.8918 -805.661 -1349 42 50 82
-46.9083 -805.618 -1349 40 49 80
-43.9252 -805.579 -1349 41 50 80
-41.1247 -809.124 -1355 42 54 77
-38.2418 -811.478 -1359 46 58 79
-35.3156 -813.237 -1362 48 60 80
-32.4477 -816.79 -1368 49 59 80
-29.5106 -819.151 -1372 49 59 79
-26.5174 -820.321 -1374 52 62 81
-23.4644 -819.701 -1373 52 63 82
-20.4905 -822.071 -1377 53 65 86
-17.4484 -822.054 -1377 53 65 86
-14.4483 -824.428 -1381 55 67 88
-11.4142 -825.611 -1383 57 72 90
-8.37728 -827.393 -1386 60 73 92
-5.30819 -826.193 -1384 62 74 93
-2.25122 -826.19 -1384 65 77 96
-157.088 -892.652 -1483 59 69 90
-151.181 -877.468 -1458 58 71 100
-144.88 -859.284 -1428 62 76 105
-139.508 -845.92 -1406 59 73 100
-135.012 -837.376 -1392 60 71 103
-131.812 -836.657 -1391 57 68 100
-128.34 -834.136 -1387 52 64 96
-124.977 -832.219 -1384 51 64 97
-121.541 -829.705 -1380 53 66 99
-117.952 -825.992 -1374 54 67 100
-114.391 -822.282 -1368 56 69 102
-110.776 -817.976 -1361 59 74 106
-107.352 -814.874 -1356 59 74 106
-104.182 -813.579 -1354 55 70 102
-101.097 -812.887 -1353 59 72 104
-97.7274 -809.796 -1348 57 71 102
-94.8727 -810.912 -1350 51 65 96
-91.6698 -809.027 -1347 49 63 94
-88.6786 -808.948 -1347 54 68 97
-85.6883 -808.871 -1347 54 68 97
-82.8831 -810.598 -1350 50 64 93
-79.7694 -809.325 -1348 44 58 87
-77.007 -811.657 -1352 42 56 85
-73.8447 -809.79 -1349 44 58 87
-71.2215 -813.928 -1356 47 61 90
-67.763 -808.464 -1347 47 61 90
-64.7298 -807.806 -1346 42 56 85
-61.5642 -805.35 -1342 43 55 80
-58.5041 -804.096 -1340 48 60 88
-55.5364 -804.046 -1340 31 42 72
-52.6868 -805.798 -1343 37 46 76
-49.8245 -807.553 -1346 39 47 77
-46.9494 -809.31 -1349 41 49 79
-44.0616 -811.07 -1352 46 55 84
-41.2215 -814.032 -1357 45 57 80
-38.2754 -815.197 -1359 45 57 78
-35.4504 -819.363 -1366 44 56 75
-32.4761 -820.533 -1368 47 57 78
-29.4718 -821.105 -1369 52 62 82
-26.502 -822.88 -1372 53 64 83
-23.4508 -822.258 -1371 53 65 84
-20.4787 -824.638 -1375 54 66 87
-17.4256 -824.022 -1374 56 68 89
-14.44 -827.006 -1379 59 71 92
-11.3828 -826.395 -1378 57 72 90
-8.34828 -827.586 -1380 60 73 92
-5.29365 -826.98 -1379 62 74 94
-2.2433 -826.377 -1378 64 76 94
-157.97 -900.972 -1490 58 67 91
-151.523 -882.695 -1460 61 75 103
-144.806 -862.009 -1426 63 77 105
-139.434 -848.584 -1404 57 71 98
-135.035 -840.605 -1391 56 67 99
-131.74 -839.278 -1389 53 65 97
-128.454 -837.954 -1387 49 62 95
-125.269 -837.237 -1386 50 63 96
-121.737 -834.107 -1381 54 67 100
-118.314 -831.584 -1377 57 70 103
-114.744 -827.857 -1371 56 69 103
-111.038 -822.926 -1363 58 73 105
-107.685 -820.414 -1359 58 73 105
-104.352 -817.905 -1355 55 70 102
-101.187 -816.607 -1353 58 71 104
-97.8141 -813.501 -1348 59 73 105
-95.0975 -815.829 -1352 57 71 102
-91.8873 -813.936 -1349 51 65 96
-89.0208 -815.062 -1351 55 69 98
-85.9552 -814.381 -1350 52 66 95
-83.0179 -814.909 -1351 49 63 92
-79.8993 -813.631 -1349 47 61 90
-77.1893 -816.576 -1354 45 59 88
-73.9648 -814.097 -1350 47 61 90
-70.9691 -814.033 -1350 48 62 93
-67.823 -812.163 -1347 46 60 89
-64.9315 -813.309 -1349 44 58 85
-61.6186 -809.033 -1342 48 59 87
-58.7306 -810.185 -1344 43 54 83
-55.7099 -809.532 -1343 29 40 70
-52.6549 -808.278 -1341 39 48 78
-49.8316 -810.644 -1345 42 50 81
-46.9213 -811.807 -1347 44 52 82
-44.1331 -815.382 -1353 47 56 84
-41.1364 -815.344 -1353 46 57 81
-38.2809 -818.322 -1358 45 56 78
-35.3778 -820.7 -1362 42 54 73
-32.481 -823.683 -1367 47 57 78
-29.4332 -823.053 -1366 51 61 81
-26.5061 -826.041 -1371 52 62 82
-23.4715 -826.019 -1371 53 65 84
-20.4669 -827.204 -1373 54 66 87
-17.441 -827.79 -1374 56 68 89
-14.4632 -831.391 -1380 58 70 91
-11.3928 -830.174 -1378 56 68 89
-8.34365 -830.166 -1378 53 67 88
-5.28294 -828.352 -1375 60 74 95
-162.857 -913.131 -1503 61 71 86
-157.792 -903.267 -1487 56 65 88
-151.451 -885.514 -1458 61 74 103
-144.224 -861.697 -1419 65 79 110
-138.664 -846.997 -1395 58 72 101
-134.476 -840.196 -1384 55 66 98
-131.288 -839.47 -1383 56 67 100
-128.012 -838.14 -1381 53 66 98
-124.928 -838.027 -1381 49 62 95
-121.581 -836.097 -1378 50 63 96
-118.248 -834.169 -1375 53 66 99
-114.762 -831.032 -1370 52 65 100
-111.137 -826.685 -1363 54 68 101
-107.781 -824.161 -1359 55 70 102
-104.599 -822.853 -1357 55 69 101
-101.576 -822.761 -1357 58 71 104
-98.1917 -819.641 -1352 57 70 102
-95.1822 -819.554 -1352 56 70 101
-91.8328 -816.44 -1347 52 66 97
-89.0341 -818.178 -1350 51 65 95
-85.8406 -816.282 -1347 50 64 93
-82.9688 -817.418 -1349 47 61 88
-79.9111 -816.74 -1348 45 59 88
-76.9726 -817.275 -1349 46 60 88
-73.9209 -816.602 -1348 45 59 86
-71.0848 -818.355 -1351 48 62 93
-67.8329 -815.264 -1346 47 60 90
-64.893 -815.811 -1347 46 58 87
-61.7193 -813.332 -1343 52 63 91
-58.6953 -812.673 -1342 53 64 92
-55.6764 -812.016 -1341 45 56 85
-52.741 -812.574 -1342 41 52 80
-49.8758 -814.344 -1345 42 51 81
-47.0327 -816.723 -1349 45 54 83
-44.205 -819.709 -1354 46 55 81
-41.3555 -822.698 -1359 44 53 79
-38.456 -825.084 -1363 46 55 80
-35.4872 -826.262 -1365 49 58 82
-32.5099 -827.442 -1367 50 59 81
-29.4378 -826.204 -1365 51 60 83
-26.4909 -828.601 -1369 52 61 85
-23.4409 -827.973 -1368 53 63 84
-20.4701 -830.374 -1372 51 63 84
-17.4182 -829.752 -1371 52 64 85
-14.4026 -830.949 -1373 55 67 88
-11.3449 -829.727 -1371 56 66 89
-8.30248 -829.113 -1370 52 65 86
-5.24896 -826.081 -1365 51 66 85
-144.048 -863.796 -1416 69 80 109
-138.589 -849.64 -1393 57 72 101
-134.597 -844.027 -1384 56 70 99
-131.215 -842.078 -1381 58 72 102
-127.942 -840.742 -1379 55 69 100
-124.769 -840.019 -1378 50 63 96
-121.69 -839.909 -1378 48 61 94
-118.268 -837.363 -1374 48 61 94
-114.781 -834.211 -1369 51 64 99
-111.318 -831.063 -1364 55 68 101
-108.037 -829.137 -1361 57 70 102
-104.924 -828.432 -1360 53 67 98
-101.667 -826.512 -1357 51 64 97
-98.3523 -823.986 -1353 51 64 96
-95.4788 -825.116 -1355 52 66 97
-92.0514 -821.379 -1349 51 65 96
-89.1798 -822.515 -1351 49 63 93
-86.045 -821.219 -1349 47 61 90
-83.1661 -822.361 -1351 45 59 86
-80.2199 -822.896 -1352 45 59 87
-77.2128 -822.826 -1352 45 59 87
-74.1516 -822.149 -1351 44 58 85
-71.043 -820.867 -1349 47 61 92
-67.944 -819.588 -1347 46 59 89
-64.9027 -818.92 -1346 48 59 87
-61.9585 -819.471 -1347 60 71 99
-58.8353 -817.592 -1344 57 68 96
-55.7261 -815.716 -1341 47 58 86
-52.7881 -816.276 -1342 46 55 83
-49.8833 -817.446 -1344 47 56 85
-47.0747 -820.444 -1349 44 53 82
-44.2771 -824.052 -1355 47 56 82
-41.3619 -825.838 -1358 52 61 87
-38.4338 -827.627 -1361 49 58 83
-35.4408 -828.202 -1362 47 56 80
-32.4674 -829.388 -1364 49 58 82
-29.464 -829.968 -1365 51 60 84
-26.4757 -831.159 -1367 52 61 85
-23.4446 -831.137 -1367 53 63 84
-20.4435 -832.333 -1369 51 63 84
-17.421 -832.924 -1370 51 63 84
-14.4048 -834.126 -1372 54 66 87
-11.3385 -832.291 -1369 56 68 92
-8.29158 -831.066 -1367 56 67 87
-143.873 -865.89 -1413 67 78 106
-138.814 -854.119 -1394 57 72 101
-134.913 -849.094 -1386 58 73 102
-131.524 -847.136 -1383 57 71 100
-127.871 -843.344 -1377 55 69 100
-124.791 -843.229 -1377 53 66 99
-121.358 -840.669 -1373 50 63 96
-118.03 -838.724 -1370 51 64 97
-114.633 -836.17 -1366 51 64 99
-111.173 -833.008 -1361 54 68 100
-107.975 -831.685 -1359 56 70 101
-105.096 -832.812 -1361 55 69 100
-101.834 -830.884 -1358 52 65 98
-98.6592 -829.569 -1356 48 61 93
-95.7058 -830.094 -1357 49 63 94
-92.3392 -826.95 -1352 50 64 95
-88.9958 -823.81 -1347 49 63 93
-86.1224 -824.955 -1349 45 59 88
-83.2409 -826.101 -1351 47 61 88
-80.0544 -824.193 -1348 51 65 92
-77.2823 -826.568 -1352 48 62 90
-74.1085 -824.666 -1349 45 59 86
-71.0014 -823.378 -1347 45 59 88
-68.0556 -823.926 -1348 48 61 90
-65.0093 -823.255 -1347 48 59 87
-61.876 -821.365 -1344 59 70 98
-58.932 -821.921 -1345 36 47 75
-55.8593 -820.648 -1343 34 45 73
-52.9142 -821.21 -1344 45 54 82
-49.9652 -821.774 -1345 47 56 86
-47.1868 -825.397 -1351 45 54 83
-44.3168 -827.799 -1355 45 54 80
-41.3686 -828.982 -1357 48 57 83
-38.4966 -832.001 -1362 48 57 82
-35.4726 -831.968 -1362 48 57 81
-32.4489 -831.937 -1362 51 60 84
-29.4472 -832.52 -1363 53 62 86
-26.4801 -834.327 -1366 52 61 85
-23.4313 -833.694 -1365 54 64 85
-20.432 -834.896 -1367 53 65 86
-17.3985 -834.879 -1367 52 64 85
-14.3757 -835.476 -1368 55 67 88
-11.2989 -832.41 -1363 53 64 92
-150.507 -889.658 -1445 63 72 97
-144.207 -871.055 -1415 64 75 102
-139.139 -859.231 -1396 58 73 102
-135.035 -852.951 -1386 57 72 101
-131.548 -850.369 -1382 54 68 97
-128.08 -847.79 -1378 55 69 100
-124.632 -845.214 -1374 57 70 103
-121.379 -843.872 -1372 53 66 99
-118.137 -842.533 -1370 49 62 95
-115.073 -842.427 -1370 49 62 97
-111.437 -838.021 -1363 53 66 99
-108.391 -837.921 -1363 55 69 100
-105.036 -835.365 -1359 57 71 101
-101.926 -834.657 -1358 56 70 101
-98.8213 -833.951 -1357 48 62 93
-95.863 -834.477 -1358 47 61 92
-92.5595 -831.934 -1354 49 63 94
-89.2085 -828.779 -1349 48 62 92
-86.3919 -830.543 -1352 43 57 86
-83.1928 -828.623 -1349 47 61 88
-80.424 -831.006 -1353 50 64 91
-77.2949 -829.706 -1351 47 61 88
-74.2304 -829.023 -1350 45 59 85
-70.9601 -825.888 -1345 40 54 83
-68.117 -827.666 -1348 46 59 87
-65.068 -826.992 -1347 50 61 89
-62.0241 -826.321 -1346 62 73 101
-59.0291 -826.266 -1346 40 51 79
-55.993 -825.6 -1345 41 52 80
-53.0408 -826.165 -1346 47 56 84
-50.1589 -827.959 -1349 44 53 83
-47.3342 -830.984 -1354 43 52 81
-44.3895 -832.17 -1356 43 52 78
-41.4058 -832.745 -1357 46 55 82
-38.3899 -832.709 -1357 44 53 79
-35.4785 -835.13 -1361 47 56 80
-32.4305 -834.486 -1360 52 61 85
-29.4521 -835.685 -1362 52 61 85
-26.4845 -837.5 -1365 49 58 82
-23.4695 -838.091 -1366 51 61 82
-20.4353 -838.071 -1366 53 65 86
-17.4141 -838.668 -1367 53 64 86
-14.357 -837.427 -1365 55 67 88
-11.2675 -833.12 -1358 54 65 93
-149.811 -888.745 -1437 63 72 96
-143.931 -872.531 -1411 61 72 99
-139.366 -863.745 -1397 59 74 103
-135.158 -856.819 -1386 57 72 101
-131.859 -855.461 -1384 56 70 99
-128.104 -851.015 -1377 55 69 100
-124.655 -848.428 -1373 53 66 99
-121.401 -847.08 -1371 52 65 98
-118.244 -846.353 -1370 47 60 93
-114.841 -843.775 -1366 50 63 96
-111.539 -841.819 -1363 50 63 95
-108.251 -839.866 -1360 52 66 97
-105.209 -839.769 -1360 55 69 98
-102.019 -838.439 -1358 54 68 98
-98.984 -838.348 -1358 45 59 90
-96.0208 -838.876 -1359 44 58 89
-92.7804 -836.938 -1356 45 59 90
-89.8191 -837.472 -1357 45 59 90
-86.4704 -834.306 -1352 42 56 85
-83.3919 -833.612 -1351 48 62 89
-80.4376 -834.154 -1352 50 64 91
-77.3651 -833.466 -1351 44 58 85
-74.2978 -832.78 -1350 43 57 82
-71.2357 -832.097 -1349 43 56 84
-68.0777 -830.183 -1346 44 56 84
-65.1271 -830.739 -1347 53 64 92
-62.0342 -829.448 -1345 76 86 112
-59.0827 -830.009 -1346 56 66 94
-56.1688 -831.19 -1348 49 59 88
-53.2861 -832.99 -1351 46 55 84
-50.3161 -833.56 -1352 42 51 81
-47.4122 -835.365 -1355 41 50 79
-44.3971 -835.323 -1355 43 52 80
-41.474 -837.133 -1358 44 53 81
-38.4813 -837.714 -1359 42 51 77
-35.4324 -837.064 -1358 41 50 74
-32.436 -837.649 -1359 50 59 83
-29.4572 -838.854 -1361 50 59 83
-26.4696 -840.061 -1363 47 56 80
-23.4908 -841.888 -1366 48 58 79
-20.4538 -841.867 -1366 51 60 84
-17.4044 -841.234 -1365 53 63 86
-14.3489 -839.987 -1363 52 64 85
-149.739 -891.525 -1435 68 77 102
-143.859 -875.239 -1409 66 77 106
-139.594 -868.276 -1398 59 74 102
-135.282 -860.697 -1386 57 71 100
-131.979 -859.332 -1384 57 71 100
-128.408 -856.108 -1379 55 69 100
-125.041 -854.13 -1376 52 65 100
-121.69 -852.154 -1373 51 64 98
-118.526 -851.424 -1372 50 63 96
-115.451 -851.316 -1372 49 62 95
-112.132 -849.35 -1369 50 63 95
-108.828 -847.388 -1366 53 67 98
-105.306 -843.568 -1360 53 67 96
-102.037 -841.612 -1357 50 64 94
-98.8556 -840.28 -1355 44 58 89
-95.9672 -841.431 -1357 43 57 88
-93.0022 -841.964 -1358 41 55 86
-89.835 -840.641 -1356 44 58 88
-86.6775 -839.32 -1354 47 61 90
-83.5299 -838.003 -1352 51 65 92
-80.511 -837.927 -1352 50 64 91
-77.5503 -838.475 -1353 47 61 88
-74.5309 -838.405 -1353 44 58 82
-71.3008 -835.86 -1349 49 60 88
-68.2917 -835.796 -1349 56 67 95
-65.2833 -835.735 -1349 54 65 92
-62.137 -833.818 -1346 32 41 67
-59.2683 -835.621 -1349 33 42 70
-56.2618 -835.568 -1349 41 50 80
-53.3742 -837.376 -1352 42 51 81
-50.3992 -837.948 -1353 40 49 79
-47.5254 -840.38 -1357 41 50 80
-44.4375 -839.1 -1355 43 52 80
-41.4506 -839.68 -1356 42 51 79
-38.403 -839.024 -1355 39 48 75
-35.4647 -840.848 -1358 41 50 75
-32.4656 -841.436 -1359 47 56 80
-29.5056 -843.266 -1362 47 56 80
-26.4938 -843.859 -1363 48 57 81
-23.5293 -846.313 -1367 54 62 86
-20.4874 -846.293 -1367 52 61 85
-17.4584 -846.895 -1368 52 62 85
-149.251 -891.809 -1429 72 81 106
-143.378 -875.449 -1403 65 76 106
-139.223 -869.079 -1393 59 74 101
-135.114 -862.714 -1383 60 75 102
-131.815 -861.343 -1381 55 69 97
-128.339 -858.728 -1377 54 68 99
-125.156 -857.988 -1376 53 66 100
-121.802 -856.003 -1373 49 62 97
-118.548 -854.646 -1371 49 62 95
-115.557 -855.161 -1372 50 63 96
-112.153 -852.563 -1368 50 63 94
-108.689 -849.345 -1363 49 63 93
-105.247 -846.131 -1358 50 64 93
-102.055 -844.79 -1356 46 60 90
-99.0195 -844.697 -1356 42 56 87
-96.1261 -845.853 -1358 44 58 89
-92.9505 -844.52 -1356 45 59 90
-89.9837 -845.059 -1357 44 58 87
-86.8852 -844.355 -1356 49 63 90
-83.6683 -842.408 -1353 51 65 92
-80.5849 -841.71 -1352 47 61 88
-77.6215 -842.26 -1353 44 58 85
-74.6545 -842.812 -1354 41 55 78
-71.5777 -842.123 -1353 47 58 85
-68.5063 -841.436 -1352 56 67 94
-65.44 -840.752 -1351 56 68 93
-62.2864 -838.826 -1348 35 44 70
-59.3226 -839.393 -1349 38 47 75
-56.3968 -840.584 -1351 42 51 81
-53.4626 -841.778 -1353 43 52 82
-50.4454 -841.73 -1353 44 53 83
-47.4988 -842.93 -1355 44 53 82
-44.4782 -842.887 -1355 41 50 78
-41.4274 -842.226 -1354 41 50 78
-38.4948 -844.055 -1357 42 51 78
-35.5493 -845.887 -1360 43 52 78
-32.4952 -845.234 -1359 45 54 78
-29.576 -848.315 -1364 48 57 81
-26.5374 -848.29 -1364 50 59 83
-23.5853 -851.376 -1369 55 63 87
-20.5062 -850.112 -1367 50 59 83
-17.4872 -851.339 -1369 51 60 83
-162.919 -936.876 -1494 0 0 0
-149.598 -897.085 -1431 70 79 104
-143.613 -880.024 -1404 63 74 104
-138.951 -870.492 -1389 58 73 100
-134.75 -863.471 -1378 55 69 96
-131.554 -862.721 -1377 52 66 93
-128.178 -860.721 -1374 56 70 101
-125.09 -860.604 -1374 55 68 102
-121.826 -859.237 -1372 51 64 99
-118.831 -859.751 -1373 52 65 98
-115.58 -858.39 -1371 49 62 95
-112.339 -857.032 -1369 49 63 94
-108.869 -853.8 -1364 50 64 93
-105.345 -849.946 -1358 49 63 92
-102.15 -848.598 -1356 46 60 89
-98.9648 -847.253 -1354 44 58 87
-96.0023 -847.789 -1355 43 57 86
-92.8991 -847.075 -1354 44 58 89
-90.0668 -848.868 -1357 41 55 85
-87.0295 -848.786 -1357 44 58 85
-83.8075 -846.83 -1354 44 58 85
-80.7189 -846.129 -1353 42 56 83
-77.7505 -846.681 -1354 42 56 83
-74.7233 -846.61 -1354 46 58 81
-71.6438 -845.917 -1353 51 63 87
-68.6202 -845.853 -1353 54 66 91
-65.5487 -845.165 -1352 57 69 94
-62.39 -843.231 -1349 45 54 80
-59.5094 -845.05 -1352 48 57 85
-56.4905 -844.996 -1352 48 57 87
-53.5514 -846.196 -1354 43 52 82
-50.6038 -847.397 -1356 45 54 84
-47.5777 -847.352 -1356 45 54 83
-44.5191 -846.685 -1355 40 49 77
-41.4961 -846.645 -1355 40 49 77
-38.5019 -847.233 -1356 42 51 79
-35.556 -849.073 -1359 45 54 80
-32.549 -849.666 -1360 49 58 82
-29.6248 -852.761 -1365 52 61 85
-26.6398 -854.61 -1368 57 66 90
-23.6414 -856.461 -1371 60 68 92
-20.57 -855.816 -1370 57 66 90
-17.4904 -854.549 -1368 57 67 89
-162.635 -938.575 -1490 60 69 84
-149.11 -897.346 -1425 73 82 105
-143.337 -881.467 -1400 67 78 107
-138.68 -871.892 -1385 57 72 100
-134.582 -865.47 -1375 54 69 96
-131.486 -865.346 -1375 55 69 96
-128.204 -863.966 -1373 57 71 102
-125.115 -863.848 -1373 55 69 102
-121.939 -863.104 -1372 54 67 102
-118.855 -862.992 -1372 52 65 98
-115.519 -860.996 -1369 50 63 95
-112.197 -859.003 -1366 49 63 93
-108.81 -856.385 -1362 50 64 93
-105.287 -852.513 -1356 50 64 92
-102.018 -850.53 -1353 50 64 92
-99.0567 -851.065 -1354 47 61 90
-96.0205 -850.974 -1354 45 59 88
-92.9853 -850.887 -1354 45 59 90
-90.084 -852.058 -1356 43 57 87
-86.9819 -851.347 -1355 46 60 87
-83.7612 -849.383 -1352 45 59 86
-80.7341 -849.307 -1352 45 59 86
-77.8801 -851.117 -1355 45 59 86
-74.903 -851.675 -1356 49 61 85
-71.7632 -850.351 -1354 48 60 85
-68.7853 -850.913 -1355 52 65 90
-65.6095 -848.967 -1352 54 65 91
-62.5867 -848.907 -1352 44 53 79
-59.4323 -846.967 -1349 46 55 83
-56.5847 -849.425 -1353 46 55 86
-53.5613 -849.374 -1353 43 52 83
-50.6133 -850.581 -1355 46 55 85
-47.5515 -849.908 -1354 48 57 86
-44.5603 -850.492 -1355 48 58 87
-41.5345 -850.452 -1355 46 56 83
-38.5943 -852.298 -1358 47 56 83
-35.5888 -852.891 -1359 51 60 86
-32.651 -855.37 -1363 58 67 92
-29.674 -857.224 -1366 63 73 99
-26.7228 -860.336 -1371 66 77 103
-23.7668 -864.077 -1377 67 77 102
-20.6792 -863.429 -1376 70 79 103
-17.5577 -860.901 -1372 59 67 91
-162.787 -942.793 -1490 60 69 85
-155.034 -916.704 -1449 67 75 96
-148.516 -896.951 -1418 69 78 101
-143.061 -882.899 -1396 66 77 105
-138.409 -873.281 -1381 57 71 99
-134.512 -868.095 -1373 56 70 98
-131.417 -867.97 -1373 55 70 98
-128.324 -867.848 -1373 56 70 100
-125.323 -868.361 -1374 52 66 98
-122.053 -866.982 -1372 51 64 97
-119.052 -867.501 -1373 52 66 98
-115.542 -864.232 -1368 48 62 93
-112.302 -862.862 -1366 49 63 93
-109.072 -861.495 -1364 49 63 92
-105.541 -857.605 -1358 47 61 90
-102.415 -856.876 -1357 46 60 89
-99.2223 -855.519 -1355 46 60 91
-96.323 -856.69 -1357 48 62 93
-93.1408 -855.339 -1355 45 59 89
-90.3009 -857.147 -1358 45 59 88
-87.2557 -857.064 -1358 49 63 90
-83.9634 -854.46 -1354 50 64 91
-80.9886 -855.014 -1355 48 62 89
-77.8376 -853.678 -1353 43 57 84
-74.9728 -855.499 -1356 47 61 88
-71.8831 -854.8 -1355 50 64 93
-68.7986 -854.103 -1354 60 74 102
-65.6706 -852.779 -1352 54 65 93
-62.645 -852.719 -1352 52 61 87
-59.5759 -852.031 -1351 52 61 90
-56.5955 -852.608 -1352 47 56 88
-53.6508 -853.818 -1354 46 55 86
-50.6978 -855.03 -1356 56 65 93
-47.666 -854.984 -1356 60 69 97
-44.6676 -855.572 -1357 51 62 92
-41.5731 -854.271 -1355 45 57 82
-38.6587 -856.755 -1359 49 60 86
-35.6481 -857.35 -1360 58 67 93
-32.7293 -860.471 -1365 63 72 98
-29.7885 -863.593 -1370 64 74 101
-26.8646 -867.98 -1377 68 80 107
-23.8062 -868.586 -1378 66 78 103
-20.7435 -869.196 -1379 64 73 97
-162.831 -946.388 -1489 59 69 85
-155.395 -922.088 -1451 66 76 97
-148.446 -899.704 -1416 67 77 101
-142.888 -884.954 -1393 65 77 102
-138.439 -876.563 -1380 57 71 98
-134.736 -872.624 -1374 55 69 96
-131.445 -871.228 -1372 58 72 101
-128.351 -871.106 -1372 58 72 101
-125.35 -871.621 -1373 52 66 96
-121.9 -868.966 -1369 50 64 95
-118.904 -869.487 -1370 49 64 95
-115.65 -868.107 -1368 45 59 91
-112.325 -866.097 -1365 43 56 87
-109.094 -864.723 -1363 47 61 90
-105.718 -862.085 -1359 48 62 89
-102.738 -862.621 -1360 44 58 87
