ply
format ascii 1.0
comment Created by Open3D
element vertex 1359
property double x
property double y
property double z
property uchar red
property uchar green
property uchar blue
end_header
-28.0751 -1147.83 -1570 109 90 101
-24.6474 -1157.3 -1583 99 87 95
-21.1069 -1163.86 -1592 94 84 93
-17.4701 -1166.76 -1596 92 85 94
-13.7805 -1166.74 -1596 89 84 97
-10.1037 -1168.19 -1598 87 86 95
-6.40181 -1166.72 -1596 88 87 98
-175.679 -1167.56 -1584 0 0 0
-171.644 -1165.15 -1581 180 170 152
-167.094 -1159.07 -1573 176 158 136
-162.272 -1150.78 -1562 164 142 117
-157.096 -1139.55 -1547 166 140 114
-152.489 -1132.01 -1537 170 140 117
-148.027 -1125.22 -1528 177 143 123
-143.797 -1119.9 -1521 182 148 128
-140.155 -1119 -1520 186 152 132
-136.339 -1116.64 -1517 187 153 133
-132.802 -1116.49 -1517 187 153 138
-129.351 -1117.08 -1518 185 151 138
-125.896 -1117.67 -1519 186 151 141
-122.358 -1117.54 -1519 181 148 139
-118.821 -1117.4 -1519 176 142 134
-115.361 -1118.01 -1520 166 133 127
-112.045 -1120.09 -1523 149 117 115
-109.144 -1126.58 -1532 125 99 101
-106.34 -1134.55 -1543 107 85 88
-103.818 -1146.2 -1559 98 78 81
-101.095 -1156.38 -1573 94 76 78
-98.0604 -1163.61 -1583 91 77 80
-94.3243 -1162.77 -1582 92 80 83
-90.0781 -1155.32 -1572 92 79 81
-85.8243 -1147.14 -1561 104 90 87
-81.2011 -1133.08 -1542 153 125 111
-77.0698 -1124.91 -1531 176 144 127
-73.1342 -1118.95 -1523 189 155 137
-69.648 -1119.61 -1524 195 161 141
-65.9843 -1117.33 -1521 197 162 149
-62.4173 -1116.52 -1520 197 162 146
-58.8943 -1116.45 -1520 195 161 143
-55.3719 -1116.39 -1520 188 154 140
-51.7478 -1114.13 -1517 176 145 136
-48.2336 -1114.07 -1517 164 134 128
-44.7788 -1115.49 -1519 146 116 114
-41.288 -1116.18 -1520 128 102 104
-37.8428 -1118.33 -1523 120 98 100
-34.6094 -1127.84 -1536 116 95 101
-31.3162 -1137.35 -1549 112 93 102
-28.0167 -1149.06 -1565 108 89 98
-24.5968 -1158.58 -1578 98 86 93
-21.0771 -1165.9 -1588 94 85 93
-17.4345 -1168.08 -1591 94 87 96
-13.7611 -1168.79 -1592 90 85 97
-10.0895 -1170.25 -1594 87 86 94
-6.39272 -1168.77 -1592 90 89 99
-174.544 -1163.67 -1572 0 0 0
-170.532 -1161.26 -1569 180 170 154
-166.112 -1155.89 -1562 179 161 139
-161.414 -1148.3 -1552 167 145 121
-156.459 -1138.51 -1539 168 142 116
-151.965 -1131.68 -1530 172 140 117
-147.514 -1124.85 -1521 175 141 121
-143.39 -1120.25 -1515 179 145 125
-139.573 -1117.87 -1512 184 150 130
-136.042 -1117.72 -1512 188 154 134
-132.687 -1119.05 -1514 190 156 140
-129.069 -1118.16 -1513 190 156 141
-125.622 -1118.76 -1514 190 155 143
-122.172 -1119.36 -1515 186 153 142
-118.719 -1119.96 -1516 179 145 136
-115.414 -1122.05 -1519 167 133 127
-112.023 -1123.4 -1521 153 120 118
-109.195 -1130.66 -1531 129 103 105
-106.528 -1140.14 -1544 110 88 90
-103.868 -1150.36 -1558 96 75 77
-100.951 -1158.36 -1569 92 74 75
-97.736 -1163.42 -1576 90 76 77
-93.9522 -1161.84 -1574 88 76 77
-89.8345 -1155.83 -1566 92 79 80
-85.6449 -1148.35 -1556 108 94 90
-81.0282 -1134.24 -1537 152 123 108
-76.9037 -1126.03 -1526 177 145 129
-72.9756 -1120.04 -1518 190 156 138
-69.5426 -1121.44 -1520 196 160 140
-65.8407 -1118.41 -1516 199 162 149
-62.4046 -1119.82 -1518 199 163 148
-58.8048 -1118.27 -1516 197 163 145
-55.3607 -1119.68 -1518 191 154 141
-51.8055 -1118.89 -1517 178 146 135
-48.2237 -1117.36 -1515 162 131 124
-44.7107 -1117.3 -1515 144 114 111
-41.2796 -1119.47 -1518 129 103 105
-37.8601 -1122.37 -1522 124 100 101
-34.5802 -1130.44 -1533 122 99 104
-31.2903 -1139.99 -1546 116 95 104
-27.9403 -1149.55 -1559 109 92 100
-24.5929 -1162.05 -1576 96 85 91
-21.0606 -1168.66 -1585 92 83 91
-17.3882 -1168.64 -1585 90 83 92
-13.7071 -1167.89 -1584 93 87 97
-10.0563 -1170.09 -1587 90 88 96
-6.36352 -1167.13 -1583 91 89 100
-174.073 -1164.18 -1566 0 0 0
-170.181 -1162.5 -1564 180 171 155
-165.873 -1157.85 -1558 179 162 142
-161.388 -1151.72 -1550 169 148 125
-156.33 -1141.14 -1536 168 142 117
-151.738 -1133.54 -1526 174 142 119
-147.583 -1128.91 -1520 177 144 122
-143.457 -1124.29 -1514 182 148 127
-139.638 -1121.91 -1511 187 153 132
-136.015 -1121.01 -1510 190 156 135
-132.398 -1120.12 -1509 192 158 140
-128.958 -1120.71 -1510 193 159 143
-125.68 -1122.79 -1513 191 157 143
-122.148 -1122.65 -1513 187 154 143
-118.696 -1123.26 -1514 181 148 137
-115.468 -1126.1 -1518 172 139 131
-112.075 -1127.45 -1520 160 126 123
-109.246 -1134.74 -1530 131 105 106
-106.509 -1143.52 -1542 111 87 89
-103.651 -1151.56 -1553 96 75 77
-100.678 -1158.86 -1563 94 75 75
-97.411 -1163.2 -1569 91 77 78
-93.6991 -1162.35 -1568 91 79 80
-89.6481 -1157.06 -1561 91 79 79
-85.5757 -1151.03 -1553 107 92 86
-81.0664 -1138.33 -1536 151 122 107
-76.9396 -1130.09 -1525 179 146 128
-72.9611 -1123.34 -1516 192 156 136
-69.3458 -1121.78 -1514 199 161 142
-65.7841 -1120.96 -1513 200 163 150
-62.2277 -1120.15 -1512 200 164 147
-58.7542 -1120.82 -1513 196 162 142
-55.2038 -1120.02 -1512 191 157 141
-51.7952 -1122.18 -1515 182 149 136
-48.2458 -1121.38 -1514 162 130 122
-44.6721 -1119.85 -1512 142 112 107
-41.1081 -1118.32 -1510 128 102 103
-37.6783 -1120.5 -1513 123 99 99
-34.3254 -1125.64 -1520 121 98 103
-31.0619 -1135.23 -1533 116 95 104
-27.7921 -1147.05 -1549 108 91 98
-24.4954 -1161.09 -1568 93 82 87
-20.9511 -1166.24 -1575 89 80 86
-17.3306 -1168.44 -1578 91 83 91
-13.6704 -1168.43 -1578 93 86 95
-10.0294 -1170.64 -1581 90 87 95
-6.35439 -1169.15 -1579 92 89 99
-173.269 -1162.44 -1557 0 0 0
-169.611 -1162.24 -1557 180 171 155
-165.528 -1159.07 -1553 183 166 147
-160.736 -1150.67 -1542 174 153 132
-155.794 -1140.79 -1529 170 144 120
-151.313 -1133.9 -1520 177 147 126
-146.972 -1127.77 -1512 181 148 126
-143.05 -1124.62 -1508 186 152 130
-139.334 -1122.97 -1506 191 157 135
-135.898 -1123.56 -1507 192 158 136
-132.46 -1124.15 -1508 193 159 140
-128.676 -1121.77 -1505 192 158 141
-125.324 -1123.11 -1507 190 154 141
-121.882 -1123.72 -1508 185 152 141
-118.673 -1126.56 -1512 179 146 135
-115.142 -1126.43 -1512 173 140 130
-111.907 -1129.28 -1516 160 126 121
-109.012 -1135.86 -1525 132 106 106
-106.215 -1143.93 -1536 111 87 88
-103.3 -1151.26 -1546 94 73 74
-100.276 -1157.85 -1555 93 73 73
-96.8373 -1159.97 -1558 90 76 77
-93.2065 -1159.86 -1558 89 76 77
-89.2893 -1156.03 -1553 89 76 77
-85.2309 -1149.98 -1545 108 92 86
-80.9464 -1140.21 -1532 151 122 107
-76.8242 -1131.94 -1521 177 144 126
-72.8024 -1124.41 -1511 193 157 137
-69.1029 -1121.35 -1507 196 159 139
-65.4665 -1119.04 -1504 200 163 149
-62.0505 -1120.46 -1506 201 165 148
-58.5871 -1121.14 -1507 197 163 143
-55.1562 -1122.56 -1509 191 156 139
-51.6481 -1122.5 -1509 183 150 136
-48.1087 -1121.7 -1508 167 135 125
-44.6632 -1123.13 -1510 149 119 114
-41.0725 -1120.86 -1507 131 105 105
-37.621 -1122.3 -1509 125 100 99
-34.2735 -1127.46 -1516 118 95 99
-31.0765 -1139.33 -1532 109 88 96
-27.7156 -1147.47 -1543 102 85 91
-24.4291 -1161.57 -1562 92 83 87
-20.8947 -1166.75 -1569 90 82 88
-17.2731 -1168.22 -1571 92 84 92
-13.625 -1168.2 -1571 92 85 94
-9.98975 -1169.68 -1573 91 88 95
-6.32511 -1167.44 -1570 97 93 104
-172.241 -1159.15 -1546 0 0 0
-168.605 -1158.95 -1546 179 171 154
-164.116 -1152.77 -1538 185 169 151
-159.458 -1145.09 -1528 181 160 140
-154.747 -1136.66 -1517 175 149 125
-150.588 -1131.99 -1511 179 149 127
-146.361 -1126.58 -1504 185 152 130
-142.643 -1124.92 -1502 187 153 131
-138.936 -1123.26 -1500 189 155 133
-135.511 -1123.85 -1501 190 156 134
-131.907 -1122.95 -1500 191 157 138
-128.566 -1124.3 -1502 192 158 140
-125.133 -1124.91 -1503 193 156 142
-121.94 -1127.76 -1507 186 153 140
-118.572 -1129.12 -1509 178 145 133
-115.272 -1131.23 -1512 171 138 128
-112.034 -1134.09 -1516 158 124 120
-109.136 -1140.7 -1525 132 106 106
-106.266 -1148.06 -1535 110 87 87
-103.083 -1152.42 -1541 94 72 73
-99.9374 -1157.54 -1548 88 68 68
-96.4493 -1158.93 -1550 85 70 69
-92.7133 -1157.32 -1548 85 72 71
-88.8725 -1154.23 -1544 87 75 74
-84.8304 -1148.15 -1536 108 92 86
-80.7736 -1141.33 -1527 153 123 106
-76.6585 -1133.02 -1516 176 143 125
-72.7884 -1127.7 -1509 194 158 138
-68.9976 -1123.14 -1503 196 160 138
-65.497 -1123.06 -1503 198 161 145
-61.7908 -1119.26 -1498 199 163 146
-58.4199 -1121.43 -1501 197 162 143
-54.9625 -1122.11 -1502 192 156 140
-51.6038 -1125.04 -1506 184 149 137
-48.0673 -1124.24 -1505 170 137 128
-44.6545 -1126.42 -1508 153 123 117
-41.1463 -1126.38 -1508 136 109 108
-37.6635 -1127.08 -1509 127 101 101
-34.2897 -1131.52 -1515 121 97 100
-30.9491 -1138.2 -1524 110 88 95
-27.621 -1147.13 -1536 98 81 88
-24.3314 -1160.55 -1554 91 80 85
-20.7849 -1164.25 -1559 91 81 88
-17.1934 -1166.47 -1562 91 82 92
-13.5709 -1167.2 -1563 89 83 94
-9.96276 -1170.18 -1567 94 90 102
-6.31214 -1168.67 -1565 105 101 111
-171.323 -1156.56 -1536 179 172 159
-167.815 -1157.12 -1537 177 172 156
-163.556 -1152.41 -1531 182 169 150
-159.119 -1146.2 -1523 177 158 138
-154.516 -1138.5 -1513 179 152 129
-150.361 -1133.81 -1507 180 150 128
-146.041 -1127.62 -1499 184 150 129
-142.331 -1125.95 -1497 188 153 130
-138.539 -1123.53 -1494 189 155 131
-135.214 -1124.88 -1496 190 156 134
-131.794 -1125.48 -1497 193 159 140
-128.455 -1126.83 -1499 193 159 141
-125.026 -1127.44 -1500 190 153 140
-121.755 -1129.55 -1503 182 149 135
-118.314 -1130.17 -1504 177 143 132
-115.251 -1134.54 -1510 168 133 125
-112.088 -1138.17 -1515 156 122 119
-109.045 -1143.3 -1522 132 103 101
-106.179 -1150.69 -1532 110 84 84
-102.932 -1154.33 -1537 92 70 71
-99.5989 -1157.21 -1541 86 68 66
-96.1854 -1159.36 -1544 83 69 70
-92.3992 -1156.99 -1541 84 71 72
-88.628 -1154.64 -1538 85 73 73
-84.5953 -1148.53 -1530 106 89 77
-80.7068 -1143.94 -1524 146 117 102
-76.5433 -1134.84 -1512 172 140 122
-72.7264 -1130.25 -1506 187 151 131
-68.8924 -1124.92 -1499 190 154 134
-65.3097 -1123.34 -1497 195 158 141
-61.6546 -1120.27 -1493 197 161 144
-58.2526 -1121.7 -1495 196 161 143
-54.8052 -1122.38 -1496 192 158 140
-51.4223 -1124.57 -1499 185 150 138
-47.9941 -1126.02 -1501 173 140 129
-44.557 -1127.47 -1503 157 126 118
-41.0838 -1128.17 -1504 141 113 110
-37.6313 -1129.62 -1506 132 106 106
-34.2379 -1133.33 -1511 126 102 104
-30.8825 -1139.29 -1519 113 91 97
-27.5264 -1146.76 -1529 98 81 87
-24.1865 -1157.23 -1543 91 79 84
-20.7018 -1163.21 -1551 88 78 85
-17.1248 -1165.44 -1554 89 81 90
-13.534 -1167.67 -1557 89 84 95
-9.93595 -1170.65 -1561 97 92 103
-6.29893 -1169.9 -1560 109 104 114
-175.6 -1164.71 -1540 0 0 0
-171.632 -1162.24 -1537 178 171 159
-167.899 -1161.29 -1536 177 172 156
-163.424 -1155.05 -1528 178 165 146
-158.883 -1148.06 -1519 174 154 133
-154.285 -1140.32 -1509 182 154 132
-150.035 -1134.86 -1502 183 153 132
-145.819 -1129.4 -1495 187 155 133
-142.304 -1129.23 -1495 190 156 134
-138.327 -1125.29 -1490 191 157 134
-135.098 -1127.4 -1493 191 157 135
-131.592 -1127.25 -1493 192 158 137
-128.26 -1128.61 -1495 190 156 136
-124.585 -1126.95 -1493 188 151 138
-121.408 -1129.83 -1497 182 149 136
-118.135 -1131.96 -1500 177 143 132
-115.001 -1135.6 -1505 168 133 125
-111.698 -1137.73 -1508 152 119 117
-108.883 -1145.15 -1518 131 103 98
-105.746 -1149.55 -1524 109 85 82
-102.782 -1156.22 -1533 91 69 70
-99.5189 -1159.87 -1538 83 65 65
-95.9838 -1160.51 -1539 86 69 71
-92.2049 -1158.14 -1536 86 72 73
-88.4987 -1156.53 -1534 88 76 77
-84.4708 -1150.4 -1526 110 93 81
-80.5871 -1145.79 -1520 148 118 103
-76.5295 -1138.16 -1510 170 138 121
-72.7613 -1134.3 -1505 185 149 129
-68.9251 -1128.95 -1498 193 157 137
-65.3844 -1128.12 -1497 197 160 143
-61.6011 -1122.77 -1490 196 161 143
-58.2412 -1124.96 -1493 193 159 141
-54.7945 -1125.65 -1494 190 156 138
-51.3437 -1126.34 -1495 186 151 139
-47.9209 -1127.79 -1497 176 142 132
-44.5189 -1130 -1500 163 132 123
-41.1033 -1132.21 -1503 145 115 112
-37.5742 -1131.41 -1502 132 106 106
-34.209 -1135.89 -1508 127 103 105
-30.7754 -1138.86 -1512 117 95 100
-27.3955 -1144.86 -1520 102 84 90
-24.0415 -1153.87 -1532 94 79 85
-20.5917 -1160.62 -1541 89 78 86
-17.078 -1165.87 -1548 89 82 91
-13.5146 -1169.62 -1553 91 84 93
-9.91525 -1171.86 -1556 100 95 106
-6.28593 -1171.1 -1555 109 104 113
-179.209 -1168.35 -1538 0 0 0
-175.232 -1165.86 -1535 181 173 161
-171.16 -1162.63 -1531 182 175 163
-167.437 -1161.67 -1530 182 175 158
-162.649 -1153.13 -1519 179 165 146
-158.334 -1147.63 -1512 175 153 132
-153.644 -1139.1 -1501 184 154 132
-149.608 -1135.13 -1496 186 156 135
-145.401 -1129.65 -1489 188 156 135
-141.992 -1130.24 -1490 191 157 135
-138.207 -1127.8 -1487 191 157 135
-134.982 -1129.92 -1490 190 156 134
-131.215 -1127.49 -1487 190 156 135
-127.978 -1129.61 -1490 191 157 137
-124.395 -1128.71 -1489 189 155 141
-121.305 -1132.36 -1494 184 151 138
-117.719 -1131.46 -1493 178 144 133
-114.751 -1136.63 -1500 168 133 125
-111.53 -1139.53 -1504 146 115 110
-108.65 -1146.23 -1513 130 102 97
-105.381 -1149.13 -1517 110 85 82
-102.565 -1157.34 -1528 93 71 72
-99.1801 -1159.5 -1531 84 66 66
-95.5324 -1158.63 -1530 86 70 71
-91.7702 -1156.25 -1527 85 71 72
-88.1385 -1155.39 -1526 87 77 77
-84.18 -1149.99 -1519 113 96 86
-80.3082 -1145.35 -1513 149 121 107
-76.4146 -1139.96 -1506 168 137 120
-72.7481 -1137.61 -1503 184 150 130
-68.9583 -1132.98 -1497 193 157 137
-65.3284 -1130.64 -1494 198 161 143
-61.7547 -1129.05 -1492 196 160 143
-58.1909 -1127.47 -1490 192 158 140
-54.7473 -1128.16 -1491 186 152 134
-51.2307 -1127.34 -1490 180 145 132
-47.8477 -1129.55 -1493 171 138 126
-44.4214 -1131.01 -1495 160 129 120
-40.9589 -1131.72 -1496 147 117 112
-37.5422 -1133.95 -1499 137 111 111
-34.2255 -1139.96 -1507 132 107 110
-30.7699 -1142.19 -1510 121 99 104
-27.3367 -1145.94 -1515 108 90 96
-23.9748 -1154.23 -1526 95 80 86
-20.5484 -1161.77 -1536 88 76 83
-17.0644 -1168.55 -1545 87 79 87
-13.4778 -1170.05 -1547 89 83 94
-9.88837 -1172.3 -1550 101 96 107
-6.26864 -1171.54 -1549 109 105 112
-178.951 -1170.26 -1534 0 0 0
-175.093 -1168.53 -1532 183 174 162
-171.135 -1166.04 -1529 183 175 162
-166.974 -1162.03 -1524 183 172 155
-162.088 -1152.69 -1512 179 164 144
-157.679 -1146.41 -1504 177 155 132
-153.208 -1139.37 -1495 185 155 132
-149.281 -1136.14 -1491 191 159 136
-145.375 -1132.92 -1487 193 160 137
-141.966 -1133.52 -1488 193 159 137
-138.182 -1131.07 -1485 193 161 135
-134.867 -1132.43 -1487 195 161 139
-131.102 -1129.99 -1484 195 161 141
-127.525 -1129.08 -1483 193 159 141
-124.121 -1129.7 -1484 192 158 142
-120.876 -1131.84 -1487 187 153 139
-117.461 -1132.46 -1488 178 145 133
-114.501 -1137.65 -1495 169 134 126
-111.436 -1142.09 -1501 143 112 110
-108.488 -1148.05 -1509 129 99 96
-105.295 -1151.73 -1514 111 84 82
-102.415 -1159.21 -1524 89 67 68
-99.1002 -1162.14 -1528 80 64 61
-95.5803 -1162.79 -1529 81 67 66
-91.6958 -1158.88 -1524 83 70 70
-88.067 -1158.01 -1523 87 77 77
-84.2218 -1154.11 -1518 113 97 87
-80.2416 -1147.93 -1510 145 118 105
-76.3505 -1142.52 -1503 165 135 119
-72.7352 -1140.91 -1501 181 147 127
-68.9457 -1136.27 -1495 192 156 136
-65.3601 -1134.67 -1493 194 159 141
-61.7846 -1133.08 -1491 193 158 140
-58.2191 -1131.49 -1489 191 157 139
-54.7737 -1132.19 -1490 189 155 137
-51.2211 -1130.6 -1488 182 148 134
-47.7746 -1131.31 -1489 175 141 129
-44.324 -1132.01 -1490 163 130 119
-40.9513 -1135 -1494 148 118 113
-37.5103 -1136.48 -1496 143 115 113
-34.1058 -1139.48 -1500 137 110 111
-30.6626 -1141.72 -1503 125 100 103
-27.2598 -1146.24 -1509 112 93 100
-23.8765 -1153.05 -1518 100 85 92
-20.4782 -1161.38 -1529 91 78 85
-17.0177 -1168.95 -1539 91 80 88
-13.4758 -1173.49 -1545 91 83 92
-9.86762 -1173.48 -1545 98 93 102
-6.25155 -1171.95 -1543 119 114 120
-178.576 -1171.4 -1529 184 175 163
-174.726 -1169.66 -1527 186 175 164
-170.999 -1168.7 -1526 185 175 159
-166.84 -1164.67 -1521 182 167 150
-162.17 -1156.82 -1511 176 157 138
-157.758 -1150.51 -1503 180 155 133
-153.386 -1144.2 -1495 188 158 135
-149.355 -1140.2 -1490 193 161 137
-145.642 -1138.5 -1488 195 162 137
-141.94 -1136.8 -1486 194 161 136
-138.156 -1134.34 -1483 196 163 138
-134.842 -1135.71 -1485 198 164 141
-131.166 -1134.02 -1483 194 160 139
-127.501 -1132.34 -1481 191 157 139
-124.098 -1132.96 -1482 189 156 140
-120.773 -1134.35 -1484 185 152 138
-117.202 -1133.45 -1483 177 144 132
-114.021 -1136.37 -1487 169 134 126
-110.897 -1140.06 -1492 144 113 110
-107.822 -1144.51 -1498 125 95 90
-104.79 -1149.74 -1505 107 80 77
-102.063 -1158.78 -1517 82 62 62
-98.8908 -1163.25 -1523 77 62 61
-95.4411 -1164.66 -1525 79 65 64
-91.6819 -1162.26 -1522 80 68 67
-87.9957 -1160.63 -1520 85 75 75
-84.2086 -1157.48 -1516 111 95 86
-80.0156 -1148.22 -1504 145 120 107
-76.0832 -1142.02 -1496 166 136 122
-72.4316 -1139.65 -1493 184 150 132
-68.7488 -1136.51 -1489 192 157 137
-65.1731 -1134.91 -1487 193 159 139
-61.7318 -1135.6 -1488 192 158 138
-58.1691 -1134 -1486 190 156 136
-54.7269 -1134.7 -1487 190 156 138
-51.1426 -1132.35 -1484 185 151 137
-47.6372 -1131.53 -1483 177 144 131
-44.1966 -1132.24 -1484 165 132 121
-40.7517 -1132.95 -1485 153 122 115
-37.2274 -1131.38 -1483 147 119 117
-33.9404 -1137.44 -1491 143 116 116
-30.5755 -1141.98 -1497 132 106 108
-27.1648 -1145.76 -1502 117 96 103
-23.7624 -1151.07 -1509 103 88 96
-20.4081 -1160.96 -1522 95 82 90
-16.9931 -1170.85 -1535 91 80 88
-13.4389 -1173.89 -1539 90 82 90
-9.83427 -1173.11 -1538 95 90 98
-6.23827 -1173.1 -1538 140 136 141
-182.056 -1174.28 -1526 0 0 0
-178.085 -1171.76 -1523 184 174 163
-174.244 -1170.01 -1521 184 173 162
-170.302 -1167.5 -1518 183 174 158
-165.828 -1161.15 -1510 182 166 147
-161.285 -1154.04 -1501 175 153 133
-156.998 -1148.47 -1494 184 156 134
-152.95 -1144.44 -1489 190 160 137
-149.028 -1141.19 -1485 190 161 136
-145.323 -1139.48 -1483 190 160 134
-141.82 -1139.31 -1483 191 159 136
-138.132 -1137.61 -1481 194 161 136
-134.546 -1136.69 -1480 195 162 139
-131.054 -1136.53 -1480 194 160 139
-127.478 -1135.61 -1479 191 159 138
-123.824 -1133.93 -1477 191 158 142
-120.507 -1135.32 -1479 187 154 141
-117.023 -1135.18 -1479 180 147 135
-113.771 -1137.35 -1482 167 132 124
-110.804 -1142.59 -1489 145 115 110
-107.804 -1147.83 -1496 123 95 88
-104.843 -1153.84 -1504 103 78 72
-101.913 -1160.63 -1513 80 61 61
-98.6164 -1163.58 -1517 73 59 58
-95.0514 -1163.46 -1517 75 61 60
-91.4875 -1163.35 -1517 76 63 62
-87.7506 -1160.95 -1514 85 75 75
-84.0289 -1158.55 -1511 109 93 85
-79.8428 -1149.25 -1499 142 118 107
-76.0193 -1144.56 -1493 166 137 123
-72.3219 -1141.41 -1489 182 148 130
-68.6903 -1139.03 -1486 189 155 135
-65.0297 -1135.88 -1482 191 157 137
-61.5962 -1136.57 -1483 190 156 136
-58.0802 -1135.74 -1482 191 157 137
-54.6064 -1135.67 -1482 188 154 136
-51.0988 -1134.84 -1481 179 145 130
-47.6285 -1134.79 -1481 170 137 123
-44.1289 -1133.97 -1480 163 130 117
-40.6619 -1133.92 -1480 155 124 116
-37.2205 -1134.64 -1481 149 121 119
-33.8659 -1138.43 -1486 143 116 116
-30.4271 -1139.92 -1488 129 105 106
-27.0515 -1144.48 -1494 115 94 101
-23.6954 -1151.35 -1503 105 89 97
-20.3378 -1160.51 -1515 98 85 92
-16.9242 -1169.69 -1527 90 79 85
-13.3845 -1172.73 -1531 92 84 93
-9.80087 -1172.72 -1531 97 92 100
-6.21302 -1171.94 -1530 149 144 149
-184.923 -1173.29 -1518 0 0 0
-181.315 -1173.08 -1518 184 175 161
-177.358 -1170.55 -1515 183 174 162
-173.532 -1168.79 -1513 184 175 163
-169.38 -1164.73 -1508 181 171 154
-165.254 -1160.67 -1503 176 158 140
-161.045 -1155.84 -1497 175 151 132
-156.972 -1151.79 -1492 185 155 132
-152.925 -1147.75 -1487 191 159 136
-149.003 -1144.49 -1483 193 162 136
-145.2 -1142 -1480 190 159 132
-141.413 -1139.51 -1477 190 158 134
-137.828 -1138.58 -1476 194 161 136
-134.34 -1138.42 -1476 196 163 139
-130.765 -1137.49 -1475 196 163 141
-127.369 -1138.11 -1476 192 160 139
-123.97 -1138.73 -1477 188 157 139
-120.485 -1138.59 -1477 183 152 137
-117.081 -1139.22 -1478 177 144 132
-113.751 -1140.62 -1480 164 129 121
-110.561 -1143.57 -1484 142 112 107
-107.426 -1147.3 -1489 121 92 86
-104.617 -1154.88 -1499 105 77 73
-101.493 -1159.38 -1505 82 62 62
-98.2115 -1162.34 -1509 72 58 57
-94.5984 -1161.46 -1508 71 59 57
-91.1119 -1162.12 -1509 76 65 64
-87.3894 -1159.7 -1506 87 78 78
-83.7378 -1158.06 -1504 110 94 86
-79.6165 -1149.5 -1493 146 120 109
-75.8026 -1144.79 -1487 169 139 125
-72.115 -1141.62 -1483 180 147 129
-68.3544 -1136.92 -1477 184 150 130
-64.8423 -1136.07 -1476 189 155 135
-61.3773 -1136 -1476 191 157 137
-57.9129 -1135.93 -1476 190 156 136
-54.4491 -1135.86 -1476 185 151 133
-50.8823 -1133.49 -1473 177 142 128
-47.4911 -1134.97 -1475 168 133 121
-44.0014 -1134.15 -1474 162 128 117
-40.517 -1133.33 -1473 157 125 117
-37.0627 -1133.28 -1473 154 123 120
-33.7459 -1137.86 -1479 147 119 117
-30.4012 -1142.44 -1485 134 108 107
-27.065 -1148.56 -1493 123 100 103
-23.66 -1153.14 -1499 108 91 97
-20.2943 -1161.58 -1510 100 85 91
-16.844 -1167.71 -1518 93 81 86
-13.3038 -1169.23 -1520 90 82 95
-9.74156 -1169.22 -1520 98 89 99
-6.17959 -1169.21 -1520 150 144 149
-184.289 -1172.83 -1511 189 176 163
-180.574 -1171.84 -1510 188 177 164
-176.866 -1170.85 -1509 186 177 164
-172.704 -1166.76 -1504 184 174 163
-168.681 -1163.46 -1500 180 163 144
-164.569 -1159.38 -1495 172 150 130
-160.59 -1156.09 -1491 176 150 129
-156.421 -1151.25 -1485 183 154 130
-152.591 -1148.74 -1482 191 160 136
-148.677 -1145.46 -1478 193 162 138
-144.979 -1143.73 -1476 191 160 135
-140.909 -1138.91 -1470 190 158 132
-137.43 -1138.75 -1470 193 160 135
-133.861 -1137.81 -1469 195 162 138
-130.476 -1138.43 -1470 197 164 140
-127.001 -1138.28 -1470 194 160 139
-123.78 -1140.45 -1473 188 156 139
-120.301 -1140.31 -1473 179 149 133
-116.823 -1140.17 -1473 173 142 127
-113.578 -1142.35 -1476 161 127 115
-110.319 -1144.54 -1479 142 112 104
-107.12 -1147.51 -1483 119 90 83
-104.322 -1155.12 -1493 98 71 67
-101.208 -1159.64 -1499 81 63 63
-97.8714 -1161.84 -1502 75 59 58
-94.5217 -1164.05 -1505 76 63 62
-90.9776 -1163.94 -1505 79 69 67
-87.2021 -1160.74 -1501 91 83 83
-83.5578 -1159.1 -1499 120 103 95
-79.5502 -1152.04 -1490 145 123 112
-75.6368 -1145.76 -1482 165 139 125
-72.0053 -1143.36 -1479 176 142 126
-68.3886 -1140.95 -1476 182 148 128
-64.8308 -1139.33 -1474 188 154 134
-61.3247 -1138.48 -1473 191 157 136
-57.8633 -1138.41 -1473 189 155 133
-54.3654 -1137.57 -1472 184 150 134
-50.9422 -1138.28 -1473 178 142 129
-47.3858 -1135.91 -1470 170 134 123
-43.9636 -1136.63 -1471 164 129 121
-40.5096 -1136.58 -1471 160 126 119
-37.0308 -1135.76 -1470 158 125 123
-33.6942 -1139.58 -1475 153 122 121
-30.3344 -1143.4 -1480 143 115 114
-26.9879 -1148.78 -1487 130 106 105
-23.5456 -1151.07 -1490 114 94 98
-20.1567 -1157.22 -1498 106 90 95
-16.7082 -1161.83 -1504 98 86 91
-13.2055 -1164.13 -1507 90 81 93
-9.68236 -1165.67 -1509 91 82 92
-6.15423 -1167.97 -1512 147 141 146
-187.24 -1172.56 -1504 0 0 0
-183.532 -1171.56 -1503 186 176 159
-179.592 -1169.01 -1500 186 176 159
-175.786 -1167.23 -1498 185 175 159
-171.876 -1164.69 -1495 181 167 155
-168.207 -1163.71 -1494 179 150 128
-163.994 -1158.84 -1488 177 148 125
-160.35 -1157.86 -1487 181 153 130
-156.396 -1154.56 -1483 184 156 130
-152.67 -1152.82 -1481 188 158 133
-148.652 -1148.75 -1476 189 159 134
-144.955 -1147.02 -1474 187 157 133
-140.981 -1142.95 -1469 189 157 130
-137.313 -1141.23 -1467 194 161 136
-133.655 -1139.52 -1465 195 162 137
-130.454 -1141.69 -1468 195 163 138
-127.066 -1142.32 -1469 194 160 138
-123.759 -1143.72 -1471 187 154 137
-120.362 -1144.35 -1472 180 148 132
-116.962 -1144.99 -1473 172 142 127
-113.481 -1144.85 -1473 163 130 117
-110.151 -1146.27 -1475 147 116 109
-106.813 -1147.7 -1477 121 93 86
-103.886 -1153.79 -1485 98 72 66
-100.855 -1159.11 -1492 78 60 60
-97.7265 -1163.65 -1498 71 55 54
-94.3194 -1165.09 -1500 73 60 58
-90.9039 -1166.53 -1502 80 69 68
-87.0729 -1162.54 -1497 97 89 89
-83.2663 -1158.56 -1492 136 119 111
-79.2169 -1150.7 -1482 146 125 113
-75.3687 -1145.17 -1475 159 133 120
-71.7006 -1141.98 -1471 178 144 128
-68.1449 -1140.34 -1469 185 151 131
-64.6434 -1139.49 -1468 187 153 133
-61.1473 -1138.64 -1467 188 154 134
-57.7351 -1139.34 -1468 187 153 131
-54.2449 -1138.5 -1467 181 147 131
-50.7601 -1137.66 -1466 175 139 126
-47.3451 -1138.38 -1467 169 133 122
-43.7762 -1135.22 -1463 163 128 120
-40.3645 -1135.95 -1464 160 126 118
-36.9989 -1138.23 -1467 158 128 123
-33.6654 -1142.07 -1472 154 125 122
-30.3703 -1148.24 -1480 149 121 120
-26.9834 -1152.08 -1485 138 114 112
-23.5575 -1155.15 -1489 127 105 108
-20.1266 -1159.01 -1494 117 98 103
-16.6389 -1160.54 -1496 105 90 95
-13.142 -1162.07 -1498 96 84 93
-9.64874 -1165.16 -1502 92 85 93
-6.13291 -1167.48 -1505 144 141 144
-2.59937 -1168.25 -1506 163 163 163
0.938859 -1169.02 -1507 0 0 0
-186.343 -1170.48 -1495 0 0 0
-182.652 -1169.47 -1494 182 174 159
-178.489 -1165.34 -1489 182 172 157
-174.822 -1164.35 -1488 178 164 148
-170.931 -1161.79 -1485 175 154 137
-167.394 -1161.59 -1485 172 145 123
-163.197 -1156.7 -1479 177 148 126
-159.462 -1154.94 -1477 180 151 130
-155.528 -1151.62 -1473 184 156 130
-152.13 -1152.22 -1474 188 158 133
-148.023 -1147.35 -1468 190 160 135
-144.439 -1146.39 -1467 190 160 135
-140.669 -1143.88 -1464 191 159 132
-137.196 -1143.71 -1464 192 160 135
-133.267 -1139.65 -1459 194 162 137
-130.165 -1142.61 -1463 193 161 138
-126.698 -1142.46 -1463 193 161 138
-123.401 -1143.87 -1465 191 158 140
-120.015 -1144.51 -1466 187 154 137
-116.704 -1145.92 -1468 178 145 129
-113.385 -1147.35 -1470 167 134 121
-110.058 -1148.78 -1472 150 119 112
-106.795 -1150.99 -1475 124 95 88
-103.87 -1157.1 -1483 105 78 70
-100.772 -1161.66 -1489 79 61 61
-97.4512 -1163.88 -1492 70 54 53
-93.9282 -1163.77 -1492 72 59 57
-90.6487 -1166.78 -1496 81 71 69
-86.769 -1161.99 -1490 108 99 99
-83.086 -1159.55 -1487 150 130 123
-79.0972 -1152.44 -1478 150 127 116
-75.4074 -1149.23 -1474 162 137 123
-71.6884 -1145.24 -1469 180 146 129
-68.226 -1145.16 -1469 187 153 133
-64.5881 -1141.96 -1465 190 156 136
-61.1782 -1142.67 -1466 189 155 135
-57.6856 -1141.81 -1465 187 153 132
-54.1614 -1140.19 -1463 181 147 131
-50.7165 -1140.13 -1463 178 142 128
-47.2721 -1140.07 -1463 174 138 126
-43.7683 -1138.46 -1461 169 134 126
-40.3572 -1139.19 -1462 162 131 122
-37.0176 -1142.26 -1466 160 130 124
-33.7282 -1147.67 -1473 156 126 122
-30.3652 -1151.52 -1478 152 123 120
-26.9608 -1154.61 -1482 142 117 115
-23.5379 -1157.69 -1486 135 111 111
-20.0829 -1160 -1489 127 105 106
-16.5806 -1159.98 -1489 116 96 98
-13.0874 -1160.74 -1490 106 92 98
-9.60885 -1163.85 -1494 95 87 92
-6.10339 -1165.4 -1496 137 132 135
-2.58512 -1165.39 -1496 166 163 164
0.935624 -1168.51 -1500 169 168 167
-189.761 -1173.3 -1492 0 0 0
-185.444 -1168.35 -1486 184 175 161
-181.648 -1166.56 -1484 180 171 158
-177.504 -1162.41 -1479 179 168 155
-174.091 -1162.98 -1480 175 157 138
-170.33 -1161.2 -1478 176 149 126
-167.031 -1162.57 -1480 177 150 128
-162.952 -1158.44 -1475 181 153 131
-159.438 -1158.25 -1475 185 155 132
-155.398 -1154.14 -1470 186 158 131
-151.796 -1153.16 -1469 189 159 134
-147.798 -1149.06 -1464 189 159 134
-144.317 -1148.88 -1464 189 159 134
-140.453 -1145.57 -1460 190 161 133
-136.798 -1143.84 -1458 191 159 134
-133.244 -1142.89 -1457 192 160 136
-129.876 -1143.52 -1458 192 160 137
-126.417 -1143.36 -1458 193 161 140
-123.212 -1145.56 -1461 192 159 143
-119.995 -1147.77 -1464 187 154 138
-116.605 -1148.41 -1465 181 148 132
-113.135 -1148.27 -1465 171 138 123
-109.891 -1150.49 -1468 158 126 116
-106.489 -1151.14 -1469 132 102 94
-103.363 -1154.94 -1474 109 81 73
-100.147 -1157.95 -1478 78 60 58
-97.0447 -1162.53 -1484 73 57 55
-93.7256 -1164.77 -1487 77 63 62
-90.5146 -1168.57 -1492 86 75 73
-86.5231 -1162.2 -1484 124 114 112
-82.6261 -1156.62 -1477 155 135 128
-78.7632 -1151.04 -1470 149 127 117
-75.0366 -1147.03 -1465 165 140 127
-71.3833 -1143.81 -1461 182 148 130
-67.9821 -1144.51 -1462 190 156 136
-64.3563 -1141.3 -1458 192 158 138
-61.0425 -1143.57 -1461 191 157 137
-57.5181 -1141.94 -1459 189 155 135
-54.115 -1142.65 -1460 183 149 133
-50.6383 -1141.81 -1459 176 142 128
-47.2316 -1142.53 -1460 172 137 124
-43.7306 -1140.91 -1458 168 133 123
-40.2949 -1140.86 -1458 163 132 123
-36.9606 -1143.94 -1462 163 133 127
-33.6539 -1148.6 -1468 160 130 124
-30.3398 -1154.04 -1475 154 124 118
-26.9201 -1156.35 -1478 144 119 114
-23.4708 -1157.88 -1480 138 113 112
-20.0123 -1159.42 -1482 134 109 109
-16.5224 -1159.4 -1482 129 104 106
-13.0413 -1160.16 -1483 122 100 102
-9.56866 -1162.5 -1486 103 92 96
-6.08199 -1164.84 -1489 119 111 113
-2.57583 -1164.83 -1489 160 154 155
0.933226 -1168.74 -1494 166 163 163
4.45987 -1171.09 -1497 0 0 0
-193.046 -1175.33 -1488 0 0 0
-188.972 -1171.94 -1484 181 174 162
-184.545 -1166.18 -1477 184 175 161
-181.011 -1165.96 -1477 183 171 159
-176.998 -1162.58 -1473 176 161 149
-173.478 -1162.37 -1473 174 150 128
-169.728 -1160.59 -1471 178 150 126
-166.555 -1162.75 -1474 179 151 127
-162.375 -1157.82 -1468 182 154 130
-158.765 -1156.83 -1467 186 156 133
-154.739 -1152.7 -1462 187 159 131
-151.256 -1152.52 -1462 189 160 132
-147.37 -1149.18 -1458 192 162 135
-144.097 -1150.58 -1460 192 162 137
-140.238 -1147.26 -1456 191 161 136
-136.681 -1146.3 -1455 189 158 134
-133.13 -1145.35 -1454 192 160 137
-129.943 -1147.55 -1457 194 162 139
-126.482 -1147.4 -1457 195 163 142
-123.192 -1148.82 -1459 194 160 141
-119.811 -1149.46 -1460 188 154 136
-116.507 -1150.9 -1462 181 148 132
-112.962 -1149.97 -1461 172 139 123
-109.649 -1151.41 -1463 160 127 116
-106.327 -1152.85 -1465 139 107 98
-103.277 -1157.45 -1471 112 82 75
-99.929 -1158.9 -1473 80 62 60
-96.9652 -1165.07 -1481 75 59 56
-93.586 -1166.53 -1483 78 64 61
-90.1984 -1167.99 -1485 87 76 73
-86.2769 -1162.38 -1478 137 126 122
-82.6135 -1159.92 -1475 159 139 132
-78.697 -1153.53 -1467 148 126 116
-75.0243 -1150.3 -1463 166 141 128
-71.3713 -1147.06 -1459 186 151 131
-67.9708 -1147.76 -1460 191 157 137
-64.4337 -1146.11 -1458 192 158 138
-61.0322 -1146.82 -1459 191 157 137
-57.5872 -1146.75 -1459 188 154 134
-54.1058 -1145.9 -1458 182 148 132
-50.6991 -1146.62 -1459 176 142 127
-47.2235 -1145.78 -1458 171 137 124
-43.8131 -1146.51 -1459 169 134 124
-40.3155 -1144.88 -1457 166 135 124
-37.0303 -1149.55 -1463 164 134 127
-33.6255 -1151.08 -1465 158 128 121
-30.232 -1153.4 -1468 153 123 114
-26.8248 -1155.72 -1471 145 120 113
-23.4037 -1158.05 -1474 140 113 112
-19.9282 -1158.02 -1474 141 113 112
-16.4528 -1158 -1474 138 109 110
-13.0041 -1160.34 -1477 134 104 104
-9.54131 -1162.69 -1480 115 100 102
-6.06055 -1164.25 -1482 106 92 95
-2.56673 -1164.24 -1482 143 130 133
0.930606 -1168.95 -1488 166 160 161
4.44154 -1169.74 -1489 0 0 0
-192.502 -1175.53 -1482 179 173 165
-188.437 -1172.13 -1478 179 172 160
-184.144 -1167.14 -1472 182 172 158
-180.495 -1166.13 -1471 181 166 153
-176.371 -1161.94 -1466 177 156 144
-172.981 -1162.52 -1467 174 150 128
-169.473 -1162.32 -1467 179 151 129
-166.079 -1162.9 -1468 181 152 128
-161.908 -1157.95 -1462 182 151 126
-158.525 -1158.55 -1463 185 155 134
-154.397 -1153.61 -1457 186 158 130
-150.922 -1153.42 -1457 190 161 133
-147.144 -1150.86 -1454 195 166 138
-143.777 -1151.48 -1455 196 166 141
-140.311 -1151.31 -1455 192 162 137
-136.659 -1149.55 -1453 191 160 136
-133.017 -1147.81 -1451 194 162 139
-129.744 -1149.23 -1453 196 164 141
-126.375 -1149.87 -1454 195 163 142
-122.919 -1149.71 -1454 191 157 137
-119.628 -1151.15 -1456 187 153 134
-116.409 -1153.38 -1459 182 149 130
-112.79 -1151.66 -1457 174 141 125
-109.481 -1153.1 -1459 162 129 118
-106.165 -1154.55 -1461 142 110 101
-103.191 -1159.96 -1468 116 86 79
-99.7781 -1160.62 -1469 80 62 59
-96.7548 -1166.03 -1476 73 56 53
-93.3834 -1167.5 -1478 74 59 56
-89.9426 -1168.18 -1479 88 75 72
-86.1475 -1164.12 -1474 145 134 130
-82.3209 -1159.28 -1468 158 138 131
-78.4163 -1152.87 -1460 154 132 122
-74.8069 -1150.4 -1457 165 141 128
-71.2127 -1147.95 -1454 186 150 130
-67.7266 -1147.07 -1453 191 157 137
-64.3345 -1147.78 -1454 195 161 142
-60.8547 -1146.92 -1453 193 159 141
-57.4197 -1146.85 -1453 189 155 137
-53.9482 -1145.99 -1452 184 150 134
-50.6211 -1148.3 -1455 177 143 129
-47.1183 -1146.66 -1453 172 139 125
-43.6856 -1146.6 -1453 173 140 129
-40.2811 -1147.34 -1454 172 141 130
-36.9483 -1150.45 -1458 169 138 131
-33.62 -1154.35 -1463 161 131 123
-30.2066 -1155.89 -1465 158 128 120
-26.8024 -1158.22 -1468 155 126 119
-23.3524 -1158.98 -1469 149 120 115
-19.9115 -1160.54 -1471 146 116 114
-16.4502 -1161.3 -1472 144 113 114
-12.9844 -1162.07 -1473 145 111 111
-9.52703 -1164.43 -1476 123 106 108
-6.05545 -1166.78 -1479 112 95 98
-2.56455 -1166.78 -1479 119 102 106
0.929452 -1170.72 -1484 160 150 150
4.43214 -1170.73 -1484 168 165 166
-191.697 -1174.12 -1474 182 176 168
-187.775 -1171.5 -1471 184 175 163
-183.868 -1168.88 -1468 182 172 158
-180.225 -1167.86 -1467 177 162 148
-176.346 -1165.26 -1464 178 152 137
-173.075 -1166.63 -1466 180 153 132
-169.333 -1164.83 -1464 183 155 132
-165.942 -1165.42 -1465 185 155 130
-161.662 -1159.65 -1458 186 154 127
-158.176 -1159.46 -1458 187 157 135
-153.843 -1152.9 -1450 186 157 129
-150.587 -1154.31 -1452 189 160 132
-146.817 -1151.74 -1449 193 164 136
-143.458 -1152.36 -1450 196 166 141
-139.903 -1151.39 -1449 196 166 141
-136.355 -1150.43 -1448 197 165 142
-132.904 -1150.26 -1448 197 165 142
-129.544 -1150.9 -1449 196 164 141
-126.181 -1151.54 -1450 193 161 140
-122.814 -1152.18 -1451 190 156 137
-119.362 -1152.03 -1451 184 150 132
-115.991 -1152.68 -1452 181 148 130
-112.384 -1150.95 -1450 176 143 125
-109.164 -1153.2 -1453 165 132 119
-106.148 -1157.83 -1459 146 114 104
-103.106 -1162.46 -1465 121 91 84
-99.7636 -1163.93 -1467 83 65 62
-96.6099 -1167.77 -1472 72 56 52
-93.1806 -1168.45 -1473 74 59 55
-89.504 -1165.96 -1470 93 79 76
-85.7841 -1162.68 -1466 148 137 132
-81.9718 -1157.82 -1460 154 134 127
-78.2426 -1153.76 -1455 150 128 119
-74.6922 -1152.08 -1453 166 142 128
-71.2502 -1151.99 -1453 188 152 132
-67.7155 -1150.32 -1451 194 159 139
-64.3683 -1151.82 -1453 196 162 143
-60.8866 -1150.96 -1452 194 159 141
-57.4498 -1150.88 -1452 190 156 138
-53.902 -1148.44 -1449 185 151 135
-50.5084 -1149.17 -1450 179 145 130
-47.0456 -1148.31 -1449 176 142 128
-43.6483 -1149.05 -1450 177 143 131
-40.3022 -1151.38 -1453 175 143 132
-36.917 -1152.92 -1455 171 140 132
-33.5227 -1154.46 -1457 164 134 126
-30.1399 -1156.8 -1460 160 130 123
-26.7434 -1159.14 -1463 161 130 123
-23.2851 -1159.11 -1463 159 129 122
-19.8678 -1161.46 -1466 156 125 119
-16.403 -1161.44 -1466 150 119 114
-12.9559 -1163 -1468 144 114 113
-9.49313 -1163.78 -1469 141 109 107
-6.02986 -1165.36 -1471 124 100 101
-2.55196 -1164.56 -1470 109 92 95
0.926827 -1170.9 -1478 136 126 126
4.41653 -1170.11 -1477 163 161 159
-191.152 -1174.27 -1468 180 174 166
-187.111 -1170.84 -1464 181 173 161
-183.217 -1168.21 -1461 180 166 152
-179.462 -1166.39 -1459 176 158 142
-175.84 -1165.37 -1458 180 155 136
-172.578 -1166.76 -1460 181 154 134
-168.846 -1164.95 -1458 182 154 129
-165.579 -1166.34 -1460 184 155 128
-161.527 -1162.14 -1455 186 154 127
-157.61 -1158.75 -1451 184 154 131
-153.82 -1156.17 -1448 186 157 129
-150.461 -1156.78 -1449 188 159 131
-146.591 -1153.4 -1445 190 161 133
-143.337 -1154.82 -1447 194 165 138
-139.785 -1153.85 -1446 199 167 144
-136.239 -1152.88 -1445 197 166 143
-132.791 -1152.71 -1445 196 164 142
-129.524 -1154.15 -1447 195 163 140
-126.074 -1153.99 -1447 193 160 141
-122.541 -1153.04 -1446 191 157 139
-119.344 -1155.29 -1449 187 153 135
-115.973 -1155.94 -1450 182 151 132
-112.367 -1154.2 -1448 176 146 127
-108.996 -1154.87 -1449 167 135 120
-106.06 -1160.31 -1456 148 115 104
-102.809 -1162.58 -1459 121 90 83
-99.409 -1163.25 -1460 82 65 57
-96.3995 -1168.7 -1467 72 59 54
-93.0412 -1170.18 -1469 74 63 58
-89.2476 -1166.09 -1464 96 86 81
-85.5374 -1162.79 -1460 153 144 136
-81.7347 -1157.91 -1454 155 135 123
-78.0152 -1153.83 -1449 150 128 114
-74.4231 -1151.35 -1446 171 146 131
-71.0425 -1152.06 -1447 191 155 135
-67.5179 -1150.38 -1445 194 158 138
-64.2251 -1152.69 -1448 197 161 141
-60.793 -1152.61 -1448 195 159 139
-57.3615 -1152.54 -1448 188 154 136
-53.7815 -1149.29 -1444 183 151 136
-50.4653 -1151.61 -1447 179 147 133
-46.973 -1149.96 -1445 177 143 130
-43.5809 -1150.7 -1446 181 146 134
-40.1847 -1151.45 -1447 178 146 135
-36.8603 -1154.58 -1451 172 142 132
-33.4944 -1156.93 -1454 166 136 127
-30.0526 -1156.89 -1454 162 132 125
-26.7027 -1160.83 -1459 162 131 124
-23.2498 -1160.8 -1459 164 133 126
-19.8377 -1163.16 -1462 162 131 125
-16.3556 -1161.55 -1460 156 125 120
-12.9185 -1163.12 -1462 149 119 118
-9.4594 -1163.11 -1462 148 117 111
-6.00011 -1163.1 -1462 136 111 108
-2.54109 -1163.1 -1462 116 97 96
0.923785 -1170.25 -1471 115 103 104
4.41008 -1171.85 -1473 151 148 146
7.89537 -1171.86 -1473 0 0 0
-190.346 -1172.8 -1460 179 175 166
-186.447 -1170.15 -1457 179 169 158
-182.816 -1169.12 -1456 178 159 144
-179.438 -1169.7 -1457 178 153 135
-175.815 -1168.68 -1456 176 156 135
-172.437 -1169.26 -1457 181 156 133
-168.939 -1169.05 -1457 185 158 131
-165.443 -1168.85 -1457 187 158 131
-161.171 -1163.03 -1450 190 158 134
-157.587 -1162.03 -1449 187 159 135
-153.371 -1156.22 -1442 190 161 134
-150.23 -1158.44 -1445 191 162 134
-146.569 -1156.65 -1443 192 163 134
-143.216 -1157.28 -1444 197 166 139
-139.763 -1157.1 -1444 200 168 145
-136.123 -1155.33 -1442 199 167 145
-132.679 -1155.16 -1442 197 165 144
-129.325 -1155.8 -1443 195 163 140
-126.055 -1157.25 -1445 194 160 140
-122.353 -1154.69 -1442 192 158 139
-118.996 -1155.34 -1443 190 156 138
-115.796 -1157.6 -1446 184 151 133
-112.35 -1157.46 -1446 180 147 129
-108.905 -1157.32 -1446 171 138 123
-106.117 -1164.39 -1455 152 119 107
-102.935 -1167.47 -1459 120 89 80
-99.463 -1167.34 -1459 80 63 55
-96.2547 -1170.42 -1463 73 61 55
-92.775 -1170.3 -1463 76 65 60
-89.0521 -1166.99 -1459 108 98 94
-85.4078 -1164.49 -1456 159 148 143
-81.6099 -1159.59 -1450 155 135 125
-78.0031 -1157.09 -1447 158 133 121
-74.5144 -1156.19 -1446 178 147 134
-71.0806 -1156.1 -1446 190 152 133
-67.554 -1154.42 -1444 193 157 136
-64.2151 -1155.94 -1446 195 158 138
-60.7414 -1155.06 -1445 196 158 139
-57.2731 -1154.19 -1444 188 154 138
-53.7729 -1152.52 -1442 182 152 137
-50.3876 -1153.26 -1443 183 151 136
-46.9654 -1153.2 -1443 181 148 134
-43.5438 -1153.14 -1443 184 149 137
-40.1783 -1154.69 -1445 182 151 140
-36.8291 -1157.04 -1448 175 145 135
-33.397 -1157 -1448 165 135 126
-30.048 -1160.15 -1452 164 134 127
-26.6621 -1162.52 -1455 168 137 130
-23.2462 -1164.08 -1457 166 135 128
-19.8348 -1166.45 -1460 163 132 126
-16.3308 -1163.24 -1456 160 129 123
-12.8723 -1162.42 -1455 156 126 124
-9.42539 -1162.41 -1455 155 124 117
-5.99086 -1164.79 -1458 147 120 116
-2.53346 -1163.19 -1456 136 112 110
0.921151 -1170.38 -1465 115 99 98
4.39164 -1170.38 -1465 125 117 115
7.86754 -1171.19 -1466 162 158 158
11.3637 -1173.6 -1469 0 0 0
-190.06 -1174.51 -1456 178 175 166
-185.91 -1170.24 -1451 179 167 155
-182.289 -1169.21 -1450 172 153 138
-178.798 -1168.98 -1450 177 151 133
-175.188 -1167.96 -1449 178 157 137
-171.94 -1169.35 -1451 184 158 133
-168.104 -1166.72 -1448 187 159 133
-164.511 -1165.71 -1447 191 161 136
-160.481 -1161.48 -1442 192 160 137
-157.129 -1162.09 -1443 188 160 136
-153.242 -1158.67 -1439 190 161 134
-149.688 -1157.68 -1438 192 163 135
-146.242 -1157.5 -1438 194 165 136
-142.698 -1156.51 -1437 199 167 142
-139.355 -1157.14 -1438 201 169 145
-135.914 -1156.97 -1438 200 168 146
-132.382 -1156 -1437 200 168 147
-128.767 -1154.23 -1435 198 166 143
-125.687 -1157.29 -1439 194 160 140
-122.079 -1155.53 -1437 192 158 139
-118.648 -1155.38 -1437 190 156 138
-115.458 -1157.64 -1440 186 153 135
-112.177 -1159.11 -1442 180 147 129
-108.662 -1158.17 -1441 171 138 123
-105.81 -1164.47 -1449 153 120 108
-102.639 -1167.55 -1453 126 95 87
-99.2445 -1168.23 -1454 87 70 62
-95.9783 -1170.52 -1457 70 57 51
-92.5721 -1171.21 -1458 72 61 57
-88.7953 -1167.08 -1453 110 100 96
-85.1021 -1163.76 -1449 164 148 143
-81.4288 -1160.44 -1445 159 138 127
-77.7215 -1156.33 -1440 165 138 126
-74.2452 -1155.43 -1439 181 147 134
-70.8729 -1156.15 -1440 193 151 133
-67.3562 -1154.46 -1438 191 156 137
-63.983 -1155.18 -1439 193 157 139
-60.4374 -1152.69 -1436 193 156 138
-57.1054 -1154.22 -1438 189 155 139
-53.6898 -1154.16 -1438 186 153 139
-50.2398 -1153.29 -1437 184 151 137
-46.8929 -1154.84 -1439 183 150 137
-43.5369 -1156.38 -1441 188 155 142
-40.0886 -1155.53 -1440 184 153 141
-36.7217 -1157.09 -1442 174 143 133
-33.3919 -1160.25 -1446 167 136 128
-29.8984 -1157.81 -1443 168 137 129
-26.5664 -1161.78 -1448 168 137 130
-23.131 -1161.75 -1448 167 136 129
-19.7775 -1166.54 -1454 165 134 127
-16.2946 -1164.11 -1451 165 134 127
-12.8616 -1164.9 -1452 162 132 127
-9.39154 -1161.67 -1448 160 129 122
-5.97358 -1164.87 -1452 154 124 118
-2.52952 -1164.87 -1452 143 115 111
0.918727 -1170.48 -1459 119 99 96
4.38218 -1171.29 -1460 109 96 93
7.86136 -1173.7 -1463 158 152 150
11.3469 -1175.32 -1465 169 165 164
-189.644 -1175.4 -1451 176 173 162
-185.629 -1171.93 -1447 178 164 150
-182.013 -1170.89 -1446 174 153 138
-178.527 -1170.66 -1446 181 155 137
-174.801 -1168.82 -1444 189 160 146
-171.442 -1169.42 -1445 193 163 140
-167.849 -1168.39 -1444 193 163 140
-164.261 -1167.38 -1443 194 164 141
-160.347 -1163.94 -1439 193 162 137
-156.78 -1162.93 -1438 186 156 133
-152.9 -1159.5 -1434 188 157 131
-149.666 -1160.93 -1436 191 159 132
-146.017 -1159.13 -1434 193 163 136
-142.379 -1157.34 -1432 199 167 142
-139.335 -1160.39 -1436 199 167 142
-135.799 -1159.41 -1435 199 167 143
-132.362 -1159.25 -1435 197 165 144
-128.927 -1159.08 -1435 194 161 141
-125.406 -1158.12 -1434 192 158 140
-121.721 -1155.54 -1431 192 158 140
-118.464 -1157 -1433 190 156 138
-115.12 -1157.67 -1434 185 152 133
-111.849 -1159.14 -1436 181 147 129
-108.571 -1160.62 -1438 173 139 124
-105.576 -1165.33 -1444 157 124 111
-102.2 -1166 -1445 135 105 98
-98.9577 -1168.3 -1448 89 72 66
-95.7017 -1170.6 -1451 73 60 55
-92.1784 -1169.68 -1450 75 64 60
-88.4771 -1166.34 -1446 117 109 104
-84.9136 -1164.62 -1444 165 146 141
-81.2477 -1161.29 -1440 161 139 129
-77.6558 -1158.77 -1437 168 141 130
-74.1306 -1157.06 -1435 181 146 134
-70.7143 -1156.97 -1435 194 151 135
-67.2051 -1155.27 -1433 190 152 135
-63.7952 -1155.19 -1433 188 152 135
-60.3016 -1153.5 -1431 186 152 134
-56.9376 -1154.24 -1432 185 152 136
-53.5319 -1154.17 -1432 184 152 138
-50.1969 -1155.71 -1434 184 151 137
-46.853 -1157.27 -1436 188 154 140
-43.4698 -1158.02 -1437 189 156 143
-40.0824 -1158.77 -1438 184 153 140
-36.6395 -1157.92 -1437 173 142 131
-33.2714 -1159.49 -1439 167 136 126
-29.8317 -1158.64 -1438 168 137 128
-26.5624 -1165.05 -1446 168 137 130
-23.0796 -1162.6 -1443 167 136 129
-19.6656 -1163.38 -1444 169 137 130
-16.2023 -1160.94 -1441 170 137 131
-12.7976 -1162.54 -1443 170 140 129
-9.37062 -1162.52 -1443 169 138 129
-5.94783 -1163.32 -1444 164 132 125
-2.52208 -1164.93 -1446 151 119 113
0.915035 -1168.95 -1451 127 103 101
4.36668 -1170.57 -1453 104 88 85
7.83884 -1173.8 -1457 147 140 138
11.3378 -1177.84 -1462 167 163 162
-188.967 -1174.66 -1444 180 173 161
-184.835 -1170.35 -1439 176 160 145
-181.359 -1170.12 -1439 177 155 139
-177.886 -1169.9 -1439 186 157 140
-174.172 -1168.05 -1437 192 159 146
-170.826 -1168.65 -1438 197 164 143
-167.361 -1168.43 -1438 194 162 141
-163.669 -1166.6 -1436 191 161 140
-159.99 -1164.77 -1434 189 158 136
-156.43 -1163.76 -1433 190 159 136
-152.771 -1161.94 -1431 188 156 132
-149.331 -1161.75 -1431 188 156 130
-145.792 -1160.76 -1430 192 160 134
-142.159 -1158.95 -1428 198 166 141
-138.926 -1160.4 -1430 201 169 144
-135.495 -1160.23 -1430 200 168 145
-132.066 -1160.06 -1430 196 162 143
-128.459 -1158.27 -1428 192 158 138
-125.125 -1158.93 -1429 193 159 140
-121.617 -1157.96 -1428 192 158 139
-118.281 -1158.62 -1429 187 153 136
-114.942 -1159.29 -1430 183 149 129
-111.443 -1158.33 -1429 179 145 127
-108.253 -1160.63 -1432 172 138 122
-105.195 -1164.55 -1437 160 126 113
-101.832 -1165.23 -1438 136 106 99
-98.6021 -1167.53 -1441 88 72 66
-95.4249 -1170.65 -1445 75 63 58
-92.0387 -1171.35 -1446 77 67 65
-88.4037 -1168.8 -1443 124 116 113
-84.9017 -1167.88 -1442 165 148 144
-81.1795 -1163.73 -1437 156 137 128
-77.6443 -1162.01 -1435 167 144 132
-74.0678 -1159.49 -1432 182 152 138
-70.5557 -1157.78 -1430 195 155 136
-66.9601 -1154.46 -1426 193 155 136
-63.518 -1153.56 -1425 188 150 132
-60.2502 -1155.92 -1428 184 147 130
-56.7695 -1154.22 -1426 180 149 133
-53.4489 -1155.77 -1428 183 152 139
-50.1192 -1157.33 -1430 184 152 138
-46.8132 -1159.7 -1433 187 153 139
-43.433 -1160.45 -1434 187 154 141
-40.0205 -1160.4 -1434 185 154 141
-36.6086 -1160.35 -1434 173 142 131
-33.2201 -1161.11 -1435 169 138 128
-29.7856 -1160.27 -1434 170 139 130
-26.3931 -1161.04 -1435 171 140 133
-22.9641 -1160.2 -1434 169 138 131
-19.5946 -1162.6 -1437 167 134 128
-16.1661 -1161.77 -1436 168 134 128
-12.7868 -1164.99 -1440 167 136 125
-9.36267 -1164.97 -1440 171 140 131
-5.9509 -1167.39 -1443 176 141 131
-2.51987 -1167.39 -1443 165 129 119
0.913022 -1169.81 -1446 130 102 99
4.36341 -1173.05 -1450 105 86 84
7.82726 -1175.49 -1453 138 129 128
11.3054 -1177.93 -1456 170 165 164
-188.55 -1175.51 -1439 182 172 160
-184.682 -1172.82 -1436 171 155 139
-181.083 -1171.78 -1435 171 150 132
-177.739 -1172.37 -1436 182 152 132
-174.149 -1171.33 -1435 181 146 130
-170.447 -1169.48 -1433 186 152 134
-166.872 -1168.45 -1432 188 155 135
-163.533 -1169.06 -1433 189 157 136
-159.968 -1168.04 -1432 191 159 138
-156.627 -1168.65 -1433 189 159 136
-152.856 -1166.01 -1430 188 158 134
-149.206 -1164.19 -1428 188 156 131
-145.771 -1164 -1428 189 157 132
-142.138 -1162.19 -1426 195 162 137
-138.711 -1162.01 -1426 197 165 141
-135.286 -1161.84 -1426 198 165 143
-131.77 -1160.86 -1425 198 164 146
-128.44 -1161.51 -1426 195 161 141
-125.107 -1162.16 -1427 193 159 139
-121.514 -1160.38 -1425 190 156 137
-117.932 -1158.6 -1423 186 152 136
-114.603 -1159.27 -1424 183 149 129
-111.27 -1159.94 -1425 178 142 122
-107.858 -1159.8 -1425 170 135 118
-104.814 -1163.74 -1430 159 124 112
-101.676 -1166.86 -1434 131 101 94
-98.4517 -1169.18 -1437 90 73 67
-95.0817 -1169.87 -1438 77 64 60
-91.7717 -1171.38 -1440 80 70 68
-88.2077 -1169.64 -1438 127 119 117
-84.7132 -1168.72 -1437 166 157 151
-81.1115 -1166.18 -1434 156 139 130
-77.6332 -1165.26 -1433 168 145 133
-74.057 -1162.73 -1430 185 156 142
-70.5453 -1161.01 -1428 192 157 137
-66.9028 -1156.86 -1423 187 152 134
-63.4189 -1155.15 -1421 186 150 133
-60.072 -1155.89 -1422 185 148 132
-56.721 -1156.63 -1423 182 148 134
-53.3657 -1157.37 -1424 179 148 135
-50.0064 -1158.12 -1425 183 151 137
-46.7083 -1160.5 -1428 184 150 136
-43.3053 -1160.44 -1428 185 152 139
-39.9308 -1161.2 -1429 185 154 141
-36.5009 -1160.34 -1428 174 143 131
-33.1688 -1162.73 -1431 166 135 124
-29.7189 -1161.07 -1429 167 136 127
-26.3156 -1161.03 -1429 171 140 133
-22.9446 -1162.63 -1431 171 140 133
-19.5507 -1163.41 -1432 169 137 130
-16.1411 -1163.39 -1432 164 131 125
-12.7582 -1165.81 -1435 159 128 119
-9.35472 -1167.42 -1437 159 128 118
-5.94593 -1169.85 -1440 178 143 132
-2.51767 -1169.85 -1440 172 136 125
0.911214 -1170.66 -1441 134 105 100
4.35692 -1174.72 -1446 104 83 81
7.81028 -1176.36 -1448 136 127 126
11.2732 -1177.99 -1450 173 166 166
-187.871 -1174.71 -1432 183 169 155
-184.015 -1172.01 -1429 170 154 137
-180.808 -1173.42 -1431 172 152 133
-177.22 -1172.37 -1430 175 145 125
-173.519 -1170.51 -1428 165 127 112
-170.067 -1170.29 -1428 173 137 122
-166.734 -1170.9 -1429 184 149 133
-163.055 -1169.05 -1427 187 155 133
-159.723 -1169.66 -1428 191 161 138
-156.278 -1169.46 -1428 195 164 141
-152.622 -1167.63 -1426 193 161 137
-149.185 -1167.44 -1426 189 156 131
-145.546 -1165.62 -1424 187 155 130
-141.819 -1162.98 -1421 189 156 131
-138.205 -1161.16 -1419 190 158 133
-134.982 -1162.63 -1421 194 161 137
-131.658 -1163.28 -1422 197 163 145
-128.331 -1163.93 -1423 197 163 145
-124.913 -1163.77 -1423 196 162 143
-121.582 -1164.43 -1424 191 157 139
-117.915 -1161.83 -1421 188 154 138
-114.345 -1160.05 -1419 185 151 131
-110.864 -1159.09 -1418 180 145 125
-107.464 -1158.95 -1418 168 132 115
-104.359 -1162.08 -1422 155 120 108
-101.165 -1164.4 -1425 132 105 97
-98.0956 -1168.36 -1430 95 78 74
-94.8704 -1170.69 -1433 81 67 64
-91.5682 -1172.21 -1435 86 76 74
-88.0731 -1171.28 -1434 129 122 118
-84.7019 -1171.99 -1435 161 154 147
-81.1002 -1169.43 -1432 159 143 133
-77.5139 -1166.88 -1429 168 144 133
-73.8909 -1163.52 -1425 179 151 139
-70.3373 -1160.98 -1422 183 149 133
