ply
format ascii 1.0
comment Created by Open3D
element vertex 1401
property double x
property double y
property double z
property uchar red
property uchar green
property uchar blue
end_header
-70.2424 -112.253 -1272 104 86 43
-67.7584 -112.333 -1273 103 85 43
-65.2709 -112.414 -1274 102 84 44
-62.8293 -112.583 -1276 102 84 46
-60.3801 -112.752 -1278 101 83 47
-57.9688 -113.01 -1281 99 82 46
-55.5892 -113.356 -1285 98 82 47
-53.1528 -113.614 -1288 97 84 51
-50.7442 -113.96 -1292 95 84 51
-48.3947 -114.484 -1298 94 83 51
-45.8804 -114.655 -1300 94 82 52
-43.4585 -115.09 -1305 93 82 52
-40.9857 -115.438 -1309 92 82 52
-38.4972 -115.786 -1313 92 81 49
-35.9932 -116.134 -1317 93 82 49
-33.5496 -116.748 -1324 93 82 49
-31.0316 -117.185 -1329 90 80 48
-28.5367 -117.798 -1336 89 80 48
-25.9949 -118.324 -1342 89 77 50
-23.551 -119.467 -1355 91 80 53
-21.0711 -120.699 -1369 88 79 51
-18.6561 -122.725 -1392 92 83 54
-16.1157 -124.486 -1412 95 86 56
-13.5617 -126.864 -1439 81 71 56
-224.091 -124.27 -1366 164 132 53
-218.87 -122.879 -1351 163 131 52
-214.193 -121.761 -1339 164 132 51
-210.671 -121.28 -1334 170 134 50
-206.86 -120.618 -1327 170 133 48
-203.695 -120.32 -1324 169 131 48
-200.392 -119.931 -1320 165 127 45
-197.556 -119.816 -1319 157 119 38
-194.578 -119.61 -1317 153 116 35
-191.609 -119.405 -1315 150 113 32
-188.794 -119.291 -1314 148 111 31
-185.985 -119.177 -1313 147 110 31
-183.321 -119.154 -1313 143 106 28
-180.246 -118.86 -1310 143 106 31
-177.455 -118.747 -1309 142 105 30
-174.67 -118.635 -1308 144 106 33
-171.759 -118.432 -1306 147 109 37
-168.857 -118.23 -1304 155 117 45
-166.093 -118.119 -1303 163 124 48
-163.333 -118.008 -1302 171 132 55
-160.209 -117.625 -1298 180 142 61
-157.345 -117.425 -1296 185 147 64
-154.371 -117.134 -1293 187 149 66
-151.528 -116.934 -1291 179 141 58
-148.579 -116.644 -1288 166 129 46
-145.983 -116.626 -1288 162 125 44
-143.055 -116.337 -1285 160 122 40
-140.358 -116.229 -1284 156 118 35
-137.666 -116.121 -1283 149 108 31
-134.875 -115.924 -1281 138 99 23
-132.195 -115.817 -1280 130 93 18
-129.825 -115.982 -1282 129 91 16
-127.249 -115.966 -1282 130 92 18
-124.48 -115.77 -1280 133 94 24
-122.005 -115.845 -1281 146 107 35
-119.341 -115.74 -1280 161 123 50
-116.499 -115.455 -1277 161 121 48
-113.849 -115.35 -1276 164 124 50
-111.378 -115.427 -1277 189 148 69
-108.649 -115.233 -1275 191 148 68
-106.095 -115.22 -1275 188 145 64
-103.379 -115.026 -1273 188 142 63
-100.672 -114.833 -1271 182 137 58
-97.9739 -114.64 -1269 177 133 54
-95.3598 -114.538 -1268 172 130 52
-92.6773 -114.346 -1266 166 125 48
-90.0747 -114.245 -1265 161 120 42
-87.546 -114.234 -1265 156 117 43
-84.9509 -114.133 -1264 151 115 49
-82.3605 -114.033 -1263 147 114 54
-79.9011 -114.113 -1264 143 111 53
-77.4384 -114.194 -1265 128 102 52
-75.0315 -114.365 -1267 116 93 45
-72.6172 -114.537 -1269 107 87 41
-70.2508 -114.799 -1272 102 83 42
-67.7133 -114.79 -1272 102 84 43
-65.2788 -114.963 -1274 102 84 44
-62.8368 -115.136 -1276 102 84 46
-60.4346 -115.399 -1279 101 83 47
-58.0662 -115.752 -1283 99 82 46
-55.6391 -116.016 -1286 99 83 48
-53.283 -116.461 -1291 99 86 53
-50.8289 -116.725 -1294 96 84 52
-48.4004 -117.08 -1298 93 82 50
-45.8859 -117.254 -1300 93 82 52
-43.4303 -117.61 -1304 94 83 53
-40.928 -117.875 -1307 94 83 53
-38.4725 -118.321 -1312 93 82 49
-35.9975 -118.768 -1317 94 83 50
-33.5789 -119.485 -1325 93 82 49
-31.0587 -119.932 -1330 89 79 47
-28.6043 -120.74 -1339 88 79 47
-26.0561 -121.278 -1345 89 77 49
-23.6234 -122.537 -1359 91 80 53
-21.1813 -124.067 -1376 91 82 54
-18.712 -125.868 -1396 91 82 53
-16.1404 -127.489 -1414 90 81 51
-225.76 -127.957 -1376 162 130 50
-219.384 -125.883 -1354 163 131 51
-214.22 -124.461 -1339 166 134 53
-210.698 -123.97 -1334 170 135 51
-207.042 -123.386 -1328 171 134 49
-203.413 -122.803 -1322 169 131 48
-200.417 -122.592 -1320 165 127 45
-197.58 -122.474 -1319 159 120 40
-194.602 -122.263 -1317 154 117 36
-191.779 -122.146 -1316 150 113 32
-189.105 -122.122 -1316 147 110 32
-186.15 -121.913 -1314 144 107 29
-183.483 -121.89 -1314 141 104 26
-180.406 -121.589 -1311 140 102 28
-177.613 -121.474 -1310 143 105 32
-174.692 -121.266 -1308 148 110 37
-171.78 -121.059 -1306 150 112 38
-168.878 -120.852 -1304 159 121 46
-166.113 -120.739 -1303 170 131 53
-163.479 -120.718 -1303 178 139 60
-160.352 -120.327 -1299 185 147 65
-157.365 -120.029 -1296 187 149 66
-154.391 -119.732 -1293 184 146 63
-151.43 -119.435 -1290 177 139 56
-148.598 -119.231 -1288 166 128 46
-145.888 -119.12 -1287 161 124 43
-143.072 -118.917 -1285 157 120 38
-140.375 -118.807 -1284 149 111 30
-137.683 -118.697 -1283 144 103 28
-134.891 -118.495 -1281 137 97 23
-132.315 -118.478 -1281 133 94 21
-129.841 -118.555 -1282 134 95 20
-127.265 -118.539 -1282 137 98 23
-124.592 -118.43 -1281 149 107 35
-122.02 -118.415 -1281 162 121 47
-119.356 -118.308 -1280 176 135 58
-116.514 -118.016 -1277 162 121 44
-113.863 -117.909 -1276 172 131 53
-111.305 -117.895 -1276 191 150 68
-108.662 -117.789 -1275 187 146 65
-106.108 -117.775 -1275 184 142 62
-103.392 -117.577 -1273 187 142 64
-100.605 -117.288 -1270 180 135 57
-97.9087 -117.091 -1268 174 131 53
-95.2211 -116.894 -1266 170 128 49
-92.6155 -116.79 -1265 164 123 44
-90.0858 -116.779 -1265 157 117 38
-87.5568 -116.768 -1265 154 114 40
-85.0286 -116.757 -1265 149 113 47
-82.4358 -116.654 -1264 145 114 53
-79.9741 -116.736 -1265 143 113 54
-77.5091 -116.819 -1266 127 101 53
-75.0407 -116.902 -1267 112 89 43
-72.6261 -117.077 -1269 103 83 39
-70.2594 -117.345 -1272 99 80 40
-67.828 -117.521 -1274 101 83 43
-65.4405 -117.789 -1277 102 84 44
-62.9923 -117.966 -1279 100 83 45
-60.5838 -118.235 -1282 101 84 48
-58.1639 -118.504 -1285 99 82 46
-55.7757 -118.866 -1289 100 83 48
-53.3721 -119.228 -1293 98 85 52
-50.9137 -119.498 -1296 96 84 52
-48.4436 -119.769 -1299 93 82 50
-45.9268 -119.947 -1301 93 82 52
-43.469 -120.311 -1305 95 84 54
-40.9642 -120.582 -1308 94 83 53
-38.5065 -121.038 -1313 92 81 49
-36.0019 -121.402 -1317 92 81 48
-33.583 -122.135 -1325 92 81 48
-31.0391 -122.5 -1329 90 80 47
-28.5437 -123.142 -1336 88 79 47
-26.1175 -124.244 -1348 89 80 50
-23.6263 -125.255 -1359 89 79 50
-21.2917 -127.464 -1383 93 84 56
-18.7679 -129.028 -1400 90 81 53
-16.188 -130.685 -1418 81 72 44
-13.5839 -132.803 -1441 81 71 58
-225.296 -130.45 -1373 161 129 48
-220.222 -129.091 -1359 162 130 49
-214.887 -127.543 -1343 165 133 52
-210.882 -126.756 -1335 171 135 51
-206.913 -125.97 -1327 172 135 50
-203.438 -125.469 -1322 169 131 48
-200.594 -125.348 -1321 163 125 44
-197.605 -125.132 -1319 158 119 40
-194.626 -124.918 -1317 153 115 36
-191.949 -124.893 -1317 148 111 31
-189.273 -124.868 -1317 144 107 29
-186.173 -124.56 -1314 142 105 27
-183.507 -124.536 -1314 140 103 26
-180.704 -124.418 -1313 140 102 29
-177.635 -124.111 -1310 145 107 34
-174.714 -123.899 -1308 150 112 39
-171.933 -123.782 -1307 155 117 42
-168.9 -123.476 -1304 162 124 48
-166.134 -123.36 -1303 173 135 54
-163.374 -123.244 -1302 185 147 65
-160.373 -122.939 -1299 188 150 66
-157.506 -122.73 -1297 183 145 61
-154.529 -122.426 -1294 175 137 53
-151.566 -122.122 -1291 168 131 49
-148.847 -122.009 -1290 165 128 46
-146.02 -121.801 -1288 160 123 42
-143.202 -121.593 -1286 156 117 37
-140.502 -121.481 -1285 147 108 28
-137.808 -121.368 -1284 143 102 27
-135.014 -121.162 -1282 138 98 23
-132.435 -121.145 -1282 136 97 23
-129.958 -121.223 -1283 135 96 21
-127.281 -121.112 -1282 141 102 27
-124.802 -121.19 -1283 156 114 41
-122.131 -121.08 -1282 168 127 51
-119.371 -120.876 -1280 181 140 61
-116.62 -120.672 -1278 163 121 41
-114.056 -120.657 -1278 181 139 58
-111.319 -120.454 -1276 191 149 66
-108.591 -120.251 -1274 186 144 62
-106.038 -120.238 -1274 184 142 62
-103.242 -119.941 -1271 185 142 64
-100.459 -119.645 -1268 176 133 54
-97.8438 -119.538 -1267 169 128 49
-95.2331 -119.431 -1266 167 126 47
-92.5538 -119.231 -1264 164 123 44
-90.0259 -119.219 -1264 155 117 39
-87.637 -119.397 -1266 153 115 42
-85.0392 -119.291 -1265 149 113 49
-82.5766 -119.375 -1266 147 114 56
-80.0473 -119.365 -1266 142 109 53
-77.5801 -119.449 -1267 122 97 52
-75.1093 -119.534 -1268 111 89 45
-72.6352 -119.619 -1269 104 85 44
-70.2682 -119.892 -1272 99 81 42
-67.8366 -120.072 -1274 100 83 44
-65.3975 -120.252 -1276 102 84 44
-62.9509 -120.432 -1278 100 83 45
-60.5914 -120.801 -1282 99 82 46
-58.1712 -121.077 -1285 100 83 47
-55.7827 -121.446 -1289 100 84 49
-53.3788 -121.816 -1293 93 79 48
-50.9986 -122.281 -1298 94 82 51
-48.487 -122.463 -1300 94 83 52
-45.9678 -122.645 -1302 95 84 54
-43.5077 -123.016 -1306 93 82 52
-41.0007 -123.294 -1309 92 81 51
-38.5114 -123.665 -1313 93 82 49
-36.0611 -124.226 -1319 93 82 49
-33.6125 -124.881 -1326 93 82 50
-31.0898 -125.347 -1331 92 81 49
-28.6541 -126.285 -1341 89 79 47
-26.1595 -127.129 -1350 89 80 49
-23.7857 -128.821 -1368 88 79 49
-21.4022 -130.89 -1390 92 83 55
-18.7971 -132.017 -1402 86 77 50
-16.2014 -133.616 -1419 73 64 38
-13.5101 -134.932 -1433 77 68 58
-220.413 -131.932 -1360 162 130 48
-215.235 -130.448 -1345 163 131 49
-210.752 -129.354 -1334 172 136 52
-206.939 -128.647 -1327 174 137 52
-203.465 -128.136 -1322 169 131 48
-200.62 -128.012 -1321 160 122 40
-197.631 -127.792 -1319 155 116 37
-194.8 -127.67 -1318 152 115 35
-191.974 -127.548 -1317 147 110 31
-189.297 -127.523 -1317 140 103 25
-186.339 -127.304 -1315 139 102 25
-183.67 -127.28 -1315 141 104 28
-180.589 -126.966 -1312 142 104 31
-177.658 -126.749 -1310 148 110 36
-174.736 -126.532 -1308 153 116 40
-171.824 -126.316 -1306 160 121 45
-169.051 -126.197 -1305 166 127 50
-166.283 -126.078 -1304 178 140 57
-163.395 -125.863 -1302 190 152 68
-160.27 -125.456 -1298 186 148 63
-157.405 -125.242 -1296 178 140 54
-154.43 -124.931 -1293 172 134 49
-151.586 -124.718 -1291 168 131 50
-148.751 -124.506 -1289 164 127 46
-146.039 -124.39 -1288 159 122 41
-143.332 -124.274 -1287 152 114 34
-140.63 -124.159 -1286 146 107 28
-137.933 -124.044 -1285 144 102 28
-135.242 -123.93 -1284 140 99 24
-132.659 -123.913 -1284 140 101 26
-130.077 -123.896 -1284 142 103 28
-127.396 -123.782 -1283 148 109 34
-124.721 -123.669 -1282 162 121 46
-122.051 -123.557 -1281 179 137 60
-119.293 -123.348 -1279 180 138 58
-116.543 -123.14 -1277 170 127 45
-113.892 -123.029 -1276 189 147 64
-111.159 -122.821 -1274 190 147 63
-108.434 -122.614 -1272 185 142 60
-105.802 -122.504 -1271 183 140 60
-103.174 -122.394 -1270 181 138 60
-100.393 -122.092 -1267 169 127 48
-97.8563 -122.079 -1267 162 123 44
-95.2453 -121.97 -1266 164 123 45
-92.5657 -121.765 -1264 161 120 43
-90.0374 -121.753 -1264 154 118 41
-87.579 -121.838 -1265 152 116 44
-85.0502 -121.827 -1265 151 115 51
-82.5872 -121.912 -1266 147 114 56
-80.1841 -122.094 -1268 136 103 48
-77.7125 -122.18 -1269 116 92 48
-75.1782 -122.171 -1269 108 87 45
-72.7018 -122.257 -1270 103 85 46
-70.2773 -122.44 -1272 100 83 45
-67.8453 -122.624 -1274 101 84 47
-65.4571 -122.904 -1277 101 83 43
-63.0082 -123.088 -1279 98 81 43
-60.5992 -123.369 -1282 97 81 44
-58.1333 -123.554 -1284 101 84 48
-55.7466 -123.931 -1288 101 84 49
-53.3856 -124.405 -1293 94 81 50
-51.0051 -124.88 -1298 94 83 52
-48.4932 -125.066 -1300 95 84 54
-46.009 -125.348 -1303 95 84 54
-43.5799 -125.823 -1308 94 82 52
-41.0373 -126.01 -1310 94 82 53
-38.5163 -126.294 -1313 93 82 50
-36.0384 -126.77 -1318 93 82 49
-33.5915 -127.439 -1325 93 82 50
-31.0937 -128.011 -1331 92 81 49
-28.6577 -128.969 -1341 92 81 49
-26.3373 -130.697 -1359 90 81 49
-23.8931 -132.136 -1374 88 79 48
-21.4664 -134.057 -1394 88 79 52
-18.7994 -134.823 -1402 78 67 44
-16.2492 -136.84 -1423 70 59 37
-13.5118 -137.8 -1433 79 70 61
-226.34 -136.591 -1379 162 130 47
-220.928 -134.976 -1363 162 130 46
-215.584 -133.363 -1347 164 132 49
-211.254 -132.344 -1337 171 135 52
-207.279 -131.524 -1329 174 137 53
-203.184 -130.606 -1320 171 132 52
-200.343 -130.48 -1319 160 121 41
-197.507 -130.354 -1318 153 114 35
-194.678 -130.229 -1317 148 110 31
-191.999 -130.203 -1317 143 106 28
-189.323 -130.178 -1317 137 100 23
-186.506 -130.054 -1316 135 98 22
-183.694 -129.93 -1315 138 101 25
-180.613 -129.609 -1312 143 106 31
-177.682 -129.388 -1310 149 111 36
-174.759 -129.167 -1308 155 117 41
-171.978 -129.045 -1307 164 125 47
-169.203 -128.923 -1306 174 135 56
-166.433 -128.802 -1305 183 145 61
-163.542 -128.583 -1303 189 151 66
-160.291 -128.068 -1298 183 145 58
-157.304 -127.751 -1295 175 137 50
-154.57 -127.631 -1294 173 135 48
-151.841 -127.512 -1293 167 130 49
-148.886 -127.196 -1290 161 124 44
-146.285 -127.177 -1290 156 119 40
-143.462 -126.96 -1288 151 111 32
-140.758 -126.843 -1287 146 105 26
-137.951 -126.627 -1285 146 103 29
-135.365 -126.609 -1285 142 101 27
-132.779 -126.591 -1285 143 104 31
-130.094 -126.475 -1284 148 109 35
-127.413 -126.36 -1283 154 115 41
-124.64 -126.146 -1281 171 130 55
-122.067 -126.129 -1281 185 144 65
-119.308 -125.917 -1279 177 135 54
-116.559 -125.704 -1277 179 135 52
-113.818 -125.492 -1275 191 148 64
-111.086 -125.28 -1273 187 143 59
-108.278 -124.97 -1270 186 142 59
-105.732 -124.956 -1270 182 138 57
-103.188 -124.942 -1270 175 132 54
-100.485 -124.732 -1268 164 122 44
-97.8692 -124.621 -1267 159 122 44
-95.2577 -124.509 -1266 159 121 45
-92.5778 -124.3 -1264 154 114 39
-89.9779 -124.19 -1263 152 117 43
-87.5905 -124.375 -1265 150 115 44
-85.0613 -124.363 -1265 148 114 50
-82.6632 -124.549 -1267 143 110 54
-80.2578 -124.735 -1269 131 98 45
-77.7226 -124.724 -1269 113 89 48
-75.2473 -124.812 -1270 109 87 47
-72.7685 -124.901 -1271 103 85 47
-70.3417 -125.088 -1273 103 86 50
-67.9074 -125.275 -1275 103 86 50
-65.5169 -125.561 -1278 99 82 42
-63.115 -125.847 -1281 96 81 41
-60.6543 -126.036 -1283 96 82 43
-58.2315 -126.323 -1286 99 82 46
-55.7971 -126.61 -1289 100 84 49
-53.3513 -126.897 -1292 95 84 52
-50.9725 -127.381 -1297 95 84 54
-48.4996 -127.669 -1300 97 86 56
-46.015 -127.958 -1303 95 84 54
-43.5856 -128.443 -1308 94 82 52
-41.0113 -128.536 -1309 94 80 51
-38.5213 -128.923 -1313 93 81 50
-36.0431 -129.409 -1318 94 83 51
-33.6213 -130.19 -1326 94 83 51
-31.1679 -130.971 -1334 93 82 50
-28.8111 -132.342 -1348 92 81 49
-26.5345 -134.4 -1369 90 82 49
-24.0875 -135.967 -1385 90 82 50
-21.5616 -137.437 -1400 84 75 49
-18.8824 -138.219 -1408 73 62 40
-16.2171 -139.395 -1420 69 57 37
-13.5135 -140.669 -1433 81 71 64
-227.192 -139.884 -1384 159 127 42
-221.121 -137.831 -1364 161 129 43
-215.773 -136.185 -1348 165 133 49
-211.599 -135.246 -1339 168 132 49
-207.463 -134.309 -1330 169 132 49
-203.673 -133.574 -1323 168 129 50
-200.674 -133.344 -1321 160 121 42
-197.834 -133.216 -1320 153 114 35
-194.852 -132.987 -1318 142 105 27
-192.171 -132.961 -1318 140 103 25
-189.492 -132.935 -1318 138 101 25
-186.673 -132.808 -1317 140 103 27
-183.859 -132.682 -1316 142 105 29
-180.913 -132.456 -1314 149 112 36
-177.977 -132.23 -1312 155 117 41
-175.05 -132.004 -1310 161 122 45
-172.265 -131.88 -1309 169 130 51
-169.355 -131.655 -1307 181 143 61
-166.455 -131.43 -1305 186 148 62
-163.564 -131.207 -1303 183 145 59
-160.436 -130.782 -1299 181 143 53
-157.568 -130.559 -1297 175 137 50
-154.471 -130.135 -1293 174 136 49
-151.744 -130.013 -1292 166 129 48
-148.79 -129.691 -1289 159 122 42
-146.191 -129.671 -1289 154 116 39
-143.37 -129.45 -1287 148 108 29
-140.777 -129.431 -1287 143 102 23
-138.185 -129.412 -1287 144 101 28
-135.488 -129.293 -1286 142 101 28
-133.004 -129.375 -1287 143 104 32
-130.212 -129.156 -1285 151 112 40
-127.53 -129.038 -1284 164 125 52
-124.657 -128.72 -1281 183 140 65
-121.988 -128.602 -1280 187 145 66
-119.138 -128.285 -1277 172 130 47
-116.483 -128.168 -1276 182 138 54
-113.655 -127.851 -1273 189 145 61
-110.926 -127.635 -1271 187 141 60
-108.292 -127.52 -1270 183 137 56
-105.663 -127.405 -1269 177 132 51
-103.12 -127.391 -1269 172 130 51
-100.578 -127.377 -1269 164 123 44
-97.8823 -127.163 -1267 157 120 42
-95.2705 -127.05 -1266 157 119 43
-92.6635 -126.937 -1265 155 116 41
-90.0612 -126.824 -1264 152 117 43
-87.533 -126.812 -1264 149 115 44
-85.1399 -127.001 -1266 145 112 46
-82.6742 -127.09 -1267 139 107 53
-80.2685 -127.28 -1269 129 97 47
-77.7943 -127.369 -1270 115 91 51
-75.2574 -127.359 -1270 110 88 50
-72.7783 -127.449 -1271 104 86 49
-70.2958 -127.54 -1272 104 87 52
-67.9164 -127.831 -1275 102 85 49
-65.5769 -128.223 -1279 98 81 42
-63.1727 -128.515 -1282 96 81 42
-60.757 -128.808 -1285 97 83 44
-58.2392 -128.9 -1286 99 82 46
-55.7613 -129.093 -1288 99 83 48
-53.2758 -129.286 -1290 95 84 52
-50.9006 -129.78 -1295 95 84 54
-48.4687 -130.174 -1299 98 87 58
-45.9858 -130.468 -1302 96 85 55
-43.5914 -131.064 -1308 94 82 53
-41.0481 -131.258 -1310 95 81 52
-38.5851 -131.754 -1315 93 81 50
-36.1299 -132.35 -1321 92 81 49
-33.6765 -133.047 -1328 92 81 49
-31.2889 -134.144 -1339 92 81 49
-29.0501 -136.144 -1359 92 81 49
-26.7513 -138.244 -1380 92 84 52
-24.1777 -139.242 -1390 89 82 51
-21.5953 -140.441 -1402 79 70 46
-18.8849 -141.039 -1408 69 58 37
-16.242 -142.439 -1422 70 58 38
-227.059 -142.579 -1383 157 125 38
-221.151 -140.589 -1364 158 126 40
-216.763 -139.528 -1354 162 130 46
-211.944 -138.158 -1341 167 132 48
-207.648 -137.099 -1331 169 132 49
-204.01 -136.452 -1325 165 126 47
-200.853 -136.115 -1322 155 116 37
-197.711 -135.778 -1319 149 110 31
-195.026 -135.751 -1319 140 102 24
-192.198 -135.621 -1318 140 103 25
-189.518 -135.594 -1318 139 102 26
-186.698 -135.465 -1317 142 105 29
-184.024 -135.439 -1317 146 109 33
-180.938 -135.105 -1314 151 114 38
-178.137 -134.978 -1313 157 120 43
-175.342 -134.85 -1312 161 122 45
-172.42 -134.62 -1310 169 131 50
-169.378 -134.288 -1307 183 145 62
-166.606 -134.162 -1306 186 148 60
-163.461 -133.729 -1302 180 142 53
-160.211 -133.193 -1297 180 142 51
-157.347 -132.965 -1295 177 139 50
-154.373 -132.636 -1292 171 133 46
-151.647 -132.512 -1291 160 123 43
-148.811 -132.285 -1289 156 118 39
-146.097 -132.162 -1288 152 113 36
-143.389 -132.04 -1287 147 106 28
-140.796 -132.02 -1287 141 100 21
-138.096 -131.898 -1286 142 99 27
-135.507 -131.879 -1286 143 101 29
-133.022 -131.963 -1287 147 108 37
-130.028 -131.535 -1283 160 121 48
-127.348 -131.415 -1282 179 139 66
-124.479 -131.09 -1279 191 148 72
-121.91 -131.073 -1279 185 143 63
-119.061 -130.749 -1276 170 128 44
-116.408 -130.63 -1275 180 136 52
-113.581 -130.307 -1272 190 145 62
-110.942 -130.189 -1271 192 145 66
-108.137 -129.866 -1268 181 135 55
-105.678 -129.954 -1269 174 130 49
-103.053 -129.837 -1268 170 129 50
-100.513 -129.823 -1268 162 122 43
-97.8184 -129.605 -1266 153 116 38
-95.2835 -129.591 -1266 153 115 39
-92.6762 -129.476 -1265 155 116 40
-90.2161 -129.566 -1266 151 115 41
-87.6835 -129.553 -1266 150 116 44
-85.2188 -129.644 -1267 144 112 45
-82.6855 -129.632 -1267 138 107 54
-80.2162 -129.723 -1268 131 100 51
-77.7436 -129.815 -1269 115 92 53
-75.2676 -129.907 -1270 109 88 51
-72.7882 -129.999 -1271 105 87 51
-70.3607 -130.193 -1273 103 86 51
-67.979 -130.491 -1276 100 83 48
-65.5859 -130.788 -1279 98 81 43
-63.1813 -131.086 -1282 98 82 44
-60.7653 -131.384 -1285 99 85 46
-58.3378 -131.683 -1288 99 82 46
-55.7256 -131.573 -1287 100 84 49
-53.3656 -132.076 -1292 95 84 52
-50.9076 -132.376 -1295 94 82 53
-48.438 -132.676 -1298 96 84 57
-45.9921 -133.078 -1302 95 84 54
-43.5973 -133.685 -1308 95 83 53
-41.085 -133.986 -1311 95 81 52
-38.5904 -134.389 -1315 93 82 50
-36.1622 -135.1 -1322 92 81 49
-33.7571 -136.015 -1331 92 81 49
-31.4333 -137.441 -1345 92 81 50
-29.1609 -139.378 -1364 92 81 51
-26.8518 -141.52 -1385 89 82 49
-24.2505 -142.436 -1394 83 76 45
-21.6136 -143.353 -1403 73 64 40
-18.9277 -144.167 -1411 68 57 37
-16.2443 -145.289 -1422 71 59 41
-226.599 -145.061 -1380 157 126 37
-221.344 -143.453 -1365 159 128 40
-216.314 -141.95 -1351 163 131 47
-211.974 -140.869 -1341 169 133 50
-207.677 -139.789 -1331 168 131 48
-204.192 -139.234 -1326 162 123 44
-201.034 -138.891 -1323 152 113 34
-198.189 -138.757 -1322 148 109 30
-195.35 -138.624 -1321 140 103 24
-192.516 -138.492 -1320 143 106 28
-189.689 -138.36 -1319 142 105 29
-187.15 -138.438 -1320 143 106 30
-184.329 -138.307 -1319 146 109 33
-181.377 -138.071 -1317 150 112 38
-178.569 -137.94 -1316 156 118 43
-175.634 -137.706 -1314 161 122 45
-172.576 -137.367 -1311 170 131 51
-169.402 -136.923 -1307 182 144 61
-166.629 -136.795 -1306 185 147 57
-163.484 -136.352 -1302 183 145 55
-160.234 -135.806 -1297 180 143 51
-157.369 -135.574 -1295 176 139 50
-154.395 -135.238 -1292 166 128 41
-151.668 -135.112 -1291 155 118 38
-148.832 -134.881 -1289 151 114 34
-146.231 -134.86 -1289 147 108 31
-143.409 -134.63 -1287 143 103 25
-140.816 -134.61 -1287 138 98 19
-138.115 -134.486 -1286 142 99 28
-135.526 -134.467 -1286 147 105 35
-132.937 -134.448 -1286 157 116 47
-130.046 -134.116 -1283 172 131 59
-127.167 -133.784 -1280 188 147 74
-124.4 -133.557 -1278 191 147 69
-121.641 -133.331 -1276 175 131 50
-118.797 -133 -1273 174 130 45
-116.15 -132.879 -1272 183 139 55
-113.418 -132.654 -1270 188 144 61
-110.782 -132.534 -1269 186 138 64
-108.152 -132.414 -1268 177 132 54
-105.692 -132.504 -1269 171 128 48
-103.149 -132.489 -1269 166 125 47
-100.606 -132.475 -1269 156 116 38
-97.9093 -132.252 -1267 150 114 36
-95.2968 -132.134 -1266 154 116 39
-92.689 -132.016 -1265 155 116 40
-90.1574 -132.003 -1265 154 117 42
-87.557 -131.886 -1264 152 116 43
-85.0961 -131.979 -1265 143 111 44
-82.6318 -132.071 -1266 138 107 56
-80.1642 -132.164 -1267 132 101 56
-77.6932 -132.257 -1268 115 92 55
-75.2781 -132.455 -1270 108 87 51
-72.8556 -132.653 -1272 103 86 51
-70.4257 -132.852 -1274 100 83 49
-68.0417 -133.155 -1277 99 82 47
-65.6463 -133.459 -1280 101 84 46
-63.2887 -133.867 -1284 100 84 46
-60.8683 -134.171 -1287 99 85 46
-58.4365 -134.475 -1290 97 80 44
-55.8633 -134.467 -1290 100 84 49
-53.3731 -134.668 -1292 95 84 52
-50.954 -135.077 -1296 93 81 52
-48.482 -135.383 -1299 95 83 56
-45.9985 -135.689 -1302 94 83 53
-43.5701 -136.204 -1307 96 84 54
-41.1534 -136.823 -1313 96 82 53
-38.5957 -137.026 -1315 95 83 52
-36.222 -137.959 -1324 94 83 51
-33.914 -139.308 -1337 91 80 48
-31.7182 -141.387 -1357 93 82 51
-29.3574 -143.05 -1373 95 84 54
-26.8749 -144.401 -1386 87 80 47
-24.2713 -145.335 -1395 76 69 38
-21.6013 -146.061 -1402 69 60 35
-18.9035 -146.787 -1409 68 57 37
-16.2465 -148.139 -1422 71 59 41
-228.602 -149.14 -1392 157 126 37
-222.187 -146.75 -1370 163 132 44
-216.665 -144.897 -1353 166 134 50
-212.004 -143.581 -1341 170 134 51
-208.019 -142.694 -1333 168 131 48
-204.222 -141.915 -1326 161 122 43
-201.063 -141.564 -1323 153 114 35
-198.367 -141.536 -1323 147 108 29
-195.526 -141.4 -1322 138 100 22
-192.836 -141.372 -1322 144 107 29
-190.003 -141.237 -1321 143 106 30
-187.319 -141.21 -1321 143 106 30
-184.496 -141.076 -1320 144 107 31
-181.54 -140.836 -1318 147 109 35
-178.866 -140.81 -1318 154 116 42
-175.792 -140.463 -1315 161 122 45
-172.732 -140.118 -1312 170 132 52
-169.426 -139.559 -1307 178 140 56
-166.398 -139.215 -1304 182 145 53
-163.257 -138.764 -1300 183 146 54
-160.133 -138.314 -1296 179 142 51
-157.392 -138.184 -1295 172 135 47
-154.536 -137.948 -1293 163 125 39
-151.69 -137.713 -1291 153 116 37
-148.968 -137.584 -1290 148 110 32
-146.252 -137.456 -1289 143 104 28
-143.541 -137.329 -1288 140 101 23
-140.836 -137.202 -1287 139 101 21
-138.135 -137.075 -1286 147 104 33
-135.44 -136.949 -1285 155 113 42
-132.646 -136.716 -1283 169 127 56
-129.76 -136.378 -1280 183 141 69
-126.987 -136.146 -1278 193 150 78
-124.125 -135.809 -1275 187 143 65
-121.467 -135.684 -1274 169 125 45
-118.721 -135.454 -1272 176 132 49
-116.166 -135.437 -1272 186 141 58
-113.345 -135.102 -1269 186 141 59
-110.798 -135.085 -1269 179 131 56
-108.167 -134.963 -1268 172 127 51
-105.707 -135.054 -1269 166 123 45
-103.163 -135.039 -1269 158 118 41
-100.62 -135.025 -1269 153 114 37
-98.0005 -134.904 -1268 151 115 38
-95.3856 -134.784 -1267 156 118 42
-92.7755 -134.664 -1266 158 119 43
-90.1702 -134.544 -1265 157 119 45
-87.6388 -134.532 -1265 152 116 46
-85.1754 -134.626 -1266 146 115 53
-82.6435 -134.614 -1266 136 106 56
-80.1755 -134.708 -1267 129 100 54
-77.7041 -134.803 -1268 115 91 55
-75.2887 -135.005 -1270 108 86 50
-72.8086 -135.101 -1271 102 85 49
-70.4357 -135.409 -1274 99 82 47
-68.1047 -135.825 -1278 100 83 49
-65.7068 -136.134 -1281 102 86 48
-63.3469 -136.55 -1285 98 83 45
-60.9243 -136.859 -1288 96 82 44
-58.5353 -137.276 -1292 98 82 47
-55.9144 -137.162 -1291 102 87 53
-53.4219 -137.366 -1293 95 84 54
-50.9612 -137.677 -1296 92 81 52
-48.4889 -137.989 -1299 94 84 55
-46.0757 -138.514 -1304 95 82 54
-43.6429 -139.038 -1309 95 82 53
-41.2219 -139.669 -1315 96 83 54
-38.748 -140.195 -1320 98 86 55
-36.4185 -141.358 -1331 97 86 54
-34.0456 -142.521 -1342 95 84 52
-31.7694 -144.321 -1359 94 83 52
-29.4043 -146.016 -1375 96 85 55
-26.9175 -147.393 -1388 85 78 45
-24.3096 -148.345 -1397 72 64 33
-21.6197 -148.979 -1403 68 59 33
-18.9195 -149.719 -1410 69 58 37
-16.2945 -151.415 -1426 75 63 44
-228.307 -151.74 -1390 158 127 41
-221.733 -149.196 -1367 162 131 44
-217.017 -147.854 -1355 166 133 50
-212.036 -146.294 -1341 170 134 51
-207.893 -145.282 -1332 165 128 45
-204.56 -144.815 -1328 157 120 41
-201.548 -144.567 -1326 155 117 40
-198.846 -144.537 -1326 147 109 34
-195.85 -144.29 -1324 142 104 29
-193.01 -144.152 -1323 143 106 30
-190.031 -143.906 -1321 143 105 31
-187.346 -143.878 -1321 144 107 31
-184.662 -143.851 -1321 145 108 29
-181.567 -143.497 -1318 146 108 35
-178.757 -143.361 -1317 156 118 46
-175.684 -143.009 -1314 168 131 49
-172.494 -142.548 -1310 178 141 55
-169.192 -141.979 -1305 183 146 55
-166.294 -141.737 -1303 186 149 57
-163.029 -141.168 -1298 181 144 53
-160.033 -140.818 -1295 177 140 53
-157.172 -140.577 -1293 168 131 47
-154.319 -140.337 -1291 157 120 38
-151.594 -140.206 -1290 147 110 34
-148.875 -140.075 -1289 141 104 28
-146.16 -139.945 -1288 139 100 26
-143.451 -139.815 -1287 140 102 23
-140.966 -139.903 -1288 143 106 25
-138.155 -139.665 -1286 149 109 35
-135.459 -139.536 -1285 163 123 47
-132.769 -139.408 -1284 179 137 59
-129.88 -139.063 -1281 191 148 74
-127.005 -138.719 -1278 194 151 77
-124.241 -138.483 -1276 179 138 63
-121.485 -138.248 -1274 170 127 50
-118.832 -138.122 -1273 179 134 56
-116.275 -138.105 -1273 188 142 61
-113.54 -137.871 -1271 186 139 58
-110.902 -137.746 -1270 176 129 50
-108.268 -137.622 -1269 167 122 45
-105.806 -137.714 -1270 160 117 43
-103.097 -137.482 -1268 155 116 41
-100.555 -137.468 -1268 156 117 42
-98.0147 -137.453 -1268 155 118 42
-95.3994 -137.33 -1267 157 118 44
-92.7889 -137.208 -1266 155 116 43
-90.2545 -137.195 -1266 160 118 48
-87.7207 -137.182 -1266 157 119 53
-85.1877 -137.169 -1266 140 111 55
-82.5902 -137.049 -1265 130 102 52
-80.1238 -137.145 -1266 128 101 53
-77.5928 -137.134 -1266 124 98 62
-75.2403 -137.448 -1269 110 86 50
-72.8191 -137.653 -1271 102 84 46
-70.5012 -138.076 -1275 101 84 48
-68.1678 -138.499 -1279 102 85 49
-65.7164 -138.706 -1281 100 86 47
-63.3068 -139.021 -1284 97 82 44
-60.9331 -139.445 -1288 96 81 45
-58.4985 -139.761 -1291 97 82 48
-55.8792 -139.645 -1290 101 86 53
-53.471 -140.07 -1294 95 83 56
-51.0079 -140.387 -1297 92 82 53
-48.5332 -140.705 -1300 93 84 54
-46.153 -141.347 -1306 96 82 55
-43.7159 -141.882 -1311 95 82 54
-41.2905 -142.525 -1317 95 83 54
-38.8416 -143.168 -1323 96 85 55
-36.5333 -144.461 -1335 96 85 55
-34.152 -145.646 -1346 96 85 53
-32.0078 -148.13 -1369 96 86 55
-29.5797 -149.641 -1383 92 82 53
-26.9795 -150.502 -1391 77 67 38
-24.313 -151.148 -1397 67 57 29
-21.6074 -151.685 -1402 66 57 32
-18.9491 -152.764 -1412 71 60 38
-16.274 -154.06 -1424 78 66 46
-229.491 -155.333 -1397 160 130 48
-222.902 -152.742 -1374 163 132 47
-217.05 -150.597 -1355 167 133 51
-212.384 -149.231 -1343 169 133 51
-208.08 -148.088 -1333 165 128 45
-204.744 -147.613 -1329 156 119 41
-201.578 -147.249 -1326 152 115 38
-198.726 -147.108 -1325 145 107 34
-195.879 -146.967 -1324 142 104 31
-192.893 -146.716 -1322 142 104 31
-190.203 -146.687 -1322 141 103 30
-187.374 -146.548 -1321 145 107 31
-184.55 -146.409 -1320 148 111 31
-181.594 -146.159 -1318 148 111 37
-178.783 -146.021 -1317 158 120 47
-175.577 -145.551 -1313 172 135 49
-172.52 -145.193 -1310 183 146 56
-169.087 -144.502 -1304 186 149 55
-166.064 -144.145 -1301 186 148 58
-162.802 -143.566 -1296 180 142 54
-159.686 -143.099 -1292 171 134 50
-156.952 -142.964 -1291 161 124 42
-154.223 -142.83 -1290 149 112 31
-151.617 -142.807 -1290 139 102 25
-149.012 -142.785 -1290 138 101 24
-146.409 -142.763 -1290 139 100 25
-143.584 -142.52 -1288 140 102 23
-140.986 -142.499 -1288 144 107 26
-138.176 -142.256 -1286 158 118 42
-135.374 -142.015 -1284 177 136 58
-132.478 -141.663 -1281 193 150 69
-129.595 -141.312 -1278 195 151 74
-126.825 -141.071 -1276 189 145 69
-124.161 -140.942 -1275 176 133 59
-121.598 -140.924 -1275 172 128 52
-118.942 -140.795 -1274 182 137 58
-116.383 -140.778 -1274 185 139 59
-113.646 -140.54 -1272 180 134 54
-111.005 -140.412 -1271 170 125 47
-108.199 -140.064 -1268 163 119 43
-105.738 -140.159 -1269 159 116 42
-103.112 -140.033 -1268 155 117 42
-100.491 -139.907 -1267 156 119 43
-98.0291 -140.003 -1268 157 120 44
-95.4888 -139.989 -1268 159 121 47
-92.8026 -139.754 -1266 159 120 47
-90.2678 -139.74 -1266 163 121 49
-87.6644 -139.617 -1265 158 119 52
-85.0657 -139.493 -1264 138 107 50
-82.537 -139.481 -1264 125 97 46
-80.0723 -139.579 -1265 123 96 47
-77.6043 -139.678 -1266 119 96 61
-75.1921 -139.887 -1268 108 87 51
-72.7726 -140.097 -1270 103 86 48
-70.5115 -140.638 -1275 101 84 48
-68.1245 -140.958 -1278 100 84 47
-65.726 -141.279 -1281 99 85 46
-63.316 -141.601 -1284 97 83 45
-60.9893 -142.143 -1289 97 82 46
-58.5524 -142.465 -1292 95 80 46
-56.0174 -142.566 -1293 96 82 49
-53.6028 -142.999 -1297 94 82 55
-51.1334 -143.322 -1300 94 84 55
-48.6524 -143.646 -1303 92 83 53
-46.1951 -144.079 -1307 96 82 55
-43.7556 -144.624 -1312 97 84 57
-41.3907 -145.5 -1320 94 82 55
-38.9648 -146.265 -1327 93 82 53
-36.7029 -147.803 -1341 95 84 54
-34.4108 -149.451 -1356 97 86 54
-32.0826 -151.209 -1372 92 82 52
-29.5839 -152.417 -1383 83 74 46
-26.9835 -153.294 -1391 74 60 34
-24.2818 -153.731 -1395 69 56 32
-21.5952 -154.389 -1401 66 58 35
-18.9653 -155.709 -1413 70 59 37
-16.2421 -156.587 -1421 75 63 42
-228.705 -157.598 -1392 157 128 49
-222.449 -155.186 -1371 161 130 47
-216.602 -153.002 -1352 169 134 54
-212.258 -151.838 -1342 172 135 54
-208.581 -151.127 -1336 168 131 48
-204.93 -150.416 -1330 155 118 40
-201.761 -150.046 -1327 146 109 32
-198.906 -149.902 -1326 141 103 32
-196.057 -149.758 -1325 140 102 30
-193.068 -149.503 -1323 141 103 30
-190.52 -149.586 -1324 141 104 28
-187.544 -149.331 -1322 145 108 31
-184.578 -149.077 -1320 150 113 33
-181.621 -148.823 -1318 155 118 40
-178.675 -148.57 -1316 162 125 48
-175.47 -148.091 -1312 174 138 50
-172.283 -147.613 -1308 186 150 60
-168.983 -147.023 -1303 189 152 60
-165.833 -146.546 -1299 184 147 59
-162.701 -146.07 -1295 173 135 49
-159.586 -145.594 -1291 162 125 44
-156.854 -145.457 -1290 153 116 35
-154.127 -145.32 -1289 143 106 26
-151.64 -145.41 -1290 135 98 20
-148.919 -145.274 -1289 136 99 21
-146.431 -145.364 -1290 139 100 23
-143.717 -145.23 -1289 144 106 27
-141.117 -145.208 -1289 155 118 38
-138.304 -144.961 -1287 174 133 56
-135.394 -144.603 -1284 187 145 66
-132.498 -144.244 -1281 196 150 69
-129.716 -143.999 -1279 191 146 68
-126.844 -143.642 -1276 181 136 58
-124.083 -143.398 -1274 169 126 52
-121.521 -143.379 -1274 172 128 52
-118.867 -143.248 -1273 184 140 61
-116.309 -143.23 -1273 181 137 58
-113.663 -143.1 -1272 172 127 49
-111.022 -142.971 -1271 165 120 45
-108.3 -142.729 -1269 158 115 41
-105.838 -142.826 -1270 154 113 38
-103.209 -142.697 -1269 154 117 41
-100.585 -142.569 -1268 157 120 44
-98.0439 -142.554 -1268 159 122 46
-95.5031 -142.54 -1268 161 123 49
-92.8898 -142.413 -1267 162 123 50
-90.2813 -142.287 -1266 163 122 49
-87.7468 -142.273 -1266 156 117 48
-85.1458 -142.148 -1265 140 106 47
-82.5494 -142.023 -1264 126 97 44
-80.2109 -142.347 -1267 120 93 43
-77.6772 -142.336 -1267 110 90 55
-75.322 -142.661 -1270 106 87 51
-72.8981 -142.874 -1272 103 86 48
-70.5774 -143.313 -1276 101 84 48
-68.188 -143.639 -1279 99 82 46
-65.7358 -143.854 -1281 98 84 45
-63.2762 -144.068 -1283 98 83 46
-60.9984 -144.733 -1289 99 84 48
-58.5612 -145.061 -1292 97 82 48
-56.1124 -145.389 -1295 96 81 49
-53.6935 -145.83 -1299 94 82 55
-51.1804 -146.046 -1301 94 83 55
-48.7344 -146.488 -1305 90 81 51
-46.2374 -146.817 -1308 95 81 54
-43.8289 -147.484 -1314 96 83 56
-41.3969 -148.151 -1320 92 80 55
-38.9999 -149.043 -1328 93 82 53
-36.681 -150.384 -1340 95 84 54
-34.6951 -153.408 -1367 96 85 52
-32.2044 -154.525 -1377 89 79 48
-29.6312 -155.419 -1385 78 69 41
-26.9876 -156.088 -1391 76 62 35
-24.3029 -156.645 -1396 73 60 34
-21.6138 -157.315 -1402 68 60 37
-18.9413 -158.321 -1411 73 62 42
-16.3474 -160.451 -1430 77 65 45
-228.083 -159.959 -1388 155 125 51
-221.835 -157.504 -1367 162 131 49
-217.116 -156.087 -1355 170 137 56
-212.449 -154.672 -1343 168 133 51
-208.613 -153.833 -1336 165 128 46
-204.961 -153.11 -1330 153 116 38
-201.944 -152.847 -1328 144 107 31
-198.937 -152.586 -1326 140 102 31
-196.087 -152.44 -1325 140 102 29
-193.098 -152.18 -1323 142 104 30
-190.55 -152.265 -1324 142 105 28
-187.573 -152.005 -1322 144 107 29
-184.606 -151.746 -1320 148 111 31
-181.512 -151.373 -1317 159 122 41
-178.566 -151.115 -1315 168 131 50
-175.229 -150.513 -1310 176 140 51
-172.046 -150.026 -1306 185 148 59
-168.62 -149.311 -1300 188 150 61
-165.348 -148.711 -1295 183 145 61
-162.475 -148.455 -1293 171 133 49
-159.364 -147.971 -1289 159 122 41
-156.635 -147.832 -1288 148 111 31
-154.031 -147.808 -1288 140 103 24
-151.546 -147.899 -1289 135 98 18
-148.827 -147.761 -1288 135 98 19
-146.453 -147.967 -1290 139 101 21
-143.739 -147.83 -1289 153 115 36
-141.248 -147.923 -1290 169 132 52
-138.325 -147.557 -1287 187 145 65
-135.415 -147.192 -1284 190 146 66
-132.415 -146.712 -1280 191 144 61
-129.533 -146.348 -1277 184 139 61
-126.665 -145.985 -1274 176 131 55
-124.004 -145.851 -1273 166 124 50
-121.444 -145.832 -1273 170 127 51
-118.885 -145.813 -1273 180 137 58
-116.327 -145.795 -1273 174 131 52
-113.681 -145.663 -1272 163 120 42
-111.126 -145.645 -1272 159 115 44
-108.402 -145.399 -1270 156 114 41
-105.77 -145.268 -1269 154 113 38
-103.225 -145.252 -1269 155 117 42
-100.601 -145.122 -1268 158 121 45
-98.0588 -145.107 -1268 159 122 46
-95.5177 -145.092 -1268 163 124 50
-92.904 -144.963 -1267 164 125 52
-90.2951 -144.834 -1266 160 121 46
-87.6909 -144.706 -1265 157 119 47
-85.1588 -144.693 -1265 143 107 44
-82.562 -144.565 -1264 127 98 44
-80.2232 -144.896 -1267 118 91 41
-77.7503 -144.998 -1268 107 91 55
-75.3928 -145.329 -1271 101 84 48
-72.9092 -145.432 -1272 102 85 47
-70.5882 -145.879 -1276 101 84 48
-68.1451 -146.097 -1278 99 82 46
-65.7459 -146.429 -1281 98 84 45
-63.3352 -146.762 -1284 97 83 46
-61.0077 -147.324 -1289 97 82 48
-58.6155 -147.772 -1293 97 82 48
-56.251 -148.335 -1298 97 82 50
-53.7844 -148.669 -1301 94 82 55
-51.3062 -149.004 -1304 94 83 54
-48.8164 -149.339 -1307 92 81 51
-46.3151 -149.674 -1310 94 80 53
-43.8356 -150.124 -1314 94 81 55
-41.4345 -150.918 -1321 92 80 55
-39.1822 -152.397 -1334 92 81 52
-37.1246 -154.904 -1356 94 83 53
-34.7512 -156.383 -1369 95 84 51
-32.2327 -157.406 -1378 88 78 47
-29.6143 -158.087 -1384 77 68 40
-26.9529 -158.654 -1389 74 60 33
-24.2543 -159.107 -1393 71 58 32
-21.5554 -159.674 -1398 67 58 36
-18.8771 -160.585 -1406 75 65 45
-226.969 -161.954 -1381 155 125 52
-221.707 -160.159 -1366 162 131 49
-216.51 -158.366 -1351 171 139 58
-212.482 -157.394 -1343 166 133 51
-208.646 -156.54 -1336 161 127 45
-205.148 -155.921 -1331 151 114 36
-202.128 -155.655 -1329 140 103 27
-199.118 -155.388 -1327 139 101 30
-196.118 -155.123 -1325 138 101 26
-193.128 -154.858 -1323 139 102 26
-190.723 -155.062 -1325 143 106 28
-187.603 -154.681 -1322 144 107 28
-184.496 -154.3 -1319 149 112 32
-181.54 -154.037 -1317 159 122 38
-178.458 -153.658 -1314 170 133 48
-174.989 -152.928 -1308 178 142 52
-171.809 -152.433 -1304 184 147 59
-168.517 -151.822 -1299 184 147 60
-165.374 -151.328 -1295 180 142 59
-162.5 -151.068 -1293 167 129 47
-159.512 -150.692 -1290 153 116 36
-156.781 -150.55 -1289 145 107 28
-154.055 -150.409 -1288 139 100 23
-151.569 -150.502 -1289 138 101 20
-148.85 -150.361 -1288 143 106 25
-146.363 -150.455 -1289 152 113 32
-143.873 -150.548 -1290 166 126 45
-141.27 -150.526 -1290 179 138 58
-138.347 -150.154 -1287 193 150 70
-135.436 -149.782 -1284 193 149 68
-132.332 -149.178 -1279 190 142 60
-129.554 -148.924 -1277 179 133 56
-126.784 -148.671 -1275 172 127 52
-124.121 -148.534 -1274 165 124 50
-121.463 -148.398 -1273 168 127 51
-118.997 -148.496 -1274 176 134 56
-116.254 -148.244 -1272 169 127 50
-113.698 -148.226 -1272 159 116 40
-111.056 -148.092 -1271 153 110 40
-108.419 -147.958 -1270 153 110 38
-105.787 -147.825 -1269 154 111 38
-103.16 -147.692 -1268 155 117 42
-100.537 -147.559 -1267 159 121 46
-97.9967 -147.544 -1267 160 123 47
-95.3819 -147.412 -1266 162 123 49
-92.8452 -147.397 -1266 161 122 49
-90.3092 -147.383 -1266 155 118 41
-87.7739 -147.369 -1266 152 115 41
-85.1721 -147.239 -1265 142 105 40
-82.6402 -147.226 -1265 126 97 43
-80.1723 -147.33 -1266 116 90 41
-77.7011 -147.433 -1267 103 90 53
-75.4045 -147.887 -1271 97 82 45
-72.9779 -148.108 -1273 99 82 45
-70.6545 -148.562 -1277 100 83 47
-68.1023 -148.551 -1277 99 82 46
-65.7561 -149.006 -1281 99 85 46
-63.3944 -149.461 -1285 97 83 46
-61.0172 -149.917 -1289 93 80 45
-58.6699 -150.489 -1294 95 80 46
-56.3897 -151.294 -1301 97 82 50
-53.9168 -151.634 -1304 94 82 56
-51.3928 -151.858 -1306 95 84 55
-48.9361 -152.316 -1310 95 84 54
-46.393 -152.541 -1312 95 81 54
-43.8758 -152.882 -1315 95 82 55
-41.5037 -153.806 -1323 92 80 55
-39.3645 -155.776 -1340 91 80 51
-37.1029 -157.514 -1355 94 83 54
-34.7312 -159.019 -1368 95 84 51
-32.2377 -160.176 -1378 88 78 47
-29.5975 -160.753 -1383 74 65 37
-26.9183 -161.213 -1387 71 57 30
-24.2058 -161.558 -1390 69 56 30
-21.5434 -162.368 -1397 69 59 38
-18.9337 -163.876 -1410 77 67 49
-228.156 -165.591 -1388 153 124 52
-221.743 -162.93 -1366 158 126 44
-216.705 -161.225 -1352 171 139 57
-212.516 -160.117 -1343 166 132 51
-208.679 -159.249 -1336 158 123 42
-205.026 -158.5 -1330 148 112 35
-202.008 -158.229 -1328 138 102 26
-199 -157.958 -1326 137 99 25
-196.15 -157.807 -1325 136 99 24
-193.305 -157.657 -1324 136 99 23
-190.754 -157.745 -1325 141 104 26
-187.775 -157.476 -1323 145 108 29
-184.805 -157.208 -1321 153 116 36
-181.845 -156.94 -1319 163 127 41
-178.759 -156.554 -1316 172 136 48
-175.017 -155.574 -1308 180 144 54
-171.573 -154.833 -1302 185 149 61
-168.284 -154.211 -1297 182 145 60
-165.273 -153.827 -1294 172 134 52
-162.401 -153.563 -1292 156 118 37
-159.538 -153.299 -1290 148 111 32
-156.806 -153.155 -1289 144 106 28
-154.199 -153.13 -1289 142 103 24
-151.711 -153.224 -1290 144 106 25
-148.874 -152.963 -1288 156 117 36
-146.5 -153.176 -1290 170 129 47
-144.007 -153.272 -1291 185 142 59
-141.183 -153.011 -1289 190 147 63
-138.369 -152.752 -1287 195 150 69
-135.458 -152.374 -1284 193 147 66
-132.457 -151.878 -1280 187 138 58
-129.676 -151.619 -1278 174 128 53
-126.904 -151.362 -1276 170 125 51
-124.043 -150.985 -1273 162 123 50
-121.483 -150.966 -1273 164 125 50
-118.829 -150.828 -1272 170 129 52
-116.089 -150.572 -1270 165 122 48
-113.627 -150.672 -1271 159 116 42
-110.986 -150.536 -1270 153 110 40
-108.351 -150.4 -1269 153 110 39
-105.804 -150.382 -1269 154 111 39
-103.176 -150.247 -1268 156 117 42
-100.474 -149.994 -1266 160 122 47
-97.9349 -149.978 -1266 161 124 48
-95.3216 -149.844 -1265 164 126 52
-92.7865 -149.829 -1265 164 125 52
-90.1808 -149.696 -1264 151 116 38
-87.6491 -149.682 -1264 141 105 30
-85.1182 -149.668 -1264 138 100 35
-82.5879 -149.655 -1264 124 95 42
-80.185 -149.879 -1266 116 90 43
-77.7747 -150.103 -1268 96 85 48
-75.4758 -150.564 -1272 95 81 45
-72.9894 -150.67 -1273 99 82 46
-70.6103 -151.014 -1276 100 83 47
-68.0598 -151.003 -1276 99 82 46
-65.7151 -151.466 -1280 98 84 45
-63.355 -151.929 -1284 96 83 46
-61.1215 -152.747 -1291 93 80 45
-58.8152 -153.447 -1297 94 79 45
-56.4854 -154.148 -1303 96 82 50
-54.008 -154.494 -1306 94 82 57
-51.4797 -154.722 -1308 97 85 57
-48.9438 -154.951 -1310 97 86 56
-46.4358 -155.298 -1313 96 82 55
-43.9495 -155.764 -1317 95 82 55
-41.6044 -156.822 -1326 92 80 54
-39.3707 -158.471 -1340 94 82 54
-37.2732 -160.948 -1361 96 84 56
-34.7875 -162.007 -1370 91 80 48
-32.1959 -162.711 -1376 83 73 44
-29.5165 -163.061 -1379 72 63 36
-26.8449 -163.529 -1383 71 59 33
-24.14 -163.88 -1386 68 55 31
-21.5004 -164.822 -1394 69 59 40
-18.8695 -166.12 -1405 78 68 52
-228.193 -168.409 -1388 155 127 56
-221.942 -165.825 -1367 159 128 47
-216.74 -163.969 -1352 169 137 55
-212.551 -162.842 -1343 161 128 47
-208.401 -161.717 -1334 153 118 39
-205.06 -161.198 -1330 143 108 33
-202.041 -160.922 -1328 137 102 26
-199.183 -160.767 -1327 135 98 21
-196.478 -160.735 -1327 135 98 21
-193.629 -160.582 -1326 135 98 22
-190.929 -160.55 -1326 140 103 25
-187.947 -160.277 -1324 147 110 32
-184.975 -160.004 -1322 157 120 40
-181.875 -159.611 -1319 170 134 47
-178.788 -159.219 -1316 180 144 55
-175.046 -158.222 -1308 183 147 56
-171.601 -157.467 -1302 186 149 61
-168.312 -156.835 -1297 180 143 58
-165.427 -156.566 -1295 163 126 44
-162.678 -156.418 -1294 147 110 29
-159.811 -156.15 -1292 145 108 30
-157.075 -156.003 -1291 146 108 29
-154.344 -155.857 -1290 147 108 29
-151.736 -155.832 -1290 151 113 31
-148.898 -155.566 -1288 164 125 43
-146.296 -155.541 -1288 180 139 57
-143.696 -155.518 -1288 195 151 68
-140.878 -155.253 -1286 197 151 68
-138.176 -155.11 -1285 193 148 67
-135.269 -154.725 -1282 188 143 62
-132.478 -154.462 -1280 180 133 54
-129.697 -154.199 -1278 170 126 53
-126.924 -153.937 -1276 167 124 53
-124.161 -153.675 -1274 160 122 50
-121.407 -153.414 -1272 164 125 53
-118.755 -153.274 -1271 163 123 50
-116.108 -153.134 -1270 158 116 44
-113.466 -152.995 -1269 156 114 43
-110.917 -152.977 -1269 153 110 42
-108.368 -152.959 -1269 152 109 39
-105.821 -152.941 -1269 153 110 38
-103.111 -152.683 -1267 158 120 45
-100.49 -152.546 -1266 163 126 50
-97.796 -152.289 -1264 166 129 53
-95.1863 -152.153 -1263 165 127 53
-92.7281 -152.258 -1264 164 125 52
-90.124 -152.123 -1263 151 116 38
-87.6632 -152.229 -1264 142 107 33
-85.1319 -152.215 -1264 135 99 36
-82.7319 -152.442 -1266 119 93 42
-80.2612 -152.549 -1267 110 87 42
-77.91 -152.897 -1270 96 85 46
-75.6066 -153.367 -1274 95 82 44
-73.1732 -153.595 -1276 99 82 46
-70.7324 -153.824 -1278 100 83 47
-68.1774 -153.813 -1278 99 83 46
-65.8284 -154.284 -1282 99 85 46
-63.3652 -154.514 -1284 97 83 46
-61.1787 -155.466 -1292 94 81 46
-58.8247 -156.058 -1297 97 82 49
-56.5378 -156.891 -1304 95 80 49
-54.0166 -157.123 -1306 94 82 57
-51.5273 -157.475 -1309 96 84 57
-49.0264 -157.828 -1312 94 83 55
-46.514 -158.181 -1315 96 82 55
-44.0566 -158.775 -1320 95 81 54
-41.768 -160.091 -1331 91 78 50
-39.5533 -161.889 -1346 92 80 53
-37.1969 -163.326 -1358 93 81 54
-34.7676 -164.643 -1369 85 74 43
-32.1543 -165.239 -1374 77 67 38
-29.4784 -165.595 -1377 71 61 35
-26.8297 -166.192 -1382 70 58 34
-24.1438 -166.668 -1386 67 56 32
-21.5193 -167.747 -1395 68 58 39
-19.0068 -170.149 -1415 75 65 51
-228.395 -171.352 -1389 153 125 57
-222.303 -168.847 -1369 162 131 52
-216.936 -166.837 -1353 167 135 53
-212.587 -165.568 -1343 157 125 44
-208.279 -164.301 -1333 148 115 36
-204.94 -163.773 -1329 139 104 30
-201.923 -163.492 -1327 134 99 24
-199.216 -163.459 -1327 132 95 17
-196.362 -163.303 -1326 134 97 20
-193.515 -163.147 -1325 136 99 23
-190.817 -163.115 -1325 139 102 25
-187.978 -162.96 -1324 148 111 33
-185.006 -162.683 -1322 162 125 44
-181.905 -162.283 -1319 173 137 49
-178.546 -161.638 -1314 182 146 56
-174.941 -160.747 -1307 183 147 55
-171.497 -159.981 -1301 181 145 56
-168.21 -159.337 -1296 169 132 47
-165.455 -159.187 -1295 155 118 37
-162.705 -159.036 -1294 147 110 30
-159.961 -158.887 -1293 142 105 27
-157.222 -158.737 -1292 146 108 29
-154.369 -158.466 -1290 155 116 37
-151.761 -158.44 -1290 165 127 44
-148.807 -158.047 -1287 175 136 53
-146.207 -158.022 -1287 186 145 63
-143.608 -157.998 -1287 197 153 71
-140.791 -157.729 -1285 197 150 68
-137.984 -157.461 -1283 189 144 63
-135.186 -157.192 -1281 179 135 56
-132.5 -157.048 -1280 170 126 51
-129.718 -156.78 -1278 166 124 53
-127.045 -156.637 -1277 167 125 56
-124.181 -156.248 -1274 161 123 53
-121.427 -155.982 -1272 161 122 53
-118.774 -155.839 -1271 161 121 52
-116.127 -155.698 -1270 155 115 46
-113.485 -155.556 -1269 152 111 42
-110.935 -155.537 -1269 153 111 43
-108.472 -155.642 -1270 155 113 43
-105.838 -155.501 -1269 158 115 43
-103.128 -155.239 -1267 163 126 50
-100.586 -155.222 -1267 168 131 55
-97.8894 -154.961 -1265 168 131 54
-95.2773 -154.822 -1264 165 127 52
-92.7433 -154.807 -1264 162 123 50
-90.1387 -154.669 -1263 154 118 41
-87.5389 -154.532 -1262 143 107 35
-85.0785 -154.64 -1263 132 98 39
-82.6801 -154.871 -1265 116 92 43
-80.2111 -154.98 -1266 105 85 41
-77.9227 -155.457 -1270 95 84 44
-75.619 -155.934 -1274 95 82 43
-73.1278 -156.044 -1275 97 81 45
-70.7439 -156.399 -1278 99 83 47
-68.1885 -156.388 -1278 100 84 48
-65.8392 -156.866 -1282 98 84 45
-63.5237 -157.467 -1287 97 83 46
-61.3308 -158.436 -1295 96 83 48
-58.925 -158.915 -1299 96 82 49
-56.5904 -159.64 -1305 95 81 50
-54.0255 -159.753 -1306 92 80 55
-51.5751 -160.233 -1310 95 83 57
-49.0718 -160.592 -1313 95 83 56
-46.5923 -161.073 -1317 95 81 55
-44.1306 -161.677 -1322 95 81 53
-41.8689 -163.138 -1334 94 80 51
-39.5304 -164.477 -1345 92 79 52
-37.2852 -166.427 -1361 89 77 50
-34.7987 -167.521 -1370 83 71 43
-32.183 -168.127 -1375 77 65 39
-29.4833 -168.367 -1377 73 61 36
-26.8147 -168.851 -1381 70 58 35
-24.1304 -169.336 -1385 70 59 36
-21.5228 -170.555 -1395 73 63 44
-18.889 -171.896 -1406 78 68 55
-228.599 -174.301 -1390 152 124 58
-222.341 -171.629 -1369 162 131 53
-216.973 -169.586 -1353 166 134 52
-212.464 -168.171 -1342 156 124 44
-208.314 -167.007 -1333 146 114 36
-204.974 -166.471 -1329 138 103 28
-201.957 -166.186 -1327 132 96 21
-199.4 -166.277 -1328 133 96 18
-196.544 -166.118 -1327 134 97 21
-193.839 -166.085 -1327 136 99 23
-190.993 -165.927 -1326 141 104 28
-188.152 -165.77 -1325 152 115 38
-185.177 -165.488 -1323 167 130 48
-181.935 -164.956 -1319 177 141 53
-178.712 -164.425 -1315 183 147 57
-175.104 -163.52 -1308 184 148 56
-171.658 -162.741 -1302 176 140 50
-168.498 -162.212 -1298 160 123 38
-165.738 -162.059 -1297 149 112 32
-162.984 -161.906 -1296 148 111 31
-160.359 -161.879 -1296 147 109 30
-157.492 -161.602 -1294 151 112 33
-154.634 -161.326 -1292 166 125 45
-151.786 -161.05 -1290 179 139 57
-148.947 -160.775 -1288 187 146 64
-146.118 -160.501 -1286 191 150 68
-143.409 -160.351 -1285 194 150 70
-140.705 -160.203 -1284 190 144 65
-137.899 -159.93 -1282 181 138 58
-135.103 -159.657 -1280 172 129 51
-132.522 -159.635 -1280 164 122 51
-129.74 -159.363 -1278 163 122 53
-127.066 -159.217 -1277 163 122 54
-124.3 -158.946 -1275 155 117 49
-121.638 -158.801 -1274 154 115 48
-118.981 -158.656 -1273 155 115 48
-116.238 -158.387 -1271 148 109 42
-113.593 -158.243 -1270 147 108 41
-110.954 -158.099 -1269 150 110 42
-108.319 -157.956 -1268 156 115 45
-105.772 -157.938 -1268 162 120 48
-103.064 -157.672 -1266 165 127 52
-100.444 -157.53 -1265 167 130 54
-97.9057 -157.513 -1265 165 128 50
-95.2178 -157.248 -1263 160 122 47
-92.7588 -157.357 -1264 156 117 44
-90.2251 -157.341 -1264 153 114 41
-87.6922 -157.326 -1264 141 104 36
-85.2274 -157.436 -1265 127 96 41
-82.7592 -157.547 -1266 112 90 43
-80.2878 -157.657 -1267 102 84 40
-77.997 -158.142 -1271 96 83 42
-75.5722 -158.378 -1273 93 80 40
-73.14 -158.614 -1275 93 78 42
-70.7004 -158.851 -1277 97 82 46
-68.3067 -159.213 -1280 100 85 49
-65.9015 -159.574 -1283 98 84 45
-63.5342 -160.061 -1287 97 83 46
-61.2936 -160.921 -1294 97 82 48
-58.9801 -161.657 -1300 97 82 50
-56.6432 -162.394 -1306 95 80 50
-54.1172 -162.633 -1308 90 78 53
-51.7018 -163.246 -1313 93 81 55
-49.1547 -163.486 -1315 96 84 57
-46.7062 -164.099 -1320 96 82 57
-44.2714 -164.838 -1326 95 81 55
-42.0015 -166.322 -1338 94 80 51
-39.5663 -167.31 -1346 92 80 54
-37.2366 -168.919 -1359 89 77 51
-34.7537 -170.032 -1368 82 70 43
