ply
format ascii 1.0
comment Created by Open3D
element vertex 1430
property double x
property double y
property double z
property uchar red
property uchar green
property uchar blue
end_header
-230.88 -200.722 -2036 47 42 51
-227.111 -200.988 -2039 41 40 48
-223.44 -201.352 -2043 37 36 44
-219.648 -201.618 -2046 34 33 40
-215.952 -201.983 -2050 34 33 40
-212.55 -202.644 -2057 37 36 43
-209.325 -203.503 -2066 41 40 48
-205.768 -204.066 -2072 45 43 52
-202.48 -204.925 -2081 49 45 57
-199.157 -205.785 -2090 49 45 58
-195.147 -205.956 -2092 49 45 58
-191.404 -206.422 -2097 47 46 56
-187.911 -207.184 -2105 49 47 57
-184.562 -208.144 -2115 50 47 55
-358.305 -212.8 -2104 40 38 46
-348.275 -209.313 -2070 41 39 47
-341.378 -207.648 -2054 37 37 45
-335.699 -206.692 -2045 33 33 43
-331.194 -206.444 -2043 30 30 39
-326.541 -206.096 -2040 32 31 39
-321.902 -205.748 -2037 30 30 39
-317.59 -205.604 -2036 29 28 37
-313.285 -205.459 -2035 30 28 36
-308.986 -205.316 -2034 33 31 39
-304.544 -205.072 -2032 35 32 40
-300.409 -205.031 -2032 33 31 37
-296.276 -204.99 -2032 33 33 38
-291.858 -204.748 -2030 34 35 40
-287.167 -204.305 -2026 33 34 39
-282.774 -204.064 -2024 34 34 39
-278.529 -203.925 -2023 35 37 44
-274.291 -203.787 -2022 36 37 44
-270.058 -203.649 -2021 34 33 41
-265.833 -203.512 -2020 31 30 38
-262.002 -203.677 -2022 33 31 39
-257.655 -203.44 -2020 36 33 41
-253.945 -203.707 -2023 37 33 40
-249.979 -203.774 -2024 39 34 42
-246.254 -204.042 -2027 39 36 44
-242.28 -204.11 -2028 38 35 43
-238.421 -204.278 -2030 42 39 47
-234.44 -204.347 -2031 47 44 52
-230.571 -204.516 -2033 48 45 53
-226.807 -204.787 -2036 46 43 50
-223.361 -205.36 -2042 43 39 46
-219.571 -205.631 -2045 38 35 40
-215.981 -206.104 -2050 36 34 39
-212.475 -206.679 -2056 38 35 41
-209.151 -207.454 -2064 39 37 43
-205.795 -208.23 -2072 40 36 45
-202.312 -208.906 -2079 44 38 50
-198.898 -209.682 -2087 47 42 53
-195.267 -210.258 -2093 49 44 55
-191.521 -210.735 -2098 49 46 54
-187.936 -211.412 -2105 50 48 55
-184.325 -212.09 -2112 51 48 55
-348.659 -213.707 -2072 39 38 45
-341.758 -212.009 -2056 35 34 41
-336.238 -211.136 -2048 31 31 43
-331.565 -210.78 -2045 31 30 40
-327.066 -210.528 -2043 32 30 39
-322.262 -210.071 -2039 34 32 41
-317.634 -209.717 -2036 35 32 41
-313.02 -209.364 -2033 35 32 40
-308.877 -209.32 -2033 35 32 40
-304.286 -208.968 -2030 36 33 41
-300.45 -209.132 -2032 35 33 38
-296.317 -209.091 -2032 36 34 40
-291.754 -208.741 -2029 35 34 39
-287.065 -208.289 -2025 34 33 39
-282.673 -208.044 -2023 35 34 39
-278.43 -207.902 -2022 35 37 43
-274.193 -207.761 -2021 35 36 44
-270.229 -207.826 -2022 34 34 42
-265.738 -207.48 -2019 31 30 39
-262.556 -208.162 -2026 32 31 40
-257.818 -207.613 -2021 36 33 41
-254.357 -208.091 -2026 37 33 41
-250.137 -207.953 -2025 40 35 43
-246.409 -208.227 -2028 42 39 47
-242.552 -208.398 -2030 42 39 47
-238.688 -208.57 -2032 43 40 47
-234.703 -208.64 -2033 47 44 51
-230.83 -208.813 -2035 47 44 52
-227.284 -209.294 -2040 48 45 50
-223.392 -209.468 -2042 47 44 50
-219.708 -209.847 -2046 44 41 47
-216.115 -210.33 -2051 42 39 45
-212.608 -210.916 -2057 43 40 46
-208.977 -211.399 -2062 42 39 45
-205.625 -212.19 -2070 41 36 44
-202.34 -213.085 -2079 42 33 45
-198.735 -213.672 -2085 41 33 43
-195.013 -214.157 -2090 42 35 44
-191.274 -214.643 -2095 44 39 48
-187.873 -215.539 -2104 49 45 51
-184.35 -216.332 -2112 50 46 51
-181.905 -218.458 -2133 46 43 50
-349.719 -218.531 -2078 39 38 45
-342.139 -216.379 -2058 35 33 41
-336.45 -215.384 -2049 32 29 38
-331.936 -215.126 -2047 33 30 38
-327.753 -215.079 -2047 34 30 38
-322.94 -214.613 -2043 36 32 40
-317.991 -214.042 -2038 37 32 40
-313.526 -213.787 -2036 37 33 39
-308.92 -213.427 -2033 35 33 40
-304.779 -213.384 -2033 35 34 42
-300.788 -213.446 -2034 35 34 41
-296.942 -213.613 -2036 35 33 41
-292.227 -213.152 -2032 36 33 41
-287.53 -212.691 -2028 36 34 41
-282.992 -212.336 -2025 35 33 40
-278.744 -212.191 -2024 33 36 44
-274.095 -211.732 -2020 35 37 46
-270.668 -212.218 -2025 36 37 46
-266.828 -212.389 -2027 35 36 45
-262.723 -212.352 -2027 36 36 46
-258.619 -212.315 -2027 37 36 45
-254.895 -212.593 -2030 40 36 46
-250.543 -212.347 -2028 46 39 49
-246.687 -212.521 -2030 47 43 52
-242.705 -212.591 -2031 46 42 51
-238.957 -212.871 -2034 45 40 49
-234.967 -212.943 -2035 48 45 54
-231.316 -213.328 -2039 49 46 55
-227.65 -213.714 -2043 47 44 52
-223.751 -213.891 -2045 50 47 54
-220.168 -214.383 -2050 47 44 52
-216.462 -214.77 -2054 46 43 50
-212.948 -215.367 -2060 47 44 51
-209.208 -215.756 -2064 46 43 51
-205.852 -216.563 -2072 46 42 50
-202.368 -217.265 -2079 45 37 47
-198.286 -217.342 -2080 41 35 44
-194.947 -218.254 -2089 39 33 42
-191.3 -218.854 -2095 39 34 43
-187.988 -219.872 -2105 43 39 47
-184.637 -220.89 -2115 45 42 49
-182.101 -222.953 -2135 48 45 52
-350.274 -223.06 -2081 34 33 40
-342.853 -220.973 -2062 36 35 42
-337.319 -220.067 -2054 33 32 40
-332.308 -219.482 -2049 33 31 38
-328.12 -219.434 -2049 32 28 36
-323.145 -218.852 -2044 31 28 35
-318.192 -218.269 -2039 31 29 36
-313.879 -218.117 -2038 33 31 37
-309.421 -217.857 -2036 32 32 38
-305.123 -217.706 -2035 33 34 41
-301.275 -217.876 -2037 35 35 43
-297.422 -218.046 -2039 34 33 41
-292.7 -217.576 -2035 35 32 40
-288.139 -217.213 -2032 36 32 41
-283.592 -216.851 -2029 36 31 40
-279.335 -216.703 -2028 32 34 42
-275.22 -216.663 -2028 34 35 44
-270.974 -216.517 -2027 37 37 45
-266.866 -216.478 -2027 37 37 45
-263.538 -217.08 -2033 37 37 45
-259.167 -216.829 -2031 39 36 45
-255.559 -217.219 -2035 45 37 47
-251.073 -216.862 -2032 52 40 50
-247.451 -217.253 -2036 52 42 52
-243.457 -217.324 -2037 49 40 50
-239.931 -217.823 -2042 48 41 50
-236.155 -218.108 -2045 49 43 53
-232.937 -218.928 -2053 46 41 51
-228.685 -218.788 -2052 45 42 50
-225.096 -219.288 -2057 50 47 55
-221.274 -219.576 -2060 51 48 56
-217.441 -219.864 -2063 51 48 56
-213.805 -220.366 -2068 52 49 57
-210.151 -220.868 -2073 52 49 57
-206.577 -221.477 -2079 52 48 56
-202.689 -221.768 -2082 49 44 52
-198.886 -222.165 -2086 46 42 50
-195.255 -222.775 -2092 43 40 48
-191.419 -223.173 -2096 43 39 47
-188.283 -224.424 -2108 45 42 50
-185.275 -225.887 -2122 47 45 53
-183.15 -228.522 -2147 49 46 54
-344.4 -226.132 -2071 34 33 40
-338.355 -224.88 -2060 32 34 41
-332.681 -223.848 -2051 33 33 40
-328.489 -223.799 -2051 33 32 39
-323.667 -223.314 -2047 32 33 39
-318.707 -222.721 -2042 31 32 38
-314.387 -222.565 -2041 31 33 39
-310.074 -222.41 -2040 32 35 41
-305.767 -222.256 -2039 33 36 42
-301.763 -222.32 -2040 33 35 41
-298.049 -222.602 -2043 32 32 39
-293.75 -222.45 -2042 36 32 40
-289.316 -222.189 -2040 40 34 42
-284.752 -221.82 -2037 41 34 42
-280.616 -221.778 -2037 34 35 41
-276.075 -221.41 -2034 37 36 43
-272.217 -221.588 -2036 39 37 43
-268.353 -221.765 -2038 41 39 45
-264.095 -221.617 -2037 43 40 46
-260.226 -221.796 -2039 47 41 49
-256.099 -221.758 -2039 55 43 52
-252.345 -222.047 -2042 63 45 54
-248.095 -221.902 -2041 60 45 53
-243.971 -221.865 -2041 57 42 51
-240.906 -222.808 -2050 56 44 53
-237.229 -223.208 -2054 55 46 55
-233.992 -224.042 -2062 53 45 54
-229.945 -224.117 -2063 55 50 59
-226.005 -224.301 -2065 57 52 61
-221.951 -224.377 -2066 54 51 58
-218.211 -224.779 -2070 51 48 56
-214.974 -225.724 -2079 52 49 57
-211.094 -226.019 -2082 52 49 57
-207.203 -226.313 -2085 52 49 56
-203.4 -226.718 -2089 49 46 52
-199.392 -226.905 -2091 52 49 56
-195.47 -227.202 -2094 53 50 57
-191.812 -227.824 -2100 53 50 58
-188.846 -229.315 -2114 50 48 57
-186.611 -231.782 -2137 49 48 58
-345.782 -231.218 -2079 37 36 43
-338.569 -229.164 -2061 34 34 45
-333.218 -228.335 -2054 34 33 43
-328.698 -228.063 -2052 37 35 43
-323.873 -227.569 -2048 36 34 42
-319.223 -227.187 -2045 34 33 41
-315.05 -227.139 -2045 33 33 42
-310.88 -227.092 -2045 36 34 38
-306.413 -226.823 -2043 40 37 36
-302.104 -226.667 -2042 45 40 40
-298.385 -226.955 -2045 48 43 43
-294.082 -226.799 -2044 56 46 47
-290.068 -226.866 -2045 61 49 50
-285.773 -226.712 -2044 64 50 52
-281.76 -226.78 -2045 68 55 54
-277.609 -226.738 -2045 73 59 58
-273.194 -226.475 -2043 78 62 61
-269.184 -226.545 -2044 81 65 63
-265.042 -226.505 -2044 83 67 65
-261.158 -226.687 -2046 88 67 68
-256.891 -226.537 -2045 91 69 69
-253.124 -226.832 -2048 92 69 68
-249.348 -227.126 -2051 90 68 67
-245.322 -227.2 -2052 89 68 67
-241.999 -227.938 -2059 85 67 66
-238.651 -228.677 -2066 80 65 65
-235.162 -229.306 -2072 74 61 61
-231.205 -229.492 -2074 69 58 60
-227.68 -230.122 -2080 68 58 60
-223.595 -230.199 -2081 65 56 58
-219.93 -230.719 -2086 62 54 55
-215.936 -230.907 -2088 59 51 52
-212.342 -231.539 -2094 58 50 52
-208.129 -231.507 -2094 60 53 53
-204.112 -231.697 -2096 57 52 49
-200.089 -231.888 -2098 54 49 47
-196.059 -232.08 -2100 52 47 46
-192.571 -232.935 -2108 54 48 52
-189.589 -234.453 -2122 52 47 53
-339.771 -234.133 -2068 38 33 41
-333.755 -232.836 -2057 37 32 38
-329.389 -232.672 -2056 41 35 38
-324.397 -232.056 -2051 47 40 43
-320.365 -232.119 -2052 54 47 50
-316.023 -231.957 -2051 61 56 60
-311.688 -231.796 -2050 72 65 62
-307.359 -231.636 -2049 86 77 68
-302.742 -231.25 -2046 106 94 85
-298.723 -231.316 -2047 115 102 94
-294.558 -231.271 -2047 122 104 97
-290.254 -231.113 -2046 127 107 101
-286.096 -231.069 -2046 131 110 104
-282.354 -231.364 -2049 136 111 101
-278.195 -231.322 -2049 139 114 104
-273.77 -231.054 -2047 143 116 106
-269.751 -231.125 -2048 143 117 106
-265.99 -231.422 -2051 142 116 105
-261.836 -231.382 -2051 143 113 105
-257.558 -231.23 -2050 142 112 103
-253.781 -231.529 -2053 140 111 101
-250.115 -231.942 -2057 137 110 99
-246.077 -232.017 -2058 134 108 97
-242.741 -232.768 -2065 128 105 94
-239.033 -233.183 -2069 124 104 93
-235.879 -234.161 -2078 117 99 89
-231.909 -234.35 -2080 107 90 84
-228.59 -235.216 -2088 104 87 81
-224.704 -235.52 -2091 101 84 78
-220.49 -235.486 -2091 98 84 77
-216.693 -235.903 -2095 93 80 73
-212.881 -236.321 -2099 89 75 69
-208.756 -236.401 -2100 87 75 67
-204.629 -236.483 -2101 83 74 63
-200.786 -236.902 -2105 82 73 64
-197.209 -237.659 -2112 76 67 59
-193.697 -238.53 -2120 76 66 64
-190.958 -240.413 -2137 73 64 66
-341.303 -239.363 -2077 66 54 52
-334.781 -237.697 -2063 85 72 68
-330.562 -237.645 -2063 110 95 89
-325.713 -237.132 -2059 128 112 105
-321.664 -237.197 -2060 137 122 114
-316.842 -236.687 -2056 146 131 123
-312.192 -236.292 -2053 156 140 127
-307.407 -235.783 -2049 165 148 130
-302.493 -235.16 -2044 176 155 137
-298.185 -234.999 -2043 176 155 137
-294.316 -235.182 -2045 177 152 135
-290.441 -235.367 -2047 177 150 134
-286.14 -235.207 -2046 175 147 131
-282.397 -235.507 -2049 178 147 126
-278.373 -235.579 -2050 174 143 122
-274.08 -235.421 -2049 174 141 121
-269.925 -235.378 -2049 173 142 119
-265.901 -235.451 -2050 172 141 118
-261.876 -235.525 -2051 172 139 119
-257.849 -235.6 -2052 171 138 118
-254.19 -236.019 -2056 169 135 115
-250.397 -236.324 -2059 169 137 115
-246.593 -236.63 -2062 167 135 113
-242.896 -237.051 -2066 160 131 109
-239.07 -237.358 -2069 155 130 107
-235.461 -237.895 -2074 148 126 102
-231.833 -238.432 -2079 145 121 105
-228.516 -239.313 -2087 141 116 101
-224.738 -239.737 -2091 136 112 97
-220.735 -239.932 -2093 135 112 97
-217.243 -240.7 -2100 133 112 96
-213.421 -241.125 -2104 131 110 94
-209.285 -241.207 -2105 131 111 94
-205.44 -241.633 -2109 130 114 94
-201.58 -242.06 -2113 132 117 99
-197.893 -242.717 -2119 129 114 97
-194.64 -243.946 -2130 131 115 106
-192.238 -246.321 -2151 133 117 113
-342.343 -244.279 -2083 173 157 146
-335.32 -242.232 -2066 189 171 159
-330.934 -242.062 -2065 194 174 160
-325.922 -241.423 -2060 196 176 160
-321.246 -241.02 -2057 199 179 163
-316.892 -240.852 -2056 199 178 163
-311.937 -240.216 -2051 197 177 159
-307.005 -239.582 -2046 195 175 154
-302.836 -239.533 -2046 199 175 153
-297.94 -238.9 -2041 202 177 156
-293.93 -238.97 -2042 203 176 154
-290.06 -239.158 -2044 201 172 151
-285.905 -239.112 -2044 197 167 147
-282.028 -239.301 -2046 199 166 142
-278.145 -239.491 -2048 197 163 140
-273.989 -239.447 -2048 194 159 136
-269.967 -239.521 -2049 190 157 131
-266.073 -239.712 -2051 189 156 129
-262.045 -239.787 -2052 194 158 132
-257.889 -239.746 -2052 197 161 136
-254.354 -240.29 -2057 196 161 137
-250.801 -240.834 -2062 194 158 132
-246.631 -240.794 -2062 190 155 129
-242.934 -241.223 -2066 188 154 127
-239.223 -241.652 -2070 182 151 123
-235.27 -241.848 -2072 176 146 117
-231.646 -242.394 -2077 172 144 120
-228.113 -243.058 -2083 166 138 115
-224.451 -243.606 -2088 161 133 111
-220.559 -243.921 -2091 160 132 109
-216.967 -244.586 -2097 161 133 110
-213.15 -245.019 -2101 161 133 110
-209.02 -245.102 -2102 160 135 109
-205.082 -245.419 -2105 159 138 109
-201.421 -246.087 -2111 165 143 119
-197.644 -246.638 -2116 170 148 125
-194.305 -247.773 -2126 175 152 135
-192.089 -250.423 -2149 172 151 139
-340.919 -247.433 -2074 191 172 156
-335.212 -246.304 -2065 193 174 157
-330.507 -245.893 -2062 196 175 157
-325.975 -245.601 -2060 199 176 157
-321.922 -245.668 -2061 201 178 158
-316.481 -244.662 -2053 203 181 162
-311.987 -244.373 -2051 206 184 164
-306.904 -243.608 -2045 207 185 163
-302.293 -243.202 -2042 212 186 163
-297.696 -242.796 -2039 214 188 164
-293.833 -242.986 -2041 214 186 161
-289.823 -243.058 -2042 216 186 162
-285.531 -242.893 -2041 216 185 163
-281.66 -243.085 -2043 216 183 159
-277.918 -243.397 -2046 214 180 156
-273.632 -243.233 -2045 212 177 153
-269.615 -243.309 -2046 209 174 149
-265.856 -243.622 -2049 208 172 146
-261.831 -243.699 -2050 209 173 145
-257.93 -243.894 -2052 210 175 148
-254.518 -244.566 -2058 209 174 148
-250.841 -245.001 -2062 207 171 144
-246.79 -245.08 -2063 204 168 141
-242.738 -245.159 -2064 205 167 139
-239.261 -245.833 -2070 204 166 137
-235.081 -245.795 -2070 201 165 135
-231.572 -246.47 -2076 192 163 134
-228.259 -247.382 -2084 190 160 132
-224.486 -247.821 -2088 184 155 128
-220.488 -248.023 -2090 181 150 122
-216.898 -248.7 -2096 181 149 121
-212.981 -249.021 -2099 186 155 124
-208.854 -249.106 -2100 191 162 130
-205.018 -249.547 -2104 193 168 134
-201.167 -249.989 -2108 200 173 143
-197.488 -250.668 -2114 206 178 150
-194.336 -252.06 -2126 205 177 149
-192.03 -254.637 -2148 194 170 147
-189.988 -257.689 -2174 185 165 149
-341.303 -251.886 -2076 182 169 156
-335.754 -250.86 -2068 190 175 161
-330.561 -250.077 -2062 194 177 162
-325.553 -249.417 -2057 199 179 162
-320.725 -248.879 -2053 202 182 164
-315.607 -248.099 -2047 202 183 165
-310.821 -247.563 -2043 205 184 166
-306.204 -247.148 -2040 209 186 168
-302.046 -247.098 -2040 214 190 171
-297.306 -246.564 -2036 216 191 172
-293.881 -247.121 -2041 217 190 169
-289.444 -246.831 -2039 218 189 169
-285.158 -246.663 -2038 220 190 171
-281.154 -246.738 -2039 221 190 168
-277.284 -246.934 -2041 220 189 167
-273.007 -246.768 -2040 220 189 167
-269 -246.844 -2041 220 189 167
-265.12 -247.042 -2043 220 188 166
-261.363 -247.362 -2046 220 189 165
-257.721 -247.803 -2050 220 189 166
-254.436 -248.607 -2057 220 190 167
-250.76 -249.049 -2061 219 187 164
-246.95 -249.371 -2064 216 184 161
-242.895 -249.451 -2065 215 182 159
-238.953 -249.654 -2067 214 182 158
-235.005 -249.857 -2069 213 182 157
-231.274 -250.301 -2073 214 182 157
-227.858 -251.109 -2080 212 181 157
-224.093 -251.555 -2084 210 180 158
-220.102 -251.76 -2086 208 177 155
-216.519 -252.449 -2092 207 177 153
-212.711 -252.896 -2096 212 180 156
-208.49 -252.862 -2096 213 183 158
-204.856 -253.552 -2102 210 184 157
-201.199 -254.243 -2108 210 182 159
-197.333 -254.693 -2112 210 181 159
-193.91 -255.746 -2121 205 176 152
-191.525 -258.246 -2142 199 172 152
-189.319 -261.109 -2166 193 168 153
-339.88 -254.993 -2067 132 124 115
-334.186 -253.826 -2058 157 148 138
-329.654 -253.524 -2056 182 171 158
-325.291 -253.346 -2055 196 181 167
-319.841 -252.306 -2047 200 185 170
-315.043 -251.759 -2043 201 185 170
-310.264 -251.214 -2039 203 185 168
-305.955 -251.039 -2038 207 185 167
-301.948 -251.112 -2039 210 187 167
-297.355 -250.692 -2036 213 189 169
-293.498 -250.889 -2038 216 191 170
-289.35 -250.84 -2038 217 190 168
-285.065 -250.669 -2037 219 191 168
-280.787 -250.499 -2036 221 192 171
-276.922 -250.698 -2038 222 193 172
-272.784 -250.653 -2038 221 192 171
-268.649 -250.607 -2038 219 190 169
-264.775 -250.809 -2040 220 191 170
-261.15 -251.257 -2044 223 194 173
-257.638 -251.828 -2049 225 196 174
-254.107 -252.4 -2054 225 196 174
-250.314 -252.727 -2057 226 196 174
-246.512 -253.054 -2060 224 194 172
-242.464 -253.136 -2061 222 192 170
-238.761 -253.587 -2065 219 190 168
-234.476 -253.425 -2064 216 188 165
-230.866 -254 -2069 218 186 162
-227.348 -254.699 -2075 214 183 160
-223.484 -255.03 -2078 211 182 162
-219.822 -255.606 -2083 211 181 160
-216.348 -256.429 -2090 211 181 160
-212.847 -257.252 -2097 214 182 161
-208.624 -257.218 -2097 213 183 160
-205.182 -258.165 -2105 211 184 159
-201.232 -258.499 -2108 212 183 162
-197.085 -258.588 -2109 212 183 162
-193.485 -259.414 -2116 208 178 155
-191.109 -261.957 -2137 200 171 152
-188.564 -264.377 -2157 180 153 138
-186.281 -267.287 -2181 130 117 113
-339.773 -259.068 -2066 59 56 50
-334.242 -258.008 -2058 60 56 50
-329.068 -257.199 -2052 70 65 57
-324.237 -256.642 -2048 92 84 75
-319.27 -255.961 -2043 116 107 97
-314.171 -255.155 -2037 141 130 120
-310.012 -255.102 -2037 164 150 135
-305.406 -254.674 -2034 178 159 138
-301.554 -254.873 -2036 189 166 145
-297.259 -254.697 -2035 197 174 152
-293.115 -254.647 -2035 205 182 158
-288.831 -254.472 -2034 209 183 159
-284.693 -254.423 -2034 215 187 162
-280.42 -254.25 -2033 220 192 171
-276.425 -254.328 -2034 223 195 173
-272.295 -254.282 -2034 224 196 175
-268.166 -254.236 -2034 225 197 175
-264.43 -254.566 -2037 226 199 177
-260.811 -255.021 -2041 227 200 178
-257.052 -255.352 -2044 227 198 176
-253.655 -256.058 -2050 229 199 176
-250.235 -256.765 -2056 229 199 176
-246.194 -256.848 -2057 227 197 174
-242.387 -257.181 -2060 225 195 172
-238.339 -257.265 -2061 222 193 169
-234.288 -257.35 -2062 218 190 167
-230.793 -258.06 -2068 218 186 161
-227.057 -258.52 -2072 216 185 160
-222.984 -258.607 -2073 213 185 161
-219.331 -259.193 -2078 212 184 160
-215.348 -259.406 -2080 210 182 158
-211.766 -260.118 -2086 212 182 159
-208.261 -260.956 -2093 213 183 159
-204.924 -262.043 -2102 213 185 157
-200.884 -262.258 -2104 214 184 159
-196.651 -262.225 -2104 213 183 159
-192.694 -262.566 -2107 211 182 155
-189.799 -264.403 -2122 200 172 149
-187.284 -266.863 -2142 165 139 120
-338.845 -262.505 -2060 55 55 51
-333.488 -261.555 -2053 55 55 51
-328.162 -260.605 -2046 55 54 49
-323.66 -260.294 -2044 55 52 46
-319.012 -259.857 -2041 55 50 44
-314.07 -259.165 -2036 57 51 45
-309.456 -258.73 -2033 58 52 45
-305.158 -258.549 -2032 63 56 47
-301.014 -258.497 -2032 74 65 57
-296.726 -258.318 -2031 84 74 66
-292.733 -258.394 -2032 101 89 80
-288.738 -258.471 -2033 118 104 95
-284.322 -258.167 -2031 137 121 112
-280.192 -258.119 -2031 161 140 126
-276.201 -258.198 -2032 178 157 142
-272.074 -258.151 -2032 198 176 160
-268.08 -258.231 -2033 210 188 170
-264.345 -258.566 -2036 216 193 175
-260.472 -258.775 -2038 220 196 176
-256.719 -259.112 -2041 222 197 177
-253.079 -259.575 -2045 225 198 177
-249.182 -259.786 -2047 226 198 177
-245.518 -260.251 -2051 224 197 175
-241.487 -260.336 -2052 224 196 172
-237.454 -260.422 -2053 222 194 170
-233.646 -260.762 -2056 220 192 168
-229.828 -261.102 -2059 219 190 170
-226 -261.444 -2062 215 187 167
-221.946 -261.532 -2063 210 185 164
-217.996 -261.748 -2065 209 183 162
-214.764 -262.852 -2074 209 182 161
-211.396 -263.829 -2082 211 182 161
-207.599 -264.3 -2086 213 184 162
-204.179 -265.278 -2094 211 183 157
-200.441 -265.877 -2099 210 181 156
-196.217 -265.843 -2099 209 179 155
-192.269 -266.189 -2102 207 179 153
-188.848 -267.296 -2111 199 172 149
-186.266 -269.67 -2130 163 138 120
-338.904 -266.696 -2060 51 54 52
-332.734 -265.083 -2048 51 54 52
-327.738 -264.378 -2043 51 52 51
-322.766 -263.674 -2038 52 52 50
-318.13 -263.229 -2035 55 55 53
-313.354 -262.656 -2031 56 56 53
-308.901 -262.343 -2029 53 54 52
-304.61 -262.16 -2028 51 54 53
-300.622 -262.236 -2029 53 55 53
-296.193 -261.925 -2027 55 55 54
-292.208 -262.002 -2028 60 58 57
-288.22 -262.081 -2029 61 57 56
-284.092 -262.031 -2029 61 55 55
-279.965 -261.981 -2029 65 53 45
-275.841 -261.932 -2029 76 64 55
-271.987 -262.143 -2031 96 82 73
-267.731 -261.966 -2030 115 100 88
-263.482 -261.791 -2029 129 113 101
-259.75 -262.132 -2032 148 131 116
-256.008 -262.474 -2035 167 148 132
-252.38 -262.945 -2039 187 165 149
-248.616 -263.289 -2042 202 181 164
-244.722 -263.503 -2044 213 191 174
-240.823 -263.719 -2046 218 195 175
-236.917 -263.935 -2048 220 196 176
-233.005 -264.151 -2050 219 195 174
-228.863 -264.111 -2050 216 191 173
-225.271 -264.716 -2055 214 189 171
-221.554 -265.192 -2059 209 186 168
-217.4 -265.154 -2059 209 185 166
-213.662 -265.631 -2063 209 184 164
-210.417 -266.753 -2072 208 181 161
-206.739 -267.36 -2077 209 181 161
-203.531 -268.612 -2087 211 182 159
-199.807 -269.22 -2092 211 182 158
-195.503 -269.057 -2091 211 181 158
-191.387 -269.152 -2092 207 179 155
-188.075 -270.406 -2102 197 172 150
-185.161 -272.303 -2117 161 137 121
-338.141 -270.231 -2055 49 54 54
-332.143 -268.725 -2044 49 55 55
-326.994 -267.877 -2038 49 55 55
-322.823 -267.819 -2038 51 55 55
-318.03 -267.236 -2034 51 55 56
-313.255 -266.654 -2030 51 55 54
-308.956 -266.467 -2029 49 55 54
-304.514 -266.15 -2027 45 56 55
-300.082 -265.833 -2025 48 56 56
-295.953 -265.78 -2025 49 56 56
-291.683 -265.597 -2024 52 57 58
-287.987 -265.939 -2027 55 58 59
-283.722 -265.757 -2026 55 56 56
-279.6 -265.706 -2026 55 54 53
-275.346 -265.526 -2025 56 54 54
-271.767 -266.002 -2029 60 55 55
-267.383 -265.692 -2027 62 57 54
-263.528 -265.907 -2029 61 55 51
-259.412 -265.86 -2029 66 59 52
-255.55 -266.076 -2031 75 66 60
-251.558 -266.162 -2032 81 69 63
-247.929 -266.642 -2036 88 77 68
-243.568 -266.336 -2034 96 86 77
-239.923 -266.817 -2038 118 107 96
-236.264 -267.298 -2042 144 132 120
-232.25 -267.388 -2043 162 149 136
-228.457 -267.74 -2046 185 165 147
-224.872 -268.354 -2051 196 175 156
-220.732 -268.314 -2051 201 180 161
-217.227 -269.06 -2057 203 181 161
-213.492 -269.545 -2061 204 181 160
-209.844 -270.162 -2066 204 181 160
-206.178 -270.779 -2071 207 183 162
-202.982 -272.05 -2081 210 183 161
-199.078 -272.407 -2084 206 179 156
-195.444 -273.156 -2090 204 178 154
-191.695 -273.775 -2095 198 173 149
-188.197 -274.787 -2103 188 164 142
-338.861 -274.951 -2059 48 55 57
-333.015 -273.554 -2049 48 55 57
-327.534 -272.426 -2041 47 54 56
-322.564 -271.7 -2036 49 55 56
-317.93 -271.242 -2033 50 55 56
-313.157 -270.651 -2029 52 55 53
-308.555 -270.194 -2026 51 55 54
-304.268 -270.005 -2025 49 57 57
-300.136 -269.95 -2025 50 55 56
-295.714 -269.63 -2023 50 55 56
-291.447 -269.444 -2022 53 55 57
-287.613 -269.657 -2024 54 55 56
-283.352 -269.473 -2023 54 54 54
-279.651 -269.821 -2026 51 52 52
-275.667 -269.904 -2027 51 52 52
-271.414 -269.722 -2026 51 52 52
-267.035 -269.407 -2024 54 54 53
-263.056 -269.492 -2025 57 56 54
-258.819 -269.312 -2024 56 54 52
-254.967 -269.532 -2026 58 55 53
-251.108 -269.752 -2028 63 58 56
-247.365 -270.106 -2031 62 58 54
-243.492 -270.328 -2033 63 59 55
-239.613 -270.55 -2035 61 59 53
-235.728 -270.773 -2037 60 56 51
-231.95 -271.13 -2040 57 53 48
-228.274 -271.62 -2044 58 51 39
-224.693 -272.244 -2049 62 55 43
-220.771 -272.469 -2051 70 62 50
-217.371 -273.36 -2058 86 77 63
-213.323 -273.454 -2059 102 91 77
-209.679 -274.08 -2064 112 102 89
-205.817 -274.441 -2067 115 105 92
-202.335 -275.333 -2074 123 110 97
-198.54 -275.828 -2078 128 115 99
-195.198 -276.988 -2087 131 118 101
-191.364 -277.484 -2091 126 115 97
-187.873 -278.511 -2099 120 109 92
-184.176 -279.274 -2105 107 97 82
-180.885 -280.701 -2116 80 77 71
-345.48 -281.108 -2073 54 58 57
-338.1 -278.468 -2054 49 56 59
-332.426 -277.186 -2045 48 55 58
-327.434 -276.448 -2040 47 54 57
-322.307 -275.575 -2034 48 54 56
-317.676 -275.109 -2031 49 54 55
-312.906 -274.51 -2027 52 54 51
-308.611 -274.317 -2026 52 55 53
-304.324 -274.125 -2025 52 56 57
-299.894 -273.799 -2023 53 56 57
-295.768 -273.744 -2023 52 54 56
-291.5 -273.555 -2022 53 54 56
-287.523 -273.637 -2023 54 53 54
-283.124 -273.314 -2021 55 52 53
-279.287 -273.533 -2023 52 53 53
-275.037 -273.347 -2022 54 55 55
-271.463 -273.837 -2026 54 55 54
-267.083 -273.518 -2024 53 55 54
-263.234 -273.739 -2026 55 56 55
-258.866 -273.421 -2024 55 56 55
-255.013 -273.644 -2026 54 55 54
-250.906 -273.598 -2026 56 56 55
-247.044 -273.822 -2028 56 57 56
-242.937 -273.778 -2028 55 57 57
-239.185 -274.138 -2031 53 55 55
-235.423 -274.5 -2034 52 54 54
-231.879 -275.132 -2039 51 53 53
-227.98 -275.36 -2041 51 56 50
-224.295 -275.858 -2045 53 58 51
-220.596 -276.357 -2049 54 58 53
-216.882 -276.856 -2053 54 56 51
-212.947 -277.087 -2055 54 56 49
-209.513 -277.992 -2062 52 55 51
-205.655 -278.358 -2065 52 56 52
-201.884 -278.86 -2069 57 60 58
-198.385 -279.767 -2076 58 60 54
-195.14 -281.079 -2086 57 60 52
-191.49 -281.852 -2092 58 61 53
-187.996 -282.895 -2100 56 59 52
-184.297 -283.67 -2106 55 59 52
-180.576 -284.445 -2112 58 59 55
-344.877 -284.785 -2069 54 60 59
-338.492 -282.931 -2056 50 56 58
-332.65 -281.492 -2046 49 55 57
-327.655 -280.743 -2041 49 55 57
-322.525 -279.857 -2035 50 55 55
-317.735 -279.247 -2031 49 54 53
-312.964 -278.638 -2027 52 52 49
-308.668 -278.442 -2026 51 53 50
-304.23 -278.11 -2024 49 56 55
-300.098 -278.054 -2024 53 57 56
-295.969 -277.998 -2024 51 55 54
-291.698 -277.806 -2023 51 55 54
-287.292 -277.477 -2021 53 54 53
-283.176 -277.424 -2021 54 54 52
-279.201 -277.509 -2022 54 53 50
-275.088 -277.457 -2022 55 54 51
-271.245 -277.681 -2024 56 55 52
-267.133 -277.63 -2024 57 56 53
-263.022 -277.581 -2024 58 57 54
-258.914 -277.533 -2024 57 55 52
-254.934 -277.622 -2025 55 54 51
-250.952 -277.712 -2026 56 54 53
-247.212 -278.077 -2029 56 56 54
-243.102 -278.031 -2029 55 56 54
-239.583 -278.671 -2034 54 57 54
-235.467 -278.627 -2034 55 57 55
-231.921 -279.269 -2039 53 53 52
-228.022 -279.5 -2041 53 54 51
-224.337 -280.006 -2045 55 55 52
-220.744 -280.649 -2050 57 56 54
-217.028 -281.156 -2054 57 56 52
-213.09 -281.39 -2056 55 53 49
-209.349 -281.898 -2060 51 51 48
-205.493 -282.27 -2063 53 52 51
-201.921 -283.054 -2069 55 54 58
-198.23 -283.7 -2074 56 56 54
-194.988 -285.032 -2084 53 54 48
-191.342 -285.817 -2090 53 55 50
-188.12 -287.286 -2101 52 53 49
-184.244 -287.798 -2105 52 54 50
-180.694 -288.858 -2113 51 54 51
-353.411 -292.565 -2094 54 61 62
-344.609 -288.727 -2067 53 61 59
-338.062 -286.707 -2053 53 57 56
-332.55 -285.526 -2045 51 55 54
-327.717 -284.904 -2041 50 55 54
-322.586 -284.005 -2035 51 55 54
-318.108 -283.665 -2033 50 54 53
-313.331 -283.047 -2029 52 52 48
-309.031 -282.849 -2028 51 53 50
-304.588 -282.512 -2026 50 56 54
-300.451 -282.454 -2026 52 56 54
-295.879 -281.98 -2023 53 56 54
-291.753 -281.924 -2023 54 55 54
-287.346 -281.59 -2021 55 55 53
-282.949 -281.258 -2019 56 54 51
-278.839 -281.205 -2019 54 55 54
-275.004 -281.431 -2021 54 55 54
-270.894 -281.379 -2021 53 53 52
-267.051 -281.607 -2023 56 55 52
-263.332 -281.974 -2026 57 56 53
-259.091 -281.785 -2025 56 54 50
-254.982 -281.737 -2025 57 55 52
-251.123 -281.968 -2027 57 56 55
-247.136 -282.059 -2028 58 58 56
-243.027 -282.013 -2028 58 59 57
-239.156 -282.246 -2030 59 62 58
-235.279 -282.479 -2032 59 61 57
-231.851 -283.269 -2038 59 59 56
-227.953 -283.504 -2040 57 57 56
-224.269 -284.017 -2044 58 58 57
-220.355 -284.253 -2046 59 58 57
-216.751 -284.907 -2051 60 58 56
-212.819 -285.144 -2053 58 55 52
-209.286 -285.938 -2059 54 52 50
-205.532 -286.454 -2063 55 54 53
-202.056 -287.388 -2070 55 52 60
-198.554 -288.322 -2077 53 53 54
-195.025 -289.256 -2084 51 53 49
-191.652 -290.469 -2093 51 53 52
-187.887 -291.128 -2098 51 53 51
-184.541 -292.48 -2108 51 53 52
-180.728 -293.14 -2113 51 55 52
-177.815 -295.325 -2129 52 56 54
-352.803 -296.274 -2090 55 62 63
-344.508 -292.805 -2066 52 60 58
-337.962 -290.755 -2052 56 57 53
-333.102 -290.124 -2048 56 56 52
-327.78 -289.069 -2041 52 55 52
-322.648 -288.156 -2035 50 54 52
-317.855 -287.528 -2031 48 52 51
-313.237 -287.043 -2028 52 52 49
-309.09 -286.983 -2028 53 54 50
-304.646 -286.641 -2026 51 55 52
-300.657 -286.724 -2027 52 55 52
-296.081 -286.242 -2024 53 56 53
-291.953 -286.186 -2024 58 56 54
-287.401 -285.706 -2021 58 55 53
-283.003 -285.368 -2019 58 55 52
-278.754 -285.173 -2018 53 56 58
-274.92 -285.402 -2020 53 57 60
-270.946 -285.491 -2021 53 55 57
-267.102 -285.722 -2023 54 55 55
-263.252 -285.954 -2025 54 54 52
-259.14 -285.904 -2025 55 53 49
-255.156 -285.996 -2026 58 57 54
-251.295 -286.229 -2028 56 56 56
-247.427 -286.464 -2030 57 59 57
-243.313 -286.417 -2030 59 62 59
-239.555 -286.794 -2033 59 62 57
-235.555 -286.889 -2034 59 62 56
-231.554 -286.986 -2035 64 65 58
-227.773 -287.365 -2038 60 61 62
-224.092 -287.886 -2042 61 63 65
-220.396 -288.407 -2046 61 63 63
-216.687 -288.929 -2050 63 64 63
-212.963 -289.452 -2054 60 60 58
-209.122 -289.834 -2057 55 55 53
-205.371 -290.358 -2061 55 55 54
-201.411 -290.601 -2063 54 53 61
-198.017 -291.69 -2071 52 54 55
-194.874 -293.202 -2082 51 55 52
-190.864 -293.447 -2084 47 53 54
-187.116 -294.115 -2089 48 54 55
-183.963 -295.769 -2101 50 57 59
-180.163 -296.438 -2106 51 55 54
-177.264 -298.656 -2122 50 54 51
-350.677 -298.675 -2077 54 59 60
-343.575 -296.163 -2060 53 59 56
-337.204 -294.228 -2047 54 58 56
-332.516 -293.731 -2044 53 57 54
-327.04 -292.517 -2036 51 54 53
-322.234 -291.879 -2032 50 54 53
-317.604 -291.385 -2029 49 53 52
-313.298 -291.18 -2028 54 55 54
-308.998 -290.976 -2027 52 54 53
-304.554 -290.629 -2025 51 55 55
-300.419 -290.569 -2025 52 56 54
-295.992 -290.224 -2023 53 57 55
-291.865 -290.167 -2023 54 55 54
-287.172 -289.537 -2019 54 55 54
-283.058 -289.481 -2019 57 57 56
-278.808 -289.283 -2018 56 57 58
-274.973 -289.516 -2020 55 56 57
-270.998 -289.606 -2021 55 56 56
-267.021 -289.697 -2022 55 55 54
-263.043 -289.788 -2023 55 55 53
-258.934 -289.738 -2023 57 56 53
-254.954 -289.831 -2024 55 55 52
-251.095 -290.068 -2026 54 56 54
-247.231 -290.306 -2028 57 59 57
-243.001 -290.115 -2027 59 62 59
-239.248 -290.498 -2030 61 64 60
-235.485 -290.881 -2033 60 63 59
-231.712 -291.265 -2036 61 63 59
-227.705 -291.363 -2037 60 63 60
-224.025 -291.892 -2041 61 63 61
-220.223 -292.278 -2044 62 64 63
-216.517 -292.807 -2048 62 64 62
-212.9 -293.48 -2053 59 60 58
-209.366 -294.297 -2059 55 56 54
-205.511 -294.686 -2062 54 56 54
-201.84 -295.361 -2067 53 54 57
-197.769 -295.465 -2068 53 55 55
-194.256 -296.427 -2075 51 53 52
-190.534 -297.104 -2080 47 50 50
-186.883 -297.925 -2086 51 55 55
-183.56 -299.317 -2096 51 56 56
-179.941 -300.282 -2103 52 55 54
-177.048 -302.531 -2119 54 57 55
-349.564 -301.901 -2070 57 61 60
-343.142 -299.936 -2057 56 60 57
-337.106 -298.265 -2046 54 58 57
-332.419 -297.761 -2043 52 56 55
-326.944 -296.53 -2035 50 54 53
-322.457 -296.174 -2033 49 53 52
-317.51 -295.382 -2028 49 53 52
-313.359 -295.319 -2028 54 56 56
-308.906 -294.967 -2026 51 53 54
-304.614 -294.76 -2025 52 56 57
-300.477 -294.7 -2025 52 56 56
-295.904 -294.205 -2022 52 56 55
-291.634 -294.001 -2021 53 55 55
-287.371 -293.798 -2020 54 56 56
-283.254 -293.742 -2020 56 58 58
-279.001 -293.541 -2019 56 57 57
-275.027 -293.632 -2020 55 56 56
-270.649 -293.287 -2018 55 55 55
-266.677 -293.379 -2019 55 55 54
-262.964 -293.763 -2022 55 55 53
-258.729 -293.566 -2021 55 55 53
-254.878 -293.806 -2023 54 55 53
-250.896 -293.901 -2024 53 56 53
-247.157 -294.288 -2027 57 60 57
-243.048 -294.239 -2027 61 64 61
-239.295 -294.627 -2030 63 66 63
-235.415 -294.871 -2032 63 66 63
-231.416 -294.97 -2033 64 67 64
-227.638 -295.36 -2036 62 65 60
-223.959 -295.896 -2040 60 63 58
-220.374 -296.577 -2045 60 63 60
-216.982 -297.549 -2052 60 63 60
-213.149 -297.942 -2055 59 62 59
-209.712 -298.916 -2062 54 57 54
-205.65 -299.02 -2063 54 56 54
-201.782 -299.415 -2066 54 56 56
-197.712 -299.52 -2067 53 55 55
-194.107 -300.351 -2073 52 54 54
-190.388 -301.038 -2078 50 52 52
-186.92 -302.16 -2086 53 55 55
-183.508 -303.427 -2095 56 58 58
-179.976 -304.55 -2103 57 59 59
-177.166 -306.977 -2120 58 60 61
-348.79 -305.396 -2065 57 61 60
-342.71 -303.7 -2054 56 60 59
-336.844 -302.153 -2044 53 57 56
-331.672 -301.199 -2038 50 54 53
-326.849 -300.541 -2034 50 54 53
-322.204 -300.033 -2031 49 53 52
-317.417 -299.377 -2027 50 54 53
-313.422 -299.462 -2028 54 56 56
-308.663 -298.809 -2024 52 54 54
-304.374 -298.599 -2023 52 56 57
-300.389 -298.686 -2024 53 57 57
-295.817 -298.184 -2021 52 56 55
-291.548 -297.977 -2020 54 56 56
-287.285 -297.771 -2019 55 57 57
-283.17 -297.714 -2019 55 57 57
-278.78 -297.363 -2017 55 57 57
-274.946 -297.602 -2019 55 57 57
-270.434 -297.106 -2016 56 56 56
-266.466 -297.199 -2017 55 55 54
-262.756 -297.588 -2020 55 55 53
-258.652 -297.536 -2020 55 55 53
-254.802 -297.779 -2022 56 56 54
-250.946 -298.023 -2024 56 59 56
-246.962 -298.121 -2025 59 62 59
-242.856 -298.072 -2025 62 65 62
-239.106 -298.465 -2028 62 65 62
-235.114 -298.565 -2029 64 67 64
-231.348 -298.96 -2032 65 68 65
-227.571 -299.355 -2035 63 66 61
-223.894 -299.899 -2039 62 65 60
-219.987 -300.148 -2041 60 63 60
-216.919 -301.575 -2051 60 63 60
-213.087 -301.974 -2054 59 62 59
-209.855 -303.255 -2063 56 59 56
-205.492 -302.919 -2061 55 58 56
-201.724 -303.467 -2065 54 56 56
-197.655 -303.574 -2066 55 57 57
-194.145 -304.563 -2073 55 57 57
-190.243 -304.966 -2076 56 58 58
-186.957 -306.397 -2086 56 58 58
-183.106 -306.948 -2090 58 60 60
-179.755 -308.38 -2100 57 59 60
-176.866 -310.694 -2116 58 60 61
-356.016 -312.244 -2082 57 61 59
-347.678 -308.574 -2058 57 61 60
-341.945 -307.154 -2049 57 61 60
-336.418 -305.885 -2041 55 59 58
-331.251 -304.918 -2035 50 54 53
-326.433 -304.252 -2031 50 54 53
-321.793 -303.736 -2028 51 55 54
-317.168 -303.221 -2025 51 55 54
-313.022 -303.157 -2025 53 56 55
-308.42 -302.645 -2022 51 54 54
-304.285 -302.582 -2022 52 56 57
-299.856 -302.221 -2020 52 56 56
-295.584 -302.011 -2019 52 56 55
-291.607 -302.101 -2020 55 57 57
-287.344 -301.892 -2019 56 58 58
-283.087 -301.685 -2018 56 58 58
-278.698 -301.329 -2016 56 58 58
-274.592 -301.273 -2016 56 58 58
-270.221 -300.919 -2014 56 56 56
-266.388 -301.163 -2016 56 56 55
-262.549 -301.408 -2018 56 56 54
-258.704 -301.654 -2020 56 56 54
-254.728 -301.751 -2021 57 58 55
-250.997 -302.147 -2024 58 61 58
-246.768 -301.948 -2023 60 63 60
-242.545 -301.749 -2022 60 63 60
-238.919 -302.297 -2026 60 63 60
-235.277 -302.846 -2030 63 66 63
-231.508 -303.246 -2033 63 66 63
-227.617 -303.498 -2035 65 68 63
-224.049 -304.198 -2040 67 70 65
-220.57 -305.047 -2046 64 67 64
-216.751 -305.451 -2049 61 64 61
-213.13 -306.152 -2054 61 64 61
-209.49 -306.855 -2059 58 61 58
-205.633 -307.26 -2062 58 61 59
-201.862 -307.815 -2066 55 57 57
-197.79 -307.924 -2067 57 59 59
-194.278 -308.927 -2074 59 61 61
-190.464 -309.484 -2078 58 60 60
-186.815 -310.339 -2084 58 60 60
-182.968 -310.898 -2088 58 60 60
-179.705 -312.499 -2099 56 58 59
-176.902 -314.993 -2116 55 57 59
-354.892 -315.446 -2075 58 62 59
-347.243 -312.333 -2055 58 62 60
-341.348 -310.742 -2045 57 61 60
-335.827 -309.456 -2037 55 59 58
-330.993 -308.779 -2033 49 53 52
-326.339 -308.256 -2030 51 55 54
-321.859 -307.885 -2028 52 56 55
-317.233 -307.363 -2025 53 57 56
-312.467 -306.691 -2021 52 56 55
-308.179 -306.475 -2020 53 57 56
-303.896 -306.26 -2019 53 57 57
-299.769 -306.198 -2019 52 56 56
-295.351 -305.833 -2017 52 56 55
-291.089 -305.621 -2016 55 57 57
-287.118 -305.713 -2017 56 58 58
-282.864 -305.503 -2016 57 59 59
-278.479 -305.142 -2014 57 59 59
-274.512 -305.236 -2015 56 58 58
-270.276 -305.029 -2014 57 58 58
-266.31 -305.125 -2015 57 57 56
-262.733 -305.676 -2019 57 57 55
-258.757 -305.774 -2020 57 57 55
-254.779 -305.872 -2021 57 58 56
-250.924 -306.123 -2023 59 62 59
-246.696 -305.921 -2022 59 62 59
-242.475 -305.719 -2021 59 62 59
-239.085 -306.577 -2027 61 64 61
-235.209 -306.831 -2029 63 66 63
-231.441 -307.237 -2032 63 66 63
-227.663 -307.643 -2035 65 68 63
-223.875 -308.05 -2038 69 72 67
-220.183 -308.609 -2042 67 70 67
-216.69 -309.471 -2048 63 66 63
-212.758 -309.729 -2050 63 66 63
-209.329 -310.744 -2057 62 65 62
-205.475 -311.154 -2060 62 65 62
-201.903 -312.019 -2066 58 60 60
-197.639 -311.827 -2065 57 59 59
-194.224 -312.995 -2073 59 61 61
-190.411 -313.559 -2077 59 61 61
-187.032 -314.879 -2086 59 61 61
-182.917 -314.993 -2087 57 59 59
-180.084 -317.37 -2103 55 58 59
-177.356 -320.05 -2121 54 58 59
-363.567 -323.627 -2100 66 72 75
-353.768 -318.621 -2068 60 64 62
-346.47 -315.774 -2050 57 61 60
-340.585 -314.162 -2040 59 63 62
-335.897 -313.629 -2037 56 60 59
-330.737 -312.635 -2031 51 55 54
-325.925 -311.951 -2027 52 56 55
-321.609 -311.729 -2026 52 56 55
-316.986 -311.2 -2023 54 58 57
-312.378 -310.673 -2020 53 57 56
-307.785 -310.147 -2017 53 57 56
-303.508 -309.929 -2016 52 56 55
-299.683 -310.173 -2018 53 57 56
-295.413 -309.957 -2017 53 57 56
-291.005 -309.588 -2015 54 56 56
-286.893 -309.528 -2015 56 58 58
-282.923 -309.622 -2016 57 59 59
-278.536 -309.256 -2014 57 59 57
-274.297 -309.045 -2013 57 60 57
-269.929 -308.681 -2011 58 60 60
-266.365 -309.239 -2015 58 60 59
-262.397 -309.337 -2016 58 60 57
-258.554 -309.59 -2018 57 59 57
-254.958 -310.15 -2022 56 58 56
-251.1 -310.404 -2024 59 62 59
-246.747 -310.045 -2022 60 63 60
-242.645 -309.994 -2022 59 62 59
-239.017 -310.557 -2026 61 64 61
-235.258 -310.968 -2029 64 67 64
-231.489 -311.379 -2032 65 68 65
-227.934 -312.097 -2037 65 68 65
-224.031 -312.357 -2039 69 72 68
-220.013 -312.464 -2040 68 71 68
-216.205 -312.878 -2043 65 68 65
-212.594 -313.599 -2048 63 66 63
-208.762 -314.015 -2051 62 65 62
-205.218 -314.89 -2057 63 66 63
-201.652 -315.766 -2063 60 62 62
-198.063 -316.643 -2069 57 59 59
-194.264 -317.215 -2073 59 61 61
-190.45 -317.787 -2077 58 60 60
-186.981 -318.971 -2085 57 59 59
-183.13 -319.545 -2089 56 58 58
-180.036 -321.496 -2102 54 58 57
-177.308 -324.212 -2120 57 61 60
-361.74 -326.218 -2089 69 75 77
-352.817 -321.926 -2062 55 59 58
-346.374 -319.822 -2049 56 60 59
-340.657 -318.345 -2040 53 57 56
-335.474 -317.336 -2034 52 56 55
-330.644 -316.641 -2030 52 56 55
-326.316 -316.415 -2029 53 57 56
-321.518 -315.723 -2025 53 57 56
-316.739 -315.031 -2021 52 56 55
-312.134 -314.497 -2018 53 57 56
-307.85 -314.275 -2017 53 57 56
-303.421 -313.899 -2015 52 56 55
-299.152 -313.679 -2014 53 57 56
-294.889 -313.46 -2013 54 58 57
-291.066 -313.709 -2015 56 58 58
-286.526 -313.181 -2012 57 59 59
-282.421 -313.121 -2012 57 59 58
-278.042 -312.75 -2010 58 61 58
-274.082 -312.848 -2011 58 61 58
-269.852 -312.634 -2010 58 60 60
-266.157 -313.044 -2013 60 62 61
-262.582 -313.61 -2017 58 61 58
-258.609 -313.711 -2018 56 59 56
-254.886 -314.123 -2021 56 59 56
-250.656 -313.914 -2020 57 60 57
-246.799 -314.172 -2022 59 62 59
-242.816 -314.276 -2023 58 62 59
-238.831 -314.38 -2024 64 67 64
-235.075 -314.796 -2027 66 69 66
-231.31 -315.213 -2030 64 67 64
-227.534 -315.631 -2033 66 69 66
-223.638 -315.893 -2035 67 70 67
-219.843 -316.312 -2038 69 72 69
-215.827 -316.422 -2039 67 70 67
-212.12 -316.997 -2043 63 66 63
-208.602 -317.884 -2049 63 66 63
-204.862 -318.461 -2053 65 68 65
-201.4 -319.504 -2060 63 65 65
-197.721 -320.238 -2065 61 63 63
-194.117 -321.127 -2071 61 63 63
-190.398 -321.861 -2076 59 61 61
-186.93 -323.062 -2084 57 59 59
-183.344 -324.108 -2091 56 58 58
-180.587 -326.705 -2108 55 58 58
-177.764 -329.302 -2125 57 61 60
-360.085 -328.925 -2079 66 72 73
-352.379 -325.684 -2059 60 64 63
-345.434 -323.078 -2043 58 62 61
-340.396 -322.213 -2038 54 58 57
-335.381 -321.35 -2033 49 53 52
-330.389 -320.488 -2028 47 51 50
-326.064 -320.259 -2027 48 52 51
-321.269 -319.558 -2023 49 53 52
-316.964 -319.331 -2022 49 53 52
-312.356 -318.789 -2019 51 55 54
-307.763 -318.249 -2016 54 58 57
-303.335 -317.867 -2014 53 57 56
-299.216 -317.803 -2014 55 59 58
-294.659 -317.266 -2011 57 61 60
-290.839 -317.518 -2013 59 61 61
-286.302 -316.983 -2010 60 63 62
-282.341 -317.08 -2011 60 63 60
-277.963 -316.704 -2009 57 60 57
-274.14 -316.96 -2011 56 59 56
-270.043 -316.902 -2011 57 59 59
-265.817 -316.687 -2010 58 60 59
-262.117 -317.103 -2013 57 60 57
-258.023 -317.047 -2013 56 59 56
-254.309 -317.465 -2016 56 59 56
-250.337 -317.568 -2017 59 62 59
-246.363 -317.673 -2018 60 64 61
-242.507 -317.935 -2020 60 64 61
-238.763 -318.356 -2023 64 67 64
-235.125 -318.935 -2027 65 68 65
-231.359 -319.356 -2030 64 67 64
-227.582 -319.779 -2033 63 66 63
-223.466 -319.731 -2033 68 71 68
-219.566 -319.998 -2035 73 76 73
-215.767 -320.424 -2038 70 73 70
-211.853 -320.692 -2040 70 73 70
-208.442 -321.748 -2047 71 74 71
-205.005 -322.804 -2054 67 70 67
-201.345 -323.547 -2059 67 69 69
-197.859 -324.604 -2066 64 66 66
-194.252 -325.505 -2072 61 63 63
-190.622 -326.406 -2078 59 61 61
-187.059 -327.466 -2085 58 60 60
-183.558 -328.683 -2093 58 60 60
-180.797 -331.313 -2110 55 59 58
-368.483 -336.962 -2102 77 83 85
-359.297 -332.395 -2074 62 68 68
-351.942 -329.432 -2056 61 66 66
-345.679 -327.434 -2044 58 62 62
-339.969 -325.917 -2035 56 60 59
-334.958 -325.043 -2030 55 60 59
-330.135 -324.329 -2026 51 56 55
-325.652 -323.938 -2024 50 54 53
-321.18 -323.547 -2022 49 53 52
-316.876 -323.317 -2021 49 53 52
-311.959 -322.449 -2016 48 52 51
-307.677 -322.221 -2015 49 53 52
-302.799 -321.355 -2010 50 54 53
-298.835 -321.449 -2011 50 54 53
-294.43 -321.065 -2009 52 56 55
-290.324 -321.002 -2009 53 56 55
-286.079 -320.779 -2008 55 58 56
-282.261 -321.037 -2010 54 57 54
-278.023 -320.816 -2009 53 56 53
-273.79 -320.596 -2008 54 57 54
-269.967 -320.857 -2010 56 58 58
-266.006 -320.958 -2011 55 58 56
-262.304 -321.379 -2014 55 58 55
-258.078 -321.163 -2013 56 59 56
-254.49 -321.746 -2017 58 61 58
-250.391 -321.691 -2017 57 60 57
-246.661 -322.116 -2020 61 64 61
-242.56 -322.063 -2020 63 67 64
-238.933 -322.648 -2024 65 68 65
-234.944 -322.756 -2025 63 66 63
-231.067 -323.024 -2027 62 65 62
-227.295 -323.453 -2030 64 67 64
-223.294 -323.564 -2031 68 71 68
-219.506 -323.994 -2034 71 74 71
-215.602 -324.265 -2036 71 74 71
-211.899 -324.856 -2040 71 74 71
-208.182 -325.447 -2044 70 72 71
-204.949 -326.836 -2053 68 70 69
-201.486 -327.906 -2060 66 68 68
-197.709 -328.5 -2064 65 67 67
-194.106 -329.412 -2070 62 64 64
-190.388 -330.166 -2075 59 61 61
-187.1 -331.717 -2085 57 59 59
-183.597 -332.949 -2093 56 58 58
-180.75 -335.455 -2109 55 59 59
-366.811 -339.661 -2092 73 79 79
-358.51 -335.847 -2069 58 64 63
-351.164 -332.847 -2051 58 62 62
-345.247 -331.147 -2041 60 64 64
-339.876 -329.935 -2034 57 60 59
-334.702 -328.887 -2028 56 61 60
-329.881 -328.165 -2024 52 58 57
-325.723 -328.093 -2024 50 54 53
-321.092 -327.535 -2021 49 53 52
-316.475 -326.978 -2018 50 54 53
-311.873 -326.423 -2015 51 55 54
-307.439 -326.03 -2013 51 55 54
-303.016 -325.639 -2011 50 54 52
-298.752 -325.411 -2010 52 56 54
-294.348 -325.021 -2008 52 56 55
-290.532 -325.28 -2010 50 54 53
-286.142 -324.893 -2008 49 53 51
-282.042 -324.831 -2008 48 51 48
-277.945 -324.769 -2008 48 51 48
-273.85 -324.708 -2008 48 51 48
-269.892 -324.81 -2009 49 51 51
-265.8 -324.751 -2009 50 53 51
-261.97 -325.016 -2011 51 54 51
-258.007 -325.121 -2012 53 56 53
-254.167 -325.388 -2014 56 59 56
-249.949 -325.171 -2013 56 59 56
-246.226 -325.601 -2016 56 60 57
-242.252 -325.709 -2017 56 60 57
-238.631 -326.302 -2021 59 62 59
-234.647 -326.411 -2022 63 66 63
-231.231 -327.329 -2028 65 68 65
-227.233 -327.44 -2029 67 70 67
-223.452 -327.874 -2032 66 69 66
-219.446 -327.987 -2033 69 72 69
-215.754 -328.585 -2037 70 73 70
-211.841 -328.861 -2039 69 72 69
-207.921 -329.137 -2041 65 67 66
-204.195 -329.737 -2045 66 68 68
-201.041 -331.305 -2055 67 69 69
-197.752 -332.712 -2064 66 68 68
-194.148 -333.637 -2070 63 65 65
-190.521 -334.561 -2076 58 60 60
-187.32 -336.293 -2087 56 58 58
-183.9 -337.702 -2096 56 58 58
-181.132 -340.401 -2113 56 59 60
-373.342 -346.022 -2104 83 87 86
-364.613 -341.828 -2079 74 79 77
-357.724 -339.281 -2064 59 65 62
-350.899 -336.736 -2049 56 60 59
-345.493 -335.507 -2042 62 66 65
-339.451 -333.623 -2031 60 62 62
-334.611 -332.891 -2027 55 59 59
-329.792 -332.16 -2023 51 57 56
-325.474 -331.922 -2022 52 56 55
-320.686 -331.193 -2018 51 55 54
-316.388 -330.957 -2017 51 55 54
-311.942 -330.559 -2015 50 54 53
-307.202 -329.834 -2011 47 51 50
-302.782 -329.437 -2009 52 56 53
-298.669 -329.37 -2009 53 57 55
-294.266 -328.976 -2007 52 56 55
-290.019 -328.747 -2006 51 55 54
-285.635 -328.355 -2004 51 55 54
-281.402 -328.128 -2003 52 55 52
-277.453 -328.229 -2004 52 55 52
-273.638 -328.495 -2006 52 55 52
-269.818 -328.762 -2008 53 55 55
-265.462 -328.375 -2006 54 56 55
-261.898 -328.971 -2010 53 57 54
-257.807 -328.913 -2010 55 58 55
-253.971 -329.183 -2012 57 60 57
-249.756 -328.964 -2011 60 63 60
-246.158 -329.563 -2015 60 63 60
-242.186 -329.672 -2016 56 60 57
-238.447 -330.109 -2019 57 60 57
-234.351 -330.057 -2019 58 61 58
-230.826 -330.822 -2024 57 60 57
-226.947 -331.098 -2026 56 59 56
-223.282 -331.702 -2030 56 59 56
-219.386 -331.98 -2032 58 61 58
-215.696 -332.585 -2036 54 57 54
-211.68 -332.701 -2037 58 61 58
-207.763 -332.981 -2039 59 61 60
-204.14 -333.752 -2044 59 61 61
-200.694 -334.85 -2051 66 68 68
-197.125 -335.785 -2057 64 66 66
-193.722 -337.047 -2065 60 62 62
-190.746 -339.127 -2078 55 57 57
-187.361 -340.554 -2087 52 54 54
-183.677 -341.491 -2093 52 54 54
-181.257 -344.877 -2114 54 58 57
-371.119 -348.191 -2091 84 88 87
-363.292 -344.777 -2071 74 79 77
-357.111 -342.864 -2060 62 69 65
-350.465 -340.454 -2046 61 65 63
-345.402 -339.543 -2041 59 63 61
-339.527 -337.801 -2031 58 60 60
-334.522 -336.893 -2026 51 56 55
-329.866 -336.319 -2023 48 54 53
-325.547 -336.078 -2022 47 53 52
-320.759 -335.34 -2018 47 52 51
-315.989 -334.603 -2014 49 53 52
-311.703 -334.366 -2013 50 54 53
-306.965 -333.632 -2009 50 54 53
-302.85 -333.563 -2009 50 55 52
-298.588 -333.328 -2008 52 57 55
-294.479 -333.261 -2008 55 59 58
-289.65 -332.365 -2003 57 61 60
-285.271 -331.969 -2001 58 61 60
-281.325 -332.07 -2002 56 59 56
-277.238 -332.007 -2002 55 58 55
-273.427 -332.277 -2004 56 59 56
-269.475 -332.381 -2005 57 61 58
-265.918 -332.984 -2009 56 59 57
-261.696 -332.759 -2008 55 59 56
-257.737 -332.866 -2009 57 60 57
-253.775 -332.974 -2010 58 61 58
-249.688 -332.917 -2010 58 61 58
-245.969 -333.358 -2013 61 65 62
-242.24 -333.8 -2016 63 67 64
-238.264 -333.911 -2017 67 70 67
-234.403 -334.189 -2019 67 70 67
-230.877 -334.964 -2024 65 69 66
-226.661 -334.747 -2023 67 70 67
-223.331 -335.855 -2030 69 72 69
-219.435 -336.136 -2032 69 72 69
-215.532 -336.418 -2034 59 62 59
-211.519 -336.535 -2035 63 66 63
-207.81 -337.15 -2039 65 67 67
-203.886 -337.434 -2041 61 63 63
-200.151 -338.05 -2045 61 63 63
-196.977 -339.658 -2055 59 61 61
-193.671 -341.102 -2064 56 58 58
-190.421 -342.711 -2074 54 56 56
-186.954 -343.991 -2082 57 59 59
-183.806 -345.932 -2094 61 63 63
-180.869 -348.369 -2109 60 64 63
-370.139 -351.489 -2085 82 86 85
-362.674 -348.37 -2067 65 70 68
-356.846 -346.77 -2058 55 62 58
-350.374 -344.499 -2045 57 62 59
-345.312 -343.576 -2040 57 61 59
-339.438 -341.814 -2030 57 60 59
-334.929 -341.399 -2028 53 57 56
-329.942 -340.481 -2023 50 56 55
-325.139 -339.733 -2019 49 55 54
-320.991 -339.659 -2019 49 54 53
-316.218 -338.912 -2015 50 54 53
-311.619 -338.336 -2012 51 55 53
-307.188 -337.929 -2010 52 56 54
-302.919 -337.69 -2009 51 58 54
-298.507 -337.285 -2007 53 58 55
-294.253 -337.049 -2006 54 58 57
-289.861 -336.647 -2004 55 59 57
-285.336 -336.077 -2001 56 59 57
-281.108 -335.844 -2000 56 59 56
-277.024 -335.78 -2000 55 58 55
-273.216 -336.053 -2002 56 59 56
-269.536 -336.494 -2005 56 59 56
-265.846 -336.937 -2008 55 58 55
-261.756 -336.876 -2008 55 59 56
-257.795 -336.985 -2009 57 60 57
-253.833 -337.094 -2010 59 62 59
-249.869 -337.204 -2011 61 64 61
-245.903 -337.315 -2012 61 65 62
-241.934 -337.427 -2013 62 66 63
-238.082 -337.708 -2015 64 67 64
-234.224 -337.989 -2017 63 66 63
-230.587 -338.606 -2021 64 67 64
-226.601 -338.722 -2022 67 69 67
-223.052 -339.508 -2027 68 70 67
-219.269 -339.96 -2030 71 74 71
-215.475 -340.413 -2033 62 65 62
-211.567 -340.699 -2035 67 70 67
-207.653 -340.986 -2037 74 76 75
-203.832 -341.442 -2040 72 74 74
-200.099 -342.065 -2044 71 73 73
-196.734 -343.359 -2052 69 71 71
