ply
format ascii 1.0
comment Created by Open3D
element vertex 1458
property double x
property double y
property double z
property uchar red
property uchar green
property uchar blue
end_header
-239.67 -454.597 -1978 55 62 58
-235.977 -455.211 -1981 54 61 57
-232.039 -455.367 -1982 50 57 53
-228.099 -455.524 -1983 48 56 52
-224.044 -455.453 -1983 48 56 52
-220.212 -455.842 -1985 50 58 54
-216.375 -456.233 -1987 52 59 55
-212.851 -457.313 -1992 52 59 55
-209.099 -457.936 -1995 51 59 57
-205.337 -458.559 -1998 52 59 57
-201.765 -459.642 -2003 53 59 58
-198.274 -460.956 -2009 52 59 57
-194.18 -460.895 -2009 51 59 57
-190.466 -461.752 -2013 51 57 56
-186.367 -461.693 -2013 51 57 56
-182.269 -461.635 -2013 52 58 57
-178.528 -462.495 -2017 51 57 56
-174.511 -462.669 -2018 53 59 58
-170.999 -464.22 -2025 53 59 60
-166.883 -464.167 -2025 55 61 62
-163.412 -465.949 -2033 56 60 61
-159.517 -466.586 -2036 54 60 61
-155.994 -468.37 -2044 53 58 59
-152.29 -469.696 -2050 56 60 61
-148.347 -470.336 -2053 55 58 58
-144.814 -472.352 -2062 50 52 53
-140.837 -472.995 -2065 51 53 55
-137.311 -475.241 -2075 55 59 60
-134.132 -478.863 -2091 67 71 72
-362.538 -489.05 -2098 50 56 57
-352.2 -480.778 -2063 50 58 58
-344.202 -475.539 -2041 54 61 61
-337.132 -471.469 -2024 54 60 59
-330.957 -468.567 -2012 54 61 59
-325.485 -466.599 -2004 50 58 56
-320.209 -464.866 -1997 50 58 56
-315.124 -463.367 -1991 51 58 56
-310.222 -462.104 -1986 50 56 55
-305.805 -461.539 -1984 51 57 56
-301.4 -460.977 -1982 53 59 58
-297.005 -460.416 -1980 53 61 59
-292.622 -459.857 -1978 54 60 59
-288.54 -459.764 -1978 56 62 61
-284.174 -459.208 -1976 55 61 60
-279.818 -458.653 -1974 56 61 60
-275.613 -458.332 -1973 55 59 58
-271.689 -458.477 -1974 53 57 54
-267.763 -458.623 -1975 53 57 54
-263.702 -458.538 -1975 52 56 54
-259.644 -458.454 -1975 51 53 54
-255.199 -457.676 -1972 60 62 64
-251.024 -457.363 -1971 57 63 62
-247.105 -457.516 -1972 55 61 59
-243.308 -457.902 -1974 54 61 57
-239.625 -458.521 -1977 55 62 58
-236.052 -459.373 -1981 54 61 57
-232.23 -459.762 -1983 50 57 53
-228.171 -459.689 -1983 49 56 52
-224.228 -459.849 -1984 52 59 55
-220.282 -460.01 -1985 52 60 57
-216.225 -459.941 -1985 52 60 57
-212.705 -461.031 -1990 52 58 56
-208.956 -461.659 -1993 52 58 57
-205.505 -462.983 -1999 52 58 57
-201.829 -463.844 -2003 51 57 56
-198.139 -464.707 -2007 49 57 55
-194.048 -464.645 -2007 52 60 58
-190.053 -464.816 -2008 53 59 59
-186.24 -465.45 -2011 52 58 57
-182.055 -465.16 -2010 52 58 58
-178.23 -465.798 -2013 51 57 57
-174.22 -465.973 -2014 52 58 58
-170.462 -466.844 -2018 52 58 59
-166.606 -467.485 -2021 55 59 60
-163.142 -469.283 -2029 56 60 61
-159.411 -470.388 -2034 55 60 61
-155.89 -472.188 -2042 54 59 60
-152.412 -474.221 -2051 56 60 61
-148.538 -475.098 -2055 55 57 57
-144.789 -476.438 -2061 52 54 55
-140.608 -476.393 -2061 52 54 56
-137.355 -479.585 -2075 56 58 60
-134.687 -485.089 -2099 61 64 66
-363.519 -494.663 -2103 48 54 55
-352.484 -485.374 -2064 47 55 55
-344.313 -479.853 -2041 54 62 61
-337.407 -475.981 -2025 54 60 59
-331.064 -472.818 -2012 53 60 58
-325.59 -470.831 -2004 50 58 56
-320.313 -469.082 -1997 49 57 55
-315.067 -467.335 -1990 48 55 54
-310.165 -466.06 -1985 47 53 52
-305.595 -465.257 -1982 50 56 55
-301.345 -464.924 -1981 53 59 58
-297.101 -464.592 -1980 53 61 59
-292.864 -464.262 -1979 55 62 61
-288.341 -463.465 -1976 56 62 61
-283.834 -462.669 -1973 56 62 61
-279.766 -462.578 -1973 56 61 60
-275.701 -462.488 -1973 56 60 59
-271.776 -462.635 -1974 58 62 59
-267.985 -463.016 -1976 58 62 59
-263.921 -462.931 -1976 59 63 60
-259.464 -462.144 -1973 58 61 61
-255.41 -462.061 -1973 60 62 64
-251.104 -461.511 -1971 56 62 61
-247.059 -461.431 -1971 54 61 59
-243.015 -461.352 -1971 54 61 57
-239.459 -462.211 -1975 53 60 56
-235.77 -462.837 -1978 54 61 57
-231.835 -462.995 -1979 51 58 54
-227.899 -463.156 -1980 49 56 52
-224.186 -463.785 -1983 52 59 55
-220.13 -463.713 -1983 50 58 56
-216.294 -464.111 -1985 49 57 55
-212.452 -464.51 -1987 51 57 56
-208.708 -465.144 -1990 53 59 58
-205.159 -466.246 -1995 54 60 59
-201.591 -467.349 -2000 52 58 57
-197.807 -467.986 -2003 50 57 57
-194.11 -468.858 -2007 53 61 60
-190.208 -469.264 -2009 55 61 62
-186.207 -469.437 -2010 54 60 60
-182.204 -469.612 -2011 51 57 58
-178.375 -470.254 -2014 50 56 57
-174.622 -471.132 -2018 51 57 58
-170.939 -472.244 -2023 50 56 57
-166.907 -472.423 -2024 52 57 58
-163.354 -474.004 -2031 55 59 60
-159.618 -475.12 -2036 55 59 60
-155.863 -476.236 -2041 54 58 59
-152.238 -477.82 -2048 54 58 59
-148.585 -479.405 -2055 54 56 58
-144.695 -480.291 -2059 54 56 58
-141.062 -482.112 -2067 53 55 57
-137.597 -484.633 -2078 55 57 59
-134.794 -489.72 -2100 56 58 60
-363.811 -499.351 -2104 46 53 54
-352.77 -489.979 -2065 45 53 53
-344.088 -483.696 -2039 58 66 66
-337.184 -479.79 -2023 53 59 58
-330.842 -476.598 -2010 51 58 57
-325.534 -474.831 -2003 49 57 55
-320.417 -473.303 -1997 47 55 53
-315.169 -471.54 -1990 46 54 52
-310.579 -470.728 -1987 47 55 53
-306.003 -469.916 -1984 48 56 54
-301.443 -469.107 -1981 50 58 56
-297.047 -468.536 -1979 50 58 56
-292.663 -467.966 -1977 54 62 60
-288.143 -467.161 -1974 55 63 61
-284.213 -467.305 -1975 57 63 62
-279.999 -466.976 -1974 58 64 63
-275.651 -466.413 -1972 58 63 62
-271.864 -466.797 -1974 59 63 60
-267.936 -466.945 -1975 62 66 63
-263.739 -466.623 -1974 63 67 64
-259.416 -466.065 -1972 60 63 63
-255.363 -465.981 -1972 58 60 62
-251.185 -465.663 -1971 57 61 60
-247.264 -465.818 -1972 57 62 60
-243.217 -465.739 -1972 55 60 58
-239.537 -466.369 -1975 53 58 56
-235.846 -467 -1978 55 60 58
-231.91 -467.16 -1979 52 58 56
-227.972 -467.322 -1980 50 56 55
-224.145 -467.721 -1982 52 58 56
-220.09 -467.649 -1982 50 58 56
-216.255 -468.05 -1984 49 56 55
-212.52 -468.688 -1987 50 56 55
-208.67 -469.092 -1989 53 59 58
-205.019 -469.968 -1993 54 60 59
-201.353 -470.846 -1997 52 58 58
-197.673 -471.724 -2001 51 59 59
-193.882 -472.368 -2004 53 61 61
-189.985 -472.777 -2006 53 59 60
-186.174 -473.424 -2009 53 59 60
-182.262 -473.835 -2011 52 58 59
-178.344 -474.248 -2013 50 56 57
-174.418 -474.663 -2015 51 57 58
-170.656 -475.549 -2019 51 57 59
-166.878 -476.437 -2023 50 55 58
-163.005 -477.09 -2026 53 57 59
-159.513 -478.922 -2034 53 57 59
-155.99 -480.755 -2042 52 56 59
-152.51 -482.824 -2051 53 57 59
-148.416 -483.011 -2052 54 56 58
-144.882 -485.082 -2061 53 55 57
-141.107 -486.448 -2067 54 56 58
-137.773 -489.462 -2080 54 56 58
-135.223 -495.536 -2106 53 55 57
-354.253 -496.268 -2073 48 56 56
-344.876 -488.972 -2043 59 67 67
-337.795 -484.791 -2026 52 59 57
-331.445 -481.57 -2013 49 57 55
-325.803 -479.309 -2004 48 56 54
-320.201 -477.05 -1995 48 56 54
-315.431 -475.989 -1991 49 57 55
-310.524 -474.69 -1986 49 57 55
-306.103 -474.111 -1984 50 58 56
-301.846 -473.772 -1983 50 58 56
-297.144 -472.717 -1979 49 57 55
-292.758 -472.143 -1977 52 60 58
-288.091 -471.092 -1973 54 62 60
-284.018 -470.998 -1973 57 63 62
-279.806 -470.667 -1972 58 64 63
-276.02 -471.053 -1974 59 65 64
-271.953 -470.963 -1974 60 65 62
-267.616 -470.397 -1972 63 67 64
-263.558 -470.31 -1972 62 66 63
-259.369 -469.986 -1971 57 59 59
-255.188 -469.663 -1970 54 56 58
-251.14 -469.58 -1970 55 59 58
-247.219 -469.737 -1971 57 61 59
-243.173 -469.657 -1971 56 60 59
-239.372 -470.054 -1973 54 58 57
-235.565 -470.453 -1975 54 58 57
-231.634 -470.615 -1976 51 57 56
-227.701 -470.778 -1977 52 58 57
-223.766 -470.942 -1978 52 58 57
-219.94 -471.345 -1980 50 58 56
-216.216 -471.988 -1983 51 59 57
-212.482 -472.632 -1986 51 57 56
-208.738 -473.277 -1989 52 58 57
-204.88 -473.686 -1991 52 58 57
-201.217 -474.571 -1995 51 57 58
-197.54 -475.458 -1999 50 57 58
-193.655 -475.869 -2001 51 59 59
-189.668 -476.045 -2002 52 58 59
-185.957 -476.935 -2006 52 58 59
-182.412 -478.301 -2012 53 59 60
-178.667 -479.193 -2016 52 58 59
-174.648 -479.373 -2017 54 60 61
-170.88 -480.267 -2021 57 63 66
-167.097 -481.163 -2025 57 62 65
-163.299 -482.06 -2029 56 60 63
-159.643 -483.433 -2035 53 57 60
-155.887 -484.569 -2040 53 57 60
-152.038 -485.469 -2044 53 57 60
-148.753 -488.27 -2056 55 57 59
-145.069 -489.885 -2063 49 51 53
-141.358 -491.5 -2070 51 53 55
-138.083 -494.779 -2084 53 55 57
-135.652 -501.382 -2112 53 55 57
-355.054 -501.63 -2077 51 59 59
-345.328 -493.786 -2045 57 65 65
-338.073 -489.326 -2027 50 58 56
-331.555 -485.835 -2013 49 57 55
-325.586 -483.071 -2002 50 58 56
-320.467 -481.516 -1996 48 58 56
-315.535 -480.204 -1991 50 59 57
-310.94 -479.376 -1988 51 59 57
-306.513 -478.792 -1986 51 59 57
-301.946 -477.967 -1983 51 59 57
-297.243 -476.904 -1979 51 59 57
-293.003 -476.565 -1978 52 60 58
-288.478 -475.746 -1975 52 60 58
-284.4 -475.651 -1975 54 60 59
-280.041 -475.075 -1973 56 62 61
-276.251 -475.465 -1975 59 65 64
-272.18 -475.374 -1975 61 65 62
-267.976 -475.044 -1974 63 67 64
-263.912 -474.956 -1974 62 66 63
-259.323 -473.907 -1970 56 59 59
-255.142 -473.581 -1969 55 57 59
-251.222 -473.738 -1970 56 60 57
-247.3 -473.896 -1971 56 60 58
-243.13 -473.575 -1970 56 60 59
-239.329 -473.975 -1972 55 59 58
-235.523 -474.378 -1974 54 58 57
-231.358 -474.06 -1973 52 58 57
-227.43 -474.225 -1974 52 58 57
-223.613 -474.631 -1976 51 57 56
-219.901 -475.278 -1979 50 58 56
-216.178 -475.927 -1982 52 60 58
-212.445 -476.576 -1985 52 58 57
-208.806 -477.468 -1989 50 56 55
-205.05 -478.119 -1992 52 58 57
-201.283 -478.772 -1995 51 57 58
-197.11 -478.467 -1994 49 56 56
-193.427 -479.362 -1998 50 58 58
-189.73 -480.259 -2002 51 57 58
-186.018 -481.157 -2006 53 59 60
-182.109 -481.576 -2008 54 60 61
-178.46 -482.716 -2013 54 60 61
-174.532 -483.137 -2015 55 61 62
-170.682 -483.8 -2018 56 62 65
-166.904 -484.703 -2022 58 63 66
-163.352 -486.327 -2029 56 60 63
-159.695 -487.712 -2035 51 55 58
-156.091 -489.337 -2042 50 54 57
-152.758 -491.923 -2053 50 54 57
-148.874 -492.832 -2057 53 57 58
-145.257 -494.7 -2065 48 52 53
-141.541 -496.33 -2072 51 53 55
-138.526 -500.595 -2090 52 54 56
-355.515 -506.525 -2079 52 60 60
-345.444 -498.125 -2045 54 62 62
-338.187 -493.626 -2027 52 60 58
-331.336 -489.617 -2011 50 58 56
-326.02 -487.803 -2004 49 57 55
-320.253 -485.26 -1994 47 57 55
-315.324 -483.937 -1989 49 58 56
-310.731 -483.102 -1986 51 59 57
-306.461 -482.756 -1985 51 59 57
-302.046 -482.167 -1983 51 59 57
-297.191 -480.851 -1978 51 59 57
-292.656 -480.023 -1975 51 59 57
-288.282 -479.44 -1973 51 59 57
-284.207 -479.344 -1973 52 58 57
-280.418 -479.735 -1975 56 62 61
-276.343 -479.642 -1975 58 64 63
-272.547 -480.036 -1977 59 63 60
-268.337 -479.703 -1976 59 63 60
-263.598 -478.4 -1971 59 63 60
-259.146 -477.585 -1968 56 59 58
-255.227 -477.742 -1969 55 58 58
-250.923 -477.172 -1967 58 62 59
-247.006 -477.332 -1968 57 62 59
-242.964 -477.25 -1968 55 60 59
-239.166 -477.654 -1970 54 59 58
-235.123 -477.575 -1970 53 58 57
-231.2 -477.74 -1971 52 58 57
-227.39 -478.148 -1973 52 58 57
-223.574 -478.558 -1975 53 59 58
-219.862 -479.211 -1978 50 57 57
-216.14 -479.865 -1981 51 57 57
-212.408 -480.521 -1984 51 57 56
-208.77 -481.419 -1988 51 57 56
-205.015 -482.077 -1991 52 58 57
-201.047 -482.252 -1992 52 58 59
-197.077 -482.427 -1993 50 57 58
-193.588 -483.815 -1999 50 58 58
-189.603 -483.993 -2000 51 57 58
-186.172 -485.625 -2007 53 59 60
-182.441 -486.531 -2011 53 59 60
-178.696 -487.439 -2015 53 59 60
-174.936 -488.348 -2019 55 61 62
-171.331 -489.742 -2025 55 61 64
-167.207 -489.686 -2025 56 61 64
-163.406 -490.598 -2029 55 59 62
-159.826 -492.237 -2036 53 57 60
-156.143 -493.635 -2042 53 57 60
-152.883 -496.485 -2054 52 56 59
-149.213 -498.127 -2061 52 56 58
-145.868 -500.978 -2073 50 54 55
-141.997 -502.139 -2078 52 54 56
-139.168 -507.166 -2099 53 55 57
-357.175 -513.154 -2088 50 58 58
-346.237 -503.451 -2049 52 60 60
-338.635 -498.421 -2029 51 59 57
-331.448 -493.887 -2011 49 57 55
-325.479 -491.074 -2000 49 55 54
-320.04 -489.001 -1992 48 57 55
-315.272 -487.911 -1988 50 59 57
-310.522 -486.824 -1984 51 59 57
-306.101 -486.229 -1982 51 59 57
-302.148 -486.371 -1983 51 59 57
-297.442 -485.289 -1979 51 59 57
-293.051 -484.699 -1977 51 59 57
-288.672 -484.11 -1975 51 59 57
-284.302 -483.523 -1973 51 57 56
-280.228 -483.428 -1973 55 61 60
-276.156 -483.334 -1973 57 63 62
-272.5 -483.976 -1976 57 62 59
-268.291 -483.64 -1975 58 62 59
-264.088 -483.305 -1974 57 61 58
-259.101 -481.503 -1967 55 59 57
-255.053 -481.417 -1967 54 58 57
-250.879 -481.087 -1966 59 63 61
-246.963 -481.248 -1967 59 64 62
-243.168 -481.655 -1969 56 61 60
-239.125 -481.574 -1969 54 59 58
-235.441 -482.227 -1972 52 57 56
-231.63 -482.638 -1974 50 56 55
-227.582 -482.561 -1974 50 56 55
-223.875 -483.218 -1977 51 57 56
-219.936 -483.388 -1978 49 55 56
-216.322 -484.292 -1982 49 55 55
-212.586 -484.953 -1985 51 57 56
-208.735 -485.371 -1987 51 57 57
-204.671 -485.302 -1987 52 58 58
-201.013 -486.211 -1991 51 57 58
-197.241 -486.876 -1994 51 57 58
-193.459 -487.544 -1997 51 58 58
-189.477 -487.724 -1998 51 57 58
-186.048 -489.369 -2005 51 57 58
-182.23 -490.04 -2008 51 57 58
-178.578 -491.199 -2013 53 58 60
-174.388 -490.896 -2012 57 62 64
-170.711 -492.058 -2017 55 61 64
-167.014 -493.222 -2022 55 60 64
-163.058 -493.654 -2024 55 59 63
-159.722 -496.039 -2034 53 57 60
-156.271 -498.181 -2043 52 56 59
-153.082 -501.299 -2056 52 56 59
-149.408 -502.955 -2063 52 56 58
-145.846 -505.1 -2072 50 54 55
-142.318 -507.49 -2082 51 53 55
-139.679 -513.292 -2106 54 56 58
-346.524 -508.056 -2050 55 61 61
-338.416 -502.239 -2027 51 58 57
-331.396 -497.913 -2010 51 57 56
-325.264 -494.828 -1998 51 55 54
-319.506 -492.242 -1988 48 56 54
-315.22 -491.886 -1987 50 58 56
-310.628 -491.036 -1984 51 59 57
-306.205 -490.436 -1982 50 58 56
-302.098 -490.332 -1982 49 57 55
-297.693 -489.735 -1980 51 59 57
-293.002 -488.645 -1976 51 59 57
-288.769 -488.299 -1975 53 61 59
-284.111 -487.212 -1971 53 59 58
-280.039 -487.116 -1971 54 60 59
-276.11 -487.268 -1972 55 61 60
-272.593 -488.163 -1976 56 63 60
-267.431 -486.095 -1968 59 66 62
-263.776 -486.746 -1971 56 60 57
-259.057 -485.422 -1966 54 58 56
-254.75 -484.841 -1964 54 58 57
-250.709 -484.755 -1964 59 63 62
-246.921 -485.164 -1966 60 63 62
-242.756 -484.834 -1965 59 61 61
-238.962 -485.246 -1967 56 60 59
-235.282 -485.905 -1970 54 58 57
-231.591 -486.566 -1973 50 56 55
-227.774 -486.981 -1975 50 56 55
-223.951 -487.398 -1977 49 55 54
-220.121 -487.816 -1979 49 55 54
-216.395 -488.481 -1982 48 54 53
-212.444 -488.655 -1983 50 56 55
-208.91 -489.816 -1988 49 55 57
-204.946 -489.992 -1989 49 55 58
-201.182 -490.662 -1992 50 56 57
-197.308 -491.088 -1994 51 57 57
-193.718 -492.253 -1999 51 57 56
-189.92 -492.927 -2002 50 56 57
-186.389 -494.34 -2008 51 57 58
-182.2 -494.032 -2007 51 57 58
-178.55 -495.202 -2012 53 57 60
-174.707 -495.88 -2015 55 59 62
-171.022 -497.052 -2020 56 60 65
-167.153 -497.733 -2023 55 58 64
-163.354 -498.662 -2027 56 59 65
-159.854 -500.575 -2035 55 59 62
-156.171 -501.998 -2041 53 57 60
-153.059 -505.389 -2055 51 55 58
-149.458 -507.305 -2063 51 55 57
-146.106 -510.206 -2075 52 56 57
-142.434 -512.124 -2083 50 52 55
-139.925 -518.469 -2109 51 53 56
-346.812 -512.669 -2051 56 62 61
-337.697 -505.303 -2022 52 58 57
-330.521 -500.69 -2004 52 57 56
-325.213 -498.828 -1997 52 56 55
-319.937 -496.968 -1990 49 57 55
-315.328 -496.11 -1987 50 58 56
-310.891 -495.502 -1985 50 58 56
-306.928 -495.645 -1986 50 58 56
-303.117 -496.04 -1988 51 59 57
-298.698 -495.437 -1986 51 59 57
-293.993 -494.337 -1982 50 58 56
-289.453 -493.489 -1979 53 61 59
-284.496 -491.894 -1973 55 61 60
-280.419 -491.797 -1973 55 61 60
-275.924 -490.954 -1970 55 61 60
-272.134 -491.358 -1972 56 63 60
-267.794 -490.767 -1970 59 66 62
-263.598 -490.427 -1969 58 62 59
-259.014 -489.341 -1965 55 59 57
-254.967 -489.253 -1965 53 57 56
-250.667 -488.668 -1963 56 60 59
-247.005 -489.329 -1966 57 61 60
-243.086 -489.494 -1967 61 63 63
-239.165 -489.661 -1968 58 61 61
-235.72 -490.823 -1973 56 60 59
-231.904 -491.241 -1975 51 57 56
-227.967 -491.411 -1976 50 56 55
-224.027 -491.582 -1977 48 54 53
-219.974 -491.506 -1977 44 50 51
-216.359 -492.426 -1981 48 54 54
-212.301 -492.353 -1981 50 56 56
-208.771 -493.523 -1986 49 55 57
-205.016 -494.198 -1989 49 55 58
-201.351 -495.123 -1993 48 54 55
-197.672 -496.048 -1997 49 55 56
-193.978 -496.975 -2001 50 56 56
-190.079 -497.406 -2003 50 56 57
-186.453 -498.584 -2008 51 57 58
-182.535 -499.017 -2010 51 57 58
-178.433 -498.956 -2010 51 56 57
-174.592 -499.64 -2013 55 59 61
-170.911 -500.822 -2018 56 59 65
-166.879 -501.013 -2019 55 58 64
-163.571 -503.438 -2029 55 58 64
-159.909 -504.872 -2035 55 59 62
-156.376 -506.802 -2043 53 57 60
-153.037 -509.478 -2054 51 55 58
-149.436 -511.411 -2062 50 54 57
-145.804 -513.345 -2070 52 56 58
-142.687 -517.264 -2086 50 52 55
-140.105 -523.415 -2111 47 49 52
-347.947 -518.552 -2057 55 61 60
-338.483 -510.618 -2026 52 58 57
-330.965 -505.461 -2006 52 57 56
-325.326 -503.079 -1997 52 56 55
-319.887 -500.952 -1989 48 55 53
-315.596 -500.59 -1988 49 57 55
-310.842 -499.474 -1984 50 58 56
-307.189 -500.121 -1987 50 58 56
-302.764 -499.512 -1985 52 60 58
-298.5 -499.156 -1984 51 59 57
-293.798 -498.047 -1980 50 58 56
-289.114 -496.94 -1976 53 61 59
-284.594 -496.086 -1973 54 60 59
-280.374 -495.736 -1972 55 61 60
-276.159 -495.389 -1971 55 61 60
-272.504 -496.047 -1974 55 61 58
-268.022 -495.2 -1971 57 64 60
-263.689 -494.606 -1969 57 62 60
-259.367 -494.013 -1967 56 60 58
-255.444 -494.175 -1968 51 55 54
-251.264 -493.836 -1967 54 58 57
-247.216 -493.75 -1967 58 62 61
-243.17 -493.665 -1967 60 62 62
-239.491 -494.335 -1970 59 62 61
-235.682 -494.754 -1972 56 60 59
-231.984 -495.426 -1975 51 57 56
-228.045 -495.598 -1976 50 56 55
-224.104 -495.771 -1977 47 53 52
-219.938 -495.443 -1976 44 50 51
-216.106 -495.87 -1978 50 56 57
-212.374 -496.547 -1981 51 57 58
-209.053 -498.229 -1988 49 55 58
-204.983 -498.158 -1988 49 55 58
-201.723 -500.093 -1996 48 54 55
-197.938 -500.775 -1999 48 54 55
-194.432 -502.211 -2005 50 56 57
-190.334 -502.145 -2005 49 55 57
-186.516 -502.831 -2008 49 55 57
-182.597 -503.268 -2010 50 56 57
-178.583 -503.457 -2011 51 55 57
-174.739 -504.147 -2014 52 56 58
-170.969 -505.089 -2018 54 57 63
-166.936 -505.281 -2019 54 57 63
-163.627 -507.727 -2029 53 56 62
-160.042 -509.423 -2036 53 57 60
-156.66 -511.87 -2046 54 58 61
-153.238 -514.319 -2056 52 56 59
-149.559 -516.018 -2063 52 56 60
-146.206 -518.968 -2075 49 53 56
-143.215 -523.42 -2093 53 55 57
-140.418 -528.873 -2115 48 50 53
-348.577 -523.701 -2060 56 62 62
-338.768 -515.192 -2027 54 60 59
-331.411 -510.246 -2008 53 58 57
-325.602 -507.589 -1998 50 54 53
-320.16 -505.444 -1990 46 53 51
-316.024 -505.332 -1990 46 54 52
-311.264 -504.207 -1986 48 56 54
-307.606 -504.86 -1989 47 55 53
-303.48 -504.753 -1989 47 55 53
-299.056 -504.14 -1987 50 58 56
-293.752 -502.006 -1979 51 59 57
-289.654 -501.904 -1979 53 61 59
-284.549 -500.028 -1972 54 60 59
-280.329 -499.676 -1971 54 60 59
-276.255 -499.579 -1971 53 59 58
-272.046 -499.23 -1970 53 60 57
-267.979 -499.135 -1970 56 63 59
-264.049 -499.296 -1971 55 61 60
-259.853 -498.951 -1970 55 60 59
-255.793 -498.861 -1970 50 54 53
-251.607 -498.519 -1969 53 57 56
-247.553 -498.432 -1969 58 62 61
-243.254 -497.84 -1967 59 61 61
-239.574 -498.516 -1970 57 60 60
-236.122 -499.698 -1975 53 57 56
-231.947 -499.363 -1974 49 55 54
-228.239 -500.042 -1977 50 56 55
-224.295 -500.216 -1978 47 53 52
-220.125 -499.886 -1977 46 52 53
-216.399 -500.569 -1980 51 57 58
-212.555 -500.999 -1982 51 57 58
-209.125 -502.443 -1988 49 55 57
-205.363 -503.129 -1991 48 54 57
-201.995 -504.827 -1998 50 56 57
-198.006 -505.01 -1999 50 56 57
-194.208 -505.7 -2002 51 57 58
-190.115 -505.633 -2002 50 56 59
-186.395 -506.578 -2006 49 55 58
-182.479 -507.019 -2008 50 56 57
-178.644 -507.714 -2011 50 55 57
-174.712 -508.157 -2013 50 54 57
-170.943 -509.107 -2017 53 56 62
-167.325 -510.563 -2023 54 57 63
-163.603 -511.767 -2028 53 56 62
-160.254 -514.235 -2038 53 57 60
-156.79 -516.451 -2047 55 59 62
-153.216 -518.415 -2055 53 57 60
-149.466 -519.876 -2061 51 54 59
-146.045 -522.6 -2072 52 55 61
-143.196 -527.594 -2092 52 54 56
-140.666 -534.101 -2118 52 54 58
-348.869 -528.356 -2061 53 59 60
-339.055 -519.775 -2028 54 60 59
-331.198 -514.018 -2006 52 57 56
-325.88 -512.108 -1999 51 55 54
-320.595 -510.201 -1992 47 54 52
-316.135 -509.576 -1990 48 56 54
-311.374 -508.441 -1986 48 56 54
-307.559 -508.843 -1988 47 55 53
-302.823 -507.712 -1984 48 56 54
-298.86 -507.861 -1985 49 57 55
-294.152 -506.733 -1981 49 57 55
-289.463 -505.607 -1977 51 59 57
-284.649 -504.227 -1972 52 60 58
-280.57 -504.127 -1972 52 60 58
-276.633 -504.285 -1973 53 59 58
-272.418 -503.932 -1972 54 61 58
-268.209 -503.582 -1971 56 63 59
-264.276 -503.743 -1972 55 61 60
-259.812 -502.885 -1969 56 61 60
-255.622 -502.539 -1968 50 54 53
-251.695 -502.705 -1969 50 54 53
-247.892 -503.127 -1971 54 58 57
-243.463 -502.275 -1968 55 58 59
-239.658 -502.701 -1970 55 58 59
-235.726 -502.872 -1971 51 55 56
-232.028 -503.556 -1974 47 53 54
-228.204 -503.985 -1976 49 55 55
-224.373 -504.415 -1978 47 53 53
-220.425 -504.592 -1979 47 53 54
-216.693 -505.281 -1982 48 54 55
-213.058 -506.225 -1986 49 55 56
-209.619 -507.68 -1992 49 55 57
-205.848 -508.371 -1995 46 52 55
-202.268 -509.574 -2000 49 55 57
-198.075 -509.249 -1999 50 56 57
-194.082 -509.435 -2000 51 57 56
-190.086 -509.623 -2001 51 57 60
-186.553 -511.085 -2007 50 56 59
-182.633 -511.529 -2009 51 57 59
-178.706 -511.975 -2011 50 54 58
-174.86 -512.677 -2014 51 54 59
-171.088 -513.635 -2018 52 55 62
-167.383 -514.848 -2023 54 56 63
-163.902 -516.826 -2031 54 56 62
-160.389 -518.805 -2039 52 55 60
-156.768 -520.531 -2046 54 57 62
-153.419 -523.275 -2057 53 57 60
-149.736 -525.003 -2064 50 53 59
-146.378 -528.003 -2076 54 57 64
-143.451 -532.785 -2095 51 53 54
-349.671 -533.795 -2065 57 63 64
-338.841 -523.592 -2026 54 60 59
-331.481 -518.562 -2007 49 54 53
-326.322 -516.895 -2001 50 54 53
-321.353 -515.487 -1996 48 55 53
-316.407 -514.082 -1991 49 57 55
-311.798 -513.196 -1988 52 60 58
-307.668 -513.085 -1988 51 59 57
-302.778 -511.686 -1983 50 58 56
-298.966 -512.095 -1985 49 57 55
-293.959 -510.441 -1979 49 57 55
-289.419 -509.564 -1976 51 59 57
-284.75 -508.43 -1972 51 59 57
-280.811 -508.587 -1973 50 58 56
-276.45 -507.973 -1971 52 59 58
-272.376 -507.875 -1971 54 61 58
-268.032 -507.264 -1969 57 64 60
-263.967 -507.169 -1969 56 62 61
-259.904 -507.076 -1969 55 61 60
-255.843 -506.984 -1969 50 55 54
-251.784 -506.894 -1969 49 53 52
-247.602 -506.548 -1968 51 55 54
-243.302 -505.947 -1966 51 55 56
-239.499 -506.376 -1968 53 57 58
-235.929 -507.32 -1972 51 55 56
-232.463 -508.524 -1977 47 53 54
-228.631 -508.956 -1979 49 54 55
-224.906 -509.648 -1982 47 53 54
-220.614 -509.054 -1980 48 54 55
-216.988 -510.005 -1984 49 55 56
-213.241 -510.7 -1987 49 55 56
-209.588 -511.654 -1991 48 54 56
-205.714 -512.094 -1993 46 52 55
-201.935 -512.793 -1996 48 54 57
-197.947 -512.979 -1997 48 54 56
-193.762 -512.653 -1996 50 56 55
-189.868 -513.099 -1998 50 56 59
-186.154 -514.059 -2002 50 56 59
-182.788 -516.048 -2010 52 57 60
-178.68 -515.985 -2010 50 54 59
-174.835 -516.692 -2013 50 53 59
-171.233 -518.171 -2019 51 54 61
-167.607 -519.651 -2025 52 55 62
-163.959 -521.133 -2031 53 55 61
-160.602 -523.641 -2041 52 55 61
-157.053 -525.637 -2049 54 57 63
-153.547 -527.891 -2058 54 57 61
-149.643 -528.864 -2062 52 55 61
-146.852 -533.941 -2082 50 53 60
-144.392 -540.557 -2108 46 49 49
-349.966 -538.474 -2066 58 64 67
-339.632 -528.968 -2030 53 59 58
-332.261 -523.896 -2011 48 54 53
-326.929 -521.954 -2004 47 53 52
-321.79 -520.275 -1998 48 54 53
-316.361 -518.077 -1990 50 56 55
-311.596 -516.923 -1986 52 59 58
-307.624 -517.071 -1987 52 59 58
-302.428 -515.14 -1980 49 57 55
-298.621 -515.552 -1982 49 57 55
-293.916 -514.405 -1978 49 57 55
-289.816 -514.301 -1978 50 58 56
-284.852 -512.638 -1972 50 58 56
-280.912 -512.796 -1973 50 58 56
-276.83 -512.696 -1973 52 60 58
-272.75 -512.597 -1973 54 61 58
-268.809 -512.76 -1974 57 64 60
-264.195 -511.625 -1970 56 62 61
-259.996 -511.272 -1969 53 59 58
-255.674 -510.66 -1967 48 54 53
-251.618 -510.57 -1967 47 52 52
-247.312 -509.961 -1965 52 56 57
-243.388 -510.133 -1966 52 56 57
-239.584 -510.565 -1968 53 57 58
-235.774 -510.999 -1970 51 55 56
-232.192 -511.953 -1974 48 52 53
-228.828 -513.427 -1980 48 53 54
-225.213 -514.383 -1984 46 52 53
-221.027 -514.044 -1983 46 52 55
-217.284 -514.743 -1986 47 53 56
-213.746 -515.962 -1991 47 53 54
-209.873 -516.405 -1993 47 53 55
-205.89 -516.59 -1994 47 53 56
-201.804 -516.517 -1994 47 53 56
-197.62 -516.187 -1993 48 54 56
-193.539 -516.117 -1993 49 55 56
-189.555 -516.308 -1994 48 54 57
-185.941 -517.536 -1999 51 56 59
-182.398 -519.023 -2005 54 58 61
-178.744 -520.253 -2010 51 54 59
-174.897 -520.967 -2013 51 54 60
-171.123 -521.94 -2017 50 53 60
-167.418 -523.174 -2022 52 55 62
-163.936 -525.185 -2030 53 55 62
-160.659 -527.973 -2041 51 54 60
-157.569 -531.537 -2055 53 56 62
-154.049 -533.81 -2064 53 56 62
-150.277 -535.307 -2070 52 55 62
-147.539 -540.685 -2091 51 54 61
-145.265 -548.131 -2120 51 54 55
-350.262 -543.162 -2067 57 63 67
-339.421 -532.789 -2028 50 56 55
-332.216 -527.939 -2010 48 54 53
-327.047 -526.243 -2004 47 53 52
-321.584 -524.025 -1996 48 54 53
-317.271 -523.646 -1995 48 54 53
-311.708 -521.17 -1986 50 56 55
-307.425 -520.795 -1985 51 58 56
-302.843 -519.898 -1982 49 57 55
-298.578 -519.526 -1981 50 58 56
-294.171 -518.895 -1979 49 57 55
-289.774 -518.264 -1977 48 56 54
-285.099 -517.112 -1973 49 57 55
-281.155 -517.271 -1974 49 57 55
-276.649 -516.384 -1971 50 58 56
-272.433 -516.023 -1970 53 60 58
-268.088 -515.401 -1968 55 61 60
-264.022 -515.305 -1968 53 59 58
-259.826 -514.949 -1967 52 58 57
-255.376 -514.07 -1964 48 54 53
-251.452 -514.241 -1965 48 52 53
-246.772 -512.842 -1960 53 57 58
-242.857 -513.016 -1961 53 57 58
-239.183 -513.713 -1964 52 56 57
-235.499 -514.412 -1967 50 54 55
-232.276 -516.159 -1974 48 52 53
-228.679 -517.121 -1978 46 50 51
-224.953 -517.824 -1981 44 50 51
-220.995 -518.005 -1982 44 50 52
-217.362 -518.971 -1986 44 50 53
-213.608 -519.678 -1989 45 51 52
-209.737 -520.124 -1991 45 51 54
-205.757 -520.311 -1992 45 51 54
-201.775 -520.498 -1993 46 52 55
-197.393 -519.643 -1990 48 54 56
-193.22 -519.312 -1989 50 56 58
-189.528 -520.287 -1993 50 56 60
-185.821 -521.264 -1997 53 58 62
-182.463 -523.286 -2005 54 58 61
-178.63 -524.004 -2008 50 53 58
-175.307 -526.289 -2017 49 52 58
-171.439 -527.01 -2020 50 53 60
-167.892 -528.775 -2027 51 53 60
-164.399 -530.802 -2035 51 53 60
-161.032 -533.352 -2045 51 54 60
-157.242 -534.599 -2050 54 57 63
-153.88 -537.412 -2061 55 58 64
-150.258 -539.443 -2069 54 57 64
-148.086 -546.95 -2098 50 53 60
-350.051 -547.065 -2065 57 63 68
-340.047 -537.932 -2031 52 58 58
-332.337 -532.247 -2010 51 57 56
-327.33 -530.802 -2005 49 55 54
-322.185 -529.095 -1999 47 53 52
-316.909 -527.125 -1992 46 52 51
-311.822 -525.423 -1986 47 53 52
-307.382 -524.78 -1984 48 55 54
-302.648 -523.611 -1980 50 58 56
-298.687 -523.765 -1981 48 56 54
-294.277 -523.128 -1979 48 56 54
-290.026 -522.757 -1978 48 56 54
-285.347 -521.595 -1974 49 57 55
-281.4 -521.756 -1975 50 58 56
-276.89 -520.861 -1972 50 58 56
-272.532 -520.233 -1970 51 58 56
-268.594 -520.398 -1971 54 60 59
-264.252 -519.773 -1969 53 59 58
-260.184 -519.677 -1969 51 57 56
-255.599 -518.528 -1965 48 54 53
-251.672 -518.699 -1966 46 51 51
-247.113 -517.553 -1962 54 58 59
-243.316 -517.991 -1964 54 58 59
-239.148 -517.64 -1963 51 55 56
-235.944 -519.399 -1970 51 53 55
-231.889 -519.314 -1970 48 52 53
-228.761 -521.339 -1978 44 48 49
-224.694 -521.257 -1978 42 48 49
-221.075 -522.23 -1982 42 48 50
-217.55 -523.468 -1987 43 49 52
-213.792 -524.18 -1990 46 52 53
-209.918 -524.63 -1992 46 52 54
-205.935 -524.817 -1993 46 52 55
-201.746 -524.48 -1992 47 53 56
-197.564 -524.145 -1991 48 54 57
-193.387 -523.81 -1990 50 56 59
-189.501 -524.268 -1992 52 58 62
-185.795 -525.252 -1996 53 58 63
-182.256 -526.764 -2002 53 57 61
-178.783 -528.541 -2009 50 53 58
-175.109 -529.792 -2014 48 51 57
-171.586 -531.57 -2021 49 52 59
-168.284 -534.139 -2031 49 52 59
-164.62 -535.657 -2037 51 53 60
-161.168 -537.964 -2046 51 54 60
-157.528 -539.747 -2053 53 56 62
-153.936 -541.794 -2061 55 58 64
-150.384 -544.105 -2070 54 57 64
-148.563 -552.987 -2104 50 53 60
-350.35 -551.765 -2066 58 65 70
-340.34 -542.558 -2032 53 59 59
-332.79 -537.093 -2012 50 56 55
-327.777 -535.637 -2007 50 56 55
-322.304 -533.382 -1999 47 53 52
-317.503 -532.196 -1995 47 53 52
-312.094 -529.946 -1987 47 53 52
-307.495 -529.032 -1984 48 54 53
-302.606 -527.586 -1979 50 58 56
-298.796 -528.008 -1981 49 57 55
-294.237 -527.1 -1978 49 57 55
-289.986 -526.725 -1977 48 56 54
-285.452 -525.82 -1974 49 57 55
-281.218 -525.45 -1973 50 58 56
-276.851 -524.814 -1971 50 58 56
-272.632 -524.447 -1970 50 58 56
-268.693 -524.613 -1971 52 58 57
-264.349 -523.983 -1969 53 59 58
-260.412 -524.153 -1970 53 59 58
-256.212 -523.792 -1969 49 55 54
-251.892 -523.166 -1967 44 49 49
-247.077 -521.479 -1961 51 55 56
-243.157 -521.655 -1962 53 57 58
-238.992 -521.301 -1961 53 56 57
-235.671 -522.809 -1967 52 54 56
-231.738 -522.989 -1968 48 52 53
-228.498 -524.765 -1975 44 49 50
-224.776 -525.479 -1978 42 48 49
-220.821 -525.663 -1979 42 48 51
-217.411 -527.176 -1985 45 51 54
-213.548 -527.628 -1987 47 53 54
-209.89 -528.613 -1991 46 52 55
-205.907 -528.802 -1992 45 51 54
-201.719 -528.462 -1991 46 52 57
-197.636 -528.389 -1991 48 54 58
-193.652 -528.583 -1992 51 57 60
-189.665 -528.778 -1993 54 57 63
-185.956 -529.771 -1997 52 55 61
-182.595 -531.826 -2005 51 54 59
-179.115 -533.616 -2012 48 51 57
-175.608 -535.408 -2019 46 49 55
-171.903 -536.67 -2024 47 50 57
-168.76 -539.79 -2036 46 49 56
-164.76 -540.259 -2038 49 51 58
-161.306 -542.586 -2047 52 55 61
-157.585 -544.118 -2053 52 55 61
-154.141 -546.711 -2063 55 58 64
-150.802 -549.835 -2075 55 58 65
-149.535 -560.909 -2117 51 54 60
-350.48 -556.204 -2066 57 64 69
-340.969 -547.731 -2035 50 56 57
-333.741 -542.761 -2017 49 55 54
-328.225 -540.485 -2009 50 56 55
-322.907 -538.48 -2002 48 54 53
-317.462 -536.21 -1994 48 54 53
-312.367 -534.479 -1988 49 55 54
-307.764 -533.557 -1985 48 54 53
-303.024 -532.368 -1981 48 56 54
-298.756 -531.988 -1980 50 58 56
-294.346 -531.34 -1978 50 58 56
-289.799 -530.426 -1975 49 57 55
-285.558 -530.05 -1974 49 57 55
-281.322 -529.677 -1973 50 58 56
-276.953 -529.036 -1971 50 58 56
-272.594 -528.398 -1969 51 58 57
-268.655 -528.565 -1970 51 57 56
-264.58 -528.467 -1970 53 59 58
-260.64 -528.637 -1971 54 60 59
-256.437 -528.273 -1970 50 56 55
-252.369 -528.179 -1970 43 48 48
-247.799 -527.014 -1966 46 50 51
-243.743 -526.923 -1966 50 54 55
-239.445 -526.298 -1964 54 57 59
-235.877 -527.282 -1968 54 56 58
-232.412 -528.535 -1973 48 52 53
-228.929 -529.789 -1978 46 50 51
-224.972 -529.973 -1979 43 49 50
-221.125 -530.426 -1981 44 50 53
-217.6 -531.684 -1986 45 51 55
-213.734 -532.139 -1988 47 53 54
-209.967 -532.864 -1991 47 53 55
-205.982 -533.055 -1992 44 50 53
-201.793 -532.712 -1991 43 49 54
-197.609 -532.371 -1990 46 52 56
-193.723 -532.834 -1992 51 57 60
-189.925 -533.566 -1995 53 57 62
-186.303 -534.833 -2000 51 54 60
-182.936 -536.905 -2008 48 51 57
-179.359 -538.442 -2014 45 48 55
-176.02 -540.783 -2023 46 49 56
-172.221 -541.788 -2027 46 49 56
-168.987 -544.665 -2038 43 46 53
-164.982 -545.138 -2040 45 47 54
-161.522 -547.483 -2049 50 53 60
-157.643 -548.493 -2053 52 55 62
-154.048 -550.573 -2061 56 58 64
-151.148 -555.325 -2079 56 59 64
-350.442 -560.378 -2065 55 62 67
-340.761 -551.565 -2033 50 57 58
-333.535 -546.555 -2015 50 56 55
-328.021 -544.261 -2007 51 56 55
-322.867 -542.512 -2001 52 57 56
-317.262 -539.952 -1992 50 56 55
-312.483 -538.75 -1988 50 56 55
-307.879 -537.821 -1985 49 55 54
-303.137 -536.622 -1981 48 56 54
-298.566 -535.697 -1978 49 57 55
-294.158 -535.044 -1976 48 56 54
-289.908 -534.664 -1975 48 56 54
-285.519 -534.015 -1973 50 58 56
-281.427 -533.909 -1973 51 59 57
-277.056 -533.263 -1971 52 60 58
-272.557 -532.348 -1968 52 60 58
-268.21 -531.706 -1966 52 58 57
-264.276 -531.877 -1967 54 60 59
-260.34 -532.049 -1968 54 60 59
-256.402 -532.224 -1969 50 56 55
-252.207 -531.858 -1968 43 49 49
-248.017 -531.495 -1967 44 49 50
-243.709 -530.863 -1965 50 54 55
-239.778 -531.042 -1966 54 58 59
-236.085 -531.764 -1969 54 56 58
-232.617 -533.027 -1974 51 55 56
-229.014 -534.021 -1978 47 51 52
-225.17 -534.476 -1980 43 49 50
-221.207 -534.663 -1981 41 47 51
-217.681 -535.931 -1986 42 48 53
-213.813 -536.39 -1988 45 51 53
-209.834 -536.581 -1989 45 52 54
-205.955 -537.043 -1991 46 52 56
-202.172 -537.776 -1994 45 51 56
-197.98 -537.432 -1993 47 52 57
-194.086 -537.899 -1995 52 57 61
-190.281 -538.636 -1998 53 57 62
-186.838 -540.453 -2005 51 54 60
-183.459 -542.54 -2013 48 51 56
-179.425 -542.742 -2014 44 47 53
-176.172 -545.371 -2024 43 46 53
-172.455 -546.654 -2029 45 48 55
-169.05 -549.015 -2038 43 46 53
-164.962 -549.222 -2039 45 47 54
-161.582 -551.855 -2049 48 51 58
-157.855 -553.412 -2055 51 54 61
-154.479 -556.316 -2066 54 56 62
-151.64 -561.375 -2085 56 59 64
-340.555 -555.396 -2031 50 57 58
-333.496 -550.62 -2014 51 57 58
-327.818 -548.034 -2005 52 56 55
-322.827 -546.544 -2000 50 55 54
-317.7 -544.784 -1994 48 54 53
-312.916 -543.572 -1990 48 54 53
-307.995 -542.088 -1985 48 54 53
-303.711 -541.7 -1984 48 56 54
-299.131 -540.767 -1981 48 56 54
-294.417 -539.563 -1977 46 54 52
-290.164 -539.179 -1976 48 56 54
-285.916 -538.798 -1975 52 60 58
-281.248 -537.6 -1971 52 60 58
-277.441 -538.04 -1973 52 60 58
-273.075 -537.39 -1971 54 61 60
-268.584 -536.47 -1968 52 58 59
-264.509 -536.37 -1968 54 60 60
-260.305 -535.998 -1967 55 61 60
-256.499 -536.446 -1969 51 58 54
-252.301 -536.078 -1968 43 50 50
-248.11 -535.711 -1967 43 49 52
-243.925 -535.346 -1966 49 53 54
-240.112 -535.8 -1968 54 58 59
-236.293 -536.255 -1970 52 56 57
-233.057 -538.072 -1977 51 55 56
-229.447 -539.073 -1981 47 52 53
-225.481 -539.26 -1982 44 50 51
-221.737 -539.992 -1985 42 48 52
-217.872 -540.454 -1987 41 47 52
-213.893 -540.645 -1988 43 50 53
-210.123 -541.381 -1991 43 50 53
-206.239 -541.847 -1993 46 52 57
-202.146 -541.77 -1993 48 51 57
-198.253 -542.239 -1995 48 51 57
-194.353 -542.709 -1997 50 53 59
-190.352 -542.909 -1998 50 53 59
-187.001 -545.012 -2006 51 54 60
-183.619 -547.115 -2014 50 54 58
-179.938 -548.406 -2019 45 49 54
-176.586 -550.783 -2028 42 45 52
-172.944 -552.347 -2034 42 45 51
-169.528 -554.727 -2043 42 45 52
-165.348 -554.665 -2043 45 48 57
-161.879 -557.047 -2052 47 49 56
-158.452 -559.701 -2062 52 54 61
-155.284 -563.443 -2076 53 55 61
-152.715 -569.627 -2099 55 58 64
-340.852 -560.05 -2032 51 57 58
-333.788 -555.236 -2015 50 56 57
-327.943 -552.354 -2005 52 56 55
-322.95 -550.853 -2000 47 52 51
-318.14 -549.629 -1996 47 53 52
-313.349 -548.407 -1992 49 55 54
-308.733 -547.462 -1989 49 56 55
-303.979 -546.245 -1985 48 56 54
-299.245 -545.029 -1981 49 57 55
-294.678 -544.09 -1978 48 56 54
-290.274 -543.429 -1976 49 57 55
-285.88 -542.769 -1974 53 61 59
-281.782 -542.661 -1974 52 60 58
-277.406 -542.005 -1972 52 60 58
-273.04 -541.351 -1970 52 59 58
-268.685 -540.698 -1968 51 57 58
-264.475 -540.322 -1967 52 58 58
-260.536 -540.497 -1968 53 59 58
-256.335 -540.124 -1967 52 59 55
-252.268 -540.028 -1967 44 51 51
-248.33 -540.208 -1968 41 47 50
-244.017 -539.565 -1966 51 55 56
-240.447 -540.571 -1970 53 57 58
-236.382 -540.481 -1970 50 54 55
-233.027 -542.037 -1976 49 53 54
-229.418 -543.047 -1980 47 52 53
-225.794 -544.058 -1984 44 50 51
-221.932 -544.521 -1986 42 48 50
-217.954 -544.712 -1987 40 46 50
-214.081 -545.179 -1989 43 50 53
-209.991 -545.098 -1989 42 49 53
-206.213 -545.842 -1992 44 50 55
-202.222 -546.039 -1993 47 50 56
-198.427 -546.785 -1996 47 50 56
-194.621 -547.532 -1999 46 50 54
-190.996 -548.829 -2004 48 51 56
-187.258 -549.853 -2008 52 56 60
-183.87 -551.973 -2016 52 56 59
-180.273 -553.547 -2022 45 49 55
-176.739 -555.396 -2029 43 46 54
-172.924 -556.425 -2033 42 45 51
-169.176 -557.729 -2038 41 44 51
-165.653 -559.855 -2046 43 46 54
-162.177 -562.256 -2055 45 47 54
-158.742 -564.931 -2065 51 53 60
-155.866 -569.796 -2083 55 57 63
-153.864 -578.217 -2114 54 57 64
-340.983 -564.435 -2032 49 56 56
-333.916 -559.584 -2015 50 56 57
-328.233 -556.957 -2006 53 57 56
-323.397 -555.721 -2002 47 52 51
-318.74 -554.765 -1999 48 54 53
-313.784 -553.256 -1994 51 57 56
-308.852 -551.749 -1989 51 57 56
-304.096 -550.521 -1985 49 57 55
-299.51 -549.574 -1982 49 57 55
-295.089 -548.905 -1980 50 58 56
-290.678 -548.238 -1978 51 59 57
-286.279 -547.573 -1976 52 60 58
-282.033 -547.187 -1975 52 60 58
-277.793 -546.802 -1974 52 60 58
-273.283 -545.866 -1971 52 59 58
-269.061 -545.485 -1970 52 58 59
-264.845 -545.106 -1969 52 58 57
-260.636 -544.728 -1968 52 58 57
-256.433 -544.353 -1967 53 60 56
-252.493 -544.532 -1968 45 52 51
-248.551 -544.713 -1969 39 45 48
-244.482 -544.618 -1969 49 53 54
-240.172 -543.972 -1967 52 56 57
-236.472 -544.711 -1970 51 55 56
-233.116 -546.28 -1976 48 52 53
-229.621 -547.574 -1981 46 50 51
-225.994 -548.593 -1985 45 51 52
-222.016 -548.783 -1986 43 49 51
-218.037 -548.976 -1987 39 45 48
-214.27 -549.722 -1990 42 49 52
-210.176 -549.641 -1990 43 49 53
-206.498 -550.666 -1994 43 49 54
-202.502 -550.864 -1995 45 48 54
-198.602 -551.34 -1997 45 48 53
-194.598 -551.542 -1998 45 49 52
-190.591 -551.744 -1999 48 52 55
-187.236 -553.88 -2007 53 57 60
-183.484 -554.913 -2011 51 55 58
-180.163 -557.328 -2020 43 46 52
-176.806 -559.743 -2029 43 46 55
-173.5 -562.435 -2039 40 43 50
-169.406 -562.645 -2040 41 44 51
-166.039 -565.339 -2050 45 48 55
-162.554 -567.759 -2059 47 49 56
-159.417 -571.558 -2073 48 50 57
-156.599 -576.736 -2092 54 56 62
-155.088 -587.152 -2130 52 55 61
-340.611 -567.986 -2029 49 56 56
-333.714 -563.377 -2013 51 57 58
-328.36 -561.29 -2006 52 56 55
-323.199 -559.484 -2000 48 52 51
-318.863 -559.08 -1999 46 52 51
-313.748 -557.279 -1993 48 54 53
-309.281 -556.599 -1991 49 55 54
-304.366 -555.083 -1986 48 56 54
-299.626 -553.848 -1982 47 55 53
-294.756 -552.336 -1977 50 58 56
-290.79 -552.502 -1978 52 60 58
-286.389 -551.831 -1976 52 60 58
-281.856 -550.884 -1973 52 60 58
-278.041 -551.334 -1975 51 59 57
-273.527 -550.39 -1972 50 58 56
-269.028 -549.448 -1969 51 57 58
-264.947 -549.345 -1969 49 55 55
-260.868 -549.243 -1969 49 55 54
-256.531 -548.585 -1967 52 58 55
-252.718 -549.045 -1969 47 53 52
-248.646 -548.948 -1969 39 45 46
-244.576 -548.853 -1969 46 50 51
-240.509 -548.76 -1969 52 56 57
-236.803 -549.504 -1972 53 57 58
-232.969 -549.97 -1974 51 55 56
-229.825 -552.11 -1982 45 49 50
-225.966 -552.579 -1984 44 50 51
-222.884 -554.999 -1993 43 49 51
-218.559 -554.358 -1991 39 45 48
-214.783 -555.11 -1994 41 48 51
-210.679 -555.028 -1994 42 48 52
-206.785 -555.504 -1996 41 47 52
-202.985 -556.26 -1999 43 46 52
-199.076 -556.739 -2001 45 49 54
-195.062 -556.942 -2002 47 51 54
-191.046 -557.146 -2003 47 51 54
-187.774 -559.576 -2012 52 56 59
-183.919 -560.34 -2015 52 56 59
-180.232 -561.66 -2020 42 46 52
-176.7 -563.538 -2027 38 41 50
-173.566 -566.807 -2039 40 43 50
-169.554 -567.297 -2041 42 45 52
-166.184 -570.012 -2051 42 45 52
-162.853 -573.006 -2062 45 47 54
-159.939 -577.668 -2079 50 52 59
-157.407 -583.997 -2102 51 53 59
-340.744 -572.376 -2029 50 57 58
-333.678 -567.449 -2012 51 57 58
-328.487 -565.627 -2006 52 56 55
-323.325 -563.807 -2000 52 56 55
-318.828 -563.118 -1998 48 54 53
-313.555 -561.022 -1991 47 53 52
-308.78 -559.773 -1987 50 56 55
-303.871 -558.245 -1982 48 56 54
-299.591 -557.845 -1981 49 57 55
-295.168 -557.166 -1979 50 58 56
-291.051 -557.052 -1979 50 58 56
-286.79 -556.658 -1978 50 58 56
-282.394 -555.984 -1976 50 58 56
-278.572 -556.437 -1978 50 58 56
-273.911 -555.204 -1974 50 57 56
-269.679 -554.817 -1973 52 58 57
-265.05 -553.588 -1969 50 56 55
-261.235 -554.048 -1971 49 55 54
-256.631 -552.823 -1967 51 57 55
-252.816 -553.286 -1969 48 54 54
-248.742 -553.189 -1969 40 46 47
-244.671 -553.093 -1969 46 50 51
-240.479 -552.718 -1968 52 56 57
-236.775 -553.467 -1971 53 57 58
-233.059 -554.218 -1974 53 57 58
-230.03 -556.655 -1983 47 51 52
-226.395 -557.689 -1987 44 50 51
-222.858 -559.006 -1992 42 48 50
-218.644 -558.639 -1991 39 45 48
-215.082 -559.958 -1996 42 49 52
-211.184 -560.436 -1998 41 47 51
-207.279 -560.916 -2000 40 45 49
-203.165 -560.837 -2000 41 44 49
-199.152 -561.039 -2001 46 49 53
-195.332 -561.804 -2004 47 51 54
-191.119 -561.449 -2003 48 51 56
-187.379 -562.497 -2007 50 53 58
-183.99 -564.667 -2015 51 55 58
-180.926 -567.959 -2027 44 47 52
-176.942 -568.45 -2029 37 40 48
-173.803 -571.744 -2041 37 40 47
-169.869 -572.518 -2044 38 41 48
-166.653 -575.814 -2056 37 40 47
-163.073 -577.991 -2064 44 46 53
-160.232 -582.969 -2082 50 52 59
-158.367 -591.867 -2114 46 48 54
-350.233 -585.436 -2059 51 59 59
-341.215 -577.339 -2031 49 56 57
-334.473 -572.942 -2016 49 55 56
-328.944 -570.537 -2008 52 56 55
-323.775 -568.704 -2002 52 57 56
-319.273 -568.009 -2000 48 54 53
-313.993 -565.896 -1993 49 55 54
-308.901 -564.07 -1987 51 57 56
-304.297 -563.098 -1984 49 57 55
-299.557 -561.844 -1980 49 57 55
-295.135 -561.159 -1978 49 57 55
-291.018 -561.044 -1978 50 58 56
-286.903 -560.931 -1978 51 59 57
-282.361 -559.968 -1975 51 59 57
-278.54 -560.425 -1977 50 58 56
-273.879 -559.182 -1973 50 58 56
-269.511 -558.509 -1971 50 56 55
-265.019 -557.554 -1968 51 57 56
-260.939 -557.451 -1968 51 57 56
-256.861 -557.349 -1968 50 56 55
-253.171 -558.099 -1971 48 54 54
-249.092 -558 -1971 42 48 49
-245.264 -558.47 -1973 49 53 54
-241.062 -558.091 -1972 53 57 58
-237.348 -558.846 -1975 53 57 58
-233.505 -559.32 -1977 52 56 57
-230.7 -562.341 -1988 49 53 54
-226.598 -562.252 -1988 45 51 52
-223.169 -563.861 -1994 43 49 51
-219.168 -564.057 -1995 40 46 49
-215.381 -564.82 -1998 42 48 51
-211.371 -565.019 -1999 41 47 50
-207.36 -565.22 -2000 41 45 48
-203.549 -565.988 -2003 42 46 49
-199.528 -566.192 -2004 46 50 53
-195.505 -566.397 -2005 46 50 53
-191.194 -565.757 -2003 47 51 55
-187.732 -567.66 -2010 48 51 57
-183.97 -568.717 -2014 48 52 55
-180.907 -572.034 -2026 44 47 52
-177.185 -573.376 -2031 40 43 50
-173.615 -575.284 -2038 39 42 49
-170.267 -578.039 -2048 38 41 48
-166.636 -579.949 -2055 38 41 48
-163.374 -583.271 -2067 44 46 53
-160.602 -588.569 -2086 49 51 57
-159.328 -599.793 -2126 55 57 63
-340.846 -580.883 -2028 48 55 56
-334.108 -576.453 -2013 51 57 58
-328.747 -574.317 -2006 52 56 55
-323.418 -572.183 -1999 52 56 55
-318.6 -570.911 -1995 47 53 52
-313.487 -569.068 -1989 48 54 53
-308.402 -567.228 -1983 51 57 56
-304.111 -566.821 -1982 50 58 56
-299.676 -566.129 -1980 49 57 55
-295.401 -565.725 -1979 49 57 55
-291.427 -565.894 -1980 49 57 55
-287.451 -566.065 -1981 51 59 57
-283.045 -565.381 -1979 51 59 57
-279.213 -565.841 -1981 51 59 57
-274.542 -564.589 -1977 51 59 57
-269.891 -563.339 -1973 53 59 58
-265.527 -562.662 -1971 52 58 57
-261.174 -561.987 -1969 50 56 55
-256.962 -561.599 -1968 48 54 53
-253.271 -562.354 -1971 48 54 54
-249.19 -562.255 -1971 44 50 51
-245.111 -562.157 -1971 49 54 55
-240.912 -561.776 -1970 52 56 57
-237.561 -563.393 -1976 53 57 58
-233.715 -563.87 -1978 50 55 56
-230.674 -566.344 -1987 48 54 55
-227.029 -567.393 -1991 45 51 52
-223.592 -569.014 -1997 43 49 51
-219.584 -569.212 -1998 41 47 50
-215.681 -569.696 -2000 40 46 49
-211.666 -569.897 -2001 42 47 50
-207.856 -570.668 -2004 42 46 49
-203.934 -571.157 -2006 43 47 50
-199.806 -571.077 -2006 45 49 52
-195.679 -570.999 -2006 46 50 53
-191.364 -570.354 -2004 46 50 53
-187.712 -571.703 -2009 48 52 55
-183.768 -572.199 -2011 49 53 56
-180.441 -574.688 -2020 44 47 52
-177.429 -578.316 -2033 38 41 48
-174.365 -581.945 -2046 35 38 45
-170.833 -584.152 -2054 39 42 49
-167.432 -586.929 -2064 38 41 48
-164.149 -590.276 -2076 43 45 52
-161.589 -596.467 -2098 50 52 58
-340.814 -584.997 -2027 49 57 57
-333.909 -580.245 -2011 50 56 57
-328.386 -577.804 -2003 52 56 55
-323.385 -576.231 -1998 52 57 56
-318.568 -574.949 -1994 47 53 52
-313.139 -572.516 -1986 46 52 51
-308.68 -571.815 -1984 49 55 54
-304.079 -570.828 -1981 50 58 56
-299.644 -570.131 -1979 49 57 55
-295.369 -569.724 -1978 49 57 55
-291.248 -569.607 -1978 50 58 56
-287.275 -569.779 -1979 50 58 56
-283.015 -569.377 -1978 50 58 56
-279.042 -569.553 -1979 49 57 55
-274.374 -568.291 -1975 48 56 54
-269.587 -566.744 -1970 50 56 55
-265.498 -566.637 -1970 52 58 57
-261.278 -566.245 -1969 52 58 57
-256.934 -565.566 -1967 50 56 55
-253.115 -566.04 -1969 49 55 55
-249.289 -566.515 -1971 46 52 53
-245.084 -566.129 -1970 48 52 53
-241.008 -566.032 -1970 50 55 56
-237.655 -567.661 -1976 50 55 56
-233.925 -568.429 -1979 48 54 55
-230.417 -569.772 -1984 48 54 55
-227.347 -572.266 -1993 45 51 52
-223.793 -573.612 -1998 42 48 49
-219.781 -573.811 -1999 41 47 49
-215.874 -574.298 -2001 41 47 49
-211.961 -574.787 -2003 42 47 49
-207.938 -574.991 -2004 43 47 50
-203.913 -575.196 -2005 43 47 50
-199.885 -575.403 -2006 44 48 51
-195.854 -575.611 -2007 45 49 50
-191.44 -574.674 -2004 46 50 52
-187.413 -574.886 -2005 46 50 53
-183.474 -575.386 -2007 46 50 53
-180.96 -580.474 -2025 45 48 53
-178.459 -585.849 -2044 38 41 48
-174.689 -587.212 -2049 35 38 45
-171.316 -590.009 -2059 43 46 53
-167.66 -591.948 -2066 39 42 49
-164.847 -597.039 -2084 45 47 53
-162.423 -603.85 -2108 51 53 59
-341.96 -591.148 -2033 49 57 57
-334.708 -585.778 -2015 50 56 57
-329.011 -583.027 -2006 52 56 55
-323.677 -580.861 -1999 52 56 55
-318.696 -579.279 -1994 46 52 51
-313.265 -576.827 -1986 46 52 51
-308.804 -576.121 -1984 47 53 52
-304.354 -575.417 -1982 49 57 55
-300.067 -575.005 -1981 50 58 56
-295.786 -574.594 -1980 48 56 54
-291.807 -574.766 -1981 49 57 55
-287.826 -574.939 -1982 51 59 57
-283.557 -574.534 -1981 51 59 57
-279.154 -573.841 -1979 48 56 54
-274.901 -573.44 -1978 46 54 52
-270.106 -571.881 -1973 50 56 55
-265.739 -571.193 -1971 51 57 56
-261.383 -570.508 -1969 50 56 55
-257.298 -570.404 -1969 51 57 56
-253.216 -570.301 -1969 50 56 56
-249.262 -570.49 -1970 46 52 53
-245.431 -570.97 -1972 47 52 53
-241.349 -570.872 -1972 49 53 54
-237.389 -571.066 -1973 48 54 55
-233.9 -572.418 -1978 47 53 54
-230.742 -574.64 -1986 45 51 52
-227.552 -576.863 -1994 45 51 52
-223.994 -578.219 -1999 43 49 50
-220.088 -578.708 -2001 42 48 49
-216.068 -578.91 -2002 41 47 48
-211.728 -578.246 -2000 42 47 49
-207.813 -578.741 -2002 43 47 50
-203.79 -578.947 -2003 43 47 50
-199.565 -578.578 -2002 43 47 50
-195.639 -579.077 -2004 44 48 49
-191.42 -578.71 -2003 46 50 52
-187.581 -579.501 -2006 44 48 51
-183.913 -580.872 -2011 43 47 50
-181.3 -585.709 -2028 47 50 55
-178.181 -589.103 -2040 38 41 48
-175.185 -593.075 -2054 37 40 47
-171.717 -595.604 -2063 40 43 50
-168.62 -599.578 -2077 39 42 49
-165.624 -604.13 -2093 44 46 52
-163.798 -613.3 -2125 50 52 58
-341.426 -594.4 -2029 49 57 57
-334.844 -590.162 -2015 50 56 57
-329.308 -587.683 -2007 52 56 56
-323.809 -585.208 -1999 51 55 54
-318.825 -583.614 -1994 46 52 51
-314.023 -582.314 -1990 46 52 51
-309.085 -580.725 -1985 46 52 51
-304.631 -580.015 -1983 47 55 53
-300.491 -579.892 -1983 50 58 56
-295.906 -578.894 -1980 49 57 55
-292.072 -579.359 -1982 50 58 56
-287.652 -578.657 -1980 51 59 57
-283.529 -578.541 -1980 50 58 56
-279.267 -578.135 -1979 49 57 55
-274.595 -576.854 -1975 47 55 53
-270.078 -575.867 -1972 49 55 54
-265.711 -575.175 -1970 50 56 55
-261.222 -574.192 -1967 50 56 55
-257.271 -574.379 -1968 50 56 55
-253.318 -574.568 -1969 51 57 56
-249.236 -574.466 -1969 46 52 53
-245.281 -574.658 -1970 47 51 52
-241.691 -575.726 -1974 50 54 55
-237.605 -575.629 -1974 49 55 56
-233.995 -576.7 -1978 46 52 53
-230.486 -578.064 -1983 44 50 51
-227.301 -580.304 -1991 44 50 51
-223.86 -581.961 -1997 45 51 52
-220.397 -583.62 -2003 44 50 51
-216.047 -582.949 -2001 41 47 48
-212.025 -583.154 -2002 41 47 48
-207.793 -582.778 -2001 43 47 50
-203.567 -582.404 -2000 43 47 50
-199.646 -582.905 -2002 44 48 51
-195.327 -582.243 -2000 44 48 49
-191.306 -582.457 -2001 46 50 52
-187.656 -583.836 -2006 44 48 51
-184.536 -586.962 -2017 44 48 51
-181.82 -591.544 -2033 48 51 56
-178.952 -595.836 -2048 38 41 48
-175.597 -598.674 -2058 39 42 49
-172.202 -601.512 -2068 35 38 45
-169.256 -606.098 -2084 38 41 48
-166.482 -611.556 -2103 42 44 51
-164.943 -621.957 -2139 50 52 58
-341.734 -599.116 -2030 50 58 58
