ply
format ascii 1.0
comment Created by Open3D
element vertex 1459
property double x
property double y
property double z
property uchar red
property uchar green
property uchar blue
end_header
-278.231 -1024.27 -2098 44 51 47
-274.325 -1026.51 -2103 43 46 45
-270.913 -1030.71 -2112 41 44 43
-266.707 -1031.99 -2115 50 52 52
-262.491 -1033.27 -2118 41 41 41
-258.021 -1033.57 -2119 32 32 32
-253.07 -1031.93 -2116 43 40 41
-248.37 -1031.26 -2115 44 47 46
-243.561 -1030.12 -2113 43 47 46
-238.763 -1028.97 -2111 43 45 45
-233.976 -1027.83 -2109 42 46 45
-229.309 -1027.18 -2108 42 46 45
-224.221 -1024.59 -2103 43 47 46
-219.68 -1024.43 -2103 46 50 49
-214.629 -1021.84 -2098 47 51 50
-210.002 -1021.21 -2097 48 52 51
-205.284 -1020.09 -2095 50 54 51
-200.863 -1020.43 -2096 48 52 50
-196.534 -1021.27 -2098 50 54 53
-192.198 -1022.11 -2100 50 54 51
-187.855 -1022.95 -2102 48 52 49
-183.506 -1023.79 -2104 46 50 49
-179.064 -1024.15 -2105 48 50 50
-174.371 -1023.05 -2103 48 50 50
-169.849 -1022.93 -2103 46 50 49
-165.408 -1023.3 -2104 45 49 48
-160.888 -1023.19 -2104 45 49 48
-156.518 -1024.05 -2106 43 49 48
-152.284 -1025.89 -2110 44 48 45
-147.686 -1025.3 -2109 44 48 45
-143.432 -1027.14 -2113 44 48 45
-139.293 -1029.96 -2119 43 47 46
-135.067 -1032.29 -2124 44 48 47
-130.821 -1034.63 -2129 43 47 46
-126.435 -1036 -2132 49 53 54
-121.81 -1035.42 -2131 49 53 53
-117.409 -1036.8 -2134 48 52 51
-112.945 -1037.69 -2136 52 56 55
-108.523 -1039.07 -2139 52 57 56
-104.041 -1039.97 -2141 51 57 56
-99.5513 -1040.87 -2143 49 56 52
-95.0096 -1041.29 -2144 49 56 52
-90.5489 -1042.68 -2147 49 56 52
-85.9562 -1042.62 -2147 47 54 50
-81.402 -1043.04 -2148 49 56 52
-76.8802 -1043.96 -2150 50 57 53
-72.4176 -1045.85 -2154 48 55 47
-67.9073 -1047.26 -2157 47 53 48
-63.3553 -1048.18 -2159 45 50 47
-58.8226 -1049.6 -2162 48 52 49
-54.2275 -1050.04 -2163 47 51 49
-49.6745 -1051.46 -2166 55 59 57
-45.0675 -1051.92 -2167 58 60 62
-465.177 -1054.11 -2127 62 63 64
-457.383 -1046.84 -2113 54 56 56
-451.584 -1044.04 -2108 51 54 51
-445.813 -1041.24 -2103 52 56 53
-440.906 -1040.43 -2102 52 56 53
-435.594 -1038.63 -2099 52 56 53
-431.326 -1039.31 -2101 51 55 52
-426.24 -1038.01 -2099 51 55 52
-421.972 -1038.7 -2101 51 55 52
-417.102 -1037.9 -2100 51 55 52
-412.437 -1037.6 -2100 52 56 53
-407.971 -1037.81 -2101 51 55 52
-402.735 -1036.03 -2098 50 54 51
-397.897 -1035.25 -2097 50 55 52
-393.067 -1034.48 -2096 48 55 51
-388.245 -1033.7 -2095 47 54 50
-383.249 -1032.44 -2093 48 55 51
-377.721 -1029.71 -2088 49 56 52
-372.756 -1028.45 -2086 47 54 50
-367.45 -1026.22 -2082 46 53 49
-362.863 -1025.96 -2082 42 49 45
-357.074 -1022.25 -2075 42 49 45
-352.169 -1021.01 -2073 45 51 47
-346.941 -1018.79 -2069 46 50 47
-342.726 -1019.53 -2071 45 52 48
-337.853 -1018.31 -2069 46 53 49
-333.475 -1018.56 -2070 46 54 50
-328.461 -1016.85 -2067 45 52 48
-323.776 -1016.13 -2066 45 52 48
-319.407 -1016.39 -2067 48 55 51
-315.342 -1017.64 -2070 48 55 51
-310.666 -1016.92 -2069 48 53 49
-306.145 -1016.71 -2069 48 52 49
-301.919 -1017.47 -2071 48 52 49
-297.543 -1017.75 -2072 46 52 48
-293.59 -1019.51 -2076 44 51 47
-289.344 -1020.28 -2078 43 50 46
-285.366 -1022.04 -2082 46 51 46
-281.913 -1025.77 -2090 48 53 48
-278.03 -1028.02 -2095 44 51 47
-274.78 -1032.74 -2105 44 48 46
-270.975 -1035.49 -2111 42 44 43
-266.895 -1037.26 -2115 46 48 48
-262.676 -1038.54 -2118 34 35 35
-258.446 -1039.83 -2121 28 28 28
-253.129 -1036.71 -2115 42 39 40
-248.545 -1036.53 -2115 43 45 45
-243.617 -1034.89 -2112 41 45 44
-238.705 -1033.25 -2109 43 45 45
-234.141 -1033.08 -2109 43 46 45
-229.252 -1031.45 -2106 42 46 45
-224.272 -1029.33 -2102 43 47 46
-219.521 -1028.19 -2100 44 48 47
-214.882 -1027.55 -2099 46 50 49
-210.15 -1026.42 -2097 48 52 51
-205.526 -1025.79 -2096 48 52 50
-201.1 -1026.13 -2097 48 52 49
-196.672 -1026.48 -2098 48 52 50
-192.241 -1026.83 -2099 48 52 49
-187.808 -1027.19 -2100 47 51 49
-183.721 -1029.5 -2105 47 49 49
-179.274 -1029.87 -2106 47 49 49
-174.41 -1027.79 -2102 46 49 48
-169.968 -1028.15 -2103 47 51 50
-165.445 -1028.04 -2103 45 49 48
-161.001 -1028.41 -2104 43 48 47
-156.627 -1029.28 -2106 43 49 48
-152.319 -1030.63 -2109 46 50 47
-147.859 -1031.02 -2110 43 47 44
-143.6 -1032.87 -2114 42 46 43
-139.391 -1035.21 -2119 42 46 45
-134.907 -1035.6 -2120 43 47 46
-130.543 -1036.98 -2123 43 47 46
-126.227 -1038.84 -2127 49 53 54
-121.952 -1041.2 -2132 50 54 54
-117.216 -1039.65 -2129 47 51 50
-112.865 -1041.52 -2133 49 53 52
-108.396 -1042.42 -2135 51 55 54
-103.919 -1043.32 -2137 52 56 55
-99.5277 -1045.2 -2141 49 56 52
-95.1203 -1047.09 -2145 48 55 51
-90.6544 -1048.49 -2148 49 56 52
-86.0963 -1048.91 -2149 50 57 53
-81.4968 -1048.85 -2149 50 57 53
-76.9695 -1049.77 -2151 51 58 54
-72.4009 -1050.21 -2152 50 57 49
-67.9231 -1052.11 -2156 46 52 47
-63.3995 -1053.53 -2159 46 50 47
-58.8909 -1055.44 -2163 47 51 48
-54.3406 -1056.86 -2166 47 51 48
-49.8009 -1058.78 -2170 52 56 53
-45.3486 -1063.14 -2179 58 60 62
-465.293 -1059 -2126 61 62 63
-457.496 -1051.69 -2112 51 53 53
-451.481 -1048.37 -2106 51 54 51
-445.922 -1046.06 -2102 52 56 53
-440.804 -1044.74 -2100 52 56 53
-435.908 -1043.93 -2099 51 55 52
-431.636 -1044.61 -2101 51 56 52
-426.547 -1043.31 -2099 50 56 53
-421.873 -1043 -2099 51 55 52
-417.401 -1043.2 -2100 51 55 52
-412.93 -1043.39 -2101 52 56 53
-408.069 -1042.6 -2100 51 55 52
-403.024 -1041.32 -2098 50 54 51
-398.183 -1040.53 -2097 50 55 52
-393.161 -1039.26 -2095 49 56 52
-388.153 -1037.98 -2093 49 56 52
-383.156 -1036.72 -2091 48 55 51
-378.535 -1036.44 -2091 46 53 49
-373.202 -1034.19 -2087 45 52 48
-367.89 -1031.94 -2083 47 54 50
-363.122 -1031.18 -2082 45 52 48
-357.501 -1027.96 -2076 42 49 45
-352.591 -1026.71 -2074 44 50 47
-347.692 -1025.47 -2072 46 50 47
-342.971 -1024.73 -2071 44 51 47
-337.931 -1023 -2068 43 51 47
-333.068 -1021.77 -2066 43 51 47
-328.854 -1022.52 -2068 45 52 48
-324.163 -1021.8 -2067 45 52 48
-319.635 -1021.57 -2067 47 54 50
-315.566 -1022.82 -2070 48 55 51
-311.338 -1023.59 -2072 46 52 49
-306.511 -1022.38 -2070 46 50 47
-302.28 -1023.15 -2072 47 51 48
-297.899 -1023.43 -2073 47 52 49
-293.657 -1024.21 -2075 45 52 48
-289.55 -1025.48 -2078 44 51 47
-285.843 -1028.23 -2084 45 50 45
-281.708 -1029.51 -2087 48 52 47
-278.094 -1032.77 -2094 43 50 46
-274.191 -1035.04 -2099 44 49 45
-270.525 -1038.29 -2106 41 44 41
-266.958 -1042.05 -2114 44 46 46
-262.986 -1044.32 -2119 32 33 33
-258.629 -1045.12 -2121 26 26 26
-253.548 -1042.97 -2117 41 38 39
-248.839 -1042.3 -2116 44 46 46
-243.674 -1039.66 -2111 43 47 46
-238.987 -1039 -2110 41 43 43
-234.307 -1038.34 -2109 40 44 43
-229.415 -1036.7 -2106 40 45 44
-224.431 -1034.57 -2102 42 47 46
-219.781 -1033.92 -2101 43 47 46
-215.136 -1033.27 -2100 43 47 46
-210.398 -1032.14 -2098 46 50 49
-205.867 -1031.99 -2098 49 53 51
-201.146 -1030.86 -2096 48 52 50
-196.717 -1031.21 -2097 47 51 49
-192.377 -1032.06 -2099 48 52 49
-187.851 -1031.92 -2099 47 50 48
-183.764 -1034.25 -2104 45 48 46
-178.975 -1032.65 -2101 45 47 47
-174.533 -1033.01 -2102 46 49 49
-169.926 -1032.4 -2101 47 51 50
-165.326 -1031.79 -2100 46 50 49
-160.731 -1031.19 -2099 44 48 47
-156.44 -1032.55 -2102 43 49 48
-152.282 -1034.89 -2107 44 48 45
-147.893 -1035.77 -2109 44 48 45
-143.633 -1037.63 -2113 43 47 44
-139.621 -1041.46 -2121 43 47 45
-135.066 -1041.36 -2121 42 46 43
-130.635 -1042.25 -2123 41 45 42
-126.078 -1042.16 -2123 47 51 52
-121.923 -1045.51 -2130 49 53 53
-117.244 -1044.44 -2128 47 51 50
-112.785 -1045.34 -2130 47 51 50
-108.32 -1046.25 -2132 48 52 51
-103.797 -1046.66 -2133 52 56 55
-99.3651 -1048.06 -2136 50 57 53
-94.9652 -1049.96 -2140 50 57 53
-90.7603 -1054.31 -2149 51 58 54
-86.1166 -1053.76 -2148 52 59 55
-81.554 -1054.19 -2149 48 55 51
-76.9521 -1054.13 -2149 47 54 50
-72.4517 -1055.55 -2152 44 51 45
-67.9078 -1056.48 -2154 45 50 46
-63.4734 -1059.38 -2160 47 51 48
-58.9049 -1060.32 -2162 49 53 50
-54.3284 -1061.26 -2164 50 54 51
-49.7439 -1062.2 -2166 54 58 55
-45.2555 -1065.6 -2173 58 60 62
-475.05 -1075.24 -2147 63 65 65
-463.879 -1060.38 -2118 56 58 58
-456.961 -1055.04 -2108 49 51 51
-451.379 -1052.71 -2104 51 56 51
-446.457 -1051.88 -2103 51 57 52
-441.333 -1050.56 -2101 49 54 51
-436.223 -1049.24 -2099 47 51 48
-431.126 -1047.93 -2097 50 54 51
-426.245 -1047.12 -2096 50 55 52
-421.775 -1047.31 -2097 50 54 50
-417.305 -1047.5 -2098 52 55 52
-412.638 -1047.2 -2098 54 57 54
-407.974 -1046.91 -2098 53 57 54
-403.315 -1046.61 -2098 51 55 52
-398.28 -1045.32 -2096 50 54 50
-393.069 -1043.54 -2093 48 55 51
-388.432 -1043.26 -2093 48 55 50
-383.249 -1041.49 -2090 49 56 51
-377.901 -1039.22 -2086 48 55 50
-373.291 -1038.95 -2086 49 56 52
-367.801 -1036.19 -2081 50 57 53
-363.208 -1035.93 -2081 51 56 52
-358.275 -1034.67 -2079 48 55 51
-353.014 -1032.43 -2075 45 52 48
-348.109 -1031.18 -2073 46 51 49
-343.051 -1029.44 -2070 46 51 49
-337.846 -1027.2 -2066 44 50 47
-333.307 -1026.96 -2066 43 51 48
-328.93 -1027.22 -2067 46 53 49
-324.866 -1028.48 -2070 45 52 48
-320.482 -1028.74 -2071 46 53 49
-315.792 -1028.02 -2070 47 54 50
-311.56 -1028.79 -2072 46 51 48
-307.027 -1028.56 -2072 45 49 47
-302.496 -1028.35 -2072 47 51 48
-298.543 -1030.12 -2076 44 49 46
-294.292 -1030.9 -2078 47 53 49
-290.035 -1031.68 -2080 46 52 48
-286.047 -1033.46 -2084 47 52 48
-281.774 -1034.24 -2086 46 50 47
-277.894 -1036.52 -2091 41 47 45
-274.125 -1039.3 -2097 40 45 42
-270.589 -1043.07 -2105 40 43 40
-267.148 -1047.34 -2114 43 45 45
-263.049 -1049.13 -2118 33 34 33
-258.691 -1049.93 -2120 27 26 26
-253.728 -1048.26 -2117 39 37 37
-249.016 -1047.59 -2116 46 47 47
-243.963 -1045.43 -2112 44 47 47
-239.157 -1044.27 -2110 42 44 44
-234.362 -1043.11 -2108 40 44 44
-229.36 -1040.97 -2104 42 46 45
-224.59 -1039.82 -2102 43 48 47
-219.727 -1038.17 -2099 44 48 47
-215.084 -1037.53 -2098 42 46 45
-210.448 -1036.88 -2097 45 49 48
-205.817 -1036.24 -2096 49 53 52
-201.385 -1036.59 -2097 49 53 52
-196.669 -1035.46 -2095 47 51 50
-192.422 -1036.8 -2098 47 51 49
-187.984 -1037.16 -2099 47 51 49
-183.807 -1039 -2103 46 49 47
-179.272 -1038.87 -2103 44 47 46
-174.573 -1037.76 -2101 44 47 46
-170.047 -1037.64 -2101 47 50 49
-165.443 -1037.03 -2100 47 51 50
-160.768 -1035.92 -2098 45 50 49
-156.402 -1036.8 -2100 44 49 48
-152.389 -1040.14 -2107 44 48 46
-147.998 -1041.02 -2109 45 49 47
-143.667 -1042.4 -2112 45 49 47
-139.522 -1045.26 -2118 43 48 46
-134.906 -1044.67 -2117 45 50 48
-130.666 -1047.04 -2122 43 47 47
-126.048 -1046.46 -2121 44 48 47
-121.78 -1048.84 -2126 48 52 51
-117.106 -1047.77 -2124 49 52 51
-112.759 -1049.66 -2128 47 52 51
-108.243 -1050.07 -2129 47 53 51
-103.725 -1050.49 -2130 49 56 54
-99.4353 -1053.38 -2136 50 58 54
-95.0768 -1055.78 -2141 51 59 55
-90.7398 -1058.67 -2147 51 58 54
-86.0972 -1058.11 -2146 50 57 53
-81.6115 -1059.53 -2149 48 55 51
-77.0064 -1059.48 -2149 44 51 47
-72.3682 -1058.93 -2148 45 52 48
-67.8926 -1060.85 -2152 46 52 48
-63.4594 -1063.76 -2158 45 52 48
-58.8919 -1064.71 -2160 50 54 51
-54.3668 -1066.64 -2164 51 55 52
-49.8479 -1069.07 -2169 52 56 53
-45.2457 -1070.02 -2171 59 61 63
-471.412 -1071.64 -2129 62 64 64
-463.56 -1064.25 -2115 57 59 59
-457.294 -1060.39 -2108 53 55 55
-451.708 -1058.05 -2104 48 55 49
-446.995 -1057.72 -2104 46 53 47
-441.445 -1055.39 -2100 45 52 48
-436.541 -1054.56 -2099 49 53 50
-431.234 -1052.74 -2096 51 55 52
-426.352 -1051.92 -2095 50 55 52
-421.478 -1051.11 -2094 51 55 50
-416.613 -1050.31 -2093 53 57 53
-411.756 -1049.5 -2092 54 57 54
-407.298 -1049.71 -2093 53 57 54
-403.031 -1050.41 -2095 53 57 53
-397.998 -1049.12 -2093 51 55 50
-392.978 -1047.83 -2091 48 55 51
-388.342 -1047.55 -2091 47 54 49
-383.343 -1046.26 -2089 48 55 50
-377.812 -1043.48 -2084 49 56 50
-373.203 -1043.21 -2084 50 57 52
-367.713 -1040.44 -2079 52 58 54
-363.646 -1041.68 -2082 53 57 52
-358.534 -1039.92 -2079 51 58 54
-353.78 -1039.16 -2078 49 56 52
-348.529 -1036.9 -2074 46 52 51
-343.299 -1034.65 -2070 46 50 49
-338.581 -1033.91 -2069 45 50 49
-333.386 -1031.67 -2065 45 51 50
-329.008 -1031.93 -2066 46 52 49
-324.786 -1032.69 -2068 45 52 49
-320.403 -1032.95 -2069 45 52 48
-316.172 -1033.72 -2071 45 51 48
-311.785 -1034 -2072 46 51 48
-307.247 -1033.77 -2072 47 51 50
-303.151 -1035.05 -2075 50 54 51
-298.901 -1035.83 -2077 46 50 47
-294.929 -1037.61 -2081 50 54 51
-290.383 -1037.4 -2081 48 52 49
-286.39 -1039.19 -2085 48 52 50
-281.976 -1039.48 -2086 46 50 49
-277.694 -1040.27 -2088 41 47 46
-273.929 -1043.07 -2094 39 45 43
-270.526 -1047.35 -2103 37 44 40
-266.834 -1050.65 -2110 46 48 46
-262.989 -1053.44 -2116 37 37 36
-258.877 -1055.25 -2120 30 27 28
-253.79 -1053.07 -2116 34 34 34
-248.841 -1051.4 -2113 47 47 47
-244.022 -1050.23 -2111 51 51 51
-239.215 -1049.06 -2109 45 47 47
-234.53 -1048.39 -2108 42 44 44
-229.523 -1046.24 -2104 42 44 44
-224.751 -1045.08 -2102 44 46 46
-219.884 -1043.43 -2099 46 49 49
-215.34 -1043.27 -2099 45 49 48
-210.497 -1041.63 -2096 46 50 49
-206.161 -1042.47 -2098 45 49 48
-201.433 -1041.33 -2096 45 49 48
-196.903 -1041.19 -2096 45 49 48
-192.375 -1041.05 -2096 46 50 49
-187.939 -1041.41 -2097 47 51 50
-183.763 -1043.27 -2101 45 49 48
-179.315 -1043.63 -2102 46 48 48
-174.448 -1041.52 -2098 45 47 47
-170.006 -1041.89 -2099 44 46 46
-165.324 -1040.78 -2097 44 47 46
-160.729 -1040.17 -2096 43 47 46
-156.289 -1040.55 -2097 43 47 46
-152.208 -1043.42 -2103 45 49 49
-147.892 -1044.8 -2106 46 50 49
-143.701 -1047.18 -2111 45 49 48
-139.423 -1049.06 -2115 41 47 46
-134.938 -1049.46 -2116 41 46 45
-130.512 -1050.35 -2118 42 46 46
-126.019 -1050.76 -2119 43 48 47
-121.58 -1051.66 -2121 48 52 51
-117.134 -1052.57 -2123 50 53 52
-112.574 -1052.49 -2123 47 53 52
-108.168 -1053.89 -2126 45 52 51
-103.603 -1053.82 -2126 46 54 52
-99.3197 -1056.72 -2132 49 56 52
-94.9221 -1058.63 -2136 49 56 52
-90.6351 -1062.04 -2143 51 58 54
-86.078 -1062.47 -2144 51 58 54
-81.6315 -1064.39 -2148 49 56 52
-76.9892 -1063.84 -2147 46 53 49
-72.4532 -1064.78 -2149 46 53 49
-67.9093 -1065.72 -2151 47 54 50
-63.5044 -1069.14 -2158 46 53 49
-58.9064 -1069.59 -2159 49 53 50
-54.355 -1071.04 -2162 49 53 50
-49.7913 -1072.49 -2165 51 55 52
-45.1526 -1072.45 -2165 62 64 66
-464.558 -1071.15 -2118 58 60 60
-458.715 -1068.29 -2113 55 57 57
-452.899 -1065.42 -2108 49 55 51
-447.748 -1064.08 -2106 48 54 49
-442.189 -1061.73 -2102 47 53 50
-436.444 -1058.89 -2097 52 56 53
-430.932 -1056.55 -2093 53 57 54
-426.256 -1056.23 -2093 49 56 52
-421.182 -1054.91 -2091 51 55 50
-416.519 -1054.61 -2091 51 55 51
-411.86 -1054.3 -2091 52 55 52
-407.205 -1054 -2091 50 54 51
-402.362 -1053.2 -2090 51 55 51
-397.527 -1052.41 -2089 52 56 51
-392.888 -1052.12 -2089 50 57 53
-387.696 -1050.32 -2086 48 55 51
-383.071 -1050.04 -2086 48 55 51
-376.999 -1045.74 -2078 49 56 50
-372.578 -1045.97 -2079 49 56 51
-367.272 -1043.69 -2075 50 57 53
-363.036 -1044.43 -2077 53 57 52
-358.277 -1043.66 -2076 51 57 52
-353.696 -1043.4 -2076 50 57 53
-348.613 -1041.64 -2073 47 52 51
-343.05 -1038.37 -2067 47 52 51
-338.826 -1039.13 -2069 46 51 50
-333.951 -1037.88 -2067 43 49 48
-329.884 -1039.14 -2070 45 51 50
-325.335 -1038.91 -2070 45 51 50
-321.1 -1039.68 -2072 45 52 48
-316.554 -1039.44 -2072 47 51 48
-311.86 -1038.72 -2071 49 53 51
-307.618 -1039.49 -2073 49 53 52
-303.078 -1039.27 -2073 48 52 49
-299.405 -1042.06 -2079 46 50 47
-295.142 -1042.85 -2081 50 54 51
-290.732 -1043.14 -2082 49 53 50
-286.322 -1043.43 -2083 48 52 49
-282.18 -1044.73 -2086 48 52 49
-277.894 -1045.53 -2088 49 53 50
-274.126 -1048.33 -2094 45 51 47
-270.592 -1052.14 -2102 37 44 40
-267.279 -1056.95 -2112 42 44 44
-263.303 -1059.26 -2117 38 38 38
-258.941 -1060.07 -2119 33 30 31
-253.853 -1057.88 -2115 36 33 34
-249.138 -1057.2 -2114 46 44 45
-244.082 -1055.02 -2110 52 52 52
-239.5 -1054.85 -2110 47 49 49
-234.81 -1054.18 -2109 44 46 46
-229.798 -1052.01 -2105 40 42 42
-224.805 -1049.85 -2101 41 43 43
-219.833 -1047.69 -2097 44 47 46
-215.29 -1047.53 -2097 47 51 50
-210.448 -1045.88 -2094 46 50 49
-206.014 -1046.23 -2095 41 45 44
-201.481 -1046.09 -2095 40 44 43
-196.95 -1045.94 -2095 42 45 44
-192.422 -1045.8 -2095 43 47 46
-187.984 -1046.16 -2096 46 50 49
-183.544 -1046.53 -2097 47 51 50
-179.016 -1046.4 -2097 45 48 48
-174.324 -1045.27 -2095 46 48 48
-169.885 -1045.65 -2096 46 48 48
-165.285 -1045.03 -2095 45 49 48
-160.768 -1044.91 -2095 44 48 47
-156.327 -1045.3 -2096 43 47 46
-152.173 -1047.68 -2101 44 48 48
-147.858 -1049.07 -2104 41 45 46
-143.599 -1050.96 -2108 41 45 44
-139.325 -1052.85 -2112 40 46 45
-134.971 -1054.25 -2115 38 43 42
-130.297 -1053.16 -2113 41 45 44
-125.871 -1054.06 -2115 45 51 50
-121.667 -1056.96 -2121 48 53 52
-116.886 -1054.88 -2117 50 54 53
-112.548 -1056.8 -2121 50 55 54
-108.143 -1058.21 -2124 48 53 52
-103.678 -1059.13 -2126 48 54 53
-99.2974 -1061.05 -2130 49 56 52
-95.0343 -1064.47 -2137 49 56 52
-90.5729 -1065.9 -2140 49 56 52
-86.0591 -1066.83 -2142 49 56 52
-81.5376 -1067.77 -2144 47 54 50
-77.0083 -1068.71 -2146 44 51 47
-72.4374 -1069.15 -2147 44 51 47
-67.9261 -1070.59 -2150 46 53 49
-63.4319 -1072.54 -2154 46 53 49
-58.9484 -1074.98 -2159 52 56 53
-54.4442 -1077.43 -2164 52 56 53
-49.8498 -1078.39 -2166 52 56 53
-45.3308 -1081.34 -2172 63 65 67
-458.619 -1072.66 -2111 52 54 54
-453.233 -1070.8 -2108 48 53 49
-448.29 -1069.96 -2107 47 54 48
-442.093 -1066.07 -2100 48 53 50
-436.557 -1063.72 -2096 50 53 50
-431.249 -1061.88 -2093 51 54 51
-426.162 -1060.55 -2091 48 55 51
-421.088 -1059.22 -2089 49 53 50
-416.027 -1057.9 -2087 47 51 48
-410.98 -1056.58 -2085 49 52 49
-406.14 -1055.77 -2084 48 52 49
-401.308 -1054.97 -2083 48 52 49
-396.866 -1055.18 -2084 50 54 49
-392.423 -1055.4 -2085 48 55 51
-387.607 -1054.61 -2084 46 53 49
-382.249 -1052.3 -2080 46 53 49
-377.093 -1050.5 -2077 48 55 51
-372.313 -1049.72 -2076 49 56 52
-367.009 -1047.43 -2072 49 56 52
-362.427 -1047.16 -2072 52 56 53
-357.675 -1046.39 -2071 51 55 52
-353.442 -1047.14 -2073 49 53 50
-348.363 -1045.37 -2070 47 51 50
-343.466 -1044.11 -2068 46 50 49
-338.745 -1043.35 -2067 45 50 49
-333.871 -1042.1 -2065 44 50 49
-329.805 -1043.37 -2068 44 50 49
-325.258 -1043.13 -2068 43 49 48
-321.024 -1043.9 -2070 46 50 47
-316.631 -1044.17 -2071 47 51 48
-312.086 -1043.94 -2071 46 50 48
-307.693 -1044.22 -2072 46 50 49
-303.591 -1045.51 -2075 46 50 47
-299.623 -1047.31 -2079 46 50 47
-295.356 -1048.1 -2081 46 50 47
-290.944 -1048.39 -2082 45 49 46
-286.53 -1048.68 -2083 47 51 48
-282.249 -1049.48 -2085 50 53 50
-278.096 -1050.79 -2088 50 54 51
-274.194 -1053.1 -2093 47 52 49
-270.531 -1056.43 -2100 36 43 39
-267.22 -1061.26 -2110 38 40 40
-263.12 -1063.08 -2114 36 36 36
-258.517 -1062.89 -2114 34 31 32
-253.916 -1062.7 -2114 37 34 35
-248.728 -1060.01 -2109 43 41 42
-244.143 -1059.83 -2109 47 47 47
-239.56 -1059.65 -2109 48 50 50
-234.756 -1058.48 -2107 47 49 49
-229.745 -1056.3 -2103 42 44 44
-224.968 -1055.13 -2101 41 43 43
-219.781 -1051.96 -2095 42 44 44
-215.24 -1051.8 -2095 46 49 48
-210.398 -1050.14 -2092 44 48 47
-205.965 -1050.49 -2093 41 44 44
-201.434 -1050.34 -2093 41 43 43
-196.904 -1050.2 -2093 43 45 45
-192.285 -1049.56 -2092 46 48 48
-188.03 -1050.92 -2095 47 49 49
-183.326 -1049.79 -2093 46 48 48
-178.975 -1050.66 -2095 45 47 47
-174.2 -1049.03 -2092 46 48 48
-169.926 -1050.41 -2095 47 49 49
-165.325 -1049.78 -2094 45 48 47
-160.96 -1050.67 -2096 44 48 47
-156.439 -1050.55 -2096 44 48 47
-152.427 -1053.95 -2103 44 48 49
-147.894 -1053.84 -2103 41 45 46
-143.634 -1055.74 -2107 41 45 44
-139.293 -1057.14 -2110 44 48 47
-135.004 -1059.05 -2114 45 49 48
-130.391 -1058.45 -2113 49 52 51
-126.081 -1060.36 -2117 51 55 54
-121.468 -1059.77 -2116 54 57 56
-117.026 -1060.69 -2118 55 58 57
-112.523 -1061.11 -2119 55 59 58
-108.221 -1063.53 -2124 50 55 54
-103.703 -1063.95 -2125 48 54 53
-99.3221 -1065.88 -2129 49 56 52
-94.9246 -1067.82 -2133 47 54 50
-90.5532 -1070.25 -2138 45 52 48
-85.9601 -1070.19 -2138 44 51 47
-81.482 -1071.63 -2141 44 51 47
-76.9918 -1073.08 -2144 45 51 47
-72.3544 -1072.52 -2143 46 53 49
-67.9115 -1074.97 -2148 49 56 52
-63.4479 -1077.43 -2153 50 56 53
-58.8541 -1077.88 -2154 52 56 53
-54.3321 -1079.85 -2158 52 56 53
-49.8164 -1082.31 -2163 54 57 54
-45.2798 -1084.78 -2168 62 64 66
-464.807 -1080.95 -2116 56 58 58
-458.307 -1076.52 -2108 49 51 51
-453.354 -1075.67 -2107 46 51 48
-448.409 -1074.83 -2106 44 51 47
-442.21 -1070.93 -2099 48 55 51
-436.671 -1068.56 -2095 51 56 53
-431.361 -1066.71 -2092 52 56 53
-426.069 -1064.86 -2089 53 57 54
-420.794 -1063.02 -2086 51 55 52
-415.936 -1062.2 -2085 48 51 49
-410.691 -1060.36 -2082 47 49 48
-406.05 -1060.06 -2082 46 50 47
-401.797 -1060.78 -2084 48 52 49
-396.777 -1059.47 -2082 50 54 50
-391.771 -1058.16 -2080 47 54 50
-387.148 -1057.87 -2080 45 52 48
-382.346 -1057.08 -2079 45 52 48
-377.007 -1054.76 -2075 46 53 49
-372.228 -1053.98 -2074 47 53 50
-366.925 -1051.67 -2070 49 53 50
-362.168 -1050.9 -2069 51 55 52
-357.938 -1051.65 -2071 47 51 48
-353.019 -1050.37 -2069 45 49 46
-348.113 -1049.1 -2067 45 49 48
-343.386 -1048.34 -2066 44 48 47
-338.994 -1048.59 -2067 44 48 47
-334.439 -1048.35 -2067 45 49 48
-330.047 -1048.61 -2068 43 49 48
-325.968 -1049.89 -2071 43 49 48
-321.259 -1049.14 -2070 46 50 48
-316.557 -1048.4 -2069 48 52 49
-312.164 -1048.68 -2070 47 51 48
-307.918 -1049.47 -2072 46 50 48
-303.813 -1050.76 -2075 45 49 46
-299.842 -1052.56 -2079 46 50 47
-295.288 -1052.35 -2079 45 49 46
-291.156 -1053.65 -2082 44 48 45
-286.601 -1053.44 -2082 46 50 47
-282.184 -1053.74 -2083 47 50 47
-278.032 -1055.05 -2086 45 49 46
-274.394 -1058.39 -2093 42 46 43
-270.857 -1062.23 -2101 38 43 40
-267.288 -1066.08 -2109 43 44 43
-262.938 -1066.9 -2111 36 36 35
-258.583 -1067.72 -2113 34 31 32
-253.62 -1066.02 -2110 39 36 37
-248.673 -1064.32 -2107 40 38 39
-243.973 -1063.63 -2106 42 42 42
-239.62 -1064.47 -2108 45 47 47
-234.927 -1063.79 -2107 46 48 48
-229.912 -1061.6 -2103 46 48 48
-225.131 -1060.42 -2101 45 47 47
-220.046 -1057.74 -2096 46 48 48
-215.293 -1056.57 -2094 49 51 51
-210.551 -1055.41 -2092 48 50 50
-206.41 -1057.27 -2096 46 48 48
-201.676 -1056.11 -2094 48 50 50
-197.33 -1056.98 -2096 46 48 48
-192.516 -1055.32 -2093 46 48 48
-188.077 -1055.69 -2094 47 49 49
-183.196 -1053.54 -2090 47 49 49
-178.762 -1053.91 -2091 48 50 50
-174.076 -1052.77 -2089 50 52 52
-169.724 -1053.66 -2091 51 53 53
-165.208 -1053.54 -2091 51 53 53
-160.923 -1054.93 -2094 52 54 54
-156.553 -1055.82 -2096 52 56 55
-152.247 -1057.22 -2099 52 56 55
-147.86 -1058.12 -2101 49 53 53
-143.466 -1059.02 -2103 46 50 49
-139.13 -1060.43 -2106 45 49 48
-134.783 -1061.84 -2109 48 52 51
-130.362 -1062.75 -2111 49 51 51
-125.874 -1063.16 -2112 49 51 51
-121.268 -1062.57 -2111 48 50 50
-116.889 -1063.99 -2114 48 50 50
-112.498 -1065.42 -2117 46 52 51
-108.248 -1068.36 -2123 45 51 50
-103.925 -1070.8 -2128 45 51 50
-99.4405 -1071.73 -2130 44 51 47
-95.0821 -1074.17 -2135 43 50 46
-90.4915 -1074.11 -2135 44 51 47
-86.0624 -1076.06 -2139 45 51 48
-81.5028 -1076.5 -2140 45 50 47
-76.9755 -1077.45 -2142 49 53 50
-72.339 -1076.89 -2141 49 56 52
-67.9605 -1080.36 -2148 52 57 54
-63.4348 -1081.82 -2151 52 56 53
-58.8692 -1082.78 -2153 52 56 53
-54.3713 -1085.26 -2158 53 56 53
-49.8524 -1087.73 -2163 55 58 55
-45.3125 -1090.21 -2168 61 63 65
-465.813 -1087.92 -2119 56 58 58
-459.519 -1083.98 -2112 51 53 53
-453.692 -1081.07 -2107 49 52 50
-448.104 -1078.68 -2103 46 51 48
-442.75 -1076.81 -2100 42 49 45
-436.996 -1073.92 -2095 45 50 46
-431.476 -1071.54 -2091 50 54 51
-426.182 -1069.69 -2088 54 57 54
-421.309 -1068.86 -2087 54 57 54
-416.245 -1067.52 -2085 52 55 53
-410.996 -1065.68 -2082 50 52 52
-406.156 -1064.86 -2081 48 51 49
-401.323 -1064.05 -2080 50 54 51
-396.499 -1063.24 -2079 49 53 50
-391.684 -1062.44 -2078 46 52 48
-387.063 -1062.15 -2078 45 52 48
-382.261 -1061.35 -2077 45 52 48
-377.104 -1059.54 -2074 46 53 49
-372.503 -1059.26 -2074 46 52 48
-367.373 -1057.45 -2071 50 54 51
-361.735 -1054.12 -2065 48 52 49
-357.51 -1054.88 -2067 47 51 48
-352.426 -1053.08 -2064 44 48 45
-348.033 -1053.33 -2065 46 49 48
-343.473 -1053.08 -2065 44 47 46
-339.244 -1053.84 -2067 45 48 47
-334.685 -1053.59 -2067 45 49 48
-330.13 -1053.35 -2067 44 50 49
-325.578 -1053.11 -2067 44 50 49
-321.34 -1053.89 -2069 45 49 48
-316.79 -1053.65 -2069 46 50 47
-312.092 -1052.91 -2068 48 52 49
-307.996 -1054.21 -2071 47 51 48
-303.304 -1053.48 -2070 45 49 46
-299.485 -1055.8 -2075 44 48 45
-294.936 -1055.58 -2075 43 47 44
-290.81 -1056.89 -2078 45 49 45
-286.398 -1057.18 -2079 46 50 46
-282.256 -1058.5 -2082 46 50 47
-278.103 -1059.82 -2085 45 49 46
-274.464 -1063.17 -2092 44 48 45
-270.926 -1067.04 -2100 41 45 42
-267.483 -1071.41 -2109 41 42 40
-263.256 -1072.74 -2112 35 34 33
-258.527 -1072.04 -2111 35 32 33
-253.686 -1070.84 -2109 40 37 38
-248.737 -1069.13 -2106 44 42 42
-243.804 -1067.43 -2103 45 45 45
-239.341 -1067.76 -2104 44 46 46
-234.764 -1067.59 -2104 43 45 45
-229.862 -1065.89 -2101 45 46 45
-224.867 -1063.7 -2097 42 44 44
-220.522 -1064.55 -2099 43 45 45
-215.656 -1062.87 -2096 47 49 48
-211.007 -1062.2 -2095 48 50 50
-206.463 -1062.05 -2095 46 48 48
-201.727 -1060.89 -2093 47 49 49
-197.285 -1061.25 -2094 47 49 49
-192.472 -1059.59 -2091 46 48 48
-188.034 -1059.95 -2092 46 48 48
-183.33 -1058.81 -2090 45 47 47
-179.064 -1060.19 -2093 44 46 46
-174.286 -1058.54 -2090 47 49 49
-170.011 -1059.94 -2093 49 51 51
-165.565 -1060.32 -2094 50 52 52
-161.271 -1061.72 -2097 48 50 50
-156.741 -1061.6 -2097 48 51 50
-152.213 -1061.49 -2097 48 52 51
-147.756 -1061.89 -2098 47 51 50
-143.365 -1062.79 -2100 46 49 48
-139.099 -1064.72 -2104 45 48 47
-134.881 -1067.15 -2109 47 49 49
-130.395 -1067.56 -2110 46 48 48
-125.906 -1067.97 -2111 43 45 45
-121.529 -1069.4 -2114 45 47 47
-117.085 -1070.32 -2116 48 50 50
-112.58 -1070.74 -2117 48 52 51
-108.327 -1073.7 -2123 46 51 50
-103.902 -1075.14 -2126 45 51 50
-99.5127 -1077.09 -2130 43 49 48
-95.0176 -1078.03 -2132 43 49 48
-90.4723 -1078.46 -2133 47 53 52
-86.0444 -1080.42 -2137 49 53 52
-81.5238 -1081.37 -2139 48 52 51
-76.9594 -1081.82 -2140 51 55 54
-72.4253 -1082.78 -2142 50 54 51
-67.9149 -1084.24 -2145 52 56 54
-63.3331 -1084.7 -2146 52 56 53
-58.8298 -1086.68 -2150 54 57 54
-54.335 -1089.16 -2155 53 56 53
-49.7962 -1091.15 -2159 55 58 56
-45.3871 -1096.67 -2170 59 61 63
-467.042 -1095.42 -2123 57 57 57
-459.864 -1089.4 -2112 50 52 52
-453.816 -1085.96 -2106 50 53 52
-448.226 -1083.56 -2102 49 52 49
-442.66 -1081.16 -2098 42 49 45
-437.323 -1079.29 -2095 41 48 44
-432.212 -1077.93 -2093 45 50 47
-427.113 -1076.58 -2091 51 54 52
-421.826 -1074.72 -2088 49 52 51
-417.355 -1074.92 -2089 47 51 49
-412.291 -1073.58 -2087 49 51 51
-407.24 -1072.24 -2085 50 53 51
-402.588 -1071.94 -2085 52 56 53
-397.367 -1070.1 -2082 53 57 54
-392.541 -1069.29 -2081 49 56 52
-387.351 -1067.46 -2078 49 56 52
-382.177 -1065.63 -2075 44 50 48
-377.385 -1064.83 -2074 45 50 48
-373.14 -1065.58 -2076 45 50 47
-367.469 -1062.22 -2070 44 48 46
-362.179 -1059.9 -2066 44 48 46
-357.602 -1059.63 -2066 43 47 44
-352.859 -1058.85 -2065 43 46 43
-348.46 -1059.11 -2066 43 45 45
-343.395 -1057.31 -2063 41 43 43
-339.495 -1059.11 -2067 44 46 47
-334.771 -1058.34 -2066 47 51 50
-330.535 -1059.12 -2068 45 49 48
-325.819 -1058.37 -2067 43 49 48
-321.578 -1059.15 -2069 45 49 48
-316.871 -1058.4 -2068 46 50 48
-312.172 -1057.66 -2067 49 53 50
-307.926 -1058.45 -2069 48 52 49
-303.528 -1058.73 -2070 45 49 46
-299.273 -1059.53 -2072 46 50 47
-294.869 -1059.82 -2073 46 50 47
-290.885 -1061.65 -2077 46 50 46
-286.747 -1062.97 -2080 48 52 47
-282.599 -1064.29 -2083 47 50 47
-278.308 -1065.11 -2085 46 49 46
-274.798 -1068.99 -2093 44 47 44
-270.997 -1071.85 -2099 40 44 41
-267.553 -1076.25 -2108 40 40 38
-263.2 -1077.07 -2110 32 31 30
-258.84 -1077.9 -2112 33 30 31
-253.872 -1076.18 -2109 41 38 39
-248.92 -1074.47 -2106 46 44 45
-243.867 -1072.24 -2102 48 48 48
-239.403 -1072.58 -2103 47 49 49
-234.937 -1072.91 -2104 46 47 46
-230.14 -1071.72 -2102 47 47 45
-225.247 -1070.02 -2099 44 46 46
-220.579 -1069.35 -2098 44 46 45
-216.124 -1069.7 -2099 47 50 47
-211.263 -1068.01 -2096 48 50 49
-206.811 -1068.37 -2097 47 49 48
-202.068 -1067.2 -2095 46 48 48
-197.336 -1066.03 -2093 46 48 48
-192.706 -1065.38 -2092 46 48 48
-188.262 -1065.75 -2093 47 49 49
-183.64 -1065.1 -2092 46 48 48
-179.109 -1064.97 -2092 45 47 47
-174.581 -1064.84 -2092 46 48 48
-170.298 -1066.24 -2095 48 50 50
-165.924 -1067.13 -2097 47 49 49
-161.389 -1067.01 -2097 47 49 49
-156.931 -1067.41 -2098 48 50 50
-152.252 -1066.27 -2096 49 52 52
-147.935 -1067.69 -2099 49 53 52
-143.265 -1066.57 -2097 50 52 52
-139.333 -1071.04 -2106 48 50 50
-135.043 -1072.97 -2110 47 49 49
-130.614 -1073.89 -2112 47 49 49
-125.998 -1073.29 -2111 47 49 49
-121.503 -1073.71 -2112 49 51 51
-117.06 -1074.64 -2114 51 53 53
-112.715 -1076.59 -2118 50 54 53
-108.406 -1079.05 -2123 47 51 50
-104.027 -1081 -2127 46 51 50
-99.5386 -1081.94 -2129 46 50 49
-95.1315 -1083.91 -2133 51 55 54
-90.4535 -1082.82 -2131 52 56 55
-85.9862 -1084.28 -2134 51 55 54
-81.4307 -1084.73 -2135 52 56 55
-76.9796 -1086.7 -2139 53 57 56
-72.3089 -1085.63 -2137 51 55 54
-67.8693 -1088.12 -2142 51 55 54
-63.2612 -1088.07 -2142 50 54 53
-58.818 -1091.08 -2148 53 55 55
-54.3746 -1094.59 -2155 51 53 53
-50.0864 -1102.17 -2170 53 55 55
-45.8806 -1113.31 -2192 57 59 61
-470.037 -1107.11 -2135 58 58 58
-460.646 -1095.87 -2114 51 52 52
-453.727 -1090.34 -2104 49 51 50
-448.564 -1088.96 -2102 47 50 47
-442.782 -1086.04 -2097 44 51 47
-437.444 -1084.15 -2094 43 50 46
-432.537 -1083.31 -2093 43 48 45
-427.434 -1081.95 -2091 45 49 48
-421.94 -1079.56 -2087 46 50 49
-417.068 -1078.72 -2086 45 49 48
-412.205 -1077.9 -2085 46 48 48
-407.35 -1077.07 -2084 47 50 48
-402.89 -1077.28 -2085 48 52 49
-397.665 -1075.43 -2082 50 54 51
-392.835 -1074.62 -2081 50 56 53
-387.641 -1072.78 -2078 52 59 56
-382.648 -1071.46 -2076 51 57 56
-377.849 -1070.65 -2075 53 58 57
-373.239 -1070.37 -2075 50 54 53
-367.743 -1067.52 -2070 46 50 49
-362.274 -1064.66 -2065 46 50 49
-357.696 -1064.39 -2065 46 50 48
-352.78 -1063.1 -2063 45 48 45
-348.214 -1062.84 -2063 44 46 45
-343.984 -1063.61 -2065 43 45 45
-339.913 -1064.9 -2068 46 48 50
-334.859 -1063.1 -2065 47 51 50
-330.301 -1062.85 -2065 44 48 47
-325.904 -1063.12 -2066 42 46 45
-321.506 -1063.39 -2067 43 46 45
-316.8 -1062.64 -2066 45 48 47
-312.404 -1062.92 -2067 48 50 50
-307.857 -1062.69 -2067 48 52 48
-303.607 -1063.49 -2069 47 51 48
-299.206 -1063.78 -2070 48 52 49
-294.946 -1064.59 -2072 48 52 49
-290.68 -1065.4 -2074 48 52 48
-286.546 -1066.72 -2077 49 53 48
-282.402 -1068.05 -2080 48 51 45
-278.247 -1069.38 -2083 45 48 45
-274.739 -1073.28 -2091 41 45 42
-271.198 -1077.19 -2099 36 40 37
-267.625 -1081.09 -2107 39 39 37
-263.27 -1081.92 -2109 32 31 30
-258.787 -1082.24 -2110 32 28 29
-254.06 -1081.54 -2109 41 38 39
-248.986 -1079.3 -2105 46 44 45
-244.28 -1078.6 -2104 49 49 49
-239.58 -1077.91 -2103 49 49 49
-234.887 -1077.22 -2102 50 50 50
-230.31 -1077.05 -2102 50 50 48
-225.413 -1075.34 -2099 48 48 48
-220.847 -1075.18 -2099 46 47 46
-216.18 -1074.5 -2098 47 49 47
-211.52 -1073.83 -2097 50 53 50
-206.668 -1072.14 -2094 50 52 51
-202.024 -1071.48 -2093 49 51 51
-197.198 -1069.8 -2090 47 49 49
-192.663 -1069.65 -2090 48 50 50
-188.221 -1070.02 -2091 49 51 51
-183.687 -1069.89 -2091 49 51 51
-179.07 -1069.24 -2090 49 51 51
-174.96 -1071.67 -2095 50 52 52
-170.423 -1071.54 -2095 51 53 53
-166.125 -1072.95 -2098 50 52 52
-161.739 -1073.85 -2100 50 52 52
-157.046 -1072.71 -2098 50 52 52
-152.436 -1072.09 -2097 50 53 53
-148.114 -1073.51 -2100 51 55 54
-143.644 -1073.91 -2101 50 52 52
-139.634 -1077.9 -2109 47 49 49
-135.271 -1079.33 -2112 47 49 49
-130.896 -1080.76 -2115 49 51 50
-126.389 -1081.18 -2116 51 53 52
-121.707 -1080.07 -2114 51 53 53
-117.201 -1080.49 -2115 51 53 53
-112.851 -1082.45 -2119 49 53 52
-108.486 -1084.41 -2123 49 53 52
-104.006 -1085.35 -2125 48 52 51
-99.6117 -1087.32 -2129 51 55 54
-95.1122 -1088.27 -2131 54 58 57
-90.5198 -1088.2 -2131 54 58 57
-86.0091 -1089.16 -2133 51 55 54
-81.5668 -1091.14 -2137 51 55 54
-77.0001 -1091.59 -2138 50 54 53
-72.4636 -1092.56 -2140 50 54 53
-67.9508 -1094.04 -2143 49 53 52
-63.3667 -1094.5 -2144 48 52 51
-58.7789 -1094.97 -2145 51 53 53
-54.3893 -1099.52 -2154 50 52 52
-50.1231 -1107.65 -2170 51 53 53
-46.0399 -1121.9 -2198 56 58 60
-462.304 -1104.45 -2120 52 54 54
-454.286 -1096.29 -2105 48 50 50
-448.69 -1093.86 -2101 47 50 47
-442.694 -1090.4 -2095 43 49 46
-437.565 -1089.02 -2093 43 49 45
-432.657 -1088.17 -2092 45 48 45
-427.962 -1087.85 -2092 46 49 48
-422.664 -1085.97 -2089 47 51 50
-418.184 -1086.17 -2090 45 49 48
-413.505 -1085.85 -2090 45 47 47
-408.44 -1084.5 -2088 45 48 46
-403.967 -1084.71 -2089 44 48 45
-398.538 -1082.33 -2085 45 49 46
-393.509 -1081 -2083 43 49 46
-388.119 -1078.63 -2079 44 51 48
-382.936 -1076.78 -2076 47 51 50
-377.769 -1074.94 -2073 48 52 51
-373.519 -1075.69 -2075 49 53 52
-368.198 -1073.34 -2071 48 52 51
-363.424 -1072.54 -2070 49 53 52
-358.485 -1071.24 -2068 53 57 55
-353.729 -1070.45 -2067 54 57 54
-348.982 -1069.67 -2066 55 57 57
-344.408 -1069.41 -2066 55 57 57
-340.003 -1069.67 -2067 52 54 56
-334.947 -1067.86 -2064 55 59 58
-330.228 -1067.09 -2063 54 58 57
-325.99 -1067.88 -2065 52 56 55
-321.28 -1067.12 -2064 54 56 56
-316.884 -1067.4 -2065 55 57 57
-312.335 -1067.16 -2065 53 55 55
-307.789 -1066.93 -2065 54 58 53
-303.687 -1068.25 -2068 50 54 51
-299.14 -1068.03 -2068 47 51 48
-295.166 -1069.87 -2072 48 52 49
-290.757 -1070.17 -2073 50 54 49
-286.76 -1072.02 -2077 49 53 48
-282.613 -1073.35 -2080 50 51 44
-278.989 -1076.75 -2087 46 49 44
-275.075 -1079.12 -2092 43 46 43
-271.4 -1082.53 -2099 37 41 38
-268.078 -1087.49 -2109 36 37 34
-263.591 -1087.8 -2110 29 29 27
-258.979 -1087.61 -2110 30 26 27
-254.49 -1087.93 -2111 37 34 35
-249.526 -1086.2 -2108 44 41 42
-244.345 -1083.44 -2103 47 47 47
-239.986 -1084.29 -2105 48 48 48
-235.062 -1082.57 -2102 52 52 51
-230.372 -1081.88 -2101 51 51 49
-225.581 -1080.68 -2099 50 50 50
-220.906 -1080 -2098 49 49 48
-216.444 -1080.35 -2099 50 50 48
-211.677 -1079.16 -2097 50 53 50
-207.019 -1078.49 -2096 50 52 50
-202.367 -1077.82 -2095 49 51 51
-197.628 -1076.64 -2093 49 51 51
-192.991 -1075.99 -2092 51 53 53
-188.27 -1074.81 -2090 52 54 54
-183.911 -1075.7 -2092 51 53 53
-179.374 -1075.57 -2092 51 53 53
-175.257 -1078.01 -2097 52 54 54
-170.631 -1077.37 -2096 52 54 54
-166.328 -1078.78 -2099 53 55 55
-161.859 -1079.18 -2100 53 55 55
-157.163 -1078.03 -2098 52 54 54
-152.549 -1077.4 -2097 51 54 53
-148.365 -1079.86 -2102 52 56 54
-143.887 -1080.26 -2103 50 52 51
-139.671 -1082.73 -2108 46 47 47
-135.435 -1085.19 -2113 46 47 47
-130.93 -1085.61 -2114 47 49 47
-126.423 -1086.02 -2115 49 51 51
-121.739 -1084.91 -2113 50 52 52
-117.343 -1086.36 -2116 51 52 52
-113.041 -1088.84 -2121 50 53 52
-108.566 -1089.78 -2123 49 53 52
-104.181 -1091.76 -2127 49 53 52
-99.779 -1093.74 -2131 50 54 53
-95.1824 -1093.66 -2131 52 56 55
-90.5442 -1093.08 -2130 53 57 56
-86.0726 -1094.56 -2133 53 57 56
-81.6271 -1096.55 -2137 52 56 55
-77.0569 -1097 -2138 52 56 55
-72.517 -1097.97 -2140 51 55 54
-68.0327 -1099.97 -2144 48 52 51
-63.4134 -1099.92 -2144 48 50 50
-58.8496 -1100.9 -2146 50 52 52
-54.4547 -1105.48 -2155 50 51 51
-50.16 -1113.14 -2170 52 53 53
-467.675 -1121.97 -2143 52 53 53
-457.44 -1108.53 -2118 48 50 50
-451.383 -1105.04 -2112 45 49 47
-444.088 -1098.42 -2100 43 49 45
-437.898 -1094.42 -2093 44 50 46
-432.986 -1093.57 -2092 47 50 47
-428.082 -1092.72 -2091 47 49 49
-422.58 -1090.31 -2087 48 51 50
-418.301 -1091.03 -2089 47 51 50
-414.017 -1091.76 -2091 46 48 48
-408.945 -1090.4 -2089 46 49 48
-404.273 -1090.09 -2089 45 49 46
-398.84 -1087.7 -2085 43 47 44
-393.807 -1086.36 -2083 41 46 44
-387.853 -1082.41 -2076 43 49 47
-383.225 -1082.12 -2076 47 51 50
-377.872 -1079.74 -2072 47 51 50
-373.441 -1079.98 -2073 49 53 52
-368.476 -1078.66 -2071 48 52 51
-363.347 -1076.82 -2068 47 51 50
-358.582 -1076.02 -2067 47 51 50
-353.825 -1075.23 -2066 48 50 50
-349.076 -1074.45 -2065 51 53 53
-344.668 -1074.7 -2066 50 52 52
-339.436 -1072.36 -2062 48 50 52
-335.362 -1073.67 -2065 49 52 52
-330.477 -1072.38 -2063 49 53 52
-325.92 -1072.13 -2063 49 53 52
-321.366 -1071.89 -2063 50 52 52
-316.968 -1072.17 -2064 49 51 51
-312.418 -1071.93 -2064 49 51 51
-308.02 -1072.21 -2065 46 50 45
-303.915 -1073.54 -2068 46 50 46
-299.075 -1072.28 -2066 46 50 47
-295.103 -1074.13 -2070 47 51 48
-290.694 -1074.43 -2071 47 51 47
-286.561 -1075.76 -2074 48 52 47
-282.688 -1078.14 -2079 49 52 46
-278.797 -1080.53 -2084 47 50 46
-274.886 -1082.91 -2089 42 45 42
-271.474 -1087.37 -2098 39 42 39
-267.898 -1091.31 -2106 37 37 33
-263.663 -1092.67 -2109 30 28 25
-259.296 -1093.51 -2111 29 25 26
-254.922 -1094.35 -2113 35 32 33
-250.424 -1094.68 -2114 41 38 39
-244.877 -1090.35 -2106 44 44 44
-240.508 -1091.2 -2108 46 46 46
-235.909 -1091.03 -2108 48 48 48
-230.763 -1088.26 -2103 48 48 46
-225.857 -1086.54 -2100 48 48 48
-221.282 -1086.37 -2100 47 47 46
-216.605 -1085.69 -2099 47 47 45
-211.733 -1083.98 -2096 46 49 46
-207.272 -1084.34 -2097 47 50 48
-202.615 -1083.67 -2096 47 49 49
-197.681 -1081.45 -2092 48 50 50
-193.135 -1081.31 -2092 50 52 52
-188.32 -1079.61 -2089 50 52 52
-183.784 -1079.47 -2089 50 52 52
-179.594 -1081.4 -2093 51 53 53
-175.387 -1083.34 -2097 52 54 54
-170.921 -1083.73 -2098 52 54 54
-166.531 -1084.63 -2100 54 56 56
-161.979 -1084.51 -2100 52 54 54
-157.354 -1083.87 -2099 49 51 51
-152.808 -1083.76 -2099 48 51 49
-148.476 -1085.2 -2102 49 53 50
-144.268 -1087.67 -2107 50 50 48
-139.908 -1089.11 -2110 47 47 47
-135.792 -1092.62 -2117 46 46 46
-131.276 -1093.04 -2118 45 47 47
-126.637 -1092.43 -2117 49 49 49
-122.291 -1094.4 -2121 50 50 50
-117.874 -1095.85 -2124 51 51 51
-113.285 -1095.77 -2124 49 52 52
-108.851 -1097.23 -2127 50 54 53
-104.405 -1098.7 -2130 50 54 53
-99.8998 -1099.66 -2132 50 54 53
-95.253 -1099.07 -2131 51 55 54
-90.6539 -1099 -2131 53 57 56
-86.1768 -1100.48 -2134 54 58 57
-81.8405 -1104.03 -2141 53 57 56
-77.2583 -1104.48 -2142 55 58 57
-72.7065 -1105.46 -2144 55 58 57
-68.1149 -1105.92 -2145 49 52 51
-63.6973 -1109.48 -2152 47 49 49
-59.0031 -1108.41 -2150 48 50 50
-54.7732 -1116.61 -2166 50 51 51
-454.937 -1118.4 -2127 46 50 49
-445.275 -1105.96 -2104 45 49 47
-438.652 -1100.89 -2095 45 49 46
-433.731 -1100.03 -2094 49 52 49
-428.819 -1099.17 -2093 50 52 51
-422.7 -1095.17 -2086 50 52 52
-418.62 -1096.42 -2089 48 50 50
-414.531 -1097.68 -2092 46 48 48
-409.649 -1096.84 -2091 46 48 48
-404.775 -1096 -2090 45 48 47
-399.91 -1095.17 -2089 43 47 46
-394.296 -1092.25 -2084 42 47 46
-388.335 -1088.28 -2077 43 49 48
-383.332 -1086.94 -2075 47 51 50
-378.707 -1086.65 -2075 48 52 51
-373.906 -1085.84 -2074 49 53 52
-368.934 -1084.51 -2072 49 51 51
-364.326 -1084.23 -2072 46 50 49
-359.375 -1082.91 -2070 45 50 49
-354.951 -1083.16 -2071 47 49 49
-349.341 -1079.75 -2065 51 51 52
-344.929 -1080.01 -2066 52 51 52
-339.858 -1078.18 -2063 51 50 53
-335.454 -1078.45 -2064 49 51 52
-330.567 -1077.15 -2062 49 51 52
-326.325 -1077.95 -2064 48 51 48
-322.232 -1079.27 -2067 49 50 48
-317.362 -1077.98 -2065 49 51 48
-312.957 -1078.26 -2066 49 52 48
-308.552 -1078.55 -2067 47 50 42
-303.997 -1078.32 -2067 48 51 44
-299.881 -1079.65 -2070 48 51 46
-295.468 -1079.95 -2071 46 50 47
-291.195 -1080.77 -2073 49 52 49
-286.915 -1081.6 -2075 51 53 49
-283.038 -1083.99 -2080 53 54 48
-279.007 -1085.86 -2084 49 51 46
-274.83 -1087.21 -2087 44 47 44
-271.549 -1092.21 -2097 39 41 40
-267.972 -1096.18 -2105 40 38 37
-264.237 -1099.62 -2112 37 33 31
-260.352 -1102.55 -2118 30 31 34
-255.838 -1102.87 -2119 38 36 39
-250.968 -1101.64 -2117 43 40 43
-245.526 -1097.81 -2110 44 44 46
-240.574 -1096.07 -2107 47 46 46
-235.862 -1095.37 -2106 50 48 47
-231.046 -1094.15 -2104 46 46 44
-226.026 -1091.9 -2100 48 47 46
-221.237 -1090.69 -2098 48 47 45
-216.665 -1090.53 -2098 47 47 45
-211.994 -1089.85 -2097 46 48 47
-207.526 -1090.21 -2098 45 47 48
-202.96 -1090.05 -2098 44 48 52
-198.113 -1088.34 -2095 47 48 46
-193.28 -1086.64 -2092 49 50 49
-188.822 -1087.01 -2093 50 51 52
-184.098 -1085.83 -2091 50 50 50
-179.728 -1086.74 -2093 50 50 50
-175.519 -1088.68 -2097 50 50 50
-171.049 -1089.07 -2098 50 51 51
-166.655 -1089.98 -2100 52 52 52
-162.023 -1089.34 -2099 50 51 51
-157.622 -1090.26 -2101 45 47 47
-153.068 -1090.14 -2101 43 46 44
-148.799 -1092.1 -2105 45 48 45
-144.444 -1093.55 -2108 46 48 47
-140.145 -1095.52 -2112 46 46 46
-135.958 -1098.52 -2118 46 46 46
-131.436 -1098.94 -2119 48 48 48
-126.731 -1097.81 -2117 49 49 50
-122.383 -1099.79 -2121 50 50 52
-117.962 -1101.26 -2124 50 50 50
-113.53 -1102.72 -2127 51 53 53
-109.086 -1104.2 -2130 51 53 53
-104.728 -1106.71 -2135 50 54 53
-100.115 -1106.63 -2135 52 56 53
-95.5925 -1107.6 -2137 53 58 55
-90.9345 -1107.01 -2136 52 58 57
-86.4837 -1109.01 -2140 52 56 55
-82.2077 -1113.61 -2149 53 57 56
-77.7491 -1116.15 -2154 55 57 57
-73.134 -1116.61 -2155 53 55 55
-68.6741 -1119.66 -2161 50 52 52
-451.972 -1127.26 -2134 48 51 49
-441.295 -1112.13 -2106 47 51 48
-435.308 -1108.62 -2100 49 52 49
-429.354 -1105.12 -2094 51 53 52
-423.227 -1101.1 -2087 50 52 52
-419.342 -1102.89 -2091 51 53 53
-415.444 -1104.68 -2095 47 49 49
-410.551 -1103.83 -2094 46 48 48
-405.667 -1102.99 -2093 46 48 48
-400.216 -1100.57 -2089 45 49 48
-394.409 -1097.11 -2083 44 48 47
-388.819 -1094.17 -2078 42 47 46
-383.625 -1092.3 -2075 44 47 46
-378.449 -1090.43 -2072 47 50 50
-373.65 -1089.61 -2071 49 53 52
-368.859 -1088.8 -2070 49 52 51
-364.253 -1088.52 -2070 48 51 49
-359.302 -1087.19 -2068 47 50 48
-354.364 -1085.87 -2066 48 50 50
-349.268 -1084.02 -2063 50 51 52
-344.357 -1082.71 -2061 51 51 53
-339.787 -1082.44 -2061 49 51 56
-335.384 -1082.71 -2062 50 51 56
-330.818 -1082.46 -2062 52 54 58
-326.731 -1083.78 -2065 50 51 52
-322.322 -1084.06 -2066 52 52 50
-317.911 -1084.34 -2067 54 53 51
-313.195 -1083.57 -2066 51 51 49
-308.786 -1083.86 -2067 48 52 46
-304.523 -1084.68 -2069 50 53 47
-300.253 -1085.49 -2071 50 53 47
-295.692 -1085.27 -2071 48 52 48
-291.556 -1086.62 -2074 51 54 51
-287.133 -1086.92 -2075 53 54 51
-282.98 -1088.27 -2078 51 52 44
-279.487 -1092.25 -2086 48 50 43
-275.566 -1094.66 -2091 43 46 41
-271.884 -1098.11 -2098 40 43 40
-268.684 -1103.67 -2109 45 43 40
-265.189 -1108.17 -2118 53 47 44
-261.41 -1111.63 -2125 38 38 39
-256.878 -1111.96 -2126 41 38 39
-251.988 -1110.72 -2124 45 40 41
-246.527 -1106.87 -2117 43 43 46
-241.442 -1104.6 -2113 46 46 46
-236.601 -1103.37 -2111 48 47 46
-231.55 -1101.1 -2107 51 52 50
-226.412 -1098.32 -2102 52 51 49
-221.72 -1097.62 -2101 52 51 49
-217.138 -1097.46 -2101 49 50 47
-212.659 -1097.82 -2102 45 48 45
-208.079 -1097.66 -2102 44 48 46
-203.888 -1099.59 -2106 44 48 51
-198.924 -1097.35 -2102 47 47 45
-194.165 -1096.16 -2100 47 47 46
-189.506 -1095.49 -2099 48 49 50
-184.678 -1093.78 -2096 50 50 49
-180.036 -1093.12 -2095 50 50 49
-175.818 -1095.08 -2099 50 50 50
-171.259 -1094.95 -2099 50 50 50
-166.701 -1094.82 -2099 50 50 50
-162.3 -1095.74 -2101 50 50 50
-157.666 -1095.1 -2100 47 48 48
-153.329 -1096.54 -2103 47 49 47
-149.123 -1099.04 -2108 48 51 48
-144.759 -1100.49 -2111 47 49 49
-140.582 -1103.51 -2117 46 47 47
-136.445 -1107.05 -2124 47 47 47
-131.969 -1107.99 -2126 49 49 50
-127.246 -1106.85 -2124 50 50 52
-122.821 -1108.32 -2127 53 53 55
-118.551 -1111.36 -2133 53 53 53
-114.149 -1113.35 -2137 52 53 53
-109.732 -1115.35 -2141 51 53 53
-105.298 -1117.36 -2145 50 54 53
-100.847 -1119.36 -2149 51 54 51
-96.4701 -1122.41 -2155 51 55 53
-91.7695 -1121.82 -2154 48 54 53
-87.5596 -1127.48 -2165 48 52 51
-83.9537 -1142 -2193 51 55 54
-79.7219 -1149.23 -2207 54 56 56
-428.019 -1118.18 -2109 52 54 54
-423.68 -1118.91 -2111 52 54 54
-417.947 -1115.94 -2106 50 52 52
-412.634 -1114.03 -2103 47 49 49
-407.143 -1111.59 -2099 48 50 50
-401.675 -1109.16 -2095 47 51 50
-395.281 -1104.09 -2086 45 49 48
-389.68 -1101.14 -2081 46 50 49
-384.661 -1099.78 -2079 46 48 48
-379.288 -1097.37 -2075 46 48 48
-374.118 -1095.5 -2072 46 50 49
-369.499 -1095.21 -2072 45 49 48
-365.061 -1095.46 -2073 45 47 46
-359.404 -1092.01 -2067 46 45 43
-354.636 -1091.2 -2066 45 47 47
-349.875 -1090.4 -2065 48 51 51
-344.454 -1087.5 -2060 47 50 51
-339.718 -1086.71 -2059 45 49 54
-335.315 -1086.98 -2060 45 49 54
-331.072 -1087.78 -2062 47 51 57
-326.823 -1088.58 -2064 48 49 53
-322.412 -1088.86 -2065 51 51 53
-318.154 -1089.66 -2067 51 51 52
-313.89 -1090.48 -2069 49 49 49
-309.62 -1091.29 -2071 47 52 50
-304.608 -1089.48 -2068 47 52 49
-300.628 -1091.35 -2072 50 53 49
-296.49 -1092.7 -2075 49 52 47
-292.201 -1093.53 -2077 50 53 48
-288.044 -1094.89 -2080 51 54 49
-283.877 -1096.25 -2083 49 50 42
-279.834 -1098.14 -2087 47 49 41
-276.039 -1101.08 -2093 42 45 38
-272.351 -1104.56 -2100 39 43 38
-269.526 -1111.71 -2114 46 45 40
-266.518 -1118.34 -2127 74 67 62
-263.332 -1124.45 -2139 80 72 66
-259.008 -1125.83 -2142 57 48 42
-253.129 -1120.38 -2132 52 44 38
-247.297 -1114.93 -2122 48 46 47
-241.854 -1111.07 -2115 49 49 48
-237.005 -1109.83 -2113 51 51 49
-231.946 -1107.55 -2109 52 52 49
-226.908 -1105.28 -2105 54 53 51
-222.311 -1105.11 -2105 54 54 52
-217.82 -1105.47 -2106 51 54 50
-213.327 -1105.83 -2107 47 50 47
-209.029 -1107.24 -2110 46 49 47
-204.624 -1108.13 -2112 46 48 50
-199.927 -1107.45 -2111 49 49 48
-195.33 -1107.3 -2111 48 49 47
-190.734 -1107.16 -2111 47 50 50
-185.523 -1103.34 -2104 48 49 48
-181.032 -1103.73 -2105 50 51 50
-176.622 -1104.64 -2107 53 53 53
-172.042 -1104.51 -2107 53 53 53
-167.225 -1102.81 -2104 53 53 53
-162.732 -1103.21 -2105 52 51 51
-158.161 -1103.09 -2105 50 50 50
-153.591 -1102.97 -2105 51 52 51
-149.094 -1103.38 -2106 52 53 51
-144.8 -1105.36 -2110 50 51 51
-141.021 -1111.54 -2122 48 48 48
-137.063 -1116.67 -2132 46 46 46
-132.939 -1120.76 -2140 49 49 51
-128.361 -1121.18 -2141 52 52 54
-124.185 -1125.28 -2149 54 54 56
-119.92 -1128.85 -2156 52 52 53
-115.519 -1131.38 -2161 52 53 54
-422.641 -1133.13 -2128 52 53 53
-417.077 -1130.67 -2124 49 51 51
-410.953 -1126.62 -2117 48 50 50
-405.248 -1123.64 -2112 47 50 50
-398.242 -1116.95 -2100 45 49 48
-391.668 -1111.32 -2090 45 49 48
-386.254 -1108.9 -2086 47 49 49
-380.496 -1105.41 -2080 47 49 49
-374.949 -1102.46 -2075 46 50 49
-370.677 -1103.23 -2077 46 50 49
-365.519 -1101.36 -2074 46 48 47
-360.377 -1099.48 -2071 46 45 44
-355.081 -1097.08 -2067 43 45 45
-350.145 -1095.75 -2065 43 47 48
-344.552 -1092.3 -2059 41 47 48
-340.64 -1094.15 -2063 41 47 49
-335.899 -1093.36 -2062 43 50 53
-331.327 -1093.1 -2062 44 51 55
-327.708 -1096.03 -2068 44 50 52
-322.816 -1094.72 -2066 45 50 51
-319.169 -1097.65 -2072 46 50 50
-314.131 -1095.82 -2069 44 48 47
-310.307 -1098.23 -2074 46 49 49
-305.431 -1096.93 -2072 45 49 48
-301.149 -1097.75 -2074 48 50 48
-297.003 -1099.11 -2077 49 49 45
-292.706 -1099.94 -2079 50 50 46
-288.404 -1100.78 -2081 50 49 46
-284.913 -1104.79 -2089 49 52 46
-280.585 -1105.63 -2091 48 51 45
-276.383 -1107 -2094 45 49 42
-272.819 -1111.02 -2102 44 47 43
-270.116 -1118.74 -2117 52 51 47
-266.973 -1124.87 -2129 93 85 80
-264.273 -1133.12 -2145 108 93 80
-259.569 -1132.92 -2145 88 72 60
-253.917 -1128.5 -2137 72 56 45
-248.419 -1124.61 -2130 59 53 47
-242.954 -1120.73 -2123 60 54 48
-237.635 -1117.38 -2117 54 50 43
-232.894 -1116.67 -2116 58 50 48
-227.944 -1114.91 -2113 57 52 49
-223.115 -1113.68 -2111 58 54 51
-218.607 -1114.04 -2112 52 54 52
-214.098 -1114.4 -2113 49 52 52
-210.081 -1117.4 -2119 47 50 51
-205.653 -1118.3 -2121 49 51 50
-201.122 -1118.67 -2122 50 53 50
-196.775 -1120.1 -2125 49 53 50
-192.688 -1123.11 -2131 48 52 53
-187.252 -1118.23 -2122 49 52 52
-182.203 -1115.45 -2117 50 52 51
-177.428 -1114.26 -2115 53 53 53
-172.908 -1114.65 -2116 55 55 55
-167.67 -1110.31 -2108 55 53 54
-163.01 -1109.66 -2107 54 51 52
-158.732 -1111.64 -2111 51 51 51
-154.438 -1113.63 -2115 52 52 51
-149.703 -1112.46 -2113 52 52 50
-412.093 -1147.32 -2146 47 49 49
-403.676 -1136.84 -2127 46 48 48
-397.412 -1132.26 -2119 44 48 47
-390.075 -1124.47 -2105 46 49 48
-382.988 -1117.22 -2092 48 50 50
-377.229 -1113.72 -2086 48 50 50
-372.572 -1113.43 -2086 47 49 49
-366.155 -1107.81 -2076 49 51 52
-361.005 -1105.92 -2073 52 54 56
-355.872 -1104.05 -2070 50 54 55
-350.586 -1101.64 -2066 47 52 52
-345.321 -1099.23 -2062 43 49 48
-341.234 -1100.57 -2065 42 48 46
