ply
format ascii 1.0
comment Created by Open3D
element vertex 1458
property double x
property double y
property double z
property uchar red
property uchar green
property uchar blue
end_header
-137.259 -662.97 -2108 50 56 56
-133.174 -664.169 -2112 49 55 55
-129.075 -665.37 -2116 48 54 54
-124.96 -666.572 -2120 48 54 55
-120.659 -666.833 -2121 48 54 55
-116.3 -666.781 -2121 49 55 56
-112.153 -667.989 -2125 49 55 56
-107.94 -668.884 -2128 49 55 56
-104.007 -671.667 -2137 49 55 56
-100.039 -674.451 -2146 49 55 56
-96.2126 -678.493 -2159 50 56 57
-92.7163 -685.366 -2181 47 55 55
-467.076 -694.716 -2163 52 56 55
-459.869 -690.654 -2151 50 55 54
-453.14 -687.238 -2141 48 54 53
-446.667 -684.146 -2132 47 53 52
-440.445 -681.38 -2124 46 52 50
-433.851 -677.975 -2114 45 52 48
-428.115 -675.857 -2108 47 55 53
-422.208 -673.422 -2101 47 55 53
-417.329 -672.593 -2099 45 53 51
-411.675 -670.484 -2093 46 54 52
-407.023 -669.98 -2092 45 53 51
-401.61 -668.197 -2087 45 53 51
-396.982 -667.698 -2086 48 56 54
-392.363 -667.201 -2085 48 56 54
-387.193 -665.746 -2081 48 56 54
-383.147 -666.214 -2083 48 54 53
-378.732 -666.043 -2083 48 54 53
-374.5 -666.194 -2084 48 54 53
-370.268 -666.347 -2085 48 54 53
-365.859 -666.183 -2085 50 56 55
-361.626 -666.339 -2086 50 56 55
-357.393 -666.498 -2087 51 57 56
-352.99 -666.34 -2087 54 58 57
-348.589 -666.183 -2087 52 58 57
-344.686 -666.986 -2090 48 54 53
-341.1 -668.429 -2095 43 49 48
-337.013 -668.916 -2097 41 47 46
-333.079 -669.723 -2100 41 47 46
-329.136 -670.532 -2103 42 48 47
-325.029 -671.024 -2105 41 47 46
-321.068 -671.837 -2108 41 47 46
-316.947 -672.332 -2110 44 50 49
-312.969 -673.148 -2113 43 49 48
-308.835 -673.647 -2115 40 46 45
-305.559 -676.058 -2123 41 45 44
-301.969 -677.834 -2129 41 45 44
-298.216 -679.292 -2134 40 44 43
-294.583 -681.07 -2140 38 42 43
-291.062 -683.168 -2147 35 39 40
-286.981 -683.994 -2150 32 35 41
-282.891 -684.823 -2153 23 26 32
-278.402 -684.698 -2153 23 26 32
-273.788 -684.258 -2152 31 34 40
-269.181 -683.82 -2151 33 36 42
-264.211 -682.43 -2147 35 37 43
-259.502 -681.679 -2145 34 37 43
-254.447 -679.976 -2140 37 40 46
-249.532 -678.594 -2136 38 41 47
-244.865 -677.849 -2134 40 43 49
-239.645 -675.519 -2127 42 45 51
-234.899 -674.461 -2124 45 47 51
-230.058 -673.088 -2120 47 49 53
-225.343 -672.035 -2117 47 49 53
-220.746 -671.302 -2115 44 50 53
-216.672 -672.158 -2118 44 50 52
-212.085 -671.429 -2116 44 50 51
-207.607 -671.019 -2115 49 51 53
-203.326 -671.245 -2116 47 50 51
-198.762 -670.522 -2114 45 49 50
-194.299 -670.119 -2113 45 49 50
-189.662 -669.083 -2110 47 51 52
-185.303 -669 -2110 48 52 53
-180.86 -668.602 -2109 46 50 51
-176.255 -667.573 -2106 44 48 49
-171.908 -667.496 -2106 43 47 47
-167.404 -666.787 -2104 48 52 52
-162.833 -665.764 -2101 52 56 56
-158.577 -666.01 -2102 49 55 56
-154.244 -665.941 -2102 49 56 57
-149.984 -666.191 -2103 47 54 57
-145.653 -666.126 -2103 47 55 56
-141.725 -667.964 -2109 50 57 57
-137.384 -667.902 -2109 50 56 55
-133.232 -668.793 -2112 48 54 53
-129.131 -670.002 -2116 46 52 52
-124.955 -670.896 -2119 46 52 53
-120.598 -670.842 -2119 48 54 55
-116.351 -671.423 -2121 49 55 56
-112.255 -672.956 -2126 50 56 57
-107.987 -673.54 -2128 50 56 57
-104.004 -676.026 -2136 48 54 55
-100.129 -679.462 -2147 49 55 56
-96.2992 -683.533 -2160 49 55 56
-92.8418 -690.77 -2183 48 56 56
-467.288 -699.535 -2163 53 57 56
-459.221 -694.15 -2147 50 55 54
-452.71 -691.034 -2138 47 53 52
-446.45 -688.244 -2130 46 52 51
-440.852 -686.427 -2125 47 53 51
-434.252 -682.999 -2115 45 52 48
-428.308 -680.544 -2108 46 54 52
-422.399 -678.091 -2101 46 54 52
-417.318 -676.933 -2098 46 54 52
-411.861 -675.132 -2093 46 54 52
-406.428 -673.335 -2088 46 54 52
-401.791 -672.83 -2087 48 56 54
-397.161 -672.326 -2086 48 56 54
-392.728 -672.148 -2086 48 56 54
-388.484 -672.294 -2087 48 56 54
-384.055 -672.12 -2087 48 54 52
-379.63 -671.948 -2087 49 53 52
-375.388 -672.099 -2088 48 54 53
-371.145 -672.253 -2089 48 54 53
-366.55 -671.765 -2088 48 54 53
-362.482 -672.244 -2090 48 54 53
-358.067 -672.082 -2090 49 55 54
-353.317 -671.279 -2088 52 56 55
-349.246 -671.764 -2090 52 57 56
-345.501 -672.893 -2094 51 57 56
-340.927 -672.418 -2093 47 53 52
-336.842 -672.908 -2095 45 51 50
-332.911 -673.722 -2098 44 50 49
-329.283 -675.178 -2103 43 49 48
-325.328 -675.995 -2106 42 48 47
-321.211 -676.492 -2108 42 48 47
-317.84 -678.595 -2115 43 49 48
-313.405 -678.453 -2115 43 48 47
-310.142 -680.88 -2123 40 45 44
-306.128 -681.704 -2126 39 42 42
-302.387 -683.171 -2131 41 44 44
-298.768 -684.96 -2137 40 44 43
-295.127 -686.75 -2143 36 38 39
-291.056 -687.58 -2146 35 37 39
-287.51 -689.694 -2153 33 35 41
-283.279 -690.207 -2155 23 27 32
-279.043 -690.722 -2157 22 28 33
-274.292 -689.958 -2155 33 36 42
-269.927 -690.157 -2156 37 39 45
-264.944 -688.757 -2152 36 38 44
-259.496 -686.08 -2144 36 39 45
-254.322 -684.046 -2138 38 41 47
-249.526 -682.974 -2135 37 40 46
-244.629 -681.584 -2131 38 41 47
-239.751 -680.197 -2127 43 46 52
-235.003 -679.132 -2124 44 47 51
-230.16 -677.75 -2120 45 48 51
-225.869 -677.968 -2121 46 49 52
-221.262 -677.229 -2119 45 49 50
-216.972 -677.452 -2120 45 50 51
-212.48 -677.037 -2119 46 51 52
-207.797 -675.985 -2116 46 48 50
-203.32 -675.574 -2115 47 49 51
-198.944 -675.485 -2115 47 51 52
-194.293 -674.439 -2112 48 52 53
-189.926 -674.354 -2112 50 54 55
-185.736 -674.909 -2114 50 54 55
-181.111 -673.87 -2111 46 50 51
-176.584 -673.152 -2109 45 49 50
-172.229 -673.075 -2109 45 49 48
-167.717 -672.361 -2107 47 51 50
-162.982 -670.693 -2102 50 54 54
-158.647 -670.622 -2102 50 56 57
-154.239 -670.233 -2101 49 55 56
-150.051 -670.804 -2103 50 56 57
-145.717 -670.738 -2103 50 56 57
-141.586 -671.631 -2106 50 56 57
-137.379 -672.208 -2108 48 54 53
-133.228 -673.104 -2111 49 55 55
-129.127 -674.321 -2115 49 55 56
-124.833 -674.584 -2116 48 54 55
-120.651 -675.486 -2119 48 54 55
-116.292 -675.434 -2119 47 53 54
-112.199 -676.977 -2124 48 54 55
-108.035 -678.203 -2128 49 55 56
-104.05 -680.706 -2136 50 56 57
-100.267 -684.804 -2149 51 57 58
-96.5201 -689.54 -2164 49 55 56
-93.0104 -696.508 -2186 50 58 58
-466.853 -703.382 -2160 52 57 56
-458.147 -696.984 -2141 48 54 53
-451.433 -693.521 -2131 46 52 51
-445.186 -690.713 -2123 46 52 51
-439.185 -688.234 -2116 47 53 52
-434.039 -687.059 -2113 46 54 52
-428.097 -684.586 -2106 47 54 53
-422.993 -683.417 -2103 47 54 52
-418.105 -682.575 -2101 45 53 51
-412.048 -679.787 -2093 45 53 51
-406.613 -677.977 -2088 47 55 53
-401.78 -677.143 -2086 48 56 54
-396.96 -676.312 -2084 48 56 54
-393.094 -677.106 -2087 47 55 53
-388.101 -675.955 -2084 48 56 54
-384.229 -676.753 -2087 49 55 53
-379.438 -675.931 -2085 50 54 53
-375.737 -677.056 -2089 49 55 54
-371.668 -677.535 -2091 49 55 54
-367.593 -678.015 -2093 49 55 54
-364.034 -679.469 -2098 48 54 53
-359.086 -678.333 -2095 46 52 51
-354.492 -677.848 -2094 47 53 52
-349.905 -677.364 -2093 50 56 55
-345.821 -677.854 -2095 51 57 56
-341.569 -678.022 -2096 49 57 55
-337.155 -677.869 -2096 49 55 54
-332.902 -678.041 -2097 49 55 54
-329.275 -679.507 -2102 47 52 51
-324.856 -679.36 -2102 44 50 49
-321.356 -681.153 -2108 43 49 48
-317.682 -682.624 -2113 42 50 48
-314.139 -684.42 -2119 42 49 47
-310.427 -685.894 -2124 39 44 43
-306.265 -686.401 -2126 39 43 42
-302.807 -688.523 -2133 40 44 43
-299.182 -690.324 -2139 41 45 44
-295.673 -692.449 -2146 37 39 40
-291.594 -693.285 -2149 35 37 39
-287.772 -694.767 -2154 31 33 38
-283.669 -695.606 -2157 23 26 32
-279.556 -696.447 -2160 21 24 31
-274.669 -695.355 -2157 34 36 43
-270.298 -695.555 -2158 38 40 47
-265.186 -693.823 -2153 39 41 48
-260.339 -692.739 -2150 37 40 46
-254.793 -689.724 -2141 39 42 48
-249.988 -688.644 -2138 41 44 50
-244.968 -686.923 -2133 40 43 49
-239.971 -685.204 -2128 42 45 51
-235.218 -684.131 -2125 41 46 49
-230.48 -683.061 -2122 42 47 50
-226.076 -682.959 -2122 41 45 48
-221.361 -681.893 -2119 44 49 51
-217.069 -682.117 -2120 45 50 52
-212.574 -681.699 -2119 47 51 53
-208.086 -681.283 -2118 46 48 50
-203.603 -680.87 -2117 46 48 50
-199.315 -681.101 -2118 44 49 49
-194.656 -680.048 -2115 45 50 51
-190.28 -679.962 -2115 45 50 51
-185.556 -678.592 -2111 45 49 51
-181.106 -678.189 -2110 45 49 51
-176.579 -677.466 -2108 45 49 50
-171.979 -676.424 -2105 46 50 50
-167.473 -675.706 -2103 49 53 54
-163.055 -675.311 -2102 50 54 55
-158.642 -674.918 -2101 48 54 55
-154.087 -673.884 -2098 49 55 56
-149.975 -674.78 -2101 50 56 57
-145.643 -674.714 -2101 51 57 58
-141.447 -675.292 -2103 50 56 57
-137.245 -675.872 -2105 49 55 55
-133.035 -676.454 -2107 50 56 57
-128.818 -677.038 -2109 49 55 56
-124.535 -677.303 -2110 48 54 55
-120.59 -679.495 -2117 47 53 54
-116.289 -679.763 -2118 47 53 54
-112.354 -682.279 -2126 47 53 54
-108.184 -683.514 -2130 47 53 54
-104.291 -686.676 -2140 49 55 56
-100.451 -690.481 -2152 49 55 56
-96.5183 -693.966 -2163 52 58 59
-93.0517 -701.303 -2186 51 58 59
-467.932 -709.518 -2164 53 59 58
-459.642 -703.731 -2147 50 56 55
-452.488 -699.588 -2135 48 54 53
-446.02 -696.433 -2126 45 51 50
-440.217 -694.263 -2120 46 53 51
-434.649 -692.425 -2115 46 54 52
-428.09 -688.953 -2105 46 52 51
-423.187 -688.103 -2103 46 52 51
-417.5 -685.947 -2097 45 53 51
-412.433 -684.775 -2094 45 53 51
-406.604 -682.298 -2087 46 54 52
-401.964 -681.786 -2086 47 55 53
-397.523 -681.603 -2086 47 55 53
-393.273 -681.748 -2087 48 56 54
-389.396 -682.549 -2090 48 56 54
-384.588 -681.719 -2088 47 54 52
-380.339 -681.87 -2089 49 54 53
-376.268 -682.35 -2091 49 55 54
-371.659 -681.852 -2090 49 55 54
-368.112 -683.314 -2095 49 55 54
-363.679 -683.147 -2095 48 54 53
-359.592 -683.634 -2097 46 52 51
-354.653 -682.493 -2094 45 53 51
-350.065 -682.007 -2093 48 55 53
-345.648 -681.848 -2093 50 56 55
-341.072 -681.366 -2092 48 56 54
-337.147 -682.188 -2095 47 54 53
-333.371 -683.338 -2099 48 54 53
-328.954 -683.187 -2099 48 53 52
-325.622 -685.317 -2106 43 49 48
-321.807 -686.471 -2110 41 47 46
-318.428 -688.602 -2117 42 50 48
-314.133 -688.784 -2118 40 48 46
-310.568 -690.593 -2124 38 44 43
-307.412 -693.379 -2133 37 43 42
-302.944 -693.24 -2133 37 43 42
-298.758 -693.754 -2135 38 42 41
-295.531 -696.543 -2144 37 39 40
-292.133 -699.009 -2152 34 36 38
-287.368 -698.228 -2150 32 34 38
-284.06 -701.021 -2159 27 29 34
-280.2 -702.516 -2164 22 24 31
-275.303 -701.417 -2161 30 32 39
-270.796 -701.293 -2161 33 35 42
-265.675 -699.549 -2156 33 36 43
-260.093 -696.511 -2147 35 38 44
-255.146 -695.096 -2143 37 40 46
-249.75 -692.388 -2135 38 41 47
-245.308 -692.276 -2135 38 41 47
-240.079 -689.897 -2128 39 42 48
-235.656 -689.789 -2128 39 45 48
-230.801 -688.388 -2124 40 45 48
-226.178 -687.636 -2122 42 46 49
-221.669 -687.211 -2121 44 50 53
-217.474 -687.76 -2123 45 50 53
-212.77 -686.691 -2120 46 50 52
-208.278 -686.273 -2119 46 50 51
-203.887 -686.18 -2119 45 50 50
-199.404 -685.765 -2118 44 49 48
-194.743 -684.705 -2115 43 49 49
-190.366 -684.618 -2115 43 49 50
-185.902 -684.21 -2114 45 49 52
-181.273 -683.157 -2111 46 50 52
-176.909 -683.076 -2111 47 51 52
-172.383 -682.35 -2109 47 51 52
-168.026 -682.274 -2109 49 53 54
-163.438 -681.229 -2106 51 55 56
-158.713 -679.539 -2101 48 53 54
-154.303 -679.145 -2100 47 53 54
-149.899 -678.753 -2099 48 54 55
-145.708 -679.334 -2101 50 56 57
-141.443 -679.593 -2102 52 58 59
-137.241 -680.177 -2104 49 55 56
-132.905 -680.116 -2104 48 54 55
-128.814 -681.35 -2108 47 53 54
-124.649 -682.263 -2111 49 55 56
-120.53 -683.501 -2115 49 55 56
-116.286 -684.094 -2117 48 54 55
-112.51 -687.597 -2128 48 54 55
-108.385 -689.163 -2133 47 53 54
-104.484 -692.346 -2143 47 53 54
-100.356 -694.238 -2149 49 55 56
-96.4721 -698.071 -2161 53 59 60
-92.9229 -704.812 -2182 52 58 59
-468.798 -715.349 -2167 52 58 57
-460.283 -709.192 -2149 50 56 55
-452.697 -704.36 -2135 49 55 54
-446.226 -701.183 -2126 47 53 52
-440.42 -698.999 -2120 46 53 52
-435.055 -697.477 -2116 47 55 53
-428.694 -694.311 -2107 45 52 50
-423.784 -693.455 -2105 45 51 50
-418.091 -691.284 -2099 45 53 51
-412.82 -689.774 -2095 45 53 51
-407.766 -688.597 -2092 46 54 52
-402.727 -687.422 -2089 46 54 52
-398.278 -687.237 -2089 47 54 53
-393.831 -687.055 -2089 49 55 54
-389.202 -686.545 -2088 48 54 53
-384.581 -686.038 -2087 47 53 52
-379.967 -685.533 -2086 46 52 51
-376.081 -686.345 -2089 47 53 52
-371.652 -686.172 -2089 48 54 53
-368.105 -687.644 -2094 47 53 52
-364.019 -688.133 -2096 46 52 51
-359.757 -688.294 -2097 46 52 51
-354.816 -687.146 -2094 46 54 52
-350.392 -686.984 -2094 48 55 54
-345.972 -686.824 -2094 49 55 54
-341.554 -686.666 -2094 47 53 52
-337.623 -687.494 -2097 49 55 54
-334 -688.979 -2102 51 57 56
-329.888 -689.482 -2104 48 54 53
-325.771 -689.987 -2106 42 48 47
-322.259 -691.804 -2112 41 47 46
-318.573 -693.295 -2117 40 47 45
-314.721 -694.46 -2121 37 43 42
-310.856 -695.627 -2125 37 43 42
-306.976 -696.795 -2129 37 43 42
-302.655 -696.982 -2130 36 42 41
-299.174 -699.135 -2137 36 40 39
-295.665 -701.289 -2144 35 37 38
-292.673 -704.753 -2155 33 35 37
-288.836 -706.255 -2160 34 36 40
-284.584 -706.778 -2162 29 31 36
-280.198 -706.976 -2163 20 22 29
-275.683 -706.849 -2163 29 32 39
-271.044 -706.398 -2162 32 35 42
-265.919 -704.642 -2157 32 35 42
-260.938 -703.215 -2153 36 39 45
-255.5 -700.485 -2145 37 40 46
-250.214 -698.084 -2138 38 41 47
-245.534 -697.318 -2136 38 41 47
-240.414 -695.249 -2130 39 42 48
-235.763 -694.488 -2128 39 45 48
-231.015 -693.403 -2125 41 46 49
-226.493 -692.973 -2124 44 48 51
-221.769 -691.892 -2121 46 50 51
-217.572 -692.445 -2123 45 49 50
-213.067 -692.021 -2122 44 48 49
-208.765 -692.251 -2123 45 49 50
-204.268 -691.831 -2122 45 49 50
-199.871 -691.74 -2122 44 49 48
-194.923 -689.694 -2116 43 48 48
-190.452 -689.281 -2115 42 48 49
-186.074 -689.196 -2115 46 50 53
-181.527 -688.461 -2113 47 51 53
-176.905 -687.402 -2110 49 53 54
-172.379 -686.671 -2108 46 50 51
-168.182 -687.246 -2110 47 51 52
-163.357 -685.216 -2104 50 54 55
-158.86 -684.492 -2102 46 52 53
-154.446 -684.096 -2101 47 53 54
-150.038 -683.701 -2100 48 54 55
-145.635 -683.309 -2099 50 56 57
-141.372 -683.569 -2100 52 58 59
-137.237 -684.483 -2103 48 54 55
-132.775 -683.771 -2101 48 54 55
-128.75 -685.339 -2106 47 53 54
-124.469 -685.607 -2107 47 53 54
-120.357 -686.853 -2111 49 55 56
-116.393 -689.077 -2118 48 54 55
-112.614 -692.604 -2129 47 53 54
-108.485 -694.18 -2134 46 52 53
-104.336 -695.759 -2139 47 53 54
-100.448 -699.29 -2150 51 57 58
-96.4261 -702.173 -2159 52 58 59
-92.709 -707.66 -2176 50 56 57
-470.531 -722.528 -2174 52 58 57
-461.783 -715.997 -2155 48 54 53
-453.333 -709.803 -2137 48 54 53
-446.643 -706.272 -2127 48 54 53
-441.041 -704.404 -2122 47 53 52
-435.463 -702.54 -2117 47 55 53
-429.097 -699.352 -2108 45 52 51
-423.78 -697.827 -2104 46 52 51
-418.085 -695.641 -2098 45 53 51
-413.209 -694.784 -2096 45 53 51
-407.955 -693.267 -2092 46 54 52
-403.686 -693.41 -2093 47 55 53
-399.034 -692.892 -2092 47 55 53
-394.014 -691.714 -2089 48 54 53
-389.755 -691.863 -2090 46 54 52
-384.574 -690.359 -2086 47 54 52
-380.143 -690.181 -2086 46 52 51
-375.895 -690.337 -2087 45 51 50
-371.468 -690.164 -2087 47 53 52
-367.396 -690.654 -2089 47 53 52
-363.666 -691.807 -2093 47 53 52
-359.408 -691.969 -2094 46 52 51
-354.471 -690.813 -2091 47 55 53
-350.888 -692.302 -2096 49 55 54
-346.296 -691.81 -2095 47 53 52
-342.201 -692.311 -2097 48 54 53
-337.939 -692.484 -2098 50 56 55
-334.153 -693.649 -2102 50 56 55
-330.667 -695.475 -2108 48 54 53
-326.54 -695.984 -2110 44 50 49
-322.407 -696.493 -2112 43 49 48
-319.171 -698.984 -2120 41 47 46
-315.46 -700.485 -2125 38 44 43
-311.437 -701.33 -2128 37 43 42
-307.117 -701.517 -2129 35 41 40
-303.079 -702.365 -2132 35 41 40
-299.171 -703.544 -2136 35 39 38
-295.663 -705.712 -2143 35 37 38
-292.536 -708.87 -2153 36 37 39
-288.834 -710.712 -2159 34 36 40
-284.846 -711.896 -2163 27 29 35
-280.585 -712.425 -2165 20 22 29
-276.064 -712.297 -2165 29 32 39
-271.293 -711.513 -2163 32 35 42
-266.287 -710.074 -2159 34 37 44
-260.572 -706.665 -2149 37 40 46
-255.974 -706.218 -2148 38 41 47
-250.328 -702.814 -2138 40 43 49
-245.761 -702.371 -2137 40 43 49
-240.749 -700.617 -2132 41 44 50
-236.203 -700.179 -2131 38 44 47
-231.229 -698.429 -2126 40 46 49
-227.024 -698.981 -2128 43 47 50
-222.184 -697.565 -2124 45 49 50
-217.876 -697.792 -2125 45 49 50
-213.365 -697.365 -2124 44 48 49
-208.959 -697.269 -2124 45 49 50
-204.265 -696.19 -2121 46 50 51
-199.868 -696.097 -2121 45 49 48
-195.196 -695.022 -2118 42 46 47
-190.448 -693.622 -2114 41 46 47
-185.807 -692.552 -2111 46 50 52
-181.18 -691.484 -2108 48 52 53
-177.237 -693.042 -2113 48 52 53
-172.785 -692.634 -2112 45 49 50
-168.338 -692.228 -2111 47 51 52
-163.819 -691.497 -2109 50 54 55
-159.083 -689.784 -2104 47 53 54
-154.663 -689.385 -2103 48 54 55
-150.035 -688.004 -2099 48 54 55
-145.91 -688.92 -2102 50 56 57
-141.639 -689.182 -2103 51 57 58
-137.43 -689.774 -2105 48 54 55
-133.088 -689.712 -2105 48 54 55
-128.931 -690.635 -2108 47 53 54
-124.703 -691.233 -2110 46 52 53
-120.582 -692.487 -2114 49 55 56
-116.721 -695.381 -2123 49 55 56
-112.77 -697.95 -2131 47 53 54
-108.737 -700.192 -2138 47 53 54
-104.578 -701.781 -2143 49 55 56
-100.634 -705.008 -2153 53 59 60
-96.5145 -707.256 -2160 52 58 59
-92.7511 -712.451 -2176 50 56 57
-471.402 -728.408 -2177 51 57 56
-462.429 -721.497 -2157 46 52 51
-453.757 -714.927 -2138 47 53 52
-447.273 -711.706 -2129 48 54 53
-441.455 -709.492 -2123 47 53 52
-435.255 -706.612 -2115 47 55 53
-429.298 -704.071 -2108 47 54 52
-423.777 -702.201 -2103 46 52 51
-418.281 -700.334 -2098 44 52 50
-413.402 -699.471 -2096 45 53 51
-408.145 -697.944 -2092 47 55 53
-403.681 -697.754 -2092 48 56 54
-399.411 -697.899 -2093 47 55 53
-394.386 -696.713 -2090 45 53 51
-389.75 -696.196 -2089 45 53 51
-384.385 -694.349 -2084 46 54 52
-379.955 -694.17 -2084 46 52 51
-375.889 -694.66 -2086 45 51 50
-371.462 -694.485 -2086 46 52 51
-367.743 -695.644 -2090 48 54 53
-363.661 -696.139 -2092 48 54 53
-359.575 -696.636 -2094 46 52 51
-355.144 -696.469 -2094 47 55 53
-351.051 -696.97 -2096 49 56 54
-346.788 -697.14 -2097 50 56 55
-342.686 -697.644 -2099 50 56 55
-338.902 -698.815 -2103 49 55 54
-334.785 -699.323 -2105 48 54 53
-330.507 -699.5 -2106 45 51 50
-327.001 -701.34 -2112 43 49 48
-323.778 -703.845 -2120 42 48 47
-319.922 -705.023 -2124 42 48 47
-316.051 -706.203 -2128 39 45 44
-311.874 -706.721 -2130 37 43 42
-307.836 -707.573 -2133 37 42 41
-303.219 -707.1 -2132 35 41 40
-299.309 -708.286 -2136 35 39 38
-296.213 -711.464 -2146 36 39 39
-293.35 -715.305 -2158 38 39 41
-289.235 -716.165 -2161 35 37 41
-285.241 -717.357 -2165 28 30 35
-280.715 -717.226 -2165 20 22 28
-276.063 -716.767 -2164 27 30 37
-271.167 -715.646 -2161 30 33 40
-266.78 -715.853 -2162 32 35 42
-261.42 -713.413 -2155 35 38 44
-256.092 -710.977 -2148 37 40 46
-251.498 -710.528 -2147 40 43 49
-246.45 -708.759 -2142 40 43 49
-241.312 -706.661 -2136 40 43 49
-236.423 -705.228 -2132 39 45 47
-231.553 -703.797 -2128 41 46 49
-226.808 -702.699 -2125 43 47 49
-222.182 -701.934 -2123 44 48 49
-218.079 -702.825 -2126 43 47 48
-213.363 -701.733 -2123 43 47 48
-209.054 -701.967 -2124 45 49 50
-204.551 -701.541 -2123 45 49 49
-199.865 -700.457 -2120 43 47 46
-195.286 -699.705 -2118 42 46 47
-190.716 -698.956 -2116 44 48 49
-186.333 -698.869 -2116 46 50 51
-181.349 -696.472 -2109 47 51 52
-177.235 -697.381 -2112 46 50 51
-172.455 -695.649 -2107 45 49 50
-168.176 -695.901 -2108 46 50 51
-163.661 -695.165 -2106 50 54 55
-159.08 -694.101 -2103 49 55 56
-154.661 -693.699 -2102 49 55 56
-150.103 -692.638 -2099 49 55 56
-146.046 -693.891 -2103 50 56 57
-141.636 -693.495 -2102 51 57 58
-137.493 -694.42 -2105 49 55 56
-133.149 -694.358 -2105 48 54 55
-128.99 -695.287 -2108 48 54 55
-124.937 -696.878 -2113 46 52 53
-120.751 -697.811 -2116 48 54 55
-116.774 -700.065 -2123 49 55 56
-112.716 -701.991 -2129 46 52 53
-108.787 -704.908 -2138 46 52 53
-104.626 -706.507 -2143 48 54 55
-100.633 -709.427 -2152 50 56 57
-96.4692 -711.36 -2158 54 60 61
-92.7934 -717.25 -2176 52 58 59
-463.076 -727.014 -2159 45 50 49
-454.184 -720.063 -2139 46 52 51
-447.694 -716.82 -2130 47 53 52
-441.247 -713.581 -2121 48 54 53
-435.049 -710.682 -2113 48 54 53
-429.093 -708.124 -2106 48 54 53
-423.573 -706.241 -2101 46 52 51
-418.079 -704.361 -2096 44 52 50
-413.991 -704.837 -2098 45 53 51
-408.923 -703.635 -2095 47 55 53
-404.45 -703.443 -2095 48 56 54
-399.79 -702.918 -2094 48 56 54
-394.571 -701.388 -2090 47 55 53
-389.56 -700.196 -2087 46 54 52
-384.565 -699.007 -2084 46 53 51
-379.951 -698.492 -2083 45 51 50
-375.885 -698.985 -2085 45 51 50
-371.815 -699.479 -2087 44 50 49
-367.739 -699.976 -2089 48 54 53
-363.658 -700.474 -2091 48 54 53
-359.4 -700.639 -2092 47 53 52
-355.31 -701.141 -2094 47 53 52
-351.383 -701.979 -2097 49 55 54
-347.281 -702.485 -2099 51 57 56
-343.01 -702.658 -2100 49 55 54
-339.544 -704.505 -2106 44 50 49
-335.26 -704.682 -2107 44 50 49
-331.446 -705.863 -2111 44 50 49
-327.773 -707.38 -2116 43 49 48
-324.081 -708.899 -2121 41 47 46
-320.221 -710.085 -2125 41 47 46
-316.644 -711.941 -2131 40 46 45
-312.312 -712.128 -2132 38 44 43
-307.835 -711.983 -2132 39 44 43
-303.644 -712.508 -2134 37 41 40
-300.009 -714.37 -2140 36 40 39
-296.765 -717.235 -2149 37 40 40
-292.807 -718.433 -2153 37 38 40
-289.503 -721.3 -2162 34 36 38
-285.769 -723.167 -2168 30 32 35
-280.845 -722.035 -2165 20 22 28
-276.319 -721.905 -2165 26 28 35
-271.293 -720.444 -2161 32 34 41
-266.657 -719.985 -2160 33 36 43
-261.299 -717.529 -2153 37 40 46
-256.568 -716.742 -2151 36 39 45
-251.38 -714.625 -2145 39 42 48
-246.564 -713.51 -2142 41 44 50
-241.65 -712.064 -2138 42 45 51
-236.865 -710.954 -2135 42 46 47
-231.986 -709.513 -2131 42 46 47
-227.447 -709.073 -2130 42 46 47
-222.599 -707.637 -2126 45 49 50
-218.077 -707.202 -2125 43 47 48
-213.663 -707.102 -2125 42 46 47
-209.053 -706.339 -2123 45 49 50
-204.549 -705.91 -2122 44 48 49
-199.958 -705.151 -2120 43 47 46
-195.284 -704.062 -2117 44 48 48
-190.624 -702.975 -2114 45 49 50
-185.978 -701.89 -2111 45 49 50
-181.604 -701.805 -2111 46 50 51
-177.064 -701.057 -2109 46 50 51
-172.862 -701.641 -2111 44 48 49
-168.493 -701.561 -2111 45 49 50
-163.814 -700.155 -2107 50 54 55
-159.154 -698.752 -2103 52 57 58
-154.805 -698.679 -2103 51 57 58
-150.53 -698.94 -2104 51 57 58
-146.113 -698.54 -2103 50 56 57
-141.769 -698.473 -2103 51 57 58
-137.752 -700.069 -2108 50 56 57
-133.337 -699.675 -2107 48 54 55
-129.172 -700.61 -2110 48 54 55
-125.232 -702.875 -2117 50 56 57
-121.092 -704.147 -2121 50 56 57
-116.993 -705.752 -2126 50 56 57
-112.98 -708.022 -2133 48 54 55
-108.786 -709.298 -2137 47 53 54
-104.528 -710.245 -2140 45 51 52
-100.539 -713.185 -2149 48 54 55
-96.3793 -715.13 -2155 50 56 57
-92.6227 -720.396 -2171 52 58 59
-455.25 -726.226 -2143 45 51 50
-448.538 -722.622 -2133 46 52 51
-441.457 -718.345 -2121 47 53 52
-435.05 -715.088 -2112 47 53 52
-429.296 -712.851 -2106 48 54 53
-423.774 -710.956 -2101 47 53 52
-418.477 -709.402 -2097 45 53 51
-414.582 -710.218 -2100 45 53 51
-409.507 -709.008 -2097 46 54 52
-405.028 -708.814 -2097 47 55 53
-399.979 -707.609 -2094 49 57 55
-394.947 -706.407 -2091 49 57 55
-389.744 -704.869 -2087 48 56 54
-384.747 -703.672 -2084 47 55 53
-380.678 -704.166 -2086 47 53 52
-376.063 -703.649 -2085 46 52 51
-372.347 -704.822 -2089 46 52 51
-368.265 -705.321 -2091 48 54 53
-364.525 -706.497 -2095 49 55 54
-360.085 -706.325 -2095 48 54 53
-356.157 -707.167 -2098 49 55 54
-351.381 -706.326 -2096 50 56 55
-347.941 -708.182 -2102 49 55 54
-343.988 -709.03 -2105 47 53 52
-339.865 -709.542 -2107 42 48 47
-336.213 -711.066 -2112 41 47 46
-331.759 -710.908 -2112 43 49 48
-328.392 -713.109 -2119 42 48 47
-325.151 -715.647 -2127 41 47 46
-321.125 -716.504 -2130 37 43 42
-317.09 -717.363 -2133 36 42 41
-312.459 -716.878 -2132 36 42 41
-308.412 -717.741 -2135 38 43 42
-304.214 -718.269 -2137 39 43 42
-300.711 -720.479 -2144 38 42 41
-297.181 -722.691 -2151 36 39 39
-292.944 -723.224 -2153 34 36 38
-289.237 -725.103 -2159 31 33 35
-285.639 -727.318 -2166 29 31 34
-281.496 -728.193 -2169 20 22 28
-276.704 -727.39 -2167 23 25 32
-271.797 -726.255 -2164 31 33 40
-267.028 -725.457 -2162 33 36 43
-262.028 -723.991 -2158 36 39 45
-257.165 -722.863 -2155 35 38 44
-252.318 -721.738 -2152 36 39 45
-247.255 -719.944 -2147 39 42 48
-241.989 -717.482 -2140 41 44 50
-236.865 -715.359 -2134 41 45 46
-231.986 -713.908 -2130 41 45 46
-227.232 -712.795 -2127 42 46 47
-222.912 -713.025 -2128 43 47 48
-218.282 -712.252 -2126 43 47 48
-213.762 -711.816 -2125 42 46 47
-209.15 -711.047 -2123 44 48 49
-204.452 -709.946 -2120 43 47 48
-199.862 -709.182 -2118 40 44 45
-195.467 -709.09 -2118 42 46 47
-190.893 -708.33 -2116 45 49 50
-186.241 -707.238 -2113 46 50 51
-181.517 -705.814 -2109 47 51 52
-177.147 -705.73 -2109 47 51 52
-172.532 -704.644 -2106 45 49 50
-168.332 -705.234 -2108 45 49 50
-163.735 -704.153 -2105 49 54 55
-159.152 -703.075 -2102 49 55 56
-155.172 -704.673 -2107 49 55 56
-150.528 -703.265 -2103 48 54 55
-146.528 -704.868 -2108 48 54 55
-141.902 -703.463 -2104 51 57 58
-137.751 -704.401 -2107 51 57 58
-133.399 -704.338 -2107 48 54 55
-129.231 -705.28 -2110 49 55 56
-125.23 -707.226 -2116 49 55 56
-120.92 -707.503 -2117 49 55 56
-116.882 -709.452 -2123 50 56 57
-113.085 -713.075 -2134 50 56 57
-108.582 -712.355 -2132 48 54 55
-104.43 -713.976 -2137 47 53 54
-100.492 -717.269 -2147 48 54 55
-96.424 -719.896 -2155 49 55 56
-92.4948 -723.861 -2167 52 58 59
-463.948 -737.412 -2161 52 56 55
-455.256 -730.709 -2142 47 53 52
-448.332 -726.739 -2131 46 52 51
-441.46 -722.775 -2120 47 53 52
-435.258 -719.837 -2112 48 54 53
-429.705 -717.926 -2107 48 54 53
-424.38 -716.358 -2103 48 54 53
-419.276 -715.134 -2100 45 53 51
-415.176 -715.615 -2102 46 54 52
-409.703 -713.716 -2097 46 54 52
-404.641 -712.5 -2094 48 56 54
-399.597 -711.287 -2091 51 59 57
-394.379 -709.736 -2087 50 58 56
-389.369 -708.529 -2084 48 56 54
-384.93 -708.344 -2084 47 55 53
-380.859 -708.841 -2086 46 54 52
-376.783 -709.339 -2088 45 53 51
-372.88 -710.18 -2091 46 54 52
-368.263 -709.663 -2090 47 53 52
-364.524 -710.847 -2094 48 53 52
-359.912 -710.335 -2093 50 55 54
-355.816 -710.843 -2095 50 56 55
-352.051 -712.032 -2099 50 56 55
-348.271 -713.222 -2103 46 52 51
-343.988 -713.396 -2104 45 50 48
-340.348 -714.929 -2109 41 47 45
-336.532 -716.124 -2113 41 47 46
-332.387 -716.643 -2115 42 48 47
-329.012 -718.857 -2122 40 46 45
-324.999 -719.718 -2125 40 46 45
-320.825 -720.242 -2127 38 44 43
-316.943 -721.445 -2131 38 44 43
-312.606 -721.635 -2132 39 45 44
-308.847 -723.18 -2137 39 44 43
-304.927 -724.388 -2141 40 44 43
-300.572 -724.583 -2142 39 43 42
-297.044 -726.809 -2149 37 40 40
-294.035 -730.389 -2160 36 37 39
-289.775 -730.927 -2162 35 36 38
-285.51 -731.467 -2164 30 32 35
-281.628 -733.023 -2169 20 22 28
-277.089 -732.891 -2169 22 24 31
-272.553 -732.761 -2169 30 32 39
-267.277 -730.607 -2163 33 36 42
-262.151 -728.793 -2158 35 38 44
-257.286 -727.658 -2155 35 38 44
-252.085 -725.512 -2149 37 40 46
-247.025 -723.706 -2144 38 41 47
-241.876 -721.566 -2138 41 44 50
-237.087 -720.441 -2135 40 45 47
-232.203 -718.98 -2131 41 46 47
-227.552 -718.197 -2129 42 46 47
-223.121 -718.091 -2129 43 47 48
-218.384 -716.975 -2126 43 47 48
-213.661 -715.862 -2123 44 47 47
-209.248 -715.763 -2123 44 47 48
-204.74 -715.328 -2122 43 47 48
-200.05 -714.222 -2119 43 47 48
-195.374 -713.118 -2116 45 49 51
-190.982 -713.027 -2116 47 51 53
-186.416 -712.264 -2114 46 50 51
-181.774 -711.167 -2111 46 50 51
-177.566 -711.757 -2113 47 51 52
-172.777 -709.99 -2108 45 49 50
-168.33 -709.573 -2107 45 50 51
-163.811 -708.822 -2105 47 53 54
-159.378 -708.41 -2104 47 53 54
-155.023 -708.336 -2104 46 52 53
-150.67 -708.264 -2104 45 51 52
-146.458 -708.868 -2106 45 51 52
-142.103 -708.8 -2106 48 54 55
-137.881 -709.408 -2108 50 56 57
-133.334 -708.335 -2105 49 55 56
-129.23 -709.619 -2109 51 57 58
-125.17 -711.242 -2114 49 55 56
-121.091 -712.866 -2119 49 55 56
-116.881 -713.82 -2122 49 55 56
-113.138 -717.802 -2134 50 56 57
-108.836 -718.423 -2136 48 54 55
-104.478 -718.709 -2137 49 55 56
-100.492 -721.688 -2146 52 58 59
-96.4241 -724.332 -2154 52 58 59
-92.4952 -728.323 -2166 51 57 57
-464.172 -742.285 -2161 51 55 54
-455.475 -735.537 -2142 46 52 51
-448.338 -731.198 -2130 45 51 50
-441.465 -727.207 -2119 45 51 50
-435.467 -724.593 -2112 46 52 51
-429.912 -722.669 -2107 48 54 53
-424.585 -721.091 -2103 48 54 53
-419.877 -720.544 -2102 47 55 53
-415.77 -721.028 -2104 46 54 52
-409.704 -718.088 -2096 48 56 54
-405.222 -717.891 -2096 48 56 54
-399.98 -716.327 -2092 49 57 55
-394.758 -714.766 -2088 51 57 56
-389.743 -713.551 -2085 50 57 55
-386.038 -714.733 -2089 46 54 52
-381.224 -713.864 -2087 45 53 51
-377.144 -714.366 -2089 45 53 51
-373.059 -714.87 -2091 45 53 51
-368.439 -714.35 -2090 46 52 51
-364.524 -715.199 -2093 46 51 50
-359.912 -714.684 -2092 48 52 51
-356.156 -715.878 -2096 48 54 53
-352.051 -716.391 -2098 48 54 53
-348.272 -717.59 -2102 44 50 49
-344.643 -719.13 -2107 43 47 45
-340.995 -720.672 -2112 42 46 43
-336.692 -720.851 -2113 41 47 46
-333.175 -722.738 -2119 40 46 45
-329.479 -724.285 -2124 38 44 43
-325.459 -725.151 -2127 38 44 43
-321.279 -725.678 -2129 39 45 44
-317.242 -726.548 -2132 38 44 43
-313.048 -727.079 -2134 40 46 45
-308.849 -727.612 -2136 40 45 44
-304.929 -728.828 -2140 40 44 43
-301.136 -730.387 -2145 41 45 44
-297.6 -732.627 -2152 38 41 41
-293.357 -733.167 -2154 38 38 40
-289.913 -735.751 -2162 36 36 38
-286.041 -737.316 -2167 33 33 36
-282.411 -739.562 -2174 22 24 30
-277.732 -739.088 -2173 24 26 32
-273.311 -739.297 -2174 32 34 41
-268.269 -737.808 -2170 33 36 42
-263.126 -735.982 -2165 33 36 42
-257.767 -733.479 -2158 34 37 43
-252.908 -732.338 -2155 38 41 47
-247.949 -730.86 -2151 39 42 47
-242.217 -727.006 -2140 40 44 47
-237.199 -725.194 -2135 40 46 49
-232.204 -723.385 -2130 41 47 49
-227.66 -722.936 -2129 42 46 47
-223.227 -722.829 -2129 43 47 48
-218.59 -722.045 -2127 43 47 47
-214.165 -721.943 -2127 44 46 46
-209.544 -721.163 -2125 45 48 49
-204.934 -720.387 -2123 45 49 50
-200.428 -719.952 -2122 44 48 49
-196.297 -720.875 -2125 45 49 51
-191.433 -719.088 -2120 47 50 53
-186.945 -718.659 -2119 46 50 51
-182.29 -717.554 -2116 46 50 51
-177.734 -716.791 -2114 46 50 51
-173.023 -715.352 -2110 45 49 50
-168.25 -713.576 -2105 45 49 50
-163.966 -713.836 -2106 47 53 54
-159.301 -712.404 -2102 47 53 54
-155.096 -713.008 -2104 47 53 54
-150.813 -713.275 -2105 46 52 53
-146.527 -713.543 -2106 46 52 53
-142.103 -713.136 -2105 48 54 55
-137.945 -714.087 -2108 47 53 54
-133.397 -713.006 -2105 47 53 54
-129.23 -713.96 -2108 49 55 56
-125.229 -715.932 -2114 47 53 54
-120.976 -716.552 -2116 48 54 55
-116.771 -717.512 -2119 48 54 55
-112.82 -720.166 -2127 49 55 56
-108.836 -722.823 -2135 50 56 57
-104.332 -722.095 -2133 51 57 58
-100.351 -725.094 -2142 51 57 58
-96.2455 -727.417 -2149 53 59 60
-92.325 -731.434 -2161 52 58 57
-463.753 -746.128 -2158 50 54 53
-455.058 -739.335 -2139 45 51 50
-447.713 -734.623 -2126 45 51 50
-441.262 -731.296 -2117 42 48 47
-435.679 -729.356 -2112 42 48 47
-430.325 -727.764 -2108 44 50 49
-425.194 -726.52 -2105 46 52 51
-420.68 -726.315 -2105 47 55 53
-416.367 -726.456 -2106 46 54 52
-410.489 -723.841 -2099 48 56 54
-405.418 -722.609 -2096 49 57 55
-400.364 -721.379 -2093 47 55 53
-394.759 -719.119 -2087 48 54 53
-389.931 -718.239 -2085 48 56 54
-386.225 -719.429 -2089 45 53 51
-381.774 -719.243 -2089 45 53 51
-377.507 -719.404 -2090 47 55 53
-372.882 -718.878 -2089 46 54 52
-368.441 -718.699 -2089 45 51 50
-364.177 -718.866 -2090 45 50 49
-360.257 -719.722 -2093 47 51 50
-356.157 -720.237 -2095 46 52 51
-352.22 -721.097 -2098 46 52 51
-348.274 -721.959 -2101 42 48 47
-344.481 -723.167 -2105 42 46 43
-340.351 -723.689 -2107 42 47 44
-336.695 -725.243 -2112 41 47 46
-333.177 -727.142 -2118 40 46 45
-329.016 -727.669 -2120 40 46 45
-324.85 -728.198 -2122 39 45 44
-321.131 -729.758 -2127 38 44 43
-316.947 -730.291 -2129 37 43 42
-312.758 -730.825 -2131 39 45 44
-309.142 -732.733 -2137 40 45 44
-305.36 -734.3 -2142 40 44 43
-301.561 -735.868 -2147 40 44 43
-298.019 -738.123 -2154 38 41 41
-294.315 -740.037 -2160 39 39 42
-290.722 -742.295 -2167 35 35 37
-286.706 -743.526 -2171 35 36 38
-282.806 -745.102 -2176 24 26 31
-278.12 -744.625 -2175 28 30 36
-273.693 -744.835 -2176 29 31 38
-268.645 -743.337 -2172 30 33 39
-263.738 -742.182 -2169 33 36 42
-258.606 -740.347 -2164 33 36 42
-253.146 -737.488 -2156 37 40 46
-247.952 -735.316 -2150 38 41 46
-242.672 -732.805 -2143 38 42 45
-237.312 -729.955 -2135 40 46 49
-232.642 -729.158 -2133 42 47 50
-228.196 -729.048 -2133 43 47 48
-223.438 -727.915 -2130 44 48 49
-218.899 -727.468 -2129 42 46 47
-214.367 -727.023 -2128 44 46 46
-209.644 -725.897 -2125 44 47 48
-205.031 -725.115 -2123 44 48 49
-200.523 -724.677 -2122 45 49 50
-196.113 -724.582 -2122 46 49 52
-191.524 -723.807 -2120 48 50 54
-187.034 -723.375 -2119 46 50 51
-182.377 -722.263 -2116 45 49 50
-177.986 -722.178 -2116 45 49 50
-173.351 -721.07 -2113 42 48 49
-168.809 -720.306 -2111 43 49 50
-163.966 -718.18 -2105 46 52 53
-159.377 -717.079 -2102 47 53 54
-155.096 -717.346 -2103 48 54 55
-150.741 -717.273 -2103 46 52 53
-146.526 -717.884 -2105 48 54 55
-142.237 -718.157 -2106 49 55 56
-137.945 -718.431 -2107 47 53 54
-133.524 -718.025 -2106 47 53 54
-129.23 -718.304 -2107 47 53 54
-125.111 -719.607 -2111 47 53 54
-121.033 -721.253 -2116 48 54 55
-117.047 -723.583 -2123 47 53 54
-113.085 -726.254 -2131 48 54 55
-108.837 -727.224 -2134 50 56 57
-104.43 -727.174 -2134 49 55 56
-100.352 -729.51 -2141 50 56 57
-96.2014 -731.508 -2147 52 58 59
-92.3259 -735.892 -2160 52 58 57
-464.84 -752.4 -2162 50 54 53
-456.133 -745.563 -2143 45 51 50
-448.564 -740.471 -2129 45 51 50
-442.52 -737.817 -2122 44 50 49
-436.717 -735.516 -2116 42 48 47
-431.352 -733.913 -2112 43 49 48
-426.412 -733.008 -2110 45 51 50
-421.285 -731.759 -2107 46 53 51
-415.977 -730.165 -2103 45 53 51
-410.493 -728.227 -2098 46 54 52
-405.422 -726.986 -2095 48 56 54
-400.751 -726.442 -2094 47 55 53
-395.33 -724.514 -2089 43 51 49
-390.682 -723.975 -2088 44 53 51
-386.782 -724.825 -2091 44 53 51
-381.959 -723.945 -2089 46 54 52
-377.509 -723.76 -2089 47 55 53
-372.884 -723.23 -2088 47 54 53
-369.149 -724.435 -2092 46 52 51
-363.831 -722.526 -2087 46 51 50
-360.259 -724.08 -2092 47 51 50
-355.99 -724.252 -2093 48 53 52
-352.055 -725.118 -2096 47 52 51
-348.276 -726.332 -2100 43 49 48
-344.32 -727.201 -2103 43 48 45
-340.516 -728.418 -2107 43 48 45
-337.017 -730.328 -2113 42 48 47
-333.023 -731.202 -2116 40 46 46
-329.175 -732.423 -2120 40 46 46
-325.313 -733.647 -2124 41 47 46
-321.437 -734.871 -2128 40 46 45
-317.845 -736.788 -2134 39 45 44
-313.496 -736.981 -2135 38 44 43
-309.58 -738.211 -2139 37 42 41
-305.793 -739.787 -2144 36 40 39
-301.846 -741.02 -2148 37 41 40
-298.44 -743.635 -2156 36 39 39
-294.593 -745.216 -2161 36 37 41
-290.728 -746.799 -2166 34 35 38
-286.712 -748.038 -2170 34 35 37
-283.462 -751.348 -2180 25 27 31
-278.894 -751.212 -2180 35 37 43
-274.831 -752.457 -2184 29 31 38
-269.393 -749.914 -2177 29 32 38
-264.108 -747.719 -2171 31 34 40
-258.97 -745.871 -2166 32 35 41
-253.62 -743.337 -2159 36 39 45
-248.302 -740.807 -2152 37 40 45
-242.788 -737.59 -2143 37 41 44
-237.87 -736.098 -2139 40 45 47
-232.753 -733.92 -2133 44 49 51
-228.198 -733.465 -2132 45 47 49
-223.44 -732.325 -2129 45 49 50
-218.798 -731.531 -2127 42 46 47
-214.571 -732.114 -2129 44 47 47
-209.941 -731.325 -2127 43 47 48
-205.419 -730.881 -2126 46 50 51
-200.902 -730.44 -2125 45 47 49
-196.484 -730.344 -2125 45 47 50
-191.887 -729.564 -2123 46 48 52
-187.3 -728.786 -2121 45 49 50
-182.723 -728.01 -2119 46 50 51
-178.071 -726.893 -2116 48 52 53
-173.598 -726.465 -2115 47 52 53
-168.97 -725.352 -2112 46 52 53
-164.045 -722.868 -2105 47 53 54
-159.377 -721.418 -2101 46 52 53
-155.023 -721.342 -2101 49 55 56
-150.813 -721.956 -2103 47 53 54
-146.527 -722.227 -2104 48 54 55
-142.373 -723.188 -2107 49 55 56
-138.208 -724.151 -2110 49 55 56
-133.841 -724.086 -2110 47 53 54
-129.475 -724.023 -2110 47 53 54
-125.348 -725.334 -2114 48 54 55
-121.148 -726.304 -2117 47 53 54
-117.268 -729.335 -2126 47 53 54
-113.086 -730.652 -2130 48 54 55
-108.889 -731.971 -2134 49 55 56
-104.529 -732.263 -2135 47 53 54
-100.447 -734.615 -2142 48 54 55
-96.2919 -736.626 -2148 50 56 57
-92.4981 -741.724 -2163 53 59 58
-464.854 -756.946 -2161 52 56 55
-455.931 -749.714 -2141 48 53 52
-448.575 -744.939 -2128 47 52 51
-443.573 -744.019 -2126 46 52 51
-437.551 -741.351 -2119 46 52 51
-431.973 -739.388 -2114 47 53 52
-426.42 -737.428 -2109 46 52 51
-421.292 -736.17 -2106 44 52 50
-415.785 -734.216 -2101 43 52 50
-410.108 -731.916 -2095 45 53 51
-404.847 -730.319 -2091 47 55 53
-400.373 -730.12 -2091 44 52 50
-395.334 -728.877 -2088 43 51 49
-391.061 -729.033 -2089 45 53 51
-387.157 -729.889 -2092 43 52 50
-382.329 -729.002 -2090 45 53 51
-377.875 -728.816 -2090 46 54 52
-373.245 -728.283 -2089 46 54 52
-369.153 -728.798 -2091 47 53 51
-364.88 -728.966 -2092 46 51 50
-361.124 -730.182 -2096 46 51 50
-356.844 -730.355 -2097 47 52 51
-352.899 -731.226 -2100 47 52 51
-348.446 -731.054 -2100 45 51 49
-344.488 -731.929 -2103 43 51 48
-340.358 -732.458 -2105 44 52 48
-336.224 -732.988 -2107 44 50 49
-332.555 -734.564 -2112 42 48 48
-328.869 -736.142 -2117 41 47 48
-324.705 -736.678 -2119 41 47 46
-320.989 -738.258 -2124 42 48 47
-317.105 -739.493 -2128 43 49 48
-313.502 -741.424 -2134 39 45 44
-309.731 -743.009 -2139 35 40 39
-306.227 -745.29 -2146 33 37 36
-302.696 -747.573 -2153 34 38 37
-299.138 -749.857 -2160 34 38 38
-295.418 -751.795 -2166 35 37 41
-291.674 -753.734 -2172 34 36 38
-287.644 -754.982 -2176 30 32 34
-283.729 -756.577 -2181 24 26 30
-279.029 -756.094 -2180 39 41 47
-274.334 -755.613 -2179 29 31 38
-269.523 -754.787 -2177 28 31 37
-264.235 -752.578 -2171 30 33 39
-258.856 -750.024 -2164 32 35 41
-253.39 -747.128 -2156 35 38 44
-248.191 -744.927 -2150 35 38 43
-242.905 -742.383 -2143 37 41 44
-237.874 -740.534 -2138 40 44 46
-233.084 -739.381 -2135 44 47 49
-228.416 -738.577 -2133 45 47 49
-223.863 -738.121 -2132 44 48 49
-219.213 -737.322 -2130 43 46 48
-214.775 -737.217 -2130 43 47 47
-210.141 -736.422 -2128 44 48 48
-205.614 -735.975 -2127 46 50 50
-201.094 -735.531 -2126 45 48 49
-196.486 -734.743 -2124 45 47 50
-191.979 -734.303 -2123 46 48 52
-187.478 -733.866 -2122 45 49 50
-182.897 -733.085 -2120 44 48 49
-178.662 -733.689 -2122 47 51 52
-174.092 -732.912 -2120 46 52 53
-169.371 -731.447 -2116 44 50 51
-164.357 -728.601 -2108 42 48 49
-159.757 -727.486 -2105 45 51 52
-155.171 -726.373 -2102 48 54 55
-150.885 -726.645 -2103 47 53 55
-146.597 -726.919 -2104 49 55 56
-142.374 -727.54 -2106 49 55 57
-138.208 -728.509 -2109 47 53 54
-133.969 -729.134 -2111 45 51 52
-129.599 -729.07 -2111 46 52 53
-125.646 -731.427 -2118 49 55 57
-121.493 -732.748 -2122 48 54 56
-117.435 -734.763 -2128 48 54 56
-113.406 -737.124 -2135 47 54 55
-109.247 -738.797 -2140 49 56 57
-104.824 -738.745 -2140 49 55 56
-100.682 -740.767 -2146 49 55 55
-96.4726 -742.445 -2151 47 53 53
-92.628 -747.232 -2165 53 59 58
-475.842 -771.954 -2189 54 58 60
-465.3 -762.2 -2162 52 56 55
-456.371 -754.921 -2142 50 54 53
-449.219 -750.467 -2130 48 52 51
-443.375 -748.131 -2124 46 52 51
-437.355 -745.447 -2117 46 52 51
-431.573 -743.118 -2111 47 53 52
-426.024 -741.146 -2106 48 52 51
-420.499 -739.176 -2101 45 52 51
-414.604 -736.507 -2094 44 53 51
-409.918 -735.951 -2093 45 53 51
-405.434 -735.748 -2093 46 54 52
-401.145 -735.9 -2094 45 53 51
-396.287 -735 -2092 45 53 51
-391.815 -734.805 -2092 46 54 52
-387.162 -734.261 -2091 44 52 50
-382.7 -734.071 -2091 43 51 49
-378.242 -733.883 -2091 44 52 50
-373.965 -734.048 -2092 46 54 52
-369.687 -734.215 -2093 47 54 50
-366.107 -735.788 -2098 44 51 48
-361.302 -734.907 -2096 43 49 48
-357.53 -736.132 -2100 44 50 49
-352.904 -735.606 -2099 45 51 50
-348.617 -735.784 -2100 46 53 49
-344.657 -736.664 -2103 46 53 51
-341.011 -738.247 -2108 46 54 52
-336.708 -738.43 -2109 46 52 51
-332.876 -739.666 -2113 46 52 51
-328.719 -740.203 -2115 46 52 51
-325.477 -742.842 -2123 44 50 49
-321.751 -744.433 -2128 44 49 48
-318.006 -746.024 -2133 44 48 47
-314.39 -747.968 -2139 41 45 44
-310.751 -749.912 -2145 40 44 43
-307.233 -752.208 -2152 39 43 42
-303.406 -753.806 -2157 37 41 41
-299.977 -756.453 -2165 36 40 40
-295.698 -757.006 -2167 34 38 39
-291.817 -758.609 -2172 32 36 37
-287.652 -759.515 -2175 29 33 34
-283.998 -761.819 -2182 25 27 33
-279.421 -761.681 -2182 47 49 55
-275.224 -762.593 -2185 30 32 38
-270.15 -761.063 -2181 29 32 38
-264.973 -759.188 -2176 32 35 41
-259.341 -755.92 -2167 33 36 42
-253.748 -752.656 -2158 35 38 44
-248.773 -751.138 -2154 37 40 45
-243.25 -747.88 -2145 38 42 45
-238.435 -746.716 -2142 41 45 48
-233.634 -745.556 -2139 42 46 49
-228.634 -743.7 -2134 42 46 47
-223.971 -742.893 -2132 43 47 49
-219.525 -742.785 -2132 43 47 50
-215.081 -742.679 -2132 44 46 46
-210.342 -741.531 -2129 46 49 48
-205.811 -741.081 -2128 45 49 48
-201.381 -740.982 -2128 44 48 47
-196.674 -739.84 -2125 44 48 48
-192.073 -739.05 -2123 46 50 53
-187.481 -738.261 -2121 47 51 52
-183.072 -738.171 -2121 46 50 51
-178.748 -738.431 -2122 46 50 51
-174.176 -737.649 -2120 44 50 53
-169.373 -735.826 -2115 43 49 52
-164.671 -734.353 -2111 43 49 50
-159.835 -732.188 -2105 45 51 52
-155.098 -730.372 -2100 48 54 55
-150.887 -730.993 -2102 47 53 56
-146.598 -731.269 -2103 49 55 58
-142.713 -733.633 -2110 49 55 58
-138.341 -733.564 -2110 48 54 55
-134.16 -734.541 -2113 47 53 54
-129.723 -734.129 -2112 47 53 54
-125.647 -735.806 -2117 50 56 59
-121.38 -736.441 -2119 49 55 58
-117.436 -739.163 -2127 48 54 57
-113.301 -740.845 -2132 47 55 56
-109.198 -742.876 -2138 49 57 57
-104.825 -743.171 -2139 50 56 57
-100.731 -745.554 -2146 49 55 54
-96.6091 -747.937 -2153 47 53 52
-92.7583 -752.755 -2167 52 58 57
-89.4211 -762.437 -2195 53 59 59
-464.671 -765.692 -2158 52 56 55
-456.599 -759.785 -2142 51 55 54
-450.076 -756.366 -2133 50 54 53
-444.641 -754.723 -2129 46 52 51
-438.4 -751.667 -2121 46 52 51
-433.22 -750.385 -2118 45 51 50
-426.641 -746.628 -2108 48 52 51
-421.31 -745 -2104 46 53 51
-415.603 -742.667 -2098 46 54 52
-410.318 -741.045 -2094 46 54 52
-405.829 -740.841 -2094 46 54 52
-401.536 -740.993 -2095 46 54 52
-397.242 -741.148 -2096 46 54 52
-392.385 -740.244 -2094 45 53 51
-387.725 -739.696 -2093 44 52 50
-383.073 -739.151 -2092 42 50 48
-378.067 -737.902 -2089 43 51 49
-373.971 -738.421 -2091 44 52 50
-369.87 -738.943 -2093 44 51 48
-365.939 -739.819 -2096 42 49 45
-361.653 -739.991 -2097 41 47 46
-357.877 -741.224 -2101 44 50 49
-352.91 -739.989 -2098 45 51 50
-348.789 -740.521 -2100 46 52 51
-344.335 -740.349 -2100 46 53 51
-340.208 -740.884 -2102 46 54 52
-336.235 -741.774 -2105 48 54 53
-332.567 -743.37 -2110 48 54 53
-328.571 -744.263 -2113 48 54 53
-324.871 -745.863 -2118 46 52 51
-321.455 -748.168 -2125 44 49 48
-317.864 -750.122 -2131 42 46 45
-314.398 -752.429 -2138 41 45 44
-311.194 -755.442 -2147 42 46 45
-307.527 -757.4 -2153 39 43 42
-303.837 -759.36 -2159 35 39 40
-300.263 -761.673 -2166 33 37 38
-296.117 -762.58 -2169 32 36 37
-292.229 -764.193 -2174 32 36 37
-288.058 -765.105 -2177 28 32 33
-283.617 -765.315 -2178 30 32 38
-279.558 -766.582 -2182 60 62 68
-275.233 -767.148 -2184 37 39 45
-270.406 -766.311 -2182 28 31 37
-265.103 -764.073 -2176 30 33 39
-259.947 -762.188 -2171 34 37 43
-254.226 -758.551 -2161 36 39 44
-248.78 -755.619 -2153 39 42 46
-243.483 -753.042 -2146 41 45 48
-238.44 -751.169 -2141 42 46 48
-233.749 -750.352 -2139 44 48 49
-228.96 -749.186 -2136 41 45 46
-224.186 -748.022 -2133 41 45 47
-219.426 -746.861 -2130 41 45 48
-215.287 -747.807 -2133 44 46 47
-210.445 -746.3 -2129 45 48 48
-205.911 -745.847 -2128 44 48 47
-201.479 -745.748 -2128 45 49 48
-196.77 -744.599 -2125 44 48 48
-192.076 -743.452 -2122 45 49 50
-187.484 -742.659 -2120 46 50 51
-183.161 -742.918 -2121 46 50 51
-178.667 -742.48 -2120 46 50 51
-174.343 -742.743 -2121 44 49 52
-169.696 -741.609 -2118 43 49 52
-164.985 -740.126 -2114 45 51 52
-159.988 -737.246 -2106 46 52 53
-155.396 -736.119 -2103 46 52 53
-150.888 -735.344 -2101 47 53 56
-146.53 -735.271 -2101 49 55 57
-142.309 -735.901 -2103 51 57 58
-137.949 -735.832 -2103 50 56 57
-133.845 -737.165 -2107 49 55 56
-129.663 -738.15 -2110 48 54 55
-125.649 -740.187 -2116 50 56 59
-121.381 -740.826 -2118 50 56 59
-117.383 -743.216 -2125 49 55 58
-113.463 -746.308 -2134 49 56 57
-109.251 -747.652 -2138 49 57 57
-104.974 -748.649 -2141 49 55 56
-100.874 -751.047 -2148 49 55 55
-96.8355 -754.145 -2157 45 51 50
-92.8035 -757.595 -2167 49 55 54
-89.4237 -766.989 -2194 52 58 58
-466.198 -772.744 -2164 51 55 54
-457.681 -766.084 -2146 52 56 55
-450.936 -762.285 -2136 50 54 53
-444.864 -759.562 -2129 45 51 50
-438.62 -756.485 -2121 45 51 50
-432.824 -754.126 -2115 45 51 50
-427.057 -751.77 -2109 47 51 50
-420.92 -748.706 -2101 47 54 52
-415.613 -747.07 -2097 47 55 53
-410.916 -746.506 -2096 47 55 53
-406.226 -745.945 -2095 46 54 52
-401.929 -746.098 -2096 45 53 51
-397.44 -745.897 -2096 46 54 52
-392.768 -745.343 -2095 45 53 51
-387.919 -744.436 -2093 44 52 50
-383.264 -743.887 -2092 43 51 49
-378.256 -742.63 -2089 44 52 50
-374.337 -743.508 -2092 42 50 48
-370.232 -744.032 -2094 41 47 45
-366.296 -744.914 -2097 42 48 46
-362.006 -745.087 -2098 43 49 48
-358.055 -745.972 -2101 43 49 48
-352.918 -744.375 -2097 44 50 49
-348.963 -745.264 -2100 46 52 51
-344.999 -746.156 -2103 45 53 51
-340.863 -746.694 -2105 44 52 50
-337.201 -748.298 -2110 45 51 50
-333.521 -749.904 -2115 47 53 52
-329.2 -750.094 -2116 49 55 54
-325.493 -751.703 -2121 48 54 53
-321.918 -753.668 -2127 43 48 47
-318.619 -756.343 -2135 42 46 45
-315.142 -758.665 -2142 41 45 44
-311.783 -761.342 -2150 41 45 44
-308.679 -764.728 -2160 40 44 43
-304.691 -765.992 -2164 37 41 42
-300.412 -766.55 -2166 34 38 39
-296.4 -767.817 -2170 33 37 38
-291.97 -768.025 -2171 31 35 36
-288.068 -769.65 -2176 27 31 32
-284.017 -770.923 -2180 30 32 37
-279.824 -771.843 -2183 68 70 76
-275.495 -772.413 -2185 40 42 48
-270.912 -772.277 -2185 24 27 33
-265.356 -769.317 -2177 29 32 38
-259.835 -766.36 -2169 34 37 43
-254.469 -763.76 -2162 34 38 41
-249.018 -760.809 -2154 37 41 44
-243.717 -758.216 -2147 39 43 46
-238.558 -755.977 -2141 40 44 46
-233.645 -754.449 -2137 42 46 47
-229.073 -753.981 -2136 41 45 46
-224.507 -753.516 -2135 41 45 46
-219.741 -752.348 -2132 41 45 47
-215.494 -752.946 -2134 44 46 48
-211.043 -752.84 -2134 44 47 48
-206.4 -752.032 -2132 42 46 45
-201.673 -750.873 -2129 42 46 45
-197.052 -750.069 -2127 43 47 47
-192.532 -749.621 -2126 44 48 49
-187.93 -748.822 -2124 45 49 50
-183.424 -748.378 -2123 45 49 50
-178.671 -746.879 -2119 45 49 50
-174.511 -747.849 -2122 44 49 52
-169.539 -745.297 -2115 42 48 51
-164.91 -744.158 -2112 45 51 52
-160.219 -742.669 -2108 48 54 55
-155.546 -741.182 -2104 47 53 54
-150.962 -740.049 -2101 48 54 57
-146.602 -739.976 -2101 47 53 55
-142.379 -740.609 -2103 50 56 57
-137.951 -740.188 -2102 51 57 58
-133.91 -741.882 -2107 49 55 56
-129.542 -741.817 -2107 48 54 55
-125.473 -743.515 -2112 49 55 58
-121.211 -744.158 -2114 50 56 59
-117.33 -747.268 -2123 50 56 57
-113.359 -750.027 -2131 48 55 56
-109.304 -752.436 -2138 47 55 55
-105.026 -753.439 -2141 49 55 56
-100.97 -756.204 -2149 50 56 56
-96.8828 -758.97 -2157 46 52 51
-92.7203 -761.386 -2164 48 54 53
-89.3452 -770.841 -2191 52 58 58
-466.65 -778.033 -2165 52 56 55
-458.34 -771.69 -2148 51 55 54
-451.375 -767.508 -2137 48 52 51
-445.298 -764.766 -2130 45 51 50
-438.842 -761.311 -2121 45 51 50
-432.633 -758.219 -2113 47 53 52
-426.868 -755.848 -2107 49 53 52
-421.533 -754.199 -2103 48 53 52
-415.823 -751.835 -2097 48 56 54
-411.319 -751.626 -2097 49 55 54
-406.625 -751.061 -2096 47 54 53
-402.131 -750.856 -2096 45 53 51
-397.64 -750.654 -2096 44 52 50
-393.341 -750.812 -2097 45 53 51
-389.041 -750.973 -2098 45 53 51
-383.824 -749.347 -2094 45 53 51
-378.808 -748.08 -2091 45 53 51
-374.346 -747.891 -2091 44 52 50
-370.241 -748.418 -2093 44 51 49
-366.655 -750.021 -2098 44 50 49
-362.015 -749.48 -2097 43 49 48
-357.894 -750.013 -2099 43 49 48
-353.431 -749.834 -2099 44 50 49
-348.639 -748.943 -2097 45 51 50
-344.679 -749.84 -2100 44 51 50
