ply
format ascii 1.0
comment Created by Open3D
element vertex 1366
property double x
property double y
property double z
property uchar red
property uchar green
property uchar blue
end_header
-205.583 -1129.38 -2174 173 136 111
-200.948 -1129.75 -2175 160 124 99
-196.4 -1130.64 -2177 149 115 91
-191.67 -1130.49 -2177 126 98 84
-187.542 -1133.99 -2184 87 66 56
-183.889 -1140.6 -2197 72 59 55
-160.864 -1145.66 -2208 75 63 55
-155.797 -1143.46 -2204 98 83 71
-150.269 -1137.64 -2193 153 127 107
-144.923 -1132.86 -2184 185 154 129
-139.873 -1130.16 -2179 200 165 138
-135.157 -1130.06 -2179 216 176 149
-130.263 -1128.41 -2176 216 179 146
-125.614 -1128.83 -2177 206 169 135
-121.017 -1129.77 -2179 191 152 121
-116.519 -1131.76 -2183 174 135 105
-111.749 -1131.15 -2182 158 119 90
-107.181 -1132.63 -2185 143 106 77
-102.694 -1135.14 -2190 126 93 71
-98.2764 -1138.69 -2197 105 76 59
-93.7017 -1140.69 -2201 77 61 55
-76.9551 -1104.75 -2132 60 50 45
-71.9802 -1098.99 -2121 55 51 48
-67.1488 -1094.79 -2113 54 51 48
-62.5302 -1093.71 -2111 53 51 49
-58.0034 -1094.18 -2112 52 48 49
-53.3715 -1092.59 -2109 52 48 49
-48.7994 -1092.03 -2108 54 50 51
-44.295 -1093.03 -2110 50 48 46
-39.7636 -1093.52 -2111 50 48 48
-35.2448 -1094.53 -2113 48 47 47
-30.7759 -1097.61 -2119 48 48 48
-26.3185 -1102.25 -2128 50 50 49
-21.7511 -1103.27 -2130 49 49 47
-17.1993 -1105.84 -2135 50 50 48
-12.6382 -1109.46 -2142 49 49 47
-256.192 -1150.27 -2200 60 56 59
-249.326 -1140.67 -2182 63 57 54
-244.222 -1138.91 -2179 71 64 58
-238.364 -1133.5 -2169 98 86 69
-233.737 -1133.85 -2170 120 102 84
-228.58 -1131.58 -2166 134 113 94
-223.856 -1131.41 -2166 152 123 101
-219.134 -1131.24 -2166 165 129 104
-214.612 -1132.12 -2168 176 138 112
-209.697 -1130.92 -2166 186 144 117
-205.265 -1132.33 -2169 188 147 119
-200.637 -1132.7 -2170 173 134 106
-196.097 -1133.59 -2172 163 126 100
-191.638 -1135.01 -2175 147 116 101
-187.684 -1139.56 -2184 104 78 67
-183.692 -1144.12 -2193 76 58 54
-166.75 -1158.19 -2221 69 63 62
-160.475 -1147.64 -2201 81 69 62
-155.489 -1145.96 -2198 124 108 96
-150.039 -1140.63 -2188 171 141 120
-144.699 -1135.83 -2179 193 159 135
-139.786 -1134.16 -2176 208 172 145
-134.949 -1133.01 -2174 221 180 154
-130.121 -1131.87 -2172 223 186 153
-125.419 -1131.77 -2172 207 171 135
-120.885 -1133.24 -2175 187 149 118
-116.393 -1135.24 -2179 172 133 104
-111.782 -1136.19 -2181 161 122 93
-107.409 -1139.76 -2188 149 112 83
-103.053 -1143.84 -2196 131 97 74
-98.8427 -1150.02 -2208 109 79 61
-94.5388 -1155.68 -2219 79 60 53
-72.4756 -1111.16 -2134 55 51 48
-67.4853 -1104.86 -2122 53 49 47
-62.6662 -1100.65 -2114 51 49 47
-58.1293 -1101.12 -2115 50 46 47
-53.4875 -1099.52 -2112 51 47 48
-48.8823 -1098.44 -2110 53 49 50
-44.3072 -1097.88 -2109 53 51 49
-39.831 -1099.93 -2113 53 50 50
-35.3213 -1101.47 -2116 52 49 50
-30.9298 -1107.69 -2128 50 49 49
-26.5734 -1117.56 -2147 49 49 47
-22.033 -1122.22 -2156 51 51 49
-251.231 -1154.14 -2197 72 67 64
-245.866 -1151.33 -2192 98 90 84
-239.205 -1142.22 -2175 120 105 90
-234.022 -1139.93 -2171 134 113 97
-228.648 -1136.61 -2165 141 117 100
-223.716 -1135.39 -2163 159 126 106
-218.895 -1134.69 -2162 175 136 111
-214.379 -1135.58 -2164 186 146 120
-209.468 -1134.37 -2162 197 157 131
-204.947 -1135.26 -2164 200 161 132
-200.696 -1137.73 -2169 186 147 119
-196.065 -1138.1 -2170 178 141 115
-191.695 -1140.05 -2174 170 136 119
-187.998 -1146.2 -2186 125 97 84
-166.952 -1164.4 -2222 70 64 63
-160.888 -1155.36 -2205 87 74 67
-155.819 -1153.15 -2201 141 123 111
-150.015 -1145.17 -2186 178 148 126
-144.61 -1139.82 -2176 199 165 140
-139.634 -1137.62 -2172 213 177 149
-134.864 -1136.99 -2171 222 184 157
-130.1 -1136.37 -2170 227 190 157
-125.456 -1136.8 -2171 207 171 135
-121.032 -1139.32 -2176 186 149 118
-116.481 -1140.8 -2179 173 134 105
-111.866 -1141.76 -2181 165 126 97
-107.441 -1144.82 -2187 153 116 87
-103.131 -1149.45 -2196 137 103 81
-99.0068 -1156.7 -2210 114 84 67
-94.7808 -1163.43 -2223 81 61 54
-67.9499 -1117.08 -2135 55 51 50
-63.0693 -1112.32 -2126 53 49 48
-58.5307 -1113.32 -2128 52 48 49
-53.6546 -1107.52 -2117 53 49 50
-49.1046 -1108.01 -2118 53 49 50
-44.5718 -1109.02 -2120 53 51 50
-40.0874 -1111.6 -2125 52 50 50
-35.6987 -1117.85 -2137 52 49 50
-246.39 -1158.55 -2195 100 93 88
-239.388 -1147.8 -2175 125 106 94
-234.201 -1145.51 -2171 137 113 99
-228.611 -1141.11 -2163 151 124 109
-223.576 -1139.36 -2160 173 139 119
-218.657 -1138.14 -2158 188 149 124
-214.047 -1138.5 -2159 198 156 130
-209.24 -1137.81 -2158 204 164 138
-204.819 -1139.23 -2161 208 169 140
-200.664 -1142.24 -2167 196 157 129
-196.214 -1143.67 -2170 187 147 121
-192.018 -1146.68 -2176 178 143 125
-188.227 -1152.33 -2187 137 107 93
-184.894 -1161.15 -2204 84 64 59
-165.8 -1161.14 -2205 71 63 62
-160.134 -1154.7 -2193 92 78 72
-155.442 -1155.1 -2194 151 132 119
-149.786 -1148.14 -2181 184 153 130
-144.453 -1143.29 -2172 203 170 143
-139.483 -1141.08 -2168 212 177 147
-134.656 -1139.92 -2166 224 186 159
-129.839 -1138.77 -2164 229 193 160
-125.263 -1139.72 -2166 209 173 137
-120.79 -1141.74 -2170 188 151 120
-116.302 -1143.75 -2174 175 137 108
-111.9 -1146.82 -2180 167 129 100
-107.62 -1151.47 -2189 155 118 90
-103.303 -1156.12 -2198 140 108 86
-99.2613 -1164.46 -2214 119 91 73
-247.141 -1166.85 -2200 101 93 90
-239.902 -1155 -2178 129 110 96
-234.381 -1151.1 -2171 140 116 101
-228.892 -1147.21 -2164 155 128 113
-223.644 -1144.39 -2159 178 144 126
-218.723 -1143.16 -2157 192 155 133
-213.814 -1141.93 -2155 198 161 137
-209.303 -1142.83 -2157 207 167 141
-204.786 -1143.73 -2159 208 169 140
-200.54 -1146.22 -2164 198 159 131
-196.003 -1147.13 -2166 186 146 120
-192.076 -1151.75 -2175 175 140 120
-188.027 -1155.84 -2183 141 110 94
-184.364 -1162.58 -2196 87 67 62
-165.701 -1165.22 -2202 68 60 56
-159.964 -1158.21 -2189 96 83 74
-155.135 -1157.56 -2188 162 141 128
-149.557 -1151.1 -2176 195 163 139
-144.364 -1147.28 -2169 209 176 149
-139.461 -1145.59 -2166 218 183 152
-134.572 -1143.89 -2163 231 193 164
-129.758 -1142.74 -2161 232 195 163
-125.3 -1144.75 -2165 211 175 141
-120.715 -1145.72 -2167 190 153 122
-116.23 -1147.74 -2171 177 140 110
-111.934 -1151.88 -2179 167 130 101
-107.752 -1157.61 -2190 158 121 94
-103.476 -1162.82 -2200 143 111 89
-99.2473 -1169.08 -2212 122 94 76
-247.22 -1172 -2199 96 88 86
-239.977 -1160.09 -2177 129 112 99
-234.237 -1155.11 -2168 142 120 107
-228.751 -1151.2 -2161 156 131 116
-223.609 -1148.89 -2157 180 149 130
-218.385 -1146.06 -2152 194 161 139
-213.482 -1144.83 -2150 199 166 143
-209.173 -1146.8 -2154 208 168 142
-204.754 -1148.23 -2157 211 172 143
-200.509 -1150.74 -2162 204 165 136
-196.154 -1152.71 -2166 190 150 124
-192.224 -1157.35 -2175 177 139 118
-187.913 -1159.87 -2180 150 116 98
-183.918 -1164.51 -2189 89 68 61
-179.803 -1168.63 -2197 71 59 55
-165.452 -1168.23 -2197 70 60 56
-159.648 -1160.66 -2183 100 85 77
-154.829 -1160 -2182 166 143 130
-149.328 -1154.04 -2171 198 166 141
-144.209 -1150.74 -2165 211 177 149
-139.31 -1149.03 -2162 222 187 155
-134.489 -1147.87 -2160 235 198 168
-129.677 -1146.7 -2158 234 197 165
-125.107 -1147.67 -2160 220 184 150
-120.585 -1149.16 -2163 199 162 131
-116.158 -1151.73 -2168 178 141 111
-111.917 -1156.42 -2177 166 129 100
-107.588 -1160.59 -2185 163 126 99
-103.461 -1167.41 -2198 149 116 94
-98.8295 -1168.93 -2201 122 92 74
-245.836 -1170.19 -2185 87 79 77
-239.391 -1161.97 -2170 130 113 104
-233.77 -1157.5 -2162 146 125 113
-228.505 -1154.65 -2157 158 134 121
-223.471 -1152.87 -2154 178 149 130
-218.351 -1150.55 -2150 192 162 140
-213.449 -1149.32 -2148 197 166 142
-209.336 -1152.36 -2154 208 170 144
-204.818 -1153.27 -2156 212 174 147
-200.479 -1155.25 -2160 206 168 141
-196.215 -1157.77 -2165 192 152 126
-192.019 -1160.83 -2171 181 140 116
-187.454 -1161.75 -2173 153 115 94
-183.471 -1166.42 -2182 88 65 55
-179.614 -1172.16 -2193 70 58 53
-166.032 -1177.1 -2203 69 58 54
-159.918 -1167.36 -2185 105 89 81
-154.736 -1164.03 -2179 171 145 131
-149.099 -1156.97 -2166 203 168 144
-144.053 -1154.18 -2161 216 181 153
-139.095 -1151.94 -2157 228 193 161
-134.281 -1150.76 -2155 239 203 172
-129.597 -1150.66 -2155 236 200 167
-125.146 -1152.7 -2159 227 191 157
-120.511 -1153.14 -2160 206 169 138
-116.087 -1155.72 -2165 181 144 114
-111.797 -1159.9 -2173 163 126 97
-107.178 -1160.88 -2175 162 125 98
-102.834 -1165.07 -2183 150 116 93
-98.1418 -1165.53 -2184 117 85 66
-245.803 -1174.78 -2183 74 66 64
-239.467 -1167.06 -2169 125 106 99
-234.061 -1163.65 -2163 147 125 116
-228.365 -1158.63 -2154 161 135 123
-223.438 -1157.37 -2152 180 151 132
-218.419 -1155.59 -2149 192 163 141
-213.516 -1154.34 -2147 197 167 143
-209.401 -1157.4 -2153 206 169 143
-205.167 -1159.93 -2158 210 173 146
-200.356 -1159.23 -2157 209 172 145
-196.186 -1162.3 -2163 193 154 126
-192.257 -1166.99 -2172 181 140 114
-187.255 -1165.23 -2169 159 120 96
-182.857 -1167.23 -2173 92 68 56
-179.262 -1174.61 -2187 71 57 51
-165.256 -1176.36 -2191 67 56 52
-159.53 -1169.25 -2178 109 93 85
-154.216 -1164.83 -2170 172 145 131
-149.008 -1160.96 -2163 204 168 142
-144.165 -1159.77 -2161 218 183 154
-139.139 -1156.98 -2156 229 194 160
-134.261 -1155.26 -2153 237 202 170
-129.517 -1154.62 -2152 237 201 169
-125.011 -1156.13 -2155 234 197 165
-120.325 -1156.04 -2155 218 183 151
-115.855 -1158.09 -2159 192 156 125
-111.627 -1162.83 -2168 159 124 92
-107.113 -1164.89 -2172 157 120 93
-102.584 -1166.95 -2176 146 112 90
-97.9031 -1167.41 -2177 107 77 58
-245.095 -1176.13 -2175 68 59 58
-239.213 -1170.54 -2165 120 98 92
-233.811 -1167.11 -2159 152 127 119
-228.332 -1163.14 -2152 166 138 126
-223.301 -1161.34 -2149 186 154 136
-218.184 -1159.01 -2145 194 162 143
-213.285 -1157.76 -2143 199 167 145
-209.079 -1160.29 -2148 206 169 143
-204.852 -1162.83 -2153 210 172 145
-200.048 -1162.13 -2152 212 174 147
-195.977 -1165.76 -2159 200 161 133
-191.876 -1169.38 -2166 186 145 118
-186.969 -1168.16 -2164 164 124 99
-182.326 -1168.55 -2165 99 74 63
-178.5 -1174.35 -2176 73 57 51
-165.386 -1182.04 -2191 66 55 49
-160.094 -1178.13 -2184 113 97 88
-154.55 -1172.08 -2173 174 147 133
-149.124 -1166.56 -2163 203 167 141
-144.211 -1164.83 -2160 218 183 153
-139.183 -1162.02 -2155 231 196 162
-134.178 -1159.22 -2150 237 202 169
-129.497 -1159.12 -2150 236 200 168
-125.05 -1161.17 -2154 234 197 166
-120.307 -1160.54 -2153 223 186 155
-115.838 -1162.6 -2157 201 165 134
-111.456 -1165.75 -2163 171 136 104
-106.802 -1166.2 -2164 157 120 93
-102.098 -1166.12 -2164 130 99 77
-97.6643 -1169.27 -2170 90 62 44
-243.935 -1175.28 -2163 70 60 60
-238.96 -1174 -2161 124 100 91
-233.671 -1171.1 -2156 162 135 125
-227.875 -1165.49 -2146 173 143 129
-222.957 -1164.22 -2144 191 157 139
-218.152 -1163.51 -2143 197 163 143
-213.154 -1161.71 -2140 200 167 144
-208.854 -1163.71 -2144 209 170 144
-204.538 -1165.72 -2148 213 174 148
-199.648 -1164.48 -2146 213 175 149
-195.404 -1167.03 -2151 203 165 138
-191.229 -1170.14 -2157 188 149 122
-186.338 -1168.9 -2155 169 129 103
-181.795 -1169.84 -2157 107 82 70
-178.148 -1176.75 -2170 72 56 50
-164.987 -1183.93 -2184 64 53 48
-159.926 -1181.64 -2180 111 96 88
-154.244 -1174.47 -2167 176 150 135
-148.896 -1169.47 -2158 202 167 141
-143.923 -1167.19 -2154 219 184 156
-138.905 -1164.37 -2149 233 197 165
-133.971 -1162.09 -2145 237 202 170
-129.418 -1163.07 -2147 237 202 172
-124.974 -1165.14 -2151 233 199 169
-120.346 -1165.58 -2152 227 190 162
-115.822 -1167.12 -2155 209 173 143
-111.234 -1168.11 -2157 193 158 127
-106.491 -1167.48 -2156 168 133 104
-101.658 -1165.78 -2153 127 102 80
-97.1102 -1167.32 -2156 85 64 46
-92.85 -1172.66 -2166 75 57 48
-243.338 -1177.11 -2156 79 69 69
-238.264 -1175.28 -2153 145 126 111
-232.663 -1170.73 -2145 178 156 138
-226.993 -1165.63 -2136 185 157 133
-222.197 -1164.91 -2135 201 168 140
-217.612 -1165.28 -2136 205 173 145
-212.625 -1163.47 -2133 203 174 145
-208.239 -1164.94 -2136 213 177 151
-203.937 -1166.96 -2140 217 181 154
-199.247 -1166.8 -2140 220 184 157
-194.922 -1168.82 -2144 213 178 148
-190.582 -1170.85 -2148 195 159 131
-186.053 -1171.79 -2150 170 134 108
-181.601 -1173.28 -2153 113 87 72
-177.796 -1179.13 -2164 73 56 47
-164.663 -1186.35 -2178 63 53 49
-159.906 -1186.22 -2178 109 95 88
-153.796 -1175.75 -2159 174 150 132
-148.669 -1172.37 -2153 202 169 143
-143.569 -1168.98 -2147 219 185 158
-138.755 -1167.78 -2145 232 195 167
-133.764 -1164.95 -2140 236 201 171
-129.279 -1166.48 -2143 235 201 172
-124.956 -1169.65 -2149 233 199 171
-120.385 -1170.64 -2151 231 194 166
-115.752 -1171.09 -2152 215 180 150
-111.115 -1171.54 -2153 206 171 141
-106.476 -1172 -2154 182 149 120
-101.361 -1167.02 -2145 144 120 97
-96.8262 -1168.58 -2148 94 74 55
-92.6229 -1174.49 -2159 77 58 48
-88.9428 -1188.01 -2184 72 57 50
-242.402 -1177.27 -2146 88 78 76
-237.9 -1178.17 -2148 158 137 124
-232.414 -1174.15 -2141 185 161 144
-226.961 -1170.13 -2134 193 165 141
-222.166 -1169.4 -2133 206 174 146
-217.377 -1168.67 -2132 210 178 150
-212.396 -1166.86 -2129 213 181 153
-207.82 -1167.24 -2130 223 187 160
-203.432 -1168.72 -2133 226 191 163
-198.846 -1169.11 -2134 227 192 162
-194.44 -1170.59 -2137 223 188 158
-190.29 -1173.73 -2143 210 174 147
-185.941 -1175.77 -2147 182 146 120
-181.746 -1178.91 -2153 108 84 69
-177.773 -1183.69 -2162 71 54 47
-164.189 -1187.66 -2170 64 54 50
-159.298 -1186.44 -2168 103 89 82
-153.348 -1177.01 -2151 172 148 129
-148.441 -1175.25 -2148 203 171 144
-143.348 -1171.85 -2142 222 187 161
-138.477 -1170.1 -2139 231 194 168
-133.62 -1168.35 -2136 233 198 168
-129.08 -1169.34 -2138 235 199 170
-124.648 -1171.42 -2142 235 199 171
-120.144 -1172.97 -2145 230 193 164
-115.467 -1172.87 -2145 220 184 154
-110.739 -1172.24 -2144 220 185 155
-106.165 -1173.24 -2146 200 168 140
-101.157 -1169.33 -2139 167 142 118
-96.7224 -1171.99 -2144 110 89 68
-92.4816 -1177.38 -2154 77 58 48
-88.5649 -1187.69 -2173 71 59 52
-252.412 -1184.95 -2149 65 60 63
-246.981 -1181.44 -2143 66 60 65
-241.466 -1177.39 -2136 91 80 76
-236.65 -1176.65 -2135 168 146 131
-231.297 -1173.15 -2129 194 168 150
-226.291 -1171.31 -2126 201 172 147
-221.51 -1170.58 -2125 209 177 150
-216.837 -1170.41 -2125 218 185 157
-212.066 -1169.69 -2124 229 196 168
-207.4 -1169.52 -2124 236 200 173
-202.831 -1169.9 -2125 235 200 171
-198.539 -1171.94 -2129 229 194 164
-193.958 -1172.34 -2130 225 190 160
-189.553 -1173.83 -2133 216 181 153
-185.396 -1176.99 -2139 192 156 130
-181.3 -1180.69 -2146 109 85 69
-177.009 -1183.3 -2151 71 54 44
-173.26 -1189.76 -2163 64 51 45
-164.093 -1191.69 -2167 64 54 50
-159.058 -1189.36 -2163 91 78 71
-153.114 -1179.89 -2146 168 144 124
-148.076 -1177.02 -2141 205 173 149
-142.994 -1173.6 -2135 221 187 162
-138.199 -1172.39 -2133 229 192 166
-133.414 -1171.18 -2131 234 199 169
-128.881 -1172.18 -2133 238 202 173
-124.514 -1174.82 -2138 236 201 171
-119.959 -1175.83 -2140 231 194 165
-115.397 -1176.83 -2142 225 189 160
-110.62 -1175.64 -2140 228 192 163
-106.002 -1176.1 -2141 215 183 154
-101.048 -1172.73 -2135 184 158 133
-96.6189 -1175.39 -2140 137 115 91
-92.0397 -1176.42 -2142 82 63 53
-88.0236 -1185.13 -2158 68 57 51
-83.514 -1187.81 -2163 65 56 52
-258.559 -1196.36 -2159 67 65 64
-241.548 -1182.45 -2135 107 95 87
-236.397 -1180.05 -2131 178 156 139
-230.939 -1175.98 -2124 204 177 156
-225.941 -1174.14 -2121 210 180 155
-221.479 -1175.06 -2123 218 185 158
-216.807 -1174.89 -2123 232 199 171
-212.037 -1174.16 -2122 241 208 180
-207.371 -1173.99 -2122 243 207 180
-202.898 -1174.93 -2124 240 204 177
-198.232 -1174.77 -2124 234 198 170
-193.659 -1175.16 -2125 228 193 163
-189.172 -1176.12 -2127 216 181 152
-185.025 -1179.28 -2133 198 162 135
-180.853 -1182.45 -2139 121 95 80
-176.987 -1187.84 -2149 72 53 43
-172.597 -1189.91 -2153 68 53 47
-163.164 -1189.64 -2153 64 53 49
-157.787 -1184.53 -2144 72 59 53
-152.308 -1178.33 -2133 156 132 114
-147.779 -1179.32 -2135 205 174 152
-142.773 -1176.44 -2130 219 186 162
-138.05 -1175.77 -2129 230 194 168
-133.395 -1175.66 -2129 239 203 176
-128.802 -1176.11 -2130 242 206 179
-124.323 -1177.67 -2133 240 203 176
-119.719 -1178.12 -2134 234 197 170
-115.166 -1179.13 -2136 230 193 165
-110.45 -1178.49 -2135 231 194 165
-105.888 -1179.5 -2137 224 190 160
-100.892 -1175.56 -2130 202 174 145
-96.3799 -1177.13 -2133 169 144 117
-91.8553 -1178.71 -2136 96 78 67
-87.6858 -1185.26 -2148 64 54 47
-83.1943 -1187.95 -2153 64 56 50
-257.45 -1195.93 -2148 71 68 70
-251.409 -1189.6 -2137 69 65 65
-246.111 -1186.61 -2132 71 66 66
-241.517 -1186.97 -2133 132 117 103
-230.8 -1179.91 -2121 204 178 155
-225.911 -1178.61 -2119 214 183 157
-221.241 -1178.43 -2119 228 194 166
-216.472 -1177.7 -2118 238 204 176
-211.909 -1178.08 -2119 242 208 180
-207.148 -1177.35 -2118 246 210 183
-202.585 -1177.74 -2119 244 208 181
-198.019 -1178.14 -2120 241 205 178
-193.359 -1177.98 -2120 233 198 168
-188.791 -1178.38 -2121 220 185 156
-184.654 -1181.56 -2127 203 167 140
-180.407 -1184.19 -2132 129 102 87
-176.882 -1191.82 -2146 77 56 45
-172.817 -1196.12 -2154 70 54 47
-168.951 -1202.09 -2165 63 53 52
-163.219 -1194.74 -2152 64 53 49
-157.62 -1187.95 -2140 67 55 49
-152.288 -1182.83 -2131 152 128 111
-147.69 -1183.26 -2132 203 173 151
-142.687 -1180.37 -2127 219 187 163
-138.032 -1180.26 -2127 231 195 169
-133.378 -1180.15 -2127 240 206 179
-128.604 -1178.93 -2125 242 208 180
-123.956 -1178.83 -2125 242 205 178
-119.366 -1179.29 -2126 236 199 172
-114.719 -1179.19 -2126 233 196 169
-110.073 -1179.1 -2126 233 196 169
-105.626 -1181.23 -2130 229 194 164
-100.784 -1178.93 -2126 216 185 155
-96.3218 -1181.07 -2130 196 166 136
-91.671 -1180.99 -2130 135 113 99
-87.266 -1184.25 -2136 74 61 51
-82.6812 -1185.29 -2138 65 55 47
-259.482 -1188.4 -2124 73 66 61
-255.501 -1191.54 -2130 71 65 68
-249.965 -1187.42 -2123 74 66 65
-245.272 -1187.22 -2123 97 88 81
-241.034 -1189.26 -2127 168 149 128
-235.67 -1185.71 -2121 192 168 145
-230.77 -1184.4 -2119 206 179 153
-225.988 -1183.65 -2118 222 189 162
-221.317 -1183.47 -2118 237 201 174
-216.341 -1181.62 -2115 241 205 178
-211.981 -1183.12 -2118 246 210 183
-207.121 -1181.83 -2116 247 211 183
-202.654 -1182.78 -2118 248 212 184
-197.899 -1182.06 -2117 245 209 182
-193.06 -1180.78 -2115 239 203 176
-188.41 -1180.63 -2115 227 191 164
-184.108 -1182.71 -2119 205 169 143
-179.707 -1184.23 -2122 138 113 97
-175.706 -1188.55 -2130 79 59 47
-171.993 -1195.11 -2142 67 51 43
-168.386 -1202.78 -2156 64 53 51
-162.972 -1197.62 -2147 66 55 50
-157.231 -1189.68 -2133 68 56 49
-152.126 -1186.21 -2127 148 124 109
-147.533 -1186.65 -2128 202 172 151
-142.467 -1183.18 -2122 221 189 166
-137.624 -1181.4 -2119 236 202 177
-133.046 -1181.85 -2120 245 212 185
-128.163 -1179.51 -2116 245 210 182
-123.473 -1178.85 -2115 245 206 177
-118.845 -1178.75 -2115 240 202 173
-114.434 -1180.89 -2119 235 197 169
-109.748 -1180.24 -2118 232 195 168
-105.315 -1182.38 -2122 226 193 165
-100.676 -1182.3 -2122 218 185 153
-96.3092 -1185.56 -2128 211 178 144
-91.5729 -1184.37 -2126 179 153 132
-87.2141 -1188.2 -2133 106 88 73
-82.748 -1190.91 -2138 76 61 49
-73.8559 -1198.03 -2151 0 0 0
-258.472 -1188.41 -2114 70 64 60
-254.51 -1191.57 -2120 74 64 64
-249.345 -1189.11 -2116 91 79 73
-244.663 -1188.91 -2116 152 136 121
-240.324 -1190.4 -2119 184 162 135
-234.862 -1186.27 -2112 198 172 144
-229.869 -1184.39 -2109 212 184 156
-225.105 -1183.65 -2108 228 195 166
-220.347 -1182.9 -2107 240 205 177
-215.597 -1182.16 -2106 242 205 178
-211.353 -1184.23 -2110 248 211 184
-206.604 -1183.5 -2109 250 215 186
-201.957 -1183.33 -2109 251 215 186
-197.313 -1183.17 -2109 249 213 186
-192.487 -1181.89 -2107 246 210 183
-187.761 -1181.17 -2106 233 197 170
-183.215 -1181.58 -2107 212 176 150
-178.752 -1182.55 -2109 152 128 112
-174.446 -1184.65 -2113 85 65 53
-170.768 -1191.24 -2125 71 55 47
-167.741 -1202.87 -2146 66 53 51
-162.345 -1197.69 -2137 66 53 48
-156.991 -1192.52 -2128 71 58 51
-152.178 -1191.27 -2126 148 125 109
-147.375 -1190.03 -2124 202 173 153
-142.247 -1185.99 -2117 226 195 173
-137.476 -1184.75 -2115 241 207 184
-132.903 -1185.2 -2116 246 213 187
-128.025 -1182.85 -2112 246 211 184
-123.34 -1182.19 -2111 245 206 177
-118.604 -1180.97 -2109 241 202 173
-114.149 -1182.56 -2112 238 199 171
-109.63 -1183.59 -2114 233 196 169
-105.152 -1185.18 -2117 227 192 164
-100.568 -1185.65 -2118 219 185 154
-96.2064 -1188.93 -2124 212 179 145
-91.6042 -1189.42 -2125 205 173 147
-87.1622 -1192.14 -2130 159 135 113
-82.6603 -1194.31 -2134 91 70 51
-78.1784 -1197.04 -2139 68 58 51
-73.7441 -1200.9 -2146 65 58 53
-69.3443 -1205.88 -2155 0 0 0
-262.377 -1189.72 -2106 68 63 61
-257.461 -1188.38 -2104 71 66 63
-253.278 -1190.43 -2108 85 71 66
-248.489 -1189.65 -2107 139 122 111
-243.708 -1188.89 -2106 182 158 136
-239.501 -1190.94 -2110 194 169 139
-234.499 -1189.06 -2107 206 179 149
-229.513 -1187.17 -2104 221 192 162
-224.862 -1186.98 -2104 233 200 170
-220.215 -1186.8 -2104 242 207 179
-215.262 -1184.93 -2101 246 209 182
-210.925 -1186.45 -2104 249 212 185
-206.284 -1186.27 -2104 250 214 185
-201.644 -1186.11 -2104 249 214 185
-196.726 -1184.25 -2101 249 213 186
-192.096 -1184.09 -2101 247 211 184
-187.38 -1183.37 -2100 239 203 177
-182.843 -1183.78 -2101 224 188 162
-178.305 -1184.2 -2102 168 143 126
-174.094 -1186.87 -2107 90 69 56
-170.184 -1191.8 -2116 73 56 48
-166.549 -1198.98 -2129 70 56 53
-161.49 -1196.03 -2124 70 57 52
-156.455 -1193.08 -2119 74 62 56
-151.73 -1192.39 -2118 151 128 112
-146.941 -1191.14 -2116 207 179 160
-141.893 -1187.65 -2110 228 198 178
-137.198 -1186.97 -2109 242 208 187
-132.509 -1186.3 -2108 245 212 186
-127.765 -1185.07 -2106 246 211 184
-123.031 -1183.84 -2104 247 208 179
-118.42 -1183.74 -2104 246 207 180
-113.918 -1184.77 -2106 243 205 178
-109.564 -1187.49 -2111 235 198 171
-105.039 -1188.53 -2113 228 192 164
-100.507 -1189.57 -2115 222 189 157
-96.1491 -1192.86 -2121 213 182 149
-91.5928 -1193.91 -2123 218 182 154
-87.0286 -1194.96 -2125 204 173 146
-82.5729 -1197.7 -2130 146 119 94
-78.0229 -1199.32 -2133 76 65 58
-73.598 -1203.2 -2140 69 61 58
-69.111 -1206.51 -2146 70 61 59
-262.345 -1194.2 -2104 69 63 62
-257.062 -1191.15 -2099 70 65 65
-252.405 -1190.94 -2099 126 110 101
-247.515 -1189.59 -2097 177 157 142
-242.867 -1189.39 -2097 195 167 139
-238.563 -1190.89 -2100 201 174 142
-233.69 -1189.56 -2098 217 189 158
-229.047 -1189.37 -2098 231 200 169
-224.407 -1189.18 -2098 237 203 173
-219.768 -1189 -2098 244 209 180
-214.824 -1187.12 -2095 248 212 185
-210.498 -1188.64 -2098 251 212 187
-205.669 -1187.34 -2096 249 213 186
-200.851 -1186.03 -2094 250 215 187
-196.232 -1185.87 -2094 251 216 188
-191.523 -1185.14 -2093 246 211 183
-186.731 -1183.85 -2091 241 206 178
-182.298 -1184.83 -2093 228 192 165
-177.942 -1186.38 -2096 183 155 136
-173.327 -1186.24 -2096 98 74 59
-169.922 -1194.59 -2111 75 58 50
-166.608 -1204.07 -2128 73 59 55
-161.395 -1199.97 -2121 72 59 55
-156.51 -1198.14 -2118 72 60 55
-151.568 -1195.75 -2114 158 134 118
-146.506 -1192.23 -2108 215 186 169
-141.606 -1189.85 -2104 232 201 183
-136.986 -1189.74 -2104 244 210 191
-132.241 -1188.5 -2102 250 217 193
-127.567 -1187.82 -2101 247 213 188
-122.898 -1187.15 -2100 248 211 186
-118.236 -1186.49 -2099 249 212 186
-113.632 -1186.39 -2099 249 212 187
-109.342 -1189.69 -2105 243 206 180
-104.728 -1189.61 -2105 236 198 173
-100.352 -1192.35 -2110 237 197 171
-96.0014 -1195.66 -2116 234 193 166
-91.4953 -1197.27 -2119 230 186 161
-86.8543 -1197.2 -2119 228 191 165
-82.3303 -1198.83 -2122 208 174 148
-77.7941 -1200.45 -2125 126 105 84
-73.2455 -1202.09 -2128 76 65 58
-68.7166 -1204.29 -2132 75 65 62
-267.622 -1201.76 -2107 72 65 68
-261.565 -1195.26 -2096 72 64 65
-256.296 -1192.19 -2091 84 78 63
-251.773 -1192.55 -2092 160 142 122
-246.658 -1190.06 -2088 195 172 149
-242.026 -1189.86 -2088 209 178 147
-237.624 -1190.8 -2090 224 190 158
-232.881 -1190.03 -2089 237 201 171
-228.036 -1188.7 -2087 239 203 176
-223.63 -1189.65 -2089 242 205 176
-219.112 -1190.04 -2090 246 210 181
-214.284 -1188.72 -2088 249 214 184
-209.97 -1190.25 -2091 251 215 188
-205.349 -1190.08 -2091 250 216 188
-200.73 -1189.91 -2091 249 216 188
-196.207 -1190.31 -2092 248 215 187
-191.59 -1190.15 -2092 244 211 181
-186.886 -1189.42 -2091 242 208 179
-182.536 -1190.98 -2094 234 198 171
-178.175 -1192.53 -2097 203 169 147
-173.223 -1190.11 -2093 111 83 66
-169.66 -1197.36 -2106 79 62 54
-166.119 -1205.18 -2120 76 62 55
-161.148 -1202.77 -2116 73 60 54
-156.344 -1201.5 -2114 76 62 58
-151.335 -1198.53 -2109 168 144 128
-146.001 -1192.73 -2099 222 192 175
-141.185 -1190.9 -2096 237 204 188
-136.513 -1190.22 -2095 247 213 195
-131.721 -1188.4 -2092 253 218 197
-127.186 -1188.86 -2093 253 218 196
-122.824 -1191.03 -2097 254 218 195
-118.164 -1190.37 -2096 255 219 195
-113.618 -1190.84 -2097 255 219 195
-109.276 -1193.58 -2102 248 211 187
-104.665 -1193.5 -2102 243 203 180
-100.102 -1193.98 -2103 245 202 180
-95.8082 -1197.87 -2110 248 202 179
-91.3982 -1200.63 -2115 240 196 172
-86.7209 -1199.99 -2114 231 192 167
-82.243 -1202.19 -2118 228 191 165
-77.6385 -1202.69 -2119 193 165 140
-72.9959 -1202.63 -2119 114 97 85
-68.2249 -1200.3 -2115 77 62 54
-63.5323 -1199.11 -2113 74 62 60
-266.829 -1202.82 -2099 76 67 69
-261.285 -1198.58 -2092 75 66 66
-256.02 -1195.5 -2087 125 111 94
-251.261 -1194.72 -2086 197 175 153
-246.273 -1192.79 -2083 214 188 164
-241.533 -1192.01 -2082 228 197 166
-237.14 -1192.96 -2084 239 204 174
-232.63 -1193.33 -2085 240 205 175
-227.789 -1191.99 -2083 242 206 179
-223.174 -1191.81 -2083 244 207 178
-218.561 -1191.62 -2083 247 210 182
-213.95 -1191.44 -2083 251 215 188
-209.441 -1191.83 -2084 252 215 188
-204.734 -1191.09 -2083 252 216 187
-200.129 -1190.92 -2083 252 217 187
-195.62 -1191.33 -2084 249 213 186
-191.017 -1191.16 -2084 246 212 184
-186.326 -1190.43 -2083 244 210 183
-182.077 -1192.57 -2087 239 202 176
-177.643 -1193.56 -2089 218 184 161
-172.787 -1191.7 -2086 126 96 78
-169.075 -1197.84 -2097 81 64 56
-165.552 -1205.7 -2111 75 59 53
-160.368 -1201.56 -2104 72 57 52
-155.66 -1200.86 -2103 73 60 56
-150.671 -1197.88 -2098 178 151 136
-145.426 -1192.61 -2089 224 193 176
-140.695 -1191.35 -2087 239 206 187
-136.235 -1192.38 -2089 246 212 192
-131.515 -1191.13 -2087 251 216 194
-127.049 -1192.16 -2089 254 218 196
-122.692 -1194.34 -2093 255 220 196
-117.981 -1193.1 -2091 255 220 196
-113.387 -1193 -2091 255 219 196
-109.003 -1195.19 -2095 250 212 189
-104.503 -1196.24 -2097 245 205 182
-99.947 -1196.73 -2098 245 204 181
-95.6152 -1200.07 -2104 243 201 178
-91.2145 -1202.84 -2109 243 202 177
-86.5467 -1202.2 -2108 236 197 171
-81.9227 -1202.13 -2108 230 192 166
-77.2996 -1202.06 -2108 216 184 159
-72.6772 -1202 -2108 173 150 132
-68.0233 -1201.37 -2107 99 80 65
-63.4045 -1201.32 -2107 76 63 56
-265.146 -1199.82 -2084 73 64 62
-259.88 -1196.72 -2079 88 75 72
-255.13 -1195.93 -2078 184 162 145
-250.147 -1193.99 -2075 221 193 171
-245.297 -1192.63 -2073 233 203 178
-240.691 -1192.42 -2073 240 207 178
-236.315 -1193.37 -2075 242 206 180
-232.044 -1194.9 -2078 241 205 179
-227.543 -1195.28 -2079 240 204 177
-222.932 -1195.09 -2079 242 205 176
-218.429 -1195.48 -2080 246 209 181
-213.924 -1195.87 -2081 251 214 187
-209.215 -1195.12 -2080 252 215 188
-204.414 -1193.8 -2078 252 215 187
-199.912 -1194.2 -2079 251 214 185
-195.314 -1194.03 -2079 248 212 185
-190.627 -1193.3 -2078 245 211 183
-185.945 -1192.56 -2077 244 211 183
-181.706 -1194.71 -2081 239 202 176
-177.366 -1196.28 -2084 222 190 166
-172.849 -1196.7 -2085 141 112 93
-168.894 -1201.15 -2093 84 64 57
-164.984 -1206.18 -2102 79 63 57
-159.739 -1201.45 -2094 78 63 58
-154.901 -1199.6 -2091 81 70 64
-150.15 -1198.32 -2089 192 163 146
-144.991 -1193.61 -2081 229 199 180
-140.476 -1194.06 -2082 242 210 189
-135.827 -1193.37 -2081 246 214 192
-130.995 -1190.97 -2077 251 215 193
-126.668 -1193.15 -2081 254 218 196
-122.325 -1195.34 -2085 255 219 196
-117.797 -1195.82 -2086 255 220 196
-113.211 -1195.72 -2086 255 220 197
-109.094 -1200.78 -2095 253 214 191
-104.391 -1199.55 -2093 244 203 180
-99.8876 -1200.61 -2095 240 200 176
-95.3311 -1201.1 -2096 240 200 177
-90.7713 -1201.6 -2097 243 203 178
-86.0436 -1199.8 -2094 242 202 177
-81.4077 -1199.16 -2093 242 201 176
-76.777 -1198.52 -2092 232 196 173
-72.1168 -1197.31 -2090 210 180 157
-67.6277 -1198.97 -2093 132 106 86
-63.0659 -1199.49 -2094 79 65 53
-58.6678 -1203.45 -2101 75 63 60
-274.272 -1204.15 -2081 0 0 0
-268.981 -1201.03 -2076 77 71 69
-264.479 -1201.38 -2077 77 66 61
-259.474 -1199.42 -2074 108 92 82
-254.609 -1198.05 -2072 202 173 155
-249.996 -1197.83 -2072 233 200 179
-244.912 -1195.31 -2068 247 211 187
-240.429 -1195.68 -2069 245 209 182
-235.831 -1195.48 -2069 242 206 180
-231.681 -1197.6 -2073 241 205 179
-226.859 -1196.25 -2071 239 202 175
-222.37 -1196.63 -2072 242 203 176
-218.088 -1198.18 -2075 246 208 181
-213.693 -1199.15 -2077 252 215 188
-208.888 -1197.82 -2075 255 218 192
-204.094 -1196.49 -2073 255 217 189
-199.504 -1196.32 -2073 251 213 184
-194.915 -1196.15 -2073 248 209 183
-190.053 -1194.26 -2070 246 208 181
-185.474 -1194.1 -2070 244 207 180
-181.422 -1197.41 -2076 239 200 174
-177.26 -1200.14 -2081 222 189 165
-172.414 -1198.26 -2078 152 123 103
-168.875 -1205.61 -2091 85 68 60
-165.28 -1212.97 -2104 83 67 61
-159.721 -1205.91 -2092 80 65 58
-154.438 -1200.59 -2083 93 80 73
-149.917 -1201.04 -2084 199 170 155
-144.834 -1196.88 -2077 229 197 180
-140.121 -1195.61 -2075 243 209 189
-135.615 -1196.07 -2076 246 213 188
-130.789 -1193.65 -2072 250 214 190
-126.409 -1195.27 -2075 255 218 194
-122.135 -1198.05 -2080 255 218 197
-117.557 -1197.95 -2080 255 219 195
-112.98 -1197.85 -2080 255 219 195
-108.717 -1201.21 -2086 253 214 191
-104.029 -1199.97 -2084 246 204 179
-99.4941 -1200.46 -2085 240 200 174
-94.956 -1200.95 -2086 240 203 177
-90.371 -1200.87 -2086 244 204 178
-85.7457 -1200.22 -2085 242 200 175
-81.1256 -1199.58 -2084 235 193 168
-76.4374 -1197.79 -2081 239 200 178
-71.6938 -1194.85 -2076 217 182 157
-67.1994 -1195.94 -2078 151 121 97
-62.6967 -1197.03 -2080 79 63 51
-263.429 -1201.18 -2067 83 73 66
-259.194 -1202.7 -2070 115 97 85
-254.211 -1200.73 -2067 213 179 161
-249.726 -1201.1 -2068 243 207 186
-244.765 -1199.15 -2065 240 201 178
-240.169 -1198.94 -2065 239 202 175
-235.118 -1196.42 -2061 242 206 179
-230.871 -1197.96 -2064 243 207 181
-226.174 -1197.18 -2063 241 202 176
-221.699 -1197.57 -2064 242 203 176
-217.327 -1198.55 -2066 246 207 181
-212.947 -1199.52 -2068 250 213 187
-208.159 -1198.18 -2066 252 215 189
-203.479 -1197.43 -2065 253 216 189
-198.902 -1197.26 -2065 248 209 180
-194.516 -1198.25 -2067 247 205 179
-189.754 -1196.93 -2065 244 203 177
-185.452 -1198.51 -2068 242 201 175
-181.314 -1201.25 -2073 239 198 172
-177.24 -1204.57 -2079 222 187 162
-172.477 -1203.27 -2077 140 110 87
-168.856 -1210.07 -2089 80 63 55
-164.634 -1212.83 -2094 80 66 59
-159.321 -1207.48 -2085 79 65 58
-154.124 -1202.71 -2077 96 80 74
-149.611 -1203.16 -2078 200 171 155
-144.468 -1198.41 -2070 228 195 176
-139.834 -1197.71 -2069 239 203 182
-135.272 -1197.59 -2069 245 210 184
-130.521 -1195.74 -2066 248 211 185
-126.028 -1196.21 -2067 254 217 191
-121.826 -1199.58 -2073 255 217 193
-117.373 -1200.63 -2075 253 216 190
-112.858 -1201.12 -2076 252 214 188
-108.496 -1203.34 -2080 255 215 190
-103.767 -1201.51 -2077 251 209 184
-99.1962 -1201.42 -2077 241 201 175
-94.6261 -1201.34 -2077 238 200 174
-89.9702 -1200.11 -2075 246 206 180
-85.4065 -1200.03 -2075 240 198 172
-80.9214 -1201.12 -2077 227 185 159
-76.2445 -1199.32 -2074 239 197 174
-71.5469 -1196.94 -2070 226 188 163
-66.9971 -1196.89 -2070 154 120 96
-62.4177 -1196.25 -2069 89 71 59
-264.165 -1209.1 -2071 84 76 71
-259.291 -1207.71 -2069 123 105 96
-253.69 -1202.82 -2061 221 186 169
-248.973 -1202.02 -2060 243 206 187
-243.907 -1199.48 -2056 225 185 163
-239.559 -1200.44 -2058 224 188 161
-234.634 -1198.49 -2055 241 204 178
-230.621 -1201.2 -2060 241 205 179
-225.709 -1199.26 -2057 236 199 172
-221.351 -1200.23 -2059 246 206 180
-216.775 -1200.05 -2059 245 206 180
-212.511 -1201.61 -2062 246 207 181
-207.529 -1199.1 -2058 249 211 185
-202.962 -1198.92 -2058 242 203 176
-198.108 -1197.01 -2055 230 191 160
-193.739 -1198 -2057 230 187 161
-189.088 -1197.26 -2056 231 188 162
-184.803 -1198.84 -2059 235 191 165
-180.593 -1201.02 -2063 234 191 166
-176.794 -1206.1 -2072 223 185 160
-171.876 -1203.63 -2068 127 92 70
-168.191 -1209.88 -2079 78 61 53
-163.594 -1209.74 -2079 77 63 56
-158.462 -1205.53 -2072 79 65 58
-153.289 -1200.74 -2064 92 76 70
-148.874 -1201.78 -2066 198 169 151
-144.102 -1199.91 -2063 221 189 169
-139.547 -1199.79 -2063 222 186 163
-134.994 -1199.67 -2063 229 192 166
-130.315 -1198.4 -2061 239 202 176
-125.952 -1200.03 -2064 247 210 184
-121.342 -1199.34 -2063 252 212 187
-116.963 -1200.99 -2066 252 215 189
-112.573 -1202.63 -2069 248 210 184
-108.222 -1204.86 -2073 251 209 184
-103.505 -1203.03 -2070 250 208 183
-99.0413 -1204.11 -2072 243 201 176
-94.3871 -1202.86 -2070 231 191 166
-89.6994 -1201.04 -2067 238 198 172
-85.2317 -1202.13 -2069 239 197 171
-80.6781 -1202.06 -2069 231 188 162
-76.0515 -1200.83 -2067 235 193 170
-71.5383 -1201.35 -2068 231 193 168
-67.0862 -1203.03 -2071 161 126 104
-62.4405 -1201.23 -2068 92 71 61
-259.89 -1215.08 -2072 104 88 84
-253.785 -1207.83 -2060 212 178 163
-248.34 -1203.51 -2053 236 200 183
-243.166 -1200.36 -2048 216 178 158
-238.949 -1201.91 -2051 225 191 163
-233.921 -1199.37 -2047 234 199 172
-230.034 -1202.68 -2053 209 173 147
-225.244 -1201.31 -2051 229 191 164
-220.787 -1201.71 -2052 238 199 172
-216.013 -1200.35 -2050 230 190 164
-211.765 -1201.92 -2053 235 195 170
-206.9 -1199.99 -2050 232 192 167
-202.544 -1200.98 -2052 218 178 151
-197.602 -1198.47 -2048 203 162 132
-193.34 -1200.06 -2051 221 176 151
-188.882 -1200.48 -2052 230 184 159
-184.871 -1203.83 -2058 223 177 152
-180.484 -1204.84 -2060 223 179 155
-176.945 -1211.7 -2072 211 172 148
-172.605 -1213.31 -2075 112 76 52
-168.578 -1217.25 -2082 80 63 54
-163.34 -1212.43 -2074 77 63 55
-158.598 -1211.13 -2072 78 64 58
-153.718 -1208.66 -2068 90 74 68
-149.001 -1207.36 -2066 196 166 147
-144.015 -1203.73 -2060 214 182 161
-139.395 -1203.02 -2059 216 179 155
-134.716 -1201.73 -2057 221 184 158
-129.731 -1197.53 -2050 222 184 158
-125.51 -1200.34 -2055 227 188 162
-120.974 -1200.24 -2055 233 193 168
-116.78 -1203.64 -2061 242 202 177
-112.288 -1204.13 -2062 239 199 173
-107.949 -1206.37 -2066 239 197 172
-103.093 -1202.77 -2060 234 190 166
-98.7431 -1205.02 -2064 234 191 166
-94.057 -1203.19 -2061 235 193 168
-89.5153 -1203.11 -2061 212 170 144
-85.0158 -1203.62 -2062 221 179 153
-80.5907 -1205.3 -2065 237 194 168
-76.0058 -1204.65 -2064 232 190 165
-71.5301 -1205.75 -2066 220 183 161
-67.0786 -1207.45 -2069 159 125 106
-62.4029 -1205.06 -2065 92 71 65
-248.918 -1210.85 -2056 228 195 180
-243.614 -1207.11 -2050 214 179 160
-238.922 -1206.31 -2049 230 197 169
-234.009 -1204.34 -2046 234 200 170
-229.448 -1204.14 -2046 219 183 151
-224.669 -1202.76 -2044 238 198 172
-220.44 -1204.34 -2047 229 189 163
-215.566 -1202.38 -2044 218 178 152
-211.121 -1202.79 -2045 233 193 169
-206.371 -1201.43 -2043 233 193 168
-202.027 -1202.43 -2045 184 143 117
-197 -1199.32 -2040 166 124 95
-192.846 -1201.5 -2044 225 179 154
-188.492 -1202.51 -2046 233 187 162
-184.58 -1206.46 -2053 233 187 162
-180.201 -1207.48 -2055 229 184 160
-176.584 -1213.79 -2066 210 171 147
-172.254 -1215.4 -2069 108 73 49
-168.399 -1220.54 -2078 82 65 55
-162.85 -1213.35 -2066 80 65 58
-158.045 -1211.45 -2063 78 63 57
-153.701 -1213.08 -2066 86 70 64
-148.624 -1208.84 -2059 186 155 138
-143.649 -1205.19 -2053 215 181 162
-138.973 -1203.9 -2051 218 181 157
-134.439 -1203.78 -2051 221 184 156
-129.652 -1201.32 -2047 216 178 151
-125.496 -1204.73 -2053 197 157 132
-121.019 -1205.21 -2054 193 153 129
-116.767 -1208.04 -2059 202 162 137
-111.948 -1205.01 -2054 221 181 156
-107.466 -1205.5 -2055 238 196 171
-102.731 -1203.06 -2051 231 187 162
-98.3489 -1204.74 -2054 228 184 158
-93.6808 -1202.9 -2051 245 199 174
-89.3747 -1205.75 -2056 224 181 153
-85.0473 -1208.61 -2061 202 159 132
-80.5816 -1209.71 -2063 245 202 176
-76.071 -1210.23 -2064 231 191 168
-71.9379 -1217.2 -2076 199 164 145
-67.2333 -1214.79 -2072 118 87 73
-243.706 -1212.1 -2049 173 141 125
-239.013 -1211.3 -2048 229 196 169
-234.098 -1209.32 -2045 233 198 169
-229.422 -1208.52 -2044 224 187 154
-224.534 -1206.55 -2041 241 203 177
-219.876 -1205.77 -2040 228 188 162
-214.803 -1202.63 -2035 222 181 154
-210.168 -1201.85 -2034 237 196 174
-205.64 -1201.67 -2034 240 198 175
-201.411 -1203.26 -2037 163 120 96
-196.59 -1201.32 -2034 191 146 120
-192.73 -1205.28 -2041 239 192 167
-188.286 -1205.71 -2042 234 187 162
-184.38 -1209.68 -2049 236 189 164
-179.743 -1208.93 -2048 239 195 171
-176.138 -1215.27 -2059 212 176 154
-172.236 -1219.84 -2067 106 76 56
-168.058 -1222.65 -2072 82 66 58
-157.721 -1213.51 -2057 82 68 64
-153.462 -1215.74 -2061 87 71 64
-147.885 -1207.35 -2047 187 155 141
-143.003 -1204.27 -2042 222 188 172
-138.483 -1204.15 -2042 220 185 165
-133.964 -1204.04 -2042 219 181 156
-129.193 -1201.56 -2038 227 186 161
-125.176 -1206.17 -2046 203 160 135
-120.711 -1206.65 -2047 137 97 70
-116.47 -1209.5 -2052 124 83 54
-111.826 -1208.22 -2050 209 167 137
-107.454 -1209.89 -2053 240 200 172
-102.819 -1208.62 -2051 232 193 166
-98.4816 -1210.89 -2055 217 179 153
-93.7159 -1207.86 -2050 237 199 173
-89.4952 -1211.91 -2057 233 191 166
-85.2445 -1215.96 -2064 211 167 143
-80.7683 -1217.06 -2066 233 187 165
-76.2103 -1217 -2066 237 193 173
-72.2078 -1226.36 -2082 179 147 140
-67.3237 -1221 -2073 87 61 60
-237.937 -1210.35 -2037 210 178 159
-233.5 -1210.74 -2038 225 190 167
-229.173 -1211.73 -2040 223 185 156
-224.179 -1209.15 -2036 234 201 176
-219.636 -1208.96 -2036 229 192 165
-214.462 -1205.21 -2030 222 182 152
-210.144 -1206.21 -2032 236 192 171
-205.313 -1204.25 -2029 242 196 175
-201.289 -1207.04 -2034 182 136 114
-196.375 -1204.49 -2030 224 175 153
-192.519 -1208.47 -2037 234 186 161
-187.896 -1207.71 -2036 237 189 165
-183.82 -1210.52 -2041 234 185 161
-179.284 -1210.36 -2041 237 194 171
-175.606 -1216.13 -2051 210 177 159
-171.969 -1222.51 -2062 109 85 72
-152.775 -1214.83 -2050 88 74 65
-147.146 -1205.81 -2035 193 159 147
-142.566 -1205.09 -2034 219 182 168
-137.992 -1204.38 -2033 222 186 166
-133.555 -1204.85 -2034 231 191 166
-128.734 -1201.77 -2029 225 183 158
-124.978 -1208.77 -2041 220 177 152
-120.343 -1207.48 -2039 149 105 85
-116.344 -1212.71 -2048 84 40 18
-111.705 -1211.42 -2046 191 147 125
-107.39 -1213.7 -2050 235 192 167
-102.708 -1211.83 -2047 230 190 164
-98.3751 -1214.11 -2051 219 180 153
-93.614 -1211.07 -2046 234 192 165
-89.5292 -1216.91 -2056 239 194 172
-85.3184 -1221.56 -2064 212 165 147
-80.6818 -1220.31 -2062 210 163 149
-76.2763 -1222.61 -2066 208 168 158
-72.2705 -1232.01 -2082 132 104 100
-228.587 -1213.13 -2033 207 174 155
-224.045 -1212.93 -2033 238 202 181
-219.505 -1212.74 -2033 229 190 168
-213.91 -1206.58 -2023 234 193 169
-209.81 -1208.78 -2027 238 194 171
-205.088 -1207.41 -2025 243 198 177
-200.97 -1209.62 -2029 190 145 125
-196.45 -1209.44 -2029 226 177 158
-192.782 -1214.63 -2038 245 196 174
-187.599 -1210.3 -2031 246 196 174
-183.53 -1213.11 -2036 232 181 159
-178.826 -1211.76 -2034 224 180 163
-174.389 -1212.2 -2035 187 152 139
-153.058 -1221.61 -2052 86 74 66
-147.13 -1210.17 -2033 168 136 124
-142.199 -1206.47 -2027 208 172 158
-137.705 -1206.35 -2027 218 182 161
-133.343 -1207.42 -2029 240 199 173
-128.656 -1205.52 -2026 237 195 170
-124.964 -1213.14 -2039 220 179 155
-120.566 -1214.23 -2041 155 109 99
-116.445 -1218.29 -2048 90 46 36
-111.584 -1214.62 -2042 174 131 121
-107.117 -1215.12 -2043 233 189 170
-102.395 -1212.65 -2039 233 191 168
-98.2687 -1217.32 -2047 228 185 162
-93.5124 -1214.26 -2042 226 182 159
-89.4764 -1220.72 -2053 215 172 156
-85.1444 -1223.62 -2058 163 121 109
-80.6737 -1224.73 -2060 123 83 76
-75.8622 -1220.51 -2053 112 84 82
-71.7775 -1228.17 -2066 90 68 66
-137.758 -1211.29 -2026 205 170 156
-120.968 -1222.79 -2046 110 71 68
-116.775 -1226.27 -2052 95 57 55
-111.955 -1223.18 -2047 132 95 93
-107.263 -1221.3 -2044 222 180 169
-102.686 -1220.61 -2043 232 189 178
-98.3067 -1222.31 -2046 222 180 168
-93.3651 -1216.85 -2037 156 118 107
-89.4675 -1225.13 -2051 107 73 64
-89.1095 -1224.75 -2041 99 75 74
-80.0698 -1224.6 -2041 82 63 62
-124.456 91.729 -2309.86 33 28 36
-128.864 91.5288 -2313.86 27 22 30
-132.81 91.5644 -2312.86 37 33 39
-136.758 91.6002 -2311.86 42 38 43
-140.709 91.6363 -2310.86 43 36 41
-144.496 91.7667 -2307.86 43 36 40
-148.619 91.7092 -2308.86 36 32 33
-156.539 91.783 -2306.86 55 51 53
-160.503 91.8203 -2305.86 47 43 44
-27.5029 90.5036 -2254.86 50 53 62
-31.2939 90.6221 -2251.86 51 52 62
-35.3609 90.6502 -2250.86 52 54 63
-39.2989 90.7239 -2248.86 54 55 65
-43.6299 90.662 -2249.86 50 51 61
-61.3769 90.237 -2257.86 66 68 81
-65.0729 90.4024 -2253.86 61 64 76
-69.3689 90.3424 -2254.86 55 58 69
-73.8899 90.1921 -2257.86 55 56 66
-78.0569 90.1777 -2257.86 57 59 68
-82.2219 90.1636 -2257.86 64 67 73
-86.9309 89.924 -2262.86 67 69 74
-91.4039 89.775 -2265.86 51 51 55
-95.9679 89.5811 -2269.86 47 46 54
-100.204 89.523 -2270.86 49 47 55
-104.335 89.5102 -2270.86 49 44 53
-109.949 88.8209 -2285.86 43 37 45
-114.725 88.4931 -2292.86 43 36 44
-119.757 88.0301 -2302.86 35 30 38
-124.374 87.748 -2308.86 30 25 33
-128.329 87.7818 -2307.86 31 26 34
-132.465 87.7257 -2308.86 45 40 46
-136.682 87.6247 -2310.86 44 40 45
-140.464 87.7493 -2307.86 42 35 39
-144.341 87.8292 -2305.86 41 35 38
-148.305 87.8642 -2304.86 37 33 34
-151.718 88.2149 -2296.86 43 39 40
-156.24 87.9349 -2302.86 52 48 49
-160.137 88.0156 -2300.86 46 42 43
-163.895 88.1867 -2296.86 41 36 37
-168.164 88.0427 -2299.86 36 30 31
-171.869 88.2593 -2294.86 33 27 28
-175.256 88.7012 -2284.86 30 23 25
-179.138 88.828 -2281.86 27 23 28
-183.157 88.8652 -2280.86 36 32 37
-186.69 89.2627 -2271.86 42 39 44
-190.849 89.2101 -2272.86 60 49 48
-194.546 89.518 -2265.86 105 92 90
-198.491 89.646 -2262.86 119 103 97
-202.393 89.8193 -2258.86 117 101 97
-206.515 89.8128 -2258.86 133 117 114
-210.636 89.8064 -2258.86 68 57 57
-214.71 89.8454 -2257.86 61 51 52
-218.741 89.9297 -2255.86 58 51 55
-222.909 89.8792 -2256.86 50 45 49
-226.908 90.0088 -2253.86 49 45 50
-230.957 90.0937 -2251.86 58 55 63
-235.087 90.0889 -2251.86 60 58 66
-239.112 90.2193 -2248.86 57 56 66
-243.148 90.35 -2245.86 59 58 67
-247.32 90.301 -2246.86 58 57 65
-251.37 90.432 -2243.86 55 54 62
-255.569 90.3385 -2245.86 51 51 58
-259.556 90.605 -2239.86 52 54 61
-263.731 90.557 -2240.86 52 55 63
-267.837 90.644 -2238.86 56 59 68
-272.027 90.5517 -2240.86 60 59 69
-276.037 90.9091 -2232.86 60 59 69
-280.277 90.6822 -2237.86 54 53 63
-284.403 90.7703 -2235.86 48 47 59
-288.503 90.9936 -2230.86 52 51 63
-292.604 91.3071 -2223.86 55 54 66
-296.8 91.2161 -2225.86 58 58 70
-300.976 91.2152 -2225.86 59 60 72
-305.132 91.4845 -2219.86 54 55 65
-19.4039 86.3018 -2256.86 48 52 63
-23.7399 86.2415 -2257.86 48 52 62
-27.5209 86.3546 -2254.86 47 50 58
-31.9869 86.2515 -2256.86 48 51 58
-36.0439 86.2785 -2255.86 52 54 62
-39.8399 86.3921 -2252.86 56 58 65
-44.0329 86.3763 -2252.86 52 54 62
-48.6059 86.2312 -2255.86 51 53 60
-52.6639 86.2591 -2254.86 55 59 65
-57.4629 86.028 -2259.86 61 64 71
-61.9969 85.8837 -2262.86 62 63 75
-65.9219 85.9556 -2260.86 58 60 72
-69.9689 85.9845 -2259.86 54 57 68
-74.7099 85.7547 -2264.86 54 57 66
-78.2969 85.9568 -2259.86 59 61 70
-82.5689 85.9001 -2260.86 61 65 69
-87.0529 85.7574 -2263.86 68 69 73
-91.5239 85.615 -2266.86 49 49 53
-95.7699 85.5591 -2267.86 48 47 55
-100.32 85.3742 -2271.86 51 49 57
-104.953 85.1463 -2276.86 47 42 51
-110.654 84.4445 -2292.86 39 32 41
-115.222 84.2173 -2297.86 37 30 38
-120.243 83.7749 -2307.86 32 27 35
-124.479 83.6777 -2309.86 29 24 32
-128.067 83.8823 -2304.86 36 31 39
-131.941 83.9579 -2302.86 50 45 51
-136.344 83.7752 -2306.86 47 43 48
-140.305 83.8082 -2305.86 43 36 40
-144.517 83.7122 -2307.86 42 35 39
-148.881 83.5302 -2311.86 39 35 36
-152.439 83.7793 -2305.86 45 41 42
-156.635 83.6841 -2307.86 47 43 44
-160.446 83.8043 -2304.86 43 39 40
-164.05 84.0539 -2298.86 40 35 36
-168.031 84.0886 -2297.86 33 29 30
-171.946 84.1664 -2295.86 32 25 28
-175.465 84.5026 -2287.86 31 24 28
-179.081 84.7961 -2280.86 29 25 30
-183.101 84.8315 -2279.86 34 31 36
-186.575 85.2545 -2269.86 39 36 41
-190.443 85.4194 -2265.86 54 45 47
-194.496 85.4555 -2264.86 97 88 88
-198.608 85.4489 -2264.86 117 101 97
-202.506 85.6145 -2260.86 94 80 78
-206.726 85.5222 -2262.86 63 52 52
-210.741 85.6022 -2260.86 52 45 46
-214.668 85.7685 -2256.86 57 51 52
-218.792 85.7629 -2256.86 53 48 53
-222.871 85.8007 -2255.86 46 42 47
-226.913 85.8816 -2253.86 49 45 50
-231.001 85.9198 -2252.86 56 53 61
-235.092 85.9583 -2251.86 58 55 63
-239.187 85.9968 -2250.86 61 58 68
-243.285 86.0357 -2249.86 59 58 66
-247.324 86.1608 -2246.86 61 60 68
-251.462 86.1572 -2246.86 60 59 67
-255.708 85.9819 -2250.86 53 53 60
-259.635 86.3226 -2242.86 50 52 59
-263.827 86.2336 -2244.86 54 56 65
-267.903 86.36 -2241.86 58 59 69
-272.049 86.3576 -2241.86 60 59 69
-276.16 86.4413 -2239.86 57 56 66
-280.279 86.5253 -2237.86 55 54 64
-284.405 86.6096 -2235.86 51 49 60
-288.55 86.651 -2234.86 56 53 64
-292.69 86.7356 -2232.86 57 56 68
-296.83 86.8635 -2229.86 57 56 67
-300.982 86.9918 -2226.86 57 57 67
-305.153 87.0343 -2225.86 54 53 63
-19.7029 82.0735 -2258.86 46 49 60
-24.1739 81.9746 -2260.86 49 52 61
-28.3609 81.9587 -2260.86 49 51 58
-32.2739 82.0255 -2258.86 47 49 56
-36.3259 82.0511 -2257.86 49 51 58
-40.5119 82.036 -2257.86 50 52 59
-44.5659 82.0622 -2256.86 51 53 60
-49.1299 81.9237 -2259.86 53 55 62
-53.6799 81.7855 -2262.86 55 57 64
-58.0929 81.6889 -2264.86 57 60 67
-62.3749 81.6336 -2265.86 57 58 69
-66.5309 81.6198 -2265.86 55 57 67
-70.8029 81.5651 -2266.86 53 55 65
-74.9539 81.5518 -2266.86 50 52 61
-79.1019 81.5387 -2266.86 52 54 62
-83.1379 81.567 -2265.86 59 62 68
-87.5029 81.4721 -2267.86 71 72 79
-91.9649 81.3362 -2270.86 55 55 62
-96.2029 81.2829 -2271.86 50 49 57
-100.641 81.1477 -2274.86 46 45 53
-105.47 80.8481 -2281.86 38 35 43
-111.161 80.1788 -2297.86 32 27 36
-115.524 80.0444 -2300.86 32 26 36
-120.159 79.7869 -2306.86 34 29 38
-124.303 79.7352 -2307.86 29 23 32
-128.078 79.8483 -2304.86 43 37 43
-132.041 79.8793 -2303.86 50 44 49
-136.615 79.6228 -2309.86 44 39 42
-140.995 79.4489 -2313.86 43 36 40
-145.19 79.3573 -2315.86 43 37 40
-149.215 79.3482 -2315.86 41 36 37
-152.685 79.6269 -2308.86 56 51 52
-156.721 79.6181 -2308.86 48 43 44
-160.38 79.8149 -2303.86 42 37 39
-164.131 79.971 -2299.86 42 37 39
-168.323 79.8807 -2301.86 34 30 32
-172.023 80.0781 -2296.86 32 27 30
-175.54 80.3989 -2288.86 32 27 30
-178.958 80.8019 -2278.86 31 27 31
-182.919 80.8768 -2276.86 32 29 33
-186.399 81.2801 -2266.86 36 33 38
-190.39 81.3554 -2264.86 51 43 47
-194.331 81.4719 -2261.86 69 61 65
-198.449 81.4654 -2261.86 71 59 59
-202.459 81.5414 -2259.86 52 42 44
-206.63 81.4944 -2260.86 46 38 41
-210.747 81.4887 -2260.86 57 51 54
-214.815 81.5242 -2259.86 55 50 53
-218.887 81.5599 -2258.86 46 42 47
-223.006 81.5549 -2258.86 45 41 46
-227 81.6732 -2255.86 50 46 51
-231.123 81.6686 -2255.86 55 52 60
-235.133 81.7872 -2252.86 57 54 62
-239.296 81.742 -2253.86 60 57 67
-243.355 81.8202 -2251.86 61 59 68
-247.577 81.6935 -2254.86 59 58 66
-251.67 81.731 -2253.86 58 58 66
-255.684 81.8918 -2249.86 53 53 61
-259.689 82.0938 -2244.86 49 51 59
-263.83 82.091 -2244.86 53 54 63
-267.884 82.2525 -2240.86 54 55 65
-272.051 82.2091 -2241.86 55 54 65
-276.179 82.248 -2240.86 57 57 67
-280.311 82.2872 -2239.86 54 54 65
-284.42 82.4085 -2236.86 50 49 59
-288.552 82.4891 -2234.86 51 49 59
-292.719 82.4467 -2235.86 53 52 63
-296.853 82.5688 -2232.86 54 53 64
-301.015 82.568 -2232.86 53 53 63
-19.5779 77.9714 -2257.86 47 49 59
-24.4689 77.7597 -2262.86 49 50 59
-28.6509 77.7446 -2262.86 48 50 57
-32.9649 77.6904 -2263.86 46 48 55
-37.0069 77.7149 -2262.86 46 48 55
-41.1829 77.7004 -2262.86 45 47 54
-45.4849 77.6469 -2263.86 50 52 59
-49.6529 77.6329 -2263.86 54 56 63
-53.8199 77.619 -2263.86 56 57 67
-58.4769 77.4487 -2267.86 56 57 67
-62.7519 77.3961 -2268.86 53 54 64
