ply
format ascii 1.0
comment Created by Open3D
element vertex 737
property double x
property double y
property double z
property double nx
property double ny
property double nz
property uchar red
property uchar green
property uchar blue
end_header
-17.4396 -1042.11 -2246.88 0.432023 0.230926 -0.858102 47 50 47
-13.5339 -1053.03 -2248.41 0.649517 0.0494376 -0.745352 44 45 43
-11.0467 -1043.02 -2243.86 0.529901 0.162457 -0.819748 47 49 47
-174.647 -861.407 -2246.57 -0.386788 0.10269 0.897161 48 53 52
-167.654 -856.749 -2244.79 -0.496417 0.192671 0.835341 48 52 51
-163.42 -851.727 -2242.95 -0.590003 0.0567568 0.77672 50 52 52
-172.956 -844.758 -2247.6 -0.163098 -0.282058 0.898487 51 55 54
-149.817 -864.188 -2248.44 -0.7593 0.121625 -0.677999 46 49 49
-149.731 -858.514 -2248.55 -0.773855 0.134553 -0.664427 48 51 50
-131.508 -867.148 -2247.51 -0.772406 0.121512 -0.621769 45 50 48
-149.114 -849.673 -2242.8 -0.764112 0.136909 -0.625401 49 52 51
-149.351 -845.209 -2247.69 -0.743675 0.110169 -0.699849 49 51 51
-131.795 -846.751 -2243.55 -0.728248 0.210901 -0.647839 54 57 56
-170.953 -842.734 -2245.52 -0.235473 -0.347755 0.859103 51 55 54
-149.18 -841.095 -2247.32 -0.702701 0.0641514 -0.728386 48 51 51
-128.8 -841.477 -2244.12 -0.691262 0.255367 -0.67154 53 56 55
-148.356 -826.19 -2246.05 -0.555759 -0.0658396 -0.76475 46 49 50
-148.625 -819.801 -2248.07 -0.495976 -0.0287004 -0.644254 44 47 48
-132.378 -821.658 -2242.9 -0.545419 -0.114744 -0.833085 44 47 48
-125.795 -837.956 -2245.49 -0.623143 0.268374 -0.730353 53 56 56
-120.782 -831.636 -2247.2 -0.555101 0.186 -0.800286 50 53 52
-120.235 -828.744 -2247.56 -0.537862 0.122027 -0.822933 48 51 50
-122.79 -820.705 -2247.44 -0.473446 -0.00352765 -0.874644 44 46 47
-121.805 -702.294 -2243.84 -0.889242 0.128175 -0.444118 45 47 49
-119.827 -692.554 -2243 -0.90126 0.156558 -0.413914 42 44 46
-117.492 -687.272 -2245.76 -0.857066 0.174667 -0.423253 41 43 45
-115.71 -679.933 -2243.18 -0.87906 0.189442 -0.416037 40 42 44
-111.723 -669.666 -2245.61 -0.83284 0.106933 -0.502879 42 44 46
-34.8362 -762.039 -2247.78 0.708181 -0.18071 -0.645942 46 50 47
-32.0013 -752.458 -2245.43 0.844385 -0.155889 -0.425765 46 49 46
-31.7205 -744.797 -2243.99 0.901196 -0.0431181 -0.368881 45 49 46
-32.7847 -743.395 -2245.38 0.94153 -0.0781282 -0.297485 45 49 46
-30.5582 -729.554 -2243.41 0.952865 -0.136721 -0.234037 46 50 47
-29.2113 -721.26 -2246.49 0.980944 -0.137919 -0.182538 46 49 46
-142.119 -530.007 -2245.37 -0.467686 -0.770537 -0.421398 34 34 38
-117.825 -568.824 -2246.02 -0.81593 0.0323076 -0.565979 34 34 38
-119.045 -563.312 -2245.23 -0.805476 -0.111552 -0.577158 37 37 41
-123.27 -553.324 -2243.93 -0.811001 -0.246065 -0.517182 35 35 39
3.61664 -569.494 -2244.56 0.763549 -0.2716 -0.302278 47 50 52
4.95856 -561.415 -2246.21 0.772713 -0.30157 -0.272017 47 50 51
7.7247 -547.141 -2245.7 0.80198 -0.133174 -0.387377 46 50 50
8.05809 -544.815 -2245.08 0.824193 -0.144183 -0.341595 47 50 51
10.0609 -529.357 -2246.54 0.793465 -0.0783015 -0.518713 50 53 55
12.4539 -525.016 -2242.96 0.886649 -0.0868612 -0.315519 51 54 55
-273.814 -366.586 -2243.9 -0.652645 0.337608 -0.670341 66 70 67
-271.388 -364.509 -2245.6 -0.626812 0.290701 -0.713243 67 71 68
-270.065 -355.153 -2243.89 -0.58822 0.238407 -0.758508 61 65 62
-270.08 -352.761 -2243.31 -0.582585 0.218131 -0.768778 59 63 61
-261.832 -348.599 -2245.87 -0.371641 0.352976 -0.854116 60 64 61
-250.17 -348.358 -2248.99 -0.272302 0.328073 -0.900542 61 64 60
-256.045 -345.517 -2246.34 -0.324234 0.339389 -0.876975 61 65 61
-252.721 -345.509 -2247.64 -0.326341 0.305871 -0.883541 61 64 61
-250.934 -335.826 -2247 -0.466308 0.142169 -0.862275 62 65 62
-254.272 -327.013 -2244.12 -0.531893 0.0943001 -0.841955 62 65 62
-250.044 -339.943 -2247.82 -0.414982 0.18596 -0.875247 61 65 62
-247.708 -326.864 -2248.19 -0.488963 0.12267 -0.857858 62 65 62
-234.635 -201.421 -2243.37 -0.327838 -0.299432 -0.893015 28 27 34
-226.281 -199.867 -2247.11 -0.395567 -0.301134 -0.865378 29 28 35
-239.372 -195.099 -2244.1 -0.363538 -0.297936 -0.877804 29 28 35
-239.858 -189.348 -2245.8 -0.429124 -0.313222 -0.843793 30 29 36
-230.109 -192.418 -2248.3 -0.333125 -0.344883 -0.878969 29 28 35
-233.406 -190.702 -2247.81 -0.349841 -0.33851 -0.872241 29 28 35
-242.346 -183.405 -2246.54 -0.484387 -0.308219 -0.81465 30 29 36
-245.262 -173.913 -2248.03 -0.533874 -0.323662 -0.778031 31 30 37
-221.586 -221.912 -2244.51 -0.329152 -0.241234 -0.909293 38 37 44
-221.963 -214.566 -2245.36 -0.37015 -0.145479 -0.915988 34 33 40
-214.048 -210.968 -2249.08 -0.340123 -0.138205 -0.929159 31 30 37
-222.568 -207.156 -2246.5 -0.381721 -0.199419 -0.897308 31 29 37
-224.769 -197.559 -2248.69 -0.40381 -0.317211 -0.858526 29 28 35
-280.926 24.9916 -2247.7 -0.685183 -0.0344732 -0.691219 46 45 55
-287.315 39.9878 -2244.42 -0.58158 -0.0752609 -0.805518 45 45 53
-283.635 39.0595 -2246.48 -0.62932 -0.124847 -0.748969 46 45 53
-286.172 45.7846 -2245.46 -0.56919 -0.0351434 -0.817919 47 46 54
-288.565 53.4262 -2244.06 -0.554589 0.024066 -0.830231 47 47 55
-281.492 50.8998 -2247.96 -0.544022 0.0263685 -0.831505 48 47 56
-281.619 58.2621 -2247.37 -0.529626 0.113974 -0.832158 49 48 57
-282.105 66.7407 -2244.97 -0.47376 0.210027 -0.848336 49 48 57
-274.488 65.3405 -2248.07 -0.438029 0.213093 -0.861985 49 48 58
-278.955 68.7901 -2245.59 -0.451456 0.243304 -0.849723 49 48 58
-269.074 67.4515 -2248.91 -0.419923 0.244556 -0.855181 50 50 60
-267.868 73.0594 -2248.09 -0.418427 0.359853 -0.81769 51 52 62
-40.6406 -62.298 -2245.41 0.740286 -0.536248 -0.117095 80 68 68
-39.12 -60.5132 -2246.81 0.662113 -0.702571 -0.0732541 96 81 80
-26.6278 -53.9505 -2244.16 0.648346 -0.680259 -0.238272 91 80 80
-21.2979 -47.6983 -2245.36 0.803794 -0.412701 -0.401069 40 39 44
-16.9209 -38.4494 -2246.73 0.731956 -0.311478 -0.593317 31 30 36
-12.2676 -38.286 -2243.92 0.672089 -0.417386 -0.565583 56 51 55
-12.9767 -31.9322 -2247.59 0.644592 -0.328101 -0.673733 34 33 38
-5.40625 -28.0263 -2247.86 0.670839 -0.402058 -0.586396 52 48 52
-107.593 123.115 -2243.37 0.331399 0.799362 -0.378414 35 36 46
-95.6659 117.587 -2248.29 0.362287 0.830245 -0.432372 47 45 53
-96.9727 119.941 -2243.38 0.354767 0.834202 -0.441865 40 41 50
-84.7196 114.177 -2248.31 0.416386 0.688942 -0.569009 51 50 58
-79.0973 112.089 -2248.31 0.367424 0.58136 -0.707471 52 51 58
255.016 -23.6836 -2244.52 0.139592 -0.82412 0.523654 197 165 149
269.775 -22.6691 -2248.12 0.171496 -0.795425 0.551483 203 171 154
271.724 -21.4353 -2244.57 0.178229 -0.82644 0.530593 202 171 153
285.962 -19.6787 -2245.37 0.237127 -0.757151 0.599409 215 184 164
290.369 -21.1877 -2249.46 0.236643 -0.73957 0.617747 216 185 165
302.105 -18.968 -2247.69 0.162639 -0.720481 0.670861 203 170 153
302.469 -16.2035 -2244.16 0.178659 -0.689574 0.691487 206 173 156
310.647 -18.4859 -2247.66 0.193068 -0.624955 0.749939 197 166 151
324.906 -13.7875 -2247.49 0.286107 -0.536478 0.776103 214 183 167
325.216 -10.2401 -2244.07 0.299073 -0.479649 0.817145 220 188 172
331.568 -5.14671 -2243.54 0.325864 -0.447851 0.831322 231 197 180
338.013 -3.77211 -2245.33 0.339054 -0.556492 0.755296 224 192 172
345.141 -3.95843 -2249.01 0.304225 -0.628551 0.705587 224 192 173
340.954 0.170207 -2243.2 0.302755 -0.519312 0.791185 234 201 182
356.713 5.00877 -2245.97 0.256184 -0.462667 0.825826 236 208 191
355.105 8.58362 -2243.87 0.277318 -0.321178 0.895113 246 219 205
363.221 7.14843 -2247.47 0.263937 -0.370516 0.884674 246 217 202
364.395 6.40348 -2248.19 0.257052 -0.383752 0.880323 245 216 201
360.911 13.4846 -2244.72 0.260726 -0.24594 0.933311 253 227 214
366.975 16.6095 -2245.87 0.193781 -0.283142 0.935956 255 230 219
368.98 19.799 -2245.87 0.167459 -0.29086 0.936334 254 230 221
-268.47 -1086.46 -2239.45 0.0499431 0.150032 0.430486 49 51 48
-266.006 -1089.2 -2238.74 0.0739488 0.154005 0.702179 48 50 47
-268.339 -1083.66 -2240.48 0.00732418 0.142439 0.191435 48 51 48
-258.992 -1085.65 -2239.63 0.200793 0.173555 0.818686 47 49 46
-252.066 -1089.13 -2241.38 0.357435 0.229973 0.913732 49 49 46
-261.347 -1084.54 -2239.03 0.158881 0.152866 0.734856 47 50 47
-270.024 -1074.71 -2238.88 -0.353137 0.158728 -0.6759 48 50 48
-268.32 -1066.64 -2238.02 -0.54422 0.176677 -0.866274 46 49 46
-262.121 -1072.59 -2240.73 -0.138784 0.117168 -0.179982 47 49 47
-257.22 -1068.54 -2238.26 -0.199994 0.135557 -0.199087 47 49 47
-223.249 -1114.88 -2236.42 0.41974 0.547023 0.744576 59 59 57
-217.883 -1111.63 -2242.56 0.298557 0.601155 0.76577 52 53 53
-180.326 -1111.51 -2241.78 -0.342281 0.360346 0.865174 66 61 54
-305.133 -1062.29 -2237.04 -0.557554 0.0738265 -0.81749 46 49 48
-302.415 -1052.69 -2237.18 -0.505834 0.189966 -0.793791 44 47 45
-294.638 -1046.04 -2236.84 -0.424331 0.350055 -0.800831 39 42 40
-284.98 -865.235 -2240.88 -0.843985 -0.0602878 -0.494861 44 48 45
-282.838 -853.476 -2242.36 -0.813851 0.0305472 -0.558048 46 49 48
-282.768 -844.565 -2242.55 -0.823291 -0.0363979 -0.527488 46 49 48
-287.413 -833.496 -2238.33 -0.896614 -0.0295294 -0.414868 45 49 48
-286.134 -830.747 -2241.48 -0.907367 -0.0496572 -0.379496 46 49 49
-285.905 -824.909 -2242.1 -0.898659 -0.015345 -0.407479 46 49 49
-288.37 -812.694 -2238.64 -0.890584 -0.0851966 -0.443704 46 50 48
-286.707 -813.473 -2241.76 -0.89087 -0.0873863 -0.442823 46 50 48
-290.159 -796.787 -2240.94 -0.894048 -0.0973854 -0.430819 46 50 48
-290.58 -789.034 -2238.71 -0.927032 -0.0450246 -0.306211 45 49 49
-291.046 -779.995 -2237.39 -0.961319 -0.0943581 -0.141739 45 49 50
-292.73 -769.302 -2237.42 -0.963185 -0.179607 -0.164296 46 49 51
-187.037 -765.236 -2237.62 -0.249699 -0.193411 0.941098 46 49 48
-194.181 -755.726 -2236.93 -0.135614 -0.211027 0.965807 45 47 49
-219.364 -737.166 -2239.64 -0.592605 -0.0294168 0.795533 40 41 43
-216.116 -732.41 -2236.85 -0.539864 -0.0134776 0.836153 40 41 44
-217.028 -729.682 -2237.59 -0.565937 0.0256266 0.81633 40 41 44
-213.218 -720.937 -2236.92 -0.54634 0.16286 0.820879 40 41 44
-216.433 -714.393 -2241.47 -0.643474 0.195322 0.730642 42 43 46
-210.036 -713.927 -2236.79 -0.550383 0.155555 0.820412 38 38 42
-213.742 -697.71 -2242.77 -0.702255 0.139023 0.699237 43 44 47
-212.49 -700.054 -2240.97 -0.674206 0.123849 0.720542 41 42 46
-209.815 -688.372 -2239.46 -0.774308 0.117004 0.618097 44 45 50
-206.634 -676.687 -2240.12 -0.767554 0.135556 0.621546 46 48 54
-207.249 -673.002 -2242.57 -0.747652 0.101109 0.64965 48 50 56
-305.757 -668.874 -2238.92 -0.923533 -0.114893 -0.334154 49 53 53
-306.221 -661.689 -2240.76 -0.889988 -0.143776 -0.428953 48 52 53
-314.266 -549.769 -2236.58 -0.880481 -0.0906074 -0.462323 54 58 59
-311.653 -551.337 -2241.14 -0.86739 -0.0830485 -0.490681 54 58 58
-315.708 -536.833 -2237.68 -0.88466 -0.107838 -0.431694 52 58 60
-314.481 -531.733 -2240.6 -0.849245 -0.0728309 -0.498516 52 57 60
-315.082 -525.689 -2238.4 -0.846282 -0.00271656 -0.495221 52 57 59
-313.566 -514.135 -2240.41 -0.806071 -0.0891588 -0.570167 51 57 57
-312.844 -505.43 -2242.09 -0.823001 0.0209791 -0.546709 50 57 57
-313.75 -497.848 -2237.68 -0.85394 0.136978 -0.490485 51 57 57
-310.318 -490.257 -2240.92 -0.794553 0.154396 -0.57744 53 59 58
-309.892 -489.537 -2241.45 -0.790161 0.145902 -0.58465 53 59 58
-310.612 -476.591 -2239.34 -0.825126 0.0656002 -0.555937 57 63 61
-192.179 -565.536 -2237.13 0.905692 -0.0224857 -0.488982 34 33 42
-193.081 -560.485 -2238.77 0.909882 -0.0406733 -0.468158 34 33 41
-189.134 -546.184 -2236.76 0.768151 -0.3861 -0.521084 29 28 36
-96.6429 -1200.36 -2237.2 0.670379 0.617035 -0.0739594 217 181 154
-114.02 -1177.32 -2238.35 0.891899 -0.0291492 -0.388051 172 134 108
-113.437 -1176.19 -2240.45 0.843967 -0.0650922 -0.366685 175 138 112
-108.55 -1170.73 -2239.98 0.721084 -0.178061 -0.383665 158 128 105
-98.7975 -1166.03 -2239.13 0.747569 -0.177171 -0.44652 140 118 96
-68.461 -1214.47 -2242.55 0.0768135 0.989421 0.141775 73 59 58
-53.2712 -1216.57 -2241.17 0.0547348 0.984593 0.143237 72 58 57
-39.2471 -1225.83 -2241.56 0.080009 0.977653 0.109126 73 58 57
-44.6504 -1220.03 -2242.43 0.0780302 0.976807 0.10704 73 58 57
-68.6511 -1213.95 -2236.45 0.13877 0.986402 0.0841049 70 56 54
-172.614 -1158.38 -2237.77 -0.608373 -0.281122 0.711306 187 142 118
-150.994 -1156.14 -2240.67 -0.772385 -0.0879278 0.377238 179 137 114
-174.999 -1144.72 -2237.43 -0.585567 -0.158709 0.794987 179 134 111
-150.387 -1153.81 -2240.84 -0.793382 0.00689402 0.132347 178 139 115
-148.795 -1147.87 -2243.11 -0.755841 0.0888004 -0.366744 163 132 110
-148.365 -1144.08 -2239.71 -0.868439 0.0603234 -0.44978 155 127 106
-136.769 -1143.82 -2236.57 -0.904933 0.110165 -0.382899 166 134 109
-14.3593 -983.867 -2242.05 0.612881 0.0335253 -0.738191 45 49 46
-7.82322 -987.363 -2237.47 0.512055 0.094231 -0.850318 47 51 49
-7.2945 -979.817 -2237.3 0.50881 0.0143715 -0.859018 47 50 47
-7.99123 -975.735 -2238.46 0.538515 -0.0312667 -0.836749 46 50 47
-6.78393 -971.607 -2238.26 0.55399 -0.0565375 -0.827517 46 50 46
-150.677 -959.068 -2237.11 0.0506103 0.329969 -0.975452 31 31 31
-163.429 -945.801 -2240.98 -0.596241 -0.10681 0.747959 42 44 43
-157.25 -953.243 -2240.99 -0.49792 -0.15719 0.766692 41 42 42
-153.29 -945.114 -2236.91 -0.476335 -0.0285535 0.386098 39 40 39
-145.476 -963.436 -2241.46 -0.515417 0.217056 -0.785199 36 39 37
-147.43 -956.487 -2237.32 -0.180632 0.369545 -0.923964 30 32 30
-141.361 -952.27 -2240.51 -0.587424 0.317963 -0.743453 37 40 37
-138.344 -942.128 -2242.67 -0.61717 0.244693 -0.667779 39 43 40
-164.285 -940.34 -2241.05 -0.604843 -0.0713032 0.775109 41 44 42
-159.276 -940.562 -2237.07 -0.540471 -0.0222041 0.812414 39 40 39
-157.097 -929.689 -2237.47 -0.518655 0.093865 0.876059 39 40 40
-172.08 -917.611 -2242.21 -0.356281 -0.135954 0.921065 47 50 48
-158.518 -928.915 -2238.28 -0.507301 0.0510086 0.875898 40 42 41
-159.62 -920.91 -2239.25 -0.419582 -0.0894678 0.914831 42 44 43
-155.006 -919.268 -2237.44 -0.438364 -0.0689102 0.909623 40 40 40
-141.517 -941.669 -2238.54 -0.513076 0.219838 -0.629194 36 39 36
-174.009 -913.197 -2242.54 -0.366549 -0.10691 0.922984 47 51 49
-173.266 -905.552 -2242.07 -0.4349 -0.0343256 0.891774 47 51 50
-166.069 -910.398 -2239.72 -0.362182 -0.128502 0.92784 44 47 46
-159.974 -910.223 -2237.17 -0.419816 -0.175217 0.909267 41 43 42
-164.511 -902.593 -2238.28 -0.419152 -0.10718 0.898326 42 45 45
-165.046 -894.694 -2238.99 -0.498138 -0.0630029 0.857299 43 46 46
-142.337 -906.237 -2243.14 -0.641638 0.0645619 -0.547986 42 45 44
-12.5712 -846.761 -2236.86 0.380086 0.263174 -0.887892 45 49 48
-19.2349 -841.522 -2238.45 0.430194 0.112879 -0.880455 45 50 48
-24.2206 -835.712 -2240.9 0.535717 0.0483913 -0.82806 46 51 48
-21.5808 -825.638 -2240.43 0.545042 -0.00990631 -0.829888 45 49 46
-20.8004 -818.082 -2239.52 0.568278 0.0472942 -0.819235 44 49 46
-18.4147 -823.281 -2238.24 0.520471 0.0144804 -0.849181 45 50 47
-33.2557 -785.952 -2242.32 0.573249 0.12709 -0.791411 45 50 45
-34.053 -775.87 -2241.94 0.691953 0.0962607 -0.72155 45 50 46
-33.9765 -769.389 -2242.26 0.727073 -0.0260633 -0.674118 46 50 46
-20.7375 -816.839 -2239.36 0.567949 0.0518827 -0.819155 44 49 46
-18.6509 -815.432 -2237.72 0.568366 0.0640305 -0.818754 44 49 46
-20.6986 -808.847 -2238.86 0.578309 0.0430914 -0.811996 44 49 45
-18.2102 -801.454 -2237.05 0.527932 0.0281428 -0.845066 44 50 46
-25.5754 -799.254 -2242.64 0.647502 -0.0725594 -0.752675 44 48 45
-26.1098 -788.572 -2239.43 0.492395 0.18711 -0.827194 45 51 46
-3.30615 -594.821 -2242.2 0.996465 -0.0326352 -0.157702 45 47 49
-1.00113 -583.136 -2237.23 0.9408 -0.122283 -0.312771 44 47 49
2.16651 -570.372 -2242.16 0.841373 -0.328377 -0.224962 47 50 51
-127.771 -548.64 -2239.31 -0.828567 -0.276766 -0.471936 34 34 38
-171.97 -532.356 -2238.72 0.39395 -0.728153 -0.559465 30 29 38
-165.955 -530.348 -2237.87 0.326702 -0.771574 -0.539785 29 28 38
-153.64 -527.963 -2239.78 0.0179451 -0.820587 -0.486042 31 30 38
-140.901 -533.374 -2239.79 -0.583897 -0.713182 -0.3912 34 34 38
-136.098 -536.677 -2241.48 -0.6525 -0.633654 -0.382663 35 35 39
-145.38 -530.032 -2241.21 -0.478921 -0.769094 -0.416381 34 34 38
-121.489 -568.918 -2240.6 -0.798207 0.0593435 -0.588098 35 35 39
-122.479 -557.26 -2242.59 -0.812472 -0.173805 -0.544838 36 36 40
-125.849 -554.971 -2236.96 -0.831184 -0.131909 -0.523091 34 33 38
-288.231 -379.649 -2237.15 -0.736976 0.239061 -0.617196 61 66 64
-284.244 -375.966 -2239.22 -0.701593 0.295745 -0.628035 61 67 64
-279.64 -368.576 -2238.5 -0.699869 0.415879 -0.577442 64 68 65
-275.787 -360.459 -2239.54 -0.715253 0.24197 -0.639708 61 65 61
-275.799 -352.071 -2238.21 -0.706678 0.112889 -0.693097 56 60 56
-272.321 -354.957 -2241.97 -0.644244 0.199109 -0.726269 59 63 61
-274.364 -340.837 -2237.43 -0.642581 0.263902 -0.716791 61 65 62
-262.185 -340.552 -2241.99 -0.34835 0.357292 -0.864874 60 64 61
-262.928 -338.826 -2241.21 -0.384399 0.330536 -0.854265 61 64 61
-266.132 -333.729 -2237.95 -0.470872 0.296307 -0.820548 61 65 62
-262.368 -332.327 -2240.01 -0.473174 0.230159 -0.838711 61 65 62
-259.274 -327.252 -2241.09 -0.523149 0.138701 -0.835742 61 65 62
-263.717 -168.736 -2236.5 -0.661629 -0.221226 -0.710617 33 32 39
-256.641 -168.677 -2242.31 -0.587726 -0.185048 -0.78587 31 30 37
-258.104 -160.933 -2242.55 -0.600949 -0.147185 -0.786317 34 33 40
-262.363 -155.235 -2240.82 -0.644845 -0.171148 -0.739874 35 34 41
-259.85 -156.594 -2242.31 -0.621877 -0.159889 -0.763528 35 34 41
-267.543 -142.935 -2238.24 -0.791538 -0.184957 -0.576844 33 32 39
-268.354 -134.746 -2239.92 -0.780619 -0.200415 -0.584773 32 31 38
-269.23 -127.012 -2241.55 -0.746193 -0.242655 -0.61064 33 32 39
-272.603 -119.054 -2239.4 -0.821372 -0.241138 -0.485328 37 35 43
-274.471 -109.401 -2240.11 -0.911644 -0.156265 -0.337282 37 37 44
-273.933 -85.6751 -2236.79 -0.938715 -0.0143762 -0.273663 37 35 41
-276.087 -71.7349 -2240.65 -0.868634 -0.173518 -0.45854 37 34 42
-276.605 -64.2732 -2240.88 -0.838378 -0.105085 -0.528522 35 33 41
-279.218 -57.6504 -2237.37 -0.844734 -0.129937 -0.514319 34 33 41
-282.286 -46.6619 -2236.58 -0.830214 -0.169767 -0.516462 49 42 48
-283.025 -40.2699 -2237.44 -0.81869 -0.197054 -0.510703 50 42 49
-287.566 -29.0237 -2238.84 -0.818658 -0.311202 -0.447154 40 38 46
-284.839 -31.4612 -2240.79 -0.778141 -0.365527 -0.484613 35 34 43
-54.2345 -262.734 -2242.34 0.682642 0.214774 -0.638136 58 61 59
-59.7196 -249.252 -2239.1 0.680917 0.277123 -0.55303 53 55 54
-50.3956 -269.368 -2240.98 0.697397 0.207367 -0.636105 60 63 61
-60.9324 -247.277 -2240.39 0.603752 0.266736 -0.643305 53 54 54
-63.7155 -231.108 -2240.49 0.806679 0.0704499 -0.508614 35 34 40
-62.1434 -226.806 -2237.98 0.81167 0.0427161 -0.500951 35 33 39
-59.3406 -222.996 -2236.44 0.815193 -0.117047 -0.510006 36 33 40
-56.5643 -216.591 -2238.12 0.793413 -0.150438 -0.527765 37 35 42
-58.7139 -201.626 -2237.09 0.744819 0.1997 -0.483456 29 28 35
218.392 -25.3429 -2237.25 -0.0669984 -0.766058 0.590736 186 155 143
122.013 -20.8693 -2239.77 -0.0435002 -0.708405 0.696922 198 161 149
138.072 -20.8512 -2239.49 -0.056887 -0.81367 0.57549 187 152 139
146.231 -20.8244 -2238.83 -0.061678 -0.83306 0.548654 179 146 134
147.646 -20.3981 -2237.43 -0.0630905 -0.836356 0.544222 178 145 133
163.511 -21.8785 -2238.57 -0.024844 -0.803051 0.594537 176 145 135
167.07 -20.9731 -2235.93 -0.013829 -0.800264 0.598109 176 144 135
181.461 -20.8388 -2238.6 0.0671184 -0.774353 0.629511 173 143 134
184.825 -19.9784 -2237.66 0.0755649 -0.771887 0.632462 173 142 133
193.432 -18.7233 -2237.04 0.024645 -0.784244 0.620887 177 146 136
208.171 -23.0661 -2239.54 -0.185148 -0.799405 0.560659 186 155 143
209.435 -23.477 -2239.63 -0.183834 -0.799922 0.559203 186 154 143
-151.401 142.602 -2237.81 0.624644 -0.163391 -0.421253 33 29 35
-156.017 143.545 -2240.89 0.634488 -0.165802 -0.425111 33 29 35
-132.651 134.421 -2236.11 0.629584 -0.171232 -0.419039 34 29 36
-150.652 142.357 -2237.17 0.623851 -0.166162 -0.418601 33 29 35
-139.153 137.23 -2242.69 0.618314 -0.177118 -0.424116 31 27 34
-290.875 -382.793 -2234.85 -0.736061 0.255368 -0.611001 62 68 64
-289.477 -375.074 -2231.59 -0.751608 0.327041 -0.559684 61 67 63
-282.689 -368.963 -2235.1 -0.727092 0.397526 -0.552047 62 66 63
-280.466 -364.494 -2234.6 -0.755383 0.367118 -0.533128 62 66 62
-278.537 -356.8 -2235.71 -0.754109 0.153815 -0.622294 57 61 57
-281.645 -347.009 -2231.4 -0.739966 0.0410804 -0.670353 53 57 53
-274.29 -334.946 -2233.34 -0.598667 0.331285 -0.718847 59 63 59
-270.957 -335.455 -2235.95 -0.534358 0.326608 -0.768595 60 64 61
-272.397 -329.031 -2231.99 -0.590765 0.333711 -0.723619 59 63 60
-268.003 -325.842 -2235.07 -0.577823 0.225033 -0.772805 59 63 60
-55.8383 -185.76 -2236.15 0.831547 -0.297058 -0.410418 33 30 38
-55.3045 -184.327 -2234.74 0.843058 -0.266092 -0.393071 34 31 38
-54.2716 -167.02 -2230.9 0.850784 0.103136 -0.493933 34 31 38
-56.8115 -161.665 -2234.27 0.837063 0.0287294 -0.533402 32 29 36
-54.4343 -159.795 -2231.19 0.840325 -0.0208642 -0.526934 31 28 35
-51.9709 -146.198 -2233.4 0.840365 -0.187964 -0.484767 30 29 36
-48.5601 -137.447 -2232.11 0.896218 -0.176271 -0.344115 33 31 38
-49.1893 -135.02 -2235.21 0.893565 -0.180372 -0.338604 32 30 38
-47.4941 -119.666 -2231.81 0.922136 0.0709133 -0.347007 30 28 35
-48.1045 -118.371 -2232.73 0.919794 0.086601 -0.357634 30 28 35
-48.6692 -109.745 -2231.61 0.917462 0.0299853 -0.333005 31 29 36
276.303 -15.9332 -2234.42 0.21126 -0.822802 0.535446 210 179 159
281.062 -15.1437 -2235.46 0.217121 -0.808061 0.550214 210 180 159
286.275 -11.0837 -2232.12 0.23894 -0.745349 0.61183 214 184 164
300.161 -7.29297 -2233.21 0.218936 -0.622512 0.740487 227 195 178
301.959 -9.06002 -2235.6 0.202478 -0.631772 0.737825 223 191 173
313.063 -6.27497 -2235.69 0.247214 -0.531798 0.799824 224 191 175
309.096 -3.93769 -2233.46 0.244411 -0.512162 0.809854 231 200 184
311.794 1.52445 -2232.94 0.29906 -0.355258 0.86915 242 215 201
315.368 0.364371 -2234.84 0.304416 -0.355604 0.867808 239 210 197
317.703 6.99663 -2233.99 0.315166 -0.221113 0.920239 252 227 215
317.896 13.7918 -2232.91 0.31915 -0.170986 0.934678 255 233 223
316.35 20.1299 -2231.85 0.296494 -0.204084 0.9166 251 230 218
320.228 9.93214 -2234.28 0.307186 -0.192318 0.933066 254 230 219
322.48 17.6181 -2233.84 0.280875 -0.181345 0.932662 252 231 219
329.517 17.7427 -2235.78 0.269401 -0.118756 0.950793 253 232 220
327.134 20.4959 -2235.34 0.259666 -0.170723 0.927382 249 227 215
-239.73 -953.933 -2237.64 -0.360501 -0.0886153 0.0994147 48 52 49
-241.853 -964.682 -2239.84 -0.0996283 -0.0993098 0.1476 48 52 50
-238.321 -961.942 -2234.27 -0.12346 -0.104928 0.210899 48 52 49
-235.192 -965.119 -2230.4 -0.109549 -0.106052 0.234756 47 51 48
-244.472 -944.635 -2242.55 -0.300259 -0.0635293 0.248024 49 53 50
-238.059 -951.806 -2234.69 -0.330037 -0.0852461 0.123915 48 52 49
-234.147 -953.515 -2230.32 -0.240794 -0.0709171 0.161353 47 51 48
-251.413 -919.486 -2241.14 -0.11482 -0.0535744 0.396747 48 52 49
-242.937 -931.987 -2235.88 -0.0488938 -0.0308655 0.39574 48 52 49
-248.588 -932.525 -2241.33 -0.217594 -0.0476017 0.206431 48 53 50
-238.184 -931.827 -2231.25 0.0601115 -0.0206436 0.517576 48 52 49
-247.121 -938.774 -2242.86 -0.214089 -0.0485052 0.349055 49 53 51
-243.178 -917.65 -2232.48 0.0324953 -0.0183052 0.363325 47 51 48
-245.327 -918.322 -2234.64 -0.0260397 -0.0287728 0.339762 47 51 48
-239.822 -927.854 -2231.8 0.114253 -0.0134258 0.517284 47 51 48
-254.506 -905.319 -2241.96 0.040837 -0.0548935 0.77043 49 54 51
-253.034 -910.57 -2240.98 -0.00745409 -0.0346784 0.645584 48 53 50
-252.315 -897.99 -2238.94 -0.0677369 -0.0868369 0.61743 50 54 51
-254.992 -902.752 -2242.35 0.0383105 -0.0745199 0.803275 50 54 51
-244.303 -905.777 -2231.44 0.0102269 -0.0197179 0.400124 47 51 48
-245.699 -915.264 -2234.42 -0.0103217 -0.029458 0.390485 47 51 48
-244.381 -894.27 -2229.46 -0.0708308 -0.0454006 0.335699 47 51 48
-248.354 -895.494 -2234 -0.133934 -0.0510007 0.402336 48 52 50
-254.065 -880.515 -2239.9 -0.0715059 0.0626404 0.683486 48 51 49
-253.662 -887.567 -2239.84 0.00433347 0.10412 0.774713 48 52 49
-252.863 -870.005 -2235.95 -0.292638 -0.160592 0.621333 47 51 48
-249.915 -877.428 -2232.81 -0.290949 -0.136406 0.469196 48 51 49
-250.568 -874.42 -2233.28 -0.284397 -0.151903 0.557361 47 51 49
-246.47 -886.231 -2230.27 -0.18791 -0.0873654 0.326616 48 51 49
-248.469 -892.362 -2233.56 -0.163951 -0.06231 0.383802 48 52 50
-153.131 -723.271 -2231.8 -0.370089 -0.198748 0.59693 42 43 45
-153.619 -726.137 -2234.35 -0.350382 -0.176818 0.590841 42 44 46
-153.236 -726.941 -2232.43 -0.350293 -0.188389 0.640001 42 44 46
-154.992 -708.527 -2241.22 -0.440851 -0.13644 0.122307 41 42 45
-153.153 -714.903 -2231.55 -0.418942 -0.210572 0.611309 39 40 43
-154.302 -696.985 -2238.52 -0.466963 -0.142691 0.0716197 40 41 44
-154.922 -697.801 -2242.29 -0.458406 -0.112884 -0.137764 41 42 45
-153.638 -705.339 -2233.61 -0.468429 -0.193609 0.482957 38 39 42
-154.183 -684.763 -2237.02 -0.474945 -0.101345 -0.189196 41 42 45
-154.705 -691.134 -2241.24 -0.463517 -0.10351 -0.238229 42 43 46
-155.501 -670.492 -2240.57 -0.49574 -0.0710485 -0.623041 43 45 48
-155.611 -672.434 -2242.34 -0.485376 -0.0693297 -0.664737 43 45 49
-154.075 -672.494 -2231.67 -0.526761 -0.0807114 -0.245267 40 41 45
-154.359 -679.132 -2236.59 -0.491552 -0.0796751 -0.324947 41 42 46
8.86161 85.3389 -2233.53 0.294535 0.651601 0.232857 50 52 60
2.7694 87.2743 -2232.22 0.339752 0.690772 0.491642 50 52 61
27.012 -38.8091 -2231.89 0.172937 -0.701838 0.433189 51 46 53
27.4319 -31.8785 -2241.21 0.253667 -0.586326 0.173527 118 101 97
27.8236 -35.605 -2236.3 0.242563 -0.636048 0.305722 82 72 74
43.2935 -35.2888 -2232.06 0.233843 -0.679448 0.6457 82 72 76
38.6377 -33.5771 -2237.56 0.122294 -0.693821 0.558962 128 108 105
39.4237 -36.5966 -2232.07 0.251409 -0.679304 0.61419 63 57 63
259.998 34.534 -2232.78 0.177701 -0.308891 0.852885 238 211 197
263.461 32.0634 -2231.34 0.178952 -0.268813 0.851642 239 212 198
326.546 37.5396 -2240.17 0.160625 -0.460863 0.817369 230 201 187
-311.291 -1213.28 -2218.8 -0.106657 0.909252 0.0195539 83 68 66
-299.869 -1211.98 -2223.28 0.0403847 0.98621 0.151173 84 68 66
-291.584 -1213.35 -2220.53 -0.0824539 0.974639 0.0891423 84 69 68
-282.865 -1212.4 -2224.59 -0.0256589 0.985124 0.0742617 83 68 66
-268.236 -1212.4 -2220.83 -0.131286 0.949542 0.0256974 76 61 57
-264.662 -1211.43 -2223.04 -0.098228 0.9568 0.00530071 75 60 55
-255.635 -1208.49 -2219.15 -0.369053 0.878399 -0.290366 135 110 103
-248.946 -1205.31 -2218.93 -0.499711 0.818701 -0.242999 184 153 141
-238.31 -1197.38 -2218.48 -0.740129 0.618145 -0.0900061 213 182 160
-232.846 -1192.24 -2218.82 -0.967573 0.325758 0.181437 210 180 152
-227.533 -1190.89 -2220.21 -0.893617 0.296749 0.0958109 199 166 136
-258.969 -1169.35 -2223.25 -0.102015 0.524812 -0.0199858 151 128 111
-246.722 -1178.06 -2219.45 0.294169 0.245738 0.121704 161 135 110
-231.945 -1185.28 -2223.48 -1.0662 0.123283 0.291227 197 166 134
-236.951 -1177.85 -2219.98 0.456883 0.0920377 0.188262 162 134 105
-238.199 -1168.83 -2221.67 0.834051 0.405436 0.108778 94 81 61
-223.055 -1196.53 -2220.9 -0.643857 0.556091 -0.293413 171 135 112
-214.617 -1196.42 -2220.57 -0.515058 0.573914 -0.612318 162 124 100
-213.748 -1195.04 -2220.19 -0.556743 0.543775 -0.600927 168 129 104
-204.605 -1193.06 -2220.55 -0.498235 0.263089 -0.268068 186 147 120
-215.37 -1178.14 -2223.24 0.78447 0.0320913 0.342632 191 151 121
-176.503 -722.936 -2223.75 -0.183122 -0.358533 0.905832 41 43 45
-190.247 -710.502 -2223.92 -0.511009 -0.0943707 0.852987 38 41 43
-177.785 -717.846 -2220.33 -0.305118 -0.38221 0.861893 39 41 43
-183.756 -709.349 -2219.25 -0.483441 -0.195708 0.841346 38 40 44
-188.726 -704.523 -2222.06 -0.552417 -0.105562 0.8284 37 39 42
-186.104 -699.89 -2219.92 -0.552364 -0.102463 0.828472 37 39 42
-190.426 -689.844 -2220.93 -0.58042 -0.13786 0.800295 33 35 40
-194.933 -687.384 -2223.49 -0.615199 -0.12798 0.778303 33 35 39
-195.793 -680.778 -2223.04 -0.673546 -0.0410685 0.724419 34 36 41
-195.134 -675.23 -2223.14 -0.720007 0.0595546 0.668311 37 39 44
-313.088 -665.119 -2222.7 -0.929031 -0.199688 -0.28984 49 54 54
-314.662 -658.915 -2220.37 -0.945819 -0.119871 -0.268236 47 51 52
-97.271 -1195.29 -2223.85 0.797107 0.445565 -0.327065 208 178 150
-101.201 -1185.31 -2221.76 0.735881 0.358355 -0.56724 181 152 123
-102.735 -1176.74 -2222.96 0.749809 0.016556 -0.579044 136 115 90
-100.807 -1181.02 -2220.47 0.726696 0.207947 -0.597039 163 139 111
-95.5217 -1166.11 -2221.57 0.410295 -0.729166 -0.410546 65 58 44
-76.341 -1216.35 -2217.46 0.117279 0.985957 -0.117515 62 44 44
-66.1383 -1215.91 -2219.94 0.0685739 0.988163 -0.0457018 68 53 52
-57.7838 -1216.98 -2223.02 0.00956992 1.00119 -0.0107967 68 56 54
-48.8062 -1218.42 -2221.64 0.0339814 0.952788 -0.10746 75 61 59
-45.1496 -1219.94 -2223.24 0.0775227 0.923709 -0.122776 80 65 62
-155.021 -1164.76 -2220.57 -0.667973 -0.232738 0.522405 109 81 70
-161.852 -1154 -2221.69 -0.824369 -0.1944 0.512563 122 95 83
-162.113 -1148.18 -2220.96 -0.864673 -0.128057 0.495701 118 93 81
-142.738 -1147.3 -2224.57 -0.876796 0.280961 -0.359518 117 88 66
-165.428 -1133.71 -2221.47 -0.800991 -0.0594718 0.539142 93 77 70
-148.795 -901.316 -2223.2 -0.0251528 -0.0521133 0.970402 34 35 35
-151.022 -890.692 -2221.25 -0.106082 -0.0322029 0.984855 36 37 36
-152.615 -881.165 -2220.32 -0.15364 -0.0875291 1.00613 36 39 37
-153.037 -868.265 -2218.83 -0.127011 -0.0422813 0.821013 42 45 43
-150.351 -868.522 -2221.77 -0.154296 -0.026585 0.593987 37 40 39
17.2895 -964.925 -2219.71 0.512648 0.150955 -0.570614 51 55 52
9.03792 -950.438 -2223.87 0.615476 0.17371 -0.7539 49 53 49
11.5123 -952.454 -2222.47 0.625764 0.139406 -0.738137 49 53 49
6.695 -937.254 -2221.39 0.71343 0.157369 -0.664844 49 53 49
7.57182 -931.723 -2220.76 0.662118 0.0350034 -0.721367 48 53 49
8.41967 -929.243 -2220.64 0.603445 -0.0399304 -0.773837 47 52 50
11.5508 -923.097 -2219.66 0.697257 -0.124864 -0.658891 48 52 49
9.19316 -910.465 -2222.44 0.737605 0.0707623 -0.650687 49 53 50
11.318 -906.718 -2219.32 0.793927 0.125433 -0.585429 49 53 50
7.5087 -895.926 -2221.36 0.658424 0.300272 -0.632385 51 55 51
-8.15869 -703.465 -2223.13 0.67426 -0.0827104 -0.73532 49 53 50
-6.79364 -697.416 -2222.32 0.721413 -0.0448576 -0.681479 48 52 50
-2.23053 -691.246 -2218.81 0.674564 0.0464116 -0.7034 47 51 49
-6.55003 -682.113 -2220.89 0.729976 0.0625805 -0.666341 46 50 49
-4.19162 -678.378 -2218.36 0.68653 0.0781982 -0.704459 48 52 51
-6.49086 -670.589 -2220.27 0.7788 -0.0139778 -0.622172 48 52 52
-131.445 -664.708 -2221.74 -0.827857 -0.0314855 -0.519792 39 40 44
-131.054 -660.524 -2222.11 -0.816296 -0.0334353 -0.522095 39 41 44
-133.987 -645.469 -2217.56 -0.899874 -0.0250354 -0.442609 40 39 44
-131.984 -641.338 -2221.63 -0.870475 0.00901256 -0.481246 40 39 45
-131.375 -633.252 -2221.4 -0.844402 0.102446 -0.520777 37 36 42
-130.357 -626.255 -2219.4 -0.836142 0.181159 -0.531259 28 29 33
6.2148 -566.076 -2221.79 0.946087 0.0469429 -0.309322 46 51 52
5.49532 -559.331 -2220.76 0.939688 0.051562 -0.313458 46 51 53
6.61595 -555.233 -2219.47 0.900698 -0.0274895 -0.386219 47 52 54
8.74248 -541.229 -2223.5 0.935642 -0.298128 -0.125788 48 51 55
10.5737 -536.097 -2222.51 0.953284 -0.285681 -0.0944017 47 51 54
14.3251 -521.804 -2221.51 0.956668 -0.251876 -0.0865556 48 50 55
17.5955 -514.764 -2222.2 0.886666 -0.348202 -0.269011 49 51 55
20.7306 -505.61 -2223.37 0.873192 -0.121577 -0.425058 53 55 58
23.2465 -500.924 -2220 0.872609 0.0133429 -0.473706 54 56 59
19.9856 -486.743 -2219.78 0.851681 0.196746 -0.469671 56 59 61
16.4993 -478.456 -2220.64 0.799746 0.303261 -0.520163 60 62 63
14.693 -473.36 -2220.29 0.827032 0.259624 -0.491974 61 64 64
-301.049 2.95931 -2224.51 -0.723338 -0.274544 -0.638659 29 31 38
-306.464 11.0853 -2223.79 -0.73011 -0.27171 -0.640333 29 31 38
-309.283 16.0169 -2223.18 -0.743542 -0.238802 -0.639533 32 34 41
-318.821 30.7594 -2221.07 -0.647619 -0.131091 -0.721588 40 39 47
-319.992 31.3051 -2220.94 -0.628037 -0.121618 -0.678248 40 39 48
-315.234 34.0844 -2222.16 -0.650931 -0.127508 -0.756365 39 39 47
-320.45 38.0052 -2221.16 -0.585945 -0.123144 -0.688516 42 40 49
-312.471 42.8879 -2223.92 -0.592118 -0.216566 -0.784213 41 36 46
-314.277 44.0134 -2223.56 -0.579945 -0.217145 -0.793806 42 37 47
-324.039 61.4644 -2224.1 -0.517954 -0.196188 -0.88184 44 38 48
-35.5406 -279.961 -2222.26 0.703817 0.644981 -0.268509 57 59 59
-31.23 -283.941 -2222.41 0.720361 0.585718 -0.305417 57 60 59
-21.5302 -321.029 -2221.32 0.81827 0.457487 -0.29458 56 60 57
-26.4063 -296.158 -2219.47 0.91337 0.237176 -0.217528 60 64 62
-42.5159 -266.417 -2221.9 0.819906 0.305862 -0.385173 57 57 57
-42.3431 -263.875 -2219.84 0.819685 0.29403 -0.403006 57 57 57
-45.4441 -257.512 -2219.85 0.706732 0.452361 -0.505213 57 57 57
-55.0978 -243.411 -2223.96 0.852466 0.118175 -0.44671 51 50 51
-54.1476 -239.625 -2220.27 0.886863 0.0853652 -0.408253 47 47 49
-53.4394 -227.888 -2220.65 0.932364 -0.0653046 -0.311523 35 33 39
23.2637 -39.4844 -2221.84 0.120743 -0.730357 0.605625 25 25 36
39.5244 -37.978 -2221.33 0.233973 -0.698086 0.641606 31 31 42
43.9494 -35.3172 -2221.85 0.307936 -0.659349 0.637914 42 40 50
50.7172 -28.2943 -2220.92 0.379264 -0.610056 0.643881 44 42 52
57.6254 -21.5653 -2221.9 0.389483 -0.608971 0.648391 65 61 68
62.0528 -17.1505 -2220.27 0.453133 -0.652001 0.5968 99 91 95
70.4587 -11.9983 -2219.02 0.352681 -0.668132 0.647905 151 135 131
78.816 -9.7333 -2220.25 0.279154 -0.568252 0.758952 189 161 149
83.4674 -10.3839 -2222.16 0.217082 -0.602108 0.758665 190 161 148
86.9667 -9.09447 -2221.97 0.164194 -0.564688 0.790508 199 168 153
93.6122 -10.9032 -2223.49 0.0465823 -0.56088 0.796371 206 172 157
92.8756 -4.45995 -2220.09 0.0565646 -0.452409 0.866039 216 183 168
100.677 -6.48555 -2219.36 -0.0277414 -0.455004 0.869191 219 181 166
106.173 -9.59168 -2221.34 0.00693688 -0.589413 0.779798 207 170 158
105.179 -4.55754 -2218.14 -0.0159635 -0.403231 0.904572 226 186 173
119.852 -8.95826 -2224.17 -0.0214906 -0.560283 0.821465 212 172 160
120.344 -2.78819 -2220.42 -0.0482201 -0.457509 0.869358 228 189 176
110.994 1.86608 -2218.17 0.056739 -0.351429 0.930862 237 201 191
-274.467 -1137.36 -2214.69 0.677365 0.626542 0.313464 51 54 46
-288.821 -1117.11 -2212.68 0.585255 0.642846 0.461405 51 53 49
-284.449 -1119.85 -2216.68 0.64099 0.565406 0.49991 52 53 48
-336.073 -1105.93 -2215.74 0.387011 0.669118 0.247432 50 52 47
-333.915 -1099.36 -2217.04 0.426688 0.697496 0.260447 49 52 47
-330.752 -1096.07 -2216.85 0.449972 0.715814 0.27589 49 52 47
-332.697 -1075.81 -2213.63 -0.744445 -0.138539 -0.632101 49 51 47
-328.991 -1076.74 -2214.22 -0.681268 -0.175851 -0.622336 48 51 47
-334.466 -1067.76 -2213.94 -0.774648 0.0360783 -0.627414 48 51 47
-318.686 -1100.71 -2213.92 0.360157 0.601567 0.385715 51 52 47
-310.2 -1101.86 -2213.61 0.175796 0.415285 0.208213 51 52 49
-299.652 -1097.97 -2217.4 -0.043893 0.289073 0.00768929 51 51 50
-300.619 -1094.87 -2215.7 -0.192324 0.215128 -0.172283 52 51 51
-297.118 -1105.24 -2212.67 0.500311 0.481622 0.719345 54 51 50
-291.195 -1108.4 -2214.77 0.461347 0.404737 0.74116 53 51 51
-291.264 -1102.22 -2213.51 0.071172 0.31536 0.145892 53 51 50
-283.596 -1097.26 -2212.88 0.0794559 0.321279 0.0838898 52 51 50
-275.981 -1093.75 -2217.1 0.243743 0.283425 0.498718 53 51 50
-302.397 -1084.86 -2212.67 -0.551663 0.239194 -0.707015 52 52 51
-320.844 -1067.81 -2214.94 -0.42681 0.122927 -0.504523 49 51 48
-310.141 -714.373 -2216.59 -0.842726 0.0302596 -0.536578 49 53 52
-312.07 -699.148 -2213.11 -0.748645 0.0773946 -0.632047 47 52 51
-310.943 -695.592 -2213.56 -0.689841 0.13334 -0.701777 46 51 53
-305.908 -688.287 -2216.84 -0.797806 -0.0552008 -0.531271 46 50 52
-310.647 -687.256 -2213.31 -0.820891 -0.0687351 -0.549565 47 52 51
-313.357 -672.474 -2214.04 -0.880907 -0.163199 -0.394045 48 52 53
-310.438 -676.664 -2217.92 -0.891542 -0.210798 -0.329452 49 53 54
-178.567 -707.046 -2216.06 -0.467627 -0.216728 0.848964 38 39 43
-181.247 -701.224 -2216.87 -0.510617 -0.127955 0.848309 38 40 43
-180.478 -699.271 -2216.31 -0.507766 -0.124728 0.850905 38 39 43
-178.967 -692.15 -2214.78 -0.508131 -0.129883 0.849516 37 37 41
-185.005 -685.773 -2216.27 -0.536318 -0.163026 0.819961 34 35 40
-187.975 -680.524 -2216.35 -0.578653 -0.132381 0.791397 32 34 40
-184.841 -676.298 -2214.24 -0.531651 -0.107571 0.823418 33 35 40
-186.569 -669.21 -2215.49 -0.630484 0.034098 0.747555 34 36 41
-314.719 -663.399 -2217.72 -0.942262 -0.165527 -0.259887 46 51 52
-315.819 -658.218 -2215.3 -0.953318 -0.0811836 -0.254856 45 50 52
-315.725 -647.97 -2214.35 -0.964763 -0.00679265 -0.231284 47 52 53
-71.3277 -1215.46 -2213.45 0.0675741 0.974681 -0.22147 65 50 50
-61.2996 -1214.7 -2213.62 0.128333 0.928044 -0.190953 69 55 53
-38.8585 -1222.1 -2216.41 0.0892227 0.922998 -0.107263 81 65 62
-42.5585 -1218.29 -2214.72 0.0779825 0.930751 -0.118738 79 64 61
-52.6698 -1214.25 -2212.86 0.0166053 0.960077 -0.187205 71 57 56
-157.066 -1155.34 -2214.88 -0.713358 -0.342143 0.515311 107 79 68
-159.76 -1148.15 -2213.72 -0.895893 -0.169616 0.427436 105 80 70
-160.931 -1140.28 -2215.75 -0.85863 -0.0530759 0.513145 75 64 62
-161.874 -1138.85 -2217.57 -0.842125 -0.0561979 0.538259 69 61 61
-160.516 -1128.34 -2214.21 -0.799833 0.0744442 0.590628 68 60 57
-162.824 -1121.56 -2217.22 -0.812612 0.0207109 0.578924 73 62 55
-153.952 -762.135 -2217.7 -0.199468 0.0286008 -0.141327 36 38 39
-154.727 -758.381 -2215.5 -0.217062 0.0331813 -0.163485 35 36 38
-153.153 -746.673 -2217.47 -0.347592 -0.108323 0.64742 40 41 42
-153.239 -738.645 -2212.89 -0.155644 -0.0142993 0.167214 37 38 40
-163.153 -722.567 -2214.13 -0.541996 -0.36586 0.69626 41 41 44
-158.377 -726.102 -2213.01 -0.520799 -0.346589 0.650543 41 41 43
-156.119 -726.699 -2213.26 -0.494493 -0.312234 0.624387 41 41 43
-153.76 -721.105 -2215.22 -0.457783 -0.295286 0.69826 40 40 43
-144.503 -732.136 -2212.71 -0.0842374 -0.0376045 0.0838993 33 35 38
-143.49 -731.239 -2213.55 -0.176547 0.0106383 -0.00101908 34 35 38
-140.33 -723.621 -2213.44 -0.572652 0.265769 -0.463932 35 36 38
-175.225 -715.41 -2217.78 -0.339264 -0.425318 0.839996 38 40 42
-171.234 -709.3 -2213.91 -0.428989 -0.306335 0.84476 37 37 40
-153.492 -714.51 -2214.71 -0.480938 -0.266744 0.784372 39 39 42
-153.145 -711.297 -2215.02 -0.484813 -0.24593 0.801702 38 39 42
-174.211 -698.825 -2212.87 -0.484673 -0.163799 0.856915 36 36 40
-152.24 -696.246 -2215.08 -0.486838 -0.22131 0.817221 36 36 40
-136.231 -713.869 -2212.73 -0.72315 0.270844 -0.51796 35 37 40
-132.873 -705.337 -2216.01 -0.839319 0.166992 -0.505072 36 38 40
-133.009 -695.148 -2217.74 -0.868041 0.0175727 -0.496695 37 39 42
-152.284 -691.432 -2217.57 -0.49556 -0.179543 0.749819 36 36 40
-152.511 -685.209 -2214.34 -0.51542 -0.114305 0.70415 35 34 40
-152.422 -669.611 -2213.56 -0.609847 -0.088833 0.628108 33 32 39
-136.096 -691.54 -2212.69 -0.851957 0.00626996 -0.549624 34 36 39
-135.926 -680.306 -2213.75 -0.86476 0.00662193 -0.50793 36 37 40
-135.724 -669.99 -2212.42 -0.882462 0.0251758 -0.459771 38 38 42
24.1012 -502.938 -2216.23 0.914524 -0.0485265 -0.322278 54 56 59
23.5742 -490.246 -2212.89 0.944901 0.122688 -0.264165 56 59 60
-329.382 -469.179 -2213.92 -0.819468 0.0631609 -0.54791 54 61 58
-325.855 -458.739 -2214.58 -0.780117 0.291585 -0.511168 56 63 59
-321.694 -455.474 -2218.15 -0.722472 0.358024 -0.57326 57 64 59
-321.775 -449.285 -2211.91 -0.76354 0.470118 -0.409177 56 62 58
-315.806 -444.989 -2217.86 -0.733828 0.36743 -0.540688 56 63 58
-314.256 -431.868 -2215.28 -0.833255 0.179623 -0.510847 56 62 58
-311.311 -424.186 -2215.65 -0.822785 0.308026 -0.472971 58 63 58
-307.263 -415.791 -2217.29 -0.89888 0.229713 -0.349429 57 63 59
-306.288 -408.793 -2215.34 -0.946602 0.182034 -0.247576 55 62 58
-303.556 -397.275 -2216.6 -0.920217 0.212683 -0.303035 58 63 59
-300.795 -387.192 -2216.78 -0.911422 0.288595 -0.260186 58 62 59
-301.388 -383.4 -2212.29 -0.889401 0.282788 -0.320157 58 62 58
-292.998 -40.1501 -2212.86 -0.957838 -0.218724 -0.117116 34 31 36
-292.951 -33.2711 -2215.53 -0.943878 -0.130497 -0.189493 43 36 39
-299.798 -19.4748 -2215.12 -0.903046 -0.304098 -0.180435 30 32 39
-304.337 -13.3478 -2213.69 -0.924298 -0.237871 -0.260302 29 32 39
-307.432 -6.30078 -2212.15 -0.912123 -0.179636 -0.385943 28 31 38
-295.974 -22.5216 -2212.44 -0.855133 -0.0599419 -0.259348 46 38 42
-310.439 1.13079 -2213.52 -0.821201 -0.227144 -0.467376 30 31 38
-39.6117 -267.214 -2214.17 0.923338 0.136569 -0.328322 57 58 58
-43.8023 -254.743 -2214.47 0.723829 0.439807 -0.488044 57 57 57
-50.3984 -249.182 -2216.99 0.765617 0.32804 -0.544158 57 57 56
-52.4963 -245.534 -2217.92 0.834925 0.204572 -0.492836 54 54 54
-52.2997 -230.772 -2213.56 0.935427 -0.0831115 -0.313196 35 33 39
-49.6286 -247.882 -2215.08 0.762964 0.342248 -0.539577 56 56 56
-51.2792 -224.851 -2217.35 0.951333 -0.19267 -0.218852 35 32 39
-48.271 -220.966 -2211.38 0.933577 -0.175472 -0.23726 35 32 39
-48.4664 -205.72 -2214.49 0.905043 0.255159 -0.286654 34 31 38
-49.9551 -201.013 -2213.83 0.900222 0.251582 -0.332329 33 30 37
-52.8544 -186.382 -2214.6 0.941986 -0.0566968 -0.262709 35 32 39
-52.3345 -183.603 -2212.16 0.948398 -0.0894692 -0.252162 35 32 39
-50.7665 -174.65 -2217.1 0.880669 -0.0751074 -0.248824 34 32 39
120.338 2.10988 -2217.73 -0.0850172 -0.38565 0.898138 239 204 192
121.812 10.6414 -2213.26 -0.143181 -0.324926 0.929199 247 219 209
97.8674 15.083 -2212.96 0.0507749 -0.305442 0.950805 245 221 213
114.835 12.5965 -2213.89 -0.0606728 -0.328404 0.938766 247 221 213
117.707 15.9204 -2212.46 -0.0667484 -0.276032 0.952188 247 223 214
132.5 -2.16008 -2216.86 -0.157188 -0.533314 0.826999 229 190 175
137.175 -0.961771 -2216.08 -0.0805995 -0.47795 0.859862 232 194 179
147.197 -1.18086 -2216.7 0.0495471 -0.367649 0.926932 233 195 179
161.931 -2.07414 -2217.11 -0.0129732 -0.397338 0.913802 229 191 177
166.159 -0.989082 -2216.22 -0.0429645 -0.405309 0.909931 232 195 182
132.144 0.210755 -2215.52 -0.148208 -0.484998 0.85491 235 197 182
123.943 11.7375 -2212.27 -0.160244 -0.290133 0.939356 248 221 211
138.953 0.873314 -2215.23 -0.0343435 -0.421829 0.891699 235 200 185
138.892 9.41503 -2212.41 0.0336439 -0.311157 0.941138 245 218 206
121.732 13.4301 -2212.49 -0.133588 -0.281114 0.944993 248 222 213
158.057 1.0974 -2216.21 0.000839287 -0.354411 0.933369 233 197 182
153.36 7.72051 -2214.19 0.0417081 -0.291383 0.956777 245 215 201
154.689 11.7238 -2212.61 0.0146396 -0.286953 0.95519 250 225 213
170.91 4.67103 -2213.07 -0.078086 -0.356356 0.928312 246 213 201
160.163 8.99058 -2213 -0.0592446 -0.313237 0.943938 249 219 206
177.515 -1.8767 -2216.15 0.036017 -0.511538 0.85182 232 194 181
184.805 0.212567 -2216.44 0.0908118 -0.500223 0.855539 236 201 188
217.131 -12.1295 -2215.65 -0.0780712 -0.575663 0.756567 212 179 164
202.553 -6.14996 -2216.95 -0.350243 -0.482792 0.783114 234 199 183
208.491 -2.05147 -2213.1 -0.228468 -0.282308 0.906601 243 214 200
213.078 -11.1538 -2215.16 -0.187639 -0.566162 0.751522 216 183 167
211.05 -6.71242 -2213.33 -0.184245 -0.375726 0.86984 233 201 185
176.178 3.07746 -2213.63 -0.0187011 -0.396673 0.906652 244 209 197
182.486 1.83934 -2215.12 0.0561043 -0.447456 0.881335 240 206 193
186.677 2.27137 -2215.92 0.0781284 -0.457057 0.876504 240 208 194
192.907 3.18573 -2216.42 0.0169013 -0.422643 0.888344 243 214 200
192.912 7.94559 -2214.36 -0.0122345 -0.338488 0.928084 250 225 213
-71.1248 -1215.02 -2211.23 0.0825987 0.960874 -0.272257 66 50 50
-74.3413 -1213.75 -2209.25 0.180003 0.89233 -0.317202 68 51 50
-62.1901 -1213.44 -2209.63 0.202707 0.900541 -0.222533 69 53 52
-53.1462 -1212.95 -2209.41 0.0423381 0.945402 -0.238181 71 57 56
-44.5183 -1213.03 -2208.24 0.0653569 0.923127 -0.201577 77 62 61
-152.048 -1162.32 -2208.17 -0.44175 0.0216782 0.0833838 75 52 42
-153.515 -1155.66 -2207.05 -0.622074 -0.156968 0.19189 87 64 54
-158.291 -1146.89 -2208.07 -0.87554 -0.165747 0.371865 102 77 67
-150.478 -1158.56 -2207.24 -0.489942 0.111105 -0.0619791 75 53 42
-157.645 -1128.61 -2210.96 -0.791685 0.128831 0.605432 65 58 57
-154.918 -1128.09 -2207.49 -0.793882 0.182752 0.589128 69 62 59
-154.483 -1117.58 -2206.21 -0.552343 0.142317 0.672871 54 52 51
-157.523 -762.758 -2210.23 -0.103997 0.116497 -0.686525 38 39 41
-156.907 -755.704 -2210.49 -0.153108 0.0765501 -0.425083 36 37 39
-157.182 -755.212 -2209.91 -0.13837 0.0773611 -0.427152 37 38 40
-158.248 -742.316 -2206.49 -0.103684 0.0274025 -0.000493909 41 41 43
-156.349 -734.564 -2206.23 -0.0410612 0.100662 -0.185701 38 38 41
-159.307 -719.884 -2210.77 -0.530003 -0.331285 0.766323 41 41 43
-148.186 -726.49 -2207.7 -0.163568 0.174763 -0.38941 32 33 36
-144.903 -721.442 -2206.66 -0.350068 0.287226 -0.679657 30 32 35
-163.612 -709.804 -2209.84 -0.498198 -0.263561 0.824634 38 38 41
-160.822 -716.349 -2210.53 -0.518056 -0.306392 0.794229 40 40 43
-162.341 -711.728 -2209.91 -0.506095 -0.272715 0.818135 39 39 42
-163.825 -702.19 -2207.08 -0.51107 -0.240691 0.814355 37 37 41
-172.735 -694.307 -2211.14 -0.521467 -0.154201 0.838344 36 36 40
-159.835 -705.79 -2207.4 -0.500904 -0.240534 0.81812 38 38 41
-154.829 -701.183 -2206.35 -0.487248 -0.245135 0.802382 37 37 41
-139.97 -717.001 -2209.26 -0.566954 0.284899 -0.641829 33 35 37
-138.742 -709.404 -2207.93 -0.616425 0.220644 -0.743814 30 32 35
-139.879 -706.299 -2206.39 -0.561271 0.182299 -0.81209 28 30 33
-136.925 -701.292 -2209.78 -0.762097 0.102464 -0.660825 32 34 36
-173.798 -689.531 -2211.28 -0.519439 -0.154378 0.839895 36 36 40
-172.573 -684.855 -2209.8 -0.508471 -0.148149 0.84687 35 35 40
-153.71 -689.855 -2206.76 -0.512281 -0.164216 0.78423 34 34 39
-153.96 -681.747 -2206.54 -0.543797 -0.0982448 0.788408 33 32 38
-175.52 -676.648 -2210.51 -0.446267 -0.112226 0.886735 34 34 40
-171.23 -674.619 -2208.03 -0.506993 -0.0876936 0.856027 34 33 39
-153.579 -680.55 -2208.25 -0.544747 -0.0906528 0.773658 33 32 39
-138.466 -687.504 -2207.61 -0.840292 0.052541 -0.581621 33 33 35
-137.835 -682.087 -2208.57 -0.857325 0.0390179 -0.529553 34 35 37
-137.222 -674.662 -2209.19 -0.862873 0.0154209 -0.479292 37 38 41
14.4494 -564.285 -2206.82 0.767783 -0.21203 -0.594686 49 55 58
11.6652 -562.321 -2210.59 0.807366 -0.16135 -0.539431 48 54 56
18.3602 -551.789 -2207.12 0.749584 -0.0953328 -0.652087 49 55 57
18.6804 -545.803 -2205.64 0.780205 0.0702169 -0.599986 50 55 57
17.7261 -544.896 -2206.64 0.784036 0.0634695 -0.599466 49 55 57
14.8158 -538.943 -2208.07 0.874251 0.0973858 -0.421439 50 55 56
14.7287 -526.776 -2206.76 0.946944 -0.140159 -0.242972 51 54 56
17.0928 -519.768 -2208.46 0.899453 -0.391108 -0.183461 50 53 55
-275.589 -267.451 -2206.19 -0.938786 0.269116 -0.180106 51 53 50
-275.685 -209.094 -2206.13 -0.877223 -0.0622582 -0.446505 33 30 36
-275.065 -188.891 -2208.27 -0.862618 -0.182174 -0.462953 33 31 38
-277.319 -179.644 -2207.81 -0.861201 -0.201536 -0.464666 33 32 39
-274.453 -265.85 -2211.68 -0.93495 0.283668 -0.158993 49 52 51
-269.689 -255.9 -2210.21 -0.765848 0.276213 -0.554267 54 57 53
-267.596 -247.058 -2209.68 -0.729773 0.262503 -0.632884 74 72 68
-266.352 -246.734 -2210.93 -0.717509 0.269035 -0.646026 71 69 65
-261.642 -236.556 -2211.78 -0.752254 0.208971 -0.621147 107 101 97
-264.32 -225.335 -2211.55 -0.796074 -0.214919 -0.55287 49 43 47
-271.505 -221.833 -2204.83 -0.81514 -0.275566 -0.466023 44 38 42
-273.474 -215.725 -2206.78 -0.792205 -0.308822 -0.494475 35 32 37
-272.73 -206.048 -2210.59 -0.845382 -0.10187 -0.503059 33 30 36
-272.269 -196.914 -2212.43 -0.859529 -0.0886893 -0.499297 33 30 36
-198.094 314.189 -2206.06 -0.630766 0.385896 -0.715619 39 41 49
-189.447 320.954 -2207.9 -0.569415 0.368252 -0.512527 47 48 54
-184.109 322.118 -2210.4 -0.572079 0.378205 -0.625517 43 44 51
17.333 -458.85 -2211.46 0.761444 0.25645 -0.586004 62 66 64
19.3478 -456.391 -2205.86 0.815979 0.278336 -0.456917 62 66 65
10.9905 -447.747 -2211.27 0.735673 0.335743 -0.587096 63 67 65
13.3553 -440.728 -2205.74 0.81382 0.258687 -0.483073 62 67 66
11.9569 -440.05 -2207.69 0.806899 0.21386 -0.527422 62 67 66
4.92935 -421.202 -2209.18 0.887357 0.328293 -0.312911 62 67 64
4.39767 -417.134 -2207.03 0.901127 0.245847 -0.342866 62 68 64
3.74148 -404.276 -2206.83 0.898342 0.13531 -0.388481 62 68 65
0.293895 -397.249 -2210.68 0.882013 0.184092 -0.419312 62 67 62
-3.12395 -373.773 -2207.7 0.857174 0.245182 -0.434728 57 65 59
1.92766 -394.735 -2206.05 0.893284 0.212861 -0.378155 62 68 64
-1.57648 -382.025 -2209.89 0.837715 0.182274 -0.512858 60 67 61
