ply
format ascii 1.0
comment Created by Open3D
element vertex 1363
property double x
property double y
property double z
property uchar red
property uchar green
property uchar blue
end_header
-503.948 -392.454 -1198 167 129 62
-502.491 -392.811 -1199 164 126 59
-500.614 -392.84 -1199 164 126 59
-498.32 -392.542 -1198 164 126 59
-496.443 -392.571 -1198 168 130 61
-494.154 -392.273 -1197 169 131 62
-492.689 -392.63 -1198 167 127 59
-490.812 -392.659 -1198 169 129 61
-488.934 -392.688 -1198 168 128 60
-487.056 -392.717 -1198 165 125 57
-485.177 -392.746 -1198 166 128 57
-483.298 -392.776 -1198 165 127 56
-481.017 -392.477 -1197 165 127 58
-478.339 -391.85 -1195 165 127 58
-476.464 -391.879 -1195 168 129 58
-474.588 -391.908 -1195 171 132 61
-472.712 -391.936 -1195 170 132 61
-470.836 -391.965 -1195 168 130 59
-468.96 -391.994 -1195 166 128 61
-467.083 -392.023 -1195 165 127 60
-465.595 -392.379 -1196 166 127 64
-464.492 -393.064 -1198 164 125 62
-463.382 -393.749 -1200 158 124 60
-461.88 -394.106 -1201 157 123 59
-461.141 -395.119 -1204 157 123 61
-460.393 -396.132 -1207 160 126 64
-459.254 -396.817 -1209 159 125 67
-458.488 -397.831 -1212 154 120 62
-457.335 -398.516 -1214 148 115 55
-456.175 -399.202 -1216 145 112 52
-455.009 -399.887 -1218 148 115 55
-453.464 -400.244 -1219 150 117 57
-451.915 -400.601 -1220 151 118 60
-450.363 -400.958 -1221 151 118 60
-448.808 -401.315 -1222 149 116 58
-447.249 -401.672 -1223 152 119 61
-446.051 -402.358 -1225 150 116 58
-444.483 -402.715 -1226 150 116 58
-443.273 -403.401 -1228 149 116 63
-442.057 -404.086 -1230 147 114 61
-440.833 -404.772 -1232 145 114 65
-439.603 -405.458 -1234 146 115 66
-438.012 -405.815 -1235 140 109 62
-436.771 -406.501 -1237 130 99 52
-435.874 -407.515 -1240 128 97 56
-434.967 -408.53 -1243 128 97 56
-433.703 -409.216 -1245 130 98 59
-433.125 -410.559 -1249 130 98 59
-431.843 -411.245 -1251 131 97 55
-430.556 -411.932 -1253 129 95 53
-429.261 -412.618 -1255 129 95 54
-427.619 -412.975 -1256 131 97 56
-425.974 -413.332 -1257 127 95 56
-424.663 -414.019 -1259 125 93 54
-423.345 -414.705 -1261 120 89 54
-422.02 -415.391 -1263 116 85 50
-420.023 -415.42 -1263 113 86 48
-418.358 -415.777 -1264 118 91 53
-416.688 -416.134 -1265 122 96 52
-415.015 -416.492 -1266 120 94 50
-413.339 -416.849 -1267 118 90 47
-411.334 -416.877 -1267 118 90 47
-409.329 -416.905 -1267 119 91 46
-407.324 -416.933 -1267 119 91 46
-405.318 -416.961 -1267 120 89 48
-403.312 -416.989 -1267 120 89 48
-401.623 -417.346 -1268 120 89 52
-399.93 -417.703 -1269 119 88 51
-397.92 -417.731 -1269 118 90 48
-396.221 -418.088 -1270 117 89 47
-394.519 -418.445 -1271 118 90 52
-392.814 -418.802 -1272 116 88 50
-391.412 -419.488 -1274 120 88 47
-390.003 -420.174 -1276 129 97 56
-389.196 -421.519 -1280 144 112 85
-388.073 -422.534 -1283 162 130 103
-386.64 -423.221 -1285 161 140 137
-385.499 -424.236 -1288 162 141 138
-383.456 -424.264 -1288 167 140 132
-382.004 -424.95 -1290 170 143 135
-380.251 -425.306 -1291 165 144 141
-378.787 -425.993 -1293 164 143 140
-376.734 -426.02 -1293 165 143 144
-374.97 -426.376 -1294 160 138 139
-373.203 -426.733 -1295 165 140 152
-371.432 -427.09 -1296 167 142 154
-369.088 -426.787 -1295 169 140 151
-367.03 -426.814 -1295 167 138 149
-364.972 -426.841 -1295 165 136 145
-363.474 -427.526 -1297 166 137 146
-361.69 -427.883 -1298 170 137 147
-359.626 -427.909 -1298 171 138 148
-357.837 -428.265 -1299 169 136 146
-355.771 -428.292 -1299 166 133 143
-353.704 -428.318 -1299 162 131 138
-351.095 -427.685 -1297 162 131 138
-348.762 -427.381 -1296 165 134 143
-346.699 -427.407 -1296 168 137 146
-345.434 -428.422 -1299 168 137 144
-343.894 -429.108 -1301 167 136 143
-341.822 -429.134 -1301 162 136 144
-340.533 -430.149 -1304 163 137 145
-338.975 -430.834 -1306 165 136 145
-336.894 -430.86 -1306 164 135 144
-334.813 -430.885 -1306 162 131 140
-332.476 -430.58 -1305 160 129 138
-330.902 -431.266 -1307 164 129 139
-329.07 -431.621 -1308 166 131 141
-327.234 -431.976 -1309 166 128 127
-325.643 -432.661 -1311 167 129 128
-323.799 -433.016 -1312 165 130 126
-321.951 -433.371 -1313 164 129 125
-320.1 -433.726 -1314 160 126 122
-318.003 -433.75 -1314 161 127 123
-315.905 -433.775 -1314 161 129 129
-313.569 -433.469 -1313 161 129 129
-311.473 -433.493 -1313 161 133 133
-309.376 -433.518 -1313 157 129 129
-307.279 -433.542 -1313 156 125 128
-305.182 -433.566 -1313 157 126 129
-303.315 -433.92 -1314 157 129 131
-301.444 -434.274 -1315 156 128 130
-299.343 -434.298 -1315 156 125 126
-297.015 -433.991 -1314 156 125 126
-294.69 -433.684 -1313 158 127 130
-291.922 -432.716 -1310 156 125 128
-290.27 -433.4 -1312 155 123 128
-288.392 -433.753 -1313 156 124 129
-286.727 -434.437 -1315 157 125 130
-285.057 -435.121 -1317 159 127 132
-283.164 -435.474 -1318 159 127 127
-280.842 -435.166 -1317 157 125 125
-278.523 -434.858 -1316 159 123 124
-275.996 -434.22 -1314 158 122 123
-273.684 -433.911 -1313 155 121 122
-271.582 -433.933 -1313 156 122 123
-269.479 -433.955 -1313 160 122 121
-267.58 -434.308 -1314 160 122 121
-265.677 -434.66 -1315 160 122 121
-263.37 -434.351 -1314 162 124 123
-261.463 -434.703 -1315 167 119 114
-258.962 -434.063 -1313 165 117 112
-256.662 -433.753 -1312 160 115 107
-254.947 -434.436 -1314 157 112 104
-252.84 -434.457 -1314 146 107 100
-250.924 -434.808 -1315 144 105 98
-248.815 -434.829 -1315 145 106 97
-246.894 -435.18 -1316 147 108 99
-244.969 -435.531 -1317 149 110 109
-242.856 -435.551 -1317 152 113 112
-240.743 -435.571 -1317 156 114 114
-238.811 -435.922 -1318 157 115 115
-236.696 -435.942 -1318 158 114 112
-234.581 -435.962 -1318 156 112 110
-232.465 -435.981 -1318 153 111 107
-230.524 -436.332 -1319 154 112 108
-228.232 -436.02 -1318 159 115 111
-225.944 -435.708 -1317 160 116 112
-223.829 -435.728 -1317 156 118 113
-221.882 -436.077 -1318 156 118 113
-219.431 -435.434 -1316 158 119 118
-217.152 -435.122 -1315 161 122 121
-215.202 -435.471 -1316 162 124 123
-213.411 -436.151 -1318 161 123 122
-211.293 -436.17 -1318 164 122 118
-209.333 -436.519 -1319 165 123 119
-207.212 -436.536 -1319 165 126 123
-205.247 -436.885 -1320 165 126 123
-203.432 -437.565 -1322 163 124 121
-201.154 -437.251 -1321 161 122 119
-199.029 -437.269 -1321 161 123 120
-197.053 -437.617 -1322 162 124 121
-195.074 -437.965 -1323 159 128 123
-192.945 -437.982 -1323 161 130 125
-190.672 -437.667 -1322 163 131 129
-188.544 -437.684 -1322 163 131 129
-186.276 -437.369 -1321 163 133 130
-184.01 -437.054 -1320 166 136 133
-181.609 -436.408 -1318 168 137 138
-179.351 -436.093 -1317 167 136 137
-177.23 -436.109 -1317 166 138 140
-175.243 -436.455 -1318 165 137 139
-172.989 -436.14 -1317 166 135 142
-170.997 -436.486 -1318 169 138 145
-169.002 -436.832 -1319 169 140 147
-167.257 -437.841 -1322 168 139 146
-165.376 -438.518 -1324 171 138 146
-163.366 -438.864 -1325 174 141 149
-161.353 -439.21 -1326 172 141 150
-159.336 -439.555 -1327 172 141 150
-157.197 -439.569 -1327 169 140 147
-154.941 -439.252 -1326 168 139 146
-152.688 -438.935 -1325 167 138 149
-150.438 -438.617 -1324 168 139 150
-148.191 -438.299 -1323 169 140 151
-146.169 -438.644 -1324 169 140 151
-144.033 -438.657 -1324 168 142 150
-141.898 -438.67 -1324 168 142 150
-139.657 -438.352 -1323 170 141 152
-137.523 -438.364 -1323 170 141 152
-135.388 -438.377 -1323 171 140 149
-133.355 -438.721 -1324 171 140 149
-131.317 -439.064 -1325 164 142 147
-129.277 -439.408 -1326 164 142 147
-127.233 -439.751 -1327 165 142 152
-125.091 -439.763 -1327 165 142 152
-122.857 -439.443 -1326 162 143 152
-120.716 -439.454 -1326 161 142 151
-118.576 -439.465 -1326 161 144 154
-116.435 -439.476 -1326 162 145 155
-114.467 -440.15 -1328 160 145 156
-112.407 -440.492 -1329 159 144 155
-110.261 -440.502 -1329 167 140 153
-108.277 -441.176 -1331 169 142 155
-106.208 -441.517 -1332 171 144 158
-104.056 -441.527 -1332 171 144 158
-101.828 -441.206 -1331 174 145 159
-99.7532 -441.547 -1332 173 144 158
-97.5281 -441.225 -1331 172 143 156
-95.3779 -441.234 -1331 170 141 154
-93.1575 -440.912 -1330 175 140 152
-90.9402 -440.589 -1329 176 141 153
-88.7259 -440.266 -1328 173 142 153
-86.58 -440.275 -1328 172 141 152
-84.4976 -440.614 -1329 168 139 150
-82.4117 -440.954 -1330 169 140 151
-80.3227 -441.294 -1331 174 143 154
-78.2301 -441.633 -1332 175 144 155
-76.0771 -441.641 -1332 169 144 154
-73.924 -441.648 -1332 170 145 155
-71.7708 -441.656 -1332 170 145 153
-69.5653 -441.331 -1331 171 146 154
-67.4135 -441.338 -1331 171 146 154
-65.3106 -441.676 -1332 169 144 152
-63.2045 -442.014 -1333 168 142 148
-61.0949 -442.352 -1334 168 142 148
-58.9821 -442.69 -1335 167 143 144
-56.866 -443.028 -1336 165 141 142
-54.7465 -443.365 -1337 169 138 145
-52.5844 -443.371 -1337 169 138 145
-50.4221 -443.376 -1337 169 140 147
-48.2959 -443.713 -1338 170 141 148
-46.132 -443.718 -1338 167 143 146
-43.9679 -443.723 -1338 166 142 145
-41.7726 -443.396 -1337 171 143 147
-39.6099 -443.401 -1337 172 144 148
-37.3913 -442.742 -1335 170 144 148
-35.1791 -442.083 -1333 171 145 149
-33.0227 -442.087 -1333 170 146 147
-30.8664 -442.091 -1333 170 146 147
-28.667 -441.431 -1331 175 147 151
-26.4937 -441.103 -1330 178 150 154
-24.3238 -440.774 -1329 173 147 155
-22.1738 -440.777 -1329 172 146 154
-20.0386 -441.112 -1330 174 145 152
-17.8734 -440.783 -1329 176 147 154
-15.7233 -440.785 -1329 178 149 156
-13.5935 -441.451 -1331 179 150 157
-11.44 -441.453 -1331 177 151 155
-9.29336 -441.787 -1332 176 150 154
-7.14357 -442.12 -1333 182 149 157
-4.98678 -442.122 -1333 181 148 156
-2.82996 -442.123 -1333 183 151 156
-0.672996 -442.124 -1333 186 154 159
1.48274 -441.793 -1332 188 156 159
3.63525 -441.462 -1331 192 160 163
5.79324 -441.795 -1332 193 161 162
7.94254 -441.464 -1331 188 156 157
10.0962 -441.464 -1331 188 155 163
12.2408 -441.132 -1330 190 157 165
14.4144 -441.795 -1332 192 159 167
16.5697 -441.795 -1332 193 160 168
18.739 -442.126 -1333 194 159 169
20.8959 -442.126 -1333 192 157 167
23.0356 -441.793 -1332 189 157 162
25.2097 -442.123 -1333 189 157 162
27.3665 -442.122 -1333 190 156 154
29.5455 -442.452 -1334 190 156 154
31.6801 -442.119 -1333 188 154 152
33.8624 -442.449 -1334 187 153 151
36.0207 -442.447 -1334 190 156 156
38.2363 -443.108 -1336 191 157 157
40.428 -443.437 -1337 190 154 155
42.5913 -443.435 -1337 188 152 153
44.8882 -444.759 -1341 185 150 146
47.198 -446.082 -1345 182 147 143
49.4474 -446.743 -1347 175 141 135
51.7033 -447.402 -1349 170 136 130
53.9654 -448.062 -1351 159 128 117
56.1924 -448.39 -1352 153 122 111
58.3796 -448.386 -1352 155 124 113
60.5665 -448.382 -1352 155 124 113
62.7071 -448.046 -1351 156 125 120
64.9404 -448.373 -1352 157 126 121
67.0775 -448.037 -1351 158 127 120
69.1089 -447.037 -1348 156 125 118
71.1832 -446.369 -1346 156 124 122
73.3602 -446.364 -1346 157 125 123
-1270.89 -436.489 -1358 116 82 68
-1265.05 -435.207 -1354 118 81 69
-1260.15 -434.247 -1351 119 82 70
-1254.34 -432.966 -1347 121 84 72
-1248.53 -431.684 -1343 122 85 73
-1245.53 -431.366 -1342 129 89 79
-1242.52 -431.049 -1341 134 94 84
-1240.44 -431.053 -1341 137 99 87
-1240.21 -431.699 -1343 138 100 88
-1239.06 -432.025 -1344 137 100 86
-1236.05 -431.707 -1343 136 99 85
-1234.89 -432.033 -1344 132 96 83
-1119.16 -426.224 -1324 146 118 104
-1116.33 -425.929 -1323 148 120 106
-1112.65 -425.313 -1321 147 119 105
-1110.66 -425.341 -1321 148 120 106
-1107.84 -425.049 -1320 150 122 108
-1105.86 -425.078 -1320 151 123 109
-1103.87 -425.108 -1320 153 124 110
-1100.22 -424.494 -1318 154 125 111
-1098.24 -424.525 -1318 157 128 114
-1096.27 -424.556 -1318 158 129 115
-1095.12 -424.91 -1319 152 123 109
-1091.49 -424.298 -1317 154 125 111
-1087.03 -423.364 -1314 157 128 113
-1084.24 -423.075 -1313 154 125 110
-1080.63 -422.463 -1311 156 124 111
-1077.02 -421.852 -1309 160 128 115
-1074.24 -421.563 -1308 159 130 116
-1071.46 -421.275 -1307 159 130 116
-1068.69 -420.987 -1306 159 130 116
-1067.56 -421.344 -1307 159 130 116
-1067.23 -422.024 -1309 159 129 114
-1064.46 -421.736 -1308 159 129 114
-1062.51 -421.771 -1308 160 130 114
-1061.36 -422.13 -1309 160 130 114
-1058.6 -421.843 -1308 159 129 114
-1055.83 -421.556 -1307 160 130 115
-1053.08 -421.27 -1306 158 129 113
-1051.12 -421.306 -1306 157 128 112
-1049.17 -421.342 -1306 156 127 111
-1047.22 -421.379 -1306 154 125 109
-1044.47 -421.093 -1305 150 121 105
-1041.72 -420.807 -1304 150 121 105
-1039.77 -420.843 -1304 152 123 107
-1036.23 -420.235 -1302 154 125 109
-1033.49 -419.949 -1301 164 130 116
-1030.75 -419.663 -1300 165 131 117
-1028.02 -419.377 -1299 167 130 116
-1024.5 -418.768 -1297 164 127 113
-1022.56 -418.805 -1297 162 122 109
-1020.62 -418.842 -1297 159 119 106
-1018.68 -418.879 -1297 158 119 108
-1017.52 -419.239 -1298 162 123 112
-1015.58 -419.276 -1298 172 127 113
-1014.42 -419.637 -1299 175 130 116
-1012.47 -419.674 -1299 178 131 117
-1011.31 -420.034 -1300 183 136 122
-1008.58 -419.748 -1299 194 146 132
-1005.86 -419.462 -1298 199 151 137
-1004.69 -419.822 -1299 202 146 132
-1002.75 -419.859 -1299 198 142 128
-1000.03 -419.573 -1298 197 147 128
-998.083 -419.61 -1298 196 146 127
-996.137 -419.647 -1298 194 147 130
-994.191 -419.684 -1298 193 146 129
-992.244 -419.721 -1298 195 149 133
-990.297 -419.758 -1298 200 154 138
-988.348 -419.795 -1298 201 153 135
-986.401 -419.832 -1298 201 153 135
-983.693 -419.545 -1297 202 157 137
-981.745 -419.581 -1297 202 157 137
-979.797 -419.618 -1297 204 159 139
-977.095 -419.331 -1296 207 162 142
-975.147 -419.368 -1296 209 163 143
-972.448 -419.081 -1295 207 161 141
-970.501 -419.117 -1295 208 162 142
-969.301 -419.477 -1296 211 165 145
-967.352 -419.513 -1296 211 163 145
-966.147 -419.873 -1297 210 162 144
-964.194 -419.909 -1297 211 161 142
-962.984 -420.27 -1298 210 160 141
-962.51 -420.953 -1300 208 159 140
-961.291 -421.313 -1301 207 158 139
-959.331 -421.349 -1301 202 158 140
-957.37 -421.385 -1301 201 157 139
-955.409 -421.421 -1301 207 159 144
-954.18 -421.781 -1302 207 159 144
-950.754 -421.169 -1300 207 159 144
-947.334 -420.557 -1298 206 158 143
-944.647 -420.269 -1297 205 155 142
-941.962 -419.98 -1296 206 156 143
-940.006 -420.016 -1296 206 158 145
-937.325 -419.727 -1295 205 157 144
-933.925 -419.114 -1293 205 160 148
-931.972 -419.149 -1293 206 161 149
-929.299 -418.86 -1292 207 161 148
-927.346 -418.895 -1292 206 160 147
-924.677 -418.606 -1291 206 160 146
-924.154 -419.29 -1293 207 161 147
-922.911 -419.649 -1294 205 160 148
-921.665 -420.008 -1295 204 159 147
-920.416 -420.368 -1296 206 160 148
-919.872 -421.051 -1298 203 157 145
-917.907 -421.086 -1298 205 159 147
-916.647 -421.446 -1299 209 163 151
-914.68 -421.48 -1299 209 164 152
-911.306 -420.866 -1297 207 162 150
-908.64 -420.576 -1296 207 164 151
-905.976 -420.287 -1295 210 167 154
-903.315 -419.997 -1294 210 165 153
-900.657 -419.707 -1293 210 165 153
-898.696 -419.741 -1293 213 167 155
-896.734 -419.775 -1293 215 169 157
-894.773 -419.81 -1293 214 168 156
-892.12 -419.519 -1292 213 167 155
-890.159 -419.554 -1292 211 167 156
-888.884 -419.912 -1293 210 166 155
-886.235 -419.622 -1292 211 169 156
-884.273 -419.656 -1292 211 169 156
-882.31 -419.69 -1292 212 169 155
-879.665 -419.399 -1291 211 168 154
-877.023 -419.108 -1290 210 167 152
-874.384 -418.818 -1289 210 167 152
-871.07 -418.201 -1287 210 166 155
-869.789 -418.56 -1288 211 167 156
-867.155 -418.269 -1287 208 162 154
-865.197 -418.303 -1287 208 162 154
-863.239 -418.337 -1287 207 163 155
-861.28 -418.37 -1287 210 166 158
-859.321 -418.404 -1287 211 167 158
-858.027 -418.763 -1288 211 167 158
-856.066 -418.796 -1288 211 168 153
-852.778 -418.179 -1286 213 170 155
-849.495 -417.563 -1284 212 169 156
-846.879 -417.271 -1283 210 167 154
-844.923 -417.304 -1283 210 166 143
-842.31 -417.012 -1282 205 161 138
-840.356 -417.046 -1282 203 159 139
-837.747 -416.754 -1281 204 160 140
-834.488 -416.136 -1279 183 145 116
-831.885 -415.844 -1278 153 115 86
-828.637 -415.226 -1276 146 109 54
-824.746 -414.283 -1273 144 107 52
-821.51 -413.665 -1271 145 106 48
-818.28 -413.047 -1269 144 105 47
-815.699 -412.754 -1268 141 102 43
-812.479 -412.136 -1266 140 101 42
-810.545 -412.169 -1266 141 102 42
-807.333 -411.55 -1264 139 100 40
-804.127 -410.932 -1262 135 101 46
-802.834 -411.29 -1263 134 100 45
-800.269 -410.997 -1262 134 100 42
-797.707 -410.704 -1261 134 100 42
-796.409 -411.062 -1262 133 98 39
-794.479 -411.095 -1262 130 95 36
-793.177 -411.453 -1263 129 95 39
-791.244 -411.485 -1263 128 94 38
-789.311 -411.518 -1263 133 96 32
-788.002 -411.876 -1264 138 101 37
-785.445 -411.583 -1263 139 102 36
-782.27 -410.963 -1261 142 105 39
-779.101 -410.344 -1259 134 99 39
-777.173 -410.376 -1259 125 90 30
-774.628 -410.083 -1258 133 97 34
-772.087 -409.789 -1257 139 103 40
-770.16 -409.821 -1257 139 101 34
-767.622 -409.528 -1256 136 98 31
-765.087 -409.234 -1255 125 91 31
-762.555 -408.94 -1254 122 88 28
-760.025 -408.646 -1253 126 93 33
-757.498 -408.352 -1252 130 97 37
-755.577 -408.384 -1252 138 98 34
-753.054 -408.09 -1251 143 103 39
-751.135 -408.122 -1251 150 105 40
-748.616 -407.828 -1250 146 101 36
-746.697 -407.86 -1250 143 100 39
-742.394 -406.587 -1246 137 94 33
-739.886 -406.292 -1245 117 79 19
-737.381 -405.998 -1244 132 94 34
-734.288 -405.377 -1242 148 113 54
-732.38 -405.409 -1242 150 115 56
-729.295 -404.787 -1240 152 115 51
-726.215 -404.166 -1238 152 115 51
-721.972 -402.892 -1234 156 116 51
-716.574 -400.964 -1228 150 110 45
-712.357 -399.69 -1224 142 103 37
-708.733 -398.741 -1221 140 101 35
-705.697 -398.119 -1219 139 99 35
-703.244 -397.824 -1218 140 100 36
-701.37 -397.855 -1218 142 102 39
-699.495 -397.886 -1218 147 107 44
-698.193 -398.244 -1219 147 108 46
-696.316 -398.275 -1219 149 110 48
-693.87 -397.979 -1218 152 112 48
-691.426 -397.684 -1217 155 115 51
-688.418 -397.061 -1215 164 124 52
-685.416 -396.439 -1213 165 125 53
-681.293 -395.162 -1209 167 125 52
-677.181 -393.885 -1205 166 124 51
-673.643 -392.936 -1202 169 128 53
-669.554 -391.659 -1198 169 128 53
-667.149 -391.362 -1197 169 127 55
-664.747 -391.066 -1196 170 128 56
-662.348 -390.769 -1195 168 127 57
-659.952 -390.473 -1194 162 121 51
-658.661 -390.83 -1195 155 115 47
-656.817 -390.861 -1195 156 116 48
-655.521 -391.218 -1196 155 116 45
-654.767 -391.903 -1198 154 115 44
-653.463 -392.261 -1199 155 116 46
-651.611 -392.291 -1199 154 115 45
-650.301 -392.649 -1200 153 114 44
-647.907 -392.352 -1199 154 115 45
-646.054 -392.383 -1199 152 112 45
-644.202 -392.413 -1199 153 113 46
-641.813 -392.117 -1198 150 109 41
-640.495 -392.474 -1199 148 107 39
-638.641 -392.505 -1199 149 109 43
-636.787 -392.536 -1199 149 109 43
-635.462 -392.894 -1200 149 109 45
-633.078 -392.597 -1199 146 106 42
-631.223 -392.627 -1199 146 103 43
-629.893 -392.985 -1200 146 103 43
-627.512 -392.688 -1199 138 99 39
-625.656 -392.719 -1199 137 98 38
-623.28 -392.422 -1198 138 96 38
-621.425 -392.452 -1198 136 94 36
-619.569 -392.482 -1198 130 89 46
-617.198 -392.185 -1197 123 82 39
-615.344 -392.216 -1197 91 61 28
-614.001 -392.574 -1198 67 37 4
-613.167 -393.26 -1200 43 20 5
-611.816 -393.618 -1201 34 11 0
-610.462 -393.976 -1202 26 9 1
-608.598 -394.007 -1202 25 8 0
-606.23 -393.709 -1201 19 13 10
-604.367 -393.74 -1201 14 8 5
-601.5 -393.114 -1199 11 9 6
-600.14 -393.473 -1200 13 11 8
-597.281 -392.847 -1198 13 9 10
-592.936 -391.238 -1193 13 9 10
-590.093 -390.612 -1191 19 12 15
-588.738 -390.97 -1192 22 15 18
-587.872 -391.656 -1194 24 15 18
-586.017 -391.687 -1194 24 15 18
-583.673 -391.389 -1193 26 22 21
-582.795 -392.075 -1195 24 20 19
-580.938 -392.105 -1195 24 19 22
-579.081 -392.136 -1195 22 17 20
-576.74 -391.837 -1194 28 20 23
-574.884 -391.868 -1194 33 25 28
-573.507 -392.226 -1195 31 25 26
-571.649 -392.256 -1195 33 27 28
-569.79 -392.286 -1195 34 26 30
-568.406 -392.645 -1196 39 31 35
-567.018 -393.003 -1197 41 33 35
-565.155 -393.033 -1197 43 35 37
-563.292 -393.063 -1197 43 34 33
-562.836 -394.079 -1200 52 43 42
-560.967 -394.109 -1200 56 46 42
-559.564 -394.467 -1201 55 45 41
-558.158 -394.826 -1202 58 47 42
-556.748 -395.185 -1203 59 48 43
-554.873 -395.215 -1203 60 49 40
-552.998 -395.245 -1203 67 56 47
-550.665 -394.947 -1202 78 68 48
-547.422 -393.991 -1199 86 76 56
-544.187 -393.035 -1196 89 75 46
-541.415 -392.408 -1194 99 85 56
-539.1 -392.109 -1193 125 96 50
-536.339 -391.481 -1191 143 114 68
-534.031 -391.182 -1190 157 119 63
-532.174 -391.212 -1190 159 121 65
-530.762 -391.57 -1191 157 120 63
-528.903 -391.6 -1191 159 122 65
-527.043 -391.63 -1191 161 123 62
-525.624 -391.988 -1192 162 124 63
-524.202 -392.346 -1193 160 123 60
-522.776 -392.705 -1194 159 122 59
-521.346 -393.064 -1195 158 121 57
-519.479 -393.093 -1195 158 121 57
-517.611 -393.123 -1195 160 123 59
-515.743 -393.152 -1195 160 123 59
-513.874 -393.182 -1195 162 123 60
-512.434 -393.541 -1196 165 126 63
-510.136 -393.241 -1195 166 127 63
-508.692 -393.6 -1196 168 129 65
-507.244 -393.958 -1197 169 130 66
-505.793 -394.317 -1198 167 128 64
-503.918 -394.346 -1198 165 127 60
-502.462 -394.705 -1199 164 126 59
-500.584 -394.734 -1199 164 126 58
-498.291 -394.434 -1198 165 127 59
-496.414 -394.464 -1198 166 128 57
-494.124 -394.164 -1197 168 130 59
-492.249 -394.193 -1197 168 129 58
-490.373 -394.222 -1197 166 127 56
-488.497 -394.252 -1197 163 125 56
-486.62 -394.281 -1197 164 126 57
-484.743 -394.31 -1197 165 127 57
-482.866 -394.339 -1197 166 128 58
-480.586 -394.039 -1196 167 129 60
-478.31 -393.738 -1195 168 130 61
-476.036 -393.438 -1194 171 132 61
-474.162 -393.467 -1194 173 134 63
-472.288 -393.495 -1194 171 133 64
-470.808 -393.854 -1195 169 131 62
-468.539 -393.553 -1194 166 129 63
-466.663 -393.582 -1194 164 127 61
-465.567 -394.27 -1196 163 124 61
-464.463 -394.958 -1198 162 123 60
-463.739 -395.976 -1201 159 124 61
-462.621 -396.664 -1203 159 124 61
-461.878 -397.682 -1206 156 122 60
-461.127 -398.7 -1209 157 123 61
-459.605 -399.059 -1210 157 123 65
-458.837 -400.077 -1213 155 121 63
-457.683 -400.766 -1215 147 114 54
-456.521 -401.454 -1217 145 112 52
-455.353 -402.143 -1219 147 114 55
-453.807 -402.502 -1220 151 118 59
-452.257 -402.86 -1221 154 121 63
-450.335 -402.889 -1221 152 119 61
-449.146 -403.578 -1223 151 118 60
-447.22 -403.607 -1223 152 119 61
-446.022 -404.296 -1225 153 119 59
-444.455 -404.654 -1226 156 122 62
-443.245 -405.343 -1228 147 115 62
-442.387 -406.362 -1231 147 115 62
-441.52 -407.381 -1234 147 116 71
-440.287 -408.07 -1236 146 115 70
-438.693 -408.429 -1237 145 112 71
-437.801 -409.449 -1240 132 99 58
-436.548 -410.138 -1242 130 98 56
-435.288 -410.827 -1244 129 97 55
-434.022 -411.516 -1246 131 100 64
-433.096 -412.536 -1249 133 102 66
-432.16 -413.555 -1252 133 99 58
-430.871 -414.245 -1254 130 96 55
-429.574 -414.934 -1256 130 95 53
-428.272 -415.624 -1258 130 95 53
-426.623 -415.983 -1259 125 93 53
-425.646 -417.003 -1262 126 94 54
-424.323 -417.692 -1264 119 89 54
-422.994 -418.382 -1266 116 86 51
-420.993 -418.41 -1266 112 85 48
-418.991 -418.439 -1266 122 95 58
-417.318 -418.798 -1267 118 93 50
-415.642 -419.157 -1268 120 95 52
-413.963 -419.516 -1269 117 89 47
-411.955 -419.544 -1269 117 89 47
-409.947 -419.572 -1269 118 90 46
-407.617 -419.27 -1268 117 89 45
-405.61 -419.298 -1268 116 87 45
-403.921 -419.657 -1269 117 88 46
-402.228 -420.016 -1270 118 88 50
-400.532 -420.374 -1271 117 87 49
-398.519 -420.402 -1271 121 89 49
-397.129 -421.092 -1273 125 93 53
-395.423 -421.45 -1274 117 87 50
-393.712 -421.809 -1275 117 87 50
-392.613 -422.829 -1278 120 89 57
-391.198 -423.518 -1280 136 105 73
-390.385 -424.87 -1284 150 120 99
-388.953 -425.559 -1286 152 122 101
-387.816 -426.58 -1289 154 131 129
-386.37 -427.269 -1291 157 134 132
-384.321 -427.297 -1291 162 136 131
-382.569 -427.655 -1292 161 135 130
-381.107 -428.345 -1294 159 135 133
-379.346 -428.703 -1295 160 136 134
-377.581 -429.061 -1296 161 137 137
-375.523 -429.089 -1296 164 140 140
-374.04 -429.778 -1298 161 135 145
-371.979 -429.805 -1298 160 134 144
-369.631 -429.501 -1297 159 131 140
-367.854 -429.859 -1298 159 131 140
-366.072 -430.217 -1299 161 134 141
-364.007 -430.244 -1299 162 135 142
-362.221 -430.602 -1300 163 133 141
-360.431 -430.96 -1301 163 133 141
-358.362 -430.987 -1301 164 133 138
-356.566 -431.344 -1302 162 131 136
-354.222 -431.039 -1301 159 128 134
-351.611 -430.403 -1299 160 129 135
-349.274 -430.098 -1298 163 132 140
-347.208 -430.124 -1298 164 133 141
-345.939 -431.144 -1301 162 132 138
-344.132 -431.501 -1302 161 131 137
-342.584 -432.19 -1304 157 128 136
-341.291 -433.21 -1307 158 129 137
-339.468 -433.567 -1308 159 129 138
-337.384 -433.593 -1308 158 128 137
-335.3 -433.619 -1308 158 127 135
-332.96 -433.312 -1307 157 126 134
-331.383 -434.001 -1309 158 124 132
-329.548 -434.358 -1310 157 123 131
-327.959 -435.046 -1312 158 124 123
-326.364 -435.734 -1314 158 124 123
-324.514 -436.091 -1315 159 125 123
-322.907 -436.779 -1317 159 125 123
-320.806 -436.804 -1317 156 123 121
-318.704 -436.829 -1317 155 122 120
-316.362 -436.522 -1316 154 124 122
-314.261 -436.546 -1316 153 123 121
-312.16 -436.571 -1316 152 123 123
-309.823 -436.263 -1315 154 125 125
-307.723 -436.288 -1315 153 124 124
-306.087 -436.975 -1317 150 121 121
-304.214 -437.331 -1318 147 120 120
-302.338 -437.687 -1319 147 120 120
-300.23 -437.71 -1319 148 120 120
-297.896 -437.402 -1318 150 122 122
-295.564 -437.094 -1317 154 123 124
-292.791 -436.122 -1314 152 121 122
-290.911 -436.477 -1315 153 121 125
-289.247 -437.164 -1317 153 121 125
-287.577 -437.851 -1319 154 121 124
-285.9 -438.538 -1321 154 121 124
-283.357 -437.897 -1319 154 120 119
-281.246 -437.919 -1319 151 117 116
-278.923 -437.61 -1318 150 115 114
-276.184 -436.636 -1315 149 114 113
-274.079 -436.658 -1315 152 117 117
-271.767 -436.348 -1314 152 117 117
-269.662 -436.37 -1314 152 114 114
-267.762 -436.724 -1315 153 115 115
-266.06 -437.41 -1317 153 113 115
-263.95 -437.432 -1317 155 115 117
-261.641 -437.121 -1316 154 112 109
-259.335 -436.811 -1315 152 110 107
-257.032 -436.5 -1314 148 109 103
-255.12 -436.853 -1315 145 106 100
-253.012 -436.874 -1315 141 103 98
-250.903 -436.895 -1315 139 101 96
-248.984 -437.248 -1316 141 102 96
-247.061 -437.601 -1317 144 105 99
-244.949 -437.621 -1317 146 107 106
-242.836 -437.641 -1317 149 110 109
-240.906 -437.994 -1318 150 111 109
-238.791 -438.014 -1318 149 110 108
-236.676 -438.034 -1318 148 109 106
-234.561 -438.054 -1318 146 107 104
-232.445 -438.073 -1318 142 104 100
-230.679 -438.758 -1320 142 104 100
-228.386 -438.445 -1319 147 109 105
-226.097 -438.131 -1318 153 115 111
-224.15 -438.483 -1319 156 119 115
-222.2 -438.834 -1320 156 119 115
-219.913 -438.521 -1319 157 119 117
-217.628 -438.207 -1318 156 118 116
-215.511 -438.225 -1318 156 119 116
-213.555 -438.576 -1319 158 121 118
-211.595 -438.927 -1320 161 122 120
-209.473 -438.945 -1320 162 123 121
-207.351 -438.963 -1320 162 123 121
-205.54 -439.646 -1322 162 123 121
-203.414 -439.664 -1322 160 121 118
-201.289 -439.681 -1322 161 122 119
-199.162 -439.698 -1322 160 123 121
-197.036 -439.716 -1322 160 123 121
-194.909 -439.733 -1322 158 126 124
-192.782 -439.75 -1322 162 130 128
-190.655 -439.766 -1322 162 130 129
-188.528 -439.783 -1322 160 128 127
-186.259 -439.467 -1321 161 131 129
-184.133 -439.483 -1321 164 134 132
-181.869 -439.166 -1320 166 134 135
-179.608 -438.849 -1319 165 133 134
-177.619 -439.198 -1320 163 133 138
-175.493 -439.214 -1320 162 132 137
-173.367 -439.229 -1320 166 136 142
-171.241 -439.244 -1320 164 134 140
-169.371 -439.925 -1322 166 137 144
-167.495 -440.606 -1324 165 136 143
-165.611 -441.286 -1326 171 140 147
-163.475 -441.301 -1326 168 137 144
-161.46 -441.648 -1327 169 136 147
-159.322 -441.663 -1327 170 137 148
-157.183 -441.677 -1327 170 139 148
-154.927 -441.358 -1326 170 139 148
-152.79 -441.372 -1326 167 138 149
-150.538 -441.053 -1325 167 138 149
-148.402 -441.066 -1325 169 137 150
-146.266 -441.08 -1325 170 138 151
-144.129 -441.093 -1325 171 140 150
-141.885 -440.773 -1324 169 138 148
-139.855 -441.119 -1325 168 138 148
-137.718 -441.132 -1325 168 138 148
-135.683 -441.477 -1326 166 136 145
-133.544 -441.49 -1326 165 135 144
-131.503 -441.835 -1327 162 136 144
-129.46 -442.18 -1328 161 135 143
-127.317 -442.192 -1328 160 137 146
-125.362 -442.869 -1330 158 135 144
-123.123 -442.548 -1329 157 137 145
-120.887 -442.226 -1328 159 139 147
-118.833 -442.571 -1329 158 139 148
-116.687 -442.581 -1329 156 137 146
-114.628 -442.925 -1330 155 137 147
-112.481 -442.936 -1330 158 140 150
-110.333 -442.947 -1330 166 140 151
-108.348 -443.623 -1332 163 137 148
-106.197 -443.633 -1332 167 141 152
-104.046 -443.643 -1332 167 141 152
-101.895 -443.653 -1332 165 138 151
-99.7436 -443.663 -1332 166 139 152
-97.5921 -443.672 -1332 166 139 150
-95.4404 -443.681 -1332 166 139 150
-93.2186 -443.357 -1331 165 134 142
-91.0682 -443.366 -1331 166 135 143
-88.8509 -443.042 -1330 165 134 142
-86.702 -443.051 -1330 163 132 140
-84.5529 -443.059 -1330 162 133 141
-82.4656 -443.4 -1331 165 136 144
-80.3751 -443.742 -1332 166 136 144
-78.2811 -444.083 -1333 163 133 141
-76.1267 -444.09 -1333 165 139 148
-73.9721 -444.098 -1333 164 138 147
-71.8175 -444.105 -1333 164 138 145
-69.7151 -444.445 -1334 165 139 146
-67.5586 -444.452 -1334 164 140 147
-65.402 -444.459 -1334 162 138 145
-63.2453 -444.465 -1334 161 135 140
-61.0429 -444.139 -1333 162 136 141
-58.9318 -444.478 -1334 158 136 138
-56.8174 -444.817 -1335 158 136 138
-54.6998 -445.156 -1336 163 137 141
-52.5787 -445.495 -1337 163 137 141
-50.4545 -445.834 -1338 159 135 137
-48.3268 -446.173 -1339 161 137 139
-46.1615 -446.178 -1339 160 137 139
-43.9959 -446.183 -1339 157 134 136
-41.7679 -445.521 -1337 163 137 141
-39.6055 -445.526 -1337 163 137 141
-37.4151 -445.197 -1336 163 137 138
-35.2014 -444.534 -1334 165 139 140
-33.0436 -444.538 -1334 165 138 138
-30.8396 -443.876 -1332 165 138 138
-28.6634 -443.546 -1331 173 144 144
-26.4905 -443.216 -1330 171 142 142
-24.3207 -442.886 -1329 171 140 142
-22.1708 -442.889 -1329 172 141 143
-20.0359 -443.225 -1330 175 142 142
-17.8844 -443.228 -1330 177 144 144
-15.7327 -443.23 -1330 176 145 145
-13.6014 -443.899 -1332 176 145 145
-11.4465 -443.901 -1332 174 147 147
-9.29859 -444.236 -1333 176 149 149
-7.14189 -444.238 -1333 180 146 147
-4.98155 -443.906 -1332 179 145 146
-2.82655 -443.908 -1332 180 145 148
-0.671523 -443.909 -1332 183 148 151
1.48253 -443.577 -1331 184 150 156
3.63323 -443.244 -1330 187 153 159
5.78506 -443.245 -1330 187 155 159
7.9369 -443.245 -1330 186 154 158
10.0965 -443.579 -1331 186 154 160
12.2407 -443.246 -1330 192 160 166
14.3925 -443.245 -1330 195 164 170
16.5568 -443.578 -1331 193 162 168
18.7243 -443.911 -1332 193 161 167
20.8795 -443.91 -1332 193 161 167
23.0173 -443.576 -1331 192 161 165
25.1707 -443.575 -1331 191 160 164
27.3446 -443.907 -1332 194 159 159
29.4997 -443.906 -1332 192 157 157
31.6785 -444.237 -1333 189 155 154
33.8096 -443.902 -1332 189 155 154
35.9647 -443.9 -1332 189 156 156
38.1482 -444.231 -1333 191 158 158
40.3046 -444.229 -1333 193 159 159
42.5248 -444.893 -1335 191 157 157
44.7849 -445.89 -1338 193 158 155
46.9845 -446.22 -1339 193 158 155
49.224 -446.884 -1341 187 152 148
51.5082 -447.88 -1344 177 142 138
53.762 -448.543 -1346 171 137 132
56.0225 -449.206 -1348 166 132 127
58.246 -449.535 -1349 163 130 125
60.4279 -449.531 -1349 165 132 127
62.5635 -449.193 -1348 163 132 127
64.7917 -449.522 -1349 163 132 127
66.9239 -449.184 -1348 163 132 126
68.9501 -448.18 -1345 164 133 127
71.0724 -447.842 -1344 164 132 129
73.2458 -447.836 -1344 160 128 125
75.4193 -447.831 -1344 158 126 123
77.5348 -447.492 -1343 158 126 123
79.7064 -447.486 -1343 155 123 114
81.7559 -446.814 -1341 154 122 113
-1272.28 -440.553 -1364 121 84 71
-1265.51 -438.942 -1359 123 86 73
-1258.76 -437.331 -1354 125 88 75
-1253.87 -436.366 -1351 123 84 73
-1250.86 -436.047 -1350 127 88 77
-1248.77 -436.051 -1350 131 93 80
-1247.6 -436.378 -1351 134 96 83
-1245.5 -436.381 -1351 136 98 85
-1242.49 -436.062 -1350 136 98 85
-1105.2 -428.485 -1324 148 119 105
-1104.05 -428.839 -1325 149 118 105
-1102.89 -429.194 -1326 149 118 105
-1100.07 -428.903 -1325 146 117 105
-1095.6 -427.964 -1322 147 118 106
-1092.79 -427.672 -1321 152 123 109
-1089.16 -427.058 -1319 153 124 110
-1084.72 -426.12 -1316 156 123 112
-1080.28 -425.182 -1313 159 126 115
-1076.67 -424.568 -1311 156 127 113
-1074.71 -424.602 -1311 158 129 115
-1072.75 -424.637 -1311 155 126 112
-1070.79 -424.672 -1311 156 127 113
-1068.01 -424.382 -1310 157 127 112
-1066.05 -424.417 -1310 156 126 111
-1064.09 -424.453 -1310 156 126 111
-1062.95 -424.813 -1311 156 126 111
-1060.18 -424.524 -1310 156 126 111
-1056.61 -423.913 -1308 155 125 110
-1055.46 -424.273 -1309 154 125 110
-1053.5 -424.309 -1309 153 124 109
-1050.74 -424.022 -1308 155 125 110
-1049.59 -424.382 -1309 155 125 110
-1046.83 -424.095 -1308 153 123 108
-1044.08 -423.808 -1307 151 121 106
-1041.33 -423.52 -1306 148 119 104
-1038.58 -423.233 -1305 145 116 101
-1035.04 -422.621 -1303 146 116 101
-1032.3 -422.334 -1302 152 122 107
-1028.77 -421.722 -1300 160 126 110
-1024.46 -420.786 -1297 162 128 112
-1023.31 -421.147 -1298 162 124 109
-1021.37 -421.185 -1298 157 119 104
-1020.21 -421.546 -1299 152 115 102
-1019.05 -421.908 -1300 152 115 102
-1017.89 -422.27 -1301 159 118 106
-1015.94 -422.307 -1301 161 120 108
-1014.77 -422.67 -1302 163 118 107
-1012.83 -422.707 -1302 164 119 108
-1009.32 -422.095 -1300 173 126 115
-1006.6 -421.807 -1299 181 134 123
-1005.43 -422.169 -1300 194 137 126
-1002.71 -421.882 -1299 198 141 130
-1000.76 -421.919 -1299 193 140 122
-998.815 -421.956 -1299 192 139 121
-996.1 -421.669 -1298 189 142 127
-994.92 -422.031 -1299 186 139 124
-993.736 -422.393 -1300 182 137 124
-991.786 -422.43 -1300 183 138 125
-989.834 -422.467 -1300 186 139 122
-987.884 -422.504 -1300 189 142 125
-985.173 -422.216 -1299 189 145 125
-983.223 -422.253 -1299 189 145 125
-981.272 -422.29 -1299 192 148 128
-978.566 -422.001 -1298 196 152 132
-975.863 -421.713 -1297 200 154 134
-973.913 -421.75 -1297 201 155 135
-971.963 -421.786 -1297 203 157 137
-970.76 -422.148 -1298 206 160 140
-968.808 -422.185 -1298 209 158 142
-966.11 -421.896 -1297 209 158 142
-965.645 -422.583 -1299 210 157 139
-964.431 -422.945 -1300 211 158 140
-963.214 -423.306 -1301 206 158 139
-961.993 -423.668 -1302 205 157 138
-960.032 -423.704 -1302 198 158 139
-958.07 -423.741 -1302 198 158 139
-956.108 -423.777 -1302 199 154 141
-954.877 -424.138 -1303 199 154 141
-950.718 -423.198 -1300 201 154 141
-947.298 -422.583 -1298 199 152 139
-945.339 -422.618 -1298 200 149 139
-942.653 -422.329 -1297 201 150 140
-939.971 -422.039 -1296 198 151 140
-938.013 -422.074 -1296 197 150 139
-934.612 -421.458 -1294 192 149 138
-932.657 -421.494 -1294 194 151 140
-929.983 -421.204 -1293 197 152 141
-928.746 -421.565 -1294 198 153 142
-926.074 -421.274 -1293 199 154 141
-924.833 -421.635 -1294 199 154 141
-923.589 -421.996 -1295 199 156 144
-922.342 -422.357 -1296 199 156 144
-921.091 -422.718 -1297 201 156 145
-919.837 -423.079 -1298 200 155 144
-918.579 -423.441 -1299 201 158 146
-917.318 -423.802 -1300 203 160 148
-915.349 -423.837 -1300 202 159 147
-912.677 -423.546 -1299 200 157 145
-910.008 -423.254 -1298 198 157 145
-908.041 -423.289 -1298 200 159 147
-904.677 -422.672 -1296 207 162 151
-902.015 -422.38 -1295 205 160 149
-900.051 -422.415 -1295 205 158 147
-898.087 -422.449 -1295 205 158 147
-895.43 -422.158 -1294 207 160 149
-893.466 -422.192 -1294 209 162 151
-890.813 -421.9 -1293 206 161 151
-888.85 -421.935 -1293 204 159 149
-886.887 -421.969 -1293 207 164 152
-884.238 -421.677 -1292 208 165 153
-882.959 -422.038 -1293 206 165 153
-880.312 -421.746 -1292 205 164 152
-877.669 -421.453 -1291 202 161 147
-875.028 -421.161 -1290 201 160 146
-872.39 -420.868 -1289 204 161 149
-870.43 -420.903 -1289 206 163 151
-868.469 -420.937 -1289 208 161 151
-866.508 -420.971 -1289 208 161 151
-863.876 -420.678 -1288 207 162 154
-861.916 -420.712 -1288 209 164 156
-859.955 -420.745 -1288 209 166 155
-857.994 -420.779 -1288 208 165 154
-855.368 -420.486 -1287 206 163 149
-853.407 -420.52 -1287 206 163 149
-850.123 -419.9 -1285 209 166 150
-848.165 -419.934 -1285 208 165 149
-845.548 -419.641 -1284 209 165 145
-842.934 -419.347 -1283 205 161 141
-840.978 -419.381 -1283 203 157 135
-837.713 -418.76 -1281 205 159 137
-835.107 -418.467 -1280 186 148 127
-832.503 -418.173 -1279 163 125 104
-829.253 -417.553 -1277 143 109 53
-826.656 -417.259 -1276 137 103 47
-822.769 -416.311 -1273 137 96 40
-819.536 -415.69 -1271 135 94 38
-816.952 -415.396 -1270 135 96 41
-814.371 -415.102 -1269 137 98 43
-811.792 -414.807 -1268 136 99 40
-808.578 -414.186 -1266 135 98 39
-805.369 -413.565 -1264 127 97 46
-802.801 -413.27 -1263 126 96 45
-800.871 -413.303 -1263 130 97 41
-798.307 -413.008 -1262 130 97 41
-796.377 -413.041 -1262 129 95 39
-794.447 -413.074 -1262 126 92 36
-792.516 -413.106 -1262 121 90 39
-791.212 -413.466 -1263 122 91 40
-789.279 -413.499 -1263 135 96 35
-787.969 -413.859 -1264 142 103 42
-785.412 -413.564 -1263 137 99 33
-782.858 -413.269 -1262 134 96 30
-779.688 -412.647 -1260 122 91 36
-777.758 -412.679 -1260 121 90 35
-775.212 -412.384 -1259 136 100 38
-773.283 -412.417 -1259 140 104 42
-770.741 -412.122 -1258 144 104 36
-768.812 -412.154 -1258 138 98 30
-765.665 -411.531 -1256 123 91 28
-763.131 -411.236 -1255 121 89 26
-761.206 -411.268 -1255 124 94 33
-758.676 -410.973 -1254 128 98 37
-756.149 -410.677 -1253 136 97 36
-754.226 -410.709 -1253 140 101 40
-752.303 -410.742 -1253 151 105 41
-750.38 -410.774 -1253 148 102 38
-747.859 -410.478 -1252 142 102 39
-743.554 -409.199 -1248 136 96 33
-740.449 -408.575 -1246 120 81 22
-737.349 -407.951 -1244 137 98 39
-734.256 -407.327 -1242 150 113 56
-732.348 -407.359 -1242 152 115 58
-729.851 -407.063 -1241 151 115 53
-726.77 -406.439 -1239 152 116 54
-722.525 -405.158 -1235 156 116 51
-717.709 -403.55 -1230 148 108 43
-712.908 -401.941 -1225 142 102 37
-709.282 -400.988 -1222 142 102 37
-705.666 -400.035 -1219 140 100 35
-703.213 -399.738 -1218 140 100 35
-701.339 -399.769 -1218 143 103 40
-700.038 -400.128 -1219 148 108 45
-698.162 -400.16 -1219 148 109 48
-696.285 -400.191 -1219 149 110 49
-693.838 -399.894 -1218 151 111 48
-691.963 -399.925 -1218 155 115 52
-688.387 -398.971 -1215 166 124 52
-684.82 -398.017 -1212 167 125 53
-680.698 -396.734 -1208 167 125 53
-676.589 -395.451 -1204 166 124 52
-673.052 -394.497 -1201 167 126 51
-670.082 -393.871 -1199 167 126 51
-667.119 -393.244 -1197 168 127 52
-664.161 -392.618 -1195 171 130 55
-661.764 -392.32 -1194 170 128 58
-659.922 -392.35 -1194 165 123 53
-658.079 -392.381 -1194 160 120 52
-656.237 -392.412 -1194 159 119 51
-655.49 -393.1 -1196 157 118 45
-654.19 -393.459 -1197 154 115 42
-652.887 -393.818 -1198 154 115 44
-651.037 -393.849 -1198 154 115 44
-650.27 -394.537 -1200 154 114 46
-648.417 -394.568 -1200 154 114 46
-646.024 -394.27 -1199 150 110 44
-644.171 -394.3 -1199 151 111 45
-642.318 -394.331 -1199 150 108 40
-640.464 -394.361 -1199 150 108 40
-638.611 -394.392 -1199 147 107 41
-636.757 -394.423 -1199 145 105 39
-635.432 -394.782 -1200 147 107 42
-633.047 -394.484 -1199 148 108 43
-631.719 -394.844 -1200 144 104 43
-629.862 -394.874 -1200 143 103 42
-627.482 -394.576 -1199 137 98 35
-625.626 -394.606 -1199 135 96 33
-623.249 -394.308 -1198 136 96 35
-621.394 -394.338 -1198 135 95 34
-619.539 -394.369 -1198 132 90 46
-617.168 -394.07 -1197 121 79 35
-615.313 -394.101 -1197 90 61 28
-613.971 -394.46 -1198 64 35 2
-613.136 -395.149 -1200 41 18 2
-611.276 -395.18 -1200 34 11 0
-609.416 -395.211 -1200 28 11 3
-608.062 -395.571 -1201 24 7 0
-605.19 -394.942 -1199 18 11 6
-603.833 -395.302 -1200 16 9 4
-601.47 -395.003 -1199 14 12 6
-599.609 -395.034 -1199 13 11 5
-596.752 -394.405 -1197 13 10 11
-592.409 -392.788 -1192 14 11 12
-590.559 -392.818 -1192 23 16 20
-589.202 -393.178 -1193 27 20 24
-588.334 -393.868 -1195 29 18 23
-586.478 -393.898 -1195 28 17 22
-584.622 -393.928 -1195 26 24 22
-583.253 -394.288 -1196 26 24 22
-581.88 -394.648 -1197 24 21 26
-580.02 -394.679 -1197 19 16 21
-578.159 -394.709 -1197 25 18 22
-576.298 -394.739 -1197 31 24 28
-574.437 -394.769 -1197 31 25 26
-573.053 -395.13 -1198 33 27 28
-571.19 -395.16 -1198 35 25 27
-569.801 -395.52 -1199 42 32 34
-568.883 -396.21 -1201 45 37 39
-567.014 -396.24 -1201 47 39 41
-565.144 -396.271 -1201 44 36 34
-564.212 -396.961 -1203 51 43 41
-561.872 -396.661 -1202 57 48 40
-560 -396.691 -1202 58 49 41
-558.127 -396.722 -1202 60 47 40
-556.255 -396.752 -1202 61 48 41
-554.382 -396.782 -1202 61 50 43
-552.509 -396.812 -1202 69 58 51
-550.177 -396.512 -1201 76 70 50
-546.935 -395.552 -1198 86 80 60
-544.157 -394.922 -1196 93 79 50
-541.385 -394.291 -1194 100 86 57
-538.619 -393.661 -1192 133 99 51
-536.309 -393.36 -1191 147 113 65
-534.002 -393.06 -1190 154 117 63
-532.592 -393.42 -1191 157 120 66
-531.178 -393.78 -1192 157 120 63
-529.317 -393.81 -1192 161 124 67
-527.456 -393.84 -1192 161 124 65
-526.036 -394.2 -1193 158 121 62
-524.612 -394.56 -1194 157 121 59
-523.184 -394.92 -1195 158 122 60
-521.753 -395.28 -1196 161 122 59
-519.449 -394.98 -1195 161 122 59
-518.015 -395.34 -1196 161 122 59
-516.145 -395.369 -1196 161 122 59
-514.705 -395.73 -1197 163 124 61
-512.404 -395.429 -1196 165 126 63
-510.534 -395.458 -1196 167 129 63
-508.662 -395.488 -1196 167 129 63
-507.215 -395.848 -1197 168 129 66
-505.764 -396.208 -1198 167 128 65
-503.889 -396.238 -1198 166 128 61
-502.432 -396.598 -1199 165 127 60
-500.555 -396.628 -1199 165 127 58
-498.677 -396.657 -1199 166 128 59
-496.385 -396.356 -1198 166 127 54
-494.095 -396.055 -1197 166 127 54
-492.22 -396.084 -1197 166 127 54
-490.344 -396.113 -1197 164 125 52
-488.467 -396.143 -1197 162 124 55
-486.591 -396.172 -1197 163 125 56
-484.714 -396.201 -1197 165 127 58
-482.837 -396.23 -1197 167 129 60
-480.557 -395.928 -1196 165 127 58
-478.281 -395.626 -1195 167 129 60
-476.007 -395.324 -1194 169 130 59
-473.736 -395.022 -1193 170 131 60
-471.864 -395.051 -1193 169 131 64
-470.385 -395.411 -1194 168 130 63
-468.51 -395.44 -1194 164 128 64
-467.026 -395.8 -1195 162 126 62
-465.927 -396.491 -1197 164 125 62
-465.209 -397.514 -1200 163 124 61
-464.096 -398.205 -1202 161 125 63
-462.976 -398.897 -1204 160 124 62
-461.85 -399.588 -1206 157 123 61
-461.098 -400.611 -1209 156 122 60
-460.336 -401.634 -1212 156 122 64
-459.187 -402.326 -1214 155 121 63
-458.03 -403.018 -1216 151 118 58
-456.868 -403.71 -1218 149 116 56
-455.698 -404.402 -1220 150 117 59
-453.778 -404.431 -1220 153 120 62
-451.858 -404.46 -1220 153 120 62
-450.306 -404.82 -1221 150 117 59
-449.118 -405.512 -1223 150 117 59
-447.192 -405.541 -1223 153 120 62
-445.993 -406.233 -1225 152 118 56
-444.426 -406.593 -1226 154 120 58
-443.938 -407.949 -1230 146 115 62
-443.077 -408.973 -1233 145 114 61
-441.849 -409.665 -1235 144 113 72
-440.971 -410.689 -1238 144 113 72
-439.373 -411.049 -1239 146 111 75
-438.125 -411.742 -1241 135 100 64
-437.222 -412.766 -1244 125 93 49
-435.61 -413.127 -1245 127 95 51
-433.993 -413.487 -1246 128 99 66
-433.414 -414.844 -1250 130 101 68
-432.131 -415.536 -1252 135 100 62
-430.842 -416.229 -1254 134 99 61
-429.888 -417.253 -1257 133 97 54
-428.924 -418.278 -1260 130 94 51
-427.95 -419.303 -1263 127 96 55
-426.629 -419.996 -1265 125 94 53
-425.302 -420.689 -1267 119 90 55
-423.633 -421.049 -1268 113 84 49
-421.629 -421.078 -1268 112 85 49
-419.955 -421.439 -1269 117 90 54
-418.278 -421.799 -1270 115 91 50
-416.27 -421.828 -1270 116 92 51
-414.261 -421.857 -1270 119 91 51
-412.252 -421.885 -1270 118 90 50
-410.242 -421.913 -1270 117 89 46
-408.232 -421.942 -1270 115 87 44
-406.222 -421.97 -1270 114 86 43
-404.53 -422.33 -1271 115 87 44
-402.517 -422.358 -1271 117 89 49
-401.134 -423.051 -1273 118 90 50
-399.118 -423.079 -1273 122 87 49
-397.725 -423.772 -1275 121 86 48
-396.326 -424.465 -1277 124 93 56
-394.92 -425.157 -1279 116 85 48
-393.814 -426.182 -1282 128 98 75
-393.31 -427.873 -1287 140 110 87
-392.485 -429.23 -1291 148 119 104
-391.043 -429.923 -1293 154 125 110
-389.894 -430.949 -1296 153 129 127
-387.539 -430.644 -1295 155 131 129
-385.782 -431.004 -1296 156 131 129
-384.318 -431.697 -1298 155 130 128
-382.552 -432.057 -1299 155 130 128
-380.783 -432.417 -1300 155 130 128
-379.01 -432.777 -1301 156 130 130
-377.523 -433.47 -1303 157 131 131
-376.03 -434.163 -1305 154 128 136
-374.244 -434.523 -1306 155 129 137
-371.314 -433.552 -1303 153 127 133
-369.243 -433.579 -1303 153 127 133
-366.891 -433.274 -1302 155 129 135
-365.101 -433.633 -1303 155 129 135
-363.309 -433.993 -1304 154 128 134
-361.235 -434.02 -1304 153 127 133
-359.712 -434.712 -1306 157 126 127
-357.909 -435.072 -1307 156 125 126
-355.557 -434.765 -1306 155 124 129
-353.208 -434.459 -1305 155 124 129
-351.132 -434.485 -1305 156 125 132
-349.054 -434.511 -1305 155 124 131
-347.509 -435.204 -1307 152 124 128
-345.428 -435.23 -1307 151 123 127
-340.221 -436.64 -1311 156 125 134
-338.39 -436.998 -1312 154 123 132
-336.043 -436.691 -1311 152 121 128
-333.954 -436.717 -1311 151 120 127
-332.117 -437.075 -1312 151 119 124
-330.277 -437.434 -1313 151 119 124
-328.934 -438.458 -1316 146 116 115
-327.829 -439.816 -1320 146 116 115
-325.97 -440.175 -1321 147 115 115
-324.108 -440.533 -1322 148 116 116
-315.192 -439.966 -1320 145 115 112
-313.084 -439.991 -1320 148 118 117
-305.113 -440.754 -1322 140 115 113
-294.327 -440.54 -1321 144 114 113
-292.436 -440.897 -1322 143 111 114
-290.542 -441.254 -1323 142 110 113
-288.644 -441.61 -1324 144 110 111
-286.526 -441.633 -1324 144 110 111
-284.193 -441.323 -1323 146 110 109
-282.076 -441.346 -1323 147 111 110
-279.747 -441.035 -1322 145 111 109
-277.211 -440.39 -1320 143 109 107
-274.473 -439.411 -1317 146 110 109
-272.158 -439.1 -1316 143 107 106
-270.256 -439.456 -1317 144 106 107
-268.351 -439.811 -1318 146 108 109
-266.24 -439.833 -1318 149 107 110
-263.728 -439.188 -1316 152 110 113
-261.619 -439.209 -1316 142 106 105
-259.511 -439.231 -1316 140 104 103
-257.402 -439.252 -1316 137 103 99
-255.099 -438.939 -1315 137 103 99
-253.183 -439.294 -1316 137 102 98
-251.073 -439.315 -1316 136 101 97
-249.153 -439.67 -1317 137 99 96
-247.228 -440.024 -1318 136 98 95
-244.928 -439.711 -1317 143 105 104
-243 -440.065 -1318 145 107 106
-241.069 -440.419 -1319 143 108 104
-238.952 -440.439 -1319 140 105 101
-236.656 -440.125 -1318 137 103 99
-234.541 -440.145 -1318 136 102 98
-232.602 -440.499 -1319 138 104 100
-230.834 -441.186 -1321 140 106 102
-228.54 -440.872 -1320 140 109 104
-226.421 -440.891 -1320 145 114 109
-224.301 -440.91 -1320 151 116 112
-222.517 -441.597 -1322 150 115 111
-220.227 -441.282 -1321 151 116 112
-217.94 -440.967 -1320 152 117 113
-215.819 -440.985 -1320 152 117 111
-213.86 -441.338 -1321 154 119 113
-211.897 -441.69 -1322 154 116 117
-209.614 -441.374 -1321 157 119 120
-207.491 -441.392 -1321 161 123 122
-205.678 -442.078 -1323 162 124 123
-203.551 -442.096 -1323 159 121 118
-201.423 -442.114 -1323 157 119 116
-199.145 -441.797 -1322 156 120 119
-197.317 -442.482 -1324 158 122 121
-195.187 -442.5 -1324 157 125 125
-192.911 -442.182 -1323 160 128 128
-190.783 -442.199 -1323 162 130 130
-188.654 -442.216 -1323 162 130 130
-186.666 -442.567 -1324 162 130 130
-184.535 -442.583 -1324 163 131 131
-182.404 -442.599 -1324 167 133 134
-180.136 -442.281 -1323 169 135 136
-178.006 -442.297 -1323 161 130 137
-175.876 -442.312 -1323 161 130 137
-173.877 -442.662 -1324 164 136 140
-171.745 -442.677 -1324 162 134 138
-169.613 -442.693 -1324 164 135 142
-167.606 -443.042 -1325 162 133 140
-165.722 -443.726 -1327 166 137 144
-163.707 -444.075 -1328 165 136 143
-161.567 -444.09 -1328 168 133 145
-159.427 -444.104 -1328 169 134 146
-157.169 -443.784 -1327 168 135 147
-155.03 -443.798 -1327 169 136 148
-152.891 -443.812 -1327 164 135 146
-150.638 -443.491 -1326 162 133 144
-148.501 -443.505 -1326 168 132 147
-146.363 -443.518 -1326 170 134 149
-144.225 -443.531 -1326 169 134 146
-142.086 -443.545 -1326 167 132 144
-139.948 -443.558 -1326 163 132 141
-137.809 -443.57 -1326 161 130 139
-135.773 -443.917 -1327 159 130 139
-133.733 -444.264 -1328 161 132 141
-131.689 -444.611 -1329 163 134 145
-129.643 -444.958 -1330 163 134 145
-127.593 -445.304 -1331 155 133 140
