ply
format ascii 1.0
comment Created by Open3D
element vertex 1340
property double x
property double y
property double z
property uchar red
property uchar green
property uchar blue
end_header
-510.165 -1595.74 -1263 144 126 126
-508.214 -1595.76 -1263 145 127 127
-506.263 -1595.78 -1263 146 126 123
-503.913 -1594.53 -1262 148 128 125
-502.362 -1595.82 -1263 150 130 128
-500.807 -1597.1 -1264 150 130 128
-498.855 -1597.12 -1264 147 129 127
-498.081 -1600.93 -1267 146 128 126
-496.907 -1603.47 -1269 145 127 125
-495.337 -1604.75 -1270 144 126 124
-493.763 -1606.04 -1271 146 126 124
-491.799 -1606.06 -1271 145 125 123
-489.836 -1606.07 -1271 146 124 123
-488.256 -1607.36 -1272 146 124 123
-486.29 -1607.38 -1272 145 125 123
-483.563 -1604.87 -1270 143 123 121
-481.98 -1606.15 -1271 138 122 119
-480.394 -1607.43 -1272 136 120 117
-479.18 -1609.98 -1274 135 119 118
-477.586 -1611.26 -1275 133 117 116
-475.989 -1612.54 -1276 132 116 115
-474.388 -1613.82 -1277 135 119 118
-472.784 -1615.11 -1278 138 122 119
-471.177 -1616.39 -1279 140 124 121
-469.2 -1616.41 -1279 143 127 126
-466.858 -1615.16 -1278 145 129 128
-464.519 -1613.91 -1277 145 125 125
-462.183 -1612.67 -1276 140 120 120
-460.571 -1613.95 -1277 132 112 112
-459.315 -1616.5 -1279 124 104 104
-457.338 -1616.51 -1279 118 100 102
-455.361 -1616.53 -1279 116 98 100
-453.738 -1617.81 -1280 119 102 106
-451.759 -1617.83 -1280 125 108 112
-450.131 -1619.11 -1281 119 119 121
-448.5 -1620.39 -1282 122 122 124
-446.518 -1620.41 -1282 129 122 126
-444.189 -1619.16 -1281 128 121 125
-442.553 -1620.45 -1282 130 122 124
-440.914 -1621.73 -1283 132 124 126
-438.93 -1621.75 -1283 133 127 128
-437.287 -1623.03 -1284 132 126 127
-435.301 -1623.04 -1284 0 0 0
-686.023 -1624.97 -1286 0 0 0
-684.043 -1624.99 -1286 0 0 0
-682.063 -1625.01 -1286 0 0 0
-680.611 -1626.3 -1287 0 0 0
-678.629 -1626.32 -1287 0 0 0
-676.647 -1626.34 -1287 0 0 0
-625.647 -1612.95 -1276 0 0 0
-622.214 -1609.18 -1273 154 139 117
-618.302 -1604.14 -1269 160 139 116
-613.432 -1596.58 -1263 155 134 111
-607.128 -1585.22 -1254 155 127 105
-603.264 -1580.19 -1250 153 125 103
-598.932 -1573.89 -1245 160 127 109
-595.094 -1568.85 -1241 166 133 115
-591.747 -1565.08 -1238 170 141 127
-588.885 -1562.57 -1236 174 145 131
-585.555 -1558.8 -1233 177 146 136
-583.653 -1558.82 -1233 178 147 137
-582.696 -1561.37 -1235 173 148 142
-580.321 -1560.13 -1234 172 147 141
-578.887 -1561.41 -1235 170 148 142
-576.982 -1561.43 -1235 170 148 142
-573.681 -1557.66 -1232 170 146 140
-571.781 -1557.68 -1232 168 144 138
-569.88 -1557.7 -1232 166 144 137
-568.441 -1558.98 -1233 165 143 136
-566.539 -1559 -1233 165 143 136
-565.553 -1561.55 -1235 165 143 136
-563.648 -1561.57 -1235 162 141 134
-561.743 -1561.59 -1235 159 138 131
-560.291 -1562.88 -1236 158 136 129
-558.836 -1564.16 -1237 158 136 129
-556.928 -1564.18 -1237 161 136 131
-554.57 -1562.94 -1236 161 136 131
-553.558 -1565.48 -1238 162 137 133
-552.093 -1566.77 -1239 159 134 130
-550.625 -1568.05 -1240 157 128 125
-549.154 -1569.34 -1241 152 123 120
-548.121 -1571.89 -1243 144 119 117
-547.082 -1574.44 -1245 140 115 113
-546.474 -1578.25 -1248 139 112 112
-545.421 -1580.8 -1250 137 110 110
-543.927 -1582.08 -1251 138 114 115
-542.429 -1583.37 -1252 142 118 119
-540.929 -1584.65 -1253 142 121 124
-539.425 -1585.94 -1254 142 121 124
-537.489 -1585.96 -1254 141 125 122
-535.553 -1585.98 -1254 144 128 125
-533.192 -1584.73 -1253 146 130 129
-531.682 -1586.01 -1254 146 130 129
-530.591 -1588.56 -1256 148 132 131
-529.073 -1589.85 -1257 148 132 131
-527.971 -1592.4 -1259 148 132 131
-526.863 -1594.95 -1261 147 131 130
-525.332 -1596.23 -1262 146 130 129
-523.798 -1597.51 -1263 147 131 130
-522.674 -1600.06 -1265 150 132 133
-520.721 -1600.08 -1265 152 134 135
-518.768 -1600.1 -1265 151 134 135
-516.406 -1598.86 -1264 149 132 133
-514.454 -1598.88 -1264 148 130 132
-512.502 -1598.89 -1264 147 129 131
-510.146 -1597.65 -1263 148 129 129
-508.597 -1598.93 -1264 148 129 129
-506.244 -1597.69 -1263 147 127 124
-503.894 -1596.44 -1262 148 128 125
-502.343 -1597.72 -1263 150 130 128
-500.392 -1597.74 -1263 151 131 129
-498.441 -1597.76 -1263 148 130 128
-497.276 -1600.31 -1265 145 127 125
-496.105 -1602.86 -1267 143 125 123
-494.538 -1604.14 -1268 142 124 122
-492.967 -1605.43 -1269 144 124 122
-491.394 -1606.71 -1270 145 125 123
-489.817 -1608 -1271 147 126 124
-488.237 -1609.28 -1272 147 126 124
-485.889 -1608.03 -1271 144 125 123
-483.545 -1606.79 -1270 144 125 123
-481.962 -1608.07 -1271 141 125 122
-480.375 -1609.35 -1272 140 124 121
-478.786 -1610.64 -1273 136 120 119
-477.568 -1613.19 -1275 133 117 116
-475.597 -1613.2 -1275 131 115 114
-473.998 -1614.49 -1276 134 118 117
-472.396 -1615.77 -1277 138 122 119
-470.791 -1617.05 -1278 141 125 122
-468.449 -1615.81 -1277 143 127 126
-466.475 -1615.83 -1277 145 129 128
-464.137 -1614.58 -1276 141 123 123
-461.803 -1613.33 -1275 136 118 118
-460.192 -1614.61 -1276 127 108 108
-458.938 -1617.16 -1278 119 100 100
-456.605 -1615.91 -1277 115 98 100
-454.631 -1615.93 -1277 116 99 101
-453.365 -1618.48 -1279 120 104 108
-451.388 -1618.5 -1279 127 111 115
-449.41 -1618.52 -1279 120 120 121
-447.783 -1619.8 -1280 124 124 125
-445.804 -1619.82 -1280 130 123 126
-443.824 -1619.83 -1280 128 121 124
-442.19 -1621.12 -1281 129 121 123
-440.21 -1621.14 -1281 132 124 126
-438.229 -1621.15 -1281 131 125 126
-436.588 -1622.44 -1282 131 125 126
-434.267 -1621.19 -1281 0 0 0
-624.154 -1611.08 -1273 0 0 0
-620.726 -1607.31 -1270 156 140 118
-616.332 -1601 -1265 157 137 114
-611.468 -1593.43 -1259 152 132 109
-606.138 -1584.59 -1252 154 126 104
-601.795 -1578.28 -1247 154 126 104
-597.468 -1571.97 -1242 160 127 109
-593.635 -1566.93 -1238 166 133 115
-590.77 -1564.42 -1236 170 139 126
-588.388 -1563.18 -1235 175 144 131
-585.059 -1559.4 -1232 178 147 138
-584.106 -1561.95 -1234 178 147 138
-582.204 -1561.97 -1234 173 148 142
-580.301 -1561.99 -1234 172 147 141
-578.866 -1563.28 -1235 169 148 141
-576.495 -1562.03 -1234 169 148 141
-573.66 -1559.52 -1232 170 146 140
-571.76 -1559.54 -1232 168 144 138
-569.86 -1559.56 -1232 165 144 137
-568.421 -1560.85 -1233 162 141 134
-566.979 -1562.13 -1234 162 141 134
-565.075 -1562.15 -1234 162 141 134
-563.172 -1562.17 -1234 161 140 133
-561.723 -1563.46 -1235 158 137 130
-560.724 -1566.01 -1237 159 135 129
-559.268 -1567.3 -1238 157 133 127
-557.358 -1567.32 -1238 161 136 132
-554.999 -1566.07 -1237 160 135 131
-553.538 -1567.36 -1238 160 135 131
-552.073 -1568.64 -1239 156 131 127
-550.606 -1569.93 -1240 153 125 122
-549.135 -1571.21 -1241 148 120 117
-548.102 -1573.77 -1243 141 117 115
-547.062 -1576.32 -1245 138 114 112
-546.455 -1580.14 -1248 137 111 111
-545.401 -1582.69 -1250 136 110 110
-543.472 -1582.71 -1250 138 114 115
-542.41 -1585.26 -1252 142 118 119
-541.341 -1587.81 -1254 141 120 123
-539.405 -1587.83 -1254 143 122 125
-537.041 -1586.58 -1253 144 126 124
-535.107 -1586.6 -1253 146 128 126
-532.747 -1585.36 -1252 146 130 129
-531.662 -1587.91 -1254 146 130 129
-530.572 -1590.46 -1256 147 131 130
-528.632 -1590.48 -1256 148 132 131
-527.532 -1593.03 -1258 148 132 131
-526.426 -1595.59 -1260 147 131 130
-524.896 -1596.87 -1261 147 131 130
-523.779 -1599.42 -1263 147 131 130
-522.242 -1600.71 -1264 152 134 136
-520.29 -1600.73 -1264 153 135 137
-518.339 -1600.75 -1264 152 135 137
-515.978 -1599.5 -1263 149 132 134
-514.435 -1600.79 -1264 148 130 132
-512.483 -1600.81 -1264 147 129 131
-510.127 -1599.56 -1263 150 130 130
-508.579 -1600.84 -1264 150 130 130
-506.226 -1599.6 -1263 148 128 125
-503.875 -1598.35 -1262 149 129 126
-501.926 -1598.37 -1262 150 130 128
-499.977 -1598.39 -1262 150 130 128
-498.028 -1598.4 -1262 147 129 127
-496.864 -1600.96 -1264 145 127 125
-495.695 -1603.51 -1266 143 125 123
-494.129 -1604.79 -1267 141 123 121
-492.949 -1607.35 -1269 143 123 121
-491.375 -1608.63 -1270 145 125 123
-489.413 -1608.65 -1270 146 126 124
-487.451 -1608.67 -1270 146 126 124
-485.489 -1608.69 -1270 144 126 124
-483.907 -1609.97 -1271 144 126 124
-481.943 -1609.99 -1271 143 127 124
-479.979 -1610.01 -1271 142 126 123
-478.767 -1612.56 -1273 138 122 121
-477.175 -1613.85 -1274 134 118 117
-475.206 -1613.86 -1274 132 116 115
-473.608 -1615.15 -1275 134 118 117
-472.008 -1616.43 -1276 138 122 119
-470.036 -1616.45 -1276 140 124 121
-468.43 -1617.74 -1277 141 125 124
-466.457 -1617.75 -1277 141 125 124
-463.755 -1615.24 -1275 137 121 120
-461.785 -1615.26 -1275 131 115 114
-460.174 -1616.54 -1276 122 104 104
-458.561 -1617.83 -1277 115 97 97
-456.229 -1616.58 -1276 115 98 100
-453.901 -1615.33 -1275 119 102 104
-452.993 -1619.15 -1278 122 108 111
-451.017 -1619.16 -1278 129 115 118
-449.041 -1619.18 -1278 121 121 121
-447.066 -1619.2 -1278 123 123 123
-444.741 -1617.95 -1277 128 122 123
-443.114 -1619.24 -1278 125 119 120
-441.483 -1620.52 -1279 126 118 120
-439.505 -1620.54 -1279 128 120 122
-437.185 -1619.29 -1278 127 121 122
-435.549 -1620.57 -1279 127 121 122
-433.232 -1619.32 -1278 0 0 0
-622.662 -1609.21 -1270 0 0 0
-618.75 -1604.16 -1266 157 140 118
-614.362 -1597.84 -1261 157 136 113
-609.504 -1590.26 -1255 151 130 107
-604.665 -1582.68 -1249 153 125 103
-600.327 -1576.37 -1244 155 127 105
-596.004 -1570.05 -1239 163 130 113
-592.655 -1566.27 -1236 168 135 118
-590.75 -1566.29 -1236 172 141 128
-588.368 -1565.04 -1235 176 145 132
-585.989 -1563.8 -1234 180 148 139
-584.559 -1565.08 -1235 180 148 139
-582.655 -1565.1 -1235 174 149 143
-580.751 -1565.12 -1235 173 148 142
-578.846 -1565.14 -1235 169 148 142
-576.941 -1565.17 -1235 168 147 141
-574.571 -1563.92 -1234 169 145 139
-572.204 -1562.67 -1233 168 144 138
-570.303 -1562.69 -1233 165 144 137
-568.401 -1562.71 -1233 162 141 134
-566.959 -1564 -1234 160 139 132
-565.055 -1564.02 -1234 160 139 132
-563.152 -1564.04 -1234 159 138 131
-562.158 -1566.59 -1236 158 137 130
-561.158 -1569.15 -1238 159 135 130
-559.7 -1570.44 -1239 157 133 128
-557.338 -1569.19 -1238 160 135 131
-554.979 -1567.94 -1237 159 134 130
-553.965 -1570.5 -1239 158 133 130
-552.053 -1570.52 -1239 155 130 127
-550.586 -1571.8 -1240 150 124 120
-549.557 -1574.36 -1242 146 120 116
-548.082 -1575.65 -1243 141 117 115
-546.603 -1576.93 -1244 137 113 111
-546.435 -1582.02 -1248 135 110 109
-544.945 -1583.31 -1249 137 112 111
-543.453 -1584.6 -1250 139 116 117
-542.39 -1587.15 -1252 142 119 120
-540.889 -1588.44 -1253 141 122 124
-538.955 -1588.46 -1253 144 125 127
-537.022 -1588.48 -1253 147 129 127
-535.087 -1588.5 -1253 148 130 128
-532.728 -1587.25 -1252 148 132 131
-531.219 -1588.54 -1253 148 132 131
-530.13 -1591.09 -1255 148 132 131
-527.771 -1589.84 -1254 149 133 132
-526.674 -1592.4 -1256 148 132 131
-525.989 -1596.22 -1259 146 130 129
-524.461 -1597.51 -1260 146 130 129
-523.345 -1600.06 -1262 148 132 131
-522.223 -1602.62 -1264 154 136 138
-520.271 -1602.64 -1264 154 136 138
-517.909 -1601.39 -1263 152 135 137
-515.959 -1601.41 -1263 149 132 134
-514.415 -1602.7 -1264 148 130 132
-512.058 -1601.45 -1263 146 128 130
-509.704 -1600.2 -1262 149 129 129
-507.755 -1600.22 -1262 150 130 130
-505.405 -1598.97 -1261 149 129 126
-502.659 -1596.45 -1259 150 130 127
-501.112 -1597.74 -1260 150 130 128
-499.562 -1599.02 -1261 150 130 128
-497.614 -1599.04 -1261 147 129 127
-496.453 -1601.6 -1263 146 128 126
-494.893 -1602.89 -1264 143 125 123
-493.721 -1605.44 -1266 140 122 120
-492.542 -1607.99 -1268 144 125 124
-490.97 -1609.28 -1269 144 125 124
-489.009 -1609.3 -1269 145 125 124
-487.049 -1609.32 -1269 146 126 125
-485.088 -1609.34 -1269 144 126 125
-483.508 -1610.62 -1270 145 127 126
-481.546 -1610.64 -1270 143 127 125
-479.583 -1610.66 -1270 142 126 124
-477.997 -1611.95 -1271 140 124 123
-476.033 -1611.97 -1271 138 122 121
-474.442 -1613.25 -1272 136 120 119
-472.847 -1614.54 -1273 135 119 118
-471.25 -1615.82 -1274 137 121 118
-469.281 -1615.84 -1274 139 123 120
-468.046 -1618.4 -1276 140 124 123
-465.708 -1617.15 -1275 138 122 121
-463.374 -1615.9 -1274 132 118 117
-461.405 -1615.92 -1274 126 112 111
-459.796 -1617.2 -1275 118 102 101
-457.825 -1617.22 -1275 114 98 97
-455.497 -1615.97 -1274 118 103 104
-453.527 -1615.99 -1274 122 107 108
-452.621 -1619.81 -1277 122 110 113
-450.647 -1619.83 -1277 126 114 117
-448.321 -1618.58 -1276 121 121 121
-445.999 -1617.32 -1275 122 122 122
-444.376 -1618.61 -1276 126 120 121
-442.403 -1618.63 -1276 124 118 119
-440.775 -1619.91 -1277 125 117 119
-438.457 -1618.66 -1276 125 117 119
-436.142 -1617.41 -1275 125 119 120
-434.51 -1618.7 -1276 126 120 121
-432.537 -1618.72 -1276 0 0 0
-621.17 -1607.32 -1267 158 140 118
-617.262 -1602.27 -1263 157 139 117
-612.88 -1595.95 -1258 157 135 112
-608.027 -1588.35 -1252 152 130 107
-603.192 -1580.76 -1246 155 127 105
-598.858 -1574.44 -1241 158 130 108
-595.502 -1570.66 -1238 165 132 116
-592.155 -1566.87 -1235 170 137 121
-590.729 -1568.16 -1236 173 142 129
-588.347 -1566.91 -1235 178 147 134
-585.968 -1565.66 -1234 182 148 140
-584.539 -1566.95 -1235 182 148 140
-582.635 -1566.97 -1235 174 149 143
-581.2 -1568.26 -1236 173 148 142
-578.826 -1567.01 -1235 169 148 143
-576.921 -1567.03 -1235 168 147 142
-574.551 -1565.78 -1234 169 145 139
-572.184 -1564.54 -1233 168 144 138
-570.282 -1564.56 -1233 166 145 138
-568.842 -1565.84 -1234 163 142 135
-566.479 -1564.6 -1233 160 139 132
-565.035 -1565.89 -1234 159 138 131
-563.588 -1567.17 -1235 158 137 130
-562.138 -1568.46 -1236 157 136 129
-561.138 -1571.02 -1238 157 133 129
-559.68 -1572.31 -1239 155 131 127
-557.318 -1571.06 -1238 159 134 130
-555.408 -1571.08 -1238 158 133 129
-553.945 -1572.37 -1239 156 131 129
-552.479 -1573.66 -1240 153 128 126
-550.566 -1573.68 -1240 149 124 120
-549.538 -1576.24 -1242 145 120 116
-548.062 -1577.52 -1243 140 116 114
-546.584 -1578.81 -1244 136 112 110
-545.977 -1582.64 -1247 136 112 111
-544.926 -1585.2 -1249 139 115 114
-542.998 -1585.22 -1249 140 118 119
-542.37 -1589.04 -1252 142 120 121
-540.438 -1589.06 -1252 141 123 125
-538.506 -1589.08 -1252 144 126 128
-536.573 -1589.1 -1252 147 129 127
-534.641 -1589.12 -1252 148 130 128
-532.283 -1587.87 -1251 149 133 132
-531.2 -1590.43 -1253 149 133 132
-529.265 -1590.45 -1253 149 133 132
-527.331 -1590.47 -1253 149 133 132
-526.235 -1593.03 -1255 148 132 131
-525.551 -1596.86 -1258 146 130 129
-524.442 -1599.41 -1260 147 131 130
-523.326 -1601.97 -1262 150 134 133
-521.79 -1603.26 -1263 156 138 140
-519.84 -1603.28 -1263 154 136 138
-517.89 -1603.3 -1263 151 134 136
-515.531 -1602.05 -1262 148 131 133
-513.99 -1603.34 -1263 147 129 131
-511.634 -1602.09 -1262 146 128 130
-509.281 -1600.84 -1261 149 129 129
-507.334 -1600.86 -1261 150 130 130
-504.585 -1598.33 -1259 150 130 127
-501.842 -1595.81 -1257 150 130 127
-500.696 -1598.37 -1259 150 130 128
-499.147 -1599.66 -1260 150 130 128
-497.596 -1600.95 -1261 147 129 127
-496.041 -1602.24 -1262 147 129 127
-494.483 -1603.53 -1263 145 127 125
-493.312 -1606.08 -1265 142 124 122
-491.746 -1607.37 -1266 143 125 125
-490.177 -1608.66 -1267 142 124 124
-488.605 -1609.95 -1268 144 124 124
-486.646 -1609.97 -1268 145 125 125
-484.687 -1609.98 -1268 145 127 127
-483.109 -1611.27 -1269 146 128 128
-480.769 -1610.02 -1268 144 128 127
-478.81 -1610.04 -1268 144 128 127
-476.474 -1608.79 -1267 143 127 126
-474.891 -1610.08 -1268 142 126 125
-473.677 -1612.63 -1270 140 124 123
-472.086 -1613.92 -1271 137 121 120
-470.492 -1615.21 -1272 137 121 118
-468.526 -1615.23 -1272 139 123 120
-467.294 -1617.79 -1274 138 122 121
-465.325 -1617.8 -1274 135 119 118
-463.356 -1617.82 -1274 124 113 111
-461.025 -1616.57 -1273 120 109 107
-459.417 -1617.86 -1274 116 102 101
-457.089 -1616.61 -1273 116 102 101
-454.764 -1615.35 -1272 121 107 108
-453.154 -1616.64 -1273 125 111 112
-451.54 -1617.93 -1274 124 114 116
-449.571 -1617.95 -1274 127 117 119
-447.601 -1617.96 -1274 122 122 122
-445.281 -1616.71 -1273 122 122 122
-443.313 -1616.73 -1273 127 121 122
-441.692 -1618.02 -1274 126 120 121
-439.722 -1618.03 -1274 126 120 121
-437.408 -1616.78 -1273 126 120 121
-435.098 -1615.53 -1272 126 120 121
-433.472 -1616.82 -1273 127 121 122
-431.503 -1616.83 -1273 0 0 0
-620.658 -1607.97 -1266 158 138 117
-616.264 -1601.64 -1261 156 136 115
-611.397 -1594.04 -1255 157 134 111
-606.063 -1585.17 -1248 154 131 108
-602.203 -1580.11 -1244 157 128 107
-597.873 -1573.78 -1239 161 132 111
-595.001 -1571.26 -1237 168 135 119
-592.135 -1568.74 -1235 171 138 122
-590.231 -1568.76 -1235 174 143 131
-587.85 -1567.51 -1234 179 148 136
-585.473 -1566.26 -1233 181 149 139
-584.045 -1567.55 -1234 181 149 139
-582.142 -1567.57 -1234 174 149 143
-580.24 -1567.59 -1234 173 148 142
-578.337 -1567.61 -1234 169 148 143
-576.434 -1567.63 -1234 167 146 141
-574.065 -1566.38 -1233 169 145 140
-572.164 -1566.4 -1233 168 144 139
-570.262 -1566.42 -1233 167 146 139
-568.361 -1566.44 -1233 164 143 136
-566.459 -1566.46 -1233 161 140 133
-564.557 -1566.48 -1233 159 138 131
-563.112 -1567.77 -1234 159 138 132
-562.118 -1570.33 -1236 156 135 129
-561.118 -1572.89 -1238 154 132 127
-559.208 -1572.91 -1238 153 131 126
-557.298 -1572.93 -1238 156 131 127
-555.837 -1574.22 -1239 156 131 127
-554.373 -1575.51 -1240 154 129 127
-552.905 -1576.8 -1241 150 125 123
-550.99 -1576.82 -1241 147 122 119
-549.96 -1579.38 -1243 143 118 115
-548.483 -1580.67 -1244 139 115 113
-546.564 -1580.69 -1244 137 113 111
-545.958 -1584.53 -1247 137 114 114
-544.47 -1585.82 -1248 141 118 118
-542.544 -1585.84 -1248 142 120 121
-541.917 -1589.67 -1251 143 121 122
-539.987 -1589.69 -1251 142 124 126
-538.056 -1589.71 -1251 145 127 129
-536.554 -1591 -1252 147 129 127
-534.621 -1591.02 -1252 148 130 128
-532.263 -1589.76 -1251 149 133 132
-530.756 -1591.05 -1252 150 134 133
-528.824 -1591.07 -1252 151 135 134
-527.312 -1592.36 -1253 150 134 133
-526.636 -1596.2 -1256 148 132 131
-525.532 -1598.76 -1258 147 131 130
-524.422 -1601.32 -1260 149 133 132
-522.892 -1602.61 -1261 152 136 135
-521.358 -1603.9 -1262 153 135 137
-519.821 -1605.19 -1263 153 135 137
-517.461 -1603.94 -1262 151 134 135
-515.512 -1603.96 -1262 147 130 131
-513.563 -1603.97 -1262 147 129 131
-511.615 -1603.99 -1262 147 129 131
-508.858 -1601.47 -1260 150 130 131
-507.315 -1602.76 -1261 151 131 132
-504.966 -1601.51 -1260 151 131 128
-502.222 -1598.99 -1258 151 131 128
-501.075 -1601.55 -1260 149 130 128
-499.525 -1602.84 -1261 148 129 127
-497.182 -1601.58 -1260 147 129 127
-495.629 -1602.87 -1261 147 129 127
-494.073 -1604.16 -1262 147 129 127
-492.903 -1606.72 -1264 146 128 126
-491.339 -1608.01 -1265 144 126 126
-489.385 -1608.03 -1265 144 126 126
-487.816 -1609.32 -1266 145 126 126
-485.86 -1609.34 -1266 145 126 126
-484.287 -1610.63 -1267 145 128 128
-482.71 -1611.92 -1268 147 130 130
-480.372 -1610.67 -1267 145 130 129
-477.659 -1608.14 -1265 144 129 128
-475.704 -1608.16 -1265 143 128 127
-474.498 -1610.72 -1267 142 127 126
-472.913 -1612.01 -1268 140 125 124
-471.325 -1613.3 -1269 136 121 120
-469.734 -1614.59 -1270 135 120 118
-467.772 -1614.61 -1270 135 120 118
-466.542 -1617.17 -1272 130 115 114
-464.942 -1618.46 -1273 125 110 109
-462.974 -1618.48 -1273 117 106 104
-460.645 -1617.22 -1272 117 106 104
-458.678 -1617.24 -1272 117 106 104
-456.353 -1615.99 -1271 119 108 106
-454.389 -1616 -1271 123 112 112
-452.424 -1616.02 -1271 126 115 115
-450.459 -1616.04 -1271 124 116 118
-448.494 -1616.06 -1271 127 119 121
-446.53 -1616.07 -1271 122 122 122
-444.215 -1614.82 -1270 122 122 122
-442.251 -1614.84 -1270 127 121 122
-440.634 -1616.13 -1271 127 121 122
-439.014 -1617.41 -1272 127 121 121
-436.361 -1614.89 -1270 127 121 121
-434.055 -1613.63 -1269 127 122 122
-432.433 -1614.92 -1270 127 122 122
-430.469 -1614.94 -1270 0 0 0
-619.657 -1607.34 -1264 157 137 116
-614.776 -1599.73 -1258 154 134 113
-609.427 -1590.85 -1251 156 132 110
-605.071 -1584.51 -1246 154 130 108
-600.73 -1578.17 -1241 159 129 108
-597.369 -1574.38 -1238 163 133 112
-594.499 -1571.86 -1236 170 137 121
-592.114 -1570.6 -1235 174 141 125
-589.732 -1569.35 -1234 176 145 134
-587.353 -1568.1 -1233 178 147 136
-585.453 -1568.12 -1233 181 150 139
-583.552 -1568.14 -1233 180 149 138
-581.65 -1568.16 -1233 174 149 143
-579.749 -1568.18 -1233 173 148 142
-577.848 -1568.2 -1233 168 147 142
-575.947 -1568.22 -1233 167 146 141
-573.58 -1566.97 -1232 168 144 140
-572.144 -1568.26 -1233 168 144 140
-570.242 -1568.28 -1233 165 144 137
-568.341 -1568.3 -1233 163 142 135
-566.439 -1568.32 -1233 160 139 132
-564.537 -1568.34 -1233 160 139 132
-562.636 -1568.36 -1233 160 139 134
-562.098 -1572.2 -1236 157 136 131
-561.098 -1574.76 -1238 153 132 127
-559.188 -1574.78 -1238 153 132 127
-557.729 -1576.08 -1239 154 130 126
-556.266 -1577.37 -1240 154 130 126
-554.8 -1578.66 -1241 151 127 125
-552.885 -1578.68 -1241 146 122 120
-551.415 -1579.97 -1242 145 120 118
-549.941 -1581.26 -1243 142 117 115
-548.023 -1581.28 -1243 139 115 113
-546.105 -1581.3 -1243 138 114 112
-545.5 -1585.14 -1246 138 116 117
-544.014 -1586.43 -1247 140 118 119
-542.524 -1587.72 -1248 141 121 121
-541.032 -1589.01 -1249 142 122 122
-539.536 -1590.31 -1250 143 125 127
-537.606 -1590.32 -1250 145 127 129
-536.106 -1591.62 -1251 148 130 128
-534.175 -1591.64 -1251 150 132 130
-531.819 -1590.38 -1250 150 134 133
-530.313 -1591.68 -1251 152 136 135
-528.804 -1592.97 -1252 152 136 135
-527.293 -1594.26 -1253 150 134 133
-526.616 -1598.09 -1256 148 132 131
-525.513 -1600.66 -1258 147 131 130
-523.987 -1601.95 -1259 149 133 132
-522.458 -1603.24 -1260 151 135 134
-520.926 -1604.53 -1261 150 132 134
-519.39 -1605.83 -1262 152 134 136
-517.442 -1605.84 -1262 150 134 133
-515.493 -1605.86 -1262 147 131 130
-513.544 -1605.88 -1262 147 129 131
-511.19 -1604.63 -1261 148 130 132
-508.839 -1603.37 -1260 151 130 133
-507.296 -1604.67 -1261 151 130 133
-504.948 -1603.41 -1260 152 132 129
-502.203 -1600.89 -1258 151 131 128
-501.056 -1603.45 -1260 148 130 128
-499.11 -1603.47 -1260 146 128 126
-496.769 -1602.22 -1259 146 128 126
-495.218 -1603.51 -1260 147 129 127
-493.663 -1604.8 -1261 148 130 128
-492.495 -1607.36 -1263 150 132 130
-490.544 -1607.38 -1263 147 129 129
-488.593 -1607.4 -1263 148 130 130
-487.412 -1609.96 -1265 147 129 129
-485.458 -1609.98 -1265 146 128 128
-483.504 -1610 -1265 145 129 128
-481.93 -1611.29 -1266 147 131 130
-479.595 -1610.04 -1265 144 130 129
-477.263 -1608.78 -1264 142 128 127
-475.686 -1610.07 -1265 140 126 125
-474.106 -1611.36 -1266 140 126 125
-472.149 -1611.38 -1266 139 125 124
-470.565 -1612.67 -1267 136 122 121
-468.976 -1613.96 -1268 132 118 117
-467.385 -1615.25 -1269 128 114 113
-465.791 -1616.54 -1270 122 108 107
-464.193 -1617.83 -1271 116 102 101
-462.229 -1617.85 -1271 114 104 102
-460.265 -1617.87 -1271 116 106 104
-458.3 -1617.89 -1271 118 108 106
-455.977 -1616.63 -1270 120 110 108
-453.656 -1615.38 -1269 122 114 114
-451.338 -1614.12 -1268 124 116 116
-449.378 -1614.14 -1268 125 119 120
-447.771 -1615.43 -1269 125 119 120
-445.458 -1614.17 -1268 122 122 122
-443.148 -1612.92 -1267 122 122 122
-441.538 -1614.21 -1268 127 121 122
-439.577 -1614.23 -1268 126 120 121
-437.962 -1615.52 -1269 125 119 118
-435.313 -1612.99 -1267 127 121 120
-433.012 -1611.73 -1266 127 123 122
-431.395 -1613.02 -1267 126 122 121
-429.435 -1613.04 -1267 0 0 0
-619.145 -1607.98 -1263 155 134 113
-614.267 -1600.36 -1257 153 132 111
-609.406 -1592.74 -1251 155 131 109
-605.05 -1586.4 -1246 155 131 109
-600.709 -1580.05 -1241 162 131 110
-597.349 -1576.25 -1238 166 135 114
-594.479 -1573.73 -1236 173 139 123
-592.573 -1573.75 -1236 176 142 126
-590.19 -1572.49 -1235 176 145 134
-587.809 -1571.24 -1234 180 149 138
-585.907 -1571.26 -1234 179 149 139
-584.004 -1571.28 -1234 179 149 139
-582.102 -1571.3 -1234 176 151 145
-580.669 -1572.59 -1235 174 149 143
-578.296 -1571.34 -1234 170 148 143
-575.927 -1570.09 -1233 167 145 140
-574.025 -1570.11 -1233 167 145 140
-572.588 -1571.4 -1234 168 146 141
-570.222 -1570.15 -1233 164 143 137
-568.321 -1570.17 -1233 162 141 135
-566.419 -1570.19 -1233 160 139 133
-564.975 -1571.48 -1234 159 138 132
-562.616 -1570.23 -1233 159 138 133
-562.078 -1574.07 -1236 158 137 132
-561.078 -1576.64 -1238 154 133 128
-559.168 -1576.66 -1238 150 129 124
-558.159 -1579.22 -1240 152 130 125
-556.246 -1579.24 -1240 151 129 124
-554.333 -1579.26 -1240 148 124 122
-552.42 -1579.28 -1240 144 120 118
-550.951 -1580.58 -1241 142 117 115
-549.479 -1581.87 -1242 140 115 113
-547.562 -1581.89 -1242 137 114 112
-546.085 -1583.18 -1243 138 115 113
-545.043 -1585.75 -1245 138 118 118
-543.558 -1587.04 -1246 140 120 120
-541.635 -1587.06 -1246 141 122 122
-540.579 -1589.63 -1248 143 124 124
-538.653 -1589.65 -1248 144 126 128
-537.157 -1590.94 -1249 146 128 130
-535.658 -1592.23 -1250 148 130 128
-533.729 -1592.25 -1250 150 132 130
-531.799 -1592.27 -1250 150 134 133
-529.87 -1592.29 -1250 151 135 134
-528.785 -1594.86 -1252 150 134 133
-526.853 -1594.88 -1252 149 133 132
-526.178 -1598.72 -1255 150 134 133
-524.658 -1600.01 -1256 151 135 134
-523.135 -1601.31 -1257 150 134 133
-521.609 -1602.6 -1258 150 134 133
-520.493 -1605.17 -1260 150 132 134
-518.548 -1605.18 -1260 152 134 136
-516.603 -1605.2 -1260 151 135 134
-514.657 -1605.22 -1260 149 133 132
-512.712 -1605.24 -1260 149 131 133
-510.361 -1603.99 -1259 148 130 132
-508.417 -1604.01 -1259 151 130 133
-506.875 -1605.3 -1260 153 132 135
-504.127 -1602.77 -1258 152 133 130
-502.185 -1602.79 -1258 152 133 130
-500.639 -1604.08 -1259 150 132 130
-498.695 -1604.1 -1259 147 129 127
-496.75 -1604.12 -1259 145 127 125
-494.806 -1604.14 -1259 145 127 125
-493.253 -1605.43 -1260 146 128 127
-492.086 -1608 -1262 147 129 128
-490.137 -1608.01 -1262 147 130 130
-488.188 -1608.03 -1262 147 130 130
-487.009 -1610.6 -1264 146 129 129
-484.672 -1609.34 -1263 146 129 129
-482.721 -1609.36 -1263 145 130 129
-481.151 -1610.65 -1264 144 129 128
-478.819 -1609.4 -1263 141 128 127
-476.867 -1609.42 -1263 142 129 128
-475.668 -1611.98 -1265 140 126 125
-473.339 -1610.73 -1264 138 124 123
-471.386 -1610.74 -1264 137 124 123
-470.175 -1613.31 -1266 133 120 119
-468.219 -1613.33 -1266 129 116 115
-466.631 -1614.62 -1267 122 109 108
-465.04 -1615.91 -1268 116 103 102
-463.445 -1617.21 -1269 117 104 103
-461.848 -1618.5 -1270 116 105 103
-459.885 -1618.52 -1270 121 110 108
-457.922 -1618.53 -1270 123 114 112
-455.6 -1617.28 -1269 123 114 112
-452.924 -1614.75 -1267 122 116 116
-450.609 -1613.49 -1266 124 118 118
-448.652 -1613.51 -1266 126 120 121
-446.695 -1613.52 -1266 127 121 122
-444.738 -1613.54 -1266 125 124 124
-442.781 -1613.56 -1266 125 124 124
-440.824 -1613.58 -1266 128 123 124
-438.867 -1613.59 -1266 127 122 123
-436.564 -1612.34 -1265 127 121 120
-434.265 -1611.08 -1264 126 120 119
-432.653 -1612.37 -1265 125 121 120
-430.356 -1611.11 -1264 126 122 121
-428.402 -1611.13 -1264 128 121 124
-627.437 -1616.2 -1268 0 0 0
-624.99 -1614.94 -1267 0 0 0
-622.546 -1613.69 -1266 156 141 123
-618.634 -1608.61 -1262 157 135 114
-614.245 -1602.26 -1257 154 132 111
-609.873 -1595.91 -1252 154 130 108
-605.515 -1589.55 -1247 155 131 109
-601.173 -1583.2 -1242 164 132 111
-597.328 -1578.12 -1238 167 135 114
-594.939 -1576.87 -1237 173 139 123
-593.032 -1576.89 -1237 177 143 127
-591.125 -1576.91 -1237 177 146 135
-588.742 -1575.66 -1236 179 148 137
-586.836 -1575.68 -1236 179 149 140
-584.457 -1574.42 -1235 180 150 141
-582.553 -1574.44 -1235 176 151 145
-581.119 -1575.74 -1236 174 149 143
-578.745 -1574.48 -1235 170 146 142
-576.373 -1573.23 -1234 169 145 141
-574.471 -1573.25 -1234 166 145 140
-572.568 -1573.27 -1234 166 145 140
-570.665 -1573.29 -1234 164 143 138
-568.762 -1573.31 -1234 162 141 136
-566.859 -1573.33 -1234 160 139 134
-565.413 -1574.62 -1235 159 138 133
-562.596 -1572.09 -1233 159 138 133
-562.513 -1577.21 -1237 158 137 132
-561.511 -1579.78 -1239 154 133 128
-559.6 -1579.8 -1239 150 129 124
-557.689 -1579.82 -1239 148 127 122
-556.226 -1581.12 -1240 146 125 120
-553.866 -1579.86 -1239 145 121 119
-551.955 -1579.88 -1239 142 118 116
-550.043 -1579.9 -1239 141 116 114
-549.017 -1582.47 -1241 140 115 113
-547.102 -1582.49 -1241 137 116 113
-545.626 -1583.79 -1242 139 118 115
-544.586 -1586.35 -1244 138 120 120
-543.102 -1587.65 -1245 139 121 121
-541.181 -1587.67 -1245 141 123 123
-539.693 -1588.96 -1246 143 125 125
-538.202 -1590.26 -1247 146 128 130
-536.707 -1591.55 -1248 149 131 133
-535.21 -1592.85 -1249 150 132 130
-533.282 -1592.87 -1249 151 133 131
-531.355 -1592.89 -1249 150 134 133
-529.851 -1594.18 -1250 151 135 134
-528.344 -1595.48 -1251 150 134 133
-525.992 -1594.22 -1250 149 133 132
-525.32 -1598.06 -1253 150 134 133
-524.221 -1600.64 -1255 150 134 133
-522.284 -1600.65 -1255 149 133 132
-521.176 -1603.22 -1257 151 135 134
-519.648 -1604.52 -1258 150 132 134
-517.706 -1604.54 -1258 152 134 136
-515.764 -1604.56 -1258 150 134 133
-513.821 -1604.58 -1258 148 132 131
-511.879 -1604.59 -1258 149 131 133
-509.531 -1603.34 -1257 149 131 133
-507.186 -1602.08 -1256 151 130 133
-505.649 -1603.38 -1257 153 132 135
-503.307 -1602.12 -1256 151 133 130
-501.767 -1603.41 -1257 151 133 130
-499.826 -1603.43 -1257 151 133 131
-497.884 -1603.45 -1257 149 131 129
-496.732 -1606.02 -1259 146 128 126
-494.787 -1606.04 -1259 144 126 124
-493.234 -1607.33 -1260 145 127 127
-491.678 -1608.63 -1261 148 130 130
-489.342 -1607.37 -1260 148 132 131
-487.396 -1607.39 -1260 146 130 129
-486.22 -1609.96 -1262 145 129 128
-483.886 -1608.7 -1261 145 129 128
-481.938 -1608.72 -1261 144 130 129
-480.752 -1611.29 -1263 145 131 130
-478.042 -1608.75 -1261 141 130 128
-476.094 -1608.77 -1261 139 128 126
-474.898 -1611.34 -1263 139 125 124
-472.572 -1610.09 -1262 136 122 121
-470.249 -1608.83 -1261 133 122 120
-469.043 -1611.4 -1263 128 117 115
-467.461 -1612.69 -1264 123 112 110
-465.876 -1613.98 -1265 119 108 106
-464.288 -1615.28 -1266 116 105 103
-462.697 -1616.57 -1267 119 108 106
-461.102 -1617.87 -1268 121 110 108
-459.505 -1619.16 -1269 124 113 111
-457.183 -1617.9 -1268 124 116 114
-454.864 -1616.64 -1267 124 116 114
-452.191 -1614.11 -1265 121 117 118
-449.88 -1612.85 -1264 122 118 119
-447.926 -1612.87 -1264 126 120 121
-445.972 -1612.88 -1264 127 121 122
-444.018 -1612.9 -1264 126 123 124
-442.064 -1612.92 -1264 126 123 124
-439.762 -1611.66 -1263 125 121 122
-437.81 -1611.68 -1263 124 120 121
-435.512 -1610.42 -1262 126 120 119
-433.561 -1610.44 -1262 127 121 120
-431.952 -1611.73 -1263 126 122 121
-429.318 -1609.19 -1261 126 122 121
-427.707 -1610.49 -1262 0 0 0
-629.37 -1618.09 -1268 0 0 0
-626.921 -1616.84 -1267 153 143 127
-624.475 -1615.58 -1266 159 144 126
-622.033 -1614.33 -1265 158 143 125
-617.632 -1607.97 -1260 160 137 115
-614.225 -1604.16 -1257 157 134 112
-609.852 -1597.8 -1252 154 130 108
-605.009 -1590.16 -1246 156 132 110
-601.152 -1585.08 -1242 166 134 113
-597.308 -1580 -1238 169 137 116
-595.399 -1580.02 -1238 173 139 123
-593.491 -1580.04 -1238 176 142 126
-591.105 -1578.78 -1237 177 145 134
-589.198 -1578.8 -1237 178 146 135
-586.816 -1577.55 -1236 178 150 140
-584.437 -1576.29 -1235 179 151 141
-583.005 -1577.59 -1236 175 150 144
-581.099 -1577.61 -1236 173 148 142
-578.256 -1575.07 -1234 170 146 142
-576.353 -1575.09 -1234 169 145 141
-574.451 -1575.11 -1234 167 146 140
-572.548 -1575.13 -1234 166 145 139
-570.182 -1573.88 -1233 165 144 139
-568.742 -1575.17 -1234 162 141 136
-567.298 -1576.47 -1235 160 139 134
-564.935 -1575.21 -1234 159 138 133
-562.576 -1573.96 -1233 159 138 133
-562.493 -1579.08 -1237 157 136 131
-561.038 -1580.38 -1238 153 132 127
-559.129 -1580.4 -1238 149 128 123
-557.669 -1581.7 -1239 145 124 119
-555.758 -1581.72 -1239 141 120 115
-553.4 -1580.46 -1238 141 117 115
-551.49 -1580.48 -1238 140 116 114
-550.024 -1581.77 -1239 141 116 114
-548.555 -1583.07 -1240 140 115 113
-547.082 -1584.37 -1241 140 119 116
-545.607 -1585.66 -1242 142 121 118
-544.128 -1586.96 -1243 140 123 123
-542.647 -1588.25 -1244 141 124 124
-540.727 -1588.27 -1244 144 127 127
-539.241 -1589.57 -1245 146 129 129
-537.751 -1590.87 -1246 147 130 132
-536.258 -1592.16 -1247 148 131 133
-534.762 -1593.46 -1248 151 133 132
-532.836 -1593.48 -1248 152 134 133
-530.91 -1593.5 -1248 152 136 135
-529.831 -1596.07 -1250 151 135 134
-527.902 -1596.09 -1250 148 132 131
-525.973 -1596.11 -1250 148 132 131
-525.301 -1599.96 -1253 151 135 134
-523.367 -1599.98 -1253 150 134 133
-521.849 -1601.27 -1254 149 133 132
-520.327 -1602.57 -1255 150 134 133
-519.216 -1605.14 -1257 151 133 136
-517.275 -1605.16 -1257 151 133 136
-515.335 -1605.18 -1257 149 132 133
-512.986 -1603.92 -1256 148 131 132
-511.046 -1603.94 -1256 150 131 133
-508.702 -1602.68 -1255 150 131 133
-506.764 -1602.7 -1255 151 130 133
-504.826 -1602.72 -1255 153 132 135
-502.888 -1602.74 -1255 151 133 130
-500.95 -1602.76 -1255 150 132 129
-499.409 -1604.05 -1256 150 132 130
-497.866 -1605.35 -1257 149 131 129
-496.319 -1606.65 -1258 148 130 128
-494.376 -1606.66 -1258 147 129 127
-492.824 -1607.96 -1259 147 129 129
-491.27 -1609.26 -1260 148 130 130
-488.547 -1606.72 -1258 145 129 128
-486.604 -1606.74 -1258 145 129 128
-485.431 -1609.31 -1260 146 130 129
-483.101 -1608.05 -1259 148 132 131
-481.156 -1608.07 -1259 145 132 131
-479.972 -1610.64 -1261 144 131 130
-477.266 -1608.11 -1259 139 128 126
-474.943 -1606.85 -1258 135 124 122
-474.128 -1610.7 -1261 137 124 123
-471.43 -1608.16 -1259 132 119 118
-469.112 -1606.9 -1258 128 116 116
-468.282 -1610.75 -1261 124 112 112
-466.704 -1612.05 -1262 120 109 107
-465.49 -1614.62 -1264 119 108 106
-463.537 -1614.64 -1264 120 109 107
-461.584 -1614.65 -1264 123 112 110
-459.994 -1615.95 -1265 126 115 113
-458.763 -1618.52 -1267 127 116 114
-456.444 -1617.26 -1266 125 117 115
-453.77 -1614.72 -1264 126 118 116
-451.101 -1612.19 -1262 123 119 120
-449.151 -1612.2 -1262 123 119 120
-447.2 -1612.22 -1262 128 120 122
-445.249 -1612.24 -1262 129 121 123
-443.298 -1612.26 -1262 124 122 121
-440.998 -1611 -1261 125 123 122
-438.7 -1609.74 -1260 126 122 122
-436.752 -1609.75 -1260 125 121 121
-434.459 -1608.49 -1259 126 120 119
-432.857 -1609.79 -1260 128 122 121
-430.908 -1609.8 -1260 128 124 123
-428.62 -1608.54 -1259 128 124 123
-427.012 -1609.84 -1260 0 0 0
-628.356 -1617.46 -1266 0 0 0
-626.405 -1617.48 -1266 155 145 129
-623.961 -1616.22 -1265 162 146 128
-621.028 -1613.69 -1263 159 143 125
-617.121 -1608.6 -1259 160 136 114
-613.715 -1604.78 -1256 158 134 112
-609.344 -1598.42 -1251 157 133 111
-604.988 -1592.05 -1246 157 133 111
-601.615 -1588.24 -1243 166 134 113
-597.287 -1581.87 -1238 169 137 116
-595.379 -1581.89 -1238 172 138 122
-593.471 -1581.91 -1238 175 141 125
-591.084 -1580.65 -1237 178 145 134
-588.701 -1579.39 -1236 179 146 135
-586.321 -1578.14 -1235 176 149 139
-584.417 -1578.16 -1235 176 149 139
-582.513 -1578.18 -1235 174 149 143
-580.139 -1576.92 -1234 172 147 141
-577.767 -1575.66 -1233 170 146 142
-575.866 -1575.68 -1233 170 146 142
-573.965 -1575.7 -1233 168 147 140
-572.064 -1575.72 -1233 167 146 139
-570.162 -1575.74 -1233 165 145 140
-568.261 -1575.76 -1233 162 142 137
-566.819 -1577.06 -1234 159 138 133
-564.458 -1575.8 -1233 158 137 132
-562.556 -1575.82 -1233 158 137 132
-562.019 -1579.67 -1236 157 136 131
-560.112 -1579.69 -1236 153 132 127
-559.109 -1582.27 -1238 148 127 122
-557.199 -1582.29 -1238 144 123 118
-555.29 -1582.31 -1238 140 119 114
-552.933 -1581.05 -1237 140 116 114
-551.47 -1582.35 -1238 141 117 115
-550.448 -1584.92 -1240 143 118 116
-548.535 -1584.94 -1240 144 119 117
-546.622 -1584.96 -1240 143 123 120
-545.587 -1587.54 -1242 144 124 121
-543.671 -1587.56 -1242 142 126 125
-542.191 -1588.86 -1243 144 128 127
-540.273 -1588.88 -1243 146 130 129
-539.221 -1591.45 -1245 147 131 130
-537.3 -1591.47 -1245 147 130 132
-536.239 -1594.05 -1247 147 130 132
-534.314 -1594.07 -1247 150 132 132
-532.39 -1594.09 -1247 153 135 135
-530.891 -1595.38 -1248 152 136 135
-529.388 -1596.68 -1249 150 134 133
-527.461 -1596.7 -1249 147 131 130
-526.374 -1599.28 -1251 147 131 130
-524.863 -1600.57 -1252 150 134 133
-522.93 -1600.59 -1252 151 135 134
-520.997 -1600.61 -1252 150 134 133
-519.894 -1603.19 -1254 150 134 133
-518.371 -1604.49 -1255 151 133 137
-516.845 -1605.78 -1256 151 133 137
-514.496 -1604.52 -1255 150 132 134
-512.15 -1603.26 -1254 149 131 133
-510.62 -1604.56 -1255 152 131 134
-508.278 -1603.3 -1254 151 130 133
-506.341 -1603.32 -1254 151 130 133
-504.807 -1604.62 -1255 152 131 134
-502.869 -1604.64 -1255 152 134 131
-500.931 -1604.66 -1255 151 133 130
-498.993 -1604.67 -1255 150 132 130
-497.847 -1607.25 -1257 150 132 130
-496.3 -1608.55 -1258 151 133 131
-493.965 -1607.29 -1257 150 132 130
-492.415 -1608.58 -1258 149 131 131
-490.862 -1609.88 -1259 148 130 130
-488.529 -1608.62 -1258 145 129 128
-486.585 -1608.64 -1258 145 129 128
-485.027 -1609.94 -1259 146 130 129
-482.699 -1608.67 -1258 148 132 131
-480.373 -1607.41 -1257 143 132 130
-479.573 -1611.27 -1260 141 130 128
-476.49 -1607.45 -1257 137 126 124
-474.925 -1608.75 -1258 133 122 120
-473.358 -1610.04 -1259 131 120 118
-470.664 -1607.5 -1257 127 116 114
-468.722 -1607.52 -1257 124 112 113
-467.522 -1610.1 -1259 122 110 111
-466.316 -1612.67 -1261 121 110 108
-464.368 -1612.69 -1261 123 112 110
-462.419 -1612.71 -1261 125 114 112
-460.836 -1614.01 -1262 127 116 114
-459.249 -1615.3 -1263 128 117 115
-458.021 -1617.88 -1265 128 117 115
-455.345 -1615.34 -1263 127 119 117
-452.675 -1612.8 -1261 128 120 118
-450.369 -1611.54 -1260 124 120 121
-448.421 -1611.55 -1260 124 120 121
-446.474 -1611.57 -1260 128 120 122
-444.526 -1611.59 -1260 128 120 122
-442.227 -1610.33 -1259 123 121 119
-439.582 -1607.78 -1257 125 123 121
-437.639 -1607.8 -1257 127 123 122
-435.696 -1607.82 -1257 127 123 122
-433.752 -1607.84 -1257 129 123 122
-431.809 -1607.85 -1257 130 124 123
-429.866 -1607.87 -1257 130 126 125
-427.922 -1607.89 -1257 131 127 126
-425.979 -1607.9 -1257 0 0 0
-627.838 -1618.09 -1265 156 146 130
-625.889 -1618.11 -1265 157 147 131
-622.953 -1615.58 -1263 162 146 128
-620.024 -1613.04 -1261 157 141 123
-617.1 -1610.5 -1259 161 136 114
-613.205 -1605.4 -1255 161 136 114
-609.323 -1600.31 -1251 159 135 113
-604.967 -1593.93 -1246 157 133 111
-601.111 -1588.84 -1242 166 134 113
-597.749 -1585.02 -1239 168 136 115
-595.358 -1583.76 -1238 172 137 121
-593.45 -1583.78 -1238 175 140 124
-591.064 -1582.52 -1237 179 144 134
-588.205 -1579.98 -1235 182 147 137
-585.826 -1578.72 -1234 178 150 141
-583.923 -1578.74 -1234 176 148 139
-582.021 -1578.76 -1234 172 147 142
-579.648 -1577.51 -1233 172 147 142
-577.279 -1576.25 -1232 171 147 143
-575.379 -1576.27 -1232 171 147 143
-573.479 -1576.29 -1232 168 147 140
-571.58 -1576.31 -1232 168 147 140
-569.68 -1576.33 -1232 164 145 140
-568.241 -1577.63 -1233 161 142 137
-566.34 -1577.65 -1233 159 138 133
-564.896 -1578.94 -1234 157 136 131
-562.993 -1578.96 -1234 158 137 132
-561.544 -1580.26 -1235 157 136 131
-560.092 -1581.56 -1236 153 132 128
-558.638 -1582.86 -1237 149 128 124
-556.73 -1582.88 -1237 144 123 118
-554.822 -1582.9 -1237 141 120 115
-552.466 -1581.64 -1236 143 119 117
-551.451 -1584.22 -1238 144 120 118
-549.985 -1585.52 -1239 147 122 120
-548.073 -1585.54 -1239 149 124 122
-546.602 -1586.84 -1240 147 127 125
-545.129 -1588.14 -1241 147 127 125
-543.652 -1589.44 -1242 142 127 126
-541.735 -1589.46 -1242 143 128 127
-540.254 -1590.76 -1243 145 130 129
-538.769 -1592.05 -1244 147 132 131
-537.28 -1593.35 -1245 148 131 133
-535.789 -1594.65 -1246 148 131 133
-533.867 -1594.67 -1246 151 132 132
-532.371 -1595.97 -1247 153 134 134
-530.871 -1597.27 -1248 151 135 134
-528.945 -1597.29 -1248 151 135 134
-527.441 -1598.59 -1249 148 132 131
-525.934 -1599.89 -1250 146 130 129
-524.005 -1599.91 -1250 149 133 132
-522.493 -1601.21 -1251 150 134 133
-520.562 -1601.22 -1251 150 134 133
-519.46 -1603.8 -1253 150 134 133
-517.939 -1605.1 -1254 151 133 137
-516.003 -1605.12 -1254 151 133 137
-513.657 -1603.86 -1253 149 131 133
-511.723 -1603.88 -1253 148 130 132
-510.195 -1605.18 -1254 152 131 134
-508.259 -1605.2 -1254 151 130 133
-506.322 -1605.22 -1254 151 130 133
-504.788 -1606.51 -1255 153 132 135
-502.851 -1606.53 -1255 154 136 133
-500.913 -1606.55 -1255 153 135 132
-498.974 -1606.57 -1255 152 134 132
-497.433 -1607.87 -1256 151 133 131
-495.887 -1609.17 -1257 151 133 131
-493.946 -1609.19 -1257 151 133 131
-492.396 -1610.48 -1258 149 131 131
-490.843 -1611.78 -1259 146 128 128
-488.122 -1609.24 -1257 144 129 128
-486.18 -1609.26 -1257 143 128 127
-484.624 -1610.56 -1258 144 129 128
-481.913 -1608.01 -1256 147 132 131
-479.591 -1606.75 -1255 142 131 129
-478.794 -1610.61 -1258 137 126 124
-476.472 -1609.35 -1257 132 121 119
-474.907 -1610.65 -1258 127 116 114
-472.964 -1610.67 -1258 122 111 109
-470.646 -1609.4 -1257 122 111 109
-469.076 -1610.7 -1258 122 110 111
-467.504 -1612 -1259 122 110 111
-465.928 -1613.3 -1260 123 112 110
-463.613 -1612.04 -1259 125 114 112
-462.035 -1613.33 -1260 128 117 115
-460.088 -1613.35 -1260 128 117 115
-458.141 -1613.37 -1260 130 117 116
-456.555 -1614.67 -1261 130 117 116
-454.246 -1613.4 -1260 129 120 119
-451.94 -1612.14 -1259 130 121 120
-449.637 -1610.88 -1258 125 120 121
-447.692 -1610.89 -1258 124 119 120
-445.748 -1610.91 -1258 127 118 120
-443.803 -1610.93 -1258 127 118 120
-441.508 -1609.67 -1257 124 122 120
-438.865 -1607.12 -1255 123 121 119
-436.925 -1607.14 -1255 125 121 120
-434.985 -1607.16 -1255 126 122 121
-433.045 -1607.17 -1255 129 124 123
-431.105 -1607.19 -1255 131 126 125
-429.165 -1607.21 -1255 133 129 128
-426.884 -1605.94 -1254 135 131 130
-424.945 -1605.96 -1254 0 0 0
-627.321 -1618.72 -1264 157 147 131
-625.373 -1618.74 -1264 157 147 131
-622.439 -1616.2 -1262 161 145 127
-620.003 -1614.94 -1261 155 139 121
-616.099 -1609.84 -1257 160 134 112
-612.207 -1604.74 -1253 162 136 114
-608.328 -1599.64 -1249 161 137 115
-604.461 -1594.54 -1245 159 135 113
-600.606 -1589.43 -1241 166 134 113
-597.729 -1586.89 -1239 168 136 115
-595.338 -1585.63 -1238 173 136 121
-592.951 -1584.37 -1237 176 139 124
-590.566 -1583.11 -1236 178 143 133
-588.184 -1581.85 -1235 182 147 137
-586.28 -1581.87 -1235 178 148 141
-583.903 -1580.61 -1234 177 147 140
-582.001 -1580.63 -1234 172 147 143
-579.628 -1579.37 -1233 172 147 143
-577.259 -1578.11 -1232 172 148 144
-575.359 -1578.13 -1232 171 147 143
-572.994 -1576.87 -1231 168 147 140
-571.56 -1578.17 -1232 167 146 139
-569.66 -1578.19 -1232 164 147 141
-568.221 -1579.49 -1233 161 144 138
-566.779 -1580.79 -1234 160 139 134
-564.876 -1580.81 -1234 158 137 132
-563.429 -1582.11 -1235 156 135 130
-561.524 -1582.13 -1235 155 134 129
-560.526 -1584.71 -1237 152 131 128
-558.618 -1584.73 -1237 149 128 125
-556.71 -1584.75 -1237 146 125 120
-554.802 -1584.77 -1237 144 123 118
-552.447 -1583.51 -1236 147 123 121
-551.431 -1586.09 -1238 148 124 122
-549.965 -1587.39 -1239 151 127 125
-547.611 -1586.13 -1238 153 129 127
-546.142 -1587.43 -1239 150 130 128
-544.67 -1588.73 -1240 150 130 128
-543.195 -1590.03 -1241 143 129 128
-541.28 -1590.05 -1241 144 130 129
-539.8 -1591.35 -1242 146 132 131
-538.316 -1592.65 -1243 148 134 133
-536.83 -1593.95 -1244 150 133 135
-534.91 -1593.97 -1244 148 131 133
-533.847 -1596.56 -1246 151 131 131
-532.351 -1597.86 -1247 152 132 132
-530.852 -1599.16 -1248 151 135 134
-528.926 -1599.18 -1248 151 135 134
-527.845 -1601.76 -1250 148 132 131
-525.495 -1600.5 -1249 147 131 130
-523.567 -1600.51 -1249 149 133 132
-522.056 -1601.81 -1250 150 134 133
-520.543 -1603.12 -1251 149 133 132
-519.026 -1604.42 -1252 149 133 132
-517.094 -1604.43 -1252 151 133 137
-515.161 -1604.45 -1252 150 132 136
-512.818 -1603.19 -1251 148 130 132
-511.295 -1604.49 -1252 148 130 132
-509.362 -1604.51 -1252 151 130 133
-507.429 -1604.53 -1252 151 130 133
-505.496 -1604.55 -1252 151 130 133
-503.965 -1605.85 -1253 154 133 136
-502.031 -1605.87 -1253 154 136 133
-500.096 -1605.88 -1253 154 136 133
-498.161 -1605.9 -1253 152 134 132
-496.622 -1607.2 -1254 150 132 130
-495.08 -1608.5 -1255 150 132 130
-493.142 -1608.52 -1255 150 132 130
-491.986 -1611.1 -1257 147 129 129
-490.045 -1611.12 -1257 143 125 125
-487.715 -1609.86 -1256 140 126 125
-485.389 -1608.59 -1255 140 126 125
-483.835 -1609.89 -1256 142 128 127
-480.744 -1606.07 -1253 144 130 129
-479.191 -1607.37 -1254 137 127 125
-478.015 -1609.95 -1256 129 119 117
-476.075 -1609.97 -1256 122 112 110
-474.134 -1609.99 -1256 118 108 106
-472.57 -1611.28 -1257 117 106 104
-470.628 -1611.3 -1257 119 108 106
-469.059 -1612.6 -1258 121 109 110
-467.486 -1613.9 -1259 123 111 112
-464.802 -1611.36 -1257 125 114 112
-462.859 -1611.37 -1257 126 115 113
-461.284 -1612.67 -1258 129 118 116
-459.34 -1612.69 -1258 128 117 115
-457.396 -1612.71 -1258 131 117 116
-455.452 -1612.73 -1258 132 118 117
-453.508 -1612.74 -1258 130 120 120
-451.564 -1612.76 -1258 131 121 121
-448.904 -1610.21 -1256 126 120 121
-446.963 -1610.23 -1256 125 119 120
-445.022 -1610.25 -1256 128 118 120
-443.081 -1610.27 -1256 128 118 120
-440.437 -1607.72 -1254 124 122 120
-437.799 -1605.17 -1252 122 120 118
-435.864 -1605.19 -1252 124 120 119
-434.275 -1606.49 -1253 126 122 121
-432.338 -1606.5 -1253 130 126 125
-430.058 -1605.24 -1252 134 130 129
-428.122 -1605.26 -1252 140 136 135
-426.187 -1605.27 -1252 145 141 140
-424.251 -1605.29 -1252 0 0 0
-626.803 -1619.35 -1263 157 147 131
-624.857 -1619.37 -1263 157 147 131
-622.418 -1618.11 -1262 160 144 126
-619.49 -1615.57 -1260 153 137 119
-615.588 -1610.46 -1256 158 132 111
-611.698 -1605.35 -1252 161 135 114
-607.82 -1600.25 -1248 163 138 116
-603.955 -1595.14 -1244 162 137 115
-600.586 -1591.31 -1241 167 135 114
-597.708 -1588.77 -1239 168 136 115
-594.837 -1586.22 -1237 174 137 122
-592.451 -1584.96 -1236 176 139 124
-590.546 -1584.98 -1236 177 142 132
-588.164 -1583.72 -1235 180 145 135
-586.26 -1583.74 -1235 176 146 138
-583.883 -1582.48 -1234 176 146 138
-581.981 -1582.5 -1234 172 147 142
-579.608 -1581.23 -1233 173 148 143
-577.239 -1579.97 -1232 171 149 144
-574.872 -1578.71 -1231 171 149 144
-572.974 -1578.73 -1231 169 148 142
-571.54 -1580.03 -1232 167 146 140
-569.64 -1580.05 -1232 165 146 141
-568.201 -1581.35 -1233 163 144 139
-566.759 -1582.66 -1234 162 141 136
-565.314 -1583.96 -1235 158 137 132
-563.409 -1583.98 -1235 155 134 130
-561.959 -1585.28 -1236 153 132 128
-560.053 -1585.3 -1236 151 130 127
-558.147 -1585.32 -1236 149 128 125
-557.14 -1587.9 -1238 148 127 122
-554.782 -1586.64 -1237 148 127 122
-551.98 -1584.1 -1235 149 126 124
-550.966 -1586.68 -1237 151 128 126
-549.502 -1587.98 -1238 153 130 128
-547.592 -1588 -1238 153 130 128
-546.123 -1589.3 -1239 152 131 129
-544.211 -1589.32 -1239 152 131 129
-542.737 -1590.63 -1240 145 132 132
-540.824 -1590.65 -1240 145 132 132
-539.346 -1591.95 -1241 147 133 133
-537.431 -1591.97 -1241 149 135 135
-535.947 -1593.27 -1242 151 134 136
-534.461 -1594.57 -1243 149 132 134
-533.4 -1597.16 -1245 151 131 131
-532.332 -1599.74 -1247 151 131 131
-530.833 -1601.04 -1248 150 134 133
-529.331 -1602.34 -1249 150 134 133
-526.981 -1601.08 -1248 148 132 131
-524.634 -1599.82 -1247 147 131 130
-523.548 -1602.4 -1249 149 133 132
-522.038 -1603.7 -1250 150 134 133
-520.524 -1605.01 -1251 148 132 131
-518.179 -1603.74 -1250 149 133 132
-516.249 -1603.76 -1250 151 133 137
-513.908 -1602.5 -1249 150 132 136
-512.39 -1603.8 -1250 148 130 132
-510.46 -1603.82 -1250 148 130 132
-508.53 -1603.84 -1250 151 130 133
-506.195 -1602.57 -1249 150 129 132
-504.266 -1602.59 -1249 151 130 133
-503.142 -1605.17 -1251 154 133 136
-500.81 -1603.91 -1250 154 136 133
-498.88 -1603.93 -1250 152 134 131
-497.745 -1606.51 -1252 149 131 129
-496.208 -1607.81 -1253 147 129 127
-494.667 -1609.12 -1254 147 129 127
-493.123 -1610.42 -1255 147 129 127
-491.577 -1611.72 -1256 143 126 126
-489.247 -1610.45 -1255 139 122 122
-486.532 -1607.91 -1253 137 123 122
-484.597 -1607.92 -1253 137 123 122
-483.047 -1609.23 -1254 136 122 121
-479.959 -1605.39 -1251 135 121 120
-478.409 -1606.7 -1252 128 118 116
-476.855 -1608 -1253 121 111 109
-474.92 -1608.01 -1253 116 106 104
-473.361 -1609.32 -1254 115 105 103
-471.8 -1610.62 -1255 118 107 105
-470.236 -1611.92 -1256 123 112 110
-468.668 -1613.22 -1257 124 113 113
-466.355 -1611.95 -1256 126 115 115
-464.044 -1610.69 -1255 127 116 115
-462.105 -1610.71 -1255 127 116 115
