ply
format ascii 1.0
comment Created by Open3D
element vertex 1416
property double x
property double y
property double z
property uchar red
property uchar green
property uchar blue
end_header
-400.258 -745.565 -1226 41 63 105
-399.309 -747.421 -1229 42 62 105
-398.351 -749.278 -1232 42 62 105
-397.705 -751.744 -1236 46 61 106
-396.726 -753.601 -1239 48 63 108
-396.693 -757.282 -1245 50 65 107
-396.006 -759.748 -1249 49 64 106
-395.623 -762.821 -1254 48 64 108
-395.224 -765.895 -1259 45 61 105
-394.808 -768.97 -1264 38 53 94
-394.377 -772.044 -1269 33 48 89
-394.239 -775.727 -1275 35 51 84
-394.082 -779.41 -1281 51 67 100
-393.906 -783.093 -1287 60 78 116
-394.929 -789.21 -1297 54 72 110
-626.702 -804.014 -1325 54 53 65
-617.107 -794.35 -1309 59 61 77
-609.442 -787.113 -1297 93 95 111
-602.75 -781.088 -1287 100 101 117
-597.955 -777.49 -1281 66 67 83
-593.644 -774.499 -1276 41 45 68
-589.813 -772.114 -1272 69 73 96
-585.992 -769.729 -1268 75 80 105
-580.343 -764.915 -1260 66 71 96
-576.094 -761.922 -1255 67 72 99
-571.861 -758.928 -1250 73 78 105
-567.643 -755.934 -1245 71 80 108
-563.44 -752.94 -1240 72 81 109
-560.158 -751.159 -1237 69 78 106
-556.433 -748.772 -1233 65 74 102
-552.721 -746.383 -1229 66 75 105
-549.021 -743.994 -1225 64 73 103
-545.78 -742.213 -1222 67 74 107
-542.547 -740.43 -1219 65 72 105
-539.768 -739.256 -1217 69 76 107
-536.552 -737.473 -1214 72 79 110
-533.786 -736.298 -1212 72 81 113
-531.464 -735.73 -1211 74 83 115
-528.271 -733.946 -1208 68 76 112
-525.522 -732.77 -1206 62 70 106
-522.78 -731.594 -1204 65 72 108
-520.476 -731.025 -1203 66 73 109
-518.174 -730.456 -1202 64 72 108
-516.306 -730.495 -1202 65 73 109
-514.008 -729.925 -1201 65 75 113
-511.288 -728.748 -1199 66 76 114
-508.998 -728.178 -1198 65 78 115
-506.711 -727.609 -1197 67 80 117
-504.005 -726.431 -1195 55 72 110
-501.725 -725.86 -1194 52 69 107
-499.03 -724.682 -1192 58 72 109
-496.757 -724.112 -1191 54 68 105
-494.903 -724.149 -1191 55 69 108
-492.22 -722.97 -1189 31 45 84
-490.369 -723.007 -1189 51 65 102
-488.517 -723.044 -1189 40 54 91
-486.256 -722.473 -1188 33 46 81
-483.997 -721.901 -1187 40 53 88
-481.335 -720.721 -1185 53 66 105
-479.489 -720.758 -1185 49 62 101
-477.239 -720.186 -1184 43 57 100
-475.393 -720.222 -1184 55 69 112
-473.547 -720.258 -1184 50 68 112
-472.1 -720.903 -1185 36 54 98
-470.649 -721.547 -1186 49 65 111
-468.403 -720.974 -1185 54 70 116
-466.161 -720.402 -1184 58 75 125
-463.922 -719.829 -1183 52 69 119
-461.295 -718.647 -1181 60 79 131
-459.841 -719.291 -1182 83 102 154
-457.996 -719.327 -1182 74 100 150
-456.151 -719.362 -1182 72 98 148
-454.306 -719.397 -1182 55 82 132
-452.843 -720.04 -1183 59 86 136
-451.377 -720.684 -1184 65 88 137
-449.528 -720.719 -1184 62 85 134
-447.301 -720.145 -1183 61 87 139
-445.829 -720.788 -1184 56 82 134
-443.979 -720.823 -1184 56 79 128
-442.129 -720.857 -1184 54 77 126
-440.279 -720.892 -1184 57 82 137
-438.798 -721.534 -1185 61 86 141
-436.946 -721.569 -1185 73 96 153
-435.461 -722.212 -1186 76 99 156
-433.972 -722.855 -1187 71 96 153
-432.479 -723.498 -1188 65 90 147
-430.984 -724.141 -1189 58 84 136
-429.124 -724.175 -1189 55 81 133
-427.623 -724.817 -1190 59 80 131
-425.761 -724.851 -1190 59 80 131
-424.255 -725.493 -1191 57 78 125
-422.746 -726.136 -1192 53 74 121
-421.233 -726.778 -1193 47 68 115
-420.069 -728.03 -1195 51 72 119
-418.548 -728.673 -1196 56 76 125
-417.372 -729.925 -1198 56 76 125
-415.842 -730.567 -1199 52 72 119
-414.31 -731.209 -1200 52 72 119
-413.117 -732.461 -1202 55 75 122
-411.577 -733.103 -1203 58 78 125
-410.373 -734.355 -1205 58 78 127
-409.162 -735.606 -1207 57 77 126
-407.946 -736.858 -1209 56 76 123
-407.058 -738.719 -1212 54 74 121
-405.827 -739.971 -1214 55 73 115
-404.589 -741.223 -1216 54 72 114
-403.345 -742.475 -1218 49 71 112
-401.764 -743.117 -1219 46 68 109
-400.508 -744.368 -1221 40 64 107
-399.246 -745.62 -1223 40 64 107
-398.302 -747.481 -1226 42 64 105
-397.672 -749.952 -1230 41 63 104
-397.029 -752.424 -1234 43 59 102
-396.373 -754.895 -1238 46 62 105
-396.023 -757.976 -1243 44 61 101
-395.34 -760.448 -1247 43 60 100
-394.644 -762.919 -1251 47 63 106
-394.563 -766.611 -1257 43 59 102
-393.214 -767.863 -1259 31 48 88
-392.791 -770.945 -1264 25 42 82
-392.661 -774.636 -1270 21 36 68
-392.204 -777.719 -1275 44 59 91
-392.037 -781.411 -1281 65 83 121
-392.46 -786.323 -1289 74 92 130
-394.978 -795.506 -1304 57 70 109
-625.237 -804.221 -1322 44 43 55
-616.591 -795.749 -1308 71 72 86
-607.988 -787.276 -1294 115 116 130
-601.769 -781.845 -1285 88 90 107
-597.445 -778.846 -1280 49 51 68
-593.136 -775.847 -1275 49 52 74
-589.77 -774.065 -1272 70 73 95
-585.95 -771.674 -1268 70 75 100
-581.221 -768.065 -1262 67 72 97
-576.511 -764.456 -1256 61 67 95
-571.361 -760.237 -1249 66 72 100
-567.145 -757.236 -1244 65 75 104
-563.398 -754.842 -1240 68 78 107
-560.117 -753.057 -1237 67 77 106
-556.844 -751.272 -1234 66 76 105
-552.68 -748.269 -1229 67 77 109
-548.981 -745.874 -1225 66 76 108
-546.186 -744.697 -1223 68 75 108
-543.397 -743.519 -1221 64 71 104
-540.171 -741.732 -1218 66 73 104
-536.954 -739.945 -1215 68 75 106
-534.186 -738.767 -1213 71 80 111
-531.425 -737.588 -1211 74 83 114
-528.669 -736.409 -1209 69 77 113
-525.483 -734.621 -1206 65 73 109
-522.741 -733.442 -1204 65 72 108
-520.004 -732.262 -1202 66 73 109
-517.705 -731.692 -1201 66 75 111
-515.837 -731.73 -1201 67 76 112
-513.97 -731.769 -1201 66 78 115
-511.25 -730.589 -1199 67 79 116
-508.96 -730.017 -1198 68 81 118
-506.673 -729.446 -1197 71 84 121
-503.967 -728.265 -1195 54 71 109
-501.687 -727.694 -1194 45 62 100
-498.992 -726.512 -1192 47 61 98
-497.137 -726.55 -1192 53 67 104
-494.866 -725.977 -1191 56 70 109
-492.184 -724.796 -1189 32 46 85
-490.332 -724.833 -1189 65 79 116
-488.48 -724.87 -1189 53 67 104
-485.81 -723.687 -1187 33 46 82
-483.553 -723.114 -1186 50 63 99
-480.893 -721.931 -1184 72 85 124
-478.643 -721.358 -1183 70 83 122
-476.799 -721.394 -1183 55 68 111
-474.554 -720.821 -1182 55 68 111
-473.111 -721.467 -1183 53 72 116
-471.665 -722.112 -1184 46 65 109
-470.216 -722.758 -1185 49 66 113
-468.368 -722.794 -1185 54 71 118
-466.126 -722.22 -1184 55 73 123
-463.494 -721.036 -1182 60 78 128
-461.65 -721.071 -1182 57 78 129
-459.806 -721.107 -1182 65 86 137
-457.961 -721.142 -1182 60 86 136
-456.116 -721.177 -1182 75 101 151
-454.271 -721.212 -1182 69 96 146
-452.808 -721.858 -1183 70 97 147
-451.342 -722.503 -1184 72 97 145
-449.114 -721.927 -1183 64 89 137
-447.266 -721.962 -1183 61 87 139
-445.418 -721.997 -1183 56 82 134
-443.57 -722.031 -1183 57 80 130
-441.721 -722.066 -1183 55 78 128
-439.873 -722.1 -1183 56 81 136
-438.394 -722.744 -1184 57 82 137
-436.543 -722.779 -1184 68 91 148
-435.426 -724.034 -1186 75 98 155
-433.938 -724.678 -1187 75 100 157
-432.445 -725.323 -1188 71 96 153
-430.587 -725.357 -1188 63 89 141
-428.729 -725.39 -1188 62 88 140
-426.871 -725.424 -1188 64 85 136
-425.37 -726.068 -1189 59 80 131
-423.865 -726.713 -1190 59 80 127
-422.358 -727.357 -1191 56 77 124
-421.2 -728.611 -1193 51 72 119
-419.332 -728.645 -1193 51 72 119
-418.165 -729.899 -1195 55 75 124
-416.642 -730.543 -1196 54 74 123
-415.116 -731.187 -1197 52 72 119
-413.932 -732.442 -1199 53 73 120
-412.741 -733.697 -1201 56 76 123
-411.544 -734.952 -1203 57 77 124
-410.34 -736.206 -1205 55 73 122
-409.13 -737.461 -1207 52 70 119
-407.913 -738.716 -1209 50 70 117
-407.026 -740.582 -1212 48 68 115
-405.46 -741.225 -1213 51 70 112
-403.891 -741.869 -1214 49 68 110
-402.65 -743.124 -1216 44 68 110
-401.402 -744.378 -1218 43 67 109
-399.82 -745.022 -1219 40 66 109
-398.887 -746.888 -1222 42 68 111
-397.62 -748.143 -1224 46 69 110
-396.993 -750.62 -1228 45 68 109
-396.675 -753.709 -1233 48 65 105
-395.7 -755.575 -1236 47 64 104
-395.035 -758.052 -1240 49 66 106
-394.357 -760.53 -1244 45 62 102
-393.666 -763.007 -1248 38 56 96
-393.276 -766.097 -1253 41 59 99
-392.245 -767.963 -1256 34 51 90
-391.826 -771.053 -1261 11 28 67
-391.083 -773.531 -1265 36 51 83
-390.941 -777.232 -1271 76 91 123
-391.087 -781.545 -1278 62 80 118
-391.515 -786.47 -1286 50 68 106
-393.431 -794.452 -1299 65 78 118
-616.075 -797.145 -1307 82 81 93
-607.473 -788.65 -1293 126 125 137
-601.725 -783.815 -1285 81 86 103
-596.935 -780.199 -1279 31 36 53
-593.093 -777.803 -1275 39 41 62
-589.726 -776.016 -1272 67 69 90
-585.445 -773.008 -1267 73 78 103
-580.257 -768.78 -1260 66 71 96
-575.55 -765.162 -1254 62 69 98
-570.862 -761.543 -1248 62 69 98
-566.647 -758.534 -1243 59 70 100
-562.903 -756.134 -1239 64 75 105
-559.622 -754.345 -1236 67 78 108
-555.9 -751.944 -1232 67 78 108
-551.74 -748.934 -1227 67 78 111
-548.492 -747.143 -1224 65 76 109
-545.699 -745.963 -1222 69 76 109
-542.912 -744.782 -1220 63 70 103
-539.688 -742.991 -1217 62 69 100
-536.472 -741.199 -1214 64 71 102
-533.706 -740.018 -1212 70 79 109
-531.385 -739.446 -1211 76 85 115
-528.192 -737.654 -1208 72 80 116
-525.008 -735.861 -1205 72 80 116
-522.702 -735.289 -1204 70 77 113
-519.965 -734.107 -1202 68 75 111
-517.666 -733.535 -1201 66 77 112
-515.799 -733.574 -1201 69 80 115
-513.932 -733.612 -1201 72 85 122
-511.638 -733.04 -1200 74 87 124
-508.922 -731.856 -1198 71 84 121
-506.635 -731.283 -1197 70 83 120
-503.929 -730.099 -1195 63 80 118
-501.23 -728.915 -1193 51 68 106
-498.955 -728.342 -1192 43 57 94
-496.682 -727.768 -1191 51 65 102
-494.413 -727.194 -1190 54 68 107
-492.146 -726.621 -1189 28 42 81
-489.883 -726.047 -1188 61 75 112
-488.032 -726.084 -1188 47 61 98
-485.773 -725.509 -1187 26 40 77
-483.108 -724.324 -1185 34 48 85
-480.45 -723.138 -1183 55 68 107
-478.202 -722.563 -1182 68 81 120
-476.36 -722.599 -1182 65 77 121
-474.518 -722.635 -1182 59 71 115
-472.675 -722.672 -1182 53 73 118
-471.629 -723.93 -1184 53 73 118
-470.18 -724.578 -1185 49 66 114
-468.332 -724.614 -1185 54 71 119
-465.696 -723.427 -1183 54 74 123
-463.459 -722.851 -1182 57 77 126
-461.615 -722.886 -1182 62 83 134
-459.77 -722.922 -1182 65 86 137
-457.538 -722.345 -1181 60 86 136
-456.081 -722.992 -1182 60 86 136
-454.236 -723.028 -1182 75 102 152
-452.773 -723.674 -1183 74 101 151
-450.926 -723.709 -1183 75 101 149
-448.699 -723.132 -1182 68 94 142
-446.853 -723.167 -1182 65 91 143
-445.007 -723.202 -1182 61 87 139
-443.16 -723.236 -1182 64 87 138
-441.687 -723.882 -1183 69 92 143
-439.838 -723.917 -1183 63 88 143
-438.36 -724.563 -1184 60 85 140
-436.509 -724.597 -1184 67 90 147
-435.393 -725.856 -1186 71 94 151
-433.904 -726.501 -1187 74 99 156
-432.048 -726.535 -1187 71 96 153
-429.829 -725.957 -1186 57 83 135
-428.335 -726.603 -1187 54 80 132
-426.837 -727.249 -1188 65 86 137
-425.694 -728.507 -1190 59 80 131
-423.832 -728.54 -1190 63 84 131
-422.324 -729.186 -1191 60 81 128
-421.167 -730.444 -1193 55 75 122
-419.299 -730.477 -1193 54 74 121
-417.781 -731.123 -1194 58 78 127
-416.26 -731.768 -1195 57 77 126
-414.736 -732.414 -1196 49 69 116
-413.899 -734.284 -1199 51 71 118
-412.708 -735.542 -1201 53 73 120
-411.511 -736.8 -1203 56 76 123
-410.307 -738.058 -1205 57 74 122
-409.436 -739.928 -1208 55 72 120
-408.218 -741.186 -1210 54 74 121
-406.993 -742.444 -1212 51 71 118
-405.093 -742.476 -1212 48 68 110
-403.526 -743.122 -1213 46 66 108
-402.618 -744.992 -1216 39 65 108
-401.37 -746.25 -1218 39 65 108
-399.788 -746.895 -1219 40 68 110
-398.202 -747.54 -1220 43 71 113
-397.263 -749.41 -1223 47 71 112
-396.638 -751.894 -1227 46 70 111
-396.321 -754.99 -1232 52 69 107
-394.708 -755.635 -1233 49 66 104
-394.047 -758.119 -1237 40 57 97
-393.374 -760.602 -1241 44 61 101
-392.372 -762.473 -1244 47 65 103
-391.988 -765.57 -1249 32 50 88
-391.276 -768.054 -1253 33 50 88
-390.551 -770.538 -1257 56 73 111
-390.123 -773.635 -1262 82 97 129
-390.294 -777.959 -1269 74 89 121
-390.137 -781.669 -1275 48 66 104
-390.569 -786.606 -1283 46 64 102
-391.884 -793.383 -1294 58 72 113
-607.899 -791.244 -1294 118 116 127
-602.149 -786.397 -1286 78 83 101
-597.357 -782.771 -1280 26 31 49
-592.584 -779.146 -1274 28 30 51
-589.219 -777.354 -1271 61 63 84
-584.94 -774.34 -1266 72 77 101
-579.754 -770.101 -1259 70 75 99
-574.59 -765.861 -1252 68 77 105
-570.362 -762.845 -1247 63 72 100
-566.606 -760.44 -1243 59 71 101
-562.861 -758.034 -1239 63 75 105
-559.128 -755.628 -1235 67 78 109
-554.957 -752.61 -1230 66 77 108
-551.25 -750.204 -1226 65 76 109
-548.003 -748.409 -1223 65 76 109
-545.212 -747.225 -1221 66 73 105
-542.427 -746.041 -1219 62 69 101
-539.204 -744.245 -1216 63 70 101
-535.991 -742.449 -1213 62 69 100
-533.667 -741.877 -1212 68 77 107
-530.907 -740.692 -1210 74 83 113
-527.716 -738.895 -1207 70 78 114
-524.969 -737.71 -1205 71 79 115
-522.229 -736.525 -1203 69 76 113
-519.927 -735.951 -1202 68 75 112
-517.627 -735.378 -1201 68 79 115
-515.76 -735.416 -1201 68 79 115
-513.893 -735.455 -1201 67 80 117
-511.173 -734.269 -1199 70 83 120
-508.883 -733.695 -1198 69 82 119
-506.597 -733.12 -1197 70 83 120
-503.891 -731.933 -1195 60 77 115
-501.192 -730.746 -1193 54 71 109
-498.498 -729.559 -1191 45 59 96
-496.228 -728.984 -1190 48 62 99
-493.96 -728.409 -1189 51 65 104
-490.867 -726.608 -1186 26 40 79
-489.021 -726.645 -1186 51 65 102
-487.174 -726.682 -1186 46 60 97
-484.918 -726.106 -1185 29 43 79
-482.257 -724.917 -1183 36 50 86
-479.601 -723.728 -1181 35 48 87
-477.357 -723.152 -1180 33 46 85
-475.518 -723.188 -1180 41 54 97
-473.679 -723.224 -1180 56 69 112
-472.239 -723.873 -1181 60 80 126
-470.796 -724.522 -1182 58 78 124
-469.35 -725.171 -1183 53 73 120
-467.901 -725.82 -1184 48 68 115
-466.054 -725.856 -1184 54 75 124
-463.815 -725.278 -1183 60 81 130
-461.579 -724.701 -1182 67 88 139
-459.735 -724.737 -1182 69 90 141
-457.89 -724.772 -1182 66 90 141
-456.046 -724.807 -1182 56 80 131
-454.585 -725.455 -1183 67 94 144
-452.738 -725.49 -1183 71 98 148
-451.272 -726.139 -1184 78 104 152
-449.424 -726.174 -1184 73 99 147
-447.197 -725.595 -1183 73 99 151
-445.349 -725.63 -1183 70 96 148
-443.501 -725.665 -1183 70 94 146
-441.652 -725.699 -1183 72 96 148
-440.176 -726.347 -1184 72 97 153
-438.325 -726.381 -1184 68 93 149
-436.475 -726.415 -1184 70 94 151
-434.991 -727.063 -1185 70 94 151
-433.504 -727.711 -1186 75 100 157
-431.286 -727.131 -1185 75 100 157
-429.795 -727.778 -1186 61 85 138
-428.301 -728.426 -1187 56 80 133
-426.804 -729.073 -1188 60 81 133
-425.303 -729.721 -1189 55 76 128
-423.799 -730.368 -1190 61 82 130
-422.291 -731.015 -1191 63 84 132
-420.427 -731.049 -1191 60 80 127
-418.914 -731.696 -1192 61 81 128
-417.398 -732.343 -1193 61 81 129
-415.879 -732.99 -1194 54 74 122
-414.703 -734.251 -1196 51 72 120
-413.175 -734.898 -1197 52 73 121
-411.988 -736.159 -1199 53 73 120
-411.136 -738.033 -1202 55 75 122
-409.934 -739.294 -1204 56 73 121
-408.725 -740.555 -1206 54 71 119
-407.51 -741.816 -1208 52 71 117
-406.96 -744.306 -1212 47 66 112
-405.061 -744.338 -1212 47 67 109
-403.493 -744.985 -1213 46 66 108
-402.585 -746.86 -1216 41 65 108
-400.678 -746.892 -1216 40 64 107
-399.427 -748.153 -1218 40 66 109
-398.17 -749.414 -1220 43 69 112
-396.906 -750.675 -1222 45 68 110
-396.282 -753.164 -1226 44 67 109
-395.324 -755.039 -1229 41 59 97
-394.036 -756.3 -1231 39 57 95
-393.696 -759.404 -1236 41 59 100
-393.024 -761.894 -1240 41 59 100
-391.709 -763.155 -1242 39 57 94
-391.014 -765.645 -1246 51 69 106
-389.995 -767.521 -1249 70 88 124
-389.587 -770.625 -1254 73 91 127
-389.473 -774.345 -1260 62 78 112
-389.339 -778.064 -1266 61 77 111
-388.88 -781.169 -1271 52 71 110
-389.623 -786.733 -1280 54 73 112
-391.246 -794.141 -1292 65 79 120
-608.324 -793.841 -1295 115 112 122
-602.573 -788.981 -1287 62 66 86
-597.314 -784.734 -1280 15 19 39
-592.54 -781.099 -1274 31 33 54
-588.712 -778.69 -1270 66 68 89
-584.435 -775.667 -1265 68 74 96
-578.791 -770.805 -1257 74 80 102
-574.089 -767.168 -1251 67 78 106
-570.32 -764.757 -1247 63 74 102
-566.564 -762.346 -1243 61 75 104
-562.819 -759.934 -1239 65 79 108
-558.634 -756.909 -1234 66 77 109
-554.465 -753.883 -1229 63 74 106
-551.209 -752.084 -1226 64 75 108
-547.963 -750.284 -1223 69 80 113
-545.172 -749.098 -1221 65 72 103
-541.942 -747.297 -1218 65 72 103
-539.164 -746.111 -1216 68 75 106
-536.835 -745.537 -1215 66 73 104
-534.067 -744.349 -1213 69 78 108
-531.306 -743.162 -1211 72 81 111
-528.113 -741.36 -1208 67 75 111
-524.93 -739.559 -1205 69 77 113
-522.19 -738.37 -1203 73 80 118
-519.888 -737.795 -1202 71 78 116
-517.589 -737.22 -1201 70 80 118
-515.292 -736.645 -1200 70 80 118
-512.999 -736.07 -1199 69 82 119
-510.708 -735.494 -1198 72 85 122
-508.42 -734.919 -1197 69 82 119
-506.136 -734.343 -1196 67 80 117
-503.432 -733.153 -1194 65 82 120
-500.734 -731.963 -1192 66 83 121
-498.042 -730.772 -1190 55 69 106
-495.773 -730.195 -1189 48 62 99
-493.507 -729.619 -1188 51 65 104
-490.83 -728.428 -1186 32 46 85
-488.984 -728.465 -1186 60 74 111
-487.137 -728.502 -1186 72 86 123
-484.881 -727.924 -1185 41 56 90
-482.22 -726.733 -1183 58 73 107
-479.971 -726.155 -1182 55 69 108
-478.129 -726.192 -1182 46 60 99
-475.884 -725.613 -1181 47 61 104
-473.643 -725.035 -1180 57 71 114
-472.203 -725.686 -1181 59 79 126
-470.761 -726.337 -1182 60 80 127
-469.314 -726.987 -1183 58 79 126
-467.865 -727.637 -1184 54 75 122
-466.018 -727.673 -1184 58 79 128
-463.78 -727.094 -1183 59 80 129
-461.934 -727.13 -1183 60 81 132
-460.088 -727.166 -1183 69 90 141
-458.243 -727.201 -1183 68 91 142
-456.396 -727.236 -1183 66 89 140
-454.934 -727.886 -1184 68 95 145
-453.086 -727.921 -1184 76 103 153
-451.237 -727.956 -1184 82 108 156
-449.389 -727.992 -1184 74 100 148
-447.54 -728.026 -1184 77 104 156
-445.314 -727.446 -1183 80 107 159
-443.466 -727.481 -1183 73 99 151
-441.991 -728.13 -1184 62 88 140
-440.513 -728.78 -1185 72 99 155
-438.661 -728.814 -1185 70 97 153
-436.809 -728.849 -1185 70 95 152
-435.324 -729.498 -1186 66 91 148
-433.105 -728.917 -1185 71 96 153
-431.252 -728.951 -1185 73 98 155
-429.761 -729.6 -1186 61 84 137
-427.907 -729.633 -1186 58 81 134
-426.411 -730.282 -1187 54 75 128
-424.912 -730.931 -1188 54 75 128
-423.409 -731.58 -1189 63 84 133
-421.903 -732.229 -1190 64 85 134
-420.041 -732.262 -1190 56 76 123
-418.53 -732.911 -1191 59 79 126
-417.015 -733.559 -1192 60 80 127
-415.498 -734.208 -1193 55 75 122
-414.323 -735.472 -1195 50 71 120
-412.452 -735.505 -1195 52 73 122
-411.611 -737.384 -1198 53 73 120
-410.761 -739.264 -1201 54 74 121
-409.56 -740.528 -1203 54 71 119
-408.692 -742.407 -1206 50 67 115
-407.14 -743.056 -1207 49 66 112
-406.256 -744.935 -1210 44 61 107
-404.694 -745.584 -1211 45 65 107
-403.128 -746.232 -1212 47 67 109
-401.559 -746.88 -1213 45 67 110
-400.316 -748.144 -1215 42 64 107
-399.067 -749.408 -1217 40 64 107
-397.811 -750.672 -1219 41 65 108
-396.549 -751.936 -1221 43 65 108
-395.603 -753.815 -1224 43 65 108
-394.648 -755.695 -1227 40 58 96
-393.363 -756.959 -1229 42 60 98
-392.39 -758.839 -1232 40 58 100
-391.408 -760.719 -1235 52 70 112
-390.415 -762.599 -1238 69 87 123
-389.727 -765.095 -1242 69 87 123
-389.026 -767.591 -1246 59 78 111
-388.623 -770.703 -1251 51 70 103
-388.513 -774.432 -1257 52 69 105
-388.692 -778.776 -1264 58 75 111
-387.625 -780.657 -1267 54 74 114
-388.982 -787.467 -1278 58 78 118
-390.608 -794.893 -1290 66 80 121
-610.158 -798.283 -1299 111 107 118
-603.934 -792.797 -1290 46 50 70
-597.736 -787.31 -1281 16 20 40
-592.497 -783.052 -1274 51 53 74
-588.206 -780.022 -1269 69 71 92
-583.468 -776.377 -1263 76 82 104
-578.288 -772.117 -1256 79 85 107
-574.047 -769.085 -1251 73 83 111
-569.821 -766.054 -1246 67 77 105
-565.61 -763.021 -1241 63 77 106
-561.869 -760.604 -1237 69 83 112
-558.14 -758.186 -1233 73 83 115
-554.423 -755.767 -1229 66 76 108
-550.719 -753.349 -1225 63 74 107
-547.474 -751.544 -1222 71 82 115
-545.131 -750.97 -1221 71 78 109
-541.902 -749.165 -1218 64 71 102
-539.124 -747.975 -1216 66 73 104
-536.353 -746.785 -1214 70 77 108
-533.587 -745.594 -1212 70 79 109
-530.828 -744.404 -1210 69 78 108
-528.074 -743.213 -1208 66 74 110
-524.891 -741.406 -1205 68 76 112
-522.584 -740.83 -1204 73 81 119
-520.281 -740.254 -1203 71 79 117
-517.981 -739.678 -1202 70 80 118
-515.254 -738.486 -1200 71 81 119
-512.96 -737.909 -1199 70 83 120
-510.67 -737.332 -1198 71 84 121
-508.382 -736.755 -1197 72 85 122
-505.674 -735.562 -1195 70 83 120
-502.972 -734.369 -1193 66 83 121
-499.856 -732.56 -1190 62 79 117
-497.168 -731.366 -1188 56 70 107
-494.902 -730.788 -1187 52 66 103
-492.639 -730.21 -1186 48 62 100
-490.379 -729.632 -1185 29 43 81
-488.534 -729.669 -1185 57 71 108
-486.689 -729.706 -1185 78 92 129
-484.435 -729.127 -1184 41 55 91
-482.183 -728.548 -1183 58 72 108
-479.934 -727.969 -1182 77 91 130
-478.093 -728.005 -1182 86 100 139
-475.848 -727.426 -1181 65 80 124
-474.008 -727.462 -1181 54 69 113
-472.167 -727.498 -1181 50 70 117
-470.724 -728.15 -1182 55 75 122
-468.882 -728.186 -1182 65 86 134
-467.434 -728.838 -1183 59 80 128
-465.589 -728.874 -1183 58 79 129
-463.744 -728.91 -1183 56 77 127
-461.899 -728.946 -1183 59 80 131
-460.053 -728.981 -1183 63 84 135
-458.594 -729.633 -1184 65 89 141
-456.747 -729.668 -1184 61 85 137
-454.899 -729.704 -1184 58 85 136
-453.051 -729.739 -1184 64 91 142
-451.202 -729.774 -1184 69 95 144
-449.354 -729.809 -1184 69 95 144
-447.505 -729.844 -1184 75 102 155
-445.279 -729.262 -1183 76 103 156
-443.806 -729.913 -1184 76 102 154
-442.33 -730.564 -1185 70 96 148
-440.479 -730.599 -1185 72 99 155
-438.997 -731.25 -1186 71 98 154
-436.775 -730.667 -1185 73 98 155
-435.29 -731.318 -1186 72 97 154
-433.071 -730.736 -1185 76 101 158
-431.218 -730.77 -1185 71 96 153
-429.727 -731.42 -1186 67 90 144
-427.873 -731.454 -1186 60 83 137
-426.377 -732.105 -1187 55 76 129
-424.878 -732.755 -1188 49 70 123
-423.375 -733.405 -1189 60 81 129
-421.87 -734.056 -1190 65 86 134
-420.008 -734.089 -1190 55 75 121
-418.145 -734.122 -1190 60 80 126
-416.632 -734.773 -1191 62 82 129
-415.116 -735.423 -1192 64 84 131
-413.597 -736.073 -1193 54 75 124
-411.729 -736.106 -1193 51 72 121
-410.891 -737.99 -1196 56 76 123
-410.386 -740.491 -1200 52 72 119
-409.187 -741.758 -1202 52 70 118
-407.982 -743.025 -1204 52 70 118
-406.433 -743.675 -1205 46 63 110
-405.552 -745.559 -1208 48 65 112
-404.327 -746.826 -1210 48 67 110
-402.763 -747.476 -1211 49 68 111
-401.196 -748.126 -1212 53 72 116
-399.625 -748.775 -1213 45 64 108
-398.707 -750.659 -1216 42 62 106
-397.453 -751.926 -1218 40 60 104
-395.867 -752.576 -1219 37 57 101
-394.602 -753.843 -1221 31 51 95
-393.651 -755.727 -1224 35 54 93
-392.051 -756.377 -1225 57 76 115
-391.084 -758.261 -1228 68 86 129
-390.108 -760.145 -1231 73 91 134
-389.437 -762.647 -1235 62 82 117
-388.754 -765.149 -1239 54 74 109
-388.058 -767.652 -1243 37 57 91
-387.66 -770.772 -1248 53 73 107
-387.863 -775.127 -1255 54 72 110
-388.045 -779.482 -1262 53 71 109
-387.287 -781.985 -1266 58 78 118
-388.646 -788.812 -1277 53 73 113
-389.365 -794.403 -1286 49 63 104
-612.931 -803.97 -1305 112 107 118
-604.825 -796.006 -1292 32 36 56
-598.159 -789.889 -1282 27 31 51
-591.988 -784.387 -1273 61 63 84
-586.772 -780.118 -1266 64 66 87
-582.039 -776.464 -1260 69 75 97
-577.784 -773.425 -1255 72 78 100
-573.545 -770.386 -1250 74 83 111
-569.322 -767.347 -1245 70 79 107
-565.569 -764.924 -1241 65 79 108
-561.828 -762.5 -1237 68 82 111
-557.646 -759.459 -1232 73 82 114
-553.931 -757.035 -1228 69 78 110
-550.228 -754.61 -1224 66 77 110
-546.985 -752.801 -1221 71 82 115
-543.751 -750.992 -1218 69 76 107
-540.971 -749.799 -1216 66 73 104
-538.641 -749.223 -1215 69 76 107
-536.313 -748.646 -1214 73 80 111
-533.547 -747.453 -1212 72 81 111
-531.665 -747.493 -1212 71 80 110
-528.472 -745.682 -1209 69 77 113
-525.287 -743.871 -1206 71 79 115
-522.979 -743.293 -1205 73 81 119
-520.242 -742.099 -1203 73 81 119
-517.511 -740.904 -1201 73 83 121
-514.785 -739.709 -1199 73 83 121
-512.494 -739.131 -1198 71 84 121
-510.205 -738.552 -1197 72 85 122
-507.919 -737.974 -1196 71 85 122
-505.213 -736.778 -1194 68 82 119
-502.091 -734.965 -1191 61 78 116
-499.398 -733.768 -1189 55 72 110
-496.711 -732.572 -1187 58 72 109
-494.031 -731.375 -1185 50 64 101
-491.771 -730.795 -1184 48 62 99
-489.514 -730.215 -1183 18 32 69
-487.673 -730.252 -1183 54 68 105
-485.831 -730.289 -1183 86 100 137
-483.58 -729.708 -1182 47 61 98
-481.739 -729.745 -1182 54 68 105
-479.898 -729.782 -1182 51 65 104
-478.056 -729.819 -1182 63 77 116
-475.812 -729.238 -1181 87 103 148
-473.971 -729.274 -1181 55 71 116
-472.131 -729.31 -1181 45 65 112
-470.688 -729.964 -1182 57 77 124
-468.846 -730 -1182 64 85 134
-467.398 -730.654 -1183 61 82 131
-465.553 -730.689 -1183 59 80 131
-463.708 -730.725 -1183 62 83 134
-461.863 -730.761 -1183 77 98 149
-460.018 -730.797 -1183 78 99 150
-458.559 -731.45 -1184 67 93 145
-456.712 -731.486 -1184 60 86 138
-454.864 -731.521 -1184 60 87 139
-453.016 -731.556 -1184 66 93 145
-451.167 -731.591 -1184 71 97 147
-449.319 -731.626 -1184 71 97 147
-447.47 -731.661 -1184 74 101 155
-445.621 -731.696 -1184 74 101 155
-443.772 -731.73 -1184 76 102 154
-442.295 -732.383 -1185 75 101 153
-440.444 -732.418 -1185 75 102 158
-438.593 -732.452 -1185 76 103 159
-437.109 -733.104 -1186 77 102 159
-434.889 -732.521 -1185 73 98 155
-433.036 -732.555 -1185 76 101 158
-431.184 -732.589 -1185 76 101 158
-429.331 -732.623 -1185 73 96 151
-427.839 -733.275 -1186 65 88 143
-426.702 -734.545 -1188 61 82 135
-424.844 -734.579 -1188 59 80 133
-423.342 -735.231 -1189 65 86 133
-422.191 -736.501 -1191 63 84 131
-419.621 -735.297 -1189 63 83 128
-417.761 -735.331 -1189 66 86 131
-416.249 -735.983 -1190 60 80 127
-414.387 -736.015 -1190 54 74 121
-412.87 -736.667 -1191 52 72 121
-411.006 -736.7 -1191 50 70 119
-410.171 -738.588 -1194 55 75 122
-409.327 -740.477 -1197 54 74 121
-408.474 -742.366 -1200 48 68 115
-407.271 -743.636 -1202 49 69 116
-406.063 -744.906 -1204 53 70 118
-405.183 -746.795 -1207 48 65 113
-403.626 -747.446 -1208 52 70 114
-402.065 -748.097 -1209 45 63 107
-400.501 -748.749 -1210 45 61 106
-399.263 -750.019 -1212 43 59 104
-398.019 -751.288 -1214 41 57 102
-396.115 -751.321 -1214 44 60 105
-394.861 -752.591 -1216 59 76 122
-393.923 -754.479 -1219 76 93 139
-392.654 -755.749 -1221 96 116 156
-391.059 -756.4 -1222 77 97 137
-390.097 -758.289 -1225 58 76 120
-389.442 -760.797 -1229 52 70 114
-388.775 -763.305 -1233 53 74 109
-387.781 -765.195 -1236 44 65 100
-387.714 -768.941 -1242 59 80 115
-387.006 -771.449 -1246 32 53 88
-386.904 -775.196 -1252 63 81 121
-387.398 -780.182 -1260 52 70 110
-386.643 -782.69 -1264 54 74 114
-387.701 -788.915 -1274 52 72 112
-388.122 -793.901 -1282 46 60 101
-614.295 -807.822 -1308 111 108 118
-605.717 -799.22 -1294 25 28 47
-598.115 -791.853 -1282 40 43 62
-591.944 -786.338 -1273 62 64 85
-585.801 -780.822 -1264 58 60 81
-581.996 -778.394 -1260 66 71 94
-577.281 -774.73 -1254 71 76 99
-573.044 -771.684 -1249 71 80 106
-569.279 -769.255 -1245 71 80 106
-566.438 -768.061 -1243 67 78 107
-562.694 -765.631 -1239 65 76 105
-558.51 -762.583 -1234 67 76 106
-554.341 -759.535 -1229 66 75 105
-550.637 -757.104 -1225 68 78 110
-546.945 -754.673 -1221 73 83 115
-543.711 -752.859 -1218 71 78 109
-540.931 -751.663 -1216 65 72 103
-539.044 -751.703 -1216 65 72 103
-536.273 -750.507 -1214 68 75 106
-533.508 -749.311 -1212 71 80 110
-531.626 -749.351 -1212 74 83 113
-528.432 -747.535 -1209 73 81 117
-525.683 -746.338 -1207 73 81 117
-522.506 -744.522 -1204 73 81 118
-519.771 -743.325 -1202 74 82 119
-517.041 -742.127 -1200 71 82 118
-514.317 -740.929 -1198 71 82 118
-512.028 -740.349 -1197 72 85 122
-509.74 -739.769 -1196 74 87 124
-507.032 -738.57 -1194 71 85 122
-504.329 -737.371 -1192 67 81 118
-501.632 -736.172 -1190 66 83 121
-498.521 -734.354 -1187 62 79 117
-495.837 -733.155 -1185 66 80 117
-493.576 -732.573 -1184 60 74 111
-490.903 -731.373 -1182 57 71 108
-489.063 -731.41 -1182 21 35 72
-486.811 -730.829 -1181 48 62 99
-485.383 -731.484 -1182 79 93 130
-483.543 -731.521 -1182 44 57 95
-481.702 -731.558 -1182 54 67 105
-480.267 -732.214 -1183 45 60 100
-478.424 -732.251 -1183 36 51 91
-476.178 -731.668 -1182 48 64 109
-474.336 -731.705 -1182 68 84 129
-472.095 -731.122 -1181 60 80 127
-470.254 -731.158 -1181 55 75 122
-468.413 -731.194 -1181 60 81 130
-466.967 -731.849 -1182 57 78 127
-465.124 -731.885 -1182 62 83 134
-463.281 -731.921 -1182 64 85 136
-461.827 -732.576 -1183 67 88 139
-459.982 -732.612 -1183 69 90 141
-458.524 -733.266 -1184 68 95 147
-456.676 -733.302 -1184 67 94 146
-454.828 -733.337 -1184 63 91 144
-452.598 -732.753 -1183 68 96 149
-450.37 -732.169 -1182 71 97 148
-448.525 -732.204 -1182 73 99 150
-447.057 -732.858 -1183 70 98 152
-444.834 -732.274 -1182 68 96 150
-443.362 -732.927 -1183 70 96 148
-442.261 -734.201 -1185 71 97 149
-440.41 -734.236 -1185 73 98 155
-438.558 -734.27 -1185 76 101 158
-436.706 -734.305 -1185 78 103 160
-434.855 -734.339 -1185 79 104 161
-433.002 -734.373 -1185 77 102 159
-431.15 -734.407 -1185 76 101 158
-429.66 -735.061 -1186 70 94 149
-428.166 -735.714 -1187 62 86 141
-426.31 -735.748 -1187 57 78 130
-424.453 -735.782 -1187 60 81 133
-422.952 -736.435 -1188 64 85 132
-421.803 -737.709 -1190 59 80 127
-419.235 -736.502 -1188 67 86 131
-418.079 -737.776 -1190 66 85 130
-416.216 -737.809 -1190 60 80 128
-414.354 -737.842 -1190 57 77 125
-412.837 -738.495 -1191 54 72 122
-410.973 -738.528 -1191 52 70 120
-409.795 -739.801 -1193 50 68 116
-408.61 -741.074 -1195 50 68 116
-407.76 -742.967 -1198 54 74 121
-406.561 -744.241 -1200 51 71 118
-405.693 -746.134 -1203 47 64 112
-404.479 -747.407 -1205 46 63 111
-402.591 -747.44 -1205 40 57 102
-401.035 -748.092 -1206 42 59 104
-399.807 -749.365 -1208 50 65 110
-398.572 -750.638 -1210 57 72 117
-397.331 -751.911 -1212 80 94 139
-396.083 -753.184 -1214 96 110 155
-394.829 -754.458 -1216 95 112 158
-393.568 -755.73 -1218 84 101 147
-392.301 -757.003 -1220 69 91 131
-390.707 -757.656 -1221 56 78 118
-389.428 -758.929 -1223 39 58 102
-388.777 -761.443 -1227 45 64 108
-388.112 -763.957 -1231 47 68 105
-387.122 -765.851 -1234 33 54 91
-387.37 -770.227 -1241 65 86 124
-386.043 -771.5 -1243 46 67 105
-385.945 -775.256 -1249 50 68 108
-386.444 -780.254 -1257 60 78 118
-385.693 -782.769 -1261 64 83 122
-386.452 -788.387 -1270 54 73 112
-388.09 -795.869 -1282 46 61 102
-606.608 -802.441 -1296 41 43 61
-598.071 -793.817 -1282 34 36 54
-591.436 -787.669 -1272 55 57 78
-585.295 -782.139 -1263 57 59 80
-581.491 -779.705 -1259 57 61 84
-577.239 -776.651 -1254 65 69 92
-573.001 -773.597 -1249 65 73 97
-569.694 -771.781 -1246 68 76 100
-567.307 -771.204 -1245 68 77 105
-563.561 -768.769 -1241 67 76 104
-559.374 -765.713 -1236 68 75 104
-555.202 -762.657 -1231 67 74 103
-551.045 -759.601 -1226 67 76 106
-547.799 -757.783 -1223 70 79 109
-544.563 -755.965 -1220 72 79 110
-541.78 -754.766 -1218 66 73 104
-539.447 -754.187 -1217 62 69 100
-536.674 -752.987 -1215 66 73 104
-533.908 -751.788 -1213 72 81 111
-531.586 -751.208 -1212 76 85 115
-528.392 -749.389 -1209 75 83 119
-525.208 -747.569 -1206 74 82 118
-522.467 -746.368 -1204 74 82 118
-519.732 -745.168 -1202 73 81 117
-516.571 -743.347 -1199 67 78 113
-513.849 -742.145 -1197 66 77 112
-511.133 -740.944 -1195 70 83 120
-508.423 -739.742 -1193 73 86 123
-505.719 -738.54 -1191 69 83 120
-503.021 -737.339 -1189 65 79 116
-500.751 -736.757 -1188 64 81 119
-498.063 -735.554 -1186 68 85 123
-495.8 -734.972 -1185 69 83 120
-493.539 -734.389 -1184 69 83 120
-491.281 -733.806 -1183 64 78 115
-489.44 -733.843 -1183 39 53 90
-487.599 -733.88 -1183 49 63 100
-486.168 -734.538 -1184 77 91 128
-483.915 -733.955 -1183 60 73 112
-482.073 -733.992 -1183 88 101 140
-480.23 -734.028 -1183 70 87 127
-477.983 -733.444 -1182 53 70 110
-475.739 -732.86 -1181 33 49 94
-473.899 -732.897 -1181 59 75 120
-471.659 -732.313 -1180 53 73 120
-469.82 -732.349 -1180 60 80 127
-467.98 -732.385 -1180 59 79 128
-466.536 -733.042 -1181 54 74 123
-465.088 -733.698 -1182 61 82 133
-463.245 -733.734 -1182 65 86 137
-461.792 -734.391 -1183 63 84 135
-459.946 -734.426 -1183 64 85 136
-458.488 -735.083 -1184 63 92 144
-456.255 -734.497 -1183 61 90 142
-454.409 -734.533 -1183 66 95 149
-452.18 -733.947 -1182 71 100 154
-449.954 -733.361 -1181 72 99 151
-448.111 -733.396 -1181 76 103 155
-446.645 -734.052 -1182 70 99 153
-444.799 -734.087 -1182 66 95 149
-443.328 -734.743 -1183 67 93 145
-441.853 -735.398 -1184 69 95 147
-440.004 -735.433 -1184 76 101 158
-438.154 -735.467 -1184 76 101 158
-436.304 -735.502 -1184 76 101 158
-434.087 -734.915 -1183 84 109 166
-432.238 -734.949 -1183 84 109 166
-430.752 -735.604 -1184 82 107 164
-429.263 -736.259 -1185 69 94 149
-427.411 -736.293 -1185 59 84 139
-425.917 -736.948 -1186 60 81 132
-424.062 -736.982 -1186 54 75 126
-422.563 -737.637 -1187 51 72 119
-421.06 -738.292 -1188 48 69 116
-419.202 -738.325 -1188 55 72 118
-417.694 -738.98 -1189 54 71 117
-415.484 -738.392 -1188 52 72 121
-413.972 -739.046 -1189 53 73 122
-412.111 -739.08 -1189 60 77 127
-410.25 -739.112 -1189 56 73 123
-409.075 -740.389 -1191 49 66 114
-407.894 -741.665 -1193 52 69 117
-407.047 -743.562 -1196 55 75 122
-405.851 -744.839 -1198 50 70 117
-404.649 -746.115 -1200 50 67 115
-403.44 -747.391 -1202 59 76 124
-402.225 -748.667 -1204 69 86 132
-400.67 -749.321 -1205 86 103 149
-399.113 -749.975 -1206 86 100 145
-397.881 -751.252 -1208 87 101 146
-396.971 -753.15 -1211 94 106 152
-395.398 -753.804 -1212 81 93 139
-394.147 -755.08 -1214 52 69 115
-392.89 -756.356 -1216 52 69 115
-391.626 -757.632 -1218 47 69 110
-390.355 -758.908 -1220 63 85 126
-389.396 -760.806 -1223 29 49 93
-388.428 -762.704 -1226 45 65 109
-387.765 -765.224 -1230 49 69 109
-387.09 -767.745 -1234 41 61 101
-387.026 -771.51 -1240 50 70 112
-386.011 -773.408 -1243 51 71 113
-385.605 -776.551 -1248 59 77 117
-385.49 -780.316 -1254 66 84 124
-384.132 -781.593 -1256 56 74 112
-386.419 -790.337 -1270 43 61 99
-386.847 -795.347 -1278 40 57 97
-607.967 -806.287 -1299 51 52 69
-598.026 -795.78 -1282 28 29 46
-591.392 -789.617 -1272 47 50 72
-584.325 -782.832 -1261 52 55 77
-580.986 -781.012 -1258 52 57 80
-576.735 -777.951 -1253 59 64 87
-573.418 -776.131 -1250 59 65 87
-570.566 -774.932 -1248 61 67 89
-567.721 -773.732 -1246 61 69 95
-564.427 -771.912 -1243 64 72 98
-560.237 -768.849 -1238 68 73 101
-556.062 -765.785 -1233 66 71 99
-552.352 -763.342 -1229 62 71 99
-549.102 -761.52 -1226 65 74 102
-545.415 -759.076 -1222 71 78 109
-542.629 -757.875 -1220 69 76 107
-540.293 -757.294 -1219 66 73 104
-537.517 -756.092 -1217 66 73 104
-534.748 -754.889 -1215 67 76 106
-531.984 -753.687 -1213 68 77 107
-528.79 -751.863 -1210 71 79 115
-525.169 -749.417 -1206 76 84 120
-521.56 -746.97 -1202 78 86 122
-518.828 -745.767 -1200 76 84 120
-515.671 -743.941 -1197 70 81 116
-512.952 -742.737 -1195 69 80 115
-510.24 -741.533 -1193 71 84 121
-507.959 -740.949 -1192 73 86 123
-505.681 -740.366 -1191 69 83 120
-502.56 -738.54 -1188 66 80 117
-500.713 -738.578 -1188 62 79 118
-498.025 -737.372 -1186 69 86 125
-495.762 -736.788 -1185 69 83 120
-493.501 -736.204 -1184 68 82 119
-491.659 -736.241 -1184 66 80 117
-489.817 -736.279 -1184 43 57 94
-487.561 -735.694 -1183 50 64 101
-486.131 -736.353 -1184 84 98 135
-484.287 -736.39 -1184 53 66 105
-482.443 -736.427 -1184 90 103 142
-480.193 -735.842 -1183 90 107 147
-478.351 -735.879 -1183 91 108 148
-476.105 -735.294 -1182 68 84 129
-473.863 -734.708 -1181 64 80 125
-471.622 -734.122 -1180 68 88 135
-469.784 -734.158 -1180 59 79 126
-467.944 -734.194 -1180 61 82 131
-466.105 -734.23 -1180 58 79 128
-464.265 -734.266 -1180 59 80 131
-462.817 -734.925 -1181 61 82 133
-461.365 -735.582 -1182 67 88 139
-459.911 -736.241 -1183 65 86 137
-458.065 -736.276 -1183 58 87 139
-455.834 -735.689 -1182 60 89 141
-453.99 -735.725 -1182 60 90 145
-451.762 -735.138 -1181 66 96 151
-449.538 -734.55 -1180 68 95 147
-447.696 -734.585 -1180 74 101 153
-446.232 -735.243 -1181 69 98 152
-444.388 -735.277 -1181 64 93 147
-443.293 -736.557 -1183 66 91 145
-441.818 -737.215 -1184 67 92 146
-439.969 -737.249 -1184 73 98 155
-438.119 -737.284 -1184 76 101 158
-435.901 -736.695 -1183 81 106 163
-433.685 -736.107 -1182 88 113 170
-432.203 -736.764 -1183 86 111 168
-430.354 -736.798 -1183 83 108 165
-428.867 -737.454 -1184 70 95 150
-427.016 -737.488 -1184 60 85 140
-425.524 -738.145 -1185 52 73 124
-423.671 -738.179 -1185 42 63 114
-422.173 -738.835 -1186 36 57 104
-420.672 -739.492 -1187 42 63 110
-418.815 -739.525 -1187 46 63 109
-416.958 -739.558 -1187 53 70 116
-415.101 -739.592 -1187 55 73 122
-413.243 -739.624 -1187 51 69 118
-411.385 -739.658 -1187 56 73 123
-409.527 -739.69 -1187 47 64 114
-408.355 -740.97 -1189 45 62 110
-407.519 -742.872 -1192 60 77 125
-406.333 -744.151 -1194 65 83 131
-405.141 -745.43 -1196 80 98 146
-403.942 -746.709 -1198 92 109 157
-402.736 -747.989 -1200 97 114 162
-401.524 -749.268 -1202 91 110 155
-399.973 -749.924 -1203 69 88 133
-398.749 -751.203 -1205 71 86 131
-397.849 -753.105 -1208 60 75 120
-396.611 -754.384 -1210 54 68 113
-395.366 -755.664 -1212 61 75 120
-394.115 -756.943 -1214 61 80 125
-392.535 -757.598 -1215 67 86 131
-391.272 -758.877 -1217 49 70 114
-390.003 -760.156 -1219 80 101 145
-389.046 -762.059 -1222 41 61 105
-388.396 -764.585 -1226 47 67 111
-387.734 -767.112 -1230 50 71 113
-387.372 -770.262 -1235 55 76 118
-386.682 -772.789 -1239 58 79 123
-385.669 -774.692 -1242 55 76 120
-385.573 -778.466 -1248 52 70 110
-385.15 -781.617 -1253 43 61 101
-384.712 -784.768 -1258 37 56 95
-386.083 -791.662 -1269 42 61 100
-386.512 -796.685 -1277 41 59 100
-597.982 -797.743 -1282 18 19 35
-590.418 -790.32 -1270 37 41 64
-584.281 -784.762 -1261 44 48 71
-580.943 -782.939 -1258 44 50 72
-577.153 -780.492 -1254 47 53 75
-573.834 -778.668 -1251 51 55 76
-570.981 -777.466 -1249 51 55 76
-568.134 -776.263 -1247 52 57 82
-564.839 -774.438 -1244 57 62 87
-561.1 -771.99 -1240 60 64 91
-557.374 -769.542 -1236 59 63 90
-554.109 -767.715 -1233 57 65 91
-550.405 -765.266 -1229 63 71 97
-546.267 -762.193 -1224 69 76 107
-543.033 -760.366 -1221 72 79 110
-540.695 -759.784 -1220 68 75 106
-537.477 -757.956 -1217 64 71 102
-533.827 -755.505 -1213 62 71 101
-531.067 -754.3 -1211 61 70 100
-528.313 -753.094 -1209 68 76 112
-524.694 -750.642 -1205 78 86 122
-521.521 -748.813 -1202 74 82 118
-518.789 -747.606 -1200 73 81 117
-515.632 -745.775 -1197 69 80 115
-512.913 -744.568 -1195 69 80 115
-510.201 -743.361 -1193 71 84 121
-507.921 -742.776 -1192 72 85 122
-505.218 -741.569 -1190 66 80 117
-502.945 -740.983 -1189 61 75 112
-500.675 -740.398 -1188 61 78 118
-498.407 -739.813 -1187 63 80 120
-496.142 -739.228 -1186 68 82 119
-493.881 -738.642 -1185 67 81 118
-491.622 -738.056 -1184 79 93 130
-490.193 -738.717 -1185 48 62 99
-487.936 -738.131 -1184 52 66 103
-486.504 -738.792 -1185 90 104 141
-484.659 -738.829 -1185 45 59 98
-482.406 -738.242 -1184 64 78 117
-480.563 -738.279 -1184 80 97 137
-478.314 -737.693 -1183 95 112 152
-476.069 -737.106 -1182 102 118 163
-473.826 -736.518 -1181 90 106 151
-471.586 -735.931 -1180 72 92 139
-469.349 -735.344 -1179 71 91 138
-467.115 -734.756 -1178 61 82 131
-465.674 -735.416 -1179 59 80 129
-463.836 -735.452 -1179 63 84 135
-462.389 -736.112 -1180 65 86 137
-460.939 -736.771 -1181 69 90 141
-459.486 -737.431 -1182 67 88 139
-457.643 -737.467 -1182 61 90 142
-455.413 -736.878 -1181 59 88 140
-453.57 -736.913 -1181 59 90 145
-450.962 -735.701 -1179 65 96 151
-449.122 -735.736 -1179 67 94 146
-447.282 -735.771 -1179 73 100 152
-445.819 -736.43 -1180 72 101 155
-444.353 -737.088 -1181 69 98 152
-442.884 -737.747 -1182 72 97 152
-441.411 -738.406 -1183 71 96 151
-439.563 -738.441 -1183 67 92 149
-437.715 -738.475 -1183 72 97 154
-435.498 -737.885 -1182 79 104 161
-433.651 -737.92 -1182 85 110 167
-431.804 -737.954 -1182 87 112 169
-429.957 -737.988 -1182 84 109 166
-428.471 -738.646 -1183 71 96 151
-426.622 -738.68 -1183 59 84 139
-424.772 -738.714 -1183 45 66 117
-423.28 -739.372 -1184 38 59 110
-421.784 -740.03 -1185 31 52 99
-420.285 -740.688 -1186 33 54 101
-418.076 -740.097 -1185 28 45 91
-416.222 -740.13 -1185 40 57 103
-414.718 -740.788 -1186 53 70 118
-412.862 -740.821 -1186 53 70 118
-411.006 -740.854 -1186 67 84 134
-409.149 -740.887 -1186 73 90 140
-407.979 -742.169 -1188 92 109 157
-407.145 -744.076 -1191 93 110 158
-405.96 -745.358 -1193 70 87 135
-404.431 -746.016 -1194 75 92 140
-403.235 -747.298 -1196 60 77 125
-402.032 -748.58 -1198 59 76 124
-400.824 -749.862 -1200 48 68 113
-399.941 -751.769 -1203 58 78 123
-398.717 -753.052 -1205 74 90 136
-397.817 -754.958 -1208 43 59 105
-396.579 -756.241 -1210 62 78 123
-395.008 -756.898 -1211 38 54 99
-393.759 -758.18 -1213 74 94 139
-392.18 -758.837 -1214 57 77 122
-390.919 -760.12 -1216 55 76 123
-389.651 -761.402 -1218 60 81 128
-388.696 -763.309 -1221 52 72 116
-388.048 -765.841 -1225 51 71 115
-387.702 -768.999 -1230 59 81 124
-387.34 -772.157 -1235 59 81 124
-386.338 -774.065 -1238 56 77 122
-385.637 -776.597 -1242 33 54 99
-385.232 -779.756 -1247 31 49 89
-384.504 -782.289 -1251 34 52 92
-384.374 -786.073 -1257 35 55 95
-384.834 -791.108 -1265 43 63 103
-385.269 -796.143 -1273 43 61 103
-598.403 -800.329 -1283 25 25 40
-590.374 -792.264 -1270 29 34 57
-584.237 -786.693 -1261 44 49 72
-581.361 -785.489 -1259 38 44 66
-577.11 -782.412 -1254 41 47 69
-574.249 -781.207 -1252 41 45 65
-571.395 -780.002 -1250 42 46 66
-569.003 -779.421 -1249 45 50 74
-565.705 -777.591 -1246 50 55 79
-561.963 -775.137 -1242 55 58 84
-557.783 -772.058 -1237 54 57 83
-554.067 -769.603 -1233 55 60 86
-550.364 -767.148 -1229 62 67 93
-546.226 -764.068 -1224 67 74 105
-543.437 -762.86 -1222 72 79 110
-540.655 -761.652 -1220 68 75 106
-537.437 -759.82 -1217 66 73 104
-533.787 -757.363 -1213 67 76 106
-530.589 -755.53 -1210 65 74 104
-527.399 -753.697 -1207 68 76 112
-524.219 -751.863 -1204 76 84 120
-521.047 -750.029 -1201 73 81 118
-517.885 -748.195 -1198 73 81 118
-515.162 -746.985 -1196 69 81 117
-512.445 -745.774 -1194 69 81 117
-510.162 -745.189 -1193 70 83 120
-507.456 -743.978 -1191 71 84 121
-504.755 -742.767 -1189 68 81 118
-502.484 -742.181 -1188 61 74 111
-500.637 -742.219 -1188 54 71 111
-498.369 -741.632 -1187 56 73 113
-496.105 -741.045 -1186 62 76 113
-493.843 -740.458 -1185 68 82 119
-491.999 -740.496 -1185 92 106 143
-490.155 -740.533 -1185 65 79 116
-488.311 -740.571 -1185 61 75 112
-486.467 -740.608 -1185 98 112 149
-484.213 -740.02 -1184 43 58 97
-482.37 -740.057 -1184 40 55 94
-480.526 -740.094 -1184 59 74 115
-478.277 -739.506 -1183 58 73 114
-476.032 -738.918 -1182 49 64 109
-473.388 -737.704 -1180 76 91 136
-471.15 -737.115 -1179 79 100 148
-468.915 -736.526 -1178 69 90 138
-466.682 -735.937 -1177 74 96 146
-465.638 -737.223 -1179 66 88 138
-463.8 -737.26 -1179 66 88 139
-461.962 -737.296 -1179 64 86 137
-460.513 -737.956 -1180 66 87 138
-459.062 -738.618 -1181 71 92 143
-457.22 -738.653 -1181 71 99 151
-454.992 -738.063 -1180 63 91 143
-453.151 -738.099 -1180 61 91 147
-450.927 -737.508 -1179 65 95 151
-448.706 -736.918 -1178 67 94 146
-447.247 -737.578 -1179 71 98 150
-445.784 -738.239 -1180 73 102 156
-443.942 -738.274 -1180 70 99 153
-442.474 -738.934 -1181 74 99 155
-441.003 -739.595 -1182 69 94 150
-439.157 -739.629 -1182 67 92 149
-437.311 -739.664 -1182 68 93 150
-435.096 -739.072 -1181 77 102 159
-433.25 -739.106 -1181 87 112 169
-431.405 -739.14 -1181 87 112 169
-429.195 -738.549 -1180 70 95 152
-427.713 -739.208 -1181 56 81 136
-425.506 -738.616 -1180 50 75 130
-423.661 -738.65 -1180 36 57 109
-422.174 -739.31 -1181 36 57 109
-421.038 -740.595 -1183 39 60 107
-419.542 -741.255 -1184 51 72 119
-418.043 -741.914 -1185 59 76 122
-416.189 -741.947 -1185 73 90 136
-414.335 -741.981 -1185 97 114 162
-412.829 -742.64 -1186 108 125 173
-410.626 -742.047 -1185 86 104 154
-409.461 -743.332 -1187 71 89 139
-407.946 -743.991 -1188 65 82 130
-407.112 -745.903 -1191 63 80 128
-405.928 -747.188 -1193 47 64 112
-404.398 -747.847 -1194 70 87 135
-403.202 -749.132 -1196 56 73 121
-402 -750.418 -1198 54 71 119
-401.125 -752.329 -1201 55 76 120
-399.908 -753.614 -1203 34 55 99
-398.685 -754.9 -1205 88 105 151
-397.455 -756.185 -1207 43 60 106
-396.219 -757.47 -1209 63 80 125
-394.65 -758.129 -1210 41 58 103
-393.077 -758.788 -1211 60 81 126
-391.825 -760.073 -1213 52 73 118
-390.565 -761.358 -1215 63 85 135
-389.3 -762.643 -1217 57 79 129
-388.664 -765.182 -1221 74 94 138
-388.016 -767.721 -1225 65 85 129
-387.355 -770.259 -1229 55 76 121
-386.994 -773.425 -1234 43 64 109
-386.618 -776.591 -1239 43 64 109
-385.605 -778.503 -1242 37 58 103
-384.582 -780.415 -1245 34 52 93
-383.857 -782.954 -1249 44 62 103
-384.037 -787.374 -1256 41 63 103
-384.194 -791.794 -1263 40 62 102
-384.934 -797.469 -1272 44 63 106
-385.345 -802.516 -1280 48 67 110
-600.691 -805.419 -1288 72 71 85
-592.189 -796.709 -1274 25 31 53
-585.584 -790.499 -1264 32 38 60
-581.779 -788.041 -1260 33 39 61
-578.447 -786.208 -1257 34 40 62
-575.124 -784.375 -1254 37 41 61
-572.267 -783.167 -1252 37 41 61
-568.96 -781.333 -1249 38 42 65
-567.024 -781.375 -1249 43 47 70
-562.826 -778.29 -1244 49 50 76
-559.093 -775.829 -1240 51 52 78
-555.823 -773.994 -1237 53 57 82
-551.665 -770.907 -1232 61 65 90
-547.077 -767.194 -1226 67 74 105
-543.841 -765.358 -1223 73 80 111
-540.171 -762.895 -1219 67 74 105
-536.954 -761.058 -1216 64 71 102
-532.867 -757.969 -1211 67 76 106
-530.11 -756.757 -1209 66 75 105
-526.923 -754.92 -1206 68 76 112
-523.309 -752.455 -1202 74 82 118
-520.14 -750.617 -1199 69 76 114
-517.413 -749.404 -1197 70 77 115
-514.692 -748.191 -1195 66 79 116
-511.977 -746.977 -1193 64 77 114
-509.268 -745.764 -1191 61 75 112
-506.991 -745.176 -1190 63 77 114
-504.293 -743.962 -1188 63 76 113
-502.023 -743.374 -1187 57 70 107
-500.598 -744.039 -1188 55 72 112
-497.911 -742.824 -1186 61 78 118
-496.067 -742.862 -1186 59 73 110
-494.222 -742.9 -1186 68 82 119
-492.377 -742.938 -1186 88 102 139
-490.118 -742.349 -1185 73 87 124
-487.862 -741.76 -1184 61 75 112
-486.019 -741.797 -1184 99 113 150
-483.767 -741.208 -1183 39 56 94
-481.925 -741.245 -1183 45 62 100
-479.677 -740.655 -1182 64 78 119
-477.836 -740.692 -1182 73 87 128
-475.593 -740.102 -1181 50 63 110
-472.951 -738.885 -1179 45 58 105
-471.114 -738.922 -1179 76 97 146
-468.879 -738.331 -1178 77 98 147
-466.647 -737.741 -1177 74 97 148
-465.207 -738.403 -1178 78 101 152
-463.37 -738.44 -1178 77 100 151
-461.926 -739.102 -1179 68 91 142
-460.478 -739.765 -1180 72 93 144
-458.637 -739.801 -1180 72 93 144
-456.797 -739.836 -1180 67 94 146
-454.571 -739.245 -1179 66 93 145
-452.348 -738.653 -1178 64 93 149
-450.127 -738.062 -1177 70 99 155
-448.29 -738.097 -1177 71 98 150
-446.453 -738.131 -1177 72 99 151
-444.994 -738.794 -1178 75 104 158
-443.531 -739.456 -1179 71 100 154
-441.69 -739.49 -1179 75 102 158
-440.222 -740.152 -1180 69 96 152
-438.379 -740.187 -1180 69 95 153
-436.906 -740.849 -1181 69 95 153
-434.693 -740.256 -1180 82 107 164
-433.216 -740.917 -1181 85 110 167
-431.371 -740.951 -1181 69 94 151
-429.161 -740.358 -1180 50 75 132
-428.041 -741.647 -1182 73 98 153
-425.112 -739.798 -1179 112 137 192
-423.269 -739.832 -1179 85 106 159
-421.782 -740.493 -1180 80 101 154
-419.937 -740.527 -1180 85 105 152
-418.8 -741.815 -1182 99 119 166
-416.951 -741.848 -1182 105 122 168
-415.103 -741.882 -1182 83 100 146
-413.603 -742.542 -1183 73 90 138
-412.448 -743.831 -1185 66 83 131
-410.593 -743.864 -1185 63 83 132
-409.428 -745.152 -1187 55 75 124
-407.914 -745.813 -1188 54 71 119
-407.079 -747.729 -1191 80 97 145
-405.895 -749.018 -1193 56 72 120
-404.365 -749.678 -1194 67 83 131
-402.833 -750.339 -1195 65 82 130
-401.632 -751.627 -1197 45 62 110
-400.759 -753.543 -1200 70 92 133
-399.543 -754.832 -1202 35 57 98
-398.653 -756.748 -1205 77 97 142
-397.093 -757.408 -1206 60 80 125
-396.186 -759.325 -1209 56 76 121
-394.617 -759.985 -1210 54 74 119
-393.045 -760.645 -1211 63 84 129
-391.793 -761.933 -1213 71 92 137
-390.212 -762.594 -1214 68 91 144
-389.588 -765.138 -1218 64 87 140
-388.95 -767.683 -1222 56 76 121
-388.301 -770.228 -1226 46 66 111
-387.323 -772.144 -1229 37 58 105
-387.276 -775.946 -1235 37 58 105
-386.586 -778.491 -1239 39 60 105
-385.884 -781.036 -1243 45 66 111
-384.859 -782.953 -1246 45 63 105
-383.826 -784.87 -1249 41 59 101
-383.699 -788.672 -1255 37 59 100
-383.858 -793.103 -1262 39 61 102
