ply
format ascii 1.0
comment Created by Open3D
element vertex 1419
property double x
property double y
property double z
property uchar red
property uchar green
property uchar blue
end_header
-424.364 -1018.87 -1424 50 73 114
-422.729 -1020.34 -1426 43 66 107
-746.982 -1017.58 -1429 65 67 88
-741.657 -1013.36 -1423 69 71 92
-737.911 -1011.27 -1420 73 75 96
-733.139 -1007.77 -1415 69 73 96
-728.898 -1004.97 -1411 65 69 92
-725.184 -1002.89 -1408 68 74 96
-720.452 -999.378 -1403 73 79 101
-717.784 -998.719 -1402 70 84 107
-714.097 -996.634 -1399 72 86 109
-709.911 -993.837 -1395 71 85 110
-706.244 -991.753 -1392 70 84 109
-703.092 -990.382 -1390 72 83 111
-700.45 -989.721 -1389 73 84 112
-696.806 -987.637 -1386 73 84 112
-693.171 -985.553 -1383 76 87 115
-690.044 -984.181 -1381 71 86 115
-686.923 -982.807 -1379 65 80 109
-683.808 -981.434 -1377 66 81 115
-681.195 -980.776 -1376 69 84 118
-679.077 -980.828 -1376 72 89 123
-676.96 -980.881 -1376 82 99 133
-674.842 -980.934 -1376 84 101 137
-672.724 -980.987 -1376 84 101 137
-670.119 -980.327 -1375 84 101 135
-668.002 -980.38 -1375 81 98 132
-665.401 -979.72 -1374 82 99 135
-663.284 -979.773 -1374 82 99 135
-661.168 -979.826 -1374 82 99 135
-659.052 -979.878 -1374 83 100 136
-656.935 -979.931 -1374 81 99 137
-654.819 -979.985 -1374 83 101 139
-652.701 -980.037 -1374 81 99 137
-651.057 -980.803 -1375 76 94 132
-648.466 -980.142 -1374 75 93 131
-645.878 -979.481 -1373 75 93 131
-643.292 -978.821 -1372 71 89 129
-640.709 -978.159 -1371 71 89 129
-638.596 -978.212 -1371 71 89 129
-636.48 -978.263 -1371 68 86 126
-634.829 -979.03 -1372 71 89 129
-632.712 -979.081 -1372 71 89 129
-631.055 -979.848 -1373 73 90 130
-629.852 -981.326 -1375 70 87 127
-628.186 -982.092 -1376 63 81 121
-626.518 -982.858 -1377 61 79 119
-625.299 -984.337 -1379 63 80 120
-624.526 -986.531 -1382 62 79 119
-622.841 -987.296 -1383 61 81 123
-621.155 -988.062 -1384 57 77 119
-619.464 -988.827 -1385 57 79 122
-616.878 -988.164 -1384 56 78 121
-615.184 -988.93 -1385 55 77 120
-613.486 -989.695 -1386 54 76 119
-612.226 -991.174 -1388 47 71 114
-611.4 -993.368 -1391 47 71 114
-610.125 -994.847 -1393 49 71 114
-609.281 -997.041 -1396 48 70 113
-607.992 -998.521 -1398 51 73 116
-606.696 -1000 -1400 51 73 116
-605.826 -1002.19 -1403 48 70 113
-604.085 -1002.96 -1404 49 71 114
-603.199 -1005.15 -1407 51 73 116
-602.303 -1007.35 -1410 51 73 116
-600.547 -1008.11 -1411 48 68 112
-598.786 -1008.88 -1412 44 64 108
-596.6 -1008.93 -1412 41 61 105
-595.256 -1010.41 -1414 38 58 102
-594.324 -1012.6 -1417 40 58 102
-593.383 -1014.8 -1420 40 58 102
-592.432 -1016.99 -1423 39 59 101
-592.301 -1020.61 -1428 38 58 100
-590.915 -1022.09 -1430 42 60 96
-590.345 -1025 -1434 35 53 89
-589.353 -1027.2 -1437 21 36 65
-587.125 -1027.25 -1437 13 28 57
-584.897 -1027.3 -1437 31 45 74
-582.263 -1026.63 -1436 38 52 81
-578.42 -1023.82 -1432 43 57 86
-574.992 -1021.72 -1429 45 59 88
-571.974 -1020.34 -1427 51 62 92
-568.562 -1018.25 -1424 55 66 96
-564.761 -1015.43 -1420 54 68 97
-560.576 -1011.91 -1415 54 68 97
-557.196 -1009.81 -1412 55 72 103
-553.825 -1007.71 -1409 54 71 102
-550.462 -1005.61 -1406 56 71 103
-547.889 -1004.94 -1405 62 77 109
-545.707 -1004.99 -1405 62 80 116
-543.525 -1005.04 -1405 62 80 116
-541.342 -1005.08 -1405 64 81 119
-538.392 -1003.7 -1403 60 77 115
-535.829 -1003.03 -1402 57 74 112
-532.509 -1000.93 -1399 61 78 116
-529.955 -1000.26 -1398 64 81 119
-527.027 -998.871 -1396 65 82 120
-524.104 -997.485 -1394 67 84 124
-521.562 -996.814 -1393 68 85 125
-519.396 -996.859 -1393 70 87 127
-517.229 -996.904 -1393 74 91 131
-514.692 -996.232 -1392 80 97 137
-512.158 -995.56 -1391 80 97 137
-509.261 -994.172 -1389 81 99 139
-507.099 -994.216 -1389 83 101 141
-504.21 -992.828 -1387 79 97 139
-500.965 -990.724 -1384 74 92 134
-498.45 -990.05 -1383 71 91 133
-495.938 -989.377 -1382 72 92 134
-493.786 -989.42 -1382 74 94 136
-491.277 -988.746 -1381 77 97 139
-489.127 -988.788 -1381 79 99 143
-486.975 -988.83 -1381 78 98 142
-484.823 -988.872 -1381 75 97 140
-482.322 -988.198 -1380 74 96 139
-480.171 -988.239 -1380 77 98 143
-478.367 -988.997 -1381 82 103 148
-475.869 -988.322 -1380 81 102 147
-474.061 -989.079 -1381 78 99 144
-471.908 -989.12 -1381 76 97 142
-470.094 -989.877 -1382 76 97 142
-467.939 -989.917 -1382 78 98 143
-466.121 -990.674 -1383 78 98 143
-464.299 -991.431 -1384 79 99 144
-462.14 -991.471 -1384 81 101 146
-459.98 -991.511 -1384 80 101 146
-458.151 -992.267 -1385 78 99 144
-455.66 -991.59 -1384 77 98 143
-453.5 -991.63 -1384 76 97 142
-451.666 -992.385 -1385 72 96 142
-449.503 -992.424 -1385 70 94 140
-447.664 -993.18 -1386 67 93 139
-446.142 -994.652 -1388 68 94 140
-444.614 -996.124 -1390 66 92 138
-443.08 -997.596 -1392 66 92 138
-441.222 -998.351 -1393 65 91 137
-439.676 -999.823 -1395 64 90 136
-438.123 -1001.29 -1397 62 88 134
-435.628 -1000.62 -1396 58 84 130
-433.446 -1000.65 -1396 56 82 128
-432.191 -1002.84 -1399 58 84 130
-430.926 -1005.03 -1402 58 82 128
-429.346 -1006.5 -1404 59 83 129
-428.368 -1009.41 -1408 54 80 126
-427.377 -1012.31 -1412 49 75 121
-426.674 -1015.93 -1417 51 75 121
-425.656 -1018.84 -1421 48 72 118
-424.029 -1020.31 -1423 50 72 113
-746.405 -1019.03 -1428 63 66 87
-741.084 -1014.8 -1422 67 70 91
-736.82 -1012 -1418 72 75 96
-733.086 -1009.91 -1415 68 72 94
-729.878 -1008.54 -1413 65 69 91
-725.132 -1005.02 -1408 67 73 95
-720.399 -1001.5 -1403 71 77 99
-717.731 -1000.84 -1402 68 82 105
-713.534 -998.04 -1398 72 86 109
-710.367 -996.665 -1396 71 85 110
-706.699 -994.576 -1393 70 84 109
-703.544 -993.2 -1391 71 82 110
-700.901 -992.539 -1390 73 84 112
-697.256 -990.45 -1387 73 84 112
-694.12 -989.074 -1385 76 87 115
-690.99 -987.699 -1383 72 87 116
-687.867 -986.323 -1381 65 80 109
-684.252 -984.233 -1378 65 80 114
-681.637 -983.572 -1377 69 84 118
-679.025 -982.911 -1376 77 94 128
-676.415 -982.249 -1375 85 102 136
-674.299 -982.302 -1375 87 104 139
-672.183 -982.355 -1375 87 104 139
-669.578 -981.693 -1374 86 103 137
-667.463 -981.746 -1374 81 98 132
-665.348 -981.798 -1374 80 97 132
-663.232 -981.852 -1374 81 98 133
-660.634 -981.189 -1373 80 97 132
-658.999 -981.957 -1374 81 98 133
-656.882 -982.009 -1374 81 99 136
-655.242 -982.777 -1375 83 101 138
-652.649 -982.115 -1374 82 100 137
-651.005 -982.882 -1375 78 96 133
-648.886 -982.935 -1375 77 95 133
-646.296 -982.272 -1374 76 94 132
-643.24 -980.895 -1372 74 92 132
-640.657 -980.232 -1371 73 91 131
-638.543 -980.285 -1371 73 91 131
-636.429 -980.337 -1371 69 87 127
-634.777 -981.104 -1372 72 90 130
-632.66 -981.156 -1372 73 91 131
-631.003 -981.924 -1373 77 94 134
-629.342 -982.69 -1374 76 93 133
-628.135 -984.172 -1376 68 86 126
-626.466 -984.94 -1377 68 86 126
-624.793 -985.706 -1378 70 85 126
-624.022 -987.905 -1381 67 82 123
-622.34 -988.672 -1382 65 84 126
-621.103 -990.154 -1384 60 79 121
-618.518 -989.49 -1383 59 81 124
-616.827 -990.257 -1384 57 79 122
-615.577 -991.739 -1386 59 81 124
-613.436 -991.792 -1386 55 77 120
-612.175 -993.273 -1388 46 70 113
-610.909 -994.756 -1390 46 70 113
-610.074 -996.954 -1393 49 71 114
-609.666 -999.867 -1397 49 71 114
-608.375 -1001.35 -1399 52 73 117
-606.645 -1002.12 -1400 51 72 116
-605.343 -1003.6 -1402 47 69 112
-604.465 -1005.8 -1405 46 68 111
-602.72 -1006.56 -1406 47 69 112
-601.398 -1008.05 -1408 48 70 113
-600.07 -1009.53 -1410 44 65 109
-598.736 -1011.01 -1412 43 64 108
-597.395 -1012.5 -1414 44 64 108
-595.626 -1013.26 -1415 43 63 107
-595.112 -1016.18 -1419 43 62 106
-594.168 -1018.37 -1422 39 58 102
-593.215 -1020.57 -1425 34 55 98
-591.836 -1022.06 -1427 35 56 99
-590.865 -1024.26 -1430 41 59 96
-590.295 -1027.17 -1434 33 51 88
-588.893 -1028.65 -1436 20 35 64
-586.667 -1028.7 -1436 17 32 61
-584.44 -1028.75 -1436 37 51 80
-581.403 -1027.37 -1434 41 55 84
-577.967 -1025.27 -1431 43 57 86
-574.943 -1023.89 -1429 44 58 87
-571.925 -1022.5 -1427 51 61 91
-568.513 -1020.4 -1424 53 63 93
-565.508 -1019.02 -1422 52 64 94
-561.321 -1015.48 -1417 55 67 97
-557.149 -1011.95 -1412 58 75 106
-553.778 -1009.84 -1409 57 74 105
-550.807 -1008.46 -1407 57 72 104
-547.843 -1007.07 -1405 61 76 108
-545.272 -1006.4 -1404 59 77 112
-543.092 -1006.45 -1404 58 76 111
-540.525 -1005.78 -1403 60 77 114
-538.346 -1005.82 -1403 56 73 110
-535.784 -1005.15 -1402 57 74 112
-532.844 -1003.76 -1400 58 75 113
-529.91 -1002.37 -1398 58 75 113
-527.359 -1001.7 -1397 60 77 115
-524.435 -1000.31 -1395 61 78 118
-521.892 -999.641 -1394 62 79 119
-519.351 -998.968 -1393 65 82 122
-517.185 -999.013 -1393 70 87 127
-514.648 -998.34 -1392 75 92 132
-512.114 -997.667 -1391 76 93 133
-509.217 -996.276 -1389 79 97 137
-507.055 -996.319 -1389 82 100 140
-504.167 -994.929 -1387 82 100 142
-500.922 -992.82 -1384 80 98 140
-498.767 -992.863 -1384 80 100 142
-495.895 -991.471 -1382 85 105 147
-493.386 -990.796 -1381 84 104 146
-490.88 -990.121 -1380 83 103 145
-488.376 -989.446 -1379 82 103 147
-486.58 -990.205 -1380 81 102 146
-484.08 -989.529 -1379 80 102 145
-481.931 -989.571 -1379 80 102 145
-480.13 -990.331 -1380 83 104 149
-478.672 -991.807 -1382 85 106 151
-475.828 -990.413 -1380 85 106 151
-474.02 -991.172 -1381 82 103 148
-471.867 -991.213 -1381 81 102 147
-470.054 -991.971 -1382 82 103 148
-468.237 -992.73 -1383 83 104 149
-466.417 -993.488 -1384 83 104 149
-464.259 -993.528 -1384 83 103 148
-462.433 -994.286 -1385 81 101 146
-460.605 -995.044 -1386 83 104 149
-458.111 -994.366 -1385 80 101 146
-455.621 -993.688 -1384 78 99 144
-453.461 -993.727 -1384 78 99 144
-451.626 -994.485 -1385 72 97 142
-449.464 -994.524 -1385 68 93 138
-447.302 -994.563 -1385 65 91 137
-446.103 -996.756 -1388 65 91 137
-444.256 -997.513 -1389 67 93 139
-442.723 -998.988 -1391 65 91 137
-441.183 -1000.46 -1393 61 87 133
-439.638 -1001.94 -1395 61 87 133
-438.399 -1004.13 -1398 63 89 135
-435.902 -1003.45 -1397 63 89 135
-433.719 -1003.49 -1397 60 86 132
-432.462 -1005.68 -1400 59 85 131
-430.889 -1007.16 -1402 60 85 131
-429.614 -1009.35 -1405 60 85 131
-428.635 -1012.26 -1409 55 81 127
-427.642 -1015.17 -1413 48 74 120
-426.637 -1018.08 -1417 50 74 119
-425.319 -1020.28 -1420 48 72 117
-423.396 -1021.03 -1421 51 73 114
-422.062 -1023.22 -1424 46 68 109
-745.831 -1020.48 -1427 59 63 84
-740.511 -1016.24 -1421 64 68 89
-736.768 -1014.15 -1418 69 73 94
-734.07 -1013.49 -1417 68 72 93
-729.826 -1010.68 -1413 66 70 91
-725.078 -1007.15 -1408 66 72 94
-720.861 -1004.35 -1404 69 75 97
-717.679 -1002.97 -1402 66 80 103
-714.502 -1001.59 -1400 71 85 108
-710.823 -999.495 -1397 72 86 111
-707.153 -997.401 -1394 69 83 108
-703.998 -996.023 -1392 71 82 110
-701.353 -995.36 -1391 73 84 112
-697.706 -993.266 -1388 73 84 112
-694.569 -991.887 -1386 75 86 114
-691.437 -990.508 -1384 73 88 117
-688.311 -989.129 -1382 68 83 112
-684.199 -986.319 -1378 67 82 116
-681.089 -984.94 -1376 72 87 121
-678.479 -984.277 -1375 77 94 128
-676.362 -984.329 -1375 84 101 135
-674.246 -984.382 -1375 86 103 137
-671.641 -983.719 -1374 87 104 138
-669.038 -983.055 -1373 83 100 134
-667.411 -983.824 -1374 76 93 127
-665.295 -983.876 -1374 78 95 129
-662.696 -983.213 -1373 82 99 133
-660.581 -983.265 -1373 80 97 131
-658.946 -984.034 -1374 80 97 131
-656.83 -984.087 -1374 81 99 135
-655.189 -984.856 -1375 83 101 137
-652.596 -984.193 -1374 81 99 135
-650.952 -984.961 -1375 79 97 133
-648.833 -985.013 -1375 78 96 134
-646.243 -984.35 -1374 78 96 134
-643.187 -982.969 -1372 78 96 136
-641.072 -983.022 -1372 76 94 134
-638.491 -982.357 -1371 75 93 133
-636.377 -982.41 -1371 70 88 128
-634.725 -983.179 -1372 73 91 131
-632.608 -983.23 -1372 73 91 131
-630.951 -983.999 -1373 77 94 134
-629.748 -985.484 -1375 77 94 134
-627.627 -985.536 -1375 73 90 130
-625.959 -986.305 -1376 74 91 131
-624.288 -987.073 -1377 73 87 128
-623.066 -988.558 -1379 69 83 124
-621.837 -990.043 -1381 66 84 126
-620.154 -990.813 -1382 61 79 121
-618.466 -991.581 -1383 58 80 123
-616.775 -992.349 -1384 55 77 120
-615.526 -993.835 -1386 56 78 121
-613.384 -993.886 -1386 55 77 120
-612.124 -995.372 -1388 48 72 115
-610.858 -996.857 -1390 50 74 117
-610.461 -999.777 -1394 54 76 119
-609.615 -1001.98 -1397 54 76 119
-607.89 -1002.75 -1398 55 75 119
-606.594 -1004.23 -1400 53 73 117
-605.724 -1006.44 -1403 47 69 112
-604.844 -1008.64 -1406 43 65 108
-603.097 -1009.41 -1407 43 65 108
-601.347 -1010.18 -1408 45 67 110
-600.019 -1011.66 -1410 45 67 110
-598.685 -1013.15 -1412 47 69 112
-597.344 -1014.63 -1414 48 68 112
-595.997 -1016.12 -1416 45 65 109
-595.062 -1018.32 -1419 41 61 106
-594.118 -1020.53 -1422 38 58 103
-592.748 -1022.01 -1424 35 57 100
-592.201 -1024.93 -1428 37 59 102
-591.228 -1027.14 -1431 41 59 97
-590.245 -1029.34 -1434 28 46 84
-588.433 -1030.11 -1435 18 33 62
-586.617 -1030.88 -1436 25 40 69
-584.391 -1030.93 -1436 41 56 85
-581.353 -1029.54 -1434 42 57 86
-577.514 -1026.72 -1430 43 57 86
-574.492 -1025.33 -1428 45 59 88
-571.476 -1023.94 -1426 52 61 91
-568.465 -1022.56 -1424 52 61 91
-565.063 -1020.45 -1421 51 62 92
-560.877 -1016.91 -1416 56 67 97
-557.496 -1014.8 -1413 57 74 106
-554.124 -1012.69 -1410 59 76 108
-551.151 -1011.3 -1408 62 77 109
-547.796 -1009.2 -1405 63 78 110
-545.225 -1008.52 -1404 56 75 108
-542.658 -1007.85 -1403 54 73 106
-540.479 -1007.9 -1403 58 75 111
-538.3 -1007.95 -1403 57 74 110
-535.355 -1006.55 -1401 58 75 113
-532.798 -1005.88 -1400 58 75 113
-529.864 -1004.49 -1398 57 74 112
-527.314 -1003.82 -1397 56 73 111
-524.766 -1003.14 -1396 55 72 112
-521.847 -1001.75 -1394 54 71 111
-519.307 -1001.08 -1393 57 74 114
-516.769 -1000.4 -1392 61 78 118
-514.234 -999.729 -1391 65 82 122
-512.07 -999.773 -1391 68 85 125
-509.173 -998.38 -1389 72 89 129
-506.647 -997.704 -1388 75 92 132
-503.76 -996.31 -1386 75 93 135
-500.879 -994.916 -1384 76 94 136
-498.725 -994.959 -1384 78 98 140
-495.853 -993.564 -1382 84 104 146
-492.986 -992.168 -1380 84 104 146
-490.482 -991.492 -1379 81 101 143
-488.334 -991.534 -1379 79 101 144
-485.833 -990.857 -1378 81 103 146
-483.687 -990.899 -1378 83 105 148
-481.54 -990.942 -1378 85 107 150
-480.089 -992.421 -1380 87 108 153
-477.938 -992.462 -1380 87 108 153
-476.132 -993.223 -1381 88 109 154
-473.979 -993.264 -1381 86 107 152
-472.168 -994.024 -1382 84 105 150
-470.353 -994.784 -1383 82 103 148
-468.197 -994.825 -1383 83 104 149
-466.377 -995.585 -1384 86 107 152
-464.218 -995.625 -1384 87 107 152
-462.393 -996.385 -1385 85 105 150
-460.232 -996.425 -1385 84 105 150
-458.072 -996.465 -1385 81 102 147
-456.239 -997.224 -1386 79 100 145
-453.749 -996.544 -1385 77 98 143
-451.913 -997.303 -1386 71 97 141
-449.425 -996.623 -1385 67 93 137
-447.263 -996.662 -1385 63 91 136
-446.064 -998.86 -1388 63 91 136
-443.897 -998.899 -1388 66 94 139
-442.366 -1000.38 -1390 62 90 135
-440.828 -1001.85 -1392 57 85 130
-439.599 -1004.05 -1395 56 84 129
-438.047 -1005.53 -1397 61 87 133
-435.864 -1005.57 -1397 63 89 135
-433.992 -1006.33 -1398 62 88 134
-432.424 -1007.8 -1400 62 88 134
-430.851 -1009.28 -1402 60 86 132
-429.577 -1011.48 -1405 59 85 131
-428.597 -1014.4 -1409 56 82 128
-427.604 -1017.31 -1413 49 75 121
-426.298 -1019.51 -1416 49 73 117
-424.982 -1021.71 -1419 46 70 114
-424.253 -1025.35 -1424 47 69 110
-422.322 -1026.1 -1425 43 65 106
-746.825 -1024.08 -1429 57 60 81
-741.501 -1019.83 -1423 62 66 87
-738.275 -1018.45 -1421 66 70 91
-734.018 -1015.64 -1417 67 71 92
-729.258 -1012.1 -1412 66 70 91
-725.027 -1009.29 -1408 66 72 93
-721.322 -1007.19 -1405 67 73 94
-719.162 -1007.24 -1405 65 79 101
-714.96 -1004.43 -1401 71 85 107
-710.77 -1001.61 -1397 75 88 113
-706.594 -998.797 -1393 71 84 109
-703.44 -997.414 -1391 71 82 110
-700.797 -996.749 -1390 73 84 112
-697.653 -995.367 -1388 74 85 113
-694.516 -993.985 -1386 74 85 113
-691.384 -992.603 -1384 73 88 117
-688.26 -991.221 -1382 70 85 114
-685.139 -989.838 -1380 68 84 118
-682.027 -988.457 -1378 72 88 122
-679.413 -987.792 -1377 74 91 124
-677.294 -987.844 -1377 78 95 128
-675.174 -987.897 -1377 80 97 131
-672.077 -986.515 -1375 84 101 135
-669.473 -985.85 -1374 82 99 133
-667.358 -985.902 -1374 75 92 126
-665.242 -985.955 -1374 77 94 128
-662.644 -985.29 -1373 80 97 131
-660.529 -985.342 -1373 79 96 130
-658.415 -985.395 -1373 79 96 130
-656.299 -985.447 -1373 81 99 135
-654.661 -986.218 -1374 81 99 135
-652.544 -986.27 -1374 79 97 133
-650.427 -986.323 -1374 78 96 132
-648.309 -986.375 -1374 79 97 135
-645.72 -985.709 -1373 80 98 136
-643.604 -985.761 -1373 78 96 136
-641.488 -985.814 -1373 75 93 133
-638.904 -985.148 -1372 75 93 133
-637.253 -985.918 -1373 73 91 131
-635.597 -986.688 -1374 75 93 133
-633.478 -986.74 -1374 73 91 131
-631.359 -986.792 -1374 76 93 133
-629.697 -987.563 -1375 77 94 134
-628.031 -988.332 -1376 75 90 131
-625.908 -988.385 -1376 75 90 131
-623.783 -988.436 -1376 71 85 126
-622.111 -989.206 -1377 67 81 122
-621.336 -991.413 -1380 65 83 125
-619.653 -992.183 -1381 60 78 120
-617.521 -992.235 -1381 57 79 122
-616.279 -993.723 -1383 52 74 117
-615.031 -995.212 -1385 53 75 118
-613.333 -995.981 -1386 53 75 118
-612.073 -997.47 -1388 48 72 115
-611.246 -999.677 -1391 49 73 116
-610.848 -1002.6 -1395 52 74 117
-609.563 -1004.09 -1397 52 74 117
-607.839 -1004.86 -1398 55 75 119
-607.41 -1007.79 -1402 52 72 116
-606.104 -1009.28 -1404 44 65 109
-604.793 -1010.77 -1406 42 63 107
-603.047 -1011.54 -1407 43 65 108
-600.869 -1011.59 -1407 45 67 110
-599.543 -1013.08 -1409 44 66 109
-598.21 -1014.56 -1411 46 68 111
-596.871 -1016.05 -1413 46 66 110
-595.947 -1018.26 -1416 42 62 106
-595.012 -1020.47 -1419 38 58 103
-594.067 -1022.68 -1422 37 57 102
-593.114 -1024.88 -1425 36 58 101
-592.15 -1027.09 -1428 38 60 103
-591.178 -1029.3 -1431 38 57 95
-590.195 -1031.51 -1434 20 39 77
-588.793 -1033 -1436 14 29 58
-586.567 -1033.05 -1436 30 45 74
-583.934 -1032.38 -1435 42 57 86
-581.304 -1031.71 -1434 43 58 87
-577.869 -1029.6 -1431 44 58 87
-574.443 -1027.49 -1428 47 61 90
-571.427 -1026.1 -1426 55 64 94
-568.416 -1024.71 -1424 53 62 92
-565.014 -1022.6 -1421 50 61 91
-561.225 -1019.77 -1417 54 65 95
-558.237 -1018.38 -1415 53 70 102
-554.862 -1016.27 -1412 58 75 107
-551.887 -1014.87 -1410 63 78 110
-548.139 -1012.04 -1406 64 79 111
-545.567 -1011.37 -1405 56 75 108
-542.999 -1010.7 -1404 54 73 106
-540.433 -1010.02 -1403 60 77 113
-537.87 -1009.35 -1402 61 78 114
-535.31 -1008.67 -1401 59 76 114
-532.752 -1008 -1400 60 77 115
-529.819 -1006.61 -1398 58 75 113
-527.268 -1005.93 -1397 53 70 108
-523.969 -1003.82 -1394 50 67 107
-521.427 -1003.14 -1393 50 67 107
-519.262 -1003.19 -1393 53 70 110
-516.724 -1002.51 -1392 56 73 113
-514.19 -1001.83 -1391 62 79 119
-511.658 -1001.16 -1390 67 84 124
-509.496 -1001.2 -1390 69 86 126
-506.968 -1000.53 -1389 67 84 124
-503.716 -998.408 -1386 64 82 124
-500.836 -997.012 -1384 62 80 122
-498.682 -997.054 -1384 62 83 125
-495.81 -995.656 -1382 67 88 130
-493.301 -994.978 -1381 75 95 137
-490.439 -993.58 -1379 76 96 138
-487.938 -992.902 -1378 78 100 143
-485.792 -992.944 -1378 78 100 143
-483.645 -992.986 -1378 78 99 143
-481.498 -993.028 -1378 80 101 145
-479.699 -993.79 -1379 81 102 147
-477.897 -994.552 -1380 81 102 147
-476.435 -996.035 -1382 82 103 148
-474.281 -996.076 -1382 82 103 148
-472.127 -996.117 -1382 82 103 148
-470.313 -996.879 -1383 80 101 146
-468.156 -996.92 -1383 80 101 146
-466.336 -997.681 -1384 84 105 150
-464.513 -998.443 -1385 86 107 152
-462.353 -998.483 -1385 83 104 149
-460.193 -998.523 -1385 81 102 147
-458.362 -999.284 -1386 78 99 144
-456.529 -1000.04 -1387 74 95 140
-454.037 -999.364 -1386 73 94 139
-451.874 -999.403 -1386 68 94 138
-449.71 -999.442 -1386 66 92 136
-447.547 -999.482 -1386 62 90 135
-445.383 -999.521 -1386 62 90 135
-443.858 -1001 -1388 62 90 135
-442.327 -1002.48 -1390 59 87 132
-440.79 -1003.96 -1392 54 82 127
-439.56 -1006.17 -1395 53 81 126
-438.008 -1007.65 -1397 57 83 129
-436.138 -1008.41 -1398 58 84 130
-434.264 -1009.17 -1399 58 84 130
-432.386 -1009.93 -1400 61 87 133
-430.506 -1010.69 -1401 60 86 132
-429.539 -1013.61 -1405 59 85 131
-428.863 -1017.25 -1410 58 84 129
-427.869 -1020.18 -1414 50 76 121
-426.863 -1023.1 -1418 48 72 116
-425.843 -1026.02 -1422 42 66 110
-424.513 -1028.23 -1425 43 65 106
-747.296 -1026.97 -1430 59 61 82
-741.972 -1022.71 -1424 63 67 88
-737.704 -1019.89 -1420 67 71 92
-733.966 -1017.79 -1417 67 71 92
-729.722 -1014.96 -1413 67 71 92
-726.005 -1012.86 -1410 66 72 92
-723.324 -1012.19 -1409 69 75 95
-718.087 -1007.94 -1403 65 79 100
-713.888 -1005.11 -1399 70 84 105
-709.701 -1002.29 -1395 75 87 112
-705.527 -999.468 -1391 72 84 109
-703.893 -1000.24 -1392 70 81 109
-700.24 -998.135 -1389 70 81 109
-697.098 -996.75 -1387 71 82 110
-694.463 -996.083 -1386 72 83 111
-691.332 -994.698 -1384 72 87 116
-688.705 -994.032 -1383 72 87 116
-685.088 -991.928 -1380 68 85 119
-682.469 -991.261 -1379 71 88 122
-679.854 -990.594 -1378 73 90 122
-677.733 -990.647 -1378 75 92 124
-675.122 -989.98 -1377 78 95 129
-672.025 -988.595 -1375 84 101 135
-669.908 -988.647 -1375 84 101 135
-667.791 -988.7 -1375 80 97 131
-665.189 -988.032 -1374 81 98 132
-662.591 -987.366 -1373 79 96 130
-660.477 -987.418 -1373 80 97 131
-657.882 -986.751 -1372 79 96 130
-656.247 -987.523 -1373 79 97 133
-654.131 -987.575 -1373 78 96 132
-652.016 -987.628 -1373 77 95 131
-649.901 -987.681 -1373 78 96 132
-647.784 -987.732 -1373 79 97 135
-646.139 -988.504 -1374 81 99 137
-644.02 -988.556 -1374 80 98 138
-641.435 -987.889 -1373 77 95 135
-638.387 -986.502 -1371 79 97 137
-637.201 -987.993 -1373 79 97 137
-635.546 -988.765 -1374 80 98 138
-632.965 -988.097 -1373 76 94 134
-631.766 -989.589 -1375 78 95 135
-630.103 -990.36 -1376 79 96 136
-627.979 -990.412 -1376 77 91 132
-625.855 -990.464 -1376 75 89 130
-623.732 -990.516 -1376 70 84 125
-621.608 -990.567 -1376 67 81 122
-620.384 -992.059 -1378 64 82 124
-618.705 -992.831 -1379 57 75 117
-617.469 -994.322 -1381 56 78 121
-616.227 -995.813 -1383 52 74 117
-614.535 -996.584 -1384 54 76 119
-613.282 -998.076 -1386 53 75 118
-612.462 -1000.29 -1389 45 69 112
-611.634 -1002.5 -1392 42 66 109
-610.796 -1004.71 -1395 45 67 110
-609.512 -1006.2 -1397 46 68 111
-608.657 -1008.42 -1400 50 70 114
-607.358 -1009.91 -1402 48 68 112
-605.622 -1010.68 -1403 40 60 104
-603.881 -1011.45 -1404 42 62 106
-601.71 -1011.5 -1404 45 67 110
-600.392 -1012.99 -1406 46 68 111
-599.067 -1014.48 -1408 43 65 108
-597.736 -1015.98 -1410 43 65 108
-596.82 -1018.19 -1413 44 64 108
-595.896 -1020.4 -1416 41 61 105
-594.961 -1022.61 -1419 38 58 103
-594.017 -1024.83 -1422 35 55 100
-593.064 -1027.04 -1425 33 55 98
-592.1 -1029.25 -1428 37 59 102
-591.128 -1031.46 -1431 37 58 95
-590.145 -1033.68 -1434 18 39 76
-588.333 -1034.45 -1435 12 27 56
-585.7 -1033.78 -1434 29 44 73
-583.477 -1033.83 -1434 41 56 85
-582.065 -1035.32 -1436 44 59 88
-578.224 -1032.48 -1432 47 61 90
-575.198 -1031.09 -1430 51 65 94
-572.58 -1030.42 -1429 57 66 96
-569.565 -1029.03 -1427 55 64 94
-565.761 -1026.19 -1423 51 62 92
-562.365 -1024.07 -1420 53 64 94
-558.584 -1021.24 -1416 54 71 103
-554.814 -1018.4 -1412 57 74 106
-552.231 -1017.73 -1411 59 74 106
-548.481 -1014.89 -1407 61 76 108
-545.52 -1013.49 -1405 57 76 109
-542.952 -1012.82 -1404 57 76 109
-540.387 -1012.14 -1403 63 80 116
-537.824 -1011.47 -1402 62 79 115
-535.263 -1010.79 -1401 61 78 116
-532.706 -1010.12 -1400 63 80 118
-530.152 -1009.44 -1399 61 78 116
-527.223 -1008.04 -1397 55 72 110
-524.3 -1006.65 -1395 50 67 107
-521.383 -1005.25 -1393 49 66 106
-519.217 -1005.29 -1393 52 69 109
-517.051 -1005.34 -1393 56 73 113
-514.515 -1004.66 -1392 62 79 119
-511.614 -1003.26 -1390 66 83 123
-509.452 -1003.31 -1390 67 84 124
-506.559 -1001.91 -1388 64 81 121
-503.673 -1000.51 -1386 59 77 119
-501.154 -999.827 -1385 58 76 118
-498.999 -999.871 -1385 55 77 118
-496.125 -998.47 -1383 57 79 120
-493.258 -997.069 -1381 64 84 126
-490.397 -995.668 -1379 70 90 132
-488.249 -995.71 -1379 75 97 140
-485.749 -995.03 -1378 75 97 140
-483.252 -994.35 -1377 73 94 139
-481.107 -994.392 -1377 72 93 138
-479.658 -995.878 -1379 74 95 140
-478.201 -997.364 -1381 74 95 140
-476.394 -998.128 -1382 74 95 140
-474.24 -998.169 -1382 77 98 143
-472.427 -998.932 -1383 79 100 145
-470.271 -998.973 -1383 78 99 144
-468.454 -999.737 -1384 77 98 143
-466.97 -1001.22 -1386 79 100 145
-464.473 -1000.54 -1385 79 100 145
-462.313 -1000.58 -1385 76 97 142
-460.152 -1000.62 -1385 77 98 143
-458.322 -1001.38 -1386 75 96 141
-456.489 -1002.15 -1387 72 93 138
-453.997 -1001.46 -1386 70 91 136
-451.834 -1001.5 -1386 65 91 135
-449.671 -1001.54 -1386 64 90 134
-447.508 -1001.58 -1386 62 90 135
-445.344 -1001.62 -1386 61 89 134
-443.82 -1003.1 -1388 62 90 135
-442.607 -1005.31 -1391 59 87 132
-440.751 -1006.07 -1392 55 83 128
-439.522 -1008.28 -1395 55 83 128
-437.97 -1009.76 -1397 58 84 130
-436.1 -1010.53 -1398 58 84 130
-434.226 -1011.29 -1399 59 85 131
-432.349 -1012.05 -1400 62 88 134
-430.775 -1013.53 -1402 61 87 133
-429.807 -1016.46 -1406 58 84 130
-428.826 -1019.39 -1410 58 84 128
-427.227 -1020.87 -1412 50 76 120
-427.427 -1026.7 -1420 47 71 115
-426.105 -1028.9 -1423 41 65 109
-424.476 -1030.39 -1425 42 64 105
-747.245 -1029.14 -1430 60 62 83
-743.484 -1027.03 -1427 66 69 90
-738.172 -1022.76 -1421 70 73 94
-733.916 -1019.94 -1417 70 74 96
-729.672 -1017.11 -1413 68 72 94
-726.469 -1015.72 -1411 66 72 93
-722.246 -1012.89 -1407 70 76 97
-717.522 -1009.34 -1402 66 80 101
-713.325 -1006.51 -1398 67 81 102
-709.141 -1003.68 -1394 73 85 109
-705.982 -1002.3 -1392 73 85 109
-703.336 -1001.63 -1391 70 81 109
-699.684 -999.519 -1388 68 79 107
-697.047 -998.852 -1387 68 79 107
-694.411 -998.182 -1386 70 81 109
-691.779 -997.513 -1385 71 86 114
-689.151 -996.846 -1384 71 86 114
-685.532 -994.736 -1381 66 83 117
-682.912 -994.068 -1380 68 85 119
-680.294 -993.399 -1379 72 89 121
-678.173 -993.452 -1379 73 90 122
-675.559 -992.783 -1378 77 94 128
-672.461 -991.395 -1376 82 99 133
-670.343 -991.447 -1376 81 98 132
-667.739 -990.779 -1375 81 98 132
-665.137 -990.111 -1374 84 101 135
-662.539 -989.442 -1373 79 96 130
-659.944 -988.774 -1372 81 98 132
-657.83 -988.826 -1372 79 96 130
-655.716 -988.877 -1372 78 96 132
-654.556 -990.372 -1374 76 94 130
-652.439 -990.424 -1374 76 94 130
-649.848 -989.755 -1373 77 95 131
-648.204 -990.529 -1374 77 95 133
-646.557 -991.302 -1375 80 98 136
-643.968 -990.633 -1374 84 102 142
-641.85 -990.685 -1374 81 99 139
-638.8 -989.295 -1372 81 99 139
-637.613 -990.789 -1374 79 97 137
-635.956 -991.563 -1375 79 97 137
-633.835 -991.615 -1375 73 91 131
-632.173 -992.387 -1376 75 92 132
-630.051 -992.44 -1376 77 94 134
-628.384 -993.213 -1377 77 92 133
-626.259 -993.264 -1377 74 89 130
-624.134 -993.317 -1377 70 84 125
-622.459 -994.089 -1378 70 84 125
-620.332 -994.141 -1378 65 83 125
-618.204 -994.192 -1378 55 73 115
-616.971 -995.687 -1380 55 76 120
-615.73 -997.181 -1382 53 74 118
-614.927 -999.397 -1385 55 76 120
-613.673 -1000.89 -1387 53 74 118
-612.411 -1002.39 -1389 46 69 112
-611.144 -1003.88 -1391 45 68 111
-610.307 -1006.1 -1394 46 68 111
-609.025 -1007.59 -1396 47 69 112
-607.736 -1009.09 -1398 48 69 113
-606.441 -1010.58 -1400 45 66 110
-605.139 -1012.08 -1402 43 63 107
-603.831 -1013.57 -1404 45 65 109
-602.088 -1014.34 -1405 48 70 113
-600.768 -1015.84 -1407 48 70 113
-599.442 -1017.33 -1409 45 67 110
-598.533 -1019.55 -1412 43 65 108
-597.193 -1021.05 -1414 43 63 107
-596.266 -1023.26 -1417 42 62 106
-595.749 -1026.2 -1421 38 57 101
-594.384 -1027.7 -1423 36 55 99
-593.013 -1029.19 -1425 35 57 100
-592.05 -1031.41 -1428 41 63 106
-591.077 -1033.63 -1431 43 64 102
-589.272 -1034.4 -1432 23 44 82
-587.462 -1035.17 -1433 13 28 58
-586.059 -1036.67 -1435 26 41 71
-583.428 -1035.99 -1434 42 56 85
-580.799 -1035.32 -1433 47 61 90
-578.174 -1034.65 -1432 52 64 94
-575.551 -1033.98 -1431 53 65 95
-572.13 -1031.86 -1428 56 65 95
-569.516 -1031.18 -1427 55 64 94
-565.315 -1027.62 -1422 51 63 93
-561.921 -1025.5 -1419 52 64 94
-558.141 -1022.66 -1415 56 72 103
-555.16 -1021.26 -1413 56 72 103
-552.575 -1020.58 -1412 56 71 102
-548.824 -1017.74 -1408 58 73 104
-545.862 -1016.34 -1406 56 75 108
-543.292 -1015.67 -1405 57 76 109
-540.34 -1014.27 -1403 64 80 116
-537.777 -1013.59 -1402 62 78 114
-534.835 -1012.19 -1400 60 77 115
-532.66 -1012.24 -1400 64 81 119
-530.106 -1011.56 -1399 65 82 120
-527.177 -1010.16 -1397 62 79 117
-524.255 -1008.76 -1395 58 75 115
-521.712 -1008.08 -1394 54 71 111
-519.172 -1007.4 -1393 54 71 111
-517.006 -1007.45 -1393 58 75 115
-514.471 -1006.77 -1392 63 81 121
-511.57 -1005.36 -1390 64 82 122
-509.041 -1004.69 -1389 66 84 124
-506.516 -1004.01 -1388 64 82 122
-503.629 -1002.6 -1386 62 80 122
-501.111 -1001.92 -1385 62 80 122
-498.955 -1001.97 -1385 59 80 122
-496.441 -1001.29 -1384 58 79 121
-493.572 -999.883 -1382 63 83 125
-490.71 -998.478 -1380 68 88 130
-488.207 -997.797 -1379 72 94 137
-486.06 -997.839 -1379 73 95 138
-483.561 -997.158 -1378 72 93 138
-481.764 -997.924 -1379 73 94 139
-479.964 -998.689 -1380 73 94 139
-478.16 -999.454 -1381 74 95 140
-476.353 -1000.22 -1382 75 96 141
-474.199 -1000.26 -1382 76 97 142
-472.045 -1000.3 -1382 75 96 141
-470.231 -1001.07 -1383 75 96 141
-468.075 -1001.11 -1383 75 96 141
-465.918 -1001.15 -1383 75 96 141
-463.762 -1001.19 -1383 75 96 141
-461.939 -1001.95 -1384 76 97 142
-460.112 -1002.72 -1385 75 98 141
-458.283 -1003.48 -1386 73 96 139
-456.449 -1004.25 -1387 73 94 139
-454.285 -1004.29 -1387 73 94 139
-452.447 -1005.05 -1388 68 94 138
-449.956 -1004.37 -1387 67 93 137
-448.114 -1005.13 -1388 66 92 138
-445.626 -1004.44 -1387 66 92 138
-444.1 -1005.93 -1389 65 91 137
-442.25 -1006.69 -1390 63 89 135
-440.713 -1008.18 -1392 58 86 131
-439.168 -1009.67 -1394 58 86 131
-437.618 -1011.16 -1396 62 88 134
-436.061 -1012.64 -1398 63 89 135
-434.188 -1013.41 -1399 62 88 134
-432.311 -1014.17 -1400 62 88 134
-430.737 -1015.66 -1402 58 83 129
-429.769 -1018.59 -1406 55 80 126
-428.18 -1020.08 -1408 54 80 124
-428.097 -1025.19 -1415 48 74 118
-427.691 -1029.57 -1421 47 71 115
-426.367 -1031.78 -1424 42 66 110
-424.736 -1033.27 -1426 40 62 103
-748.24 -1032.75 -1432 57 59 80
-743.954 -1029.92 -1428 65 67 88
-738.641 -1025.64 -1422 72 74 95
-734.383 -1022.81 -1418 73 77 100
-730.653 -1020.69 -1415 69 73 96
-725.903 -1017.14 -1410 65 71 93
-721.682 -1014.3 -1406 71 77 99
-717.472 -1011.47 -1402 66 80 101
-713.785 -1009.35 -1399 65 79 100
-709.599 -1006.52 -1395 72 84 107
-705.931 -1004.41 -1392 74 86 109
-703.285 -1003.74 -1391 73 84 112
-700.136 -1002.34 -1389 70 81 109
-697.498 -1001.67 -1388 72 83 111
-694.861 -1001 -1387 73 84 112
-692.227 -1000.33 -1386 71 86 113
-689.597 -999.662 -1385 70 85 112
-686.473 -998.271 -1383 65 82 116
-683.85 -997.601 -1382 68 85 119
-681.23 -996.93 -1381 70 87 119
-678.612 -996.26 -1380 73 90 122
-675.998 -995.591 -1379 77 94 128
-672.898 -994.199 -1377 79 96 130
-670.291 -993.528 -1376 75 92 126
-667.687 -992.859 -1375 78 95 129
-665.085 -992.188 -1374 85 102 136
-662.487 -991.518 -1373 80 97 131
-660.372 -991.57 -1373 80 97 131
-657.778 -990.9 -1372 79 96 130
-656.621 -992.397 -1374 79 97 133
-654.504 -992.449 -1374 76 94 130
-652.387 -992.502 -1374 75 93 129
-650.269 -992.553 -1374 76 94 130
-648.624 -993.328 -1375 75 93 131
-646.504 -993.38 -1375 79 97 135
-643.916 -992.709 -1374 84 102 142
-642.265 -993.484 -1375 80 98 138
-639.214 -992.092 -1373 79 97 137
-638.025 -993.589 -1375 74 92 132
-636.366 -994.363 -1376 72 90 130
-633.784 -993.692 -1375 66 84 124
-632.581 -995.189 -1377 69 86 126
-630.457 -995.241 -1377 71 88 128
-628.332 -995.294 -1377 73 90 130
-626.662 -996.068 -1378 69 86 126
-624.535 -996.119 -1378 68 82 123
-622.86 -996.894 -1379 70 84 125
-619.831 -995.5 -1377 63 81 123
-618.153 -996.274 -1378 51 69 111
-616.919 -997.771 -1380 54 74 118
-616.124 -999.992 -1383 55 75 119
-615.319 -1002.21 -1386 54 74 118
-614.063 -1003.71 -1388 53 73 117
-612.36 -1004.49 -1389 47 69 112
-611.531 -1006.71 -1392 46 68 111
-610.256 -1008.2 -1394 47 69 112
-608.974 -1009.7 -1396 47 69 112
-606.816 -1009.75 -1396 51 73 116
-605.957 -1011.97 -1399 51 73 116
-605.088 -1014.2 -1402 54 74 118
-603.78 -1015.69 -1404 53 73 117
-602.037 -1016.47 -1405 51 73 116
-599.863 -1016.52 -1405 50 72 115
-598.966 -1018.74 -1408 47 69 112
-598.058 -1020.96 -1411 44 66 109
-597.142 -1023.18 -1414 42 62 106
-596.215 -1025.4 -1417 40 60 104
-595.279 -1027.63 -1420 37 55 99
-594.334 -1029.85 -1423 37 55 99
-592.962 -1031.35 -1425 36 58 101
-591.999 -1033.57 -1428 41 63 106
-591.026 -1035.79 -1431 43 63 103
-588.809 -1035.84 -1431 23 43 83
-587.412 -1037.34 -1433 14 29 60
-585.6 -1038.11 -1434 27 42 73
-583.784 -1038.89 -1435 42 56 85
-580.749 -1037.49 -1433 48 62 91
-578.528 -1037.54 -1433 54 65 95
-575.502 -1036.14 -1431 53 64 94
-572.883 -1035.46 -1430 55 64 94
-569.867 -1034.07 -1428 56 65 95
-566.061 -1031.22 -1424 53 67 96
-562.269 -1028.37 -1420 53 67 96
-558.488 -1025.52 -1416 55 70 101
-555.112 -1023.39 -1413 56 71 102
-552.919 -1023.44 -1413 55 70 101
-548.777 -1019.87 -1408 57 72 103
-546.203 -1019.19 -1407 54 73 106
-543.245 -1017.79 -1405 56 75 108
-540.293 -1016.39 -1403 64 78 115
-537.731 -1015.71 -1402 63 77 114
-534.789 -1014.31 -1400 61 78 116
-531.854 -1012.9 -1398 63 80 118
-529.682 -1012.95 -1398 63 80 118
-526.755 -1011.55 -1396 64 81 119
-523.834 -1010.14 -1394 64 81 121
-520.918 -1008.74 -1392 60 77 117
-518.755 -1008.78 -1392 59 76 116
-516.591 -1008.83 -1392 64 81 121
-514.056 -1008.15 -1391 70 88 128
-511.525 -1007.47 -1390 71 89 129
-508.997 -1006.79 -1389 72 90 130
-506.107 -1005.38 -1387 71 89 129
-503.222 -1003.98 -1385 67 85 127
-500.706 -1003.29 -1384 66 84 126
-498.552 -1003.34 -1384 64 84 126
-496.039 -1002.66 -1383 63 83 125
-493.173 -1001.25 -1381 65 85 127
-490.667 -1000.57 -1380 68 88 130
-488.873 -1001.33 -1381 70 92 135
-486.722 -1001.38 -1381 70 92 135
-483.87 -999.969 -1379 71 92 137
-482.071 -1000.74 -1380 72 93 138
-480.27 -1001.5 -1381 73 94 139
-478.464 -1002.27 -1382 75 96 141
-476.656 -1003.04 -1383 75 96 141
-474.158 -1002.35 -1382 74 95 140
-472.004 -1002.39 -1382 74 95 140
-470.19 -1003.16 -1383 76 97 142
-468.034 -1003.2 -1383 78 99 144
-466.215 -1003.97 -1384 76 97 142
-464.057 -1004.01 -1384 76 97 142
-461.898 -1004.05 -1384 79 100 145
-460.072 -1004.82 -1385 75 99 142
-458.242 -1005.58 -1386 72 96 139
-456.409 -1006.35 -1387 74 95 140
-454.573 -1007.11 -1388 77 98 143
-452.407 -1007.15 -1388 74 100 144
-450.241 -1007.19 -1388 73 99 143
-448.398 -1007.96 -1389 71 97 143
-445.587 -1006.54 -1387 70 96 142
-444.061 -1008.03 -1389 65 91 137
-442.529 -1009.53 -1391 64 90 136
-440.674 -1010.29 -1392 59 87 132
-439.13 -1011.78 -1394 58 86 131
-437.58 -1013.27 -1396 62 88 134
-436.023 -1014.76 -1398 63 89 135
-434.15 -1015.52 -1399 61 87 133
-432.272 -1016.29 -1400 60 86 132
-430.699 -1017.78 -1402 59 83 129
-429.426 -1019.99 -1405 55 79 125
-428.75 -1023.66 -1410 53 79 123
-428.361 -1028.06 -1416 45 71 115
-427.352 -1031 -1420 45 69 113
-426.629 -1034.67 -1425 43 67 111
-425.592 -1037.61 -1429 43 65 106
-748.19 -1034.93 -1432 49 50 70
-743.904 -1032.09 -1428 59 61 83
-739.63 -1029.24 -1424 68 70 92
-736.404 -1027.85 -1422 69 72 95
-730.602 -1022.84 -1415 65 68 91
-726.882 -1020.72 -1412 62 70 91
-723.171 -1018.6 -1409 66 74 95
-718.444 -1015.04 -1404 62 74 94
-714.244 -1012.2 -1400 65 77 97
-710.056 -1009.36 -1396 73 86 109
-706.895 -1007.96 -1394 71 84 107
-704.245 -1007.29 -1393 72 83 110
-701.094 -1005.89 -1391 70 81 108
-697.948 -1004.5 -1389 72 85 113
-695.31 -1003.83 -1388 72 85 113
-692.675 -1003.15 -1387 71 85 113
-689.545 -1001.76 -1385 71 85 113
-685.925 -999.64 -1382 67 83 115
-683.798 -999.692 -1382 68 84 116
-681.178 -999.02 -1381 71 88 120
-678.56 -998.348 -1380 77 94 126
-675.946 -997.677 -1379 75 92 126
-673.335 -997.005 -1378 75 92 126
-670.726 -996.334 -1377 79 96 130
-668.12 -995.661 -1376 79 96 130
-665.517 -994.989 -1375 78 95 129
-662.917 -994.318 -1374 76 93 127
-660.32 -993.646 -1373 77 94 128
-658.206 -993.698 -1373 79 96 130
-656.091 -993.75 -1373 80 98 134
-653.975 -993.802 -1373 77 95 131
-652.334 -994.578 -1374 74 94 129
-649.744 -993.906 -1373 75 95 130
-647.628 -993.958 -1373 74 92 130
-645.042 -993.286 -1372 76 94 132
-643.396 -994.062 -1373 80 98 138
-641.279 -994.114 -1373 80 98 138
-638.697 -993.442 -1372 78 96 136
-637.973 -995.666 -1375 71 89 129
-635.852 -995.718 -1375 69 87 127
-633.732 -995.77 -1375 68 86 126
-632.529 -997.269 -1377 67 84 124
-630.405 -997.321 -1377 72 89 129
-628.736 -998.098 -1378 72 89 129
-626.61 -998.15 -1378 63 80 120
-624.483 -998.201 -1378 62 79 119
-622.356 -998.252 -1378 66 83 123
-620.229 -998.304 -1378 63 81 123
-618.999 -999.805 -1380 56 74 116
-617.761 -1001.3 -1382 57 76 120
-616.518 -1002.81 -1384 63 82 126
-615.712 -1005.03 -1387 58 77 121
-614.012 -1005.81 -1388 57 76 120
-612.75 -1007.31 -1390 54 76 118
-611.48 -1008.81 -1392 52 74 116
-610.205 -1010.31 -1394 50 73 116
-608.486 -1011.09 -1395 52 75 118
-606.33 -1011.14 -1395 56 77 121
-605.905 -1014.09 -1399 57 78 122
-604.605 -1015.59 -1401 59 80 124
-602.869 -1016.36 -1402 55 76 120
-601.129 -1017.14 -1403 47 69 112
-599.812 -1018.64 -1405 48 70 113
-598.915 -1020.87 -1408 49 71 114
-598.432 -1023.82 -1412 44 66 109
-597.091 -1025.32 -1414 41 61 105
-595.744 -1026.82 -1416 38 58 102
-595.228 -1029.77 -1420 35 55 101
-594.701 -1032.72 -1424 33 53 99
-593.328 -1034.22 -1426 35 55 99
-591.949 -1035.73 -1428 38 58 102
-590.976 -1037.95 -1431 34 56 94
-589.17 -1038.73 -1432 20 42 80
-587.362 -1039.5 -1433 16 32 61
-585.55 -1040.28 -1434 26 42 71
-583.734 -1041.05 -1435 39 53 82
-581.105 -1040.38 -1434 41 55 84
-578.478 -1039.7 -1433 47 58 88
-576.257 -1039.75 -1433 54 65 95
-573.634 -1039.08 -1432 53 64 93
-570.615 -1037.67 -1430 52 63 92
-566.41 -1034.09 -1425 54 68 98
-562.616 -1031.24 -1421 53 67 97
-558.834 -1028.39 -1417 56 71 102
-555.457 -1026.26 -1414 53 68 99
-552.871 -1025.58 -1413 52 67 98
-548.73 -1022 -1408 56 71 102
-546.544 -1022.04 -1408 57 74 108
-543.972 -1021.37 -1407 57 74 108
-540.632 -1019.23 -1404 59 75 111
-537.301 -1017.1 -1401 63 79 115
-534.743 -1016.42 -1400 63 79 116
-532.188 -1015.74 -1399 63 79 116
-529.636 -1015.06 -1398 63 80 119
-526.709 -1013.66 -1396 65 82 121
-523.788 -1012.25 -1394 66 83 123
-521.622 -1012.3 -1394 67 84 124
-519.082 -1011.61 -1393 70 87 127
-516.546 -1010.93 -1392 72 89 129
-514.012 -1010.25 -1391 75 93 133
-511.481 -1009.57 -1390 80 98 138
-509.319 -1009.61 -1390 78 96 136
-506.428 -1008.21 -1388 72 90 130
-503.542 -1006.8 -1386 70 88 130
-501.386 -1006.84 -1386 69 87 129
-498.869 -1006.16 -1385 67 87 129
-495.996 -1004.75 -1383 69 89 131
-493.487 -1004.06 -1382 71 91 134
-490.98 -1003.38 -1381 73 93 136
-488.83 -1003.42 -1381 71 93 136
-486.68 -1003.47 -1381 72 94 137
-484.53 -1003.51 -1381 76 97 141
-482.379 -1003.55 -1381 76 97 141
-480.576 -1004.32 -1382 74 95 140
-478.769 -1005.09 -1383 75 96 141
-476.614 -1005.13 -1383 78 101 145
-474.459 -1005.17 -1383 75 98 142
-472.304 -1005.21 -1383 74 95 140
-469.809 -1004.53 -1382 74 95 140
-467.993 -1005.3 -1383 76 97 143
-466.174 -1006.06 -1384 79 100 146
-464.016 -1006.1 -1384 79 100 146
-461.858 -1006.14 -1384 77 98 144
-460.031 -1006.91 -1385 79 100 144
-458.202 -1007.68 -1386 72 93 137
-456.369 -1008.45 -1387 69 93 138
-454.205 -1008.49 -1387 76 100 145
-452.367 -1009.25 -1388 73 99 144
-450.202 -1009.29 -1388 75 101 146
-448.358 -1010.06 -1389 72 98 144
-446.512 -1010.83 -1390 70 96 142
-444.661 -1011.59 -1391 67 93 140
-443.126 -1013.09 -1393 64 90 137
-440.951 -1013.12 -1393 60 86 132
-439.406 -1014.62 -1395 58 84 130
-437.855 -1016.11 -1397 58 84 130
-436.297 -1017.6 -1399 58 84 130
-434.111 -1017.64 -1399 58 84 130
-432.234 -1018.41 -1400 57 83 129
-430.661 -1019.9 -1402 57 82 127
-429.693 -1022.85 -1406 54 79 124
-429.016 -1026.52 -1411 51 77 121
-428.021 -1029.47 -1415 42 68 112
-426.712 -1031.69 -1418 44 69 112
-426.591 -1036.82 -1425 42 67 110
-425.554 -1039.77 -1429 43 65 104
-423.616 -1040.54 -1430 43 65 104
-745.417 -1036.43 -1431 58 60 83
-741.139 -1033.58 -1427 64 66 89
-736.872 -1030.73 -1423 68 70 93
-731.069 -1025.71 -1416 67 69 92
-726.832 -1022.86 -1412 62 72 91
-723.121 -1020.74 -1409 65 75 94
-718.394 -1017.17 -1404 62 72 91
-715.215 -1015.77 -1402 65 75 94
-710.515 -1012.2 -1397 71 85 108
-707.858 -1011.52 -1396 70 84 107
-704.699 -1010.12 -1394 71 83 108
-701.042 -1008 -1391 71 83 108
-697.897 -1006.6 -1389 72 86 115
-695.259 -1005.93 -1388 72 86 115
-692.624 -1005.25 -1387 73 87 116
-689.992 -1004.58 -1386 73 87 116
-686.866 -1003.18 -1384 67 82 113
-684.241 -1002.51 -1383 68 83 114
-681.62 -1001.83 -1382 71 88 120
-679 -1001.16 -1381 77 94 126
-675.894 -999.763 -1379 76 93 127
-673.771 -999.814 -1379 78 95 129
-671.161 -999.141 -1378 81 98 132
-668.554 -998.468 -1377 80 97 131
-665.95 -997.794 -1376 79 96 130
-663.348 -997.121 -1375 76 93 127
-660.75 -996.448 -1374 77 94 128
-658.154 -995.774 -1373 77 94 128
-656.039 -995.826 -1373 78 96 132
-654.399 -996.602 -1374 76 94 130
-651.807 -995.929 -1373 73 94 129
-649.692 -995.981 -1373 73 94 129
-647.105 -995.308 -1372 71 89 127
-645.46 -996.084 -1373 73 91 129
-643.343 -996.136 -1373 72 90 130
-641.227 -996.188 -1373 72 90 130
-639.575 -996.965 -1374 73 91 131
-638.385 -998.469 -1376 71 89 129
-636.726 -999.247 -1377 69 87 127
-634.601 -999.298 -1377 67 85 125
-632.937 -1000.08 -1378 67 84 124
-630.811 -1000.13 -1378 72 89 129
-629.141 -1000.91 -1379 72 89 129
-627.013 -1000.96 -1379 67 84 124
-624.431 -1000.28 -1378 65 83 123
-622.757 -1001.06 -1379 67 85 125
-620.627 -1001.11 -1379 64 82 124
-618.947 -1001.89 -1380 58 76 118
-617.71 -1003.39 -1382 59 77 121
-616.021 -1004.17 -1383 64 82 126
-615.217 -1006.4 -1386 64 82 126
-613.961 -1007.9 -1388 63 81 125
-612.258 -1008.68 -1389 59 81 122
-610.99 -1010.18 -1391 57 79 120
-609.278 -1010.96 -1392 55 79 122
-607.562 -1011.74 -1393 55 79 122
-606.279 -1013.24 -1395 58 79 124
-605.421 -1015.47 -1398 58 79 124
-604.554 -1017.7 -1401 55 77 120
-603.248 -1019.21 -1403 52 74 117
-601.935 -1020.71 -1405 48 70 113
-601.042 -1022.94 -1408 48 70 113
-600.14 -1025.17 -1411 47 69 112
-599.228 -1027.4 -1414 41 63 106
-597.885 -1028.91 -1416 41 61 105
-596.535 -1030.41 -1418 40 60 104
-596.016 -1033.37 -1422 35 56 105
-595.067 -1035.6 -1425 32 53 102
-593.277 -1036.38 -1426 36 54 98
-592.313 -1038.61 -1429 38 56 100
-591.338 -1040.84 -1432 23 45 82
-589.12 -1040.89 -1432 15 37 74
-586.902 -1040.94 -1432 20 38 64
-585.091 -1041.72 -1433 23 41 67
-583.684 -1043.22 -1435 37 51 80
-581.866 -1044 -1436 37 51 80
-578.833 -1042.6 -1434 41 52 82
-576.207 -1041.92 -1433 47 58 88
-573.185 -1040.51 -1431 48 62 89
-569.769 -1038.38 -1428 50 64 91
-565.567 -1034.79 -1423 53 67 98
-561.38 -1031.21 -1418 50 64 95
-557.997 -1029.07 -1415 54 69 100
-555.016 -1027.67 -1413 53 68 99
-552.041 -1026.26 -1411 53 68 99
-548.293 -1023.4 -1407 55 70 101
-546.497 -1024.17 -1408 58 73 107
-543.924 -1023.49 -1407 59 74 108
-540.585 -1021.36 -1404 59 76 112
-538.021 -1020.68 -1403 62 79 115
-534.315 -1017.81 -1399 64 78 115
-531.761 -1017.13 -1398 64 78 115
-529.211 -1016.45 -1397 63 80 120
-526.286 -1015.04 -1395 64 81 121
-523.743 -1014.36 -1394 64 81 121
-521.577 -1014.4 -1394 66 83 123
-519.037 -1013.72 -1393 69 86 126
-516.501 -1013.04 -1392 72 89 129
-514.337 -1013.08 -1392 74 92 132
-511.437 -1011.67 -1390 77 95 135
-509.275 -1011.72 -1390 80 97 137
-506.749 -1011.03 -1389 80 97 137
-503.861 -1009.62 -1387 78 96 138
-501.342 -1008.94 -1386 73 91 133
-498.825 -1008.25 -1385 69 89 131
-496.312 -1007.57 -1384 75 95 137
-493.801 -1006.88 -1383 76 96 140
-491.292 -1006.2 -1382 77 97 141
-489.141 -1006.24 -1382 75 97 140
-486.99 -1006.28 -1382 75 97 140
-484.838 -1006.33 -1382 79 101 144
-482.686 -1006.37 -1382 80 102 145
-480.881 -1007.14 -1383 77 98 143
-478.727 -1007.18 -1383 76 97 142
-476.917 -1007.95 -1384 76 100 144
-474.761 -1007.99 -1384 75 99 143
-471.921 -1006.58 -1382 76 97 142
-469.428 -1005.89 -1381 76 97 142
-467.275 -1005.93 -1381 77 98 145
-465.459 -1006.7 -1382 78 99 146
-463.305 -1006.74 -1382 78 98 145
-460.816 -1006.05 -1381 76 96 143
-458.995 -1006.82 -1382 76 96 141
-457.17 -1007.59 -1383 71 91 136
-456 -1009.82 -1386 67 93 139
-454.166 -1010.58 -1387 75 101 147
-452.328 -1011.35 -1388 73 101 146
-450.486 -1012.12 -1389 75 103 148
-448.964 -1013.62 -1391 72 98 144
-446.793 -1013.66 -1391 68 94 140
-444.942 -1014.43 -1392 68 94 142
-443.087 -1015.19 -1393 63 89 137
-440.912 -1015.23 -1393 58 84 130
-439.367 -1016.73 -1395 58 84 130
-437.816 -1018.23 -1397 59 85 131
-435.946 -1018.99 -1398 59 85 131
-434.073 -1019.76 -1399 58 84 130
-432.196 -1020.53 -1400 57 83 129
-430.93 -1022.75 -1403 56 82 126
-429.961 -1025.71 -1407 55 81 125
-428.978 -1028.66 -1411 53 79 123
-427.681 -1030.89 -1414 41 67 111
-427.577 -1036.03 -1421 41 67 110
-426.553 -1038.98 -1425 40 66 109
-425.219 -1041.21 -1428 41 63 100
-749.137 -1040.73 -1434 52 50 69
-745.368 -1038.6 -1431 60 62 85
-740.569 -1035.02 -1426 65 67 90
-736.305 -1032.17 -1422 69 71 94
-730.503 -1027.13 -1415 68 70 93
-726.782 -1025.01 -1412 63 73 92
-723.583 -1023.6 -1410 64 74 93
-718.345 -1019.3 -1404 62 72 91
-715.674 -1018.62 -1403 65 75 94
-710.973 -1015.04 -1398 67 81 104
-707.807 -1013.64 -1396 66 80 103
-704.143 -1011.51 -1393 69 81 106
-700.992 -1010.11 -1391 71 83 108
-697.847 -1008.71 -1389 71 85 113
-695.709 -1008.76 -1389 70 84 112
-693.072 -1008.08 -1388 72 86 115
-690.438 -1007.4 -1387 72 86 115
-687.311 -1006 -1385 69 84 115
-684.19 -1004.6 -1383 72 87 118
-681.568 -1003.93 -1382 73 90 122
-678.95 -1003.25 -1381 76 93 125
-676.333 -1002.58 -1380 75 92 126
-672.743 -1000.45 -1377 79 96 130
-670.623 -1000.5 -1377 83 100 134
-668.017 -999.823 -1376 83 100 134
-665.898 -999.876 -1376 82 99 133
-663.296 -999.199 -1375 79 96 130
-660.697 -998.524 -1374 75 92 126
-658.581 -998.576 -1374 77 94 128
-656.465 -998.628 -1374 80 98 134
-654.348 -998.679 -1374 80 98 134
-652.231 -998.731 -1374 78 99 135
-649.64 -998.056 -1373 75 96 132
-647.524 -998.107 -1373 69 88 125
-645.408 -998.16 -1373 71 90 127
-643.292 -998.211 -1373 72 90 130
-641.643 -998.99 -1374 70 88 128
-639.99 -999.769 -1375 71 89 129
-638.797 -1001.27 -1377 72 90 130
-636.674 -1001.33 -1377 72 90 130
-634.55 -1001.38 -1377 69 87 127
-632.885 -1002.16 -1378 67 85 125
-630.301 -1001.48 -1377 71 89 129
-628.633 -1002.26 -1378 77 95 135
-626.507 -1002.31 -1378 74 92 132
-624.38 -1002.36 -1378 70 88 128
-622.705 -1003.14 -1379 69 87 127
-621.026 -1003.92 -1380 68 86 128
-619.344 -1004.7 -1381 65 83 125
-618.106 -1006.21 -1383 63 81 125
-616.415 -1006.99 -1384 64 82 126
-615.166 -1008.49 -1386 65 82 127
-613.909 -1010 -1388 65 82 127
-612.206 -1010.78 -1389 60 82 124
-610.5 -1011.56 -1390 59 81 123
-609.227 -1013.06 -1392 56 80 123
-607.947 -1014.57 -1394 55 79 122
-606.228 -1015.35 -1395 56 79 122
-604.937 -1016.86 -1397 56 79 122
-604.071 -1019.09 -1400 55 77 120
-603.197 -1021.33 -1403 52 74 117
-601.884 -1022.83 -1405 50 72 115
-600.991 -1025.07 -1408 51 73 116
-600.089 -1027.3 -1411 47 69 112
-598.753 -1028.81 -1413 41 63 106
-597.834 -1031.05 -1416 40 60 104
-596.063 -1031.82 -1417 40 60 104
-595.965 -1035.52 -1422 36 57 105
-594.599 -1037.02 -1424 30 51 99
-592.811 -1037.8 -1425 33 51 94
-592.676 -1041.49 -1430 34 52 95
-590.462 -1041.55 -1430 26 48 85
-588.658 -1042.32 -1431 24 46 83
-586.851 -1043.1 -1432 29 47 73
-585.449 -1044.61 -1434 21 39 65
-583.228 -1044.66 -1434 39 53 81
-581.816 -1046.17 -1436 39 53 81
-578.782 -1044.76 -1434 41 52 82
-576.158 -1044.08 -1433 46 57 87
-573.936 -1044.13 -1433 47 61 89
-570.119 -1041.27 -1429 49 63 91
-565.915 -1037.67 -1424 52 66 97
-561.727 -1034.08 -1419 50 64 95
-557.949 -1031.21 -1415 55 70 101
-554.969 -1029.8 -1413 55 70 101
-551.993 -1028.39 -1411 53 67 98
-548.635 -1026.25 -1408 52 66 97
-546.449 -1026.3 -1408 56 71 105
-543.877 -1025.62 -1407 60 75 109
-540.923 -1024.21 -1405 59 76 112
-537.975 -1022.8 -1403 59 76 112
-534.268 -1019.93 -1399 65 81 118
-532.095 -1019.97 -1399 65 81 118
-529.165 -1018.56 -1397 63 81 121
-526.24 -1017.15 -1395 61 79 119
-523.697 -1016.46 -1394 61 78 118
-521.157 -1015.78 -1393 62 79 119
-518.992 -1015.83 -1393 65 82 122
-516.827 -1015.87 -1393 70 87 127
-514.292 -1015.19 -1392 75 93 133
-511.392 -1013.77 -1390 75 93 133
