ply
format ascii 1.0
comment Created by Open3D
element vertex 1476
property double x
property double y
property double z
property uchar red
property uchar green
property uchar blue
end_header
-476.415 203.873 -1413 20 19 27
-473.599 203.921 -1414 19 18 26
-470.784 203.97 -1415 19 18 26
-467.638 203.875 -1415 20 19 27
-465.153 204.069 -1417 20 19 27
-462.012 203.976 -1417 21 20 28
-459.522 204.171 -1419 24 23 31
-456.384 204.079 -1419 26 25 33
-453.251 203.988 -1419 26 25 33
-450.439 204.041 -1420 23 22 30
-447.627 204.094 -1421 21 20 29
-444.502 204.005 -1421 22 21 31
-441.691 204.06 -1422 20 19 28
-439.189 204.259 -1424 19 18 26
-436.375 204.315 -1425 23 22 32
-433.257 204.228 -1425 25 24 33
-430.143 204.142 -1425 23 22 30
-426.734 203.913 -1424 25 24 30
-423.035 203.542 -1422 23 22 29
-419.644 203.315 -1421 19 18 26
-416.847 203.375 -1422 14 13 22
-414.632 203.721 -1425 15 14 23
-411.829 203.782 -1426 18 17 25
-409.313 203.987 -1428 20 19 26
-406.223 203.906 -1428 20 19 26
-403.419 203.968 -1429 21 20 28
-400.614 204.031 -1430 23 22 30
-397.809 204.095 -1431 23 22 30
-394.727 204.017 -1431 23 22 32
-391.648 203.939 -1431 23 22 32
-388.301 203.72 -1430 23 22 32
-384.423 203.216 -1427 21 20 28
-381.364 203.141 -1427 18 17 26
-378.042 202.924 -1426 20 19 29
-374.466 202.565 -1424 15 15 25
-371.683 202.634 -1425 14 14 24
-369.159 202.845 -1427 17 16 25
-365.603 202.489 -1425 22 21 30
-362.567 202.418 -1425 26 25 35
-359.787 202.489 -1426 28 27 35
-356.505 202.277 -1425 23 22 30
-353.479 202.207 -1425 22 21 29
-350.702 202.28 -1426 22 21 30
-347.68 202.212 -1426 22 21 31
-344.42 202.002 -1425 26 25 33
-341.646 202.077 -1426 27 26 34
-338.633 202.011 -1426 27 26 34
-335.387 201.803 -1425 28 27 35
-332.149 201.597 -1424 26 25 32
-328.918 201.391 -1423 24 23 30
-325.465 201.044 -1421 25 24 31
-321.796 200.557 -1418 23 22 30
-319.267 200.777 -1420 23 22 30
-316.064 200.574 -1419 22 21 29
-313.309 200.654 -1420 22 21 29
-310.334 200.594 -1420 21 20 28
-307.795 200.816 -1422 25 24 32
-304.607 200.616 -1421 25 24 32
-301.425 200.416 -1420 26 25 33
-298.461 200.358 -1420 29 28 36
-295.707 200.441 -1421 28 27 35
-292.128 199.961 -1418 27 26 34
-288.564 199.482 -1415 27 26 34
-285.014 199.004 -1412 28 27 35
-281.679 198.668 -1410 28 27 35
-277.762 197.909 -1405 25 24 32
-274.455 197.574 -1403 26 25 34
-271.159 197.24 -1401 28 27 37
-267.681 196.766 -1398 29 28 35
-264.408 196.433 -1396 30 29 37
-261.145 196.101 -1394 38 37 49
-258.078 195.911 -1393 51 50 62
-255.018 195.721 -1392 58 57 69
-251.963 195.531 -1391 68 67 79
-248.915 195.343 -1390 79 78 90
-245.873 195.155 -1389 86 85 96
-242.838 194.967 -1388 90 89 99
-240.327 195.202 -1390 96 95 105
-237.639 195.297 -1391 103 102 114
-234.611 195.111 -1390 116 115 127
-231.59 194.926 -1389 127 126 138
-228.575 194.742 -1388 132 131 145
-225.565 194.558 -1387 138 137 151
-222.562 194.375 -1386 148 147 161
-219.723 194.332 -1386 156 155 169
-216.886 194.291 -1386 164 163 176
-214.205 194.39 -1387 171 170 184
-211.522 194.489 -1388 179 178 191
-208.836 194.589 -1389 183 182 196
-205.704 194.27 -1387 192 190 206
-202.873 194.231 -1387 196 194 210
-199.756 193.912 -1385 203 200 214
-196.934 193.874 -1385 205 201 216
-193.692 193.417 -1382 208 204 219
-190.878 193.381 -1382 207 205 225
-188.066 193.345 -1382 206 204 224
-185.39 193.449 -1383 204 201 218
-182.579 193.414 -1383 202 199 215
-179.9 193.519 -1384 204 200 215
-177.09 193.486 -1384 206 199 214
-174.282 193.452 -1384 207 199 215
-171.475 193.419 -1384 201 197 214
-168.669 193.387 -1384 199 194 207
-165.865 193.355 -1384 199 192 203
-163.298 193.603 -1386 200 192 201
-160.376 193.433 -1385 187 180 188
-157.688 193.543 -1386 153 148 156
-154.885 193.513 -1386 123 115 121
-152.084 193.484 -1386 108 97 102
-149.283 193.455 -1386 88 77 83
-146.695 193.707 -1388 79 69 74
-143.893 193.679 -1388 79 68 74
-141.296 193.931 -1390 88 78 84
-138.692 194.184 -1392 138 128 135
-135.885 194.158 -1392 167 159 173
-132.984 193.993 -1391 178 169 184
-130.369 194.247 -1393 184 172 189
-127.563 194.223 -1393 181 176 190
-124.759 194.199 -1393 176 173 186
-122.044 194.315 -1394 174 171 185
-119.496 194.71 -1397 172 168 183
-116.603 194.549 -1396 175 170 185
-113.878 194.666 -1397 175 171 186
-111.071 194.645 -1397 175 170 185
-108.419 194.903 -1399 176 172 187
-105.685 195.022 -1400 180 176 191
-102.948 195.142 -1401 180 176 191
-100.207 195.262 -1402 179 175 190
-97.3941 195.243 -1402 181 177 193
-94.7166 195.504 -1404 184 180 196
-91.8355 195.347 -1403 186 182 199
-89.1495 195.608 -1405 184 181 197
-86.3334 195.592 -1405 187 183 201
-83.518 195.576 -1405 190 187 205
-80.6458 195.421 -1404 189 189 207
-77.8891 195.545 -1405 187 186 205
-75.1291 195.67 -1406 185 183 201
-72.3656 195.795 -1407 179 180 198
-69.5987 195.921 -1408 173 174 193
-66.8285 196.048 -1409 164 165 184
-64.0547 196.174 -1410 162 163 181
-61.2341 196.163 -1410 160 160 178
-58.4967 196.43 -1412 152 153 170
-55.6336 196.28 -1411 147 147 165
-52.8872 196.548 -1413 137 138 155
-50.0978 196.677 -1414 128 129 144
-47.3382 196.946 -1416 122 123 139
-44.5082 196.938 -1416 116 117 135
-41.7668 197.347 -1419 111 112 131
-38.9041 197.2 -1418 104 105 124
-36.1474 197.61 -1421 92 92 107
-33.3555 197.882 -1423 40 40 53
-30.5345 198.015 -1424 19 18 26
-27.6903 198.009 -1424 20 19 27
-24.8638 198.144 -1425 19 18 26
-22.0181 198.139 -1425 18 17 25
-19.1725 198.135 -1425 18 17 25
-16.3615 198.549 -1428 20 19 27
-13.5291 198.824 -1430 18 17 25
-10.7037 199.378 -1434 16 15 23
-7.85714 199.794 -1437 13 12 20
-5.00191 200.349 -1441 12 11 19
-2.1265 200.487 -1442 14 13 21
0.752889 200.626 -1443 16 15 23
3.63897 200.904 -1445 19 18 26
6.53289 201.183 -1447 19 18 26
9.43485 201.463 -1449 16 15 23
12.345 201.743 -1451 16 15 23
15.2631 202.024 -1453 16 15 22
18.152 201.888 -1452 15 14 21
21.0659 202.031 -1453 14 13 20
23.9674 202.035 -1453 13 12 19
26.9433 202.596 -1457 15 14 21
29.8941 202.879 -1459 14 13 20
32.8984 203.441 -1463 13 12 19
35.821 203.448 -1463 13 12 19
38.7966 203.733 -1465 17 16 23
41.7522 203.88 -1466 18 17 24
44.7427 204.166 -1468 17 16 23
47.7413 204.453 -1470 17 16 23
50.7484 204.74 -1472 17 16 24
53.6546 204.611 -1471 17 16 24
56.5956 204.621 -1471 18 17 25
59.5371 204.632 -1471 19 18 26
62.479 204.644 -1471 18 17 25
65.4214 204.656 -1471 17 16 25
68.4575 204.947 -1473 17 16 26
71.4535 205.099 -1474 15 14 23
74.4037 205.113 -1474 16 15 23
77.3544 205.127 -1474 17 16 24
80.3603 205.281 -1475 19 18 26
83.4273 205.575 -1477 19 18 26
86.4445 205.73 -1478 20 19 27
89.4057 205.747 -1478 16 15 23
92.4305 205.903 -1479 14 13 21
95.5244 206.199 -1481 15 14 22
98.5607 206.357 -1482 14 13 21
101.533 206.376 -1482 13 12 20
104.577 206.534 -1483 13 12 21
107.481 206.415 -1482 14 13 23
110.307 206.157 -1480 14 13 23
113.355 206.317 -1481 16 15 25
116.409 206.478 -1482 18 17 27
119.467 206.64 -1483 20 19 29
122.613 206.941 -1485 19 18 29
125.683 207.104 -1486 20 19 31
128.759 207.268 -1487 21 20 32
131.751 207.292 -1487 20 19 31
134.562 207.039 -1485 20 19 30
137.46 206.925 -1484 20 19 29
140.354 206.812 -1483 20 19 29
143.246 206.699 -1482 19 18 27
146.234 206.727 -1482 18 17 25
149.424 207.034 -1484 19 18 27
152.726 207.481 -1487 19 18 30
155.832 207.649 -1488 14 14 27
159.05 207.958 -1490 11 12 25
162.277 208.268 -1492 10 9 18
165.514 208.578 -1494 11 10 18
168.422 208.47 -1493 9 9 17
171.672 208.782 -1495 9 9 18
174.814 208.954 -1496 10 10 19
177.962 209.128 -1497 11 10 20
181.115 209.301 -1498 10 9 19
184.274 209.476 -1499 9 8 18
187.439 209.651 -1500 10 9 16
190.101 209.267 -1497 12 11 18
193.01 209.164 -1496 13 12 19
196.049 209.201 -1496 13 12 19
198.955 209.099 -1495 15 14 22
201.725 208.857 -1493 16 15 23
204.624 208.756 -1492 16 15 23
207.383 208.515 -1490 16 15 24
210.135 208.275 -1488 18 17 26
213.024 208.175 -1487 19 18 26
216.055 208.216 -1487 20 19 27
219.236 208.398 -1488 21 22 32
222.572 208.72 -1490 22 21 29
226.373 209.463 -1495 24 23 31
230.656 210.628 -1503 23 22 30
-549.896 204.32 -1421 132 109 94
-547.775 204.639 -1424 134 111 96
-542.97 203.954 -1420 136 113 99
-539.708 203.844 -1420 137 113 99
-535.318 203.305 -1417 134 112 93
-532.073 203.197 -1417 138 116 100
-529.58 203.376 -1419 136 113 100
-527.083 203.556 -1421 132 111 101
-523.845 203.45 -1421 97 83 79
-519.879 203.058 -1419 37 27 26
-514.834 202.239 -1414 23 19 24
-510.179 201.564 -1410 23 19 25
-506.267 201.176 -1408 22 19 25
-503.082 201.074 -1408 22 18 24
-500.258 201.117 -1409 20 16 23
-497.786 201.302 -1411 17 14 21
-495.31 201.488 -1413 18 15 25
-492.482 201.531 -1414 17 16 24
-489.308 201.433 -1414 18 17 25
-486.482 201.478 -1415 21 20 29
-483.314 201.381 -1415 22 21 29
-479.812 201.143 -1414 19 18 26
-476.319 200.906 -1413 19 18 26
-472.835 200.669 -1412 20 19 27
-469.692 200.575 -1412 21 20 28
-466.884 200.624 -1413 22 21 29
-464.404 200.816 -1415 21 20 28
-461.593 200.866 -1416 20 19 27
-458.783 200.916 -1417 22 21 29
-455.65 200.826 -1417 25 24 32
-452.842 200.878 -1418 24 23 31
-449.715 200.788 -1418 22 21 29
-447.538 201.124 -1421 22 21 29
-444.414 201.036 -1421 22 21 31
-441.604 201.09 -1422 19 18 27
-438.793 201.145 -1423 19 18 26
-435.983 201.2 -1424 22 21 29
-433.172 201.256 -1425 24 23 31
-430.058 201.171 -1425 22 21 29
-426.949 201.087 -1425 26 25 33
-423.546 200.863 -1424 24 23 31
-420.447 200.78 -1424 19 18 26
-417.351 200.698 -1424 16 15 25
-414.55 200.757 -1425 16 15 25
-411.748 200.817 -1426 17 16 24
-408.946 200.878 -1427 18 17 25
-406.428 201.08 -1429 18 17 24
-403.34 201.001 -1429 20 19 27
-400.816 201.204 -1431 23 22 30
-397.731 201.126 -1431 25 24 32
-394.925 201.189 -1432 25 24 34
-391.845 201.113 -1432 24 23 33
-388.497 200.896 -1431 25 24 34
-384.618 200.4 -1428 20 19 28
-381.022 200.045 -1426 17 16 24
-377.969 199.972 -1426 17 16 26
-375.181 200.039 -1427 16 15 25
-372.132 199.966 -1427 17 16 26
-369.345 200.035 -1428 17 16 24
-366.044 199.823 -1427 20 19 28
-363.005 199.753 -1427 25 24 34
-359.969 199.683 -1427 29 28 36
-356.686 199.474 -1426 23 22 30
-353.659 199.405 -1426 20 19 27
-350.88 199.477 -1427 21 20 30
-347.857 199.41 -1427 21 20 30
-344.595 199.204 -1426 25 24 32
-341.579 199.138 -1426 27 26 34
-338.567 199.072 -1426 29 28 36
-334.852 198.589 -1423 29 28 36
-331.852 198.525 -1423 26 25 33
-328.392 198.182 -1421 23 22 29
-325.173 197.98 -1420 23 22 29
-321.507 197.5 -1417 23 22 29
-318.531 197.439 -1417 21 20 28
-315.557 197.378 -1417 21 20 28
-312.807 197.457 -1418 22 21 29
-309.837 197.398 -1418 27 26 34
-307.303 197.617 -1420 27 26 34
-304.334 197.559 -1420 26 25 33
-301.367 197.501 -1420 27 26 34
-298.194 197.305 -1419 28 27 35
-295.234 197.248 -1419 28 27 35
-291.66 196.775 -1416 27 26 34
-288.304 196.442 -1414 26 25 33
-284.758 195.971 -1411 27 26 34
-281.226 195.5 -1408 28 27 35
-277.511 194.892 -1404 24 23 31
-274.403 194.701 -1403 24 23 32
-270.913 194.233 -1400 28 27 37
-267.63 193.904 -1398 32 31 39
-264.358 193.576 -1396 46 45 54
-261.095 193.249 -1394 126 125 137
-257.844 192.923 -1392 189 188 200
-254.786 192.736 -1391 204 203 216
-251.553 192.411 -1389 214 213 225
-248.331 192.086 -1387 223 222 234
-245.296 191.901 -1386 227 226 239
-242.617 191.993 -1387 228 227 238
-239.763 191.948 -1387 230 229 240
-237.081 192.041 -1388 231 230 242
-234.229 191.997 -1388 231 230 243
-231.379 191.953 -1388 230 229 242
-228.202 191.633 -1386 234 233 246
-225.197 191.452 -1385 235 234 248
-222.359 191.41 -1385 236 235 250
-219.523 191.368 -1385 236 235 250
-216.532 191.189 -1384 234 233 248
-213.701 191.148 -1384 234 233 248
-211.025 191.247 -1385 235 234 250
-208.346 191.345 -1386 235 235 251
-205.368 191.168 -1385 237 235 253
-202.543 191.13 -1385 236 234 252
-199.574 190.954 -1384 236 232 248
-196.612 190.779 -1383 232 228 244
-193.515 190.467 -1381 228 224 239
-190.704 190.431 -1381 225 221 240
-188.031 190.533 -1382 227 223 242
-185.489 190.774 -1384 227 223 239
-182.809 190.877 -1385 227 222 238
-179.866 190.705 -1384 228 224 239
-177.057 190.672 -1384 226 219 235
-174.249 190.639 -1384 224 217 234
-171.442 190.607 -1384 222 215 232
-168.637 190.575 -1384 224 215 227
-165.953 190.681 -1385 218 207 217
-163.385 190.926 -1387 192 180 185
-160.462 190.758 -1386 151 139 144
-157.772 190.866 -1387 135 126 129
-154.968 190.837 -1387 127 115 118
-152.165 190.808 -1387 120 107 110
-149.363 190.78 -1387 103 90 93
-146.668 190.89 -1388 105 92 95
-143.866 190.863 -1388 110 96 98
-141.269 191.111 -1390 97 84 87
-138.666 191.36 -1392 110 97 101
-135.86 191.335 -1392 177 166 177
-133.055 191.31 -1392 206 194 207
-130.438 191.56 -1394 211 198 214
-127.54 191.398 -1393 204 196 212
-124.915 191.65 -1395 207 200 217
-122.196 191.764 -1396 208 204 220
-119.473 191.879 -1397 209 204 220
-116.665 191.857 -1397 211 206 222
-113.857 191.836 -1397 213 208 224
-111.05 191.815 -1397 214 209 225
-108.399 192.069 -1399 216 212 228
-105.59 192.049 -1399 221 217 233
-102.782 192.03 -1399 222 218 234
-99.9741 192.011 -1399 226 222 237
-97.2369 192.13 -1400 224 220 235
-94.4966 192.249 -1401 223 219 236
-91.7529 192.369 -1402 224 220 238
-89.0695 192.627 -1404 224 220 238
-86.2559 192.611 -1404 222 218 238
-83.5023 192.732 -1405 217 215 236
-80.6307 192.58 -1404 212 212 234
-77.8745 192.702 -1405 212 210 232
-75.115 192.825 -1406 210 208 230
-72.3521 192.949 -1407 208 209 230
-69.5857 193.073 -1408 207 207 229
-66.816 193.197 -1409 203 203 227
-64.0427 193.322 -1410 204 204 226
-61.2226 193.31 -1410 204 204 225
-58.4444 193.436 -1411 202 203 224
-55.6232 193.426 -1411 201 201 223
-52.8399 193.553 -1412 198 198 220
-50.0884 193.818 -1414 196 197 216
-47.3295 194.083 -1416 200 200 220
-44.4999 194.074 -1416 199 200 220
-41.7591 194.477 -1419 197 199 219
-38.8969 194.333 -1418 196 198 218
-36.1153 194.6 -1420 178 179 196
-33.3025 194.731 -1421 53 54 68
-30.5075 194.999 -1423 22 21 29
-27.6852 195.13 -1424 21 20 28
-24.8767 195.4 -1426 19 18 26
-22.0449 195.532 -1427 18 17 25
-19.1959 195.529 -1427 18 17 25
-16.3699 195.799 -1429 18 17 25
-13.5265 195.934 -1430 17 16 24
-10.7018 196.479 -1434 15 14 22
-7.86648 197.163 -1439 14 13 21
-5.00101 197.436 -1441 12 11 19
-2.12907 197.846 -1444 14 13 21
0.754307 198.12 -1446 16 15 23
3.64333 198.257 -1447 17 16 24
6.53169 198.258 -1447 17 16 24
9.43312 198.534 -1449 16 15 23
12.3341 198.673 -1450 15 14 22
15.2394 198.812 -1451 14 13 20
18.136 198.816 -1451 16 15 22
21.0619 199.093 -1453 17 16 23
23.9795 199.234 -1454 15 14 21
26.9382 199.65 -1457 16 15 22
29.8887 199.929 -1459 16 15 22
32.8922 200.484 -1463 15 14 21
35.8632 200.764 -1465 15 14 21
38.8423 201.045 -1467 18 17 24
41.8014 201.19 -1468 18 17 24
44.7951 201.472 -1470 17 16 23
47.8298 201.891 -1473 17 16 23
50.808 202.038 -1474 16 15 22
53.6811 201.773 -1472 17 16 24
56.6234 201.783 -1472 18 17 25
59.6068 201.931 -1473 17 16 24
62.5099 201.805 -1472 16 15 23
65.4538 201.817 -1472 18 17 25
68.3982 201.83 -1472 18 17 26
71.4401 202.117 -1474 17 16 24
74.3897 202.131 -1474 16 15 23
77.3924 202.282 -1475 18 17 25
80.3996 202.433 -1476 18 17 25
83.4681 202.723 -1478 18 17 25
86.4283 202.739 -1478 19 18 26
89.4496 202.892 -1479 17 16 24
92.4757 203.046 -1480 15 14 22
95.5065 203.201 -1481 13 12 20
98.5421 203.356 -1482 13 12 20
101.583 203.512 -1483 14 13 21
104.557 203.531 -1483 13 12 21
107.533 203.551 -1483 14 13 22
110.509 203.571 -1483 15 14 24
113.487 203.592 -1483 17 16 26
116.544 203.751 -1484 19 18 28
119.525 203.773 -1484 21 20 30
122.59 203.932 -1485 21 20 31
125.575 203.956 -1485 20 19 31
128.561 203.979 -1485 21 20 31
131.549 204.003 -1485 21 20 31
134.447 203.891 -1484 21 20 30
137.249 203.641 -1482 20 19 29
140.233 203.667 -1482 19 18 28
143.219 203.694 -1482 19 18 26
146.403 203.996 -1484 18 17 25
149.597 204.298 -1486 18 17 25
153.21 205.151 -1492 17 16 27
156.326 205.318 -1493 13 12 25
159.554 205.622 -1495 10 11 25
162.682 205.79 -1496 9 9 18
165.705 205.82 -1496 9 8 16
168.503 205.576 -1494 10 9 18
171.754 205.883 -1496 11 10 19
174.781 205.916 -1496 11 10 20
178.047 206.224 -1498 11 10 20
181.081 206.258 -1498 11 10 20
184.24 206.43 -1499 9 8 18
187.278 206.464 -1499 10 9 16
190.065 206.224 -1497 12 11 18
192.845 205.984 -1495 12 11 18
195.881 206.021 -1495 14 13 20
198.785 205.92 -1494 16 15 22
201.687 205.82 -1493 18 17 25
204.723 205.858 -1493 19 18 26
207.622 205.759 -1492 17 16 24
210.377 205.522 -1490 19 18 26
213.126 205.286 -1488 21 20 28
216.305 205.464 -1489 23 22 30
219.489 205.643 -1490 22 21 31
222.978 206.099 -1493 22 21 29
226.935 206.97 -1499 21 20 28
231.993 208.808 -1512 23 22 30
-548.05 201.76 -1425 123 104 88
-545.536 201.934 -1427 127 105 90
-540.359 201.118 -1422 126 103 88
-537.477 201.152 -1423 128 106 88
-534.219 201.045 -1423 127 105 90
-531.34 201.08 -1424 130 107 94
-528.832 201.257 -1426 127 106 95
-525.583 201.152 -1426 109 94 89
-520.874 200.484 -1422 49 38 35
-516.188 199.817 -1418 26 22 27
-511.525 199.152 -1414 24 21 27
-506.885 198.488 -1410 23 20 27
-503.696 198.388 -1410 22 18 23
-500.513 198.289 -1410 20 16 23
-497.335 198.19 -1410 18 15 22
-494.511 198.233 -1411 18 16 25
-492.384 198.557 -1414 17 16 24
-489.557 198.6 -1415 18 17 25
-486.729 198.645 -1416 21 20 28
-483.56 198.549 -1416 21 20 28
-479.717 198.174 -1414 19 18 26
-476.225 197.94 -1413 20 19 27
-472.407 197.567 -1411 21 20 28
-468.934 197.335 -1410 23 22 30
-466.131 197.383 -1411 24 23 31
-464.312 197.852 -1415 20 19 27
-461.177 197.761 -1415 18 17 25
-458.693 197.951 -1417 21 20 28
-455.882 198.002 -1418 23 22 30
-453.072 198.053 -1419 24 23 31
-450.261 198.104 -1420 22 21 29
-447.765 198.296 -1422 21 20 28
-444.952 198.348 -1423 22 21 31
-442.138 198.402 -1424 20 19 28
-439.324 198.455 -1425 19 18 26
-436.204 198.37 -1425 19 18 26
-433.391 198.425 -1426 20 19 27
-430.578 198.481 -1427 21 20 28
-427.765 198.537 -1428 24 23 32
-424.058 198.177 -1426 26 25 33
-420.955 198.095 -1426 22 21 29
-417.27 197.736 -1424 16 15 24
-414.47 197.795 -1425 15 14 23
-411.668 197.854 -1426 15 14 22
-408.58 197.775 -1426 18 17 25
-405.78 197.835 -1427 19 18 26
-402.98 197.896 -1428 21 20 28
-400.458 198.096 -1430 24 23 31
-397.376 198.02 -1430 26 25 33
-394.849 198.22 -1432 25 24 32
-391.496 198.007 -1431 23 22 30
-388.693 198.07 -1432 23 22 30
-384.813 197.581 -1429 22 21 29
-381.483 197.37 -1428 20 19 27
-378.426 197.297 -1428 20 19 28
-375.372 197.225 -1428 19 18 28
-372.061 197.016 -1427 18 17 27
-369.274 197.083 -1428 18 17 25
-366.231 197.013 -1428 20 19 28
-363.19 196.944 -1428 24 23 33
-359.9 196.737 -1427 28 27 35
-356.868 196.669 -1427 23 22 30
-353.839 196.601 -1427 20 19 27
-351.059 196.672 -1428 20 19 28
-348.034 196.606 -1428 21 20 29
-345.012 196.54 -1428 25 24 32
-341.754 196.337 -1427 29 28 36
-338.502 196.135 -1426 29 28 36
-334.788 195.659 -1423 29 28 36
-331.322 195.321 -1421 27 26 34
-327.867 194.984 -1419 25 24 31
-324.424 194.648 -1417 22 21 28
-320.765 194.175 -1414 22 21 28
-318.021 194.252 -1415 21 20 27
-314.83 194.055 -1414 21 20 27
-312.086 194.133 -1415 22 21 29
-309.342 194.211 -1416 27 26 34
-306.812 194.428 -1418 27 26 34
-303.633 194.233 -1417 27 26 34
-300.886 194.313 -1418 27 26 34
-297.927 194.257 -1418 29 28 36
-295.179 194.338 -1419 29 28 36
-291.605 193.873 -1416 29 28 36
-288.454 193.681 -1415 27 26 34
-284.906 193.217 -1412 26 25 33
-281.173 192.617 -1408 27 26 34
-277.657 192.154 -1405 24 23 31
-274.351 191.829 -1403 25 24 33
-270.862 191.368 -1400 29 28 38
-267.58 191.044 -1398 37 36 44
-264.118 190.584 -1395 52 51 60
-261.046 190.399 -1394 172 171 183
-257.61 189.941 -1391 237 236 249
-254.372 189.62 -1389 240 239 253
-251.144 189.3 -1387 237 236 248
-248.284 189.253 -1387 236 235 248
-245.25 189.071 -1386 235 234 248
-242.396 189.025 -1386 231 230 242
-239.545 188.98 -1386 230 229 241
-236.866 189.072 -1387 232 231 243
-233.848 188.892 -1386 233 232 245
-231.169 188.985 -1387 233 232 246
-227.995 188.67 -1385 233 232 246
-224.992 188.492 -1384 233 232 247
-221.996 188.314 -1383 235 233 250
-219.165 188.273 -1383 236 234 251
-216.179 188.097 -1382 236 234 251
-213.507 188.193 -1383 238 236 253
-210.833 188.29 -1384 238 237 254
-208.157 188.387 -1385 237 238 255
-205.182 188.213 -1384 238 236 255
-202.505 188.311 -1385 238 236 255
-199.393 188.002 -1383 237 233 250
-196.433 187.83 -1382 234 230 246
-193.479 187.658 -1381 230 226 242
-190.669 187.622 -1381 226 221 238
-187.996 187.723 -1382 227 221 238
-185.321 187.824 -1383 227 222 237
-182.643 187.926 -1384 227 222 237
-179.703 187.757 -1383 226 222 237
-176.896 187.724 -1383 223 218 233
-174.091 187.692 -1383 222 216 231
-171.287 187.66 -1383 225 214 229
-168.484 187.629 -1383 213 198 209
-165.923 187.869 -1385 186 169 177
-163.237 187.975 -1386 156 138 139
-160.432 187.945 -1386 127 109 110
-157.743 188.051 -1387 95 79 78
-154.939 188.022 -1387 72 55 56
-152.027 187.859 -1386 69 52 53
-149.335 187.966 -1387 78 61 62
-146.535 187.939 -1387 91 73 74
-143.84 188.048 -1388 101 83 82
-141.142 188.157 -1389 99 81 82
-138.54 188.403 -1391 84 67 68
-135.737 188.378 -1391 114 102 110
-133.03 188.488 -1392 166 153 164
-130.32 188.6 -1393 198 185 199
-127.516 188.576 -1393 206 197 214
-124.892 188.824 -1395 208 200 218
-122.173 188.936 -1396 209 204 221
-119.451 189.049 -1397 211 206 223
-116.643 189.028 -1397 214 209 226
-113.836 189.007 -1397 215 210 227
-111.03 188.986 -1397 218 213 230
-108.301 189.101 -1398 222 217 234
-105.57 189.217 -1399 224 220 237
-102.763 189.198 -1399 223 219 236
-100.027 189.315 -1400 222 218 233
-97.2885 189.432 -1401 223 219 235
-94.5466 189.55 -1402 225 220 237
-91.736 189.533 -1402 224 220 238
-89.0531 189.786 -1404 224 220 239
-86.24 189.77 -1404 223 218 241
-83.487 189.89 -1405 219 216 240
-80.6733 189.875 -1405 213 213 239
-77.9157 189.996 -1406 212 211 235
-75.1013 189.982 -1406 209 207 231
-72.3388 190.103 -1407 207 207 231
-69.5235 190.09 -1407 205 205 230
-66.7089 190.078 -1407 203 203 230
-63.8947 190.066 -1407 204 204 228
-61.1245 190.19 -1408 204 205 228
-58.3509 190.314 -1409 201 203 226
-55.5736 190.439 -1410 199 200 224
-52.8302 190.699 -1412 196 196 222
-50.1146 191.095 -1415 196 196 219
-47.3207 191.221 -1416 200 200 223
-44.5546 191.482 -1418 203 203 224
-41.7808 191.745 -1420 202 203 225
-38.9446 191.737 -1420 194 196 218
-36.1086 191.73 -1420 182 183 203
-33.2964 191.859 -1421 60 60 76
-30.4804 191.988 -1422 24 23 31
-27.6801 192.253 -1424 21 20 28
-24.8547 192.383 -1425 20 19 27
-22.0408 192.649 -1427 19 18 26
-19.2057 192.78 -1428 17 16 24
-16.3669 192.912 -1429 16 15 23
-13.543 193.314 -1432 15 14 22
-10.6998 193.582 -1434 15 14 22
-7.85961 194.12 -1438 16 15 23
-5.00013 194.524 -1441 14 13 21
-2.1287 194.929 -1444 14 13 21
0.753639 195.064 -1445 15 14 22
3.64015 195.199 -1446 16 15 23
6.53503 195.47 -1448 16 15 23
9.43142 195.606 -1449 17 16 24
12.3234 195.608 -1449 16 15 23
15.2364 195.881 -1451 14 13 20
18.1328 195.884 -1451 16 15 22
21.0581 196.158 -1453 18 17 24
23.975 196.297 -1454 17 16 23
26.9518 196.841 -1458 17 16 23
29.8832 196.981 -1459 15 14 21
32.8637 197.392 -1462 14 13 20
35.8321 197.669 -1464 15 14 21
38.8617 198.215 -1468 17 16 23
41.7653 198.088 -1467 17 16 23
44.8174 198.636 -1471 17 16 23
47.7886 198.779 -1472 15 14 21
50.7985 199.058 -1474 15 14 22
53.7076 198.933 -1473 16 15 23
56.6515 198.943 -1473 16 15 23
59.5555 198.819 -1472 17 16 24
62.5408 198.965 -1473 18 17 25
65.4417 198.841 -1472 18 17 25
68.4321 198.989 -1473 18 17 25
71.4754 199.272 -1475 18 17 25
74.4264 199.285 -1475 19 18 26
77.4307 199.434 -1476 21 20 28
80.4393 199.584 -1477 19 18 26
83.5092 199.869 -1479 17 16 24
86.4707 199.884 -1479 18 17 25
89.554 200.171 -1481 18 17 25
92.4586 200.052 -1480 15 14 22
95.4889 200.205 -1481 14 13 21
98.4576 200.222 -1481 12 11 19
101.495 200.376 -1482 14 13 21
104.609 200.665 -1484 15 14 22
107.586 200.685 -1484 13 12 20
110.489 200.569 -1483 13 12 22
113.542 200.725 -1484 16 15 25
116.522 200.746 -1484 19 18 28
119.422 200.632 -1483 21 20 30
122.485 200.79 -1484 22 21 32
125.467 200.813 -1484 23 22 34
128.365 200.701 -1483 23 22 33
131.436 200.86 -1484 22 21 31
134.422 200.884 -1484 21 20 30
137.131 200.503 -1481 20 19 29
140.302 200.799 -1483 20 19 29
143.289 200.825 -1483 19 18 26
146.574 201.258 -1486 19 18 26
149.871 201.692 -1489 17 16 24
153.49 202.532 -1495 15 14 26
156.611 202.696 -1496 12 11 23
159.951 203.132 -1499 11 10 24
162.978 203.162 -1499 9 8 17
166.006 203.192 -1499 9 8 16
168.81 202.952 -1497 10 9 19
171.952 203.118 -1498 11 10 20
174.866 203.015 -1497 12 11 21
178.133 203.319 -1499 12 11 21
181.168 203.352 -1499 10 9 19
184.205 203.385 -1499 9 8 18
187.244 203.419 -1499 11 10 17
190.157 203.319 -1498 15 14 21
192.938 203.082 -1496 18 17 24
195.975 203.118 -1496 19 18 25
198.881 203.019 -1495 20 19 26
201.649 202.784 -1493 20 19 27
204.548 202.686 -1492 19 18 26
207.305 202.452 -1490 19 18 26
210.197 202.355 -1489 18 17 25
213.23 202.394 -1489 19 18 26
216.265 202.434 -1489 21 20 29
219.596 202.746 -1491 23 22 32
223.235 203.331 -1495 20 19 27
227.347 204.325 -1502 22 21 29
-536.366 198.869 -1429 121 100 86
-532.727 198.625 -1428 125 103 90
-530.952 199.077 -1432 123 103 91
-528.427 199.252 -1434 114 99 93
-523.335 198.454 -1429 73 59 56
-518.634 197.797 -1425 31 27 31
-513.594 197.002 -1420 26 22 28
-508.582 196.209 -1415 21 18 25
-504.312 195.694 -1412 23 19 24
-500.77 195.458 -1411 20 17 23
-497.59 195.361 -1411 19 16 23
-494.414 195.265 -1411 17 16 24
-492.288 195.584 -1414 17 16 24
-489.461 195.627 -1415 17 16 24
-486.978 195.809 -1417 20 19 27
-484.149 195.853 -1418 21 20 28
-480.641 195.621 -1417 20 19 27
-477.143 195.391 -1416 21 20 28
-472.984 194.885 -1413 21 20 28
-469.175 194.518 -1411 22 21 29
-466.04 194.428 -1411 21 20 28
-464.222 194.89 -1415 16 15 23
-461.087 194.801 -1415 15 14 22
-458.604 194.988 -1417 20 19 27
-455.794 195.037 -1418 23 22 30
-453.304 195.225 -1420 23 22 30
-450.174 195.139 -1420 22 21 29
-447.994 195.465 -1423 21 20 29
-444.554 195.242 -1422 22 21 31
-441.743 195.294 -1423 20 19 28
-438.931 195.347 -1424 19 18 26
-436.12 195.401 -1425 18 17 25
-433.004 195.318 -1425 18 17 25
-430.194 195.373 -1426 18 17 25
-427.982 195.702 -1429 24 23 33
-424.572 195.484 -1428 26 25 34
-421.17 195.267 -1427 24 23 32
-417.776 195.05 -1426 19 18 26
-414.681 194.971 -1426 15 14 22
-411.59 194.892 -1426 15 14 22
-408.502 194.815 -1426 17 16 24
-405.987 195.011 -1428 20 19 27
-403.185 195.071 -1429 21 20 28
-400.942 195.404 -1432 25 24 32
-397.856 195.329 -1432 26 25 34
-395.049 195.39 -1433 24 23 31
-391.695 195.179 -1432 23 22 30
-388.348 194.97 -1431 23 22 30
-384.74 194.624 -1429 23 22 29
-381.144 194.28 -1427 21 20 28
-377.824 194.072 -1426 20 19 27
-374.775 194.002 -1426 20 19 28
-371.73 193.931 -1426 19 18 28
-369.205 194.134 -1428 20 19 27
-366.161 194.065 -1428 22 21 30
-363.376 194.132 -1429 24 23 33
-360.085 193.928 -1428 26 25 33
-357.051 193.861 -1428 23 22 30
-353.277 193.388 -1425 21 20 28
-350.255 193.322 -1425 21 20 29
-347.238 193.257 -1425 22 21 31
-344.222 193.192 -1425 25 24 32
-340.971 192.993 -1424 28 27 35
-337.727 192.794 -1423 30 29 37
-334.255 192.46 -1421 30 29 37
-331.027 192.263 -1420 28 27 34
-327.113 191.66 -1416 26 25 32
-323.906 191.464 -1415 25 24 31
-320.705 191.269 -1414 24 23 30
-317.512 191.074 -1413 22 21 28
-314.103 190.745 -1411 22 21 29
-311.587 190.957 -1413 24 23 31
-308.847 191.035 -1414 24 23 31
-306.322 191.248 -1416 23 22 30
-303.577 191.327 -1417 24 23 31
-300.83 191.406 -1418 26 25 33
-297.871 191.35 -1418 30 29 37
-294.708 191.161 -1417 31 30 38
-291.139 190.702 -1414 30 29 37
-287.992 190.513 -1413 28 27 35
-284.853 190.326 -1412 27 26 34
-281.32 189.869 -1409 28 27 35
-277.605 189.279 -1405 25 24 32
-274.3 188.958 -1403 27 26 35
-270.812 188.504 -1400 31 30 40
-267.53 188.185 -1398 32 31 39
-263.88 187.598 -1394 55 54 63
-260.811 187.415 -1393 180 179 191
-257.563 187.099 -1391 237 236 250
-254.325 186.783 -1389 239 238 252
-251.097 186.467 -1387 237 236 248
-248.596 186.69 -1389 238 237 250
-245.204 186.242 -1386 236 235 249
-242.351 186.197 -1386 233 232 245
-239.673 186.287 -1387 233 232 244
-236.823 186.244 -1387 233 232 245
-233.805 186.066 -1386 232 231 244
-230.96 186.024 -1386 232 231 245
-227.953 185.847 -1385 233 232 247
-224.789 185.538 -1383 233 232 248
-221.795 185.363 -1382 235 233 251
-218.966 185.323 -1382 235 233 251
-216.139 185.283 -1382 234 232 251
-213.313 185.244 -1382 237 235 253
-210.49 185.205 -1382 237 236 254
-207.668 185.167 -1382 235 236 255
-204.848 185.129 -1382 236 234 255
-202.175 185.226 -1383 235 233 254
-199.212 185.056 -1382 235 231 248
-196.255 184.886 -1381 233 229 246
-193.304 184.716 -1380 230 225 242
-190.634 184.815 -1381 226 219 234
-188.098 185.048 -1383 227 220 235
-185.421 185.148 -1384 227 222 236
-182.873 185.382 -1386 225 222 236
-179.93 185.216 -1385 223 221 235
-177.119 185.183 -1385 225 221 234
-174.185 185.018 -1384 221 214 226
-171.255 184.853 -1383 213 197 202
-168.453 184.822 -1383 192 171 174
-165.892 185.059 -1385 165 142 143
-163.089 185.029 -1385 142 116 111
-160.403 185.133 -1386 98 73 68
-157.6 185.104 -1386 71 49 44
-154.799 185.076 -1386 70 49 46
-151.999 185.048 -1386 71 51 49
-149.308 185.155 -1387 69 49 47
-146.614 185.261 -1388 74 53 51
-143.917 185.368 -1389 87 64 62
-141.218 185.476 -1390 90 70 68
-138.615 185.718 -1392 81 62 60
-135.712 185.56 -1391 92 77 79
-132.91 185.535 -1391 99 86 90
-130.297 185.778 -1393 130 119 127
-127.493 185.755 -1393 180 172 185
-124.78 185.866 -1394 202 195 208
-122.151 186.11 -1396 209 204 221
-119.344 186.088 -1396 213 208 225
-116.539 186.067 -1396 215 210 227
-113.734 186.046 -1396 216 211 228
-111.009 186.159 -1397 220 215 232
-108.282 186.273 -1398 224 219 236
-105.551 186.386 -1399 225 220 237
-102.744 186.368 -1399 223 219 236
-99.9376 186.35 -1399 225 220 237
-97.2014 186.465 -1400 224 220 237
-94.3946 186.448 -1400 225 219 238
-91.5886 186.431 -1400 224 218 239
-88.9101 186.681 -1402 222 217 238
-86.163 186.798 -1403 221 215 240
-83.4125 186.916 -1404 216 212 237
-80.6587 187.035 -1405 210 210 236
-78.0123 187.42 -1408 210 208 233
-75.1944 187.406 -1408 209 207 231
-72.3771 187.393 -1408 207 207 231
-69.5603 187.38 -1408 205 205 231
-66.7442 187.368 -1408 204 204 232
-63.8832 187.223 -1407 203 203 228
-61.1134 187.345 -1408 206 206 230
-58.3402 187.467 -1409 202 204 227
-55.5635 187.59 -1410 198 199 224
-52.7832 187.713 -1411 196 197 223
-50.0702 188.103 -1414 197 197 221
-47.2788 188.227 -1415 202 202 226
-44.5152 188.485 -1417 202 202 226
-41.7439 188.743 -1419 199 200 224
-38.9101 188.736 -1419 193 195 219
-36.0767 188.73 -1419 183 183 204
-33.2903 188.989 -1421 73 73 90
-30.4749 189.117 -1422 27 27 35
-27.6751 189.377 -1424 21 20 28
-24.8676 189.639 -1426 19 18 26
-22.0523 189.9 -1428 18 17 25
-19.2158 190.03 -1429 17 16 24
-16.3753 190.159 -1430 16 15 23
-13.55 190.556 -1433 16 15 23
-10.7053 190.82 -1435 16 15 23
-7.85824 191.217 -1438 16 15 23
-4.99925 191.615 -1441 15 14 22
-2.12833 192.013 -1444 14 13 21
0.752975 192.013 -1444 15 14 22
3.64184 192.412 -1447 15 14 22
6.53386 192.546 -1448 16 15 23
9.42975 192.68 -1449 18 17 25
12.3297 192.815 -1450 17 16 24
15.2442 193.084 -1452 15 14 21
18.1544 193.22 -1453 16 15 22
21.0687 193.356 -1454 18 17 24
23.9873 193.493 -1455 18 17 24
26.9469 193.897 -1458 18 17 24
29.8572 193.902 -1458 15 14 21
32.8579 194.44 -1462 15 14 21
35.8012 194.579 -1463 15 14 21
38.8281 195.117 -1467 16 15 22
41.7862 195.258 -1468 16 15 22
44.7484 195.399 -1469 16 15 22
47.7475 195.673 -1471 15 14 22
50.7204 195.815 -1472 16 15 23
53.6615 195.824 -1472 16 15 23
56.6414 195.967 -1473 15 14 22
59.5851 195.978 -1473 16 15 23
62.5294 195.989 -1473 17 16 24
65.4743 196 -1473 17 16 24
68.4661 196.145 -1474 18 17 25
71.4625 196.291 -1475 18 17 25
74.3625 196.171 -1474 19 18 26
77.3642 196.318 -1475 22 21 29
80.3158 196.332 -1475 19 18 26
83.4375 196.746 -1478 18 17 24
86.3967 196.761 -1478 19 18 26
89.4774 197.043 -1480 17 16 24
92.4419 197.06 -1480 15 14 22
95.4715 197.21 -1481 14 13 21
98.5062 197.36 -1482 14 13 21
101.477 197.378 -1482 15 14 22
104.519 197.53 -1483 15 14 22
107.566 197.683 -1484 14 13 20
110.543 197.702 -1484 15 14 22
113.598 197.856 -1485 17 16 25
116.579 197.876 -1485 18 17 27
119.481 197.764 -1484 19 18 28
122.462 197.786 -1484 22 21 31
125.36 197.675 -1483 25 24 36
128.255 197.565 -1482 24 23 33
131.235 197.588 -1482 22 21 31
134.216 197.612 -1482 21 20 29
137.106 197.504 -1481 20 19 28
140.371 197.929 -1484 20 19 28
143.456 198.088 -1485 19 18 27
146.843 198.648 -1489 17 16 24
150.146 199.075 -1492 15 14 22
153.873 200.036 -1499 13 12 23
156.897 200.064 -1499 12 11 23
160.348 200.627 -1503 12 11 24
163.165 200.389 -1501 12 11 20
166.197 200.419 -1501 11 10 18
169.005 200.182 -1499 10 9 19
172.035 200.213 -1499 10 9 19
174.95 200.111 -1498 11 10 20
178.1 200.277 -1499 11 10 20
181.014 200.176 -1498 11 10 20
183.926 200.075 -1497 13 12 23
186.71 199.842 -1495 16 15 22
189.741 199.876 -1495 18 17 24
192.516 199.643 -1493 19 18 24
195.677 199.812 -1494 19 18 25
198.711 199.848 -1494 21 20 27
201.747 199.884 -1494 20 19 28
204.51 199.654 -1492 19 18 26
207.545 199.691 -1492 19 18 26
210.441 199.595 -1491 19 18 26
213.477 199.634 -1491 19 18 26
216.515 199.673 -1491 21 20 28
219.997 200.115 -1494 22 21 31
223.791 200.825 -1499 19 18 27
228.516 202.34 -1510 20 19 27
-533.444 197.011 -1439 110 92 80
-530.904 197.182 -1441 107 91 86
-527.261 196.943 -1440 92 78 75
-521.808 196.022 -1434 41 36 39
-516.026 194.966 -1427 28 24 29
-510.281 193.911 -1420 21 18 24
-505.286 193.131 -1415 27 23 28
-501.028 192.625 -1412 22 18 24
-497.141 192.257 -1410 19 16 22
-494.319 192.298 -1411 17 16 24
-491.845 192.476 -1413 17 17 25
-489.367 192.655 -1415 16 16 24
-487.228 192.97 -1418 19 18 26
-484.056 192.878 -1418 21 20 28
-480.549 192.65 -1417 20 19 27
-477.052 192.423 -1416 21 20 28
-473.228 192.061 -1414 20 19 27
-469.418 191.7 -1412 18 17 25
-466.612 191.746 -1413 18 17 25
-464.134 191.929 -1415 16 15 23
-460.999 191.842 -1415 15 14 22
-458.84 192.161 -1418 18 17 25
-456.029 192.21 -1419 20 19 27
-453.537 192.395 -1421 21 20 28
-450.723 192.445 -1422 22 21 29
-448.223 192.631 -1424 23 22 31
-445.094 192.547 -1424 23 22 32
-441.969 192.463 -1424 20 19 27
-438.848 192.38 -1424 19 18 26
-435.731 192.298 -1424 19 18 26
-432.618 192.217 -1424 19 18 26
-429.811 192.271 -1425 18 17 25
-427.602 192.595 -1428 25 24 33
-424.492 192.515 -1428 26 25 33
-421.385 192.436 -1428 25 24 33
-417.697 192.088 -1426 20 19 29
-414.603 192.01 -1426 16 15 24
-410.935 191.664 -1424 15 14 22
-408.139 191.722 -1425 16 15 23
-405.627 191.915 -1427 19 18 26
-403.109 192.108 -1429 20 19 27
-400.587 192.302 -1431 23 22 31
-397.781 192.362 -1432 25 24 34
-394.975 192.423 -1433 24 23 31
-391.895 192.35 -1433 23 22 30
-388.547 192.143 -1432 24 23 31
-385.206 191.937 -1431 24 23 30
-381.339 191.464 -1428 23 22 29
-377.754 191.125 -1426 21 20 28
-374.705 191.055 -1426 18 17 27
-371.661 190.986 -1426 18 17 27
-368.619 190.918 -1426 19 18 26
-365.58 190.85 -1426 24 23 32
-362.8 190.917 -1427 24 23 33
-359.261 190.583 -1425 25 24 32
-356.235 190.517 -1425 23 22 30
-352.963 190.317 -1424 22 21 29
-350.191 190.386 -1425 23 22 31
-346.686 190.055 -1423 23 22 32
-343.676 189.992 -1423 25 24 31
-340.429 189.795 -1422 27 26 33
-337.427 189.733 -1422 30 29 36
-333.722 189.271 -1419 31 30 38
-330.733 189.21 -1419 28 27 35
-326.822 188.617 -1415 26 25 32
-323.388 188.29 -1413 26 25 32
-320.419 188.231 -1413 25 24 31
-317.229 188.04 -1412 23 22 29
-314.045 187.849 -1411 22 21 29
-311.53 188.058 -1413 24 23 31
-308.79 188.135 -1414 23 22 30
-305.833 188.078 -1414 23 22 30
-302.878 188.023 -1414 23 22 30
-300.138 188.101 -1415 24 23 31
-297.187 188.046 -1415 28 27 35
-294.03 187.86 -1414 30 29 37
-290.879 187.674 -1413 30 29 37
-287.94 187.621 -1413 28 27 35
-284.599 187.303 -1411 27 26 34
-281.269 186.987 -1409 29 28 36
-277.752 186.538 -1406 27 26 34
-274.25 186.09 -1403 27 26 35
-270.376 185.377 -1398 30 29 39
-267.29 185.196 -1397 35 34 42
-263.643 184.618 -1393 62 61 70
-260.576 184.438 -1392 188 187 199
-257.145 183.993 -1389 236 235 249
-254.278 183.947 -1389 239 238 252
-251.052 183.636 -1387 239 238 250
-248.372 183.724 -1388 238 237 250
-245.16 183.414 -1386 237 236 250
-242.482 183.503 -1387 235 234 246
-239.63 183.459 -1387 233 232 245
-236.95 183.548 -1388 234 233 247
-233.762 183.242 -1386 234 233 247
-230.918 183.2 -1386 233 232 246
-227.747 182.894 -1384 233 231 249
-224.585 182.589 -1382 233 231 249
-221.434 182.285 -1380 233 231 251
-218.926 182.509 -1382 235 233 253
-215.943 182.338 -1381 237 235 254
-213.12 182.3 -1381 238 236 255
-210.452 182.394 -1382 236 235 254
-207.78 182.488 -1383 234 233 252
-204.662 182.187 -1381 233 231 251
-202.139 182.414 -1383 234 231 252
-199.176 182.246 -1382 234 230 248
-196.362 182.211 -1382 232 228 245
-193.409 182.044 -1381 229 224 242
-190.461 181.878 -1380 227 219 234
-187.792 181.976 -1381 227 219 233
-185.253 182.206 -1383 226 222 235
-182.708 182.437 -1385 224 222 235
-179.897 182.404 -1385 222 221 235
-177.087 182.372 -1385 222 216 227
-174.153 182.209 -1384 206 196 205
-171.101 181.915 -1382 194 172 170
-168.301 181.885 -1382 175 148 144
-165.623 181.987 -1383 154 125 118
-162.942 182.089 -1384 119 86 76
-160.143 182.06 -1384 87 55 46
-157.345 182.032 -1384 84 55 48
-154.548 182.004 -1384 87 62 58
-151.862 182.108 -1385 91 68 64
-149.174 182.213 -1386 93 70 66
-146.482 182.318 -1387 93 70 66
-143.891 182.555 -1389 86 61 56
-141.192 182.661 -1390 76 52 49
-138.391 182.636 -1390 75 52 49
-135.59 182.612 -1390 79 59 57
-132.791 182.588 -1390 70 53 53
-130.18 182.827 -1392 82 69 71
-127.47 182.935 -1393 132 121 131
-124.757 183.044 -1394 182 172 183
-122.042 183.154 -1395 207 200 216
-119.237 183.132 -1395 216 210 226
-116.434 183.111 -1395 217 212 229
-113.551 182.96 -1394 219 213 231
-110.831 183.071 -1395 224 218 235
-108.108 183.183 -1396 228 222 239
-105.457 183.426 -1398 227 222 239
-102.726 183.539 -1399 225 220 237
-99.9911 183.652 -1400 225 220 237
-97.1841 183.635 -1400 224 219 237
-94.4452 183.749 -1401 223 217 237
-91.6376 183.733 -1401 223 217 239
-88.8942 183.848 -1402 223 217 239
-86.209 184.094 -1404 220 214 239
-83.457 184.21 -1405 214 210 236
-80.6443 184.196 -1405 209 209 235
-77.9985 184.575 -1408 210 208 233
-75.181 184.562 -1408 211 209 233
-72.3642 184.549 -1408 207 207 231
-69.5974 184.667 -1409 204 205 230
-66.7797 184.655 -1409 204 205 232
-63.9172 184.512 -1408 204 204 229
-61.1026 184.501 -1408 205 206 229
-58.2884 184.491 -1408 201 203 226
-55.5536 184.743 -1410 197 199 223
-52.7739 184.864 -1411 196 197 223
-50.0259 185.117 -1413 198 198 221
-47.2703 185.371 -1415 201 201 225
-44.5072 185.625 -1417 201 201 227
-41.6776 185.617 -1417 200 201 227
-38.9032 185.872 -1419 195 196 222
-36.0702 185.865 -1419 188 188 210
-33.261 185.99 -1420 79 80 97
-30.448 186.115 -1421 25 27 34
-27.6703 186.503 -1424 18 18 26
-24.8457 186.629 -1425 18 17 25
-22.033 186.887 -1427 18 17 25
-19.2124 187.146 -1429 19 18 26
-16.3724 187.273 -1430 18 17 25
-13.5381 187.533 -1432 17 16 24
-10.696 187.792 -1434 16 15 23
-7.85141 188.184 -1437 16 15 23
-4.98798 188.313 -1438 15 14 22
-2.12355 188.706 -1441 14 13 21
0.751791 188.837 -1442 15 14 22
3.63365 189.099 -1444 15 14 22
6.519 189.231 -1445 16 15 23
9.40857 189.363 -1446 18 17 26
12.302 189.496 -1447 18 17 27
15.2101 189.76 -1449 16 15 22
18.1262 190.025 -1451 17 16 23
21.036 190.16 -1452 18 17 24
23.9664 190.426 -1454 18 17 24
26.942 190.954 -1458 18 17 24
29.8315 190.828 -1457 17 16 23
32.852 191.488 -1462 16 15 22
35.7703 191.495 -1462 15 14 21
38.7683 191.894 -1465 15 14 21
41.6649 191.77 -1464 15 14 21
44.649 192.04 -1466 15 14 21
47.6739 192.441 -1469 16 15 23
50.7114 192.843 -1472 18 17 25
53.6519 192.852 -1472 18 17 25
56.6696 193.124 -1474 16 15 23
59.615 193.134 -1474 14 13 21
62.5184 193.014 -1473 15 14 23
65.4627 193.025 -1473 17 16 25
68.4538 193.168 -1474 18 17 25
71.4012 193.18 -1474 16 15 23
74.2987 193.062 -1473 16 15 23
77.2979 193.207 -1474 19 18 26
80.3015 193.352 -1475 19 18 25
83.4227 193.76 -1478 17 16 23
86.3813 193.775 -1478 19 18 26
89.4613 194.053 -1480 18 17 25
92.4878 194.2 -1481 15 14 22
95.519 194.348 -1482 14 13 22
98.4885 194.365 -1482 14 13 22
101.459 194.383 -1482 16 15 23
104.43 194.401 -1482 16 15 22
107.474 194.551 -1483 15 14 21
110.524 194.701 -1484 17 16 24
113.425 194.59 -1483 18 17 26
116.48 194.742 -1484 18 17 26
119.46 194.763 -1484 19 18 27
122.358 194.653 -1483 20 19 30
125.169 194.412 -1481 22 21 33
128.145 194.435 -1481 21 20 30
131.123 194.458 -1481 20 19 29
134.192 194.613 -1482 21 20 28
137.081 194.506 -1481 21 20 28
140.346 194.924 -1484 20 19 27
143.527 195.212 -1486 17 16 26
146.915 195.764 -1490 15 14 23
150.32 196.316 -1494 13 12 20
154.05 197.263 -1501 12 11 21
157.078 197.291 -1501 12 11 21
160.426 197.713 -1504 12 11 23
163.353 197.611 -1503 13 12 22
166.389 197.64 -1503 13 12 22
169.2 197.407 -1501 11 10 20
172.119 197.306 -1500 11 10 20
175.036 197.205 -1499 11 10 20
177.95 197.105 -1498 10 9 19
180.74 196.874 -1496 12 11 22
183.647 196.775 -1495 15 14 26
186.551 196.677 -1494 19 18 25
189.58 196.71 -1494 18 17 23
192.352 196.481 -1492 17 17 21
195.511 196.647 -1493 18 17 24
198.41 196.551 -1492 20 19 27
201.441 196.587 -1492 19 18 28
204.199 196.359 -1490 20 19 27
207.23 196.396 -1490 20 19 27
210.403 196.566 -1491 19 18 26
213.439 196.604 -1491 20 19 27
216.621 196.774 -1492 23 22 30
220.105 197.209 -1495 24 23 32
224.049 198.04 -1501 24 23 31
228.626 199.401 -1511 23 22 30
-533.012 194.95 -1447 93 78 73
-530.089 194.984 -1448 96 82 79
-525.347 194.346 -1444 53 46 50
-518.82 193.036 -1435 28 24 28
-512.339 191.728 -1426 20 17 22
-505.904 190.422 -1417 24 20 25
-501.288 189.79 -1413 23 20 25
-496.694 189.158 -1409 19 16 21
-494.225 189.334 -1411 17 16 24
-491.752 189.509 -1413 17 18 26
-489.274 189.685 -1415 15 17 24
-487.136 189.995 -1418 18 17 25
-484.306 190.038 -1419 20 19 27
-481.137 189.948 -1419 19 18 26
-477.635 189.724 -1418 21 20 28
-473.808 189.367 -1416 20 19 27
-469.994 189.012 -1414 19 18 26
-466.524 188.791 -1413 19 18 26
-464.374 189.104 -1416 18 17 25
-460.587 188.751 -1414 18 17 25
-458.43 189.066 -1417 18 17 25
-455.622 189.114 -1418 18 17 25
-453.452 189.43 -1421 20 19 27
-450.321 189.346 -1421 21 20 28
-448.14 189.662 -1424 23 22 30
-444.386 189.313 -1422 23 22 32
-441.576 189.364 -1423 21 20 28
-438.458 189.282 -1423 20 19 26
-435.956 189.467 -1425 19 18 26
-433.145 189.52 -1426 20 19 27
-430.334 189.573 -1427 22 21 29
-427.821 189.759 -1429 24 23 31
-424.413 189.548 -1428 25 24 33
-421.307 189.47 -1428 25 24 34
-417.62 189.127 -1426 22 21 31
-414.526 189.05 -1426 18 17 27
-411.148 188.842 -1425 17 16 24
-408.35 188.899 -1426 15 14 22
-405.552 188.957 -1427 17 16 24
-403.035 189.147 -1429 19 18 26
-400.513 189.338 -1431 19 18 28
-397.708 189.398 -1432 21 20 30
-394.627 189.325 -1432 23 22 31
-391.823 189.385 -1433 23 22 31
-388.746 189.314 -1433 25 24 33
-385.135 188.979 -1431 24 23 31
-381.002 188.381 -1427 22 21 29
-377.419 188.048 -1425 19 18 26
-374.374 187.979 -1425 17 16 25
-371.071 187.779 -1424 18 17 26
-368.034 187.712 -1424 17 16 24
-365.257 187.777 -1425 22 21 30
-362.479 187.843 -1426 24 23 33
-359.195 187.645 -1425 24 23 31
-356.169 187.581 -1425 20 19 27
-352.899 187.385 -1424 19 18 26
-349.881 187.321 -1424 24 23 32
-346.623 187.126 -1423 24 23 33
-343.613 187.064 -1423 27 26 33
-340.367 186.87 -1422 27 26 33
-337.128 186.678 -1421 28 27 34
-333.427 186.223 -1418 30 29 37
-329.973 185.901 -1416 28 27 34
-326.531 185.579 -1414 26 25 32
-323.329 185.389 -1413 25 24 30
-320.134 185.2 -1412 25 24 30
-317.396 185.274 -1413 22 21 28
-314.211 185.086 -1412 20 19 27
-311.253 185.029 -1412 23 22 30
-308.516 185.105 -1413 23 22 30
-305.561 185.049 -1413 23 22 30
-302.609 184.995 -1413 24 23 31
-299.872 185.072 -1414 26 25 33
-296.923 185.018 -1414 26 25 33
-293.561 184.704 -1412 28 27 35
-290.415 184.52 -1411 30 29 37
-287.684 184.599 -1412 26 25 33
-284.548 184.418 -1411 25 24 32
-281.019 183.975 -1408 28 27 35
-277.899 183.794 -1407 26 25 33
-274.396 183.353 -1404 26 25 34
-270.327 182.521 -1398 29 28 38
-267.433 182.473 -1398 35 34 42
-263.974 182.034 -1395 69 68 77
-260.529 181.596 -1392 192 191 203
-257.099 181.158 -1389 238 237 250
-254.233 181.113 -1389 237 236 250
-251.007 180.807 -1387 235 234 246
-248.327 180.893 -1388 236 235 248
-245.116 180.589 -1386 234 233 247
-242.439 180.676 -1387 234 233 245
-239.587 180.633 -1387 232 231 244
-236.908 180.721 -1388 234 233 247
-233.721 180.418 -1386 234 233 247
-230.877 180.377 -1386 235 234 248
-227.706 180.076 -1384 232 230 249
-224.383 179.646 -1381 234 232 251
-221.394 179.476 -1380 233 231 252
-218.729 179.568 -1381 234 232 253
-215.748 179.399 -1380 236 234 255
-212.928 179.361 -1380 237 235 254
-210.11 179.324 -1380 237 235 254
-207.143 179.157 -1379 236 234 253
-204.33 179.12 -1379 236 232 253
-201.811 179.344 -1381 235 231 252
-198.997 179.309 -1381 233 229 248
-196.185 179.274 -1381 230 226 245
-193.514 179.37 -1382 228 224 243
-190.428 179.076 -1380 230 222 237
-187.758 179.173 -1381 229 221 235
-185.22 179.399 -1383 226 222 237
-182.544 179.496 -1384 223 221 235
-179.735 179.465 -1384 217 216 230
-176.928 179.433 -1384 201 192 202
-174.122 179.402 -1384 165 152 158
-171.07 179.113 -1382 175 145 136
-168.393 179.212 -1383 170 135 124
-165.714 179.313 -1384 149 112 99
-163.031 179.413 -1385 110 72 59
-160.23 179.385 -1385 101 64 53
-157.431 179.357 -1385 110 76 68
-154.521 179.2 -1384 139 111 105
-151.835 179.303 -1385 154 129 123
-149.255 179.535 -1387 158 133 128
-146.562 179.639 -1388 150 124 118
-143.866 179.743 -1389 137 110 105
-141.269 179.976 -1391 114 89 85
-138.366 179.823 -1390 95 70 66
-135.566 179.799 -1390 78 52 46
-132.863 179.905 -1391 66 44 40
-130.25 180.14 -1393 78 61 59
-127.448 180.118 -1393 118 102 109
-124.825 180.354 -1395 142 126 135
-122.108 180.462 -1396 197 185 201
-119.302 180.441 -1396 217 209 225
-116.497 180.42 -1396 217 212 229
-113.612 180.271 -1395 223 215 233
-110.891 180.38 -1396 228 220 238
-108.166 180.49 -1397 230 222 240
-105.438 180.601 -1398 228 222 239
-102.708 180.712 -1399 226 221 238
-99.9736 180.823 -1400 225 220 237
-97.167 180.806 -1400 226 221 238
-94.3611 180.79 -1400 224 218 238
-91.5561 180.773 -1400 222 216 238
-88.8153 180.887 -1401 222 216 238
-86.071 181.001 -1402 220 214 240
-83.3829 181.244 -1404 213 209 235
-80.5727 181.23 -1404 208 209 233
-77.9294 181.603 -1407 210 209 232
-75.2212 181.848 -1409 212 210 233
-72.4029 181.835 -1409 207 207 230
-69.5851 181.823 -1409 205 205 229
-66.768 181.811 -1409 205 206 232
-63.9059 181.67 -1408 206 206 229
-61.0919 181.659 -1408 206 206 229
-58.2369 181.52 -1407 202 204 227
-55.4651 181.639 -1408 199 201 224
-52.7272 181.888 -1410 196 198 222
-49.9817 182.137 -1412 197 198 219
-47.2287 182.386 -1414 199 200 222
-44.468 182.636 -1416 200 200 226
-41.6997 182.887 -1418 196 197 224
-38.9238 183.138 -1420 195 196 223
-36.064 183.002 -1419 191 192 213
-33.2786 183.254 -1421 82 83 100
-30.4642 183.378 -1422 26 28 35
-27.6848 183.759 -1425 22 22 30
-24.8414 183.755 -1425 20 19 27
-22.0445 184.138 -1428 19 18 26
-19.209 184.263 -1429 19 18 26
-16.3696 184.389 -1430 17 16 24
-13.5358 184.644 -1432 16 15 23
-10.7016 185.029 -1435 17 16 24
-7.85554 185.414 -1438 15 14 22
-4.98714 185.413 -1438 13 12 20
-2.12173 185.67 -1440 14 13 21
0.751131 185.799 -1441 15 14 22
3.6305 186.057 -1443 16 15 23
6.52239 186.445 -1446 17 16 24
9.40027 186.317 -1445 19 18 27
12.3082 186.706 -1448 21 20 30
15.2283 187.095 -1451 18 17 24
18.1479 187.356 -1453 16 15 22
21.0467 187.36 -1453 16 15 22
23.9788 187.621 -1455 16 15 22
26.9374 188.013 -1458 17 16 24
29.8262 187.889 -1457 17 16 23
32.8012 188.281 -1460 17 16 23
35.764 188.545 -1462 15 14 21
38.735 188.809 -1464 16 15 22
41.6575 188.816 -1464 15 14 21
44.6716 189.211 -1467 16 15 22
47.698 189.606 -1470 19 18 26
50.6337 189.614 -1470 20 19 27
53.7153 190.139 -1474 19 18 26
56.6597 190.149 -1474 16 15 23
59.6448 190.288 -1475 15 14 22
62.5073 190.041 -1473 15 14 24
65.4956 190.181 -1474 16 15 24
68.3955 190.064 -1473 17 16 24
71.3404 190.076 -1473 15 14 22
74.185 189.831 -1471 15 14 22
77.2319 190.102 -1473 18 17 25
