ply
format ascii 1.0
comment Created by Open3D
element vertex 1463
property double x
property double y
property double z
property uchar red
property uchar green
property uchar blue
end_header
177.967 264.558 -1573 20 19 33
181.159 264.599 -1573 20 19 33
184.586 264.977 -1575 22 21 35
187.904 265.188 -1576 24 23 37
190.984 265.063 -1575 20 19 32
194.309 265.276 -1576 20 19 31
197.264 264.984 -1574 24 23 33
200.467 265.03 -1574 25 24 35
204.189 265.75 -1578 21 20 32
207.666 266.134 -1580 21 20 32
211.687 267.193 -1586 21 20 32
215.192 267.579 -1588 23 22 34
218.432 267.629 -1588 21 20 30
221.674 267.679 -1588 18 17 27
224.634 267.394 -1586 19 18 28
228.163 267.783 -1588 21 20 30
231.702 268.173 -1590 22 21 30
234.956 268.227 -1590 21 20 28
238.661 268.788 -1593 25 22 32
242.228 269.181 -1595 27 24 34
245.652 269.406 -1596 27 24 34
248.926 269.463 -1596 74 66 70
252.992 270.365 -1601 152 138 139
256.92 271.1 -1605 173 153 151
260.057 270.99 -1604 179 150 147
263.52 271.22 -1605 179 149 143
266.491 270.943 -1603 180 149 140
270.297 271.512 -1606 183 149 143
273.607 271.575 -1606 177 144 141
276.747 271.47 -1605 174 143 143
280.059 271.535 -1605 172 142 134
283.727 271.938 -1607 171 141 131
287.048 272.004 -1607 169 138 127
290.372 272.072 -1607 165 130 120
294.064 272.478 -1609 154 120 105
297.397 272.547 -1609 154 120 102
300.545 272.447 -1608 160 127 110
303.692 272.348 -1607 167 135 118
307.028 272.419 -1607 173 143 126
310.367 272.49 -1607 176 147 126
313.709 272.563 -1607 180 151 131
317.448 272.976 -1609 181 152 132
320.6 272.881 -1608 179 150 134
324.153 273.126 -1609 180 150 139
327.103 272.862 -1607 187 158 148
330.458 272.939 -1607 186 159 151
333.609 272.847 -1606 183 158 148
336.968 272.925 -1606 184 160 149
340.542 273.174 -1607 185 162 149
344.337 273.594 -1609 181 160 149
348.144 274.016 -1611 182 161 151
351.961 274.438 -1613 180 159 150
354.689 274.01 -1610 178 154 150
358.519 274.434 -1612 179 156 151
361.239 274.008 -1609 177 156 149
364.402 273.923 -1608 175 153 146
367.335 273.668 -1606 177 156 149
371.186 274.096 -1608 180 159 152
373.652 273.502 -1604 180 159 152
377.279 273.761 -1605 179 158 154
380.439 273.679 -1604 182 161 158
384.316 274.111 -1606 179 159 159
387.722 274.202 -1606 177 157 154
391.375 274.465 -1607 177 157 153
395.036 274.728 -1608 175 155 150
398.457 274.822 -1608 174 154 147
401.881 274.917 -1608 175 155 146
405.561 275.183 -1609 174 154 145
408.995 275.28 -1609 170 149 145
412.432 275.377 -1609 174 150 145
416.39 275.818 -1611 172 147 142
420.099 276.089 -1612 170 146 139
423.816 276.36 -1613 167 144 138
427.277 276.461 -1613 165 142 136
430.741 276.563 -1613 165 142 135
434.21 276.666 -1613 164 141 133
437.682 276.77 -1613 161 140 133
441.705 277.218 -1615 161 139 133
446.292 278.011 -1619 157 134 130
448.956 277.602 -1616 159 135 129
452.73 277.882 -1617 160 136 130
456.513 278.163 -1618 153 130 124
459.167 277.756 -1615 157 136 131
463.818 278.555 -1619 147 131 128
467.624 278.839 -1620 145 131 126
472.603 279.812 -1625 144 130 124
477.021 280.443 -1628 150 130 125
480.866 280.73 -1629 153 128 126
484.125 280.674 -1628 152 128 125
487.984 280.963 -1629 149 125 121
490.946 280.736 -1627 153 128 123
495.119 281.2 -1629 153 130 121
498.388 281.147 -1628 154 131 123
502.581 281.613 -1630 148 126 119
506.167 281.735 -1630 152 129 120
509.758 281.858 -1630 142 119 108
513.668 282.155 -1631 143 119 111
517.905 282.626 -1633 143 119 115
521.516 282.752 -1633 142 121 114
524.811 282.705 -1632 134 109 103
529.401 283.353 -1635 127 102 97
533.358 283.656 -1636 131 106 100
536.667 283.612 -1635 135 113 103
540.638 283.917 -1636 137 118 111
544.951 284.396 -1638 140 121 115
548.609 284.53 -1638 143 123 118
551.934 284.49 -1637 142 122 119
555.6 284.625 -1637 151 123 120
559.612 284.936 -1638 163 135 132
561.914 284.377 -1634 178 149 146
565.935 284.689 -1635 176 148 145
568.92 284.48 -1633 180 150 143
572.954 284.794 -1634 180 150 141
576.645 284.935 -1634 185 154 145
580.696 285.252 -1635 183 152 143
584.4 285.395 -1635 184 155 146
587.39 285.19 -1633 187 158 148
590.739 285.161 -1632 183 156 146
596.274 286.181 -1637 181 153 144
599.273 285.979 -1635 178 148 139
604.111 286.653 -1638 172 142 133
607.485 286.627 -1637 159 133 125
612.354 287.304 -1640 139 116 108
616.115 287.456 -1640 122 102 93
620.639 287.96 -1642 117 97 87
625.557 288.641 -1645 124 102 89
629.348 288.797 -1645 127 107 94
634.3 289.481 -1648 132 110 95
638.498 289.816 -1649 135 111 96
642.706 290.151 -1650 137 112 102
648.1 291.016 -1654 135 105 96
653.52 291.882 -1658 128 95 86
658.172 292.399 -1660 130 99 88
663.238 293.093 -1663 139 109 98
667.924 293.612 -1665 140 111 99
672.222 293.956 -1666 142 116 99
674.909 293.596 -1663 145 116 102
678.812 293.766 -1663 143 118 102
683.133 294.114 -1664 142 116 100
686.226 293.933 -1662 149 120 106
690.148 294.107 -1662 160 130 119
694.911 294.636 -1664 162 131 120
698.012 294.457 -1662 162 131 119
702.376 294.812 -1663 163 130 117
705.479 294.635 -1661 155 120 108
709.86 294.992 -1662 143 106 95
715.113 295.706 -1665 135 101 89
720.818 296.599 -1669 129 97 88
725.248 296.96 -1670 130 93 87
730.126 297.501 -1672 123 94 85
734.582 297.866 -1673 117 92 79
736.843 297.342 -1669 0 0 0
-958.906 295.976 -1607 220 198 190
-956.577 297.479 -1618 232 208 202
-955.09 298.139 -1623 236 209 203
-951.244 298.064 -1624 235 208 202
-948.57 298.357 -1627 233 204 199
-944.73 298.284 -1628 231 201 196
-940.896 298.213 -1629 229 202 195
-934.767 297.411 -1626 229 200 194
-929.238 296.794 -1624 225 197 191
-924.301 296.363 -1623 224 197 190
-919.946 296.115 -1623 221 195 189
-916.73 296.234 -1625 219 193 187
-912.391 295.989 -1625 214 187 183
-908.621 295.928 -1626 213 186 182
-903.745 295.504 -1625 210 182 182
-898.883 295.082 -1624 207 176 177
-895.69 295.206 -1626 203 174 173
-892.497 295.331 -1628 195 168 166
-889.304 295.457 -1630 187 163 157
-884.48 295.041 -1629 176 152 146
-881.294 295.169 -1631 155 130 127
-879.182 295.66 -1635 141 115 113
-873.848 295.067 -1633 154 126 123
-872.263 295.74 -1638 161 127 124
-869.601 296.052 -1641 164 134 129
-865.879 296.004 -1642 168 140 135
-860.062 295.237 -1639 168 144 138
-857.403 295.552 -1642 172 154 148
-851.621 294.788 -1639 170 154 147
-844.312 293.488 -1633 175 159 150
-838.588 292.729 -1630 183 168 155
-835.959 293.049 -1633 191 174 160
-831.795 292.831 -1633 191 175 163
-828.655 292.974 -1635 191 175 164
-822.992 292.222 -1632 199 182 171
-819.862 292.366 -1634 194 177 168
-813.735 291.439 -1630 192 175 166
-808.631 290.872 -1628 191 174 164
-801.569 289.592 -1622 198 180 168
-798.97 289.92 -1625 194 178 168
-792.452 288.823 -1620 191 175 165
-789.374 288.976 -1622 186 171 160
-785.326 288.773 -1622 189 174 166
-781.287 288.572 -1622 189 175 165
-775.818 287.838 -1619 190 175 165
-772.756 287.995 -1621 191 171 164
-768.744 287.798 -1621 192 171 162
-763.797 287.247 -1619 196 175 164
-758.398 286.52 -1616 197 177 164
-753.021 285.795 -1613 196 175 166
-749.061 285.604 -1613 193 173 165
-745.57 285.591 -1614 197 177 170
-741.164 285.224 -1613 194 173 168
-737.226 285.037 -1613 195 174 167
-733.752 285.027 -1614 199 177 168
-728.471 284.312 -1611 200 177 166
-725.461 284.48 -1613 195 173 162
-720.66 283.945 -1611 201 175 164
-716.765 283.763 -1611 203 176 164
-711.993 283.231 -1609 202 173 156
-707.678 282.876 -1608 198 170 152
-702.938 282.347 -1606 197 170 151
-698.214 281.819 -1604 199 175 155
-694.805 281.82 -1605 199 175 159
-690.538 281.47 -1604 201 175 158
-686.283 281.122 -1603 202 175 159
-682.89 281.126 -1604 203 176 161
-679.077 280.956 -1604 199 172 152
-674.849 280.611 -1603 198 171 147
-670.633 280.269 -1602 194 167 143
-667.261 280.277 -1603 200 172 147
-663.891 280.286 -1604 206 177 152
-660.934 280.47 -1606 206 176 149
-657.975 280.656 -1608 203 172 152
-653.792 280.318 -1607 201 170 150
-650.43 280.331 -1608 203 169 148
-646.264 279.996 -1607 207 174 150
-642.11 279.662 -1606 209 175 151
-638.365 279.504 -1606 207 173 148
-634.625 279.347 -1606 208 171 149
-630.499 279.017 -1605 209 172 150
-626.775 278.862 -1605 208 171 150
-622.668 278.534 -1604 203 169 148
-618.572 278.208 -1603 206 172 149
-615.254 278.23 -1604 202 169 144
-611.938 278.252 -1605 200 164 150
-609.001 278.449 -1607 197 162 146
-605.308 278.3 -1607 193 159 141
-602.37 278.499 -1609 198 162 139
-598.312 278.179 -1608 196 166 144
-594.264 277.86 -1607 199 173 151
-589.492 277.197 -1604 200 173 159
-584.739 276.536 -1601 129 107 94
-580.005 275.876 -1598 50 31 19
-574.93 275.045 -1594 44 33 28
-569.878 274.216 -1590 44 33 31
-565.919 273.905 -1589 41 32 32
-561.615 273.424 -1587 38 30 34
-557.326 272.943 -1585 36 28 34
-553.052 272.465 -1583 34 27 33
-548.791 271.987 -1581 29 25 32
-544.2 271.339 -1578 28 23 31
-539.285 270.52 -1574 30 23 31
-535.414 270.219 -1573 32 27 35
-532.229 270.262 -1574 35 30 38
-527.7 269.619 -1571 35 30 38
-523.858 269.321 -1570 31 26 35
-520.687 269.367 -1571 29 25 34
-516.53 268.899 -1569 31 28 36
-512.059 268.262 -1566 31 28 36
-508.905 268.31 -1567 33 30 38
-505.752 268.36 -1568 33 30 38
-502.279 268.239 -1568 33 30 38
-498.174 267.777 -1566 33 30 38
-494.714 267.659 -1566 32 29 38
-490.317 267.028 -1563 30 27 35
-486.562 266.741 -1562 33 30 38
-483.125 266.625 -1562 31 28 36
-479.385 266.34 -1561 28 25 33
-475.958 266.226 -1561 28 25 33
-472.234 265.943 -1560 30 27 35
-468.217 265.49 -1558 31 28 36
-464.512 265.209 -1557 28 25 33
-460.815 264.929 -1556 28 25 33
-456.834 264.479 -1554 30 27 35
-452.865 264.031 -1552 30 27 35
-449.488 263.924 -1552 27 26 34
-446.115 263.818 -1552 30 29 37
-442.46 263.543 -1551 29 28 36
-439.098 263.439 -1551 28 27 35
-435.739 263.336 -1551 28 27 35
-431.548 262.724 -1548 27 26 34
-427.097 261.944 -1544 28 27 35
-424.039 262.014 -1545 31 30 38
-419.62 261.236 -1541 29 28 36
-416.302 261.138 -1541 28 27 35
-412.184 260.532 -1538 25 24 32
-408.614 260.266 -1537 24 23 31
-404.261 259.494 -1533 25 24 32
-400.713 259.23 -1532 25 24 32
-396.914 258.798 -1530 23 22 30
-393.127 258.367 -1528 25 24 32
-389.351 257.938 -1526 27 26 34
-386.094 257.847 -1526 28 27 35
-382.339 257.419 -1524 28 27 35
-379.093 257.33 -1524 27 26 34
-375.85 257.242 -1524 26 25 33
-373.1 257.492 -1526 26 25 33
-369.617 257.237 -1525 26 25 33
-366.382 257.151 -1525 27 26 34
-363.15 257.066 -1525 28 27 35
-359.45 256.645 -1523 28 27 35
-355.761 256.225 -1521 29 28 36
-352.083 255.806 -1519 30 29 37
-348.417 255.388 -1517 28 27 36
-344.763 254.971 -1515 29 28 38
-341.345 254.723 -1514 32 31 41
-337.712 254.308 -1512 32 31 41
-334.311 254.062 -1511 30 30 40
-330.259 253.312 -1507 28 27 38
-326.227 252.564 -1503 28 27 39
-322.215 251.817 -1499 26 25 37
-319.287 251.911 -1500 26 25 36
-316.146 251.837 -1500 24 23 33
-313.426 252.101 -1502 26 25 35
-310.493 252.196 -1503 31 30 40
-307.764 252.461 -1505 29 28 36
-304.219 252.055 -1503 27 26 34
-300.684 251.65 -1501 28 27 35
-297.161 251.246 -1499 29 28 36
-293.649 250.842 -1497 29 28 36
-290.148 250.44 -1495 29 28 36
-286.465 249.871 -1492 29 28 36
-283.177 249.639 -1491 28 27 35
-279.708 249.239 -1489 25 24 32
-276.064 248.673 -1486 24 23 31
-272.802 248.443 -1485 24 23 31
-269.728 248.381 -1485 28 27 35
-266.476 248.152 -1484 29 28 36
-262.877 247.59 -1481 29 28 36
-259.818 247.53 -1481 28 27 35
-256.588 247.304 -1480 28 27 35
-253.535 247.245 -1480 27 26 34
-250.485 247.188 -1480 24 23 31
-247.938 247.632 -1483 20 19 27
-245.051 247.743 -1484 23 22 30
-241.999 247.687 -1484 25 24 32
-239.11 247.799 -1485 26 25 33
-236.059 247.745 -1485 25 24 33
-232.854 247.525 -1484 23 22 32
-229.655 247.305 -1483 23 22 32
-226.767 247.42 -1484 24 23 33
-223.425 247.035 -1482 23 22 32
-220.391 246.985 -1482 23 22 32
-217.358 246.935 -1482 26 25 35
-214.761 247.386 -1485 19 18 28
-211.869 247.504 -1486 20 19 29
-209.115 247.789 -1488 20 19 29
-206.492 248.241 -1491 20 19 29
-203.859 248.694 -1494 21 20 30
-201.082 248.981 -1496 20 19 29
-198.43 249.435 -1499 17 16 27
-195.376 249.39 -1499 16 15 27
-192.453 249.513 -1500 16 16 28
-189.527 249.636 -1501 17 17 29
-186.723 249.926 -1503 16 17 29
-183.545 249.718 -1502 18 18 30
-180.614 249.843 -1503 21 20 32
-177.68 249.968 -1504 23 22 32
-174.627 249.929 -1504 26 25 35
-171.462 249.723 -1503 28 27 37
-168.526 249.851 -1504 27 26 36
-165.477 249.813 -1504 26 25 35
-162.322 249.61 -1503 27 26 34
-158.855 248.909 -1499 28 27 35
-155.301 248.044 -1494 29 28 36
-151.768 247.179 -1489 30 28 36
-147.857 245.651 -1480 29 26 34
-144.474 244.955 -1476 28 27 35
-141.203 244.424 -1473 26 25 33
-138.321 244.559 -1474 21 20 27
-135.253 244.362 -1473 20 19 26
-132.549 244.83 -1476 20 19 27
-129.834 245.298 -1479 16 15 23
-126.936 245.435 -1480 18 17 25
-124.036 245.572 -1481 21 20 28
-121.05 245.545 -1481 22 22 32
-117.986 245.352 -1480 22 22 32
-115.005 245.326 -1480 24 23 31
-112.1 245.466 -1481 24 23 31
-109.119 245.441 -1481 24 23 31
-106.425 246.08 -1485 22 21 31
-103.437 246.056 -1485 21 20 30
-100.383 245.867 -1484 21 20 30
-97.2672 245.514 -1482 21 20 30
-94.2879 245.492 -1482 23 22 32
-91.1245 244.975 -1479 24 23 33
-88.0336 244.623 -1477 23 22 32
-85.1819 244.935 -1479 22 21 31
-82.2115 244.916 -1479 21 20 30
-79.2954 245.064 -1480 21 20 30
-76.2728 244.881 -1479 22 21 31
-73.2053 244.533 -1477 23 22 32
-70.1465 244.186 -1475 22 21 31
-67.1873 244.17 -1475 21 20 30
-64.2722 244.321 -1476 21 20 30
-61.4366 244.803 -1479 21 20 30
-58.5501 245.121 -1481 21 20 30
-55.656 245.439 -1483 22 21 31
-52.6477 245.262 -1482 22 21 31
-49.7779 245.747 -1485 21 20 30
-46.8966 246.232 -1488 21 20 30
-43.9741 246.553 -1490 21 20 30
-40.9889 246.544 -1490 21 20 30
-38.0296 246.7 -1491 20 19 29
-35.043 246.692 -1491 19 18 28
-31.9923 246.188 -1488 20 19 29
-29.0513 246.512 -1490 23 22 32
-26.085 246.671 -1491 23 22 32
-23.1305 246.997 -1493 21 20 31
-20.1411 246.992 -1493 20 19 30
-17.1864 247.484 -1496 22 21 31
-14.1818 247.315 -1495 23 22 33
-11.2038 247.643 -1497 22 21 33
-8.21236 247.806 -1498 19 18 30
-5.22064 248.136 -1500 16 15 27
-2.22076 248.466 -1502 14 13 25
0.787097 248.797 -1504 14 13 21
3.80784 249.459 -1508 14 13 21
6.84028 249.956 -1511 14 13 21
9.89785 250.785 -1516 13 12 22
12.9412 250.953 -1517 15 14 24
16.0099 251.453 -1520 18 17 25
19.0532 251.457 -1520 21 20 28
22.1111 251.627 -1521 22 21 29
25.173 251.797 -1522 22 21 29
28.2208 251.804 -1522 22 21 29
31.2688 251.81 -1522 22 21 29
34.3396 251.983 -1523 22 21 29
37.3165 251.495 -1520 22 21 29
40.3347 251.338 -1519 21 20 28
43.4064 251.513 -1520 21 20 28
46.4824 251.688 -1521 19 18 26
49.4978 251.534 -1520 18 17 25
52.6478 252.042 -1523 17 16 24
55.737 252.219 -1524 18 17 25
58.7151 251.901 -1522 16 15 24
61.7262 251.749 -1521 22 21 31
64.7336 251.598 -1520 21 20 30
67.7377 251.447 -1519 20 19 30
70.8316 251.628 -1520 20 19 30
73.9786 251.976 -1522 22 21 31
77.1342 252.324 -1524 24 23 33
80.2986 252.673 -1526 23 22 32
83.5261 253.188 -1529 21 20 30
86.6533 253.373 -1530 21 20 30
89.7263 253.392 -1530 19 17 25
92.9216 253.744 -1532 18 17 25
96.0628 253.931 -1533 19 18 26
99.2737 254.284 -1535 19 18 28
102.76 255.301 -1541 17 16 26
106.065 255.822 -1544 16 16 26
109.454 256.508 -1548 17 16 29
112.86 257.196 -1552 18 17 31
116.208 257.719 -1555 21 20 34
119.416 257.912 -1556 20 19 33
122.629 258.105 -1557 22 21 35
125.847 258.298 -1558 18 17 33
128.656 257.664 -1554 17 15 30
131.534 257.196 -1551 17 16 29
134.315 256.562 -1547 22 21 35
137.347 256.427 -1546 19 18 32
140.649 256.79 -1548 23 22 36
143.961 257.154 -1550 20 19 33
147.471 257.851 -1554 20 19 33
151.095 258.714 -1559 17 16 30
154.543 259.246 -1562 16 15 29
157.904 259.614 -1564 15 14 28
161.583 260.48 -1569 17 16 30
165.074 261.015 -1572 19 18 32
168.149 260.886 -1571 23 22 36
171.332 260.925 -1571 23 21 38
174.515 260.964 -1571 22 20 36
177.7 261.004 -1571 20 19 33
180.657 260.712 -1569 19 18 32
184.192 261.252 -1572 20 19 33
187.265 261.128 -1571 21 20 34
190.698 261.503 -1573 18 17 30
193.525 261.048 -1570 19 18 30
197.093 261.591 -1573 23 22 32
200.166 261.47 -1572 23 22 33
203.754 262.014 -1575 19 18 30
207.356 262.56 -1578 19 18 30
211.105 263.273 -1582 21 20 32
214.737 263.821 -1585 23 22 34
217.695 263.537 -1583 21 20 30
220.926 263.587 -1583 19 18 28
224.158 263.637 -1583 19 18 28
227.824 264.188 -1586 19 18 28
231.358 264.574 -1588 19 18 28
234.902 264.96 -1590 20 19 28
238.456 265.347 -1592 26 23 33
241.869 265.569 -1593 23 21 31
245.442 265.958 -1595 25 23 33
249.025 266.348 -1597 56 48 52
252.934 267.072 -1601 139 125 127
256.381 267.297 -1602 170 150 148
259.673 267.356 -1602 178 150 147
263.46 267.916 -1605 176 147 142
266.43 267.643 -1603 173 143 134
269.899 267.871 -1604 174 140 134
273.203 267.933 -1604 167 135 131
276.338 267.829 -1603 164 135 133
279.995 268.227 -1605 163 133 123
283.662 268.626 -1607 160 129 118
286.982 268.691 -1607 159 127 114
290.305 268.757 -1607 157 123 108
294.179 269.326 -1610 151 117 100
297.328 269.227 -1609 157 123 103
300.476 269.128 -1608 164 131 113
303.622 269.03 -1607 171 140 122
306.957 269.1 -1607 178 148 131
310.489 269.339 -1608 178 149 130
313.832 269.41 -1608 184 155 137
316.98 269.315 -1607 184 155 138
320.326 269.389 -1607 180 151 136
323.877 269.631 -1608 180 151 139
326.824 269.37 -1606 187 157 146
330.587 269.782 -1608 186 156 147
333.532 269.523 -1606 181 157 145
337.519 270.104 -1609 182 159 146
340.039 269.51 -1605 183 160 146
344.043 270.093 -1608 183 160 149
347.63 270.341 -1609 181 158 148
351.007 270.422 -1609 181 158 151
353.946 270.168 -1607 180 156 151
357.769 270.586 -1609 182 159 153
360.93 270.501 -1608 178 157 150
364.09 270.417 -1607 174 152 145
366.792 269.997 -1604 173 151 144
370.407 270.251 -1605 178 156 149
373.331 270.001 -1603 180 159 151
377.19 270.425 -1605 181 160 154
380.35 270.345 -1604 181 160 155
383.987 270.602 -1605 180 160 159
387.39 270.692 -1605 180 160 157
390.553 270.614 -1604 176 156 152
394.452 271.043 -1606 174 154 150
397.868 271.136 -1606 173 153 147
401.787 271.567 -1608 173 153 145
404.962 271.492 -1607 171 151 143
409.407 272.263 -1611 168 146 145
412.335 272.022 -1609 169 148 145
416.55 272.626 -1612 170 149 145
420 272.724 -1612 168 147 142
424.242 273.331 -1615 164 143 138
427.441 273.261 -1614 162 141 136
431.441 273.701 -1616 159 138 133
434.645 273.633 -1615 160 139 132
438.664 274.075 -1617 162 141 134
441.874 274.009 -1616 153 132 126
445.635 274.283 -1617 153 132 127
449.96 274.898 -1620 160 136 130
453.183 274.835 -1619 160 135 128
457.533 275.452 -1622 155 130 124
459.911 274.881 -1618 153 132 129
463.708 275.16 -1619 149 133 130
467.224 275.27 -1619 143 127 124
472.781 276.572 -1626 138 123 119
476.907 277.024 -1628 146 127 123
481.341 277.649 -1631 148 125 123
484.902 277.764 -1631 148 126 122
488.765 278.05 -1632 144 122 117
491.733 277.825 -1630 147 122 118
495.608 278.113 -1631 148 124 116
499.186 278.232 -1631 152 128 121
503.077 278.522 -1632 145 122 116
506.356 278.471 -1631 144 121 113
510.573 278.934 -1633 136 114 103
513.544 278.715 -1631 140 117 108
517.78 279.18 -1633 141 117 113
521.391 279.305 -1633 140 116 110
525.649 279.772 -1635 134 110 104
528.95 279.728 -1634 134 109 104
533.881 280.54 -1638 136 111 107
537.522 280.669 -1638 131 111 104
541.829 281.141 -1640 124 107 101
545.817 281.443 -1641 129 111 106
549.146 281.404 -1640 131 113 109
552.137 281.193 -1638 140 121 118
555.465 281.155 -1637 161 132 129
558.451 280.946 -1635 170 141 137
561.434 280.738 -1633 182 153 149
564.759 280.702 -1632 179 151 147
568.434 280.839 -1632 180 152 146
572.815 281.321 -1634 180 150 141
575.798 281.116 -1632 182 151 142
579.489 281.256 -1632 184 153 144
583.185 281.398 -1632 186 156 147
585.808 281.022 -1629 185 155 146
589.147 280.993 -1628 186 157 147
594.672 282 -1633 181 153 143
597.66 281.8 -1631 178 148 139
602.488 282.465 -1634 176 146 137
606.223 282.613 -1634 172 145 136
611.083 283.281 -1637 161 136 129
614.461 283.258 -1636 146 125 118
620.108 284.275 -1641 128 107 98
623.882 284.427 -1641 119 96 83
628.81 285.101 -1644 126 103 90
632.989 285.43 -1645 135 112 97
636.404 285.412 -1644 141 117 101
641.378 286.091 -1647 142 117 107
646.765 286.945 -1651 145 115 106
651.782 287.626 -1654 140 106 99
656.026 287.962 -1655 136 102 93
661.08 288.647 -1658 138 105 94
664.148 288.462 -1656 133 102 91
668.828 288.976 -1658 136 108 91
672.306 288.968 -1657 141 113 97
675.786 288.961 -1656 141 116 100
678.037 288.431 -1652 144 119 103
683.578 289.299 -1656 149 120 104
686.654 289.12 -1654 160 129 118
692.232 289.991 -1658 163 130 119
695.737 289.99 -1657 156 125 115
700.088 290.339 -1658 152 117 106
702.753 289.989 -1655 149 110 99
710.108 291.568 -1663 137 93 85
714.503 291.922 -1664 141 102 95
721.931 293.506 -1672 139 105 95
726.367 293.864 -1673 134 98 92
731.688 294.574 -1676 113 85 78
735.274 294.583 -1675 111 88 79
737.098 293.889 -1670 0 0 0
-941.575 293.692 -1623 210 182 178
-937.179 293.441 -1623 211 185 179
-932.793 293.193 -1623 209 183 177
-927.846 292.765 -1622 205 180 173
-923.485 292.519 -1622 204 181 173
-919.134 292.275 -1622 201 179 172
-915.358 292.212 -1623 199 177 170
-912.148 292.33 -1625 199 173 168
-908.38 292.27 -1626 198 170 167
-903.505 291.852 -1625 191 163 162
-900.859 292.153 -1628 186 155 156
-896.555 291.916 -1628 183 152 152
-893.358 292.04 -1630 173 143 142
-889.069 291.806 -1630 161 133 131
-885.876 291.932 -1632 148 122 119
-882.142 291.879 -1633 138 110 110
-878.414 291.828 -1634 125 97 97
-875.224 291.957 -1636 135 107 106
-873.099 292.443 -1640 134 103 100
-871.493 293.107 -1645 130 101 98
-866.707 292.703 -1644 134 107 103
-862.461 292.479 -1644 137 113 107
-858.224 292.256 -1644 144 124 117
-828.577 286.947 -1619 174 159 142
-824.894 288.116 -1628 186 170 158
-822.779 288.612 -1632 186 169 159
-819.65 288.755 -1634 178 161 153
-813.026 287.663 -1629 184 168 159
-807.43 286.926 -1626 184 167 157
-800.869 285.839 -1621 186 169 157
-797.782 285.987 -1623 185 169 159
-792.249 285.256 -1620 185 170 159
-789.172 285.407 -1622 181 165 155
-784.158 284.855 -1620 185 169 161
-782.532 285.535 -1625 186 171 162
-775.62 284.284 -1619 187 172 162
-772.083 284.263 -1620 187 166 158
-768.549 284.244 -1621 185 164 152
-763.131 283.524 -1618 184 162 149
-759.144 283.332 -1618 181 159 145
-753.764 282.616 -1615 186 164 153
-749.335 282.252 -1614 185 163 155
-744.458 281.715 -1612 189 168 160
-741.436 281.877 -1614 190 167 161
-736.584 281.343 -1612 192 169 163
-732.203 280.984 -1611 191 167 158
-728.288 280.802 -1611 190 166 155
-723.48 280.272 -1609 194 166 153
-720.032 280.265 -1610 198 166 153
-715.696 279.912 -1609 197 164 149
-711.815 279.734 -1609 196 161 142
-707.941 279.558 -1609 192 158 139
-703.637 279.208 -1608 191 159 138
-698.91 278.687 -1606 193 165 141
-694.632 278.341 -1605 197 168 149
-690.366 277.996 -1604 199 169 151
-686.54 277.825 -1604 201 170 153
-683.572 278.002 -1606 195 164 151
-680.178 278.007 -1607 195 165 141
-675.945 277.667 -1606 192 162 134
-672.141 277.501 -1606 189 159 131
-667.928 277.163 -1605 196 163 135
-664.141 276.999 -1605 203 169 141
-660.771 277.009 -1606 204 169 138
-657.813 277.192 -1608 199 165 146
-654.444 277.203 -1609 200 166 146
-651.078 277.216 -1610 202 167 147
-647.311 277.057 -1610 205 171 148
-643.551 276.899 -1610 202 167 143
-639.003 276.398 -1608 199 163 138
-634.865 276.071 -1607 193 157 133
-630.738 275.745 -1606 191 155 132
-627.012 275.592 -1606 196 159 138
-622.904 275.269 -1605 197 163 143
-618.807 274.946 -1604 198 165 143
-615.104 274.797 -1604 192 158 137
-611.407 274.648 -1604 193 156 142
-607.716 274.5 -1604 194 158 141
-604.784 274.696 -1606 191 157 137
-601.475 274.721 -1607 194 159 134
-597.423 274.405 -1606 196 166 142
-593.381 274.091 -1605 200 173 149
-589.349 273.777 -1604 202 174 160
-584.597 273.124 -1601 135 113 100
-578.776 271.961 -1595 51 31 19
-574.07 271.311 -1592 45 33 28
-569.741 270.833 -1590 42 32 30
-565.07 270.186 -1587 38 29 29
-560.773 269.71 -1585 36 27 29
-556.841 269.406 -1584 35 27 31
-552.919 269.104 -1583 34 27 33
-548.659 268.632 -1581 27 24 31
-544.759 268.332 -1580 27 23 30
-539.155 267.183 -1574 30 24 32
-535.626 267.055 -1574 32 27 35
-531.425 266.589 -1572 34 29 37
-527.91 266.463 -1572 34 29 37
-524.4 266.338 -1572 29 24 33
-520.894 266.214 -1572 28 24 32
-516.736 265.752 -1570 32 29 37
-512.264 265.122 -1567 32 29 37
-508.784 265.001 -1567 33 30 38
-505.632 265.05 -1568 32 29 37
-502.159 264.931 -1568 32 29 37
-497.737 264.306 -1565 34 31 39
-494.281 264.189 -1565 32 29 37
-489.887 263.566 -1562 28 25 33
-486.447 263.451 -1562 32 29 37
-482.701 263.169 -1561 32 29 37
-479.271 263.055 -1561 29 26 34
-475.236 262.606 -1559 28 25 33
-471.517 262.327 -1558 30 27 35
-467.506 261.88 -1556 31 28 36
-463.508 261.434 -1554 26 23 31
-460.411 261.494 -1555 24 21 29
-456.726 261.218 -1554 26 24 32
-452.466 260.608 -1551 28 26 34
-449.382 260.67 -1552 26 25 33
-446.01 260.566 -1552 28 27 35
-442.357 260.294 -1551 28 27 35
-438.995 260.191 -1551 29 28 36
-435.356 259.921 -1550 31 30 38
-431.447 259.485 -1548 29 28 36
-427.273 258.882 -1545 29 28 36
-423.117 258.281 -1542 30 29 37
-419.522 258.015 -1541 29 28 36
-415.934 257.751 -1540 30 29 37
-412.623 257.655 -1540 27 26 34
-408.784 257.225 -1538 26 25 33
-404.957 256.796 -1536 23 22 30
-400.358 255.867 -1531 23 22 30
-396.303 255.274 -1528 24 23 31
-392.778 255.015 -1527 24 23 31
-389.006 254.591 -1525 26 25 33
-385.499 254.335 -1524 27 26 34
-382.25 254.246 -1524 24 23 31
-379.254 254.325 -1525 23 22 30
-375.763 254.071 -1524 26 25 33
-372.769 254.152 -1525 25 24 32
-369.774 254.233 -1526 23 22 30
-366.537 254.148 -1526 22 21 29
-363.066 253.898 -1525 25 24 32
-359.131 253.315 -1522 24 23 32
-355.445 252.9 -1520 26 25 35
-351.307 252.154 -1516 29 28 36
-347.878 251.907 -1515 28 27 36
-343.773 251.163 -1511 29 28 38
-340.816 251.251 -1512 33 32 42
-337.187 250.841 -1510 30 29 39
-333.791 250.598 -1509 29 30 40
-329.964 250.024 -1506 29 28 40
-326.369 249.617 -1504 28 27 39
-322.786 249.211 -1502 27 26 38
-319.426 248.972 -1501 25 24 36
-316.495 249.065 -1502 24 23 33
-313.563 249.159 -1503 26 25 35
-310.422 249.088 -1503 31 30 39
-307.489 249.184 -1504 30 29 37
-304.149 248.948 -1503 28 27 35
-300.616 248.548 -1501 30 29 37
-296.895 247.984 -1498 30 29 37
-293.386 247.586 -1496 30 29 37
-289.887 247.188 -1494 31 30 38
-286.208 246.627 -1491 30 29 37
-282.733 246.231 -1489 30 29 37
-279.269 245.837 -1487 26 25 33
-276.001 245.609 -1486 24 23 31
-272.556 245.216 -1484 22 21 29
-269.485 245.155 -1484 27 26 34
-266.057 244.764 -1482 28 27 35
-262.639 244.374 -1480 29 28 36
-259.583 244.315 -1480 29 28 36
-256.529 244.256 -1480 28 27 35
-253.306 244.034 -1479 27 26 34
-250.428 244.142 -1480 24 23 31
-247.882 244.581 -1483 21 20 28
-244.83 244.525 -1483 24 23 31
-241.781 244.47 -1483 26 25 33
-239.055 244.746 -1485 26 25 33
-235.847 244.527 -1484 26 25 33
-232.801 244.475 -1484 24 23 33
-229.603 244.258 -1483 21 20 30
-226.563 244.207 -1483 20 19 29
-223.074 243.662 -1480 19 18 28
-220.193 243.777 -1481 23 22 32
-217.163 243.728 -1481 24 23 33
-214.424 244.009 -1483 16 15 25
-211.536 244.125 -1484 19 18 28
-208.927 244.571 -1487 21 20 30
-206.169 244.854 -1489 20 19 29
-203.677 245.466 -1493 21 20 30
-200.768 245.585 -1494 20 19 29
-198.253 246.197 -1498 17 16 27
-195.202 246.153 -1498 15 14 26
-192.41 246.439 -1500 17 16 28
-189.358 246.396 -1500 20 19 31
-186.432 246.518 -1501 19 18 30
-183.382 246.477 -1501 19 18 30
-180.573 246.765 -1503 19 18 30
-177.758 247.053 -1505 19 18 28
-174.704 247.013 -1505 24 23 33
-171.651 246.975 -1505 27 26 36
-168.488 246.773 -1504 26 25 35
-165.33 246.571 -1503 25 24 34
-162.178 246.371 -1502 27 26 34
-158.819 245.843 -1499 27 26 34
-155.162 244.824 -1493 28 27 35
-151.734 244.134 -1489 30 29 37
-147.924 242.789 -1481 28 27 35
-144.441 241.937 -1476 24 23 31
-141.171 241.413 -1473 25 24 32
-138.384 241.71 -1475 23 22 29
-135.314 241.516 -1474 20 19 27
-132.519 241.813 -1476 21 20 28
-129.629 241.948 -1477 18 17 25
-126.565 241.756 -1476 20 19 27
-123.673 241.892 -1477 23 22 30
-120.615 241.701 -1476 24 25 34
-117.562 241.511 -1475 24 25 35
-114.669 241.649 -1476 26 25 33
-112 242.278 -1480 27 26 34
-108.947 242.09 -1479 25 24 32
-106.186 242.557 -1482 24 23 33
-103.205 242.534 -1482 22 21 31
-100.157 242.348 -1481 21 20 30
-96.9831 241.835 -1478 22 21 31
-93.9488 241.65 -1477 22 21 31
-90.7963 241.139 -1474 22 21 31
-87.8948 241.283 -1475 21 20 30
-84.9325 241.264 -1475 19 18 28
-82.0264 241.409 -1476 19 18 28
-79.2242 241.881 -1479 21 20 30
-76.2558 241.864 -1479 24 23 33
-73.189 241.521 -1477 25 24 34
-70.1308 241.178 -1475 23 22 32
-67.1723 241.162 -1475 23 22 32
-64.2143 241.148 -1475 24 23 33
-61.3399 241.461 -1477 25 24 34
-58.4975 241.938 -1480 24 23 33
-55.6436 242.416 -1483 24 23 33
-52.636 242.24 -1482 22 21 31
-49.7669 242.719 -1485 20 19 29
-46.8547 243.036 -1487 20 19 29
-43.9349 243.353 -1489 21 20 30
-41.0073 243.67 -1491 21 20 30
-38.0212 243.661 -1491 20 19 29
-35.0118 243.49 -1490 20 19 29
-31.9851 243.156 -1488 21 20 30
-29.0449 243.476 -1490 22 21 31
-26.0792 243.633 -1491 21 20 30
-23.1098 243.791 -1492 20 19 30
-20.1232 243.786 -1492 20 19 29
-17.171 244.272 -1495 20 19 29
-14.1786 244.269 -1495 21 20 30
-11.1863 244.266 -1495 22 21 31
-8.20512 244.591 -1497 19 18 30
-5.21586 244.916 -1499 15 14 26
-2.21882 245.242 -1501 15 14 26
0.787438 245.895 -1505 16 15 24
3.80701 246.386 -1508 16 15 23
6.84333 247.041 -1512 15 14 22
9.88247 247.369 -1514 15 14 22
12.9299 247.699 -1516 18 17 26
15.9852 248.029 -1518 20 19 28
19.0238 248.033 -1518 21 20 29
22.0771 248.2 -1519 22 21 30
25.1013 248.042 -1518 21 20 28
28.1589 248.212 -1519 21 20 28
31.1797 248.055 -1518 22 21 29
34.2418 248.225 -1519 23 22 30
37.2591 248.07 -1518 22 21 29
40.3256 248.242 -1519 20 19 27
43.3396 248.088 -1518 18 17 25
46.4109 248.261 -1519 17 16 24
49.4868 248.435 -1520 19 18 26
52.5669 248.61 -1521 19 18 26
55.7246 249.112 -1524 20 19 27
58.7019 248.798 -1522 16 15 24
61.7124 248.648 -1521 20 19 28
64.7191 248.499 -1520 24 23 33
67.7226 248.35 -1519 22 21 31
70.7692 248.365 -1519 22 21 31
73.9135 248.708 -1521 22 21 31
77.0158 248.888 -1522 22 21 31
80.228 249.397 -1525 22 21 31
83.3436 249.578 -1526 20 19 29
86.5207 249.924 -1528 19 18 28
89.4717 249.617 -1526 18 17 25
92.6582 249.964 -1528 17 16 24
95.7908 250.148 -1529 20 19 27
99.0575 250.661 -1532 23 22 32
102.537 251.665 -1538 21 20 30
105.973 252.507 -1543 19 18 28
109.218 252.858 -1545 18 17 30
112.617 253.537 -1549 19 18 32
115.884 253.89 -1551 22 21 35
119.083 254.08 -1552 20 19 33
122.444 254.598 -1555 20 19 33
125.415 254.298 -1553 17 16 30
128.296 253.835 -1550 16 15 29
131.251 253.536 -1548 15 14 28
134.111 253.074 -1545 19 18 32
137.139 252.941 -1544 19 18 32
140.527 253.463 -1547 18 17 31
143.928 253.986 -1550 18 17 31
147.343 254.51 -1553 13 12 26
150.771 255.035 -1556 14 13 27
154.311 255.725 -1560 15 14 28
157.566 255.923 -1561 19 18 32
161.135 256.615 -1565 19 18 32
164.722 257.307 -1569 19 18 32
167.898 257.344 -1569 21 20 34
171.075 257.382 -1569 22 21 36
174.365 257.585 -1570 21 20 35
177.434 257.46 -1569 21 20 34
180.501 257.336 -1568 20 19 33
183.799 257.541 -1569 21 20 34
187.103 257.746 -1570 22 21 35
190.413 257.953 -1571 15 14 28
193.482 257.831 -1570 16 15 28
196.799 258.039 -1571 22 21 32
199.994 258.084 -1571 23 22 34
203.32 258.293 -1572 21 20 32
206.521 258.339 -1572 19 18 30
210.257 259.043 -1576 20 19 31
213.469 259.091 -1576 20 19 31
217.233 259.797 -1580 20 19 29
220.457 259.846 -1580 19 18 28
223.683 259.896 -1580 17 16 26
227.342 260.44 -1583 17 16 26
230.869 260.82 -1585 19 18 28
234.258 261.037 -1586 18 17 27
237.803 261.419 -1588 24 21 31
241.359 261.803 -1590 22 20 30
244.925 262.187 -1592 21 20 30
248.812 262.901 -1596 46 38 42
252.245 263.122 -1597 125 112 114
255.843 263.509 -1599 166 146 144
259.29 263.732 -1600 176 148 145
262.908 264.12 -1602 173 145 140
266.203 264.18 -1602 167 137 130
269.837 264.57 -1604 167 133 127
273.141 264.632 -1604 162 130 125
276.275 264.529 -1603 156 129 124
279.757 264.757 -1604 153 124 111
283.244 264.985 -1605 149 119 104
286.56 265.05 -1605 153 120 105
290.239 265.446 -1607 160 126 109
293.564 265.512 -1607 165 131 112
296.891 265.578 -1607 174 140 120
300.034 265.481 -1606 174 141 123
303.741 265.88 -1608 175 143 126
306.505 265.453 -1605 178 148 131
310.418 266.019 -1608 177 148 129
313.565 265.925 -1607 182 153 136
316.71 265.831 -1606 184 155 139
320.054 265.903 -1606 183 154 139
323.601 266.142 -1607 183 154 140
326.545 265.885 -1605 184 155 142
330.101 266.125 -1606 186 156 146
333.04 265.869 -1604 183 158 145
337.022 266.443 -1607 180 156 143
339.961 266.189 -1605 180 157 142
343.75 266.598 -1607 182 159 148
346.903 266.511 -1606 179 156 146
350.708 266.923 -1608 179 155 149
354.084 267.004 -1608 185 161 155
357.686 267.251 -1609 181 158 152
361.071 267.333 -1609 176 155 148
364.459 267.417 -1609 179 155 149
367.622 267.334 -1608 178 154 148
370.783 267.253 -1607 179 155 149
374.176 267.338 -1607 178 157 150
377.573 267.425 -1607 177 157 150
380.499 267.179 -1605 174 154 148
383.898 267.267 -1605 175 154 152
387.059 267.189 -1604 177 157 154
390.219 267.112 -1603 170 150 147
393.869 267.369 -1604 170 150 147
398.271 268.127 -1608 172 152 147
402.193 268.553 -1610 171 151 145
405.371 268.479 -1609 169 149 142
409.057 268.74 -1610 169 148 146
413.007 269.169 -1612 169 148 145
416.711 269.432 -1613 168 147 144
420.423 269.696 -1614 166 145 140
424.405 270.128 -1616 162 141 136
428.136 270.394 -1617 161 140 135
431.34 270.327 -1616 154 133 128
434.813 270.427 -1616 153 132 125
437.747 270.194 -1614 150 129 122
442.044 270.798 -1617 150 128 122
446.082 271.237 -1619 149 127 121
450.132 271.676 -1621 153 129 123
453.916 271.949 -1622 155 130 123
457.144 271.888 -1621 154 130 123
459.803 271.491 -1618 150 129 126
463.598 271.767 -1619 145 126 124
467.403 272.044 -1620 142 125 122
471.797 272.657 -1623 136 120 117
476.209 273.273 -1626 143 124 121
481.523 274.393 -1632 142 122 118
485.084 274.507 -1632 142 121 117
489.249 274.957 -1634 142 121 116
492.522 274.904 -1633 141 120 113
495.795 274.852 -1632 145 124 117
499.68 275.138 -1633 145 124 117
504.191 275.761 -1636 142 122 115
507.167 275.543 -1634 137 117 110
511.702 276.169 -1637 129 109 100
514.367 275.784 -1634 134 114 104
518.608 276.244 -1636 142 118 111
521.905 276.198 -1635 137 117 110
525.524 276.322 -1635 131 112 104
529.147 276.447 -1635 131 110 104
533.428 276.911 -1637 133 111 108
537.722 277.376 -1639 126 106 102
541.699 277.673 -1640 124 107 101
545.354 277.803 -1640 128 110 106
549.684 278.272 -1642 137 118 115
552.342 277.894 -1639 144 125 122
555.331 277.687 -1637 164 137 133
558.659 277.65 -1636 172 143 139
560.955 277.105 -1632 178 149 144
564.624 277.239 -1632 178 150 145
568.297 277.375 -1632 178 149 143
571.976 277.511 -1632 181 151 142
574.249 276.968 -1628 183 152 142
578.284 277.276 -1629 186 155 146
581.258 277.075 -1627 188 157 148
584.948 277.215 -1627 186 155 146
588.642 277.356 -1627 189 158 149
593.071 277.839 -1629 183 153 144
596.416 277.812 -1628 179 148 139
600.867 278.297 -1630 178 147 138
604.221 278.272 -1629 177 149 141
609.069 278.931 -1632 175 150 143
613.185 279.25 -1633 170 147 142
618.068 279.912 -1636 162 138 126
622.59 280.404 -1638 141 113 104
627.892 281.241 -1642 134 108 97
631.295 281.222 -1641 137 112 99
635.861 281.719 -1643 147 123 107
638.885 281.531 -1641 148 123 113
644.648 282.545 -1646 155 125 116
648.076 282.531 -1645 159 125 118
653.091 283.205 -1648 159 123 115
657.728 283.709 -1650 157 121 110
662.782 284.386 -1653 150 116 105
666.243 284.377 -1652 138 109 91
668.895 284.024 -1649 135 109 91
672.763 284.188 -1649 144 119 102
676.228 284.181 -1648 142 117 101
681.758 285.038 -1652 155 126 109
685.654 285.206 -1652 165 134 123
689.973 285.548 -1653 164 131 120
694.305 285.892 -1654 156 128 119
699.915 286.755 -1658 154 123 114
704.701 287.275 -1660 151 117 108
711.212 288.489 -1666 147 110 102
718.188 289.878 -1673 156 119 113
725.205 291.27 -1680 151 119 109
728.356 291.103 -1678 144 114 109
734.56 292.153 -1683 115 88 83
736.406 291.467 -1678 109 87 80
737.354 290.435 -1671 0 0 0
-921.31 287.143 -1611 173 154 144
-918.688 287.436 -1614 173 153 144
-916.06 287.73 -1617 170 150 143
-913.99 288.202 -1621 167 147 140
-909.664 287.964 -1621 168 143 138
-905.35 287.728 -1621 166 140 137
-900.49 287.315 -1620 159 133 131
-897.304 287.436 -1622 158 127 128
-892.467 287.027 -1621 158 128 127
-889.838 287.327 -1624 151 121 120
-886.657 287.451 -1626 144 114 114
-884.018 287.752 -1629 139 111 111
-880.293 287.701 -1630 139 111 111
-878.723 288.356 -1635 129 101 101
-875.532 288.483 -1637 126 98 98
-872.873 288.787 -1640 130 101 98
-870.209 289.091 -1643 125 99 95
-865.429 288.692 -1642 121 97 91
-814.427 283.401 -1624 163 147 139
-809.327 282.847 -1622 166 150 140
-805.239 282.643 -1622 168 152 141
-800.666 282.267 -1621 175 158 146
-796.597 282.065 -1621 180 163 153
-791.071 281.344 -1618 181 164 154
-788.486 281.667 -1621 176 159 149
-782.992 280.949 -1618 177 159 151
-779.928 281.1 -1620 176 159 151
-775.425 280.732 -1619 179 160 152
-772.365 280.885 -1621 181 159 150
-766.934 280.173 -1618 179 159 143
-761.996 279.636 -1616 175 153 138
-760.36 280.311 -1621 173 150 135
-754.042 279.258 -1616 182 159 148
-750.077 279.071 -1616 181 159 149
-746.119 278.886 -1616 184 162 152
-742.629 278.874 -1617 189 164 157
-735.943 277.656 -1611 187 164 155
-732.476 277.647 -1612 181 157 146
-728.107 277.294 -1611 177 153 141
-725.099 277.459 -1613 182 157 141
-720.747 277.108 -1612 187 158 140
-716.853 276.931 -1612 185 154 135
-713.408 276.927 -1613 185 152 129
-708.206 276.238 -1610 183 153 128
-704.776 276.236 -1611 187 156 131
-698.737 275.206 -1606 189 156 131
-694.894 275.036 -1606 190 157 136
-690.626 274.695 -1605 193 158 139
-687.655 274.869 -1607 195 160 142
-684.255 274.872 -1608 192 154 142
-681.281 275.048 -1610 196 158 136
-677.041 274.711 -1609 189 152 126
-672.814 274.376 -1608 188 151 125
-668.597 274.043 -1607 193 153 126
-664.806 273.881 -1607 199 159 130
-661.021 273.72 -1607 201 160 128
-658.061 273.901 -1609 193 158 135
-655.505 274.252 -1612 195 159 135
-651.728 274.094 -1612 196 159 135
-647.958 273.937 -1612 197 161 135
-643.795 273.612 -1611 192 157 131
-639.642 273.287 -1610 191 155 129
-635.106 272.794 -1608 188 155 130
-630.978 272.472 -1607 187 153 131
-627.251 272.321 -1607 194 160 140
-623.53 272.171 -1607 191 158 140
-618.272 271.345 -1603 191 158 140
-614.956 271.366 -1604 189 156 138
-611.641 271.388 -1605 192 155 140
-608.328 271.412 -1606 194 159 139
-605.016 271.436 -1607 194 160 137
-602.453 271.798 -1610 197 164 137
-598.395 271.486 -1609 200 171 145
-593.238 270.669 -1605 202 174 149
-588.841 270.192 -1603 206 177 162
-584.092 269.546 -1600 151 128 116
-579.001 268.735 -1596 52 31 20
-574.293 268.093 -1593 44 30 25
-570.68 267.957 -1593 40 29 28
-565.292 266.982 -1588 38 29 29
-561.7 266.848 -1588 38 28 30
-557.06 266.212 -1585 36 28 33
-552.787 265.745 -1583 35 28 35
-548.182 265.112 -1580 29 26 34
-544.285 264.815 -1579 29 25 33
-539.37 264.017 -1575 31 26 34
-535.159 263.555 -1573 33 28 36
-531.299 263.262 -1572 31 26 34
-527.449 262.97 -1571 32 27 35
-524.276 263.014 -1572 29 26 34
-520.44 262.724 -1571 31 28 36
-516.285 262.269 -1569 32 29 37
-512.143 261.814 -1567 33 30 37
-508.664 261.695 -1567 32 29 37
-505.19 261.576 -1567 28 25 33
-501.401 261.292 -1566 29 26 34
-497.938 261.175 -1566 34 31 39
-494.165 260.893 -1565 32 29 37
-490.086 260.444 -1563 30 27 35
-486.333 260.164 -1562 32 29 37
-481.97 259.552 -1559 31 28 36
-478.545 259.441 -1559 30 27 35
-474.82 259.163 -1558 30 27 35
-470.802 258.721 -1556 32 29 37
-466.796 258.28 -1554 32 29 37
-463.4 258.172 -1554 28 25 33
-459.712 257.899 -1553 23 20 28
-456.032 257.627 -1552 25 23 31
-452.069 257.19 -1550 27 26 34
-448.698 257.086 -1550 27 26 34
-445.332 256.983 -1550 27 26 34
-441.969 256.881 -1550 27 26 34
-438.61 256.78 -1550 29 28 36
-434.694 256.348 -1548 29 28 36
-431.626 256.414 -1549 29 28 36
-426.622 255.322 -1543 29 28 36
-423.568 255.39 -1544 27 26 34
-419.969 255.128 -1543 26 25 33
-415.569 254.371 -1539 28 27 35
-412.26 254.276 -1539 26 25 33
-408.956 254.182 -1539 25 24 32
-405.128 253.758 -1537 21 20 28
-400.527 252.841 -1532 21 20 28
-396.211 252.09 -1528 24 23 31
-392.688 251.835 -1527 24 23 31
-388.917 251.416 -1525 25 24 32
-385.41 251.162 -1524 25 24 32
-382.413 251.24 -1525 25 24 32
-379.664 251.482 -1527 24 23 31
-376.17 251.232 -1526 24 23 31
-372.684 250.982 -1525 24 23 31
-369.931 251.227 -1527 23 22 30
-366.454 250.978 -1526 22 21 29
-362.745 250.567 -1524 24 23 31
-358.813 249.992 -1521 23 22 31
-354.896 249.418 -1518 26 25 35
-350.763 248.681 -1514 32 31 39
-347.339 248.438 -1513 31 30 39
-343.468 247.867 -1510 31 30 40
-340.288 247.789 -1510 30 30 40
-336.664 247.385 -1508 26 26 36
-333.052 246.981 -1506 26 27 37
-329.232 246.414 -1503 29 29 40
-326.078 246.341 -1503 27 26 38
-321.853 245.448 -1498 26 25 36
-318.716 245.376 -1498 26 25 35
-316.002 245.632 -1500 25 24 34
-312.866 245.561 -1500 25 24 33
-309.732 245.491 -1500 27 26 35
-307.215 245.913 -1503 29 28 36
-303.878 245.681 -1502 31 30 38
-300.348 245.286 -1500 29 28 36
-296.828 244.892 -1498 30 29 37
-293.516 244.662 -1497 32 31 39
-289.822 244.106 -1494 30 29 37
-285.951 243.388 -1490 30 29 37
-282.669 243.161 -1489 31 30 38
-279.018 242.608 -1486 27 26 34
-275.567 242.22 -1484 24 23 31
-272.311 241.996 -1483 23 22 30
-269.243 241.935 -1483 26 25 33
-265.817 241.549 -1481 27 26 34
-262.58 241.327 -1480 28 27 35
-259.174 240.943 -1478 29 28 35
-256.298 241.048 -1479 29 28 36
-253.078 240.828 -1478 27 26 34
-250.203 240.935 -1479 26 25 33
-247.492 241.206 -1481 24 23 31
-244.445 241.151 -1481 23 22 30
-241.564 241.26 -1482 25 24 32
-238.68 241.369 -1483 26 25 33
-235.635 241.316 -1483 26 25 33
-232.592 241.264 -1483 23 22 32
-229.397 241.05 -1482 22 21 31
-226.207 240.837 -1481 21 20 30
-223.174 240.787 -1481 20 19 29
-220.143 240.738 -1481 22 21 31
-217.114 240.689 -1481 23 22 32
-214.376 240.967 -1483 20 19 29
-211.631 241.244 -1485 21 20 30
-208.88 241.523 -1487 21 20 30
-206.123 241.801 -1489 21 20 30
-203.632 242.406 -1493 20 19 29
-200.857 242.686 -1495 20 19 29
-198.209 243.128 -1498 19 18 28
-195.029 242.923 -1497 18 17 28
-192.11 243.042 -1498 19 18 30
-189.064 243 -1498 21 20 32
-186.267 243.283 -1500 21 20 32
-183.219 243.242 -1500 21 21 33
-180.413 243.526 -1502 19 19 31
-177.482 243.649 -1503 19 19 29
-174.549 243.772 -1504 23 22 32
-171.499 243.734 -1504 26 25 35
-168.227 243.373 -1502 25 24 34
-165.074 243.174 -1501 25 24 34
-161.926 242.976 -1500 28 27 35
-158.466 242.293 -1496 29 28 36
-154.816 241.286 -1490 28 27 35
-151.598 240.929 -1488 29 28 36
-147.791 239.601 -1480 28 27 35
-144.409 238.921 -1476 24 23 31
-141.236 238.566 -1474 27 26 33
-138.26 238.535 -1474 25 24 31
-135.193 238.343 -1473 20 19 27
-132.31 238.476 -1474 19 18 26
-129.338 238.447 -1474 20 19 27
-126.366 238.419 -1474 21 20 28
-123.478 238.553 -1475 22 21 29
-120.425 238.365 -1474 22 22 32
-117.376 238.177 -1473 21 22 32
-114.643 238.637 -1476 24 23 31
-111.748 238.773 -1477 26 25 34
-108.776 238.749 -1477 25 24 33
-105.948 239.049 -1479 24 23 33
-103.043 239.188 -1480 23 22 32
-99.9324 238.842 -1478 22 21 31
-96.8305 238.498 -1476 22 21 31
-93.7374 238.154 -1474 21 20 30
-90.7147 237.972 -1473 20 19 29
-87.6968 237.791 -1472 21 20 30
-84.8563 238.095 -1474 19 18 28
-82.0084 238.4 -1476 18 17 27
-79.1532 238.705 -1478 21 20 30
-76.1359 238.527 -1477 24 23 33
-73.1234 238.349 -1476 23 22 32
-70.0679 238.01 -1474 21 20 30
-67.1575 238.157 -1475 23 22 32
-64.2438 238.304 -1476 25 24 34
-61.368 238.613 -1478 25 24 34
-58.4847 238.923 -1480 25 24 34
-55.5938 239.233 -1482 24 23 33
-52.6244 239.221 -1482 23 22 32
-49.7225 239.533 -1484 22 21 31
-46.8444 240.007 -1487 22 21 31
-43.9252 240.32 -1489 21 20 30
-40.9983 240.633 -1491 20 19 29
-38.0128 240.624 -1491 20 19 29
-35.0041 240.455 -1490 21 20 30
-31.9782 240.125 -1488 21 20 30
-29.0189 240.28 -1489 20 19 29
-26.056 240.435 -1490 19 18 28
-23.1048 240.752 -1492 19 18 28
-20.1322 240.909 -1493 20 19 29
-17.1788 241.389 -1496 20 19 29
-14.1755 241.224 -1495 21 20 30
-11.1839 241.222 -1495 22 21 32
-8.19791 241.381 -1496 20 19 31
-5.21129 241.702 -1498 17 16 29
-2.21836 242.185 -1501 16 15 28
0.786212 242.508 -1503 16 15 25
3.81123 243.638 -1510 15 14 24
6.83715 243.8 -1511 14 13 21
9.88036 244.286 -1514 13 12 20
12.9184 244.45 -1515 17 16 24
15.9608 244.615 -1516 20 19 29
19.007 244.78 -1517 22 21 31
22.0286 244.623 -1516 23 22 32
25.0627 244.628 -1516 22 21 29
28.0786 244.473 -1515 20 19 27
31.1318 244.64 -1516 19 18 26
34.1891 244.809 -1517 18 17 25
37.2263 244.817 -1517 19 18 26
40.2903 244.987 -1518 20 19 27
43.3302 244.996 -1518 20 19 27
46.3703 245.006 -1518 20 19 27
49.4432 245.178 -1519 21 20 28
52.5554 245.512 -1521 24 23 31
55.6393 245.685 -1522 23 22 30
58.7276 245.859 -1523 16 15 23
61.7393 245.71 -1522 17 16 24
64.7476 245.563 -1521 22 21 31
67.7968 245.577 -1521 22 21 31
70.8468 245.593 -1521 22 21 31
73.8973 245.608 -1521 22 21 31
76.9989 245.787 -1522 22 21 31
80.1576 246.127 -1524 21 20 30
83.2161 246.145 -1524 20 19 29
86.4449 246.648 -1527 19 18 28
89.5106 246.667 -1527 17 16 24
92.6378 246.848 -1528 16 15 23
95.7697 247.031 -1529 20 19 27
99.0357 247.537 -1532 23 22 32
102.381 248.205 -1536 19 18 28
105.675 248.713 -1539 18 17 27
109.194 249.706 -1545 18 17 29
112.592 250.377 -1549 18 17 30
115.783 250.564 -1550 21 20 34
118.979 250.751 -1551 21 20 34
122.102 250.778 -1551 17 16 30
124.983 250.32 -1548 16 15 29
127.936 250.024 -1546 16 15 29
130.882 249.729 -1544 16 15 29
133.995 249.758 -1544 18 17 31
137.109 249.788 -1544 18 17 31
140.678 250.627 -1549 19 18 32
143.896 250.82 -1550 17 16 30
147.215 251.176 -1552 14 13 27
150.738 251.856 -1556 14 13 27
154.178 252.375 -1559 16 15 29
157.329 252.41 -1559 22 21 35
160.687 252.769 -1561 20 19 33
164.265 253.452 -1565 18 17 31
167.54 253.651 -1566 20 19 33
170.601 253.526 -1565 20 19 33
173.882 253.726 -1566 19 18 32
177.056 253.765 -1566 20 19 33
180 253.48 -1564 20 19 33
183.407 253.844 -1566 19 18 32
186.823 254.209 -1568 19 18 32
190.128 254.413 -1569 18 17 31
193.316 254.455 -1569 19 18 31
196.755 254.823 -1571 22 21 33
199.695 254.542 -1569 23 22 34
202.887 254.587 -1569 22 21 33
206.343 254.956 -1571 21 20 32
209.676 255.165 -1572 21 20 32
213.286 255.699 -1575 16 15 27
216.91 256.233 -1578 18 17 27
220.408 256.607 -1580 22 21 31
223.492 256.493 -1579 18 17 27
227.004 256.868 -1581 14 13 23
230.38 257.081 -1582 16 15 25
233.763 257.295 -1583 19 18 28
237.151 257.51 -1584 22 19 29
241.001 258.214 -1588 22 20 30
244.255 258.267 -1588 22 21 31
248.133 258.973 -1592 39 31 35
251.873 259.516 -1595 113 101 102
256.106 260.549 -1601 158 139 137
259.718 260.932 -1603 169 143 139
262.849 260.828 -1602 165 137 132
266.31 261.049 -1603 160 130 123
269.945 261.435 -1605 161 128 123
273.25 261.495 -1605 157 125 120
276.213 261.231 -1603 155 126 119
279.694 261.456 -1604 151 122 108
283.004 261.519 -1604 149 118 104
286.495 261.745 -1605 158 125 110
289.632 261.647 -1604 168 134 118
292.767 261.549 -1603 173 139 122
296.085 261.614 -1603 182 148 129
299.592 261.844 -1604 180 147 129
302.918 261.912 -1604 178 146 128
306.436 262.143 -1605 180 150 132
310.155 262.539 -1607 179 149 130
313.689 262.772 -1608 183 153 135
317.033 262.843 -1608 184 155 139
319.981 262.588 -1606 184 155 140
323.528 262.823 -1607 186 157 142
326.675 262.733 -1606 184 155 141
329.615 262.48 -1604 188 159 147
332.964 262.554 -1604 185 160 147
336.946 263.121 -1607 179 155 142
339.884 262.869 -1605 177 154 139
343.245 262.946 -1605 179 156 144
346.392 262.86 -1604 179 156 146
350.192 263.267 -1606 180 156 150
353.124 263.018 -1604 181 157 151
357.161 263.59 -1607 178 155 149
360.54 263.672 -1607 174 153 146
363.923 263.753 -1607 179 155 149
366.852 263.508 -1605 177 153 147
370.698 263.92 -1607 175 151 145
373.858 263.84 -1606 174 153 146
377.957 264.418 -1609 173 152 143
381.36 264.504 -1609 173 152 143
385.006 264.756 -1610 172 151 148
387.935 264.514 -1608 174 152 151
391.103 264.438 -1607 170 149 147
