ply
format ascii 1.0
comment Created by Open3D
element vertex 1459
property double x
property double y
property double z
property uchar red
property uchar green
property uchar blue
end_header
-96.9388 -334.183 -1420 27 26 36
-94.1231 -334.387 -1421 22 21 31
-91.3684 -334.828 -1423 19 18 28
-88.5441 -335.034 -1424 18 17 27
-85.8368 -335.712 -1427 19 18 28
-83.06 -336.155 -1429 21 20 30
-80.2196 -336.365 -1430 21 20 30
-77.2677 -336.104 -1429 21 20 30
-74.3726 -336.08 -1429 19 18 28
-71.528 -336.291 -1430 20 19 29
-68.584 -336.034 -1429 23 22 34
-65.7366 -336.247 -1430 26 25 37
-62.9736 -336.932 -1433 23 22 34
-60.1989 -337.617 -1436 25 24 34
-57.4127 -338.304 -1439 25 24 36
-54.6526 -339.226 -1443 22 21 33
-51.841 -339.914 -1446 21 20 32
-48.9837 -340.368 -1448 21 20 32
-46.0871 -340.588 -1449 18 17 29
-43.2165 -341.044 -1451 19 18 31
-40.2827 -341.03 -1451 21 20 34
-37.4264 -341.723 -1454 23 22 34
-34.6058 -342.887 -1459 22 21 33
-31.7218 -343.581 -1462 18 17 29
-28.8653 -344.746 -1467 17 16 28
-25.9712 -345.677 -1471 16 15 27
-23.1081 -347.314 -1478 18 17 27
-20.1488 -347.778 -1480 20 19 29
-17.2163 -348.947 -1485 17 16 26
-14.2446 -349.646 -1488 15 14 26
-11.276 -350.817 -1493 15 14 25
-8.27076 -351.284 -1495 17 16 26
-5.26454 -352.222 -1499 17 16 24
-2.23903 -352.691 -1501 16 15 23
0.794354 -353.16 -1503 14 13 23
3.83583 -353.631 -1505 16 15 27
6.90826 -355.277 -1512 17 17 28
10.0092 -356.925 -1519 18 19 29
13.147 -358.809 -1527 15 16 26
-250.428 -359.406 -1502 31 30 38
-246.814 -358.606 -1499 28 27 35
-242.889 -357.329 -1494 27 26 34
-239.308 -356.532 -1491 30 29 37
-236.217 -356.454 -1491 31 30 38
-232.658 -355.659 -1488 26 25 33
-229.269 -355.105 -1486 23 22 30
-225.585 -354.075 -1482 24 23 31
-222.07 -353.284 -1479 26 25 33
-218.421 -352.256 -1475 28 27 35
-214.645 -350.991 -1470 27 26 34
-211.466 -350.682 -1469 24 23 31
-207.868 -349.659 -1465 23 22 30
-204.289 -348.636 -1461 23 22 30
-200.452 -347.138 -1455 25 24 32
-197.184 -346.596 -1453 27 26 34
-193.659 -345.578 -1449 24 23 31
-190.283 -344.799 -1446 23 22 30
-186.922 -344.022 -1443 27 26 34
-183.702 -343.485 -1441 27 26 34
-180.24 -342.472 -1437 25 24 32
-177.044 -341.937 -1435 26 25 33
-173.857 -341.403 -1433 25 24 32
-170.799 -341.108 -1432 28 27 35
-167.63 -340.576 -1430 26 25 33
-164.585 -340.284 -1429 26 25 33
-161.433 -339.754 -1427 28 27 35
-158.29 -339.226 -1425 28 27 35
-155.266 -338.937 -1424 26 25 33
-152.247 -338.649 -1423 26 25 33
-149.443 -338.837 -1424 25 24 32
-146.328 -338.313 -1422 26 25 33
-143.323 -338.028 -1421 28 27 36
-140.422 -337.982 -1421 26 25 34
-137.426 -337.698 -1420 26 25 33
-134.245 -336.941 -1417 24 23 31
-131.356 -336.897 -1417 24 23 32
-128.378 -336.617 -1416 26 25 35
-125.404 -336.338 -1415 27 26 36
-122.522 -336.298 -1415 24 23 33
-119.81 -336.734 -1417 21 20 30
-117.009 -336.933 -1418 21 20 30
-114.205 -337.133 -1419 21 20 30
-111.319 -337.096 -1419 24 23 33
-108.51 -337.298 -1420 28 27 37
-105.698 -337.501 -1421 27 26 36
-102.738 -337.229 -1420 22 21 31
-99.9241 -337.434 -1421 24 23 33
-97.1067 -337.639 -1422 26 25 35
-94.2861 -337.846 -1423 23 22 32
-91.5264 -338.29 -1425 20 19 29
-88.6971 -338.498 -1426 19 18 28
-85.9247 -338.945 -1428 18 17 27
-83.0287 -338.917 -1428 20 19 28
-80.1894 -339.128 -1429 19 18 28
-77.2385 -338.865 -1428 21 20 30
-74.3445 -338.84 -1428 22 21 32
-71.451 -338.817 -1428 23 22 33
-68.5582 -338.794 -1428 23 22 34
-65.6659 -338.772 -1428 24 23 34
-62.8621 -339.226 -1430 28 27 38
-60.1345 -340.155 -1434 31 30 40
-57.3115 -340.61 -1436 29 28 38
-54.5566 -341.541 -1440 24 23 35
-51.7501 -342.235 -1443 23 22 34
-48.898 -342.693 -1445 22 21 33
-46.0383 -343.152 -1447 20 19 31
-43.2007 -343.849 -1450 17 16 29
-40.2679 -343.836 -1450 19 18 31
-37.4385 -344.771 -1454 21 20 32
-34.5932 -345.708 -1458 18 17 29
-31.732 -346.646 -1462 15 14 26
-28.855 -347.585 -1466 14 13 25
-25.9796 -348.761 -1471 14 13 25
-23.0686 -349.702 -1475 16 15 26
-20.1279 -350.406 -1478 16 15 25
-17.187 -351.348 -1482 15 14 24
-14.23 -352.291 -1486 15 14 25
-11.2645 -353.473 -1491 15 13 24
-8.26235 -353.944 -1493 20 18 29
-5.25908 -354.89 -1497 18 17 26
-2.23838 -355.6 -1500 15 14 24
0.793555 -355.837 -1501 14 13 23
3.83955 -357.023 -1506 19 18 27
6.89683 -357.736 -1509 19 18 27
9.98607 -359.161 -1515 17 17 26
13.1253 -361.298 -1524 15 15 24
-252.179 -365.003 -1512 28 27 35
-246.566 -361.299 -1497 28 27 36
-242.807 -360.252 -1493 28 27 36
-239.227 -359.448 -1490 28 27 35
-236.136 -359.369 -1490 35 34 42
-232.735 -358.809 -1488 31 30 38
-229.036 -357.768 -1484 25 24 32
-225.66 -357.21 -1482 25 24 32
-221.993 -356.172 -1478 28 27 35
-218.345 -355.135 -1474 25 24 32
-214.716 -354.099 -1470 25 24 32
-211.104 -353.065 -1466 29 28 36
-207.653 -352.273 -1463 26 25 33
-204.076 -351.242 -1459 25 24 32
-200.655 -350.453 -1456 26 25 33
-197.52 -350.146 -1455 27 26 34
-193.856 -348.878 -1450 24 23 31
-190.346 -347.852 -1446 24 23 31
-187.113 -347.309 -1444 27 26 34
-183.635 -346.286 -1440 28 27 35
-180.3 -345.504 -1437 27 26 34
-176.855 -344.483 -1433 26 25 33
-173.793 -344.185 -1432 26 25 33
-170.855 -344.128 -1432 27 26 34
-167.685 -343.592 -1430 26 25 33
-164.409 -342.816 -1427 24 23 31
-161.486 -342.762 -1427 25 24 32
-158.231 -341.989 -1424 25 24 32
-155.207 -341.697 -1423 25 24 32
-152.083 -341.166 -1421 26 25 33
-149.387 -341.597 -1423 27 26 34
-146.479 -341.548 -1423 28 27 35
-143.471 -341.26 -1422 29 28 36
-140.369 -340.734 -1420 28 27 35
-137.374 -340.448 -1419 26 25 33
-134.195 -339.684 -1416 27 26 35
-131.214 -339.4 -1415 28 27 37
-128.238 -339.118 -1414 28 27 37
-125.356 -339.076 -1414 26 25 35
-122.649 -339.515 -1416 23 22 32
-119.85 -339.715 -1417 22 21 31
-117.047 -339.915 -1418 23 22 32
-114.242 -340.117 -1419 23 22 32
-111.355 -340.08 -1419 24 23 33
-108.392 -339.804 -1418 26 25 35
-105.584 -340.009 -1419 24 23 33
-102.699 -339.975 -1419 21 20 30
-99.816 -339.941 -1419 21 20 30
-97.0701 -340.388 -1421 22 21 31
-94.2506 -340.596 -1422 23 22 32
-91.492 -341.045 -1424 22 21 31
-88.6017 -341.016 -1424 21 20 30
-85.8324 -341.466 -1426 21 20 30
-82.9394 -341.438 -1426 19 18 26
-80.1033 -341.651 -1427 19 18 27
-77.1555 -341.386 -1426 20 19 29
-74.2646 -341.361 -1426 22 21 33
-71.3743 -341.337 -1426 23 22 33
-68.4845 -341.314 -1426 24 23 34
-65.6413 -341.531 -1427 25 24 34
-62.8826 -342.229 -1430 24 23 33
-60.1121 -342.926 -1433 24 23 33
-57.3302 -343.625 -1436 22 21 31
-54.5364 -344.325 -1439 21 20 30
-51.731 -345.025 -1442 23 22 34
-48.8801 -345.487 -1444 23 22 34
-46.0214 -345.95 -1446 19 18 30
-43.1849 -346.653 -1449 18 17 29
-40.3088 -347.118 -1451 19 18 30
-37.5279 -348.541 -1457 19 18 30
-34.6519 -349.246 -1460 17 16 28
-31.8075 -350.432 -1465 15 14 26
-28.9234 -351.378 -1469 15 14 26
-26.0233 -352.326 -1473 16 15 27
-23.0917 -353.036 -1476 15 14 26
-20.1345 -353.507 -1478 15 14 24
-17.1926 -354.458 -1482 15 14 24
-14.2155 -354.931 -1484 15 14 24
-11.238 -355.644 -1487 17 14 26
-8.24842 -356.359 -1490 18 14 27
-5.24679 -357.074 -1493 15 14 24
-2.23158 -357.551 -1495 16 15 25
0.792229 -358.268 -1498 15 14 24
3.83072 -359.226 -1502 19 18 25
6.88999 -360.423 -1507 20 19 27
9.98272 -362.1 -1514 21 20 29
13.1297 -364.496 -1524 22 21 30
-247.637 -365.935 -1503 29 28 37
-243.376 -364.148 -1496 27 26 36
-239.628 -363.094 -1492 28 27 35
-236.215 -362.527 -1490 36 35 43
-232.97 -362.205 -1489 33 32 40
-229.421 -361.398 -1486 26 25 33
-225.735 -360.349 -1482 26 25 33
-221.917 -359.058 -1477 28 27 35
-218.122 -357.769 -1472 26 25 33
-214.641 -356.967 -1469 26 25 33
-210.886 -355.681 -1464 29 28 36
-207.438 -354.883 -1461 28 27 35
-204.144 -354.328 -1459 26 25 33
-200.86 -353.775 -1457 27 26 34
-197.45 -352.98 -1454 26 25 33
-194.054 -352.186 -1451 25 24 32
-190.804 -351.636 -1449 26 25 33
-187.434 -350.845 -1446 27 26 34
-183.823 -349.57 -1441 28 27 35
-180.234 -348.297 -1436 30 29 37
-177.037 -347.752 -1434 27 26 34
-173.851 -347.209 -1432 25 24 32
-170.673 -346.666 -1430 26 25 33
-167.74 -346.61 -1430 26 25 33
-164.578 -346.07 -1428 26 25 33
-161.539 -345.773 -1427 25 24 32
-158.394 -345.235 -1425 23 22 30
-155.368 -344.941 -1424 22 21 29
-152.24 -344.405 -1422 26 25 33
-149.437 -344.597 -1423 28 27 35
-146.321 -344.064 -1421 29 28 36
-143.418 -344.016 -1421 31 30 39
-140.317 -343.484 -1419 30 29 38
-137.323 -343.196 -1418 28 27 35
-134.334 -342.909 -1417 28 27 37
-131.257 -342.381 -1415 29 28 38
-128.371 -342.338 -1415 29 28 38
-125.575 -342.538 -1416 25 24 34
-122.689 -342.497 -1416 23 22 32
-119.974 -342.94 -1418 24 23 33
-117.168 -343.143 -1419 25 24 34
-114.28 -343.104 -1419 25 24 34
-111.313 -342.825 -1418 24 23 33
-108.505 -343.031 -1419 24 23 33
-105.693 -343.237 -1420 24 23 33
-102.806 -343.202 -1420 22 21 31
-99.9193 -343.169 -1420 21 20 30
-97.1021 -343.378 -1421 21 20 30
-94.2816 -343.588 -1422 22 21 31
-91.5221 -344.04 -1424 23 22 32
-88.6308 -344.01 -1424 22 21 31
-85.8607 -344.465 -1426 21 20 30
-83.0249 -344.678 -1427 18 17 27
-80.1296 -344.651 -1427 21 20 30
-77.181 -344.384 -1426 20 19 30
-74.3412 -344.6 -1427 20 19 30
-71.4478 -344.576 -1427 20 19 30
-68.555 -344.553 -1427 22 21 32
-65.7549 -345.014 -1429 25 24 34
-62.9472 -345.475 -1431 23 22 32
-60.2158 -346.421 -1435 22 21 31
-57.3889 -346.884 -1437 21 20 30
-54.5543 -347.348 -1439 21 20 30
-51.6763 -347.572 -1440 22 21 33
-48.8623 -348.28 -1443 20 19 31
-45.9729 -348.505 -1444 18 17 29
-43.199 -349.697 -1449 17 16 28
-40.3498 -350.408 -1452 17 16 28
-37.566 -351.843 -1458 17 16 28
-34.687 -352.555 -1461 17 16 28
-31.8614 -353.992 -1467 14 13 25
-28.9132 -354.223 -1468 15 14 26
-26.0319 -355.42 -1473 17 16 28
-23.068 -355.653 -1474 16 15 27
-20.1138 -356.129 -1476 16 15 27
-17.1402 -356.364 -1477 15 14 26
-14.2009 -357.565 -1482 14 13 25
-11.2189 -358.044 -1484 16 13 25
-8.24003 -359.006 -1488 17 13 26
-5.23801 -359.486 -1490 15 14 24
-2.22926 -360.208 -1493 15 14 24
0.790904 -360.691 -1495 15 14 24
3.82426 -361.657 -1499 19 18 26
6.88316 -363.106 -1505 23 22 31
9.97938 -365.039 -1513 23 22 33
-248.051 -369.617 -1505 33 32 41
-243.784 -367.814 -1498 29 28 38
-240.03 -366.75 -1494 29 28 37
-236.295 -365.688 -1490 35 34 42
-232.892 -365.118 -1488 33 32 40
-229.19 -364.058 -1484 28 27 35
-225.506 -363 -1480 28 27 35
-221.841 -361.943 -1476 27 26 34
-218.047 -360.643 -1471 28 27 35
-214.275 -359.344 -1466 27 26 34
-210.669 -358.292 -1462 28 27 35
-207.508 -357.977 -1461 27 26 34
-204.073 -357.172 -1458 27 26 34
-200.79 -356.614 -1456 28 27 35
-197.516 -356.057 -1454 26 25 33
-194.387 -355.746 -1453 25 24 32
-190.736 -354.457 -1448 26 25 33
-187.367 -353.659 -1445 26 25 33
-183.757 -352.373 -1440 27 26 34
-180.294 -351.333 -1436 31 30 38
-176.85 -350.294 -1432 27 26 34
-173.909 -350.235 -1432 24 23 31
-170.611 -349.444 -1429 23 22 30
-167.797 -349.631 -1430 25 24 32
-164.633 -349.086 -1428 25 24 32
-161.593 -348.787 -1427 25 24 32
-158.114 -347.512 -1422 24 23 31
-155.202 -347.459 -1422 24 23 31
-152.077 -346.919 -1420 26 25 33
-149.381 -347.357 -1422 26 25 33
-146.37 -347.063 -1421 25 24 32
-143.465 -347.014 -1421 29 28 38
-140.364 -346.478 -1419 28 27 36
-137.369 -346.188 -1418 29 28 36
-134.284 -345.654 -1416 30 29 39
-131.301 -345.365 -1415 29 28 38
-128.505 -345.566 -1416 27 26 36
-125.617 -345.523 -1416 25 24 34
-122.73 -345.482 -1416 24 23 33
-119.844 -345.441 -1416 25 24 34
-117.042 -345.646 -1417 26 25 35
-114.076 -345.363 -1416 26 25 35
-111.272 -345.569 -1417 25 24 34
-108.464 -345.776 -1418 26 25 35
-105.579 -345.74 -1418 27 26 36
-102.767 -345.949 -1419 25 24 34
-99.9525 -346.159 -1420 23 22 32
-97.1344 -346.37 -1421 22 21 31
-94.2466 -346.338 -1421 22 21 31
-91.4239 -346.551 -1422 23 22 32
-88.598 -346.765 -1423 22 21 31
-85.7687 -346.979 -1424 19 18 28
-82.8779 -346.951 -1424 20 19 29
-80.044 -347.167 -1425 22 21 32
-77.0983 -346.898 -1424 21 20 32
-74.2616 -347.116 -1425 21 20 30
-71.4214 -347.335 -1426 18 17 27
-68.5778 -347.556 -1427 19 18 28
-65.8227 -348.264 -1430 24 23 33
-63.0121 -348.729 -1432 23 22 32
-60.2358 -349.439 -1435 25 24 34
-57.368 -349.663 -1436 23 22 32
-54.5345 -350.132 -1438 21 20 30
-51.6216 -350.114 -1438 21 20 32
-48.7769 -350.584 -1440 18 17 29
-45.9881 -351.542 -1444 18 17 29
-43.1836 -352.501 -1448 18 17 29
-40.3909 -353.704 -1453 18 17 29
-37.5784 -354.909 -1458 16 15 27
-34.7697 -356.357 -1464 15 14 26
-31.8719 -357.076 -1467 14 13 25
-28.9424 -357.553 -1469 14 13 25
-25.9874 -357.787 -1470 16 15 27
-23.0443 -358.266 -1472 18 17 29
-20.1068 -358.989 -1475 18 17 29
-17.1343 -359.226 -1476 15 14 26
-14.1961 -360.438 -1481 13 12 24
-11.2302 -361.407 -1485 14 11 23
-8.24274 -362.134 -1488 15 11 24
-5.23961 -362.618 -1490 13 12 22
-2.23011 -363.347 -1493 14 13 23
0.791167 -363.834 -1495 21 20 31
3.8282 -365.051 -1500 23 23 32
6.89464 -366.757 -1507 21 21 31
-249.124 -374.302 -1511 36 35 43
-244.843 -372.483 -1504 31 30 40
-240.594 -370.667 -1497 30 29 37
-237.01 -369.843 -1494 32 31 39
-233.127 -368.525 -1489 32 31 39
-229.422 -367.456 -1485 30 29 37
-225.583 -366.141 -1480 28 27 35
-221.917 -365.075 -1476 27 26 34
-217.824 -363.269 -1469 27 26 34
-214.494 -362.701 -1467 29 28 36
-210.741 -361.392 -1462 29 28 36
-207.72 -361.321 -1462 29 28 36
-204.002 -360.015 -1457 27 26 34
-200.72 -359.452 -1455 27 26 34
-197.312 -358.643 -1452 28 27 35
-194.319 -358.577 -1452 25 24 32
-190.669 -357.277 -1447 25 24 32
-187.171 -356.225 -1443 25 24 32
-183.692 -355.174 -1439 25 24 32
-180.104 -353.879 -1434 26 25 33
-176.662 -352.831 -1430 28 27 35
-173.603 -352.525 -1429 27 26 34
-170.549 -352.22 -1428 26 25 33
-167.619 -352.162 -1428 25 24 32
-164.574 -351.86 -1427 24 23 31
-161.648 -351.804 -1427 23 22 30
-158.389 -351.01 -1424 24 23 31
-155.363 -350.711 -1423 24 23 31
-152.128 -349.92 -1420 27 26 34
-149.327 -350.115 -1421 24 23 31
-146.42 -350.065 -1421 23 22 30
-143.413 -349.769 -1420 25 24 34
-140.51 -349.721 -1420 24 23 32
-137.512 -349.428 -1419 27 26 34
-134.424 -348.89 -1417 31 30 39
-131.345 -348.352 -1415 29 28 38
-128.548 -348.555 -1416 26 25 35
-125.659 -348.512 -1416 24 23 33
-122.771 -348.47 -1416 23 22 32
-119.885 -348.429 -1416 25 24 34
-116.999 -348.389 -1416 25 24 34
-114.034 -348.104 -1415 26 25 35
-111.23 -348.312 -1416 28 27 37
-108.348 -348.275 -1416 29 28 38
-105.54 -348.485 -1417 28 27 37
-102.802 -348.941 -1419 26 25 35
-100.057 -349.399 -1421 24 23 33
-97.0985 -349.12 -1420 22 21 31
-94.2782 -349.333 -1421 22 21 31
-91.4546 -349.548 -1422 22 21 31
-88.5031 -349.272 -1421 21 20 30
-85.6167 -349.242 -1421 19 18 28
-82.8474 -349.706 -1423 21 20 30
-79.9584 -349.678 -1423 22 21 32
-77.07 -349.652 -1423 22 21 33
-74.1821 -349.626 -1423 22 21 31
-71.3952 -350.093 -1425 19 18 28
-68.5527 -350.315 -1426 19 18 28
-65.7987 -351.03 -1429 24 23 33
-62.9891 -351.499 -1431 23 22 32
-60.256 -352.461 -1435 23 22 32
-57.3473 -352.442 -1435 20 19 29
-54.5908 -353.405 -1439 16 15 26
-51.6389 -353.142 -1438 17 16 28
-48.827 -353.862 -1441 18 17 29
-45.9716 -354.337 -1443 18 17 29
-43.2278 -355.795 -1449 18 17 29
-40.4601 -357.254 -1455 19 18 30
-37.591 -357.978 -1458 19 18 30
-34.7813 -359.439 -1464 17 16 28
-31.8608 -359.918 -1466 15 14 26
-28.9521 -360.645 -1469 15 14 27
-25.9961 -360.881 -1470 16 15 27
-23.0363 -361.118 -1471 16 15 28
-20.0864 -361.602 -1473 15 14 27
-17.1284 -362.087 -1475 14 13 25
-14.1913 -363.309 -1480 13 12 24
-11.2112 -363.796 -1482 14 12 24
-8.23992 -365.02 -1487 14 11 24
-5.2414 -365.754 -1490 14 13 23
-2.23377 -366.98 -1495 17 16 27
0.793022 -367.716 -1498 25 24 36
3.84217 -369.435 -1505 22 23 33
-249.045 -377.266 -1510 37 36 45
-244.765 -375.432 -1503 33 32 42
-240.998 -374.349 -1499 31 30 39
-236.774 -372.519 -1492 31 30 38
-232.894 -371.19 -1487 30 29 37
-228.883 -369.613 -1481 28 27 35
-225.203 -368.536 -1477 26 25 33
-221.391 -367.212 -1472 24 23 31
-217.602 -365.889 -1467 25 24 32
-214.128 -365.067 -1464 29 28 36
-210.38 -363.747 -1459 28 27 35
-207.223 -363.426 -1458 28 27 35
-203.792 -362.608 -1455 28 27 35
-200.65 -362.289 -1454 27 26 34
-197.107 -361.224 -1450 30 29 37
-193.85 -360.659 -1448 29 28 36
-190.075 -359.099 -1442 26 25 33
-186.976 -358.785 -1441 26 25 33
-183.244 -357.228 -1435 25 24 32
-179.914 -356.419 -1432 24 23 31
-176.599 -355.611 -1429 28 27 35
-173.541 -355.303 -1428 28 27 35
-170.488 -354.995 -1427 26 25 33
-167.676 -355.186 -1428 25 24 32
-164.514 -354.632 -1426 28 27 35
-161.476 -354.327 -1425 29 28 36
-158.332 -353.775 -1423 25 24 32
-155.198 -353.224 -1421 25 24 32
-152.073 -352.675 -1419 27 26 34
-149.272 -352.872 -1420 27 26 34
-146.366 -352.821 -1420 25 24 32
-143.36 -352.523 -1419 23 22 32
-140.36 -352.226 -1418 22 21 31
-137.461 -352.179 -1418 25 24 33
-134.469 -351.884 -1417 28 27 37
-131.39 -351.343 -1415 29 28 38
-128.773 -352.043 -1418 26 25 35
-125.791 -351.751 -1417 25 24 34
-122.9 -351.709 -1417 24 23 33
-119.925 -351.419 -1416 24 23 33
-117.121 -351.627 -1417 23 22 32
-114.072 -351.092 -1415 24 23 33
-111.268 -351.301 -1416 27 26 36
-108.461 -351.512 -1417 28 27 37
-105.576 -351.476 -1417 27 26 36
-102.692 -351.44 -1417 26 25 35
-99.879 -351.654 -1418 24 23 33
-96.9262 -351.372 -1417 22 21 31
-94.1111 -351.588 -1418 22 21 31
-91.2925 -351.804 -1419 22 21 31
-88.3462 -351.526 -1418 22 21 31
-85.5251 -351.744 -1419 22 21 31
-82.759 -352.211 -1421 21 20 28
-79.9854 -352.679 -1423 21 20 30
-77.0419 -352.405 -1422 21 20 31
-74.2594 -352.875 -1424 23 22 32
-71.3692 -352.85 -1424 22 21 32
-68.5277 -353.074 -1425 22 21 32
-65.821 -354.042 -1429 23 22 32
-63.0545 -354.764 -1432 22 21 31
-60.3183 -355.734 -1436 22 21 31
-57.4865 -356.209 -1438 20 19 30
-54.6471 -356.686 -1440 18 17 28
-51.7282 -356.668 -1440 18 17 29
-48.8775 -357.146 -1442 19 18 30
-46.0509 -357.873 -1445 20 19 31
-43.2424 -358.848 -1449 20 19 31
-40.5016 -360.568 -1456 21 20 32
-37.6552 -361.545 -1460 22 21 33
-34.8169 -362.771 -1465 19 18 30
-31.8498 -362.76 -1465 16 15 27
-28.9619 -363.74 -1469 16 15 28
-25.9872 -363.73 -1469 15 14 28
-23.0284 -363.97 -1470 15 14 27
-20.0658 -364.21 -1471 13 12 24
-17.1341 -365.194 -1475 13 12 24
-14.1864 -366.179 -1479 13 12 24
-11.2226 -367.165 -1483 13 12 24
-8.24822 -368.4 -1488 15 14 26
-5.26081 -370.131 -1495 20 19 30
-2.23744 -370.624 -1497 21 20 32
0.797527 -372.853 -1506 22 21 33
-249.296 -380.734 -1511 37 36 44
-244.849 -378.632 -1503 35 34 44
-240.921 -377.288 -1498 32 31 39
-236.538 -375.19 -1490 30 29 37
-232.348 -373.347 -1483 30 29 37
-228.962 -372.763 -1481 27 26 34
-224.976 -371.174 -1475 25 24 32
-221.468 -370.342 -1472 27 26 34
-217.826 -369.259 -1468 25 24 32
-214.348 -368.43 -1465 27 26 34
-210.453 -366.847 -1459 26 25 33
-207.437 -366.775 -1459 29 28 36
-203.582 -365.195 -1453 28 27 35
-200.443 -364.874 -1452 24 23 31
-197.039 -364.051 -1449 28 27 35
-193.649 -363.23 -1446 29 28 36
-190.141 -362.159 -1442 27 26 34
-186.781 -361.34 -1439 30 29 37
-183.434 -360.523 -1436 29 28 36
-179.976 -359.456 -1432 27 26 34
-176.66 -358.641 -1429 28 27 35
-173.479 -358.079 -1427 28 27 35
-170.308 -357.518 -1425 26 25 33
-167.263 -357.209 -1424 25 24 32
-164.34 -357.151 -1424 29 28 36
-161.305 -356.844 -1423 34 33 41
-158.275 -356.539 -1422 29 28 36
-155.251 -356.234 -1421 26 25 33
-152.232 -355.93 -1420 28 27 35
-149.324 -355.878 -1420 28 27 36
-146.416 -355.827 -1420 26 25 33
-143.41 -355.527 -1419 23 22 32
-140.309 -354.977 -1417 21 20 30
-137.412 -354.929 -1417 22 21 31
-134.421 -354.632 -1416 26 25 35
-131.435 -354.336 -1415 26 25 35
-128.636 -354.541 -1416 24 23 33
-125.745 -354.498 -1416 24 23 33
-122.768 -354.205 -1415 24 23 33
-119.797 -353.912 -1414 23 22 32
-116.996 -354.122 -1415 23 22 32
-113.95 -353.582 -1413 24 23 33
-111.149 -353.794 -1414 24 23 33
-108.421 -354.256 -1416 26 25 35
-105.463 -353.969 -1415 26 25 35
-102.582 -353.934 -1415 25 24 34
-99.7722 -354.149 -1416 23 22 32
-96.9593 -354.365 -1417 22 21 31
-94.0104 -354.083 -1416 22 21 31
-91.195 -354.301 -1417 22 21 31
-88.314 -354.27 -1417 24 23 33
-85.4337 -354.24 -1417 24 23 33
-82.7289 -354.961 -1420 23 22 30
-79.9002 -355.184 -1421 24 23 32
-77.1223 -355.657 -1423 23 22 32
-74.3369 -356.13 -1425 23 22 32
-71.4938 -356.355 -1426 23 22 32
-68.5992 -356.331 -1426 20 19 31
-65.8895 -357.308 -1430 21 20 30
-63.076 -357.786 -1432 21 20 30
-60.3389 -358.764 -1436 20 19 29
-57.5061 -359.243 -1438 20 19 30
-54.7037 -359.973 -1441 19 18 30
-51.7817 -359.955 -1441 18 17 29
-48.928 -360.438 -1443 17 16 28
-46.0666 -360.921 -1445 18 17 29
-43.2572 -361.905 -1449 17 16 28
-40.4875 -363.389 -1455 19 18 30
-37.6681 -364.624 -1460 20 19 31
-34.8287 -365.861 -1465 16 15 27
-31.8824 -366.099 -1466 14 13 25
-28.952 -366.588 -1468 16 15 29
-25.9076 -365.58 -1464 15 14 28
-23.005 -366.57 -1468 13 12 26
-20.0453 -366.813 -1469 12 11 23
-17.1283 -368.055 -1474 12 11 23
-14.1912 -369.298 -1479 12 11 23
-11.2567 -371.291 -1487 14 13 25
-8.28425 -373.036 -1494 19 18 30
-5.28357 -374.781 -1501 21 20 32
-2.26504 -378.276 -1515 21 20 33
-250.044 -384.971 -1515 37 36 44
-245.587 -382.852 -1507 35 34 44
-241.327 -380.988 -1500 30 29 38
-237.415 -379.634 -1495 29 28 36
-233.056 -377.52 -1487 30 29 37
-229.042 -375.916 -1481 27 26 34
-225.054 -374.314 -1475 24 23 31
-221.545 -373.474 -1472 23 22 30
-217.753 -372.129 -1467 24 23 31
-214.277 -371.293 -1464 25 24 32
-210.526 -369.95 -1459 25 24 32
-207.367 -369.624 -1458 28 27 35
-203.793 -368.538 -1454 27 26 34
-200.237 -367.453 -1450 25 24 32
-196.7 -366.37 -1446 27 26 34
-193.582 -366.049 -1445 29 28 36
-189.811 -364.462 -1439 26 25 33
-186.716 -364.143 -1438 30 29 37
-183.242 -363.066 -1434 29 28 36
-180.039 -362.496 -1432 27 26 34
-176.474 -361.168 -1427 27 26 34
-173.539 -361.107 -1427 26 25 33
-170.367 -360.541 -1425 25 24 32
-167.321 -360.23 -1424 29 28 36
-164.282 -359.919 -1423 29 28 36
-161.247 -359.609 -1422 31 30 38
-158.219 -359.301 -1421 31 30 38
-155.195 -358.994 -1420 29 28 36
-152.285 -358.94 -1420 28 27 35
-149.375 -358.888 -1420 30 29 38
-146.467 -358.836 -1420 30 29 39
-143.459 -358.533 -1419 25 24 34
-140.357 -357.979 -1417 22 21 31
-137.362 -357.678 -1416 21 20 30
-134.372 -357.378 -1415 22 21 31
-131.387 -357.079 -1414 22 21 31
-128.589 -357.287 -1415 23 22 32
-125.699 -357.243 -1415 24 23 33
-122.897 -357.452 -1416 24 23 33
-119.923 -357.158 -1415 22 21 31
-117.036 -357.116 -1415 22 21 31
-113.909 -356.319 -1412 23 22 32
-111.03 -356.28 -1412 25 24 34
-108.229 -356.495 -1413 28 27 37
-105.425 -356.71 -1414 27 26 36
-102.545 -356.674 -1414 25 24 34
-99.6656 -356.639 -1414 24 23 33
-96.9243 -357.109 -1416 23 22 32
-93.9764 -356.824 -1415 21 20 30
-91.0976 -356.792 -1415 21 20 30
-88.1574 -356.509 -1414 24 23 33
-85.4631 -357.235 -1417 25 24 34
-82.6408 -357.458 -1418 23 22 30
-79.9278 -358.186 -1421 24 23 32
-77.1488 -358.663 -1423 24 23 33
-74.3624 -359.141 -1425 23 22 32
-71.5184 -359.368 -1426 23 22 33
-68.6228 -359.344 -1426 25 24 36
-65.8199 -359.825 -1428 24 23 33
-63.0977 -360.81 -1432 21 20 30
-60.3176 -361.545 -1435 20 19 30
-57.4859 -362.029 -1437 20 19 30
-54.6845 -362.765 -1440 18 17 29
-51.7995 -362.998 -1441 18 17 29
-48.9448 -363.485 -1443 17 16 28
-46.0824 -363.972 -1445 17 16 28
-43.3317 -365.468 -1451 16 15 27
-40.5014 -366.461 -1455 15 14 26
-37.6552 -367.455 -1459 14 13 25
-34.7931 -368.45 -1463 12 11 23
-31.8715 -368.942 -1465 12 11 23
-28.9225 -369.183 -1466 13 12 26
-25.8987 -368.419 -1463 13 12 26
-22.9814 -369.166 -1466 11 10 24
-20.0522 -369.914 -1469 11 10 22
-17.1458 -371.418 -1475 14 13 25
-14.2344 -373.427 -1483 18 17 29
-11.3059 -375.941 -1493 22 21 33
-8.32034 -377.7 -1500 23 22 34
-5.31711 -380.216 -1510 20 19 31
-250.792 -389.229 -1519 37 36 44
-246 -386.579 -1509 33 32 42
-241.573 -384.444 -1501 30 29 38
-237.022 -382.054 -1492 27 26 34
-232.825 -380.179 -1485 27 26 34
-229.432 -379.585 -1483 26 25 33
-225.439 -377.969 -1477 26 25 33
-221.924 -377.122 -1474 27 26 34
-217.978 -375.509 -1468 26 25 33
-214.498 -374.666 -1465 24 23 31
-210.6 -373.056 -1459 26 25 33
-207.439 -372.727 -1458 29 28 36
-203.724 -371.377 -1453 28 27 35
-200.031 -370.027 -1448 26 25 33
-196.632 -369.191 -1445 28 27 35
-193.516 -368.867 -1444 30 29 37
-190.01 -367.778 -1440 27 26 34
-187.041 -367.711 -1440 29 28 36
-183.69 -366.88 -1437 28 27 35
-180.102 -365.539 -1432 27 26 34
-176.783 -364.711 -1429 25 24 32
-173.478 -363.884 -1426 27 26 34
-170.187 -363.058 -1423 26 25 33
-167.145 -362.744 -1422 30 29 37
-164.108 -362.43 -1421 32 31 39
-161.19 -362.373 -1421 32 31 39
-158.385 -362.572 -1422 31 30 38
-155.359 -362.262 -1421 28 27 35
-152.552 -362.463 -1422 28 27 36
-149.533 -362.155 -1421 30 29 39
-146.621 -362.103 -1421 30 29 39
-143.509 -361.543 -1419 26 25 35
-140.406 -360.984 -1417 23 22 32
-137.41 -360.68 -1416 23 22 32
-134.324 -360.123 -1414 23 22 32
-131.433 -360.077 -1414 23 22 32
-128.543 -360.031 -1414 23 22 32
-125.743 -360.241 -1415 21 20 31
-122.94 -360.452 -1416 23 22 33
-119.965 -360.155 -1415 24 23 35
-116.994 -359.859 -1414 26 25 36
-113.868 -359.056 -1411 26 25 37
-110.99 -359.016 -1411 28 27 38
-108.113 -358.978 -1411 27 26 38
-105.238 -358.941 -1411 24 23 35
-102.508 -359.413 -1413 22 21 31
-99.6298 -359.378 -1413 22 21 31
-96.8895 -359.852 -1415 25 24 34
-93.9425 -359.565 -1414 26 25 35
-91.0649 -359.532 -1414 26 25 35
-88.188 -359.501 -1414 25 24 34
-85.3722 -359.725 -1415 23 22 32
-82.553 -359.95 -1416 23 22 32
-79.8429 -360.684 -1419 23 22 32
-77.1214 -361.419 -1422 23 22 32
-74.3361 -361.901 -1424 24 23 33
-71.4931 -362.13 -1425 24 23 33
-68.6466 -362.36 -1426 25 24 35
-65.8889 -363.099 -1429 22 21 31
-63.1195 -363.838 -1432 19 18 28
-60.4227 -365.087 -1437 21 20 31
-57.5859 -365.575 -1439 19 18 29
-54.7794 -366.317 -1442 15 14 26
-51.8894 -366.553 -1443 15 14 26
-48.9957 -366.789 -1444 15 14 26
-46.0665 -366.773 -1444 14 13 25
-43.287 -368.027 -1449 13 12 24
-40.404 -368.52 -1451 12 11 23
-37.5908 -369.777 -1456 12 11 23
-34.7576 -371.034 -1461 13 12 24
-31.8608 -371.784 -1464 11 10 22
-28.9127 -372.028 -1465 10 9 23
-25.9786 -372.526 -1467 11 10 24
-23.0365 -373.025 -1469 12 11 25
-20.1138 -374.034 -1473 15 14 28
-17.2099 -375.805 -1480 21 20 33
-14.297 -378.084 -1489 25 24 38
-11.3477 -380.365 -1498 25 24 36
-8.36756 -382.901 -1508 21 20 32
-5.35773 -386.199 -1521 17 16 28
-250.882 -392.474 -1519 38 37 45
-246.25 -390.06 -1510 37 36 46
-242.142 -388.423 -1504 35 34 43
-237.742 -386.272 -1496 31 30 38
-233.535 -384.38 -1489 30 29 37
-229.977 -383.523 -1486 27 26 34
-225.824 -381.636 -1479 28 27 35
-222.003 -380.266 -1474 30 29 37
-218.204 -378.898 -1469 29 28 36
-214.428 -377.531 -1464 27 26 34
-210.675 -376.166 -1459 29 28 36
-207.371 -375.576 -1457 32 31 39
-203.656 -374.214 -1452 30 29 37
-199.964 -372.854 -1447 27 26 34
-196.702 -372.268 -1445 27 26 34
-193.585 -371.941 -1444 29 28 36
-190.209 -371.1 -1441 26 25 33
-187.107 -370.776 -1440 26 25 33
-183.627 -369.68 -1436 27 26 34
-180.291 -368.843 -1433 28 27 35
-176.722 -367.493 -1428 24 23 31
-173.661 -367.174 -1427 30 29 37
-170.367 -366.341 -1424 28 27 35
-167.321 -366.024 -1423 25 24 32
-164.166 -365.451 -1421 31 30 38
-161.247 -365.393 -1421 32 31 39
-158.441 -365.594 -1422 31 30 38
-155.523 -365.538 -1422 30 29 37
-152.606 -365.484 -1422 29 28 38
-149.585 -365.173 -1421 29 28 38
-146.57 -364.864 -1420 28 27 37
-143.459 -364.299 -1418 27 26 36
-140.258 -363.478 -1415 24 23 33
-137.458 -363.686 -1416 24 23 33
-134.371 -363.124 -1414 26 25 35
-131.479 -363.077 -1414 26 25 35
-128.588 -363.031 -1414 23 22 32
-125.787 -363.243 -1415 21 20 31
-122.983 -363.456 -1416 23 22 34
-120.007 -363.156 -1415 25 24 36
-117.035 -362.858 -1414 28 27 39
-113.908 -362.047 -1411 29 28 40
-110.872 -361.494 -1409 28 27 39
-108.151 -361.969 -1411 25 24 36
-105.349 -362.188 -1412 22 21 33
-102.471 -362.151 -1412 21 20 31
-99.6647 -362.372 -1413 21 20 31
-96.9235 -362.85 -1415 25 24 35
-93.8425 -362.048 -1412 29 28 38
-90.968 -362.015 -1412 29 28 39
-88.0941 -361.984 -1412 28 27 38
-85.3417 -362.466 -1414 26 25 36
-82.5819 -362.949 -1416 24 23 33
-79.8709 -363.689 -1419 23 22 32
-77.2026 -364.687 -1423 23 22 32
-74.4143 -365.173 -1425 25 24 34
-71.5181 -365.147 -1425 24 23 33
-68.6707 -365.379 -1426 21 20 30
-65.9119 -366.124 -1429 17 16 26
-63.1416 -366.87 -1432 15 14 24
-60.3176 -367.36 -1434 17 16 28
-57.5259 -368.108 -1437 15 14 27
-54.6846 -368.601 -1439 13 12 25
-51.7636 -368.582 -1439 13 12 24
-48.8771 -368.82 -1440 10 9 22
-45.9869 -369.06 -1441 10 9 22
-43.1527 -369.813 -1444 11 10 23
-40.3067 -370.566 -1447 13 12 25
-37.4489 -371.321 -1450 12 11 24
-34.6031 -372.332 -1454 13 12 25
-31.8284 -374.369 -1462 13 12 25
-28.9228 -375.127 -1465 14 13 27
-26.0407 -376.398 -1470 18 17 31
-23.1229 -377.413 -1474 19 18 32
-20.23 -379.198 -1481 22 21 35
-17.2973 -380.728 -1487 26 25 39
-14.3788 -383.282 -1497 29 28 42
-11.3972 -385.07 -1504 23 22 35
-8.40392 -387.627 -1514 24 23 35
-5.35591 -389.161 -1520 29 28 40
-251.798 -397.025 -1524 36 35 43
-246.991 -394.331 -1514 41 40 50
-242.55 -392.159 -1506 40 39 48
-237.986 -389.729 -1497 38 37 45
-233.932 -388.082 -1491 32 31 39
-229.75 -386.177 -1484 27 26 33
-225.599 -384.274 -1477 28 27 35
-222.082 -383.413 -1474 31 30 38
-218.431 -382.293 -1470 32 31 39
-214.651 -380.915 -1465 31 30 38
-211.183 -380.059 -1462 32 31 39
-207.587 -378.944 -1458 30 29 37
-204.009 -377.831 -1454 29 28 36
-200.45 -376.719 -1450 29 28 36
-197.181 -376.128 -1448 29 28 36
-193.654 -375.019 -1444 28 27 35
-190.409 -374.431 -1442 24 23 31
-187.044 -373.584 -1439 24 23 31
-183.82 -372.999 -1437 26 25 33
-180.481 -372.155 -1434 28 27 35
-177.032 -371.053 -1430 30 29 37
-173.723 -370.212 -1427 29 28 36
-170.547 -369.632 -1425 26 25 33
-167.381 -369.052 -1423 26 25 33
-164.224 -368.474 -1421 25 24 32
-161.418 -368.676 -1422 26 25 33
-158.497 -368.618 -1422 28 27 35
-155.578 -368.562 -1422 29 28 36
-152.66 -368.507 -1422 29 28 38
-149.638 -368.194 -1421 27 26 36
-146.622 -367.882 -1420 25 24 34
-143.509 -367.312 -1418 25 24 34
-140.506 -367.003 -1417 24 23 33
-137.507 -366.694 -1416 24 23 33
-134.419 -366.128 -1414 24 23 33
-131.526 -366.081 -1414 23 22 32
-128.452 -365.517 -1412 24 23 33
-125.654 -365.73 -1413 24 23 34
-122.766 -365.686 -1413 24 23 35
-119.795 -365.384 -1412 22 21 33
-116.911 -365.342 -1412 25 24 36
-113.867 -364.783 -1410 27 26 38
-110.832 -364.226 -1408 26 25 37
-108.036 -364.446 -1409 24 23 35
-105.237 -364.667 -1410 23 22 34
-102.435 -364.888 -1411 22 21 33
-99.6294 -365.111 -1412 21 20 32
-96.8892 -365.593 -1414 24 23 35
-93.8757 -365.042 -1412 28 27 39
-91.0001 -365.009 -1412 28 27 39
-88.1877 -365.236 -1413 28 27 39
-85.4323 -365.722 -1415 27 26 38
-82.6694 -366.209 -1417 22 21 31
-79.8991 -366.697 -1419 23 22 32
-77.2299 -367.703 -1423 22 21 31
-74.3883 -367.935 -1424 19 18 28
-71.5434 -368.167 -1425 16 15 25
-68.6949 -368.401 -1426 14 13 23
-65.889 -368.893 -1428 15 14 25
-63.1198 -369.646 -1431 15 14 24
-60.2968 -370.14 -1433 16 15 27
-57.5062 -370.894 -1436 15 14 27
-54.6278 -371.133 -1437 14 13 27
-51.7819 -371.63 -1439 16 15 27
-48.8603 -371.613 -1439 14 13 26
-45.9392 -371.596 -1439 13 12 26
-43.1081 -372.355 -1442 13 12 26
-40.2374 -372.856 -1444 15 14 28
-37.3847 -373.617 -1447 18 17 31
-34.6153 -375.412 -1454 20 19 33
-31.8178 -377.208 -1461 22 21 35
-28.9922 -379.004 -1468 23 22 36
-26.1385 -380.801 -1475 24 23 37
-23.2252 -382.084 -1480 24 23 37
-20.3054 -383.625 -1486 26 25 39
-17.3499 -384.909 -1491 30 29 43
-14.4319 -387.743 -1502 31 30 44
-11.4314 -389.287 -1508 29 28 41
-8.43459 -392.123 -1519 26 25 38
-5.37897 -393.928 -1526 32 31 43
-248.223 -399.409 -1521 38 37 47
-242.316 -394.857 -1504 38 37 46
-238.868 -394.244 -1502 36 35 43
-233.703 -390.746 -1489 31 30 38
-229.988 -389.613 -1485 26 25 33
-225.834 -387.694 -1478 27 26 34
-222.162 -386.563 -1474 31 30 38
-218.361 -385.172 -1469 30 29 37
-214.729 -384.045 -1465 30 29 37
-211.404 -383.444 -1463 30 29 37
-207.804 -382.32 -1459 27 26 34
-204.644 -381.983 -1458 28 27 35
-200.66 -380.076 -1451 31 30 38
-197.388 -379.48 -1449 34 33 41
-193.723 -378.1 -1444 31 30 38
-190.477 -377.507 -1442 28 27 35
-187.111 -376.653 -1439 28 27 35
-183.759 -375.801 -1436 28 27 35
-180.169 -374.427 -1431 30 29 37
-176.972 -373.839 -1429 33 32 40
-174.029 -373.776 -1429 26 25 33
-170.728 -372.929 -1426 24 23 31
-167.559 -372.345 -1424 27 26 34
-164.514 -372.024 -1423 23 22 30
-161.476 -371.704 -1422 21 20 28
-158.554 -371.646 -1422 21 20 29
-155.525 -371.328 -1421 23 22 31
-152.608 -371.273 -1421 25 24 34
-149.692 -371.219 -1421 24 23 33
-146.674 -370.904 -1420 23 22 32
-143.662 -370.591 -1419 23 22 32
-140.655 -370.279 -1418 24 23 33
-137.653 -369.967 -1417 24 23 33
-134.657 -369.657 -1416 20 19 29
-131.759 -369.609 -1416 21 20 30
-128.68 -369.041 -1414 24 23 33
-125.877 -369.256 -1415 24 23 34
-122.984 -369.211 -1415 23 22 34
-120.007 -368.907 -1414 21 20 32
-117.036 -368.603 -1413 23 22 34
-113.989 -368.04 -1411 25 24 36
-111.029 -367.739 -1410 25 24 36
-108.152 -367.7 -1410 24 23 35
-105.424 -368.183 -1412 21 20 32
-102.544 -368.146 -1412 20 19 31
-99.665 -368.11 -1412 22 21 33
-96.8553 -368.335 -1413 24 23 35
-93.9757 -368.301 -1413 26 25 37
-90.9681 -367.746 -1411 24 23 35
-88.1566 -367.975 -1412 23 22 34
-85.4627 -368.726 -1415 22 21 33
-82.6405 -368.956 -1416 20 19 29
-79.9275 -369.709 -1419 21 20 30
-77.2031 -370.462 -1422 19 18 28
-74.3103 -370.435 -1422 16 15 25
-71.4181 -370.409 -1422 12 11 21
-68.6711 -371.165 -1425 13 12 23
-65.8202 -371.402 -1426 17 16 26
-63.0099 -371.9 -1428 17 16 26
-60.234 -372.659 -1431 18 17 29
-57.4064 -373.159 -1433 17 16 29
-54.4951 -373.139 -1433 18 17 31
-51.6923 -373.901 -1436 20 19 31
-48.8097 -374.143 -1437 23 22 34
-45.9236 -374.387 -1438 24 23 37
-43.0936 -375.152 -1441 23 22 36
-40.2516 -375.918 -1444 23 22 36
-37.3721 -376.425 -1446 25 24 38
-34.6038 -378.234 -1453 28 27 41
-31.8291 -380.305 -1461 31 30 44
-29.0618 -382.897 -1471 28 26 43
-26.2187 -384.97 -1479 27 25 41
-23.3433 -387.043 -1487 26 25 39
-20.3947 -388.337 -1492 28 27 41
-17.4143 -389.371 -1496 31 30 43
-14.4466 -391.187 -1503 32 31 44
-11.4431 -392.744 -1509 28 28 41
-8.43197 -395.083 -1518 29 29 42
-5.38443 -397.423 -1527 30 29 43
-248.314 -402.668 -1521 35 34 44
-243.049 -399.137 -1508 35 34 43
-238.318 -396.402 -1498 34 33 41
-233.631 -393.67 -1488 32 31 39
-229.607 -391.998 -1482 28 27 35
-225.916 -390.857 -1478 29 28 36
-221.942 -389.188 -1472 31 30 38
-218.44 -388.315 -1469 28 27 35
-214.66 -386.914 -1464 28 27 35
-211.625 -386.836 -1464 28 27 35
-208.165 -385.967 -1461 24 23 31
-204.719 -385.099 -1458 24 23 31
-201.01 -383.705 -1453 27 26 34
-197.732 -383.104 -1451 28 27 35
-194.062 -381.712 -1446 27 26 34
-190.546 -380.586 -1442 28 27 35
-187.049 -379.462 -1438 28 27 35
-183.825 -378.867 -1436 26 25 33
-180.36 -377.745 -1432 25 24 32
-177.16 -377.153 -1430 26 25 33
-173.97 -376.561 -1428 25 24 32
-170.91 -376.235 -1427 23 22 30
-167.737 -375.646 -1425 24 23 31
-164.574 -375.058 -1423 24 23 31
-161.648 -374.999 -1423 21 20 28
-158.612 -374.678 -1422 19 18 27
-155.581 -374.357 -1421 20 19 29
-152.663 -374.301 -1421 22 21 31
-149.641 -373.983 -1420 23 22 32
-146.727 -373.929 -1420 25 24 34
-143.714 -373.613 -1419 24 23 33
-140.805 -373.562 -1419 24 23 34
-137.8 -373.248 -1418 21 20 30
-134.896 -373.199 -1418 19 18 28
-131.993 -373.15 -1418 21 20 30
-128.817 -372.313 -1415 23 22 32
-125.922 -372.267 -1415 23 22 33
-122.941 -371.959 -1414 22 21 33
-119.966 -371.652 -1413 21 20 32
-117.078 -371.609 -1413 20 19 31
-114.11 -371.305 -1412 23 22 34
-111.148 -371.001 -1411 25 24 36
-108.344 -371.224 -1412 25 24 36
-105.462 -371.185 -1412 22 21 33
-102.581 -371.148 -1412 21 20 32
-99.7008 -371.111 -1412 23 21 33
-96.89 -371.338 -1413 25 24 36
-93.943 -371.041 -1412 25 24 36
-91.0008 -370.745 -1411 21 20 32
-88.2508 -371.238 -1413 19 18 30
-85.433 -371.47 -1414 18 17 29
-82.6702 -371.965 -1416 17 16 27
-79.8999 -372.461 -1418 15 14 25
-77.1222 -372.958 -1420 13 12 22
-74.2847 -373.193 -1421 13 12 21
-71.3936 -373.167 -1421 12 11 20
-68.5994 -373.667 -1423 13 12 23
-65.7976 -374.168 -1425 20 19 30
-62.9884 -374.67 -1427 20 19 30
-60.1715 -375.172 -1429 22 21 33
-57.387 -375.939 -1432 22 21 33
-54.5147 -376.181 -1433 20 19 32
-51.6748 -376.687 -1435 22 21 33
-48.8273 -377.194 -1437 21 20 32
-45.972 -377.702 -1439 25 24 38
-43.1389 -378.473 -1442 28 27 41
-40.3218 -379.508 -1446 25 24 38
-37.4372 -380.019 -1448 25 24 38
-34.6639 -381.843 -1455 27 26 40
-32.0149 -385.505 -1469 31 30 44
-29.2106 -387.856 -1478 29 28 43
-26.3167 -389.421 -1484 27 26 40
-23.3831 -390.724 -1489 26 25 39
-20.402 -391.503 -1492 26 25 39
-17.4321 -392.808 -1497 31 30 43
-14.4422 -394.114 -1502 33 32 45
-11.4472 -395.946 -1509 31 30 45
-8.44048 -398.567 -1519 31 31 46
-5.3758 -399.876 -1524 27 27 41
-249.058 -406.998 -1525 35 34 44
-242.494 -401.304 -1504 35 34 44
-238.883 -400.414 -1501 35 34 42
-233.246 -396.059 -1485 32 31 39
-229.847 -395.441 -1483 29 28 36
-225.693 -393.49 -1476 30 29 37
-222.174 -392.608 -1473 31 30 38
-218.223 -390.928 -1467 28 27 34
-214.739 -390.049 -1464 22 21 29
-211.558 -389.704 -1463 25 24 32
-208.099 -388.827 -1460 26 25 33
-204.794 -388.219 -1458 27 26 36
-201.36 -387.345 -1455 27 26 35
-197.805 -386.207 -1451 26 25 33
-194.133 -384.804 -1446 27 26 34
-190.748 -383.935 -1443 30 29 37
-187.117 -382.536 -1438 30 29 37
-183.764 -381.669 -1435 26 25 33
-180.552 -381.071 -1433 24 23 31
-177.225 -380.208 -1430 24 23 31
-174.156 -379.877 -1429 24 23 31
-171.212 -379.814 -1429 24 23 31
-168.034 -379.22 -1427 23 22 30
-164.981 -378.893 -1426 22 21 29
-161.934 -378.568 -1425 22 21 29
-158.893 -378.243 -1424 20 19 28
-155.747 -377.655 -1422 20 19 29
-152.826 -377.598 -1422 22 21 29
-149.801 -377.277 -1421 24 23 32
-146.781 -376.957 -1420 24 23 33
-143.766 -376.639 -1419 23 22 34
-140.757 -376.321 -1418 23 22 34
-137.753 -376.005 -1417 23 22 32
-134.85 -375.955 -1417 21 20 31
-131.948 -375.907 -1417 22 21 33
-128.955 -375.594 -1416 24 23 35
-125.968 -375.282 -1415 22 21 33
-122.986 -374.971 -1414 22 21 33
-119.924 -374.397 -1412 19 18 30
-117.038 -374.353 -1412 20 19 31
-114.071 -374.046 -1411 24 23 35
-111.109 -373.74 -1410 26 25 37
-108.306 -373.965 -1411 27 26 38
-105.426 -373.926 -1411 24 23 35
-102.473 -373.623 -1410 22 20 33
-99.6663 -373.851 -1411 25 21 34
-96.8567 -374.08 -1412 23 22 34
-93.9105 -373.781 -1411 21 20 32
-91.0338 -373.747 -1411 19 18 30
-88.2203 -373.979 -1412 18 17 29
-85.4639 -374.477 -1414 18 17 29
-82.7001 -374.976 -1416 18 17 29
-79.8726 -375.212 -1417 18 17 28
-77.0958 -375.713 -1419 17 16 26
-74.2593 -375.95 -1420 20 19 27
-71.3691 -375.924 -1420 23 22 30
-68.5277 -376.163 -1421 22 21 31
-65.7752 -376.932 -1424 23 22 33
-62.9228 -377.174 -1425 23 22 34
-60.1511 -377.945 -1428 23 22 34
-57.2874 -378.189 -1429 21 20 32
-54.4583 -378.698 -1431 20 19 31
-51.6575 -379.472 -1434 23 22 34
-48.8449 -380.248 -1437 22 21 34
-46.0206 -381.025 -1440 24 23 37
-43.1844 -381.802 -1443 25 24 38
-40.3922 -383.11 -1448 26 25 39
-37.6317 -384.948 -1455 29 28 42
-34.9147 -387.58 -1465 29 28 42
-32.07 -389.155 -1471 26 25 39
-29.3595 -392.848 -1485 24 23 37
-26.4859 -394.954 -1493 23 22 36
-23.4858 -395.474 -1495 23 22 36
-20.4914 -396.26 -1498 26 25 39
-17.485 -397.046 -1501 30 29 43
-14.4666 -397.834 -1504 33 32 46
-11.474 -399.946 -1512 30 28 45
-8.43808 -401.529 -1518 28 26 43
-5.38481 -403.643 -1526 27 28 42
-247.68 -407.852 -1516 35 34 44
-242.745 -404.802 -1505 34 33 43
-238.176 -402.292 -1496 34 33 41
-233.489 -399.515 -1486 32 31 39
-229.622 -398.085 -1481 30 29 37
-225.471 -396.119 -1474 32 31 39
-221.804 -394.961 -1470 31 30 38
-218.006 -393.536 -1465 29 28 35
-214.672 -392.918 -1463 26 25 33
-211.347 -392.302 -1461 27 26 34
-208.033 -391.687 -1459 28 27 35
-204.869 -391.342 -1458 30 29 38
-201.296 -390.193 -1454 29 28 37
-198.014 -389.582 -1452 28 27 35
-194.07 -387.632 -1445 29 28 36
-190.686 -386.756 -1442 30 29 37
-187.186 -385.613 -1438 28 27 35
-184.088 -385.276 -1437 24 23 31
-180.618 -384.136 -1433 25 24 32
-177.538 -383.802 -1432 24 23 31
-174.463 -383.469 -1431 24 23 31
-171.394 -383.137 -1430 23 22 30
-168.213 -382.538 -1428 22 21 29
-165.042 -381.941 -1426 23 22 30
-161.88 -381.345 -1424 23 22 30
-158.728 -380.75 -1422 22 21 30
-155.695 -380.424 -1421 20 19 29
-152.667 -380.1 -1420 21 20 29
-149.856 -380.311 -1421 25 24 33
-146.938 -380.257 -1421 25 24 34
-143.819 -379.668 -1419 23 22 34
-140.908 -379.615 -1419 20 19 31
-137.804 -379.029 -1417 21 20 30
-134.899 -378.979 -1417 21 20 31
-131.903 -378.662 -1416 23 22 34
-128.911 -378.347 -1415 23 22 34
-125.925 -378.032 -1414 20 19 31
-122.857 -377.452 -1412 22 21 33
-119.883 -377.14 -1411 22 21 33
-116.998 -377.096 -1411 24 23 35
-114.032 -376.787 -1410 24 23 35
-111.15 -376.745 -1410 23 22 34
-108.346 -376.972 -1411 25 24 36
-105.389 -376.666 -1410 25 24 36
-102.438 -376.36 -1409 23 22 34
-99.6321 -376.59 -1410 23 22 34
-96.8234 -376.821 -1411 21 20 32
-93.9448 -376.786 -1411 20 19 31
-91.067 -376.752 -1411 20 19 31
-88.2526 -376.986 -1412 21 20 32
-85.4347 -377.222 -1413 21 20 32
-82.6719 -377.725 -1415 21 20 32
-79.789 -377.695 -1415 22 21 32
-77.0696 -378.467 -1418 20 19 29
-74.2341 -378.706 -1419 22 21 29
-71.3952 -378.946 -1420 28 27 35
-68.601 -379.454 -1422 26 25 35
-65.8455 -380.23 -1425 20 19 30
-62.9899 -380.473 -1426 20 19 29
-60.2573 -381.518 -1430 21 20 32
-57.4287 -382.03 -1432 21 20 32
-54.5543 -382.276 -1433 21 20 32
-51.7484 -383.057 -1436 21 20 32
-48.9648 -384.105 -1440 20 19 32
-46.1972 -385.422 -1445 23 22 36
-43.3798 -386.472 -1449 23 22 36
-40.5744 -387.79 -1454 25 24 38
-37.8007 -389.643 -1461 28 27 41
-35.0943 -392.563 -1472 29 28 42
-32.2999 -394.951 -1481 24 23 37
-29.4296 -396.806 -1488 22 21 35
-26.4778 -397.863 -1492 20 19 33
-23.4943 -398.654 -1495 21 20 34
-20.4715 -398.912 -1496 27 26 40
-17.4564 -399.439 -1498 31 30 44
-14.4718 -401.033 -1504 33 32 46
-11.4326 -401.561 -1506 32 30 46
-8.4244 -403.957 -1515 27 25 42
-5.37953 -406.355 -1524 28 29 43
-248.1 -411.654 -1518 35 34 44
-242.836 -408.036 -1505 35 34 43
-238.743 -406.319 -1499 33 32 40
-234.205 -403.791 -1490 32 31 39
-230.173 -402.078 -1484 30 29 37
-225.708 -399.555 -1475 30 29 37
-222.339 -398.929 -1473 27 26 34
-218.088 -396.68 -1465 27 26 34
-214.752 -396.057 -1463 29 28 36
-211.571 -395.707 -1462 27 26 34
-208.111 -394.816 -1459 27 26 34
-204.665 -393.927 -1456 29 28 36
-201.233 -393.04 -1453 28 27 35
-198.088 -392.694 -1452 28 27 35
-194.277 -390.999 -1446 27 26 34
-190.89 -390.116 -1443 26 25 33
-187.256 -388.693 -1438 26 25 33
-184.157 -388.354 -1437 23 22 30
-180.685 -387.205 -1433 25 24 32
-177.48 -386.598 -1431 26 25 33
-174.406 -386.262 -1430 26 25 33
-171.338 -385.927 -1429 25 24 32
-168.158 -385.324 -1427 25 24 32
-165.103 -384.992 -1426 24 23 31
-162.054 -384.661 -1425 22 21 29
-158.898 -384.061 -1423 22 21 30
-155.752 -383.463 -1421 23 22 32
-152.939 -383.675 -1422 26 25 35
-149.911 -383.349 -1421 28 27 37
-146.993 -383.294 -1421 25 24 34
-143.974 -382.97 -1420 23 22 34
-140.861 -382.378 -1418 20 19 31
-137.66 -381.517 -1415 22 21 31
-134.854 -381.736 -1416 22 21 33
-131.765 -381.147 -1414 22 21 33
-128.777 -380.829 -1413 22 21 33
-125.972 -381.052 -1414 21 20 32
-122.99 -380.736 -1413 23 22 34
-119.843 -379.883 -1410 22 21 33
-117.041 -380.108 -1411 24 23 35
-114.074 -379.796 -1410 24 23 35
-111.191 -379.754 -1410 22 21 33
-108.386 -379.983 -1411 23 22 34
-105.428 -379.674 -1410 23 22 34
-102.475 -379.366 -1409 23 22 34
-99.6689 -379.598 -1410 23 22 34
-96.7905 -379.561 -1410 21 20 32
-93.9129 -379.526 -1410 22 21 33
-91.0361 -379.492 -1410 24 23 35
-88.16 -379.459 -1410 24 23 35
-85.3452 -379.696 -1411 26 25 37
-82.527 -379.934 -1412 24 23 35
-79.7055 -380.173 -1413 22 21 32
-76.9892 -380.951 -1416 19 18 28
-74.2614 -381.73 -1419 17 16 24
-71.5221 -382.51 -1422 23 22 30
-68.7228 -383.022 -1424 25 24 35
-66.0084 -384.073 -1428 23 22 32
-63.1457 -384.318 -1429 20 19 29
-60.4059 -385.371 -1433 19 18 30
-57.5702 -385.887 -1435 21 20 32
-54.8028 -386.942 -1439 20 19 31
-51.9477 -387.46 -1441 23 22 35
-49.1188 -388.248 -1444 27 26 39
-46.2781 -389.037 -1447 28 27 41
-43.4556 -390.096 -1451 27 26 40
-40.6731 -391.693 -1457 27 26 40
-37.8664 -393.292 -1463 31 30 44
-35.131 -395.966 -1473 31 30 44
-32.3772 -398.911 -1484 25 24 38
-29.4601 -400.243 -1489 22 21 35
-26.5408 -401.846 -1495 22 21 35
-23.5344 -402.374 -1497 22 21 35
-20.4927 -402.366 -1497 27 26 40
-17.4628 -402.628 -1498 29 28 42
-14.4675 -403.966 -1503 30 29 43
-11.4672 -405.842 -1510 35 33 50
-8.42741 -407.183 -1515 31 29 46
-5.36739 -408.524 -1520 30 30 44
-242.927 -411.275 -1505 34 33 43
-238.992 -409.817 -1500 34 33 41
-233.979 -406.45 -1488 31 30 38
-230.259 -405.269 -1484 30 29 37
-225.946 -402.998 -1476 30 29 37
-222.725 -402.64 -1475 28 27 35
-218.319 -400.101 -1466 27 26 34
-214.833 -399.2 -1463 30 29 37
-211.506 -398.574 -1461 28 27 35
-207.618 -396.858 -1455 30 29 37
-204.46 -396.508 -1454 30 29 37
-201.031 -395.613 -1451 29 28 36
-197.889 -395.265 -1450 30 29 37
-194.35 -394.101 -1446 29 28 36
-190.961 -393.211 -1443 27 26 34
-187.587 -392.322 -1440 29 28 36
-184.354 -391.707 -1438 28 27 35
-180.879 -390.549 -1434 28 27 35
-177.671 -389.937 -1432 26 25 33
-174.35 -389.054 -1429 23 22 30
-171.402 -388.989 -1429 23 22 30
-168.103 -388.109 -1426 25 24 32
-164.933 -387.502 -1424 23 22 30
-162.001 -387.44 -1424 21 20 28
-158.846 -386.836 -1422 22 21 30
-155.811 -386.505 -1421 27 26 36
-152.888 -386.447 -1421 33 32 42
-149.756 -385.846 -1419 33 32 42
-146.737 -385.519 -1418 29 28 38
-143.825 -385.464 -1418 28 27 39
-140.814 -385.139 -1417 27 26 38
-137.614 -384.272 -1414 29 28 40
-134.714 -384.221 -1414 28 27 39
-131.721 -383.899 -1413 26 25 37
-128.642 -383.307 -1411 25 24 36
-125.751 -383.259 -1411 26 25 37
-122.774 -382.941 -1410 27 26 38
-119.717 -382.353 -1408 26 25 37
-117.001 -382.851 -1410 26 25 37
-113.955 -382.265 -1408 26 25 37
-110.996 -381.952 -1407 26 25 37
-108.35 -382.725 -1410 25 24 36
-105.468 -382.685 -1410 25 24 36
-102.514 -382.375 -1409 28 27 39
-99.706 -382.608 -1410 28 27 39
-96.8265 -382.572 -1410 25 24 36
-93.9478 -382.536 -1410 24 23 35
-91.0053 -382.23 -1409 24 23 35
-88.1303 -382.197 -1409 23 22 34
-85.4375 -382.978 -1412 26 25 37
-82.6747 -383.489 -1414 25 24 36
-79.7915 -383.459 -1414 23 22 33
-77.181 -384.785 -1419 21 20 30
-74.4461 -385.571 -1422 20 19 27
-71.7499 -386.628 -1426 21 20 28
-68.9414 -387.144 -1428 23 22 34
-66.2641 -388.474 -1433 23 22 32
-63.4344 -388.992 -1435 19 18 28
-60.6814 -390.053 -1439 22 21 33
-57.8724 -390.844 -1442 26 25 37
-55.0137 -391.365 -1444 24 23 35
-52.1834 -392.159 -1447 23 22 36
-49.3071 -392.682 -1449 25 24 38
-46.3593 -392.664 -1449 26 25 39
-43.5317 -393.731 -1453 25 24 38
-40.6881 -394.799 -1457 27 26 40
-37.8545 -396.139 -1462 33 32 46
-35.1202 -398.835 -1472 32 31 45
-32.3455 -401.532 -1482 22 21 35
-29.4314 -402.876 -1487 24 23 37
-26.5151 -404.491 -1493 25 24 38
-23.496 -404.752 -1494 26 25 39
-20.5003 -405.557 -1497 28 27 41
-17.481 -406.092 -1499 30 29 43
-14.4825 -407.44 -1504 30 29 43
-11.4638 -408.79 -1509 32 30 46
-8.43619 -410.683 -1516 32 30 46
-5.35525 -410.68 -1516 33 32 46
-2.29105 -413.658 -1527 32 31 45
-243.666 -415.618 -1509 38 37 47
-239.083 -413.048 -1500 36 35 43
-234.383 -410.204 -1490 33 32 40
-230.813 -409.289 -1487 32 31 39
-226.338 -406.725 -1478 30 29 37
-222.659 -405.539 -1474 26 25 33
-218.997 -404.354 -1470 26 25 33
-215.061 -402.622 -1464 29 28 36
-211.731 -401.99 -1462 29 28 36
-208.268 -401.085 -1459 29 28 36
-204.678 -399.907 -1455 29 28 37
-201.107 -398.731 -1451 33 32 40
-197.828 -398.106 -1449 30 29 37
-194.289 -396.932 -1445 29 28 36
-190.901 -396.035 -1442 27 26 34
-187.657 -395.414 -1440 29 28 36
-184.295 -394.52 -1437 28 27 35
-180.821 -393.352 -1433 26 25 33
-177.489 -392.461 -1430 25 24 32
-174.415 -392.12 -1429 22 21 29
-171.227 -391.505 -1427 23 22 30
-168.166 -391.167 -1426 26 25 33
-165.111 -390.829 -1425 26 25 33
-161.948 -390.219 -1423 25 24 32
-158.906 -389.884 -1422 25 24 32
-155.869 -389.55 -1421 27 26 36
-152.731 -388.944 -1419 33 32 42
-149.707 -388.612 -1418 33 32 42
-146.792 -388.556 -1418 32 31 42
-143.676 -387.953 -1416 31 30 42
-140.569 -387.352 -1414 31 30 42
-137.471 -386.751 -1412 31 30 42
-134.383 -386.152 -1410 31 30 42
-131.398 -385.828 -1409 31 30 42
-128.508 -385.779 -1409 30 29 42
-125.531 -385.457 -1408 29 28 42
-122.646 -385.41 -1408 29 28 41
