ply
format ascii 1.0
comment Created by Open3D
element vertex 1469
property double x
property double y
property double z
property uchar red
property uchar green
property uchar blue
end_header
-13.137 -103.491 -1395 15 14 22
-10.3869 -103.712 -1398 14 13 20
-7.61951 -103.86 -1400 14 13 20
-4.84772 -104.082 -1403 16 15 22
-2.06404 -104.304 -1406 18 17 25
0.731544 -104.527 -1409 18 17 25
3.53405 -104.601 -1410 17 16 24
6.34055 -104.676 -1411 16 15 23
9.15756 -104.825 -1413 15 14 22
11.9826 -104.974 -1415 16 15 23
14.8158 -105.124 -1417 16 15 25
17.657 -105.274 -1419 14 13 22
20.5062 -105.424 -1421 13 12 20
23.38 -105.649 -1424 14 13 21
26.2291 -105.726 -1425 14 13 21
29.0619 -105.729 -1425 12 11 19
31.9174 -105.806 -1426 13 12 20
34.8504 -106.106 -1430 14 13 21
37.773 -106.332 -1433 12 11 19
40.8213 -106.855 -1440 12 11 19
43.9584 -107.528 -1449 14 13 21
47.3905 -108.794 -1466 14 13 21
50.856 -109.986 -1482 14 13 21
55.1481 -112.737 -1519 12 11 19
58.7453 -113.856 -1534 11 10 18
62.1612 -114.53 -1543 11 10 18
-187.709 -116.539 -1522 150 134 128
-183.182 -115.601 -1510 153 132 121
-178.944 -114.817 -1500 170 148 136
-174.865 -114.11 -1491 201 174 158
-170.823 -113.403 -1482 154 128 115
-167.273 -113.003 -1477 110 85 75
-163.966 -112.756 -1474 46 34 39
-160.782 -112.587 -1472 20 10 16
-157.714 -112.494 -1471 13 8 17
-154.863 -112.554 -1472 16 12 22
-151.802 -112.462 -1471 19 16 26
-148.645 -112.294 -1469 17 18 29
-145.398 -112.049 -1466 19 19 29
-142.067 -111.729 -1462 21 20 30
-138.754 -111.409 -1458 25 22 31
-135.457 -111.089 -1454 27 24 32
-132.087 -110.693 -1449 25 24 32
-128.648 -110.221 -1443 23 22 30
-125.061 -109.597 -1435 22 21 29
-121.591 -109.05 -1428 24 23 31
-117.984 -108.35 -1419 22 21 29
-114.577 -107.804 -1412 22 21 29
-111.119 -107.182 -1404 25 24 32
-108.003 -106.865 -1400 25 24 32
-104.753 -106.396 -1394 23 22 30
-101.529 -105.928 -1388 22 21 29
-98.2574 -105.383 -1381 23 22 30
-95.3608 -105.221 -1379 23 22 30
-92.4057 -104.982 -1376 23 22 30
-89.3982 -104.668 -1372 25 24 32
-86.4706 -104.43 -1369 25 24 32
-83.4946 -104.116 -1365 23 22 30
-80.4759 -103.726 -1360 23 22 30
-77.5349 -103.413 -1356 25 24 32
-74.6659 -103.176 -1353 26 25 33
-71.8625 -103.017 -1351 24 23 31
-69.1188 -102.933 -1350 22 21 29
-66.4781 -103.002 -1351 20 19 27
-63.7396 -102.919 -1350 19 18 26
-61.096 -102.989 -1351 19 18 26
-58.4056 -102.983 -1351 18 17 25
-55.7571 -103.054 -1352 17 16 26
-53.0656 -103.048 -1352 17 16 26
-50.4119 -103.119 -1353 17 16 26
-47.7898 -103.266 -1355 17 16 24
-45.1602 -103.414 -1357 16 15 23
-42.5543 -103.638 -1360 14 13 21
-39.8782 -103.71 -1361 14 13 22
-37.2257 -103.858 -1363 13 12 22
-34.591 -104.083 -1366 13 12 20
-32.0145 -104.537 -1372 12 11 19
-29.3717 -104.839 -1376 12 11 19
-26.7714 -105.369 -1383 12 11 19
-24.0566 -105.519 -1385 14 13 21
-21.3494 -105.745 -1388 15 14 22
-18.6171 -105.896 -1390 12 11 19
-15.8769 -106.046 -1392 12 11 19
-13.1383 -106.273 -1395 14 13 21
-10.3879 -106.501 -1398 13 12 20
-7.62571 -106.728 -1401 14 13 20
-4.84474 -106.804 -1402 15 14 22
-2.06571 -107.184 -1407 18 17 25
0.731623 -107.337 -1409 18 17 25
3.53691 -107.489 -1411 17 16 24
6.34568 -107.566 -1412 16 15 23
9.17145 -107.795 -1415 16 15 23
12.0009 -107.949 -1417 16 15 23
14.8173 -107.95 -1417 14 13 23
17.6463 -108.028 -1418 14 13 23
20.5083 -108.258 -1421 14 13 22
23.3495 -108.337 -1422 13 12 20
26.1765 -108.339 -1422 13 12 20
29.0242 -108.419 -1423 13 12 20
31.876 -108.498 -1424 13 12 20
34.8295 -108.882 -1429 13 12 20
37.7505 -109.114 -1432 11 10 18
40.7687 -109.576 -1438 12 11 19
43.9023 -110.266 -1447 12 11 19
47.1689 -111.185 -1459 13 12 20
50.5179 -112.181 -1472 13 12 20
54.6816 -114.777 -1506 13 12 20
58.6365 -116.688 -1531 12 11 20
62.3286 -117.914 -1547 12 11 19
-187.482 -119.434 -1520 53 42 40
-183.08 -118.55 -1509 48 33 28
-178.963 -117.824 -1500 88 71 66
-174.414 -116.784 -1487 152 132 125
-170.841 -116.373 -1482 128 109 104
-167.29 -115.962 -1477 95 76 72
-164.094 -115.788 -1475 43 32 37
-161.017 -115.692 -1474 21 11 16
-157.945 -115.597 -1473 14 9 18
-154.984 -115.58 -1473 19 15 24
-151.921 -115.486 -1472 24 21 29
-148.762 -115.313 -1470 21 22 33
-145.413 -114.983 -1466 19 19 30
-142.179 -114.733 -1463 22 21 31
-138.863 -114.405 -1459 25 23 31
-135.565 -114.076 -1455 28 25 33
-132.101 -113.592 -1449 26 25 32
-128.751 -113.186 -1444 23 22 30
-125.335 -112.703 -1438 24 23 31
-121.689 -111.984 -1429 25 24 32
-117.997 -111.188 -1419 24 23 31
-114.508 -110.549 -1411 26 25 33
-110.972 -109.832 -1402 27 26 34
-107.628 -109.272 -1395 23 22 30
-104.539 -108.948 -1391 21 20 28
-101.466 -108.623 -1387 22 21 29
-98.3388 -108.221 -1382 22 21 29
-95.3707 -107.976 -1379 23 22 30
-92.3482 -107.653 -1375 23 22 30
-89.4076 -107.409 -1372 26 25 33
-86.4165 -107.086 -1368 25 24 32
-83.442 -106.764 -1364 23 22 30
-80.425 -106.364 -1359 23 22 30
-77.543 -106.121 -1356 24 23 31
-74.6184 -105.8 -1352 23 22 30
-71.8699 -105.714 -1351 23 22 30
-69.126 -105.629 -1350 22 21 29
-66.4358 -105.622 -1350 21 20 28
-63.7462 -105.615 -1350 18 17 25
-61.0571 -105.608 -1350 18 17 25
-58.3685 -105.602 -1350 17 16 24
-55.6803 -105.596 -1350 17 16 26
-52.9926 -105.59 -1350 16 15 25
-50.4171 -105.819 -1353 16 15 25
-47.7595 -105.892 -1354 17 16 24
-45.1649 -106.122 -1357 17 16 24
-42.5587 -106.352 -1360 16 15 23
-39.8823 -106.426 -1361 16 15 24
-37.2296 -106.578 -1363 15 14 24
-34.5692 -106.731 -1365 13 12 20
-31.9945 -107.197 -1371 11 10 18
-29.3961 -107.662 -1377 11 10 18
-26.7355 -107.972 -1381 12 11 19
-24.0417 -108.204 -1384 14 13 21
-21.3362 -108.436 -1387 15 14 22
-18.619 -108.669 -1390 12 11 19
-15.8786 -108.823 -1392 12 11 19
-13.1397 -109.056 -1395 14 13 21
-10.3965 -109.368 -1399 14 13 21
-7.63738 -109.68 -1403 14 13 20
-4.8556 -109.835 -1405 15 14 22
-2.06739 -110.069 -1408 17 16 24
0.732742 -110.304 -1411 17 16 24
3.5448 -110.539 -1414 16 15 23
6.35533 -110.539 -1414 16 15 23
9.17888 -110.696 -1416 15 14 22
11.9937 -110.698 -1416 14 13 22
14.8189 -110.777 -1417 14 13 23
17.6481 -110.857 -1418 14 13 23
20.496 -111.015 -1420 14 13 23
23.3355 -111.096 -1421 14 13 21
26.1792 -111.177 -1422 13 12 20
29.0068 -111.18 -1422 12 11 19
31.8793 -111.339 -1424 12 11 19
34.7844 -111.577 -1427 13 12 20
37.728 -111.894 -1431 12 11 19
40.7164 -112.289 -1436 12 11 19
43.8158 -112.919 -1444 12 11 19
47.1091 -113.94 -1457 15 14 22
50.4545 -114.962 -1470 13 12 20
54.76 -117.939 -1508 13 12 20
58.7191 -119.901 -1533 13 12 21
-187.995 -122.805 -1524 33 29 31
-183.464 -121.818 -1512 37 29 30
-179.34 -121.073 -1503 41 31 33
-174.55 -119.846 -1488 53 39 40
-170.975 -119.424 -1483 42 29 31
-167.648 -119.164 -1480 34 22 23
-164.446 -118.985 -1478 26 15 21
-161.362 -118.887 -1477 18 9 15
-158.284 -118.789 -1476 15 11 20
-155.316 -118.772 -1476 18 14 23
-152.04 -118.514 -1473 25 22 30
-148.879 -118.337 -1471 21 22 34
-145.429 -117.919 -1466 19 19 30
-142.292 -117.742 -1464 23 22 32
-138.783 -117.245 -1458 25 23 31
-135.393 -116.828 -1453 27 24 31
-132.206 -116.572 -1450 24 23 30
-129.032 -116.317 -1447 23 22 29
-125.61 -115.821 -1441 24 23 31
-121.957 -115.084 -1432 24 23 31
-118.342 -114.348 -1423 24 23 31
-114.682 -113.532 -1413 28 27 35
-111.143 -112.796 -1404 27 26 34
-107.717 -112.142 -1396 24 23 31
-104.55 -111.729 -1391 23 22 30
-101.55 -111.477 -1388 23 22 30
-98.4916 -111.145 -1384 23 22 30
-95.45 -110.813 -1380 23 22 30
-92.4924 -110.562 -1377 24 23 31
-89.352 -110.07 -1371 27 26 34
-86.4256 -109.82 -1368 25 24 32
-83.4509 -109.49 -1364 23 22 30
-80.4336 -109.08 -1359 23 22 30
-77.4941 -108.75 -1355 23 22 30
-74.7367 -108.661 -1354 21 20 28
-71.984 -108.573 -1353 21 20 28
-69.1845 -108.405 -1351 22 21 29
-66.4921 -108.398 -1351 21 20 28
-63.753 -108.311 -1350 20 19 27
-61.0636 -108.304 -1350 18 17 25
-58.3314 -108.217 -1349 19 18 26
-55.6862 -108.291 -1350 18 17 27
-52.9197 -108.125 -1348 16 15 25
-50.3106 -108.28 -1350 15 14 24
-47.7293 -108.515 -1353 15 14 22
-45.0699 -108.59 -1354 16 15 23
-42.5006 -108.907 -1358 17 16 24
-39.8866 -109.143 -1361 17 16 26
-37.1789 -109.139 -1361 16 15 25
-34.5476 -109.375 -1364 13 12 20
-31.9512 -109.773 -1369 11 10 18
-29.3139 -110.09 -1373 11 10 18
-26.6802 -110.488 -1378 13 12 20
-24.0443 -110.966 -1384 14 13 21
-21.3231 -111.124 -1386 14 13 21
-18.6209 -111.443 -1390 14 13 21
-15.8802 -111.601 -1392 14 13 21
-13.1411 -111.84 -1395 13 12 20
-10.3901 -112.08 -1398 13 12 20
-7.63818 -112.479 -1403 14 13 20
-4.85611 -112.639 -1405 15 14 22
-2.07053 -113.04 -1410 16 15 23
0.732825 -113.12 -1411 16 15 23
3.54267 -113.28 -1413 16 15 23
6.35601 -113.361 -1414 15 14 22
9.18651 -113.602 -1417 15 14 22
12.0034 -113.603 -1417 15 14 22
14.8414 -113.765 -1419 14 13 23
17.6873 -113.927 -1421 13 12 22
20.5126 -113.93 -1421 13 12 22
23.3544 -114.012 -1422 13 12 20
26.2005 -114.095 -1423 14 13 21
29.0099 -114.018 -1422 13 12 20
31.8827 -114.181 -1424 12 11 19
34.788 -114.425 -1427 13 12 20
37.7585 -114.83 -1432 13 12 20
40.7207 -115.155 -1436 11 10 18
43.7901 -115.721 -1443 13 12 20
46.9847 -116.528 -1453 14 13 21
50.357 -117.656 -1467 13 12 21
54.2211 -119.747 -1493 13 12 21
58.4189 -122.32 -1525 13 12 22
-187.893 -125.781 -1523 28 31 34
-183.12 -124.604 -1509 35 32 40
-178.644 -123.593 -1497 37 34 42
-174.686 -122.913 -1489 34 25 34
-170.994 -122.398 -1483 21 13 21
-167.78 -122.214 -1481 16 9 16
-164.686 -122.113 -1480 21 13 21
-161.598 -122.012 -1479 17 9 17
-158.409 -121.83 -1477 16 13 21
-155.333 -121.73 -1476 22 19 27
-151.85 -121.3 -1471 28 25 33
-148.693 -121.119 -1469 23 22 34
-145.345 -120.773 -1465 22 21 33
-142.21 -120.592 -1463 22 21 31
-138.798 -120.164 -1458 23 21 29
-135.501 -119.819 -1454 25 22 29
-132.038 -119.31 -1448 23 22 29
-128.868 -119.048 -1445 24 23 30
-125.449 -118.54 -1439 23 22 30
-122.056 -118.032 -1433 23 22 30
-118.604 -117.442 -1426 23 22 30
-114.614 -116.276 -1412 26 25 33
-110.996 -115.44 -1402 26 25 33
-107.652 -114.852 -1395 25 24 32
-104.637 -114.593 -1392 26 25 33
-101.634 -114.335 -1389 23 22 30
-98.6447 -114.077 -1386 26 25 33
-95.5296 -113.654 -1381 25 24 32
-92.5025 -113.315 -1377 25 24 32
-89.4268 -112.893 -1372 27 26 34
-86.3719 -112.472 -1367 26 25 33
-83.46 -112.216 -1364 23 22 30
-80.5016 -111.878 -1360 21 20 28
-77.6169 -111.622 -1357 20 19 27
-74.7449 -111.367 -1354 18 17 26
-71.9386 -111.195 -1352 20 19 28
-69.1921 -111.105 -1351 23 22 30
-66.4994 -111.097 -1351 23 22 30
-63.7599 -111.008 -1350 22 21 29
-61.0702 -111.001 -1350 20 19 27
-58.3811 -110.994 -1350 19 18 26
-55.6923 -110.988 -1350 18 17 25
-52.9648 -110.9 -1349 17 16 25
-50.3161 -110.976 -1350 18 17 25
-47.6992 -111.135 -1352 18 17 25
-45.1081 -111.377 -1355 18 17 25
-42.5366 -111.701 -1359 17 16 24
-39.8909 -111.86 -1361 14 13 22
-37.2376 -112.021 -1363 14 13 22
-34.602 -112.263 -1366 13 12 20
-31.9314 -112.424 -1368 12 11 19
-29.2957 -112.749 -1372 13 12 20
-26.6638 -113.157 -1377 13 12 20
-23.9947 -113.483 -1381 14 13 21
-21.2793 -113.645 -1383 14 13 21
-18.5827 -113.971 -1387 13 12 20
-15.8591 -114.216 -1390 12 11 19
-13.1331 -114.543 -1394 13 12 20
-10.3838 -114.788 -1397 15 14 21
-7.63355 -115.198 -1402 14 13 20
-4.85317 -115.362 -1404 15 14 22
-2.06635 -115.608 -1407 15 14 22
0.732391 -115.854 -1410 15 14 22
3.54055 -116.019 -1412 15 14 22
6.3522 -116.102 -1413 16 15 23
9.18102 -116.349 -1416 16 15 23
12.0047 -116.432 -1417 16 15 23
14.8534 -116.68 -1420 14 13 22
17.7142 -116.929 -1423 14 13 22
20.5581 -117.013 -1424 12 11 20
23.3735 -116.933 -1423 12 11 19
26.2402 -117.1 -1425 13 12 20
29.0334 -116.939 -1423 12 11 19
31.8861 -117.024 -1424 12 11 19
34.7918 -117.275 -1427 12 11 19
37.7098 -117.525 -1430 13 12 20
40.6683 -117.858 -1434 13 12 20
43.7038 -118.356 -1440 14 13 21
46.9253 -119.265 -1451 14 13 21
50.3281 -120.504 -1466 15 14 23
54.0816 -122.4 -1489 15 14 24
57.7358 -123.886 -1507 14 13 23
-188.037 -128.922 -1524 27 31 36
-183.383 -127.801 -1511 30 28 37
-178.902 -126.766 -1499 33 30 39
-174.941 -126.069 -1491 29 24 34
-171.359 -125.626 -1486 20 15 25
-167.912 -125.269 -1482 16 13 21
-164.928 -125.25 -1482 17 11 19
-161.835 -125.147 -1481 15 9 18
-158.534 -124.875 -1478 16 13 21
-155.351 -124.688 -1476 22 20 28
-151.868 -124.248 -1471 26 24 33
-148.709 -124.062 -1469 25 23 34
-145.262 -123.624 -1464 23 21 32
-142.226 -123.523 -1463 22 21 32
-138.814 -123.085 -1458 22 20 29
-135.609 -122.816 -1455 23 21 29
-132.053 -122.21 -1448 23 22 30
-128.882 -121.942 -1445 23 22 30
-125.638 -121.59 -1441 23 22 30
-121.985 -120.816 -1432 24 23 31
-118.451 -120.128 -1424 23 22 30
-114.87 -119.355 -1415 24 23 31
-111.009 -118.246 -1402 25 24 32
-107.664 -117.643 -1395 26 25 33
-104.498 -117.21 -1390 28 27 35
-101.499 -116.945 -1387 27 26 34
-98.5135 -116.681 -1384 26 25 33
-95.6095 -116.501 -1382 26 25 33
-92.5128 -116.069 -1377 27 26 34
-89.3065 -115.469 -1370 28 27 35
-86.3184 -115.121 -1366 28 27 35
-83.2857 -114.69 -1361 24 23 31
-80.4513 -114.513 -1359 22 21 29
-77.5684 -114.251 -1356 22 21 29
-74.7532 -114.074 -1354 21 20 30
-71.9999 -113.981 -1353 20 19 29
-69.1999 -113.805 -1351 21 20 28
-66.5068 -113.797 -1351 21 20 28
-63.7671 -113.706 -1350 22 21 29
-61.1223 -113.783 -1351 22 21 29
-58.3876 -113.692 -1350 19 18 26
-55.6986 -113.685 -1350 18 17 25
-53.01 -113.679 -1350 18 17 25
-50.359 -113.757 -1351 17 16 24
-47.7398 -113.92 -1353 17 16 24
-45.1131 -114.083 -1355 17 16 24
-42.5414 -114.415 -1359 15 14 22
-39.9247 -114.663 -1362 14 13 21
-37.2691 -114.827 -1364 13 12 20
-34.6059 -114.992 -1366 12 11 19
-31.9349 -115.156 -1368 12 11 19
-29.2989 -115.489 -1372 14 13 21
-26.6473 -115.823 -1376 14 13 21
-23.9974 -116.241 -1381 13 12 20
-21.297 -116.491 -1384 13 12 20
-18.5983 -116.825 -1388 14 13 21
-15.8609 -116.992 -1390 14 13 21
-13.1252 -117.243 -1393 13 12 20
-10.3775 -117.494 -1396 13 12 20
-7.62911 -117.914 -1401 15 14 21
-4.8537 -118.165 -1404 15 14 22
-2.0651 -118.333 -1406 16 15 23
0.731439 -118.502 -1408 15 14 22
3.53594 -118.67 -1410 15 14 22
6.34392 -118.755 -1411 14 13 21
9.16907 -119.008 -1414 15 14 22
12.0145 -119.346 -1418 15 14 22
14.8551 -119.516 -1420 16 15 23
17.7161 -119.77 -1423 15 14 22
20.5459 -119.772 -1423 14 13 21
23.3761 -119.775 -1423 13 12 20
26.2247 -119.862 -1424 14 13 21
29.0366 -119.781 -1423 15 14 22
31.8896 -119.869 -1424 14 13 21
34.8446 -120.293 -1429 13 12 20
37.7668 -120.55 -1432 13 12 20
40.7012 -120.807 -1435 13 12 20
43.7695 -121.401 -1442 13 12 20
46.9305 -122.164 -1451 13 12 20
50.059 -122.759 -1458 14 13 22
53.6882 -124.449 -1478 16 15 25
57.5123 -126.391 -1501 16 15 23
62.0332 -129.598 -1539 13 12 21
-183.283 -130.748 -1510 32 28 35
-178.684 -129.601 -1497 31 26 34
-174.844 -128.975 -1490 24 21 29
-171.494 -128.695 -1487 17 15 23
-168.158 -128.415 -1484 13 12 20
-165.169 -128.396 -1484 15 12 22
-162.072 -128.29 -1483 15 12 21
-158.874 -128.099 -1481 18 15 23
-155.474 -127.734 -1477 22 20 29
-152.091 -127.371 -1473 23 22 32
-148.828 -127.094 -1470 24 21 31
-145.081 -126.385 -1462 24 22 32
-142.145 -126.368 -1462 23 22 34
-138.639 -125.833 -1456 22 21 30
-135.438 -125.558 -1453 22 21 29
-131.886 -124.938 -1446 22 21 29
-128.719 -124.663 -1443 22 21 29
-125.304 -124.13 -1437 24 23 31
-122.084 -123.77 -1433 24 23 31
-118.465 -122.979 -1424 22 21 29
-114.883 -122.188 -1415 23 22 30
-110.943 -120.966 -1401 26 25 33
-107.831 -120.608 -1397 28 27 35
-104.585 -120.078 -1391 29 28 36
-101.657 -119.893 -1389 28 27 35
-98.5959 -119.536 -1385 25 24 32
-95.5513 -119.18 -1381 25 24 32
-92.4562 -118.738 -1376 25 24 32
-89.3167 -118.209 -1370 25 24 32
-86.3283 -117.854 -1366 25 24 32
-83.2953 -117.413 -1361 24 23 31
-80.4606 -117.231 -1359 23 22 30
-77.5773 -116.963 -1356 23 22 30
-74.7618 -116.781 -1354 23 22 31
-72.0081 -116.687 -1353 21 20 29
-69.1565 -116.42 -1350 19 18 26
-66.4652 -116.412 -1350 20 19 27
-63.7271 -116.318 -1349 21 20 28
-61.0841 -116.397 -1350 24 23 31
-58.351 -116.304 -1349 21 20 28
-55.7049 -116.384 -1350 19 18 26
-53.016 -116.377 -1350 17 16 24
-50.4021 -116.544 -1352 15 14 22
-47.7806 -116.71 -1354 15 14 22
-45.1516 -116.878 -1356 16 15 23
-42.5462 -117.131 -1359 14 13 21
-39.8999 -117.299 -1361 12 11 19
-37.2187 -117.38 -1362 12 11 19
-34.5844 -117.635 -1365 12 11 19
-31.9385 -117.889 -1368 13 12 20
-29.3023 -118.231 -1372 15 14 22
-26.6504 -118.572 -1376 15 14 22
-24.0002 -119 -1381 12 11 19
-21.2994 -119.256 -1384 11 10 18
-18.5736 -119.426 -1386 13 12 20
-15.8627 -119.768 -1390 15 14 22
-13.1266 -120.025 -1393 14 13 21
-10.3788 -120.282 -1396 12 11 19
-7.62997 -120.712 -1401 13 12 19
-4.8577 -121.056 -1405 16 15 22
-2.0668 -121.228 -1407 17 16 24
0.731528 -121.314 -1408 16 15 23
3.53634 -121.487 -1410 15 14 22
6.34914 -121.66 -1412 14 13 21
9.17012 -121.833 -1414 15 14 22
12.0159 -122.179 -1418 16 15 23
14.8672 -122.439 -1421 17 16 24
17.743 -122.785 -1425 16 15 23
20.5773 -122.788 -1425 14 13 21
23.4445 -122.962 -1427 14 13 21
26.3013 -123.052 -1428 14 13 21
29.1216 -122.969 -1427 15 14 24
31.983 -123.058 -1428 15 14 23
34.8973 -123.321 -1431 15 14 22
37.8238 -123.583 -1434 15 14 22
40.7344 -123.76 -1436 16 15 22
43.6834 -124.024 -1439 14 13 21
46.7741 -124.632 -1446 14 13 21
49.9275 -125.328 -1454 14 13 22
53.4763 -126.885 -1472 15 14 24
57.1358 -128.529 -1491 17 16 24
61.6774 -131.898 -1530 13 12 20
-183.426 -133.869 -1511 34 30 37
-179.422 -133.139 -1503 28 23 31
-175.099 -132.143 -1492 18 16 24
-171.86 -131.946 -1490 14 13 21
-168.404 -131.571 -1486 11 10 18
-165.411 -131.551 -1486 15 12 22
-162.201 -131.354 -1484 16 13 23
-159.214 -131.335 -1484 21 18 27
-155.598 -130.786 -1478 23 21 31
-152.316 -130.502 -1475 22 21 31
-148.845 -130.041 -1470 23 20 29
-145.197 -129.405 -1463 22 20 29
-141.967 -129.122 -1460 22 21 32
-138.465 -128.575 -1454 22 21 30
-135.268 -128.293 -1451 22 21 29
-131.719 -127.659 -1444 21 20 28
-128.466 -127.289 -1440 22 21 29
-125.057 -126.744 -1434 25 24 32
-121.757 -126.287 -1429 26 25 33
-118.313 -125.655 -1422 25 24 32
-114.572 -124.669 -1411 26 25 33
-110.956 -123.772 -1401 28 27 35
-107.766 -123.317 -1396 29 28 36
-104.372 -122.598 -1388 27 26 34
-101.523 -122.497 -1387 25 24 32
-98.5363 -122.22 -1384 23 22 30
-95.4241 -121.767 -1379 23 22 30
-92.3999 -121.403 -1375 23 22 30
-89.3272 -120.951 -1370 23 22 30
-86.4016 -120.675 -1367 24 23 31
-83.3051 -120.136 -1361 24 23 31
-80.5293 -120.038 -1360 24 23 31
-77.6436 -119.764 -1357 24 23 31
-74.7706 -119.49 -1354 23 22 32
-71.9101 -119.216 -1351 21 20 30
-69.1646 -119.12 -1350 19 18 26
-66.473 -119.112 -1350 19 18 26
-63.7346 -119.016 -1349 20 19 27
-61.046 -119.008 -1349 23 22 30
-58.4011 -119.09 -1350 23 22 30
-55.7527 -119.171 -1351 20 19 27
-53.0222 -119.076 -1350 16 15 23
-50.408 -119.247 -1352 14 13 21
-47.7509 -119.329 -1353 15 14 22
-45.1902 -119.676 -1357 15 14 22
-42.5199 -119.759 -1358 14 13 21
-39.8753 -119.931 -1360 13 12 20
-37.223 -120.103 -1362 12 11 19
-34.6139 -120.451 -1366 11 10 18
-31.9423 -120.623 -1368 13 12 20
-29.3057 -120.973 -1372 16 15 23
-26.6729 -121.41 -1377 16 15 23
-24.0203 -121.848 -1382 12 11 19
-21.3174 -122.11 -1385 11 10 18
-18.6159 -122.46 -1389 13 12 20
-15.876 -122.634 -1391 14 13 21
-13.1282 -122.809 -1393 13 12 20
-10.3725 -122.984 -1395 12 11 18
-7.63085 -123.512 -1401 13 12 19
-4.85134 -123.687 -1403 15 14 22
-2.06409 -123.863 -1405 16 15 23
0.7311 -124.04 -1407 16 15 23
3.53174 -124.128 -1408 15 14 22
6.34556 -124.393 -1411 14 13 21
9.1647 -124.57 -1413 14 13 21
12.0173 -125.012 -1418 14 13 21
14.8794 -125.367 -1422 16 15 23
17.7576 -125.721 -1426 15 14 22
20.5942 -125.723 -1426 14 13 21
23.4636 -125.902 -1428 14 13 21
26.3228 -125.994 -1429 13 12 20
29.1863 -126.085 -1430 14 13 23
32.0763 -126.265 -1432 17 16 24
34.9745 -126.445 -1434 18 17 25
37.9073 -126.714 -1437 16 15 23
40.7958 -126.807 -1438 15 14 22
43.7795 -127.165 -1442 14 13 20
46.812 -127.611 -1447 14 13 21
49.8646 -128.058 -1452 14 13 22
53.4101 -129.651 -1470 13 12 22
57.4873 -132.304 -1500 15 14 22
-183.691 -137.086 -1513 33 29 37
-178.846 -135.705 -1498 27 23 30
-175.12 -135.14 -1492 15 14 22
-171.881 -134.938 -1490 13 12 20
-168.425 -134.555 -1486 10 9 17
-165.431 -134.534 -1486 14 11 21
-162.111 -134.243 -1483 17 14 24
-159.019 -134.132 -1482 21 18 28
-155.616 -133.751 -1478 23 21 31
-152.334 -133.461 -1475 24 23 33
-148.863 -132.99 -1470 25 23 32
-145.215 -132.339 -1463 23 21 30
-141.985 -132.05 -1460 23 22 32
-138.291 -131.31 -1452 23 22 31
-135.191 -131.112 -1450 22 21 29
-131.643 -130.463 -1443 21 20 28
-128.482 -130.176 -1440 23 22 30
-125.072 -129.618 -1434 26 25 33
-121.687 -129.061 -1428 26 25 33
-118.16 -128.323 -1420 26 25 33
-114.423 -127.315 -1409 28 27 35
-110.969 -126.578 -1401 28 27 35
-107.779 -126.113 -1396 28 27 35
-104.535 -125.558 -1390 26 25 33
-101.462 -125.185 -1386 23 22 30
-98.4058 -124.811 -1382 24 23 31
-95.3663 -124.438 -1378 24 23 31
-92.2766 -123.975 -1373 26 25 33
-89.2075 -123.513 -1368 28 27 35
-86.2856 -123.231 -1365 27 26 34
-83.1927 -122.679 -1359 26 25 33
-80.4205 -122.579 -1358 25 24 32
-77.4812 -122.209 -1354 24 23 31
-74.7243 -122.109 -1353 23 22 32
-71.8655 -121.829 -1350 21 20 30
-69.173 -121.821 -1350 20 19 27
-66.4809 -121.813 -1350 19 18 26
-63.7895 -121.805 -1350 19 18 26
-61.0985 -121.797 -1350 20 19 27
-58.3648 -121.7 -1349 22 21 29
-55.7181 -121.783 -1350 21 20 28
-52.9893 -121.686 -1349 16 15 23
-50.3767 -121.86 -1351 14 13 21
-47.7566 -122.035 -1353 15 14 22
-45.1622 -122.3 -1356 16 15 23
-42.4937 -122.385 -1357 16 15 23
-39.8507 -122.56 -1359 16 15 23
-37.2275 -122.826 -1362 16 15 23
-34.6179 -123.182 -1366 15 14 22
-31.9694 -123.449 -1369 14 13 21
-29.3093 -123.716 -1372 13 12 20
-26.6954 -124.253 -1378 13 12 20
-24.0059 -124.521 -1381 11 10 18
-21.3045 -124.788 -1384 11 10 18
-18.5913 -125.056 -1387 13 12 20
-15.8665 -125.325 -1390 13 12 20
-13.1203 -125.503 -1392 13 12 20
-10.3663 -125.682 -1394 12 11 19
-7.61541 -126.042 -1398 14 13 20
-4.845 -126.312 -1401 15 14 22
-2.06139 -126.492 -1403 15 14 22
0.730154 -126.672 -1405 16 15 23
3.53217 -126.943 -1408 16 15 23
6.34182 -127.123 -1410 14 13 21
9.15931 -127.305 -1412 13 12 20
12.0103 -127.757 -1417 13 12 20
14.8603 -128.029 -1420 14 13 21
17.7349 -128.392 -1424 14 13 21
20.5822 -128.484 -1425 15 14 22
23.45 -128.667 -1427 13 12 20
26.3259 -128.85 -1429 11 10 19
29.149 -128.764 -1428 13 12 22
32.0577 -129.038 -1431 17 16 24
34.9787 -129.313 -1434 18 17 25
37.8856 -129.497 -1436 16 15 23
40.7155 -129.412 -1435 13 12 19
43.7242 -129.868 -1440 12 11 18
46.6882 -130.144 -1443 12 11 19
49.8019 -130.781 -1450 14 13 21
53.1984 -132.05 -1464 12 11 21
57.0344 -134.222 -1488 14 13 21
61.2485 -137.025 -1519 13 12 20
-183.592 -140.034 -1512 30 27 34
-179.346 -139.086 -1502 25 22 29
-175.377 -138.323 -1494 16 15 23
-172.249 -138.208 -1493 13 12 20
-168.672 -137.724 -1488 12 11 19
-165.674 -137.703 -1488 15 12 22
-162.459 -137.498 -1486 18 15 25
-159.253 -137.293 -1484 21 18 28
-156.057 -137.088 -1482 22 20 30
-152.663 -136.699 -1478 25 24 34
-149.185 -136.217 -1473 26 25 35
-145.431 -135.459 -1465 23 22 32
-142.294 -135.256 -1463 23 22 32
-138.499 -134.407 -1454 22 21 30
-135.114 -133.928 -1449 21 20 28
-131.842 -133.541 -1445 21 20 28
-128.587 -133.156 -1441 24 23 31
-125.087 -132.493 -1434 26 25 33
-121.702 -131.923 -1428 28 27 35
-118.092 -131.077 -1419 26 25 33
-114.112 -129.769 -1405 26 25 33
-110.666 -129.017 -1397 27 26 34
-107.715 -128.818 -1395 27 26 34
-104.548 -128.343 -1390 26 25 33
-101.401 -127.869 -1385 23 22 30
-98.489 -127.672 -1383 25 24 32
-95.3089 -127.106 -1377 26 25 33
-92.2879 -126.725 -1373 29 28 36
-89.088 -126.068 -1366 30 29 37
-86.2962 -125.965 -1365 28 27 35
-83.1417 -125.308 -1358 27 26 34
-80.3711 -125.206 -1357 26 25 33
-77.3763 -124.735 -1352 24 23 31
-74.623 -124.633 -1351 22 21 30
-71.8211 -124.439 -1349 21 20 29
-69.1302 -124.431 -1349 21 20 28
-66.4399 -124.422 -1349 20 19 27
-63.7501 -124.414 -1349 18 17 25
-61.0608 -124.406 -1349 20 19 27
-58.3287 -124.307 -1348 22 21 29
-55.6837 -124.392 -1349 20 19 27
-52.9565 -124.293 -1348 16 15 23
-50.3456 -124.471 -1350 14 13 21
-47.7624 -124.742 -1353 16 15 23
-45.1344 -124.92 -1355 18 17 25
-42.4988 -125.099 -1357 18 17 25
-39.8556 -125.278 -1359 16 15 23
-37.232 -125.55 -1362 14 13 21
-34.5969 -125.822 -1365 15 14 22
-31.9734 -126.187 -1369 14 13 21
-29.2914 -126.368 -1371 12 11 19
-26.66 -126.825 -1376 12 11 19
-23.9914 -127.19 -1380 11 10 18
-21.3224 -127.648 -1385 11 10 18
-18.6071 -127.922 -1388 12 11 19
-15.8798 -128.197 -1391 12 11 19
-13.1314 -128.379 -1393 13 12 20
-10.375 -128.562 -1395 13 12 20
-7.61632 -128.838 -1398 13 12 20
-4.83866 -128.929 -1399 15 14 22
-2.0587 -129.113 -1401 15 14 22
0.729729 -129.389 -1404 15 14 22
3.5326 -129.758 -1408 16 15 23
6.3381 -129.851 -1409 14 13 21
9.16691 -130.22 -1413 14 13 21
12.0117 -130.59 -1417 14 13 21
14.8725 -130.961 -1421 13 12 20
17.7246 -131.147 -1423 14 13 21
20.5702 -131.242 -1424 15 14 22
23.4035 -131.244 -1424 14 13 21
26.2924 -131.524 -1427 12 11 20
29.1525 -131.62 -1428 13 12 21
32.084 -131.992 -1432 13 12 20
35.0075 -132.273 -1435 14 13 21
37.9166 -132.462 -1437 14 13 21
40.7774 -132.467 -1437 13 12 20
43.7902 -132.933 -1442 12 11 19
46.7909 -133.307 -1446 13 12 20
49.8768 -133.866 -1452 13 12 21
53.2411 -135.071 -1465 12 11 21
56.9262 -136.922 -1485 14 13 21
60.9335 -139.327 -1511 15 14 22
-183.373 -142.885 -1510 29 26 33
-179.249 -142.01 -1501 24 21 28
-175.516 -141.42 -1495 16 15 23
-172.386 -141.303 -1494 13 12 21
-169.034 -140.998 -1491 13 12 21
-165.918 -140.882 -1490 17 15 25
-162.698 -140.672 -1488 21 18 28
-159.488 -140.462 -1486 22 19 28
-156.076 -140.064 -1482 22 20 30
-152.786 -139.761 -1479 23 22 32
-149.609 -139.552 -1477 24 23 33
-145.648 -138.589 -1467 23 22 32
-142.214 -138.098 -1462 22 21 31
-138.421 -137.23 -1453 21 20 29
-135.225 -136.929 -1450 21 20 28
-131.859 -136.44 -1445 23 22 30
-128.692 -136.141 -1442 25 24 32
-125.19 -135.464 -1435 26 25 33
-121.717 -134.787 -1428 28 27 35
-117.94 -133.734 -1417 24 23 31
-114.452 -132.964 -1409 25 24 32
-110.996 -132.195 -1401 27 26 34
-107.883 -131.803 -1397 27 26 34
-104.786 -131.412 -1393 27 26 34
-101.633 -130.928 -1388 24 23 31
-98.4302 -130.349 -1382 25 24 32
-95.2516 -129.771 -1376 25 24 32
-92.3667 -129.57 -1374 26 25 33
-89.2297 -128.993 -1368 28 27 35
-86.3702 -128.793 -1366 28 27 35
-83.0909 -127.934 -1357 27 26 34
-80.3219 -127.829 -1356 24 23 31
-77.3288 -127.348 -1351 22 21 29
-74.5219 -127.15 -1349 20 19 29
-71.7236 -126.952 -1347 20 19 29
-69.1389 -127.132 -1349 20 19 27
-66.4974 -127.217 -1350 19 18 26
-63.758 -127.115 -1349 19 18 26
-61.0231 -127.013 -1348 21 20 28
-58.336 -127.005 -1348 20 19 27
-55.6493 -126.998 -1348 19 18 26
-52.9631 -126.991 -1348 18 17 25
-50.3519 -127.173 -1350 15 14 22
-47.7331 -127.355 -1352 16 15 24
-45.1401 -127.632 -1355 18 17 26
-42.4728 -127.721 -1356 18 17 25
-39.8312 -127.904 -1358 16 15 23
-37.2094 -128.181 -1361 15 14 22
-34.6011 -128.554 -1365 15 14 22
-31.9774 -128.926 -1369 15 14 22
-29.3165 -129.205 -1372 13 12 20
-26.6633 -129.578 -1376 15 14 22
-23.977 -129.857 -1379 15 14 22
-21.2944 -130.231 -1383 12 11 19
-18.5959 -130.605 -1387 11 10 18
-15.8589 -130.791 -1389 11 10 18
-13.1236 -131.072 -1392 12 11 19
-10.3689 -131.259 -1394 14 13 21
-7.61181 -131.54 -1397 14 13 21
-4.83596 -131.634 -1398 13 12 20
-2.05894 -131.916 -1401 14 13 21
0.729826 -132.198 -1404 16 15 23
3.52803 -132.387 -1406 16 15 23
6.34339 -132.764 -1410 14 13 21
9.16156 -132.953 -1412 13 12 20
12.0132 -133.425 -1417 13 12 20
14.8641 -133.709 -1420 13 12 20
17.7144 -133.9 -1422 14 13 21
20.5583 -133.996 -1423 17 16 24
23.423 -134.188 -1425 15 14 22
26.3141 -134.473 -1428 14 13 21
29.1766 -134.571 -1429 14 13 21
32.0882 -134.857 -1432 12 11 19
35.0118 -135.144 -1435 12 11 19
37.8949 -135.243 -1436 13 12 20
40.7541 -135.248 -1436 13 12 20
43.7349 -135.63 -1440 13 12 20
46.6674 -135.824 -1442 13 12 20
49.7455 -136.395 -1448 12 11 20
52.9935 -137.344 -1458 11 10 20
56.4349 -138.669 -1472 14 13 22
60.5377 -141.409 -1501 16 15 23
-183.396 -145.922 -1510 31 28 35
-179.511 -145.222 -1503 24 21 28
-175.656 -144.522 -1496 15 14 22
-172.523 -144.403 -1495 12 11 20
-169.396 -144.284 -1494 12 11 21
-166.051 -143.973 -1491 17 15 25
-163.047 -143.951 -1491 22 19 29
-159.723 -143.641 -1488 24 21 29
-156.202 -143.137 -1483 23 21 30
-152.702 -142.635 -1478 23 22 32
-149.527 -142.422 -1476 23 22 32
-145.865 -141.727 -1469 23 22 32
-142.427 -141.226 -1464 23 22 32
-138.725 -140.436 -1456 22 21 30
-135.335 -139.936 -1451 21 20 28
-131.967 -139.437 -1446 22 21 29
-128.62 -138.938 -1441 24 23 31
-125.206 -138.343 -1435 25 24 32
-121.562 -137.459 -1426 26 25 33
-117.789 -136.383 -1415 24 23 31
-114.385 -135.693 -1408 25 24 32
-111.011 -135.004 -1401 28 27 35
-107.897 -134.605 -1397 27 26 34
-104.649 -134.013 -1391 27 26 34
-101.427 -133.421 -1385 26 25 33
-98.5141 -133.216 -1383 25 24 32
-95.1254 -132.336 -1374 24 23 31
-92.1769 -132.035 -1371 26 25 33
-89.1759 -131.638 -1367 27 26 34
-86.318 -131.434 -1365 27 26 34
-83.1627 -130.749 -1358 24 23 31
-80.273 -130.45 -1355 22 21 29
-77.3387 -130.055 -1351 21 20 28
-74.5315 -129.852 -1349 19 18 28
-71.7328 -129.65 -1347 20 19 29
-69.1477 -129.834 -1349 20 19 27
-66.506 -129.921 -1350 18 17 25
-63.8135 -129.913 -1350 20 19 27
-61.1215 -129.905 -1350 21 20 28
-58.4301 -129.897 -1350 19 18 26
-55.6977 -129.793 -1349 19 18 26
-52.9699 -129.69 -1348 19 18 26
-50.321 -129.78 -1349 18 17 25
-47.7039 -129.966 -1351 17 16 26
-45.1459 -130.345 -1355 18 17 26
-42.5096 -130.531 -1357 18 17 25
-39.8657 -130.718 -1359 17 16 24
-37.2415 -131.002 -1362 15 14 22
-34.6056 -131.286 -1365 15 14 22
-31.9814 -131.666 -1369 15 14 22
-29.3202 -131.951 -1372 15 14 22
-26.6861 -132.428 -1377 17 16 24
-23.9801 -132.617 -1379 16 15 23
-21.2971 -132.999 -1383 14 13 21
-18.5849 -133.285 -1386 12 11 19
-15.861 -133.571 -1389 12 11 19
-13.1158 -133.761 -1391 13 12 20
-10.3627 -133.952 -1393 14 13 21
-7.60731 -134.24 -1396 14 13 21
-4.83657 -134.431 -1398 13 12 20
-2.0592 -134.719 -1401 15 14 22
0.729926 -135.008 -1404 16 15 23
3.52848 -135.2 -1406 14 13 21
6.3397 -135.489 -1409 13 12 20
9.16922 -135.875 -1413 13 12 20
12.0063 -136.165 -1416 14 13 21
14.866 -136.551 -1420 12 11 19
17.7166 -136.746 -1422 13 12 20
20.5609 -136.844 -1423 15 14 22
23.426 -137.039 -1425 16 15 23
26.3175 -137.331 -1428 15 14 22
29.1804 -137.431 -1429 15 14 22
32.0923 -137.724 -1432 14 13 21
35.0162 -138.016 -1435 14 13 21
37.9263 -138.213 -1437 14 13 21
40.7876 -138.219 -1437 14 13 21
43.771 -138.609 -1441 13 12 20
46.738 -138.903 -1444 13 12 20
49.7863 -139.39 -1449 12 11 20
52.855 -139.878 -1454 12 11 21
56.3655 -141.424 -1470 14 13 21
60.4649 -144.222 -1499 16 15 23
-183.421 -148.96 -1510 31 28 35
-179.416 -148.147 -1502 22 19 26
-175.797 -147.63 -1497 14 13 21
-172.661 -147.508 -1496 11 10 19
-169.645 -147.486 -1496 13 12 22
-166.407 -147.266 -1494 17 16 26
-163.178 -147.047 -1492 22 21 31
-159.637 -146.533 -1487 26 23 32
-156.223 -146.118 -1483 23 21 31
-152.722 -145.604 -1478 23 22 32
-149.344 -145.19 -1474 24 23 33
-145.984 -144.777 -1470 23 22 32
-142.641 -144.364 -1466 24 23 33
-138.838 -143.459 -1457 24 23 32
-135.353 -142.85 -1451 23 22 30
-132.349 -142.734 -1450 23 22 30
-128.726 -141.929 -1442 24 23 31
-125.31 -141.321 -1436 26 25 33
-121.834 -140.616 -1429 28 27 35
-117.971 -139.42 -1417 27 26 34
-114.481 -138.617 -1409 25 24 32
-111.263 -138.11 -1404 25 24 32
-108.066 -137.604 -1399 26 25 33
-104.663 -136.803 -1391 25 24 32
-101.44 -136.199 -1385 25 24 32
-98.3844 -135.793 -1381 24 23 31
-95.0686 -134.993 -1373 25 24 32
-92.1217 -134.686 -1370 28 27 35
-89.1875 -134.379 -1367 30 29 37
-86.2029 -133.974 -1363 29 28 36
-83.0511 -133.275 -1356 26 25 33
-80.1058 -132.871 -1352 22 21 29
-77.2343 -132.566 -1349 22 21 29
-74.4307 -132.359 -1347 21 20 30
-71.6889 -132.251 -1346 22 21 31
-69.1055 -132.439 -1348 21 20 28
-66.4653 -132.528 -1349 17 16 24
-63.8218 -132.617 -1350 19 18 26
-61.1295 -132.609 -1350 20 19 27
-58.3944 -132.503 -1349 19 18 26
-55.6638 -132.397 -1348 20 19 27
-52.9375 -132.292 -1347 19 18 27
-50.253 -132.285 -1347 17 16 25
-47.6395 -132.475 -1349 17 16 26
-45.0518 -132.764 -1352 18 17 26
-42.4211 -132.954 -1354 19 18 26
-39.8122 -133.243 -1357 17 16 24
-37.1643 -133.435 -1359 16 15 23
-34.5848 -133.921 -1364 16 15 23
-31.9623 -134.309 -1368 15 14 22
-29.324 -134.698 -1372 16 15 23
-26.6895 -135.185 -1377 14 13 21
-24.0005 -135.476 -1380 14 13 21
-21.2844 -135.67 -1382 15 14 22
-18.5874 -136.06 -1386 14 13 21
-15.863 -136.352 -1389 13 12 20
-13.108 -136.448 -1390 13 12 20
-10.3715 -136.839 -1394 13 12 20
-7.61374 -137.133 -1397 13 12 20
-4.83718 -137.23 -1398 14 13 21
-2.05798 -137.426 -1400 15 14 22
0.730027 -137.818 -1404 15 14 22
3.53145 -138.113 -1407 14 13 21
6.34502 -138.408 -1410 12 11 20
9.17041 -138.704 -1413 16 15 23
12.0163 -139.098 -1417 16 15 23
14.8574 -139.296 -1419 14 13 21
17.7189 -139.593 -1422 13 12 20
20.5782 -139.791 -1424 14 13 21
23.4455 -139.991 -1426 16 15 23
26.3209 -140.19 -1428 14 13 22
29.2046 -140.39 -1430 14 13 22
32.1188 -140.689 -1433 15 14 22
35.0209 -140.89 -1435 14 13 21
37.9312 -141.091 -1437 14 13 21
40.8214 -141.194 -1438 14 13 21
43.7462 -141.396 -1440 13 12 20
46.6795 -141.599 -1442 13 12 20
49.6897 -141.998 -1446 11 10 19
52.7891 -142.594 -1452 12 11 21
56.1045 -143.681 -1463 13 12 21
59.6255 -145.162 -1478 13 12 20
-183.324 -151.899 -1509 30 27 34
-179.559 -151.271 -1503 21 18 25
-176.173 -150.944 -1500 14 13 21
-172.916 -150.719 -1498 12 11 20
-169.781 -150.595 -1497 14 13 23
-166.652 -150.472 -1496 19 18 28
-163.638 -150.45 -1496 23 22 32
-160.088 -149.925 -1491 26 23 33
-156.56 -149.401 -1486 23 21 31
-152.949 -148.776 -1480 23 22 32
-149.567 -148.354 -1476 23 22 32
-146.003 -147.731 -1470 22 21 31
-142.562 -147.209 -1465 23 22 32
-139.047 -146.587 -1459 24 23 31
-135.464 -145.865 -1452 24 23 31
-132.002 -145.244 -1446 24 23 32
-128.654 -144.724 -1441 26 25 34
-125.327 -144.205 -1436 29 28 36
-121.765 -143.385 -1428 30 29 37
-118.32 -142.666 -1421 29 28 36
-114.578 -141.546 -1410 25 24 32
-111.199 -140.828 -1403 24 23 31
-108.08 -140.412 -1399 25 24 32
-104.752 -139.695 -1392 23 22 30
-101.527 -139.079 -1386 22 21 29
-98.2551 -138.363 -1379 27 26 34
-95.0813 -137.748 -1373 27 26 34
-92.0668 -137.334 -1369 29 28 36
-89.0689 -136.92 -1365 28 27 35
-86.0246 -136.407 -1360 29 28 36
-83.001 -135.894 -1355 27 26 34
-80.1165 -135.582 -1352 23 22 30
-77.1873 -135.17 -1348 21 20 28
-74.3854 -134.96 -1346 21 20 30
-71.6984 -134.95 -1346 22 21 31
-69.1147 -135.141 -1348 22 21 29
-66.425 -135.132 -1348 19 18 26
-63.783 -135.223 -1349 19 18 26
-61.0923 -135.215 -1349 20 19 27
-58.4455 -135.307 -1350 19 18 26
-55.6711 -135.099 -1348 20 19 27
-52.9838 -135.091 -1348 19 18 27
-50.297 -135.084 -1348 17 16 26
-47.6812 -135.278 -1350 16 15 25
-45.0245 -135.372 -1351 17 16 25
-42.4581 -135.767 -1355 17 16 24
-39.8469 -136.062 -1358 17 16 24
-37.1966 -136.257 -1360 16 15 23
-34.6148 -136.753 -1365 16 15 23
-31.9665 -137.05 -1368 15 14 22
-29.3066 -137.346 -1371 15 14 22
-26.6931 -137.943 -1377 14 13 21
-23.9864 -138.14 -1379 14 13 21
-21.2719 -138.338 -1381 15 14 22
-18.5764 -138.735 -1385 15 14 22
-15.8651 -139.134 -1389 14 13 21
-13.1004 -139.132 -1389 13 12 20
-10.3654 -139.531 -1393 12 11 19
-7.61473 -139.931 -1397 12 11 19
-4.83781 -140.03 -1398 14 13 21
-2.06119 -140.43 -1402 15 14 22
0.73065 -140.73 -1405 14 13 21
3.53444 -141.031 -1408 14 13 22
6.34586 -141.232 -1410 13 12 22
9.17162 -141.534 -1413 17 16 24
12.0096 -141.836 -1416 17 16 24
14.8699 -142.238 -1420 16 15 23
17.7213 -142.441 -1422 14 13 21
20.5809 -142.644 -1424 14 13 21
23.4486 -142.847 -1426 15 14 22
26.3245 -143.051 -1428 14 13 22
29.2289 -143.355 -1431 14 13 23
32.1456 -143.66 -1434 14 13 21
35.05 -143.865 -1436 13 12 20
37.9627 -144.07 -1438 14 13 21
40.8836 -144.276 -1440 15 14 21
43.8129 -144.482 -1442 14 13 20
46.718 -144.588 -1443 13 12 20
49.7308 -144.995 -1447 11 10 19
52.8325 -145.603 -1453 12 11 21
56.0736 -146.513 -1462 13 12 20
59.7545 -148.425 -1481 13 12 20
-183.227 -154.835 -1508 30 27 34
-179.703 -154.399 -1504 20 17 24
-176.315 -154.067 -1501 14 13 21
-173.286 -154.042 -1501 15 14 23
-170.031 -153.813 -1499 16 15 25
-166.786 -153.585 -1497 22 21 32
-163.551 -153.357 -1495 23 22 34
-159.788 -152.616 -1488 25 22 32
-156.265 -152.082 -1483 23 21 31
-152.66 -151.445 -1477 23 22 32
-149.486 -151.219 -1475 23 22 32
-145.725 -150.378 -1467 22 21 31
-142.387 -149.948 -1463 24 23 31
-139.067 -149.519 -1459 25 24 32
-135.67 -148.988 -1454 25 24 32
-132.294 -148.457 -1449 25 24 34
-128.939 -147.927 -1444 28 27 37
-125.78 -147.602 -1441 31 30 38
-121.952 -146.458 -1430 32 31 39
-118.336 -145.52 -1421 29 28 36
-114.675 -144.48 -1411 25 24 32
-111.214 -143.645 -1403 25 24 32
-107.863 -142.913 -1396 26 25 33
-104.541 -142.182 -1389 23 22 30
-101.394 -141.656 -1384 22 21 29
-98.0548 -140.823 -1376 27 26 34
-95.025 -140.401 -1372 29 28 36
-91.9448 -139.876 -1367 30 29 37
-89.0158 -139.557 -1364 28 27 35
-85.9731 -139.033 -1359 27 26 34
-82.951 -138.51 -1354 27 26 34
-80.1274 -138.294 -1352 23 22 30
-77.1978 -137.874 -1348 21 20 28
-74.4508 -137.762 -1347 20 19 29
-71.7082 -137.649 -1346 20 19 29
-69.0728 -137.742 -1347 22 21 29
-66.3355 -137.63 -1346 20 19 27
-63.7445 -137.826 -1348 19 18 26
-61.0554 -137.817 -1348 20 19 27
-58.4101 -137.911 -1349 19 18 26
-55.6787 -137.801 -1348 19 18 26
-53.0304 -137.896 -1349 17 16 26
-50.3412 -137.889 -1349 16 15 25
-47.723 -138.087 -1351 17 16 26
-45.0639 -138.182 -1352 18 17 26
-42.4639 -138.483 -1355 16 15 23
-39.8229 -138.682 -1357 15 14 22
-37.1743 -138.881 -1359 14 13 21
-34.5433 -139.182 -1362 14 13 21
-31.9241 -139.587 -1366 14 13 21
-29.2892 -139.991 -1370 15 14 22
-26.6773 -140.6 -1376 14 13 21
-24.007 -141.006 -1380 14 13 21
-21.2901 -141.207 -1382 14 13 21
-18.5789 -141.511 -1385 14 13 21
-15.8559 -141.815 -1388 15 14 22
-13.1116 -142.017 -1390 14 13 21
-10.3743 -142.424 -1394 13 12 20
-7.61029 -142.627 -1396 13 12 20
-4.83845 -142.831 -1398 14 13 21
-2.05999 -143.137 -1401 15 14 22
0.730756 -143.545 -1405 14 13 21
3.53258 -143.75 -1407 13 12 21
6.34672 -144.057 -1410 13 12 22
9.17935 -144.467 -1414 17 16 24
12.0112 -144.673 -1416 17 16 24
14.8509 -144.879 -1418 16 15 23
17.7113 -145.188 -1421 13 12 20
20.5692 -145.395 -1423 13 12 20
23.4354 -145.602 -1425 14 13 21
26.328 -145.912 -1428 14 13 22
29.2328 -146.223 -1431 14 13 23
32.1499 -146.533 -1434 14 13 21
35.0547 -146.742 -1436 14 13 21
37.9942 -147.054 -1439 14 13 21
40.9177 -147.264 -1441 14 13 20
43.8492 -147.474 -1443 14 13 20
46.8216 -147.787 -1446 13 12 20
49.8063 -148.1 -1449 13 12 20
52.8396 -148.516 -1453 13 12 22
56.0813 -149.444 -1462 13 12 20
59.4399 -150.576 -1473 14 13 21
-183.132 -157.768 -1507 27 24 31
-179.968 -157.638 -1506 17 14 21
-176.574 -157.299 -1503 13 12 20
-173.425 -157.169 -1502 16 15 23
-170.055 -156.831 -1499 17 16 26
-166.587 -156.389 -1495 23 22 34
-163.245 -156.052 -1492 24 23 35
-159.703 -155.506 -1487 24 21 31
-156.287 -155.065 -1483 22 20 30
-152.681 -154.416 -1477 23 22 32
-149.406 -154.081 -1474 24 23 33
-145.845 -153.433 -1468 24 23 32
-142.31 -152.786 -1462 25 24 32
-138.8 -152.139 -1456 25 24 32
-135.502 -151.702 -1452 24 23 31
-132.13 -151.161 -1447 25 24 34
-128.868 -150.724 -1443 29 28 38
-125.361 -149.976 -1436 31 30 38
-121.799 -149.123 -1428 32 31 39
-118.019 -147.957 -1417 30 29 37
-114.691 -147.314 -1411 26 25 33
-111.15 -146.359 -1402 25 24 32
-107.801 -145.613 -1395 25 24 32
-104.33 -144.658 -1386 24 23 31
-101.262 -144.226 -1382 23 22 30
-98.0684 -143.586 -1376 25 24 32
-94.9689 -143.051 -1371 27 26 34
-91.7558 -142.307 -1364 29 28 36
-88.7671 -141.877 -1360 29 28 36
-85.7953 -141.448 -1356 29 28 36
-82.84 -141.019 -1352 25 24 32
-80.0793 -140.903 -1351 22 21 29
-77.2659 -140.684 -1349 21 20 28
-74.5164 -140.569 -1348 21 20 30
-71.7714 -140.454 -1347 20 19 28
-69.0824 -140.444 -1347 19 18 26
-66.3447 -140.33 -1346 18 17 25
-63.706 -140.426 -1347 19 18 26
-61.0639 -140.521 -1348 20 19 27
-58.375 -140.513 -1348 21 20 28
-55.6451 -140.4 -1347 19 18 26
-52.9984 -140.497 -1348 16 15 24
-50.2735 -140.386 -1347 15 14 24
-47.6237 -140.483 -1348 17 16 26
-45.0369 -140.789 -1351 19 18 27
-42.4698 -141.2 -1355 17 16 24
-39.8578 -141.507 -1358 14 13 21
-37.2068 -141.71 -1360 14 13 21
-34.5481 -141.913 -1362 15 14 22
-31.9051 -142.221 -1365 15 14 22
-29.2291 -142.425 -1367 15 14 22
-26.6229 -143.046 -1373 13 12 20
-23.9582 -143.46 -1377 13 12 20
-21.2623 -143.769 -1380 12 11 19
-18.5815 -144.287 -1385 13 12 20
-15.8695 -144.701 -1389 16 15 23
-13.1134 -144.803 -1390 15 14 22
-10.3757 -145.219 -1394 14 13 21
-7.62223 -145.634 -1398 14 13 21
-4.84257 -145.737 -1399 14 13 21
-2.06467 -146.258 -1404 16 15 23
0.731384 -146.466 -1406 14 13 21
3.5406 -146.883 -1410 14 13 22
6.3566 -147.092 -1412 14 13 23
9.18711 -147.406 -1415 16 15 23
12.0128 -147.511 -1416 15 14 22
14.8529 -147.721 -1418 14 13 21
17.7013 -147.932 -1420 12 11 19
20.5576 -148.143 -1422 13 12 20
23.4222 -148.355 -1424 14 13 21
26.2763 -148.462 -1425 14 13 22
29.1961 -148.883 -1429 13 12 22
32.1319 -149.304 -1433 13 12 21
35.0597 -149.621 -1436 15 14 22
38.0259 -150.043 -1440 15 14 22
40.9517 -150.257 -1442 14 13 21
43.8858 -150.471 -1444 14 13 21
46.8928 -150.895 -1448 14 13 21
49.9163 -151.318 -1452 15 14 22
52.9562 -151.742 -1456 14 13 23
56.1275 -152.48 -1463 13 12 21
59.4482 -153.53 -1473 14 13 21
-183.158 -160.806 -1507 27 24 31
-180.232 -160.886 -1508 17 14 21
-176.952 -160.647 -1506 16 15 23
-173.912 -160.622 -1506 16 15 24
-170.306 -160.064 -1501 19 18 28
-167.168 -159.933 -1500 22 21 33
-163.488 -159.269 -1494 23 22 33
-159.511 -158.287 -1485 23 20 30
-156.204 -157.944 -1482 23 20 31
-152.703 -157.389 -1477 24 23 33
-149.528 -157.154 -1475 25 24 35
-145.667 -156.174 -1466 25 24 35
-142.038 -155.408 -1459 26 25 34
-138.534 -154.748 -1453 25 24 33
-135.428 -154.516 -1451 24 23 32
-132.24 -154.177 -1448 26 25 35
-129.065 -153.839 -1445 29 28 37
-125.816 -153.395 -1441 30 29 37
-122.157 -152.419 -1432 31 30 38
-118.202 -151.018 -1419 30 29 37
-114.789 -150.257 -1412 29 28 36
-111.324 -149.389 -1404 27 26 34
-107.893 -148.522 -1396 24 23 31
-104.495 -147.656 -1388 25 24 32
-101.35 -147.109 -1383 25 24 32
-98.011 -146.244 -1375 25 24 32
-94.9131 -145.698 -1370 26 25 33
-91.7015 -144.941 -1363 27 26 34
-88.6491 -144.396 -1358 28 27 35
-85.6809 -143.958 -1354 27 26 34
-82.7904 -143.627 -1351 24 23 31
-80.0313 -143.509 -1350 21 20 28
-77.1622 -143.179 -1347 19 18 26
-74.4164 -143.062 -1346 20 19 29
-71.6751 -142.945 -1345 20 19 29
-68.9896 -142.935 -1345 19 18 26
-66.2062 -142.713 -1343 18 17 25
-63.6204 -142.916 -1345 19 18 26
-60.9819 -143.014 -1346 20 19 27
-58.3398 -143.111 -1347 20 19 27
-55.5703 -142.891 -1345 18 17 25
-52.9666 -143.095 -1347 16 15 25
-50.2806 -143.088 -1347 16 15 25
-47.6304 -143.187 -1348 17 16 26
-45.0099 -143.393 -1350 18 17 26
-42.4758 -143.918 -1355 16 15 23
-39.8047 -144.018 -1356 14 13 21
-37.1573 -144.225 -1358 16 15 23
-34.5023 -144.432 -1360 17 16 24
-31.8863 -144.852 -1364 17 16 24
-29.2119 -145.061 -1366 16 15 23
-26.6073 -145.694 -1372 15 14 22
-23.9442 -146.115 -1376 14 13 21
-21.2652 -146.536 -1380 13 12 20
-18.5707 -146.958 -1384 13 12 20
-15.8831 -147.593 -1390 16 15 23
-13.1341 -147.803 -1392 15 14 22
-10.3847 -148.12 -1395 13 12 20
-7.62329 -148.437 -1398 14 13 21
-4.8467 -148.649 -1400 16 15 23
-2.06348 -148.967 -1403 16 15 23
0.732534 -149.498 -1408 16 15 23
3.5411 -149.71 -1410 14 13 22
6.3665 -150.136 -1414 15 14 24
9.18857 -150.243 -1415 14 13 21
12.023 -150.457 -1417 14 13 21
14.855 -150.565 -1418 13 12 20
17.6913 -150.673 -1419 13 12 20
20.5316 -150.782 -1420 13 12 20
23.409 -151.104 -1423 13 12 20
26.2802 -151.32 -1425 14 13 21
29.1798 -151.643 -1428 14 13 21
32.0917 -151.966 -1431 14 13 21
35.0401 -152.395 -1435 14 13 21
37.9785 -152.719 -1438 14 13 21
40.9576 -153.149 -1442 14 13 21
43.9527 -153.58 -1446 15 14 22
46.9319 -153.906 -1449 14 13 21
49.9578 -154.337 -1453 15 14 23
52.9637 -154.663 -1456 16 15 25
56.0969 -155.309 -1462 14 13 21
59.3354 -156.167 -1470 13 12 20
-183.549 -164.17 -1510 29 26 33
-180.259 -163.926 -1508 18 15 22
-177.33 -164.009 -1509 16 15 23
-174.168 -163.874 -1508 17 16 25
-170.671 -163.414 -1504 19 18 28
-167.526 -163.281 -1503 21 20 31
-163.73 -162.496 -1496 22 21 31
-159.749 -161.495 -1487 22 19 29
-156.648 -161.363 -1486 22 20 31
-153.346 -161.014 -1483 24 23 35
-149.347 -159.906 -1473 27 26 37
-145.887 -159.342 -1468 28 27 38
-142.059 -158.344 -1459 27 26 36
-138.744 -157.889 -1455 25 24 34
-135.167 -157.11 -1448 25 24 34
-131.985 -156.765 -1445 26 25 35
-128.994 -156.637 -1444 28 27 37
-125.135 -155.425 -1433 29 28 36
-121.833 -154.865 -1428 28 27 35
-118.053 -153.655 -1417 28 27 35
-114.805 -153.096 -1412 31 30 38
-111.182 -151.995 -1402 28 27 35
-107.832 -151.22 -1395 26 25 33
-104.435 -150.337 -1387 27 26 34
-101.291 -149.78 -1382 28 27 35
-97.9539 -148.899 -1374 28 27 35
-94.9268 -148.451 -1370 27 26 34
-91.782 -147.788 -1364 27 26 34
-88.5967 -147.016 -1357 26 25 33
-85.6299 -146.57 -1353 25 24 32
-82.8024 -146.341 -1351 23 22 30
-79.9836 -146.112 -1349 21 20 28
-77.1734 -145.884 -1347 21 20 28
-74.4824 -145.873 -1347 22 21 30
-71.6854 -145.646 -1345 22 21 30
-68.9996 -145.636 -1345 22 21 29
-66.2157 -145.409 -1343 21 20 28
-63.6296 -145.616 -1345 22 21 29
-60.9907 -145.716 -1346 22 21 29
-58.3483 -145.815 -1347 20 19 27
-55.6197 -145.699 -1346 15 14 22
-52.9349 -145.691 -1346 15 14 22
-50.2878 -145.792 -1347 17 16 24
-47.6373 -145.893 -1348 16 15 24
-45.0164 -146.102 -1350 17 16 25
-42.5132 -146.745 -1356 16 15 23
-39.8692 -146.956 -1358 15 14 22
-37.2175 -147.167 -1360 17 16 24
-34.5326 -147.269 -1361 17 16 24
-31.8675 -147.481 -1363 16 15 23
-29.2161 -147.801 -1366 15 14 22
-26.5916 -148.338 -1371 15 14 22
-23.9302 -148.767 -1375 14 13 21
-21.2529 -149.197 -1379 12 11 19
-18.5734 -149.735 -1384 13 12 20
-15.8626 -150.165 -1388 14 13 21
-13.1171 -150.379 -1390 14 13 21
-10.3862 -150.919 -1395 11 10 19
-7.62436 -151.242 -1398 11 10 19
-4.85084 -151.566 -1401 12 11 19
-2.06524 -151.89 -1404 13 12 20
0.732646 -152.322 -1408 14 13 21
3.54162 -152.539 -1410 13 12 21
6.36291 -152.864 -1413 15 14 22
9.18988 -153.082 -1415 14 14 23
12.0162 -153.191 -1416 13 13 21
14.8468 -153.302 -1417 12 11 19
17.6938 -153.52 -1419 13 12 20
20.5202 -153.523 -1419 15 14 22
23.3959 -153.851 -1422 13 12 20
26.247 -153.963 -1423 14 13 21
29.1635 -154.4 -1427 14 13 21
32.0739 -154.729 -1430 15 14 22
35.0453 -155.275 -1435 14 13 21
37.9839 -155.604 -1438 12 11 19
40.9634 -156.043 -1442 13 12 21
43.9591 -156.482 -1446 14 13 22
46.9064 -156.705 -1448 14 13 21
49.9305 -157.145 -1452 14 13 21
53.0076 -157.694 -1457 14 13 22
56.1051 -158.243 -1462 12 11 19
59.1825 -158.684 -1466 11 10 18
-183.698 -167.327 -1511 25 23 30
-180.764 -167.41 -1512 17 15 22
-177.474 -167.162 -1510 15 14 22
-174.425 -167.136 -1510 16 15 23
-170.924 -166.667 -1506 20 19 27
-167.44 -166.199 -1502 21 20 31
-163.535 -165.289 -1494 20 19 30
-159.772 -164.491 -1487 19 17 28
-156.144 -163.804 -1481 20 19 30
-152.955 -163.559 -1479 24 23 34
-149.369 -162.873 -1473 25 24 35
-145.511 -161.856 -1464 25 24 35
-142.08 -161.282 -1459 25 24 34
-138.67 -160.708 -1454 25 24 34
-135.374 -160.246 -1450 26 25 33
-132.187 -159.894 -1447 26 25 33
-129.103 -159.654 -1445 28 27 35
-125.678 -158.972 -1439 29 28 36
-121.852 -157.738 -1428 26 25 33
-118.404 -156.947 -1421 27 26 34
-114.822 -155.936 -1412 30 29 37
-111.198 -154.815 -1402 29 28 36
-107.925 -154.136 -1396 27 26 34
-104.375 -153.016 -1386 27 26 34
-101.233 -152.449 -1381 28 27 35
-97.897 -151.551 -1373 31 30 38
-94.8022 -150.985 -1368 30 29 37
-91.5937 -150.198 -1361 27 26 34
-88.6098 -149.743 -1357 25 24 32
-85.6425 -149.289 -1353 23 22 30
-82.8147 -149.056 -1351 23 22 30
-79.9954 -148.823 -1349 22 21 29
-77.1275 -148.481 -1346 23 22 30
-74.4933 -148.58 -1347 23 22 30
-71.6427 -148.238 -1344 23 22 30
-68.9071 -148.117 -1343 24 23 31
-66.1761 -147.997 -1342 24 23 31
-63.5443 -148.097 -1343 22 21 29
-60.8637 -148.088 -1343 21 20 28
-58.2702 -148.3 -1345 20 19 27
-55.5452 -148.181 -1344 16 15 23
-52.9034 -148.283 -1345 16 15 23
-50.2953 -148.496 -1347 18 17 25
-47.6796 -148.709 -1349 18 17 25
-45.0229 -148.813 -1350 18 17 25
-42.4568 -149.247 -1354 16 15 23
-39.8163 -149.462 -1356 14 13 21
-37.1682 -149.676 -1358 16 15 23
