ply
format ascii 1.0
comment Created by Open3D
element vertex 1342
property double x
property double y
property double z
property uchar red
property uchar green
property uchar blue
end_header
-182.921 -805.886 -2048 235 238 245
-178.444 -804.999 -2046 234 237 244
-173.978 -804.114 -2044 234 237 244
-169.687 -804.019 -2044 235 238 245
-165.559 -804.713 -2046 235 238 245
-161.583 -806.196 -2050 236 239 246
-157.514 -807.287 -2053 236 239 246
-153.434 -808.38 -2056 234 237 244
-149.27 -809.083 -2058 234 237 244
-145.099 -809.787 -2060 232 235 242
-141.058 -811.281 -2064 229 232 238
-136.869 -811.99 -2066 222 225 232
-132.801 -813.487 -2070 217 220 227
-128.842 -815.773 -2076 213 216 223
-125.038 -819.239 -2085 210 213 220
-121.545 -825.064 -2100 211 214 221
-118.716 -835.998 -2128 206 209 216
-381.249 -822.514 -2060 206 209 220
-373.696 -815.513 -2043 210 214 225
-368.93 -814.504 -2041 209 213 224
-363.641 -812.302 -2036 214 219 232
-358.73 -810.9 -2033 220 223 234
-354.009 -809.901 -2031 222 225 237
-349.472 -809.303 -2030 226 229 241
-344.773 -808.31 -2028 231 233 244
-340.085 -807.319 -2026 234 237 247
-335.409 -806.331 -2024 234 237 247
-331.236 -806.541 -2025 230 233 244
-327.061 -806.754 -2026 227 230 241
-322.726 -806.57 -2026 229 232 243
-318.393 -806.39 -2026 232 235 246
-314.063 -806.211 -2026 232 235 246
-309.584 -805.637 -2025 233 236 247
-305.413 -805.862 -2026 232 234 245
-301.537 -806.884 -2029 231 233 244
-297.359 -807.113 -2030 231 234 245
-293.468 -808.14 -2033 233 236 247
-289.993 -810.36 -2039 232 236 246
-285.935 -810.993 -2041 231 234 243
-282.285 -812.82 -2046 230 232 241
-278.48 -814.251 -2050 232 234 243
-275.196 -817.273 -2058 234 237 247
-271.354 -818.708 -2062 225 228 237
-268.274 -822.526 -2072 215 218 225
-265.282 -826.743 -2083 206 208 214
-262.746 -832.548 -2098 164 166 172
-260.642 -839.94 -2117 144 143 150
-257.733 -844.952 -2130 148 148 156
-252.632 -842.826 -2125 169 169 177
-246.153 -835.944 -2108 188 188 197
-239.977 -829.86 -2093 200 200 208
-234.543 -826.159 -2084 210 209 217
-229.7 -824.444 -2080 217 219 226
-224.227 -820.353 -2070 221 223 231
-219.435 -818.644 -2066 221 224 232
-214.661 -816.937 -2062 223 226 233
-210.009 -815.63 -2059 224 227 234
-205.271 -813.93 -2055 226 229 236
-200.747 -813.024 -2053 229 232 239
-196.138 -811.726 -2050 230 233 240
-191.824 -811.617 -2050 234 237 244
-187.329 -810.719 -2048 235 238 245
-183.023 -810.616 -2048 235 237 244
-178.805 -810.911 -2049 237 239 246
-174.16 -809.23 -2045 237 240 248
-169.864 -809.133 -2045 237 240 248
-165.57 -809.04 -2045 235 238 246
-161.751 -811.322 -2051 234 238 247
-157.371 -810.838 -2050 234 239 247
-153.519 -813.124 -2056 233 236 244
-149.353 -813.831 -2058 232 234 241
-145.11 -814.144 -2059 232 234 241
-141 -815.251 -2062 228 231 237
-137.011 -817.15 -2067 225 228 235
-132.81 -817.865 -2069 222 225 232
-128.851 -820.164 -2075 212 217 224
-124.807 -822.07 -2080 208 212 219
-121.149 -826.744 -2092 209 212 219
-118.168 -836.557 -2117 201 204 212
-380.355 -824.919 -2054 207 210 221
-373.359 -819.082 -2040 210 213 224
-368.597 -818.068 -2038 209 213 224
-363.49 -816.253 -2034 214 219 232
-358.58 -814.844 -2031 220 224 235
-353.861 -813.839 -2029 224 227 238
-349.498 -813.638 -2029 225 228 239
-344.798 -812.639 -2027 225 228 239
-340.278 -812.043 -2026 226 229 240
-335.6 -811.049 -2024 227 230 241
-331.751 -812.061 -2027 226 229 240
-327.085 -811.073 -2025 227 230 241
-322.589 -810.488 -2024 229 232 243
-318.259 -810.306 -2024 229 232 243
-314.086 -810.527 -2025 229 232 243
-309.606 -809.95 -2024 230 233 244
-305.284 -809.776 -2024 230 232 243
-301.559 -811.204 -2028 229 230 242
-297.967 -813.034 -2033 230 233 244
-293.922 -813.666 -2035 229 233 243
-290.157 -815.1 -2039 230 235 244
-286.517 -816.935 -2044 233 236 245
-282.858 -818.772 -2049 230 233 242
-278.773 -819.413 -2051 231 234 243
-275.351 -822.052 -2058 232 235 246
-271.507 -823.495 -2062 225 228 238
-268.166 -826.538 -2070 218 221 228
-264.412 -828.384 -2075 207 210 216
-261.766 -833.824 -2089 152 154 160
-259.187 -839.663 -2104 97 97 101
-256.547 -845.503 -2119 100 98 104
-252.298 -846.158 -2121 145 142 149
-246.291 -840.832 -2108 188 187 194
-240.227 -835.111 -2094 201 200 208
-235.012 -832.185 -2087 214 213 221
-229.498 -828.067 -2077 217 220 227
-224.461 -825.547 -2071 221 224 231
-219.451 -823.031 -2065 221 223 230
-214.782 -821.713 -2062 222 225 232
-210.127 -820.398 -2059 224 227 234
-205.286 -818.289 -2054 226 229 236
-200.762 -817.378 -2052 228 231 238
-196.153 -816.072 -2049 230 233 240
-191.838 -815.963 -2049 231 234 241
-187.251 -814.662 -2046 232 235 242
-182.947 -814.558 -2046 234 237 244
-178.382 -813.262 -2043 237 239 246
-174.087 -813.163 -2043 238 241 250
-169.959 -813.862 -2045 239 242 251
-165.825 -814.564 -2047 234 237 246
-161.842 -816.064 -2051 231 236 245
-157.843 -817.566 -2055 232 236 245
-153.605 -817.876 -2056 231 234 243
-149.364 -818.189 -2057 231 233 240
-145.191 -818.902 -2059 232 234 241
-141.079 -820.014 -2062 227 230 237
-136.889 -820.732 -2064 222 225 232
-132.82 -822.247 -2068 219 222 229
-128.799 -824.161 -2073 212 218 224
-124.697 -825.681 -2077 207 212 218
-120.985 -829.984 -2088 206 209 216
-117.675 -837.47 -2107 191 194 203
-389.511 -839.645 -2078 196 199 206
-380.943 -830.536 -2056 202 205 216
-374.305 -825.472 -2044 207 210 221
-369.351 -824.047 -2041 208 211 222
-363.877 -821.415 -2035 214 219 232
-359.139 -820.4 -2033 219 222 234
-354.587 -819.792 -2032 224 227 238
-350.043 -819.187 -2031 225 228 239
-345.165 -817.778 -2028 227 230 241
-340.808 -817.581 -2028 227 230 241
-335.957 -816.179 -2025 227 230 241
-331.612 -815.988 -2025 228 231 242
-327.271 -815.799 -2025 226 229 240
-322.933 -815.614 -2025 225 228 239
-318.283 -814.625 -2023 229 232 243
-314.42 -815.652 -2026 231 234 245
-309.935 -815.071 -2025 228 231 242
-305.91 -815.701 -2027 226 228 239
-302.326 -817.539 -2032 227 228 240
-298.136 -817.77 -2033 229 232 243
-294.378 -819.21 -2037 229 232 243
-290.606 -820.652 -2041 228 233 242
-286.259 -820.488 -2041 229 232 241
-282.604 -822.335 -2046 229 232 241
-278.795 -823.783 -2050 229 232 241
-275.374 -826.438 -2057 231 234 245
-271.397 -827.488 -2060 226 229 239
-268.318 -831.351 -2070 218 221 228
-264.817 -834.011 -2077 208 210 216
-261.664 -837.876 -2087 153 154 160
-258.841 -842.947 -2100 67 67 71
-256.207 -848.822 -2115 66 64 70
-251.727 -848.677 -2115 117 114 121
-246.197 -844.925 -2106 183 182 189
-240.363 -839.973 -2094 200 199 206
-234.92 -836.228 -2085 214 213 221
-229.517 -832.487 -2076 216 219 226
-224.588 -830.354 -2071 220 223 230
-219.363 -827.02 -2063 221 223 230
-214.799 -826.096 -2061 222 225 232
-210.245 -825.174 -2059 224 227 234
-205.402 -823.053 -2054 226 229 236
-200.875 -822.136 -2052 227 230 237
-196.263 -820.822 -2049 229 232 239
-191.759 -819.911 -2047 231 234 241
-187.357 -819.403 -2046 232 235 242
-183.139 -819.699 -2047 231 234 241
-178.919 -819.997 -2048 231 233 240
-174.44 -819.097 -2046 234 237 245
-170.221 -819.4 -2047 236 239 248
-166 -819.705 -2048 232 235 244
-161.775 -820.013 -2049 231 236 244
-157.855 -821.923 -2054 231 236 245
-153.916 -823.836 -2059 230 233 242
-149.593 -823.75 -2059 229 232 239
-145.484 -824.867 -2062 228 230 237
-141.295 -825.586 -2064 225 228 235
-137.165 -826.708 -2067 219 222 229
-133.024 -827.832 -2070 216 218 225
-129.12 -830.557 -2077 210 216 221
-124.947 -831.685 -2080 207 212 218
-121.227 -836.014 -2091 202 205 212
-117.574 -841.144 -2104 186 189 198
-115.48 -858.268 -2147 97 99 107
-390.111 -845.333 -2080 192 194 200
-381.904 -836.983 -2060 199 202 213
-374.704 -830.671 -2045 206 209 220
-369.383 -828.425 -2040 209 212 223
-364.086 -826.183 -2035 212 217 230
-359.699 -825.974 -2035 217 220 232
-354.616 -824.145 -2031 221 224 235
-350.244 -823.942 -2031 224 227 238
-345.534 -822.93 -2029 225 228 239
-341.004 -822.326 -2028 226 229 240
-335.818 -820.104 -2023 228 231 242
-331.803 -820.723 -2025 230 233 244
-326.812 -818.913 -2021 230 233 244
-322.479 -818.726 -2021 229 232 243
-318.308 -818.946 -2022 231 234 245
-314.29 -819.575 -2024 230 233 244
-310.113 -819.801 -2025 226 229 240
-305.934 -820.028 -2026 226 228 239
-302.052 -821.068 -2029 228 230 241
-297.72 -820.896 -2029 229 231 242
-294.113 -822.749 -2034 228 231 242
-290.487 -824.604 -2039 225 230 239
-286.282 -824.843 -2040 225 229 238
-282.49 -826.297 -2044 228 231 240
-278.955 -828.561 -2050 229 232 241
-275.531 -831.232 -2057 230 233 243
-271.552 -832.287 -2060 228 231 240
-268.601 -836.577 -2071 218 221 228
-265.095 -839.251 -2078 207 210 216
-261.562 -841.928 -2085 160 162 168
-258.248 -845.413 -2094 68 68 72
-255.626 -851.322 -2109 69 67 73
-251.156 -851.177 -2109 101 98 105
-246.103 -849.017 -2104 176 175 182
-240.27 -844.036 -2092 196 195 203
-235.053 -841.077 -2085 209 208 216
-229.758 -837.717 -2077 215 218 225
-224.498 -834.361 -2069 220 222 229
-219.487 -831.815 -2063 223 225 232
-215.025 -831.288 -2062 224 227 234
-210.058 -828.749 -2056 224 227 234
-205.419 -827.421 -2053 225 228 235
-200.794 -826.096 -2050 226 229 236
-196.279 -825.178 -2048 226 229 236
-191.774 -824.261 -2046 228 231 238
-187.371 -823.75 -2045 232 235 242
-183.064 -823.645 -2045 230 233 240
-178.758 -823.542 -2045 228 230 237
-174.539 -823.844 -2046 228 231 238
-169.985 -822.539 -2043 230 233 240
-165.931 -823.651 -2046 231 234 241
-161.946 -825.168 -2050 232 236 243
-157.945 -826.687 -2054 232 235 243
-154.003 -828.611 -2059 230 233 241
-149.751 -828.927 -2060 229 232 239
-145.566 -829.648 -2062 226 228 235
-141.306 -829.969 -2063 224 226 233
-137.176 -831.097 -2066 221 223 230
-132.97 -831.824 -2068 216 218 225
-128.944 -833.761 -2073 209 215 221
-124.898 -835.7 -2078 206 210 217
-121.064 -839.25 -2087 199 202 209
-117.305 -843.605 -2098 177 180 187
-115.277 -861.231 -2142 84 86 93
-391.088 -851.856 -2084 178 180 186
-383.053 -843.866 -2065 198 201 212
-375.471 -836.699 -2048 204 207 218
-369.597 -833.215 -2040 208 211 222
-364.297 -830.959 -2035 211 216 228
-359.907 -830.749 -2035 216 220 232
-354.647 -828.501 -2030 217 220 231
-350.274 -828.296 -2030 220 223 234
-345.563 -827.278 -2028 223 226 237
-341.201 -827.079 -2028 225 228 239
-336.012 -824.844 -2023 227 230 241
-331.83 -825.059 -2024 228 231 242
-327.162 -824.053 -2022 228 231 242
-322.666 -823.457 -2021 229 232 243
-318.491 -823.679 -2022 230 233 244
-314.315 -823.903 -2023 229 232 243
-309.985 -823.723 -2023 229 232 243
-305.808 -823.952 -2024 228 231 242
-302.226 -825.812 -2029 228 231 242
-297.891 -825.639 -2029 228 231 242
-293.703 -825.875 -2030 226 230 240
-289.942 -827.334 -2034 224 228 237
-286.166 -828.794 -2038 226 229 238
-282.513 -830.664 -2043 227 231 240
-278.843 -832.534 -2048 230 233 242
-275.555 -835.626 -2056 232 235 244
-271.972 -837.907 -2062 230 233 241
-268.496 -840.596 -2069 218 221 228
-264.992 -843.286 -2076 206 209 215
-261.587 -846.384 -2084 167 169 175
-258.273 -849.89 -2093 72 72 76
-256.015 -857.05 -2111 69 68 73
-251.538 -856.904 -2111 87 84 91
-246.361 -854.326 -2105 168 167 174
-240.293 -848.504 -2091 193 192 200
-234.962 -845.122 -2083 210 209 217
-229.668 -841.743 -2075 216 219 226
-224.518 -838.774 -2068 221 224 231
-219.613 -836.619 -2063 225 227 234
-215.044 -835.683 -2061 226 229 236
-210.076 -833.128 -2055 226 229 236
-205.336 -831.387 -2051 226 229 236
-200.81 -830.46 -2049 225 228 235
-196.199 -829.131 -2046 225 228 235
-191.884 -829.02 -2046 227 230 237
-187.662 -829.316 -2047 227 230 237
-183.348 -829.21 -2047 226 229 236
-178.948 -828.701 -2046 227 229 236
-174.554 -828.195 -2045 228 231 238
-170.165 -827.692 -2044 230 233 240
-165.783 -827.191 -2043 231 234 241
-161.801 -828.717 -2047 230 233 240
-157.881 -830.649 -2052 230 233 240
-153.941 -832.584 -2057 229 232 239
-149.909 -834.116 -2061 229 231 238
-145.72 -834.841 -2063 225 227 234
-141.387 -834.759 -2063 222 224 231
-137.121 -835.084 -2064 220 222 229
-133.046 -836.625 -2068 216 218 225
-129.08 -838.978 -2074 207 213 219
-124.969 -840.523 -2078 205 210 216
-121.132 -844.093 -2087 201 204 211
-117.539 -849.687 -2101 163 166 173
-383.091 -848.314 -2064 198 201 212
-375.69 -841.517 -2048 205 208 219
-369.087 -836.369 -2036 208 211 222
-364.151 -834.923 -2033 207 212 223
-360.117 -835.532 -2035 213 217 228
-354.853 -833.271 -2030 217 220 230
-350.478 -833.065 -2030 219 222 233
-345.764 -832.041 -2028 222 225 235
-341.399 -831.841 -2028 222 225 236
-335.874 -828.772 -2021 224 227 238
-331.695 -828.988 -2022 226 229 239
-327.029 -827.976 -2020 226 229 240
-322.693 -827.787 -2020 228 231 242
-318.203 -827.191 -2019 228 231 242
-314.031 -827.416 -2020 230 233 244
-309.858 -827.645 -2021 231 234 245
-305.532 -827.465 -2021 229 232 243
-301.507 -828.108 -2023 226 229 240
-297.182 -827.934 -2023 226 229 240
-293.728 -830.218 -2029 226 229 240
-289.682 -830.867 -2031 225 228 237
-285.91 -832.336 -2035 226 230 239
-282.262 -834.216 -2040 228 233 242
-278.867 -836.916 -2047 230 233 242
-275.178 -838.799 -2052 230 233 242
-271.733 -841.502 -2059 228 231 240
-268.001 -843.389 -2064 221 224 231
-264.89 -847.32 -2074 209 211 217
-261.612 -850.844 -2083 172 174 180
-258.792 -856.003 -2096 72 72 76
-256.405 -862.797 -2113 69 67 73
-252.16 -863.466 -2115 74 71 78
-246.503 -859.24 -2105 156 155 162
-239.971 -851.752 -2087 190 189 197
-234.533 -847.942 -2078 208 207 215
-229.468 -845.36 -2072 216 219 226
-224.647 -843.597 -2068 221 223 230
-219.42 -840.206 -2060 223 225 232
-214.854 -839.265 -2058 225 228 235
-209.992 -837.103 -2053 226 229 236
-205.354 -835.761 -2050 226 229 236
-200.73 -834.421 -2047 226 229 236
-196.312 -833.899 -2046 226 229 236
-192.088 -834.194 -2047 226 229 236
-187.678 -833.677 -2046 227 229 236
-183.363 -833.57 -2046 227 229 236
-178.788 -832.244 -2043 228 230 237
-174.227 -830.921 -2040 230 232 239
-170.013 -831.228 -2041 230 233 240
-165.797 -831.539 -2042 232 234 241
-161.894 -833.481 -2047 229 232 239
-157.817 -834.61 -2050 227 230 237
-154.104 -837.777 -2058 229 231 238
-149.922 -838.504 -2060 229 231 238
-145.733 -839.233 -2062 225 227 234
-141.331 -838.744 -2061 221 223 230
-137.133 -839.478 -2063 219 221 228
-132.993 -840.621 -2066 216 218 225
-129.091 -843.393 -2073 207 213 219
-125.341 -847.389 -2083 203 208 214
-121.608 -851.793 -2094 201 204 211
-117.998 -857.418 -2108 144 147 154
-383.502 -853.593 -2065 194 197 208
-376.278 -847.17 -2050 205 207 218
-369.666 -841.992 -2038 207 210 221
-364.365 -839.711 -2033 205 209 220
-360.505 -840.737 -2036 210 214 224
-355.061 -838.049 -2030 215 218 227
-350.337 -837.017 -2028 219 222 231
-345.796 -836.399 -2027 221 224 233
-341.262 -835.785 -2026 221 224 233
-335.905 -833.112 -2020 222 225 234
-331.725 -833.328 -2021 223 226 236
-327.544 -833.547 -2022 224 227 238
-322.882 -832.533 -2020 225 228 239
-318.073 -831.108 -2017 227 230 241
-314.059 -831.747 -2019 229 232 243
-310.192 -832.801 -2022 226 229 240
-305.861 -832.62 -2022 223 226 237
-301.682 -832.854 -2023 225 228 239
-297.502 -833.091 -2024 226 229 240
-293.61 -834.153 -2027 226 229 240
-289.85 -835.628 -2031 224 227 236
-286.357 -837.929 -2037 223 227 236
-282.426 -838.997 -2040 226 231 240
-279.439 -842.945 -2050 229 232 241
-275.472 -844.017 -2053 229 232 241
-271.759 -845.912 -2058 227 230 239
-268.157 -848.221 -2064 220 223 230
-265.299 -852.997 -2076 210 212 218
-261.513 -854.897 -2081 177 179 185
-258.572 -859.675 -2093 74 74 78
-255.947 -865.686 -2108 67 65 71
-251.471 -865.538 -2108 67 64 71
-246.06 -862.109 -2100 144 143 150
-239.88 -855.811 -2085 186 185 193
-234.669 -852.8 -2078 205 204 212
-229.49 -849.792 -2071 213 216 223
-224.451 -847.199 -2065 218 221 228
-219.547 -845.019 -2060 222 224 231
-215.083 -844.482 -2059 223 226 233
-210.011 -841.488 -2052 224 227 234
-205.472 -840.547 -2050 223 226 233
-200.846 -839.199 -2047 226 229 236
-196.425 -838.674 -2046 225 228 235
-192.293 -839.381 -2048 225 228 235
-187.97 -839.271 -2048 227 229 236
-183.38 -837.934 -2045 229 231 238
-179.066 -837.829 -2045 233 235 242
-174.327 -835.679 -2040 234 237 244
-170.028 -835.579 -2040 232 235 242
-165.892 -836.301 -2042 232 234 241
-162.145 -839.072 -2049 230 232 239
-157.985 -839.798 -2051 228 231 238
-154.268 -842.984 -2059 228 230 237
-149.79 -842.077 -2057 225 227 235
-145.605 -842.81 -2059 222 224 231
-141.275 -842.727 -2059 221 223 230
-137.279 -844.693 -2064 220 222 229
-133.135 -845.843 -2067 215 217 224
-129.352 -849.449 -2076 208 214 220
-125.594 -853.467 -2086 204 208 215
-121.911 -858.305 -2098 200 203 210
-118.29 -863.963 -2112 139 143 150
-115.529 -876.577 -2143 65 68 75
-384.843 -860.964 -2071 197 199 210
-377.786 -854.919 -2057 206 208 219
-370.974 -849.295 -2044 208 211 222
-365.118 -845.754 -2036 208 211 222
-360.717 -845.539 -2036 211 214 224
-355.27 -842.836 -2030 214 217 226
-350.544 -841.797 -2028 218 221 230
-346 -841.176 -2027 220 223 232
-341.463 -840.558 -2026 220 223 232
-336.269 -838.284 -2021 221 224 233
-332.248 -838.916 -2023 223 226 235
-327.736 -838.307 -2022 223 226 237
-323.711 -838.944 -2024 222 225 236
-318.891 -837.512 -2021 224 227 238
-314.555 -837.325 -2021 228 231 242
-310.221 -837.141 -2021 227 230 241
-305.889 -836.96 -2021 226 229 240
-301.859 -837.609 -2023 224 227 238
-297.677 -837.847 -2024 224 227 238
-293.492 -838.087 -2025 225 228 239
-289.592 -839.157 -2028 224 227 236
-286.384 -842.298 -2036 223 227 236
-282.591 -843.785 -2040 223 228 237
-279.193 -846.516 -2047 226 230 239
-275.365 -848.007 -2051 229 232 241
-271.654 -849.914 -2056 226 229 238
-268.054 -852.235 -2062 220 222 228
-264.943 -856.211 -2072 211 213 219
-260.911 -857.297 -2075 178 180 186
-258.228 -862.929 -2089 75 75 79
-255.367 -868.148 -2102 68 67 72
-251.14 -868.826 -2104 63 60 67
-245.852 -865.79 -2097 125 124 130
-240.02 -860.694 -2085 183 182 189
-234.919 -858.078 -2079 203 202 210
-229.735 -855.053 -2072 210 212 219
-225.017 -853.682 -2069 217 219 226
-219.781 -850.252 -2061 221 223 230
-215.313 -849.712 -2060 223 226 233
-210.031 -845.876 -2051 227 230 237
-205.592 -845.342 -2050 227 230 237
-200.963 -843.987 -2047 223 226 233
-196.54 -843.458 -2046 224 227 234
-192.123 -842.933 -2045 226 228 235
-187.895 -843.234 -2046 228 230 237
-183.307 -841.89 -2043 230 232 239
-178.82 -840.96 -2041 234 236 243
-174.343 -840.033 -2039 235 238 245
-170.293 -841.168 -2042 232 235 242
-166.314 -842.718 -2046 229 231 238
-162.319 -844.269 -2050 227 229 236
-158.077 -844.588 -2051 227 229 236
-154.058 -846.144 -2055 227 229 236
-149.731 -846.056 -2055 224 226 234
-145.406 -845.97 -2055 221 223 232
-141.22 -846.71 -2057 222 224 231
-136.959 -847.04 -2058 220 222 229
-132.954 -849.02 -2063 215 217 224
-129.24 -853.059 -2073 208 214 220
-125.305 -855.865 -2080 203 208 214
-121.458 -859.497 -2089 202 205 212
-117.91 -865.598 -2104 138 144 150
-385.258 -866.282 -2072 189 190 201
-378.378 -860.62 -2059 202 204 215
-371.012 -853.71 -2043 206 209 220
-365.155 -850.148 -2035 209 212 223
-360.4 -849.097 -2033 212 215 225
-354.781 -845.961 -2026 213 216 225
-349.887 -844.499 -2023 216 219 228
-345.863 -845.127 -2025 218 221 230
-341.328 -844.505 -2024 218 221 230
-336.301 -842.636 -2020 221 224 233
-332.445 -843.688 -2023 223 226 235
-328.254 -843.909 -2024 221 224 235
-323.422 -842.465 -2021 223 226 237
-319.396 -843.108 -2023 226 229 240
-314.896 -842.504 -2022 231 234 245
-310.711 -842.735 -2023 230 233 244
-305.918 -841.303 -2020 225 228 239
-302.037 -842.372 -2023 224 227 238
-297.705 -842.195 -2023 223 226 237
-294.1 -844.101 -2028 225 228 239
-290.048 -844.76 -2030 225 228 237
-286.412 -846.671 -2035 224 228 237
-282.758 -848.583 -2040 223 228 237
-279.221 -850.912 -2046 223 228 237
-275.258 -851.996 -2049 227 231 240
-271.549 -853.913 -2054 226 229 238
-267.691 -855.417 -2058 219 221 227
-264.459 -859.001 -2067 211 213 219
-260.687 -860.923 -2072 179 181 187
-257.885 -866.172 -2085 74 74 78
-255.396 -872.667 -2101 68 67 72
-251.288 -873.764 -2104 64 61 68
-245.879 -870.295 -2096 106 105 112
-239.815 -864.34 -2082 182 181 189
-234.944 -862.539 -2078 202 201 209
-229.426 -858.253 -2068 212 214 221
-224.823 -857.289 -2066 219 221 228
-219.59 -853.839 -2058 223 225 232
-215.021 -852.881 -2056 221 224 231
-210.359 -851.512 -2053 223 226 233
-205.612 -849.731 -2049 226 229 236
-201.08 -848.782 -2047 225 228 235
-196.847 -849.08 -2048 226 229 236
-192.329 -848.137 -2046 227 229 236
-188.005 -848.025 -2046 230 232 239
-183.593 -847.501 -2045 234 236 243
-179.1 -846.566 -2043 234 236 243
-174.702 -846.048 -2042 231 234 241
-170.476 -846.361 -2043 226 229 236
-166.411 -847.505 -2046 225 227 234
-162.414 -849.065 -2050 226 228 235
-158.401 -850.628 -2054 228 230 237
-154.148 -850.951 -2055 227 229 236
-149.527 -849.205 -2051 224 226 234
-145.42 -850.361 -2054 222 223 233
-141.165 -850.691 -2055 221 223 230
-137.039 -851.852 -2058 217 218 225
-133.096 -854.256 -2064 213 212 220
-129.316 -857.904 -2073 206 212 218
-125.258 -859.899 -2078 201 206 213
-121.413 -863.551 -2087 195 198 205
-117.923 -870.101 -2103 121 127 133
-385.302 -870.772 -2071 176 178 188
-378.42 -865.078 -2058 203 204 216
-371.052 -858.129 -2042 206 209 220
-365.373 -854.967 -2035 207 210 221
-360.615 -853.909 -2033 206 209 220
-355.168 -851.175 -2027 212 215 224
-350.441 -850.124 -2025 214 217 226
-346.24 -850.336 -2026 217 220 229
-341.869 -850.13 -2026 218 221 230
-337.001 -848.669 -2023 220 223 232
-332.807 -848.888 -2024 220 223 233
-328.612 -849.11 -2025 220 223 234
-324.255 -848.915 -2025 219 222 233
-319.586 -847.884 -2023 218 221 232
-315.395 -848.114 -2024 221 224 235
-311.049 -847.928 -2024 224 227 238
-306.706 -847.743 -2024 224 227 238
-302.814 -848.818 -2027 223 226 237
-298.176 -847.802 -2025 221 224 235
-294.42 -849.3 -2029 222 225 236
-290.077 -849.126 -2029 223 226 235
-286.441 -851.047 -2034 222 226 235
-282.232 -851.296 -2035 222 227 236
-278.977 -854.476 -2043 223 228 237
-275.152 -855.984 -2047 224 228 237
-271.445 -857.912 -2052 224 227 236
-267.589 -859.425 -2056 220 222 228
-264.615 -863.864 -2067 210 212 218
-260.841 -865.798 -2072 181 183 189
-257.543 -869.405 -2081 75 75 79
-253.844 -871.76 -2087 68 67 72
-250.002 -873.699 -2092 66 63 70
-244.968 -871.464 -2087 91 90 97
-239.496 -867.563 -2078 179 178 186
-234.743 -866.17 -2075 203 202 210
-229.783 -863.945 -2070 211 213 220
-225.173 -862.976 -2068 217 219 226
-220.04 -859.923 -2061 221 223 230
-215.252 -858.126 -2057 219 222 229
-210.278 -855.497 -2051 219 222 229
-205.633 -854.123 -2048 220 223 230
-201.199 -853.586 -2047 224 227 234
-196.963 -853.885 -2048 226 228 235
-192.348 -852.52 -2045 224 226 233
-187.932 -851.99 -2044 222 224 231
-183.522 -851.464 -2043 223 225 232
-179.205 -851.357 -2043 222 224 231
-174.976 -851.669 -2044 220 222 229
-170.744 -851.984 -2045 220 223 230
-166.59 -852.717 -2047 224 226 233
-162.509 -853.87 -2050 226 228 235
-158.417 -855.025 -2053 227 229 236
-154.163 -855.349 -2054 228 230 237
-149.761 -854.843 -2053 225 227 235
-145.506 -855.173 -2054 222 224 232
-141.385 -856.337 -2057 218 220 227
-137.186 -857.088 -2059 215 215 223
-133.174 -859.089 -2064 212 211 219
-129.392 -862.758 -2073 204 209 217
-125.271 -864.347 -2077 199 204 211
-121.484 -868.436 -2087 189 192 199
-118.048 -875.439 -2104 103 109 115
-385.907 -876.535 -2073 165 167 177
-379.016 -870.808 -2060 202 203 215
-371.821 -864.242 -2045 204 207 218
-365.772 -860.216 -2036 206 209 220
-360.476 -857.885 -2031 206 209 220
-355.381 -855.98 -2027 211 214 223
-350.306 -854.079 -2023 213 216 225
-346.106 -854.292 -2024 215 218 227
-341.905 -854.507 -2025 218 221 230
-337.037 -853.037 -2022 219 223 232
-332.678 -852.836 -2022 219 222 231
-328.484 -853.059 -2023 219 222 233
-324.289 -853.284 -2024 218 221 232
-320.093 -853.512 -2025 218 221 232
-315.895 -853.743 -2026 218 221 232
-311.697 -853.976 -2027 217 220 231
-307.041 -852.948 -2025 216 219 230
-302.995 -853.608 -2027 219 222 233
-298.649 -853.427 -2027 219 222 233
-295.031 -855.355 -2032 218 221 232
-289.964 -853.075 -2027 220 223 232
-286.471 -855.428 -2033 220 224 233
-282.539 -856.52 -2036 220 225 234
-279.006 -858.875 -2042 222 227 236
-275.316 -860.813 -2047 222 226 235
-271.475 -862.331 -2051 225 228 237
-267.749 -864.272 -2056 221 223 229
-264.388 -867.476 -2064 208 210 216
-260.366 -868.58 -2067 182 184 190
-256.458 -870.106 -2071 72 72 76
-253.021 -873.315 -2079 64 63 68
-244.761 -875.119 -2084 82 81 88
-239.638 -872.455 -2078 176 175 182
-234.769 -870.634 -2074 203 202 210
-229.92 -868.817 -2070 211 212 219
-224.871 -866.163 -2064 217 219 226
-219.957 -863.933 -2059 220 222 229
-215.066 -861.706 -2054 218 221 228
-210.403 -860.321 -2051 220 223 230
-205.956 -859.777 -2050 222 225 232
-201.416 -858.818 -2048 223 226 233
-196.983 -858.28 -2047 224 227 234
-192.651 -858.164 -2047 223 225 232
-188.135 -857.212 -2045 222 224 231
-183.81 -857.102 -2045 222 224 231
-179.487 -856.994 -2045 221 223 230
-175.079 -856.47 -2044 219 222 229
-170.845 -856.786 -2045 220 223 230
-166.689 -857.524 -2047 224 225 233
-162.288 -857.008 -2046 223 224 232
-158.356 -859.006 -2051 223 225 232
-154.104 -859.333 -2052 223 225 232
-149.776 -859.243 -2052 220 222 229
-145.592 -859.992 -2054 218 220 228
-141.4 -860.745 -2056 215 217 224
-137.334 -862.337 -2060 213 214 222
-133.253 -863.931 -2064 212 212 220
-129.406 -867.202 -2072 205 210 218
-125.104 -867.545 -2073 201 206 213
-121.206 -870.82 -2081 190 193 199
-386.699 -882.741 -2076 158 160 168
-379.613 -876.556 -2062 198 199 210
-372.228 -869.527 -2046 203 206 217
-366.173 -865.479 -2037 206 209 220
-361.049 -863.559 -2033 206 209 220
-355.595 -860.794 -2027 208 212 225
-350.864 -859.731 -2025 209 214 223
-346.486 -859.52 -2025 212 217 224
-342.112 -859.311 -2025 214 218 227
-336.906 -856.984 -2020 214 219 228
-333.372 -858.903 -2025 216 220 229
-328.682 -857.855 -2023 218 221 232
-324.324 -857.657 -2023 217 220 232
-319.969 -857.463 -2023 217 220 233
-315.93 -858.119 -2025 218 221 230
-311.73 -858.353 -2026 218 221 230
-307.226 -857.743 -2025 218 221 228
-303.476 -859.253 -2029 219 222 231
-298.386 -856.954 -2024 219 222 231
-294.918 -859.315 -2030 219 222 231
-289.852 -857.023 -2025 220 223 232
-286.22 -858.966 -2030 221 224 234
-282.431 -860.487 -2034 220 224 234
-278.763 -862.433 -2039 219 224 233
-275.077 -864.381 -2044 221 225 234
-271.637 -867.177 -2051 223 226 234
-268.17 -869.974 -2058 219 222 228
-264.675 -872.773 -2065 207 209 215
-260.9 -874.728 -2070 179 181 187
-256.611 -874.995 -2071 78 78 82
-253.051 -877.799 -2078 66 65 70
-239.897 -877.778 -2079 169 168 176
-235.363 -877.214 -2078 200 201 208
-230.613 -875.808 -2075 209 211 218
-225.332 -872.295 -2067 215 217 224
-220.088 -868.785 -2059 218 220 227
-215.089 -866.124 -2053 219 221 228
-210.528 -865.153 -2051 219 221 228
-205.777 -863.341 -2047 219 222 229
-201.34 -862.797 -2046 221 223 230
-197.293 -863.943 -2049 222 224 231
-192.671 -862.562 -2046 221 223 230
-188.248 -862.026 -2045 219 221 228
-183.83 -861.494 -2044 219 221 228
-179.506 -861.385 -2044 219 221 228
-175.098 -860.858 -2043 218 221 227
-170.946 -861.597 -2045 220 223 229
-166.788 -862.339 -2047 223 223 231
-162.543 -862.662 -2048 220 221 228
-158.296 -862.987 -2049 219 221 228
-154.196 -864.158 -2052 219 221 227
-149.938 -864.488 -2053 218 220 227
-145.891 -866.084 -2057 216 218 227
-141.69 -866.84 -2059 213 216 223
-137.749 -869.283 -2065 210 213 220
-133.655 -870.886 -2069 209 212 218
-129.67 -873.333 -2075 205 211 217
-125.48 -874.519 -2078 201 206 212
-121.569 -877.812 -2086 186 188 195
-118.188 -885.315 -2104 89 91 97
-385.257 -883.839 -2067 148 149 156
-378.555 -878.475 -2055 197 198 208
-371.726 -872.69 -2042 202 205 216
-365.856 -869.047 -2034 205 208 219
-361.091 -867.97 -2032 207 210 221
-355.811 -865.616 -2027 206 211 224
-351.423 -865.401 -2027 208 214 223
-346.867 -864.761 -2026 211 217 223
-341.981 -863.271 -2023 211 216 224
-337.111 -861.785 -2020 212 217 225
-333.409 -863.287 -2024 214 219 228
-328.719 -862.233 -2022 218 221 231
-324.841 -863.313 -2025 219 222 233
-320.321 -862.691 -2024 218 221 233
-315.965 -862.498 -2024 219 222 231
-311.919 -863.16 -2026 219 222 231
-307.108 -861.694 -2023 218 221 229
-303.061 -862.361 -2025 218 221 230
-298.271 -860.9 -2022 219 222 231
-294.514 -862.424 -2026 218 221 230
-290.313 -862.672 -2027 217 220 229
-286.675 -864.625 -2032 217 220 230
-282.601 -865.304 -2034 219 222 233
-279.342 -868.537 -2042 218 222 231
-275.782 -870.921 -2048 220 224 232
-271.934 -872.456 -2052 219 222 229
-268.592 -875.693 -2060 217 220 226
-264.834 -877.658 -2065 207 209 215
-261.31 -880.473 -2072 180 182 188
-256.642 -879.467 -2070 83 83 87
-252.959 -881.862 -2076 65 65 70
-239.926 -882.266 -2078 157 156 164
-235.051 -880.424 -2074 198 200 207
-230.306 -879.01 -2071 207 209 216
-225.031 -875.478 -2063 210 212 219
-220.113 -873.222 -2058 216 218 225
-215.218 -870.97 -2053 219 221 228
-210.552 -869.569 -2050 219 221 228
-205.9 -868.171 -2047 219 222 229
-201.657 -868.472 -2048 220 222 229
-197.412 -868.777 -2049 220 222 229
-192.787 -867.387 -2046 218 220 227
-188.453 -867.273 -2046 217 219 226
-184.21 -867.584 -2047 217 219 226
-179.789 -867.051 -2046 218 220 227
-175.203 -865.673 -2043 217 220 227
-170.881 -865.569 -2043 218 221 228
-166.806 -866.739 -2046 222 221 229
-162.323 -865.793 -2044 221 222 229
-158.545 -868.661 -2051 219 221 228
-154.363 -869.415 -2053 218 220 226
-150.028 -869.323 -2053 216 219 226
-146.049 -871.352 -2058 213 216 225
-141.913 -872.535 -2061 210 213 220
-137.898 -874.568 -2066 208 211 217
-133.864 -876.603 -2071 206 209 215
-130.06 -880.333 -2080 203 209 215
-125.736 -880.68 -2081 199 204 210
-121.875 -884.414 -2090 175 177 184
-118.259 -890.266 -2104 73 75 80
-384.747 -887.054 -2063 137 138 145
-378.234 -882.09 -2052 193 194 204
-372.318 -878.421 -2044 199 202 213
-366.26 -874.327 -2035 205 208 219
-361.668 -873.674 -2034 208 211 222
-356.732 -872.165 -2031 209 213 226
-352.332 -871.948 -2031 209 213 223
-347.079 -869.587 -2026 211 215 222
-342.697 -869.376 -2026 211 215 222
-337.65 -867.451 -2022 212 217 224
-333.613 -868.104 -2024 214 218 226
-329.082 -867.473 -2023 217 220 229
-325.2 -868.559 -2026 219 222 231
-320.992 -868.79 -2027 218 221 232
-316.469 -868.167 -2026 217 220 229
-312.109 -867.975 -2026 217 220 228
-307.295 -866.5 -2023 218 221 229
-303.096 -866.742 -2024 219 222 231
-298.6 -866.131 -2023 218 221 230
-294.548 -866.806 -2025 217 220 229
-290.06 -866.2 -2024 216 219 228
-286.567 -868.592 -2030 217 220 229
-282.912 -870.558 -2035 219 222 232
-279.375 -872.953 -2041 218 221 230
-275.949 -875.777 -2048 218 221 229
-272.496 -878.604 -2055 217 220 227
-269.016 -881.432 -2062 214 217 223
-265.508 -884.261 -2069 202 205 211
-261.72 -886.237 -2074 176 178 184
-257.169 -885.652 -2073 83 84 88
-253.356 -887.634 -2078 64 63 68
-240.302 -888.038 -2080 137 136 144
-235.647 -887.04 -2078 195 197 203
-230.779 -885.191 -2074 206 208 214
-225.713 -882.492 -2068 210 212 219
-220.46 -878.943 -2060 215 217 224
-215.453 -876.251 -2054 217 219 226
-210.679 -874.416 -2050 217 219 226
-206.025 -873.01 -2047 216 219 226
-201.582 -872.46 -2046 217 220 227
-197.145 -871.913 -2045 218 220 227
-192.715 -871.369 -2044 216 218 225
-188.474 -871.68 -2045 215 217 224
-184.051 -871.141 -2044 215 217 224
-179.81 -871.457 -2045 216 218 225
-175.223 -870.071 -2042 216 219 226
-171.152 -871.245 -2045 216 219 226
-166.744 -870.717 -2044 219 219 227
-162.739 -872.321 -2048 218 219 227
-158.641 -873.502 -2051 218 220 227
-154.607 -875.111 -2055 217 219 225
-150.265 -875.018 -2055 215 217 223
-146.35 -877.484 -2061 213 215 223
-142.136 -878.248 -2063 208 211 218
-138.048 -879.866 -2067 204 207 214
-134.139 -882.764 -2074 204 207 213
-130.326 -886.515 -2083 201 207 213
-126.174 -888.139 -2087 198 203 210
-122.24 -891.469 -2095 169 171 178
-118.667 -897.779 -2110 68 70 74
-378.098 -886.131 -2050 189 190 200
-372.365 -882.874 -2043 197 200 211
-366.306 -878.757 -2034 206 209 220
-361.89 -878.532 -2034 208 211 222
-356.951 -877.015 -2031 209 212 225
-352.549 -876.796 -2031 210 213 224
-347.121 -873.991 -2025 211 214 221
-343.077 -874.641 -2027 213 216 223
-338.025 -872.706 -2023 213 216 223
-333.982 -873.361 -2025 213 216 223
-329.772 -873.588 -2026 214 217 226
-325.56 -873.818 -2027 215 218 227
-321.505 -874.481 -2029 216 219 230
-316.663 -872.992 -2026 216 219 226
-312.146 -872.368 -2025 214 217 224
-307.331 -870.885 -2022 213 216 223
-303.132 -871.129 -2023 215 218 227
-298.34 -869.652 -2020 215 218 227
-294.728 -871.623 -2025 215 218 227
-290.094 -870.583 -2023 215 218 227
-286.742 -873.418 -2030 215 218 227
-283.363 -876.255 -2037 217 220 229
-279.545 -877.803 -2041 219 222 231
-276.118 -880.643 -2048 218 221 229
-272.663 -883.485 -2055 217 220 227
-269.18 -886.328 -2062 213 216 222
-265.413 -888.314 -2067 201 204 210
-261.627 -890.301 -2072 174 176 182
-257.699 -891.861 -2076 83 84 88
-254.487 -896 -2086 63 63 67
-250.875 -898.852 -2093 63 62 69
-240.564 -893.4 -2081 113 112 119
-235.676 -891.537 -2077 189 191 197
-230.808 -889.678 -2073 203 205 212
-225.741 -886.964 -2067 209 211 218
-221.13 -885.969 -2065 214 216 223
-216.004 -882.833 -2058 214 217 224
-211.321 -881.416 -2055 214 217 224
-206.553 -879.573 -2051 214 217 224
-201.704 -877.305 -2046 215 217 224
-197.458 -877.612 -2047 216 218 225
-193.02 -877.064 -2046 215 217 224
-188.681 -876.948 -2046 215 217 224
-184.433 -877.263 -2047 215 217 224
-180.095 -877.152 -2047 216 218 225
-175.586 -876.187 -2045 216 219 226
-171.172 -875.653 -2044 214 217 224
-166.763 -875.122 -2043 214 216 223
-162.758 -876.735 -2047 214 216 223
-158.814 -878.779 -2052 215 217 224
-154.776 -880.397 -2056 215 217 223
-150.575 -881.16 -2058 213 215 222
-146.368 -881.927 -2060 212 214 221
-142.153 -882.695 -2062 207 210 217
-138.332 -886.035 -2070 202 205 212
-134.479 -889.376 -2078 201 204 210
-130.655 -893.147 -2087 200 206 212
-126.614 -895.637 -2093 199 204 210
-122.606 -898.556 -2100 164 166 173
-118.908 -904.045 -2113 70 72 76
-377.963 -890.172 -2048 186 187 197
-372.96 -888.635 -2045 197 200 209
-366.713 -884.06 -2035 206 209 219
-362.114 -883.399 -2034 208 211 222
-357.524 -882.742 -2033 208 211 222
-353.114 -882.522 -2033 209 212 222
-347.679 -879.7 -2027 209 212 219
-343.289 -879.486 -2027 210 213 220
-338.233 -877.539 -2023 211 214 221
-334.354 -878.632 -2026 211 214 221
-329.487 -877.126 -2023 211 214 223
-326.082 -879.524 -2029 212 215 225
-321.704 -879.324 -2029 212 215 226
-317.171 -878.693 -2028 212 215 222
-312.338 -877.198 -2025 211 214 221
-307.672 -876.141 -2023 210 213 220
-303.318 -875.952 -2023 210 213 220
-298.819 -875.333 -2022 210 213 221
-294.618 -875.583 -2023 212 215 222
-290.846 -877.133 -2027 212 215 224
-286.636 -877.388 -2028 213 216 225
-283.119 -879.808 -2034 216 219 228
-279.854 -883.094 -2042 215 218 227
-276.422 -885.95 -2049 215 218 227
-272.83 -888.375 -2055 213 216 223
-269.476 -891.666 -2063 209 211 217
-265.705 -893.662 -2068 202 204 210
-261.914 -895.66 -2073 168 170 176
-258.229 -898.093 -2079 80 81 84
-254.887 -901.822 -2088 61 60 63
-251.269 -904.69 -2095 60 59 66
-246.327 -902.81 -2091 62 61 68
-241.405 -900.933 -2087 96 95 102
-236.502 -899.06 -2083 186 186 194
-231.618 -897.19 -2079 201 202 209
-226.426 -894.029 -2072 206 208 215
-221.372 -891.302 -2066 210 212 219
-216.451 -889.011 -2061 214 217 224
-211.554 -886.724 -2056 214 217 224
-206.477 -883.577 -2049 213 216 223
-201.828 -882.158 -2046 215 217 224
-197.289 -881.174 -2044 215 217 224
-192.949 -881.054 -2044 215 217 224
-188.611 -880.937 -2044 216 218 225
-184.365 -881.254 -2045 216 218 225
-180.293 -882.435 -2048 216 218 225
-175.779 -881.464 -2046 215 217 224
-171.444 -881.358 -2046 212 215 221
-167.273 -882.116 -2048 211 213 219
-162.936 -882.015 -2048 213 215 221
-158.833 -883.209 -2051 213 215 221
-154.87 -885.266 -2056 213 215 221
-150.813 -886.895 -2060 212 214 220
-146.528 -887.234 -2061 211 213 220
-142.515 -889.298 -2066 208 211 218
-138.55 -891.795 -2072 204 207 214
-134.625 -894.724 -2079 202 205 211
-130.798 -898.516 -2088 198 204 210
-126.751 -901.019 -2094 198 203 209
-122.798 -904.385 -2102 159 161 167
-118.868 -908.184 -2111 72 74 78
-377.275 -892.901 -2043 182 184 192
-372.098 -890.919 -2039 195 197 206
-366.4 -887.63 -2032 205 208 217
-362.34 -888.276 -2034 208 211 221
-357.746 -887.614 -2033 210 213 224
-353.508 -887.829 -2034 207 210 220
-347.724 -884.118 -2026 206 209 216
-343.502 -884.339 -2027 209 212 219
-338.611 -882.818 -2024 211 214 221
-334.561 -883.48 -2026 212 215 222
-330.017 -882.837 -2025 212 215 224
-325.963 -883.505 -2027 211 214 223
-321.744 -883.739 -2028 210 213 224
-317.212 -883.105 -2027 209 212 219
-312.532 -882.038 -2025 208 211 217
-308.015 -881.409 -2024 208 211 218
-303.506 -880.784 -2023 207 210 217
-299.3 -881.032 -2024 208 211 218
-295.529 -882.588 -2028 210 213 220
-291.457 -883.277 -2030 211 214 223
-286.813 -882.227 -2028 212 215 224
-283.434 -885.095 -2035 214 217 226
-279.89 -887.53 -2041 212 215 223
-276.458 -890.401 -2048 215 218 225
-272.998 -893.274 -2055 211 214 221
-269.512 -896.149 -2062 206 208 214
-265.74 -898.156 -2067 198 200 206
-261.57 -898.861 -2069 161 163 168
-257.518 -900.004 -2072 77 77 80
-253.945 -902.886 -2079 61 60 62
-249.263 -901.862 -2077 59 58 64
-245.065 -902.578 -2079 59 58 65
-241.091 -904.164 -2083 80 79 86
-236.307 -902.714 -2080 179 178 185
-231.538 -901.268 -2077 197 198 205
-226.565 -898.957 -2072 202 204 211
-221.723 -897.083 -2068 209 209 217
-216.794 -894.779 -2063 212 213 221
-211.787 -892.045 -2057 213 216 223
-207.008 -890.181 -2053 212 215 222
-202.149 -887.887 -2048 214 216 223
-197.7 -887.33 -2047 216 218 225
-193.162 -886.343 -2045 215 217 224
-189.004 -887.092 -2047 214 216 223
-184.749 -887.41 -2048 215 217 224
-180.491 -887.731 -2049 214 216 223
-176.231 -888.055 -2050 212 214 221
-171.633 -886.648 -2047 210 212 218
-167.457 -887.41 -2049 209 211 217
-162.957 -886.442 -2047 211 213 219
-159.008 -888.508 -2052 214 216 222
-154.965 -890.144 -2056 215 217 223
-150.759 -890.915 -2058 214 216 222
-146.618 -892.123 -2061 212 214 221
-142.603 -894.198 -2066 207 210 217
-138.434 -895.41 -2069 204 207 213
-134.384 -897.49 -2074 199 202 208
-130.501 -900.871 -2082 197 200 207
-126.344 -902.523 -2086 197 200 206
-122.405 -905.907 -2094 154 156 162
-118.659 -911.024 -2106 74 76 80
-378.436 -900.01 -2048 171 173 180
-372.514 -896.258 -2040 194 196 205
-366.991 -893.39 -2034 203 205 214
-362.567 -893.161 -2034 206 209 218
-358.146 -892.934 -2034 210 213 223
-353.555 -892.272 -2033 206 209 219
-348.285 -889.858 -2028 204 207 214
-343.717 -889.202 -2027 206 209 216
-338.823 -887.672 -2024 208 211 218
-334.11 -886.584 -2022 210 213 220
-329.897 -886.814 -2023 210 213 221
-326.166 -888.362 -2027 209 212 221
-321.787 -888.159 -2027 209 212 222
-317.566 -888.397 -2028 207 210 217
-312.881 -887.324 -2026 206 209 215
-308.816 -888.005 -2028 207 210 216
-304.146 -886.938 -2026 208 211 218
-300.522 -888.938 -2031 209 212 219
-296.005 -888.314 -2030 209 212 219
-291.926 -889.006 -2032 208 211 219
-287.699 -889.262 -2033 209 212 221
-283.889 -890.834 -2037 211 214 222
-279.652 -891.095 -2038 211 214 221
-276.765 -895.731 -2049 212 215 222
-272.902 -897.308 -2053 210 213 219
-269.417 -900.198 -2060 206 208 214
-265.519 -901.779 -2064 196 198 204
-261.606 -903.363 -2068 163 165 169
-257.554 -904.511 -2071 80 79 83
-253.613 -906.099 -2075 63 60 64
-249.058 -905.506 -2074 62 62 66
-244.745 -905.789 -2075 62 62 67
-240.429 -906.075 -2076 72 71 77
-236.567 -908.109 -2081 166 165 172
-232.016 -907.527 -2080 193 193 200
-227.034 -905.203 -2075 200 201 209
-222.182 -903.319 -2071 209 208 216
-217.034 -900.13 -2064 211 212 219
-212.021 -897.38 -2058 210 213 220
-207.237 -895.506 -2054 210 213 220
-202.274 -892.763 -2048 212 215 222
-197.822 -892.203 -2047 215 217 224
-193.282 -891.21 -2045 214 216 223
-188.844 -890.656 -2044 212 214 221
-184.953 -892.719 -2049 212 214 221
-180.603 -892.606 -2049 213 215 222
-176.426 -893.366 -2051 211 213 220
-171.991 -892.823 -2050 210 212 219
-167.806 -893.589 -2052 209 211 217
-163.296 -892.615 -2050 209 211 217
-159.184 -893.822 -2053 210 213 219
-154.91 -894.16 -2054 214 216 222
-150.705 -894.936 -2056 214 216 223
-146.637 -896.585 -2060 212 214 221
-142.553 -898.237 -2064 208 210 217
-138.453 -899.89 -2068 205 207 214
-134.402 -901.982 -2073 200 202 209
-130.268 -903.64 -2077 196 199 205
-126.301 -906.606 -2084 196 199 205
-122.481 -910.88 -2094 149 151 157
-377.75 -902.733 -2043 157 159 166
-372.383 -900.286 -2038 196 197 206
-367.042 -897.844 -2033 204 206 215
-362.795 -898.055 -2034 204 207 216
-358.548 -898.269 -2035 206 209 219
-353.952 -897.602 -2034 205 208 218
-348.676 -895.174 -2029 204 207 213
-343.764 -893.632 -2026 206 209 216
-338.868 -892.094 -2023 208 211 218
-334.485 -891.882 -2023 209 212 219
-329.941 -891.231 -2022 210 213 220
-325.888 -891.906 -2024 210 213 220
-321.83 -892.584 -2026 209 212 220
-317.452 -892.382 -2026 208 211 217
-313.077 -892.184 -2026 207 210 216
-308.858 -892.428 -2027 207 210 217
-304.937 -893.556 -2030 209 212 219
-300.71 -893.806 -2031 211 214 221
-296.336 -893.619 -2031 211 214 221
-292.396 -894.753 -2034 209 212 219
-288.021 -894.571 -2034 207 210 217
-283.927 -895.271 -2036 208 211 218
-280.102 -896.853 -2040 209 212 219
-276.532 -899.316 -2046 210 213 220
-272.674 -900.902 -2050 209 212 218
-269.847 -906.005 -2062 205 207 213
-265.556 -906.276 -2063 195 197 203
-261.643 -907.868 -2067 157 159 163
-257.092 -907.267 -2066 76 75 80
-253.16 -908.864 -2070 65 62 67
-247.771 -905.194 -2062 61 61 65
-244.661 -909.869 -2073 60 60 64
-241.275 -913.667 -2082 63 63 67
-237.055 -914.395 -2084 154 153 160
-232.272 -912.932 -2081 191 190 198
-227.394 -911.034 -2077 198 197 205
-222.428 -908.701 -2072 204 203 211
-217.485 -906.37 -2067 206 207 215
-212.256 -902.729 -2059 208 211 218
-207.669 -901.721 -2057 210 213 220
-202.795 -899.401 -2052 212 215 222
-198.235 -898.399 -2050 213 215 222
-193.78 -897.839 -2049 214 216 223
-189.516 -898.158 -2050 212 214 221
-185.249 -898.479 -2051 212 214 221
-180.98 -898.803 -2052 214 216 223
-176.708 -899.129 -2053 211 213 220
-172.265 -898.583 -2052 208 210 217
-167.91 -898.477 -2052 206 208 215
-163.557 -898.374 -2052 206 208 214
-159.283 -898.711 -2053 205 208 214
-155.232 -900.364 -2057 209 211 217
-151.019 -901.144 -2059 211 213 219
-146.87 -902.365 -2062 211 213 219
-142.572 -902.712 -2063 209 211 218
-138.605 -905.25 -2069 205 207 214
-134.42 -906.478 -2072 200 202 209
-130.286 -908.145 -2076 196 199 205
-126.319 -911.128 -2083 194 197 203
-122.674 -916.736 -2096 142 144 150
-378.915 -909.884 -2048 138 140 147
-373.351 -906.98 -2042 195 197 206
-368.178 -904.967 -2038 205 206 216
-363.382 -903.847 -2036 203 206 215
-358.775 -903.173 -2035 203 206 216
-354.176 -902.503 -2034 203 206 217
-349.068 -900.505 -2030 204 207 213
-343.981 -898.511 -2026 206 209 215
-338.915 -896.52 -2022 208 211 218
-334.531 -896.307 -2022 209 212 219
-329.66 -894.766 -2019 211 214 221
-325.772 -895.888 -2022 212 215 222
-321.715 -896.569 -2024 209 212 219
-317.652 -897.252 -2026 207 211 216
-312.965 -896.167 -2024 208 212 215
-309.357 -898.184 -2029 209 212 218
-305.129 -898.432 -2030 211 214 220
-301.048 -899.126 -2032 213 216 222
-297.107 -900.264 -2035 212 215 222
-293.299 -901.847 -2039 209 212 219
-288.485 -900.336 -2036 206 209 216
-284.803 -902.366 -2041 208 211 218
-280.828 -903.514 -2044 210 213 220
-277.518 -906.874 -2052 209 212 219
-273.111 -906.7 -2052 205 208 214
-270.017 -910.947 -2062 200 203 209
-265.723 -911.22 -2063 193 195 201
-261.934 -913.262 -2068 141 143 147
-256.631 -910.008 -2061 66 66 70
-252.462 -910.73 -2063 65 62 67
-241.426 -918.65 -2082 61 61 65
-237.659 -921.146 -2088 140 139 146
-232.529 -918.351 -2082 188 187 194
-227.755 -916.884 -2079 194 193 201
-222.459 -913.214 -2071 198 197 205
-217.41 -910.431 -2065 202 202 210
-212.389 -907.65 -2059 206 209 216
-207.697 -906.197 -2056 209 211 218
-202.922 -904.305 -2052 211 213 220
-198.166 -902.416 -2048 212 214 221
-193.807 -902.293 -2048 209 211 218
-189.357 -901.732 -2047 209 211 218
-185.003 -901.615 -2047 209 211 218
-180.828 -902.381 -2049 210 212 219
-176.646 -903.15 -2051 210 212 219
-172.373 -903.481 -2052 208 210 217
-168.179 -904.255 -2054 207 209 215
-163.898 -904.591 -2055 208 210 215
-159.46 -904.05 -2054 206 210 213
-155.102 -903.951 -2054 208 210 216
-150.966 -905.176 -2057 210 212 218
-146.748 -905.963 -2059 212 214 220
-142.453 -906.312 -2060 211 213 220
-138.558 -909.304 -2067 205 207 214
-134.504 -911.418 -2072 199 201 208
-130.179 -911.775 -2073 195 198 204
-126.033 -913.454 -2077 192 195 200
-379.342 -915.282 -2049 119 121 128
-373.772 -912.361 -2043 192 194 201
-369.136 -911.677 -2042 204 206 213
-364.507 -910.996 -2041 201 204 213
-360.062 -910.764 -2041 198 201 212
-354.924 -908.751 -2037 199 202 213
-349.979 -907.188 -2034 201 204 210
-344.54 -904.29 -2028 203 206 213
-339.634 -902.734 -2025 207 210 217
-334.413 -900.291 -2020 209 212 219
-330.196 -900.524 -2021 211 214 221
-325.979 -900.761 -2022 212 215 222
-321.919 -901.445 -2024 208 211 219
-317.697 -901.686 -2025 204 208 213
-313.009 -900.595 -2023 206 210 213
-308.944 -901.288 -2025 209 212 218
-305.173 -902.872 -2029 210 213 219
-300.942 -903.124 -2030 211 214 220
-297.003 -904.269 -2033 210 213 220
-293.341 -906.305 -2038 208 211 218
-288.81 -905.675 -2037 206 209 216
-285.123 -907.716 -2042 207 210 217
-281.005 -908.425 -2044 207 210 217
-277.693 -911.803 -2052 207 210 217
-273.817 -913.405 -2056 202 205 211
-270.45 -916.786 -2064 198 200 206
-266.278 -917.505 -2066 188 190 196
-262.353 -919.113 -2070 122 124 128
-256.295 -913.177 -2057 63 63 67
-239.49 -915.656 -2064 63 63 67
-237.012 -923.046 -2081 125 124 131
-232.117 -921.124 -2077 182 181 188
-227.899 -921.866 -2079 190 189 197
-222.6 -918.176 -2071 195 194 202
-217.547 -915.377 -2065 199 200 207
-212.626 -913.025 -2060 204 207 214
-207.929 -911.563 -2057 208 210 217
-203.149 -909.661 -2053 210 212 219
-198.678 -909.09 -2052 211 213 220
-194.213 -908.524 -2051 209 211 218
-189.661 -907.517 -2049 208 210 217
-185.391 -907.841 -2050 210 212 219
-180.942 -907.283 -2049 210 212 219
-176.757 -908.056 -2051 210 212 218
-172.565 -908.831 -2053 209 211 217
-168.285 -909.166 -2054 207 209 215
-164.081 -909.947 -2056 206 208 213
-159.871 -910.73 -2058 205 209 212
-155.502 -910.631 -2058 206 209 214
-151.135 -910.534 -2058 208 210 216
-146.983 -911.767 -2061 211 213 219
-142.681 -912.119 -2062 211 213 220
-138.578 -913.8 -2066 206 208 215
-134.588 -916.367 -2072 199 201 208
-130.449 -918.053 -2076 194 197 203
-126.294 -919.741 -2080 193 195 201
-380.327 -922.042 -2053 96 98 104
-375.294 -920.451 -2050 183 185 192
-370.458 -919.313 -2048 203 205 212
-365.634 -918.179 -2046 200 202 211
-360.823 -917.048 -2044 200 202 212
-355.675 -915.023 -2040 201 203 214
-350.547 -913.002 -2036 202 204 211
-345.101 -910.088 -2030 203 206 213
-339.851 -907.627 -2025 206 209 216
-334.958 -906.066 -2022 210 213 220
-330.408 -905.405 -2021 211 214 221
-326.188 -905.642 -2022 211 215 222
-322.125 -906.33 -2024 209 212 220
-318.057 -907.02 -2026 202 207 212
-313.674 -906.818 -2026 203 208 213
-309.751 -907.961 -2029 207 210 216
-305.217 -907.317 -2028 209 212 219
-301.283 -908.465 -2031 212 215 222
-297.485 -910.062 -2035 212 215 222
-293.672 -911.662 -2039 209 212 219
-289.419 -911.923 -2040 207 210 217
-285.724 -913.974 -2045 207 210 217
-281.459 -914.24 -2046 206 209 216
-278.141 -917.636 -2054 206 209 215
-274.258 -919.246 -2058 201 204 210
-270.753 -922.199 -2065 192 195 201
-266.705 -923.367 -2068 185 187 193
-263.154 -926.323 -2075 97 98 101
-256.582 -918.569 -2058 61 60 64
-237.504 -929.382 -2084 109 108 115
-232.041 -925.22 -2075 178 177 184
-227.934 -926.411 -2078 187 186 194
-222.848 -923.593 -2072 191 191 199
-217.685 -920.333 -2065 198 199 207
-212.657 -917.522 -2059 205 208 215
-208.162 -916.943 -2058 208 210 217
-203.475 -915.476 -2055 210 212 219
-198.707 -913.566 -2051 211 213 220
-194.146 -912.551 -2049 210 212 219
-189.688 -911.984 -2048 210 212 219
-185.237 -911.419 -2047 212 214 221
-180.879 -911.303 -2047 212 214 221
-176.782 -912.525 -2050 210 212 219
-172.674 -913.75 -2053 208 210 216
