ply
format ascii 1.0
comment Created by Open3D
element vertex 1438
property double x
property double y
property double z
property uchar red
property uchar green
property uchar blue
end_header
320.711 223.427 -2246 175 139 105
324.985 223.272 -2244 173 136 104
329.401 223.216 -2243 172 134 106
333.964 223.261 -2243 170 134 106
338.681 223.406 -2244 169 133 105
343.405 223.552 -2245 170 133 106
348.135 223.698 -2246 170 134 107
352.873 223.845 -2247 169 134 105
357.777 224.093 -2249 168 133 102
362.37 224.141 -2249 167 133 103
367.129 224.29 -2250 168 135 106
371.564 224.241 -2249 164 134 104
376.501 224.491 -2251 163 133 105
381.279 224.642 -2252 163 132 106
386.408 224.994 -2255 163 133 109
391.378 225.246 -2257 162 131 105
396.536 225.599 -2260 159 128 102
401.354 225.753 -2261 154 125 100
406.538 226.108 -2264 153 124 99
411.739 226.463 -2267 152 124 99
417.139 226.919 -2271 147 121 103
421.816 226.976 -2271 145 119 101
426.309 226.934 -2270 141 115 97
431.371 227.193 -2272 138 112 95
518.857 227.428 -2262 108 90 77
522.909 227.199 -2259 114 93 75
527.187 227.07 -2257 132 109 87
530.989 226.74 -2253 172 141 111
534.066 226.11 -2246 200 171 146
538.557 226.083 -2245 210 180 154
542.081 225.654 -2240 212 183 156
546.321 225.528 -2238 218 185 154
551.295 225.705 -2239 219 186 155
556.528 225.983 -2241 220 187 157
561.022 225.96 -2240 219 187 159
566.274 226.24 -2242 218 186 158
570.266 226.016 -2239 217 185 156
573.481 225.49 -2233 221 186 155
579.005 225.873 -2236 219 187 159
584.025 226.056 -2237 220 189 162
-545.85 214.592 -2171 245 81 97
-540.005 214.025 -2166 247 75 93
-533.445 213.161 -2158 239 65 83
-528.885 213.089 -2158 242 64 83
-525.057 213.314 -2161 240 62 81
-521.222 213.539 -2164 239 61 80
-516.662 213.469 -2164 238 60 79
-512.817 213.695 -2167 239 60 80
-508.494 213.724 -2168 240 60 80
-503.94 213.656 -2168 240 58 78
-499.389 213.588 -2168 240 58 78
-494.614 213.422 -2167 238 58 77
-489.396 213.061 -2164 237 57 77
-483.747 212.503 -2159 237 57 77
-479.232 212.438 -2159 238 58 78
-474.501 212.275 -2158 240 60 79
-469.997 212.212 -2158 243 61 79
-465.928 212.345 -2160 243 61 81
-461 212.086 -2158 247 65 86
-457.142 212.319 -2161 250 68 88
-452.648 212.258 -2161 249 68 88
-447.534 211.903 -2158 246 66 87
-443.259 211.942 -2159 250 68 89
-438.576 211.784 -2158 250 68 90
-434.304 211.824 -2159 250 70 93
-429.832 211.766 -2159 250 70 93
-425.561 211.807 -2160 249 69 92
-420.509 211.456 -2157 247 67 88
-416.246 211.498 -2158 245 64 84
-410.645 210.855 -2152 249 66 84
-405.828 210.604 -2150 247 67 87
-400.089 209.865 -2143 246 66 86
-395.675 209.812 -2143 248 68 89
-390.716 209.466 -2140 246 67 87
-385.954 209.218 -2138 242 64 84
-381.56 209.167 -2138 238 59 81
-376.64 208.823 -2135 242 64 86
-371.038 208.089 -2128 251 78 100
-366.157 207.747 -2125 255 92 113
-361.121 207.307 -2121 255 102 123
-355.936 206.771 -2116 255 107 128
-351.606 206.724 -2116 255 110 131
-346.622 206.287 -2112 255 107 128
-342.467 206.339 -2113 255 98 120
-338.152 206.294 -2113 253 87 109
-333.365 205.956 -2110 248 76 97
-328.437 205.522 -2106 248 74 96
-324.144 205.479 -2106 254 80 102
-318.639 204.656 -2098 255 92 113
-313.918 204.321 -2095 255 106 127
-309.212 203.987 -2092 255 116 135
-305.395 204.239 -2095 255 118 137
-301.137 204.199 -2095 255 114 133
-297.024 204.257 -2096 255 112 132
-292.909 204.316 -2097 255 112 132
-288.517 204.18 -2096 255 113 133
-283.86 203.85 -2093 255 113 134
-279.218 203.52 -2090 255 113 136
-274.985 203.484 -2090 255 111 131
-270.495 203.253 -2088 255 109 130
-265.888 202.926 -2085 255 107 127
-261.169 202.502 -2081 255 104 123
-257.334 202.76 -2084 255 101 119
-252.395 202.142 -2078 255 96 115
-248.438 202.304 -2080 255 95 114
-244.123 202.174 -2079 255 94 112
-239.814 202.045 -2078 255 92 112
-235.624 202.014 -2078 255 91 112
-231.324 201.886 -2077 255 96 117
-227.359 202.05 -2079 255 98 120
-223.602 202.409 -2083 255 101 122
-219.62 202.575 -2085 255 103 124
-215.632 202.74 -2087 255 106 127
-211.537 202.809 -2088 255 111 131
-207.34 202.782 -2088 255 113 135
-203.339 202.949 -2090 255 114 137
-198.855 202.632 -2087 255 112 133
-194.851 202.8 -2089 255 111 131
-190.476 202.581 -2087 255 111 130
-186.378 202.653 -2088 255 109 129
-182.191 202.629 -2088 255 106 127
-178.175 202.799 -2090 255 103 124
-173.82 202.582 -2088 255 96 118
-169.555 202.463 -2087 255 92 115
-165.296 202.344 -2086 255 89 112
-161.197 202.419 -2087 255 86 109
-157.245 202.69 -2090 255 88 110
-153.21 202.863 -2092 255 91 113
-149.096 202.94 -2093 255 93 116
-144.841 202.824 -2092 255 96 118
-140.726 202.903 -2093 255 99 121
-136.413 202.691 -2091 255 108 128
-132.298 202.77 -2092 254 114 135
-128.119 202.753 -2092 254 122 144
-124.177 203.124 -2096 248 156 176
-120.05 203.205 -2097 255 178 198
-115.864 203.19 -2097 246 159 183
-111.732 203.272 -2098 230 131 151
-107.648 203.451 -2100 221 122 137
-103.508 203.534 -2101 227 138 149
-99.4121 203.715 -2103 241 167 178
-95.1731 203.605 -2102 241 167 181
-91.1553 203.981 -2106 220 151 168
-87.081 204.26 -2109 235 176 195
-82.7989 204.055 -2107 232 191 194
-78.7121 204.335 -2110 248 211 214
-74.6139 204.615 -2113 251 221 232
-70.4709 204.799 -2115 227 161 173
-66.3833 205.178 -2119 181 89 102
-62.3389 205.751 -2125 241 70 85
-58.2165 206.13 -2129 255 91 109
-53.9265 205.929 -2127 255 98 122
-49.785 206.309 -2131 255 97 118
-45.5213 206.207 -2130 255 101 120
-41.3587 206.588 -2134 255 92 112
-37.2152 207.164 -2140 252 82 102
-33.0328 207.643 -2145 255 76 96
-28.7906 207.833 -2147 255 74 95
-24.5863 208.41 -2153 255 73 95
-20.2923 208.31 -2152 255 75 96
-16.0768 209.179 -2161 253 73 94
-11.7875 209.371 -2163 252 74 94
-7.51122 210.144 -2171 252 74 93
-3.19404 210.337 -2173 249 71 90
1.13134 210.627 -2176 245 65 85
5.46364 210.725 -2177 249 69 89
9.80923 211.016 -2180 255 80 100
14.1666 211.308 -2183 255 84 104
18.5105 211.31 -2183 254 77 97
22.9282 211.99 -2190 250 68 88
27.2615 211.8 -2188 245 62 82
31.6304 211.901 -2189 240 56 77
36.0202 212.099 -2191 243 59 80
40.3628 212.007 -2190 252 69 90
44.7427 212.109 -2191 255 75 97
49.1492 212.309 -2193 255 75 97
53.5396 212.413 -2194 255 75 97
57.9611 212.613 -2196 255 76 98
62.4475 213.009 -2200 255 72 94
66.8595 213.114 -2201 252 64 87
71.3081 213.317 -2203 246 58 81
75.6968 213.326 -2203 244 55 78
80.1587 213.53 -2205 244 54 77
84.5524 213.541 -2205 241 53 76
88.9873 213.649 -2206 244 56 79
93.3422 213.564 -2205 248 62 84
97.8266 213.77 -2207 251 65 87
102.135 213.59 -2205 251 65 87
106.629 213.797 -2207 249 65 87
111.031 213.811 -2207 250 65 87
115.748 214.407 -2213 253 68 90
120.328 214.713 -2216 253 73 93
125.257 215.601 -2225 247 70 89
130.166 216.393 -2233 227 74 84
135.168 217.283 -2242 180 88 83
139.77 217.495 -2244 148 99 82
144.447 217.804 -2247 149 103 86
148.738 217.533 -2244 150 106 88
153.156 217.455 -2243 152 111 91
157.289 216.991 -2238 151 114 89
161.621 216.818 -2236 151 114 89
166.317 217.13 -2239 154 116 90
171.18 217.637 -2244 154 117 91
175.985 218.048 -2248 155 119 93
180.567 218.168 -2249 159 122 96
185.319 218.483 -2252 162 125 100
189.158 217.732 -2244 163 128 102
193.742 217.854 -2245 166 130 105
197.891 217.491 -2241 168 132 106
202.386 217.517 -2241 171 134 106
206.606 217.253 -2238 173 136 107
211.382 217.572 -2241 171 135 105
215.978 217.697 -2242 175 138 111
220.384 217.628 -2241 176 138 110
224.587 217.366 -2238 175 137 109
229.189 217.493 -2239 177 139 113
233.38 217.232 -2236 183 145 119
237.667 217.069 -2234 188 150 124
241.839 216.809 -2231 188 150 128
246.332 216.841 -2231 188 150 127
250.828 216.873 -2231 192 155 131
255.668 217.198 -2234 195 158 132
260.29 217.33 -2235 194 157 132
264.919 217.461 -2236 196 159 136
269.794 217.788 -2239 195 159 134
274.929 218.311 -2244 192 156 130
279.837 218.639 -2247 191 157 130
284.506 218.774 -2248 189 155 128
289.054 218.811 -2248 185 151 124
293.342 218.655 -2246 179 145 118
297.89 218.694 -2246 173 140 114
302.575 218.831 -2247 169 136 112
307.677 219.261 -2251 166 133 107
312.381 219.399 -2252 165 132 105
316.67 219.246 -2250 165 131 102
321.239 219.288 -2250 166 131 101
325.665 219.234 -2249 162 128 100
330.678 219.569 -2252 160 126 101
334.812 219.321 -2249 158 126 102
339.692 219.561 -2251 158 125 101
344.582 219.801 -2253 156 123 100
349.639 220.14 -2256 155 123 99
354.396 220.284 -2257 154 123 98
359.161 220.429 -2258 151 121 96
364.093 220.672 -2260 148 120 95
368.058 220.33 -2256 151 124 99
372.671 220.38 -2256 145 122 95
377.286 220.429 -2256 143 119 96
382.244 220.675 -2258 143 119 98
387.897 221.313 -2264 141 118 100
393.406 221.854 -2269 140 116 96
398.938 222.396 -2274 141 116 95
403.962 222.645 -2276 140 117 97
408.818 222.797 -2277 139 115 97
528.049 222.861 -2261 113 95 81
531.859 222.539 -2257 145 121 98
534.231 221.625 -2247 175 149 129
538.483 221.5 -2245 191 164 142
542.007 221.08 -2240 198 169 147
546.49 221.055 -2239 204 171 142
551.466 221.228 -2240 207 174 146
556.699 221.501 -2242 210 177 150
560.944 221.38 -2240 212 178 149
565.691 221.456 -2240 212 177 147
570.443 221.534 -2240 213 178 148
573.402 220.919 -2233 215 177 146
579.702 221.591 -2239 211 177 149
584.727 221.77 -2240 211 177 151
590.026 222.048 -2242 211 179 153
594.011 221.832 -2239 204 177 154
599.861 222.31 -2243 200 173 153
603.576 221.996 -2239 197 171 151
-538.936 209.211 -2162 246 76 94
-533.621 208.849 -2159 239 68 85
-529.304 208.875 -2160 242 64 83
-524.987 208.902 -2161 239 61 80
-521.393 209.219 -2165 238 60 79
-517.07 209.247 -2166 239 60 79
-512.512 209.179 -2166 239 59 79
-508.192 209.207 -2167 240 60 80
-503.872 209.237 -2168 245 60 80
-499.092 209.074 -2167 242 58 77
-494.777 209.105 -2168 239 58 76
-489.105 208.558 -2163 238 58 77
-484.13 208.301 -2161 238 58 78
-479.168 208.044 -2159 236 58 77
-474.438 207.885 -2158 238 59 77
-469.935 207.823 -2158 242 60 78
-465.65 207.857 -2159 243 61 81
-461.153 207.796 -2159 245 63 84
-456.659 207.736 -2159 247 65 85
-451.75 207.484 -2157 245 64 85
-447.682 207.617 -2159 244 64 84
-443.2 207.558 -2159 245 63 85
-438.721 207.501 -2159 246 64 87
-434.246 207.443 -2159 248 68 91
-430.173 207.579 -2161 249 69 92
-425.308 207.331 -2159 249 69 92
-421.039 207.371 -2160 246 66 87
-416.383 207.22 -2159 246 64 84
-411.545 206.974 -2157 249 66 84
-405.586 206.153 -2149 247 67 87
-400.41 205.717 -2145 246 66 86
-395.438 205.377 -2142 248 68 89
-390.3 204.942 -2138 246 67 87
-386.445 205.179 -2141 243 65 85
-381.331 204.746 -2137 239 61 82
-376.237 204.313 -2133 239 61 81
-371.512 204.073 -2131 248 71 92
-365.592 203.163 -2122 255 85 106
-360.562 202.733 -2118 255 96 118
-355.889 202.495 -2116 255 104 125
-351.227 202.258 -2114 255 109 130
-346.248 201.829 -2110 255 109 130
-341.612 201.594 -2108 255 103 124
-337.307 201.549 -2108 255 95 115
-333.163 201.601 -2109 253 83 104
-328.238 201.176 -2105 251 77 99
-323.948 201.134 -2105 255 77 100
-318.749 200.519 -2099 255 86 107
-313.877 200.096 -2095 255 99 120
-309.171 199.769 -2092 255 113 133
-305.209 199.92 -2094 255 118 138
-300.236 199.404 -2089 255 116 135
-296.277 199.556 -2091 255 113 133
-291.893 199.422 -2090 255 112 132
-287.653 199.385 -2090 255 111 132
-283.01 199.062 -2087 255 111 133
-278.647 198.93 -2086 255 111 134
-274.554 198.99 -2087 255 112 132
-269.812 198.573 -2083 255 113 133
-265.215 198.253 -2080 255 114 131
-260.508 197.838 -2076 255 111 127
-256.312 197.804 -2076 255 106 121
-251.755 197.486 -2073 255 100 117
-247.809 197.644 -2075 255 98 115
-243.504 197.517 -2074 255 95 112
-239.436 197.581 -2075 255 91 110
-235.026 197.36 -2073 255 90 109
-231.072 197.521 -2075 255 87 110
-226.892 197.491 -2075 255 89 112
-223.036 197.748 -2078 255 91 114
-219.065 197.91 -2080 255 92 114
-214.985 197.977 -2081 255 91 113
-211.205 198.33 -2085 255 94 115
-206.915 198.208 -2084 255 97 121
-203.02 198.467 -2087 255 97 124
-198.734 198.346 -2086 255 93 118
-194.639 198.416 -2087 255 90 114
-190.086 198.011 -2083 255 89 111
-185.997 198.082 -2084 255 87 109
-181.818 198.059 -2084 255 85 108
-178.067 198.511 -2089 255 85 108
-173.714 198.298 -2087 255 81 104
-169.452 198.181 -2086 255 81 104
-165.354 198.255 -2087 255 81 104
-161.176 198.234 -2087 255 79 102
-156.999 198.213 -2087 255 79 102
-152.97 198.384 -2089 255 80 104
-148.934 198.554 -2091 255 84 109
-144.684 198.44 -2090 255 86 111
-140.506 198.422 -2090 255 92 117
-136.33 198.404 -2090 255 102 122
-132.154 198.387 -2090 255 107 126
-127.98 198.371 -2090 255 114 129
-123.984 198.639 -2093 253 121 136
-119.805 198.624 -2093 252 124 140
-115.793 198.893 -2096 252 149 171
-111.664 198.974 -2097 252 167 187
-107.583 199.149 -2099 245 160 176
-103.544 199.421 -2102 242 139 155
-99.3047 199.313 -2101 229 122 139
-95.2513 199.585 -2104 247 118 134
-91.1003 199.668 -2105 242 117 135
-86.9872 199.846 -2107 243 133 153
-82.8669 200.025 -2109 240 164 176
-78.7019 200.11 -2110 250 180 190
-74.6043 200.384 -2113 240 151 163
-70.4619 200.565 -2115 220 100 114
-66.4374 201.125 -2121 219 77 92
-62.2722 201.306 -2123 252 86 100
-58.1544 201.678 -2127 255 97 114
-53.945 201.766 -2128 255 97 121
-49.7787 202.044 -2131 255 98 120
-45.5795 202.227 -2133 255 99 119
-41.4114 202.601 -2137 255 91 111
-37.1757 202.691 -2138 252 80 101
-33.0132 203.255 -2144 255 74 95
-28.7735 203.441 -2146 255 74 95
-24.5489 203.816 -2150 255 74 95
-20.3085 204.193 -2154 255 74 95
-16.0896 205.044 -2163 253 73 94
-11.7752 204.852 -2161 251 71 92
-7.50681 205.704 -2170 251 73 92
-3.19364 205.988 -2173 250 72 91
1.13066 206.177 -2175 249 69 89
5.45792 206.178 -2175 253 75 95
9.80347 206.558 -2179 255 82 102
14.1453 206.654 -2180 255 78 98
18.5251 207.13 -2185 251 70 90
22.8939 207.323 -2187 241 59 79
27.2331 207.231 -2186 240 57 77
31.6119 207.424 -2188 240 56 77
35.9663 207.429 -2188 248 64 85
40.3392 207.528 -2189 255 75 97
44.7368 207.723 -2191 255 79 101
49.1205 207.824 -2192 255 77 99
53.5084 207.926 -2193 255 72 94
57.9009 208.028 -2194 254 68 90
62.326 208.225 -2196 250 63 85
66.8206 208.612 -2200 245 58 80
71.2343 208.716 -2201 241 53 76
75.6871 208.915 -2203 244 55 78
80.0392 208.83 -2202 244 54 77
84.4266 208.841 -2202 245 55 78
88.895 209.041 -2204 249 60 83
93.2454 208.958 -2203 251 64 86
97.6812 209.065 -2204 249 63 85
102.075 209.078 -2204 245 59 81
106.615 209.376 -2207 243 59 81
110.967 209.295 -2206 248 63 85
115.681 209.879 -2212 254 68 90
120.312 210.274 -2216 252 72 92
125.354 211.333 -2227 245 71 89
130.091 211.824 -2232 207 79 81
135.211 212.885 -2243 171 91 81
139.877 213.187 -2246 144 98 80
144.492 213.395 -2248 140 100 85
148.918 213.319 -2247 143 102 87
153.341 213.244 -2246 146 106 91
157.62 212.979 -2243 144 109 88
162.106 212.999 -2243 144 109 87
166.667 213.115 -2244 146 109 85
171.463 213.517 -2248 145 109 85
175.962 213.539 -2248 145 109 85
180.785 213.942 -2252 146 111 88
185.377 214.06 -2253 146 112 89
189.554 213.704 -2249 145 112 90
193.631 213.254 -2244 148 114 94
197.953 213.089 -2242 152 118 97
202.36 213.019 -2241 155 122 97
206.764 212.951 -2240 157 123 97
211.637 213.358 -2244 159 124 98
216.239 213.48 -2245 162 125 99
220.749 213.509 -2245 165 126 100
225.26 213.537 -2245 165 125 99
229.671 213.471 -2244 167 127 103
233.454 212.835 -2237 171 131 107
237.742 212.675 -2235 174 134 109
242.132 212.611 -2234 175 137 116
246.852 212.833 -2236 175 137 115
251.245 212.77 -2235 178 141 117
256.093 213.088 -2238 181 144 118
260.722 213.216 -2239 181 144 119
265.239 213.25 -2239 182 144 123
270.241 213.666 -2243 180 147 126
275.261 214.082 -2247 176 145 124
280.174 214.404 -2250 173 143 122
284.849 214.535 -2251 170 140 119
289.273 214.477 -2250 164 134 113
293.957 214.61 -2251 159 129 108
298.514 214.649 -2251 155 126 106
302.94 214.592 -2250 151 125 106
307.91 214.918 -2253 149 122 103
313.173 215.435 -2258 147 120 100
317.754 215.476 -2258 148 119 96
322.624 215.708 -2260 148 119 96
327.505 215.941 -2262 144 115 94
332.543 216.27 -2265 140 114 96
532.731 218.322 -2261 142 127 114
534.872 217.331 -2250 155 135 121
539.131 217.209 -2248 162 140 125
543.386 217.087 -2246 170 144 127
548.125 217.16 -2246 177 147 125
553.361 217.426 -2248 185 154 132
558.114 217.5 -2248 191 161 137
562.121 217.285 -2245 196 163 137
566.12 217.069 -2242 197 163 135
570.62 217.048 -2241 198 163 135
574.351 216.737 -2237 198 162 134
580.659 217.396 -2243 194 160 136
586.736 217.958 -2248 191 159 136
592.84 218.522 -2253 190 160 137
603.79 219.168 -2258 189 166 147
-540.111 205.268 -2167 243 75 92
-534.292 204.724 -2162 237 68 85
-529.479 204.56 -2161 240 63 82
-525.161 204.586 -2162 238 61 80
-521.084 204.708 -2164 237 59 78
-517.003 204.83 -2166 239 59 79
-512.681 204.857 -2167 242 61 81
-507.891 204.696 -2166 243 61 81
-503.574 204.725 -2167 245 61 80
-499.487 204.849 -2169 243 60 79
-494.484 204.596 -2167 241 59 77
-489.493 204.344 -2165 239 59 78
-485.187 204.375 -2166 239 59 78
-479.549 203.841 -2161 237 59 78
-474.376 203.496 -2158 239 59 78
-470.091 203.53 -2159 244 61 80
-465.805 203.564 -2160 243 61 81
-461.092 203.41 -2159 243 61 82
-456.599 203.351 -2159 243 61 81
-451.9 203.198 -2158 243 62 82
-447.624 203.234 -2159 242 62 82
-443.348 203.271 -2160 243 61 83
-438.664 203.12 -2159 244 62 84
-434.19 203.064 -2159 247 66 88
-429.72 203.009 -2159 249 69 90
-425.253 202.954 -2159 249 68 90
-420.594 202.806 -2158 245 64 85
-416.137 202.752 -2158 243 60 81
-411.11 202.417 -2155 246 62 82
-405.722 201.895 -2150 246 65 86
-400.171 201.28 -2144 246 65 86
-395.018 200.854 -2140 245 65 86
-390.797 200.898 -2141 244 65 86
-385.673 200.473 -2137 242 64 84
-381.46 200.518 -2138 239 60 81
-376.542 200.188 -2135 238 59 80
-370.941 199.484 -2128 242 63 84
-365.889 199.062 -2124 252 75 96
-360.516 198.453 -2118 255 88 108
-355.339 197.939 -2113 255 99 119
-350.517 197.614 -2110 255 106 126
-345.383 197.101 -2105 255 108 128
-341.244 197.151 -2106 255 108 128
-336.784 197.014 -2105 255 101 121
-332.646 197.065 -2106 254 88 111
-328.196 196.93 -2105 252 81 104
-323.906 196.888 -2105 252 76 100
-318.101 195.912 -2095 253 80 103
-313.836 195.872 -2095 255 91 113
-308.688 195.272 -2089 255 104 126
-305.024 195.607 -2093 255 110 131
-300.341 195.288 -2090 255 113 133
-296.097 195.25 -2090 255 112 132
-291.576 195.026 -2088 255 112 132
-287.204 194.896 -2087 255 112 132
-282.567 194.58 -2084 255 114 134
-278.478 194.638 -2085 255 113 134
-274.256 194.603 -2085 255 111 132
-269.389 194.102 -2080 255 113 134
-265.309 194.162 -2081 255 114 133
-260.475 193.662 -2076 255 111 130
-256.033 193.443 -2074 255 106 125
-251.966 193.504 -2075 255 99 116
-248.016 193.659 -2077 255 101 118
-243.59 193.442 -2075 255 96 113
-239.521 193.504 -2076 255 90 110
-235.223 193.381 -2075 255 90 110
-231.153 193.445 -2076 255 88 108
-226.754 193.23 -2074 255 87 107
-223.008 193.574 -2078 255 85 106
-218.932 193.64 -2079 255 82 103
-214.854 193.705 -2080 254 79 100
-210.976 193.958 -2083 253 77 98
-207.088 194.211 -2086 252 77 99
-203.092 194.371 -2088 249 74 98
-198.423 193.881 -2083 247 73 95
-194.428 194.042 -2085 246 72 94
-190.153 193.925 -2084 245 72 93
-186.152 194.087 -2086 247 72 93
-181.882 193.971 -2085 248 72 94
-178.044 194.321 -2089 252 72 95
-173.858 194.299 -2089 254 74 97
-169.512 194.091 -2087 255 77 100
-165.491 194.256 -2089 255 78 102
-161.078 193.957 -2086 255 78 103
-156.979 194.03 -2087 255 80 103
-152.878 194.103 -2088 255 80 104
-148.844 194.27 -2090 255 80 104
-144.527 194.066 -2088 255 85 109
-140.287 193.955 -2087 255 89 113
-136.117 193.938 -2087 255 93 114
-132.137 194.2 -2090 255 98 119
-127.902 194.091 -2089 255 103 121
-123.672 193.982 -2088 254 109 130
-119.618 194.153 -2090 255 119 140
-115.613 194.417 -2093 222 126 148
-111.331 194.217 -2091 226 140 161
-107.364 194.575 -2095 241 167 187
-103.186 194.561 -2095 254 185 205
-99.0558 194.642 -2096 255 182 202
-95.013 194.908 -2099 255 180 200
-91.0023 195.268 -2103 255 179 199
-86.8936 195.443 -2105 255 176 196
-82.6993 195.432 -2105 252 161 176
-78.5801 195.608 -2107 218 123 138
-74.4537 195.784 -2109 217 93 109
-70.3864 196.146 -2113 227 80 97
-66.3352 196.602 -2118 247 82 99
-62.2352 196.965 -2122 255 94 112
-58.2564 197.793 -2131 255 97 116
-53.9381 197.507 -2128 255 94 118
-49.7724 197.779 -2131 255 94 115
-45.5524 197.866 -2132 255 92 111
-41.3869 198.232 -2136 255 85 105
-37.1884 198.505 -2139 254 78 98
-33.0244 199.058 -2145 254 72 93
-28.7833 199.239 -2147 255 73 94
-24.5343 199.422 -2149 255 74 95
-20.2966 199.79 -2153 255 73 93
-16.0802 200.623 -2162 252 71 92
-11.79 200.807 -2164 250 70 91
-7.50562 201.363 -2170 248 70 89
-3.19031 201.455 -2171 251 73 92
1.12999 201.733 -2174 254 76 96
5.45221 201.641 -2173 255 80 100
9.79774 202.106 -2178 255 79 99
14.1695 202.664 -2184 251 70 90
18.4974 202.48 -2182 242 61 81
22.8593 202.668 -2184 234 52 72
27.2172 202.764 -2185 237 54 74
31.5791 202.861 -2186 243 59 80
35.9287 202.865 -2186 252 71 92
40.3342 203.148 -2189 255 81 102
44.772 203.525 -2193 255 80 102
49.1589 203.624 -2194 255 76 98
53.5749 203.815 -2196 254 67 90
57.9198 203.73 -2195 247 60 82
62.3466 203.923 -2197 241 55 77
66.6601 203.745 -2195 237 51 73
71.1607 204.125 -2199 238 50 73
75.6774 204.506 -2203 242 53 76
79.9565 204.237 -2200 245 55 78
84.4924 204.619 -2204 249 59 82
88.8839 204.629 -2204 253 63 86
93.2337 204.548 -2203 252 64 87
97.6244 204.56 -2203 249 63 85
102.109 204.758 -2205 246 61 83
106.553 204.864 -2206 244 60 82
110.902 204.785 -2205 249 64 86
115.614 205.356 -2211 254 66 89
120.242 205.743 -2215 251 71 91
125.225 206.687 -2225 244 73 90
130.308 207.725 -2236 167 86 74
135.495 208.856 -2248 150 90 74
140.108 209.059 -2250 138 95 75
144.731 209.263 -2252 124 99 83
149.297 209.374 -2253 129 99 84
153.663 209.207 -2251 136 97 85
157.882 208.855 -2247 135 101 85
162.302 208.782 -2246 135 102 84
167.017 209.082 -2249 137 100 81
171.593 209.196 -2250 134 99 80
176.331 209.497 -2253 133 99 80
180.922 209.612 -2254 131 100 80
185.601 209.821 -2256 132 100 82
190.036 209.752 -2255 132 101 85
194.296 209.497 -2252 134 103 88
198.723 209.429 -2251 140 109 93
203.056 209.268 -2249 143 112 94
207.568 209.294 -2249 143 112 92
212.553 209.785 -2254 145 113 93
216.693 209.44 -2250 150 113 89
221.606 209.84 -2254 155 115 91
225.934 209.682 -2252 157 115 91
230.359 209.617 -2251 157 117 95
234.155 208.995 -2244 159 119 97
238.775 209.118 -2245 161 121 99
242.86 208.775 -2241 161 122 100
247.152 208.62 -2239 162 122 99
251.437 208.465 -2237 162 123 100
256.404 208.87 -2241 165 127 101
261.271 209.182 -2244 167 128 103
266.153 209.495 -2247 164 128 106
271.29 209.995 -2252 159 130 114
276.573 210.589 -2258 156 130 116
281.632 210.998 -2262 152 129 114
541.218 213.475 -2257 146 129 122
544.766 213.072 -2252 144 123 113
549.029 212.954 -2250 147 125 113
553.781 213.026 -2250 154 131 117
558.289 213.003 -2249 161 136 121
562.047 212.698 -2245 166 139 120
566.298 212.582 -2243 168 140 121
571.564 212.845 -2245 169 141 122
-534.47 200.403 -2163 237 68 85
-529.166 200.058 -2160 238 65 83
-525.822 200.454 -2165 238 63 81
-521.017 200.295 -2164 236 60 79
-516.936 200.414 -2166 239 59 79
-512.379 200.348 -2166 243 61 80
-507.591 200.191 -2165 245 60 79
-503.044 200.127 -2165 239 60 79
-499.423 200.433 -2169 239 60 79
-495.105 200.463 -2170 239 57 75
-489.883 200.123 -2167 238 58 75
-484.677 199.785 -2164 240 61 78
-479.488 199.447 -2161 239 61 80
-474.755 199.294 -2160 240 60 80
-470.249 199.235 -2160 244 60 81
-465.53 199.083 -2159 244 62 82
-460.82 198.933 -2158 244 62 82
-456.541 198.967 -2159 244 62 82
-451.633 198.726 -2157 243 62 82
-447.153 198.669 -2157 242 62 82
-442.881 198.705 -2158 243 61 81
-438.405 198.65 -2158 244 62 82
-433.934 198.595 -2158 248 67 88
-429.466 198.541 -2158 250 68 88
-425.002 198.487 -2158 248 66 86
-420.346 198.342 -2157 247 63 85
-415.891 198.29 -2157 245 61 83
-411.821 198.422 -2159 246 62 84
-406.425 197.911 -2154 246 64 85
-400.867 197.309 -2148 247 65 86
-395.337 196.708 -2142 245 67 86
-390.93 196.659 -2142 245 67 86
-385.804 196.243 -2138 242 64 84
-381.412 196.195 -2138 240 60 81
-377.023 196.148 -2138 236 56 77
-371.068 195.276 -2129 238 58 79
-365.499 194.588 -2122 246 68 87
-360.641 194.267 -2119 254 81 100
-355.126 193.581 -2112 255 95 113
-350.141 193.171 -2108 255 104 122
-345.34 192.852 -2105 255 107 126
-341.039 192.81 -2105 255 107 128
-336.582 192.676 -2104 255 105 127
-332.289 192.634 -2104 255 96 120
-328.622 192.96 -2108 255 87 112
-323.712 192.553 -2104 252 79 105
-318.668 192.055 -2099 252 80 103
-313.947 191.742 -2096 255 85 108
-308.945 191.246 -2091 255 93 116
-304.549 191.116 -2090 255 102 124
-300.016 190.896 -2088 255 110 131
-295.493 190.676 -2086 255 112 133
-290.702 190.274 -2082 255 110 131
-286.617 190.33 -2083 255 111 132
-282.124 190.112 -2081 255 112 132
-278.042 190.169 -2082 255 111 131
-273.696 190.043 -2081 255 110 132
-269.096 189.736 -2078 255 111 133
-264.511 189.429 -2075 255 111 131
-259.94 189.123 -2072 255 109 130
-255.631 188.999 -2071 255 107 129
-251.449 188.968 -2071 255 101 118
-247.388 189.029 -2072 255 100 117
-243.325 189.09 -2073 255 96 114
-239.837 189.607 -2079 255 94 114
-235.534 189.487 -2078 255 92 112
-231.013 189.184 -2075 255 86 105
-226.726 189.065 -2074 255 84 103
-222.766 189.22 -2076 254 81 100
-218.589 189.192 -2076 253 77 97
-214.621 189.348 -2078 251 75 95
-210.95 189.777 -2083 250 72 92
-206.963 189.934 -2085 250 72 92
-202.872 190 -2086 249 71 91
-198.589 189.884 -2085 248 69 89
-194.497 189.951 -2086 248 69 90
-190.221 189.836 -2085 248 70 90
-186.129 189.904 -2086 249 71 91
-181.772 189.7 -2084 250 72 92
-178.022 190.132 -2089 255 73 97
-173.754 190.02 -2088 255 75 98
-169.491 189.908 -2087 255 77 100
-165.392 189.978 -2088 255 78 103
-161.213 189.958 -2088 255 78 104
-157.11 190.03 -2089 255 79 102
-152.785 189.829 -2087 255 79 102
-148.541 189.719 -2086 254 79 101
-144.371 189.701 -2086 255 83 106
-140.202 189.684 -2086 255 86 109
-136.1 189.758 -2087 255 86 108
-131.868 189.651 -2086 255 89 111
-127.825 189.817 -2088 255 95 117
-123.597 189.71 -2087 255 108 132
-119.489 189.786 -2088 255 136 161
-115.378 189.863 -2089 254 173 195
-111.21 189.849 -2089 255 187 210
-107.146 190.017 -2091 255 192 216
-103.075 190.186 -2093 255 193 215
-99.0436 190.447 -2096 255 192 214
-94.8202 190.344 -2095 255 192 215
-90.7746 190.605 -2098 255 189 211
-86.8416 191.139 -2104 243 167 186
-82.6105 191.038 -2103 247 153 170
-78.6077 191.482 -2108 240 138 155
-74.4798 191.655 -2110 249 111 130
-70.4443 192.1 -2115 247 89 108
-66.2643 192.183 -2116 255 88 107
-62.2568 192.81 -2123 255 94 115
-58.1672 193.257 -2128 255 93 115
-53.8554 192.978 -2125 255 91 113
-49.7429 193.426 -2130 255 87 107
-45.5895 193.783 -2134 255 82 101
-41.4205 194.141 -2138 255 77 97
-37.2012 194.318 -2140 255 75 95
-33.0358 194.858 -2146 254 72 92
-28.8066 195.127 -2149 254 71 92
-24.5656 195.396 -2152 254 71 93
-20.3223 195.756 -2156 252 70 91
-16.0633 196.117 -2160 249 68 89
-11.7995 196.661 -2166 250 70 91
-7.50472 197.023 -2170 247 69 88
-3.18846 197.022 -2170 251 73 92
1.13036 197.476 -2175 254 77 96
5.45404 197.385 -2174 254 77 96
9.79654 197.75 -2178 252 72 92
14.1483 198.023 -2181 240 61 81
18.4866 198.025 -2181 231 52 71
22.8775 198.482 -2186 228 47 67
27.2014 198.303 -2184 239 56 76
31.5608 198.398 -2185 252 71 92
35.9079 198.402 -2185 255 77 99
40.3476 198.861 -2190 255 79 101
44.7461 199.047 -2192 255 77 99
49.1529 199.235 -2194 254 72 94
53.5684 199.423 -2196 248 63 85
57.86 199.157 -2193 241 56 77
62.1969 199.074 -2192 237 51 73
66.6216 199.263 -2194 237 51 73
71.087 199.544 -2197 240 51 74
75.4964 199.644 -2198 242 53 76
80.0192 200.017 -2202 245 57 80
84.4438 200.118 -2203 250 61 84
88.7518 199.946 -2201 253 65 88
93.3067 200.321 -2205 250 65 86
97.6568 200.242 -2204 248 64 85
102.05 200.254 -2204 247 64 85
106.492 200.358 -2205 248 63 86
110.939 200.462 -2206 248 62 86
115.652 201.021 -2212 249 62 86
120.445 201.672 -2219 240 66 85
125.379 202.505 -2228 227 65 81
130.699 203.884 -2243 132 80 73
136.201 205.445 -2260 122 80 70
140.651 205.371 -2259 114 81 70
145.42 205.753 -2263 109 87 77
218.111 206.292 -2265 129 99 82
222.758 206.41 -2266 132 99 83
227.009 206.165 -2263 134 99 83
231.251 205.919 -2260 136 103 87
234.647 204.946 -2249 137 104 88
239.384 205.157 -2251 137 103 88
243.805 205.096 -2250 139 107 90
248.335 205.126 -2250 140 106 90
252.867 205.157 -2250 140 106 90
258.202 205.827 -2257 144 109 92
262.985 206.041 -2259 146 111 93
557.155 209.73 -2264 144 127 119
561.196 209.524 -2261 147 128 119
-535.638 196.443 -2168 239 70 86
-529.589 195.833 -2162 240 66 83
-525.513 195.948 -2164 239 64 82
-520.71 195.793 -2163 237 61 80
-516.871 196 -2166 235 58 77
-512.078 195.845 -2165 238 58 77
-507.762 195.873 -2166 240 57 76
-502.981 195.72 -2165 236 56 76
-498.9 195.838 -2167 238 57 77
-494.359 195.777 -2167 239 56 75
-489.595 195.625 -2166 237 56 74
-484.84 195.475 -2165 239 60 77
-479.65 195.144 -2162 240 63 82
-475.355 195.176 -2163 242 62 82
-470.408 194.937 -2161 244 60 81
-465.904 194.879 -2161 244 61 81
-461.19 194.732 -2160 242 60 80
-456.484 194.585 -2159 242 61 81
-451.996 194.529 -2159 241 61 81
-447.719 194.564 -2160 239 61 80
-443.031 194.419 -2159 239 58 78
-438.757 194.455 -2160 239 58 79
-433.88 194.221 -2158 243 62 83
-429.413 194.168 -2158 244 62 83
-424.949 194.116 -2158 243 61 81
-419.904 193.794 -2155 244 59 81
-415.84 193.923 -2157 243 59 81
-411.389 193.872 -2157 245 61 83
-405.998 193.373 -2152 244 62 83
-401.004 193.054 -2149 245 63 84
-395.473 192.466 -2143 243 65 84
-390.152 191.969 -2138 243 65 85
-384.855 191.473 -2133 242 64 84
-380.83 191.605 -2135 240 60 82
-375.919 191.29 -2132 235 55 77
-371.371 191.155 -2131 237 57 78
-365.453 190.303 -2122 242 64 83
-360.256 189.81 -2117 252 74 93
-354.914 189.228 -2111 255 91 109
-350.098 188.917 -2108 255 100 119
-344.805 188.337 -2102 255 103 123
-340.673 188.385 -2103 255 106 128
-336.38 188.343 -2103 255 105 128
-332.09 188.303 -2103 255 100 123
-327.959 188.352 -2104 255 92 115
-323.826 188.402 -2105 253 83 107
-318.477 187.737 -2098 254 80 104
-313.309 187.161 -2092 255 83 106
-308.907 187.034 -2091 255 88 111
-304.366 186.818 -2089 255 96 118
-299.979 186.692 -2088 255 103 126
-295.174 186.298 -2084 255 108 129
-290.806 186.174 -2083 255 108 129
-286.307 185.96 -2081 255 109 130
-281.412 185.479 -2076 255 108 129
-276.94 185.266 -2074 255 107 128
-273.136 185.501 -2077 255 108 129
-268.546 185.2 -2074 255 109 130
-263.714 184.722 -2069 255 108 129
-259.532 184.69 -2069 255 107 128
-255.723 184.927 -2072 255 106 128
-251.296 184.718 -2070 255 101 119
-247.477 184.955 -2073 255 98 116
-244 185.461 -2079 255 95 113
-239.923 185.521 -2080 255 97 116
-235.732 185.492 -2080 255 94 114
-231.43 185.375 -2079 255 87 106
-227.026 185.169 -2077 255 84 103
-222.846 185.142 -2077 254 82 101
-218.562 185.026 -2076 254 78 98
-214.801 185.357 -2080 252 76 96
-210.823 185.509 -2082 251 73 93
-207.037 185.84 -2086 250 71 91
-202.847 185.816 -2086 250 69 89
-198.565 185.703 -2085 249 68 89
-194.474 185.768 -2086 249 68 89
-190.38 185.834 -2087 249 69 90
-186.195 185.811 -2087 250 71 93
-182.012 185.789 -2087 253 74 97
-177.915 185.857 -2088 255 75 101
-173.649 185.747 -2087 255 76 102
-169.389 185.637 -2086 255 78 101
-165.292 185.706 -2087 255 79 102
-161.039 185.597 -2086 255 79 103
-156.941 185.667 -2087 255 81 102
-152.767 185.649 -2087 255 80 101
-148.665 185.72 -2088 254 79 101
-144.146 185.257 -2083 255 78 101
-140.185 185.507 -2086 255 79 102
-135.888 185.313 -2084 255 82 104
-131.789 185.386 -2085 255 85 107
-127.687 185.459 -2086 255 88 110
-123.464 185.355 -2085 255 90 112
-119.246 185.252 -2084 255 101 122
-115.309 185.593 -2088 254 118 142
-111.037 185.402 -2086 255 145 169
-106.979 185.567 -2088 255 169 193
-102.915 185.732 -2090 255 183 199
-98.7954 185.809 -2091 255 188 203
-94.6731 185.886 -2092 254 189 205
-90.7204 186.319 -2097 254 187 203
-86.6248 186.486 -2099 253 178 193
-82.4434 186.476 -2099 255 171 185
-78.4864 186.999 -2105 249 154 169
-74.3649 187.168 -2107 246 126 142
-70.3026 187.515 -2111 252 100 118
-66.2563 187.951 -2116 255 91 110
-62.2199 188.476 -2122 255 94 114
-58.0236 188.558 -2123 255 92 112
-53.8997 188.906 -2127 255 89 110
-49.7602 189.255 -2131 255 84 104
-45.5413 189.338 -2132 253 76 96
-41.4155 189.866 -2138 255 73 93
-37.2314 190.216 -2142 255 74 94
-33.0318 190.568 -2146 255 73 93
-28.8164 190.919 -2150 254 70 92
-24.5398 190.916 -2150 253 69 91
-20.301 191.268 -2154 251 69 90
-16.0837 192.065 -2163 249 68 88
-11.7927 192.241 -2165 248 68 88
-7.49692 192.507 -2168 248 70 89
-3.19397 193.039 -2174 251 73 92
1.12814 192.772 -2171 250 72 91
5.45087 192.95 -2173 248 68 88
9.79086 193.306 -2177 244 64 84
14.1401 193.574 -2180 231 53 72
18.4929 193.754 -2182 226 47 67
22.8538 193.934 -2184 232 51 71
27.1982 193.937 -2184 249 67 88
31.5425 193.94 -2184 255 83 104
35.9036 194.033 -2185 255 80 102
40.2873 194.215 -2187 255 74 96
44.7204 194.576 -2191 251 68 90
49.1919 195.025 -2196 247 63 84
53.5861 195.12 -2197 242 58 79
57.8267 194.683 -2192 236 52 73
62.1611 194.601 -2191 234 49 70
66.5527 194.698 -2192 236 50 72
70.9814 194.884 -2194 241 51 74
75.5215 195.336 -2199 244 55 78
79.937 195.435 -2200 246 58 81
84.4334 195.711 -2203 250 61 84
88.8218 195.721 -2203 252 64 87
93.2953 195.91 -2205 247 63 84
97.6448 195.832 -2204 244 61 82
102.176 196.111 -2207 244 62 82
106.576 196.123 -2207 246 59 84
111.127 196.403 -2210 248 62 86
115.9 197.039 -2217 246 61 84
120.81 197.853 -2226 225 59 77
125.814 198.757 -2236 228 79 95
-536.067 192.198 -2170 242 71 87
-530.014 191.601 -2164 242 66 83
-525.206 191.449 -2163 240 64 82
-520.887 191.474 -2164 240 64 83
-517.046 191.676 -2167 235 62 80
-512.252 191.525 -2166 236 60 78
-507.934 191.552 -2167 238 59 79
-503.384 191.49 -2167 239 57 77
-498.839 191.43 -2167 239 56 77
-494.754 191.546 -2169 239 55 76
-489.535 191.222 -2166 236 55 74
-484.781 191.075 -2165 237 58 76
-479.591 190.752 -2162 239 63 82
-474.858 190.606 -2161 242 63 83
-470.35 190.549 -2161 243 59 80
-465.847 190.492 -2161 239 57 77
-461.347 190.436 -2161 238 56 76
-456.851 190.381 -2161 239 57 77
-452.15 190.238 -2160 239 59 79
-447.872 190.272 -2161 237 59 78
-443.182 190.131 -2160 235 55 75
-438.501 189.989 -2159 236 56 77
-434.028 189.937 -2159 239 59 80
-429.361 189.797 -2158 240 58 78
-424.504 189.57 -2156 240 58 78
-419.853 189.432 -2155 244 58 80
-415.211 189.294 -2154 244 58 80
-411.148 189.42 -2156 244 60 82
-406.326 189.195 -2154 244 61 83
-401.515 188.971 -2152 244 63 83
-395.794 188.309 -2145 242 64 83
-391.017 188.087 -2143 242 64 84
-385.169 187.338 -2135 242 64 84
-380.962 187.38 -2136 240 60 83
-375.873 186.984 -2132 235 55 77
-370.978 186.676 -2129 236 56 77
-365.409 186.019 -2122 238 60 79
-360.553 185.713 -2119 246 68 87
-355.376 185.232 -2114 252 82 100
-350.222 184.752 -2109 255 92 111
-345.419 184.448 -2106 255 101 122
-340.794 184.232 -2104 255 105 127
-336.02 183.929 -2101 255 103 127
-331.419 183.714 -2099 255 102 124
-327.14 183.675 -2099 255 96 118
-322.556 183.461 -2097 255 89 112
-318.287 183.423 -2097 255 83 107
-313.421 183.036 -2093 255 84 108
-308.722 182.737 -2090 255 86 110
-304.184 182.526 -2088 255 91 115
-299.943 182.49 -2088 255 97 120
-294.997 182.018 -2083 255 103 125
-290.492 181.808 -2081 255 105 127
-286.135 181.687 -2080 255 106 127
-281.379 181.304 -2076 255 106 126
-276.774 181.009 -2073 255 104 125
-272.183 180.714 -2070 255 105 126
-267.737 180.508 -2068 255 104 125
-263.3 180.302 -2066 255 103 124
-259.125 180.271 -2066 255 102 124
-255.199 180.415 -2068 255 101 123
-251.631 180.822 -2073 255 98 116
-247.925 181.141 -2077 255 95 113
-244.088 181.374 -2080 255 94 112
-240.356 181.694 -2084 255 97 115
-236.27 181.753 -2085 255 94 113
-231.625 181.377 -2081 255 87 106
-226.999 181.001 -2077 255 85 104
-222.605 180.8 -2075 255 84 103
-218.431 180.774 -2075 255 80 100
-214.569 181.01 -2078 254 78 98
-210.696 181.247 -2081 253 75 96
-206.913 181.57 -2085 253 73 94
-202.629 181.459 -2084 254 72 92
-198.446 181.436 -2084 253 69 91
-194.264 181.413 -2084 251 68 90
-190.267 181.564 -2086 251 70 92
-185.995 181.455 -2085 253 72 94
-181.816 181.433 -2085 255 75 98
-177.638 181.412 -2085 255 77 103
-173.296 181.218 -2083 255 78 104
-169.206 181.285 -2084 255 80 103
-165.035 181.265 -2084 255 81 104
-160.865 181.246 -2084 255 81 104
-156.697 181.227 -2084 255 84 104
-152.529 181.209 -2084 255 85 106
-148.434 181.279 -2085 255 85 107
-144.06 181.001 -2082 255 85 108
-139.967 181.071 -2083 255 87 110
-135.937 181.229 -2085 255 92 114
-131.9 181.387 -2087 255 92 114
-127.427 180.937 -2082 255 91 113
-123.509 181.27 -2086 255 91 110
-119.289 181.169 -2085 255 97 114
-115.185 181.242 -2086 255 95 118
-110.971 181.142 -2085 252 104 128
-106.967 181.39 -2088 246 115 139
-102.902 181.551 -2090 237 123 141
-98.5948 181.279 -2087 238 129 145
-94.5713 181.528 -2090 234 133 150
-90.4069 181.517 -2090 239 133 151
-86.4083 181.854 -2094 240 129 145
-82.4337 182.279 -2099 248 128 143
-78.4771 182.791 -2105 241 111 127
-74.3208 182.868 -2106 239 85 101
-70.261 183.207 -2110 250 89 107
-66.1545 183.46 -2113 255 90 109
-62.0661 183.8 -2117 255 93 112
-57.962 184.14 -2121 255 92 111
-53.8426 184.481 -2125 255 88 107
-49.6844 184.735 -2128 255 81 101
-45.5786 185.25 -2134 252 74 94
-41.4299 185.679 -2139 254 72 92
-37.2792 186.196 -2145 254 73 93
-33.0432 186.365 -2147 253 71 91
-28.8265 186.709 -2151 251 67 89
-24.5369 186.619 -2150 250 66 88
-20.3081 187.05 -2155 249 67 88
-16.067 187.569 -2161 247 66 87
-11.7695 187.567 -2161 245 65 85
-7.49605 188.174 -2168 246 68 87
-3.1892 188.433 -2171 249 71 90
1.12748 188.347 -2170 246 68 87
5.4427 188.347 -2170 241 62 82
9.77145 188.608 -2173 237 57 77
14.1125 188.87 -2176 230 50 70
18.4653 189.132 -2179 232 52 72
22.8197 189.308 -2181 248 68 88
27.1698 189.398 -2182 255 83 104
31.5388 189.575 -2184 255 83 104
35.8994 189.666 -2185 255 76 98
40.301 189.931 -2188 252 70 92
44.8169 190.63 -2196 244 62 83
49.1861 190.636 -2196 239 55 76
53.4579 190.294 -2192 237 53 74
57.8724 190.475 -2194 233 49 70
62.1822 190.308 -2192 233 47 69
66.6056 190.489 -2194 238 50 73
71.1023 190.845 -2198 240 51 74
75.5813 191.114 -2201 244 56 79
79.9273 191.036 -2200 248 60 83
84.3469 191.132 -2201 251 61 84
88.6903 191.056 -2200 252 62 85
93.1152 191.153 -2201 249 63 84
97.5003 191.164 -2201 246 62 82
102.072 191.523 -2205 243 61 80
106.466 191.535 -2205 248 60 87
111.113 191.983 -2210 249 63 88
115.886 192.604 -2217 242 60 81
-530.685 187.45 -2167 241 68 84
-525.628 187.214 -2165 240 64 82
-521.065 187.152 -2165 242 64 83
-516.746 187.177 -2166 237 62 81
-512.899 187.375 -2169 237 61 79
-507.873 187.142 -2167 239 61 80
-504.253 187.427 -2171 242 58 79
-499.01 187.109 -2168 241 56 77
-494.923 187.223 -2170 239 55 76
-489.477 186.82 -2166 235 54 74
-484.947 186.762 -2166 234 54 74
-479.756 186.446 -2163 237 60 79
-475.021 186.304 -2162 241 61 81
-470.294 186.162 -2161 241 59 79
-465.791 186.107 -2161 236 55 75
-461.292 186.052 -2161 234 54 74
-457.22 186.17 -2163 236 55 75
-452.724 186.117 -2163 236 57 77
-448.44 186.15 -2164 235 57 76
-444.361 186.27 -2166 233 53 73
-439.058 185.874 -2162 236 56 76
-434.781 185.908 -2163 238 58 79
-429.509 185.514 -2159 238 57 77
-424.65 185.292 -2157 239 57 77
-420.193 185.243 -2157 244 58 80
-415.547 185.108 -2156 242 57 79
-410.909 184.974 -2155 241 57 79
-406.278 184.84 -2154 242 60 81
-401.468 184.621 -2152 243 61 82
-395.932 184.06 -2146 239 61 80
-390.788 183.671 -2142 239 61 81
-385.665 183.283 -2138 240 62 82
-380.917 183.067 -2136 241 61 84
-375.829 182.68 -2132 237 57 79
-371.457 182.636 -2132 236 56 77
-365.883 181.994 -2125 235 56 76
-360.851 181.609 -2121 240 62 81
-355.334 180.968 -2114 247 75 93
-350.845 180.841 -2113 254 86 105
-345.871 180.458 -2109 255 98 120
-341.078 180.162 -2106 255 105 127
-336.3 179.866 -2103 255 104 126
-331.222 179.399 -2098 255 102 124
-326.634 179.19 -2096 255 97 119
-321.903 178.896 -2093 255 91 113
-317.187 178.603 -2090 255 88 113
-313.085 178.652 -2091 255 86 111
-308.539 178.445 -2089 255 86 110
-303.711 178.068 -2085 255 90 114
-299.764 178.204 -2087 255 96 120
-295.246 177.998 -2085 255 101 123
-290.458 177.623 -2081 255 101 123
-285.964 177.419 -2079 255 102 124
-281.752 177.386 -2079 255 102 123
-276.741 176.842 -2073 255 102 122
-272.151 176.555 -2070 255 101 123
-267.576 176.268 -2067 255 100 122
-263.015 175.981 -2064 255 100 122
-259.346 176.292 -2068 255 98 120
-255.292 176.348 -2069 255 98 120
-251.723 176.745 -2074 255 96 114
-247.896 176.971 -2077 255 95 113
-244.06 177.199 -2080 255 92 110
-240.213 177.426 -2083 255 92 111
-235.903 177.314 -2082 255 89 108
-231.376 177.031 -2079 255 85 104
-227.082 176.92 -2078 255 84 103
-222.793 176.809 -2077 255 82 101
-218.616 176.784 -2077 255 80 100
-214.647 176.929 -2079 254 78 98
-210.672 177.075 -2081 254 75 98
-206.79 177.306 -2084 254 75 98
-202.411 177.112 -2082 255 75 97
-198.518 177.344 -2085 255 74 96
-194.055 177.067 -2082 255 71 93
-190.153 177.3 -2085 254 72 95
-185.706 177.023 -2082 254 72 95
-181.62 177.087 -2083 255 73 96
-177.362 176.982 -2082 255 77 103
-173.276 177.046 -2083 255 78 104
-169.025 176.942 -2082 255 80 103
-165.016 177.093 -2084 255 82 105
-160.692 176.904 -2082 255 84 107
-156.679 177.056 -2084 255 87 108
-152.292 176.783 -2081 255 89 110
-148.132 176.766 -2081 255 89 111
-144.043 176.834 -2082 255 91 113
-140.085 177.073 -2085 255 93 116
-135.66 176.717 -2081 255 94 116
-131.695 176.957 -2084 255 94 116
-127.474 176.857 -2083 255 93 115
-123.257 176.758 -2082 255 92 108
-119.161 176.829 -2083 255 97 110
-115.006 176.816 -2083 255 93 112
-110.852 176.803 -2083 255 95 115
-106.852 177.045 -2086 254 96 119
-102.743 177.118 -2087 252 96 119
-98.5834 177.106 -2087 253 99 122
-94.5151 177.265 -2089 251 95 120
-90.3964 177.339 -2090 252 95 120
-86.357 177.584 -2093 252 91 114
-82.2278 177.659 -2094 253 86 107
-78.1698 177.904 -2097 253 89 110
-74.171 178.32 -2102 253 85 105
-70.1863 178.821 -2108 255 89 108
-66.0217 178.898 -2109 255 90 109
-61.9709 179.314 -2114 255 91 110
-57.8733 179.647 -2118 255 88 107
-53.8618 180.319 -2126 255 83 103
-49.6552 180.398 -2127 255 78 98
-45.6588 181.326 -2138 253 75 95
-41.4446 181.49 -2140 252 70 90
-37.2402 181.74 -2143 252 70 90
-32.9779 181.736 -2143 250 68 88
-28.7562 181.987 -2146 248 65 86
-24.5112 182.154 -2148 247 64 86
-20.2869 182.575 -2153 246 64 85
-16.0279 182.828 -2156 245 64 85
-11.7627 183.165 -2160 245 65 85
-7.48138 183.503 -2164 244 66 85
-3.1815 183.672 -2166 247 69 88
1.1263 183.842 -2168 244 66 85
5.43454 183.757 -2167 238 58 78
9.76583 184.182 -2172 231 51 71
14.1044 184.438 -2175 231 50 70
18.4547 184.694 -2178 243 61 82
22.8276 185.036 -2182 254 78 98
27.2041 185.293 -2185 255 85 106
31.5205 185.127 -2183 255 77 98
35.8953 185.3 -2185 248 67 88
40.3332 185.729 -2190 241 59 80
44.6893 185.733 -2190 237 55 76
49.1133 185.993 -2193 234 51 72
53.4518 185.914 -2192 234 50 71
57.8658 186.09 -2194 230 46 68
62.1748 185.928 -2192 232 45 68
66.6587 186.274 -2196 238 50 73
71.0294 186.282 -2196 240 53 75
75.504 186.545 -2199 244 56 79
79.9545 186.723 -2201 249 61 84
84.337 186.733 -2201 253 63 86
88.6801 186.658 -2200 251 62 85
93.1466 186.838 -2202 247 62 83
97.4891 186.764 -2201 247 62 82
101.967 186.945 -2203 243 58 77
106.695 187.551 -2210 247 62 88
111.603 188.412 -2220 251 67 90
116.291 188.85 -2225 239 57 75
-530.623 183.034 -2167 240 71 87
-525.324 182.72 -2164 241 65 83
-520.764 182.659 -2164 241 63 82
-516.924 182.852 -2167 240 61 81
-513.076 183.046 -2170 238 59 79
-508.517 182.986 -2170 235 55 75
-504.427 183.096 -2172 237 53 74
-499.642 182.954 -2171 238 54 74
-494.865 182.813 -2170 238 55 75
-489.872 182.587 -2168 234 53 74
-484.891 182.363 -2166 232 52 72
-479.256 181.886 -2161 233 54 74
-474.526 181.747 -2160 236 56 76
-470.022 181.693 -2160 236 56 76
-465.737 181.723 -2161 233 54 74
-461.879 181.922 -2164 230 51 70
-457.801 182.037 -2166 230 50 70
-453.927 182.237 -2169 231 52 72
-449.01 182.017 -2167 232 54 73
-444.514 181.966 -2167 235 54 74
-439.21 181.579 -2163 236 55 75
-434.931 181.613 -2164 238 57 78
-429.857 181.312 -2161 238 56 76
-424.995 181.095 -2159 239 57 77
-420.145 180.879 -2157 242 57 79
-415.499 180.748 -2156 240 56 78
-411.243 180.784 -2157 240 56 78
-406.042 180.402 -2153 241 59 80
-401.422 180.273 -2152 241 59 80
-396.624 180.06 -2150 237 60 80
-391.473 179.68 -2146 238 60 80
-386.522 179.384 -2143 240 62 82
-381.587 179.089 -2140 241 62 84
-376.491 178.712 -2136 238 59 81
-371.24 178.251 -2131 235 56 77
-365.841 177.707 -2125 233 55 75
-360.809 177.331 -2121 236 58 78
-355.629 176.872 -2116 241 68 87
-351.303 176.832 -2116 251 79 99
-346.323 176.459 -2112 255 92 113
-341.201 176.002 -2107 255 102 124
-336.102 175.546 -2102 255 101 123
-331.026 175.09 -2097 255 102 123
-326.752 175.053 -2097 255 95 117
-321.559 174.516 -2091 255 90 113
-317.303 174.48 -2091 255 88 112
-312.6 174.194 -2088 255 86 111
-308.208 174.075 -2087 255 86 110
-303.531 173.79 -2084 255 89 113
-299.299 173.756 -2084 255 92 117
-294.645 173.473 -2081 255 97 120
-290.285 173.356 -2080 255 97 120
-286.207 173.407 -2081 255 99 120
-281.178 172.875 -2075 255 100 121
-276.443 172.51 -2071 255 100 121
-271.726 172.146 -2067 255 97 119
-267.675 172.199 -2068 255 96 118
-262.985 171.836 -2064 255 98 119
-259.567 172.306 -2070 255 97 118
-255.88 172.61 -2074 255 97 118
-251.815 172.665 -2075 255 95 113
-247.868 172.803 -2077 255 95 113
-244.032 173.025 -2080 255 91 109
-239.955 173.081 -2081 255 88 107
-235.423 172.805 -2078 255 86 105
-231.238 172.779 -2078 255 86 104
-226.947 172.67 -2077 255 87 105
-222.768 172.645 -2077 255 87 106
-218.381 172.454 -2075 255 86 106
-214.623 172.762 -2079 255 83 103
-210.547 172.821 -2080 255 81 103
-206.568 172.964 -2082 255 81 103
-202.194 172.775 -2080 255 81 103
-198.305 173.001 -2083 255 81 103
-193.847 172.73 -2080 255 80 102
-190.041 173.041 -2084 255 78 101
-185.774 172.937 -2083 255 78 101
-181.6 172.916 -2083 255 79 102
-177.257 172.73 -2081 255 78 103
-173.173 172.794 -2082 255 78 103
-168.924 172.691 -2081 255 79 103
-164.839 172.756 -2082 255 79 103
-160.52 172.572 -2080 255 81 105
-156.285 172.471 -2079 255 84 107
-152.348 172.703 -2082 255 86 109
-148.258 172.769 -2083 255 87 109
-143.888 172.504 -2080 255 89 112
-140.137 172.985 -2086 255 94 117
-135.971 172.97 -2086 255 95 117
-131.806 172.955 -2086 255 92 114
-127.643 172.941 -2086 255 91 113
-123.48 172.926 -2086 255 92 111
-119.205 172.747 -2084 255 94 112
-115.158 172.9 -2086 255 93 113
-111.052 172.97 -2087 255 93 115
-106.84 172.875 -2086 255 93 116
-102.731 172.946 -2087 255 90 113
-98.525 172.852 -2086 255 90 113
-94.3687 172.841 -2086 255 92 113
-90.2133 172.831 -2086 255 90 112
-86.1822 173.07 -2089 255 87 109
-82.0222 173.061 -2089 255 85 106
-78.0864 173.549 -2095 255 86 106
-74.0922 173.954 -2100 255 89 109
-70.0453 174.278 -2104 255 89 108
-65.9517 174.519 -2107 255 88 107
-61.8761 174.843 -2111 255 84 104
-57.7576 175.085 -2114 255 82 102
-53.6783 175.492 -2119 254 78 98
-49.603 175.984 -2125 252 75 95
-45.5682 176.724 -2134 251 73 93
-41.3625 176.884 -2136 253 71 91
-37.2359 177.46 -2143 252 70 90
-32.9896 177.539 -2144 250 68 88
-28.8065 178.032 -2150 248 66 87
-24.5199 177.946 -2149 248 66 87
-20.2564 178.027 -2150 248 66 87
-16.0335 178.604 -2157 246 65 86
-11.7612 178.851 -2160 245 65 85
-7.47364 179.016 -2162 243 65 84
-3.17969 179.264 -2165 247 69 88
1.12565 179.429 -2167 242 64 83
5.43393 179.429 -2167 236 56 76
9.76473 179.844 -2172 232 52 72
14.0898 179.928 -2173 242 60 80
18.4357 180.179 -2176 252 74 95
22.8145 180.595 -2181 255 82 103
27.1886 180.846 -2184 255 80 101
31.5459 180.932 -2185 252 70 90
35.8912 180.936 -2185 237 58 79
40.4024 181.686 -2194 229 48 69
44.6639 181.276 -2189 228 46 67
49.1299 181.696 -2194 230 46 67
53.4211 181.453 -2191 230 46 67
57.8329 181.625 -2193 229 45 67
62.2529 181.797 -2195 235 49 71
66.8027 182.301 -2201 242 55 77
71.0862 182.06 -2198 243 57 79
75.4953 182.151 -2199 246 59 81
79.873 182.16 -2199 251 63 86
84.2893 182.252 -2200 252 63 86
88.5893 182.096 -2198 248 59 82
93.0516 182.272 -2200 243 59 80
97.478 182.365 -2201 244 59 79
