ply
format ascii 1.0
comment Created by Open3D
element vertex 1437
property double x
property double y
property double z
property uchar red
property uchar green
property uchar blue
end_header
-53.7455 276.728 -1353 132 77 66
-51.1708 277.532 -1357 136 81 70
-48.4733 277.722 -1358 133 81 69
-45.6711 277.3 -1356 128 77 65
-42.9723 277.493 -1357 118 75 63
-40.2106 277.276 -1356 114 71 58
-37.5085 277.47 -1357 114 70 57
-34.8283 277.869 -1359 115 70 60
-32.2112 278.882 -1364 118 72 62
-29.4446 278.669 -1363 124 78 67
-26.7411 279.07 -1365 130 80 68
-24.0298 279.472 -1367 136 84 71
-21.2794 279.466 -1367 135 92 76
-18.5428 279.665 -1368 148 102 86
-15.8254 280.273 -1371 164 113 97
-13.1246 281.496 -1377 180 130 117
-10.3923 282.514 -1382 208 160 148
-7.65641 284.147 -1390 195 162 151
-4.89198 285.985 -1399 90 70 61
-183.066 421.189 -2076 40 32 38
-178.86 421.139 -2076 50 36 42
-174.991 421.902 -2080 71 47 54
-170.451 421.043 -2076 123 57 50
-166.168 420.793 -2075 145 71 61
-161.891 420.545 -2074 158 82 66
-157.543 420.095 -2072 159 78 60
-153.575 420.661 -2075 174 89 69
-149.452 420.822 -2076 195 117 95
-145.326 420.984 -2077 214 137 116
-82.8712 271.302 -1339 134 78 58
-80.4679 272.293 -1344 134 80 60
-77.8715 272.676 -1346 135 85 64
-75.2676 273.06 -1348 130 79 59
-72.7103 273.647 -1351 129 78 59
-70.1413 274.235 -1354 132 81 64
-67.3617 274.014 -1353 137 87 71
-64.9211 275.211 -1359 135 83 70
-62.1366 274.991 -1358 131 79 66
-59.4003 274.974 -1358 130 78 65
-56.7062 275.16 -1359 127 77 66
-54.0881 275.752 -1362 127 77 66
-51.3828 275.94 -1363 128 78 65
-48.7454 276.534 -1366 124 76 62
-45.9615 276.318 -1365 120 72 58
-43.2453 276.509 -1366 111 69 56
-40.5256 276.699 -1367 109 67 53
-37.8021 276.891 -1368 109 67 52
-35.0236 276.679 -1367 112 67 57
-32.3912 277.681 -1372 113 68 58
-29.6309 277.673 -1372 116 70 60
-26.91 278.07 -1374 118 70 58
-24.1462 278.063 -1374 121 72 60
-21.4292 278.664 -1377 124 81 66
-18.6596 278.658 -1377 140 93 78
-15.9018 278.856 -1378 156 104 88
-13.1591 279.459 -1381 185 134 119
-10.3969 279.86 -1383 213 163 149
-7.63239 280.465 -1386 205 167 156
-4.85575 281.07 -1389 107 80 71
-2.08046 283.498 -1401 137 120 113
-183.457 417.894 -2081 48 40 44
-179.241 417.845 -2081 56 40 45
-175.447 418.8 -2086 73 46 51
-170.896 417.95 -2082 123 53 46
-166.603 417.703 -2081 142 66 55
-162.393 417.658 -2081 153 78 61
-157.956 417.012 -2078 162 80 62
-153.829 417.17 -2079 165 78 58
-149.483 416.727 -2077 166 80 55
-145.356 416.887 -2078 201 117 93
-141.159 416.848 -2078 209 131 110
-83.6527 271.14 -1352 132 78 58
-81.1042 271.719 -1355 126 73 53
-78.255 271.296 -1353 121 75 53
-75.5261 271.276 -1353 119 72 52
-72.9593 271.857 -1356 119 71 52
-70.2775 272.038 -1357 124 77 61
-67.6419 272.42 -1359 133 86 69
-65.1421 273.404 -1364 134 84 70
-62.5312 273.988 -1367 129 80 67
-59.8213 274.171 -1368 130 80 68
-57.0661 274.156 -1368 124 79 68
-54.3908 274.541 -1370 119 74 62
-51.6702 274.727 -1371 116 71 58
-48.9817 275.114 -1373 115 69 55
-46.2182 275.101 -1373 115 69 54
-43.5184 275.49 -1375 107 66 52
-40.7516 275.478 -1375 104 64 48
-37.9851 275.468 -1375 104 64 47
-35.2959 276.059 -1378 108 63 53
-32.4531 275.448 -1375 107 62 52
-29.7307 275.841 -1377 110 63 53
-26.981 276.033 -1378 112 65 54
-24.2274 276.226 -1379 118 71 61
-21.4699 276.421 -1380 126 81 68
-18.7087 276.615 -1381 145 97 83
-15.9436 276.811 -1382 171 118 102
-13.165 276.807 -1382 211 158 142
-10.3942 277.004 -1383 228 176 161
-7.61373 277.002 -1383 210 167 159
-4.83004 276.8 -1382 194 157 152
-2.05172 276.799 -1382 204 173 171
0.721846 274.996 -1373 197 179 183
3.46668 273.795 -1367 192 178 181
6.18303 272.394 -1360 188 183 186
8.89079 271.595 -1356 188 183 184
11.557 270.196 -1349 196 190 191
14.2375 269.599 -1346 201 197 200
16.9939 270.404 -1350 195 194 200
19.8398 272.212 -1359 182 185 193
-182.525 411.601 -2071 54 45 49
-178.848 412.744 -2077 58 42 46
-174.895 413.292 -2080 72 45 49
-170.521 412.848 -2078 119 53 49
-166.397 413.001 -2079 139 67 60
-162.427 413.553 -2082 152 76 59
-158.065 413.112 -2080 165 81 63
-154.083 413.666 -2083 169 80 61
-149.874 413.625 -2083 161 75 51
-145.806 413.982 -2085 178 93 70
-141.731 414.34 -2087 176 98 78
-84.4341 270.927 -1365 133 82 60
-81.7404 271.103 -1366 121 71 50
-78.7541 270.287 -1362 119 75 53
-75.8963 269.87 -1360 117 73 53
-73.1547 269.849 -1360 118 73 55
-70.569 270.425 -1363 122 79 63
-68.0216 271.2 -1367 130 85 70
-65.5064 272.174 -1372 134 86 71
-62.9259 272.95 -1376 130 83 70
-60.3734 273.925 -1381 128 82 69
-57.5511 273.711 -1380 120 78 66
-54.8523 274.093 -1382 113 72 59
-52.1837 274.673 -1385 111 70 56
-49.3607 274.461 -1384 111 69 55
-46.5759 274.448 -1384 111 69 54
-43.7597 274.238 -1383 108 67 53
-41.0665 274.821 -1386 105 64 50
-38.2234 274.414 -1384 104 63 48
-35.4143 274.206 -1383 107 62 52
-32.6331 274.197 -1383 107 62 52
-29.8091 273.792 -1381 113 66 56
-27.0324 273.784 -1381 118 73 63
-24.2911 274.174 -1383 127 83 73
-21.5264 274.366 -1384 137 91 80
-18.7443 274.36 -1384 157 108 95
-15.9739 274.554 -1385 193 140 124
-13.1996 274.748 -1386 229 173 157
-10.4064 274.547 -1385 229 174 158
-7.61178 274.148 -1383 216 167 154
-4.82165 273.551 -1380 224 183 171
-2.04082 272.559 -1375 251 221 210
0.716222 270.181 -1363 254 230 224
3.44549 269.388 -1359 242 216 210
6.15853 268.597 -1355 235 209 205
8.85572 267.806 -1351 242 208 205
11.5196 266.619 -1345 241 203 200
14.2017 266.226 -1343 237 195 191
16.939 266.825 -1346 236 195 192
19.63 266.632 -1345 236 197 194
-183.181 408.892 -2079 47 35 40
-179.058 409.041 -2080 54 37 41
-174.932 409.19 -2081 71 47 50
-170.558 408.75 -2079 115 56 53
-166.352 408.705 -2079 136 72 66
-162.383 409.251 -2082 158 80 64
-158.099 409.011 -2081 172 88 70
-154.115 409.559 -2084 179 89 70
-149.906 409.519 -2084 174 91 68
-145.907 410.068 -2087 176 93 71
-142.101 411.209 -2093 169 91 73
-84.8443 269.483 -1372 141 95 71
-82.0175 269.265 -1371 128 81 58
-79.1376 268.85 -1369 124 79 57
-76.1549 268.044 -1365 121 76 56
-73.619 268.81 -1369 121 76 58
-71.0159 269.379 -1372 122 79 63
-68.3019 269.557 -1373 127 83 68
-65.8707 270.913 -1380 129 84 70
-63.3662 272.074 -1386 126 82 67
-60.7943 273.039 -1391 124 80 66
-57.9526 272.827 -1390 116 75 62
-55.3138 273.597 -1394 111 71 57
-52.4711 273.386 -1393 108 70 55
-49.6328 273.176 -1392 109 69 55
-46.8325 273.163 -1392 107 67 53
-44.001 272.955 -1391 106 65 51
-41.2629 273.336 -1393 104 63 49
-38.3512 272.541 -1389 105 63 49
-35.584 272.727 -1390 108 63 53
-32.7187 272.129 -1387 112 66 56
-29.9089 271.925 -1386 117 71 61
-27.0643 271.329 -1383 122 78 69
-24.3021 271.518 -1384 132 88 81
-21.5362 271.708 -1385 143 95 86
-18.7664 271.899 -1386 161 110 99
-15.9811 271.894 -1386 197 142 128
-13.2056 272.086 -1387 220 162 145
-10.4111 271.887 -1386 216 158 140
-7.60418 271.1 -1382 206 152 133
-4.80996 270.118 -1377 202 154 137
-2.03735 269.332 -1373 243 204 187
0.716025 267.37 -1363 252 216 204
3.44713 266.782 -1360 233 194 183
6.16603 266.195 -1357 212 168 159
8.85327 265.02 -1351 201 148 140
11.525 264.042 -1346 189 133 126
14.1768 263.065 -1341 186 125 117
16.8465 262.677 -1339 196 133 124
19.5956 263.466 -1343 216 153 142
22.4606 265.434 -1353 224 179 176
-183.397 405.181 -2082 39 27 32
-179.268 405.328 -2083 45 28 32
-174.97 405.086 -2082 64 42 43
-170.676 404.846 -2081 113 57 52
-166.388 404.607 -2080 136 73 66
-162.418 405.147 -2083 158 82 65
-158.208 405.104 -2083 175 94 76
-154.296 405.841 -2087 186 103 84
-150.441 406.773 -2092 186 105 82
-146.707 408.094 -2099 183 103 81
-143.217 410.195 -2110 172 97 77
-85.44 268.597 -1382 141 98 73
-82.4144 267.797 -1378 125 82 58
-79.5212 267.387 -1376 124 78 56
-76.4692 266.395 -1371 124 77 58
-73.7607 266.569 -1372 125 78 61
-71.3593 267.91 -1379 122 79 63
-68.781 268.669 -1383 123 80 65
-66.3304 270.011 -1390 121 78 64
-63.8521 271.353 -1397 116 73 58
-61.1714 271.919 -1400 116 73 57
-58.354 271.904 -1400 113 72 58
-55.6164 272.277 -1402 109 69 55
-52.9467 273.039 -1406 106 68 53
-49.976 272.249 -1402 106 68 53
-47.1564 272.236 -1402 106 67 53
-44.2424 271.642 -1399 105 63 50
-41.3999 271.436 -1398 106 64 51
-38.5343 271.037 -1396 109 66 52
-35.7537 271.222 -1397 111 66 56
-32.828 270.242 -1392 114 69 59
-30.0089 270.04 -1391 118 73 62
-27.1745 269.644 -1389 123 80 72
-24.3484 269.249 -1387 130 89 82
-21.5615 269.243 -1387 143 94 87
-18.7884 269.431 -1388 159 108 98
-16 269.427 -1388 188 133 120
-13.2211 269.617 -1389 196 137 119
-10.4158 269.226 -1387 197 137 118
-7.61328 268.641 -1384 188 133 107
-4.79828 266.698 -1374 172 116 92
-2.0324 265.921 -1370 197 139 118
0.71583 264.562 -1363 208 152 138
3.44607 263.981 -1360 187 131 117
6.15975 263.205 -1356 170 110 98
8.85086 262.237 -1351 163 100 86
11.5305 261.463 -1347 160 95 80
14.1836 260.496 -1342 168 101 91
16.8545 260.112 -1340 183 114 101
19.5758 260.505 -1342 200 129 113
22.3884 261.869 -1349 208 152 138
-183.26 400.691 -2081 34 22 28
-179.823 402.376 -2090 43 26 30
-175.343 401.752 -2087 63 41 41
-170.877 401.129 -2084 113 58 52
-166.424 400.508 -2081 137 77 69
-162.453 401.042 -2084 159 86 69
-158.015 400.423 -2081 176 100 82
-154.329 401.729 -2088 191 113 94
-150.617 403.036 -2095 192 115 91
-147.507 406.074 -2111 194 119 95
-86.4065 268.825 -1398 147 106 80
-82.9906 266.88 -1388 125 82 58
-79.8469 265.705 -1382 123 77 56
-77.0068 265.492 -1381 125 78 59
-74.3863 266.049 -1384 128 80 63
-71.9096 267.183 -1390 127 82 67
-69.2601 267.741 -1393 125 80 65
-66.6946 268.685 -1398 121 78 65
-64.1552 269.82 -1404 117 74 60
-61.5485 270.765 -1409 113 70 55
-58.6304 270.365 -1407 112 70 56
-55.9588 271.119 -1411 108 67 53
-53.1586 271.296 -1412 107 66 52
-50.2481 270.899 -1410 108 68 55
-47.3794 270.694 -1409 104 64 51
-44.3888 269.721 -1404 105 62 50
-41.4779 269.134 -1401 109 66 53
-38.607 268.739 -1399 111 69 55
-35.7956 268.729 -1399 112 68 58
-32.9137 268.144 -1396 113 69 59
-30.0873 267.944 -1395 118 73 63
-27.226 267.36 -1392 120 76 70
-24.3771 266.777 -1389 124 81 76
-21.587 266.771 -1389 136 87 80
-18.797 266.766 -1389 150 99 90
-16.0073 266.762 -1389 167 114 100
-13.2177 266.758 -1389 158 98 81
-10.4131 266.371 -1387 173 112 94
-7.59472 265.216 -1381 163 107 83
-4.80391 264.254 -1376 154 96 74
-2.03322 263.293 -1371 149 89 70
0.716687 262.141 -1365 152 98 85
3.44773 261.373 -1361 146 91 79
6.17182 260.99 -1359 145 89 78
8.86173 259.84 -1353 150 91 76
11.5103 258.306 -1345 154 93 77
14.1693 257.541 -1341 158 92 81
16.8375 257.161 -1339 170 101 88
19.5269 257.166 -1339 187 115 99
22.3161 258.324 -1345 200 138 124
-179.863 398.257 -2091 46 31 34
-175.382 397.639 -2088 64 44 42
-170.915 397.023 -2085 109 54 47
-166.621 396.789 -2084 136 76 67
-162.644 397.317 -2087 161 90 74
-158.277 396.895 -2085 177 106 88
-154.954 399.139 -2097 188 116 97
-152.087 402.715 -2116 194 121 98
-87.5581 269.56 -1417 176 134 109
-83.9255 267.064 -1404 133 91 66
-80.4615 264.951 -1393 122 77 58
-77.6 264.74 -1392 125 78 60
-74.7432 264.53 -1391 127 79 63
-72.1496 265.272 -1395 126 79 64
-69.6895 266.585 -1402 126 80 66
-66.9635 266.947 -1404 122 77 66
-64.2756 267.501 -1407 121 75 63
-61.6635 268.435 -1412 119 73 61
-58.8651 268.61 -1413 115 71 58
-56.1425 269.165 -1416 110 66 53
-53.4084 269.721 -1419 109 66 52
-50.4488 269.138 -1416 109 67 55
-47.5017 268.555 -1413 106 64 52
-44.5038 267.593 -1408 109 66 54
-41.6152 267.201 -1406 111 69 56
-38.6797 266.431 -1402 112 71 57
-35.8374 266.231 -1401 116 73 62
-33.023 266.222 -1401 117 73 63
-30.1658 265.834 -1399 119 74 64
-27.2776 265.067 -1395 119 74 68
-24.441 264.68 -1393 122 78 73
-21.6435 264.674 -1393 129 80 73
-18.8328 264.479 -1392 142 92 82
-16.0147 264.094 -1390 158 105 91
-13.2238 264.091 -1390 152 93 76
-10.418 263.708 -1388 158 98 80
-7.59818 262.565 -1382 150 93 73
-4.80971 261.804 -1378 141 83 65
-2.04014 261.423 -1376 137 79 63
0.71912 260.283 -1370 129 79 67
3.45953 259.523 -1366 126 77 65
6.17919 258.575 -1361 131 82 72
8.88554 257.817 -1357 142 87 74
11.5417 256.299 -1349 147 91 77
14.2184 255.733 -1346 151 88 78
16.8834 255.167 -1343 157 91 79
19.6238 255.742 -1346 173 102 88
22.4097 256.697 -1351 177 117 105
-181.45 397.527 -2110 48 31 34
-176.596 396.163 -2103 64 42 40
-171.854 394.988 -2097 107 51 44
-167.457 394.568 -2095 135 75 66
-163.304 394.713 -2096 163 93 76
-159.147 394.86 -2097 178 110 91
-156.318 398.398 -2116 187 120 99
-92.7512 273.629 -1454 206 169 142
-89.2652 271.912 -1445 196 154 129
-85.0992 267.938 -1424 153 111 87
-81.307 264.906 -1408 124 81 62
-77.9702 263.193 -1399 121 75 59
-75.2611 263.55 -1401 127 80 65
-72.7515 264.659 -1407 127 80 65
-69.9201 264.641 -1407 125 79 65
-67.28 265.376 -1411 120 75 64
-64.5331 265.735 -1413 121 75 63
-61.8223 266.283 -1416 120 73 62
-58.975 266.268 -1416 116 70 58
-56.247 266.817 -1419 112 66 54
-53.4323 266.991 -1420 109 63 50
-50.5783 266.978 -1420 106 64 50
-47.4894 265.649 -1413 105 63 49
-44.5556 265.074 -1410 109 67 55
-41.6637 264.687 -1408 111 70 57
-38.6974 263.736 -1403 111 70 56
-35.8282 263.351 -1401 115 71 61
-32.991 263.154 -1400 118 74 64
-30.1365 262.77 -1398 120 75 65
-27.2903 262.387 -1396 120 75 67
-24.4522 262.005 -1394 120 76 69
-21.6535 261.999 -1394 124 78 70
-18.8415 261.806 -1393 135 87 77
-16.0221 261.425 -1391 139 89 76
-13.2299 261.421 -1391 137 81 65
-10.4227 261.043 -1389 139 82 65
-7.60732 260.101 -1384 133 80 63
-4.81902 259.535 -1381 125 76 59
-2.04262 258.971 -1378 120 75 59
0.721554 258.407 -1375 114 75 63
3.47132 257.656 -1371 115 74 64
6.20036 256.717 -1366 119 76 68
8.91592 255.967 -1362 129 81 73
11.5814 254.466 -1354 137 87 80
14.2465 253.53 -1349 143 87 78
16.9294 253.158 -1347 144 87 77
19.7354 254.478 -1354 151 92 80
-181.662 393.742 -2113 50 31 33
-176.971 392.764 -2108 70 45 42
-172.548 392.347 -2106 112 55 47
-168.453 392.677 -2108 138 78 67
-164.508 393.38 -2112 164 96 77
-160.7 394.456 -2118 179 116 93
-97.7629 276.619 -1486 204 167 138
-94.0031 274.361 -1474 199 161 134
-90.2925 272.104 -1462 195 154 129
-86.3919 269.104 -1446 173 131 108
-82.6142 266.291 -1431 144 103 84
-78.8976 263.48 -1416 127 85 67
-75.9402 263.088 -1414 121 77 62
-73.1982 263.441 -1416 120 76 61
-70.2501 263.051 -1414 119 76 62
-67.3583 262.848 -1413 117 73 61
-64.6993 263.575 -1417 119 73 61
-61.9375 263.931 -1419 118 71 60
-59.0849 263.916 -1419 114 68 57
-56.3913 264.645 -1423 111 65 53
-53.5316 264.631 -1423 109 62 49
-50.5298 263.874 -1419 107 63 50
-47.5782 263.304 -1416 109 66 52
-44.6074 262.549 -1412 110 69 57
-41.6235 261.608 -1407 112 71 58
-38.7427 261.226 -1405 112 71 57
-35.8191 260.473 -1401 116 72 62
-33.0062 260.464 -1401 120 76 66
-30.1935 260.456 -1401 122 77 67
-27.3224 259.891 -1398 124 79 70
-24.4811 259.513 -1396 122 78 69
-21.6791 259.507 -1396 120 76 67
-18.8368 258.945 -1393 128 82 72
-16.0296 258.754 -1392 130 82 70
-13.2266 258.565 -1391 132 79 64
-10.4201 258.19 -1389 126 72 57
-7.61631 257.63 -1386 121 76 59
-4.82816 257.257 -1384 115 74 58
-2.05399 257.628 -1386 111 72 56
0.725562 257.07 -1383 111 75 66
3.49055 256.327 -1379 112 76 68
6.24422 255.77 -1376 114 76 72
8.99882 255.586 -1375 122 81 80
11.6725 253.73 -1365 115 73 74
14.3801 253.176 -1362 123 81 79
17.1008 252.994 -1361 121 82 79
-182.046 390.315 -2118 57 34 35
-177.766 390.27 -2118 82 50 45
-173.241 389.673 -2115 117 59 48
-169.769 391.473 -2125 142 82 70
-166.647 394.194 -2140 167 100 80
-101.275 275.063 -1494 194 159 127
-98.1329 274.669 -1492 191 154 125
-94.4896 272.804 -1482 191 152 125
-91.0107 271.309 -1474 184 143 120
-87.2661 268.894 -1461 178 138 116
-83.5746 266.48 -1448 160 121 102
-79.9918 264.251 -1436 140 101 83
-76.7802 263.127 -1430 123 83 66
-73.8517 262.925 -1429 114 73 59
-70.9776 262.906 -1429 116 74 61
-67.9609 262.337 -1426 114 73 61
-65.1396 262.505 -1427 118 73 61
-62.402 263.04 -1430 118 71 60
-59.3198 262.106 -1425 114 69 58
-56.6545 263.011 -1430 112 67 55
-53.7438 262.813 -1429 111 66 53
-50.7308 262.064 -1425 110 67 53
-47.6335 260.765 -1418 112 69 55
-44.691 260.202 -1415 111 70 58
-41.6426 258.904 -1408 112 71 58
-38.7606 258.526 -1406 113 72 58
-35.8613 257.965 -1403 117 74 63
-33.045 257.956 -1403 120 77 66
-30.1644 257.397 -1400 123 78 68
-27.3351 257.206 -1399 125 80 70
-24.4925 256.832 -1397 127 82 72
-21.6892 256.826 -1397 123 82 71
-18.859 256.453 -1395 125 81 70
-16.0371 256.081 -1393 136 89 78
-13.2423 256.078 -1393 146 95 82
-10.4476 256.075 -1393 134 84 70
-7.64197 255.705 -1391 113 75 58
-4.84445 255.336 -1389 110 72 58
-2.0624 255.886 -1392 108 71 58
0.730619 256.07 -1393 110 73 69
3.52766 256.254 -1394 118 82 79
6.34234 256.991 -1398 138 105 104
-182.172 386.325 -2120 63 33 29
-178.728 388.103 -2130 93 55 46
-175.082 389.516 -2138 127 69 55
-172.922 394.392 -2165 146 87 71
-108.421 274.959 -1510 204 169 136
-104.819 273.476 -1502 184 150 117
-101.724 273.268 -1501 185 150 118
-98.4373 272.515 -1497 187 149 119
-94.8485 270.853 -1488 184 144 117
-91.2349 269.01 -1478 179 140 116
-87.7819 267.532 -1470 172 133 110
-84.304 265.873 -1461 162 124 103
-80.8631 264.215 -1452 149 111 93
-77.7274 263.467 -1448 129 91 74
-74.6601 262.902 -1445 114 76 62
-71.4564 261.793 -1439 110 73 59
-68.4205 261.23 -1436 108 71 58
-65.6711 261.759 -1439 110 66 54
-62.7355 261.561 -1438 112 66 54
-59.7213 261 -1435 113 69 58
-56.8781 261.168 -1436 115 71 59
-53.9561 260.972 -1435 120 77 63
-50.8605 259.868 -1429 125 83 70
-47.6888 258.219 -1420 123 81 68
-44.7431 257.663 -1417 118 76 65
-41.7802 256.925 -1413 113 72 60
-38.8061 256.005 -1408 114 73 60
-35.8779 255.269 -1404 119 76 65
-33.1075 255.624 -1406 119 75 65
-30.2216 255.071 -1403 122 77 67
-27.3674 254.7 -1401 124 79 68
-24.5215 254.33 -1399 126 80 68
-21.7149 254.324 -1399 126 86 75
-18.8679 253.774 -1396 127 85 74
-16.0791 253.952 -1397 137 90 79
-13.277 253.948 -1397 145 97 85
-10.4824 254.127 -1398 141 94 81
-7.67844 254.125 -1398 123 87 74
-4.88167 254.487 -1400 112 81 70
-2.08118 255.395 -1405 108 81 70
-186.587 382.375 -2122 57 29 26
-182.814 383.411 -2128 75 37 29
-114.332 271.554 -1508 222 184 144
-111.66 272.426 -1513 206 169 128
-108.753 272.759 -1515 186 154 122
-105.282 271.653 -1509 178 146 115
-102.038 271.088 -1506 181 144 113
-98.7419 270.343 -1502 184 144 115
-95.2075 268.88 -1494 181 139 111
-91.6445 267.237 -1485 177 140 114
-88.2976 266.135 -1479 165 128 102
-84.9179 264.855 -1472 156 119 95
-81.567 263.575 -1465 141 104 85
-78.5132 263.195 -1463 124 87 70
-75.3649 262.457 -1459 113 79 65
-72.134 261.36 -1453 110 75 61
-69.2135 261.342 -1453 106 72 58
-66.385 261.686 -1455 111 69 56
-63.418 261.49 -1454 113 69 56
-60.3308 260.755 -1450 114 72 60
-57.4581 260.921 -1451 117 75 63
-54.2436 259.469 -1443 133 93 79
-51.026 257.838 -1434 152 110 98
-47.7442 255.668 -1422 149 107 95
-44.7637 254.938 -1418 132 88 79
-41.7404 253.848 -1412 116 74 64
-38.7966 253.12 -1408 112 71 60
-35.8692 252.391 -1404 117 77 67
-33.1229 252.922 -1407 117 77 67
-30.2572 252.555 -1405 118 78 69
-27.3607 251.829 -1401 120 79 68
-24.498 251.283 -1398 116 75 63
-21.6941 251.278 -1398 118 82 71
-18.8768 251.093 -1397 122 84 74
-16.0982 251.448 -1399 129 87 77
-13.3213 251.984 -1402 127 87 76
-10.5399 252.7 -1406 124 85 75
-7.74254 253.417 -1410 115 84 76
-191.638 379.667 -2131 54 34 30
-187.156 379.265 -2129 80 43 33
-115.668 271.664 -1526 200 161 126
-112.444 271.28 -1524 190 151 117
-109.445 271.431 -1525 181 145 116
-105.744 269.804 -1516 177 141 113
-102.352 268.889 -1511 179 141 113
-99.0465 268.152 -1507 180 141 114
-95.3119 266.172 -1496 177 136 110
-91.684 264.37 -1486 164 132 107
-88.4552 263.637 -1482 157 124 101
-85.2433 262.904 -1478 147 111 91
-82.1038 262.35 -1475 135 97 79
-78.9771 261.797 -1472 124 86 69
-75.9663 261.601 -1471 117 78 64
-72.8609 261.049 -1468 111 73 59
-69.8635 260.854 -1467 109 72 58
-66.9618 261.016 -1468 111 71 58
-64.1003 261.355 -1470 114 73 60
-60.9401 260.451 -1465 118 81 70
-57.9984 260.437 -1465 127 91 79
-54.6062 258.29 -1453 146 110 98
-38.98 251.48 -1415 83 41 35
-36.0393 250.76 -1411 83 50 44
-33.2326 250.929 -1412 98 66 60
-30.293 250.033 -1407 99 71 66
-27.4322 249.671 -1405 101 73 65
-24.5271 248.776 -1400 103 76 67
-21.7043 248.593 -1399 102 75 66
-18.8993 248.588 -1399 106 79 71
-16.1519 249.472 -1404 111 83 76
-13.375 250.179 -1408 109 85 78
-10.6048 251.42 -1415 118 95 89
-197.554 378.511 -2149 64 39 32
-193.39 378.817 -2151 77 48 40
-188.693 378.067 -2147 101 56 40
-119.106 269.443 -1531 201 162 131
-116.02 269.415 -1531 189 149 120
-112.639 268.684 -1527 188 146 120
-109.275 267.953 -1523 182 142 116
-105.858 267.048 -1518 179 139 113
-102.598 266.495 -1515 178 138 113
-98.9569 264.888 -1506 175 135 110
-95.289 263.106 -1496 170 131 106
-91.847 261.853 -1489 154 126 103
-88.613 261.128 -1485 146 116 94
-85.3958 260.404 -1481 137 103 85
-82.4737 260.56 -1482 127 90 73
-79.4409 260.365 -1481 119 81 64
-76.5161 260.522 -1482 117 76 62
-73.2404 259.449 -1476 115 75 61
-70.418 259.959 -1479 114 76 61
-67.493 260.119 -1480 112 75 61
-64.5209 260.103 -1480 117 80 67
-61.3829 259.385 -1476 124 91 80
-58.3803 259.195 -1475 137 104 93
-36.0307 247.872 -1411 48 18 16
-33.2247 248.039 -1412 56 28 26
-30.2857 247.153 -1407 56 33 33
-27.4451 246.971 -1406 65 45 43
-24.5388 246.087 -1401 64 45 42
-21.7457 246.257 -1402 74 53 51
-18.9758 246.779 -1405 72 53 50
-16.2515 248.18 -1413 82 64 60
-203.635 377.459 -2168 63 47 44
-198.242 375.497 -2157 83 52 40
-194.423 376.495 -2163 100 64 50
-190.494 377.32 -2168 123 73 51
-119.7 267.697 -1539 190 150 120
-116.598 267.67 -1539 186 145 117
-113.349 267.295 -1537 184 142 116
-109.823 266.225 -1531 182 142 116
-106.391 265.33 -1526 181 141 115
-102.913 264.262 -1520 178 138 113
-99.2619 262.674 -1511 171 133 108
-95.4574 260.565 -1499 164 128 103
-92.2569 260.021 -1496 148 120 98
-88.8903 258.957 -1490 137 108 87
-85.7791 258.589 -1488 130 96 78
-82.8436 258.742 -1489 122 85 68
-79.7974 258.55 -1488 117 79 62
-76.756 258.357 -1487 114 76 61
-73.6695 257.992 -1485 115 76 61
-70.6394 257.801 -1484 114 76 61
-67.6594 257.785 -1484 113 78 64
-64.6799 257.77 -1484 119 85 71
-61.4931 256.886 -1479 132 100 89
-33.0991 244.284 -1407 44 20 22
-30.2355 243.929 -1405 42 26 31
-27.4582 244.269 -1407 41 28 31
-24.568 243.569 -1403 47 36 38
-204.996 375.597 -2183 80 57 54
-199.114 372.797 -2167 104 65 50
-195.456 374.127 -2175 126 84 67
-192.469 376.834 -2191 145 93 69
-126.368 265.635 -1545 209 165 136
-123.173 265.434 -1544 189 146 116
-119.983 265.234 -1543 183 141 114
-116.874 265.206 -1543 181 140 113
-113.618 264.835 -1541 181 139 114
-109.94 263.435 -1533 181 141 115
-106.715 263.066 -1531 177 137 112
-103.227 262.01 -1525 171 131 107
-99.5671 260.44 -1516 162 126 101
-95.817 258.528 -1505 156 122 98
-92.4819 257.647 -1500 143 114 93
-89.2869 257.111 -1497 131 101 81
-86.1624 256.747 -1495 124 89 71
-83.1023 256.555 -1494 119 82 64
-80.1541 256.708 -1495 117 79 62
-77.1509 256.69 -1495 115 77 62
-73.9995 256.157 -1492 115 77 62
-71.0511 256.312 -1493 116 78 63
-68.0082 256.124 -1492 116 83 68
-64.9699 255.937 -1491 124 92 77
-71.5146 365.872 -2132 148 105 94
-67.0501 364.826 -2126 130 87 78
-62.4329 362.752 -2114 109 68 58
-200.63 371.249 -2184 128 80 62
-197.297 373.243 -2196 146 98 78
-127.648 265.191 -1561 195 152 123
-124.261 264.653 -1558 184 141 113
-120.81 263.945 -1554 184 141 115
-117.301 263.068 -1549 180 138 113
-113.886 262.362 -1545 176 135 110
-110.202 260.978 -1537 177 137 112
-106.76 260.104 -1532 171 131 106
-103.203 258.891 -1525 165 125 102
-99.6753 257.68 -1518 156 121 97
-96.1131 256.299 -1510 149 117 92
-92.892 255.768 -1507 137 107 86
-89.6241 255.069 -1503 126 94 74
-86.3729 254.37 -1499 121 84 67
-83.4167 254.52 -1500 118 81 64
-80.5107 254.84 -1502 117 79 62
-77.391 254.483 -1500 114 76 61
-74.3295 254.296 -1499 117 78 63
-71.4153 254.618 -1501 121 80 66
-68.3115 254.263 -1499 119 88 71
-64.9112 252.721 -1490 131 101 84
-76.022 362.721 -2139 173 128 115
-71.3976 361.008 -2129 144 99 90
-66.9715 360.145 -2124 138 93 89
-62.5365 359.112 -2118 102 60 56
-58.539 360.624 -2127 67 27 22
-200.951 367.451 -2188 149 89 72
-128.109 263.006 -1567 187 144 117
-124.472 261.97 -1561 188 145 118
-120.938 261.103 -1556 181 139 113
-117.425 260.237 -1551 177 137 112
-114.007 259.539 -1547 177 139 113
-110.105 257.668 -1536 176 136 111
-106.665 256.805 -1531 166 126 102
-103.382 256.278 -1528 157 120 98
-99.7838 254.913 -1520 149 116 93
-96.3456 253.885 -1514 139 109 85
-93.1788 253.528 -1512 129 98 78
-90.0209 253.172 -1510 122 89 70
-86.5836 251.978 -1503 120 83 66
-83.7312 252.461 -1506 118 80 64
-80.7067 252.443 -1506 117 79 63
-77.5281 251.922 -1503 115 77 62
-74.4117 251.57 -1501 118 79 65
-71.5417 252.056 -1504 125 84 70
-68.2503 251.034 -1498 130 97 80
-80.7813 360.55 -2152 185 151 142
-75.7914 357.349 -2133 184 139 128
-71.3813 356.662 -2129 141 94 86
-67.0823 356.479 -2128 140 89 84
-62.6698 355.627 -2123 113 69 63
-131.825 260.993 -1574 191 145 120
-128.57 260.798 -1573 185 141 115
-124.922 259.775 -1567 183 140 114
-121.532 259.25 -1564 180 138 112
-117.777 257.897 -1556 177 137 111
-114.203 256.876 -1550 173 136 110
-110.582 255.691 -1543 169 129 104
-106.99 254.506 -1536 160 121 96
-103.427 253.323 -1529 152 116 95
-100.089 252.637 -1525 144 113 91
-96.7055 251.787 -1520 132 104 80
-93.4042 251.103 -1516 125 91 74
-90.2985 250.917 -1515 118 83 66
-86.9097 249.903 -1509 118 82 65
-83.9346 250.05 -1510 118 80 65
-80.9028 250.031 -1510 117 79 64
-77.8715 250.013 -1510 119 80 65
-74.6922 249.5 -1507 123 84 69
-71.8585 250.145 -1511 131 90 76
-80.6505 355.664 -2149 200 166 158
-75.8454 353.329 -2135 194 150 142
-71.5998 353.478 -2136 137 89 81
-67.2879 353.297 -2135 139 85 79
-135.997 259.773 -1586 196 145 122
-132.549 259.252 -1583 183 137 113
-128.95 258.404 -1578 179 136 110
-125.452 257.721 -1574 180 137 111
-121.894 256.874 -1569 177 136 110
-118.129 255.538 -1561 173 134 109
-114.398 254.203 -1553 167 130 105
-110.844 253.196 -1547 162 122 99
-107.175 251.862 -1539 158 119 96
-103.606 250.693 -1532 146 114 93
-100.264 250.016 -1528 139 108 87
-96.9384 249.34 -1524 127 97 76
-93.5682 248.501 -1519 122 88 71
-90.5764 248.644 -1520 116 82 66
-87.3509 248.133 -1517 116 82 65
-84.2494 247.951 -1516 117 80 65
-81.2597 248.096 -1517 116 78 63
-78.2666 248.242 -1518 122 82 67
-75.072 247.734 -1515 126 86 72
-72.2704 248.536 -1520 134 93 79
-80.4824 350.629 -2145 204 173 164
-75.935 349.467 -2138 179 140 135
-71.8855 350.595 -2145 129 85 80
-246.736 344.588 -2126 238 129 146
-242.083 344.048 -2123 240 134 154
-137.425 259.285 -1603 186 137 113
-133.608 258.123 -1596 179 133 109
-129.575 256.477 -1586 176 134 108
-125.903 255.479 -1580 175 133 107
-122.177 254.32 -1573 172 132 106
-118.33 252.838 -1564 169 130 106
-114.594 251.519 -1556 162 125 102
-111.106 250.686 -1551 159 120 97
-107.36 249.208 -1542 152 116 94
-103.922 248.377 -1537 138 109 88
-100.635 247.87 -1534 131 100 80
-97.3623 247.363 -1531 122 91 71
-93.9787 246.534 -1526 118 84 68
-90.9139 246.514 -1526 114 80 64
-87.6771 246.01 -1523 115 81 65
-84.6753 246.153 -1524 116 79 64
-81.6167 246.134 -1524 116 78 63
-78.6618 246.44 -1526 123 82 68
-75.6005 246.423 -1526 130 88 74
-72.5397 246.407 -1526 138 97 83
-85.5931 349.667 -2166 129 99 90
-81.0274 348.68 -2160 207 177 170
-76.9126 349.631 -2166 176 143 143
-250.286 339.335 -2120 255 133 148
-244.246 336.88 -2105 255 129 147
-239.636 336.347 -2102 255 129 151
-234.704 335.336 -2096 255 134 153
-230.349 335.125 -2095 253 131 149
-226.323 335.396 -2097 249 123 141
-142.293 259.079 -1622 188 140 115
-137.652 256.493 -1606 178 132 109
-133.913 255.506 -1600 177 132 110
-129.874 253.88 -1590 175 132 107
-126.114 252.735 -1583 173 131 105
-122.462 251.75 -1577 170 130 104
-118.834 250.766 -1571 166 127 104
-114.937 249.145 -1561 159 121 100
-111.368 248.163 -1555 153 116 94
-107.824 247.182 -1549 144 110 88
-104.372 246.361 -1544 130 101 80
-101.007 245.7 -1540 123 92 73
-97.5318 244.722 -1534 119 86 68
-94.3277 244.382 -1532 116 83 67
-91.1919 244.202 -1531 114 81 65
-88.1185 244.183 -1531 115 81 65
-85.0458 244.164 -1531 116 79 64
-81.9738 244.146 -1531 119 81 66
-79.1601 244.926 -1536 130 87 73
-75.9802 244.59 -1534 137 95 81
-86.0091 347.01 -2177 129 98 91
-81.8725 347.948 -2183 202 172 167
-248.934 333.264 -2109 255 125 140
-243.265 331.315 -2097 255 131 146
-238.558 330.632 -2093 255 131 147
-233.534 329.475 -2086 255 138 158
-228.101 327.688 -2075 255 136 157
-223.145 326.534 -2068 255 128 150
-147.596 259.43 -1645 200 138 121
-142.35 255.929 -1623 178 130 106
-137.879 253.692 -1609 177 131 108
-134.052 252.559 -1602 174 131 109
-129.846 250.639 -1590 172 130 105
-126.167 249.666 -1584 172 130 105
-122.668 249.009 -1580 168 127 102
-119.111 248.195 -1575 161 121 99
-115.207 246.595 -1565 154 116 96
-111.845 246.098 -1562 146 114 91
-108.149 244.814 -1554 137 106 84
-104.552 243.688 -1547 125 96 76
-101.248 243.194 -1544 119 86 68
-98.0194 242.858 -1542 115 81 64
-94.6152 242.05 -1537 113 80 65
-91.4105 241.715 -1535 115 81 66
-88.5599 242.326 -1539 115 80 64
-85.4163 242.149 -1538 118 80 65
-82.2774 241.974 -1537 122 84 69
-79.5554 243.059 -1544 133 91 77
-76.4592 243.042 -1544 142 100 86
-91.1407 345.589 -2196 160 126 112
-86.6621 345.255 -2194 139 110 104
-254.239 330.414 -2118 255 111 128
-248.29 328.177 -2104 255 120 137
-242.517 326.098 -2091 255 124 141
-237.596 325.111 -2085 255 121 138
-232.365 323.658 -2076 255 117 140
-226.843 321.739 -2064 253 104 129
-221.263 319.665 -2051 254 101 126
-153.633 260.779 -1675 199 138 119
-147.385 255.766 -1643 184 127 106
-142.32 252.622 -1623 177 124 103
-138.107 250.88 -1612 175 128 106
-134.274 249.762 -1605 171 129 106
-130.226 248.178 -1595 170 128 103
-126.458 247.062 -1588 170 128 103
-122.953 246.414 -1584 167 125 100
-119.312 245.455 -1578 159 120 98
-115.698 244.497 -1572 150 113 93
-111.893 243.073 -1563 138 110 86
-108.404 242.272 -1558 129 102 79
-104.868 241.317 -1552 122 91 72
-101.554 240.829 -1549 116 83 66
-98.3799 240.652 -1548 114 80 64
-95.1491 240.321 -1546 112 79 65
-91.927 239.99 -1544 115 81 66
-89.174 240.904 -1550 118 81 66
-86.009 240.73 -1549 119 82 67
-82.7417 240.246 -1546 123 85 70
-79.9505 241.161 -1552 133 92 78
-76.6905 240.679 -1549 143 102 88
-91.3289 341.9 -2201 157 123 110
-87.0783 342.503 -2205 138 109 105
-253.225 324.859 -2110 255 104 123
-247.176 322.498 -2095 254 108 128
-241.538 320.599 -2083 249 96 115
-236.065 318.857 -2072 245 87 106
-230.302 316.654 -2058 247 82 105
-224.707 314.606 -2045 250 85 108
-218.521 311.637 -2026 251 97 118
-153.051 256.445 -1669 186 130 110
-147.803 253.188 -1648 179 125 104
-142.904 250.392 -1630 171 119 100
-138.678 248.673 -1619 172 125 104
-134.665 247.262 -1610 167 125 102
-130.77 246.006 -1602 166 124 100
-126.83 244.597 -1593 164 122 98
-123.237 243.804 -1588 161 119 96
-119.59 242.857 -1582 155 117 94
-116.188 242.372 -1579 145 108 87
-112.371 240.967 -1570 127 104 79
-108.729 239.87 -1563 123 97 74
-105.252 239.08 -1558 120 88 70
-102.188 239.212 -1559 114 81 64
-98.9312 238.884 -1557 114 80 64
-95.7445 238.711 -1556 111 80 65
-92.5031 238.384 -1554 114 81 67
-89.7881 239.439 -1561 120 83 68
-86.5462 239.114 -1559 122 84 69
-83.2059 238.483 -1555 126 88 73
-80.346 239.233 -1560 136 95 81
-76.9716 238.45 -1555 146 105 92
-251.493 318.428 -2096 253 88 108
-245.827 316.554 -2084 246 78 101
-240.329 314.833 -2073 232 64 85
-234.763 312.961 -2061 229 62 82
-229.135 310.94 -2048 244 78 97
-223.013 308.16 -2030 254 89 107
-216.426 304.624 -2007 248 99 113
-152.652 252.441 -1665 176 123 103
-147.503 249.378 -1645 169 117 97
-142.962 247.226 -1631 168 121 101
-138.906 245.833 -1622 167 123 101
-135.055 244.744 -1615 164 123 100
-131.233 243.656 -1608 162 122 99
-127.441 242.569 -1601 158 117 95
-123.755 241.634 -1595 155 114 92
-119.943 240.397 -1587 149 112 90
-116.459 239.767 -1583 138 103 81
-112.491 238.077 -1572 121 99 74
-108.915 237.146 -1566 118 93 70
-105.5 236.518 -1562 118 85 67
-102.429 236.648 -1563 116 80 64
-98.9744 235.871 -1558 116 80 64
-95.9709 236.154 -1560 112 80 65
-92.8411 236.134 -1560 114 80 65
-90.0571 237.024 -1566 119 82 66
-86.9168 237.006 -1566 128 86 72
-83.7772 236.988 -1566 132 89 75
-80.5868 236.82 -1565 140 98 84
-257.644 316.605 -2112 245 90 109
-250.722 313.255 -2090 245 78 100
-245.305 311.706 -2080 232 62 84
-239.236 309.259 -2064 228 55 77
-233.69 307.413 -2052 242 67 88
-228.082 305.419 -2039 254 85 105
-221.649 302.228 -2018 250 81 101
-214.657 298.14 -1991 254 108 125
-152.896 249.503 -1668 168 120 96
-148.011 246.929 -1651 165 117 93
-143.458 244.806 -1637 162 115 91
-139.648 243.88 -1631 159 118 94
-135.613 242.507 -1622 157 119 96
-131.696 241.283 -1614 153 118 96
-127.892 240.211 -1607 149 113 91
-124.118 239.139 -1600 146 110 89
-120.221 237.769 -1591 140 105 85
-116.876 237.446 -1589 132 97 77
-112.969 235.929 -1579 121 95 73
-109.38 235.01 -1573 118 89 69
-106.086 234.689 -1571 118 82 67
-102.998 234.817 -1572 117 79 64
-99.3988 233.751 -1565 117 79 64
-96.3819 234.03 -1567 114 80 64
-93.3577 234.31 -1569 116 81 64
-90.4413 234.889 -1573 121 85 66
-87.1766 234.572 -1571 134 85 71
-83.8672 234.107 -1568 145 93 81
-256.251 310.675 -2101 250 86 108
-250.071 308.258 -2085 234 68 91
-244.43 306.434 -2073 229 61 81
-238.377 304.021 -2057 238 65 85
-233.187 302.643 -2048 253 79 100
-226.693 299.494 -2027 249 78 99
-220.616 296.79 -2009 253 87 108
-164.47 253.7 -1719 191 143 117
-158.288 249.388 -1690 165 121 96
-153.14 246.554 -1671 163 117 92
-148.519 244.458 -1657 159 114 89
-144.13 242.658 -1645 156 111 87
-140.219 241.598 -1638 153 113 89
-136.17 240.243 -1629 151 114 90
-132.322 239.183 -1622 146 111 89
-128.662 238.42 -1617 143 108 87
-124.713 237.068 -1608 142 106 86
-120.575 235.274 -1596 136 101 81
-117.294 235.103 -1595 130 96 76
-113.375 233.606 -1585 120 91 71
-109.775 232.7 -1579 117 85 67
-106.605 232.678 -1579 117 79 64
-103.436 232.657 -1579 116 78 63
-99.7599 231.458 -1571 118 80 65
-96.8545 232.028 -1575 115 81 64
-93.7554 232.156 -1576 115 81 63
-90.5381 231.991 -1575 120 86 67
-87.2146 231.531 -1572 132 88 74
-99.4753 322.148 -2188 176 134 117
-254.614 304.5 -2088 247 80 101
-248.822 302.554 -2075 234 66 87
-243.085 300.61 -2062 239 70 91
-237.171 298.376 -2047 248 78 99
-231.433 296.289 -2033 245 72 93
-225.083 293.329 -2013 244 80 98
-219.365 291.1 -1998 255 103 120
-170.052 253.442 -1741 220 168 142
-163.767 249.188 -1712 188 139 114
-158.069 245.663 -1688 165 120 95
-153.385 243.595 -1674 161 115 91
-149.027 241.964 -1663 157 111 87
-144.627 240.189 -1651 152 107 83
-140.534 238.852 -1642 147 107 83
-136.394 237.37 -1632 146 109 85
-132.377 236.035 -1623 144 108 86
-128.796 235.427 -1619 142 106 84
-125.154 234.675 -1614 139 103 83
-121.23 233.343 -1605 132 97 77
-117.786 232.883 -1602 125 91 71
-114.211 232.133 -1597 116 83 65
-110.379 230.803 -1588 115 80 63
-107.124 230.636 -1587 115 77 62
-104.005 230.761 -1588 115 78 63
-100.312 229.578 -1580 116 80 65
-97.2657 229.85 -1582 115 82 64
-94.3317 230.412 -1586 115 82 64
-90.8075 229.522 -1580 119 85 68
-102.602 313.956 -2162 179 127 116
-98.9556 316.114 -2177 184 106 95
-260.534 302.313 -2102 242 80 101
-253.833 299.387 -2082 241 73 94
-247.814 297.181 -2067 244 75 96
-241.741 294.833 -2051 251 81 102
-236.545 293.493 -2042 239 69 90
-229.908 290.286 -2020 231 60 81
-224.368 288.373 -2007 252 95 112
-218.004 285.313 -1986 255 110 128
-169.043 248.469 -1731 210 159 133
-163.64 245.566 -1711 183 134 109
-158.319 242.665 -1691 165 118 94
-153.813 240.912 -1679 162 116 92
-149.267 239.018 -1666 157 111 87
-144.949 237.411 -1655 151 107 83
-140.678 235.806 -1644 142 102 78
-136.785 234.775 -1637 140 103 79
-132.922 233.745 -1630 140 103 81
-129.248 233.002 -1625 137 100 79
-125.827 232.691 -1623 133 95 76
-122.037 231.663 -1616 125 90 70
-118.351 230.78 -1610 119 85 65
-114.689 229.897 -1604 115 79 61
-111.122 229.159 -1599 114 77 60
-107.71 228.707 -1596 116 76 61
-104.443 228.543 -1595 114 78 62
-100.927 227.807 -1590 114 79 63
-97.9229 228.218 -1593 115 82 65
-94.9079 228.629 -1596 119 85 68
-91.3071 227.608 -1589 124 89 73
-105.575 305.729 -2135 180 115 105
-101.443 306.138 -2138 175 102 93
-98.2092 309.412 -2161 196 58 57
-258.872 296.194 -2089 237 75 96
-252.686 293.876 -2073 238 73 93
-246.687 291.701 -2058 253 86 106
-240.633 289.387 -2042 245 75 96
-234.993 287.499 -2029 230 60 81
-228.612 284.621 -2009 242 74 95
-223.319 283.019 -1998 254 106 124
-217.084 280.144 -1978 255 110 128
-168.717 244.53 -1728 192 144 117
-163.512 241.951 -1710 174 126 101
-158.756 239.94 -1696 165 115 92
-154.15 238.07 -1683 161 115 91
-149.596 236.203 -1670 158 113 89
-145.272 234.619 -1659 154 110 86
-140.821 232.753 -1646 139 99 75
-136.926 231.736 -1639 133 96 72
-133.304 231.145 -1635 133 95 74
-129.859 230.837 -1633 131 93 73
-126.578 230.813 -1633 129 91 72
-122.844 229.941 -1627 123 87 68
-119.063 228.928 -1620 118 84 64
-115.453 228.199 -1615 117 79 62
-111.865 227.471 -1610 114 75 59
-108.297 226.744 -1605 116 75 61
-105.209 227.006 -1607 113 77 62
-101.542 225.997 -1600 113 78 62
-98.5801 226.543 -1604 115 81 65
-95.3653 226.525 -1604 120 85 69
-104.319 297.875 -2110 198 100 96
-100.807 299.973 -2125 189 70 72
-257.955 290.968 -2082 239 77 98
-251.297 288.124 -2062 245 81 101
-245.322 285.981 -2047 247 82 102
-239.527 283.98 -2033 235 67 87
-233.791 281.979 -2019 241 75 95
-228.113 279.981 -2005 253 98 117
-222.382 277.843 -1990 255 108 126
-215.945 274.731 -1968 255 102 121
-207.015 268.269 -1922 255 106 126
-197.637 260.974 -1870 255 121 138
-188.679 253.96 -1820 240 100 114
-181.957 249.739 -1790 210 146 128
-174.859 244.822 -1755 194 139 117
-168.49 240.744 -1726 173 126 100
-163.577 238.621 -1711 166 117 93
-159.007 236.917 -1699 161 111 88
-154.303 234.935 -1685 157 111 87
-149.926 233.373 -1674 156 111 87
-145.594 231.812 -1663 154 110 86
-140.966 229.694 -1648 138 99 75
-136.984 228.553 -1640 130 93 69
-133.361 227.97 -1636 128 90 71
-130.152 228.084 -1637 128 89 70
-126.864 228.06 -1637 127 87 68
-123.274 227.479 -1633 121 84 66
-119.481 226.481 -1626 116 80 62
-116.075 226.181 -1624 115 77 60
-112.33 225.184 -1617 114 75 59
-108.749 224.467 -1612 116 75 61
-105.778 225.004 -1616 114 77 62
-102.474 224.845 -1615 114 78 63
-99.5446 225.522 -1620 116 82 66
-102.619 288.873 -2076 216 96 98
-99.7447 292.61 -2103 207 62 70
-256.42 285.084 -2070 245 83 104
-249.91 282.42 -2051 254 90 110
-243.958 280.309 -2036 241 77 96
-237.833 277.923 -2019 240 74 94
-232.357 276.227 -2007 253 95 114
-226.819 274.396 -1994 255 109 128
-220.888 272.015 -1977 255 110 128
-214.808 269.36 -1958 250 91 109
-205.791 262.856 -1911 249 100 119
-197.389 256.904 -1868 252 109 125
-181.618 245.695 -1787 189 131 109
-174.926 241.4 -1756 177 126 102
-168.653 237.519 -1728 163 117 93
-163.546 235.151 -1711 161 113 90
-159.071 233.61 -1700 158 108 86
-154.549 231.931 -1688 153 108 84
-150.256 230.529 -1678 153 108 84
-146.092 229.265 -1669 151 107 83
-141.709 227.59 -1657 140 100 77
-137.626 226.328 -1648 132 94 71
-133.988 225.754 -1644 127 88 69
-130.684 225.729 -1644 125 86 67
-127.382 225.705 -1644 124 84 65
-123.93 225.407 -1642 118 80 62
-120.267 224.698 -1637 113 75 58
-116.91 224.539 -1636 114 76 59
-113.212 223.694 -1630 115 76 60
-109.673 223.124 -1626 119 78 64
-106.805 223.928 -1632 116 78 63
-103.534 223.908 -1632 116 78 63
-100.386 224.164 -1634 121 85 70
-100.721 279.462 -2038 243 110 116
-98.6354 285.202 -2080 238 87 98
-262.961 283.506 -2089 244 83 101
-254.886 279.251 -2058 251 88 109
-249.132 277.441 -2045 251 87 106
-242.115 274.14 -2021 242 78 97
-237.2 273.146 -2014 253 93 112
-231.504 271.205 -2000 255 108 126
-225.639 268.993 -1984 255 112 130
-219.953 266.919 -1969 255 108 126
-212.465 262.541 -1937 243 84 102
-204.353 257.217 -1898 247 96 112
-196.401 251.896 -1859 242 96 111
-188.09 245.899 -1815 224 77 90
-181.482 241.936 -1786 179 123 101
-175.292 238.382 -1760 167 116 92
-169.305 234.964 -1735 159 113 89
-163.994 232.361 -1716 158 111 88
-159.509 230.842 -1705 153 105 84
-154.978 229.188 -1693 148 104 82
-150.676 227.806 -1683 150 105 83
-146.415 226.426 -1673 149 105 83
-142.538 225.587 -1667 142 102 80
-138.603 224.614 -1660 134 96 75
-135.022 224.183 -1657 130 90 71
-131.694 224.159 -1657 126 85 66
-128.366 224.135 -1657 125 82 64
-124.587 223.3 -1651 118 79 62
-120.832 222.467 -1645 112 74 57
-117.318 222.039 -1642 111 73 56
-113.746 221.477 -1638 114 75 59
-110.192 220.916 -1634 115 74 60
-107.374 221.842 -1641 116 78 63
-104.022 221.688 -1640 119 81 66
-101.105 222.48 -1646 118 80 67
-101.799 267.523 -1980 234 91 98
-99.2699 271.423 -2009 247 105 114
-97.1949 276.944 -2050 254 108 118
-260.899 277.125 -2073 248 86 104
-253.725 273.87 -2049 248 85 106
-247.747 271.82 -2034 244 80 100
-241.352 269.237 -2015 250 86 106
-235.743 267.457 -2002 255 103 122
-230.073 265.545 -1988 255 113 131
-225.03 264.301 -1979 255 110 128
-218.908 261.724 -1960 255 104 123
-212.865 259.148 -1941 242 79 98
-204.316 253.369 -1898 244 91 106
-196.471 248.261 -1860 238 90 104
-188.263 242.487 -1817 217 70 83
-181.856 238.851 -1790 169 113 91
-176.156 236.016 -1769 161 108 85
-170.25 232.783 -1745 155 108 85
-164.824 230.085 -1725 151 104 82
-160.135 228.322 -1712 147 99 78
-155.499 226.56 -1699 143 99 77
-151.096 225.065 -1688 145 101 79
-147.001 223.972 -1680 145 102 81
-142.939 222.879 -1672 140 100 79
-138.911 221.787 -1664 135 96 75
-135.079 220.963 -1658 131 90 71
-132.146 221.605 -1663 125 84 65
-128.498 221.049 -1659 123 80 62
-125.168 221.026 -1659 117 77 60
-121.839 221.004 -1659 111 73 56
-118.511 220.982 -1659 111 73 57
-114.767 220.162 -1653 111 71 56
-111.723 220.674 -1657 112 71 57
-108.598 221.054 -1660 116 77 62
-105.145 220.768 -1658 122 82 67
-102.698 255.953 -1923 178 90 88
-100.238 259.528 -1950 240 83 96
-97.7698 263.37 -1979 251 98 110
-95.4708 268.01 -2014 255 107 118
-260.349 272.392 -2069 248 90 108
-253.927 269.977 -2051 248 86 107
-246.972 266.905 -2028 250 85 105
-241.189 265.019 -2014 255 94 114
-235.583 263.266 -2001 255 108 127
-229.8 261.251 -1986 255 115 133
-224.194 259.369 -1972 255 112 130
-218.534 257.357 -1957 255 99 119
-212.059 254.294 -1934 241 76 96
-203.849 248.998 -1894 241 87 102
-195.908 243.835 -1855 229 80 94
-187.919 238.412 -1814 208 63 76
-181.62 234.962 -1788 167 108 88
-176.523 232.959 -1773 166 110 89
-170.805 230.038 -1751 154 105 82
-165.463 227.512 -1732 148 99 78
-160.48 225.382 -1716 141 93 72
-156.203 224.171 -1707 135 91 69
-151.785 222.7 -1696 138 94 73
-147.587 221.491 -1687 139 96 76
-143.512 220.415 -1679 135 94 73
-139.554 219.471 -1672 130 90 70
-135.381 218.134 -1662 127 84 66
-132.282 218.504 -1665 124 81 63
-129.017 218.612 -1666 121 77 59
-125.749 218.721 -1667 115 75 58
-122.625 219.092 -1670 112 74 57
-119.489 219.464 -1673 113 75 60
-115.857 218.919 -1669 113 74 60
-112.849 219.554 -1674 116 75 61
-109.625 219.797 -1676 121 80 66
-106.774 220.827 -1684 129 87 73
-103.16 253.248 -1932 188 88 89
-99.9634 254.934 -1945 238 79 93
-97.4067 258.455 -1972 249 90 104
-94.7903 262.108 -2000 255 97 110
-91.6994 264.712 -2020 255 99 112
-266.287 270.057 -2083 243 88 104
-258.29 266.122 -2053 248 91 109
-252.397 264.263 -2039 247 86 107
-246.441 262.275 -2024 254 93 113
-240.787 260.548 -2011 255 102 122
-235.542 259.21 -2001 255 108 128
-228.95 256.32 -1979 255 111 131
-223.813 254.985 -1969 255 110 129
-217.713 252.486 -1950 255 95 118
-211.254 249.47 -1927 241 74 96
-203.813 245.162 -1894 240 84 100
-195.873 240.079 -1855 224 75 89
-188.196 235.128 -1817 202 58 71
-182.096 231.99 -1793 165 98 81
-177.388 230.535 -1782 169 105 88
-172.14 228.305 -1765 154 104 82
-166.962 226.077 -1748 147 98 77
-161.574 223.462 -1728 137 89 68
-157.274 222.27 -1719 129 84 62
-152.832 220.821 -1708 131 86 65
-148.523 219.502 -1698 133 90 71
-144.683 218.83 -1693 132 91 71
-140.948 218.288 -1689 127 87 68
-136.742 216.971 -1679 125 81 63
-133.45 217.077 -1680 122 78 60
-130.31 217.441 -1683 120 76 58
-126.858 217.289 -1682 114 75 58
-123.484 217.268 -1682 113 75 59
-120.325 217.634 -1685 112 74 59
-116.67 217.097 -1681 116 78 63
-113.503 217.464 -1684 118 79 64
-106.066 247.171 -1915 141 36 38
-102.448 247.669 -1919 203 85 91
-99.6888 250.362 -1940 237 82 96
-97.0933 253.7 -1966 241 84 97
-94.1102 256.264 -1986 251 92 105
-91.184 259.216 -2009 255 96 111
-87.9931 261.652 -2028 255 97 111
-265.474 265.068 -2077 252 99 116
-258.119 261.833 -2052 251 94 113
-251.734 259.492 -2034 252 94 115
-246.033 257.791 -2021 255 100 120
-240.147 255.836 -2006 255 101 121
-234.559 254.137 -1993 255 97 118
-229.141 252.567 -1981 255 97 117
-223.433 250.615 -1966 255 96 116
-217.117 247.9 -1945 253 83 105
-210.888 245.187 -1924 235 67 88
-203.562 241.074 -1892 236 76 92
-195.628 236.07 -1853 219 65 81
-188.267 231.579 -1818 199 50 65
-182.166 228.49 -1794 163 81 72
-177.755 227.44 -1786 175 99 88
-172.89 225.754 -1773 153 103 82
-168.366 224.451 -1763 146 99 77
-163.042 222.004 -1744 134 88 67
-158.802 220.958 -1736 125 78 57
-154.058 219.149 -1722 125 79 58
-149.285 217.214 -1707 126 83 65
-145 215.917 -1697 129 88 69
-141.508 215.765 -1696 126 86 67
-137.288 214.469 -1686 123 79 61
-134.062 214.7 -1688 120 76 58
-131.062 215.313 -1693 119 74 56
-127.967 215.799 -1697 114 74 58
-124.564 215.778 -1697 113 75 60
-121.518 216.392 -1702 113 77 62
-117.899 215.99 -1699 114 77 62
-115.235 217.369 -1710 117 80 65
-109.305 242.054 -1905 104 59 47
-106.546 244.45 -1924 143 24 31
-102.911 244.94 -1928 201 72 81
-99.6716 246.447 -1940 233 76 90
-96.7803 248.971 -1960 236 78 92
-93.8097 251.495 -1980 244 85 99
-90.8052 254.146 -2001 252 89 106
-87.5875 256.417 -2019 255 94 108
-263.383 258.85 -2061 249 98 116
-256.691 256.294 -2041 252 99 118
-250.825 254.493 -2027 255 104 124
-245.382 253.07 -2016 255 103 122
-240.106 251.773 -2006 254 94 113
-234.636 250.227 -1994 248 82 104
-229.449 248.933 -1984 247 80 101
-223.622 246.887 -1968 253 85 105
-217.527 244.466 -1949 249 79 100
-211.29 241.796 -1928 234 66 85
-204.173 237.998 -1898 231 68 85
-196.439 233.325 -1861 214 56 74
-189.477 229.406 -1830 200 44 63
-183.251 226.241 -1805 160 63 60
-178.819 225.207 -1797 174 87 81
-174.031 223.674 -1785 148 99 79
-169.769 222.767 -1778 143 97 76
-164.416 220.359 -1759 132 88 67
-160.238 219.454 -1752 125 77 56
-155.284 217.423 -1736 121 74 54
-150.571 215.644 -1722 121 78 58
-146.171 214.242 -1711 122 81 62
-142.485 213.842 -1708 120 80 61
-138.16 212.441 -1697 119 75 57
-135.072 212.918 -1701 118 73 56
-132.123 213.647 -1707 119 72 55
-129.302 214.626 -1715 115 74 59
-126.084 214.98 -1718 115 74 60
-123.354 216.21 -1728 111 77 61
-119.96 216.314 -1729 112 77 61
-110.434 240.712 -1925 80 29 20
-107.026 241.694 -1933 150 20 29
-103.107 241.551 -1932 205 67 78
-99.3978 241.909 -1935 232 71 86
-96.4182 244.143 -1953 232 74 88
-93.4148 246.502 -1972 238 81 95
-90.4268 249.112 -1993 249 89 105
-87.3557 251.721 -2014 253 90 105
-84.3255 254.707 -2038 254 88 100
-262.572 253.935 -2055 243 93 111
-255.642 251.173 -2033 252 101 119
-250.782 250.389 -2027 255 107 126
-245.097 248.742 -2014 255 98 117
-239.826 247.466 -2004 246 82 101
-234.715 246.316 -1995 239 70 92
-229.294 244.795 -1983 239 70 91
-223.925 243.276 -1971 251 82 103
-217.936 241.018 -1953 248 80 99
-211.145 237.773 -1927 236 69 87
-204.139 234.161 -1898 230 65 82
-197.145 230.426 -1868 215 52 72
-190.584 227.063 -1841 204 42 62
-184.337 223.949 -1816 161 46 51
-179.684 222.685 -1806 167 68 67
-175.366 221.793 -1799 142 92 74
-171.173 221.024 -1793 137 91 72
-166.257 219.27 -1779 130 86 66
-162.406 218.873 -1776 126 78 57
-157.583 217.121 -1762 120 73 52
-152.731 215.247 -1747 118 73 53
-148.539 214.237 -1739 118 73 54
-144.796 213.843 -1736 117 71 53
-140.66 212.833 -1728 118 71 53
-137.113 212.687 -1727 120 72 54
-134.19 213.526 -1734 120 70 54
-130.562 213.258 -1732 115 71 56
-127.09 213.237 -1732 115 73 58
-124.475 214.693 -1744 109 73 59
-114.92 238.203 -1936 89 30 22
-111.104 238.307 -1937 87 23 18
-107.23 238.289 -1937 153 17 27
-103.036 237.534 -1931 209 67 78
-99.6381 238.624 -1940 232 74 89
-96.5501 240.576 -1956 230 72 86
-93.4465 242.651 -1973 235 78 92
-90.5025 245.341 -1995 246 84 101
