ply
format ascii 1.0
comment Created by Open3D
element vertex 1418
property double x
property double y
property double z
property uchar red
property uchar green
property uchar blue
end_header
-259.424 465.718 -2038 151 93 63
-254.493 464.267 -2032 151 91 67
-250.082 463.73 -2030 186 125 103
-247.619 466.85 -2044 198 145 119
-171.242 339.923 -1489 164 124 100
-168.65 340.783 -1493 159 122 98
-165.155 339.817 -1489 148 116 93
-161.569 338.625 -1484 142 109 87
-158.005 337.435 -1479 134 100 80
-154.357 336.017 -1473 122 90 69
-151.25 335.741 -1472 115 83 63
-148.147 335.466 -1471 110 80 61
-145.149 335.42 -1471 110 80 60
-142.152 335.375 -1471 111 80 60
-139.534 336.243 -1475 114 84 63
-136.717 336.656 -1477 119 89 68
-133.801 336.842 -1478 124 95 74
-131.237 337.94 -1483 135 104 80
-128.48 338.583 -1486 153 121 96
-125.797 339.455 -1490 162 132 109
-122.522 338.732 -1487 173 142 118
-119.903 339.834 -1492 181 149 124
-116.011 337.291 -1481 114 92 78
-341.845 466.851 -2054 242 214 197
-336.271 464.926 -2046 248 218 201
-330.895 463.232 -2039 250 220 199
-326.833 463.356 -2040 251 220 196
-321.979 462.346 -2036 250 216 195
-318.08 462.7 -2038 242 205 183
-314.176 463.055 -2040 201 156 132
-309.963 462.958 -2040 155 107 84
-305.602 462.635 -2039 163 113 91
-301.692 462.993 -2041 186 141 118
-297.193 462.446 -2039 199 152 130
-292.561 461.674 -2036 204 154 132
-288.51 461.81 -2037 206 158 136
-284.178 461.494 -2036 232 184 164
-279.716 460.953 -2034 235 191 171
-275.941 461.547 -2037 239 191 168
-272.557 462.821 -2043 234 183 159
-268.099 462.283 -2041 229 173 144
-264.169 462.654 -2043 164 107 79
-259.979 462.572 -2043 107 50 22
-255.04 461.134 -2037 142 82 58
-251.235 461.734 -2040 190 129 106
-171.764 337.931 -1494 164 125 101
-168.936 338.331 -1496 157 120 96
-165.547 337.601 -1493 148 116 93
-162.063 336.645 -1489 142 109 87
-158.383 335.239 -1483 134 100 80
-155.043 334.513 -1480 122 90 69
-151.819 334.013 -1478 115 83 62
-148.907 334.193 -1479 111 81 62
-145.696 333.695 -1477 112 81 61
-142.687 333.65 -1477 112 81 60
-139.869 334.059 -1479 116 86 65
-136.952 334.242 -1480 119 89 68
-133.85 333.974 -1479 126 96 74
-131.108 334.61 -1482 137 105 81
-128.527 335.699 -1487 153 120 95
-125.927 336.788 -1492 161 131 107
-122.896 336.75 -1492 171 140 116
-120.187 337.615 -1496 178 146 121
-116.289 335.096 -1485 114 92 77
-330.63 458.715 -2038 202 180 167
-325.93 457.938 -2035 228 204 186
-321.405 457.388 -2033 219 182 167
-317.514 457.739 -2035 159 119 102
-313.617 458.091 -2037 160 114 92
-309.715 458.444 -2039 212 166 145
-305.657 458.574 -2040 238 192 172
-301.451 458.48 -2040 237 195 170
-296.955 457.938 -2038 224 180 156
-292.757 457.847 -2038 220 174 150
-287.996 456.859 -2034 224 174 148
-284.09 457.22 -2036 241 193 167
-280.042 457.357 -2037 239 198 173
-275.991 457.496 -2038 239 196 171
-272.206 458.085 -2041 231 185 160
-268.41 458.675 -2044 217 161 132
-264.088 458.368 -2043 149 92 66
-260.026 458.512 -2044 94 36 14
-256.212 459.105 -2047 158 96 71
-253.251 461.27 -2057 204 141 116
-172.63 336.594 -1502 165 126 102
-169.448 336.318 -1501 158 121 97
-165.718 334.922 -1495 147 115 92
-162.666 334.872 -1495 141 108 87
-158.974 333.478 -1489 134 100 80
-155.414 332.31 -1484 122 90 69
-152.183 331.815 -1482 115 83 62
-149.264 331.993 -1483 113 80 62
-146.045 331.5 -1481 114 82 62
-143.126 331.68 -1482 115 83 62
-140.11 331.636 -1482 117 87 66
-137.187 331.817 -1483 120 90 68
-134.08 331.552 -1482 127 97 74
-131.421 332.406 -1486 139 107 82
-128.833 333.485 -1491 152 119 94
-126.226 334.564 -1496 162 132 107
-123.27 334.75 -1497 171 140 116
-120.311 334.936 -1498 180 148 123
-116.644 333.111 -1490 113 91 77
-336.391 456.762 -2048 65 51 49
-331.014 455.098 -2041 94 78 69
-325.67 453.437 -2034 129 112 98
-320.989 452.669 -2031 149 116 102
-316.792 452.571 -2031 195 158 142
-312.905 452.92 -2033 243 198 176
-309.468 453.939 -2038 253 209 187
-305.414 454.067 -2039 254 210 188
-301.062 453.752 -2038 246 204 179
-297.009 453.883 -2039 236 192 167
-292.237 452.902 -2035 235 189 165
-288.19 453.036 -2036 236 190 164
-284.003 452.949 -2036 246 200 175
-279.681 452.64 -2035 243 202 176
-275.907 453.222 -2038 239 193 167
-271.989 453.583 -2040 219 172 146
-268.197 454.168 -2043 185 129 100
-264.007 454.087 -2043 138 80 53
-260.201 454.674 -2046 167 107 86
-256.259 455.039 -2048 220 157 132
-254.158 458.738 -2065 198 135 109
-175.296 332.838 -1499 172 130 104
-173.267 334.783 -1508 164 126 101
-169.735 333.843 -1504 161 124 100
-166.221 332.904 -1500 147 115 93
-163.16 332.853 -1500 141 108 87
-159.673 331.917 -1496 133 99 79
-156.099 330.76 -1491 122 90 69
-152.958 330.491 -1490 115 83 62
-150.023 330.667 -1491 114 81 63
-146.494 329.513 -1486 115 82 63
-143.759 330.134 -1489 116 83 64
-140.729 330.091 -1489 118 87 66
-137.515 329.605 -1487 121 91 69
-134.582 329.786 -1488 129 98 75
-132.088 331.075 -1494 140 108 83
-129.399 331.922 -1498 152 119 94
-126.947 333.434 -1505 162 132 107
-124.056 333.839 -1507 171 140 115
-120.836 333.359 -1505 179 147 122
-117.079 331.329 -1496 107 85 71
-342.027 454.55 -2057 64 59 61
-336.452 452.679 -2049 67 59 60
-331.562 451.694 -2045 67 57 52
-324.93 448.281 -2030 95 85 76
-321.365 449.066 -2034 208 177 165
-316.695 448.307 -2031 242 207 192
-312.656 448.432 -2032 251 208 186
-308.614 448.559 -2033 252 208 186
-304.572 448.686 -2034 252 208 184
-300.085 448.154 -2032 247 205 178
-296.045 448.284 -2033 241 198 172
-291.573 447.754 -2031 241 196 172
-287.678 448.107 -2033 242 197 172
-284.056 448.902 -2037 246 202 177
-279.733 448.596 -2036 246 204 177
-275.823 448.953 -2038 240 193 167
-272.04 449.531 -2041 218 169 143
-267.722 449.229 -2040 180 121 93
-263.281 448.708 -2038 203 144 119
-259.74 449.73 -2043 250 195 173
-255.681 449.873 -2044 235 172 146
-254.573 455.297 -2069 188 124 98
-176.295 331.682 -1508 171 129 103
-173.789 332.729 -1513 167 130 105
-170.248 331.797 -1509 159 123 99
-166.725 330.867 -1505 148 116 95
-163.654 330.817 -1505 140 107 87
-160.265 330.109 -1502 132 98 78
-156.889 329.402 -1499 122 90 69
-153.527 328.696 -1496 116 84 63
-150.581 328.87 -1497 114 81 63
-146.942 327.508 -1491 116 83 65
-143.908 327.464 -1491 116 83 65
-140.97 327.641 -1492 118 86 65
-137.751 327.16 -1490 123 91 69
-135.084 327.997 -1494 132 100 77
-132.402 328.835 -1498 140 108 83
-129.619 329.454 -1501 151 119 94
-127.077 330.732 -1507 161 131 106
-124.43 331.792 -1512 168 137 112
-120.88 330.439 -1506 176 144 119
-116.652 327.112 -1491 97 76 62
-330.651 446.308 -2040 65 61 60
-324.192 443.146 -2026 77 72 69
-321.11 444.58 -2033 198 172 162
-316.755 444.266 -2032 230 200 186
-313.023 444.827 -2035 241 203 182
-308.521 444.296 -2033 252 210 185
-304.48 444.423 -2034 250 207 181
-299.847 443.677 -2031 246 203 175
-295.81 443.806 -2032 243 200 173
-291.342 443.281 -2030 244 201 175
-287.874 444.286 -2035 245 203 177
-283.971 444.637 -2037 246 204 177
-279.786 444.552 -2037 246 203 175
-275.604 444.469 -2037 244 194 168
-271.425 444.387 -2037 219 167 141
-267.51 444.743 -2039 217 156 128
-262.814 443.791 -2035 247 188 162
-259.535 445.239 -2042 233 170 148
-256.105 446.47 -2048 192 126 99
-256.219 454.023 -2083 177 113 86
-176.242 328.531 -1508 169 129 103
-173.851 329.786 -1514 165 128 104
-170.422 329.081 -1511 159 123 100
-167.339 329.03 -1511 149 117 96
-164.149 328.763 -1510 142 109 88
-160.857 328.279 -1508 131 97 77
-157.261 327.144 -1503 122 90 69
-154.097 326.88 -1502 117 85 65
-150.938 326.617 -1501 115 82 64
-147.884 326.572 -1501 117 83 65
-144.637 326.093 -1499 117 83 65
-141.683 326.268 -1500 120 86 66
-138.634 326.227 -1500 125 91 70
-135.767 326.621 -1502 132 100 77
-133.158 327.668 -1507 141 108 83
-130.271 328.064 -1509 152 119 94
-127.629 329.112 -1514 161 129 103
-125.298 331.031 -1523 171 138 113
-121.486 329.038 -1514 178 145 120
-323.455 438.032 -2022 60 57 56
-321.014 440.319 -2033 149 127 117
-316.505 439.791 -2031 219 192 177
-313.083 440.78 -2036 233 199 178
-308.732 440.471 -2035 244 202 176
-304.239 439.947 -2033 244 201 174
-299.609 439.208 -2030 241 199 170
-295.722 439.552 -2032 243 200 172
-291.399 439.249 -2031 245 202 174
-287.506 439.595 -2033 245 203 177
-284.025 440.591 -2038 247 204 178
-279.84 440.508 -2038 247 203 175
-275.793 440.642 -2039 240 190 164
-271.344 440.128 -2037 223 171 145
-267.43 440.481 -2039 236 173 144
-262.736 439.538 -2035 209 142 116
-259.458 440.972 -2042 160 88 66
-256.153 442.408 -2049 120 53 27
-178.082 323.277 -1498 177 130 104
-177.008 326.893 -1515 169 129 103
-174.374 327.704 -1519 163 127 102
-170.71 326.574 -1514 156 120 97
-167.511 326.309 -1513 150 117 96
-164.426 326.26 -1513 142 108 88
-161.129 325.781 -1511 131 97 77
-157.947 325.518 -1510 121 88 68
-154.769 325.256 -1509 117 84 65
-151.396 324.565 -1506 116 83 65
-148.431 324.736 -1507 118 84 66
-145.173 324.262 -1505 118 84 65
-142.302 324.65 -1507 123 89 68
-138.87 323.747 -1503 126 92 71
-136.359 324.999 -1509 132 99 76
-133.648 325.821 -1513 141 108 83
-130.923 326.643 -1517 152 119 94
-128.434 328.112 -1524 161 129 102
-125.919 329.581 -1531 169 136 110
-122.413 328.469 -1526 173 140 115
-322.56 432.724 -2017 56 52 53
-320.603 435.632 -2031 97 79 69
-316.723 435.967 -2033 198 173 159
-313.298 436.947 -2038 228 196 175
-308.641 436.212 -2035 241 199 173
-304.449 436.122 -2035 243 200 174
-299.816 435.39 -2032 242 200 170
-295.926 435.731 -2034 243 201 172
-291.599 435.43 -2033 244 201 173
-287.845 435.987 -2036 243 201 175
-283.942 436.332 -2038 248 205 178
-280.032 436.677 -2040 244 198 170
-275.576 436.167 -2038 233 180 154
-271.264 435.873 -2037 196 141 116
-267.089 435.794 -2037 160 94 65
-262.917 435.716 -2037 135 65 39
-259.89 437.565 -2046 149 75 51
-256.578 438.986 -2053 152 85 59
-178.623 321.22 -1503 177 131 105
-177.54 324.801 -1520 167 127 101
-174.667 325.177 -1522 162 125 101
-171.449 324.913 -1521 156 120 97
-168.237 324.65 -1520 148 114 94
-164.921 324.174 -1518 140 106 86
-161.722 323.912 -1517 130 96 76
-158.632 323.866 -1517 121 88 70
-155.237 323.179 -1514 118 85 67
-152.256 323.348 -1515 117 84 66
-148.88 322.664 -1512 118 86 66
-146.095 323.261 -1515 118 86 65
-142.827 322.792 -1513 124 90 68
-139.476 322.111 -1510 126 92 70
-136.681 322.711 -1513 132 98 76
-134.051 323.737 -1518 141 108 83
-131.143 324.125 -1520 152 119 94
-128.818 326.007 -1529 161 129 102
-126.539 328.101 -1539 168 135 110
-123.099 327.212 -1535 170 137 112
-321.825 427.653 -2013 47 40 43
-320.352 431.17 -2030 69 52 44
-316.786 431.927 -2034 171 147 132
-313.513 433.109 -2040 224 192 170
-308.551 431.957 -2035 239 197 171
-304.509 432.08 -2036 243 200 174
-300.318 431.992 -2036 241 199 169
-296.13 431.905 -2036 242 200 170
-291.657 431.395 -2034 245 202 173
-287.902 431.947 -2037 240 197 169
-283.998 432.288 -2039 238 193 165
-279.539 431.782 -2037 222 174 145
-275.631 432.125 -2039 166 112 85
-271.584 432.258 -2040 135 79 53
-267.142 431.756 -2038 151 84 55
-263.227 432.102 -2040 165 95 68
-259.814 433.297 -2046 183 109 84
-256.878 435.34 -2056 175 110 83
-177.838 322.268 -1523 165 128 101
-174.845 322.429 -1524 160 124 100
-171.737 322.379 -1524 153 117 94
-168.63 322.329 -1524 145 111 91
-165.199 321.647 -1521 137 103 83
-161.994 321.388 -1520 127 93 73
-158.9 321.341 -1520 119 86 68
-155.704 321.085 -1519 116 83 65
-152.715 321.251 -1520 118 85 67
-149.722 321.419 -1521 119 87 66
-146.727 321.588 -1522 118 86 65
-143.257 320.701 -1518 125 91 69
-140.267 320.871 -1519 126 92 69
-137.273 321.042 -1520 132 98 75
-134.453 321.636 -1523 142 107 83
-131.364 321.598 -1523 153 119 94
-128.781 322.828 -1529 160 128 101
-126.338 324.48 -1537 168 136 109
-122.743 323.177 -1531 170 137 111
-321.252 422.813 -2010 57 46 51
-320.259 426.927 -2030 66 50 44
-316.382 427.255 -2032 141 117 104
-313.576 429.056 -2041 215 184 162
-308.916 428.336 -2038 239 196 172
-305.019 428.668 -2040 239 196 170
-300.231 427.74 -2036 240 198 169
-297.207 429.334 -2044 242 198 168
-292.146 427.989 -2038 241 197 166
-287.96 427.906 -2038 232 185 156
-283.777 427.824 -2038 196 148 119
-279.321 427.323 -2036 162 110 81
-275.146 427.243 -2036 178 123 95
-271.373 427.794 -2039 187 130 103
-267.589 428.346 -2042 185 119 90
-263.796 428.899 -2045 190 122 94
-260.501 430.291 -2052 195 125 99
-257.678 432.523 -2063 190 127 100
-178.371 320.145 -1528 164 128 101
-175.368 320.303 -1529 158 123 98
-172.138 320.044 -1528 150 114 91
-169.024 319.995 -1528 142 108 88
-165.586 319.319 -1525 133 99 79
-162.587 319.482 -1526 123 89 69
-159.377 319.226 -1525 117 84 66
-156.377 319.39 -1526 115 82 64
-153.173 319.137 -1525 116 83 65
-150.27 319.512 -1527 118 85 65
-146.974 319.051 -1525 117 85 64
-143.782 318.8 -1524 123 89 67
-140.873 319.178 -1526 125 92 68
-138.047 319.765 -1529 133 100 75
-135.121 320.145 -1531 144 108 84
-132.188 320.525 -1533 154 118 94
-129.586 321.742 -1539 162 130 103
-126.877 322.75 -1544 171 138 111
-123.349 321.67 -1539 173 140 113
-320.009 422.478 -2029 64 50 47
-315.513 421.971 -2027 120 98 86
-313.025 424.171 -2038 200 170 150
-308.524 423.666 -2036 228 184 163
-305.081 424.619 -2041 233 190 167
-300.882 424.532 -2041 230 187 159
-297.268 425.279 -2045 227 181 151
-292.063 423.739 -2038 212 165 133
-287.878 423.656 -2038 189 136 106
-283.556 423.367 -2037 192 138 108
-279.378 423.287 -2037 225 168 139
-275.337 423.416 -2038 229 171 144
-271.428 423.753 -2040 198 140 113
-268.168 425.131 -2047 194 128 99
-264.108 425.262 -2048 200 134 106
-260.68 426.434 -2054 201 135 108
-257.979 428.851 -2066 195 134 106
-179.72 319.455 -1540 160 126 98
-176.465 319.197 -1539 154 119 95
-172.878 318.318 -1535 147 113 90
-169.75 318.269 -1535 138 104 84
-166.081 317.185 -1530 128 94 74
-162.86 316.931 -1529 121 87 67
-159.645 316.678 -1528 116 83 65
-156.947 317.462 -1532 114 81 63
-153.129 315.968 -1525 114 81 63
-150.62 317.168 -1531 116 82 63
-147.414 316.919 -1530 117 83 64
-144.307 316.878 -1530 122 86 64
-141.202 316.837 -1530 126 91 68
-138.729 318.247 -1537 134 101 76
-135.524 318.001 -1536 143 109 83
-132.496 318.17 -1537 153 119 93
-130.054 319.789 -1545 164 132 105
-126.924 319.753 -1545 170 138 111
-123.394 318.683 -1540 177 144 117
-119.885 317.614 -1535 109 88 75
-320.076 418.45 -2030 67 54 55
-315.735 418.154 -2029 102 82 74
-312.936 419.92 -2038 186 160 144
-308.285 419.214 -2035 219 177 159
-304.845 420.157 -2040 208 166 146
-300.797 420.277 -2041 178 135 109
-296.893 420.605 -2043 170 121 91
-292.123 419.698 -2039 182 130 98
-288.079 419.822 -2040 208 151 118
-283.615 419.33 -2038 224 167 134
-279.299 419.045 -2037 237 179 149
-275.124 418.967 -2037 236 176 148
-271.484 419.712 -2041 214 154 127
-267.699 420.253 -2044 202 139 109
-264.033 421.001 -2048 204 141 113
-260.733 422.366 -2055 204 141 113
-257.781 424.348 -2065 200 137 110
-180.603 317.897 -1548 158 124 96
-177.676 318.257 -1550 152 119 94
-173.955 317.181 -1545 145 112 89
-170.918 317.338 -1546 135 101 82
-166.903 315.649 -1538 127 93 74
-163.666 315.397 -1537 121 87 68
-160.331 314.941 -1535 114 82 63
-157.21 314.897 -1535 113 80 62
-153.688 314.033 -1531 114 81 63
-151.168 315.221 -1537 116 82 63
-147.469 313.948 -1531 117 83 64
-145.115 315.548 -1539 123 87 65
-141.808 315.098 -1537 125 91 68
-139.503 316.903 -1546 133 99 75
-136.279 316.66 -1545 143 110 84
-133.406 317.237 -1548 155 121 95
-130.522 317.815 -1551 164 131 103
-127.627 318.393 -1554 169 136 109
-123.92 316.924 -1547 175 142 115
-120.788 316.89 -1547 128 106 92
-320.143 414.421 -2031 63 51 57
-315.646 413.924 -2029 86 69 65
-312.848 415.672 -2038 166 144 133
-308.653 415.585 -2038 160 121 104
-304.759 415.907 -2040 135 94 75
-300.27 415.415 -2038 150 105 80
-296.228 415.535 -2039 189 137 106
-291.611 414.842 -2036 205 150 118
-287.292 414.557 -2035 205 145 110
-283.396 414.885 -2037 213 154 121
-279.221 414.807 -2037 223 164 133
-275.317 415.136 -2039 232 172 144
-271.408 415.467 -2041 220 160 133
-267.362 415.596 -2042 207 146 116
-263.443 415.929 -2044 204 143 114
-260.026 417.077 -2050 205 144 115
-256.711 418.429 -2057 203 138 111
-181.136 315.698 -1553 158 123 96
-178.2 316.055 -1555 150 117 94
-174.469 314.99 -1550 141 108 87
-171.092 314.535 -1548 133 97 81
-167.399 313.472 -1543 125 90 72
-164.153 313.223 -1542 120 86 68
-160.913 312.975 -1541 113 83 64
-157.678 312.728 -1540 112 80 62
-153.947 311.466 -1534 113 79 61
-151.323 312.439 -1539 114 82 60
-147.813 311.585 -1535 116 83 61
-145.641 313.575 -1545 122 88 66
-142.875 314.346 -1549 127 92 69
-140.546 316.133 -1558 136 100 78
-137.212 315.689 -1556 144 111 85
-134.489 316.666 -1561 155 121 95
-131.327 316.629 -1561 165 127 98
-128.331 316.999 -1563 166 131 103
-124.686 315.747 -1557 171 138 111
-121.848 316.524 -1561 143 119 104
-321.472 412.007 -2040 52 42 52
-315.402 409.496 -2028 66 52 53
-312.147 410.62 -2034 141 124 118
-308.264 410.938 -2036 131 93 78
-303.778 410.45 -2034 172 131 113
-299.598 410.366 -2034 199 153 128
-295.565 410.486 -2035 208 154 123
-291.387 410.405 -2035 206 149 116
-287.212 410.325 -2035 213 150 115
-283.457 410.851 -2038 210 149 116
-279.143 410.572 -2037 209 150 119
-274.971 410.495 -2037 215 156 129
-270.801 410.42 -2037 214 154 127
-266.896 410.749 -2039 204 145 114
-262.726 410.676 -2039 203 144 113
-259.193 411.611 -2044 206 147 116
-256.016 413.151 -2052 205 139 112
-181.435 313.079 -1556 159 122 95
-178.723 313.834 -1560 150 117 94
-175.096 312.981 -1556 140 106 85
-171.707 312.531 -1554 131 96 80
-168.22 311.881 -1551 124 89 72
-164.959 311.634 -1550 121 86 68
-161.599 311.187 -1548 114 83 64
-158.249 310.741 -1546 112 79 61
-154.406 309.292 -1539 113 79 61
-151.674 310.053 -1543 115 82 59
-148.639 310.213 -1544 117 84 61
-145.789 310.776 -1547 122 87 65
-143.297 312.142 -1554 129 94 72
-141.229 314.513 -1566 138 102 80
-138.232 314.877 -1568 143 110 85
-135.572 316.044 -1574 154 120 94
-132.721 316.81 -1578 164 126 98
-130.019 317.979 -1584 166 130 104
-126.573 317.342 -1581 168 133 108
-322.014 408.56 -2044 61 49 54
-316.404 406.674 -2035 69 52 50
-312.368 406.788 -2036 141 121 115
-308.028 406.503 -2035 166 127 110
-303.545 406.02 -2033 200 158 138
-299.515 406.137 -2034 215 167 141
-295.048 405.656 -2032 222 167 132
-291.021 405.776 -2033 224 167 129
-287.274 406.296 -2036 223 163 124
-283.657 407.016 -2040 218 157 122
-279.478 406.939 -2040 215 154 123
-275.3 406.863 -2040 215 155 128
-270.727 406.19 -2037 213 153 125
-266.561 406.117 -2037 209 148 118
-262.397 406.045 -2037 208 147 117
-258.742 406.771 -2041 209 148 118
-255.572 408.295 -2049 205 141 114
-254.089 412.609 -2071 187 128 101
-182.202 311.247 -1563 155 118 91
-179.362 311.795 -1566 147 113 91
-175.723 310.95 -1562 139 105 84
-172.213 310.306 -1559 131 97 81
-168.933 310.06 -1558 125 88 72
-165.446 309.418 -1555 121 84 67
-162.077 308.975 -1553 116 82 64
-158.615 308.335 -1550 114 81 63
-155.567 308.491 -1551 114 80 62
-152.026 307.654 -1547 115 81 60
-149.079 308.011 -1549 119 85 63
-146.503 309.164 -1555 123 87 65
-143.903 310.317 -1561 130 94 72
-141.551 312.068 -1570 138 102 80
-138.811 313.023 -1575 143 110 85
-136.224 314.377 -1582 152 118 93
-133.442 315.334 -1587 161 124 97
-130.722 316.491 -1593 160 124 99
-127.339 316.058 -1591 169 134 109
-321.768 404.111 -2043 67 53 53
-317.095 403.431 -2040 76 56 52
-312.59 402.95 -2038 124 101 94
-308.398 402.866 -2038 175 134 114
-303.911 402.388 -2036 206 162 140
-299.581 402.108 -2035 216 165 138
-295.403 402.028 -2035 225 168 131
-291.371 402.146 -2036 225 168 128
-287.337 402.265 -2037 225 164 125
-283.58 402.781 -2040 224 163 128
-279.265 402.507 -2039 221 161 128
-275.091 402.432 -2039 221 161 132
-270.786 402.161 -2038 221 161 133
-266.358 401.694 -2036 217 156 127
-262.325 401.82 -2037 212 150 121
-258.545 402.342 -2040 211 149 120
-255.128 403.455 -2046 205 144 116
-253.652 407.725 -2068 187 130 102
-182.269 308.206 -1564 154 115 88
-179.771 309.339 -1570 142 109 86
-176.463 309.094 -1569 135 102 82
-172.829 308.259 -1565 128 94 78
-169.646 308.213 -1565 122 85 69
-166.252 307.774 -1563 118 81 64
-162.868 307.336 -1561 115 81 63
-159.39 306.702 -1558 115 81 63
-156.127 306.463 -1557 113 79 61
-153.066 306.618 -1558 115 81 59
-149.809 306.381 -1557 119 85 63
-147.311 307.718 -1564 123 87 65
-144.694 308.86 -1570 130 94 71
-142.144 310.198 -1577 138 102 78
-139.479 311.34 -1583 144 111 86
-137.22 313.467 -1594 152 118 93
-134.414 314.413 -1599 156 120 94
-131.589 315.361 -1604 160 124 100
-128.345 315.326 -1604 164 128 105
-328.283 402.889 -2058 59 48 50
-322.469 400.844 -2048 70 54 52
-317.476 399.779 -2043 83 59 52
-312.812 399.108 -2040 155 126 118
-308.164 398.438 -2037 179 137 115
-303.53 397.769 -2034 202 156 132
-299.206 397.493 -2033 208 156 128
-295.034 397.413 -2033 214 155 120
-291.15 397.726 -2035 216 156 120
-287.542 398.43 -2039 218 156 120
-283.504 398.549 -2040 219 158 124
-279.601 398.865 -2042 220 161 128
-275.152 398.4 -2040 222 163 132
-270.847 398.132 -2039 224 164 134
-266.548 397.865 -2038 221 160 132
-262.384 397.794 -2038 214 152 124
-258.602 398.31 -2041 213 149 122
-255.309 399.607 -2048 204 146 118
-182.453 305.358 -1566 154 114 88
-180.181 306.869 -1574 140 108 85
-176.978 306.822 -1574 133 100 80
-173.224 305.801 -1569 124 90 74
-170.143 305.95 -1570 121 84 67
-166.739 305.515 -1568 118 80 63
-163.241 304.887 -1565 112 78 60
-159.757 304.26 -1562 111 77 59
-156.787 304.607 -1564 111 77 59
-153.712 304.761 -1565 115 81 60
-150.827 305.304 -1568 119 85 63
-147.554 305.07 -1567 124 88 66
-145.393 307.173 -1578 131 95 71
-142.827 308.497 -1585 138 101 77
-140.146 309.627 -1591 145 111 86
-137.614 311.147 -1599 151 118 92
-134.967 312.473 -1606 153 120 93
-132.292 313.8 -1613 155 120 97
-128.791 313.181 -1610 168 132 110
-326.76 396.871 -2049 61 48 51
-322.068 396.204 -2046 82 63 58
-317.08 395.151 -2041 122 92 82
-312.422 394.486 -2038 202 167 155
-307.779 393.824 -2035 197 153 129
-303.3 393.356 -2033 190 141 116
-299.421 393.663 -2035 198 142 115
-295.535 393.971 -2037 201 140 107
-291.644 394.28 -2039 204 142 108
-287.466 394.203 -2039 208 144 111
-283.706 394.708 -2042 212 151 117
-279.116 394.053 -2039 217 158 125
-274.944 393.98 -2039 222 163 132
-270.642 393.715 -2038 226 166 136
-266.608 393.837 -2039 228 167 138
-262.7 394.153 -2041 222 160 132
-258.787 394.471 -2043 216 154 126
-255.74 396.141 -2052 207 151 122
-183.57 304.048 -1576 154 114 88
-181.049 305.157 -1582 139 107 84
-177.606 304.724 -1580 131 99 78
-174.061 304.1 -1577 123 89 73
-170.964 304.247 -1578 121 84 67
-167.546 303.817 -1576 119 81 64
-163.824 302.81 -1571 112 78 60
-160.43 302.381 -1569 112 78 60
-157.748 303.303 -1574 113 79 61
-154.752 303.647 -1576 117 83 61
-151.845 304.185 -1579 119 85 63
-149.022 304.916 -1583 124 88 66
-146.275 305.84 -1588 131 95 71
-143.33 306.38 -1591 138 101 77
-140.725 307.691 -1598 147 111 86
-138.18 309.195 -1606 151 116 90
-135.603 310.699 -1614 152 119 92
-132.914 312.011 -1621 160 125 101
-129.717 312.169 -1622 171 135 113
-331.38 393.28 -2052 39 24 31
-325.877 391.66 -2044 52 35 38
-321.353 391.192 -2042 114 91 81
-317.152 391.108 -2042 145 109 95
-312.34 390.26 -2038 204 163 148
-307.849 389.795 -2036 218 171 147
-303.37 389.332 -2034 181 129 104
-299.342 389.445 -2035 190 132 105
-295.168 389.367 -2035 195 132 101
-291.282 389.673 -2037 195 131 100
-287.249 389.788 -2038 200 134 105
-283.215 389.905 -2039 205 143 112
-279.042 389.831 -2039 212 153 120
-274.737 389.568 -2038 221 162 131
-270.438 389.305 -2037 229 169 139
-266.668 389.809 -2040 232 171 141
-262.889 390.313 -2043 226 165 137
-259.099 390.818 -2046 217 157 128
-256.047 392.469 -2055 207 154 124
-185.152 303.463 -1590 152 114 87
-182.146 303.796 -1592 141 109 87
-178.458 302.986 -1588 130 97 77
-174.899 302.368 -1585 123 88 71
-171.678 302.323 -1585 121 83 66
-167.821 301.134 -1579 120 82 65
-164.407 300.71 -1577 113 79 61
-161.104 300.477 -1576 111 77 58
-158.508 301.579 -1582 114 79 60
-155.399 301.729 -1583 116 82 60
-152.382 302.07 -1585 120 86 63
-149.547 302.793 -1589 126 90 68
-146.882 303.898 -1595 132 95 72
-143.833 304.241 -1597 139 102 78
-141.217 305.538 -1604 147 110 84
-138.918 307.597 -1615 152 116 90
-136.324 309.084 -1623 155 121 95
-133.289 309.621 -1626 161 126 103
-331.455 389.213 -2053 38 21 25
-325.951 387.611 -2045 79 57 56
-321.584 387.337 -2044 145 111 99
-317.535 387.444 -2045 157 114 98
-312.871 386.794 -2042 186 140 122
-308.525 386.524 -2041 223 171 148
-304.036 386.066 -2039 181 125 101
-299.999 386.177 -2040 185 124 100
-295.671 385.91 -2039 188 123 96
-291.635 386.024 -2040 189 124 96
-287.315 385.759 -2039 195 129 101
-283.141 385.686 -2039 200 136 107
-278.696 385.235 -2037 205 144 113
-274.8 385.541 -2039 217 156 127
-270.368 385.093 -2037 229 168 139
-266.861 385.968 -2042 235 174 144
-262.821 386.089 -2043 231 171 141
-259.158 386.778 -2047 222 163 133
-185.919 301.5 -1597 150 113 86
-182.67 301.453 -1597 139 106 85
-179.198 301.029 -1595 130 96 76
-175.515 300.228 -1591 123 86 69
-172.608 300.75 -1594 119 81 64
-168.84 299.762 -1589 118 80 63
-165.302 299.153 -1586 113 79 61
-161.982 298.923 -1585 114 79 60
-159.269 299.824 -1590 118 82 62
-156.242 300.161 -1592 115 81 59
-153.496 301.064 -1597 118 84 61
-150.544 301.59 -1600 125 89 65
-147.765 302.495 -1605 131 94 70
-144.786 303.022 -1608 138 101 77
-141.973 303.928 -1613 146 109 83
-139.312 305.211 -1620 153 116 91
-136.877 307.059 -1630 158 123 98
-133.91 307.778 -1634 162 128 105
-331.692 385.333 -2055 47 26 26
-326.186 383.748 -2047 108 79 74
-321.344 382.915 -2043 156 111 98
-317.608 383.396 -2046 166 117 98
-312.637 382.378 -2041 166 116 96
-309.05 383.048 -2045 226 170 147
-304.256 382.22 -2041 192 133 111
-300.51 382.704 -2044 179 117 95
-296.029 382.253 -2042 184 119 94
-291.988 382.365 -2043 184 118 92
-287.664 382.104 -2042 192 124 98
-283.485 382.031 -2042 195 131 103
-278.761 381.21 -2038 199 138 108
-274.73 381.327 -2039 214 153 125
-270.564 381.257 -2039 228 167 138
-266.923 381.936 -2043 237 176 146
-262.882 382.056 -2044 235 178 148
-259.472 383.11 -2050 229 172 142
-186.337 298.952 -1601 150 113 86
-182.966 298.718 -1600 138 104 84
-179.489 298.299 -1598 131 95 76
-175.801 297.507 -1594 122 84 67
-172.456 297.276 -1593 117 79 62
-168.797 296.486 -1589 117 79 62
-165.677 296.63 -1590 113 79 61
-162.452 296.588 -1590 115 80 61
-159.729 297.48 -1595 117 81 61
-156.791 297.999 -1598 117 82 60
-154.13 299.079 -1604 120 84 62
-150.976 299.226 -1605 126 89 65
-148.003 299.748 -1608 134 95 71
-144.929 300.083 -1610 141 102 78
-142.289 301.351 -1617 148 111 85
-139.449 302.247 -1622 153 116 91
-137.01 304.076 -1632 159 122 98
-133.876 304.414 -1634 163 130 109
-336.658 382.089 -2060 36 27 37
-331.446 380.891 -2054 68 42 36
-326.102 379.51 -2047 133 96 88
-322.048 379.613 -2048 164 108 95
-318.148 379.902 -2050 166 112 91
-313.476 379.266 -2047 165 111 89
-309.273 379.187 -2047 215 155 133
-304.924 378.924 -2046 210 148 127
-301.021 379.218 -2048 174 110 90
-296.534 378.772 -2046 180 116 93
-292.486 378.883 -2047 180 114 91
-288.013 378.439 -2045 189 119 95
-283.552 377.997 -2043 195 131 103
-279.374 377.925 -2043 204 143 113
-274.929 377.485 -2041 221 160 132
-271.026 377.786 -2043 232 172 143
-266.855 377.718 -2043 239 180 149
-263.072 378.206 -2046 238 184 153
-259.153 378.51 -2048 236 183 153
-191.204 298.284 -1615 161 123 95
-188.035 298.421 -1616 152 114 87
-183.835 296.897 -1608 137 103 83
-180.342 296.481 -1606 129 93 75
-176.639 295.698 -1602 120 82 65
-173.386 295.654 -1602 116 78 60
-169.498 294.504 -1596 117 78 61
-166.572 295.015 -1599 113 79 61
-163.432 295.158 -1600 115 80 61
-160.289 295.302 -1601 116 80 60
-157.143 295.446 -1602 119 83 61
-154.475 296.514 -1608 122 86 63
-151.408 296.844 -1610 128 91 67
-148.242 296.991 -1611 137 98 73
-145.343 297.691 -1615 144 104 79
-142.692 298.945 -1622 149 113 87
-139.929 300.016 -1628 154 118 92
-137.227 301.271 -1635 161 124 99
-133.842 301.053 -1634 156 125 106
-338.207 379.659 -2070 36 25 35
-333.46 379.024 -2067 92 57 47
-327.613 377.108 -2057 147 101 90
-322.753 376.293 -2053 167 105 91
-318.378 376.029 -2052 164 106 86
-313.704 375.4 -2049 165 107 86
-309.497 375.322 -2049 202 140 120
-304.847 374.696 -2046 213 150 132
-301.239 375.352 -2050 170 107 89
-297.184 375.46 -2051 175 112 91
-292.698 375.021 -2049 179 115 93
-288.504 374.948 -2049 187 118 94
-284.035 374.51 -2047 197 134 106
-279.987 374.623 -2048 210 149 119
-275.668 374.371 -2047 223 162 134
-271.356 374.119 -2046 235 175 146
-267.31 374.235 -2047 244 185 154
-263.263 374.352 -2048 244 190 160
-259.341 374.652 -2050 244 191 161
-191.511 295.503 -1618 163 124 96
-188.337 295.639 -1619 155 116 90
-184.36 294.497 -1613 138 104 84
-180.858 294.086 -1611 128 93 74
-177.256 293.494 -1608 120 83 66
-174.1 293.633 -1609 118 78 59
-170.305 292.678 -1604 117 78 59
-167.468 293.365 -1608 114 78 60
-164.31 293.507 -1609 116 80 61
-161.05 293.466 -1609 117 81 61
-157.791 293.427 -1609 119 83 61
-155.013 294.299 -1614 122 86 64
-151.746 294.261 -1614 130 93 69
-148.389 294.042 -1613 137 98 73
-145.756 295.281 -1620 143 103 78
-142.921 296.157 -1625 148 111 85
-140.238 297.397 -1632 153 116 90
-137.109 297.727 -1634 156 119 93
-337.632 374.833 -2067 38 27 37
-333.054 374.387 -2065 112 67 54
-327.85 373.218 -2059 152 99 85
-323.458 372.956 -2058 166 102 86
-318.919 372.514 -2056 167 105 84
-314.391 372.073 -2054 167 105 84
-310.024 371.814 -2053 182 120 101
-305.665 371.557 -2052 226 164 147
-301.458 371.482 -2052 191 129 114
-297.544 371.77 -2054 169 107 88
-293.196 371.516 -2053 178 115 95
-288.855 371.263 -2052 187 120 95
-284.381 370.83 -2050 198 136 107
-280.328 370.941 -2051 216 155 125
-275.869 370.511 -2049 227 166 138
-271.951 370.805 -2051 237 177 148
-267.375 370.196 -2048 245 186 155
-263.455 370.492 -2050 246 192 162
-259.024 370.066 -2048 243 191 161
-195.237 292.941 -1622 174 134 103
-192.292 293.435 -1625 165 125 98
-188.756 293.027 -1623 156 116 90
-184.772 291.898 -1617 140 106 86
-181.599 292.034 -1618 131 95 77
-177.984 291.448 -1615 124 87 70
-174.49 291.044 -1613 121 81 63
-171.006 290.641 -1611 119 79 60
-168.156 291.32 -1615 116 78 61
-164.78 291.099 -1614 117 80 61
-161.71 291.42 -1616 118 82 62
-158.242 291.02 -1614 120 84 62
-155.359 291.702 -1618 125 89 66
-152.179 291.845 -1619 132 95 71
-148.996 291.988 -1620 138 99 75
-146.17 292.853 -1625 142 102 77
-143.501 294.079 -1632 146 108 82
-140.461 294.585 -1635 151 114 87
-137.075 294.371 -1634 152 115 88
-133.612 293.977 -1632 165 136 122
-338.039 371.099 -2070 47 36 43
-333.294 370.479 -2067 131 76 60
-328.405 369.681 -2063 155 96 79
-324.007 369.421 -2062 160 98 79
-319.306 368.805 -2059 168 101 81
-314.772 368.37 -2057 168 102 82
-309.948 367.577 -2053 173 111 94
-306.036 367.859 -2055 225 163 149
-302.559 368.68 -2060 217 154 142
-298.05 368.248 -2058 169 108 91
-293.553 367.818 -2056 178 116 97
-289.488 367.926 -2057 189 124 98
-284.866 367.319 -2054 204 142 113
-280.669 367.25 -2054 225 164 134
-275.936 366.467 -2050 235 174 146
-272.282 367.115 -2054 242 182 153
-267.57 366.334 -2050 246 187 156
-263.262 366.091 -2049 244 191 161
-259.466 366.563 -2052 232 181 151
-195.068 289.425 -1621 172 130 100
-192.6 290.627 -1628 165 125 98
-188.826 289.867 -1624 154 115 89
-185.298 289.464 -1622 138 107 86
-181.779 289.063 -1620 131 96 77
-178.381 288.841 -1619 127 90 73
-174.772 288.262 -1616 123 84 65
-171.601 288.399 -1617 120 81 62
-168.739 289.071 -1621 118 80 63
-165.557 289.209 -1622 119 82 63
-162.171 288.99 -1621 120 84 64
-158.791 288.773 -1620 122 86 63
-155.801 289.27 -1623 126 90 67
-152.423 289.054 -1622 135 98 73
-149.327 289.374 -1624 142 102 78
-146.584 290.407 -1630 144 104 79
-143.906 291.619 -1637 148 109 84
-140.942 292.297 -1641 152 113 87
-137.796 292.62 -1643 155 118 89
-134.234 292.052 -1640 175 146 133
-342.219 366.906 -2070 28 21 26
-338.12 367.001 -2071 55 46 51
-333.535 366.565 -2069 142 79 61
-328.962 366.13 -2067 156 94 75
-324.4 365.697 -2065 156 95 75
-319.383 364.734 -2060 167 96 76
-314.849 364.303 -2058 168 97 79
-310.023 363.519 -2054 163 101 87
-305.962 363.622 -2055 198 135 124
-301.605 363.371 -2054 233 170 161
-297.978 364.006 -2058 175 114 98
-293.196 363.228 -2054 178 117 97
-289.136 363.334 -2055 193 131 101
-284.52 362.734 -2052 212 150 121
-280.055 362.313 -2050 230 169 140
-275.869 362.246 -2050 237 176 148
-271.686 362.18 -2050 243 183 154
-266.722 361.055 -2044 247 188 157
-262.813 361.344 -2046 244 192 161
-258.518 361.105 -2045 225 175 145
-196.585 288.385 -1634 168 125 99
-193.5 288.691 -1636 160 122 95
-189.594 287.763 -1631 148 111 84
-185.938 287.189 -1628 134 105 84
-182.521 286.968 -1627 131 96 77
-178.778 286.219 -1623 131 90 73
-175.594 286.353 -1624 123 85 67
-172.302 286.311 -1624 119 81 63
-169.531 287.151 -1629 119 82 63
-166.027 286.759 -1627 120 84 65
-163.032 287.248 -1630 120 83 65
-159.341 286.504 -1626 124 87 62
-156.435 287.171 -1630 126 89 64
-153.232 287.311 -1631 132 95 70
-150.211 287.803 -1634 141 102 78
-147.448 288.824 -1640 147 107 83
-144.838 290.197 -1648 146 107 83
-142.111 291.396 -1655 148 111 86
-138.937 291.714 -1657 156 120 94
-135.921 292.385 -1661 182 151 135
-342.137 362.633 -2070 32 26 28
-337.385 362.026 -2067 68 60 60
-333.294 362.121 -2068 150 79 61
-329.042 362.042 -2068 158 93 73
-324.322 361.438 -2065 154 96 74
-319.461 360.661 -2061 170 94 75
-315.079 360.41 -2060 170 96 79
-310.553 359.985 -2058 161 101 88
-306.037 359.562 -2056 169 107 98
-302.119 359.839 -2058 242 189 181
-298.341 360.292 -2061 217 157 141
-293.268 359.173 -2055 179 119 98
-288.926 358.928 -2054 194 134 102
-284.174 358.161 -2050 215 155 126
-279.851 357.919 -2049 231 171 143
-275.399 357.504 -2047 236 175 147
-271.091 357.264 -2046 240 180 151
-266.528 356.676 -2043 244 185 154
-262.75 357.137 -2046 245 195 164
-258.203 356.551 -2043 226 178 148
-193.572 285.504 -1637 159 119 93
-189.548 284.412 -1631 145 106 81
-185.894 283.845 -1628 132 100 79
-182.477 283.626 -1627 131 93 75
-179.176 283.584 -1627 130 88 72
-175.769 283.367 -1626 122 84 67
-172.685 283.674 -1628 121 83 65
-169.907 284.505 -1633 120 83 64
-166.497 284.291 -1632 121 84 66
-163.693 285.123 -1637 123 85 68
-160.381 285.084 -1637 123 86 60
-156.973 284.872 -1636 125 88 63
-153.759 285.01 -1637 130 93 67
-150.91 285.844 -1642 141 101 78
-148.312 287.201 -1650 146 106 83
-145.506 288.211 -1656 145 107 83
-142.85 289.569 -1664 148 111 87
-139.994 290.58 -1670 160 123 100
-137.115 291.591 -1676 176 144 124
-344.038 360.441 -2082 47 30 33
-338.121 358.629 -2072 87 65 66
-333.214 357.857 -2068 140 81 68
-328.964 357.779 -2068 149 87 72
-324.558 357.528 -2067 154 91 72
-320.005 357.106 -2065 168 97 79
-315.769 357.031 -2065 165 96 79
-311.384 356.784 -2064 161 102 88
-307.155 356.711 -2064 166 105 91
-303.222 356.985 -2066 220 158 144
-298.704 356.568 -2064 235 183 162
-293.912 355.807 -2060 184 132 108
-289.42 355.393 -2058 189 138 106
-284.245 354.117 -2051 214 161 131
-279.784 353.705 -2049 226 172 142
-275.469 353.467 -2048 236 177 148
-271.027 353.057 -2046 246 187 158
-266.595 352.649 -2044 252 195 165
-262.174 352.242 -2042 253 203 174
-194.353 283.349 -1644 156 113 88
-190.433 282.442 -1639 144 101 77
-186.421 281.364 -1633 131 94 75
-183.331 281.666 -1635 126 87 69
-179.574 280.934 -1631 124 84 67
-176.376 281.064 -1632 120 82 65
-173.175 281.196 -1633 119 81 64
-170.595 282.361 -1640 119 81 62
-167.172 282.149 -1639 121 83 65
-164.255 282.799 -1643 122 84 67
-160.931 282.761 -1643 121 85 60
-157.512 282.551 -1642 126 90 65
-154.287 282.687 -1643 134 97 71
-151.61 283.855 -1650 144 105 81
-148.726 284.681 -1655 144 104 81
-146.087 286.022 -1663 144 104 80
-143.674 287.88 -1674 151 113 87
-140.967 289.222 -1682 164 127 99
-138.228 290.565 -1690 177 139 117
-346.766 359.057 -2099 58 36 39
-339.836 356.24 -2083 94 67 68
-334.425 354.964 -2076 130 80 70
-329.999 354.715 -2075 141 83 68
-325.581 354.468 -2074 149 85 66
-320.705 353.709 -2070 158 91 72
-316.306 353.463 -2069 161 94 77
-312.065 353.39 -2069 163 102 87
-307.529 352.976 -2067 168 108 92
-303.298 352.905 -2067 172 113 96
-298.779 352.493 -2065 222 169 148
-294.128 351.912 -2062 211 161 137
-289.211 350.991 -2057 190 143 114
-284.456 350.242 -2053 213 164 136
-279.719 349.494 -2049 230 181 152
-275.539 349.429 -2049 244 190 161
-271.493 349.536 -2050 251 197 169
-266.272 348.11 -2042 255 202 174
-262.241 348.219 -2043 251 201 173
-195.136 281.168 -1651 150 105 82
-190.853 279.761 -1643 143 97 76
-187.062 279.036 -1639 131 88 70
-183.625 278.823 -1638 125 82 66
-180.193 278.611 -1637 124 82 66
-177.199 279.08 -1640 121 82 65
-173.982 279.209 -1641 120 81 63
-171.283 280.19 -1647 119 80 61
-168.255 280.661 -1650 119 80 62
-165.116 280.963 -1652 119 80 63
-161.775 280.925 -1652 121 84 60
-158.435 280.888 -1652 129 92 68
-155.19 281.022 -1653 138 101 76
-152.493 282.176 -1660 142 103 79
-149.68 283.161 -1666 134 94 71
-146.843 284.147 -1672 140 100 75
-144.67 286.492 -1686 153 115 87
-142.107 288.158 -1696 165 127 97
-336.28 352.716 -2088 125 82 70
-331.354 351.964 -2084 134 82 65
-326.29 351.044 -2079 144 85 64
-321.405 350.294 -2075 152 87 65
-317.303 350.389 -2076 158 92 72
-312.747 349.979 -2074 168 100 86
-308.202 349.57 -2072 168 108 95
-303.667 349.162 -2070 171 115 102
-298.854 348.418 -2066 195 134 117
-293.775 347.338 -2060 227 171 152
-288.863 346.428 -2055 219 172 147
-283.697 345.182 -2048 223 179 153
-279.381 344.949 -2047 239 195 169
-275.34 345.053 -2048 249 202 175
-270.768 344.485 -2045 253 204 178
-265.559 343.076 -2037 255 203 178
-261.026 342.511 -2034 252 202 176
-196.745 280.138 -1665 144 96 77
-192.435 278.748 -1657 140 91 73
-187.932 277.022 -1647 133 85 68
-184.367 276.643 -1645 126 82 65
-180.922 276.433 -1644 124 81 65
-177.807 276.729 -1646 121 81 64
-174.578 276.856 -1647 121 80 63
-171.66 277.489 -1651 120 79 60
-168.522 277.787 -1653 119 79 61
-165.578 278.42 -1657 118 78 61
-162.129 278.215 -1656 120 82 59
-158.686 278.01 -1655 126 89 65
-155.811 278.814 -1660 131 94 70
-153.193 280.123 -1668 132 92 69
-150.633 281.599 -1677 125 85 62
-147.776 282.573 -1683 139 99 74
-146.096 285.897 -1703 157 118 89
-143.499 287.543 -1713 166 128 95
-336.206 352.849 -2115 124 80 65
-329.511 350.271 -2100 136 86 67
-324.119 349.029 -2093 148 88 66
-319.216 348.288 -2089 157 97 76
-314.333 347.549 -2085 168 109 91
-309.172 346.479 -2079 173 118 104
-304.478 345.909 -2076 172 118 106
-299.22 344.674 -2069 181 116 98
-293.85 343.274 -2061 208 149 128
-288.797 342.209 -2055 236 185 160
-283.494 340.811 -2047 242 195 172
-279.317 340.748 -2047 248 201 179
-275.009 340.518 -2046 252 202 179
-270.574 340.124 -2044 255 205 183
-264.977 338.233 -2033 254 200 179
-199.417 280.549 -1688 143 94 76
-194.249 278.012 -1673 135 85 68
-189.6 276.141 -1662 129 81 64
-185.334 274.769 -1654 123 78 62
-181.871 274.562 -1653 120 77 61
-178.846 275.019 -1656 118 75 59
-175.386 274.813 -1655 119 77 60
-172.452 275.438 -1659 120 78 59
-169.197 275.566 -1660 119 78 61
-165.84 275.528 -1660 120 80 63
-162.582 275.657 -1661 121 82 59
-159.321 275.786 -1662 124 85 61
-156.714 277.078 -1670 125 86 61
-154.076 278.37 -1678 123 84 60
-151.587 279.995 -1688 128 88 65
-148.795 281.122 -1695 143 103 79
-146.577 283.411 -1709 158 117 89
-143.885 284.87 -1718 168 126 95
-141.484 286.994 -1731 175 132 105
-138.554 288.123 -1738 187 143 116
-321.741 346.797 -2106 159 106 85
-316.071 345.243 -2097 163 114 93
-310.292 343.526 -2087 171 118 104
-304.849 342.14 -2079 173 120 108
-299.297 340.592 -2070 190 122 102
-294.212 339.538 -2064 212 150 128
-288.732 337.992 -2055 237 184 158
-283.569 336.777 -2048 253 204 185
-279.255 336.549 -2047 254 206 188
-275.216 336.652 -2048 254 205 186
-270.249 335.604 -2042 255 209 192
-264.266 333.244 -2028 255 201 186
-210.368 287.481 -1751 151 107 83
-203.388 282.674 -1722 144 94 77
-196.876 278.362 -1696 132 82 66
-191.953 276.185 -1683 124 76 59
-187.197 274.174 -1671 119 73 57
-183.15 273.148 -1665 116 71 55
-179.886 273.271 -1666 114 71 55
-176.725 273.56 -1668 116 73 56
-173.557 273.849 -1670 117 74 56
-170.382 274.138 -1672 117 75 58
-167.101 274.265 -1673 120 79 63
-164.013 274.72 -1676 123 83 60
-160.627 274.683 -1676 124 84 60
-157.992 275.959 -1684 124 84 59
-155.327 277.235 -1692 123 83 59
-152.361 278.02 -1697 132 92 69
-149.464 278.969 -1703 146 106 83
-146.973 280.738 -1714 161 118 92
-144.188 282.016 -1722 170 125 96
-141.698 283.95 -1734 168 131 104
-317.357 342.402 -2106 161 115 95
-310.668 339.731 -2090 173 119 105
-304.634 337.713 -2078 176 120 108
-299.086 336.183 -2069 207 135 113
-293.719 334.818 -2061 226 162 136
-288.387 333.454 -2053 233 180 151
-283.09 332.091 -2045 243 185 169
-278.51 331.542 -2042 236 179 164
-274.214 331.319 -2041 243 188 173
-268.865 329.798 -2032 251 190 180
-220.107 292.215 -1802 168 115 97
-212.964 287.465 -1773 150 105 82
-206.059 282.879 -1745 143 94 77
-198.689 277.486 -1712 132 84 67
-193.621 275.173 -1698 123 75 60
-188.723 273.025 -1685 118 71 56
-184.209 271.363 -1675 114 67 52
-180.71 271.161 -1674 111 68 52
-177.851 271.931 -1679 114 70 54
-174.246 271.569 -1677 115 71 53
-171.261 272.178 -1681 116 73 57
-167.763 271.979 -1680 122 79 63
-165.151 273.238 -1688 124 84 61
-161.741 273.202 -1688 123 83 59
-159.365 274.947 -1699 124 84 59
-156.394 275.721 -1704 127 87 64
-153.584 276.82 -1711 135 95 72
-150.572 277.595 -1716 147 107 84
-147.798 278.856 -1724 160 120 94
-145.077 280.28 -1733 166 126 97
-142.729 282.513 -1747 170 133 107
-140.405 284.907 -1762 177 139 112
-312.383 337.371 -2102 178 122 108
-305.3 334.255 -2083 185 125 112
-299.164 332.103 -2070 216 145 122
-293.654 330.594 -2061 236 165 142
-288.043 328.927 -2051 240 168 145
-282.751 327.581 -2043 245 148 143
-277.904 326.718 -2038 228 127 124
-273.213 326.017 -2034 210 101 100
-267.616 324.195 -2023 217 98 101
-228.189 294.342 -1838 127 64 57
-220.181 288.689 -1803 158 105 89
-214.839 286.4 -1789 153 107 86
-208.965 283.312 -1770 141 93 76
-196.086 275.222 -1720 125 79 64
-191.145 273.1 -1707 119 73 58
-185.928 270.5 -1691 115 68 53
-182.181 269.98 -1688 114 68 53
-178.977 270.26 -1690 116 71 55
-175.142 269.582 -1686 118 73 55
-171.835 269.705 -1687 120 76 59
-168.126 269.188 -1684 126 82 66
-165.31 270.111 -1690 123 83 61
-162.185 270.555 -1693 124 84 61
-159.705 272.118 -1703 126 86 62
-156.544 272.563 -1706 131 91 68
-154.089 274.287 -1717 141 100 77
-151.153 275.212 -1723 151 110 87
-148.109 275.978 -1728 160 121 95
-145.464 277.543 -1738 164 127 98
-143.188 279.907 -1753 169 131 108
-140.853 282.271 -1768 181 141 116
-147.431 337.98 -2118 208 62 77
-304.941 329.67 -2081 197 130 117
-298.521 327.229 -2066 213 146 123
-293.59 326.373 -2061 232 150 133
-288.261 325.043 -2053 234 134 123
-282.69 323.399 -2043 246 103 112
-277.707 322.389 -2037 237 89 100
-272.617 321.222 -2030 254 92 107
-265.574 317.683 -2008 255 97 113
-226.65 288.687 -1826 109 42 37
-220.378 285.319 -1805 144 88 76
-215.873 284.166 -1798 152 103 87
-210.691 282.066 -1785 141 93 76
-203.823 277.597 -1757 136 89 72
-198.21 274.71 -1739 127 83 67
-193.343 272.773 -1727 120 74 58
-187.537 269.415 -1706 115 68 53
-183.436 268.428 -1700 115 68 53
-180.526 269.178 -1705 117 70 55
-177.078 269.14 -1705 119 72 55
-173.529 268.944 -1704 124 77 61
-169.487 267.961 -1698 128 81 66
-166.253 268.24 -1700 122 82 61
-163.108 268.678 -1703 125 85 63
-160.327 269.748 -1710 129 89 66
-157.244 270.345 -1714 136 96 73
-154.953 272.362 -1727 145 105 82
-151.998 273.275 -1733 156 114 91
-148.762 273.716 -1736 162 122 97
-145.851 274.788 -1743 166 126 100
-143.075 276.176 -1752 172 131 108
-140.663 278.353 -1766 184 141 118
-138.118 280.372 -1779 178 129 105
-146.007 330.514 -2098 217 66 80
-305.168 325.722 -2083 200 123 115
-298.168 322.687 -2064 227 123 115
-292.958 321.529 -2057 228 110 108
-287.497 320.061 -2048 228 95 100
-282.214 318.75 -2040 242 87 103
-276.421 316.816 -2028 250 95 112
-271.216 315.508 -2020 255 101 116
-264.195 312.015 -1998 255 102 119
-232.834 288.126 -1846 161 24 35
-225.981 284.176 -1821 104 33 28
-220.819 282.256 -1809 128 68 58
-217.027 282.053 -1808 149 94 82
-212.18 280.448 -1798 142 94 77
-205.983 276.972 -1776 136 88 72
-200.219 273.966 -1757 127 81 66
-195.316 272.054 -1745 120 73 58
-189.146 268.271 -1721 117 69 54
-184.908 267.141 -1714 115 67 52
-181.864 267.725 -1718 115 67 51
-178.182 267.376 -1716 117 69 52
-174.511 267.027 -1714 120 73 57
-170.948 266.834 -1713 122 75 60
-167.195 266.331 -1710 121 81 60
-163.839 266.452 -1711 124 84 62
-160.855 267.196 -1716 129 89 66
-157.669 267.63 -1719 138 98 75
-155.01 268.998 -1728 149 108 85
-152.404 270.522 -1738 157 115 92
-149.416 271.424 -1744 163 122 98
-146.573 272.638 -1752 166 125 100
-143.78 274.008 -1761 174 132 107
-141.43 276.311 -1776 185 140 116
-138.865 278.304 -1789 179 126 103
-144.655 323.289 -2079 218 62 77
-305.836 322.231 -2088 202 107 105
-298.539 318.927 -2067 226 94 98
-293.18 317.63 -2059 231 88 98
-287.015 315.41 -2045 244 91 108
-282.016 314.425 -2039 255 97 116
-275.545 311.745 -2022 255 105 123
-268.877 308.759 -2003 253 101 117
-238.586 286.87 -1862 208 54 69
-230.893 282.045 -1831 157 19 30
-225.561 279.995 -1818 103 25 22
-221.504 279.487 -1815 116 49 43
-218.062 279.748 -1817 144 84 76
-213.433 278.472 -1809 143 95 78
-207.795 275.811 -1792 136 89 72
-201.771 272.536 -1771 130 83 68
-197.178 271.11 -1762 125 77 62
-191.633 268.3 -1744 122 73 58
-187.026 266.722 -1734 118 69 55
-183.307 266.375 -1732 116 67 52
-179.495 265.876 -1729 117 69 52
-175.899 265.685 -1728 118 71 56
-172.01 265.034 -1724 119 72 57
-168.333 264.691 -1722 119 78 57
-165.241 265.271 -1726 123 82 60
-162.04 265.698 -1729 128 88 65
-158.553 265.665 -1729 136 96 73
-155.964 267.168 -1739 147 107 84
-153.249 268.519 -1748 155 113 91
-150.413 269.716 -1756 162 121 97
-147.462 270.76 -1763 167 125 100
-144.729 272.265 -1773 175 132 106
-141.798 273.464 -1781 185 138 113
-139.302 275.584 -1795 178 119 98
-138.337 280.928 -1830 199 79 82
-142.607 314.609 -2050 231 70 86
-305.04 317.2 -2083 210 85 92
-297.465 313.635 -2060 233 85 97
-291.98 312.204 -2051 247 95 112
-285.693 309.861 -2036 254 98 120
-279.607 307.672 -2022 255 103 122
-273.444 305.332 -2007 255 102 121
-266.137 301.626 -1983 255 108 125
-235.974 280.029 -1842 203 48 64
-230.341 277.7 -1827 156 17 29
-226.383 277.349 -1825 107 22 21
-222.923 277.607 -1827 107 35 32
-219.816 278.321 -1832 133 67 62
-215.984 278.124 -1831 138 89 73
-210.998 276.409 -1820 138 90 74
-205.375 273.784 -1803 133 86 70
-200.046 271.465 -1788 131 82 67
-194.779 269.147 -1773 127 77 63
-189.791 267.134 -1760 120 70 56
-184.856 265.122 -1747 117 67 52
-181.014 264.629 -1744 118 68 52
-177.084 263.986 -1740 117 69 54
-172.971 263.039 -1734 117 70 55
-168.787 261.942 -1727 118 76 55
-165.876 262.818 -1733 123 81 59
-162.568 263.088 -1735 128 86 62
-159.162 263.206 -1736 134 94 71
-156.56 264.69 -1746 145 105 82
-153.831 266.022 -1755 153 111 90
-150.724 266.749 -1760 156 118 96
-147.599 267.476 -1765 161 127 103
-144.699 268.658 -1773 176 131 104
-141.609 269.538 -1779 186 135 111
-139.273 271.933 -1795 174 106 87
-138.082 276.752 -1827 197 76 79
-137.646 283.389 -1871 225 82 94
-304.684 312.642 -2081 236 91 103
-296.538 308.525 -2054 249 98 110
-290.782 306.812 -2043 250 95 111
-284.792 304.801 -2030 255 105 125
-278.858 302.792 -2017 255 106 120
-271.889 299.584 -1996 255 113 127
-263.264 294.426 -1962 255 117 132
-253.061 287.321 -1915 254 104 120
-243.573 280.82 -1872 212 53 71
-235.157 275.371 -1836 196 42 59
-230.798 274.573 -1831 152 15 27
-226.956 274.377 -1830 110 19 19
-224.097 275.38 -1837 101 25 23
-221.211 276.384 -1844 118 47 45
-217.355 276.19 -1843 128 76 63
-212.23 274.348 -1831 137 87 72
-207.041 272.357 -1818 135 88 71
-201.571 269.919 -1802 134 84 69
-196.387 267.782 -1788 129 78 64
-191.477 265.945 -1776 121 70 55
-187.146 264.858 -1769 117 66 51
-183.156 264.222 -1765 117 67 51
-179.49 264.036 -1764 115 68 52
-175.13 262.802 -1756 115 69 52
-170.707 261.42 -1747 117 74 55
-167.374 261.685 -1749 123 80 58
-163.753 261.502 -1748 130 86 62
-160.138 261.319 -1747 133 92 68
-157.514 262.783 -1757 143 103 79
