ply
format ascii 1.0
comment Created by Open3D
element vertex 742
property double x
property double y
property double z
property double nx
property double ny
property double nz
property uchar red
property uchar green
property uchar blue
end_header
18.043 -77.4982 -1624.3 0.838302 -0.212858 -0.49578 196 187 132
19.7183 -71.1675 -1623.31 0.870252 -0.156417 -0.447294 197 185 126
26.4193 -57.5852 -1621.25 0.701506 -0.435813 -0.488768 191 181 130
28.7663 -52.1975 -1624.43 0.656372 -0.533579 -0.476344 195 185 130
-156.791 -1109.12 -1616.16 0.541438 0.122816 -0.830139 30 30 30
-154.654 -1098.67 -1614.77 0.496491 0.0265683 -0.864431 30 29 30
-154.696 -1097.03 -1614.95 0.483408 0.0203742 -0.872034 30 30 30
-156.737 -1086.79 -1615.73 0.436364 0.0397687 -0.899 30 30 30
-161.848 -1082.11 -1617.77 0.443753 0.0148129 -0.893335 29 29 29
-159.787 -1076.25 -1617.3 0.461604 -0.0446451 -0.880366 30 30 31
-149.841 -1082.57 -1612.54 0.438183 0.00454271 -0.898568 30 30 30
-151.263 -1070 -1615.43 0.336509 -0.208304 -0.914208 30 30 29
-149.419 -1062.77 -1618.24 0.20826 -0.263137 -0.94122 30 30 28
-140.244 -1054.59 -1613.17 0.587429 -0.0627121 -0.767503 29 28 28
-144.181 -1051.65 -1617.53 0.319356 0.10513 -0.88986 29 28 28
-147.03 -1045.3 -1617.11 0.371099 0.253454 -0.857814 29 27 27
-146.456 -1038.41 -1614.79 0.453378 0.0910296 -0.849927 29 27 28
-347.583 -1033.17 -1612.2 -0.440684 0.187217 -0.823665 41 45 40
-349.166 -1016.55 -1612.56 -0.700535 0.0509365 -0.69318 41 44 40
-300.004 -707.975 -1613.79 -0.615091 0.0541499 -0.755334 42 44 41
-299.758 -697.679 -1613.41 -0.621806 0.0912455 -0.742287 41 44 41
-278.45 -736.196 -1614.01 -0.609654 0.0681336 -0.774276 38 41 38
-280.38 -730.568 -1612.02 -0.57716 0.039775 -0.81693 40 43 40
-278.635 -718.764 -1613.21 -0.699548 0.0587976 -0.715748 38 41 38
-278.068 -707.06 -1614.36 -0.674656 0.0294946 -0.726983 40 41 38
-276.324 -696.499 -1618.24 -0.693051 0.0632306 -0.695472 39 40 37
-293.936 -687.765 -1618.37 -0.610129 0.131656 -0.76272 39 42 39
-294.222 -661.91 -1615.14 -0.702431 -0.257802 -0.58517 40 42 40
-293.428 -661.951 -1613.86 -0.635439 -0.235775 -0.649309 40 42 39
-298.275 -649.735 -1616.21 -0.639094 0.253323 -0.7013 38 41 38
-292.656 -644.115 -1614.49 -0.389401 0.413171 -0.708277 39 42 39
-278.103 -676.996 -1618.44 -0.683337 -0.0474385 -0.706889 40 40 38
-95.7985 -1034.47 -1612.85 -0.933628 -0.102469 -0.344365 31 31 27
-94.7186 -1025.34 -1617.5 -0.922545 -0.10042 -0.372428 31 32 27
-97.6166 -1015.52 -1613.23 -0.91834 -0.103622 -0.381322 30 30 26
-137.707 -996.782 -1615.82 0.564648 -0.0655529 -0.818726 28 26 27
-97.6253 -1009.13 -1615.06 -0.918485 -0.09887 -0.382895 30 30 26
-99.0162 -998.571 -1612.83 -0.904651 -0.0660873 -0.393437 30 30 27
-98.1572 -987 -1616.71 -0.8942 -0.0424155 -0.425054 30 29 26
-135.707 -977 -1615.19 0.570685 -0.0434625 -0.817162 29 27 27
-138.257 -962.984 -1617.4 0.578645 -0.0260692 -0.811718 29 27 28
-98.6128 -981.513 -1616.37 -0.89137 -0.0726451 -0.43849 31 30 27
-102.795 -963.403 -1613.22 -0.900735 -0.0580349 -0.434326 30 29 26
-133.793 -956.675 -1612.75 0.675516 0.0445864 -0.731201 28 25 26
-97.5678 -809.438 -1615.67 -0.885066 -0.109119 -0.442326 32 31 29
-99.7614 -797.513 -1613.42 -0.904753 -0.0768997 -0.418072 32 31 28
-101.697 -777.887 -1612.35 -0.891063 -0.10412 -0.438063 29 29 27
-99.3344 -777.078 -1617.1 -0.887491 -0.0959643 -0.445753 29 29 27
-100.231 -774.602 -1616.39 -0.884919 -0.12052 -0.444523 29 29 27
-104.457 -750.316 -1614.44 -0.935794 -0.116233 -0.325923 29 29 28
-105.035 -738.039 -1615.35 -0.959336 -0.0659565 -0.27166 31 31 29
-105.366 -725.648 -1616.7 -0.967476 -0.0390574 -0.248815 31 31 29
68.635 -492.278 -1613.83 0.983587 0.142288 0.0204561 40 43 40
67.1419 -480.504 -1614.08 0.986802 0.098946 -0.0821934 42 46 43
66.8466 -469.785 -1613.11 0.979812 0.0726763 -0.0954594 42 45 43
63.859 -452.187 -1614.33 0.947945 0.199315 -0.209842 42 45 43
60.59 -442.902 -1617.75 0.935454 0.274036 -0.211182 44 46 44
-276.353 -430.196 -1617.95 -0.878778 0.227182 -0.401571 51 53 51
-274.245 -416.218 -1615.28 -0.888399 0.204762 -0.392651 50 53 50
-274.65 -407.775 -1612.68 -0.925419 0.113474 -0.343517 49 51 49
-269.968 -394.14 -1616.88 -0.906459 0.178238 -0.360838 48 51 48
-268.369 -388.578 -1618.29 -0.904428 0.203485 -0.357564 48 51 48
-267.82 -374.536 -1614.3 -0.915865 0.0396698 -0.38216 49 52 48
-264.325 -360.277 -1617.75 -0.791284 0.169309 -0.547865 53 55 53
-142.497 203.238 -1612.55 -0.457056 -0.622258 0.514801 33 28 24
-169.07 229.001 -1614.49 -0.573833 -0.491327 -0.489857 17 18 18
-143.71 208.905 -1617.37 -0.475423 -0.572058 0.265297 26 23 21
-152.546 218.888 -1615.54 -0.536374 -0.480849 -0.156247 21 20 19
-176.668 235.679 -1613.83 -0.760171 -0.417927 -0.305376 15 16 16
-177.52 242.848 -1617.43 -0.80753 -0.164982 -0.47668 17 17 18
-178.893 258.424 -1613.06 -0.816851 -0.219961 -0.0571874 25 25 26
-181.829 270.12 -1614.11 -0.887388 -0.201061 -0.311643 27 27 29
-177.337 276.61 -1616.79 -0.683074 0.0818073 -0.629997 22 22 24
-171.547 284.874 -1618.48 -0.62256 0.155198 -0.756279 20 20 22
-170.791 296.844 -1614.05 -0.771112 0.206424 -0.574715 27 27 29
-168.909 302.851 -1614.81 -0.74029 0.311372 -0.564529 31 31 33
326.173 13.3482 -1615.45 0.318238 -0.551056 0.738973 176 141 121
325.754 16.7293 -1612.67 0.39085 -0.496844 0.765633 191 156 133
333.324 25.358 -1614.85 0.60297 -0.294103 0.772408 219 183 166
335.599 31.928 -1615.14 0.57014 -0.125692 0.7981 233 200 188
315.318 41.5057 -1614.27 0.103841 0.615762 0.792262 241 210 199
329.688 35.3934 -1612.58 0.413438 0.25624 0.751911 236 205 194
329.867 40.1918 -1615.6 0.27725 0.470416 0.762386 239 207 196
335.746 35.5478 -1615.39 0.5025 0.0461716 0.815432 236 204 193
259.58 67.2195 -1617.12 0.156264 0.0490627 0.819696 215 184 171
-364.822 -1071.95 -1608.19 -0.852889 0.145445 -0.38567 45 47 44
-363.694 -1062.83 -1607.75 -0.864647 0.0209113 -0.326603 44 47 45
-364.492 -1046.14 -1606.78 -0.805611 0.0249738 -0.449227 44 47 44
-360.567 -1043.35 -1610.49 -0.65392 0.100474 -0.670539 44 47 42
-344.832 -1042.27 -1611.88 -0.334171 0.347929 -0.759305 42 43 37
-339.424 -1037.94 -1610.16 -0.375263 0.350424 -0.807747 42 44 37
-141.267 -1204 -1608.25 0.0312754 0.510806 -0.73195 27 27 29
-138.57 -1201.49 -1607.06 0.110403 0.379997 -0.812361 27 27 28
-138.886 -1186.92 -1609.01 0.668491 0.0548302 -0.722347 29 30 30
-139.727 -1176.9 -1608.97 0.690971 0.117928 -0.598241 31 32 33
-141.117 -1161.28 -1608.17 0.766537 0.123742 -0.631331 32 34 36
-140.11 -1158.29 -1606.76 0.756684 0.0939222 -0.646517 32 34 35
-286.683 -760.632 -1608.8 -0.506872 -0.181944 -0.844195 41 41 39
-284.569 -744.709 -1611.34 -0.484492 0.0417847 -0.864361 40 41 39
-145.598 -834.164 -1607.82 0.813986 0.0696312 -0.575203 25 25 25
-148.574 -820.985 -1610.32 0.826398 0.059803 -0.557724 27 27 27
-146.61 -806.244 -1607.66 0.823726 -0.0317013 -0.564769 26 26 27
-147.83 -805.489 -1609.67 0.830349 -0.0299381 -0.55516 26 26 27
-146.936 -790.543 -1608.44 0.806901 0.00265252 -0.589283 26 26 28
-147.047 -777.194 -1608.29 0.777292 0.0526837 -0.623749 26 26 27
-149.102 -769.697 -1609.13 0.799608 0.0949435 -0.590577 26 26 28
-151.337 -761.355 -1610.68 0.825971 0.0943683 -0.555169 27 27 29
-150.721 -756.119 -1609.2 0.821685 0.0814085 -0.563733 27 27 29
-150.853 -743.488 -1606.72 0.849086 0.144892 -0.50849 28 25 28
-315.539 -727.101 -1606.65 -0.559045 0.101288 -0.818827 41 43 40
-312.768 -714.823 -1607.3 -0.577586 0.154452 -0.794446 42 44 41
-309.625 -712.614 -1608.8 -0.605498 0.143572 -0.775947 43 44 42
62.7665 -1156.18 -1611.89 0.410592 0.388535 -0.822732 41 41 37
60.6617 -1153.28 -1611.44 0.41196 0.388078 -0.821305 41 41 37
77.1587 -1154.59 -1607.34 -0.0514269 0.248931 -0.943622 39 39 35
81.4497 -1150.57 -1607.53 -0.187016 0.144411 -0.976351 39 39 35
85.1556 -1147.31 -1608.09 -0.147726 0.161972 -0.978228 39 40 35
83.1857 -1135.68 -1606.87 -0.0171935 0.0732578 -0.966411 40 41 37
91.8781 -1155.75 -1610.5 0.0102969 0.0949062 -0.97122 41 40 36
97.5085 -1148.49 -1606.95 0.412112 0.225802 -0.845548 42 42 38
98.2582 -1147.94 -1607.58 0.429547 0.216759 -0.836678 42 42 38
95.0253 -1146.84 -1607.16 0.276154 0.223738 -0.887496 41 41 37
99.4105 -1142.63 -1610.28 0.383327 0.178456 -0.854645 41 42 38
111.032 -1181.03 -1607.9 0.502986 0.148138 -0.452137 47 43 39
111.802 -1177.21 -1607.57 0.511785 0.158566 -0.36841 47 43 39
119.726 -1177.76 -1607.87 0.364844 0.36041 -0.191479 49 44 40
124.593 -1162.41 -1611.56 0.966791 -0.254518 -0.273534 49 46 40
126.72 -1147.68 -1610.73 0.954937 0.0880378 -0.192233 49 47 41
123.916 -1137.39 -1609.92 0.897539 0.31059 -0.0914312 47 46 40
70.2203 -1129.52 -1608.36 0.0542123 -0.0448514 -0.968042 39 40 35
67.7214 -1122.56 -1609.32 0.0447855 -0.0865424 -0.993289 38 40 35
76.1823 -1130.1 -1608.13 0.0247179 -0.0430434 -0.972163 39 41 36
80.521 -1125.82 -1607.8 0.120085 -0.0380283 -0.979441 39 42 38
67.7714 -1121.65 -1609.29 0.0462867 -0.0772429 -0.993003 38 40 35
67.1883 -1114.24 -1608.89 0.0498912 0.0167494 -0.98889 37 40 35
79.0762 -1121.15 -1607.39 0.201178 0.0476056 -0.959052 39 42 37
98.8172 -1135.01 -1610.42 0.324101 0.14085 -0.883717 41 42 38
97.1282 -1122.48 -1610.54 0.254842 0.0649274 -0.862567 41 41 37
66.5113 -1110 -1608.15 0.0995666 0.0792291 -0.979021 37 40 35
61.5764 -1103.19 -1607.91 0.19105 0.0914707 -0.972431 37 40 35
67.1746 -1096.08 -1606.65 0.230924 0.0725919 -0.965755 38 41 36
-235.466 -262.585 -1606.83 -0.881193 0.254793 -0.387402 46 47 45
-230.018 -253.563 -1611.01 -0.820895 0.314088 -0.463534 47 47 45
-227.882 -241.654 -1608.18 -0.833941 0.204414 -0.492927 47 46 44
-238.848 -160.997 -1606.94 -0.910924 -0.141669 -0.36245 216 213 164
-241.059 -149.381 -1606.6 -0.907238 -0.138775 -0.373893 214 212 162
-225.456 -239.683 -1611.69 -0.773067 0.181458 -0.576654 48 47 43
-225.573 -223.183 -1608.38 -0.875475 0.0147856 -0.466244 43 41 35
-223.818 -219.962 -1611.5 -0.826907 -0.0459475 -0.544046 69 66 53
-229.567 -205.638 -1609.36 -0.74623 -0.416397 -0.495441 182 177 127
-235.448 -197.225 -1609.18 -0.730621 -0.510708 -0.405546 223 220 167
-236.102 -178.886 -1609.73 -0.862148 0.245934 -0.438791 207 205 155
2.66372 -234.1 -1607.53 0.907248 0.26083 -0.275503 44 40 37
1.94042 -233.669 -1610.5 0.867097 0.221732 -0.376198 53 50 44
4.9556 -219.484 -1606.34 0.843461 -0.294951 -0.3711 196 190 143
8.08657 -205.649 -1612.19 0.768721 -0.257026 -0.568654 205 200 153
13.1672 -202.912 -1604.96 0.840766 -0.201036 -0.474396 211 206 156
4.25716 -179.33 -1610.76 0.792531 0.154188 -0.556605 216 210 159
4.57923 -172.125 -1609.58 0.839294 4.19626e-05 -0.526555 205 199 148
3.67125 -166.071 -1612.16 0.878632 -0.130024 -0.465519 195 189 137
7.94249 -148.238 -1609.47 0.884365 -0.117473 -0.418471 207 199 140
7.60208 -145.742 -1611.01 0.88522 -0.146648 -0.398346 205 197 138
220.819 9.2753 -1611.64 -0.132073 -0.781834 0.583806 162 121 104
223.285 10.4983 -1608.98 -0.15479 -0.745027 0.616934 164 123 104
62.0794 106.435 -1610.16 0.277738 0.507893 0.778121 220 217 198
75.9704 100.898 -1607.41 0.230993 0.532376 0.817502 253 252 230
80.2016 101.429 -1611.19 0.234295 0.508148 0.844503 253 252 227
109.204 91.0615 -1612.47 0.137126 0.412906 0.689 231 226 207
90.3765 95.0317 -1607.06 0.101428 0.512327 0.850339 251 250 228
-362.287 -1022.39 -1601.14 -0.944737 0.135902 -0.189262 45 48 45
-360.81 -1015.11 -1603.5 -0.9228 0.0456705 -0.29145 45 47 44
-360.805 -1004.29 -1603.78 -0.92422 0.0189634 -0.303081 44 46 42
-339.718 -1004.68 -1606.14 -0.497493 0.12298 -0.814454 41 43 37
-359.526 -994.694 -1606.02 -0.863622 0.0752869 -0.4851 42 44 40
-342.535 -994.072 -1605.42 -0.506596 0.0814923 -0.840355 40 42 37
-357.256 -981.084 -1602.9 -0.880829 0.296112 -0.216815 41 44 41
-338.293 -978.209 -1605.66 -0.424951 0.123682 -0.839122 41 43 38
-353.617 -962.907 -1606.01 -0.92537 0.0562915 -0.310316 41 44 41
-352.807 -953.211 -1605.89 -0.935495 0.138078 -0.315607 41 44 41
-350.994 -940.783 -1602.48 -0.828847 0.214194 -0.202468 41 44 40
-350.192 -927.022 -1600.16 -0.626962 0.148441 -0.120081 41 44 39
-133.184 -1189.01 -1599.91 0.666439 0.304872 -0.632471 28 26 27
-118.592 -1193.97 -1604.61 -0.562944 0.601713 -0.506232 35 34 33
-136.977 -1180.32 -1605.02 0.664701 0.129842 -0.601685 29 30 31
-114.171 -1182.34 -1600 -0.813633 0.475211 -0.411286 29 30 28
-137.002 -1160.33 -1603.35 0.769931 0.0734444 -0.633298 31 33 35
-109.238 -1174.9 -1603.05 -0.833324 0.430097 -0.412307 28 31 28
-103.938 -1161.48 -1601.3 -0.894237 0.356327 -0.33194 30 31 28
-138.092 -1147.7 -1605.82 0.653229 -0.0593266 -0.715286 29 31 32
-137.536 -1146.76 -1605.39 0.653505 -0.0667534 -0.716223 29 31 32
-102.236 -1159.5 -1604.4 -0.880427 0.297971 -0.321878 30 31 28
-98.4214 -1148.19 -1604.03 -0.918467 0.298582 -0.283096 31 32 28
-96.9487 -1136.31 -1600.05 -0.860493 0.200738 -0.453092 27 30 27
-134.954 -1123.96 -1606.16 0.48772 0.0133202 -0.867272 28 30 30
-133.455 -1120.97 -1605.34 0.496683 0.0364475 -0.855926 28 30 30
-127.566 -1113.99 -1600.46 0.656389 0.085313 -0.736496 27 28 28
-96.4662 -852.55 -1606.32 -0.923851 -0.127278 -0.362143 28 28 26
-98.5906 -843.851 -1602.77 -0.930391 -0.0880991 -0.344115 27 27 25
101.002 -1031.71 -1604.57 0.725155 0.189554 0.627038 37 40 34
95.0673 -1011.62 -1601.29 0.647646 0.0698175 0.332299 38 40 35
94.0044 -1009.67 -1599.87 0.619678 0.0726655 0.197283 38 40 35
87.6351 -905.988 -1602.64 0.904224 0.0828053 0.192294 38 38 33
87.3397 -904.714 -1601.71 0.942918 0.0776197 0.229636 38 38 33
86.7172 -889.505 -1600.5 0.900125 -0.023404 0.414078 37 38 33
88.2968 -875.971 -1602.03 0.879331 -0.0431621 0.434316 37 38 33
88.3996 -864.757 -1605.71 0.785761 0.109895 0.471038 39 40 35
83.8565 -846.836 -1602.6 0.767106 0.167921 0.43846 39 40 34
88.2938 -860.926 -1606.27 0.77637 0.0969293 0.389273 40 41 36
86.0612 -847.614 -1605.37 0.796335 0.124818 0.286939 40 41 35
-99.9556 -827.019 -1604.37 -0.892869 -0.12516 -0.428059 28 28 26
-99.8197 -823.154 -1606.27 -0.900124 -0.11569 -0.414035 29 28 26
-110.623 -630.217 -1602.43 -0.872723 -0.131941 -0.32976 23 23 21
-128.572 -606.694 -1603.64 0.46269 -0.163197 -0.602916 15 15 17
-113.871 -612.93 -1603.96 -0.760849 -0.231643 -0.46543 23 22 21
-115.659 -604.535 -1604.41 -0.626142 -0.274714 -0.533151 21 20 20
-124.519 -596.598 -1602.48 0.271475 -0.288905 -0.713775 15 15 16
59.7841 -637.695 -1600.99 0.637128 0.0191633 0.763408 34 35 33
-244.408 -114.698 -1603.73 -0.942082 -0.15062 -0.271332 211 208 156
-245.668 -102.504 -1605.26 -0.945146 -0.0954578 -0.276577 213 209 157
-245.801 -90.6344 -1605.92 -0.963817 -0.0303954 -0.24886 213 208 157
-245.05 -78.3335 -1606.09 -0.939503 0.116979 -0.291102 210 206 155
-245.564 -63.2945 -1605.8 -0.932036 -0.102359 -0.29732 210 204 155
-248.364 -54.8095 -1601.31 -0.950409 -0.176814 -0.241909 206 201 152
-249.165 -45.1492 -1604.78 -0.944617 -0.155553 -0.272813 204 198 147
-250.264 -35.2588 -1605.75 -0.925999 -0.139983 -0.354707 202 197 146
-253.662 -15.265 -1602.57 -0.932841 -0.21904 -0.192164 201 196 144
-254.942 -4.26216 -1604.18 -0.934721 -0.131081 -0.261393 200 194 141
-256.122 2.71828 -1604.17 -0.893742 -0.181719 -0.346779 198 193 140
-257.451 8.44543 -1605.7 -0.85287 -0.231182 -0.417391 203 197 147
-260.643 19.39 -1603.44 -0.858978 -0.143785 -0.418633 168 153 109
48.454 -381.942 -1600.23 0.961456 0.22284 0.146503 46 45 42
46.1914 -369.546 -1601.13 0.971232 0.205588 0.0580106 46 45 41
43.6211 -355.094 -1601.02 0.962329 0.245789 -0.010307 46 46 42
41.017 -345.422 -1601.48 0.946598 0.288027 -0.0695598 46 46 42
39.6833 -337.517 -1602.13 0.971754 0.163608 -0.0607733 46 47 43
36.7122 -326.276 -1604.25 0.940528 0.243234 -0.163476 46 46 42
31.665 -308.673 -1605.54 0.931701 0.243634 -0.0531758 51 51 47
25.4228 -295.165 -1605.31 0.841295 0.456005 -0.107192 62 63 60
9.47724 -251.365 -1601.4 0.917088 0.227425 -0.243452 47 46 43
22.2076 -288.653 -1603.17 0.856288 0.450175 -0.0733333 71 72 69
16.7704 -274.949 -1603.78 0.895638 0.308164 -0.271045 46 46 42
172.712 21.5801 -1601.72 -0.166737 -0.519499 0.812497 205 163 145
188.576 15.9545 -1603.03 0.0115646 -0.633347 0.734245 180 138 121
197.023 18.7774 -1603.47 0.16099 -0.529387 0.811882 186 143 127
194.281 21.1153 -1601.72 0.146865 -0.44205 0.866807 194 152 136
209.096 23.3801 -1601.8 -0.0848184 -0.455367 0.873904 202 161 144
204.299 28.6546 -1600.76 -0.0381777 -0.305713 0.935742 216 177 162
217.247 18.7322 -1602.85 -0.162773 -0.583651 0.789052 187 145 127
226.806 18.0483 -1600.92 -0.193079 -0.587838 0.778467 185 142 122
214.345 19.7161 -1602.85 -0.140565 -0.567546 0.803853 189 148 130
237.789 11.1635 -1603.83 -0.184932 -0.728938 0.644803 165 124 101
234.752 15.1213 -1600.88 -0.192731 -0.626074 0.747422 179 136 115
253.08 8.67508 -1603.36 -0.0765632 -0.761487 0.617708 154 117 97
225.006 57.7861 -1601.8 -0.0173112 0.475914 0.875109 238 213 204
-364.604 -1056.6 -1596.11 -0.974598 -0.157499 0.145417 42 45 43
-365.642 -1041.95 -1599.51 -0.946252 0.0550789 -0.0595102 43 46 43
-301.909 -761.191 -1599.5 -0.494184 0.0268211 -0.850767 41 43 39
-305.966 -756.384 -1598.77 -0.55122 0.0584874 -0.816128 41 42 39
-139.003 -832.731 -1599.03 0.770666 0.0766627 -0.633317 25 25 25
-139.13 -816.924 -1597.27 0.771499 0.0581451 -0.639428 25 25 25
-139.248 -796.36 -1598.37 0.783895 -0.042987 -0.62279 25 25 26
-142.266 -761.819 -1599.36 0.733771 0.137684 -0.654317 24 24 25
-144.527 -751.632 -1598.92 0.803697 0.158841 -0.575912 24 24 26
-142.308 -749.1 -1595.14 0.771949 0.17162 -0.606076 24 23 25
-328.95 -732.472 -1598.2 -0.881224 0.0656353 -0.452275 41 44 41
-312.319 -725.652 -1597.14 -0.508067 0.185571 -0.83302 40 43 40
-328.49 -715.52 -1596.41 -0.822922 0.117918 -0.478031 40 43 40
-125.74 -1121.1 -1599.52 0.712397 0.0761206 -0.683107 27 27 28
-98.6451 -1130.43 -1596.11 -0.816237 0.126967 -0.595195 26 30 28
-94.6248 -1125.99 -1599.43 -0.827378 0.156748 -0.532027 26 30 27
-95.4303 -1111.34 -1596.37 -0.834213 0.104252 -0.565532 26 29 26
-128.09 -1100.68 -1597.9 0.612823 0.119883 -0.768023 28 28 28
-128.827 -1092.69 -1597.99 0.621532 0.0444731 -0.774339 29 28 29
-124.903 -1095.15 -1594.92 0.621067 0.0496216 -0.764486 29 28 29
-96.0155 -1101.28 -1596.03 -0.864128 0.0218947 -0.473491 27 29 26
-95.8762 -1092.5 -1598.38 -0.851904 -0.0636023 -0.382646 27 28 25
-126.1 -1082.64 -1596.28 0.621353 -0.0512387 -0.774803 30 28 28
-123.754 -1079.2 -1594.44 0.640544 -0.059073 -0.759142 30 27 28
-123.857 -1061.48 -1597.58 0.645831 -0.121185 -0.753359 30 27 28
-98.419 -1083.64 -1594.66 -0.679432 -0.00267362 -0.418261 26 25 23
-98.2309 -1067.54 -1595.65 -0.843514 -0.0710197 -0.393074 28 26 25
-120.179 -1055.11 -1594.78 0.710983 -0.0772207 -0.74244 28 25 26
-119.669 -1051.12 -1594.35 0.727761 -0.0632945 -0.753017 27 24 25
-121.919 -1037.85 -1598.02 0.68875 -0.106612 -0.787526 28 25 26
-97.909 -1059.11 -1599.82 -0.895556 -0.0810406 -0.265286 29 28 26
-102.666 -1038.59 -1596.56 -0.757982 -0.146719 -0.405049 26 25 24
51.5071 -680.896 -1599.68 0.464232 -0.126775 0.884748 33 33 31
49.779 -671.943 -1597.23 0.548693 -0.107891 0.829477 32 32 30
47.8003 -659.583 -1594.24 0.620285 -0.129856 0.762243 32 33 30
51.595 -650.746 -1595.31 0.604198 -0.113689 0.782725 33 34 31
51.352 -648.728 -1595.05 0.61286 -0.104704 0.777401 33 34 31
53.2071 -641.113 -1595.89 0.627741 -0.0786228 0.767961 34 35 33
69.7478 -836.143 -1595.34 0.347992 0.141101 0.908706 35 35 31
71.3886 -826.813 -1597.11 0.387868 0.124311 0.867862 35 35 31
74.1237 -829.563 -1597.8 0.515397 0.0910399 0.778722 36 36 32
61.3255 -821.654 -1595.32 0.231029 0.119209 0.956184 32 32 29
59.991 -817.805 -1595.61 0.224126 0.109319 0.958657 31 31 29
61.387 -809.475 -1596.95 0.266112 0.0923498 0.947179 31 32 30
65.4938 -796.217 -1599.31 0.377915 0.0669315 0.920114 34 35 33
60.6485 -792.421 -1598 0.305206 0.0584382 0.941933 32 34 31
-189.357 123.094 -1600.06 -0.332704 0.686532 0.656921 169 167 146
-215.821 132.047 -1596.09 0.0632417 0.691985 0.272861 197 195 169
-218.777 145.705 -1596.04 -0.277916 0.87743 -0.270152 166 159 148
-211.803 132.296 -1598.32 -0.101271 0.737431 0.303242 182 177 146
-205.289 138.879 -1593.51 -0.16268 0.711648 -0.350188 125 115 103
-194.572 142.371 -1597.97 -0.146751 0.80865 -0.487136 96 90 83
-210.669 145.415 -1597.55 -0.245655 0.808798 -0.299349 134 126 114
-194.658 145.283 -1600.44 -0.142136 0.810415 -0.508729 86 80 75
-184.222 130.366 -1597.46 -0.416509 0.66528 0.407995 155 153 136
-182.323 136.97 -1595.64 -0.311272 0.756785 -0.0323311 105 100 89
-186.104 141.444 -1597.28 -0.198205 0.82734 -0.28868 88 82 74
-177.27 150.261 -1598.67 -0.150897 0.84232 -0.188122 55 49 42
-166.933 155.281 -1595.53 -0.286727 0.690331 -0.111102 90 77 62
-156.732 158.287 -1599.03 -0.354673 0.812454 -0.180681 90 76 63
-144.689 160.988 -1594.96 -0.382904 0.936794 -0.0749032 116 95 77
90.4133 77.9323 -1594.35 0.111893 0.418131 0.901058 255 252 215
102.88 80.32 -1594.95 -0.00540283 0.447555 0.884998 255 253 223
63.8062 93.1037 -1595.62 0.163695 0.511994 0.832467 255 253 226
76.8258 85.5417 -1595.42 0.233398 0.37877 0.893123 254 252 217
76.1238 91.5255 -1598.28 0.260928 0.467633 0.836126 253 252 226
67.4643 95.1999 -1597.95 0.18332 0.561234 0.796991 255 253 232
91.5252 86.7417 -1599.03 0.0719818 0.499762 0.858928 251 250 226
107.86 84.8039 -1600.07 0.13732 0.59723 0.775665 251 249 232
118.901 73.6864 -1595.51 0.233367 0.538714 0.786735 254 251 220
128.413 73.0084 -1596.96 0.279359 0.617451 0.719567 255 253 228
131.135 72.8 -1598.4 0.278858 0.624784 0.706741 253 248 224
143.789 60.4526 -1596.94 0.279923 0.224714 0.890508 240 221 201
142.619 64.3093 -1598.2 0.353617 0.361479 0.853715 242 225 204
135.139 70.7549 -1598.48 0.358705 0.544059 0.742386 247 240 216
178.87 63.1262 -1599.4 -0.164874 0.461531 0.86243 246 216 206
184.588 63.4123 -1598.78 -0.0818066 0.500609 0.835679 245 216 207
-362.112 -1071.62 -1589.81 -0.884551 0.107617 0.449788 41 44 41
-363.112 -1054.44 -1588.33 -0.940873 -0.142763 0.3267 41 43 40
-364.429 -1039.2 -1594.31 -0.933662 0.123392 0.179231 42 45 42
-360.134 -1032.3 -1591.9 -0.808001 0.230726 0.314466 41 44 41
-354.963 -1029.33 -1587.77 -0.673961 0.177484 0.705048 39 41 38
-357.498 -1016.5 -1591.81 -0.774815 0.0360716 0.260461 43 45 42
-354.343 -1006.21 -1588.29 -0.69392 0.0487828 0.48146 41 44 40
-355.827 -997.013 -1590.4 -0.626891 0.143654 0.478921 43 45 41
-355.774 -988.538 -1591.44 -0.656635 0.239586 0.504292 43 45 42
-351.65 -982.184 -1589.38 -0.691985 0.255015 0.542809 43 45 41
-349.021 -979.115 -1587.85 -0.687026 0.23106 0.513648 43 44 39
107.78 -1111.01 -1589.9 0.76073 0.140583 0.582002 40 40 36
109.103 -1109.09 -1592.18 0.769635 0.198027 0.555093 40 40 36
94.9073 -1093.24 -1588.63 0.577022 0.189505 0.790665 40 41 37
98.7817 -1096.59 -1591.32 0.604097 0.306284 0.707653 39 40 36
109.798 -1126.67 -1593.24 0.727237 0.333893 0.540852 43 44 38
95.3434 -1076.94 -1589.69 0.731826 -0.0777516 0.642689 41 42 39
97.0981 -1060.18 -1591.4 0.803371 0.123517 0.63802 40 40 37
94.7413 -1054.43 -1592.22 0.732063 0.323183 0.597653 39 41 37
92.3769 -1053.78 -1590.11 0.682656 0.37608 0.620476 39 40 36
91.2383 -1042.1 -1592.07 0.740959 0.12115 0.673604 41 42 38
-115.226 -1025.5 -1593.15 0.508219 -0.0179717 -0.570422 22 19 20
-138 -715.299 -1591.89 0.630628 -0.115037 -0.770423 23 23 24
-111.052 -724.887 -1588.32 -0.934654 -0.0636975 -0.414944 25 24 22
-110.102 -716.678 -1593.31 -0.921066 -0.063937 -0.350929 27 27 25
-136.301 -702.43 -1593.53 0.556491 -0.222558 -0.736017 21 22 22
-114.378 -701.671 -1588.79 -0.198177 -0.246117 -0.84912 18 16 17
-126.903 -692.692 -1590.19 0.449334 -0.24143 -0.862216 18 18 19
-116.195 -694.25 -1589.09 -0.158926 -0.199363 -0.882051 17 17 17
-114.305 -688.884 -1590.93 -0.403842 -0.124503 -0.806319 19 18 18
-112.718 -697.288 -1591.73 -0.504345 -0.150708 -0.6946 21 21 20
-125.442 -679.86 -1591.58 0.495716 -0.169737 -0.865815 16 16 16
-115.345 -685.057 -1590.97 -0.314119 -0.106359 -0.835436 18 18 17
-117.618 -677.515 -1591.14 -0.0690313 -0.0951095 -0.876991 16 16 16
-117.158 -670.323 -1591.54 -0.0603183 -0.0753057 -0.877267 16 16 15
-113.435 -665.664 -1591.78 -0.438889 -0.0158955 -0.830032 18 18 16
-123.108 -656.331 -1592.82 0.60004 -0.0270552 -0.773394 17 17 17
-123.508 -653.452 -1592.96 0.627821 -0.00638811 -0.738732 18 18 18
-124.588 -645.426 -1592.6 0.520971 0.0559905 -0.691646 20 20 20
-122.716 -639.581 -1589.9 0.452551 0.0326538 -0.755025 18 18 19
-112.475 -658.887 -1592.5 -0.546187 0.00940732 -0.766687 21 21 19
34.9336 -735.569 -1592.48 0.70357 -0.109777 0.661063 32 32 30
34.5189 -720.099 -1589.84 0.741587 -0.0929939 0.644658 32 32 30
37.8828 -720.306 -1593.09 0.600588 -0.0760781 0.773903 32 32 30
33.9576 -704.77 -1587.74 0.847392 -0.1393 0.491253 33 33 31
9.76496 102.021 -1590.32 0.177341 0.559989 0.796685 224 224 194
59.8492 79.5665 -1589.41 0.268084 0.245047 0.922443 253 250 212
33.3404 92.167 -1589.5 0.135565 0.546897 0.821651 254 253 216
18.3629 96.5879 -1589.27 0.200314 0.571027 0.793164 255 253 219
27.4551 98.6896 -1592.64 0.0886561 0.464725 0.878823 255 254 220
44.0372 86.6833 -1587.66 0.176463 0.516263 0.830682 251 249 211
45.8353 92.1965 -1591.33 0.153225 0.501134 0.849282 254 250 215
58.8509 83.7527 -1590.35 0.245987 0.304946 0.908345 254 250 215
57.9253 89.5942 -1592.46 0.17708 0.417464 0.878862 255 252 220
-331.741 -783.73 -1585.05 -0.678442 -0.0539478 0.481774 38 41 36
-329.747 -780.527 -1582.6 -0.648665 -0.0606662 0.377797 39 41 37
-330.979 -767.622 -1582.49 -0.716252 -0.0528586 0.300801 41 42 38
-332.509 -755.715 -1585.82 -0.852969 0.134917 0.388274 40 43 38
-328.407 -747.601 -1582.43 -0.768257 0.164085 0.543469 38 41 37
-329.082 -740.688 -1585.24 -0.822933 0.169863 0.315287 39 42 38
-328.701 -729.264 -1587.18 -0.828647 0.0746017 0.371123 39 42 40
-326.659 -720.775 -1585.61 -0.764534 0.0408379 0.472888 38 41 38
-323.491 -716.607 -1581.78 -0.711036 -0.015894 0.457311 38 42 38
-116.47 -1161.33 -1584.57 0.154227 0.0956435 -0.286795 22 21 21
-117.636 -1155.28 -1585.08 0.33422 0.00258262 -0.391803 23 23 22
-116.849 -1147.86 -1585.58 0.355247 -0.100786 -0.407825 23 23 23
-112.635 -1157.45 -1585.47 -0.140015 0.100036 -0.141325 22 22 21
-110.769 -1144.15 -1585.62 0.0242381 -0.0296635 -0.18763 21 21 21
-109.019 -1141.23 -1585.83 -0.13106 -0.016656 -0.106878 20 21 20
-116.87 -1117.5 -1586.58 0.670814 0.0592991 -0.754425 21 21 21
-112.199 -1131.88 -1585.05 0.122414 -0.0362315 -0.665918 20 20 20
-105.98 -1123.14 -1585.75 -0.475865 0.113793 -0.588451 21 22 21
-104.777 -1120.46 -1586.15 -0.553292 0.134698 -0.618593 21 23 22
-101.592 -1111.36 -1587.15 -0.660019 0.164734 -0.639188 24 26 24
-115.353 -1088.92 -1586.91 0.703073 0.0594775 -0.868463 25 23 23
-101.608 -1107.7 -1586.7 -0.644122 0.123172 -0.637923 25 26 24
-101.397 -1102.28 -1586.54 -0.620834 0.0449777 -0.576456 26 26 24
-112.432 -1096.31 -1584.53 0.548025 -0.0069081 -0.549627 22 20 21
-107.951 -1088.75 -1582.85 0.208453 0.00102658 -0.202208 21 18 19
44.963 -632.234 -1583.54 0.84 -0.140729 0.51424 34 34 33
45.7464 -620.025 -1582.84 0.843122 -0.0715648 0.526564 34 34 32
48.0404 -615.303 -1585.29 0.830255 -0.0834108 0.555082 34 34 33
50.0087 -600.507 -1585.21 0.843499 -0.0328745 0.5353 34 35 32
50.9226 -592.612 -1586.26 0.854202 -0.0504452 0.520103 32 34 32
52.4099 -578.466 -1587.51 0.873467 0.0045071 0.479596 32 34 32
49.2081 -563.972 -1582.11 0.907748 0.00527504 0.352203 35 36 33
51.5062 -555.566 -1582.26 0.873867 -0.204847 0.394843 35 35 32
55.6087 -549.126 -1586.49 0.818014 -0.191374 0.497234 35 35 31
56.8468 -537.784 -1586.92 0.874189 -0.0217455 0.455248 35 36 32
58.6516 -525.941 -1584.6 0.88181 -0.21197 0.362188 34 36 31
-164.963 222.392 -1585.43 -0.519214 -0.831311 -0.127971 53 39 34
-154.344 217.435 -1584.64 -0.553913 -0.785455 -0.0356208 62 47 36
-144.541 210.645 -1586.63 -0.643674 -0.661767 0.0933438 63 49 38
-180.463 232.555 -1585.05 -0.782305 -0.523156 0.174752 97 72 65
-182.956 249.763 -1583.25 -0.845631 -0.244334 -0.216984 149 111 100
-181.188 254.794 -1586.25 -0.856752 -0.122997 -0.381941 87 67 62
-190.715 278.285 -1584.31 -0.895184 -0.115526 -0.189854 28 25 26
-181.393 262.152 -1586.17 -0.829072 -0.215727 -0.285033 38 29 29
-0.178248 109.965 -1586.02 0.562696 0.381676 0.63269 54 46 44
1.99589 113.628 -1586.91 0.585946 0.313501 0.640524 62 56 53
-4.54137 129.69 -1585.64 0.562983 0.488934 0.646639 57 49 46
-1.98625 126.975 -1585.69 0.586514 0.468616 0.629895 55 46 43
-23.5539 144.107 -1586.01 0.399969 0.552643 0.73722 52 44 44
-37.0651 147.65 -1582.01 0.408257 0.529992 0.736713 54 46 43
-37.1212 154.583 -1586.67 0.380673 0.49795 0.781992 48 41 40
-9.14928 136.411 -1587.5 0.520643 0.540705 0.651356 59 51 49
144.388 -1224.49 -1587.56 0.642867 0.551445 -0.169049 56 51 47
-335.582 -932.541 -1578.1 -0.676217 -0.0596659 0.735567 39 42 40
-335.304 -903.247 -1576.76 -0.539668 0.208826 0.751905 38 41 38
-335.719 -898.379 -1579.14 -0.576129 0.329094 0.668876 38 41 38
-328.16 -889.83 -1576.49 -0.636367 0.16986 0.751472 39 42 39
-332.693 -878.256 -1581.13 -0.716828 -0.00142023 0.613172 38 40 37
-329.329 -870.005 -1576.4 -0.725433 -0.0637826 0.637482 39 40 38
-331.455 -859.215 -1578.37 -0.686311 0.0213719 0.598727 40 40 38
-334.324 -853.89 -1580.61 -0.609992 0.0426539 0.617615 40 40 38
-336.046 -847.351 -1580.97 -0.559017 -0.04428 0.536813 41 41 39
107.255 -1192.34 -1575.13 0.400201 0.759511 0.441334 34 27 25
108.753 -1189.43 -1580 0.501093 0.577534 0.552006 27 22 20
142.689 -1212.51 -1578.55 0.774132 0.552362 -0.18308 61 57 53
118.052 -1192.6 -1576.31 0.299289 0.767161 0.0903352 38 31 29
128.35 -1195.4 -1576.98 0.207392 0.729979 -0.200229 41 34 32
138.168 -1201.08 -1575.82 0.459193 0.351137 -0.256782 41 38 35
101.694 -1183.32 -1577.63 0.675494 0.3508 0.489241 30 24 22
103.834 -1169.39 -1580.43 0.756139 0.0113828 0.690545 42 38 35
104.35 -1164.44 -1580.41 0.674437 -0.00690698 0.766216 45 41 37
105.25 -1155.03 -1580.86 0.572204 0.018653 0.825588 47 44 39
96.7391 -1144.47 -1576.64 0.609458 0.126102 0.77362 44 44 37
99.9739 -1146.66 -1578.33 0.600788 0.0999533 0.787613 45 44 38
-237.448 -214.687 -1576.63 -0.921608 -0.333277 -0.103319 163 157 116
-248.786 -130.389 -1578.45 -0.984334 -0.168373 -0.0428413 210 206 153
-250.103 -120.784 -1575.27 -0.97937 -0.0985247 -0.136878 207 203 148
-250.042 -109.658 -1577.83 -0.988269 -0.0381656 -0.126881 211 206 153
-251.047 -92.0621 -1580.28 -0.984124 -0.000259846 -0.13073 212 207 152
-249.95 -79.4253 -1580.87 -0.976206 0.107573 -0.183171 212 207 155
-249.904 -71.9505 -1575.74 -0.975729 -0.063803 -0.0631524 215 210 158
-251.696 -57.5556 -1579.28 -0.976293 -0.0240826 -0.0737488 214 208 155
-251.517 -45.1051 -1579.32 -0.986382 -0.0553963 -0.0178825 207 202 148
-188.622 332.739 -1575.41 -0.712158 -0.359104 -0.555872 63 59 65
-184.352 310.894 -1579.94 -0.964365 -0.0807564 -0.000319043 41 37 41
-182.678 321.343 -1581.04 -0.905204 0.0856004 -0.0735426 46 43 48
-181.645 325.205 -1580.55 -0.878017 -0.0352955 -0.220394 48 45 50
-187.131 342.903 -1581.12 -0.731177 -0.522535 -0.341875 72 71 76
57.5214 -433.69 -1577.5 0.965548 0.0102454 0.240303 46 49 46
57.6016 -422.387 -1578.5 0.969982 0.0258508 0.231842 45 47 45
57.3539 -418.229 -1577.91 0.966401 0.0162831 0.2521 44 46 44
56.7677 -406.033 -1576.9 0.947561 0.0927204 0.2597 49 50 48
53.7084 -395.569 -1575.14 0.923171 0.301996 0.203763 43 43 40
48.1126 -379.536 -1579.66 0.938045 0.303467 -0.125325 44 44 42
45.2273 -368.932 -1580.78 0.951041 0.241765 0.048625 52 52 50
41.1757 -361.796 -1576.9 0.868029 0.399888 0.265509 63 64 63
35.7914 -351.239 -1576.47 0.897468 0.298826 0.282805 49 49 47
-68.5782 200.056 -1578.55 0.751083 -0.326962 0.722965 26 23 25
-64.1559 208.015 -1578.88 0.809461 -0.188209 0.343652 21 17 18
-53.222 217.919 -1579.47 0.832423 -0.0945186 0.0873065 82 65 59
-51.0279 222.979 -1579.9 0.904521 -0.0373692 0.203663 127 95 83
-51.5679 239.298 -1580.42 0.916536 -0.110942 0.362458 144 99 83
-48.6927 256.431 -1578.45 0.916685 -0.170584 0.425355 111 80 70
-49.3994 267.874 -1576.77 0.677346 -0.0705218 0.140441 47 35 32
-57.0293 278.4 -1576.33 0.168987 0.265451 -0.657868 29 26 28
-64.787 284.668 -1579.69 0.269571 0.361867 -0.726109 28 26 28
-68.7551 295.479 -1578.51 0.609475 0.0797878 -0.0951453 42 33 31
-416.767 -1208.44 -1570.4 -0.0293074 0.975665 0.0695168 3 3 3
-403.028 -1204.48 -1575.04 0.0616482 0.937223 0.259924 5 4 4
-390.077 -1203.94 -1574.04 -0.120799 0.954346 0.190298 47 40 39
-383.708 -1201.18 -1570.11 -0.441932 0.822108 0.111853 57 49 47
-373.887 -1187.48 -1569.55 -0.63218 0.572873 0.14387 48 40 38
-363.825 -1186.05 -1572.03 0.159826 0.903139 -0.109091 45 38 35
-358.706 -1188.99 -1569.47 0.115744 0.890934 0.0154574 44 36 34
-362.232 -1164.64 -1571.83 -0.827323 -0.126143 0.374306 53 50 46
-354.565 -1174.57 -1573.7 -0.777931 -0.393828 0.41209 54 50 47
-359.148 -1168.24 -1570.99 -0.781393 -0.277931 0.404735 53 50 47
14.3835 -921.699 -1572.64 0.309231 0.101249 0.949136 30 31 25
11.6008 -916.962 -1572.97 0.363131 0.0862587 0.932973 30 30 25
38.1035 -931.998 -1573.25 0.147511 0.171298 0.956477 34 33 29
46.3757 -925.024 -1574.9 0.14194 0.155325 0.972415 35 34 29
47.2187 -929.462 -1574.74 0.141769 0.164773 0.966235 35 34 30
10.4907 -892.365 -1573.14 0.734325 -0.0501675 0.671954 31 30 28
8.48274 -874.34 -1571.45 0.788607 0.0113801 0.601668 31 30 28
9.95441 -861.588 -1573.75 0.806377 0.0411125 0.579628 31 30 28
8.04004 -849.791 -1572.68 0.868543 0.0449573 0.494258 31 31 29
10.3881 -838.044 -1574.55 0.870409 -0.113015 0.464686 31 31 29
-345.7 -6.97879 -1569.43 -0.487068 -0.715509 0.488707 183 175 128
-342.566 -8.91099 -1571.7 -0.454707 -0.732188 0.484812 181 175 127
-357.763 2.67624 -1570.55 -0.480823 -0.687286 0.522491 134 122 90
-423.131 11.5272 -1574.78 0.033002 -0.412357 0.806545 204 175 152
-411.242 9.82441 -1569.99 0.046865 -0.593179 0.659305 181 150 130
-390.016 9.994 -1571.48 0.046539 -0.55293 0.688773 188 158 137
-385.53 10.0856 -1572.39 0.0440887 -0.654294 0.606464 177 145 127
-371.103 8.2885 -1574.1 -0.0371392 -0.836002 0.459923 157 124 109
-329.35 -10.1431 -1570.93 -0.0731841 -0.84583 0.431267 156 152 103
-315.076 -7.36099 -1569.7 0.0309837 -0.842694 0.424877 150 146 95
-306.736 -6.43466 -1570.2 -0.285826 -0.475868 0.423075 175 168 119
-297.161 -4.38703 -1573.63 -0.53645 -0.152801 0.383183 200 191 141
-250.612 -42.7636 -1572.11 -0.991247 -0.0555159 0.0678762 212 205 147
-253.525 -26.0553 -1573.54 -0.980649 -0.119169 -0.0284212 202 195 135
-286.47 0.648057 -1569.97 -0.669013 -0.219248 0.230745 196 189 139
-256.745 -9.7845 -1569.17 -0.939173 -0.318592 0.0540005 188 181 119
-259.885 0.240083 -1571.75 -0.948633 -0.258384 -0.0589855 177 169 108
38.5192 55.6014 -1574.64 0.295215 0.0713618 0.955636 248 246 198
-79.6614 104.615 -1571.61 0.573498 0.314514 0.715115 152 126 100
-66.3069 94.7072 -1569.75 0.327877 0.524235 0.744337 110 92 70
-59.0611 90.9288 -1570.79 0.513964 0.601943 0.57919 41 32 24
-63.2448 94.7649 -1571.16 0.421532 0.499037 0.708675 83 67 50
-50.1353 99.9404 -1571.08 0.578409 0.580275 0.553931 25 19 16
-77.3353 116.679 -1572.03 0.618303 -0.114272 0.761899 129 105 84
-80.4545 122.299 -1569.41 0.504623 -0.0337308 0.850188 153 127 106
-75.5536 123.692 -1571.76 0.561895 -0.085715 0.79254 110 86 69
-51.137 107.278 -1569.71 0.559893 0.587621 0.603794 18 13 9
-57.9454 121.096 -1568.84 0.717412 0.104879 0.414885 84 64 50
-61.5052 130.996 -1571.84 0.709272 0.197824 0.357303 83 62 49
-76.4079 134.776 -1569.4 0.568071 -0.188399 0.780704 137 113 94
-62.205 134.75 -1573.36 0.69736 0.264655 0.4363 71 53 42
-46.5972 142.493 -1571.17 0.699178 0.499423 0.470594 75 59 52
146.933 -1224.45 -1577.21 0.772934 0.525275 -0.257436 61 56 53
147.786 -1224.87 -1571 0.811142 0.486902 -0.268613 62 57 54
-826.198 -20.1976 -1570.98 0.129102 -0.688243 0.541382 123 96 87
-441.987 13.0232 -1571.85 0.0901489 -0.647373 0.6272 176 143 125
-313.175 -785.041 -1565.96 -0.688523 0.0451456 0.720969 38 41 36
-316.828 -769.135 -1567.69 -0.667526 -0.15086 0.725147 39 42 36
-309.706 -782.416 -1563.19 -0.688985 0.0676029 0.718933 38 41 36
-316.374 -756.155 -1569.11 -0.627191 0.147647 0.758135 39 42 38
-314.068 -744.361 -1565.27 -0.790175 -0.0597712 0.585906 39 42 39
-312.384 -755.34 -1564.93 -0.7173 0.0564696 0.681463 38 41 37
-315.344 -730.158 -1568.15 -0.879376 0.042893 0.446866 39 42 40
-313.165 -718.482 -1562.94 -0.893355 0.00980416 0.383045 40 43 40
-313.404 -705.896 -1564.73 -0.888512 -0.0191066 0.407028 40 43 40
-314.463 -693.811 -1567.47 -0.853997 0.111512 0.457609 41 43 41
3.02763 -972.812 -1563.17 0.321425 0.164022 0.926233 31 31 29
-0.982298 -966.191 -1563.56 0.474852 0.0793 0.869173 31 31 29
-4.71797 -949.709 -1563.07 0.685984 0.0471839 0.736116 31 31 29
9.16131 -955.123 -1567.24 0.264493 0.157483 0.873649 32 32 29
7.09017 -953.501 -1567.13 0.328828 0.137958 0.854835 32 32 29
1.45894 -944.169 -1566.55 0.579726 0.0274941 0.712032 32 32 29
0.880216 -939.674 -1566.49 0.641663 -0.0266097 0.64215 32 32 28
11.1879 -967.755 -1564.44 0.201697 0.202365 0.927754 30 30 28
21.3961 -963.623 -1565.14 0.150105 0.211835 0.902624 31 31 29
30.0845 -970.403 -1563.39 0.0962606 0.246246 0.947147 31 31 29
35.3009 -964.172 -1565.22 0.126901 0.23218 0.910891 32 32 29
54.0156 -979.932 -1562.85 0.192856 0.255126 0.939581 35 35 31
59.4106 -976.408 -1564.96 0.266845 0.238236 0.920047 36 36 32
43.5686 -967.746 -1564.82 0.114302 0.25547 0.936525 32 32 30
45.5815 -964.578 -1566.08 0.123362 0.247336 0.939822 33 33 30
-345.599 109.199 -1568.14 0.0722242 0.228679 0.884487 244 229 208
-332.714 -9.28104 -1564.47 -0.167396 -0.849982 0.424006 167 162 113
-327.308 -8.23029 -1563.28 -0.0235785 -0.886951 0.414356 160 155 105
-306.988 -6.4394 -1568.34 -0.222934 -0.566674 0.434956 167 161 112
-296.104 -6.34321 -1566.29 -0.370379 -0.466527 0.472477 171 164 119
-288.946 -5.42287 -1567.76 -0.578952 -0.264045 0.279358 189 182 133
-252.387 -30.4092 -1566.34 -0.979743 -0.118235 0.0655153 208 201 141
-252.193 -19.5661 -1563.77 -0.968164 -0.0742865 0.171755 201 193 131
-281.094 -0.406813 -1564.84 -0.730489 -0.446681 0.389752 180 177 135
-254.756 -13.4572 -1566.84 -0.950095 -0.234098 0.102729 193 186 123
-256.097 -8.85502 -1566.44 -0.921341 -0.325298 0.149088 188 179 116
-260.936 3.39954 -1564.5 -0.925874 -0.301095 0.00586517 167 157 96
-273.791 15.6431 -1566.81 -0.926119 -0.083788 0.0207775 137 120 70
17.6957 -189.98 -1566.31 0.975313 -0.135266 0.0659384 200 195 143
20.1849 -177.136 -1566.48 0.950044 -0.178849 -0.00597495 197 192 139
23.56 -160.05 -1567.35 0.953815 -0.136653 -0.0896908 217 213 162
26.0184 -142.883 -1567.26 0.961641 -0.0351817 -0.189484 215 210 155
25.9952 -140.197 -1566.6 0.967467 0.00850515 -0.172654 214 209 155
25.032 -128.341 -1563.24 0.981034 0.0568954 -0.0217199 211 206 153
26.8017 -104.357 -1567.23 0.95093 -0.0685232 0.088927 206 201 145
25.5565 -102.923 -1563.95 0.94127 0.00996975 0.195199 208 203 148
29.2239 -89.4149 -1565.53 0.980672 -0.131856 0.0415528 207 202 146
30.2228 -76.8744 -1566 0.980848 -0.130393 0.0605904 199 193 135
-331.856 -932.855 -1560.61 -0.487022 -0.0111366 0.859845 36 37 35
-336.991 -929.153 -1561.33 -0.447251 -0.0311015 0.87784 36 37 35
-333.841 -922.237 -1559.83 -0.479282 -0.0476593 0.868417 36 37 35
-334.874 -916.299 -1559.16 -0.468634 -0.0459479 0.87355 36 37 35
-304.098 -933.76 -1560.12 -0.589655 -0.0374303 0.801347 36 39 36
-301.194 -929.022 -1557.41 -0.62738 -0.0510803 0.773301 36 38 36
-302.219 -924.021 -1557.56 -0.60089 -0.0695877 0.795343 36 38 36
-302.272 -917.363 -1557.36 -0.597274 -0.0455175 0.799061 37 39 36
-330.253 -906.048 -1558.63 -0.366756 0.105604 0.872021 36 37 34
-328.13 -901.439 -1557.88 -0.299552 0.145139 0.880934 36 36 34
-326.649 -893.85 -1557.68 -0.28199 0.260103 0.870137 36 36 34
-330.651 -887.667 -1559.98 -0.363433 0.163229 0.859449 35 36 33
-302.791 -909.819 -1557.46 -0.597155 -0.0220221 0.799839 38 39 37
-305.388 -899.473 -1559.18 -0.599294 0.0251396 0.794945 38 39 36
-305.476 -888.703 -1561.94 -0.59682 0.132828 0.786149 39 40 37
-334.731 -882.359 -1560.49 -0.402522 0.0419011 0.870683 35 36 34
-331.373 -876.818 -1559.73 -0.452738 -0.0203369 0.864349 34 35 33
-333.536 -871.332 -1559.68 -0.449039 -0.0502877 0.872018 34 35 33
-334.856 -864.91 -1559.42 -0.453489 -0.022302 0.860666 35 36 34
-301.674 -881.628 -1557.43 -0.727883 -0.000845484 0.674561 37 39 35
-306.218 -875.014 -1561.84 -0.636896 -0.0526893 0.756676 38 39 37
-307.548 -863.907 -1561.06 -0.637127 -0.0590096 0.765843 37 39 36
63.9917 -1093.1 -1560.99 0.650451 -0.131244 0.744862 38 38 34
63.3631 -1089.99 -1559.83 0.646704 -0.139116 0.74685 38 38 34
62.1156 -1076.87 -1557.2 0.687593 -0.0808583 0.721068 37 40 35
68.0266 -1068 -1562.04 0.677259 -0.0793262 0.728664 38 40 36
68.5265 -1054.3 -1559.19 0.731559 -0.12954 0.666912 37 40 36
67.4509 -1051.12 -1556.99 0.698449 -0.123084 0.699526 37 40 36
70.0039 -1040.55 -1558.01 0.680009 -0.0825084 0.716597 37 40 37
-120.443 -1024.97 -1557.88 0.00456591 0.122876 0.935226 19 17 18
-126.443 -1014.79 -1556.93 0.186816 0.0526921 0.896586 21 20 20
-124.235 -1011.58 -1557 0.121322 0.0334518 0.902293 21 20 20
-122.593 -1007.89 -1556.87 0.206715 -0.0722022 0.916316 20 19 19
-240.843 -203.297 -1560.12 -0.848506 -0.44436 0.2053 220 214 160
-243.778 -190.209 -1560.49 -0.977858 0.143312 0.0695369 230 225 174
-243.486 -178.307 -1558.46 -0.98869 -0.0112059 -0.0988496 222 217 161
-246.228 -164.453 -1556.45 -0.959841 -0.203784 -0.223085 210 205 148
-246.326 -157.505 -1562.78 -0.96086 -0.211169 -0.112598 210 205 148
-250.068 -145.96 -1556.7 -0.963285 -0.125605 -0.137169 207 202 145
-234.337 -220.688 -1560.42 -0.956411 0.156674 0.16055 61 59 46
-236.843 -207.792 -1557.72 -0.840679 -0.433939 0.252471 188 182 131
-251.815 -129.711 -1557.82 -0.942597 -0.0719328 0.0827201 220 215 160
-166.369 216.627 -1558.28 -0.903764 -0.220075 0.225396 239 179 147
-165.948 228.165 -1562.45 -0.932359 0.0658625 0.308435 211 145 116
-166.434 241.982 -1558.54 -0.894381 -0.288305 0.221595 177 107 83
-170.6 248.148 -1562.32 -0.680136 -0.586348 0.385161 166 102 82
-174.497 251.158 -1562.34 -0.555573 -0.717741 0.417633 150 97 81
-190.661 276.718 -1557.19 -0.965594 -0.236908 0.0612141 32 24 28
-189.728 288.256 -1557.62 -0.926266 0.176487 -0.161195 38 31 35
-186.042 263.295 -1556.55 -0.855773 -0.438362 0.180081 34 24 27
0.958198 -237.625 -1560.53 0.945612 -0.072477 0.222797 32 30 25
7.30907 -224.006 -1558.99 0.831003 -0.541583 0.0496884 156 152 118
14.6041 -210.82 -1562.64 0.903343 -0.369288 0.0933583 224 218 170
16.1801 -197.637 -1562.98 0.990976 -0.0791946 0.0924875 209 205 155
-46.5805 208.772 -1559.89 0.465022 -0.369237 -0.701777 34 27 27
-43.4976 208.43 -1559.36 0.396871 -0.416684 -0.734968 24 18 18
-52.0251 219.826 -1560.99 0.905421 -0.127545 -0.0723317 147 119 108
-52.7657 240.909 -1562.8 0.983553 -0.0084187 0.181864 139 95 87
-52.0049 255.963 -1560.52 0.954839 -0.196592 0.248528 49 34 29
-35.3363 200.823 -1557.58 0.448269 -0.567478 -0.657465 26 16 16
-37.2853 207.218 -1559.89 0.373492 -0.549598 -0.6914 13 8 10
-38.1029 213.859 -1557.84 0.434641 -0.498558 -0.560215 33 25 24
-22.8555 208.784 -1558.5 0.390506 -0.791848 -0.428037 18 15 15
-25.1147 214.132 -1561.27 0.375188 -0.746414 -0.459255 21 17 15
-23.9174 222.627 -1559.52 0.393414 -0.722033 -0.41374 26 20 17
-18.902 225.089 -1558.93 0.389284 -0.674188 -0.447098 26 20 18
-9.28229 209.395 -1556.84 0.36331 -0.723088 -0.491874 26 19 17
-8.80147 216.475 -1560.08 0.329476 -0.550271 -0.654701 16 15 15
2.61399 216.138 -1557.38 0.58066 -0.302256 -0.563527 25 19 19
-3.82017 222.718 -1559.21 0.455233 -0.126481 -0.684999 20 16 17
1.29227 219.817 -1557.98 0.579929 -0.167089 -0.580905 19 15 17
-16.2322 241.098 -1558.24 0.209536 -0.306286 -0.938067 17 17 18
-15.9608 246.827 -1559.96 0.273095 -0.0647503 -0.903281 20 19 20
-20.8523 251.294 -1560.36 0.346284 0.163506 -0.868079 23 20 21
-5.88568 241.428 -1557.34 0.266764 -0.342602 -0.900011 19 18 19
-4.12013 246.867 -1558.82 0.332112 -0.188102 -0.846536 21 19 20
-6.47594 250.866 -1560.13 0.356973 0.056267 -0.817742 23 20 21
-177.141 356.556 -1567.88 -0.764068 -0.208478 -0.0367449 81 78 78
-352.143 -1149.93 -1555.18 -0.774447 -0.0180544 0.611257 47 46 42
-346.787 -1141.61 -1550.9 -0.679533 0.288198 0.662107 44 45 42
-340.935 -1134.07 -1550.48 -0.602066 0.528937 0.59416 44 46 43
-337.09 -1119.44 -1555.69 -0.54732 0.288776 0.775582 41 45 41
-321.898 -826.847 -1555.94 -0.785189 0.103725 0.598257 37 39 36
-333.415 -821.981 -1552.79 -0.81108 0.162591 0.535883 36 37 36
-321.129 -821.882 -1555.07 -0.796519 0.0989155 0.585813 37 38 36
-319.072 -817.389 -1552.5 -0.776521 0.100103 0.604144 36 39 35
-301.155 -829.661 -1552.09 -0.78801 -0.0627005 0.603615 36 39 36
-302.424 -821.48 -1552.62 -0.772247 -0.0584546 0.630011 37 40 37
-331.775 -811.631 -1553.46 -0.785735 0.135736 0.590989 36 36 36
-327.635 -802.272 -1551.78 -0.779194 0.0842487 0.586094 36 35 36
-320.878 -808.427 -1554.14 -0.793907 0.0998456 0.562021 36 37 34
-323.956 -796.835 -1552.05 -0.800926 0.0837988 0.547576 36 36 35
-304.007 -803.733 -1551.63 -0.812792 0.0144274 0.566488 37 40 37
-304.767 -793.438 -1555.88 -0.76767 0.107473 0.622184 38 41 36
-301.189 -782.427 -1552.57 -0.865505 0.0836116 0.459271 37 40 37
-302.967 -773.916 -1555.42 -0.785478 -0.0286519 0.594162 37 40 35
-301.718 -758.783 -1553.38 -0.799589 -0.0502291 0.561128 37 40 37
-300.271 -760.579 -1551.89 -0.833316 -0.051539 0.501257 37 41 37
-308.501 -741.667 -1554.47 -0.870153 -0.125078 0.458351 39 42 40
4.961 -828.532 -1552.72 0.94717 -0.0454 0.290605 28 28 26
6.20876 -815.253 -1550.67 0.914336 -0.170057 0.333472 28 28 27
10.5809 -802.449 -1551.14 0.939742 -0.231269 0.208448 30 30 28
13.075 -787.542 -1552.68 0.975072 -0.139237 0.112739 31 31 28
14.9525 -778.008 -1552.43 0.971112 -0.201278 0.034365 32 32 30
18.221 -764.019 -1555.05 0.96167 -0.210493 0.0676333 32 32 30
20.5139 -750.815 -1553.17 0.975774 -0.144776 0.0600068 32 32 30
22.1347 -738.484 -1551.33 0.985516 -0.0961315 0.0356813 31 31 29
-284.633 -413.634 -1554.2 -0.921472 0.335816 0.130285 39 40 40
-282.981 -401.099 -1554.73 -0.973186 -0.00106947 0.214756 39 39 39
-283.001 -384.658 -1555.63 -0.964057 0.124345 0.185765 44 46 44
-280.19 -376.075 -1555.04 -0.897818 0.357338 0.162573 47 50 48
-274.1 -366.446 -1554.59 -0.871934 0.388814 0.205032 46 50 47
-270.477 -352.566 -1552.11 -0.906785 0.295875 0.220177 46 49 46
-267.643 -345.663 -1554.06 -0.906842 0.32388 0.142601 45 48 45
-267.029 -331.702 -1552.9 -0.972356 -0.0355785 0.245412 43 46 43
-449.618 12.9948 -1551.83 0.0780844 -0.904643 0.416953 141 108 96
-438.743 12.209 -1555.79 0.100588 -0.87847 0.452841 147 112 99
-341.66 -0.882714 -1553.17 -0.46731 -0.712843 0.500424 210 200 148
-433.111 13.01 -1553.61 0.0668711 -0.871292 0.471165 148 113 100
-434.168 13.7989 -1551.75 0.0604506 -0.885523 0.461174 146 112 99
-411.648 14.6363 -1550.98 0.135411 -0.852514 0.510153 152 115 96
-401.213 15.6051 -1551.98 0.140024 -0.812908 0.554796 159 121 100
-386.493 17.9286 -1551.13 0.121461 -0.784847 0.587956 164 123 103
-376.316 19.132 -1552.48 0.110668 -0.76703 0.596411 173 132 114
-365.263 18.3537 -1554.09 -0.163756 -0.652285 0.686915 156 121 97
-358.481 13.5906 -1555.74 -0.372442 -0.666252 0.628072 150 123 94
-356.787 16.4184 -1551.96 -0.420282 -0.563373 0.688301 163 136 101
-322.695 -1093.73 -1549.99 -0.644183 0.167021 0.743506 41 45 42
-313.185 -1091.15 -1544.61 -0.459481 0.131843 0.872145 42 46 43
-335.149 -1076.71 -1544.63 -0.738484 0.0211832 0.641871 37 40 37
-312.723 -1074.54 -1548.63 -0.348214 0.214173 0.912818 42 46 43
-330.063 -1069.01 -1545.25 -0.619799 0.0536891 0.769191 39 44 40
-311.939 -1069.81 -1549.86 -0.321474 0.220455 0.923548 42 46 43
-307.016 -1074 -1547.31 -0.328335 0.220678 0.918861 41 45 42
-297.396 -1072.28 -1544.07 -0.446332 0.160875 0.875707 41 44 41
-306.725 -1062.56 -1549.32 -0.361354 0.153525 0.917105 40 45 40
-297.532 -1071.08 -1544.28 -0.44834 0.155192 0.875857 41 44 41
-331.275 -1058.01 -1547.08 -0.571657 0.113489 0.772307 38 41 38
-325.514 -1047.91 -1544.31 -0.591672 0.119867 0.760854 37 39 35
-327.172 -1045.48 -1544.87 -0.550785 0.11515 0.792561 38 40 36
-307.465 -1055.77 -1549.86 -0.41428 0.0883428 0.901679 39 44 39
-299.925 -1052.32 -1545.12 -0.500148 0.00308215 0.865245 39 43 38
-307.191 -1042.13 -1550.19 -0.55046 0.101347 0.829067 39 43 38
-304.419 -1036.04 -1549.83 -0.525475 0.168427 0.833149 39 42 37
-292.894 -1037.05 -1544.43 -0.381738 0.224753 0.900642 38 41 37
-137.1 -1053.74 -1547.28 0.414996 0.181723 0.872671 25 25 21
