ply
format ascii 1.0
comment Created by Open3D
element vertex 1517
property double x
property double y
property double z
property uchar red
property uchar green
property uchar blue
end_header
-393.307 131.396 -2065 25 29 57
-388.49 131.171 -2062 26 29 55
-384.062 131.074 -2061 25 28 54
-379.456 130.914 -2059 22 26 51
-375.044 130.818 -2058 21 25 53
-370.279 130.595 -2055 19 23 51
-365.708 130.436 -2053 24 29 60
-360.443 130.024 -2047 27 32 62
-356.25 129.993 -2047 30 34 62
-351.716 129.835 -2045 30 34 65
-346.854 129.551 -2041 31 33 65
-342.01 129.268 -2037 32 34 63
-336.855 128.858 -2031 30 33 62
-332.709 128.829 -2031 28 33 60
-328.081 128.61 -2028 30 35 66
-323.467 128.392 -2025 33 38 69
-319.027 128.238 -2023 34 39 72
-314.441 128.02 -2020 31 37 70
-309.87 127.803 -2017 29 36 69
-305.618 127.714 -2016 30 37 70
-301.371 127.624 -2015 27 34 67
-296.837 127.408 -2012 27 34 68
-292.462 127.257 -2010 29 36 70
-287.955 127.042 -2007 30 37 71
-283.886 127.017 -2007 30 37 70
-279.262 126.74 -2003 30 37 70
-274.931 126.59 -2001 31 38 70
-270.476 126.377 -1998 32 39 72
-266.301 126.29 -1997 32 39 73
-261.607 125.952 -1992 33 40 78
-257.065 125.677 -1988 33 40 77
-252.669 125.465 -1985 32 39 73
-248.286 125.254 -1982 35 41 74
-244.041 125.107 -1980 37 42 75
-239.928 125.023 -1979 38 42 77
-235.82 124.94 -1978 40 44 82
-232.07 125.046 -1980 43 47 88
-228.083 125.026 -1980 42 46 87
-224.099 125.007 -1980 42 46 87
-220.004 124.925 -1979 41 45 88
-216.025 124.906 -1979 39 43 86
-211.941 124.825 -1978 39 43 86
-208.072 124.87 -1979 37 41 84
-203.995 124.79 -1978 36 40 83
-200.227 124.899 -1980 38 42 81
-196.254 124.882 -1980 39 42 79
-192.283 124.865 -1980 39 42 76
-188.409 124.912 -1981 36 39 76
-184.811 125.148 -1985 34 37 74
-180.926 125.196 -1986 37 40 79
-176.949 125.181 -1986 37 39 80
-173.06 125.229 -1987 37 39 81
-168.999 125.151 -1986 38 41 80
-164.943 125.074 -1985 37 40 79
-160.811 124.934 -1983 35 42 78
-157.005 125.047 -1985 34 41 75
-153.192 125.16 -1987 33 40 73
-149.297 125.21 -1988 33 40 76
-145.546 125.386 -1991 34 42 78
-141.5 125.311 -1990 37 44 80
-137.528 125.299 -1990 37 44 80
-133.556 125.288 -1990 36 43 79
-129.716 125.403 -1992 37 42 71
-125.554 125.203 -1989 36 40 71
-121.71 125.318 -1991 35 39 74
-117.623 125.182 -1989 34 40 74
-113.773 125.298 -1991 32 39 73
-109.806 125.289 -1991 33 40 76
-105.893 125.343 -1992 34 41 76
-102.079 125.523 -1995 33 40 73
-98.1064 125.514 -1995 34 39 73
-94.0876 125.443 -1994 34 38 73
-90.1637 125.498 -1995 37 41 76
-86.2365 125.554 -1996 39 43 78
-82.2238 125.484 -1995 39 43 78
-78.3332 125.603 -1997 41 46 79
-74.4726 125.785 -2000 38 43 76
-70.4597 125.716 -1999 35 40 73
-66.5178 125.773 -2000 34 40 73
-62.4787 125.642 -1998 34 41 74
-58.4479 125.511 -1996 36 43 75
-54.5076 125.569 -1997 37 43 75
-50.5637 125.628 -1998 34 39 72
-46.6396 125.749 -2000 32 37 69
-42.6865 125.808 -2001 33 38 69
-38.7297 125.868 -2002 32 39 70
-34.7694 125.928 -2003 37 43 75
-30.8207 126.051 -2005 39 44 77
-26.8643 126.174 -2007 36 39 71
-22.9344 126.486 -2012 38 41 73
-18.966 126.673 -2015 39 44 75
-14.9708 126.734 -2016 36 42 74
-10.9828 126.922 -2019 35 42 75
-6.97952 127.047 -2021 33 40 73
-2.96979 127.235 -2024 32 39 72
1.05234 127.486 -2028 34 41 74
5.09789 127.927 -2035 37 44 77
9.15332 128.116 -2038 37 44 77
13.2402 128.494 -2044 37 44 75
17.3171 128.621 -2046 36 43 75
21.4022 128.748 -2048 37 44 78
25.4953 128.876 -2050 36 43 76
29.5966 129.004 -2052 33 40 73
33.7391 129.258 -2056 33 40 73
37.8792 129.45 -2059 36 43 76
42.1334 129.956 -2067 35 42 75
46.2855 130.086 -2069 33 40 71
50.4459 130.216 -2071 35 42 73
54.641 130.409 -2074 35 42 73
58.7635 130.414 -2074 34 41 73
63.0078 130.67 -2078 35 42 75
67.2038 130.802 -2080 35 41 72
71.4428 130.996 -2083 33 40 71
75.6578 131.128 -2085 32 39 70
79.8814 131.26 -2087 32 39 72
84.1539 131.456 -2090 28 35 68
88.3969 131.589 -2092 30 34 68
92.5599 131.597 -2092 30 35 66
96.816 131.731 -2094 33 38 67
101.033 131.802 -2095 33 38 65
105.154 131.748 -2094 35 40 67
109.429 131.883 -2096 35 40 68
113.712 132.018 -2098 34 39 69
117.948 132.091 -2099 37 42 72
122.189 132.164 -2100 34 37 69
126.556 132.363 -2103 35 39 70
130.873 132.5 -2105 34 39 69
135.135 132.574 -2106 33 37 65
139.667 132.901 -2111 32 36 64
143.811 132.85 -2110 31 35 63
148.092 132.925 -2111 31 36 64
152.018 132.686 -2107 33 38 66
156.226 132.699 -2107 34 38 67
160.587 132.838 -2109 33 37 65
164.879 132.915 -2110 34 39 66
169.097 132.929 -2110 37 42 69
173.562 133.133 -2113 38 43 71
177.873 133.211 -2114 37 42 72
182.016 133.163 -2113 37 39 67
186.422 133.305 -2115 36 38 65
190.476 133.195 -2113 35 38 69
194.432 133.022 -2110 37 40 71
198.66 133.039 -2110 36 39 71
202.986 133.119 -2111 36 40 67
207.513 133.326 -2114 37 40 69
212.255 133.659 -2119 37 40 71
217.12 134.056 -2125 37 41 64
222.741 134.894 -2138 84 89 108
-471.735 127.125 -2052 31 35 55
-467.669 127.147 -2053 47 52 71
-406.651 128.843 -2090 32 37 54
-400.031 128.069 -2078 24 28 50
-395.178 127.851 -2075 27 31 56
-390.153 127.572 -2071 25 29 52
-385.147 127.293 -2067 21 25 48
-380.529 127.138 -2065 21 25 48
-375.923 126.983 -2063 21 25 50
-371.148 126.767 -2060 20 24 50
-365.855 126.367 -2054 25 30 60
-361.645 126.337 -2054 27 32 62
-356.568 125.999 -2049 27 31 61
-352.03 125.846 -2047 29 32 63
-347.334 125.633 -2044 31 34 65
-342.485 125.358 -2040 32 33 64
-337.655 125.084 -2036 30 33 62
-333.172 124.933 -2034 28 33 60
-328.376 124.66 -2030 30 35 66
-323.759 124.449 -2027 33 38 69
-319.157 124.238 -2024 35 40 72
-314.259 123.905 -2019 33 39 72
-310.305 123.94 -2020 29 36 69
-305.289 123.546 -2014 31 37 70
-301.346 123.582 -2015 29 35 68
-296.812 123.374 -2012 29 35 69
-292.874 123.41 -2013 28 34 68
-288.217 123.141 -2009 29 35 69
-284.145 123.117 -2009 30 36 69
-279.796 122.971 -2007 30 36 69
-275.458 122.826 -2005 31 37 70
-270.859 122.558 -2001 32 38 71
-266.545 122.413 -1999 31 37 70
-261.848 122.085 -1994 30 35 74
-257.302 121.819 -1990 31 37 74
-252.647 121.492 -1985 32 37 72
-248.265 121.288 -1982 34 39 73
-244.267 121.267 -1982 36 41 74
-239.665 120.941 -1977 38 42 77
-235.681 120.922 -1977 41 45 82
-231.816 120.964 -1978 42 46 86
-227.834 120.945 -1978 39 43 84
-223.74 120.865 -1977 41 45 86
-219.986 120.969 -1979 41 45 87
-215.898 120.89 -1978 37 41 83
-211.816 120.811 -1977 37 41 84
-208.055 120.916 -1979 37 41 84
-204.287 121.021 -1981 37 41 83
-200.413 121.066 -1982 37 41 79
-196.535 121.11 -1983 37 40 77
-192.461 121.033 -1982 39 42 77
-188.393 120.956 -1981 38 41 77
-184.703 121.124 -1984 37 40 76
-180.911 121.231 -1986 39 42 81
-177.023 121.278 -1987 38 40 81
-173.046 121.263 -1987 37 39 81
-169.07 121.249 -1987 38 41 80
-164.846 121.052 -1984 37 41 79
-160.879 121.039 -1984 34 41 77
-156.992 121.087 -1985 34 41 75
-153.102 121.135 -1986 33 40 73
-149.285 121.245 -1988 34 41 77
-145.388 121.294 -1989 35 42 78
-141.417 121.282 -1989 35 42 78
-137.585 121.392 -1991 36 43 79
-133.679 121.442 -1992 36 43 79
-129.771 121.492 -1993 38 43 72
-125.733 121.421 -1992 38 42 73
-121.761 121.411 -1992 37 41 76
-117.672 121.279 -1990 34 40 74
-113.707 121.27 -1990 32 39 73
-109.797 121.321 -1991 33 40 75
-105.884 121.374 -1992 34 41 75
-102.019 121.487 -1994 33 40 73
-98 121.418 -1993 35 40 73
-93.9853 121.349 -1992 35 40 73
-90.111 121.463 -1994 38 42 77
-86.143 121.456 -1994 39 43 78
-82.2168 121.51 -1995 38 42 77
-78.2483 121.503 -1995 38 43 76
-74.4292 121.741 -1999 34 39 72
-70.3833 121.613 -1997 32 37 70
-66.479 121.729 -1999 34 40 73
-62.4734 121.663 -1998 34 41 74
-58.4724 121.597 -1997 34 41 72
-54.4758 121.532 -1996 35 42 73
-50.6355 121.832 -2001 35 40 73
-46.6357 121.767 -2000 34 39 71
-42.6829 121.824 -2001 32 37 68
-38.7265 121.882 -2002 31 38 69
-34.7839 122.001 -2004 33 39 71
-30.7874 121.937 -2003 36 41 74
-26.8353 122.056 -2005 35 39 71
-22.8983 122.298 -2009 37 40 72
-18.9268 122.418 -2011 38 43 74
-14.9622 122.66 -2015 37 42 74
-10.9765 122.842 -2018 35 42 75
-6.98585 123.145 -2023 34 41 74
-2.97102 123.267 -2025 33 40 73
1.05277 123.51 -2029 34 41 74
5.09496 123.815 -2034 36 43 76
9.15256 124.059 -2038 36 43 76
13.2326 124.364 -2043 37 44 75
17.3326 124.67 -2048 37 44 75
21.4213 124.793 -2050 36 43 77
25.5056 124.856 -2051 36 43 76
29.5941 124.919 -2052 35 42 75
33.7361 125.165 -2056 34 41 74
37.968 125.655 -2064 35 42 75
42.0891 125.719 -2065 34 41 74
46.3488 126.149 -2072 32 39 70
50.4905 126.214 -2073 34 41 72
54.6629 126.34 -2075 36 43 74
58.8153 126.406 -2076 35 42 75
63.0935 126.715 -2081 34 41 74
67.1982 126.659 -2080 33 40 71
71.4712 126.909 -2084 32 39 70
75.6516 126.976 -2085 32 39 70
79.9514 127.226 -2089 31 38 71
84.1469 127.293 -2090 27 33 66
88.4316 127.483 -2093 30 33 66
92.6407 127.551 -2094 32 36 67
96.9005 127.681 -2096 34 39 68
101.169 127.811 -2098 33 38 65
105.396 127.88 -2099 34 39 66
109.68 128.011 -2101 35 40 69
113.865 128.02 -2101 33 38 68
117.995 127.969 -2100 33 38 69
122.179 127.978 -2100 34 38 67
126.545 128.172 -2103 33 38 67
130.8 128.243 -2104 33 38 67
135.124 128.376 -2106 34 38 65
139.721 128.753 -2112 34 38 64
144.071 128.887 -2114 33 37 64
148.15 128.777 -2112 32 37 65
152.366 128.789 -2112 32 37 66
156.509 128.741 -2111 31 34 66
160.726 128.754 -2111 29 33 63
165.1 128.889 -2113 29 34 63
169.163 128.781 -2111 33 38 67
173.466 128.856 -2112 35 40 69
177.689 128.87 -2112 33 38 67
182.087 129.007 -2114 35 36 63
186.406 129.083 -2115 34 35 62
190.731 129.16 -2116 34 38 67
194.969 129.176 -2116 36 39 70
199.114 129.131 -2115 37 40 72
203.353 129.148 -2115 35 39 68
207.692 129.226 -2116 35 39 68
212.237 129.426 -2119 38 42 71
217.102 129.81 -2125 38 42 63
-392.381 124.116 -2083 23 27 48
-386.606 123.607 -2075 22 26 46
-381.788 123.398 -2072 23 27 47
-376.621 123.069 -2067 23 27 49
-371.658 122.801 -2063 22 26 49
-366.893 122.592 -2060 25 30 59
-361.791 122.265 -2055 27 31 61
-357.061 122.058 -2052 26 29 61
-352.173 121.791 -2048 27 31 60
-347.645 121.644 -2046 31 35 64
-342.96 121.438 -2043 32 33 65
-338.125 121.173 -2039 30 33 62
-333.636 121.027 -2037 31 36 63
-328.673 120.703 -2032 31 36 67
-324.052 120.499 -2029 32 37 68
-319.447 120.294 -2026 36 41 72
-314.7 120.031 -2022 36 42 74
-310.126 119.828 -2019 33 40 73
-306.022 119.804 -2019 32 37 70
-301.471 119.601 -2016 31 36 69
-297.23 119.518 -2015 30 34 69
-292.85 119.375 -2013 29 33 68
-288.337 119.174 -2010 30 34 69
-284.405 119.21 -2011 31 36 69
-279.634 118.892 -2006 32 37 70
-275.573 118.869 -2006 33 38 71
-270.972 118.61 -2002 33 38 71
-266.39 118.352 -1998 31 36 69
-261.433 117.916 -1991 30 34 73
-256.893 117.658 -1987 32 36 73
-252.627 117.52 -1985 34 38 73
-248.245 117.322 -1982 33 38 71
-244.001 117.184 -1980 34 39 72
-239.767 117.046 -1978 37 41 76
-236.019 117.146 -1980 39 43 80
-231.797 117.009 -1978 38 42 80
-228.046 117.108 -1980 36 40 81
-223.835 116.972 -1978 40 44 84
-219.857 116.955 -1978 37 41 82
-215.88 116.937 -1978 35 39 80
-211.799 116.861 -1977 35 39 82
-207.828 116.844 -1977 35 39 82
-204.065 116.946 -1979 35 39 82
-200.093 116.93 -1979 34 38 75
-196.321 117.032 -1981 36 39 75
-192.349 117.017 -1981 39 42 76
-188.663 117.179 -1984 38 41 76
-184.688 117.164 -1984 37 40 75
-181.078 117.386 -1988 38 41 80
-177.098 117.371 -1988 38 40 81
-173.119 117.357 -1988 35 37 79
-168.886 117.167 -1985 37 40 79
-164.916 117.153 -1985 37 41 79
-160.947 117.141 -1985 34 41 77
-156.979 117.128 -1985 34 41 75
-153.244 117.293 -1988 34 41 74
-149.273 117.281 -1988 36 43 79
-145.376 117.328 -1989 35 42 78
-141.548 117.435 -1991 34 41 77
-137.574 117.423 -1991 35 42 78
-133.669 117.472 -1992 35 42 78
-129.825 117.579 -1994 39 44 73
-125.786 117.51 -1993 38 42 73
-121.752 117.441 -1992 37 41 76
-117.663 117.314 -1990 35 41 75
-113.698 117.305 -1990 33 40 74
-109.788 117.355 -1991 34 41 75
-105.929 117.464 -1993 34 41 74
-101.96 117.456 -1993 34 41 74
-97.9921 117.448 -1993 37 42 75
-94.025 117.44 -1993 37 42 75
-89.9681 117.315 -1991 36 40 74
-86.0497 117.367 -1992 37 42 76
-82.1691 117.478 -1994 37 41 76
-78.2028 117.472 -1994 35 40 73
-74.3487 117.643 -1997 32 37 70
-70.3777 117.637 -1997 31 36 69
-66.4404 117.69 -1998 34 40 73
-62.4372 117.626 -1997 34 41 74
-58.5263 117.739 -1999 34 41 72
-54.526 117.676 -1998 33 40 71
-50.6314 117.849 -2001 35 40 73
-46.6086 117.727 -1999 35 40 72
-42.6795 117.841 -2001 32 37 68
-38.7041 117.838 -2001 32 39 70
-34.729 117.835 -2001 31 38 69
-30.785 117.95 -2003 35 40 73
-26.8466 118.125 -2006 35 38 71
-22.8965 118.299 -2009 35 38 70
-18.9346 118.474 -2012 36 41 72
-14.9684 118.709 -2016 36 42 74
-10.9865 118.943 -2020 36 43 76
-6.98185 119.06 -2022 36 43 76
-2.96786 119.119 -2023 37 44 77
1.05112 119.295 -2026 36 43 76
5.08453 119.531 -2030 35 42 75
9.14284 119.885 -2036 36 43 76
13.2186 120.18 -2041 36 43 74
17.3143 120.476 -2046 37 44 75
21.4196 120.713 -2050 36 43 76
25.516 120.833 -2052 35 42 75
29.6783 121.188 -2058 35 42 75
33.8154 121.367 -2061 35 42 75
37.9834 121.606 -2065 34 41 74
42.1061 121.668 -2066 33 40 73
46.278 121.848 -2069 32 39 70
50.4133 121.911 -2070 33 40 71
54.6848 122.268 -2076 35 42 73
58.8106 122.273 -2076 35 42 74
63.0884 122.572 -2081 32 39 72
67.2575 122.636 -2082 32 39 70
71.4653 122.759 -2084 31 38 69
75.6818 122.883 -2086 32 39 70
79.945 123.066 -2089 30 37 70
84.0999 123.072 -2089 25 32 65
88.4668 123.374 -2094 28 31 64
92.7215 123.499 -2096 31 35 66
96.939 123.565 -2097 34 39 68
101.257 123.75 -2100 33 38 65
105.589 123.935 -2103 32 37 64
109.776 123.943 -2103 31 36 65
114.019 124.011 -2104 27 32 62
118.041 123.844 -2101 24 29 60
122.286 123.912 -2102 29 34 61
126.595 124.04 -2104 29 34 61
130.851 124.109 -2105 31 36 62
135.369 124.415 -2110 32 36 61
139.975 124.779 -2116 30 34 60
144.128 124.732 -2115 30 34 60
148.418 124.802 -2116 29 34 62
152.57 124.755 -2115 28 33 62
156.793 124.767 -2115 26 31 62
160.941 124.721 -2114 24 29 59
165.399 124.911 -2117 24 29 58
169.55 124.865 -2116 27 32 61
173.862 124.938 -2117 28 33 61
178.096 124.952 -2117 28 33 59
182.331 124.966 -2117 31 34 58
186.656 125.04 -2118 32 35 59
191.076 125.173 -2120 31 35 63
195.321 125.189 -2120 32 36 64
199.38 125.086 -2118 35 39 68
203.433 124.984 -2116 35 40 69
207.479 124.882 -2114 34 39 66
211.419 124.722 -2111 31 35 60
-384.521 120.091 -2087 23 29 47
-378.96 119.658 -2080 22 26 46
-373.79 119.341 -2075 25 29 50
-368.645 119.025 -2070 26 31 59
-363.171 118.593 -2063 27 32 62
-357.554 118.106 -2055 27 30 64
-353.005 117.963 -2053 28 31 62
-347.958 117.648 -2048 32 35 66
-343.605 117.564 -2047 32 34 66
-338.264 117.135 -2040 29 33 62
-334.101 117.109 -2040 29 34 61
-328.485 116.567 -2031 30 35 65
-323.548 116.254 -2026 31 36 66
-319.421 116.229 -2026 33 38 69
-314.675 115.975 -2022 34 40 72
-309.948 115.722 -2018 34 39 72
-305.391 115.526 -2015 32 37 70
-301.447 115.559 -2016 31 36 70
-297.059 115.422 -2014 30 34 69
-292.972 115.399 -2014 30 34 69
-288.601 115.262 -2012 30 34 69
-284.241 115.125 -2010 31 36 69
-279.612 114.874 -2006 32 37 70
-275.139 114.681 -2003 32 37 69
-270.68 114.488 -2000 32 37 69
-266.236 114.295 -1997 30 35 67
-261.412 113.931 -1991 29 33 70
-257.261 113.854 -1990 29 33 70
-253.116 113.777 -1989 32 36 71
-248.476 113.472 -1984 31 36 69
-244.721 113.567 -1986 33 38 71
-240.233 113.32 -1982 34 38 73
-236.359 113.358 -1983 34 38 74
-231.779 113.055 -1978 32 36 73
-228.028 113.151 -1980 33 37 76
-223.705 112.962 -1977 38 42 82
-219.84 113.002 -1978 35 39 80
-215.645 112.871 -1976 35 39 81
-211.996 113.026 -1979 34 38 81
-207.917 112.953 -1978 34 38 81
-204.152 113.051 -1980 35 39 81
-200.381 113.15 -1982 34 38 75
-196.603 113.249 -1984 36 40 75
-192.722 113.291 -1985 39 42 76
-188.838 113.333 -1986 39 42 77
-184.953 113.376 -1987 38 41 76
-181.064 113.419 -1988 39 42 81
-177.173 113.462 -1989 38 41 82
-173.105 113.392 -1988 36 38 80
-169.043 113.321 -1987 37 39 80
-164.903 113.195 -1985 37 40 81
-160.853 113.125 -1984 35 39 78
-156.967 113.17 -1985 35 41 76
-153.078 113.215 -1986 35 41 74
-149.186 113.26 -1987 36 43 78
-145.292 113.306 -1988 35 42 77
-141.394 113.352 -1989 36 43 79
-137.494 113.398 -1990 37 44 80
-133.524 113.388 -1990 35 42 78
-129.75 113.549 -1993 38 43 73
-125.776 113.539 -1993 37 42 74
-121.742 113.473 -1992 36 40 75
-117.772 113.464 -1992 34 41 74
-113.746 113.398 -1991 33 40 73
-109.835 113.446 -1992 34 41 75
-105.761 113.324 -1990 34 41 75
-101.85 113.373 -1991 34 41 74
-97.8862 113.365 -1991 37 43 76
-93.9232 113.358 -1991 37 42 75
-89.9612 113.351 -1991 36 41 74
-86.0429 113.401 -1992 37 42 76
-82.2039 113.565 -1995 37 41 76
-78.2359 113.559 -1995 35 40 73
-74.3057 113.61 -1996 33 38 71
-70.3018 113.548 -1995 35 40 73
-66.3687 113.6 -1996 35 40 74
-62.4011 113.595 -1996 34 39 73
-58.5218 113.761 -1999 33 40 71
-54.5491 113.756 -1999 32 39 70
-50.6021 113.809 -2000 34 39 72
-46.6283 113.806 -2000 34 39 70
-42.6975 113.916 -2002 33 38 69
-38.7205 113.913 -2002 33 39 70
-34.7611 113.967 -2003 34 39 71
-30.7826 113.965 -2003 35 40 73
-26.8311 114.076 -2005 35 38 70
-22.8946 114.302 -2009 37 38 70
-18.9049 114.3 -2009 37 42 73
-14.9598 114.64 -2015 37 43 74
-10.9693 114.753 -2017 36 42 74
-6.98131 115.037 -2022 35 41 73
-2.96763 115.093 -2023 35 41 73
1.05155 115.321 -2027 34 41 73
5.08162 115.435 -2029 34 41 73
9.13764 115.777 -2035 35 42 74
13.1981 115.948 -2038 35 41 72
17.296 116.291 -2044 36 42 74
21.4074 116.577 -2049 36 43 76
25.514 116.749 -2052 35 42 75
29.7048 117.207 -2060 34 41 74
33.8128 117.266 -2061 34 41 74
37.9986 117.553 -2066 34 41 73
42.1233 117.613 -2067 33 40 72
46.3191 117.844 -2071 32 39 70
50.4338 117.848 -2071 33 40 71
54.6542 118.08 -2075 35 42 73
58.8627 118.255 -2078 35 42 74
63.0836 118.43 -2081 32 39 71
67.2845 118.549 -2083 33 40 71
71.5626 118.782 -2087 33 40 71
75.7846 118.901 -2089 32 39 70
80.0536 119.078 -2092 28 35 67
84.2544 119.141 -2093 25 32 64
88.5022 119.262 -2095 26 30 60
92.8028 119.439 -2098 26 31 61
97.2088 119.731 -2103 30 35 64
101.539 119.91 -2106 29 34 61
105.932 120.145 -2110 28 33 60
110.133 120.154 -2110 26 31 60
114.335 120.162 -2110 22 27 57
118.369 120 -2107 19 24 55
122.683 120.124 -2109 22 27 53
126.826 120.076 -2108 22 27 53
131.214 120.257 -2111 25 30 54
135.744 120.552 -2116 26 30 54
140.228 120.79 -2120 26 30 54
144.525 120.858 -2121 28 32 56
148.898 120.984 -2123 28 33 60
152.991 120.881 -2121 27 32 60
157.225 120.893 -2121 26 31 60
161.538 120.962 -2122 25 30 59
165.933 121.089 -2124 24 29 57
170.017 120.988 -2122 24 29 57
174.259 121.001 -2122 23 28 55
178.418 120.958 -2121 23 28 52
182.489 120.857 -2119 26 29 52
186.817 120.929 -2120 30 32 55
191.421 121.171 -2124 29 33 60
195.582 121.129 -2123 31 35 61
199.553 120.973 -2120 33 37 63
203.802 120.989 -2120 35 40 68
207.561 120.719 -2115 34 39 64
-375.923 115.834 -2087 29 33 53
-369.151 115.029 -2073 30 34 60
-363.671 114.613 -2066 29 33 62
-358.397 114.253 -2060 29 32 66
-353.666 114.06 -2057 29 32 65
-348.271 113.645 -2050 32 35 67
-343.914 113.564 -2049 32 35 67
-338.735 113.206 -2043 28 32 61
-334.239 113.069 -2041 27 32 59
-328.945 112.657 -2034 28 33 61
-324.96 112.688 -2035 30 35 64
-319.554 112.221 -2027 32 37 67
-315.429 112.197 -2027 32 37 69
-310.385 111.841 -2021 30 35 68
-306.277 111.818 -2021 32 37 70
-301.424 111.519 -2016 33 38 72
-297.479 111.552 -2017 32 36 71
-293.096 111.419 -2015 31 35 70
-288.579 111.231 -2012 29 33 68
-284.219 111.099 -2010 30 35 68
-279.73 110.912 -2007 31 36 69
-275.255 110.726 -2004 30 35 66
-270.524 110.429 -1999 31 36 67
-266.216 110.299 -1997 30 35 66
-261.523 110.003 -1992 27 31 68
-257.241 109.873 -1990 27 31 67
-252.842 109.688 -1987 29 33 68
-248.332 109.449 -1983 31 35 69
-244.826 109.651 -1987 32 37 70
-240.093 109.302 -1981 33 38 71
-236.221 109.339 -1982 32 36 71
-231.879 109.157 -1979 30 34 71
-228.01 109.195 -1980 33 37 75
-223.688 109.012 -1977 37 41 80
-219.823 109.051 -1978 35 39 81
-215.956 109.09 -1979 36 40 82
-212.087 109.129 -1980 34 38 80
-208.111 109.114 -1980 34 38 81
-204.342 109.208 -1982 35 39 81
-200.163 109.083 -1980 35 39 76
-196.588 109.289 -1984 37 41 76
-192.416 109.164 -1982 39 42 76
-188.539 109.205 -1983 39 42 76
-184.752 109.301 -1985 39 42 77
-180.868 109.343 -1986 39 42 80
-176.981 109.385 -1987 39 41 82
-173.092 109.427 -1988 37 39 81
-169.2 109.469 -1989 40 42 84
-165.056 109.347 -1987 38 41 82
-161.084 109.335 -1987 36 40 79
-157.113 109.323 -1987 36 41 76
-153.143 109.311 -1987 37 42 75
-149.475 109.52 -1991 35 42 76
-145.281 109.344 -1988 34 41 75
-141.455 109.444 -1990 35 42 77
-137.484 109.433 -1990 35 42 78
-133.514 109.423 -1990 34 41 77
-129.545 109.414 -1990 36 42 73
-125.704 109.514 -1992 36 41 74
-121.733 109.505 -1992 36 41 75
-117.704 109.441 -1991 34 41 74
-113.794 109.488 -1992 33 40 73
-109.937 109.589 -1994 34 41 75
-105.913 109.526 -1993 34 40 74
-101.996 109.573 -1994 34 40 73
-98.0262 109.566 -1994 36 42 75
-93.9634 109.449 -1992 37 42 75
-90.0447 109.497 -1993 38 43 76
-86.1661 109.601 -1995 36 41 75
-82.239 109.649 -1996 35 39 74
-78.2692 109.643 -1996 34 39 72
-74.3374 109.693 -1997 34 39 72
-70.2964 109.578 -1995 34 39 72
-66.3638 109.628 -1996 34 39 73
-62.4277 109.678 -1997 34 38 73
-58.4881 109.728 -1998 33 40 71
-54.5449 109.779 -1999 32 39 70
-50.6236 109.885 -2001 33 38 71
-46.6248 109.826 -2000 33 38 70
-42.6517 109.823 -2000 33 38 69
-38.6982 109.875 -2001 33 38 69
-34.7064 109.817 -2000 35 40 72
-30.7803 109.98 -2003 34 39 72
-26.789 109.923 -2002 35 37 69
-22.8929 110.305 -2009 39 40 72
-18.9129 110.359 -2010 38 43 74
-14.9513 110.577 -2014 37 42 73
-10.9685 110.741 -2017 35 40 71
-6.97734 110.96 -2021 33 38 69
-2.96888 111.124 -2024 33 38 69
1.05095 111.234 -2026 31 38 69
5.08374 111.454 -2030 32 39 70
9.14144 111.784 -2036 33 40 71
13.2101 112.004 -2040 34 39 70
17.3032 112.28 -2045 36 42 73
21.3954 112.446 -2048 37 44 77
25.5618 112.887 -2056 36 43 76
29.6738 112.999 -2058 34 41 74
33.8103 113.166 -2061 33 40 73
38.0141 113.498 -2067 33 40 72
42.0791 113.391 -2065 32 39 70
46.2483 113.559 -2068 33 40 71
50.3813 113.617 -2069 34 41 72
54.5975 113.841 -2073 35 42 73
58.8866 114.175 -2079 35 42 73
63.1698 114.454 -2084 33 40 71
67.3441 114.513 -2085 33 40 71
71.6258 114.738 -2089 35 42 73
75.924 114.963 -2093 32 39 70
80.1239 115.024 -2094 25 32 63
84.4091 115.195 -2097 25 32 63
88.6645 115.311 -2099 25 30 57
92.8401 115.318 -2099 25 30 58
97.3862 115.765 -2107 26 31 60
101.531 115.717 -2106 24 29 56
105.974 115.999 -2111 23 28 55
110.229 116.062 -2112 21 26 55
114.38 116.016 -2111 20 25 54
118.473 115.914 -2109 19 24 53
122.732 115.978 -2110 18 23 49
126.997 116.043 -2111 18 24 48
131.329 116.162 -2113 19 25 47
135.733 116.337 -2116 21 25 46
140.35 116.677 -2122 24 28 50
144.583 116.687 -2122 28 32 54
148.887 116.753 -2123 28 33 56
153.052 116.71 -2122 25 31 54
157.436 116.831 -2124 25 30 56
161.754 116.898 -2125 26 31 57
166.311 117.13 -2129 26 31 57
170.485 117.088 -2128 23 31 56
174.739 117.1 -2128 23 30 54
178.825 117.003 -2126 23 29 51
182.992 116.962 -2125 25 28 49
187.067 116.865 -2123 26 29 50
191.587 117.045 -2126 25 30 54
195.752 117.004 -2125 27 32 55
199.726 116.853 -2122 31 35 58
203.498 116.593 -2117 32 37 64
207.251 116.333 -2112 31 36 60
-370.548 111.29 -2081 32 36 59
-364.524 110.728 -2071 32 36 63
-358.544 110.167 -2061 30 33 65
-353.64 109.928 -2057 30 33 65
-348.415 109.582 -2051 31 34 66
-344.224 109.557 -2051 30 33 65
-339.042 109.211 -2045 28 32 61
-334.215 108.974 -2041 28 32 59
-328.759 108.522 -2033 28 33 61
-324.617 108.499 -2033 30 35 64
-319.689 108.209 -2028 31 36 66
-315.095 108.026 -2025 31 36 68
-310.516 107.843 -2022 29 34 67
-306.103 107.714 -2020 33 38 71
-301.551 107.532 -2017 36 40 74
-297.457 107.511 -2017 35 39 74
-293.365 107.489 -2017 31 35 70
-288.845 107.308 -2014 28 32 67
-284.622 107.234 -2013 27 32 65
-279.849 106.948 -2008 27 32 65
-275.235 106.715 -2004 29 34 65
-270.64 106.482 -2000 33 38 69
-266.196 106.303 -1997 33 38 69
-261.898 106.178 -1995 29 33 70
-257.352 105.946 -1991 28 32 68
-253.078 105.821 -1989 28 32 67
-248.815 105.697 -1987 28 33 67
-244.931 105.732 -1988 29 34 67
-240.439 105.502 -1984 32 37 70
-236.085 105.325 -1981 33 37 72
-231.979 105.256 -1980 31 35 72
-227.994 105.239 -1980 31 35 72
-223.671 105.063 -1977 34 38 75
-219.918 105.154 -1979 36 40 83
-215.941 105.138 -1979 35 39 81
-211.965 105.123 -1979 35 39 80
-208.201 105.214 -1981 37 41 82
-204.431 105.305 -1983 37 41 81
-200.553 105.344 -1984 37 41 78
-196.673 105.383 -1985 39 42 78
-192.79 105.422 -1986 38 41 75
-188.62 105.302 -1984 38 41 75
-184.646 105.289 -1984 38 41 76
-180.673 105.276 -1984 38 41 79
-176.969 105.422 -1987 38 40 80
-172.992 105.41 -1987 35 37 79
-169.103 105.451 -1988 40 43 82
-165.211 105.492 -1989 38 41 80
-161.153 105.427 -1988 35 39 78
-157.181 105.416 -1988 36 41 76
-153.209 105.405 -1988 38 43 76
-149.239 105.394 -1988 35 42 76
-145.343 105.436 -1989 34 41 75
-141.444 105.479 -1990 34 41 76
-137.474 105.469 -1990 35 42 78
-133.504 105.459 -1990 35 42 78
-129.601 105.503 -1991 33 40 71
-125.631 105.494 -1991 34 40 71
-121.724 105.538 -1992 36 41 74
-117.755 105.53 -1992 34 41 74
-113.729 105.468 -1991 34 41 74
-109.929 105.619 -1994 33 40 74
-105.852 105.506 -1992 34 40 74
-101.937 105.551 -1993 35 40 73
-97.9208 105.491 -1992 36 41 74
-93.9094 105.431 -1991 37 42 75
-90.0382 105.531 -1993 37 42 75
-86.1598 105.63 -1995 36 40 74
-82.1918 105.624 -1995 34 38 73
-78.1852 105.566 -1994 33 38 71
-74.2203 105.56 -1994 32 37 70
-70.2209 105.502 -1993 32 37 70
-66.3258 105.603 -1995 33 37 72
-62.3919 105.652 -1996 35 39 74
-58.5131 105.806 -1999 33 40 71
-54.5683 105.855 -2000 32 38 70
-50.6453 105.957 -2002 33 38 71
-46.6681 105.954 -2002 33 38 69
-42.6486 105.845 -2000 30 35 66
-38.7535 106.054 -2004 33 38 69
-34.7213 105.892 -2001 35 40 72
-30.8088 106.102 -2005 33 38 71
-26.7736 105.888 -2001 35 37 69
-22.8685 106.204 -2007 37 38 70
-18.8833 106.202 -2007 34 37 69
-14.9354 106.466 -2012 33 38 69
-10.9623 106.676 -2016 33 38 69
-6.9734 106.887 -2020 32 37 68
-2.96867 107.099 -2024 33 38 69
1.0519 107.31 -2028 34 39 70
5.08838 107.522 -2032 33 40 71
9.14526 107.787 -2037 34 41 72
13.2156 108 -2041 37 42 73
17.285 108.107 -2043 37 42 74
21.3729 108.267 -2046 38 44 77
25.4978 108.533 -2051 37 44 76
29.6284 108.747 -2055 34 41 73
33.7914 109.013 -2060 33 40 72
37.9378 109.175 -2063 34 41 72
42.0557 109.23 -2064 34 41 72
46.2226 109.392 -2067 36 43 74
50.3777 109.502 -2069 37 44 75
54.6199 109.77 -2074 35 42 73
58.9957 110.25 -2083 34 41 72
63.1955 110.361 -2085 34 41 72
67.5653 110.736 -2092 34 41 73
71.6892 110.688 -2091 35 42 73
75.9548 110.852 -2094 31 38 69
80.3094 111.122 -2099 28 34 65
84.564 111.234 -2101 28 34 65
88.8693 111.399 -2104 26 31 57
93.143 111.511 -2106 27 32 59
97.4254 111.624 -2108 24 30 56
101.813 111.843 -2112 25 31 57
106.167 112.009 -2115 25 31 57
110.325 111.964 -2114 23 28 55
114.48 111.919 -2113 22 27 54
118.689 111.927 -2113 17 22 49
123.13 112.148 -2117 20 26 48
127.288 112.104 -2116 21 27 48
131.816 112.378 -2121 20 26 47
136.109 112.44 -2122 18 24 43
140.736 112.768 -2128 17 22 42
144.708 112.566 -2124 22 26 46
149.297 112.842 -2129 25 30 50
153.69 112.959 -2131 29 35 54
158.017 113.023 -2132 30 35 56
162.427 113.14 -2134 31 37 57
167.08 113.417 -2139 31 37 58
171.274 113.376 -2138 25 33 53
175.219 113.177 -2134 24 32 52
179.317 113.083 -2132 24 30 50
183.237 112.884 -2128 23 26 47
187.406 112.844 -2127 28 31 51
191.753 112.911 -2128 22 28 49
195.738 112.765 -2125 24 29 50
199.9 112.727 -2124 27 33 53
203.963 112.635 -2122 30 35 59
-359.388 106.285 -2066 28 32 62
-353.786 105.848 -2058 31 35 66
-348.39 105.464 -2051 32 35 67
-343.696 105.285 -2048 30 33 65
-338.686 105.005 -2043 30 33 62
-334.355 104.93 -2042 28 32 59
-329.059 104.547 -2035 29 34 63
-324.913 104.524 -2035 30 35 64
-319.981 104.245 -2030 31 36 65
-316.317 104.377 -2033 32 37 68
-311.262 104.047 -2027 31 36 68
-306.99 103.974 -2026 35 40 73
-302.128 103.696 -2021 38 43 76
-297.878 103.624 -2020 36 40 75
-293.199 103.399 -2016 31 35 70
-289.111 103.378 -2016 26 30 65
-284.602 103.205 -2013 24 29 62
-279.829 102.929 -2008 24 29 61
-275.628 102.858 -2007 28 33 64
-271.027 102.634 -2003 33 38 69
-266.577 102.462 -2000 33 38 69
-261.748 102.136 -1994 30 34 70
-257.463 102.016 -1992 29 34 68
-252.933 101.793 -1988 28 33 66
-248.672 101.674 -1986 27 32 64
-244.791 101.708 -1987 27 32 64
-240.544 101.589 -1985 30 35 66
-236.307 101.47 -1983 33 37 71
-232.197 101.403 -1982 33 37 73
-228.093 101.335 -1981 33 37 73
-224.108 101.32 -1981 33 37 75
-220.014 101.253 -1980 33 37 80
-216.253 101.341 -1982 33 37 79
-212.164 101.275 -1981 34 38 79
-208.186 101.26 -1981 37 41 82
-204.313 101.297 -1982 35 39 79
-200.438 101.334 -1983 36 40 77
-196.56 101.372 -1984 39 42 78
-192.486 101.307 -1983 38 41 75
-188.417 101.243 -1982 38 41 75
-184.447 101.23 -1982 36 39 73
-180.569 101.269 -1983 35 38 75
-176.778 101.358 -1985 38 40 80
-172.806 101.347 -1985 38 40 81
-169.006 101.437 -1987 36 39 77
-165.116 101.476 -1988 36 39 77
-160.98 101.363 -1986 35 39 78
-157.17 101.454 -1988 35 40 75
-153.276 101.495 -1989 38 43 76
-149.379 101.535 -1990 36 43 77
-145.406 101.525 -1990 34 41 75
-141.506 101.566 -1991 33 40 74
-137.533 101.557 -1991 34 42 77
-133.495 101.496 -1990 34 42 78
-129.592 101.538 -1991 33 40 71
-125.686 101.581 -1992 33 39 71
-121.716 101.572 -1992 36 41 74
-117.687 101.513 -1991 34 41 74
-113.835 101.607 -1993 33 40 73
-109.976 101.701 -1995 33 40 74
-106.004 101.694 -1995 34 40 74
-102.032 101.687 -1995 35 40 73
-97.9632 101.578 -1993 37 42 75
-94.0443 101.622 -1994 38 43 76
-90.032 101.565 -1993 33 38 71
-86.0674 101.559 -1993 34 38 73
-82.1449 101.604 -1994 33 37 72
-78.219 101.65 -1995 33 38 71
-74.2524 101.645 -1995 33 38 71
-70.2865 101.64 -1995 31 36 69
-66.3876 101.737 -1997 30 35 68
-62.4501 101.783 -1998 33 38 71
-58.509 101.83 -1999 33 40 71
-54.5645 101.877 -2000 30 37 68
-50.6164 101.925 -2001 31 36 69
-46.6415 101.921 -2001 31 36 68
-42.6457 101.867 -2000 29 34 65
-38.6928 101.915 -2001 30 35 66
-34.7014 101.862 -2000 32 37 68
-30.8066 102.114 -2005 31 35 68
-26.7851 101.959 -2002 35 37 69
-22.8783 102.264 -2008 36 37 69
-18.8914 102.262 -2008 32 35 67
-14.964 102.668 -2016 32 36 67
-10.9724 102.769 -2018 32 37 68
-6.97982 102.972 -2022 33 38 69
-2.97287 103.227 -2027 32 37 68
1.05286 103.379 -2030 33 38 69
5.09052 103.532 -2033 34 40 71
9.1536 103.838 -2039 35 42 73
13.2276 104.043 -2043 39 44 75
17.3092 104.197 -2046 38 43 74
21.3819 104.249 -2047 38 43 76
25.4836 104.403 -2050 38 44 75
29.6263 104.66 -2055 36 43 74
33.8055 104.968 -2061 36 43 74
37.9168 105.021 -2062 37 44 75
42.0731 105.177 -2065 34 41 72
46.197 105.231 -2066 33 40 71
50.3739 105.387 -2069 35 42 73
54.5898 105.594 -2073 35 42 73
58.9349 106.005 -2081 35 42 73
63.2214 106.264 -2086 36 43 74
67.5929 106.626 -2093 34 42 74
71.7528 106.63 -2093 32 40 72
76.2397 107.094 -2102 32 39 70
80.4951 107.201 -2104 26 32 63
84.7189 107.258 -2105 24 29 60
89.0321 107.417 -2108 26 31 55
93.3134 107.525 -2110 22 29 53
97.511 107.531 -2110 20 28 51
101.806 107.64 -2112 24 32 55
106.16 107.8 -2115 29 36 60
110.318 107.756 -2114 30 35 59
114.472 107.713 -2113 28 33 57
118.905 107.925 -2117 23 28 53
123.471 108.239 -2123 22 28 48
167.927 109.716 -2150 30 39 55
172.303 109.779 -2151 33 42 58
176.109 109.485 -2145 27 35 51
180.146 109.344 -2142 26 32 51
183.74 108.948 -2134 28 33 50
187.481 108.655 -2128 21 26 43
191.74 108.668 -2128 22 28 48
195.448 108.375 -2122 25 31 50
199.603 108.337 -2121 29 35 54
-360.233 102.383 -2071 31 36 61
-353.934 101.766 -2059 30 34 65
-348.536 101.396 -2052 34 37 69
-344.344 101.373 -2052 31 34 64
-338.663 100.905 -2043 28 32 59
-334.332 100.833 -2042 29 33 60
-329.037 100.466 -2035 31 36 65
-324.731 100.394 -2034 30 35 64
-319.487 100.027 -2027 30 35 64
-315.829 100.154 -2030 31 36 67
-310.78 99.8372 -2024 33 38 69
-306.363 99.7179 -2022 35 40 73
-301.808 99.5497 -2019 37 42 76
-297.268 99.3818 -2016 37 41 76
-293.033 99.3128 -2015 30 34 69
-288.518 99.1455 -2012 25 29 64
-284.159 99.0279 -2010 25 30 63
-280.089 99.0091 -2010 26 31 63
-275.609 98.8428 -2007 27 32 63
-271.008 98.6276 -2003 32 37 68
-266.559 98.462 -2000 36 41 72
-261.862 98.1984 -1995 34 38 73
-257.704 98.1318 -1994 32 37 71
-253.298 97.9672 -1991 29 34 67
-249.031 97.8521 -1989 29 34 65
-244.897 97.7865 -1988 28 33 63
-240.649 97.672 -1986 28 33 64
-236.41 97.5578 -1984 31 35 68
-232.415 97.5423 -1984 34 38 73
-228.423 97.527 -1984 36 40 77
-224.319 97.4627 -1983 37 41 78
-220.221 97.3989 -1982 34 38 81
-216.129 97.3353 -1981 34 38 80
-212.257 97.3703 -1982 36 40 81
-208.382 97.4054 -1983 38 42 83
-204.299 97.3427 -1982 35 39 79
-200.626 97.4766 -1985 35 39 76
-196.547 97.4143 -1984 37 40 76
-192.473 97.3523 -1983 37 40 75
-188.214 97.1925 -1980 39 42 76
-184.341 97.2292 -1981 38 41 75
-180.466 97.2663 -1982 35 38 74
-176.588 97.3035 -1983 37 40 78
-172.708 97.3411 -1984 38 41 80
-168.909 97.4279 -1986 36 39 76
-165.022 97.466 -1987 36 39 77
-160.969 97.4062 -1986 36 39 78
-157.08 97.4447 -1987 35 39 75
-153.342 97.5816 -1990 36 40 75
-149.369 97.5716 -1990 35 42 76
-145.396 97.5618 -1990 34 41 75
-141.425 97.5524 -1990 32 39 73
-137.593 97.6412 -1992 33 41 76
-133.352 97.4363 -1988 34 42 78
-129.518 97.5256 -1990 33 40 71
-125.614 97.5661 -1991 34 40 72
-121.646 97.558 -1991 36 41 74
-117.679 97.5501 -1991 35 41 74
-113.828 97.6405 -1993 34 41 74
-109.914 97.6821 -1994 33 40 74
-105.837 97.577 -1992 34 40 74
-101.77 97.4722 -1990 36 41 74
-97.8091 97.4657 -1990 37 42 75
-93.8966 97.5084 -1991 36 41 74
-89.9356 97.5023 -1991 30 35 68
-86.0617 97.5944 -1993 31 35 69
-82.1394 97.6379 -1994 33 37 72
-78.2136 97.6816 -1995 34 39 72
-74.2474 97.6766 -1995 33 38 71
-70.2818 97.6719 -1995 31 36 69
-66.4163 97.8142 -1998 28 33 66
-62.5396 97.9568 -2001 30 35 68
-58.5636 97.9529 -2001 31 38 69
-54.6154 97.9981 -2002 29 36 67
-50.6637 98.0436 -2003 30 35 68
-46.6617 97.9915 -2002 29 34 65
-42.6641 97.9396 -2001 30 35 66
-38.6901 97.9367 -2001 31 36 67
-34.6817 97.8365 -1999 32 36 68
-30.7584 97.9813 -2002 31 34 66
-26.7833 97.9793 -2002 34 35 67
-22.8654 98.2225 -2007 36 37 69
-18.8995 98.319 -2009 33 36 68
-14.963 98.6604 -2016 33 37 69
-10.9825 98.8553 -2020 32 37 68
-6.99316 99.1484 -2026 32 37 68
-2.97708 99.3438 -2030 31 36 67
1.05486 99.5395 -2034 32 37 68
5.10269 99.7355 -2038 35 40 71
9.15747 99.8338 -2040 38 43 74
13.2332 100.03 -2044 38 43 74
17.2826 99.9824 -2043 38 43 74
21.37 100.13 -2046 38 43 74
25.4819 100.328 -2050 37 43 74
29.5955 100.476 -2053 35 42 73
33.754 100.723 -2058 37 44 75
37.951 101.019 -2064 39 46 77
42.0907 101.12 -2066 35 42 73
46.261 101.269 -2069 33 40 71
50.4679 101.469 -2073 34 41 72
54.6912 101.668 -2077 34 41 72
59.0159 102.014 -2084 35 42 73
63.3384 102.312 -2090 35 42 73
67.653 102.561 -2095 33 42 72
71.9194 102.712 -2098 33 41 72
76.3071 103.011 -2104 30 37 68
80.6045 103.163 -2107 28 33 64
84.9547 103.364 -2111 24 29 60
89.1526 103.37 -2111 24 30 53
93.5283 103.572 -2115 20 27 48
97.5969 103.431 -2112 22 30 50
101.895 103.536 -2114 26 34 54
106.153 103.592 -2115 28 35 56
180.89 105.517 -2151 51 57 74
184.417 105.088 -2142 43 48 63
187.997 104.707 -2134 34 40 54
191.907 104.524 -2130 28 36 54
-353.223 97.4425 -2055 31 35 62
-348.174 97.1829 -2050 38 42 71
-344.322 97.2554 -2052 35 39 67
-338.973 96.9018 -2045 31 35 63
-334.31 96.7379 -2042 32 36 63
-329.824 96.6219 -2040 32 37 65
-325.668 96.6008 -2040 32 37 65
-320.096 96.154 -2031 29 34 63
-316.119 96.1809 -2032 28 33 64
-311.834 96.1134 -2031 30 35 66
-307.252 95.9516 -2028 34 39 72
-302.237 95.6483 -2022 35 39 73
-297.544 95.4398 -2018 37 41 76
-292.723 95.1846 -2013 35 39 74
-288.213 95.0241 -2010 30 34 69
-284.14 95.0058 -2010 28 33 66
-280.349 95.0823 -2012 27 32 64
-276.14 95.0173 -2011 26 31 62
-271.532 94.8107 -2007 29 34 64
-267.208 94.699 -2005 34 39 69
-262.632 94.4933 -2001 35 40 73
-257.816 94.1933 -1995 34 39 71
-253.154 93.9409 -1990 30 35 67
-249.015 93.8778 -1989 28 33 63
-244.881 93.8148 -1988 28 33 63
-240.512 93.6578 -1985 27 32 63
-236.395 93.5954 -1984 28 32 65
-232.283 93.5333 -1983 31 35 70
-228.178 93.4715 -1982 35 39 75
-224.191 93.4571 -1982 36 40 78
-220.207 93.4429 -1982 38 42 84
-216.224 93.429 -1982 38 42 83
-212.136 93.3683 -1981 37 41 82
-208.369 93.4492 -1983 38 42 83
-204.389 93.4362 -1983 36 40 81
-200.512 93.4704 -1984 35 39 76
-196.435 93.4106 -1983 37 40 76
-192.363 93.3513 -1982 37 40 75
-188.012 93.1508 -1978 38 41 75
-184.143 93.1861 -1979 38 41 76
-180.272 93.2215 -1980 35 38 73
-176.399 93.2573 -1981 37 40 77
-172.609 93.3405 -1983 39 42 81
-168.814 93.4238 -1985 39 42 79
-164.845 93.4132 -1985 38 41 79
-160.959 93.45 -1986 37 40 79
-157.07 93.4868 -1987 35 39 75
-153.41 93.6653 -1991 35 38 73
-149.284 93.5616 -1989 32 39 73
-145.387 93.5993 -1990 33 40 74
-141.487 93.6372 -1991 33 40 74
-137.515 93.6285 -1991 34 41 77
-133.41 93.5258 -1989 34 42 78
-129.51 93.5645 -1990 33 40 73
-125.543 93.5565 -1990 34 41 73
-121.822 93.7367 -1994 34 41 74
-117.849 93.7291 -1994 35 42 75
-113.992 93.8158 -1996 35 42 75
-110.072 93.8557 -1997 35 40 75
-105.99 93.7548 -1995 35 40 74
-101.968 93.7013 -1994 36 41 74
-97.9503 93.648 -1993 36 41 74
-93.8906 93.5481 -1991 36 41 74
-89.975 93.5892 -1992 32 37 70
-86.0994 93.6776 -1994 31 36 70
-82.134 93.6723 -1994 33 37 72
-78.2478 93.7611 -1996 33 38 71
-74.3171 93.8033 -1997 32 37 70
-70.383 93.8457 -1998 31 36 69
-66.545 94.0293 -2002 29 34 67
-62.5043 93.9313 -2000 30 35 68
-58.5891 94.0215 -2002 30 37 66
-54.6119 94.0179 -2002 31 37 67
-50.6857 94.1084 -2004 30 35 68
-46.682 94.0584 -2003 28 32 64
-42.6827 94.0086 -2002 29 34 65
-38.7263 94.053 -2003 32 37 68
-34.7489 94.0507 -2003 34 38 69
-30.7872 94.0956 -2004 32 35 67
-26.8217 94.1408 -2005 34 35 67
-22.9095 94.4209 -2011 35 36 68
-18.936 94.5135 -2013 34 37 69
-14.9918 94.8411 -2020 35 39 70
-10.9982 94.9811 -2023 34 39 70
-7.00308 95.2623 -2029 32 37 68
-2.98129 95.4498 -2033 32 37 68
1.05531 95.5436 -2035 33 38 69
5.09986 95.6377 -2037 35 40 71
9.16137 95.826 -2041 37 42 73
13.2324 95.9675 -2044 38 43 74
17.29 95.9685 -2044 39 44 75
21.3686 96.0636 -2046 38 43 74
25.5051 96.3468 -2052 35 42 72
29.608 96.4425 -2054 34 41 71
33.7518 96.6323 -2058 32 39 70
37.8934 96.7754 -2061 33 40 71
42.088 97.0127 -2066 34 41 72
46.3027 97.2503 -2071 33 40 71
50.4647 97.3473 -2073 32 39 70
54.7403 97.6323 -2079 33 40 71
59.0121 97.8708 -2084 37 44 75
63.3041 98.1095 -2089 35 42 73
67.5841 98.3015 -2093 32 41 71
71.9148 98.5407 -2098 30 39 69
76.3747 98.9211 -2106 28 35 66
80.4846 98.8321 -2104 29 34 65
84.9895 99.2132 -2112 25 30 60
89.3158 99.3597 -2115 22 28 49
93.8316 99.6943 -2122 16 23 42
-354.061 93.545 -2060 33 38 63
-348.831 93.2511 -2054 33 38 64
-345.139 93.3658 -2057 32 37 63
-339.946 93.0724 -2051 32 36 63
-335.107 92.8701 -2047 32 36 63
-329.803 92.5322 -2040 32 37 64
-325.168 92.3759 -2037 32 37 65
-320.076 92.084 -2031 30 35 64
-315.788 92.0191 -2030 28 33 63
-311.2 91.8639 -2027 28 33 64
-306.779 91.7543 -2025 33 38 71
-301.62 91.4185 -2018 32 37 70
-297.378 91.3549 -2017 36 40 75
-292.705 91.1556 -2013 41 45 80
-288.481 91.0925 -2012 39 43 78
-284.405 91.075 -2012 32 37 70
-280.332 91.0577 -2012 27 32 65
-276.26 91.0406 -2012 25 30 61
-271.785 90.8882 -2009 27 32 61
-267.458 90.7812 -2007 32 37 66
-262.747 90.5389 -2002 34 39 72
-258.059 90.2967 -1997 35 40 73
-253.52 90.1003 -1993 32 37 69
-249.249 89.9945 -1991 28 33 63
-245.236 89.9795 -1991 28 33 63
-240.981 89.8743 -1989 26 31 62
-236.975 89.8596 -1989 26 31 63
-232.737 89.755 -1987 29 34 67
-228.624 89.6957 -1986 33 37 73
-224.404 89.5916 -1984 35 39 75
-220.304 89.5329 -1983 38 42 82
-216.102 89.4293 -1981 40 44 85
-212.123 89.4163 -1981 37 41 83
-208.251 89.4486 -1982 36 40 81
-204.377 89.4813 -1983 36 40 81
-200.601 89.5592 -1985 36 40 77
-196.522 89.5019 -1984 37 40 76
-192.545 89.4902 -1984 37 40 74
-188.19 89.2981 -1980 39 42 76
-184.225 89.2868 -1980 39 42 76
-180.17 89.2307 -1979 37 40 75
-176.299 89.265 -1980 37 40 78
-172.425 89.2994 -1981 40 43 82
-168.718 89.4243 -1984 40 43 81
-164.752 89.4141 -1984 40 43 81
-160.868 89.4493 -1985 39 42 81
-156.981 89.4849 -1986 36 39 76
-153.323 89.6557 -1990 34 37 72
-149.2 89.5564 -1988 32 39 72
-145.305 89.5925 -1989 33 40 73
-141.336 89.5837 -1989 34 41 75
-137.369 89.5754 -1989 33 41 76
-133.335 89.5221 -1988 32 40 76
-129.371 89.5141 -1988 35 42 75
-125.661 89.6865 -1992 35 42 75
-121.753 89.7241 -1993 34 41 74
-117.901 89.8068 -1995 35 42 74
-114.042 89.8899 -1997 35 42 74
-110.01 89.838 -1996 36 40 75
-105.824 89.6515 -1992 35 40 74
-101.808 89.6003 -1991 37 42 75
-97.7968 89.5491 -1990 38 43 76
-93.8847 89.5884 -1991 36 41 74
-89.9694 89.6279 -1992 35 40 73
-86.0509 89.6676 -1993 33 38 71
-82.0466 89.6174 -1992 33 38 72
-78.2038 89.7476 -1995 34 39 72
-74.2381 89.743 -1995 32 37 70
-70.3081 89.7836 -1996 31 36 69
-66.4412 89.9144 -1999 30 35 68
-62.563 90.0455 -2002 30 34 68
-58.6148 90.0867 -2003 30 37 66
-54.6631 90.1283 -2004 31 37 68
-50.7332 90.215 -2006 29 34 67
-46.7025 90.1222 -2004 29 33 65
-42.7866 90.2543 -2007 32 35 66
-38.7625 90.162 -2005 30 35 66
-34.8162 90.2497 -2007 33 37 69
-30.8621 90.3377 -2009 33 36 68
-26.887 90.3809 -2010 34 36 68
-22.9423 90.5593 -2014 36 37 69
-18.9724 90.6929 -2017 35 38 70
-15.0057 90.9167 -2022 36 40 72
-11.0029 91.0059 -2024 35 40 71
-6.9992 91.1852 -2028 34 39 70
-2.97965 91.3647 -2032 34 39 70
1.05576 91.5445 -2036 34 39 70
5.09704 91.5447 -2036 35 40 71
9.16529 91.815 -2042 36 41 72
13.238 91.9505 -2045 37 42 73
17.3143 92.0414 -2047 39 44 75
21.3987 92.1325 -2049 38 43 74
25.5036 92.2688 -2052 35 41 71
29.6638 92.5402 -2058 32 39 68
33.7989 92.6771 -2061 30 37 68
37.9462 92.8141 -2064 31 38 69
42.0854 92.9065 -2066 34 41 71
46.2775 93.089 -2070 35 42 73
50.5103 93.3168 -2075 32 39 70
54.7896 93.5898 -2081 34 41 72
59.1215 93.9081 -2088 37 44 75
63.2696 93.9118 -2088 34 41 72
67.8059 94.4556 -2100 30 39 69
71.9446 94.4148 -2099 33 41 72
76.4063 94.7791 -2107 32 39 70
80.7474 94.9638 -2111 26 32 61
85.1855 95.2387 -2117 25 30 59
-349.489 89.3038 -2058 32 38 61
-345.454 89.3267 -2059 31 36 61
-340.091 89.0029 -2052 31 36 62
-335.414 88.8529 -2049 30 34 61
-330.106 88.5297 -2042 30 35 62
-325.149 88.2938 -2037 31 36 63
-320.057 88.0148 -2031 31 36 63
-316.236 88.0828 -2033 29 34 64
-311.182 87.8044 -2027 27 32 63
-306.912 87.743 -2026 32 37 70
-301.752 87.4221 -2019 34 39 72
-297.507 87.3611 -2018 38 42 77
-292.687 87.1274 -2013 42 46 81
-288.464 87.0671 -2012 40 44 79
-284.247 87.0071 -2011 34 39 72
-280.315 87.0338 -2012 30 35 67
-276.106 86.9743 -2011 26 31 60
-271.904 86.915 -2010 26 31 60
-267.575 86.8128 -2008 28 33 62
-262.731 86.5379 -2002 31 36 69
-257.914 86.2634 -1996 34 39 72
-253.378 86.0756 -1992 35 40 73
-249.235 86.0177 -1991 32 37 68
-245.098 85.96 -1990 30 35 66
-240.846 85.8595 -1988 27 32 63
-236.961 85.8887 -1989 26 31 63
-232.372 85.6592 -1984 28 33 66
-228.38 85.6458 -1984 33 37 71
-224.051 85.5031 -1981 37 41 76
-220.18 85.5333 -1982 38 42 81
-215.98 85.4343 -1980 41 45 86
-212.11 85.465 -1981 39 43 86
-208.028 85.4096 -1980 37 41 84
-204.261 85.484 -1982 39 43 85
-200.387 85.5153 -1983 39 43 80
-196.51 85.5469 -1984 39 43 78
-192.437 85.4924 -1983 39 42 76
-188.179 85.3521 -1980 39 42 76
-184.307 85.3844 -1981 38 41 75
-180.25 85.3307 -1980 38 41 76
-176.288 85.3203 -1980 39 42 79
-172.327 85.3102 -1980 39 42 81
-168.623 85.4296 -1983 40 43 82
-164.659 85.4199 -1983 40 43 82
-160.858 85.4966 -1985 39 42 81
-156.814 85.4443 -1984 37 40 77
-153.083 85.5646 -1987 37 40 75
-149.116 85.5558 -1987 33 40 73
-145.15 85.5473 -1987 32 39 72
-141.186 85.539 -1987 34 41 75
-137.153 85.4879 -1986 34 42 77
-133.059 85.3939 -1984 34 42 78
-129.234 85.4725 -1986 36 43 76
-125.591 85.6802 -1991 36 43 76
-121.746 85.7592 -1993 34 41 74
-117.894 85.8382 -1995 35 42 74
-114.035 85.9176 -1997 36 43 74
-110.004 85.8682 -1996 36 40 75
-105.924 85.7759 -1994 35 40 74
-101.853 85.6838 -1992 37 42 75
-97.8401 85.6351 -1991 37 42 75
-93.9735 85.7156 -1993 36 41 74
-90.0995 85.7962 -1995 35 40 73
-86.1752 85.8341 -1996 36 41 74
-82.2065 85.8293 -1996 36 41 74
-78.3168 85.9107 -1998 36 41 74
-74.3454 85.9063 -1998 33 38 71
-70.4448 85.988 -2000 30 35 68
-66.5703 86.113 -2003 31 35 69
-62.5593 86.0663 -2002 32 36 70
-58.6406 86.1488 -2004 30 37 68
-54.6599 86.1456 -2004 30 37 68
-50.7302 86.2285 -2006 30 35 68
-46.7229 86.1826 -2005 31 35 66
-42.7841 86.2661 -2007 33 37 66
-38.7796 86.2208 -2006 31 36 67
-34.8488 86.3476 -2009 32 36 68
-30.9064 86.4747 -2012 33 36 68
-26.9389 86.559 -2014 34 35 67
-22.9751 86.6865 -2017 35 36 68
-19.0183 86.9 -2022 34 37 69
-15.0271 87.028 -2025 38 41 73
-11.024 87.1563 -2028 38 42 74
-7.00569 87.2417 -2030 35 40 71
-2.98094 87.3703 -2033 34 39 70
1.05465 87.4132 -2034 35 40 71
5.09923 87.5423 -2037 35 40 71
9.16923 87.8006 -2043 35 40 71
13.2502 87.9732 -2047 37 42 73
17.3471 88.146 -2051 37 42 73
21.4183 88.147 -2051 38 43 74
25.5518 88.3634 -2056 36 41 71
29.6621 88.451 -2058 34 40 69
33.7969 88.5817 -2061 32 39 70
37.9256 88.6697 -2063 32 39 70
42.1236 88.887 -2068 33 40 70
46.2748 88.9755 -2070 34 41 72
50.5316 89.2362 -2076 33 40 71
54.918 89.6691 -2086 34 41 72
59.0048 89.5864 -2084 36 43 74
63.3265 89.8478 -2090 33 40 71
67.6405 90.0666 -2095 34 41 74
71.8719 90.1566 -2097 33 40 72
76.293 90.4619 -2104 36 42 74
80.7044 90.7244 -2110 34 39 69
-350.488 85.424 -2064 34 39 61
-346.44 85.4458 -2065 32 37 65
-340.734 85.0541 -2056 31 36 64
-336.377 84.9938 -2055 30 35 63
-330.572 84.5616 -2045 30 35 63
-325.928 84.4191 -2042 30 35 63
-320.669 84.1117 -2035 31 36 64
-316.062 83.9699 -2032 29 34 63
-311.164 83.7457 -2027 25 31 61
-306.288 83.5219 -2022 29 34 66
-301.585 83.3396 -2018 32 37 70
-297.343 83.2815 -2017 38 43 76
-292.671 83.0999 -2013 42 47 80
-288.161 82.9598 -2010 40 45 78
-283.948 82.9027 -2009 36 41 74
-280.02 82.9281 -2010 32 37 69
-275.953 82.9127 -2010 27 32 62
-271.754 82.8562 -2009 27 32 63
-267.693 82.841 -2009 27 32 63
-263.11 82.6614 -2005 26 31 64
-258.287 82.3996 -1999 30 35 68
-253.745 82.2204 -1995 35 40 73
-249.596 82.1651 -1994 33 38 71
-245.207 82.0278 -1991 31 36 69
-241.074 81.973 -1990 29 34 66
-236.948 81.9186 -1989 27 32 64
-232.827 81.8644 -1988 27 32 64
-228.482 81.728 -1985 30 34 69
-224.151 81.5919 -1982 33 37 73
-220.057 81.5384 -1981 37 41 78
-215.858 81.444 -1979 41 45 84
-212.098 81.5144 -1981 39 43 84
-208.016 81.4615 -1980 39 43 85
-204.25 81.5325 -1982 40 44 85
-200.376 81.5623 -1983 39 43 82
-196.4 81.5514 -1983 38 42 79
-192.329 81.4995 -1982 40 43 78
-188.073 81.3655 -1979 39 42 76
-184.296 81.4375 -1981 37 40 74
-180.149 81.3452 -1979 36 39 75
-176.278 81.3764 -1980 36 39 77
-172.317 81.3668 -1980 37 40 79
-168.698 81.5217 -1984 38 40 81
-164.733 81.5124 -1984 39 41 82
-160.849 81.5445 -1985 37 41 80
-156.884 81.5358 -1985 36 40 76
-152.997 81.5683 -1986 38 42 77
-149.107 81.601 -1987 37 43 77
-145.069 81.5519 -1986 34 39 74
-141.107 81.5439 -1986 33 39 73
-137.076 81.4952 -1985 32 39 74
-133.118 81.4877 -1985 31 39 74
-129.096 81.4394 -1984 37 44 77
-125.395 81.5966 -1988 35 43 76
-121.556 81.6718 -1990 33 41 74
-117.828 81.8294 -1994 35 43 75
-113.914 81.8641 -1995 35 43 75
-109.887 81.8168 -1994 37 42 75
-105.812 81.7288 -1992 37 42 75
-101.796 81.6821 -1991 37 42 75
-97.8838 81.7177 -1992 36 42 75
-93.9682 81.7533 -1993 37 43 76
-90.0493 81.7893 -1994 36 41 74
-86.1272 81.8255 -1995 35 40 73
-82.2019 81.8619 -1996 36 41 74
-78.3124 81.9395 -1998 35 40 73
-74.3038 81.8942 -1997 31 36 69
-70.3704 81.9312 -1998 29 34 67
-66.5001 82.0505 -2001 32 36 70
-62.5246 82.047 -2001 33 37 71
-58.6373 82.1666 -2004 34 40 71
-54.6841 82.2045 -2005 33 39 70
-50.7525 82.2836 -2007 30 35 67
-46.7669 82.281 -2007 32 37 68
-42.8243 82.3605 -2009 34 39 69
-38.8354 82.3583 -2009 33 38 69
-34.8989 82.4792 -2012 35 39 70
-30.92 82.5184 -2013 33 38 69
-26.9909 82.7218 -2018 34 36 68
-22.9966 82.7614 -2019 34 36 68
-19.0267 82.9241 -2023 34 37 69
-15.0262 83.0052 -2025 35 39 71
-11.0234 83.1274 -2028 35 40 71
-6.99495 83.086 -2027 33 38 69
-2.97638 83.2086 -2030 33 38 69
1.05407 83.3316 -2033 35 40 71
5.10145 83.5367 -2038 36 41 72
9.15525 83.6192 -2040 36 41 72
13.243 83.8656 -2046 36 41 72
