ply
format ascii 1.0
comment Created by Open3D
element vertex 1379
property double x
property double y
property double z
property uchar red
property uchar green
property uchar blue
end_header
-156.483 -296.595 -1966 44 49 87
-152.451 -296.413 -1965 43 47 85
-148.425 -296.232 -1964 43 46 85
-144.477 -296.202 -1964 44 47 86
-140.316 -295.72 -1961 46 49 88
-136.307 -295.541 -1960 47 51 90
-132.169 -295.062 -1957 48 52 91
-128.043 -294.583 -1954 49 53 92
-124.058 -294.406 -1953 49 53 92
-119.893 -293.778 -1949 49 53 92
-115.864 -293.453 -1947 47 49 90
-111.901 -293.279 -1946 44 46 87
-107.999 -293.256 -1946 44 47 86
-104.045 -293.084 -1945 48 51 90
-100.095 -292.913 -1944 49 52 91
-96.15 -292.742 -1943 51 54 93
-92.1149 -292.271 -1940 41 44 82
-88.2745 -292.403 -1941 44 45 84
-84.3439 -292.235 -1940 48 50 89
-80.5422 -292.519 -1942 46 49 88
-76.6939 -292.654 -1943 42 46 85
-72.9169 -293.091 -1946 43 47 86
-69.0577 -293.227 -1947 46 50 89
-65.1952 -293.364 -1948 45 49 87
-61.329 -293.501 -1949 46 50 87
-57.4004 -293.339 -1948 49 51 93
-53.5588 -293.629 -1950 49 51 93
-49.6586 -293.618 -1950 50 52 96
-45.8292 -294.06 -1953 47 51 92
-41.9238 -294.051 -1953 44 48 88
-38.0577 -294.344 -1955 42 47 86
-34.1839 -294.638 -1957 41 47 86
-30.3023 -294.933 -1959 39 45 83
-26.3861 -294.927 -1959 41 45 84
-22.4815 -295.073 -1960 43 47 86
-18.5827 -295.37 -1962 46 50 89
-14.6834 -295.818 -1965 47 51 89
-10.7722 -296.267 -1968 44 48 86
-6.85604 -297.018 -1973 45 49 86
-2.91997 -297.769 -1978 44 48 87
1.0374 -298.974 -1986 45 49 88
5.01943 -299.727 -1991 47 51 90
9.06216 -301.836 -2005 47 51 90
13.174 -304.247 -2021 47 51 91
17.3669 -306.96 -2039 46 52 89
21.5372 -308.319 -2048 43 50 86
25.8564 -311.033 -2066 42 46 82
30.059 -311.792 -2071 43 48 83
34.3644 -313.304 -2081 45 50 83
38.6916 -314.666 -2090 43 47 86
-235.595 -306.112 -1997 59 64 93
-232.012 -306.676 -2001 51 57 87
-227.844 -306.475 -2000 47 54 88
-223.458 -305.969 -1997 47 54 91
-219.416 -305.923 -1997 46 53 92
-214.944 -305.265 -1993 44 52 94
-210.596 -304.761 -1990 45 52 95
-206.366 -304.411 -1988 43 50 95
-201.942 -303.757 -1984 39 48 92
-197.736 -303.409 -1982 39 49 93
-193.441 -302.909 -1979 40 46 91
-189.256 -302.563 -1977 38 45 89
-185.08 -302.218 -1975 35 43 85
-181.006 -302.027 -1974 38 45 83
-176.937 -301.837 -1973 41 48 87
-172.786 -301.495 -1971 42 48 89
-168.816 -301.46 -1971 38 46 87
-164.763 -301.272 -1970 38 46 88
-160.471 -300.627 -1966 41 48 86
-156.356 -300.288 -1964 43 49 87
-152.405 -300.256 -1964 44 48 87
-148.228 -299.767 -1961 45 48 87
-144.213 -299.583 -1960 47 50 89
-140.345 -299.707 -1961 46 49 88
-136.266 -299.372 -1959 46 49 88
-131.993 -298.581 -1954 46 50 89
-127.938 -298.248 -1952 48 52 91
-123.893 -297.917 -1950 49 53 92
-119.856 -297.586 -1948 48 52 91
-115.888 -297.409 -1947 48 50 91
-111.982 -297.385 -1947 46 48 89
-107.966 -297.057 -1945 43 46 85
-103.959 -296.73 -1943 44 47 86
-100.013 -296.556 -1942 45 48 87
-96.1203 -296.536 -1942 52 55 92
-92.0863 -296.058 -1939 45 48 85
-88.2926 -296.345 -1941 41 44 81
-84.4046 -296.327 -1941 42 45 83
-80.6002 -296.615 -1943 43 46 85
-76.749 -296.752 -1944 43 47 86
-72.9319 -297.042 -1946 46 50 89
-69.1074 -297.332 -1948 47 51 90
-65.2419 -297.471 -1949 45 49 87
-61.3416 -297.458 -1949 45 49 86
-57.4417 -297.446 -1949 47 50 91
-53.5698 -297.587 -1950 47 50 92
-49.6942 -297.729 -1951 48 51 94
-45.8621 -298.177 -1954 49 52 92
-41.9968 -298.473 -1956 46 49 88
-38.1239 -298.77 -1958 44 50 90
-34.2258 -298.915 -1959 44 50 89
-30.3548 -299.366 -1962 42 49 87
-26.4453 -299.513 -1963 43 48 87
-22.509 -299.355 -1962 45 50 89
-18.5958 -299.504 -1963 46 50 89
-14.7012 -300.111 -1967 47 51 89
-10.7907 -300.718 -1971 46 50 87
-6.87129 -301.632 -1977 42 46 83
-2.92939 -302.699 -1984 46 50 88
1.04204 -304.225 -1994 48 52 91
5.03809 -304.836 -1998 48 53 92
9.10918 -307.431 -2015 46 50 89
13.2222 -309.416 -2028 50 55 94
17.3959 -311.555 -2042 53 59 94
21.5731 -312.933 -2051 51 58 91
25.8615 -315.226 -2066 48 52 86
29.9634 -314.927 -2064 46 51 84
-234.937 -309.255 -1991 101 106 135
-231.944 -310.603 -2000 71 76 106
-228.119 -310.865 -2002 59 66 100
-223.952 -310.662 -2001 46 53 88
-219.682 -310.305 -1999 46 53 89
-215.313 -309.794 -1996 45 53 93
-210.958 -309.283 -1993 45 53 95
-206.617 -308.774 -1990 41 50 94
-202.392 -308.42 -1988 41 51 95
-197.977 -307.758 -1984 37 47 91
-193.579 -307.096 -1980 41 48 93
-189.487 -306.901 -1979 41 48 92
-185.119 -306.241 -1975 41 49 91
-181.043 -306.047 -1974 42 50 89
-177.063 -306.01 -1974 42 50 90
-172.997 -305.818 -1973 42 50 90
-168.936 -305.627 -1972 41 49 89
-164.965 -305.592 -1972 43 51 92
-160.668 -304.938 -1968 43 49 89
-156.468 -304.44 -1965 46 52 92
-152.437 -304.253 -1964 46 50 90
-148.411 -304.066 -1963 45 48 87
-144.243 -303.571 -1960 47 50 89
-140.231 -303.386 -1959 46 49 88
-136.225 -303.202 -1958 46 50 89
-132.156 -302.864 -1956 45 49 88
-128.096 -302.527 -1954 44 48 87
-123.982 -302.037 -1951 45 49 88
-119.942 -301.702 -1949 44 48 87
-115.971 -301.522 -1948 42 45 84
-112.005 -301.343 -1947 42 45 84
-107.988 -301.011 -1945 39 42 81
-104.088 -300.989 -1945 40 43 82
-100.033 -300.503 -1942 43 46 83
-96.1898 -300.637 -1943 46 49 86
-92.1529 -300.153 -1940 46 49 86
-88.3564 -300.444 -1942 46 49 86
-84.5091 -300.581 -1943 43 46 83
-80.6999 -300.873 -1945 44 47 86
-76.8044 -300.856 -1945 44 48 87
-72.947 -300.995 -1946 47 51 90
-69.0863 -301.135 -1947 46 50 89
-65.2555 -301.43 -1949 41 45 83
-61.3543 -301.417 -1949 41 45 82
-57.5125 -301.714 -1951 44 48 87
-53.6634 -302.012 -1953 46 50 89
-49.7555 -302.001 -1953 48 52 91
-45.9185 -302.455 -1956 48 52 91
-42.0484 -302.755 -1958 53 57 96
-38.1318 -302.746 -1958 45 51 92
-34.2328 -302.893 -1959 45 52 91
-30.3612 -303.351 -1962 47 54 92
-26.4778 -303.809 -1965 43 50 88
-22.5711 -304.113 -1967 43 50 88
-18.666 -304.572 -1970 46 50 89
-14.7566 -305.187 -1974 46 50 87
-10.8369 -305.958 -1979 50 54 91
-6.89724 -306.729 -1984 44 48 85
-2.94178 -307.965 -1992 46 50 88
1.04593 -309.356 -2001 49 53 92
5.07215 -310.902 -2011 44 51 89
9.1565 -313.068 -2025 50 56 94
13.2708 -314.617 -2035 50 57 95
17.4082 -315.857 -2043 55 62 96
-234.515 -312.69 -1987 69 74 103
-231.645 -314.214 -1997 61 67 97
-227.712 -314.322 -1998 100 107 141
-223.664 -314.274 -1998 101 108 142
-219.618 -314.227 -1998 76 83 117
-215.251 -313.708 -1995 58 66 104
-210.897 -313.192 -1992 44 53 94
-206.661 -312.832 -1990 48 58 102
-202.333 -312.317 -1987 48 58 103
-197.919 -311.646 -1983 43 53 98
-193.718 -311.29 -1981 42 50 95
-189.527 -310.935 -1979 45 53 96
-185.252 -310.423 -1976 47 55 97
-181.449 -310.699 -1978 44 52 92
-177.191 -310.189 -1975 45 53 93
-173.209 -310.152 -1975 43 51 91
-169.058 -309.802 -1973 41 49 89
-165 -309.609 -1972 42 50 90
-160.702 -308.946 -1968 47 53 94
-156.66 -308.756 -1967 45 50 92
-152.314 -307.938 -1962 46 50 92
-148.215 -307.592 -1960 44 47 88
-144.199 -307.404 -1959 45 48 88
-140.189 -307.217 -1958 47 50 89
-136.114 -306.874 -1956 46 49 88
-132.184 -306.845 -1956 47 51 90
-128.189 -306.661 -1955 48 52 91
-124.135 -306.32 -1953 45 49 88
-120.091 -305.981 -1951 44 48 87
-116.115 -305.799 -1950 41 45 83
-112.144 -305.618 -1949 42 45 83
-108.122 -305.281 -1947 41 44 83
-104.11 -304.945 -1945 43 46 83
-100.054 -304.453 -1942 43 46 83
-96.1605 -304.432 -1942 43 46 83
-92.1248 -303.942 -1939 49 52 89
-88.375 -304.393 -1942 53 56 93
-84.3964 -304.061 -1940 52 55 92
-80.5924 -304.357 -1942 49 52 91
-76.7415 -304.497 -1943 43 47 86
-72.8875 -304.638 -1944 44 48 87
-69.1008 -305.093 -1947 44 49 88
-65.2692 -305.392 -1949 44 49 87
-61.4302 -305.692 -1951 49 54 91
-57.5542 -305.836 -1952 44 49 89
-53.6472 -305.824 -1952 43 49 89
-49.817 -306.283 -1955 43 52 92
-45.9282 -306.43 -1956 44 51 92
-42.0788 -306.891 -1959 45 51 92
-38.1982 -307.195 -1961 45 53 93
-34.3274 -307.658 -1964 46 53 93
-30.445 -308.121 -1967 47 53 93
-26.5102 -308.115 -1967 46 53 91
-22.6103 -308.58 -1970 42 49 87
-18.6983 -309.045 -1973 46 51 90
-14.7896 -309.825 -1978 49 53 91
-10.8501 -310.292 -1981 51 55 93
-6.91949 -311.7 -1990 47 51 88
-2.95295 -313.108 -1999 48 52 89
1.05086 -314.831 -2010 51 55 93
5.09086 -316.085 -2018 52 59 97
9.19004 -318.279 -2032 50 57 95
13.3322 -320.161 -2044 52 59 97
17.4799 -321.261 -2051 51 58 92
-231.463 -317.975 -1995 64 69 99
-227.419 -317.925 -1995 127 132 166
-223.712 -318.354 -1998 147 154 188
-219.885 -318.625 -2000 68 76 110
-215.513 -318.1 -1997 73 83 122
-210.942 -317.257 -1992 38 47 89
-206.809 -317.053 -1991 65 75 121
-202.58 -316.69 -1989 99 109 154
-198.36 -316.328 -1987 93 103 148
-193.759 -315.331 -1981 90 99 145
-189.376 -314.653 -1977 75 85 128
-185.01 -313.976 -1973 56 66 108
-181.12 -314.096 -1974 49 57 97
-176.78 -313.421 -1970 45 53 93
-172.895 -313.542 -1971 45 53 93
-168.923 -313.505 -1971 47 54 94
-165.202 -313.946 -1974 47 53 94
-160.736 -312.957 -1968 44 50 91
-156.694 -312.764 -1967 43 49 91
-152.424 -312.094 -1963 47 53 96
-148.247 -311.585 -1960 47 51 92
-144.083 -311.077 -1957 42 46 87
-140.147 -311.046 -1957 48 51 90
-136.143 -310.857 -1956 49 52 91
-132.347 -311.146 -1958 50 53 92
-128.282 -310.8 -1956 52 56 95
-124.352 -310.773 -1956 46 50 89
-120.178 -310.111 -1952 44 48 87
-116.14 -309.768 -1950 40 43 81
-112.225 -309.744 -1950 42 45 82
-108.145 -309.243 -1947 43 46 83
-104.185 -309.062 -1946 42 45 82
-100.179 -308.722 -1944 46 49 86
-96.3296 -308.86 -1945 55 58 95
-92.3821 -308.681 -1944 52 55 92
-88.4849 -308.662 -1944 51 54 91
-84.5449 -308.484 -1943 50 53 91
-80.6512 -308.467 -1943 50 53 92
-76.7579 -308.45 -1943 52 56 95
-72.8654 -308.433 -1943 48 52 91
-69.009 -308.577 -1944 45 52 90
-65.2161 -309.039 -1947 48 55 92
-61.3803 -309.343 -1949 48 55 92
-57.5369 -309.647 -1951 46 53 94
-53.6586 -309.794 -1952 45 53 95
-49.853 -310.418 -1956 45 55 99
-45.9379 -310.407 -1956 47 56 99
-42.0877 -310.874 -1959 49 57 100
-38.2063 -311.183 -1961 51 59 99
-34.3172 -311.493 -1963 54 61 101
-30.4359 -311.962 -1966 56 62 103
-26.5429 -312.432 -1969 46 53 91
-22.6609 -313.22 -1974 39 46 84
-18.7497 -313.85 -1978 38 45 83
-14.8301 -314.64 -1983 60 65 103
-10.8742 -314.954 -1985 73 78 117
-6.93829 -316.539 -1995 76 80 117
-2.9624 -318.125 -2005 63 67 104
1.05266 -319.394 -2013 52 56 93
5.11212 -321.457 -2026 50 57 95
9.22815 -323.68 -2040 63 70 108
13.3872 -325.587 -2052 77 84 122
-230.933 -321.245 -1990 65 69 99
-227.24 -321.679 -1993 133 137 173
-223.761 -322.437 -1998 124 131 167
-220.153 -323.034 -2002 71 79 115
-215.452 -322.018 -1996 98 109 151
-210.988 -321.326 -1992 46 57 102
-206.958 -321.28 -1992 67 78 126
-202.624 -320.751 -1989 90 100 149
-198.104 -319.901 -1984 151 160 210
-193.606 -319.052 -1979 164 174 220
-189.513 -318.849 -1978 158 169 213
-185.144 -318.164 -1974 144 155 197
-181.068 -317.962 -1973 126 136 175
-176.818 -317.44 -1970 96 104 144
-173.021 -317.724 -1972 81 89 130
-168.959 -317.525 -1971 65 72 113
-164.987 -317.489 -1971 46 52 93
-160.771 -316.97 -1968 50 56 98
-156.648 -316.613 -1966 55 61 104
-152.457 -316.096 -1963 54 60 104
-148.43 -315.902 -1962 50 54 96
-144.114 -315.066 -1957 48 52 93
-140.249 -315.196 -1958 48 49 89
-136.242 -315.004 -1957 45 47 86
-132.308 -314.975 -1957 45 48 87
-128.375 -314.947 -1957 49 53 92
-124.379 -314.758 -1956 46 50 89
-120.327 -314.41 -1954 46 50 89
-116.344 -314.223 -1953 44 48 86
-112.307 -313.877 -1951 46 49 86
-108.224 -313.37 -1948 42 45 82
-104.315 -313.347 -1948 42 44 81
-100.355 -313.164 -1947 47 48 85
-96.4495 -313.142 -1947 45 48 85
-92.4497 -312.8 -1945 49 52 89
-88.5951 -312.941 -1946 44 47 84
-84.6068 -312.601 -1944 50 53 91
-80.6271 -312.261 -1942 56 59 98
-76.7745 -312.405 -1943 58 62 101
-72.9188 -312.549 -1944 61 66 104
-69.0594 -312.695 -1945 56 63 101
-65.2637 -313.162 -1948 56 64 104
-61.425 -313.47 -1950 55 63 103
-57.6084 -313.939 -1953 68 77 122
-53.7526 -314.249 -1955 65 75 121
-49.8637 -314.398 -1956 68 80 128
-46.0184 -314.87 -1959 62 74 120
-42.1398 -315.182 -1961 63 74 120
-38.2535 -315.495 -1963 72 80 120
-34.3771 -315.969 -1966 82 89 130
-30.5044 -316.605 -1970 86 92 133
-26.589 -316.92 -1972 59 66 104
-22.6773 -317.397 -1975 50 57 95
-18.7444 -317.714 -1977 52 59 97
-14.8409 -318.835 -1984 84 91 129
-10.9039 -319.796 -1990 97 103 142
-6.95016 -321.08 -1998 104 108 145
-2.96596 -322.525 -2007 94 98 135
1.05238 -323.329 -2012 92 96 133
5.1132 -325.579 -2026 79 86 124
9.23914 -328.152 -2042 94 101 138
13.3837 -329.601 -2051 116 123 161
-227.404 -325.919 -1994 82 86 123
-223.81 -326.522 -1998 64 71 110
-219.982 -326.8 -2000 70 78 119
-215.283 -325.771 -1994 86 98 144
-210.823 -325.071 -1990 96 108 156
-206.588 -324.697 -1988 76 87 141
-202.668 -324.815 -1989 68 78 132
-198.247 -324.118 -1985 131 140 194
-193.649 -323.095 -1979 155 165 212
-189.459 -322.726 -1977 174 185 229
-184.997 -321.868 -1972 174 186 227
-180.833 -321.501 -1970 165 176 213
-176.857 -321.462 -1970 137 147 185
-173.059 -321.749 -1972 146 155 197
-169.254 -322.038 -1974 103 110 152
-165.274 -322.001 -1974 70 77 118
-161.378 -322.127 -1975 118 124 167
-157.081 -321.44 -1971 124 130 173
-152.723 -320.59 -1966 89 95 140
-148.463 -319.905 -1962 66 70 112
-144.293 -319.383 -1959 58 62 102
-140.28 -319.189 -1958 48 48 88
-136.272 -318.995 -1957 31 33 73
-132.473 -319.292 -1959 30 33 72
-128.534 -319.263 -1959 50 53 92
-124.534 -319.072 -1958 59 62 101
-120.415 -318.556 -1955 96 100 139
-116.429 -318.367 -1954 85 88 126
-112.389 -318.016 -1952 89 92 129
-108.304 -317.503 -1949 83 86 123
-104.445 -317.642 -1950 87 89 126
-100.48 -317.457 -1949 95 95 133
-96.6193 -317.598 -1950 74 76 113
-92.66 -317.414 -1949 64 67 103
-88.7511 -317.394 -1949 84 87 124
-84.7123 -316.887 -1946 121 124 162
-80.7693 -316.705 -1945 112 116 155
-76.8309 -316.525 -1944 115 119 158
-72.9346 -316.509 -1944 135 140 178
-69.0746 -316.656 -1945 125 130 169
-65.211 -316.804 -1946 141 149 192
-61.4385 -317.441 -1950 128 138 182
-57.6209 -317.917 -1953 112 124 172
-53.7918 -318.393 -1956 110 123 173
-49.9511 -318.869 -1959 101 115 168
-46.0519 -319.022 -1960 114 127 176
-42.149 -319.175 -1961 97 109 157
-38.2424 -319.329 -1962 104 112 152
-34.3846 -319.972 -1966 121 128 168
-30.4801 -320.29 -1968 117 124 164
-26.5948 -320.935 -1972 81 88 126
-22.6593 -321.092 -1973 113 120 158
-18.7579 -321.901 -1978 94 101 139
-14.829 -322.548 -1982 109 116 154
-10.89 -323.36 -1987 69 76 113
-6.94465 -324.822 -1996 90 94 131
-2.96657 -326.611 -2007 120 124 161
1.05314 -327.587 -2013 137 141 178
5.1143 -329.704 -2026 82 88 126
9.22326 -331.658 -2038 110 117 155
13.367 -333.288 -2048 139 147 184
-227.227 -329.668 -1992 95 99 136
-223.636 -330.279 -1996 73 79 120
-219.701 -330.395 -1997 61 68 111
-215.007 -329.354 -1991 87 97 147
-210.446 -328.479 -1986 115 125 178
-206.426 -328.432 -1986 108 119 177
-202.102 -327.89 -1983 92 102 161
-197.792 -327.349 -1980 135 145 204
-193.692 -327.14 -1979 172 181 230
-189.309 -326.436 -1975 184 194 240
-185.132 -326.063 -1973 175 185 226
-180.873 -325.526 -1970 174 185 221
-176.897 -325.486 -1970 134 145 182
-172.834 -325.282 -1969 143 153 195
-169.291 -326.069 -1974 142 151 192
-165.144 -325.701 -1972 129 137 177
-161.169 -325.665 -1972 162 170 212
-157.036 -325.299 -1970 161 168 211
-152.835 -324.769 -1967 107 113 158
-148.496 -323.91 -1962 84 88 129
-144.62 -324.042 -1963 53 57 96
-140.455 -323.515 -1960 35 38 77
-136.442 -323.319 -1959 35 38 78
-132.57 -323.454 -1960 44 48 87
-128.563 -323.26 -1959 116 119 158
-124.498 -322.901 -1957 120 123 162
-120.565 -322.874 -1957 163 166 205
-116.395 -322.188 -1953 148 151 190
-112.53 -322.327 -1954 124 127 166
-108.383 -321.642 -1950 82 82 120
-104.522 -321.784 -1951 146 146 184
-100.554 -321.596 -1950 162 162 200
-96.6407 -321.574 -1950 147 149 185
-92.5855 -321.058 -1947 143 146 181
-88.6341 -320.873 -1946 144 147 184
-84.644 -320.524 -1944 186 189 227
-80.7456 -320.505 -1944 176 180 219
-76.8084 -320.323 -1943 151 155 194
-72.9508 -320.471 -1944 192 196 235
-69.0898 -320.62 -1945 172 176 215
-65.2255 -320.77 -1946 171 179 223
-61.389 -321.086 -1948 112 124 171
-57.5452 -321.402 -1950 88 101 154
-53.7488 -322.049 -1954 136 150 204
-49.8603 -322.202 -1955 142 157 213
-46.0151 -322.686 -1958 134 148 200
-42.1153 -322.841 -1959 87 100 150
-38.2508 -323.326 -1962 107 115 155
-34.3748 -323.812 -1965 96 105 145
-30.5023 -324.464 -1969 99 107 147
-26.5873 -324.788 -1971 122 130 168
-22.6528 -324.947 -1972 127 135 172
-18.7431 -325.601 -1976 140 147 184
-14.8025 -325.927 -1978 125 133 168
-10.8758 -326.913 -1984 41 49 84
-6.94289 -328.724 -1995 38 43 79
-2.96423 -330.37 -2005 102 107 143
1.05181 -331.194 -2010 125 130 168
5.11037 -333.501 -2024 111 119 158
9.21167 -335.316 -2035 92 99 138
13.3375 -336.636 -2043 151 159 195
-227.735 -334.418 -1996 100 105 142
-223.799 -334.534 -1997 89 95 138
-219.641 -334.316 -1996 73 80 127
-214.84 -333.094 -1989 88 99 153
-210.387 -332.376 -1985 124 135 191
-206.265 -332.161 -1984 127 139 201
-202.25 -332.114 -1984 117 129 191
-198.237 -332.069 -1984 110 121 183
-194.029 -331.69 -1982 174 183 237
-189.544 -330.809 -1977 182 191 241
-185.549 -330.767 -1977 170 178 223
-181.097 -329.889 -1972 139 149 190
-177.026 -329.681 -1971 110 119 161
-173.048 -329.641 -1971 138 146 192
-169.415 -330.271 -1975 169 177 221
-165.181 -329.731 -1972 169 177 219
-161.369 -330.029 -1974 181 188 231
-157.151 -329.491 -1971 180 187 231
-152.947 -328.954 -1968 160 164 208
-148.529 -327.917 -1962 153 157 196
-144.431 -327.55 -1960 53 56 93
-140.271 -327.016 -1957 32 36 76
-136.333 -326.985 -1957 40 44 82
-132.464 -327.122 -1958 68 71 107
-128.526 -327.092 -1958 153 155 191
-124.399 -326.562 -1955 177 178 216
-120.592 -326.869 -1957 186 186 226
-116.421 -326.174 -1953 164 164 204
-112.497 -326.148 -1953 104 105 144
-108.463 -325.789 -1951 93 93 131
-104.599 -325.932 -1952 148 148 185
-100.577 -325.575 -1950 173 173 210
-96.7616 -325.886 -1952 164 166 202
-92.6063 -325.03 -1947 165 168 204
-88.7452 -325.176 -1948 161 166 206
-84.7066 -324.656 -1945 191 197 237
-80.8053 -324.637 -1945 187 192 234
-76.9046 -324.62 -1945 167 173 209
-73.0422 -324.77 -1946 201 206 242
-69.1409 -324.754 -1946 179 181 220
-65.2401 -324.738 -1946 172 179 222
-61.4028 -325.058 -1948 135 146 191
-57.5581 -325.378 -1950 101 113 162
-53.7332 -325.866 -1953 134 146 196
-49.8969 -326.355 -1956 152 166 217
-46.0489 -326.845 -1959 152 163 213
-42.1463 -327.002 -1960 135 145 195
-38.279 -327.493 -1963 132 143 183
-34.4 -327.985 -1966 120 131 171
-30.5092 -328.478 -1969 99 111 150
-26.6066 -328.972 -1972 129 142 176
-22.6464 -328.8 -1971 123 136 169
-18.7472 -329.63 -1976 150 162 193
-14.7907 -329.626 -1976 125 138 168
-10.8672 -330.624 -1982 34 47 77
-6.93045 -332.123 -1991 29 38 70
-2.95894 -333.79 -2001 66 74 111
1.05258 -335.458 -2011 82 89 132
5.11401 -337.794 -2025 88 99 152
9.22274 -339.798 -2037 137 147 197
13.3208 -340.301 -2040 161 170 209
-227.559 -338.169 -1994 66 72 108
-223.626 -338.286 -1995 92 99 144
-219.141 -337.557 -1991 76 83 135
-214.781 -336.999 -1988 83 98 155
-210.224 -336.102 -1983 125 140 200
-205.896 -335.546 -1980 139 155 221
-202.092 -335.838 -1982 112 125 189
-198.082 -335.792 -1982 73 85 148
-194.171 -335.916 -1983 146 154 215
-189.779 -335.194 -1979 152 158 216
-185.873 -335.32 -1980 152 157 210
-181.506 -334.601 -1976 156 163 212
-177.426 -334.39 -1975 123 130 179
-173.352 -334.18 -1974 146 153 203
-169.454 -334.31 -1975 161 168 216
-165.386 -334.102 -1974 176 183 228
-161.487 -334.234 -1975 180 187 232
-157.187 -333.521 -1971 171 177 221
-152.982 -332.977 -1968 164 166 210
-148.715 -332.266 -1964 148 149 187
-144.538 -331.725 -1961 49 50 86
-140.375 -331.185 -1958 33 37 78
-136.573 -331.491 -1960 44 47 85
-132.359 -330.784 -1956 90 92 126
-128.49 -330.923 -1957 130 131 167
-124.363 -330.387 -1954 176 177 214
-120.558 -330.697 -1956 181 181 221
-116.388 -329.994 -1952 127 126 166
-112.58 -330.305 -1954 105 105 144
-108.599 -330.111 -1953 83 83 122
-104.73 -330.256 -1954 81 82 121
-100.651 -329.725 -1951 154 155 192
-96.734 -329.703 -1951 180 183 222
-92.7224 -329.343 -1949 178 181 221
-88.7653 -329.153 -1948 164 172 213
-84.7258 -328.626 -1945 189 195 238
-80.9484 -329.114 -1948 180 186 230
-76.9617 -328.758 -1946 161 168 203
-73.0588 -328.741 -1946 210 216 250
-69.1211 -328.556 -1945 198 200 240
-65.2214 -328.541 -1945 196 202 245
-61.3853 -328.864 -1947 189 198 242
-57.5121 -329.019 -1948 160 171 217
-53.7179 -329.682 -1952 132 144 191
-49.8571 -330.008 -1954 155 168 216
-46.0358 -330.673 -1958 162 173 221
-42.1344 -330.832 -1959 134 144 192
-38.2876 -331.498 -1963 142 154 194
-34.3727 -331.659 -1964 121 132 172
-30.4851 -332.158 -1967 110 122 161
-26.6127 -332.995 -1972 144 159 192
-22.686 -333.328 -1974 123 137 169
-18.7514 -333.661 -1976 136 150 180
-14.8166 -334.163 -1979 132 147 176
-10.8808 -335.005 -1984 86 101 130
-6.93543 -336.353 -1992 66 77 107
-2.95809 -337.703 -2000 52 61 98
1.05126 -339.054 -2008 85 93 136
5.1053 -341.25 -2021 71 82 141
9.21144 -343.446 -2034 148 159 214
13.2715 -343.111 -2032 157 167 207
-227.612 -342.258 -1994 72 79 115
-223.566 -342.205 -1994 110 117 160
-218.861 -341.124 -1988 110 117 167
-214.507 -340.559 -1985 84 98 153
-209.954 -339.651 -1980 124 138 196
-206.048 -339.774 -1981 125 140 204
-202.139 -339.898 -1982 116 129 191
-198.128 -339.851 -1982 115 127 188
-194.118 -339.806 -1982 153 162 218
-189.823 -339.247 -1979 150 158 212
-185.823 -339.203 -1979 118 125 176
-181.64 -338.818 -1977 88 95 143
-177.647 -338.776 -1977 44 51 99
-173.655 -338.735 -1977 106 113 163
-169.836 -339.037 -1979 125 132 181
-165.592 -338.485 -1976 132 139 187
-161.443 -338.104 -1974 173 180 227
-157.383 -337.896 -1973 182 188 235
-153.017 -337.003 -1968 167 172 215
-148.749 -336.283 -1964 100 104 145
-144.498 -335.564 -1960 43 47 86
-140.407 -335.189 -1958 31 37 79
-136.466 -335.157 -1958 37 41 82
-132.457 -334.954 -1957 89 92 129
-128.454 -334.753 -1956 139 140 181
-124.392 -334.381 -1954 176 178 219
-120.401 -334.182 -1953 179 180 222
-116.355 -333.812 -1951 104 105 147
-112.549 -334.128 -1953 118 118 161
-108.569 -333.931 -1952 85 86 129
-104.647 -333.906 -1952 49 51 94
-100.571 -333.369 -1949 121 123 166
-96.7067 -333.518 -1950 141 144 189
-92.6486 -332.983 -1947 180 183 230
-88.6946 -332.79 -1946 176 182 225
-84.7889 -332.771 -1946 192 198 242
-80.967 -333.093 -1948 157 163 208
-77.019 -332.904 -1947 125 131 166
-73.1508 -333.058 -1948 199 206 241
-69.2436 -333.041 -1948 190 194 235
-65.3706 -333.196 -1949 192 198 240
-61.3993 -332.84 -1947 200 208 250
-57.5548 -333.168 -1949 191 202 248
-53.7028 -333.497 -1951 157 167 214
-49.8431 -333.827 -1953 173 185 232
-45.9758 -334.158 -1955 158 170 216
-42.144 -334.831 -1959 133 145 190
-38.2964 -335.506 -1963 112 122 164
-34.4157 -336.01 -1966 114 124 165
-30.5231 -336.515 -1969 80 90 130
-26.6323 -337.192 -1973 122 137 171
-22.6912 -337.357 -1974 143 157 191
-18.7653 -337.865 -1977 148 161 194
-14.8199 -338.203 -1979 161 175 207
-10.8941 -339.396 -1986 185 200 231
-6.93347 -340.249 -1991 111 122 152
-2.95873 -341.786 -2000 34 44 80
1.05413 -344.007 -2013 78 86 127
5.10392 -345.204 -2020 94 105 162
9.2135 -347.598 -2034 134 145 198
13.2094 -345.55 -2022 157 167 207
-227.437 -346.002 -1992 79 86 122
-223.73 -346.47 -1995 116 123 166
-219.023 -345.376 -1989 127 134 182
-214.665 -344.803 -1986 109 122 176
-210.216 -344.059 -1982 117 131 186
-205.888 -343.489 -1979 103 117 179
-201.982 -343.614 -1980 105 117 177
-197.774 -343.22 -1978 116 128 187
-193.674 -343.001 -1977 148 157 210
-189.675 -342.956 -1977 155 164 215
-185.678 -342.911 -1977 101 108 158
-181.591 -342.694 -1976 103 110 159
-177.599 -342.652 -1976 84 91 140
-173.608 -342.611 -1976 113 120 171
-169.704 -342.744 -1977 118 125 176
-165.463 -342.184 -1974 130 137 188
-161.235 -341.626 -1971 162 170 220
-157.101 -341.242 -1969 174 181 230
-152.82 -340.512 -1965 124 131 176
-148.632 -339.957 -1962 50 57 102
-144.679 -339.922 -1962 47 53 99
-140.512 -339.369 -1959 39 45 94
-136.637 -339.51 -1960 46 51 97
-132.353 -338.612 -1955 80 84 126
-128.484 -338.754 -1956 136 140 182
-124.357 -338.205 -1953 143 146 188
-120.491 -338.35 -1954 121 125 167
-116.442 -337.976 -1952 127 130 175
-112.517 -337.949 -1952 122 124 172
-108.705 -338.269 -1954 112 115 163
-104.564 -337.551 -1950 97 100 148
-100.595 -337.354 -1949 80 83 131
-96.63 -337.158 -1948 81 85 136
-92.5751 -336.617 -1945 126 132 183
-88.6697 -336.595 -1945 156 162 208
-84.8522 -336.921 -1947 189 195 241
-80.9442 -336.902 -1947 154 160 206
-76.9974 -336.71 -1946 127 134 171
-73.0926 -336.693 -1946 203 210 247
-69.1886 -336.676 -1946 192 197 239
-65.2852 -336.66 -1946 189 195 239
-61.3821 -336.645 -1946 193 200 245
-57.5387 -336.977 -1948 198 208 253
-53.6877 -337.31 -1950 189 200 246
-49.8803 -337.99 -1954 183 195 241
-46.0336 -338.498 -1957 147 159 204
-42.1538 -338.834 -1959 137 149 194
-38.2663 -339.17 -1961 123 133 178
-34.3536 -339.334 -1962 143 153 197
-30.4992 -340.192 -1967 146 156 199
-26.598 -340.704 -1970 159 172 209
-22.6734 -341.044 -1972 169 182 219
-18.7886 -342.25 -1979 172 185 221
-14.8309 -342.419 -1980 188 202 237
-10.8968 -343.453 -1986 191 206 240
-6.93152 -344.143 -1990 120 131 162
-2.95346 -345.18 -1996 36 46 81
1.05177 -347.254 -2008 55 63 102
5.09497 -348.639 -2016 75 84 138
9.16575 -349.851 -2023 84 94 144
13.1601 -348.297 -2014 83 92 132
-227.263 -349.741 -1990 91 98 134
-223.784 -350.566 -1995 124 131 172
-219.185 -349.634 -1990 137 144 189
-215.041 -349.407 -1989 146 159 210
-210.265 -348.126 -1982 141 155 208
-206.145 -347.901 -1981 135 150 209
-201.724 -347.15 -1977 117 129 186
-197.921 -347.453 -1979 102 113 169
-193.426 -346.529 -1974 89 98 148
-189.24 -346.132 -1972 127 136 185
-185.534 -346.614 -1975 114 121 169
-181.817 -347.097 -1978 112 119 168
-177.82 -347.054 -1978 163 170 220
-173.649 -346.661 -1976 157 164 218
-169.745 -346.796 -1977 151 158 210
-165.251 -345.703 -1971 136 143 195
-161.11 -345.314 -1969 116 125 179
-156.898 -344.75 -1966 91 99 152
-152.778 -344.362 -1964 40 47 95
-148.819 -344.326 -1964 53 62 114
-144.787 -344.116 -1963 84 93 147
-140.689 -343.731 -1961 74 80 139
-136.669 -343.523 -1960 81 87 141
-132.655 -343.316 -1959 89 94 139
-128.58 -342.934 -1957 103 109 152
-124.387 -342.203 -1953 83 89 132
-120.334 -341.824 -1951 89 93 136
-116.29 -341.445 -1949 124 128 177
-112.429 -341.593 -1950 128 131 185
-108.508 -341.567 -1950 135 138 194
-104.481 -341.191 -1948 127 131 186
-100.515 -340.992 -1947 97 103 156
-96.5536 -340.793 -1946 92 98 152
-92.7873 -341.296 -1949 125 132 186
-88.7818 -340.924 -1947 161 167 216
-84.9593 -341.254 -1949 167 173 221
-81.005 -341.059 -1948 137 143 190
-77.0947 -341.041 -1948 108 115 156
-73.1475 -340.848 -1947 205 212 252
-69.2405 -340.831 -1947 194 200 245
-65.3676 -340.99 -1948 193 200 247
-61.4596 -340.975 -1948 195 202 251
-57.6114 -341.311 -1950 193 203 250
-53.7555 -341.648 -1952 184 194 242
-49.9687 -342.51 -1957 180 192 238
-46.1385 -343.199 -1961 168 180 224
-42.2283 -343.364 -1962 138 150 194
-38.3144 -343.529 -1963 127 138 186
-34.4143 -343.871 -1965 156 166 213
-30.5219 -344.388 -1968 190 200 245
-26.6312 -345.081 -1972 182 195 235
-22.7248 -345.775 -1976 176 189 229
-18.7835 -346.12 -1978 173 186 224
-14.8418 -346.641 -1981 187 200 238
-10.8938 -347.338 -1985 184 197 235
-6.92983 -348.036 -1989 142 153 185
-2.94967 -348.735 -1993 66 75 110
1.05045 -350.834 -2005 69 77 114
5.09615 -352.76 -2016 70 80 129
9.17262 -354.161 -2024 70 79 126
13.1568 -352.239 -2013 39 47 87
-226.061 -351.875 -1979 92 100 136
-223.389 -353.954 -1991 110 118 157
-219.678 -354.434 -1994 139 147 189
-215.525 -354.203 -1993 151 163 211
-210.741 -352.908 -1986 160 173 223
-206.403 -352.324 -1983 130 144 198
-201.875 -351.387 -1978 75 87 141
-197.769 -351.161 -1977 109 120 174
-193.276 -350.225 -1972 100 109 159
-189.094 -349.824 -1970 68 76 126
-185.297 -350.134 -1972 111 118 168
-181.585 -350.622 -1975 156 164 217
-177.413 -350.224 -1973 167 175 228
-173.515 -350.359 -1974 149 155 213
-169.7 -350.673 -1976 160 166 220
-165.206 -349.567 -1970 142 149 200
-161.067 -349.174 -1968 127 136 191
-156.936 -348.78 -1966 83 93 148
-152.97 -348.743 -1966 47 57 113
-148.779 -348.174 -1963 61 72 135
-144.895 -348.316 -1964 76 87 154
-140.794 -347.927 -1962 91 99 170
-137.051 -348.426 -1965 98 106 168
-132.619 -347.152 -1958 116 122 169
-128.742 -347.298 -1959 137 144 185
-124.353 -346.027 -1952 115 123 162
-120.178 -345.288 -1948 108 113 158
-116.438 -345.792 -1951 143 147 200
-112.34 -345.232 -1948 136 140 200
-108.479 -345.383 -1949 150 155 215
-104.453 -345.003 -1947 132 138 196
-100.591 -345.156 -1948 128 135 189
-96.6262 -344.955 -1947 120 127 180
-92.8571 -345.464 -1950 121 128 181
-88.8942 -345.265 -1949 152 159 208
-84.9797 -345.244 -1949 158 164 213
-81.0658 -345.224 -1949 122 128 176
-77.113 -345.028 -1948 85 92 136
-73.1649 -344.833 -1947 197 204 249
-69.3281 -345.17 -1949 169 174 224
-65.3832 -344.976 -1948 134 141 194
-61.5059 -345.138 -1949 115 124 179
-57.625 -345.301 -1950 162 171 224
-53.906 -346.527 -1957 160 170 221
-50.0572 -347.046 -1960 170 182 229
-46.1731 -347.388 -1962 184 195 239
-42.1953 -347.024 -1960 148 158 202
-38.304 -347.368 -1962 149 161 210
-34.3698 -347.36 -1962 153 163 212
-30.4515 -347.529 -1963 189 199 248
-26.5971 -348.584 -1969 194 206 250
-22.7072 -349.464 -1974 182 194 236
-18.769 -349.813 -1976 162 175 214
-14.8454 -350.694 -1981 172 185 225
-10.8963 -351.399 -1985 197 210 250
-6.91746 -351.397 -1985 165 173 207
-2.94909 -352.635 -1992 158 166 201
1.05019 -354.759 -2004 140 148 185
5.08469 -355.999 -2011 69 79 124
9.11582 -356 -2011 92 102 145
-223.331 -357.868 -1990 110 118 155
-219.732 -358.533 -1994 137 145 185
-215.902 -358.839 -1996 136 148 194
-210.792 -356.989 -1986 153 164 212
-206.661 -356.759 -1985 112 125 175
-202.332 -356.169 -1982 82 94 144
-198.117 -355.761 -1980 90 101 152
-193.127 -353.917 -1970 85 93 144
-189.62 -354.768 -1975 94 102 153
-185.436 -354.363 -1973 117 124 177
-181.537 -354.498 -1974 137 146 202
-177.636 -354.633 -1975 181 190 248
-173.645 -354.591 -1975 163 169 229
-169.569 -354.369 -1974 165 171 226
-164.995 -353.072 -1967 150 155 206
-160.86 -352.673 -1965 130 139 193
-156.814 -352.455 -1964 79 89 144
-153.007 -352.776 -1966 49 60 121
-148.815 -352.201 -1963 65 77 149
-144.857 -352.165 -1963 80 94 171
-140.828 -351.951 -1962 92 101 181
-136.874 -351.917 -1962 96 104 172
-132.448 -350.629 -1955 112 119 166
-128.576 -350.777 -1956 140 149 189
-124.383 -350.028 -1952 138 146 185
-120.454 -349.999 -1952 129 135 180
-116.167 -348.894 -1946 118 124 177
-112.31 -349.046 -1947 126 132 192
-108.393 -349.019 -1947 157 163 223
-104.371 -348.634 -1945 158 164 222
-100.46 -348.61 -1945 131 138 192
-96.6993 -349.123 -1948 101 108 161
-92.7843 -349.1 -1948 82 89 141
-88.8245 -348.899 -1947 144 151 200
-85.0002 -349.236 -1949 178 185 232
-81.0438 -349.037 -1948 172 178 225
-77.0524 -348.659 -1946 124 131 178
-73.1826 -348.82 -1947 172 178 227
-69.3804 -349.34 -1950 156 162 219
-65.4325 -349.145 -1949 105 112 172
-61.6155 -349.667 -1952 88 96 158
-57.7572 -350.011 -1954 149 157 216
-53.919 -350.534 -1957 172 181 237
-50.0437 -350.88 -1959 189 200 247
-46.2078 -351.585 -1963 189 199 245
-42.2055 -351.037 -1960 95 105 152
-38.3327 -351.564 -1963 134 146 195
-34.3606 -351.197 -1961 108 118 169
-30.49 -351.906 -1965 152 161 212
-26.5899 -352.436 -1968 188 200 246
-22.7012 -353.326 -1973 190 203 247
-18.764 -353.679 -1975 182 195 235
-14.8489 -354.749 -1981 181 192 234
-10.8935 -355.283 -1984 191 202 244
-6.92951 -355.997 -1988 165 172 205
-2.94827 -356.533 -1991 171 179 213
1.0494 -358.503 -2002 162 170 206
5.07602 -359.399 -2007 53 63 104
9.09074 -359.043 -2005 103 113 152
-222.937 -361.235 -1986 140 148 185
-219.565 -362.272 -1992 135 142 182
-215.847 -362.763 -1995 116 126 172
-211.056 -361.438 -1988 141 151 197
-207.129 -361.568 -1989 114 125 171
-202.688 -360.79 -1985 97 107 156
-198.566 -360.559 -1984 119 128 179
-193.763 -359.056 -1976 134 142 193
-190.147 -359.736 -1980 140 147 200
-185.857 -359.144 -1977 139 145 201
-181.766 -358.917 -1976 129 137 197
-177.95 -359.236 -1978 153 161 222
-173.863 -359.011 -1977 144 150 212
-169.61 -358.424 -1974 141 147 204
-165.371 -357.838 -1971 135 140 192
-161.145 -357.253 -1968 101 110 160
-156.773 -356.306 -1963 78 88 141
-152.734 -356.086 -1962 43 54 116
-148.7 -355.867 -1961 71 83 162
-144.892 -356.194 -1963 77 89 177
-140.647 -355.433 -1959 92 101 184
-136.768 -355.581 -1960 98 106 176
-132.48 -354.64 -1955 93 100 147
-128.608 -354.79 -1956 131 140 181
-124.477 -354.214 -1953 165 175 215
-120.483 -354.003 -1952 163 169 214
-116.315 -353.248 -1948 136 142 193
-112.453 -353.401 -1949 104 110 166
-108.476 -353.193 -1948 150 156 213
-104.557 -353.167 -1948 157 164 219
-100.691 -353.323 -1949 145 152 204
-96.8718 -353.661 -1951 136 143 195
-92.9498 -353.638 -1951 135 142 194
-88.9831 -353.434 -1950 167 174 221
-84.9773 -353.05 -1948 177 184 230
-80.9804 -352.667 -1946 181 187 234
-77.0317 -352.467 -1945 138 146 196
-73.1252 -352.448 -1945 166 173 226
-69.3262 -352.974 -1948 131 140 204
-65.4149 -352.958 -1948 95 103 170
-61.6305 -353.667 -1952 98 106 175
-57.7122 -353.652 -1952 159 167 230
-53.9872 -354.907 -1959 177 185 244
-50.0559 -354.894 -1959 181 190 242
-46.219 -355.607 -1963 167 176 227
-42.2373 -355.234 -1961 135 145 195
-38.342 -355.586 -1963 170 182 230
-34.3515 -355.034 -1960 146 156 206
-30.4818 -355.75 -1964 148 157 209
-26.5558 -355.924 -1965 119 131 180
-22.6722 -356.824 -1970 170 182 229
-18.7401 -357.181 -1972 183 196 237
-14.8075 -357.721 -1975 183 193 234
-10.8851 -358.985 -1982 180 190 231
-6.91741 -359.345 -1984 166 173 205
-2.9445 -360.069 -1988 184 191 225
1.04495 -360.974 -1993 182 189 225
5.05952 -362.243 -2000 67 76 114
9.06593 -362.063 -1999 76 85 123
-223.217 -365.693 -1988 153 160 198
-219.73 -366.557 -1993 135 141 182
-215.9 -366.87 -1995 120 128 174
-211.109 -365.53 -1988 152 160 207
-206.972 -365.293 -1987 109 119 163
-202.739 -364.874 -1985 79 89 136
-198.816 -365.008 -1986 99 108 158
-194.498 -364.407 -1983 124 132 184
-190.29 -363.992 -1981 147 155 208
-186.092 -363.577 -1979 142 149 207
-181.995 -363.348 -1978 129 137 199
-178.084 -363.486 -1979 125 133 196
-174.082 -363.442 -1979 115 121 182
-169.738 -362.665 -1975 79 85 143
-165.16 -361.338 -1968 137 143 197
-161.185 -361.297 -1968 164 174 220
-156.972 -360.706 -1965 93 103 151
-153.005 -360.668 -1965 46 56 114
-148.888 -360.263 -1963 64 74 151
-145.002 -360.41 -1964 72 82 168
-140.754 -359.64 -1960 48 55 130
-136.872 -359.789 -1961 54 61 126
-132.581 -358.838 -1956 106 113 158
-128.705 -358.989 -1957 147 155 199
-124.444 -358.04 -1952 153 161 204
-120.513 -358.01 -1952 157 163 206
-116.463 -357.614 -1950 159 165 210
-112.538 -357.585 -1950 128 132 180
-108.447 -357.007 -1947 145 151 203
-104.637 -357.348 -1949 125 131 182
-100.82 -357.689 -1951 124 131 182
-96.9454 -357.848 -1952 113 120 173
-92.9729 -357.641 -1951 158 165 218
-89.0507 -357.618 -1951 173 180 224
-85.042 -357.23 -1949 179 186 230
-81.0421 -356.843 -1947 163 169 214
-77.13 -356.823 -1947 122 130 185
-73.2561 -356.988 -1948 137 146 204
-69.3789 -357.153 -1949 97 108 179
-65.5319 -357.503 -1951 93 101 175
-61.7088 -358.037 -1954 89 96 170
-57.756 -357.839 -1953 148 154 220
-53.9455 -358.558 -1957 131 138 200
-50.0171 -358.545 -1957 138 147 201
-46.1833 -359.266 -1961 103 114 166
-42.2046 -358.888 -1959 143 154 205
-38.3124 -359.245 -1961 159 169 216
-34.3599 -359.053 -1960 169 178 227
-30.4894 -359.777 -1964 150 158 210
-26.5625 -359.953 -1965 78 87 137
-22.6662 -360.68 -1969 142 152 200
-18.7636 -361.591 -1974 187 200 241
-14.8411 -362.502 -1979 187 198 237
-10.8934 -363.232 -1983 156 166 204
-6.91554 -363.23 -1983 183 190 221
-2.94518 -364.144 -1988 201 208 241
1.04417 -364.694 -1991 185 192 226
5.05315 -365.793 -1997 88 96 134
9.04995 -365.429 -1995 69 76 113
-223.498 -370.162 -1990 149 155 193
-219.896 -370.849 -1994 168 174 217
-216.388 -371.724 -1999 163 169 216
-211.799 -370.74 -1994 125 133 179
-207.545 -370.315 -1992 96 105 147
-203.403 -370.077 -1991 69 78 125
-199.366 -370.026 -1991 116 125 175
-194.645 -368.675 -1984 153 162 213
-190.434 -368.255 -1982 150 159 213
-186.703 -368.765 -1985 125 134 192
-182.409 -368.161 -1982 99 107 169
-178.129 -367.558 -1979 145 153 216
-174.038 -367.328 -1978 139 145 204
-169.781 -366.727 -1975 111 118 174
-165.622 -366.314 -1973 146 153 205
-161.307 -365.53 -1969 188 197 239
-156.931 -364.561 -1964 167 177 220
-152.888 -364.337 -1963 105 114 165
-148.85 -364.113 -1962 84 92 162
-144.595 -363.334 -1958 74 82 161
-140.717 -363.483 -1959 56 61 128
-136.697 -363.263 -1958 58 63 123
-132.478 -362.487 -1954 122 128 173
-128.54 -362.454 -1954 176 183 227
-124.667 -362.607 -1955 163 170 213
-120.605 -362.206 -1953 167 172 214
-116.612 -361.99 -1952 172 176 218
-112.682 -361.961 -1952 165 169 211
-108.641 -361.563 -1950 159 164 211
-104.717 -361.536 -1950 152 158 205
-100.845 -361.695 -1951 150 157 207
-96.9697 -361.856 -1952 139 146 199
-92.9962 -361.647 -1951 119 126 181
-88.9816 -361.253 -1949 141 146 192
-85.0196 -361.046 -1948 171 176 222
-81.0623 -360.839 -1947 163 169 214
-77.1492 -360.82 -1947 126 134 192
-73.2745 -360.986 -1948 107 116 177
-69.4319 -361.339 -1950 92 104 178
-65.5483 -361.507 -1951 81 90 166
-61.7243 -362.047 -1954 94 101 178
-57.7408 -361.661 -1952 131 136 204
-53.9038 -362.203 -1955 141 147 210
-50.0041 -362.375 -1956 128 136 189
-46.1478 -362.919 -1959 98 109 159
-42.1721 -362.538 -1957 90 102 152
-38.2829 -362.898 -1959 156 166 212
-34.351 -362.889 -1959 169 177 226
-30.4348 -363.066 -1960 171 178 230
-26.5555 -363.8 -1964 106 115 165
-22.6489 -364.349 -1967 152 162 209
-18.7493 -365.27 -1972 187 200 240
-14.8223 -366.007 -1976 176 186 223
-10.8904 -367.115 -1982 168 177 214
-6.91718 -367.298 -1983 172 179 208
-2.94735 -368.408 -1989 182 189 220
1.04443 -368.778 -1991 194 201 234
5.05438 -369.891 -1997 105 112 150
9.03852 -368.966 -1992 76 83 120
-224.229 -375.394 -1996 105 112 149
-220.173 -375.337 -1996 141 147 190
-216.443 -375.845 -1999 132 138 185
-211.853 -374.85 -1994 109 116 163
-207.598 -374.421 -1992 91 99 141
-203.557 -374.368 -1992 97 105 153
-199.317 -373.941 -1990 103 110 162
-194.891 -373.138 -1986 143 152 202
-190.867 -373.089 -1986 130 139 191
-186.75 -372.853 -1985 118 127 184
-182.363 -372.055 -1981 128 137 197
-178.354 -372.008 -1981 152 160 221
-174.258 -371.776 -1980 150 157 209
-169.824 -370.793 -1975 175 182 231
-165.328 -369.624 -1969 181 191 235
-161.43 -369.77 -1970 188 198 237
-157.051 -368.791 -1965 189 199 239
-153.004 -368.563 -1964 168 175 222
-149.039 -368.525 -1964 119 125 183
-144.706 -367.549 -1959 96 101 167
-140.753 -367.513 -1959 116 121 180
-136.522 -366.727 -1955 106 110 164
-132.58 -366.693 -1955 116 120 165
-128.573 -366.472 -1954 160 166 208
-124.571 -366.252 -1953 172 178 219
-120.635 -366.221 -1953 184 188 225
-116.582 -365.816 -1951 191 194 232
-112.652 -365.787 -1951 185 189 226
-108.613 -365.383 -1949 182 187 230
-104.689 -365.356 -1949 169 173 218
-100.715 -365.143 -1948 143 148 199
-96.8949 -365.492 -1950 118 123 178
-92.972 -365.468 -1950 150 155 212
-89.0042 -365.257 -1949 158 161 210
-84.9538 -364.673 -1946 157 162 210
-81.0411 -364.652 -1946 175 181 228
-77.1292 -364.632 -1946 127 135 194
-73.2554 -364.8 -1947 102 111 173
-69.4494 -365.344 -1950 79 92 167
-65.4976 -365.14 -1949 62 72 149
-61.6135 -365.311 -1950 88 95 173
-57.6963 -365.296 -1950 92 97 166
-53.8898 -366.031 -1954 139 145 208
-49.9655 -366.018 -1954 161 168 220
-46.1123 -366.567 -1957 130 141 190
-42.1828 -366.556 -1957 139 151 199
-38.2925 -366.921 -1959 136 147 193
-34.3245 -366.537 -1957 146 154 203
-30.4114 -366.716 -1958 165 173 224
-26.5757 -368.02 -1965 177 186 235
-22.6546 -368.388 -1967 139 149 195
-18.7731 -369.694 -1974 165 178 217
-14.8336 -370.251 -1977 163 172 209
-10.9208 -372.121 -1987 138 146 182
-6.93278 -372.119 -1987 110 117 143
-2.95101 -372.867 -1991 128 135 165
1.04471 -372.866 -1991 170 177 210
5.05056 -373.616 -1995 109 116 154
9.0319 -372.682 -1990 80 87 124
-224.287 -379.514 -1996 57 64 102
-220.229 -379.456 -1996 107 113 156
-216.499 -379.969 -1999 104 111 159
-212.226 -379.534 -1997 117 124 172
-207.86 -378.909 -1994 116 123 167
-203.711 -378.666 -1993 120 127 175
-199.468 -378.234 -1991 125 132 184
-194.843 -377.043 -1985 126 134 183
-190.916 -377.183 -1986 112 120 170
-186.61 -376.565 -1983 105 113 167
-182.226 -375.757 -1979 151 160 217
-178.4 -376.091 -1981 174 184 242
-174.127 -375.476 -1978 166 174 222
-169.696 -374.482 -1973 185 194 235
-165.37 -373.679 -1969 186 197 231
-161.062 -372.878 -1965 186 196 234
-157.091 -372.837 -1965 190 200 238
-152.966 -372.418 -1963 198 205 247
-149.153 -372.758 -1965 175 180 228
-144.965 -372.151 -1962 117 121 173
-140.789 -371.545 -1959 166 171 226
-136.697 -371.13 -1957 123 128 180
-132.546 -370.527 -1954 92 96 141
-128.474 -370.114 -1952 135 140 178
-124.539 -370.081 -1952 165 170 206
-120.605 -370.05 -1952 181 184 219
-116.612 -369.829 -1951 181 183 219
-112.624 -369.611 -1950 187 189 226
-108.696 -369.582 -1950 193 197 241
-104.716 -369.365 -1949 154 158 204
-100.844 -369.528 -1950 140 144 195
-96.87 -369.313 -1949 134 137 193
-92.9004 -369.099 -1948 139 142 200
-88.9813 -369.076 -1948 133 137 192
-84.9756 -368.674 -1946 127 132 185
-80.9369 -368.085 -1943 149 154 205
-77.1091 -368.443 -1945 129 137 197
-73.2364 -368.613 -1946 103 112 174
-69.3247 -368.595 -1946 80 94 166
-65.4134 -368.578 -1946 48 59 136
-61.5344 -368.751 -1947 45 54 133
-57.6814 -369.114 -1949 126 133 200
-53.8208 -369.479 -1951 136 143 204
-50.0038 -370.223 -1955 162 169 218
-46.1476 -370.779 -1958 151 161 208
-42.2151 -370.767 -1958 141 151 198
-38.3219 -371.136 -1960 108 119 165
-34.3683 -370.937 -1959 153 163 212
-30.4503 -371.118 -1960 163 171 222
-26.569 -371.868 -1964 177 187 233
-22.6604 -372.43 -1967 118 128 172
-18.7684 -373.561 -1973 163 173 211
-14.845 -374.503 -1978 157 165 202
-10.8959 -375.257 -1982 98 106 143
-6.91376 -375.065 -1981 86 92 117
-2.94578 -376.2 -1987 130 136 165
1.04236 -376.01 -1986 128 135 167
5.03939 -376.769 -1990 106 114 152
9.01596 -376.013 -1986 65 73 110
-225.02 -384.79 -2002 43 50 88
-220.949 -384.731 -2002 91 97 140
-216.988 -384.866 -2003 129 134 184
-212.494 -384.041 -1999 104 110 160
-208.018 -383.218 -1995 129 135 180
-203.866 -382.971 -1994 130 137 185
-199.52 -382.343 -1991 155 162 214
-195.09 -381.523 -1987 158 165 212
-190.773 -380.896 -1984 143 150 199
-186.753 -380.847 -1984 166 173 225
-182.366 -380.031 -1980 177 187 240
-178.356 -379.984 -1980 181 192 245
-174.26 -379.746 -1979 184 193 237
-169.482 -377.974 -1970 187 198 234
-165.329 -377.547 -1968 185 197 223
-161.104 -376.929 -1965 189 199 236
-157.052 -376.695 -1964 194 203 241
-153.083 -376.655 -1964 202 209 246
-149.04 -376.424 -1963 198 204 242
-144.928 -376.002 -1961 157 161 200
-140.61 -375.006 -1956 147 152 202
-136.662 -374.97 -1956 109 112 161
-132.445 -374.168 -1952 89 92 134
-128.507 -374.134 -1952 158 163 197
-124.443 -373.718 -1950 186 191 223
-120.45 -373.494 -1949 176 178 212
-116.403 -373.08 -1947 167 169 205
-112.653 -373.625 -1950 182 183 222
-108.557 -373.022 -1947 191 195 239
-104.69 -373.185 -1948 166 170 216
-100.715 -372.967 -1947 155 158 209
-96.7957 -372.941 -1947 177 179 233
-92.8768 -372.916 -1947 174 177 232
-88.9586 -372.893 -1947 164 168 224
-84.9538 -372.487 -1945 153 158 212
-80.9995 -372.274 -1944 153 160 212
-77.1688 -372.637 -1946 125 133 192
-73.293 -372.809 -1947 108 117 177
-69.3426 -372.598 -1946 74 86 152
-65.4976 -372.964 -1948 53 63 134
-61.5503 -372.756 -1947 38 47 121
-57.6963 -373.123 -1949 117 124 186
-53.8071 -373.3 -1950 129 136 194
-50.0679 -374.627 -1957 160 168 217
-46.1831 -374.997 -1959 134 143 189
-42.2475 -374.986 -1959 165 175 220
-38.3123 -374.975 -1959 119 130 173
-34.3773 -374.966 -1959 152 161 208
-30.427 -374.766 -1958 165 173 223
-26.5352 -375.333 -1961 162 172 215
-22.6777 -376.666 -1968 155 165 207
-18.7636 -377.426 -1972 188 197 234
-14.8411 -378.379 -1977 152 157 196
-10.8934 -379.141 -1981 91 95 134
-6.92243 -379.522 -1983 125 130 159
-2.94352 -379.903 -1985 156 161 190
1.04316 -380.286 -1987 122 127 157
5.03812 -380.669 -1989 95 101 138
9.00483 -379.523 -1983 59 65 102
-224.629 -388.151 -1998 47 54 89
-221.007 -388.869 -2002 62 70 110
-217.046 -389.005 -2003 114 120 170
-212.55 -388.171 -1999 98 103 155
-208.073 -387.339 -1995 101 107 153
-203.92 -387.09 -1994 105 110 159
-199.573 -386.454 -1991 124 128 180
-195.239 -385.82 -1988 159 166 216
-191.112 -385.575 -1987 129 137 187
-186.802 -384.943 -1984 154 162 214
-182.598 -384.506 -1982 172 181 231
-178.223 -383.682 -1978 163 172 221
-174.042 -383.248 -1976 172 178 223
-169.612 -382.233 -1971 182 189 230
-165.204 -381.219 -1966 159 167 202
-160.982 -380.594 -1963 164 174 211
-157.093 -380.746 -1964 187 197 234
-153.046 -380.511 -1963 191 199 232
-149.079 -380.472 -1963 195 201 235
-144.892 -379.851 -1960 168 172 205
-140.575 -378.845 -1955 111 112 153
-136.558 -378.614 -1954 156 156 195
-132.208 -377.417 -1948 163 163 198
-128.409 -377.77 -1950 180 185 216
-124.412 -377.543 -1949 186 193 223
-120.42 -377.317 -1948 179 187 220
-116.493 -377.286 -1948 177 182 219
-112.624 -377.449 -1949 185 187 229
-108.641 -377.226 -1948 193 197 241
-104.663 -377.005 -1947 173 177 221
-100.742 -376.977 -1947 141 144 193
-96.7712 -376.758 -1946 171 174 223
-92.8055 -376.54 -1945 165 168 218
-88.8904 -376.516 -1945 165 168 221
-84.8886 -376.105 -1943 174 179 232
-80.9373 -375.89 -1942 168 177 229
-77.0303 -375.869 -1942 123 132 185
-73.1616 -376.043 -1943 108 117 171
-69.2537 -376.024 -1943 70 79 137
-65.4139 -376.394 -1945 59 68 129
-61.5031 -376.377 -1945 41 49 113
-57.741 -377.329 -1950 64 71 124
-53.8488 -377.508 -1951 161 169 221
-50.0554 -378.462 -1956 144 154 203
-46.1008 -378.256 -1955 140 150 194
-42.2801 -379.211 -1960 160 170 213
-38.3418 -379.201 -1960 166 174 215
-34.3686 -378.804 -1958 160 168 213
-30.4505 -378.989 -1959 140 147 197
-26.5421 -379.369 -1961 126 136 177
-22.6375 -379.943 -1964 132 141 180
-18.7495 -381.098 -1970 171 179 214
-14.8225 -381.867 -1974 146 150 188
-10.9016 -383.412 -1982 92 95 134
-6.92064 -383.409 -1982 151 154 187
-2.94299 -383.795 -1984 152 156 187
1.04292 -384.182 -1986 137 141 169
5.03433 -384.376 -1987 102 106 142
8.99347 -383.023 -1980 63 67 103
-220.403 -391.832 -1996 81 89 127
-216.345 -391.774 -1996 121 127 176
-212.181 -391.52 -1995 149 154 207
-207.607 -390.483 -1990 104 110 157
-203.565 -390.428 -1990 85 90 138
-199.125 -389.589 -1986 105 108 158
-194.8 -388.948 -1983 139 146 196
-190.778 -388.896 -1983 110 117 168
-186.946 -389.238 -1985 128 136 187
-182.462 -388.208 -1980 168 175 224
-178.09 -387.376 -1976 159 166 213
-174 -387.133 -1975 167 174 218
-169.485 -385.911 -1969 175 182 224
-165.416 -385.67 -1968 165 172 209
-161.189 -385.039 -1965 159 168 206
-157.135 -384.8 -1964 148 157 194
-153.164 -384.759 -1964 157 165 198
-149.119 -384.523 -1963 182 189 220
-144.783 -383.504 -1958 179 184 215
-140.612 -382.879 -1955 72 73 112
-136.525 -382.45 -1953 97 97 136
-132.446 -382.022 -1951 161 160 195
-128.509 -381.988 -1951 175 179 210
-124.509 -381.758 -1950 189 195 225
-120.576 -381.726 -1950 198 204 238
-116.404 -380.911 -1946 194 199 235
-112.597 -381.272 -1948 186 189 227
-108.614 -381.047 -1947 173 177 220
-104.745 -381.214 -1948 163 167 211
-100.82 -381.187 -1948 112 115 165
-96.8466 -380.965 -1947 152 155 205
-92.7824 -380.353 -1944 175 178 228
-88.8682 -380.329 -1944 174 179 233
-84.8675 -379.914 -1942 172 178 230
-80.9587 -379.892 -1942 156 165 216
-77.011 -379.676 -1941 133 142 194
-73.1432 -379.851 -1942 162 171 224
-69.1652 -379.441 -1940 107 114 168
-65.3975 -380.206 -1944 68 76 132
-61.4878 -380.189 -1944 56 64 122
-57.6673 -380.76 -1947 49 56 105
-53.8354 -381.332 -1950 159 167 215
-50.043 -382.296 -1955 166 176 221
-46.1601 -382.674 -1957 161 171 214
-42.248 -382.858 -1958 170 180 222
-38.3324 -383.043 -1959 169 177 220
-34.3778 -382.837 -1958 163 171 217
-30.4896 -383.415 -1961 164 171 220
-26.5221 -383.017 -1959 146 156 198
-22.6549 -384.183 -1965 107 116 156
-18.7259 -384.569 -1967 108 116 151
