ply
format ascii 1.0
comment Created by Open3D
element vertex 1458
property double x
property double y
property double z
property uchar red
property uchar green
property uchar blue
end_header
-246.18 -17.3054 -2000 35 40 69
-241.547 -17.2591 -1995 40 44 71
-237.77 -17.2737 -1997 44 46 74
-233.636 -17.2624 -1996 40 41 69
-230.313 -17.3117 -2002 32 33 63
-226.854 -17.3523 -2007 30 31 61
-223.377 -17.3927 -2012 27 31 59
-219.664 -17.4161 -2015 28 32 60
-215.941 -17.4396 -2018 29 33 62
-211.682 -17.4199 -2016 29 33 62
-207.434 -17.4002 -2014 31 34 64
-203.497 -17.4065 -2015 32 35 67
-199.658 -17.4215 -2017 30 33 65
-196.006 -17.4535 -2021 30 33 66
-192.245 -17.4772 -2024 29 33 62
-188.287 -17.4837 -2025 32 36 65
-184.508 -17.5075 -2028 32 37 66
-180.275 -17.4881 -2026 34 39 70
-176.224 -17.4861 -2026 36 41 73
-172.26 -17.4927 -2027 34 37 69
-168.543 -17.5253 -2031 33 36 68
-164.406 -17.5148 -2030 34 38 67
-160.511 -17.5302 -2032 34 38 69
-156.455 -17.5284 -2032 35 38 70
-152.401 -17.5266 -2032 37 41 70
-148.056 -17.4901 -2028 38 42 70
-144.154 -17.5057 -2030 38 42 70
-139.831 -17.4696 -2026 39 44 73
-136.062 -17.5025 -2030 33 38 67
-132.082 -17.5096 -2031 34 39 68
-128.415 -17.5598 -2037 35 40 68
-124.481 -17.5756 -2039 33 38 66
-120.776 -17.626 -2045 31 36 67
-116.877 -17.6505 -2048 32 37 68
-113.352 -17.7353 -2058 33 38 67
-109.63 -17.7944 -2065 34 39 68
-105.931 -17.8621 -2073 33 38 68
-102.103 -17.9126 -2079 36 40 67
-98.4408 -17.9976 -2089 38 43 69
-448.923 -21.8425 -2029 29 33 56
-444.479 -21.8251 -2028 31 33 56
-439.393 -21.7757 -2024 35 37 60
-434.326 -21.7262 -2020 36 37 62
-429.28 -21.677 -2016 31 33 58
-424.254 -21.6276 -2012 30 31 57
-418.83 -21.5571 -2006 30 31 57
-413.849 -21.5081 -2002 29 30 56
-409.297 -21.4805 -2000 29 30 57
-404.756 -21.4531 -1998 30 32 60
-400.027 -21.4151 -1995 29 32 60
-395.313 -21.3772 -1992 31 34 64
-391.794 -21.4037 -1995 34 36 67
-387.099 -21.3659 -1992 34 35 67
-382.805 -21.3494 -1991 35 36 68
-377.947 -21.301 -1987 34 35 67
-374.05 -21.3063 -1988 31 34 66
-369.594 -21.2795 -1986 33 36 68
-365.148 -21.2529 -1984 36 37 70
-361.078 -21.2477 -1984 40 42 75
-357.191 -21.2532 -1985 42 45 77
-352.947 -21.2373 -1984 38 42 73
-348.71 -21.2215 -1983 32 35 68
-345.176 -21.2485 -1986 31 32 66
-341.288 -21.2542 -1987 32 33 68
-337.569 -21.2709 -1989 35 36 71
-333.845 -21.2874 -1991 36 37 71
-329.949 -21.2932 -1992 36 37 72
-325.725 -21.278 -1991 38 39 73
-321.831 -21.2839 -1992 38 39 69
-317.776 -21.2792 -1992 37 38 68
-313.251 -21.2428 -1989 36 37 66
-309.518 -21.2596 -1991 34 36 65
-305.626 -21.266 -1992 33 36 66
-301.884 -21.2829 -1994 31 35 62
-297.688 -21.268 -1993 29 33 60
-294.235 -21.3063 -1997 28 33 62
-290.478 -21.3236 -1999 29 34 62
-286.859 -21.3513 -2002 29 34 61
-282.382 -21.3154 -1999 31 36 63
-278.477 -21.3219 -2000 33 38 66
-274.158 -21.2967 -1998 33 38 67
-270.12 -21.2929 -1998 34 39 68
-266.484 -21.3209 -2001 35 40 69
-262.706 -21.3385 -2003 32 37 66
-258.665 -21.3346 -2003 33 38 66
-254.752 -21.3417 -2004 33 38 67
-250.338 -21.3062 -2001 35 39 67
-245.937 -21.2705 -1998 39 43 71
-241.671 -21.2458 -1996 41 45 71
-237.892 -21.2638 -1998 41 43 71
-233.756 -21.2498 -1997 34 35 64
-230.316 -21.2995 -2002 27 28 57
-227.083 -21.3708 -2009 27 28 57
-223.602 -21.4208 -2014 26 30 57
-219.558 -21.4177 -2014 28 32 60
-215.837 -21.4466 -2017 30 34 63
-211.79 -21.4433 -2017 32 36 65
-207.642 -21.4298 -2016 33 36 66
-203.601 -21.4269 -2016 33 36 68
-199.858 -21.4559 -2019 30 33 66
-195.814 -21.4531 -2019 29 32 66
-192.152 -21.4929 -2023 29 33 63
-188.289 -21.5113 -2025 32 37 66
-184.329 -21.5193 -2026 32 37 66
-180.277 -21.5167 -2026 33 38 69
-176.401 -21.5354 -2028 36 40 72
-172.348 -21.533 -2028 33 36 68
-168.462 -21.5518 -2030 33 36 67
-164.327 -21.5389 -2029 34 38 67
-160.197 -21.526 -2028 35 38 70
-156.226 -21.5344 -2029 36 39 71
-152.178 -21.5322 -2029 38 41 71
-147.985 -21.5089 -2027 37 41 70
-144.014 -21.5174 -2028 36 40 70
-139.902 -21.5046 -2027 38 43 72
-136.064 -21.5344 -2030 33 38 67
-132.149 -21.5538 -2032 34 39 68
-128.48 -21.6156 -2038 35 40 69
-124.421 -21.6138 -2038 35 39 67
-121.073 -21.7393 -2050 32 36 67
-117.164 -21.7695 -2053 34 39 70
-113.409 -21.8315 -2059 33 38 68
-109.684 -21.9041 -2066 35 40 70
-106.188 -22.0298 -2078 34 39 70
-102.252 -22.0708 -2082 34 38 66
-449.594 -25.9709 -2032 32 35 58
-445.583 -25.9759 -2033 33 35 58
-440.702 -25.9298 -2030 36 38 61
-435.623 -25.8713 -2026 36 38 62
-429.713 -25.7616 -2018 32 34 58
-424.893 -25.7158 -2015 29 30 56
-419.463 -25.6321 -2009 29 30 56
-414.476 -25.5738 -2005 26 27 53
-409.917 -25.5413 -2003 29 30 56
-405.168 -25.4958 -2000 31 32 60
-400.835 -25.4762 -1999 30 32 61
-395.717 -25.4055 -1994 32 33 65
-391.8 -25.4115 -1995 34 35 67
-387.3 -25.3794 -1993 33 34 66
-383.196 -25.3726 -1993 30 32 64
-378.334 -25.3152 -1989 28 31 63
-374.244 -25.3088 -1989 30 33 65
-369.413 -25.2515 -1985 32 34 67
-364.786 -25.2071 -1982 35 36 70
-361.084 -25.2263 -1984 37 39 72
-356.837 -25.2072 -1983 37 40 72
-352.953 -25.2141 -1984 35 40 71
-348.892 -25.208 -1984 31 35 67
-345.181 -25.2275 -1986 34 35 69
-341.122 -25.2216 -1986 37 38 73
-337.574 -25.2538 -1989 39 40 75
-333.682 -25.2608 -1990 39 40 74
-329.789 -25.2677 -1991 38 39 73
-325.894 -25.2748 -1992 38 39 73
-321.836 -25.2692 -1992 37 38 68
-317.78 -25.2639 -1992 36 37 67
-313.413 -25.2331 -1990 35 36 68
-309.989 -25.2784 -1994 34 36 69
-305.784 -25.2606 -1993 32 35 69
-302.04 -25.2807 -1995 30 34 61
-297.991 -25.2755 -1995 31 35 62
-294.535 -25.3213 -1999 31 35 64
-290.338 -25.3035 -1998 30 35 65
-286.577 -25.3241 -2000 29 34 64
-282.528 -25.3191 -2000 31 36 63
-278.621 -25.3271 -2001 32 37 64
-274.711 -25.3349 -2002 32 37 64
-270.665 -25.3304 -2002 32 37 65
-266.887 -25.351 -2004 32 37 66
-262.842 -25.3466 -2004 31 36 63
-258.927 -25.3547 -2005 33 38 65
-254.629 -25.3251 -2003 34 39 67
-250.091 -25.2704 -1999 35 39 67
-245.695 -25.2281 -1996 38 42 69
-241.433 -25.1988 -1994 38 42 67
-238.015 -25.2579 -1999 35 39 66
-234.228 -25.279 -2001 31 34 63
-230.894 -25.351 -2007 26 29 56
-227.313 -25.3977 -2011 27 30 56
-223.828 -25.4571 -2016 28 32 59
-219.562 -25.4279 -2014 28 32 60
-215.84 -25.4621 -2017 30 34 63
-211.688 -25.4459 -2016 32 36 65
-207.749 -25.4551 -2017 34 38 67
-203.806 -25.464 -2018 33 36 68
-200.06 -25.4985 -2021 32 35 67
-196.206 -25.5204 -2023 31 34 67
-192.44 -25.555 -2026 31 36 66
-188.385 -25.5519 -2026 32 37 68
-184.423 -25.5614 -2027 33 38 68
-180.191 -25.5331 -2025 32 36 68
-176.229 -25.5425 -2026 32 35 69
-172.18 -25.5396 -2026 33 36 68
-168.299 -25.5619 -2028 33 36 67
-164.168 -25.5466 -2027 32 36 65
-160.199 -25.5565 -2028 35 38 69
-155.921 -25.516 -2025 37 40 72
-152.03 -25.5387 -2027 37 40 71
-147.987 -25.5361 -2027 36 39 70
-143.945 -25.5337 -2027 35 38 69
-140.042 -25.5565 -2029 36 41 70
-136.066 -25.5666 -2030 35 39 68
-132.216 -25.6021 -2033 32 37 66
-128.608 -25.6881 -2040 32 37 66
-124.851 -25.7489 -2045 32 37 67
-121.193 -25.835 -2052 32 35 66
-117.508 -25.9211 -2059 35 37 69
-113.851 -26.0199 -2067 31 35 68
-109.951 -26.0684 -2071 33 37 69
-106.343 -26.1924 -2081 33 37 69
-102.499 -26.2662 -2087 36 40 67
-445.591 -30.073 -2033 35 37 61
-440.276 -29.9902 -2028 37 39 62
-435.416 -29.937 -2025 34 36 60
-430.359 -29.8692 -2021 29 31 55
-425.112 -29.7867 -2016 29 30 56
-419.889 -29.7044 -2011 30 31 57
-414.897 -29.6369 -2007 29 30 56
-409.925 -29.5698 -2003 31 32 58
-404.973 -29.5025 -1999 32 33 61
-400.642 -29.4796 -1998 31 32 62
-395.922 -29.4275 -1995 32 33 65
-392.2 -29.449 -1997 34 35 67
-388.084 -29.4414 -1997 31 32 64
-383.78 -29.4188 -1996 28 30 62
-378.912 -29.3524 -1992 29 31 64
-374.816 -29.3447 -1992 32 34 66
-370.351 -29.3079 -1990 34 36 68
-365.345 -29.227 -1985 38 39 72
-361.455 -29.2346 -1986 37 39 71
-357.204 -29.2125 -1985 32 35 66
-353.315 -29.2202 -1986 30 35 66
-348.898 -29.1839 -1984 31 34 66
-345.361 -29.2211 -1987 37 38 72
-341.128 -29.1996 -1986 40 41 76
-337.75 -29.2517 -1990 39 40 75
-333.688 -29.245 -1990 38 40 74
-329.795 -29.2531 -1991 38 39 73
-325.9 -29.2613 -1992 39 40 74
-322.003 -29.2695 -1993 38 39 69
-317.627 -29.2338 -1991 35 36 66
-313.734 -29.2422 -1992 34 35 66
-310.306 -29.2949 -1996 34 37 68
-306.097 -29.2741 -1995 33 36 68
-302.197 -29.2827 -1996 34 38 65
-298.296 -29.2914 -1997 33 37 64
-294.835 -29.3444 -2001 32 36 65
-290.343 -29.2945 -1998 30 34 65
-286.725 -29.3327 -2001 29 34 65
-282.957 -29.3566 -2003 30 35 63
-278.904 -29.3509 -2003 30 35 62
-275.128 -29.3749 -2005 28 33 60
-271.076 -29.3694 -2005 28 32 61
-267.026 -29.3643 -2005 30 34 63
-263.109 -29.3736 -2006 30 35 62
-258.932 -29.3539 -2005 30 35 62
-254.38 -29.2902 -2001 34 39 66
-250.221 -29.2707 -2000 37 40 68
-245.576 -29.1925 -1995 41 43 72
-241.559 -29.1878 -1995 37 41 66
-238.019 -29.2417 -1999 32 36 62
-234.466 -29.2954 -2003 29 33 61
-231.014 -29.364 -2008 28 32 57
-227.543 -29.4325 -2013 29 33 58
-223.721 -29.4574 -2015 30 34 61
-219.456 -29.4239 -2013 29 33 61
-215.63 -29.4489 -2015 30 34 63
-211.692 -29.4592 -2016 33 37 66
-207.649 -29.4551 -2016 34 38 68
-203.608 -29.4511 -2016 36 39 71
-199.964 -29.5057 -2020 36 39 71
-196.209 -29.5454 -2023 34 37 69
-191.969 -29.5125 -2021 32 37 68
-188.017 -29.5234 -2022 31 36 67
-184.153 -29.549 -2024 31 36 67
-180.194 -29.5601 -2025 31 35 68
-176.146 -29.5566 -2025 30 33 67
-172.183 -29.5676 -2026 34 37 70
-168.136 -29.5643 -2026 32 36 67
-164.008 -29.5465 -2025 32 36 65
-159.807 -29.5142 -2023 35 38 69
-155.77 -29.5112 -2023 35 38 70
-151.808 -29.5228 -2024 34 37 68
-147.99 -29.5636 -2027 34 38 69
-143.877 -29.5462 -2026 35 39 70
-140.252 -29.631 -2032 36 40 69
-136.336 -29.6574 -2034 35 39 68
-132.349 -29.6694 -2035 32 37 66
-128.862 -29.7979 -2044 31 36 65
-125.036 -29.8537 -2048 30 35 65
-121.431 -29.9679 -2056 33 35 66
-117.624 -30.0385 -2061 34 35 67
-113.963 -30.1528 -2069 32 35 69
-110.166 -30.2381 -2075 33 36 69
-106.396 -30.338 -2082 33 36 68
-450.497 -34.2312 -2036 35 36 62
-445.381 -34.1536 -2032 35 36 61
-439.634 -34.0259 -2025 34 36 59
-434.565 -33.9488 -2021 32 33 59
-429.517 -33.8716 -2017 28 29 55
-424.91 -33.8283 -2015 30 31 57
-420.107 -33.7684 -2012 31 32 58
-414.906 -33.675 -2007 31 32 58
-410.957 -33.6823 -2008 34 35 61
-405.589 -33.5724 -2002 34 35 62
-401.453 -33.5632 -2002 31 32 62
-396.526 -33.4871 -1998 32 33 65
-392.798 -33.5118 -2000 32 33 65
-388.481 -33.4861 -1999 31 32 64
-384.172 -33.4605 -1998 32 33 66
-379.871 -33.4353 -1997 33 34 68
-375.576 -33.4099 -1996 34 35 67
-370.917 -33.3511 -1993 35 36 68
-365.905 -33.2592 -1988 35 36 68
-361.28 -33.2009 -1985 33 37 66
-357.211 -33.1926 -1985 30 34 63
-353.323 -33.2014 -1986 30 33 65
-349.081 -33.1768 -1985 32 34 67
-345.542 -33.2189 -1988 38 39 73
-341.479 -33.2112 -1988 36 37 72
-337.757 -33.237 -1990 35 36 71
-334.031 -33.2629 -1992 36 39 73
-329.967 -33.2554 -1992 37 39 73
-326.234 -33.2815 -1994 38 39 73
-322.172 -33.2742 -1994 38 39 69
-317.953 -33.2503 -1993 35 36 66
-313.583 -33.2098 -1991 34 35 65
-310.001 -33.2528 -1994 33 36 65
-306.257 -33.2792 -1996 34 38 66
-302.355 -33.289 -1997 33 37 64
-298.601 -33.3155 -1999 33 37 65
-294.694 -33.3255 -2000 33 37 66
-290.64 -33.3191 -2000 32 36 67
-286.732 -33.3292 -2001 31 34 66
-282.963 -33.3561 -2003 29 34 63
-278.91 -33.3499 -2003 28 33 62
-275.134 -33.3769 -2005 28 33 60
-271.217 -33.3874 -2006 30 34 62
-267.298 -33.3981 -2007 33 37 66
-262.852 -33.3422 -2004 33 38 65
-258.937 -33.3531 -2005 31 36 63
-254.131 -33.2475 -1999 34 39 66
-249.726 -33.1921 -1996 40 42 72
-245.581 -33.1698 -1995 40 41 71
-241.685 -33.1811 -1996 34 38 63
-238.143 -33.242 -2000 31 35 61
-234.705 -33.32 -2005 29 33 60
-231.249 -33.398 -2010 29 33 58
-227.548 -33.4425 -2013 30 34 59
-223.726 -33.4708 -2015 29 33 60
-219.461 -33.4325 -2013 30 34 62
-215.635 -33.4609 -2015 30 34 63
-211.592 -33.4562 -2015 32 36 65
-207.654 -33.4682 -2016 34 38 68
-203.713 -33.4801 -2017 37 40 72
-199.968 -33.5255 -2020 36 39 71
-196.019 -33.5377 -2021 34 37 69
-191.973 -33.5334 -2021 32 37 68
-188.206 -33.5788 -2024 32 37 68
-183.975 -33.5415 -2022 32 37 68
-180.02 -33.5541 -2023 31 35 68
-175.801 -33.517 -2021 29 32 66
-171.932 -33.5464 -2023 32 35 69
-167.89 -33.5426 -2023 34 37 70
-163.769 -33.5222 -2022 34 38 67
-159.495 -33.4689 -2019 37 40 72
-155.619 -33.4986 -2021 36 39 71
-151.661 -33.5118 -2022 32 36 65
-147.774 -33.5416 -2024 32 37 67
-144.093 -33.6213 -2029 32 37 68
-140.186 -33.6513 -2031 34 38 67
-136.473 -33.7311 -2036 34 38 67
-132.807 -33.8275 -2042 33 38 67
-128.928 -33.8743 -2045 32 36 65
-125.283 -33.9872 -2052 30 34 63
-121.375 -34.0342 -2055 34 36 67
-117.798 -34.1806 -2064 35 36 68
-113.911 -34.2443 -2068 33 36 70
-110.009 -34.308 -2072 32 35 68
-106.194 -34.405 -2078 32 35 67
-444.296 -38.1551 -2027 36 37 62
-439.211 -38.0687 -2023 34 36 59
-434.146 -37.9822 -2019 31 32 58
-429.314 -37.9148 -2016 30 31 57
-424.92 -37.885 -2015 30 31 57
-420.326 -37.8367 -2013 29 30 56
-414.916 -37.7133 -2007 30 31 57
-410.967 -37.7214 -2008 34 35 61
-405.802 -37.6171 -2003 34 35 62
-402.064 -37.6444 -2005 32 33 63
-397.528 -37.5967 -2003 32 33 65
-393.593 -37.6054 -2004 31 32 64
-389.268 -37.5767 -2003 32 33 65
-385.335 -37.5856 -2004 34 35 69
-380.831 -37.5383 -2002 35 36 70
-375.962 -37.4539 -1998 36 37 69
-371.484 -37.4068 -1996 36 37 69
-366.282 -37.285 -1990 31 32 64
-361.835 -37.2384 -1988 27 30 60
-357.58 -37.2105 -1987 27 31 60
-353.687 -37.2203 -1988 28 31 63
-349.442 -37.1926 -1987 31 34 66
-346.072 -37.2587 -1991 36 37 71
-341.83 -37.2312 -1990 35 36 71
-338.105 -37.2601 -1992 35 36 71
-334.206 -37.2703 -1993 37 40 74
-330.306 -37.2807 -1994 38 40 74
-326.241 -37.2722 -1994 38 39 72
-322.018 -37.2454 -1993 36 37 64
-317.801 -37.2187 -1992 35 36 63
-313.59 -37.1921 -1991 35 36 63
-310.009 -37.2402 -1994 32 35 63
-306.264 -37.2698 -1996 31 35 63
-302.21 -37.2622 -1996 31 35 62
-298.458 -37.2919 -1998 33 37 65
-294.701 -37.3218 -2000 34 38 67
-290.647 -37.3144 -2000 32 36 67
-286.882 -37.3446 -2002 30 33 65
-283.252 -37.3934 -2005 28 33 62
-278.917 -37.3489 -2003 28 33 61
-275.14 -37.3792 -2005 29 34 61
-271.088 -37.3725 -2005 32 36 64
-266.904 -37.3471 -2004 34 38 67
-262.465 -37.2844 -2001 33 38 65
-258.298 -37.2594 -2000 33 38 65
-253.882 -37.197 -1997 36 41 68
-249.607 -37.1536 -1995 40 41 72
-245.71 -37.1659 -1996 35 36 67
-241.812 -37.1786 -1997 28 32 57
-238.268 -37.2469 -2001 29 33 59
-234.945 -37.3528 -2007 29 33 60
-231.254 -37.4026 -2010 28 32 57
-227.44 -37.4342 -2012 29 33 59
-223.62 -37.4656 -2014 30 34 61
-219.248 -37.4044 -2011 32 36 64
-215.426 -37.4363 -2013 31 35 64
-211.387 -37.4308 -2013 32 36 65
-207.556 -37.4628 -2015 34 38 67
-203.617 -37.4763 -2016 36 39 71
-199.775 -37.5086 -2018 36 39 71
-195.927 -37.5406 -2020 33 36 68
-191.787 -37.5173 -2019 31 36 67
-187.932 -37.5498 -2021 31 36 67
-183.797 -37.5266 -2020 32 37 68
-180.024 -37.5776 -2023 33 36 69
-175.979 -37.5732 -2023 32 35 69
-171.936 -37.5689 -2023 31 34 68
-167.645 -37.5091 -2020 35 38 71
-163.773 -37.5421 -2022 36 39 70
-159.341 -37.4451 -2017 38 41 73
-155.392 -37.4597 -2018 38 41 73
-151.515 -37.4931 -2020 37 41 70
-147.777 -37.5636 -2024 34 39 69
-144.096 -37.6528 -2029 30 35 66
-140.534 -37.7792 -2036 32 36 66
-136.744 -37.85 -2040 34 38 67
-132.94 -37.9209 -2044 32 37 66
-129.246 -38.029 -2050 33 38 67
-125.347 -38.0815 -2053 32 36 65
-121.555 -38.1712 -2058 35 36 68
-117.858 -38.2978 -2065 35 36 68
-114.134 -38.4247 -2072 35 38 72
-110.33 -38.5333 -2078 33 36 69
-106.452 -38.6233 -2083 33 36 68
-444.746 -42.2829 -2029 36 37 61
-439.44 -42.1662 -2024 31 33 57
-433.943 -42.0288 -2018 30 31 57
-429.326 -41.9749 -2016 31 32 58
-424.721 -41.9211 -2014 31 32 58
-420.546 -41.9093 -2014 30 31 57
-415.34 -41.7933 -2009 31 32 58
-411.592 -41.8234 -2011 34 35 62
-406.623 -41.7285 -2007 34 35 63
-402.677 -41.738 -2008 32 33 63
-397.737 -41.6436 -2004 33 34 66
-393.8 -41.6531 -2005 32 33 65
-389.473 -41.6213 -2004 32 33 66
-385.346 -41.6104 -2004 36 37 70
-380.841 -41.5581 -2002 35 36 70
-376.16 -41.4852 -1999 37 38 70
-371.68 -41.4332 -1997 37 39 71
-366.66 -41.319 -1992 33 34 66
-361.845 -41.226 -1988 29 32 62
-357.589 -41.1952 -1987 27 30 60
-353.518 -41.1851 -1987 26 29 62
-349.803 -41.2168 -1989 30 32 65
-345.734 -41.207 -1989 33 34 68
-341.84 -41.2182 -1990 32 33 68
-338.114 -41.25 -1992 33 34 69
-334.383 -41.2821 -1994 35 37 71
-330.15 -41.2519 -1993 37 39 71
-326.741 -41.3256 -1997 36 37 68
-322.35 -41.2753 -1995 34 36 61
-317.969 -41.225 -1993 35 36 61
-313.756 -41.1953 -1992 34 35 61
-310.328 -41.2693 -1996 31 34 61
-306.425 -41.2814 -1997 30 34 61
-302.37 -41.273 -1997 31 35 62
-299.064 -41.3679 -2002 32 36 64
-295.298 -41.401 -2004 33 36 66
-290.945 -41.3515 -2002 32 35 66
-287.033 -41.3641 -2003 30 33 65
-283.118 -41.3767 -2004 28 32 61
-278.924 -41.3485 -2003 28 32 60
-275.01 -41.3614 -2004 29 34 61
-270.689 -41.3125 -2002 34 38 67
-266.512 -41.2843 -2001 35 39 68
-262.209 -41.2359 -1999 32 37 64
-258.046 -41.208 -1998 33 38 65
-253.635 -41.1389 -1995 35 40 67
-249.613 -41.1321 -1995 37 38 69
-245.84 -41.1664 -1997 33 34 65
-241.939 -41.1803 -1998 27 31 56
-238.632 -41.2972 -2004 27 31 57
-235.185 -41.3936 -2009 26 30 57
-231.375 -41.4285 -2011 26 30 56
-227.672 -41.484 -2014 28 32 58
-223.737 -41.4982 -2015 29 33 60
-219.581 -41.4716 -2014 31 35 63
-215.431 -41.4449 -2013 31 35 64
-211.707 -41.5008 -2016 32 36 65
-207.664 -41.4951 -2016 35 39 68
-203.723 -41.5098 -2017 36 39 71
-199.978 -41.5661 -2020 34 37 69
-196.029 -41.5813 -2021 32 35 67
-191.982 -41.5757 -2021 30 35 66
-188.123 -41.6117 -2023 30 35 66
-183.984 -41.5861 -2022 32 37 69
-180.118 -41.6222 -2024 34 38 71
-175.897 -41.576 -2022 35 38 72
-171.941 -41.5918 -2023 34 37 70
-167.567 -41.505 -2019 37 40 73
-163.696 -41.5415 -2021 37 40 72
-159.424 -41.4755 -2018 39 42 74
-155.319 -41.4506 -2017 39 42 74
-151.594 -41.5284 -2021 38 41 71
-148 -41.6476 -2027 36 40 70
-144.242 -41.7258 -2031 32 37 67
-140.676 -41.8657 -2038 32 36 65
-137.15 -42.0262 -2046 32 36 65
-133.073 -42.0225 -2046 32 37 66
-129.502 -42.1833 -2054 33 38 67
-125.656 -42.2619 -2058 33 37 66
-121.617 -42.2791 -2059 35 37 68
-117.861 -42.399 -2065 35 37 69
-114.247 -42.5804 -2074 36 39 73
-110.333 -42.6594 -2078 35 38 71
-106.557 -42.8001 -2085 33 36 68
-444.102 -46.3045 -2026 37 38 63
-439.236 -46.2223 -2023 31 33 58
-434.17 -46.1174 -2019 29 30 56
-429.764 -46.0812 -2018 30 31 57
-425.366 -46.045 -2017 30 31 57
-420.767 -45.9863 -2015 31 32 58
-415.559 -45.8592 -2010 33 34 60
-411.195 -45.8235 -2009 34 35 62
-407.04 -45.8107 -2009 34 35 63
-402.488 -45.7527 -2007 32 33 63
-398.146 -45.7174 -2006 32 33 65
-394.008 -45.7053 -2006 32 33 65
-389.873 -45.6933 -2006 34 35 69
-385.549 -45.6584 -2005 36 37 70
-381.042 -45.601 -2003 36 37 69
-376.547 -45.5439 -2001 37 40 72
-371.877 -45.4641 -1998 37 39 71
-366.854 -45.3389 -1993 34 35 67
-362.765 -45.3277 -1993 33 35 66
-358.5 -45.2938 -1992 31 33 64
-354.596 -45.3056 -1993 27 30 63
-350.516 -45.2947 -1993 26 28 62
-346.092 -45.2387 -1991 27 28 62
-342.193 -45.2508 -1992 26 27 62
-338.633 -45.3084 -1995 27 28 63
-334.728 -45.3209 -1996 30 32 66
-330.656 -45.3105 -1996 35 36 67
-326.26 -45.2552 -1994 36 37 65
-322.359 -45.2678 -1995 33 35 59
-317.978 -45.2127 -1993 33 35 59
-313.608 -45.1577 -1991 34 35 61
-310.337 -45.2616 -1996 31 34 60
-306.281 -45.252 -1996 28 32 59
-302.53 -45.2881 -1998 29 33 62
-298.774 -45.3243 -2000 31 35 64
-295.159 -45.3832 -2003 31 34 66
-291.099 -45.3743 -2003 30 33 65
-287.184 -45.3881 -2004 30 33 65
-283.127 -45.3794 -2004 30 34 63
-278.793 -45.3255 -2002 28 32 61
-274.607 -45.2944 -2001 30 35 62
-270.156 -45.2181 -1998 38 42 70
-265.72 -45.1423 -1995 39 43 72
-261.823 -45.1568 -1996 34 39 66
-257.666 -45.1262 -1995 34 39 66
-253.515 -45.0958 -1994 34 39 66
-249.62 -45.1109 -1995 35 37 66
-246.216 -45.2163 -2000 34 35 65
-242.309 -45.2314 -2001 29 33 58
-238.758 -45.3146 -2005 29 33 59
-235.192 -45.3977 -2009 29 33 60
-231.497 -45.4586 -2012 28 32 58
-227.453 -45.4515 -2012 29 33 60
-223.521 -45.4673 -2013 30 34 62
-219.37 -45.4379 -2012 30 34 63
-215.331 -45.4314 -2012 31 35 64
-211.503 -45.47 -2014 31 35 62
-207.567 -45.4863 -2015 34 37 66
-203.729 -45.5253 -2017 35 38 70
-199.885 -45.5642 -2019 33 36 68
-195.938 -45.5808 -2020 33 36 68
-191.893 -45.575 -2020 33 37 68
-187.942 -45.5917 -2021 31 35 67
-183.898 -45.5861 -2021 31 35 68
-179.945 -45.6032 -2022 34 37 71
-175.815 -45.5753 -2021 35 38 72
-171.861 -45.5925 -2022 36 39 71
-167.489 -45.4972 -2018 37 40 72
-163.458 -45.4922 -2018 38 41 73
-159.191 -45.4198 -2015 39 42 76
-155.554 -45.5278 -2020 38 41 75
-151.748 -45.5908 -2023 36 39 70
-148.151 -45.7213 -2029 35 38 69
-144.388 -45.807 -2033 34 38 67
-140.749 -45.9379 -2039 32 37 66
-137.02 -46.0464 -2044 32 36 65
-133.403 -46.2 -2051 33 37 66
-129.632 -46.3087 -2056 32 37 66
-125.781 -46.395 -2060 33 37 66
-121.916 -46.4814 -2064 33 36 66
-118.092 -46.5904 -2069 33 36 66
-114.415 -46.767 -2077 35 38 72
-110.601 -46.8985 -2083 35 38 71
-106.764 -47.0303 -2089 33 36 68
-444.336 -50.4139 -2027 35 37 61
-439.684 -50.3494 -2025 31 32 58
-434.4 -50.2101 -2020 27 28 54
-429.352 -50.0962 -2016 28 29 55
-425.169 -50.0818 -2016 29 30 56
-420.781 -50.0428 -2015 30 31 57
-416.193 -49.979 -2013 31 32 58
-412.231 -49.9899 -2014 33 34 62
-407.459 -49.9016 -2011 35 36 64
-403.103 -49.8631 -2010 32 33 63
-398.754 -49.8247 -2009 31 32 64
-393.628 -49.6875 -2004 34 35 67
-389.302 -49.6495 -2003 35 36 70
-385.177 -49.6366 -2003 35 36 69
-380.674 -49.574 -2001 37 38 70
-376.183 -49.5118 -1999 33 36 68
-372.261 -49.5239 -2000 28 30 62
-367.603 -49.4373 -1997 28 29 61
-363.141 -49.3755 -1995 29 30 62
-359.231 -49.3882 -1996 27 28 60
-354.964 -49.3515 -1995 23 26 60
-351.055 -49.3644 -1996 25 28 62
-346.624 -49.3033 -1994 25 26 60
-342.548 -49.2917 -1994 26 27 62
-338.644 -49.3052 -1995 26 27 62
-334.739 -49.3186 -1996 28 29 63
-330.667 -49.3074 -1996 31 32 64
-326.925 -49.346 -1998 31 32 61
-322.692 -49.3103 -1997 30 32 55
-318.307 -49.2504 -1995 30 32 56
-314.091 -49.215 -1994 32 33 59
-310.347 -49.2541 -1996 32 35 61
-306.444 -49.2686 -1997 29 33 60
-302.691 -49.3076 -1999 28 30 60
-298.933 -49.347 -2001 31 33 63
-295.316 -49.4111 -2004 32 34 66
-291.108 -49.3767 -2003 31 33 65
-287.337 -49.4164 -2005 29 32 64
-282.994 -49.3577 -2003 29 33 62
-278.662 -49.2991 -2001 30 35 63
-274.341 -49.2406 -1999 31 36 64
-270.03 -49.1823 -1997 36 40 69
-265.462 -49.0749 -1993 43 47 76
-261.569 -49.0908 -1994 38 43 70
-257.674 -49.1067 -1995 31 36 63
-253.523 -49.0738 -1994 33 37 64
-249.628 -49.0901 -1995 33 35 63
-246.47 -49.254 -2002 32 33 62
-242.559 -49.2704 -2003 28 32 58
-239.361 -49.4348 -2010 29 32 59
-235.668 -49.5006 -2013 30 32 61
-231.734 -49.5176 -2014 28 32 59
-227.686 -49.5099 -2014 29 33 60
-223.417 -49.4534 -2012 31 35 64
-219.376 -49.446 -2012 32 36 65
-215.337 -49.439 -2012 32 36 65
-211.51 -49.4809 -2014 30 34 61
-207.677 -49.5233 -2016 33 37 65
-203.837 -49.5655 -2018 36 39 71
-200.089 -49.6326 -2021 36 39 71
-196.041 -49.6261 -2021 38 41 73
-191.994 -49.6196 -2021 37 40 73
-188.041 -49.6379 -2022 33 36 69
-183.995 -49.6319 -2022 33 36 70
-180.04 -49.6503 -2023 34 37 71
-175.908 -49.6199 -2022 36 39 73
-171.866 -49.6143 -2022 35 38 70
-167.577 -49.5351 -2019 36 39 71
-163.706 -49.5786 -2021 38 41 73
-159.354 -49.4752 -2017 39 42 75
-155.636 -49.5682 -2021 39 42 76
-151.978 -49.6858 -2026 37 40 72
-148.155 -49.7545 -2029 34 38 69
-144.464 -49.872 -2034 34 38 67
-140.961 -50.0635 -2042 35 37 67
-137.226 -50.1816 -2047 34 36 66
-133.602 -50.3488 -2054 32 36 65
-130.077 -50.5651 -2063 33 37 66
-126.152 -50.6344 -2066 33 37 66
-122.215 -50.7039 -2069 32 36 65
-118.382 -50.8225 -2074 32 36 65
-114.639 -50.9902 -2081 34 37 71
-110.711 -51.0845 -2085 35 38 71
-106.921 -51.2522 -2092 33 36 68
-439.7 -54.4311 -2025 28 29 55
-434.63 -54.3076 -2021 27 28 54
-430.006 -54.2382 -2019 32 33 59
-426.239 -54.2761 -2021 35 36 62
-421.422 -54.1802 -2018 34 35 61
-417.241 -54.165 -2018 32 33 59
-412.655 -54.096 -2016 31 32 60
-408.081 -54.0274 -2014 34 35 63
-402.716 -53.8517 -2008 32 33 63
-398.371 -53.8103 -2007 30 31 63
-393.642 -53.7155 -2004 34 35 67
-389.122 -53.6478 -2002 36 37 71
-384.806 -53.6069 -2001 36 37 70
-380.117 -53.5126 -1998 35 36 68
-375.632 -53.4454 -1996 30 33 65
-371.716 -53.4585 -1997 25 28 60
-368.168 -53.5255 -2000 24 25 57
-363.7 -53.4585 -1998 23 24 56
-359.963 -53.499 -2000 20 21 53
-355.332 -53.4059 -1997 20 22 56
-351.067 -53.3663 -1996 24 26 60
-346.984 -53.3537 -1996 26 27 61
-342.731 -53.3145 -1995 26 27 62
-338.826 -53.3289 -1996 27 29 64
-334.415 -53.2633 -1994 28 29 63
-330.678 -53.3047 -1996 31 32 64
-326.445 -53.2663 -1995 31 32 62
-322.542 -53.2812 -1996 30 32 56
-318.318 -53.2428 -1995 31 32 56
-314.259 -53.2316 -1995 32 33 60
-310.513 -53.2736 -1997 32 34 61
-306.455 -53.2626 -1997 30 34 61
-302.55 -53.2783 -1998 30 31 61
-298.943 -53.3474 -2001 32 33 63
-295.326 -53.4167 -2004 32 33 65
-291.264 -53.4062 -2004 31 33 65
-287.203 -53.3959 -2004 29 32 64
-283.004 -53.3588 -2003 29 33 62
-278.672 -53.2955 -2001 30 34 63
-273.939 -53.1524 -1996 33 37 66
-269.498 -53.0628 -1993 37 41 70
-265.472 -53.0532 -1993 41 45 74
-261.447 -53.0437 -1993 38 42 69
-257.425 -53.0346 -1993 32 36 63
-253.659 -53.0787 -1995 31 35 62
-249.887 -53.1228 -1997 33 34 62
-246.479 -53.2469 -2002 33 34 62
-242.689 -53.2912 -2004 29 33 60
-239.25 -53.4157 -2009 29 32 60
-235.676 -53.5135 -2013 31 32 62
-231.857 -53.5582 -2015 29 33 60
-227.581 -53.497 -2013 30 34 61
-223.536 -53.4889 -2013 31 35 64
-219.166 -53.4014 -2010 31 35 64
-215.131 -53.3935 -2010 31 35 64
-211.202 -53.4126 -2011 29 33 60
-207.478 -53.4847 -2014 32 36 64
-203.844 -53.5837 -2018 36 39 73
-199.898 -53.6029 -2019 36 39 72
-195.951 -53.6225 -2020 37 40 72
-191.81 -53.5891 -2019 36 39 73
-188.048 -53.6618 -2022 34 37 71
-183.82 -53.6022 -2020 33 36 70
-179.957 -53.6489 -2022 34 37 71
-175.914 -53.6424 -2022 34 37 71
-171.702 -53.5832 -2020 36 39 71
-167.5 -53.5241 -2018 38 41 73
-163.631 -53.5714 -2020 39 42 74
-159.597 -53.5654 -2020 38 41 75
-155.872 -53.6659 -2024 38 41 75
-152.133 -53.7666 -2028 37 40 71
-148.379 -53.8673 -2032 34 37 68
-144.682 -53.9947 -2037 32 36 65
-141.242 -54.228 -2046 34 36 66
-137.633 -54.4086 -2053 36 37 67
-133.867 -54.5363 -2058 32 36 65
-130.334 -54.7701 -2067 31 35 64
-126.705 -54.9776 -2075 31 35 64
-122.574 -54.9732 -2075 32 36 65
-119.013 -55.2338 -2085 31 35 65
-115.029 -55.3092 -2088 34 37 71
-111.086 -55.4111 -2092 33 36 69
-107.333 -55.6191 -2100 36 39 71
-440.802 -58.6578 -2030 29 30 56
-435.292 -58.4672 -2024 30 31 57
-430.449 -58.3638 -2021 34 35 61
-426.255 -58.3469 -2021 37 38 64
-422.064 -58.3302 -2021 35 36 62
-417.464 -58.2559 -2019 31 32 58
-412.876 -58.182 -2017 30 31 59
-408.501 -58.1372 -2016 31 32 61
-402.931 -57.9193 -2009 30 31 61
-398.188 -57.8172 -2006 32 33 64
-393.264 -57.6864 -2002 36 37 69
-388.553 -57.5847 -1999 38 39 73
-384.436 -57.5696 -1999 37 37 71
-379.941 -57.4971 -1997 33 33 67
-375.834 -57.4825 -1997 29 30 62
-371.916 -57.4966 -1998 24 25 57
-368.366 -57.5684 -2001 21 22 54
-364.078 -57.5255 -2000 22 23 55
-360.337 -57.5687 -2002 22 23 55
-355.879 -57.4974 -2000 21 23 55
-351.432 -57.4262 -1998 25 26 59
-347.345 -57.4127 -1998 27 28 62
-342.744 -57.3128 -1995 28 30 66
-338.499 -57.2709 -1994 30 32 68
-334.595 -57.2865 -1995 31 32 67
-330.194 -57.2164 -1993 32 33 65
-325.966 -57.175 -1992 31 32 64
-322.554 -57.2771 -1996 31 32 59
-318.33 -57.236 -1995 32 33 60
-314.271 -57.2239 -1995 33 34 61
-310.525 -57.269 -1997 31 33 61
-306.773 -57.3143 -1999 29 33 60
-302.713 -57.3027 -1999 29 30 60
-299.104 -57.3769 -2002 31 32 63
-295.19 -57.3941 -2003 31 32 64
-291.274 -57.4115 -2004 32 34 67
-286.927 -57.3429 -2002 32 34 67
-282.732 -57.3033 -2001 30 33 64
-278.543 -57.2639 -2000 31 34 65
-274.223 -57.196 -1998 35 39 68
-269.643 -57.071 -1994 39 43 72
-265.481 -57.0321 -1993 38 42 71
-261.588 -57.0505 -1994 36 40 67
-257.564 -57.0405 -1994 30 34 61
-253.796 -57.0879 -1996 29 33 60
-250.022 -57.1353 -1998 33 33 62
-246.734 -57.2973 -2004 35 35 64
-242.94 -57.345 -2006 31 33 61
-239.497 -57.4788 -2011 31 32 61
-236.036 -57.6126 -2016 32 33 63
-232.211 -57.6606 -2018 30 33 59
-227.815 -57.5662 -2015 32 34 61
-223.655 -57.5289 -2014 32 36 65
-219.501 -57.4918 -2013 31 35 64
-215.353 -57.455 -2012 30 34 63
-211.42 -57.4752 -2013 28 32 59
-207.588 -57.5244 -2015 31 34 63
-203.952 -57.6306 -2019 34 37 71
-199.807 -57.5944 -2018 34 37 71
-195.958 -57.6438 -2020 35 38 71
-192.007 -57.665 -2021 36 39 73
-188.055 -57.6863 -2022 36 39 73
-183.644 -57.5649 -2018 35 38 72
-179.875 -57.6436 -2021 35 38 72
-175.746 -57.6084 -2020 35 38 72
-171.708 -57.6016 -2020 38 41 73
-167.672 -57.5951 -2020 40 43 75
-163.88 -57.6744 -2023 39 42 74
-159.998 -57.7253 -2025 36 39 73
-156.109 -57.7761 -2027 35 38 73
-152.364 -57.8842 -2031 34 37 68
-148.75 -58.0495 -2037 32 35 65
-144.971 -58.158 -2041 29 34 63
-141.454 -58.3805 -2049 29 32 62
-138.107 -58.6883 -2060 30 33 63
-134.457 -58.8826 -2067 30 34 63
-130.654 -59.02 -2072 28 32 61
-126.893 -59.186 -2078 29 33 62
-122.933 -59.2667 -2081 30 34 63
-119.246 -59.4899 -2089 29 33 62
-115.253 -59.5709 -2092 28 31 65
-111.515 -59.7944 -2100 28 31 64
-107.388 -59.8187 -2101 35 38 70
-104.044 -60.2987 -2118 28 33 58
-440.82 -62.7507 -2030 30 31 57
-435.524 -62.5778 -2025 31 32 58
-431.105 -62.5285 -2024 34 35 61
-426.905 -62.5105 -2024 36 37 63
-422.499 -62.4618 -2023 35 36 62
-418.308 -62.4443 -2023 30 31 58
-413.711 -62.3651 -2021 31 32 61
-408.315 -62.1626 -2015 32 33 63
-402.948 -61.9607 -2009 33 34 64
-398.204 -61.8513 -2006 35 36 67
-393.476 -61.7423 -2003 38 39 70
-388.763 -61.6335 -2000 37 38 72
-384.836 -61.6482 -2001 35 35 70
-380.147 -61.5398 -1998 31 30 65
-376.414 -61.5856 -2000 27 28 60
-372.303 -61.5699 -2000 23 24 56
-368.749 -61.6468 -2003 20 21 53
-364.456 -61.6006 -2002 23 24 56
-360.351 -61.5857 -2002 24 25 57
-355.715 -61.4784 -1999 26 27 59
-351.447 -61.433 -1998 28 29 62
-347.359 -61.4183 -1998 30 31 65
-343.274 -61.404 -1998 30 33 69
-339.191 -61.3899 -1998 31 34 71
-335.112 -61.3759 -1998 32 33 68
-330.87 -61.3314 -1997 32 33 67
-326.634 -61.287 -1996 32 33 66
-322.729 -61.3042 -1997 33 34 63
-318.343 -61.2295 -1995 32 33 62
-314.598 -61.2777 -1997 32 33 62
-310.382 -61.234 -1996 29 31 60
-306.632 -61.2827 -1998 24 28 56
-302.725 -61.3007 -1999 27 28 58
-298.966 -61.3497 -2001 31 32 63
-294.907 -61.3373 -2001 32 33 65
-290.995 -61.356 -2002 33 34 68
-286.796 -61.3132 -2001 35 36 70
-282.461 -61.2403 -1999 32 35 67
-277.997 -61.1369 -1996 34 37 68
-274.234 -61.1868 -1998 36 40 69
-269.654 -61.0529 -1994 37 41 70
-265.359 -60.9806 -1992 33 37 66
-261.467 -61.0004 -1993 32 36 63
-257.832 -61.0815 -1996 30 34 61
-254.06 -61.1321 -1998 28 32 60
-250.407 -61.2135 -2001 32 32 63
-247.113 -61.3868 -2007 34 34 65
-243.071 -61.3769 -2007 32 33 61
-239.387 -61.4587 -2010 33 34 63
-235.694 -61.5406 -2013 33 34 64
-231.99 -61.6226 -2016 31 32 58
-227.937 -61.6131 -2016 33 34 61
-223.775 -61.5734 -2015 32 36 65
-219.728 -61.5642 -2015 31 35 64
-215.575 -61.5249 -2014 30 34 63
-211.534 -61.516 -2014 29 33 60
-207.597 -61.5378 -2015 31 35 63
-203.758 -61.5906 -2017 34 37 71
-199.617 -61.5519 -2016 33 36 70
-195.869 -61.6353 -2019 33 36 70
-191.635 -61.5664 -2017 34 37 71
-187.69 -61.589 -2018 34 37 71
-183.561 -61.551 -2017 36 39 73
-179.526 -61.5434 -2017 37 40 74
-175.492 -61.5362 -2017 38 41 75
-171.46 -61.5292 -2017 40 43 75
-167.678 -61.6136 -2020 38 41 73
-163.805 -61.6679 -2022 36 39 71
-160.241 -61.8443 -2028 35 38 72
-156.423 -61.9293 -2031 34 37 72
-152.82 -62.1058 -2037 32 36 65
-149.048 -62.2216 -2041 31 35 64
-145.403 -62.3985 -2047 29 34 63
-141.874 -62.6366 -2055 28 32 61
-138.38 -62.9052 -2064 26 29 58
-134.722 -63.113 -2071 27 30 59
-130.975 -63.2902 -2077 26 30 59
-127.387 -63.5592 -2086 27 31 60
-123.41 -63.6455 -2089 25 29 58
-119.593 -63.8234 -2095 28 32 61
-115.534 -63.8795 -2097 23 26 60
-111.626 -64.0272 -2102 28 31 64
-107.29 -63.9314 -2099 33 36 68
-442.142 -67.0415 -2036 30 31 57
-436.834 -66.8573 -2031 31 32 58
-432.615 -66.8377 -2031 34 35 61
-426.923 -66.5882 -2024 35 36 62
-422.309 -66.5035 -2022 34 35 62
-417.499 -66.3861 -2019 30 31 59
-413.934 -66.4661 -2022 33 34 64
-408.738 -66.2834 -2017 35 36 65
-403.767 -66.1338 -2013 37 38 68
-398.42 -65.9189 -2007 38 39 70
-393.886 -65.8355 -2005 38 39 69
-389.169 -65.7194 -2002 35 36 70
-385.43 -65.7679 -2004 32 32 67
-380.924 -65.6853 -2002 30 29 64
-376.806 -65.6684 -2002 28 29 61
-373.064 -65.7174 -2004 27 28 60
-368.58 -65.6353 -2002 25 26 58
-364.654 -65.6518 -2003 27 28 60
-360.547 -65.6356 -2003 27 28 60
-356.087 -65.5541 -2001 31 32 64
-351.638 -65.473 -1999 31 32 65
-347.547 -65.4574 -1999 33 34 68
-343.288 -65.4095 -1998 33 35 72
-339.206 -65.3942 -1998 31 34 71
-334.959 -65.3466 -1997 31 32 67
-330.884 -65.332 -1997 32 33 68
-326.648 -65.2848 -1996 33 34 69
-322.904 -65.3358 -1998 32 33 64
-318.676 -65.2889 -1997 30 31 61
-314.927 -65.3403 -1999 30 31 61
-310.55 -65.2611 -1997 27 30 60
-306.645 -65.2801 -1998 22 25 57
-302.738 -65.2995 -1999 28 29 59
-298.979 -65.3515 -2001 33 34 64
-294.772 -65.3056 -2000 32 33 65
-290.862 -65.3255 -2001 33 34 68
-286.521 -65.2474 -1999 35 36 70
-282.614 -65.2676 -2000 36 37 69
-278.288 -65.1901 -1998 38 40 71
-274.246 -65.1778 -1998 36 40 69
-270.207 -65.1659 -1998 34 38 67
-266.169 -65.1541 -1998 29 33 62
-262.266 -65.1752 -1999 29 33 60
-258.102 -65.1312 -1998 28 32 59
-254.452 -65.2177 -2001 27 31 60
-250.668 -65.2716 -2003 31 31 63
-246.878 -65.3261 -2005 33 32 65
-243.202 -65.413 -2008 32 33 61
-239.517 -65.5001 -2011 33 34 63
-235.821 -65.5874 -2014 33 34 64
-231.885 -65.6097 -2015 30 31 58
-228.173 -65.6972 -2018 33 34 60
-224.007 -65.6549 -2017 32 36 65
-219.955 -65.6451 -2017 31 35 64
-215.799 -65.603 -2016 31 35 64
-211.858 -65.6263 -2017 31 35 62
-207.605 -65.552 -2015 33 37 65
-203.969 -65.6732 -2019 33 36 70
-199.724 -65.5993 -2017 33 36 70
-195.877 -65.6558 -2019 34 37 71
-191.738 -65.6147 -2018 34 37 71
-187.791 -65.639 -2019 34 37 72
-183.568 -65.5657 -2017 38 41 76
-179.444 -65.5254 -2016 42 45 79
-175.5 -65.55 -2017 43 46 80
-171.637 -65.6075 -2019 40 43 75
-168.1 -65.7952 -2025 36 39 72
-164.298 -65.8855 -2028 33 36 69
-160.722 -66.0731 -2034 32 35 70
-156.892 -66.1637 -2037 30 33 68
-153.202 -66.3194 -2042 29 33 62
-149.419 -66.4426 -2046 27 31 60
-145.693 -66.5985 -2051 25 30 59
-142.225 -66.8846 -2060 27 29 57
-138.588 -67.1058 -2067 24 25 54
-134.858 -67.2946 -2073 25 26 56
-131.295 -67.581 -2082 26 29 58
-127.392 -67.705 -2086 25 29 58
-123.474 -67.8294 -2090 24 28 56
-119.656 -68.0189 -2096 25 30 58
-115.538 -68.0463 -2097 26 29 63
-111.631 -68.2036 -2102 31 34 67
-107.499 -68.2313 -2103 34 37 69
-446.838 -71.2386 -2038 32 33 58
-443.031 -71.2873 -2040 33 34 60
-438.145 -71.1615 -2037 33 34 60
-433.061 -71.001 -2033 33 34 60
-428.209 -70.876 -2030 33 34 60
-423.581 -70.7858 -2028 32 33 60
-418.139 -70.5565 -2022 31 32 60
-413.543 -70.4671 -2020 35 36 66
-408.554 -70.3081 -2016 36 37 67
-403.385 -70.1145 -2011 38 39 69
-398.835 -70.0258 -2009 38 39 69
-394.297 -69.9372 -2007 36 37 68
-389.965 -69.8838 -2006 32 33 67
-386.024 -69.9004 -2007 27 27 61
-381.893 -69.8821 -2007 22 21 56
-377.577 -69.8295 -2006 23 24 55
-373.267 -69.777 -2005 28 29 60
-368.966 -69.7247 -2004 29 30 62
-364.307 -69.6031 -2001 30 31 63
-360.203 -69.5858 -2001 30 31 63
-355.925 -69.5343 -2000 33 34 67
-351.478 -69.4481 -1998 34 35 68
-347.389 -69.4316 -1998 34 35 69
-343.304 -69.4155 -1998 33 35 71
-339.391 -69.4341 -1999 31 33 70
-335.309 -69.4183 -1999 30 29 64
-331.065 -69.3678 -1998 30 30 65
-326.99 -69.3524 -1998 30 31 66
-323.404 -69.4413 -2001 29 30 61
-319.009 -69.3569 -1999 28 29 60
-315.099 -69.3767 -2000 28 29 60
-310.875 -69.3274 -1999 27 29 61
-306.812 -69.3129 -1999 23 26 59
-302.752 -69.2986 -1999 29 30 60
-298.694 -69.2844 -1999 33 34 65
-294.785 -69.3054 -2000 35 36 69
-290.73 -69.2916 -2000 35 36 69
-286.391 -69.2087 -1998 36 37 71
-282.203 -69.1609 -1997 39 40 72
-278.161 -69.1477 -1997 39 41 72
-274.396 -69.2042 -1999 34 38 67
-270.219 -69.1569 -1998 31 35 64
-266.048 -69.1096 -1997 27 31 60
-262.278 -69.1666 -1999 26 30 57
-258.372 -69.1891 -2000 26 30 57
-254.718 -69.2809 -2003 27 31 60
-251.055 -69.3729 -2006 31 31 63
-247.381 -69.4651 -2009 33 32 65
-243.455 -69.4882 -2010 32 33 60
-239.527 -69.5115 -2011 32 33 61
-235.597 -69.535 -2012 31 32 61
-231.78 -69.5932 -2014 31 32 59
-227.957 -69.6516 -2016 33 34 62
-224.017 -69.6759 -2017 33 36 67
-220.074 -69.7 -2018 32 36 66
-216.022 -69.6898 -2018 33 37 66
-211.867 -69.6453 -2017 32 36 63
-207.718 -69.6012 -2016 32 36 64
-203.877 -69.6606 -2018 32 35 69
-199.634 -69.5823 -2016 33 36 70
-195.595 -69.573 -2016 35 38 72
-191.747 -69.6332 -2018 35 38 72
-187.613 -69.5898 -2017 38 41 75
-183.395 -69.5123 -2015 42 44 79
-179.363 -69.5038 -2015 43 46 80
-175.507 -69.5646 -2017 42 45 79
-171.645 -69.6257 -2019 39 42 73
-168.025 -69.79 -2024 34 37 68
-164.548 -70.0238 -2031 29 32 65
-160.966 -70.2232 -2037 28 31 65
-157.13 -70.3191 -2040 27 30 65
-153.509 -70.5188 -2046 26 29 60
-149.645 -70.6152 -2049 24 28 58
-146.126 -70.8839 -2057 23 28 57
-142.3 -71.0151 -2061 27 29 58
-138.661 -71.2499 -2068 29 30 58
-134.929 -71.4503 -2074 32 33 63
-131.238 -71.6853 -2081 32 35 64
-127.459 -71.8861 -2087 29 33 61
-123.598 -72.0523 -2092 28 33 60
-119.661 -72.1845 -2096 27 31 59
-115.544 -72.2135 -2097 28 31 65
-111.583 -72.3461 -2101 28 31 64
-107.606 -72.4788 -2105 31 34 66
-448.833 -75.6832 -2047 35 38 62
-444.573 -75.6608 -2047 36 37 63
-439.241 -75.4538 -2042 34 35 61
-433.934 -75.2471 -2037 32 33 59
-428.019 -74.9299 -2029 32 33 59
-423.602 -74.8715 -2028 32 33 61
-417.745 -74.555 -2020 33 34 62
-413.563 -74.5343 -2020 39 40 70
-408.372 -74.3293 -2015 40 41 71
-403.605 -74.1981 -2012 38 39 69
-399.251 -74.1412 -2011 35 36 66
-394.709 -74.0476 -2009 33 33 64
-390.761 -74.0647 -2010 29 30 64
-386.62 -74.0455 -2010 25 25 59
-382.482 -74.0262 -2010 22 21 56
-377.783 -73.8966 -2007 24 25 56
-373.658 -73.878 -2007 30 31 62
-368.983 -73.7491 -2004 34 35 67
-364.689 -73.6938 -2003 33 34 66
-360.221 -73.6022 -2001 33 34 67
-356.12 -73.5844 -2001 37 38 72
-351.847 -73.53 -2000 36 37 72
-347.58 -73.4758 -1999 34 35 70
-343.492 -73.4588 -1999 31 32 69
-339.577 -73.4785 -2000 28 28 65
-334.822 -73.3147 -1996 27 26 61
-331.246 -73.4084 -1999 27 27 62
-327.17 -73.3919 -1999 27 28 62
-323.419 -73.4493 -2001 27 28 60
-319.184 -73.3967 -2000 28 29 61
-315.429 -73.4544 -2002 29 30 62
-311.201 -73.4022 -2001 27 29 62
-306.827 -73.3133 -1999 24 27 60
-302.766 -73.2984 -1999 29 30 60
-298.708 -73.2835 -1999 32 33 64
-294.505 -73.2321 -1998 36 37 70
-290.308 -73.1809 -1997 37 38 72
-286.261 -73.1666 -1997 39 40 73
-281.793 -73.0428 -1994 40 41 73
-278.035 -73.1021 -1996 38 40 71
-274.409 -73.1985 -1999 32 35 64
-270.638 -73.2581 -2001 28 32 61
-266.594 -73.2449 -2001 27 31 60
-262.946 -73.3418 -2004 27 31 58
-259.03 -73.3653 -2005 26 30 58
-255.239 -73.4258 -2007 27 31 60
-251.442 -73.4866 -2009 32 32 64
-247.639 -73.5475 -2011 33 32 65
-243.709 -73.5719 -2012 31 32 58
-239.896 -73.6332 -2014 31 32 59
-236.077 -73.6946 -2016 30 31 59
-232.022 -73.683 -2016 31 32 60
-228.081 -73.7082 -2017 34 35 63
-224.028 -73.6971 -2017 32 35 67
-219.976 -73.6864 -2017 32 36 67
-216.033 -73.7121 -2018 35 38 68
-211.982 -73.7015 -2018 33 37 64
-207.831 -73.6549 -2017 32 36 64
-203.887 -73.6812 -2018 33 36 70
-199.743 -73.6347 -2017 35 38 72
-195.701 -73.6251 -2017 37 40 74
-191.661 -73.6155 -2017 40 43 77
-187.436 -73.5334 -2015 44 47 81
-183.494 -73.5607 -2016 47 48 83
-179.283 -73.4789 -2014 42 44 79
-175.603 -73.616 -2018 35 38 73
-171.993 -73.79 -2023 35 39 68
-168.448 -74.0006 -2029 30 33 63
-164.88 -74.2111 -2035 26 29 61
-161.369 -74.4584 -2042 25 28 62
-157.523 -74.5601 -2045 27 30 65
-153.741 -74.6981 -2049 27 30 62
-149.944 -74.8366 -2053 27 31 62
-145.991 -74.9023 -2055 30 34 63
-142.169 -75.0411 -2059 34 36 64
-138.6 -75.3256 -2067 38 39 67
-134.871 -75.5376 -2073 38 39 69
-131.307 -75.8591 -2082 36 38 67
-127.587 -76.1079 -2089 33 37 64
-123.545 -76.1747 -2091 31 36 63
-119.552 -76.2778 -2094 31 36 64
-115.659 -76.4542 -2099 28 31 65
-111.694 -76.5944 -2103 26 29 62
-107.765 -76.7712 -2108 27 30 62
-444.813 -79.8291 -2048 35 37 60
-439.694 -79.6496 -2044 36 37 63
-434.809 -79.5096 -2041 35 36 62
-429.096 -79.2141 -2034 36 37 63
-423.624 -78.9579 -2028 36 37 64
-418.387 -78.7409 -2023 38 39 67
-413.38 -78.5632 -2019 40 43 71
-408.798 -78.4638 -2017 40 42 71
-404.027 -78.3255 -2014 35 36 66
-399.868 -78.3043 -2014 31 31 63
-395.319 -78.2057 -2012 30 29 62
-391.364 -78.2235 -2013 25 26 60
-386.832 -78.1253 -2011 21 22 56
-382.883 -78.1441 -2012 23 22 57
-377.802 -77.9298 -2007 28 29 62
-373.305 -77.8323 -2005 33 34 67
-368.818 -77.7353 -2003 38 39 72
-364.525 -77.677 -2002 38 39 73
-359.879 -77.5417 -1999 38 39 74
-355.96 -77.5617 -2000 37 38 73
-351.865 -77.5429 -2000 35 36 70
-347.424 -77.447 -1998 33 34 68
-343.682 -77.5064 -2000 30 31 66
-339.425 -77.4499 -1999 27 27 64
-335.51 -77.4709 -2000 26 26 60
-331.429 -77.4534 -2000 26 26 59
-327.677 -77.5137 -2002 26 27 59
-323.921 -77.5739 -2004 27 28 58
-319.839 -77.5572 -2004 28 29 58
-315.918 -77.5793 -2005 28 29 59
-311.528 -77.4853 -2003 27 29 59
-306.996 -77.3532 -2000 28 29 60
-302.782 -77.2986 -1999 32 33 64
-298.574 -77.2442 -1998 32 33 64
-294.372 -77.1901 -1997 37 38 71
-290.177 -77.1361 -1996 41 42 75
-285.989 -77.0827 -1995 39 40 73
-281.948 -77.0678 -1995 34 37 69
-277.77 -77.0145 -1994 33 35 66
-274.011 -77.0775 -1996 29 31 61
-270.381 -77.1791 -1999 26 28 58
-266.474 -77.2038 -2000 27 29 59
-262.959 -77.3443 -2004 26 30 57
-259.043 -77.3694 -2005 26 30 57
-255.506 -77.5104 -2009 26 30 59
-251.83 -77.613 -2012 31 32 63
-247.652 -77.5613 -2011 32 33 65
-243.843 -77.6257 -2013 32 33 60
-240.147 -77.7288 -2016 30 32 60
-235.972 -77.6779 -2015 30 33 62
-231.803 -77.6272 -2014 32 35 62
-228.093 -77.7309 -2017 33 35 64
-223.928 -77.6806 -2016 32 36 69
-219.66 -77.5923 -2014 33 37 70
-215.722 -77.6195 -2015 36 39 72
-211.783 -77.6468 -2016 37 40 71
-207.635 -77.5974 -2015 36 40 70
-203.493 -77.5484 -2014 35 38 72
-199.456 -77.5379 -2014 37 41 75
-195.323 -77.4891 -2013 41 45 79
-191.29 -77.4792 -2013 44 47 81
-187.26 -77.4694 -2013 43 46 80
-183.322 -77.4984 -2014 42 44 79
-179.381 -77.5274 -2015 37 41 76
-175.699 -77.6722 -2019 32 36 71
-172.172 -77.8939 -2025 33 37 66
-168.706 -78.1544 -2032 27 31 61
-165.051 -78.3382 -2037 26 29 61
-161.219 -78.445 -2040 29 32 66
-157.531 -78.6291 -2045 32 35 70
-153.674 -78.7365 -2048 32 35 68
-149.806 -78.8439 -2051 33 36 68
-146.069 -79.0285 -2056 33 36 67
-142.245 -79.1749 -2060 34 37 67
-138.473 -79.3598 -2065 36 38 68
-134.812 -79.6216 -2072 37 39 71
-131.314 -79.999 -2082 35 38 69
-127.533 -80.223 -2088 31 35 64
-123.669 -80.4087 -2093 33 38 68
-119.958 -80.7098 -2101 38 43 74
-115.72 -80.6651 -2100 34 37 71
-111.859 -80.8897 -2106 34 37 71
-445.272 -84.0431 -2050 35 38 61
-439.718 -83.7724 -2044 34 35 61
-434.619 -83.5843 -2040 34 35 61
-429.119 -83.3142 -2034 37 38 64
-423.856 -83.0858 -2029 39 40 68
-418.617 -82.8576 -2024 40 41 69
-413.812 -82.7117 -2021 38 42 69
-409.023 -82.566 -2018 33 36 64
-404.25 -82.4206 -2015 27 28 58
-400.088 -82.3981 -2015 25 24 57
-395.733 -82.3353 -2014 25 24 57
-391.58 -82.3135 -2014 23 24 58
-387.046 -82.21 -2012 23 24 58
-382.903 -82.1887 -2012 25 26 60
-378.199 -82.045 -2009 31 32 66
-373.511 -81.9017 -2006 36 37 71
-369.206 -81.8405 -2005 38 39 73
-364.727 -81.7385 -2003 38 39 74
-360.079 -81.5961 -2000 38 39 74
-356.336 -81.6578 -2002 34 35 70
-352.06 -81.5975 -2001 31 32 66
-347.617 -81.4967 -1999 29 30 64
-343.7 -81.5184 -2000 30 31 65
-339.613 -81.4995 -2000 28 29 64
-335.193 -81.3994 -1998 25 26 60
-331.115 -81.381 -1998 24 25 58
-327.531 -81.485 -2001 25 26 57
-323.615 -81.5079 -2002 28 29 59
-319.697 -81.5308 -2003 29 30 60
-315.62 -81.5134 -2003 30 31 61
-311.234 -81.4146 -2001 32 33 64
-306.706 -81.2757 -1998 35 36 66
-302.344 -81.1776 -1996 36 37 70
-298.142 -81.1205 -1995 38 39 72
-294.093 -81.1042 -1995 40 41 74
-289.902 -81.0476 -1994 41 42 74
-286.004 -81.0724 -1995 36 37 69
-281.963 -81.0568 -1995 28 31 63
-278.064 -81.082 -1996 28 30 61
-274.575 -81.2295 -2000 27 28 59
-270.801 -81.2956 -2002 26 27 57
-267.021 -81.3623 -2004 27 28 58
-263.498 -81.51 -2008 27 31 58
-259.703 -81.577 -2010 27 30 58
-255.774 -81.6033 -2011 28 31 61
-251.844 -81.6301 -2012 30 31 63
-247.788 -81.6165 -2012 31 32 65
-243.856 -81.6437 -2013 30 32 61
-240.159 -81.7519 -2016 29 32 61
-236.102 -81.7389 -2016 29 33 62
-231.931 -81.6856 -2015 32 36 63
-227.992 -81.7136 -2016 33 37 64
-223.607 -81.5797 -2013 31 36 67
-219.453 -81.5273 -2012 31 35 68
-215.306 -81.4749 -2011 36 38 72
-211.374 -81.5037 -2012 36 39 72
-207.337 -81.4923 -2012 36 40 73
-203.201 -81.4406 -2011 38 42 76
-199.268 -81.4703 -2012 42 46 80
-195.042 -81.3785 -2010 46 50 85
-191.3 -81.4893 -2013 46 49 83
-187.27 -81.4792 -2013 40 43 77
-183.513 -81.5904 -2016 38 41 76
-179.657 -81.6616 -2018 34 38 73
-176.143 -81.8946 -2024 31 35 70
-172.521 -82.0876 -2029 29 33 62
-168.881 -82.2804 -2034 28 32 62
-164.978 -82.3523 -2036 32 35 67
-161.386 -82.5863 -2042 37 40 74
-157.308 -82.5774 -2042 38 41 76
-153.457 -82.6904 -2045 35 38 72
-149.522 -82.7631 -2047 34 37 70
-146.006 -83.0784 -2055 34 37 69
-142.115 -83.1919 -2058 34 37 69
-138.413 -83.4269 -2064 35 38 70
-134.819 -83.7429 -2072 36 39 73
-131.195 -84.0588 -2080 35 38 71
-127.845 -84.5772 -2093 32 35 67
-123.735 -84.6108 -2094 32 35 69
-120.021 -84.9275 -2102 33 36 70
-116.002 -85.0424 -2105 34 37 71
-112.449 -85.521 -2117 36 39 73
-445.949 -88.3089 -2053 34 38 61
-440.389 -88.0249 -2047 32 33 59
-435.07 -87.7843 -2042 33 34 60
-429.565 -87.5013 -2036 38 39 65
-424.089 -87.2183 -2030 41 42 69
-418.641 -86.9361 -2024 40 41 69
-413.836 -86.7827 -2021 35 39 66
-409.654 -86.7587 -2021 27 30 58
-404.874 -86.6062 -2018 24 25 55
-400.706 -86.5827 -2018 24 23 56
-396.148 -86.4738 -2016 24 23 56
-391.797 -86.4079 -2015 25 26 60
-387.26 -86.2996 -2013 28 29 63
-382.544 -86.1484 -2010 30 31 65
-378.033 -86.0406 -2008 35 36 71
-373.346 -85.8903 -2005 38 39 74
-369.043 -85.8259 -2004 39 40 74
-364.565 -85.7189 -2002 37 38 72
-360.099 -85.6122 -2000 35 36 71
-356.178 -85.6343 -2001 33 34 69
-352.079 -85.6137 -2001 29 30 65
-347.81 -85.5507 -2000 28 29 63
-343.892 -85.5735 -2001 30 31 66
-339.802 -85.5538 -2001 31 32 67
-335.379 -85.4487 -1999 28 29 63
-331.134 -85.3867 -1998 27 28 62
-327.55 -85.4958 -2001 29 30 63
-323.31 -85.4342 -2000 29 30 62
-319.555 -85.501 -2002 29 30 62
-315.48 -85.4828 -2002 32 33 65
-311.563 -85.5073 -2003 35 36 67
-307.03 -85.3615 -2000 37 38 68
-302.664 -85.2586 -1998 40 42 76
-298.457 -85.1985 -1997 44 47 81
-294.257 -85.1388 -1996 43 44 78
-289.919 -85.0367 -1994 40 41 74
-286.02 -85.0627 -1995 37 38 70
-282.12 -85.089 -1996 30 31 63
-277.94 -85.0302 -1995 29 30 62
-274.316 -85.1424 -1998 27 28 60
-270.546 -85.2119 -2000 26 27 58
-266.77 -85.2815 -2002 27 28 58
-263.251 -85.4368 -2006 27 31 58
-259.588 -85.5495 -2009 28 31 59
-255.534 -85.5348 -2009 30 31 61
-251.733 -85.6053 -2011 31 32 65
-247.802 -85.6336 -2012 32 33 67
-243.869 -85.6621 -2013 31 34 63
-239.696 -85.6057 -2012 31 34 63
-235.881 -85.6772 -2014 31 35 64
-231.598 -85.5788 -2012 33 37 64
-227.552 -85.5654 -2012 34 38 65
-223.397 -85.51 -2011 31 35 63
-219.138 -85.4125 -2009 31 34 65
-215.318 -85.4851 -2011 37 38 72
-211.071 -85.3879 -2009 34 39 72
-207.039 -85.3759 -2009 36 41 74
-202.707 -85.2366 -2006 43 47 82
-198.685 -85.2251 -2006 47 51 86
-194.762 -85.2565 -2007 48 52 87
-190.931 -85.3304 -2009 43 46 81
-187.001 -85.362 -2010 35 38 73
-183.524 -85.6064 -2016 34 37 72
-179.846 -85.7657 -2020 32 35 70
-176.327 -86.0104 -2026 30 33 68
-172.701 -86.2126 -2031 31 35 64
-168.807 -86.2879 -2033 33 36 66
-164.745 -86.2783 -2033 37 40 72
-160.92 -86.3964 -2036 40 43 77
-156.932 -86.4299 -2037 39 42 77
-153.09 -86.5482 -2040 37 40 74
-149.384 -86.7518 -2045 36 39 72
-145.801 -87.0404 -2052 36 39 71
-142.122 -87.2865 -2058 36 39 71
-138.354 -87.4906 -2063 35 38 70
-134.632 -87.7374 -2069 36 39 73
-131.076 -88.1115 -2078 35 38 72
