ply
format ascii 1.0
comment Created by Open3D
element vertex 1367
property double x
property double y
property double z
property uchar red
property uchar green
property uchar blue
end_header
-261.229 -342.053 -1855 67 71 111
-256.879 -341.25 -1851 54 58 99
-252.684 -340.633 -1848 62 67 110
-248.773 -340.386 -1847 50 55 97
-244.47 -339.586 -1843 44 48 90
-240.316 -338.973 -1840 58 63 99
-236.177 -338.36 -1837 63 67 100
-232.304 -338.117 -1836 69 73 101
-228.562 -338.059 -1836 57 61 92
-224.7 -337.818 -1835 41 45 75
-221.084 -337.947 -1836 38 43 69
-217.348 -337.892 -1836 59 61 89
-213.846 -338.205 -1838 56 58 87
-210.11 -338.152 -1838 58 63 90
-206.375 -338.1 -1838 53 57 84
-202.641 -338.049 -1838 54 59 83
-198.693 -337.631 -1836 56 60 90
-194.861 -337.398 -1835 54 58 89
-191.347 -337.717 -1837 42 45 77
-187.827 -338.037 -1839 41 44 78
-184.3 -338.358 -1841 35 38 73
-180.864 -338.864 -1844 32 36 73
-177.034 -338.635 -1843 31 35 73
-173.303 -338.592 -1843 48 54 95
-169.574 -338.549 -1843 102 108 150
-165.756 -338.323 -1842 117 123 166
-162.295 -338.833 -1845 114 121 159
-158.738 -339.16 -1847 112 119 155
-155.341 -339.856 -1851 130 137 170
-151.766 -340.184 -1853 152 159 196
-148.104 -340.331 -1854 165 172 210
-144.284 -340.111 -1853 176 183 221
-140.772 -340.626 -1856 139 144 181
-137.397 -341.509 -1861 100 104 141
-134.003 -342.392 -1866 137 140 177
-130.8 -343.827 -1874 152 156 194
-127.429 -344.896 -1880 163 169 209
-123.773 -345.231 -1882 131 140 180
-120.045 -345.384 -1883 113 122 162
-116.315 -345.538 -1884 120 127 160
-112.581 -345.693 -1885 67 74 102
-108.902 -346.032 -1887 121 127 150
-105.328 -346.739 -1891 170 176 197
-101.899 -347.997 -1898 175 181 204
-98.2875 -348.705 -1902 127 134 165
-94.8595 -350.148 -1910 135 141 174
-91.1144 -350.491 -1912 145 152 185
-87.3163 -350.653 -1913 119 123 161
-83.733 -351.731 -1919 169 174 211
-80.1263 -352.811 -1925 188 195 231
-76.4169 -353.524 -1929 184 191 225
-72.7673 -354.605 -1935 152 159 193
-69.2009 -356.237 -1944 137 141 177
-65.4311 -356.953 -1948 167 172 210
-61.2351 -355.288 -1939 163 169 209
-367.397 -377.946 -2018 88 93 117
-364.473 -379.163 -2025 83 88 115
-360.099 -378.882 -2024 60 64 95
-355.205 -378.042 -2020 38 41 73
-349.288 -376.08 -2010 29 34 65
-342.213 -372.811 -1993 33 38 68
-335.042 -369.358 -1975 40 45 74
-328.618 -366.655 -1961 31 38 72
-323.248 -365.075 -1953 69 77 112
-318.405 -364.059 -1948 79 92 131
-314.23 -363.791 -1947 91 104 143
-308.946 -362.217 -1939 83 97 136
-304.013 -361.018 -1933 98 112 155
-297.244 -357.579 -1915 115 129 176
-290.705 -354.33 -1898 118 132 185
-284.842 -351.83 -1885 75 88 138
-279.781 -350.265 -1877 43 54 104
-275.343 -349.448 -1873 48 56 103
-270.489 -348.072 -1866 108 117 161
-265.951 -347.071 -1861 103 112 154
-261.436 -346.072 -1856 119 123 162
-256.944 -345.073 -1851 97 100 140
-252.885 -344.636 -1849 86 88 130
-248.701 -344.013 -1846 81 85 125
-244.665 -343.577 -1844 81 85 124
-240.508 -342.957 -1841 44 47 81
-236.494 -342.524 -1839 60 63 92
-232.49 -342.092 -1837 74 76 100
-228.745 -342.033 -1837 57 58 86
-224.634 -341.417 -1834 81 83 109
-221.02 -341.546 -1835 81 83 106
-217.285 -341.491 -1835 87 87 112
-213.9 -341.994 -1838 60 60 85
-210.163 -341.941 -1838 91 93 117
-206.427 -341.888 -1838 82 84 107
-202.692 -341.836 -1838 56 59 80
-198.527 -341.041 -1834 68 72 97
-195.017 -341.363 -1836 70 74 100
-191.395 -341.5 -1837 36 40 68
-187.976 -342.01 -1840 38 41 72
-184.346 -342.149 -1841 31 34 68
-180.812 -342.474 -1843 34 38 75
-176.982 -342.243 -1842 47 52 90
-173.159 -342.013 -1841 62 68 110
-169.616 -342.341 -1843 142 149 191
-165.887 -342.299 -1843 177 184 227
-162.688 -343.372 -1849 160 168 207
-159.035 -343.517 -1850 164 172 208
-155.464 -343.848 -1852 185 192 225
-151.804 -343.995 -1853 190 197 234
-148.142 -344.143 -1854 195 202 240
-144.242 -343.735 -1852 171 177 217
-140.732 -344.256 -1855 144 149 188
-137.284 -344.963 -1859 170 175 212
-133.893 -345.857 -1864 171 174 211
-130.623 -347.122 -1871 156 161 199
-127.326 -348.388 -1878 166 174 214
-123.672 -348.727 -1880 123 133 172
-119.82 -348.511 -1879 129 139 178
-116.282 -349.223 -1883 167 174 207
-112.609 -349.565 -1885 182 189 218
-109.103 -350.465 -1890 166 172 197
-105.465 -350.994 -1893 157 163 185
-102.032 -352.266 -1900 172 178 202
-98.3636 -352.797 -1903 189 196 229
-94.7839 -353.699 -1908 179 187 222
-91.0895 -354.232 -1911 184 192 229
-87.2924 -354.395 -1912 180 184 226
-83.6666 -355.3 -1917 198 203 245
-80.0631 -356.391 -1923 194 200 240
-76.3171 -356.928 -1926 176 183 218
-72.6726 -358.021 -1932 173 180 214
-69.0758 -359.486 -1940 164 169 202
-65.2123 -359.654 -1941 169 175 213
-61.0293 -357.971 -1932 148 154 196
-369.131 -383.842 -2027 92 97 122
-365.827 -384.693 -2032 98 103 131
-360.548 -383.463 -2026 85 90 121
-355.121 -382.045 -2019 77 82 113
-349.378 -380.251 -2010 34 39 69
-342.301 -376.946 -1993 27 32 62
-334.959 -373.265 -1974 33 38 67
-328.535 -370.532 -1960 25 32 66
-323.332 -369.124 -1953 73 81 115
-317.996 -367.529 -1945 107 120 156
-313.826 -367.258 -1944 102 115 152
-308.866 -366.045 -1938 108 121 158
-303.304 -364.077 -1928 108 121 164
-297.475 -361.733 -1916 110 122 169
-290.779 -358.259 -1898 122 136 187
-284.613 -355.354 -1883 76 89 140
-279.555 -353.772 -1875 33 46 96
-274.825 -352.568 -1869 67 77 124
-270.123 -351.366 -1863 121 131 175
-265.876 -350.731 -1860 126 136 178
-261.503 -349.909 -1856 135 138 177
-256.871 -348.711 -1850 140 142 181
-252.813 -348.269 -1848 140 140 180
-248.361 -347.262 -1843 101 103 141
-244.595 -347.199 -1843 84 87 123
-240.439 -346.571 -1840 90 91 122
-236.425 -346.133 -1838 96 96 123
-232.422 -345.696 -1836 57 57 79
-228.554 -345.449 -1835 27 26 50
-224.569 -345.014 -1833 102 101 125
-220.956 -345.145 -1834 121 121 143
-217.103 -344.901 -1833 120 118 140
-213.489 -345.034 -1834 114 111 133
-210.102 -345.544 -1837 98 98 120
-206.142 -345.114 -1835 100 100 122
-202.303 -344.874 -1834 56 59 79
-198.577 -344.822 -1834 85 89 111
-195.066 -345.148 -1836 65 69 92
-191.34 -345.098 -1836 33 37 61
-187.82 -345.426 -1838 33 36 65
-184.393 -345.942 -1841 37 40 73
-180.662 -345.895 -1841 43 47 84
-176.931 -345.849 -1841 68 73 112
-173.109 -345.617 -1840 81 87 130
-169.936 -346.7 -1846 135 143 185
-166.11 -346.469 -1845 157 165 207
-162.465 -346.615 -1846 163 171 211
-158.99 -347.137 -1849 191 198 235
-155.672 -348.036 -1854 190 197 230
-152.007 -348.184 -1855 184 191 228
-148.499 -348.709 -1858 189 197 235
-144.746 -348.671 -1858 185 192 233
-141.071 -348.823 -1859 149 156 193
-137.541 -349.35 -1862 135 142 178
-134.287 -350.629 -1869 140 143 180
-130.447 -350.407 -1868 160 165 202
-127.087 -351.5 -1874 159 167 207
-123.572 -352.218 -1878 133 142 181
-119.787 -352.187 -1878 141 151 189
-116.25 -352.907 -1882 134 141 176
-112.459 -352.878 -1882 169 176 208
-109.015 -353.975 -1888 179 186 216
-105.492 -354.885 -1893 168 173 199
-101.95 -355.796 -1898 175 180 207
-98.3886 -356.708 -1903 200 207 241
-94.7582 -357.433 -1907 181 188 227
-91.0172 -357.784 -1909 160 167 208
-87.1318 -357.574 -1908 172 175 224
-83.6878 -359.239 -1917 180 185 231
-79.9167 -359.593 -1919 179 185 228
-76.3761 -361.072 -1927 134 141 178
-72.691 -361.99 -1932 135 142 178
-69.1645 -363.845 -1942 147 152 185
-65.3296 -364.203 -1944 149 155 194
-61.3291 -363.625 -1941 155 161 204
-56.9566 -360.613 -1925 181 188 222
-369.41 -388.247 -2028 129 134 161
-365.743 -388.725 -2031 139 144 173
-360.642 -387.672 -2026 135 140 170
-355.389 -386.43 -2020 138 143 173
-349.295 -384.234 -2009 38 44 73
-342.563 -381.274 -1994 24 30 59
-335.385 -377.744 -1976 56 61 90
-328.621 -374.599 -1960 79 86 119
-323.581 -373.367 -1954 72 80 114
-318.242 -371.754 -1946 112 124 158
-313.908 -371.29 -1944 115 127 162
-308.787 -369.871 -1937 112 124 159
-303.383 -368.073 -1928 104 114 156
-297.397 -365.513 -1915 140 151 196
-291.314 -362.764 -1901 135 147 197
-285.292 -360.018 -1887 62 74 124
-279.776 -357.845 -1876 30 43 92
-274.897 -356.438 -1869 80 90 136
-270.048 -355.032 -1862 141 151 195
-265.373 -353.818 -1856 153 163 205
-261.289 -353.368 -1854 160 164 205
-256.938 -352.539 -1850 164 167 206
-252.605 -351.71 -1846 160 159 195
-248.425 -351.073 -1843 68 68 103
-244.525 -350.819 -1842 65 65 100
-240.37 -350.184 -1839 112 112 141
-236.487 -349.932 -1838 93 92 118
-232.609 -349.68 -1837 86 85 106
-228.738 -349.43 -1836 93 91 114
-224.627 -348.801 -1833 70 69 91
-221.133 -349.123 -1835 80 79 99
-217.278 -348.876 -1834 91 89 109
-213.777 -349.201 -1836 105 101 121
-210.042 -349.146 -1836 54 53 73
-206.308 -349.092 -1836 58 59 79
-202.355 -348.658 -1834 116 120 140
-198.629 -348.606 -1834 150 153 174
-195.223 -349.126 -1837 107 111 132
-191.598 -349.266 -1838 54 58 80
-188.073 -349.596 -1840 34 37 64
-184.541 -349.928 -1842 37 38 70
-180.708 -349.691 -1841 50 54 92
-176.977 -349.645 -1841 118 123 162
-173.153 -349.41 -1840 127 133 176
-169.703 -349.935 -1843 102 109 153
-166.062 -350.081 -1844 148 156 200
-162.507 -350.419 -1846 167 175 213
-159.031 -350.946 -1849 187 195 231
-155.628 -351.665 -1853 177 184 217
-151.964 -351.815 -1854 181 189 227
-148.457 -352.345 -1857 193 201 239
-144.472 -351.739 -1854 180 188 228
-141.183 -352.84 -1860 112 119 157
-137.428 -352.804 -1860 123 130 166
-133.89 -353.338 -1863 154 157 194
-130.41 -354.062 -1867 162 167 204
-126.712 -354.219 -1868 124 132 170
-123.143 -354.756 -1871 150 159 198
-119.69 -355.672 -1876 170 180 218
-116.156 -356.4 -1880 156 163 199
-112.547 -356.939 -1883 171 179 213
-109.101 -358.048 -1889 178 186 219
-105.463 -358.589 -1892 180 185 215
-101.976 -359.7 -1898 190 196 227
-98.1552 -359.674 -1898 199 206 245
-94.4843 -360.218 -1901 190 196 240
-90.8974 -361.141 -1906 118 125 170
-87.1085 -361.308 -1907 114 117 167
-83.5346 -362.423 -1913 122 127 175
-79.9372 -363.538 -1919 157 163 207
-76.4352 -365.223 -1928 161 168 205
-72.7848 -366.34 -1934 125 132 168
-69.1822 -367.838 -1942 119 124 157
-65.279 -367.82 -1942 133 138 177
-61.408 -367.993 -1943 130 136 179
-57.0007 -364.758 -1926 142 149 182
-366.199 -393.336 -2033 132 137 166
-360.737 -391.885 -2026 125 130 159
-355.483 -390.629 -2020 140 145 174
-349.214 -388.216 -2008 39 46 75
-343.34 -386.191 -1998 35 42 71
-336.493 -383.008 -1982 94 101 130
-329.882 -380.022 -1967 105 113 146
-324.329 -378.197 -1958 68 76 109
-318.49 -375.987 -1947 107 118 151
-313.829 -375.131 -1943 130 141 174
-308.868 -373.89 -1937 115 126 159
-303.62 -372.265 -1929 102 110 149
-297.476 -369.484 -1915 154 162 204
-291.084 -366.32 -1899 167 176 223
-285.215 -363.736 -1886 100 112 159
-279.402 -361.155 -1873 55 67 114
-274.527 -359.732 -1866 102 111 153
-269.683 -358.311 -1859 146 155 195
-265.157 -357.277 -1854 167 175 213
-261.076 -356.822 -1852 173 177 215
-257.005 -356.369 -1850 183 186 223
-252.671 -355.531 -1846 142 141 175
-248.625 -355.08 -1844 115 115 149
-244.589 -354.63 -1842 108 108 142
-240.564 -354.181 -1840 136 137 165
-236.806 -354.118 -1840 143 143 169
-232.67 -353.479 -1837 136 136 157
-228.922 -353.419 -1837 147 146 167
-224.931 -352.974 -1835 95 94 115
-221.311 -353.108 -1836 102 101 118
-217.69 -353.243 -1837 70 68 84
-213.949 -353.186 -1837 103 100 116
-209.753 -352.362 -1833 32 31 51
-206.249 -352.692 -1835 73 73 93
-202.518 -352.638 -1835 157 160 180
-198.897 -352.778 -1836 178 182 204
-195.274 -352.918 -1837 183 187 210
-191.752 -353.252 -1839 154 157 180
-188.122 -353.394 -1840 73 75 102
-184.388 -353.345 -1840 33 34 66
-180.657 -353.297 -1840 86 93 129
-176.927 -353.251 -1840 127 133 172
-173.386 -353.589 -1842 110 116 161
-169.747 -353.736 -1843 90 97 142
-166.106 -353.884 -1844 155 162 207
-162.637 -354.417 -1847 189 198 237
-158.9 -354.375 -1847 189 198 236
-155.5 -355.101 -1851 179 187 225
-152.003 -355.637 -1854 181 190 228
-148.496 -356.173 -1857 187 196 234
-144.743 -356.134 -1857 163 171 209
-141.524 -357.439 -1864 113 120 155
-137.686 -357.211 -1863 111 117 151
-133.925 -357.176 -1863 147 149 186
-130.235 -357.333 -1864 120 123 160
-126.881 -358.45 -1870 131 138 175
-123.241 -358.801 -1872 161 169 205
-119.466 -358.769 -1872 175 183 219
-116.001 -359.696 -1877 169 176 211
-112.457 -360.433 -1881 176 183 218
-109.013 -361.554 -1887 164 171 205
-105.212 -361.526 -1887 166 172 202
-101.841 -363.032 -1895 178 185 216
-98.1806 -363.581 -1898 181 189 229
-94.5088 -364.13 -1901 191 198 245
-90.7302 -364.297 -1902 104 111 162
-87.0853 -365.041 -1906 68 74 127
-83.5998 -366.55 -1914 57 62 114
-79.8328 -366.912 -1916 121 125 176
-76.3757 -368.807 -1926 167 173 211
-72.6154 -369.362 -1929 163 170 206
-69.0575 -371.067 -1938 133 138 172
-65.2286 -371.432 -1940 136 141 181
-61.329 -371.416 -1940 122 128 171
-57.0746 -369.103 -1928 110 117 149
-370.335 -397.471 -2032 113 119 146
-366.658 -397.959 -2035 127 132 164
-361.19 -396.492 -2028 137 142 173
-356.106 -395.418 -2023 133 138 168
-350.002 -393.174 -2012 67 76 108
-344.291 -391.322 -2003 58 68 100
-337.262 -387.91 -1986 95 106 139
-330.64 -384.891 -1971 104 115 147
-324.25 -382.07 -1957 81 92 124
-318.902 -380.422 -1949 139 151 184
-313.589 -378.776 -1941 155 166 200
-308.312 -377.132 -1933 142 153 187
-303.071 -375.49 -1925 132 141 174
-297.244 -373.069 -1913 154 163 199
-291.315 -370.455 -1900 162 172 212
-285.291 -367.649 -1886 136 146 187
-279.476 -365.04 -1873 100 110 151
-274.6 -363.602 -1866 108 117 150
-269.465 -361.776 -1857 147 154 185
-265.084 -360.925 -1853 136 142 171
-260.863 -360.271 -1850 138 143 176
-256.795 -359.812 -1848 177 181 214
-252.601 -359.161 -1845 138 141 173
-248.691 -358.899 -1844 126 129 161
-244.654 -358.444 -1842 150 153 185
-240.627 -357.991 -1840 106 110 139
-236.611 -357.538 -1838 99 102 128
-232.731 -357.281 -1837 116 118 141
-228.858 -357.026 -1836 129 130 150
-224.868 -356.576 -1834 42 43 63
-221.37 -356.906 -1836 77 78 92
-217.629 -356.848 -1836 114 114 127
-214.006 -356.985 -1837 160 159 172
-210.152 -356.734 -1836 152 153 173
-206.416 -356.679 -1836 165 166 186
-202.461 -356.236 -1834 176 178 198
-198.841 -356.377 -1835 175 177 204
-195.219 -356.519 -1836 199 200 230
-191.698 -356.857 -1838 196 197 223
-188.069 -357.001 -1839 169 170 198
-184.437 -357.145 -1840 71 72 102
-180.704 -357.097 -1840 108 115 150
-176.973 -357.05 -1840 151 158 196
-173.15 -356.809 -1839 139 144 193
-169.516 -356.958 -1840 160 167 213
-165.879 -357.108 -1841 195 202 247
-162.416 -357.646 -1844 193 206 245
-158.856 -357.992 -1846 193 204 246
-155.373 -358.532 -1849 194 201 248
-151.715 -358.685 -1850 171 180 220
-148.375 -359.615 -1855 165 175 213
-144.703 -359.77 -1856 131 138 172
-141.257 -360.508 -1860 136 142 174
-137.722 -361.053 -1863 101 106 137
-134.247 -361.792 -1867 127 127 165
-130.408 -361.563 -1866 111 112 149
-126.643 -361.529 -1866 161 165 202
-123.207 -362.465 -1871 183 190 224
-119.497 -362.627 -1872 150 157 190
-116.155 -363.952 -1879 151 158 192
-112.426 -364.115 -1880 185 190 225
-109.042 -365.442 -1887 190 194 228
-105.184 -365.22 -1886 192 199 226
-101.599 -365.967 -1890 172 180 209
-97.9993 -366.716 -1894 150 158 198
-94.4837 -367.852 -1900 171 180 230
-90.6107 -367.634 -1899 87 96 153
-87.0166 -368.579 -1904 52 60 117
-83.4469 -369.718 -1910 32 37 96
-79.7704 -370.471 -1914 65 63 126
-76.237 -371.999 -1922 134 140 180
-72.5214 -372.753 -1926 187 194 230
-69.0755 -375.057 -1938 168 171 208
-65.2121 -375.233 -1939 137 141 182
-61.4082 -375.797 -1942 156 162 205
-57.1488 -373.459 -1930 144 151 182
-371.347 -402.693 -2037 107 114 139
-366.576 -402 -2034 112 116 151
-360.931 -400.32 -2026 109 114 147
-355.498 -398.84 -2019 84 89 121
-349.401 -396.572 -2008 125 136 169
-343.696 -394.701 -1999 109 121 155
-337.352 -392.042 -1986 113 126 163
-331.065 -389.385 -1973 102 114 147
-325 -386.929 -1961 134 146 178
-319.315 -384.869 -1951 155 167 200
-313.674 -382.811 -1941 154 165 200
-308.714 -381.543 -1935 150 159 195
-303.153 -379.489 -1925 139 147 180
-297.634 -377.437 -1915 144 153 187
-291.393 -374.401 -1900 143 154 189
-285.822 -372.156 -1889 161 171 208
-279.85 -369.322 -1875 105 114 152
-275.115 -368.065 -1869 117 125 157
-270.118 -366.416 -1861 158 164 195
-265.584 -365.36 -1856 144 149 178
-260.792 -363.911 -1849 140 147 179
-256.725 -363.448 -1847 167 172 205
-252.805 -363.182 -1846 140 143 176
-248.892 -362.918 -1845 136 139 171
-245.118 -362.852 -1845 133 136 168
-240.692 -361.803 -1840 96 100 129
-236.674 -361.346 -1838 123 127 153
-232.793 -361.086 -1837 120 122 145
-229.044 -361.024 -1837 113 113 135
-225.418 -361.16 -1838 72 72 93
-221.911 -361.493 -1840 92 93 111
-217.805 -360.844 -1837 121 121 139
-214.063 -360.787 -1837 144 145 162
-210.208 -360.533 -1836 191 193 214
-206.359 -360.281 -1835 189 191 212
-202.405 -359.834 -1833 186 188 208
-198.894 -360.173 -1835 180 181 209
-195.271 -360.316 -1836 196 197 227
-191.54 -360.264 -1836 200 201 227
-187.914 -360.41 -1837 197 198 226
-184.285 -360.556 -1838 145 146 176
-180.556 -360.507 -1838 94 101 143
-176.924 -360.656 -1839 161 168 213
-173.196 -360.609 -1839 188 193 246
-169.653 -360.955 -1841 189 195 245
-166.103 -361.302 -1843 192 199 247
-162.635 -361.847 -1846 196 206 249
-158.984 -362 -1847 196 205 248
-155.414 -362.35 -1849 191 198 242
-151.837 -362.701 -1851 175 184 223
-148.494 -363.64 -1856 177 186 223
-144.82 -363.797 -1857 150 157 193
-141.37 -364.543 -1861 132 138 172
-137.832 -365.093 -1864 155 160 193
-134.211 -365.448 -1866 166 166 203
-130.513 -365.609 -1867 166 167 203
-126.88 -365.966 -1869 149 153 189
-123.305 -366.52 -1872 178 185 218
-119.592 -366.684 -1873 150 157 190
-116.185 -367.827 -1879 150 157 191
-112.277 -367.405 -1877 174 181 214
-108.897 -368.746 -1884 182 187 220
-105.044 -368.522 -1883 193 200 230
-101.626 -369.864 -1890 178 185 217
-97.87 -370.033 -1891 165 172 216
-94.3595 -371.182 -1897 157 166 219
-90.6347 -371.548 -1899 83 93 152
-87.1311 -372.894 -1906 50 57 119
-83.469 -373.654 -1910 49 53 115
-79.8748 -374.806 -1916 117 115 177
-76.2175 -375.763 -1921 177 180 224
-72.5783 -376.917 -1927 186 191 232
-68.9156 -378.072 -1933 159 163 203
-65.1957 -379.032 -1938 114 120 159
-61.3613 -379.407 -1940 158 165 205
-57.1934 -377.631 -1931 139 146 177
-370.719 -406.142 -2033 113 121 146
-366.136 -405.642 -2031 84 88 123
-361.029 -404.544 -2026 89 94 129
-355.771 -403.247 -2020 115 122 156
-349.496 -400.755 -2008 156 167 200
-343.962 -399.064 -2000 158 169 204
-338.124 -396.975 -1990 128 141 178
-332.162 -394.69 -1979 50 61 94
-326.249 -392.406 -1968 81 92 124
-320.384 -390.124 -1957 121 132 165
-314.405 -387.646 -1945 125 135 169
-309.277 -386.165 -1938 132 140 176
-303.707 -384.089 -1928 128 136 170
-297.715 -381.418 -1915 161 170 204
-291.626 -378.549 -1901 160 171 204
-285.899 -376.081 -1889 165 174 209
-280.075 -373.416 -1876 148 156 192
-275.043 -371.748 -1868 172 179 210
-270.046 -370.082 -1860 167 173 204
-265.227 -368.616 -1853 156 161 191
-260.721 -367.55 -1848 149 156 188
-256.377 -366.684 -1844 146 152 185
-252.874 -367.013 -1846 116 119 153
-248.689 -366.348 -1843 125 128 161
-244.785 -366.082 -1842 152 155 187
-240.626 -365.42 -1839 145 149 178
-236.738 -365.157 -1838 129 132 159
-232.983 -365.093 -1838 87 89 112
-229.23 -365.03 -1838 51 51 74
-225.234 -364.571 -1836 151 151 174
-221.609 -364.709 -1837 159 159 181
-217.983 -364.848 -1838 149 149 171
-214.121 -364.591 -1837 151 151 173
-210.264 -364.335 -1836 187 189 214
-206.639 -364.477 -1837 187 189 213
-202.79 -364.223 -1836 191 193 215
-199.056 -364.169 -1836 195 196 223
-195.217 -363.917 -1835 203 204 233
-191.592 -364.063 -1836 198 200 225
-187.965 -364.21 -1837 199 200 228
-184.335 -364.358 -1838 182 183 214
-180.604 -364.309 -1838 88 94 142
-176.875 -364.261 -1838 105 112 163
-173.336 -364.609 -1840 126 130 190
-169.698 -364.761 -1841 151 157 212
-166.058 -364.914 -1842 168 175 227
-162.767 -365.86 -1847 181 189 235
-158.94 -365.619 -1846 188 196 240
-155.456 -366.171 -1849 170 176 218
-151.878 -366.525 -1851 176 184 222
-148.214 -366.682 -1852 173 181 218
-144.546 -366.841 -1853 165 170 208
-141.332 -368.188 -1860 150 156 191
-137.869 -368.943 -1864 139 144 177
-134.247 -369.302 -1866 158 159 194
-130.758 -370.058 -1870 156 158 193
-127.117 -370.418 -1872 134 138 173
-123.668 -371.374 -1877 186 192 226
-120.008 -371.737 -1879 175 181 214
-116.464 -372.497 -1883 162 169 203
-112.845 -373.059 -1886 180 186 219
-109.042 -373.029 -1886 181 186 219
-105.24 -373 -1886 190 196 229
-101.546 -373.368 -1888 179 186 221
-97.948 -374.132 -1892 168 175 221
-94.3847 -375.095 -1897 128 138 193
-90.7543 -375.861 -1901 85 96 156
-87.3373 -377.617 -1910 57 62 128
-83.7098 -378.582 -1915 45 48 111
-80.0212 -379.351 -1919 114 113 172
-76.3172 -380.121 -1923 157 159 207
-72.5976 -380.891 -1927 140 144 189
-68.8269 -381.465 -1930 143 147 190
-65.1121 -382.435 -1935 120 126 165
-61.1877 -382.221 -1934 136 143 181
-57.0606 -380.624 -1926 99 106 137
-370.639 -410.184 -2032 134 142 167
-365.876 -409.476 -2029 151 155 190
-360.416 -407.963 -2022 145 151 186
-355.341 -406.855 -2017 137 144 179
-349.592 -404.942 -2008 160 171 204
-344.057 -403.233 -2000 164 175 209
-338.727 -401.727 -1993 128 141 178
-333.093 -399.82 -1984 47 59 93
-327.334 -397.714 -1974 24 35 69
-321.618 -395.61 -1964 42 51 87
-315.947 -393.508 -1954 80 88 124
-310.16 -391.206 -1943 110 118 152
-304.421 -388.907 -1932 127 135 170
-298.73 -386.609 -1921 152 161 196
-292.32 -383.308 -1905 166 177 210
-286.129 -380.211 -1890 165 173 207
-280.152 -377.317 -1876 154 161 196
-275.265 -375.832 -1869 188 195 226
-270.265 -374.149 -1861 183 190 221
-265.729 -373.07 -1856 160 165 196
-261.216 -371.992 -1851 133 138 169
-256.447 -370.514 -1844 93 98 129
-252.806 -370.645 -1845 126 129 163
-248.352 -369.572 -1840 135 138 171
-244.852 -369.906 -1842 115 118 150
-240.691 -369.237 -1839 132 136 165
-236.803 -368.971 -1838 79 83 110
-232.92 -368.705 -1837 84 86 109
-229.168 -368.642 -1837 84 84 108
-225.295 -368.379 -1836 170 170 194
-221.187 -367.716 -1833 180 180 205
-217.686 -368.057 -1835 179 179 205
-213.829 -367.797 -1834 179 179 205
-210.093 -367.739 -1834 180 181 209
-206.583 -368.083 -1836 160 161 188
-202.846 -368.027 -1836 160 161 187
-198.893 -367.571 -1834 193 194 221
-195.163 -367.517 -1834 196 197 225
-191.435 -367.465 -1834 197 199 222
-187.811 -367.613 -1835 202 204 231
-184.084 -367.562 -1835 199 200 232
-180.457 -367.713 -1836 125 130 184
-176.923 -368.065 -1838 96 101 160
-173.383 -368.417 -1840 90 94 161
-169.929 -368.971 -1843 87 92 154
-166.373 -369.325 -1845 92 98 156
-162.899 -369.881 -1848 168 175 225
-159.156 -369.837 -1848 179 186 232
-155.666 -370.395 -1851 179 186 225
-152.001 -370.553 -1852 151 158 194
-148.494 -371.112 -1855 159 166 202
-144.742 -371.072 -1855 161 165 206
-141.295 -371.833 -1859 165 169 207
-137.832 -372.595 -1863 170 174 209
-134.211 -372.958 -1865 145 146 181
-130.653 -373.522 -1868 147 149 184
-127.152 -374.287 -1872 142 146 181
-123.701 -375.252 -1877 177 181 215
-120.168 -376.018 -1881 182 187 220
-116.434 -376.186 -1882 158 165 199
-112.696 -376.355 -1883 179 185 218
-109.071 -376.924 -1886 197 202 235
-105.324 -377.095 -1887 199 206 240
-101.519 -377.067 -1887 188 195 231
-98.078 -378.439 -1894 135 142 189
-94.5098 -379.412 -1899 96 105 161
-90.9222 -380.385 -1904 64 75 136
-87.3609 -381.56 -1910 48 53 122
-83.7325 -382.535 -1915 46 49 113
-80.0012 -383.112 -1918 85 86 142
-76.2187 -383.49 -1920 97 98 150
-72.5795 -384.669 -1926 47 49 100
-68.8455 -385.448 -1930 86 90 135
-65.2306 -387.028 -1938 143 148 188
-61.2992 -386.811 -1937 156 163 199
-57.2242 -385.597 -1931 132 139 172
-370.012 -413.613 -2028 115 123 148
-365.257 -412.898 -2025 137 141 176
-360.338 -411.98 -2021 128 133 169
-355.263 -410.861 -2016 116 123 159
-349.69 -409.132 -2008 159 169 203
-344.497 -407.813 -2002 158 169 203
-339.331 -406.495 -1996 145 158 196
-333.354 -404.161 -1985 67 79 115
-327.591 -402.033 -1975 28 38 75
-322.199 -400.314 -1967 31 39 79
-316.196 -397.783 -1955 48 56 93
-310.565 -395.661 -1945 80 88 122
-305.136 -393.744 -1936 108 116 151
-298.191 -389.796 -1917 159 167 202
-292.708 -387.681 -1907 141 150 186
-286.662 -384.754 -1893 133 141 175
-280.229 -381.22 -1876 98 105 139
-274.752 -378.908 -1865 174 181 212
-270.34 -378.019 -1861 174 180 211
-265.23 -376.117 -1852 148 153 183
-260.582 -374.825 -1846 158 163 193
-256.379 -374.145 -1843 142 147 177
-252.327 -373.668 -1841 105 108 142
-248.421 -373.396 -1840 142 145 177
-244.92 -373.733 -1842 138 142 172
-240.889 -373.26 -1840 135 139 167
-236.997 -372.99 -1839 88 91 117
-233.111 -372.722 -1838 131 133 156
-229.106 -372.253 -1836 162 163 187
-224.989 -371.582 -1833 183 183 207
-221.007 -371.114 -1831 157 158 184
-217.39 -371.257 -1832 155 155 181
-213.655 -371.197 -1832 176 176 203
-210.036 -371.341 -1833 181 182 210
-206.527 -371.688 -1835 175 176 204
-202.901 -371.834 -1836 173 174 202
-199.056 -371.576 -1835 184 185 212
-195.324 -371.521 -1835 177 178 205
-191.697 -371.671 -1836 139 141 164
-187.863 -371.416 -1835 184 185 213
-184.235 -371.567 -1836 186 187 221
-180.703 -371.921 -1838 93 94 149
-177.165 -372.276 -1840 80 82 140
-173.431 -372.228 -1840 92 94 167
-169.975 -372.787 -1843 94 98 167
-166.329 -372.943 -1844 98 103 170
-162.856 -373.505 -1847 154 160 216
-159.199 -373.662 -1848 184 191 241
-155.625 -374.023 -1850 189 196 234
-151.961 -374.183 -1851 153 160 197
-148.455 -374.748 -1854 140 147 184
-144.859 -375.112 -1856 136 139 180
-141.257 -375.477 -1858 155 158 197
-137.796 -376.247 -1862 171 174 211
-134.176 -376.614 -1864 173 174 209
-130.619 -377.183 -1867 113 115 149
-127.051 -377.754 -1870 113 117 151
-123.669 -378.931 -1876 145 149 182
-120.073 -379.504 -1879 176 181 213
-116.589 -380.481 -1884 179 186 219
-112.847 -380.651 -1885 186 193 226
-109.043 -380.621 -1885 192 199 232
-105.408 -381.197 -1888 188 196 230
-101.601 -381.169 -1888 189 197 233
-98.1047 -382.353 -1894 119 126 172
-94.4858 -383.134 -1898 70 80 135
-91.0425 -384.723 -1906 53 64 125
-87.3848 -385.506 -1910 58 63 128
-83.8865 -387.097 -1918 54 59 119
-80.1481 -387.68 -1921 58 61 114
-76.3189 -387.86 -1922 50 51 104
-72.7125 -389.252 -1929 47 48 101
-68.9357 -389.838 -1932 50 53 102
-65.2484 -391.03 -1938 117 122 163
-61.2527 -390.408 -1935 150 157 193
-57.2102 -389.383 -1930 158 165 198
-371.394 -419.295 -2035 135 143 168
-366.262 -418.16 -2030 145 149 184
-361.153 -417.027 -2025 133 137 172
-356.245 -416.102 -2021 121 126 161
-350.659 -414.355 -2013 150 158 194
-345.11 -412.61 -2005 129 138 174
-340.277 -411.69 -2001 150 163 202
-334.455 -409.538 -1991 76 87 126
-328.678 -407.387 -1981 25 35 75
-322.617 -404.828 -1969 35 43 87
-316.771 -402.476 -1958 65 73 113
-310.972 -400.127 -1947 99 107 141
-305.695 -398.396 -1939 111 119 153
-299.519 -395.435 -1925 166 174 209
-293.097 -392.065 -1909 145 153 191
-287.046 -389.108 -1895 102 109 145
-280.756 -385.743 -1879 31 38 72
-275.124 -383.202 -1867 124 130 162
-270.125 -381.483 -1859 169 175 205
-265.733 -380.587 -1855 140 145 175
-260.796 -378.872 -1847 147 151 181
-256.451 -377.979 -1843 152 155 186
-252.535 -377.702 -1842 151 154 188
-248.22 -376.812 -1838 130 133 165
-244.988 -377.563 -1842 166 169 199
-240.956 -377.085 -1840 170 173 200
-237.321 -377.223 -1841 129 132 158
-233.176 -376.542 -1838 97 99 122
-229.17 -376.068 -1836 167 167 191
-224.806 -374.98 -1831 178 178 202
-221.068 -374.917 -1831 154 155 181
-217.451 -375.061 -1832 160 160 187
-213.598 -374.796 -1831 159 159 187
-209.98 -374.941 -1832 158 159 187
-206.585 -375.497 -1835 178 179 208
-203.068 -375.849 -1837 189 190 221
-199.22 -375.588 -1836 189 190 217
-195.591 -375.738 -1837 179 180 206
-191.75 -375.479 -1836 128 130 153
-188.12 -375.63 -1837 161 162 191
-184.186 -375.17 -1835 179 180 216
-180.557 -375.323 -1836 80 81 134
-177.021 -375.682 -1838 56 57 114
-173.573 -376.246 -1841 61 62 137
-169.838 -376.198 -1841 70 72 145
-166.375 -376.764 -1844 101 104 176
-162.724 -376.923 -1845 148 154 215
-158.985 -376.878 -1845 175 181 236
-155.415 -377.243 -1847 184 189 230
-151.921 -377.813 -1850 193 199 237
-148.336 -378.179 -1852 186 192 230
-144.743 -378.547 -1854 165 167 208
-141.22 -379.12 -1857 160 162 200
-137.538 -379.285 -1858 165 168 203
-133.925 -379.656 -1860 141 142 177
-130.445 -380.435 -1864 94 96 130
-126.882 -381.012 -1867 136 139 173
-123.572 -382.405 -1874 109 114 145
-119.85 -382.576 -1875 128 133 163
-116.25 -383.155 -1878 119 126 159
-112.638 -383.735 -1881 168 175 207
-108.958 -384.113 -1883 190 197 229
-105.438 -385.102 -1888 181 189 223
-101.79 -385.686 -1891 185 193 229
-98.3391 -387.086 -1898 135 144 187
-94.6114 -387.467 -1900 76 86 141
-91.1632 -389.072 -1908 57 68 129
-87.3174 -389.048 -1908 55 61 122
-83.7784 -390.451 -1915 48 54 111
-80.0033 -390.836 -1917 44 49 100
-76.2605 -391.426 -1920 42 43 97
-72.7325 -393.24 -1929 44 45 99
-68.9191 -393.628 -1931 49 50 103
-65.1991 -394.629 -1936 111 116 159
-61.3012 -394.611 -1936 174 181 219
-57.2258 -393.372 -1930 161 168 203
-370.952 -422.929 -2032 137 145 172
-365.824 -421.782 -2027 139 143 178
-361.077 -421.054 -2024 98 102 137
-356.522 -420.536 -2022 88 93 126
-350.933 -418.771 -2014 123 131 167
-345.38 -417.008 -2006 137 145 182
-340.714 -416.287 -2003 140 151 193
-334.55 -413.696 -1991 80 90 132
-328.439 -411.109 -1979 33 43 84
-322.381 -408.523 -1967 31 38 85
-317.022 -406.771 -1959 53 60 104
-310.741 -403.775 -1945 86 94 132
-305.939 -402.649 -1940 103 111 149
-299.604 -399.45 -1925 156 164 202
-293.64 -396.668 -1912 139 147 185
-286.672 -392.437 -1892 80 87 124
-280.238 -388.83 -1875 25 32 69
-274.612 -386.263 -1863 72 77 110
-269.619 -384.527 -1855 172 177 209
-264.805 -383 -1848 164 167 199
-260.446 -382.097 -1844 137 139 170
-256.106 -381.195 -1840 144 146 178
-252.469 -381.33 -1841 149 154 187
-248.29 -380.638 -1838 139 141 173
-245.057 -381.396 -1842 155 156 186
-241.155 -381.12 -1841 145 146 174
-237.388 -381.052 -1841 126 128 154
-233.369 -380.572 -1839 75 77 100
-229.235 -379.885 -1836 158 159 183
-225.238 -379.407 -1834 186 186 210
-221.372 -379.137 -1833 165 166 192
-217.749 -379.282 -1834 168 169 195
-213.891 -379.014 -1833 174 175 201
-210.039 -378.748 -1832 169 170 198
-206.53 -379.102 -1834 181 182 211
-202.904 -379.251 -1835 193 194 228
-199.168 -379.194 -1835 179 180 208
-195.646 -379.552 -1837 178 179 205
-191.908 -379.497 -1837 144 146 169
-188.275 -379.65 -1838 152 154 182
-184.438 -379.391 -1837 132 132 169
-180.607 -379.133 -1836 59 60 110
-176.974 -379.289 -1837 41 42 96
-173.433 -379.652 -1839 44 44 117
-169.793 -379.811 -1840 51 52 125
-166.241 -380.176 -1842 102 103 177
-162.505 -380.13 -1842 159 164 230
-158.857 -380.291 -1843 185 189 250
-155.206 -380.453 -1844 193 196 243
-151.799 -381.235 -1848 197 201 244
-148.297 -381.812 -1851 195 200 240
-144.706 -382.183 -1853 159 162 201
-141.032 -382.349 -1854 114 116 153
-137.577 -383.135 -1858 124 125 159
-133.963 -383.509 -1860 106 107 142
-130.552 -384.503 -1865 175 176 211
-127.053 -385.291 -1869 175 178 212
-123.606 -386.287 -1874 131 135 166
-120.012 -386.871 -1877 108 113 142
-116.344 -387.25 -1879 34 41 72
-112.85 -388.248 -1884 92 99 130
-109.22 -388.835 -1887 172 179 210
-105.635 -389.629 -1891 181 189 223
-101.873 -389.806 -1892 192 200 235
-98.4184 -391.22 -1899 152 162 202
-94.5881 -391.193 -1899 87 97 151
-90.9018 -391.785 -1902 47 58 119
-87.2044 -392.378 -1905 41 46 103
-83.6705 -393.796 -1912 46 51 106
-79.9004 -394.185 -1914 47 52 103
-76.2421 -395.193 -1919 40 42 97
-72.6774 -396.819 -1927 45 46 101
-68.9025 -397.417 -1930 69 70 124
-65.1499 -398.222 -1934 156 161 206
-61.2549 -398.204 -1934 169 177 217
-57.1231 -396.541 -1926 164 171 209
-371.789 -428.025 -2036 116 123 152
-366.832 -427.077 -2032 124 128 163
-361.895 -426.131 -2028 86 91 125
-357.154 -425.397 -2025 95 101 134
-351.557 -423.614 -2017 105 112 148
-345.996 -421.833 -2009 135 143 180
-340.811 -420.475 -2003 117 127 171
-334.814 -418.068 -1992 72 82 125
-328.534 -415.245 -1979 36 46 89
-322.31 -412.424 -1966 27 34 82
-317.437 -411.283 -1961 28 36 82
-310.83 -407.837 -1945 44 51 94
-305.711 -406.28 -1938 52 60 103
-299.69 -403.468 -1925 155 162 205
-293.571 -400.449 -1911 142 149 187
-286.3 -395.756 -1889 70 76 114
-279.57 -391.695 -1870 30 34 74
-274.396 -389.73 -1861 64 68 103
-269.842 -388.605 -1856 140 144 179
-265.311 -387.481 -1851 162 165 199
-260.662 -386.15 -1845 160 161 195
-256.596 -385.657 -1843 109 110 144
-252.404 -384.957 -1840 96 101 134
-248.631 -384.885 -1840 102 105 136
-244.994 -385.023 -1841 141 142 172
-240.961 -384.535 -1839 159 160 187
-237.455 -384.885 -1841 149 151 177
-233.308 -384.191 -1838 114 116 139
-229.55 -384.124 -1838 148 149 173
-225.425 -383.433 -1835 182 182 206
-221.676 -383.369 -1835 180 181 207
-217.811 -383.097 -1834 172 173 200
-214.068 -383.035 -1834 180 181 208
-210.213 -382.766 -1833 173 174 202
-206.363 -382.498 -1832 168 169 198
-202.741 -382.648 -1833 187 188 223
-199.007 -382.591 -1833 187 188 217
-195.595 -383.16 -1836 170 171 197
-191.858 -383.105 -1836 157 158 185
-188.123 -383.051 -1836 110 111 140
-184.29 -382.789 -1835 61 61 98
-180.658 -382.946 -1836 49 51 97
-176.928 -382.895 -1836 43 44 93
-173.482 -383.471 -1839 43 42 108
-169.841 -383.631 -1840 49 49 117
-166.288 -384 -1842 83 84 153
-162.551 -383.953 -1842 138 140 209
-158.902 -384.115 -1843 160 163 226
-155.25 -384.279 -1844 146 149 199
-151.924 -385.278 -1849 170 174 218
-148.419 -385.86 -1852 180 184 226
-144.981 -386.651 -1856 131 132 171
-141.3 -386.819 -1857 51 52 88
-137.69 -387.196 -1859 118 119 151
-133.928 -387.158 -1859 145 146 180
-130.518 -388.161 -1864 177 179 212
-127.021 -388.958 -1868 164 167 200
-123.509 -389.755 -1872 117 122 152
-119.854 -390.137 -1874 118 123 152
-116.315 -390.936 -1878 85 92 123
-112.702 -391.528 -1881 55 62 93
-109.135 -392.329 -1885 101 108 139
-105.776 -393.964 -1893 177 185 221
-101.955 -393.934 -1893 185 193 230
-98.4979 -395.363 -1900 162 172 215
-94.7143 -395.543 -1901 96 107 163
-91.2143 -396.973 -1908 53 64 128
-87.2289 -396.324 -1905 38 43 100
-83.7379 -397.964 -1913 44 49 104
-79.9229 -398.149 -1914 45 49 103
-76.3033 -399.375 -1920 49 51 109
-72.6223 -400.394 -1925 46 48 107
-69.029 -402.038 -1933 104 106 162
-65.2356 -402.642 -1936 182 187 237
-61.3355 -402.625 -1936 169 176 222
-57.1393 -400.528 -1926 185 192 230
-371.715 -432.08 -2035 57 64 95
-367.12 -431.547 -2033 105 109 145
-362 -430.38 -2028 128 133 168
-357.258 -429.638 -2025 150 156 190
-351.833 -428.05 -2018 97 105 142
-346.269 -426.251 -2010 95 103 142
-340.91 -424.667 -2003 85 95 141
-334.743 -422.024 -1991 61 71 115
-328.795 -419.596 -1980 33 43 87
-322.567 -416.747 -1967 29 35 85
-317.205 -414.959 -1959 33 39 89
-311.079 -412.114 -1946 32 37 87
-305.642 -410.119 -1937 26 32 82
-299.62 -407.279 -1924 165 170 220
-293.502 -404.229 -1910 131 138 176
-285.928 -399.066 -1886 58 63 103
-279.651 -395.599 -1870 32 34 76
-274.475 -393.615 -1861 119 122 159
-269.774 -392.267 -1855 157 160 197
-265.531 -391.555 -1852 175 178 214
-261.02 -390.422 -1847 189 189 227
-256.531 -389.29 -1842 152 152 190
-252.065 -388.16 -1837 127 132 165
-248.433 -388.299 -1838 149 152 183
-244.665 -388.227 -1838 164 165 195
-240.9 -388.157 -1838 121 122 148
-237.136 -388.088 -1838 68 69 95
-233.502 -388.231 -1839 96 98 121
-229.616 -387.953 -1838 101 101 125
-225.858 -387.887 -1838 171 171 195
-222.103 -387.822 -1838 181 182 209
-218.23 -387.548 -1837 190 191 219
-214.247 -387.064 -1835 191 192 221
-210.388 -386.791 -1834 168 169 198
-206.422 -386.309 -1832 175 176 206
-202.909 -386.672 -1834 183 184 219
-199.173 -386.614 -1834 184 185 215
-195.651 -386.979 -1836 136 137 163
-192.122 -387.345 -1838 54 55 84
-188.485 -387.501 -1839 40 41 72
-184.644 -387.236 -1838 48 49 84
-180.907 -387.184 -1838 45 46 89
-177.075 -386.922 -1837 42 43 89
-173.626 -387.503 -1840 47 45 108
-169.798 -387.243 -1839 57 57 120
-166.335 -387.826 -1842 68 68 132
-162.598 -387.779 -1842 89 90 158
-158.947 -387.943 -1843 90 91 155
-155.379 -388.319 -1845 81 83 135
-152.05 -389.327 -1850 105 107 153
-148.381 -389.495 -1851 129 131 175
-145.022 -390.504 -1856 100 100 138
-141.264 -390.464 -1856 114 114 150
-137.581 -390.634 -1857 163 164 196
-134.039 -391.226 -1860 128 129 163
-130.626 -392.24 -1865 147 148 182
-127.058 -392.833 -1868 126 129 160
-123.478 -393.429 -1871 112 115 145
-120.016 -394.445 -1876 127 131 159
-116.287 -394.621 -1877 120 126 157
-113.033 -396.48 -1886 99 106 137
-109.224 -396.449 -1886 67 74 106
-105.806 -397.889 -1893 149 157 196
-101.876 -397.439 -1891 183 191 232
-98.3704 -398.671 -1897 162 172 217
-94.5419 -398.644 -1897 106 117 177
-91.0491 -400.088 -1904 53 65 134
-87.1621 -399.853 -1903 41 46 105
-83.6741 -401.509 -1911 37 41 99
-79.9038 -401.906 -1913 45 47 105
-76.166 -402.514 -1916 66 69 130
-72.4544 -403.333 -1920 48 51 113
-68.7272 -404.153 -1924 122 124 185
-65.0182 -405.184 -1929 162 167 221
-61.0994 -404.956 -1928 158 165 215
-56.9181 -402.839 -1918 183 189 228
-372.189 -436.778 -2037 76 83 116
-367.589 -436.24 -2035 132 136 174
-362.464 -435.061 -2030 121 126 162
-357.539 -434.098 -2026 138 145 179
-352.111 -432.493 -2019 89 97 134
-346.37 -430.463 -2010 93 101 140
-341.18 -429.076 -2004 61 71 117
-335.178 -426.622 -1993 47 57 103
-329.057 -423.956 -1981 40 50 96
-323.153 -421.506 -1970 26 30 83
-317.784 -419.7 -1962 35 39 93
-311.49 -416.613 -1948 46 51 108
-305.573 -413.956 -1936 48 53 107
-299.396 -410.875 -1922 159 164 217
-293.28 -407.795 -1908 126 132 174
-285.556 -402.368 -1883 44 48 91
-279.284 -398.866 -1867 33 35 78
-274.555 -397.503 -1861 96 98 139
-270.144 -396.569 -1857 144 147 187
-266.182 -396.277 -1856 169 171 211
-261.378 -394.705 -1849 178 179 220
-257.302 -394.203 -1847 164 164 205
-252.55 -392.634 -1840 78 83 116
-248.64 -392.347 -1839 118 121 153
-244.603 -391.849 -1837 118 119 149
-240.97 -391.991 -1838 113 114 141
-237.076 -391.708 -1837 92 93 119
-233.443 -391.852 -1838 133 135 158
-229.807 -391.998 -1839 113 114 138
-226.047 -391.932 -1839 86 86 112
-222.167 -391.653 -1838 131 133 164
-218.293 -391.376 -1837 139 142 173
-214.426 -391.1 -1836 186 188 221
-210.564 -390.825 -1835 192 193 225
-206.595 -390.338 -1833 190 191 223
-202.747 -390.065 -1832 183 184 216
-199.23 -390.433 -1834 191 192 222
-195.494 -390.375 -1834 165 166 193
-191.864 -390.532 -1835 45 46 77
-188.232 -390.689 -1836 50 51 84
-184.396 -390.422 -1835 50 51 86
-180.762 -390.582 -1836 44 45 84
-176.934 -390.317 -1835 45 45 86
-173.299 -390.479 -1836 54 52 111
-169.754 -390.855 -1838 70 70 129
-166.203 -391.231 -1840 94 95 154
-162.645 -391.609 -1842 98 99 160
-159.166 -392.2 -1845 74 75 133
-155.676 -392.792 -1848 55 57 106
-152.258 -393.597 -1852 61 63 107
-148.745 -394.191 -1855 64 66 108
-145.221 -394.786 -1858 86 85 125
-141.533 -394.957 -1859 168 168 205
-137.917 -395.341 -1861 178 179 212
-134.438 -396.151 -1865 135 136 170
-130.663 -396.113 -1865 125 127 160
-127.23 -397.138 -1870 146 149 179
-123.646 -397.738 -1873 144 148 176
-120.114 -398.552 -1877 158 162 189
-116.382 -398.731 -1878 170 176 207
-112.886 -399.759 -1883 126 132 164
-109.081 -399.727 -1883 79 86 120
-105.725 -401.394 -1891 128 135 181
-101.96 -401.576 -1892 176 183 230
-98.6063 -403.457 -1901 161 170 220
-94.5692 -402.581 -1897 111 121 187
-91.1708 -404.463 -1906 53 64 139
-87.3246 -404.438 -1906 44 52 114
-83.742 -405.686 -1912 35 40 102
-79.9268 -405.875 -1913 45 45 109
-76.2276 -406.701 -1917 65 68 135
-72.6262 -408.164 -1924 82 86 154
-68.7469 -408.144 -1924 155 156 224
-65.0031 -408.973 -1928 149 153 214
-61.212 -409.591 -1931 145 151 207
-56.8751 -406.393 -1916 166 172 213
-369.924 -438.241 -2024 85 92 126
-366.614 -439.213 -2029 158 162 200
-361.142 -437.59 -2022 126 130 168
-356.233 -436.617 -2018 90 97 131
-351.343 -435.647 -2014 93 101 138
-346.128 -434.245 -2008 108 116 155
-341.111 -433.062 -2003 90 100 146
-335.445 -431.015 -1994 61 71 117
-329.819 -428.971 -1985 44 54 102
-323.413 -425.849 -1971 24 27 84
-318.202 -424.242 -1964 41 44 102
-311.902 -421.124 -1950 60 64 126
-306.295 -418.873 -1940 58 62 119
-299.952 -415.545 -1925 139 144 198
-293.674 -412.219 -1910 120 125 170
-285.64 -406.307 -1883 35 38 83
-279.067 -402.34 -1865 29 31 76
-274.488 -401.179 -1860 48 50 94
-270.078 -400.236 -1856 74 76 119
-266.117 -399.941 -1855 84 86 129
-261.738 -399.001 -1851 141 141 183
-257.517 -398.277 -1848 148 147 189
-252.487 -396.262 -1839 39 44 77
-248.578 -395.973 -1838 62 65 97
-244.409 -395.254 -1835 117 118 148
-240.778 -395.398 -1836 144 145 171
-237.017 -395.327 -1836 166 167 193
-233.511 -395.688 -1838 156 158 181
-229.5 -395.19 -1836 139 140 166
-226.113 -395.768 -1839 118 118 145
-222.232 -395.487 -1838 89 92 126
-218.357 -395.207 -1837 72 75 109
-214.255 -394.498 -1834 148 151 187
-210.625 -394.65 -1835 185 186 221
-206.43 -393.729 -1831 200 201 235
-202.806 -393.883 -1832 195 196 226
-199.18 -394.039 -1833 199 200 229
-195.551 -394.196 -1834 173 174 203
-191.711 -393.925 -1833 58 59 94
-188.184 -394.299 -1835 71 72 107
-184.55 -394.459 -1836 55 56 91
-180.914 -394.62 -1837 46 45 82
-177.275 -394.782 -1838 47 46 83
-173.539 -394.731 -1838 48 45 104
-169.896 -394.895 -1839 69 69 127
-166.522 -395.704 -1843 87 89 147
-162.869 -395.871 -1844 87 88 140
-159.558 -396.897 -1849 64 65 116
-155.975 -397.28 -1851 41 43 87
-152.549 -398.093 -1855 47 49 90
-149.109 -398.907 -1859 50 52 93
-145.419 -399.079 -1860 67 65 108
-141.803 -399.466 -1862 133 131 172
-138.179 -399.854 -1864 171 170 207
-134.621 -400.457 -1867 185 186 221
-130.841 -400.419 -1867 169 170 204
-127.471 -401.668 -1873 129 131 162
-123.814 -402.06 -1875 136 140 168
-120.341 -403.096 -1880 187 191 218
-116.602 -403.276 -1881 166 171 201
-113.159 -404.529 -1887 120 126 159
-109.403 -404.71 -1888 95 103 141
-105.867 -405.751 -1893 108 115 166
-101.774 -404.649 -1888 180 187 240
-98.5311 -406.977 -1899 163 172 227
-94.5966 -406.52 -1897 106 116 185
-91.0538 -407.779 -1903 64 75 152
-87.3959 -408.61 -1907 58 69 132
-83.8101 -409.87 -1913 34 41 105
-80.0337 -410.275 -1915 44 44 110
-76.2497 -410.681 -1917 56 58 132
-72.534 -411.516 -1921 79 81 156
-68.7312 -411.924 -1923 103 104 179
-64.9545 -412.547 -1926 88 92 159
-61.1981 -413.385 -1930 83 89 151
-56.951 -410.798 -1918 138 144 186
-370.4 -442.932 -2026 75 82 118
-366.362 -443.039 -2027 139 143 180
-360.893 -441.4 -2020 136 141 177
-355.81 -440.199 -2015 125 130 165
-351.448 -439.875 -2014 113 120 157
-346.749 -439.115 -2011 109 116 154
-341.724 -437.92 -2006 128 138 184
-336.218 -436.072 -1998 68 78 125
-330.749 -434.226 -1990 48 57 107
-324.33 -431.073 -1976 29 33 94
-318.621 -428.795 -1966 39 43 105
-312.475 -425.865 -1953 48 52 114
-306.07 -422.502 -1938 35 40 94
-299.73 -419.142 -1923 109 114 165
-293.454 -415.784 -1908 113 116 165
-286.029 -410.686 -1885 36 39 86
-279.748 -407.115 -1869 37 39 85
-274.865 -405.508 -1862 41 43 90
-270.595 -404.773 -1859 56 58 105
-266.483 -404.257 -1857 61 63 109
-261.957 -403.09 -1852 100 99 143
-257.872 -402.577 -1850 115 114 156
-252.974 -400.76 -1842 114 118 153
-248.922 -400.25 -1840 129 132 165
-244.614 -399.307 -1836 114 115 145
-240.85 -399.234 -1836 123 125 152
-237.087 -399.163 -1836 153 155 181
-233.453 -399.31 -1837 149 152 175
-229.318 -398.589 -1834 121 123 149
-226.057 -399.391 -1838 113 114 142
-222.056 -398.89 -1836 112 115 152
-218.303 -398.824 -1836 111 114 151
-214.435 -398.542 -1835 110 113 151
-210.688 -398.479 -1835 144 145 180
-206.717 -397.983 -1833 194 195 229
-203.088 -398.139 -1834 199 200 229
-199.348 -398.079 -1834 198 198 228
-195.396 -397.587 -1832 177 178 208
-191.663 -397.529 -1832 53 53 90
-188.24 -398.124 -1835 50 51 87
-184.705 -398.503 -1837 43 44 79
-180.967 -398.448 -1837 44 42 78
-177.423 -398.829 -1839 47 44 80
-173.968 -399.427 -1842 46 43 100
-170.316 -399.593 -1843 66 66 123
-166.752 -399.977 -1845 74 76 133
-163.27 -400.578 -1848 59 61 107
-159.777 -401.181 -1851 50 52 96
-156.273 -401.784 -1854 43 45 83
-152.759 -402.388 -1857 46 49 86
-149.233 -402.994 -1860 61 64 101
-145.618 -403.383 -1862 138 136 179
-142.149 -404.208 -1866 188 186 228
-138.22 -403.733 -1864 189 188 228
-134.661 -404.342 -1867 189 190 225
-130.95 -404.52 -1868 188 189 222
-127.373 -405.131 -1871 176 176 208
-123.718 -405.527 -1873 161 164 193
-120.121 -406.14 -1876 151 156 183
-116.326 -406.106 -1876 119 124 154
-112.772 -406.938 -1880 151 157 190
-109.087 -407.338 -1882 103 111 152
-105.619 -408.605 -1888 84 91 144
-101.857 -408.79 -1889 172 179 235
-98.4562 -410.492 -1897 155 163 222
-94.7241 -410.896 -1899 87 97 167
-91.2241 -412.383 -1906 56 66 144
-87.6048 -413.439 -1911 45 56 119
-83.9223 -414.279 -1915 38 45 109
-80.0989 -414.471 -1916 43 42 108
-76.3915 -415.313 -1920 59 60 137
-72.6307 -415.94 -1923 89 90 170
-68.7871 -416.136 -1924 68 69 148
-65.0749 -417.197 -1929 50 53 125
-61.3113 -418.044 -1933 39 45 112
-56.9677 -414.782 -1918 112 118 163
-369.598 -446.09 -2021 110 116 149
-365.569 -446.199 -2022 154 159 196
-360.287 -444.764 -2016 154 158 196
-355.387 -443.773 -2012 148 151 187
-351.205 -443.666 -2012 123 127 165
-347.026 -443.56 -2012 135 140 178
-342.85 -443.455 -2012 138 148 191
-337.161 -441.369 -2003 90 100 148
-332.179 -440.166 -1998 60 71 126
-325.085 -436.101 -1980 48 55 122
-318.717 -432.92 -1966 50 58 125
-312.409 -429.742 -1952 35 41 109
-306.004 -426.347 -1937 35 41 100
-299.664 -422.954 -1922 105 111 166
-293.85 -420.224 -1910 109 116 167
-286.874 -415.736 -1890 41 47 96
-280.132 -411.471 -1871 36 40 89
-274.8 -409.189 -1861 42 46 99
-270.094 -407.787 -1855 50 54 107
-265.845 -407.047 -1852 46 49 98
-261.47 -406.088 -1848 44 46 91
-257.392 -405.571 -1846 56 57 99
-253.187 -404.835 -1843 128 132 166
-248.862 -403.88 -1839 169 172 205
-244.821 -403.367 -1837 147 150 181
-241.184 -403.513 -1838 140 144 173
-236.9 -402.563 -1834 145 150 178
-233.142 -402.493 -1834 123 127 152
-229.261 -402.204 -1833 135 139 166
-225.755 -402.574 -1835 117 121 150
-221.517 -401.629 -1831 153 156 191
-218.011 -402.002 -1833 144 147 181
-214.265 -401.937 -1833 121 122 153
-210.866 -402.531 -1836 93 94 127
-206.666 -401.591 -1832 150 151 183
-203.148 -401.968 -1834 195 196 228
-199.407 -401.908 -1834 198 199 229
-195.561 -401.63 -1833 180 180 210
-191.72 -401.352 -1832 50 51 84
-188.193 -401.734 -1834 38 39 72
-184.66 -402.116 -1836 37 36 71
-181.12 -402.499 -1838 42 41 77
-177.476 -402.664 -1839 44 43 80
-174.019 -403.269 -1842 43 42 92
-170.459 -403.655 -1844 67 67 119
-166.892 -404.042 -1846 82 84 138
-163.23 -404.212 -1847 58 59 103
-160.084 -405.695 -1854 48 49 91
-156.151 -405.21 -1852 42 42 77
-152.64 -405.82 -1855 66 66 99
-149.117 -406.432 -1858 143 143 174
-145.349 -406.387 -1858 184 183 219
-141.887 -407.22 -1862 193 192 229
-138.113 -407.178 -1862 179 178 217
-134.628 -408.012 -1866 179 180 215
-130.919 -408.191 -1867 173 174 208
-127.274 -408.589 -1869 181 181 211
-123.755 -409.426 -1873 191 195 223
-120.284 -410.483 -1878 159 166 193
-116.361 -410.011 -1876 114 119 151
-112.866 -411.069 -1881 121 127 163
-109.062 -411.036 -1881 93 103 144
-105.538 -412.096 -1886 95 104 152
-101.888 -412.721 -1889 171 181 231
-98.2777 -413.565 -1893 136 144 207
-94.5527 -413.973 -1895 68 76 143
-91.0596 -415.475 -1902 38 46 116
-87.4474 -416.54 -1907 31 37 96
-83.8595 -417.825 -1913 32 36 93
-80.0808 -418.238 -1915 44 43 97
-76.3744 -419.088 -1919 74 77 152
-72.7278 -420.376 -1925 91 95 174
-68.8432 -420.355 -1925 54 56 139
-65.0603 -420.99 -1928 54 59 137
-61.266 -421.627 -1931 36 42 117
-56.9845 -418.771 -1918 83 92 141
-370.992 -451.905 -2028 105 110 137
-366.404 -451.346 -2026 147 150 188
-360.755 -449.452 -2018 132 134 173
-355.496 -448.006 -2012 143 143 181
-351.138 -447.675 -2011 143 145 182
-346.959 -447.568 -2011 109 112 149
-342.954 -447.685 -2012 108 116 157
-337.938 -446.468 -2007 106 115 164
-332.612 -444.808 -2000 59 71 132
-325.841 -441.15 -1984 39 50 123
-319.462 -437.938 -1970 56 66 140
-312.664 -434.063 -1953 48 57 129
-305.939 -430.19 -1936 42 50 112
-299.443 -426.543 -1920 94 101 159
-293.785 -424.009 -1909 113 122 175
-286.505 -419.034 -1887 56 64 116
-279.917 -414.952 -1869 54 59 110
-274.588 -412.647 -1859 54 59 116
-270.03 -411.454 -1854 45 50 107
-265.495 -410.263 -1849 45 48 99
-261.549 -409.961 -1848 37 40 85
-257.61 -409.66 -1847 36 38 79
