ply
format ascii 1.0
comment Created by Open3D
element vertex 1349
property double x
property double y
property double z
property uchar red
property uchar green
property uchar blue
end_header
-205.043 4.37428 -1319 205 200 204
-202.209 4.37006 -1318 205 198 202
-198.928 4.35591 -1314 203 199 202
-196.112 4.35172 -1313 205 201 204
-193.449 4.35086 -1313 209 202 206
-190.788 4.35001 -1313 208 201 205
-187.842 4.34254 -1311 203 196 200
-185.329 4.34487 -1312 204 197 201
-182.396 4.33743 -1310 210 203 207
-179.61 4.33332 -1309 210 204 205
-176.559 4.3226 -1306 208 201 205
-173.921 4.32182 -1306 209 202 208
-171.022 4.31443 -1304 213 206 210
-168.52 4.31699 -1305 214 207 211
-165.761 4.31294 -1304 212 205 209
-163.133 4.31205 -1304 206 198 204
-160.383 4.30802 -1303 202 194 202
-157.88 4.31062 -1304 201 194 202
-155.137 4.30662 -1303 201 194 202
-152.633 4.30924 -1304 200 193 201
-149.896 4.30526 -1303 200 193 199
-147.277 4.3046 -1303 201 194 200
-144.548 4.30065 -1302 198 194 197
-141.607 4.2901 -1299 199 195 199
-139 4.28948 -1299 200 196 201
-136.289 4.28556 -1298 201 197 202
-133.583 4.28166 -1297 203 199 204
-130.983 4.28107 -1297 202 198 203
-128.483 4.28379 -1298 202 198 203
-125.786 4.27992 -1297 204 200 205
-123.285 4.28267 -1298 206 202 207
-120.78 4.28526 -1299 206 202 207
-117.999 4.27813 -1297 207 203 208
-115.405 4.27761 -1297 206 202 208
-112.899 4.2804 -1298 205 200 208
-110.221 4.27661 -1297 205 200 208
-107.712 4.27942 -1298 203 198 206
-105.201 4.28224 -1299 203 198 206
-102.529 4.27848 -1298 203 198 206
-99.9384 4.27802 -1298 203 198 206
-97.4987 4.28418 -1300 203 198 206
-94.9057 4.28374 -1300 202 197 205
-92.4556 4.28992 -1302 200 195 203
-89.9291 4.2928 -1303 200 195 204
-87.3324 4.29241 -1303 204 199 208
-84.6714 4.28873 -1302 205 200 209
-82.0781 4.28835 -1302 202 197 206
-79.4244 4.2847 -1301 200 195 203
-76.8934 4.28764 -1302 199 194 203
-74.4161 4.29389 -1304 197 192 201
-71.8764 4.29686 -1305 196 191 200
-69.2801 4.29654 -1305 193 188 197
-66.6334 4.29294 -1304 192 187 196
-64.0403 4.29265 -1304 191 186 195
-61.4477 4.29237 -1304 192 187 196
-58.9458 4.29868 -1306 194 190 200
-56.4364 4.30501 -1308 196 192 202
-53.8784 4.30805 -1309 202 197 208
-51.3169 4.31111 -1310 207 202 213
-48.7518 4.31418 -1311 205 200 211
-46.1831 4.31725 -1312 200 195 208
-43.5112 4.31047 -1310 196 191 203
-40.9724 4.31686 -1312 194 189 200
-38.3676 4.31669 -1312 188 184 198
-35.8176 4.3231 -1314 186 182 197
-33.1841 4.31966 -1313 183 179 196
-30.6247 4.32609 -1315 176 172 188
-28.015 4.32596 -1315 170 166 181
-25.4442 4.33242 -1317 169 164 181
-22.8483 4.3356 -1318 166 161 178
-20.2486 4.3388 -1319 165 160 175
-17.6719 4.34858 -1322 170 165 180
-15.0492 4.34851 -1322 177 172 187
-12.4361 4.35173 -1323 179 174 189
-9.82646 4.35826 -1325 189 184 198
-7.20357 4.36151 -1326 191 186 201
-4.57332 4.36149 -1326 189 184 199
-1.94604 4.36805 -1328 186 181 196
0.688642 4.37134 -1329 182 177 192
3.3248 4.37135 -1329 180 175 190
5.97443 4.38124 -1332 174 170 185
8.62955 4.38785 -1334 159 155 170
11.2927 4.39447 -1336 145 140 157
13.9951 4.41097 -1341 135 131 150
16.6803 4.41762 -1343 132 128 148
19.3879 4.42757 -1346 131 127 148
22.1076 4.43753 -1349 129 125 145
24.821 4.44422 -1351 125 121 141
27.5628 4.4542 -1354 124 122 141
30.2945 4.46091 -1356 125 123 142
33.0344 4.46764 -1358 131 129 148
35.835 4.48095 -1362 133 129 148
38.567 4.48441 -1363 131 127 146
41.3638 4.49446 -1366 133 128 148
44.205 4.50781 -1370 136 131 151
47.0283 4.51789 -1373 132 128 147
49.7552 4.5181 -1373 137 131 150
52.5589 4.52491 -1375 138 133 152
55.3308 4.52845 -1376 142 138 157
58.0226 4.52541 -1375 159 154 171
60.7552 4.52568 -1375 170 165 182
63.5344 4.52925 -1376 170 164 180
66.3664 4.53612 -1378 172 165 181
69.2067 4.54301 -1380 166 158 174
72.0556 4.54991 -1382 153 149 164
75.0753 4.5667 -1387 137 133 148
78.34 4.59668 -1396 124 120 137
81.4088 4.6135 -1401 117 115 132
84.498 4.63034 -1406 114 112 128
87.7323 4.65378 -1413 115 114 126
90.6104 4.65747 -1414 119 118 129
93.6254 4.66777 -1417 127 126 138
96.7213 4.68137 -1421 129 128 136
100.324 4.71805 -1432 121 120 129
104.62 4.78441 -1452 115 114 124
-312.84 1.87855 -1414 204 200 202
-306.828 1.8594 -1400 206 202 204
-300.66 1.83894 -1385 208 204 205
-295.201 1.82248 -1373 212 205 209
-290.434 1.81001 -1364 211 204 208
-285.707 1.79755 -1355 212 204 208
-281.854 1.79025 -1350 209 202 206
-278.231 1.78444 -1346 206 199 203
-275.242 1.78262 -1345 206 199 205
-272.461 1.78213 -1345 207 200 205
-269.482 1.78032 -1344 207 200 204
-266.707 1.77984 -1344 202 197 201
-263.935 1.7792 -1344 199 195 198
-261.166 1.77873 -1344 201 197 200
-258.206 1.77694 -1343 206 202 205
-255.062 1.77383 -1341 208 204 207
-252.305 1.77338 -1341 209 205 208
-249.736 1.77425 -1342 209 205 208
-246.613 1.77116 -1340 207 203 206
-243.5 1.76807 -1338 206 202 205
-240.758 1.76748 -1338 206 202 205
-237.661 1.7644 -1336 205 201 204
-234.223 1.7587 -1332 206 202 205
-231.325 1.75696 -1331 208 204 207
-228.433 1.75522 -1330 210 206 207
-225.547 1.75349 -1329 209 205 206
-222.834 1.75309 -1329 207 203 204
-220.123 1.75269 -1329 205 201 202
-217.251 1.75098 -1328 207 203 204
-214.384 1.74927 -1327 207 203 204
-211.204 1.74493 -1324 202 198 199
-208.196 1.74176 -1322 202 198 201
-205.042 1.73743 -1319 205 200 203
-202.209 1.73575 -1318 205 198 202
-199.078 1.73143 -1315 202 198 201
-196.261 1.72976 -1314 203 199 202
-193.449 1.72809 -1313 205 198 202
-190.787 1.72775 -1313 205 198 202
-187.984 1.72609 -1312 205 198 202
-185.329 1.72575 -1312 206 199 203
-182.535 1.7241 -1311 207 200 204
-179.609 1.72114 -1309 206 200 200
-176.558 1.71688 -1306 208 202 205
-173.92 1.71656 -1306 209 202 208
-171.153 1.71493 -1305 211 204 209
-168.649 1.71594 -1306 214 207 211
-165.761 1.71301 -1304 213 206 210
-163.132 1.71271 -1304 209 202 208
-160.382 1.7111 -1303 206 198 206
-157.638 1.7095 -1302 204 197 205
-155.017 1.70906 -1302 202 195 203
-152.515 1.71009 -1303 200 193 201
-149.78 1.70851 -1302 199 192 199
-147.276 1.70955 -1303 199 193 199
-144.659 1.70928 -1303 200 196 199
-141.716 1.70509 -1300 200 196 199
-139.106 1.70483 -1300 199 195 200
-136.393 1.70327 -1299 200 196 201
-133.685 1.70172 -1298 202 198 203
-130.983 1.70016 -1297 203 199 204
-128.483 1.70124 -1298 203 199 204
-125.786 1.6997 -1297 203 199 204
-123.189 1.69947 -1297 202 198 203
-120.687 1.70056 -1298 202 198 203
-117.908 1.69772 -1296 201 197 202
-115.316 1.69751 -1296 202 197 203
-112.812 1.69861 -1297 203 198 206
-110.22 1.69841 -1297 204 199 207
-107.712 1.69952 -1298 202 197 205
-105.201 1.70064 -1299 202 197 205
-102.529 1.69914 -1298 203 198 206
-99.9381 1.69895 -1298 204 199 207
-97.4234 1.70008 -1299 204 199 207
-94.8324 1.69991 -1299 203 198 207
-92.3132 1.70105 -1300 204 199 207
-89.8598 1.7035 -1302 203 198 207
-87.2651 1.70333 -1302 205 200 209
-84.6061 1.70187 -1301 204 199 208
-82.1409 1.70433 -1303 200 195 204
-79.5462 1.70419 -1303 199 194 202
-76.9522 1.70404 -1303 200 195 203
-74.4159 1.70521 -1304 197 192 201
-71.8762 1.70639 -1305 194 189 198
-69.2799 1.70626 -1305 192 187 196
-66.6843 1.70614 -1305 194 189 198
-64.0401 1.70471 -1304 194 189 198
-61.4475 1.70459 -1304 194 189 198
-58.9005 1.70579 -1305 196 193 203
-56.4363 1.70961 -1308 199 196 206
-53.8371 1.70951 -1308 207 202 213
-51.2775 1.71072 -1309 208 203 214
-48.6773 1.71063 -1309 203 198 209
-46.1125 1.71185 -1310 198 193 206
-43.4778 1.71046 -1309 195 191 203
-40.9411 1.71299 -1311 193 188 199
-38.3675 1.71423 -1312 187 183 197
-35.8175 1.71677 -1314 185 181 196
-33.2093 1.71671 -1314 179 175 192
-30.6246 1.71796 -1315 171 167 183
-28.0363 1.71921 -1316 167 163 178
-25.4441 1.72047 -1317 165 160 177
-22.8309 1.72043 -1317 167 162 179
-20.2332 1.72169 -1318 170 165 180
-17.6451 1.72427 -1320 171 166 181
-15.0492 1.72685 -1322 178 173 188
-12.436 1.72813 -1323 184 179 194
-9.82643 1.73073 -1325 191 186 201
-7.19812 1.73071 -1325 191 186 201
-4.57331 1.73201 -1326 190 185 200
-1.94457 1.73331 -1327 185 180 195
0.688122 1.73461 -1328 180 175 190
3.32228 1.73462 -1328 174 170 185
5.96993 1.73854 -1331 163 159 174
8.62306 1.74117 -1333 148 143 160
11.2926 1.74511 -1336 136 131 149
13.9742 1.74905 -1339 132 128 147
16.6802 1.7543 -1343 131 127 147
19.3878 1.75825 -1346 131 127 148
22.1075 1.76221 -1349 128 124 145
24.8025 1.76356 -1350 125 121 142
27.5424 1.76753 -1353 124 122 141
30.2944 1.7715 -1356 128 126 145
33.0342 1.77417 -1358 132 130 149
35.8086 1.77815 -1361 136 132 151
38.5668 1.78083 -1363 133 129 149
41.3636 1.78483 -1366 133 127 149
44.1404 1.78752 -1368 135 130 150
46.9597 1.79152 -1371 132 128 147
49.7188 1.79292 -1372 139 134 151
52.5587 1.79693 -1375 138 133 151
55.3306 1.79834 -1376 144 140 159
58.1068 1.79975 -1377 165 160 177
60.8433 1.79985 -1377 175 169 186
63.5804 1.79997 -1377 176 168 184
66.4142 1.8027 -1379 175 167 183
69.2064 1.80413 -1380 166 158 174
72.0554 1.80688 -1382 152 148 163
75.0751 1.81355 -1387 136 132 148
78.2276 1.82284 -1394 125 121 138
81.2923 1.82953 -1399 115 113 130
84.498 1.83883 -1406 112 110 127
87.5457 1.84422 -1410 114 113 125
90.546 1.84831 -1413 117 116 127
93.559 1.8524 -1416 122 121 131
96.789 1.86042 -1422 125 124 132
100.114 1.86976 -1429 122 121 129
-306.609 -0.960856 -1399 204 200 201
-300.877 -0.951515 -1386 207 203 204
-295.201 -0.942352 -1373 214 207 210
-290.647 -0.936627 -1365 213 205 209
-285.917 -0.93022 -1356 211 203 207
-281.854 -0.925876 -1350 209 201 205
-278.231 -0.922908 -1346 207 200 204
-275.241 -0.922 -1345 205 198 204
-272.258 -0.921094 -1344 205 198 203
-269.682 -0.921561 -1345 205 198 202
-266.906 -0.921344 -1345 202 197 201
-263.935 -0.920445 -1344 200 196 200
-261.165 -0.920233 -1344 202 198 201
-258.59 -0.920708 -1345 205 201 204
-255.442 -0.918967 -1343 208 204 207
-252.493 -0.918078 -1342 208 204 207
-250.108 -0.919243 -1344 208 204 207
-246.797 -0.91699 -1341 208 204 207
-243.682 -0.915424 -1339 206 202 205
-240.578 -0.913861 -1337 207 203 206
-237.483 -0.9123 -1335 205 201 204
-234.047 -0.909375 -1331 207 203 206
-231.325 -0.909187 -1331 209 205 208
-228.261 -0.907634 -1329 208 204 207
-225.547 -0.90745 -1329 206 202 204
-222.834 -0.907268 -1329 205 201 203
-220.123 -0.907088 -1329 206 202 204
-216.924 -0.904863 -1326 207 203 204
-214.223 -0.904687 -1326 207 203 204
-211.045 -0.902468 -1323 203 199 200
-208.038 -0.900933 -1321 201 197 200
-205.042 -0.899401 -1319 203 198 201
-202.209 -0.898553 -1318 204 197 201
-199.381 -0.897708 -1317 201 197 200
-196.41 -0.896183 -1315 203 199 202
-193.596 -0.895343 -1314 206 199 203
-190.787 -0.894504 -1313 204 196 200
-187.841 -0.892827 -1311 204 196 200
-185.187 -0.892675 -1311 204 197 201
-182.395 -0.891844 -1310 203 196 199
-179.747 -0.891696 -1310 206 200 199
-176.829 -0.890189 -1308 210 204 206
-174.054 -0.889365 -1307 209 202 206
-171.284 -0.888543 -1306 208 201 206
-168.52 -0.887724 -1305 210 203 209
-165.634 -0.886226 -1303 210 203 209
-163.132 -0.886772 -1304 210 203 209
-160.382 -0.885959 -1303 210 202 208
-157.637 -0.885149 -1302 207 200 208
-155.017 -0.885021 -1302 205 198 206
-152.515 -0.885574 -1303 203 196 204
-149.78 -0.884771 -1302 201 194 201
-147.276 -0.885328 -1303 199 192 198
-144.659 -0.885208 -1303 198 194 197
-141.715 -0.883053 -1300 199 195 199
-139.106 -0.882937 -1300 200 196 201
-136.393 -0.882145 -1299 199 195 200
-133.685 -0.881355 -1298 202 198 203
-130.982 -0.880567 -1297 204 200 205
-128.483 -0.881139 -1298 203 199 204
-125.883 -0.881034 -1298 202 198 203
-123.284 -0.880932 -1298 202 198 203
-120.78 -0.88151 -1299 201 197 202
-118.09 -0.880733 -1298 199 195 200
-115.494 -0.880636 -1298 200 195 201
-112.986 -0.881221 -1299 202 197 205
-110.39 -0.881129 -1299 201 196 204
-107.712 -0.88036 -1298 203 198 206
-105.201 -0.880951 -1299 203 198 206
-102.529 -0.880187 -1298 203 198 206
-99.938 -0.880104 -1298 203 198 206
-97.3483 -0.880022 -1298 203 198 206
-94.8324 -0.880621 -1299 203 198 206
-92.2422 -0.880543 -1299 202 197 206
-89.7908 -0.881824 -1301 203 198 207
-87.131 -0.881073 -1300 202 197 206
-84.541 -0.881002 -1300 200 195 204
-82.0777 -0.882289 -1302 197 192 201
-79.4851 -0.882222 -1302 196 191 199
-76.9522 -0.882835 -1303 197 192 200
-74.4158 -0.88345 -1304 194 189 198
-71.8761 -0.884067 -1305 193 188 196
-69.28 -0.884008 -1305 191 186 195
-66.6331 -0.883275 -1304 195 190 199
-63.9909 -0.882543 -1303 198 193 203
-61.4003 -0.882492 -1303 198 193 204
-58.8553 -0.883119 -1304 200 197 207
-56.35 -0.884426 -1306 203 200 210
-53.7959 -0.885057 -1307 208 203 214
-51.2383 -0.885691 -1308 204 199 210
-48.64 -0.88565 -1308 199 194 205
-46.0773 -0.886287 -1309 196 192 203
-43.4778 -0.88625 -1309 194 190 201
-40.9411 -0.887569 -1311 189 184 195
-38.3675 -0.888214 -1312 183 179 192
-35.8175 -0.889537 -1314 183 179 194
-33.2093 -0.889508 -1314 176 172 189
-30.6013 -0.889482 -1314 167 163 180
-28.0149 -0.890135 -1315 165 161 176
-25.4248 -0.890789 -1316 165 160 177
-22.8136 -0.890769 -1316 169 164 181
-20.2179 -0.891429 -1317 172 167 182
-17.6317 -0.892767 -1319 172 167 182
-15.0264 -0.89343 -1320 181 176 191
-12.4172 -0.894095 -1321 187 182 197
-9.80418 -0.894763 -1322 188 183 198
-7.18725 -0.895433 -1323 186 181 196
-4.56986 -0.896782 -1325 184 179 194
-1.94603 -0.89881 -1328 181 176 191
0.68864 -0.899486 -1329 178 173 188
3.32478 -0.899488 -1329 171 166 181
5.97441 -0.901522 -1332 158 154 169
8.63599 -0.903558 -1335 145 139 159
11.3095 -0.905597 -1338 134 128 149
13.9846 -0.906961 -1340 132 128 149
16.6926 -0.909682 -1344 132 129 150
19.4166 -0.912404 -1348 128 126 147
22.0911 -0.912421 -1348 125 121 142
24.8025 -0.913795 -1350 129 125 146
27.522 -0.91517 -1352 130 126 145
30.2721 -0.917225 -1355 131 128 147
33.0342 -0.919282 -1358 131 128 147
35.8086 -0.921341 -1361 133 129 148
38.5668 -0.922726 -1363 134 130 150
41.3333 -0.924113 -1365 136 131 153
44.1404 -0.92618 -1368 135 131 150
46.9254 -0.927572 -1370 133 129 148
49.6825 -0.928289 -1371 142 136 155
52.5205 -0.930363 -1374 139 134 153
55.2903 -0.931084 -1375 148 144 163
58.0646 -0.931809 -1376 169 164 180
60.7991 -0.931858 -1376 173 168 184
63.5803 -0.932587 -1377 170 162 178
66.366 -0.933318 -1378 165 157 173
69.1563 -0.934051 -1379 158 150 166
72.0553 -0.936142 -1382 150 146 161
75.0751 -0.93959 -1387 137 133 148
78.1153 -0.943041 -1392 124 120 136
81.2923 -0.947849 -1399 115 113 128
84.558 -0.953338 -1407 112 111 126
87.5457 -0.955442 -1410 116 115 127
90.546 -0.957549 -1413 120 119 130
93.4929 -0.95898 -1415 122 121 131
96.6529 -0.962448 -1420 123 123 131
100.044 -0.967951 -1428 123 122 131
103.971 -0.978204 -1443 119 118 128
-314.39 -3.84029 -1421 206 202 203
-306.39 -3.77692 -1398 204 200 201
-300.878 -3.74348 -1386 206 202 203
-295.417 -3.71006 -1374 214 208 209
-291.074 -3.69 -1367 215 209 210
-286.34 -3.66472 -1358 213 205 209
-282.272 -3.64757 -1352 209 201 205
-278.645 -3.63566 -1348 206 199 203
-275.242 -3.62663 -1345 204 197 203
-272.461 -3.6257 -1345 205 198 203
-269.482 -3.62191 -1344 204 198 202
-266.708 -3.621 -1344 201 197 201
-263.543 -3.61471 -1342 199 195 200
-260.777 -3.61382 -1342 202 198 201
-258.014 -3.61277 -1342 204 200 203
-255.253 -3.61189 -1342 204 200 203
-252.305 -3.60833 -1341 205 201 204
-250.109 -3.61555 -1344 204 200 203
-246.982 -3.60915 -1342 203 199 202
-243.683 -3.60025 -1339 202 198 201
-240.758 -3.59673 -1338 204 200 203
-237.84 -3.59323 -1337 206 202 205
-234.224 -3.57882 -1332 208 204 207
-231.325 -3.57534 -1331 209 205 208
-228.433 -3.57186 -1330 207 203 206
-225.547 -3.5684 -1329 205 201 204
-222.499 -3.56227 -1327 205 201 204
-219.792 -3.56151 -1327 205 201 203
-216.924 -3.55791 -1326 205 201 202
-213.9 -3.55181 -1324 206 202 204
-210.886 -3.54571 -1322 204 200 202
-208.039 -3.54231 -1321 201 197 200
-205.198 -3.53892 -1320 201 196 200
-202.362 -3.53554 -1319 202 197 200
-199.533 -3.53201 -1318 201 196 199
-196.709 -3.52865 -1317 203 198 201
-193.891 -3.5253 -1316 206 198 202
-190.933 -3.51928 -1314 204 196 200
-188.128 -3.51595 -1313 202 194 198
-185.188 -3.50995 -1311 203 195 199
-182.396 -3.50664 -1310 205 197 201
-179.747 -3.50602 -1310 210 204 204
-176.964 -3.50273 -1309 211 205 207
-174.054 -3.49677 -1307 210 203 207
-171.415 -3.49601 -1307 210 203 208
-168.778 -3.49543 -1307 210 203 208
-165.761 -3.48683 -1304 209 202 208
-163.133 -3.48626 -1304 211 204 210
-160.383 -3.48303 -1303 212 204 211
-157.759 -3.48248 -1303 210 203 211
-155.017 -3.47927 -1302 208 201 208
-152.515 -3.48141 -1303 204 197 205
-149.895 -3.48088 -1303 200 193 200
-147.39 -3.48304 -1304 199 192 199
-144.77 -3.48254 -1304 198 194 198
-141.934 -3.4767 -1302 200 196 200
-139.214 -3.47354 -1301 200 196 201
-136.499 -3.4704 -1300 201 197 202
-133.789 -3.46726 -1299 202 198 203
-131.084 -3.46413 -1298 202 198 203
-128.483 -3.46352 -1298 203 199 204
-125.689 -3.45775 -1296 202 198 204
-123.095 -3.45732 -1296 201 197 202
-120.594 -3.45956 -1297 201 197 202
-117.908 -3.45648 -1296 200 196 202
-115.405 -3.45874 -1297 200 195 202
-112.986 -3.46368 -1299 202 197 205
-110.475 -3.46596 -1300 203 198 205
-107.795 -3.46291 -1299 204 200 206
-105.201 -3.46254 -1299 203 198 206
-102.529 -3.45952 -1298 202 197 205
-99.9382 -3.45917 -1298 202 197 205
-97.4235 -3.46149 -1299 200 196 203
-94.9055 -3.46382 -1300 201 197 203
-92.3134 -3.46349 -1300 200 195 204
-89.791 -3.46584 -1301 201 196 205
-87.1312 -3.46287 -1300 200 195 204
-84.5412 -3.46257 -1300 198 193 202
-81.9519 -3.46228 -1300 194 189 198
-79.4242 -3.46467 -1301 195 190 199
-76.9523 -3.46972 -1303 197 192 201
-74.3589 -3.46946 -1303 197 192 200
-71.8212 -3.47187 -1304 197 192 200
-69.227 -3.47162 -1304 193 188 197
-66.6333 -3.47138 -1304 194 189 198
-63.9911 -3.46849 -1303 197 192 202
-61.4476 -3.47094 -1304 197 192 203
-58.8555 -3.47073 -1304 201 197 208
-56.3932 -3.47851 -1307 201 197 208
-53.796 -3.47832 -1307 206 201 212
-51.1993 -3.47814 -1307 203 198 209
-48.603 -3.47796 -1307 196 191 202
-46.007 -3.4778 -1307 192 188 199
-43.4779 -3.48297 -1309 189 185 195
-40.9411 -3.48814 -1311 186 181 191
-38.3676 -3.49066 -1312 184 179 193
-35.8448 -3.49852 -1315 181 177 192
-33.2346 -3.4984 -1315 173 169 185
-30.6247 -3.49828 -1315 166 162 177
-28.0363 -3.50084 -1316 167 163 177
-25.4442 -3.50341 -1317 171 166 181
-22.8136 -3.50066 -1316 170 165 180
-20.2179 -3.50325 -1317 177 172 187
-17.6318 -3.5085 -1319 184 179 194
-15.015 -3.50845 -1319 188 183 198
-12.4078 -3.51106 -1320 190 183 200
-9.8042 -3.51634 -1322 187 180 197
-7.18727 -3.51897 -1323 184 179 195
-4.56642 -3.52161 -1324 182 176 192
-1.94311 -3.52692 -1326 179 172 188
0.687605 -3.52958 -1327 173 168 183
3.32229 -3.53224 -1328 162 157 173
5.96994 -3.54024 -1331 147 143 160
8.62307 -3.54559 -1333 138 134 153
11.3011 -3.55626 -1337 133 129 150
13.9742 -3.56162 -1339 133 128 150
16.6803 -3.57232 -1343 132 128 150
19.3735 -3.5777 -1345 126 123 144
22.0748 -3.58309 -1347 123 119 140
24.7842 -3.5885 -1349 128 124 145
27.5424 -3.59923 -1353 131 127 146
30.2721 -3.60465 -1355 132 128 147
33.0343 -3.61274 -1358 131 127 146
35.8087 -3.62084 -1361 134 130 149
38.5669 -3.62629 -1363 136 132 151
41.3334 -3.63175 -1365 137 133 153
44.1405 -3.63988 -1368 135 131 151
46.8913 -3.6427 -1369 133 129 148
49.6464 -3.64553 -1370 142 137 157
52.5206 -3.65636 -1374 143 138 158
55.2503 -3.65654 -1374 153 149 168
57.9803 -3.65674 -1374 172 167 183
60.7551 -3.65961 -1375 172 167 182
63.5343 -3.66249 -1376 169 161 178
66.2698 -3.66271 -1376 163 155 171
69.1565 -3.67094 -1379 157 149 165
72.0033 -3.67651 -1381 149 145 160
74.9128 -3.68475 -1384 136 132 147
78.1716 -3.70898 -1393 122 118 133
81.2924 -3.72523 -1399 115 114 128
84.4378 -3.7415 -1405 113 112 126
87.4838 -3.75245 -1409 117 116 128
90.5462 -3.76341 -1413 121 120 131
93.4931 -3.76906 -1415 121 120 130
96.585 -3.78004 -1419 121 123 129
99.9737 -3.8017 -1427 122 123 131
103.539 -3.82869 -1437 119 118 128
-306.83 -6.60331 -1400 208 203 205
-301.313 -6.5449 -1388 207 203 204
-295.418 -6.47694 -1374 212 206 207
-291.075 -6.44202 -1367 215 209 210
-285.92 -6.38846 -1356 212 205 209
-282.274 -6.36775 -1352 210 202 206
-278.647 -6.34723 -1348 208 201 205
-275.448 -6.33599 -1346 206 199 203
-272.462 -6.32964 -1345 205 199 203
-269.684 -6.32785 -1345 203 198 201
-266.709 -6.32153 -1344 200 196 200
-263.544 -6.31037 -1342 199 195 198
-260.973 -6.3135 -1343 200 196 199
-258.4 -6.31647 -1344 202 198 201
-255.634 -6.31492 -1344 203 199 202
-252.495 -6.30383 -1342 204 200 203
-250.296 -6.31641 -1345 202 198 201
-246.983 -6.30066 -1342 200 197 200
-243.684 -6.2851 -1339 200 197 200
-240.399 -6.26956 -1336 204 200 203
-237.663 -6.26796 -1336 208 204 207
-234.225 -6.24777 -1332 208 204 207
-231.327 -6.24152 -1331 207 203 206
-228.778 -6.24481 -1332 206 202 205
-225.718 -6.23407 -1330 206 202 205
-222.5 -6.21865 -1327 205 201 204
-219.794 -6.21716 -1327 204 200 203
-216.761 -6.20647 -1325 204 200 203
-213.739 -6.1958 -1323 206 202 205
-210.887 -6.18967 -1322 205 201 204
-208.197 -6.1884 -1322 202 198 201
-205.51 -6.18715 -1322 201 197 200
-202.67 -6.18123 -1321 202 197 200
-199.837 -6.17517 -1320 204 198 201
-196.859 -6.16462 -1318 204 197 201
-193.744 -6.1494 -1315 205 197 201
-190.789 -6.13888 -1313 205 197 201
-187.986 -6.13306 -1312 203 196 200
-185.047 -6.12242 -1310 202 194 198
-182.397 -6.12131 -1310 204 196 200
-179.748 -6.1202 -1310 212 205 209
-176.83 -6.10978 -1308 214 207 211
-174.055 -6.10404 -1307 213 206 210
-171.285 -6.09816 -1306 212 205 209
-168.65 -6.09713 -1306 210 203 207
-165.635 -6.08211 -1303 207 200 204
-163.008 -6.08111 -1303 208 201 207
-160.26 -6.07546 -1302 211 204 212
-157.517 -6.06983 -1301 211 204 210
-154.899 -6.06888 -1301 210 203 209
-152.282 -6.06794 -1301 207 200 206
-149.666 -6.06686 -1301 205 198 205
-147.164 -6.07062 -1302 202 195 203
-144.66 -6.07439 -1303 201 197 202
-141.825 -6.0642 -1301 203 199 204
-139.214 -6.06334 -1301 202 198 203
-136.604 -6.0625 -1301 202 198 203
-133.789 -6.05235 -1299 202 198 203
-131.185 -6.05154 -1299 202 198 203
-128.484 -6.04609 -1298 204 199 205
-125.787 -6.04066 -1297 202 197 205
-123.095 -6.03524 -1296 202 198 204
-120.501 -6.0345 -1296 202 198 203
-117.909 -6.03377 -1296 201 196 204
-115.317 -6.03306 -1296 201 196 204
-112.813 -6.03686 -1297 202 197 205
-110.391 -6.04548 -1299 204 200 206
-107.713 -6.04016 -1298 205 201 206
-105.202 -6.04416 -1299 202 197 205
-102.608 -6.04353 -1299 201 196 204
-100.093 -6.04756 -1300 202 197 205
-97.499 -6.04696 -1300 201 197 203
-95.052 -6.05567 -1302 201 197 202
-92.3849 -6.05045 -1301 201 196 204
-89.7914 -6.04989 -1301 201 197 205
-87.1316 -6.0447 -1300 202 197 205
-84.4766 -6.03952 -1299 199 194 202
-81.8893 -6.03901 -1299 195 190 198
-79.3636 -6.04317 -1300 196 191 200
-76.7755 -6.04269 -1300 199 194 203
-74.3022 -6.05152 -1302 199 194 202
-71.7114 -6.05107 -1302 196 191 200
-69.1212 -6.05064 -1302 194 189 198
-66.5825 -6.05487 -1303 197 192 201
-63.9914 -6.05447 -1303 200 195 205
-61.4008 -6.05409 -1303 199 194 205
-58.8106 -6.05372 -1303 200 195 206
-56.3072 -6.06266 -1305 201 196 207
-53.6728 -6.05767 -1304 202 197 208
-51.1212 -6.062 -1305 198 193 204
-48.566 -6.06634 -1306 195 190 201
-46.0072 -6.07069 -1307 193 188 199
-43.4781 -6.07971 -1309 188 183 194
-40.9413 -6.08874 -1311 185 180 189
-38.397 -6.09778 -1313 183 178 191
-35.845 -6.10684 -1315 178 173 188
-33.26 -6.11128 -1316 169 165 180
-30.6248 -6.10644 -1315 165 161 176
-28.0364 -6.1109 -1316 165 161 174
-25.425 -6.11074 -1316 171 166 179
-22.8137 -6.11059 -1316 173 168 181
-20.218 -6.1151 -1317 181 176 191
-17.6051 -6.11498 -1317 189 184 199
-14.9923 -6.11488 -1317 191 186 201
-12.3985 -6.12409 -1319 191 183 201
-9.79683 -6.1333 -1321 187 180 198
-7.17643 -6.13325 -1321 183 178 195
-4.56299 -6.1425 -1323 183 176 192
-1.94165 -6.15177 -1325 180 172 188
0.68709 -6.15641 -1326 168 163 180
3.3198 -6.16106 -1327 154 149 167
5.96997 -6.17966 -1331 143 139 158
8.62958 -6.19364 -1334 134 131 152
11.3096 -6.21227 -1338 132 130 151
13.9847 -6.22163 -1340 135 129 151
16.6803 -6.23566 -1343 133 128 149
19.3736 -6.24506 -1345 127 123 144
22.0749 -6.25447 -1347 125 121 140
24.7843 -6.2639 -1349 128 124 143
27.5222 -6.27799 -1352 131 127 145
30.2946 -6.29674 -1356 133 129 148
33.0588 -6.31087 -1359 133 129 150
35.8088 -6.32037 -1361 136 132 151
38.5388 -6.32524 -1362 135 131 150
41.3336 -6.33942 -1365 137 133 152
44.1084 -6.34897 -1367 139 135 154
46.8915 -6.35854 -1369 136 132 151
49.6466 -6.36348 -1370 142 137 158
52.5208 -6.38238 -1374 148 144 163
55.2505 -6.38271 -1374 158 154 171
58.0228 -6.3877 -1375 170 166 183
60.7996 -6.39271 -1376 171 166 183
63.6269 -6.40238 -1378 168 162 179
66.3665 -6.40278 -1378 164 157 172
69.207 -6.41249 -1380 159 151 165
72.0558 -6.42222 -1382 149 144 159
74.9132 -6.43197 -1384 135 131 147
78.0036 -6.46032 -1390 119 115 132
81.2347 -6.49799 -1398 114 113 127
84.4382 -6.53104 -1405 114 113 127
87.4221 -6.54551 -1408 114 113 124
90.4825 -6.56465 -1412 120 119 129
93.3614 -6.56987 -1413 122 121 131
96.4493 -6.58905 -1417 121 121 129
99.6939 -6.61755 -1423 120 119 128
103.756 -6.69723 -1440 118 117 126
-314.615 -9.57529 -1422 207 200 204
-307.052 -9.43107 -1401 206 200 203
-301.098 -9.33406 -1387 206 202 203
-295.206 -9.23714 -1373 212 206 208
-290.225 -9.16719 -1363 213 206 208
-286.343 -9.13109 -1358 210 203 207
-282.067 -9.08143 -1351 209 202 206
-279.062 -9.07213 -1350 208 201 204
-275.859 -9.05614 -1348 206 199 203
-272.465 -9.03347 -1345 204 198 202
-269.485 -9.02442 -1344 200 196 199
-266.513 -9.01524 -1343 199 195 198
-263.35 -8.99937 -1341 199 195 198
-260.781 -9.00382 -1342 201 197 200
-258.209 -9.00813 -1343 202 198 201
-255.256 -8.99905 -1342 202 198 201
-252.309 -8.99016 -1341 203 199 202
-249.74 -8.99453 -1342 202 198 201
-246.617 -8.97882 -1340 199 196 199
-243.686 -8.97 -1339 201 197 200
-240.581 -8.95435 -1337 204 200 203
-237.843 -8.95229 -1337 207 203 206
-234.578 -8.93 -1334 208 204 207
-231.676 -8.92129 -1333 207 203 206
-228.608 -8.90575 -1331 205 201 204
-225.55 -8.89041 -1329 204 200 203
-222.837 -8.88831 -1329 205 201 204
-219.795 -8.87301 -1327 205 201 204
-216.763 -8.85759 -1325 208 204 207
-213.741 -8.84236 -1323 207 203 206
-211.207 -8.8472 -1324 205 201 204
-208.356 -8.83854 -1323 203 199 202
-205.667 -8.83674 -1323 203 199 202
-202.979 -8.83497 -1323 205 201 204
-200.141 -8.82638 -1322 206 199 203
-197.16 -8.8113 -1320 204 197 201
-194.188 -8.79625 -1318 206 198 202
-191.081 -8.7744 -1315 206 199 203
-188.13 -8.75941 -1313 204 197 201
-185.19 -8.74445 -1311 202 194 198
-182.259 -8.72951 -1309 203 195 199
-179.475 -8.72111 -1308 210 203 207
-176.831 -8.71956 -1308 213 206 210
-174.056 -8.71136 -1307 214 207 211
-171.417 -8.70986 -1307 213 206 210
-168.78 -8.70822 -1307 211 204 208
-165.89 -8.69344 -1305 208 201 205
-163.135 -8.68534 -1304 209 202 208
-160.262 -8.67061 -1302 210 203 211
-157.519 -8.66257 -1301 211 204 210
-155.019 -8.6677 -1302 210 203 209
-152.283 -8.65971 -1301 209 202 208
-149.667 -8.65839 -1301 209 202 209
-147.165 -8.66375 -1302 207 200 208
-144.55 -8.66247 -1302 202 198 203
-141.827 -8.65457 -1301 202 198 203
-139.215 -8.65334 -1301 200 196 201
-136.5 -8.64533 -1300 200 196 201
-133.79 -8.6375 -1299 201 197 202
-131.085 -8.62969 -1298 202 198 203
-128.584 -8.6352 -1299 203 199 205
-125.788 -8.62079 -1297 202 197 205
-123.096 -8.61306 -1296 202 198 204
-120.502 -8.61199 -1296 202 198 203
-118.001 -8.61759 -1297 203 198 206
-115.407 -8.61657 -1297 203 198 206
-112.901 -8.62222 -1298 203 198 206
-110.307 -8.62124 -1298 203 198 205
-107.631 -8.61364 -1297 203 199 206
-105.04 -8.61271 -1297 200 195 203
-102.451 -8.61164 -1297 200 195 203
-100.016 -8.62403 -1299 202 197 205
-97.4997 -8.62981 -1300 202 198 203
-94.9797 -8.6356 -1301 203 199 204
-92.3855 -8.63478 -1301 204 199 207
-89.7921 -8.63398 -1301 202 197 205
-87.1323 -8.62657 -1300 201 196 204
-84.4773 -8.61918 -1299 198 193 201
-81.8268 -8.61181 -1298 194 189 198
-79.3031 -8.61774 -1299 197 192 200
-76.7171 -8.61706 -1299 200 195 203
-74.1886 -8.62303 -1300 201 196 204
-71.6569 -8.62902 -1301 198 193 202
-69.0684 -8.6284 -1301 198 193 202
-66.5319 -8.63444 -1302 200 195 204
-63.9427 -8.63387 -1302 202 197 207
-61.3541 -8.63332 -1302 201 196 207
-58.7659 -8.63279 -1302 201 196 207
-56.2645 -8.64554 -1304 202 197 208
-53.6732 -8.64506 -1304 199 194 205
-51.1216 -8.65123 -1305 193 188 199
-48.5292 -8.65079 -1305 192 187 198
-45.9724 -8.65701 -1306 191 186 197
-43.4784 -8.6765 -1309 185 180 190
-40.9104 -8.68276 -1310 180 175 184
-38.368 -8.69566 -1312 179 174 187
-35.818 -8.70859 -1314 174 169 184
-33.2097 -8.70829 -1314 170 166 181
-30.5785 -8.70138 -1313 170 166 180
-27.994 -8.70775 -1314 172 168 181
-25.4058 -8.71414 -1315 172 167 181
-22.7966 -8.71393 -1315 179 174 188
-20.1874 -8.71374 -1315 188 183 198
-17.5919 -8.7202 -1316 191 186 201
-14.9925 -8.72669 -1317 190 185 200
-12.3892 -8.73319 -1318 188 181 198
-9.78949 -8.74635 -1320 183 177 194
-7.18192 -8.75953 -1322 180 176 192
-4.56303 -8.7661 -1323 178 173 188
-1.94167 -8.77932 -1325 174 168 184
0.687096 -8.78595 -1326 161 155 175
3.31983 -8.79259 -1327 148 142 162
5.97001 -8.81913 -1331 139 135 155
8.62965 -8.83908 -1334 134 132 153
11.3013 -8.85904 -1337 133 131 152
13.9848 -8.87903 -1340 133 127 149
16.668 -8.89242 -1342 128 123 145
19.3449 -8.89921 -1343 124 120 141
22.075 -8.9259 -1347 127 123 142
24.7661 -8.93273 -1348 130 126 145
27.5224 -8.95947 -1352 134 130 148
30.2502 -8.97297 -1354 137 133 153
33.0104 -8.99313 -1357 139 135 156
35.7565 -9.00669 -1359 139 135 154
38.4825 -9.01365 -1360 134 130 149
41.2431 -9.02725 -1362 136 132 150
44.0442 -9.04751 -1365 138 134 153
46.8233 -9.06117 -1367 139 135 154
49.6108 -9.07485 -1369 142 138 159
52.483 -9.10182 -1373 150 146 165
55.2911 -9.11555 -1375 160 156 173
58.0655 -9.12268 -1376 169 165 182
60.8442 -9.12983 -1377 170 166 183
63.6274 -9.13701 -1378 169 164 181
66.367 -9.13758 -1378 165 158 174
69.2075 -9.15144 -1380 161 153 168
72.0564 -9.16533 -1382 150 145 160
75.022 -9.1925 -1386 137 132 148
78.1164 -9.23297 -1392 120 116 132
81.3515 -9.28674 -1400 113 112 126
84.5591 -9.3339 -1407 112 111 125
87.4228 -9.34129 -1408 112 111 121
90.4191 -9.36198 -1411 119 118 128
93.3621 -9.37605 -1413 122 121 131
96.3139 -9.39016 -1415 122 121 131
99.5546 -9.43084 -1421 120 119 128
103.397 -9.52465 -1435 117 116 124
-315.282 -12.4678 -1425 206 199 203
-307.932 -12.2892 -1405 205 200 203
-301.536 -12.1457 -1389 207 203 205
-295.209 -12.0023 -1373 213 206 210
-290.229 -11.9114 -1363 213 206 209
-285.925 -11.8467 -1356 210 203 207
-282.279 -11.8084 -1352 209 203 205
-279.065 -11.7877 -1350 208 202 203
-275.862 -11.7669 -1348 206 199 203
-272.873 -11.755 -1347 204 198 202
-269.689 -11.7343 -1345 201 197 200
-266.912 -11.7312 -1345 201 197 200
-263.746 -11.7106 -1343 202 198 201
-261.172 -11.7162 -1344 203 199 202
-258.597 -11.722 -1345 204 200 203
-255.829 -11.7189 -1345 203 199 202
-252.687 -11.6985 -1343 204 200 203
-250.114 -11.7042 -1344 204 200 203
-246.987 -11.6838 -1342 201 198 201
-243.688 -11.655 -1339 203 199 202
-240.764 -11.6434 -1338 204 200 203
-237.845 -11.6318 -1337 205 201 204
-234.581 -11.6031 -1334 206 202 205
-231.678 -11.5916 -1333 206 202 205
-228.954 -11.5888 -1333 204 200 203
-225.722 -11.5602 -1330 204 200 203
-222.84 -11.5488 -1329 205 201 204
-219.963 -11.5376 -1328 205 201 204
-216.929 -11.5176 -1326 206 202 205
-213.582 -11.4805 -1322 207 203 206
-211.21 -11.4953 -1324 207 203 206
-208.516 -11.4929 -1324 205 201 204
-205.669 -11.4817 -1323 204 200 203
-202.981 -11.4794 -1323 203 199 202
-200.143 -11.4683 -1322 205 199 203
-197.162 -11.4487 -1320 204 197 201
-194.043 -11.4203 -1317 204 197 201
-191.083 -11.4008 -1315 205 198 202
-187.989 -11.3726 -1312 205 198 202
-185.05 -11.353 -1310 205 197 201
-182.122 -11.3336 -1308 203 195 199
-179.339 -11.3229 -1307 209 202 206
-176.563 -11.3121 -1306 212 205 209
-173.791 -11.3014 -1305 214 207 211
-171.157 -11.2995 -1305 214 207 211
-168.524 -11.2974 -1305 212 205 209
-165.765 -11.2868 -1304 211 204 208
-163.011 -11.2763 -1303 210 203 209
-160.263 -11.2658 -1302 209 202 210
-157.641 -11.2639 -1302 209 202 208
-155.021 -11.2621 -1302 209 202 208
-152.402 -11.2603 -1302 209 202 208
-149.784 -11.2586 -1302 209 202 209
-147.28 -11.2656 -1303 208 201 209
-144.44 -11.2465 -1301 205 201 206
-141.719 -11.2362 -1300 205 201 206
-139.217 -11.2433 -1301 202 198 203
-136.502 -11.233 -1300 200 196 201
-133.689 -11.2142 -1298 198 194 199
-131.087 -11.2127 -1298 199 195 200
-128.486 -11.2112 -1298 202 198 204
-125.789 -11.201 -1297 202 198 205
-123.192 -11.1996 -1297 203 198 204
-120.597 -11.1982 -1297 203 199 204
-118.002 -11.1968 -1297 204 199 207
-115.319 -11.1869 -1296 203 198 206
-112.728 -11.1856 -1296 203 198 206
-110.053 -11.1757 -1295 203 198 206
-107.466 -11.1744 -1295 201 196 204
-104.799 -11.1646 -1294 199 194 202
-102.215 -11.1634 -1294 201 196 204
-99.7865 -11.1795 -1296 202 197 205
-97.3507 -11.1956 -1298 201 197 202
-94.9077 -11.2116 -1300 203 199 204
-92.3155 -11.2106 -1300 201 196 204
-89.724 -11.2095 -1300 198 193 201
-87.1332 -11.2085 -1300 196 191 199
-84.478 -11.1989 -1299 195 190 198
-81.8277 -11.1893 -1298 195 190 198
-79.365 -11.2057 -1300 198 193 201
-76.7178 -11.1961 -1299 200 195 203
-74.1894 -11.2039 -1300 201 196 204
-71.6576 -11.2117 -1301 202 197 206
-69.0162 -11.2023 -1300 201 196 205
-66.4304 -11.2015 -1300 201 196 205
-63.9434 -11.218 -1302 202 197 207
-61.3076 -11.2086 -1301 203 198 209
-58.7214 -11.208 -1301 201 196 207
-56.2219 -11.2245 -1303 201 196 207
-53.6737 -11.2325 -1304 197 192 203
-51.0829 -11.2319 -1304 191 186 197
-48.5297 -11.24 -1305 189 184 195
-45.9728 -11.248 -1306 182 177 188
-43.4456 -11.2647 -1308 174 169 180
-40.8796 -11.2729 -1309 172 167 177
-38.3392 -11.2896 -1311 171 166 179
-35.7911 -11.3064 -1313 171 166 181
-33.2101 -11.3147 -1314 173 169 184
-30.5788 -11.3057 -1313 178 174 188
-27.973 -11.3053 -1313 182 178 191
-25.3868 -11.3137 -1314 185 180 195
-22.7968 -11.322 -1315 190 185 200
-20.1877 -11.3217 -1315 192 187 202
-17.6054 -11.3387 -1317 189 184 199
-15.004 -11.3472 -1318 186 181 196
-12.3987 -11.3556 -1319 185 180 195
-9.797 -11.3727 -1321 181 176 191
-7.18199 -11.3812 -1322 175 171 186
-4.56652 -11.3984 -1324 171 166 181
-1.94168 -11.407 -1325 166 161 176
0.686585 -11.4069 -1325 154 148 168
3.32237 -11.4328 -1328 144 138 159
5.97008 -11.4587 -1331 137 133 154
8.62974 -11.4846 -1334 132 129 150
11.3098 -11.5191 -1338 129 127 148
13.9954 -11.5451 -1341 129 123 145
16.6931 -11.5711 -1344 128 122 144
19.3739 -11.5799 -1345 127 123 144
22.0916 -11.606 -1348 129 125 144
24.8031 -11.6235 -1350 129 125 144
27.5431 -11.6496 -1353 135 131 150
30.2505 -11.6586 -1354 136 132 153
33.0107 -11.6848 -1357 138 134 155
35.7305 -11.6938 -1358 138 134 153
38.4546 -11.7028 -1359 135 131 149
41.2132 -11.7205 -1361 136 132 149
44.0124 -11.7468 -1364 137 133 151
46.8238 -11.7732 -1367 138 134 153
49.575 -11.7823 -1368 141 137 158
52.4453 -11.8174 -1372 150 145 164
55.2113 -11.8266 -1373 162 157 174
58.0238 -11.8445 -1375 170 165 182
60.8006 -11.8538 -1376 171 166 183
63.6281 -11.8717 -1378 166 161 178
66.3196 -11.8638 -1377 164 157 173
69.158 -11.8818 -1379 164 156 172
72.0049 -11.8999 -1381 153 148 163
74.9686 -11.9352 -1385 139 134 149
78.1172 -11.9964 -1392 121 117 132
81.2361 -12.049 -1398 112 110 124
84.5601 -12.1275 -1407 111 110 123
87.4236 -12.1371 -1408 110 109 119
90.42 -12.164 -1411 117 116 126
93.2969 -12.1737 -1412 123 122 132
96.2468 -12.192 -1414 123 122 132
99.6256 -12.2621 -1422 120 119 129
103.109 -12.3409 -1431 117 116 124
-308.593 -15.1527 -1408 206 201 204
-301.757 -14.9547 -1390 206 202 205
-295.428 -14.7781 -1374 212 205 209
-290.019 -14.6449 -1362 212 205 209
-285.718 -14.5653 -1355 207 200 204
-282.283 -14.529 -1352 206 199 203
-279.276 -14.5142 -1351 204 197 201
-275.866 -14.4778 -1348 205 198 202
-272.876 -14.4632 -1347 203 197 200
-269.692 -14.4378 -1345 203 197 200
-266.916 -14.4339 -1345 203 199 202
-263.749 -14.4086 -1343 203 199 202
-260.981 -14.4048 -1343 203 199 202
-258.6 -14.4224 -1345 203 199 202
-255.832 -14.4186 -1345 204 200 203
-252.691 -14.3935 -1343 206 202 205
-249.746 -14.3792 -1342 206 202 205
-246.99 -14.3757 -1342 204 201 204
-243.873 -14.3507 -1340 204 200 203
-240.947 -14.3365 -1339 203 199 202
-238.204 -14.333 -1339 203 199 202
-234.936 -14.2975 -1336 204 200 203
-231.681 -14.262 -1333 205 201 204
-228.957 -14.2586 -1333 205 201 204
-225.725 -14.2234 -1330 204 200 203
-223.01 -14.2201 -1330 203 199 202
-219.966 -14.1955 -1328 204 200 203
-217.095 -14.1818 -1327 205 201 204
-214.069 -14.1572 -1325 203 199 202
-211.372 -14.1541 -1325 202 198 201
-208.519 -14.1405 -1324 202 198 201
-205.827 -14.1375 -1324 202 198 201
-203.29 -14.1453 -1325 202 198 201
-200.146 -14.1103 -1322 204 197 201
-197.314 -14.0969 -1321 203 196 200
-194.045 -14.0513 -1317 202 195 199
-191.085 -14.0273 -1315 205 198 202
-187.992 -13.9925 -1312 207 200 204
-185.053 -13.9685 -1310 206 199 203
-181.985 -13.9338 -1307 204 196 200
-179.204 -13.9207 -1306 206 199 203
-176.43 -13.9075 -1305 208 201 205
-173.661 -13.8943 -1304 210 203 207
-171.028 -13.8919 -1304 211 204 208
-168.397 -13.8893 -1304 207 200 204
-165.767 -13.887 -1304 207 200 204
-162.888 -13.8634 -1302 208 201 207
-160.265 -13.861 -1302 207 200 208
-157.643 -13.8588 -1302 208 201 207
-155.023 -13.8566 -1302 209 202 208
-152.287 -13.8438 -1301 208 201 207
-149.671 -13.8415 -1301 207 200 208
-147.169 -13.8501 -1302 207 200 208
-144.442 -13.8374 -1301 208 204 209
-141.721 -13.8247 -1300 207 203 208
-139.111 -13.8228 -1300 205 201 206
-136.503 -13.8207 -1300 202 198 203
-133.69 -13.7975 -1298 196 192 197
-130.987 -13.785 -1297 196 192 197
-128.488 -13.7939 -1298 201 197 202
-125.791 -13.7814 -1297 202 198 203
-123.099 -13.7691 -1296 202 198 203
-120.412 -13.7566 -1295 203 199 204
-117.912 -13.7655 -1296 204 199 207
-115.231 -13.7533 -1295 204 199 207
-112.642 -13.7517 -1295 204 199 207
-110.054 -13.7501 -1295 203 198 206
-107.384 -13.738 -1294 201 196 204
-104.8 -13.7365 -1294 200 195 203
-102.216 -13.735 -1294 202 197 205
-99.7108 -13.7442 -1295 201 196 204
-97.2769 -13.7641 -1297 199 195 200
-94.8359 -13.7839 -1299 201 197 202
-92.3166 -13.7932 -1300 200 195 203
-89.6561 -13.7812 -1299 198 193 201
-87.0672 -13.7799 -1299 197 192 200
-84.4141 -13.7681 -1298 198 193 201
-81.8287 -13.7669 -1298 201 196 204
-79.1828 -13.7552 -1297 202 197 205
-76.6598 -13.7647 -1298 203 198 206
-74.1332 -13.7743 -1299 202 197 205
-71.5483 -13.7732 -1299 201 196 205
-68.9109 -13.7616 -1298 200 195 204
-66.3801 -13.7713 -1299 200 195 204
-63.846 -13.781 -1300 201 196 206
-61.2612 -13.7801 -1300 202 197 208
-58.7221 -13.7898 -1301 201 196 207
-56.2226 -13.8102 -1303 199 194 205
-53.6745 -13.8201 -1304 193 188 199
-51.0836 -13.8193 -1304 189 184 195
-48.4931 -13.8186 -1304 186 181 192
-45.9382 -13.8285 -1305 177 172 183
-43.413 -13.8491 -1307 170 165 176
-40.8489 -13.8591 -1308 169 164 174
-38.3104 -13.8797 -1310 168 163 177
-35.737 -13.8898 -1311 173 168 183
-33.16 -13.8999 -1312 178 174 189
-30.5559 -13.8995 -1312 182 178 192
-27.9734 -13.9097 -1313 186 182 195
-25.3871 -13.9199 -1314 189 184 199
-22.7971 -13.9301 -1315 191 186 201
-20.2033 -13.9404 -1316 191 186 201
-17.5923 -13.9402 -1316 188 183 198
-15.0156 -13.9717 -1319 185 180 195
-12.4177 -13.9927 -1321 182 177 192
-9.80454 -14.0031 -1322 177 172 187
-7.18752 -14.0136 -1323 173 169 184
-4.56658 -14.0241 -1324 165 161 176
-1.94024 -14.0241 -1324 157 152 167
0.686076 -14.0241 -1324 145 139 159
3.31991 -14.0559 -1327 138 133 153
5.97015 -14.0983 -1331 134 130 151
8.62985 -14.1302 -1334 129 127 148
11.31 -14.1727 -1338 125 123 144
13.9956 -14.2047 -1341 124 120 141
16.7057 -14.2472 -1345 127 123 144
19.3597 -14.2369 -1344 131 127 148
22.1083 -14.2902 -1349 133 129 148
24.8034 -14.3011 -1350 133 129 148
27.5434 -14.3332 -1353 136 132 151
30.2285 -14.3336 -1353 134 130 151
32.9868 -14.3659 -1356 134 130 151
35.7047 -14.377 -1357 137 133 152
38.3985 -14.3775 -1357 138 134 152
41.1229 -14.3886 -1358 137 133 150
43.9161 -14.421 -1361 136 132 151
46.6874 -14.4429 -1363 137 133 152
49.4669 -14.4647 -1365 142 138 158
52.3695 -14.5184 -1370 151 147 165
55.1718 -14.5404 -1372 162 157 174
58.0246 -14.573 -1375 170 165 180
60.7572 -14.5738 -1375 168 163 179
63.6289 -14.6065 -1378 162 157 174
66.2723 -14.5862 -1376 160 154 170
69.1088 -14.6084 -1378 162 156 172
71.9537 -14.6306 -1380 155 150 165
74.9696 -14.6846 -1385 140 135 150
78.1182 -14.7599 -1392 123 119 134
81.4115 -14.8565 -1401 113 111 124
84.5011 -14.9107 -1406 113 112 124
87.4868 -14.9437 -1409 111 110 120
90.4212 -14.9662 -1411 114 113 123
93.3642 -14.9887 -1413 120 119 129
96.18 -14.99 -1413 121 120 129
99.4868 -15.0658 -1420 122 120 129
103.111 -15.184 -1431 119 118 126
-308.379 -17.9774 -1407 206 201 204
-301.979 -17.7677 -1391 205 201 204
-295.002 -17.52 -1372 212 205 209
-289.811 -17.3744 -1361 213 206 210
-285.511 -17.28 -1354 210 203 207
-281.869 -17.2242 -1350 208 201 205
-278.867 -17.2065 -1349 206 199 203
-275.87 -17.189 -1348 202 195 199
-272.88 -17.1714 -1347 201 194 198
-269.897 -17.1541 -1346 203 196 200
-267.119 -17.1493 -1346 203 198 202
-263.95 -17.1194 -1344 202 198 201
-261.374 -17.1276 -1345 202 198 201
-258.989 -17.1485 -1347 203 199 202
-256.027 -17.1314 -1346 205 201 204
-253.259 -17.127 -1346 207 203 206
-250.122 -17.0973 -1344 207 202 205
-247.362 -17.093 -1344 204 200 203
-244.241 -17.0634 -1342 203 199 202
-241.13 -17.0336 -1340 202 198 201
-237.852 -16.9915 -1337 202 198 201
-234.939 -16.9748 -1336 204 200 203
-231.859 -16.9454 -1334 205 201 204
-228.789 -16.916 -1332 205 201 204
-225.728 -16.8867 -1330 203 199 202
-223.014 -16.8828 -1330 202 198 201
-219.969 -16.8536 -1328 203 199 202
-216.772 -16.8118 -1325 203 199 202
-213.911 -16.7954 -1324 202 198 201
-211.216 -16.7919 -1324 200 196 199
-208.68 -16.8009 -1325 199 195 198
-205.83 -16.7846 -1324 200 196 199
-203.293 -16.7939 -1325 202 198 201
-200.3 -16.7651 -1323 202 196 200
-197.317 -16.7363 -1321 201 196 199
-194.048 -16.6824 -1317 202 195 199
-190.943 -16.641 -1314 204 197 201
-187.851 -16.5999 -1311 205 198 202
-184.915 -16.5713 -1309 205 198 202
-181.988 -16.543 -1307 205 198 202
-179.207 -16.5272 -1306 205 198 202
-176.297 -16.4989 -1304 205 198 202
-173.53 -16.4832 -1303 206 199 203
-170.899 -16.4804 -1303 209 202 206
-168.141 -16.4647 -1302 207 200 204
-165.515 -16.462 -1302 206 199 203
-162.891 -16.4592 -1302 208 201 207
-160.145 -16.4438 -1301 208 201 209
-157.525 -16.4411 -1301 208 201 207
-154.906 -16.4385 -1301 208 201 207
-152.289 -16.4358 -1301 208 201 207
-149.558 -16.4207 -1300 207 200 207
-147.058 -16.4308 -1301 207 200 207
-144.333 -16.4158 -1300 205 201 206
-141.614 -16.4006 -1299 204 200 205
-139.007 -16.3983 -1299 202 198 203
-136.4 -16.396 -1299 201 197 202
-133.692 -16.3811 -1298 197 193 198
-130.989 -16.3661 -1297 197 193 198
-128.589 -16.3892 -1299 201 197 202
-125.793 -16.3618 -1297 202 198 203
-123.101 -16.3472 -1296 200 196 201
-120.507 -16.3451 -1296 201 197 202
-117.914 -16.3431 -1296 203 198 206
-115.233 -16.3286 -1295 205 200 208
-112.557 -16.3139 -1294 205 200 208
-109.971 -16.3121 -1294 203 198 205
-107.386 -16.3102 -1294 202 198 204
-104.721 -16.2959 -1293 201 197 203
-102.139 -16.2941 -1293 202 198 204
-99.6353 -16.3051 -1294 201 197 203
-97.1284 -16.316 -1295 197 193 199
-94.6913 -16.3396 -1297 200 196 201
-92.176 -16.3506 -1298 202 197 205
-89.5194 -16.3365 -1297 202 197 205
-87.0016 -16.3475 -1298 202 197 205
-84.3504 -16.3335 -1297 203 198 206
-81.7669 -16.3321 -1297 204 199 207
-79.123 -16.3181 -1296 204 199 207
-76.6019 -16.3294 -1297 205 200 208
-74.0773 -16.3408 -1298 202 197 205
-71.5494 -16.3521 -1299 199 194 203
-68.912 -16.3384 -1298 199 194 203
-66.3812 -16.3498 -1299 199 194 203
-63.847 -16.3613 -1300 198 193 204
-61.2622 -16.3603 -1300 198 193 204
-58.6779 -16.3593 -1300 196 191 202
-56.1372 -16.3709 -1301 195 190 201
-53.6342 -16.3951 -1303 188 183 194
-51.0844 -16.4068 -1304 187 182 193
-48.4938 -16.406 -1304 183 178 189
-45.9037 -16.4052 -1304 173 168 179
-43.3804 -16.4296 -1306 171 166 177
-40.7871 -16.4289 -1306 172 167 178
-38.2525 -16.4534 -1308 175 170 184
-35.6831 -16.4654 -1309 180 175 190
-33.1352 -16.49 -1311 182 178 193
-30.5331 -16.4894 -1311 184 180 194
-27.9525 -16.5015 -1312 187 183 196
-25.3875 -16.5262 -1314 187 182 196
-22.7974 -16.5384 -1315 186 181 195
-20.1882 -16.538 -1315 186 181 196
-17.5925 -16.5503 -1316 185 180 195
-15.0158 -16.5877 -1319 183 178 193
-12.3991 -16.5875 -1319 182 177 193
-9.8047 -16.6251 -1322 178 173 189
-7.18219 -16.6249 -1322 170 165 181
-4.5632 -16.6374 -1323 161 155 172
-1.93881 -16.6373 -1323 152 145 162
0.685569 -16.6373 -1323 140 136 155
3.31996 -16.6877 -1327 133 129 148
5.97025 -16.7381 -1331 130 126 147
8.62998 -16.7759 -1334 128 125 146
11.3186 -16.8389 -1339 126 123 144
14.0376 -16.9146 -1345 128 124 145
16.7308 -16.94 -1347 132 128 149
19.4033 -16.9403 -1347 134 130 151
22.1414 -16.991 -1351 134 130 149
24.8589 -17.0165 -1353 137 133 152
27.5642 -17.0296 -1354 138 134 153
30.2737 -17.0426 -1355 137 133 152
33.0117 -17.0683 -1357 135 131 152
35.7315 -17.0815 -1358 139 135 154
38.3991 -17.0695 -1357 137 133 152
41.1538 -17.0953 -1359 136 132 150
43.9168 -17.1212 -1361 137 133 151
46.6881 -17.1471 -1363 140 136 155
49.4315 -17.1605 -1364 146 142 161
52.3321 -17.2243 -1369 154 149 167
55.0922 -17.2378 -1370 162 157 174
57.9833 -17.289 -1374 168 163 178
60.7582 -17.3026 -1375 168 162 178
63.5837 -17.3288 -1377 166 160 177
66.2733 -17.3173 -1376 163 157 173
69.1098 -17.3436 -1378 160 155 170
71.9548 -17.37 -1380 152 148 163
74.9708 -17.4342 -1385 140 135 150
78.0072 -17.4984 -1390 124 120 135
81.4128 -17.6382 -1401 113 112 124
84.3822 -17.6774 -1404 113 112 124
87.364 -17.7166 -1407 111 110 120
90.2944 -17.7432 -1409 113 112 122
93.2996 -17.7826 -1412 120 119 129
96.1134 -17.7843 -1412 121 120 128
99.4183 -17.8741 -1419 123 122 130
103.473 -18.09 -1436 122 119 127
-308.604 -20.8278 -1408 205 199 203
-301.116 -20.511 -1387 207 203 206
-295.008 -20.2833 -1372 213 207 211
-289.816 -20.1148 -1361 213 206 210
-285.517 -20.0056 -1354 211 204 208
-282.083 -19.9555 -1351 209 202 206
-278.665 -19.9056 -1348 204 197 201
-275.671 -19.8854 -1347 201 194 198
-272.683 -19.8651 -1346 203 196 200
-269.702 -19.8449 -1345 204 197 201
-266.727 -19.8249 -1344 204 199 202
-263.758 -19.8047 -1343 203 199 202
-261.184 -19.8143 -1344 203 199 202
-258.609 -19.8238 -1345 203 199 202
-255.651 -19.804 -1344 206 202 205
-252.888 -19.7988 -1344 208 202 206
-249.94 -19.7791 -1343 207 201 204
-247.183 -19.7742 -1343 203 199 202
-244.246 -19.7547 -1342 200 196 199
-241.315 -19.735 -1341 199 195 198
-238.034 -19.6861 -1338 201 197 200
-234.944 -19.652 -1336 204 200 203
-231.689 -19.6033 -1333 204 200 203
-228.449 -19.5546 -1330 203 199 202
-225.393 -19.5207 -1328 203 199 202
-222.85 -19.531 -1329 204 200 203
-220.139 -19.5266 -1329 204 200 203
-217.103 -19.4928 -1327 205 201 204
-214.076 -19.4592 -1325 204 200 203
-211.379 -19.4549 -1325 204 200 203
-208.683 -19.4508 -1325 203 199 202
-205.679 -19.4174 -1323 204 200 203
-203.144 -19.428 -1324 204 200 203
-200.152 -19.3947 -1322 204 199 202
-197.32 -19.376 -1321 202 198 201
-194.052 -19.3136 -1317 202 195 199
-190.946 -19.2658 -1314 203 196 200
-187.998 -19.2327 -1312 203 196 200
-185.201 -19.2144 -1311 203 196 200
-182.13 -19.1668 -1308 203 196 200
-179.211 -19.134 -1306 206 199 203
-176.571 -19.1304 -1306 205 198 202
-173.666 -19.0978 -1304 205 198 202
-170.903 -19.0796 -1303 208 201 205
-168.273 -19.0764 -1303 209 202 206
-165.645 -19.073 -1303 209 202 206
-162.894 -19.0552 -1302 208 201 208
-160.271 -19.0519 -1302 208 201 209
-157.649 -19.0489 -1302 207 200 206
-154.909 -19.0312 -1301 207 200 206
-152.292 -19.0281 -1301 210 203 209
-149.561 -19.0106 -1300 210 203 209
-147.061 -19.0222 -1301 210 203 209
-144.447 -19.0194 -1301 207 203 208
-141.616 -18.9874 -1299 205 201 206
-139.116 -18.9993 -1300 203 199 204
-136.403 -18.9819 -1299 202 198 203
-133.798 -18.9793 -1299 200 196 201
-131.093 -18.9621 -1298 201 197 202
-128.69 -18.9888 -1300 203 199 204
-125.795 -18.9424 -1297 201 197 202
-123.103 -18.9254 -1296 201 197 202
-120.416 -18.9084 -1295 201 197 202
