ply
format ascii 1.0
comment Created by Open3D
element vertex 1458
property double x
property double y
property double z
property uchar red
property uchar green
property uchar blue
end_header
-160.8 -418.921 -1085 23 23 31
-158.64 -419.22 -1086 22 23 32
-156.477 -419.52 -1087 21 22 31
-154.169 -419.436 -1087 21 23 30
-151.863 -419.352 -1087 20 22 28
-149.558 -419.27 -1087 20 21 27
-147.255 -419.189 -1087 23 22 30
-144.953 -419.11 -1087 23 22 30
-142.652 -419.032 -1087 20 19 27
-140.223 -418.569 -1086 20 19 27
-137.8 -418.108 -1085 22 21 29
-135.382 -417.649 -1084 23 22 30
-133.215 -417.961 -1085 24 23 31
-130.925 -417.889 -1085 24 23 31
-128.754 -418.204 -1086 24 23 31
-126.464 -418.135 -1086 20 22 28
-124.289 -418.452 -1087 18 20 26
-121.887 -418 -1086 19 21 27
-119.71 -418.319 -1087 20 22 28
-117.422 -418.255 -1087 20 22 28
-115.135 -418.192 -1087 20 22 29
-112.849 -418.13 -1087 19 21 27
-110.463 -417.685 -1086 20 21 28
-108.181 -417.626 -1086 19 18 25
-105.9 -417.568 -1086 16 17 23
-103.716 -417.896 -1087 13 15 21
-101.528 -418.225 -1088 14 15 25
-99.6105 -419.708 -1092 14 15 25
-97.4098 -420.039 -1093 13 14 24
-95.554 -421.908 -1098 13 15 22
-93.593 -423.394 -1102 13 15 22
-91.5332 -424.496 -1105 15 17 24
-89.704 -426.752 -1111 15 17 24
-87.6932 -428.24 -1115 14 16 23
-85.7429 -430.114 -1120 14 16 23
-83.6979 -431.604 -1124 14 16 22
-81.637 -433.095 -1128 13 15 23
-79.3493 -433.436 -1129 14 15 26
-77.1262 -434.161 -1131 14 16 23
-74.6972 -433.737 -1130 13 15 21
-72.401 -434.081 -1131 13 15 21
-69.9774 -433.659 -1130 15 17 24
-67.6784 -434.005 -1131 19 21 28
-65.549 -435.504 -1135 20 22 29
-63.4035 -437.004 -1139 18 20 26
-61.2953 -438.889 -1144 17 19 26
-59.2184 -441.158 -1150 15 17 24
-57.0676 -443.045 -1155 14 16 24
-54.8491 -444.549 -1159 13 15 24
-52.6144 -446.054 -1163 13 15 22
-50.3203 -447.177 -1166 13 15 22
-47.9732 -447.918 -1168 13 15 22
-45.696 -449.426 -1172 13 15 22
-43.3658 -450.553 -1175 12 14 21
-40.9537 -450.914 -1176 11 13 19
-38.6688 -452.809 -1181 11 13 21
-36.2408 -453.172 -1182 13 15 23
-33.8375 -453.92 -1184 12 13 23
-31.4262 -454.67 -1186 12 14 21
-29.0068 -455.42 -1188 13 15 22
-26.5348 -455.405 -1188 15 17 24
-24.1237 -456.542 -1191 17 19 26
-276.834 -447.054 -1137 21 23 29
-274.809 -447.686 -1139 21 23 30
-272.299 -447.532 -1139 22 24 31
-269.792 -447.38 -1139 23 25 32
-267.053 -446.837 -1138 23 25 31
-264.321 -446.296 -1137 25 27 33
-261.595 -445.756 -1136 24 26 32
-258.877 -445.219 -1135 23 25 32
-255.713 -443.898 -1132 23 24 32
-252.789 -442.972 -1130 26 25 33
-249.876 -442.048 -1128 23 25 31
-246.755 -440.734 -1125 22 24 30
-243.649 -439.422 -1122 20 22 28
-240.773 -438.504 -1120 23 22 29
-237.695 -437.196 -1117 22 21 28
-234.633 -435.891 -1114 21 22 28
-231.586 -434.588 -1111 20 22 28
-228.348 -432.895 -1107 20 22 28
-225.946 -432.769 -1107 20 22 29
-223.344 -432.253 -1106 19 21 28
-220.548 -431.349 -1104 19 21 28
-217.368 -429.664 -1100 19 21 28
-214.403 -428.373 -1097 20 22 29
-211.066 -426.303 -1092 20 22 29
-208.517 -425.796 -1091 20 21 31
-205.597 -424.511 -1088 20 22 31
-202.691 -423.228 -1085 21 22 31
-199.985 -422.336 -1083 20 22 29
-197.471 -421.836 -1082 19 20 30
-194.604 -420.559 -1079 17 18 29
-192.285 -420.452 -1079 17 18 28
-190.144 -420.736 -1080 19 20 31
-188.001 -421.021 -1081 20 21 33
-185.511 -420.528 -1080 19 20 30
-183.367 -420.816 -1081 18 19 29
-181.053 -420.716 -1081 19 20 30
-178.905 -421.006 -1082 19 20 30
-176.755 -421.297 -1083 19 20 30
-174.603 -421.589 -1084 19 20 30
-172.606 -422.271 -1086 20 21 31
-170.289 -422.177 -1086 22 22 32
-167.819 -421.695 -1085 24 23 33
-165.354 -421.215 -1084 23 23 31
-163.197 -421.513 -1085 22 22 30
-160.888 -421.424 -1085 24 23 31
-158.873 -422.113 -1087 24 25 35
-156.706 -422.415 -1088 23 24 33
-154.395 -422.33 -1088 21 23 30
-152.086 -422.246 -1088 21 23 29
-149.915 -422.551 -1089 20 22 28
-147.606 -422.47 -1089 22 23 30
-145.165 -422.001 -1088 21 22 30
-142.861 -421.923 -1088 18 18 26
-140.429 -421.457 -1087 18 17 25
-137.875 -420.606 -1085 19 18 26
-135.456 -420.143 -1084 20 19 27
-133.165 -420.07 -1084 24 23 31
-130.755 -419.61 -1083 22 22 30
-128.587 -419.927 -1084 22 22 30
-126.3 -419.857 -1084 20 22 28
-124.243 -420.563 -1086 18 20 26
-121.841 -420.109 -1085 18 20 26
-119.775 -420.817 -1087 19 21 27
-117.486 -420.753 -1087 20 22 29
-115.198 -420.689 -1087 20 22 29
-112.807 -420.24 -1086 17 19 25
-110.421 -419.792 -1085 17 19 25
-108.14 -419.733 -1085 19 18 25
-105.958 -420.061 -1086 16 17 24
-103.772 -420.391 -1087 13 15 21
-101.583 -420.722 -1088 14 15 25
-99.5733 -421.827 -1091 14 15 25
-97.4627 -422.546 -1093 13 14 24
-95.5187 -424.04 -1097 13 15 23
-93.5588 -425.535 -1101 12 14 22
-91.6658 -427.417 -1106 14 16 23
-89.7527 -429.3 -1111 15 17 24
-87.7407 -430.797 -1115 15 17 24
-85.7893 -432.682 -1120 14 16 23
-83.7433 -434.181 -1124 14 16 23
-81.6089 -435.295 -1127 13 15 24
-79.322 -435.637 -1128 13 14 26
-77.0316 -435.981 -1129 13 15 21
-74.6053 -435.554 -1128 13 15 21
-72.248 -435.514 -1128 13 15 21
-69.9533 -435.861 -1129 16 18 25
-67.6551 -436.21 -1130 20 22 29
-65.5844 -438.104 -1135 19 21 28
-63.5491 -440.385 -1141 18 20 26
-61.3821 -441.895 -1145 16 18 24
-59.2505 -443.791 -1150 15 17 24
-57.0985 -445.689 -1155 15 15 24
-54.8787 -447.202 -1159 15 15 25
-52.5976 -448.331 -1162 15 17 24
-50.3044 -449.46 -1165 15 17 24
-47.9991 -450.591 -1168 14 16 23
-45.7207 -452.109 -1172 14 16 23
-43.3523 -452.856 -1174 14 16 23
-41.0107 -453.99 -1177 12 14 21
-38.6897 -455.512 -1181 12 14 21
-36.2911 -456.263 -1183 12 14 22
-33.8558 -456.63 -1184 14 15 25
-31.4167 -456.998 -1185 12 14 21
-29.0225 -458.138 -1188 11 13 20
-26.5714 -458.509 -1189 13 15 22
-24.1366 -459.266 -1191 15 17 24
-276.502 -448.928 -1135 20 22 28
-274.722 -449.959 -1138 20 22 29
-272.452 -450.2 -1139 20 22 29
-269.944 -450.047 -1139 21 23 30
-267.203 -449.501 -1138 24 26 33
-264.237 -448.561 -1136 25 27 34
-261.512 -448.018 -1135 24 26 33
-258.566 -447.083 -1133 24 26 33
-255.405 -445.755 -1130 24 25 33
-252.707 -445.217 -1129 26 25 33
-249.794 -444.288 -1127 25 27 33
-246.893 -443.36 -1125 23 25 31
-243.785 -442.04 -1122 21 23 29
-240.692 -440.722 -1119 21 20 27
-237.615 -439.407 -1116 21 20 27
-234.764 -438.487 -1114 19 21 27
-231.715 -437.176 -1111 19 21 27
-228.682 -435.867 -1108 20 22 28
-226.072 -435.346 -1107 21 23 30
-223.266 -434.435 -1105 21 23 30
-220.471 -433.524 -1103 22 24 31
-217.687 -432.616 -1101 22 24 31
-214.718 -431.317 -1098 20 22 29
-210.99 -428.449 -1091 17 19 27
-208.633 -428.332 -1091 19 20 31
-205.711 -427.039 -1088 20 21 31
-202.99 -426.14 -1086 20 21 31
-200.281 -425.243 -1084 20 22 29
-197.764 -424.74 -1083 21 22 31
-194.892 -423.454 -1080 19 20 30
-192.391 -422.955 -1079 17 18 29
-190.249 -423.24 -1080 17 18 30
-187.931 -423.135 -1080 19 20 32
-185.614 -423.031 -1080 19 20 30
-183.468 -423.321 -1081 19 20 30
-181.153 -423.219 -1081 19 20 30
-178.839 -423.12 -1081 18 19 29
-176.69 -423.413 -1082 19 20 30
-174.538 -423.707 -1083 17 18 29
-172.383 -424.002 -1084 19 21 30
-170.226 -424.298 -1085 23 24 33
-167.757 -423.813 -1084 25 24 34
-165.293 -423.33 -1083 26 25 33
-163.287 -424.021 -1085 24 23 31
-160.828 -423.541 -1084 25 24 32
-158.814 -424.234 -1086 24 25 35
-156.649 -424.537 -1087 24 26 35
-154.48 -424.842 -1088 22 24 31
-152.03 -424.367 -1087 22 24 31
-149.86 -424.674 -1088 23 25 31
-147.552 -424.592 -1088 22 24 31
-145.112 -424.121 -1087 22 24 31
-142.808 -424.042 -1087 19 21 28
-140.377 -423.574 -1086 19 18 26
-137.951 -423.107 -1085 19 18 25
-135.53 -422.642 -1084 19 18 25
-133.115 -422.178 -1083 24 23 31
-130.947 -422.495 -1084 22 22 30
-128.658 -422.424 -1084 21 23 30
-126.253 -421.964 -1083 22 24 30
-124.082 -422.285 -1084 21 23 29
-121.908 -422.607 -1085 20 22 28
-119.731 -422.93 -1086 19 21 27
-117.442 -422.865 -1086 21 23 29
-115.261 -423.191 -1087 20 22 29
-112.973 -423.128 -1087 16 18 25
-110.583 -422.677 -1086 15 17 23
-108.299 -422.617 -1086 17 18 24
-105.918 -422.169 -1085 16 18 25
-103.829 -422.89 -1087 14 16 23
-101.639 -423.223 -1088 15 16 26
-99.6277 -424.335 -1091 12 13 23
-97.5159 -425.058 -1093 12 13 23
-95.658 -426.95 -1098 14 15 25
-93.5248 -427.676 -1100 13 15 23
-91.5499 -429.18 -1104 13 15 22
-89.7208 -431.463 -1110 14 16 23
-87.5523 -432.192 -1112 15 17 24
-85.6062 -434.087 -1117 15 17 24
-83.5653 -435.596 -1121 15 17 24
-81.6533 -437.882 -1127 13 15 23
-79.3652 -438.226 -1128 13 14 25
-77.0735 -438.572 -1129 13 15 22
-74.7122 -438.53 -1129 14 16 22
-72.3515 -438.49 -1129 14 16 22
-69.9914 -438.452 -1129 17 19 25
-67.7518 -439.191 -1131 18 20 27
-65.5623 -440.319 -1134 18 20 27
-63.528 -442.613 -1140 17 19 26
-61.4155 -444.521 -1145 15 17 24
-59.2827 -446.429 -1150 15 17 24
-57.0801 -447.95 -1154 16 16 25
-54.9086 -449.86 -1159 18 17 27
-52.5809 -450.607 -1161 16 18 25
-50.3317 -452.131 -1165 16 18 25
-48.0663 -453.657 -1169 16 18 25
-45.7456 -454.795 -1172 15 17 24
-43.4128 -455.935 -1175 15 17 24
-41.0678 -457.076 -1178 15 17 24
-38.7107 -458.219 -1181 13 15 22
-36.3108 -458.974 -1183 13 14 22
-33.8742 -459.343 -1184 14 15 25
-31.4602 -460.101 -1186 13 15 22
-28.9894 -460.085 -1186 13 15 22
-26.5411 -460.457 -1187 12 14 21
-24.1092 -461.219 -1189 14 16 23
-276.415 -451.195 -1134 24 26 32
-274.877 -452.63 -1138 23 25 32
-272.367 -452.475 -1138 22 24 31
-269.859 -452.321 -1138 24 26 33
-267.354 -452.168 -1138 25 27 34
-264.153 -450.826 -1135 25 27 34
-261.429 -450.28 -1134 25 27 34
-258.712 -449.736 -1133 25 27 34
-255.549 -448.399 -1130 24 26 33
-252.626 -447.462 -1128 26 25 33
-249.713 -446.527 -1126 24 26 32
-246.812 -445.594 -1124 23 25 31
-243.922 -444.662 -1122 21 23 29
-241.043 -443.733 -1120 21 21 28
-237.749 -442.013 -1116 22 22 28
-234.896 -441.088 -1114 19 21 27
-231.846 -439.769 -1111 18 20 26
-228.81 -438.452 -1108 19 21 27
-226.198 -437.928 -1107 21 23 30
-223.593 -437.406 -1106 23 25 32
-220.795 -436.491 -1104 24 26 33
-218.007 -435.577 -1102 22 24 31
-214.838 -433.874 -1098 19 21 28
-211.882 -432.569 -1095 18 20 27
-208.941 -431.266 -1092 18 19 31
-206.393 -430.755 -1091 20 21 31
-203.665 -429.85 -1089 21 22 32
-200.947 -428.948 -1087 22 24 30
-198.057 -427.652 -1084 20 22 30
-195.001 -425.964 -1080 19 20 30
-192.499 -425.462 -1079 17 18 30
-190.355 -425.749 -1080 17 18 30
-188.035 -425.643 -1080 17 18 30
-185.889 -425.932 -1081 20 21 31
-183.74 -426.223 -1082 21 22 32
-181.254 -425.728 -1081 21 22 32
-178.938 -425.627 -1081 19 20 30
-176.788 -425.922 -1082 19 20 31
-174.473 -425.824 -1082 19 20 32
-172.479 -426.514 -1084 21 23 32
-170.164 -426.419 -1084 22 24 33
-167.85 -426.324 -1084 24 23 33
-165.385 -425.838 -1083 24 23 31
-163.227 -426.14 -1084 24 23 31
-160.769 -425.657 -1083 25 24 32
-158.756 -426.354 -1085 24 25 34
-156.591 -426.659 -1086 25 26 36
-154.566 -427.359 -1088 23 25 32
-152.114 -426.881 -1087 22 24 30
-149.805 -426.797 -1087 23 25 31
-147.498 -426.714 -1087 25 27 34
-145.058 -426.241 -1086 25 27 34
-142.756 -426.161 -1086 24 26 33
-140.325 -425.69 -1085 25 25 31
-137.9 -425.221 -1084 24 23 30
-135.48 -424.753 -1083 22 22 28
-133.189 -424.678 -1083 24 24 32
-130.899 -424.605 -1083 23 23 31
-128.729 -424.925 -1084 20 22 29
-126.439 -424.855 -1084 21 23 29
-124.265 -425.177 -1085 22 24 30
-121.975 -425.109 -1085 21 23 29
-119.686 -425.043 -1085 20 22 28
-117.399 -424.977 -1085 21 23 30
-115.218 -425.304 -1086 20 22 29
-112.827 -424.85 -1085 16 18 25
-110.542 -424.788 -1085 16 18 24
-108.159 -424.336 -1084 17 19 25
-105.879 -424.277 -1084 16 18 25
-103.79 -425.002 -1086 14 16 23
-101.601 -425.337 -1087 15 16 26
-99.4997 -426.064 -1089 12 13 23
-97.5695 -427.574 -1093 12 13 23
-95.6233 -429.086 -1097 13 14 24
-93.5762 -430.207 -1100 13 15 24
-91.6832 -432.111 -1105 14 16 23
-89.6892 -433.625 -1109 13 15 22
-87.6004 -434.75 -1112 13 15 22
-85.5765 -436.266 -1116 15 17 24
-83.5366 -437.783 -1120 15 17 24
-81.5531 -439.692 -1125 15 17 25
-79.3383 -440.429 -1127 14 15 25
-77.1158 -441.168 -1129 15 17 23
-74.7532 -441.126 -1129 14 16 22
-72.4553 -441.476 -1130 15 17 23
-70.0919 -441.437 -1130 16 18 25
-67.9089 -442.571 -1133 17 19 26
-65.7139 -443.706 -1136 17 19 26
-63.5627 -445.233 -1140 16 18 25
-61.3954 -446.761 -1144 15 17 24
-59.2636 -448.68 -1149 15 17 24
-57.0618 -450.21 -1153 16 16 25
-54.8439 -451.741 -1157 18 17 27
-52.655 -453.664 -1162 16 18 25
-50.4025 -455.197 -1166 15 17 24
-48.1338 -456.731 -1170 15 17 24
-45.8097 -457.877 -1173 14 16 23
-43.4365 -458.633 -1175 14 16 23
-41.0553 -459.39 -1177 15 17 24
-38.7319 -460.93 -1181 14 16 23
-36.2999 -461.299 -1182 13 15 23
-33.8641 -461.67 -1183 14 15 25
-31.4509 -462.433 -1185 14 16 23
-29.0052 -462.807 -1186 14 16 23
-26.5332 -462.791 -1186 15 17 24
-24.1832 -465.119 -1192 15 17 24
-275.597 -452.262 -1130 25 27 33
-274.792 -454.906 -1137 22 24 31
-272.522 -455.149 -1138 22 23 31
-270.013 -454.994 -1138 24 25 35
-267.506 -454.841 -1138 24 26 34
-264.303 -453.49 -1135 22 24 31
-261.347 -452.541 -1133 22 24 31
-258.173 -451.195 -1130 24 26 33
-255.015 -449.851 -1127 23 25 32
-252.321 -449.308 -1126 25 27 34
-249.633 -448.766 -1125 25 27 33
-246.732 -447.827 -1123 22 24 30
-244.06 -447.289 -1122 21 23 29
-241.18 -446.354 -1120 19 20 25
-237.883 -444.624 -1116 20 22 26
-234.818 -443.295 -1113 20 22 28
-231.768 -441.968 -1110 18 20 26
-228.939 -441.041 -1108 19 21 27
-226.122 -440.117 -1106 21 23 30
-223.517 -439.591 -1105 22 24 31
-220.719 -438.67 -1103 22 24 31
-217.932 -437.751 -1101 22 23 32
-215.155 -436.833 -1099 21 22 30
-212.389 -435.918 -1097 21 23 30
-209.442 -434.607 -1094 20 21 31
-206.888 -434.092 -1093 19 20 30
-203.967 -432.785 -1090 21 22 32
-201.245 -431.877 -1088 23 25 32
-198.534 -430.97 -1086 21 22 31
-195.652 -429.669 -1083 18 19 29
-192.964 -428.766 -1081 17 18 30
-190.639 -428.658 -1081 17 18 30
-188.315 -428.551 -1081 17 18 30
-185.993 -428.446 -1081 20 21 31
-183.843 -428.738 -1082 23 24 34
-181.355 -428.24 -1081 22 23 33
-178.873 -427.743 -1080 21 22 32
-176.723 -428.039 -1081 20 21 31
-174.571 -428.336 -1082 21 22 32
-172.575 -429.03 -1084 22 23 33
-170.102 -428.539 -1083 21 22 32
-167.789 -428.444 -1083 22 22 32
-165.477 -428.35 -1083 22 23 32
-163.167 -428.258 -1083 22 23 32
-160.71 -427.773 -1082 24 23 31
-158.698 -428.474 -1084 24 25 34
-156.534 -428.781 -1085 24 25 35
-154.368 -429.089 -1086 24 26 33
-152.059 -429.003 -1086 22 24 31
-149.888 -429.314 -1087 22 24 30
-147.444 -428.836 -1086 23 25 32
-145.139 -428.754 -1086 24 26 33
-142.704 -428.279 -1085 25 27 34
-140.274 -427.806 -1084 25 27 33
-137.849 -427.334 -1083 23 25 31
-135.43 -426.863 -1082 20 22 28
-133.14 -426.788 -1082 20 22 29
-130.851 -426.714 -1082 20 22 29
-128.563 -426.642 -1082 20 22 29
-126.392 -426.965 -1083 20 22 28
-124.219 -427.29 -1084 20 22 28
-121.818 -426.827 -1083 21 23 29
-119.642 -427.154 -1084 22 24 31
-117.464 -427.482 -1085 22 24 31
-115.176 -427.418 -1085 19 21 28
-112.785 -426.96 -1084 17 19 25
-110.502 -426.898 -1084 18 20 26
-108.219 -426.838 -1084 17 19 25
-106.035 -427.172 -1085 16 18 25
-103.848 -427.507 -1086 15 17 24
-101.751 -428.237 -1088 14 15 25
-99.7376 -429.362 -1091 13 14 24
-97.6235 -430.094 -1093 13 14 24
-95.6762 -431.615 -1097 13 14 24
-93.5428 -432.349 -1099 13 14 24
-91.7339 -434.658 -1105 13 14 24
-89.7387 -436.181 -1109 14 16 23
-87.6488 -437.312 -1112 15 17 24
-85.6238 -438.837 -1116 15 17 24
-83.5827 -440.363 -1120 15 17 24
-81.5982 -442.283 -1125 16 18 26
-79.3117 -442.631 -1126 17 18 28
-77.1584 -443.767 -1129 16 18 24
-74.9269 -444.511 -1131 15 17 23
-72.6235 -444.863 -1132 15 17 23
-70.1926 -444.431 -1131 14 16 23
-68.0062 -445.572 -1134 16 18 25
-65.8659 -447.106 -1138 16 18 25
-63.6536 -448.249 -1141 17 19 26
-61.483 -449.786 -1145 16 18 25
-59.3478 -451.716 -1150 14 16 23
-57.0932 -452.863 -1153 16 17 26
-54.9689 -455.188 -1159 16 16 26
-52.684 -456.337 -1162 14 16 23
-50.387 -457.486 -1165 14 16 23
-48.119 -459.03 -1169 14 16 23
-45.7958 -460.182 -1172 13 15 22
-43.4604 -461.335 -1175 13 15 22
-41.078 -462.097 -1177 14 16 23
-38.7532 -463.645 -1181 14 16 23
-36.3199 -464.017 -1182 13 15 23
-33.8827 -464.39 -1183 14 15 25
-31.4416 -464.765 -1184 15 17 24
-28.9966 -465.141 -1185 15 17 24
-26.5478 -465.518 -1186 18 20 27
-24.1356 -466.681 -1189 17 19 26
-275.512 -454.522 -1129 24 26 32
-274.708 -457.181 -1136 23 25 32
-272.678 -457.828 -1138 22 24 31
-270.405 -458.074 -1139 24 25 35
-267.189 -456.713 -1136 25 27 34
-264.222 -455.757 -1134 21 23 30
-261.265 -454.802 -1132 20 22 29
-258.092 -453.449 -1129 22 24 31
-255.161 -452.498 -1127 22 24 31
-252.689 -452.353 -1127 23 25 32
-249.997 -451.807 -1126 25 27 33
-247.313 -451.264 -1125 23 25 31
-244.199 -449.92 -1122 20 22 28
-241.532 -449.381 -1121 19 21 26
-238.232 -447.64 -1117 18 20 24
-234.952 -445.902 -1113 21 23 29
-232.108 -444.968 -1111 19 21 27
-229.069 -443.635 -1108 20 22 28
-226.25 -442.705 -1106 23 25 32
-223.847 -442.577 -1106 21 23 30
-221.045 -441.65 -1104 18 20 27
-218.253 -440.725 -1102 19 20 30
-215.277 -439.402 -1099 21 23 32
-212.315 -438.081 -1096 22 24 32
-209.369 -436.762 -1093 20 21 31
-207.005 -436.644 -1093 18 19 29
-204.082 -435.329 -1090 22 23 33
-201.174 -434.016 -1087 24 26 33
-198.463 -433.104 -1085 21 22 31
-195.763 -432.194 -1083 18 19 31
-193.073 -431.286 -1081 18 19 31
-190.57 -430.778 -1080 17 18 30
-188.421 -431.07 -1081 18 19 31
-185.926 -430.565 -1080 21 22 32
-183.607 -430.461 -1080 23 24 34
-181.289 -430.358 -1080 22 23 33
-178.808 -429.857 -1079 20 21 31
-176.659 -430.155 -1080 19 20 30
-174.508 -430.454 -1081 19 20 30
-172.513 -431.153 -1083 20 21 31
-170.197 -431.056 -1083 20 21 31
-167.883 -430.961 -1083 21 22 32
-165.57 -430.867 -1083 22 23 33
-163.259 -430.774 -1083 22 22 32
-160.8 -430.285 -1082 25 24 32
-158.64 -430.593 -1083 25 26 33
-156.622 -431.299 -1085 25 27 35
-154.312 -431.212 -1085 23 25 32
-152.004 -431.126 -1085 22 24 30
-149.697 -431.041 -1085 21 23 29
-147.391 -430.957 -1085 23 25 32
-144.953 -430.478 -1084 20 22 29
-142.652 -430.397 -1084 21 23 30
-140.223 -429.921 -1083 23 25 31
-137.799 -429.446 -1082 23 25 31
-135.506 -429.369 -1082 22 24 30
-133.091 -428.897 -1081 20 22 29
-130.924 -429.22 -1082 20 22 30
-128.634 -429.147 -1082 20 22 30
-126.346 -429.076 -1082 22 24 32
-124.174 -429.402 -1083 23 25 31
-121.886 -429.333 -1083 23 25 31
-119.709 -429.662 -1084 25 27 34
-117.421 -429.595 -1084 21 23 30
-115.134 -429.53 -1084 18 20 27
-112.848 -429.467 -1084 17 19 26
-110.563 -429.404 -1084 16 18 25
-108.279 -429.343 -1084 16 18 25
-106.094 -429.679 -1085 16 18 25
-104.001 -430.413 -1087 15 17 24
-101.901 -431.147 -1089 14 15 25
-99.7016 -431.486 -1090 14 15 25
-97.5884 -432.223 -1092 13 14 24
-95.5549 -433.356 -1095 12 13 23
-93.5096 -434.491 -1098 14 15 25
-91.6187 -436.418 -1103 16 17 27
-89.7076 -438.345 -1108 15 17 24
-87.6186 -439.483 -1111 15 17 24
-85.5946 -441.017 -1115 15 17 24
-83.4798 -442.156 -1118 15 17 24
-81.5709 -444.483 -1124 16 18 26
-79.2852 -444.833 -1125 16 17 27
-77.1328 -445.976 -1128 16 18 24
-74.9685 -447.12 -1131 16 18 24
-72.7922 -448.265 -1134 15 17 23
-70.4178 -448.225 -1134 14 16 23
-68.224 -449.372 -1137 15 17 24
-65.9603 -450.125 -1139 15 17 24
-63.8005 -451.669 -1143 16 18 25
-61.5708 -452.82 -1146 14 16 23
-59.3808 -454.367 -1150 14 16 24
-57.1249 -455.52 -1153 15 16 26
-54.9519 -457.464 -1158 14 15 25
-52.7131 -459.014 -1162 14 16 24
-50.4149 -460.17 -1165 14 16 23
-48.1457 -461.723 -1169 14 16 23
-45.7821 -462.487 -1171 14 16 23
-43.4845 -464.042 -1175 14 16 23
-41.0658 -464.413 -1176 14 16 23
-38.7418 -465.971 -1180 13 15 22
-36.3399 -466.74 -1182 12 14 21
-33.9014 -467.115 -1183 12 14 22
-31.4856 -467.886 -1185 11 13 20
-29.0127 -467.87 -1185 12 14 21
-26.5849 -468.644 -1187 16 18 25
-24.1693 -469.814 -1190 18 20 27
-21.8324 -472.96 -1198 18 20 27
-274.694 -455.566 -1125 27 29 35
-274.383 -459.051 -1134 25 27 34
-272.596 -460.107 -1137 22 24 32
-270.086 -459.95 -1137 22 23 33
-267.343 -459.39 -1136 23 25 33
-264.141 -458.024 -1133 21 23 30
-261.185 -457.063 -1131 20 22 29
-258.241 -456.106 -1129 22 24 31
-255.307 -455.15 -1127 22 24 31
-252.834 -455.003 -1127 23 25 32
-250.141 -454.455 -1126 24 26 33
-247.455 -453.908 -1125 22 24 30
-244.339 -452.556 -1122 20 22 28
-241.455 -451.61 -1120 20 22 27
-238.155 -449.859 -1116 19 21 25
-235.086 -448.514 -1113 21 23 28
-232.032 -447.171 -1110 21 23 28
-229.2 -446.233 -1108 22 24 30
-226.175 -444.895 -1105 24 26 33
-223.569 -444.363 -1104 22 24 31
-220.77 -443.431 -1102 22 24 31
-218.18 -442.903 -1101 21 22 32
-215.4 -441.974 -1099 22 23 33
-212.63 -441.048 -1097 21 22 32
-209.488 -439.319 -1093 19 20 31
-206.934 -438.798 -1092 18 19 29
-204.198 -437.877 -1090 20 22 30
-201.288 -436.557 -1087 22 24 31
-198.576 -435.639 -1085 21 23 32
-196.055 -435.125 -1084 19 20 32
-193.361 -434.212 -1082 19 20 32
-190.854 -433.701 -1081 19 20 32
-188.354 -433.192 -1080 19 20 32
-186.032 -433.085 -1080 21 22 32
-183.541 -432.579 -1079 22 23 33
-181.224 -432.475 -1079 20 21 31
-178.743 -431.972 -1078 18 19 29
-176.595 -432.271 -1079 17 18 28
-174.445 -432.572 -1080 19 21 31
-172.292 -432.874 -1081 21 23 33
-169.979 -432.777 -1081 22 24 34
-167.823 -433.082 -1082 23 24 34
-165.511 -432.987 -1082 25 26 36
-163.2 -432.894 -1082 24 25 35
-160.891 -432.802 -1082 26 26 34
-158.583 -432.712 -1082 25 26 33
-156.421 -433.022 -1083 23 25 32
-154.115 -432.934 -1083 22 24 30
-151.809 -432.848 -1083 23 25 31
-149.505 -432.763 -1083 24 26 32
-147.202 -432.679 -1083 24 26 33
-144.767 -432.197 -1082 22 24 31
-142.6 -432.515 -1083 20 22 29
-140.172 -432.036 -1082 20 22 28
-137.876 -431.957 -1082 20 22 28
-135.582 -431.88 -1082 20 22 28
-133.166 -431.405 -1081 19 21 28
-130.997 -431.729 -1082 21 22 30
-128.707 -431.656 -1082 19 20 30
-126.417 -431.584 -1082 20 22 29
-124.129 -431.514 -1082 21 23 30
-121.954 -431.843 -1083 20 22 28
-119.666 -431.775 -1083 20 22 29
-117.379 -431.708 -1083 18 20 27
-115.092 -431.643 -1083 17 19 26
-112.807 -431.579 -1083 17 19 26
-110.625 -431.914 -1084 17 19 26
-108.34 -431.853 -1084 16 18 25
-106.153 -432.191 -1085 16 18 25
-104.155 -433.327 -1088 14 16 24
-102.052 -434.065 -1090 14 15 25
-99.7575 -434.008 -1090 14 15 25
-97.7325 -435.147 -1093 13 14 24
-95.6957 -436.287 -1096 14 15 25
-93.562 -437.03 -1098 14 15 25
-91.5869 -438.57 -1102 13 14 24
-89.6769 -440.509 -1107 14 16 23
-87.6676 -442.051 -1111 13 15 22
-85.6424 -443.594 -1115 13 15 22
-83.5265 -444.74 -1118 14 16 23
-81.4713 -446.285 -1122 15 16 24
-79.259 -447.035 -1124 15 16 26
-77.2443 -448.98 -1129 16 18 24
-75.0767 -450.13 -1132 16 18 24
-72.9614 -451.679 -1136 16 18 24
-70.5814 -451.639 -1136 16 18 24
-68.4422 -453.19 -1140 15 17 24
-66.0551 -453.152 -1140 17 19 26
-63.7803 -453.911 -1142 15 17 24
-61.5514 -455.068 -1145 14 16 23
-59.4139 -457.022 -1150 14 15 25
-57.1072 -457.784 -1152 15 16 26
-54.8876 -459.342 -1156 16 17 27
-52.6518 -460.901 -1160 14 15 25
-50.3998 -462.462 -1164 14 16 25
-48.0902 -463.626 -1167 14 16 23
-45.7293 -464.394 -1169 14 16 23
-43.3976 -465.561 -1172 15 17 24
-41.0537 -466.729 -1175 15 17 24
-38.7306 -468.296 -1179 13 15 22
-36.3295 -469.069 -1181 13 15 22
-33.9203 -469.844 -1183 12 14 21
-31.5031 -470.62 -1185 12 14 21
-29.0534 -471 -1186 13 15 22
-26.5773 -470.985 -1186 14 16 23
-24.1623 -472.162 -1189 15 17 24
-21.8264 -475.326 -1197 17 19 26
-273.632 -456.189 -1120 26 28 34
-273.816 -460.509 -1131 24 25 33
-272.274 -461.979 -1135 22 23 33
-270.005 -462.228 -1136 22 23 33
-267.262 -461.665 -1135 23 25 33
-264.294 -460.697 -1133 21 23 30
-261.105 -459.324 -1130 19 21 28
-258.39 -458.767 -1129 21 23 30
-255.455 -457.806 -1127 22 24 31
-252.756 -457.252 -1126 23 25 32
-250.285 -457.106 -1126 22 24 31
-247.598 -456.556 -1125 20 22 29
-244.698 -455.602 -1123 19 21 27
-242.026 -455.055 -1122 21 23 28
-238.506 -452.889 -1117 20 22 26
-235.433 -451.536 -1114 21 23 27
-232.166 -449.779 -1110 22 24 29
-229.332 -448.836 -1108 22 24 30
-226.305 -447.489 -1105 23 25 31
-223.698 -446.955 -1104 23 25 31
-221.097 -446.422 -1103 24 26 32
-218.503 -445.89 -1102 23 24 34
-215.719 -444.956 -1100 22 23 33
-212.752 -443.619 -1097 20 21 31
-209.8 -442.285 -1094 18 19 31
-206.863 -440.952 -1091 18 19 30
-204.315 -440.43 -1090 19 21 28
-201.403 -439.101 -1087 21 23 30
-198.873 -438.583 -1086 20 22 30
-196.348 -438.065 -1085 20 21 33
-193.829 -437.55 -1084 21 22 34
-191.317 -437.036 -1083 22 23 35
-188.636 -436.12 -1081 20 21 33
-186.138 -435.609 -1080 20 21 31
-183.475 -434.697 -1078 20 21 31
-181.16 -434.592 -1078 19 20 30
-178.845 -434.489 -1078 18 19 29
-176.532 -434.388 -1078 18 19 30
-174.383 -434.69 -1079 19 22 33
-172.39 -435.397 -1081 22 25 36
-170.076 -435.299 -1081 24 27 38
-167.763 -435.202 -1081 26 27 37
-165.452 -435.107 -1081 26 27 37
-163.142 -435.013 -1081 25 26 36
-160.834 -434.921 -1081 25 27 35
-158.527 -434.83 -1081 24 26 33
-156.366 -435.142 -1082 22 24 31
-154.06 -435.054 -1082 21 23 29
-151.755 -434.967 -1082 23 26 32
-149.452 -434.881 -1082 25 28 34
-147.15 -434.797 -1082 25 28 34
-144.849 -434.714 -1082 22 25 32
-142.55 -434.632 -1082 20 23 30
-140.251 -434.552 -1082 19 21 27
-137.955 -434.473 -1082 20 22 28
-135.784 -434.796 -1083 20 22 28
-133.488 -434.72 -1083 19 21 28
-131.072 -434.243 -1082 20 22 29
-128.779 -434.17 -1082 18 19 29
-126.606 -434.498 -1083 19 20 28
-124.314 -434.427 -1083 18 20 27
-122.023 -434.357 -1083 17 19 25
-119.733 -434.289 -1083 17 20 26
-117.553 -434.623 -1084 15 18 25
-115.157 -434.156 -1083 15 16 26
-112.767 -433.69 -1082 15 17 25
-110.585 -434.028 -1083 16 18 25
-108.401 -434.367 -1084 16 18 25
-106.213 -434.707 -1085 15 17 25
-104.022 -435.048 -1086 14 15 25
-101.922 -435.791 -1088 16 17 27
-99.7221 -436.134 -1089 15 16 26
-97.6981 -437.28 -1092 13 14 24
-95.4876 -437.625 -1093 14 15 25
-93.5294 -439.173 -1097 14 15 25
-91.4722 -440.322 -1100 14 15 25
-89.5652 -442.272 -1105 12 14 21
-87.5591 -443.823 -1109 13 15 22
-85.6138 -445.775 -1114 14 16 23
-83.3492 -446.128 -1115 15 17 24
-81.5171 -448.882 -1122 14 16 23
-79.1625 -448.837 -1122 14 16 25
-77.1508 -450.793 -1127 16 18 24
-75.0525 -452.35 -1131 17 19 25
-72.9381 -453.908 -1135 16 18 24
-70.6211 -454.267 -1136 16 18 24
-68.4806 -455.827 -1140 17 19 25
-66.1502 -456.189 -1141 16 19 26
-63.8162 -456.552 -1142 15 17 24
-61.586 -457.716 -1145 14 16 23
-59.3955 -459.281 -1149 14 15 25
-57.0897 -460.048 -1151 16 17 27
-54.9184 -462.015 -1156 16 17 27
-52.5905 -462.784 -1158 16 17 27
-50.3414 -464.353 -1162 15 17 26
-48.1171 -466.324 -1167 15 16 26
-45.755 -467.096 -1169 14 16 23
-43.422 -468.27 -1172 14 16 23
-41.0418 -469.045 -1174 15 17 24
-38.6865 -470.221 -1177 14 16 23
-36.2883 -470.999 -1179 13 15 22
-33.9107 -472.178 -1182 12 14 21
-31.4941 -472.959 -1184 12 14 21
-29.0207 -472.942 -1184 13 15 22
-26.6146 -474.124 -1187 15 17 23
-24.2165 -475.708 -1191 16 18 25
-21.8751 -478.89 -1199 16 18 25
-273.059 -457.612 -1117 24 26 32
-273.491 -462.368 -1129 23 25 32
-272.433 -464.664 -1135 22 23 33
-270.162 -464.915 -1136 23 24 34
-267.418 -464.348 -1135 24 25 34
-264.214 -462.966 -1132 21 22 32
-261.488 -462.403 -1131 19 21 28
-258.311 -461.025 -1128 20 23 31
-255.377 -460.057 -1126 22 25 33
-252.903 -459.909 -1126 22 24 31
-250.431 -459.762 -1126 19 22 29
-247.741 -459.209 -1125 18 21 28
-244.841 -458.249 -1123 20 22 28
-242.166 -457.699 -1122 20 22 27
-238.858 -455.928 -1118 19 21 25
-235.992 -454.974 -1116 20 22 26
-232.51 -452.8 -1111 24 26 31
-229.672 -451.851 -1109 24 26 32
-226.436 -450.089 -1105 20 22 28
-223.827 -449.551 -1104 21 23 29
-221.025 -448.607 -1102 23 25 31
-218.431 -448.073 -1101 24 25 35
-215.844 -447.54 -1100 23 24 34
-212.681 -445.789 -1096 21 22 32
-209.921 -444.853 -1094 18 19 31
-206.792 -443.106 -1090 17 18 29
-204.058 -442.174 -1088 20 21 30
-201.149 -440.838 -1085 22 24 31
-198.621 -440.316 -1084 20 22 30
-196.099 -439.796 -1083 19 20 32
-193.762 -439.684 -1083 20 21 33
-191.25 -439.167 -1082 20 21 33
-188.745 -438.651 -1081 19 20 32
-186.417 -438.543 -1081 19 20 30
-183.751 -437.625 -1079 21 22 32
-181.432 -437.52 -1079 20 21 31
-178.948 -437.011 -1078 18 19 29
-176.798 -437.314 -1079 19 20 30
-174.483 -437.213 -1079 20 23 34
-172.329 -437.518 -1080 22 25 36
-169.858 -437.014 -1079 23 26 37
-167.704 -437.323 -1080 25 26 36
-165.393 -437.227 -1080 26 27 37
-163.235 -437.537 -1081 26 27 37
-161.074 -437.849 -1082 24 25 34
-158.764 -437.757 -1082 25 27 35
-156.455 -437.667 -1082 24 26 33
-154.29 -437.982 -1083 22 24 30
-151.842 -437.49 -1082 21 24 30
-149.537 -437.404 -1082 22 25 31
-147.234 -437.319 -1082 24 27 33
-144.798 -436.831 -1081 22 25 31
-142.367 -436.345 -1080 20 23 30
-140.202 -436.668 -1081 18 20 27
-137.906 -436.588 -1081 17 19 25
-135.736 -436.914 -1082 18 20 26
-133.564 -437.241 -1083 19 21 28
-131.389 -437.569 -1084 19 21 28
-128.853 -436.687 -1082 17 18 28
-126.795 -437.421 -1084 17 18 26
-124.384 -436.946 -1083 16 18 25
-122.092 -436.876 -1083 16 19 25
-119.802 -436.807 -1083 16 19 27
-117.62 -437.142 -1084 15 18 27
-115.223 -436.673 -1083 16 17 27
-112.935 -436.608 -1083 15 17 25
-110.75 -436.947 -1084 16 18 25
-108.563 -437.288 -1085 16 18 25
-106.372 -437.63 -1086 15 17 25
-104.177 -437.973 -1087 14 15 25
-101.886 -437.914 -1087 14 15 25
-99.7787 -438.662 -1089 14 15 25
-97.664 -439.412 -1091 14 15 25
-95.5417 -440.162 -1093 15 16 26
-93.5824 -441.719 -1097 15 16 27
-91.524 -442.874 -1100 14 15 27
-89.5348 -444.433 -1104 13 15 23
-87.4507 -445.591 -1107 15 17 24
-85.5854 -447.956 -1113 15 17 24
-83.3964 -448.713 -1115 16 18 25
-81.4179 -450.679 -1120 17 19 26
-79.2779 -451.84 -1123 15 17 25
-77.126 -453.003 -1126 15 17 24
-75.0286 -454.569 -1130 18 20 26
-72.9793 -456.538 -1135 17 19 25
-70.661 -456.9 -1136 15 17 23
-68.5194 -458.469 -1140 17 19 25
-66.1876 -458.833 -1141 16 19 26
-63.9081 -459.6 -1143 16 18 25
-61.6208 -460.369 -1145 14 16 23
-59.4291 -461.942 -1149 16 16 26
-57.1715 -463.116 -1152 18 18 28
-54.9019 -464.29 -1155 17 18 28
-52.5748 -465.063 -1157 15 16 26
-50.3698 -467.044 -1162 14 15 25
-48.0618 -468.222 -1165 15 16 26
-45.7417 -469.401 -1168 15 17 24
-43.3723 -470.179 -1170 14 16 23
-41.1 -472.165 -1175 15 17 24
-38.7083 -472.946 -1177 14 16 23
-36.3703 -474.532 -1181 13 15 22
-33.9871 -475.717 -1184 14 16 23
-31.5918 -476.904 -1187 14 16 22
-29.086 -476.485 -1186 13 15 21
-26.6969 -478.076 -1190 14 16 22
-24.2913 -479.669 -1194 16 18 25
-21.9604 -483.271 -1203 17 19 26
-273.652 -465.045 -1129 24 26 33
-272.353 -466.943 -1134 23 24 34
-270.559 -468.018 -1137 23 24 34
-267.575 -467.037 -1135 23 24 34
-264.369 -465.646 -1132 22 23 33
-261.179 -464.257 -1129 21 22 31
-258.234 -463.282 -1127 20 23 31
-255.527 -462.72 -1126 21 24 33
-253.051 -462.571 -1126 22 24 31
-250.355 -462.012 -1125 20 22 29
-247.666 -461.456 -1124 18 21 28
-244.984 -460.901 -1123 19 21 27
-242.092 -459.937 -1121 19 21 26
-238.997 -458.566 -1118 19 21 25
-235.918 -457.196 -1115 20 22 26
-232.645 -455.42 -1111 23 25 30
-229.599 -454.055 -1108 23 25 31
-226.363 -452.282 -1104 17 20 26
-223.958 -452.151 -1104 20 23 29
-221.153 -451.202 -1102 22 24 31
-218.36 -450.255 -1100 22 24 33
-215.773 -449.719 -1099 22 23 33
-212.61 -447.958 -1095 20 21 31
-209.851 -447.017 -1093 19 20 30
-206.723 -445.26 -1089 18 19 30
-204.176 -444.731 -1088 21 22 33
-201.451 -443.796 -1086 22 23 31
-198.736 -442.862 -1084 20 22 29
-196.394 -442.747 -1084 19 20 30
-193.874 -442.226 -1083 19 20 32
-191.361 -441.705 -1082 19 20 32
-188.504 -440.371 -1079 19 20 32
-186.18 -440.262 -1079 19 20 31
-183.517 -439.339 -1077 22 23 33
-181.368 -439.641 -1078 22 23 33
-179.051 -439.536 -1078 20 21 31
-176.9 -439.841 -1079 21 22 32
-174.584 -439.739 -1079 23 24 34
-172.429 -440.046 -1080 21 23 33
-170.114 -439.947 -1080 21 24 34
-167.956 -440.257 -1081 24 25 35
-165.489 -439.753 -1080 24 25 35
-163.48 -440.473 -1082 23 24 34
-161.167 -440.379 -1082 23 24 34
-158.709 -439.88 -1081 26 28 36
-156.545 -440.195 -1082 25 27 34
-154.379 -440.513 -1083 21 23 29
-151.929 -440.017 -1082 19 21 27
-149.623 -439.931 -1082 18 21 27
-147.318 -439.845 -1082 20 22 28
-144.881 -439.354 -1081 18 20 27
-142.449 -438.865 -1080 16 18 25
-140.282 -439.19 -1081 16 18 24
-137.985 -439.11 -1081 17 19 25
-135.814 -439.438 -1082 16 18 24
-133.641 -439.766 -1083 16 18 25
-131.464 -440.096 -1084 18 20 27
-129.046 -439.615 -1083 17 18 28
-126.867 -439.947 -1084 17 19 26
-124.571 -439.875 -1084 17 19 26
-122.275 -439.804 -1084 17 20 26
-119.87 -439.329 -1083 17 20 28
-117.687 -439.667 -1084 17 20 29
-115.289 -439.194 -1083 16 19 28
-113 -439.129 -1083 15 17 25
-110.814 -439.47 -1084 15 17 24
-108.625 -439.812 -1085 16 18 25
-106.334 -439.751 -1085 15 16 24
-104.141 -440.096 -1086 14 15 25
-101.944 -440.442 -1087 14 15 25
-99.8356 -441.195 -1089 15 16 26
-97.6301 -441.543 -1090 16 17 27
-95.5962 -442.703 -1093 15 16 27
-93.6358 -444.269 -1097 15 16 28
-91.4929 -445.026 -1099 14 15 27
-89.5048 -446.594 -1103 13 14 22
-87.4215 -447.758 -1106 14 16 23
-85.4803 -449.733 -1111 16 18 25
-83.2943 -450.494 -1113 17 19 27
-81.3188 -452.471 -1118 18 19 28
-79.1818 -453.639 -1121 16 18 25
-77.1014 -455.213 -1125 18 20 26
-75.0049 -456.788 -1129 19 21 27
-72.9566 -458.768 -1134 16 18 24
-70.639 -459.132 -1135 13 15 21
-68.4983 -460.71 -1139 15 17 23
-66.1672 -461.076 -1140 17 19 25
-63.9445 -462.253 -1143 16 18 25
-61.602 -462.621 -1144 15 17 24
-59.4629 -464.609 -1149 16 16 26
-57.1544 -465.384 -1151 17 18 28
-54.8856 -466.565 -1154 16 17 27
-52.6501 -468.151 -1158 17 18 28
-50.3984 -469.739 -1162 14 15 25
-48.0478 -470.519 -1164 14 15 25
-45.7285 -471.706 -1167 14 16 23
-43.397 -472.893 -1170 13 15 22
-41.1232 -474.889 -1175 13 15 22
-38.7632 -476.079 -1178 14 16 23
-36.4218 -477.674 -1182 14 16 23
-34.0064 -478.462 -1184 15 17 24
-31.6097 -479.656 -1187 14 16 22
-29.1516 -480.043 -1188 13 15 21
-26.7345 -481.239 -1191 14 16 22
-24.3661 -483.649 -1197 16 18 25
-22.1007 -488.888 -1210 17 19 26
-272.844 -466.07 -1125 26 28 34
-272.514 -469.636 -1134 22 24 32
-270.481 -470.303 -1136 21 22 32
-268.205 -470.557 -1137 22 23 33
-264.993 -469.158 -1134 23 23 33
-261.333 -466.934 -1129 22 23 33
-258.615 -466.367 -1128 22 23 33
-255.677 -465.388 -1126 22 24 32
-252.975 -464.824 -1125 22 24 31
-250.057 -463.849 -1123 21 23 30
-247.591 -463.702 -1123 20 23 30
-244.691 -462.732 -1121 21 23 29
-241.802 -461.763 -1119 20 22 28
-238.71 -460.383 -1116 20 22 27
-236.057 -459.831 -1115 21 23 27
-232.991 -458.456 -1112 22 24 29
-230.148 -457.495 -1110 24 26 32
-226.701 -455.3 -1105 21 24 30
-223.886 -454.344 -1103 22 24 30
-220.881 -452.978 -1100 21 23 30
-217.892 -451.614 -1097 21 22 32
-215.506 -451.487 -1097 19 20 31
-212.54 -450.126 -1094 19 20 31
-209.974 -449.591 -1093 20 21 32
-207.033 -448.235 -1090 22 23 33
-204.296 -447.292 -1088 22 23 34
-201.754 -446.762 -1087 21 23 31
-198.852 -445.412 -1084 20 22 30
-196.327 -444.886 -1083 20 21 31
-193.808 -444.361 -1082 20 21 32
-191.295 -443.838 -1081 21 22 33
-188.614 -442.906 -1079 20 21 33
-186.288 -442.797 -1079 20 21 32
-183.794 -442.278 -1078 22 23 34
-181.642 -442.582 -1079 25 26 36
-179.155 -442.067 -1078 24 25 35
-177.002 -442.373 -1079 23 24 35
-174.685 -442.271 -1079 20 22 32
-172.529 -442.579 -1080 21 23 32
-170.213 -442.479 -1080 22 25 34
-167.898 -442.381 -1080 23 25 33
-165.431 -441.875 -1079 22 23 32
-163.424 -442.598 -1081 22 23 33
-161.112 -442.504 -1081 22 24 33
-158.654 -442.001 -1080 25 26 35
-156.491 -442.319 -1081 22 24 32
-154.468 -443.047 -1083 19 21 28
-152.157 -442.958 -1083 18 20 26
-149.709 -442.462 -1082 18 20 26
-147.54 -442.784 -1083 18 20 26
-145.099 -442.291 -1082 18 20 26
-142.531 -441.39 -1080 15 17 24
-140.363 -441.717 -1081 14 16 22
-138.064 -441.636 -1081 15 17 23
-135.767 -441.557 -1081 14 16 22
-133.594 -441.887 -1082 14 16 23
-131.54 -442.627 -1084 17 19 26
-129.12 -442.144 -1083 17 19 27
-126.94 -442.478 -1084 18 20 27
-124.642 -442.405 -1084 19 21 28
-122.233 -441.926 -1083 19 21 27
-119.939 -441.856 -1083 19 21 29
-117.647 -441.787 -1083 18 20 29
-115.355 -441.72 -1083 15 17 26
-113.065 -441.654 -1083 15 17 26
-110.877 -441.997 -1084 17 19 26
-108.687 -442.342 -1085 15 17 24
-106.395 -442.28 -1085 14 16 24
-104.201 -442.627 -1086 14 15 25
-101.909 -442.567 -1086 14 15 25
-99.8012 -443.324 -1088 16 17 27
-97.5069 -443.267 -1088 18 19 29
-95.5636 -444.841 -1092 16 17 28
-93.6042 -446.416 -1096 13 14 25
-91.5455 -447.585 -1099 13 14 25
-89.4749 -448.754 -1102 13 14 23
-87.5507 -450.739 -1107 14 16 24
-85.5292 -452.318 -1111 15 17 24
-83.342 -453.084 -1113 16 18 26
-81.4382 -455.479 -1119 16 18 26
-79.2271 -456.247 -1121 17 19 26
-77.2141 -458.237 -1126 17 19 25
-75.0478 -459.414 -1129 17 19 25
-72.9984 -461.406 -1134 16 18 24
-70.6794 -461.771 -1135 14 16 22
-68.4773 -462.952 -1138 15 17 23
-66.147 -463.32 -1139 17 19 25
-63.9251 -464.503 -1142 16 18 25
-61.5834 -464.874 -1143 16 18 26
-59.3416 -466.059 -1146 17 18 28
-57.1374 -467.652 -1150 17 18 28
-54.9169 -469.247 -1154 16 17 27
-52.5893 -470.029 -1156 17 18 28
-50.4272 -472.439 -1162 14 15 25
-48.0753 -473.224 -1164 13 14 24
-45.6762 -473.603 -1165 14 16 23
-43.4218 -475.611 -1170 13 15 22
-41.1468 -477.619 -1175 12 14 21
-38.7854 -478.815 -1178 13 15 22
-36.4734 -480.826 -1183 14 16 23
-34.1121 -482.432 -1187 14 16 24
-31.681 -483.225 -1189 14 16 23
-29.1928 -483.208 -1189 14 16 23
-26.8171 -485.224 -1194 16 18 24
-24.4411 -487.647 -1200 15 17 24
-22.1864 -493.323 -1214 17 19 26
-273.007 -468.747 -1125 25 27 33
-272.677 -472.333 -1134 22 25 32
-271.118 -473.837 -1138 20 22 31
-268.365 -473.26 -1137 22 23 33
-265.15 -471.852 -1134 23 22 32
-262.183 -470.863 -1132 22 22 32
-258.998 -469.46 -1129 21 22 32
-256.056 -468.475 -1127 21 23 30
-253.35 -467.908 -1126 22 24 31
-250.428 -466.928 -1124 22 24 31
-247.738 -466.364 -1123 22 25 31
-245.054 -465.803 -1122 22 25 31
-242.161 -464.828 -1120 21 23 29
-239.065 -463.441 -1117 22 24 30
-236.408 -462.885 -1116 21 23 29
-233.338 -461.502 -1113 21 23 29
-230.077 -459.706 -1109 23 25 31
-227.245 -458.742 -1107 21 23 29
-224.221 -457.365 -1104 21 23 29
-221.212 -455.991 -1101 20 22 27
-218.219 -454.619 -1098 19 20 30
-215.633 -454.077 -1097 18 19 31
-212.665 -452.709 -1094 20 21 33
-210.289 -452.584 -1094 22 23 33
-207.155 -450.806 -1090 22 23 33
-204.603 -450.272 -1089 20 21 30
-202.058 -449.738 -1088 19 20 29
-199.335 -448.794 -1086 18 20 29
-196.623 -447.851 -1084 19 20 30
-194.28 -447.736 -1084 20 21 31
-191.762 -447.209 -1083 21 22 32
-189.074 -446.272 -1081 20 21 31
-186.743 -446.161 -1081 21 22 34
-184.072 -445.227 -1079 23 24 38
-181.917 -445.532 -1080 23 24 34
-179.426 -445.014 -1079 22 23 34
-177.106 -444.909 -1079 21 22 34
-174.787 -444.806 -1079 20 23 34
-172.63 -445.116 -1080 20 23 33
-170.312 -445.016 -1080 22 25 32
-168.151 -445.329 -1081 21 23 30
-165.681 -444.819 -1080 19 21 29
-163.519 -445.135 -1081 20 21 31
-161.056 -444.628 -1080 22 24 31
-158.599 -444.123 -1079 23 25 33
-156.582 -444.854 -1081 22 23 33
-154.416 -445.175 -1082 18 20 27
-152.246 -445.497 -1083 16 18 25
-149.935 -445.409 -1083 16 18 24
-147.762 -445.733 -1084 17 19 25
-145.317 -445.236 -1083 16 18 24
-142.878 -444.741 -1082 15 17 23
-140.575 -444.659 -1082 14 16 22
-138.272 -444.577 -1082 14 16 22
-135.846 -444.087 -1081 15 17 23
-133.672 -444.419 -1082 16 18 24
-131.616 -445.163 -1084 18 20 26
-129.314 -445.087 -1084 18 20 27
-127.131 -445.423 -1085 19 21 28
-124.83 -445.35 -1085 19 21 28
-122.304 -444.457 -1083 19 21 27
-120.009 -444.387 -1083 19 21 29
-117.715 -444.318 -1083 18 19 29
-115.422 -444.25 -1083 15 16 26
-113.235 -444.594 -1084 15 16 26
-111.044 -444.939 -1085 17 18 28
-108.75 -444.875 -1085 15 17 24
-106.457 -444.813 -1085 14 16 24
-104.261 -445.161 -1086 15 16 26
-101.968 -445.102 -1086 16 17 28
-99.8589 -445.863 -1088 15 16 27
-97.653 -446.215 -1089 16 17 27
-95.6187 -447.388 -1092 16 17 27
-93.4873 -448.153 -1094 13 14 24
-91.5149 -449.738 -1098 13 14 24
-89.4453 -450.914 -1101 11 14 23
-87.6013 -453.32 -1107 13 16 25
-85.5786 -454.908 -1111 14 17 24
-83.3901 -455.678 -1113 15 17 24
-81.4123 -457.677 -1118 16 18 25
-79.2021 -458.45 -1120 17 19 25
-77.1214 -460.042 -1124 16 18 23
-74.9581 -461.225 -1127 17 19 23
-72.8472 -462.82 -1131 16 18 24
-70.5332 -463.187 -1132 15 17 23
-68.3361 -464.375 -1135 16 18 24
-66.127 -465.563 -1138 17 19 25
-63.9059 -466.753 -1141 16 17 26
-61.6188 -467.535 -1143 16 17 27
-59.4275 -469.136 -1147 17 18 28
-57.2697 -471.147 -1152 16 17 27
-54.9962 -472.342 -1155 14 15 25
-52.665 -473.129 -1157 17 18 30
-50.4562 -475.143 -1162 16 17 28
-48.1443 -476.341 -1165 14 15 25
-45.7417 -476.723 -1166 14 15 25
-43.4468 -478.333 -1170 12 13 22
-41.2405 -481.17 -1177 12 14 21
-38.8735 -482.374 -1180 13 15 22
-36.4635 -483.169 -1182 12 14 22
-34.1317 -485.193 -1187 14 15 25
-31.6726 -485.583 -1188 17 19 26
-29.185 -485.565 -1188 16 18 25
-26.81 -487.593 -1193 16 18 24
-24.4551 -490.439 -1200 18 20 26
-22.2174 -496.556 -1215 17 19 25
-272.199 -469.753 -1121 26 28 34
-272.599 -474.617 -1133 24 26 33
-271.281 -476.548 -1138 22 23 32
-268.761 -476.386 -1138 21 22 32
-265.777 -475.388 -1136 22 21 30
-262.803 -474.393 -1134 19 20 29
-259.382 -472.563 -1130 19 20 30
-256.436 -471.573 -1128 21 23 30
-253.951 -471.42 -1128 22 24 31
-250.8 -470.016 -1125 23 25 32
-248.106 -469.449 -1124 24 26 32
-245.2 -468.466 -1122 23 26 32
-242.089 -467.068 -1119 23 26 32
-238.993 -465.673 -1116 23 25 31
-236.125 -464.697 -1114 21 23 29
-233.477 -464.14 -1113 20 22 28
-230.628 -463.168 -1111 21 23 29
-227.791 -462.198 -1109 20 22 28
-224.354 -459.979 -1104 19 21 27
-221.343 -458.597 -1101 18 20 24
-218.348 -457.217 -1098 18 19 27
-215.368 -455.839 -1095 19 20 30
-212.791 -455.296 -1094 20 21 33
-210.221 -454.754 -1093 21 22 33
-207.468 -453.798 -1091 21 22 32
-204.724 -452.844 -1089 18 20 27
-202.177 -452.308 -1088 17 19 27
-199.086 -450.526 -1084 17 19 26
-196.739 -450.409 -1084 17 18 28
-194.215 -449.878 -1083 19 20 30
-191.52 -448.933 -1081 21 22 32
-189.011 -448.405 -1080 21 22 32
-186.853 -448.709 -1081 21 22 34
-184.18 -447.77 -1079 23 24 38
-181.855 -447.662 -1079 21 22 32
-179.532 -447.555 -1079 20 21 32
-177.21 -447.45 -1079 19 20 32
-174.728 -446.931 -1078 17 20 31
-172.731 -447.658 -1080 19 22 31
-170.412 -447.557 -1080 21 23 30
-168.25 -447.871 -1081 19 21 28
-165.778 -447.359 -1080 18 20 28
-163.312 -446.848 -1079 21 22 32
-161.002 -446.752 -1079 21 23 30
-158.398 -445.83 -1077 20 22 29
-156.384 -446.566 -1079 19 21 29
-154.363 -447.302 -1081 18 20 27
-152.194 -447.626 -1082 17 19 26
-149.884 -447.537 -1082 15 17 23
-147.848 -448.277 -1084 15 17 22
-145.402 -447.777 -1083 11 13 18
-142.962 -447.279 -1082 12 14 20
-140.527 -446.783 -1081 14 16 22
-138.225 -446.701 -1081 16 18 24
-135.799 -446.208 -1080 19 21 28
-133.626 -446.542 -1081 22 24 30
-131.571 -447.29 -1083 21 23 29
-129.27 -447.214 -1083 19 21 28
-126.971 -447.139 -1083 18 20 27
-124.787 -447.478 -1084 18 20 27
-122.375 -446.993 -1083 17 19 25
-120.079 -446.922 -1083 17 18 26
-117.783 -446.853 -1083 17 18 28
-115.596 -447.197 -1084 16 17 27
-113.405 -447.543 -1085 17 18 28
-111.109 -447.477 -1085 18 19 29
-108.713 -447 -1084 16 18 25
-106.421 -446.938 -1084 15 17 25
-104.226 -447.288 -1085 16 17 29
-101.933 -447.228 -1085 18 19 31
-99.8252 -447.994 -1087 16 17 28
-97.7097 -448.761 -1089 15 16 26
-95.6743 -449.94 -1092 15 16 26
-93.6272 -451.121 -1095 15 16 26
-91.7349 -453.127 -1100 14 15 25
-89.7412 -454.722 -1104 14 16 24
-87.6521 -455.905 -1107 15 18 25
-85.6283 -457.502 -1111 13 15 22
-83.5135 -458.688 -1114 13 15 22
-81.4596 -460.287 -1118 15 17 24
-79.3188 -461.476 -1121 16 18 24
-77.1662 -462.665 -1124 15 17 21
-74.935 -463.444 -1126 14 16 20
-72.825 -465.047 -1130 13 15 21
-70.5741 -465.828 -1132 14 16 22
-68.3154 -466.611 -1134 15 17 23
-66.1072 -467.806 -1137 14 16 22
-63.9429 -469.414 -1141 15 16 24
-61.6546 -470.201 -1143 16 17 27
-59.4101 -471.399 -1146 16 17 27
-57.2034 -473.011 -1150 16 17 27
-54.9804 -474.624 -1154 14 15 25
-52.6955 -475.826 -1157 16 17 29
-50.442 -477.441 -1161 17 18 29
-48.0894 -478.235 -1163 15 16 26
-45.7289 -479.03 -1165 14 15 25
-43.5091 -481.471 -1171 12 13 22
-41.2293 -483.503 -1176 13 15 22
-38.896 -485.124 -1180 14 16 23
-36.5155 -486.335 -1183 13 14 22
-34.1802 -488.37 -1188 14 15 25
-31.7442 -489.173 -1190 16 18 25
-29.2265 -488.745 -1189 15 17 24
-26.848 -490.784 -1194 16 18 24
-24.4693 -493.235 -1200 19 21 27
-22.4132 -503.497 -1225 17 19 26
-273.578 -474.537 -1126 26 28 34
-272.764 -477.321 -1133 25 27 34
-271.444 -479.263 -1138 22 23 32
-269.159 -479.521 -1139 19 20 30
-265.936 -478.097 -1136 22 21 29
-262.729 -476.675 -1133 20 20 29
-259.998 -476.097 -1132 21 22 32
-257.045 -475.1 -1130 22 24 31
-254.329 -474.526 -1129 22 24 31
-251.174 -473.113 -1126 23 25 32
-248.476 -472.543 -1125 24 26 32
-245.566 -471.554 -1123 24 26 32
-242.234 -469.729 -1119 23 25 31
-238.922 -467.905 -1115 23 25 31
-236.054 -466.923 -1113 21 23 29
-233.617 -466.783 -1113 20 22 28
-230.766 -465.805 -1111 21 23 29
-228.132 -465.248 -1110 20 22 28
-224.691 -463.017 -1105 19 21 27
-221.677 -461.627 -1102 19 21 25
-218.478 -459.82 -1098 18 19 27
-215.693 -458.853 -1096 19 20 30
-212.918 -457.887 -1094 21 22 34
-210.347 -457.342 -1093 22 23 34
-207.591 -456.381 -1091 21 22 32
-205.034 -455.84 -1090 20 22 29
-202.298 -454.882 -1088 20 22 29
-199.572 -453.926 -1086 19 21 28
-197.219 -453.808 -1086 17 18 28
-194.69 -453.273 -1085 17 18 28
-191.989 -452.323 -1083 18 19 29
-189.298 -451.374 -1081 21 22 32
-186.964 -451.262 -1081 21 22 33
-184.29 -450.317 -1079 23 24 36
-181.963 -450.208 -1079 21 22 32
-179.472 -449.684 -1078 20 21 32
-177.151 -449.578 -1078 18 19 31
-174.507 -448.64 -1076 18 21 32
-172.513 -449.37 -1078 20 22 33
-170.355 -449.685 -1079 20 22 31
-168.194 -450.002 -1080 18 20 28
-165.876 -449.903 -1080 17 19 28
-163.56 -449.805 -1080 19 20 30
-161.246 -449.709 -1080 20 22 29
-158.639 -448.782 -1078 19 21 28
-156.476 -449.105 -1079 19 21 28
-154.311 -449.429 -1080 17 19 26
-152.143 -449.755 -1081 16 18 25
-149.834 -449.666 -1081 15 17 23
-147.799 -450.41 -1083 15 17 21
-145.488 -450.323 -1083 14 16 20
-143.178 -450.238 -1083 14 16 22
-140.74 -449.738 -1082 16 18 25
-138.435 -449.656 -1082 19 21 28
-136.005 -449.159 -1081 20 22 29
-133.705 -449.08 -1081 21 23 30
-131.527 -449.417 -1082 21 23 30
-129.346 -449.756 -1083 18 20 27
-126.928 -449.265 -1082 17 19 26
-124.861 -450.021 -1084 17 19 26
-122.447 -449.533 -1083 15 17 23
-120.26 -449.877 -1084 15 17 25
-118.07 -450.222 -1085 17 18 28
-115.77 -450.153 -1085 17 18 28
-113.471 -450.086 -1085 17 18 28
-111.174 -450.02 -1085 17 18 28
-108.676 -449.126 -1083 16 18 25
-106.385 -449.062 -1083 17 19 27
-104.19 -449.415 -1084 16 17 29
-101.993 -449.769 -1085 17 18 30
-99.8836 -450.539 -1087 16 17 28
-97.8567 -451.724 -1090 14 15 25
-95.7303 -452.496 -1092 13 14 24
-93.7674 -454.098 -1096 14 15 25
-91.7886 -455.701 -1100 14 15 25
-89.6309 -456.476 -1102 14 16 24
-87.7825 -458.91 -1108 13 16 23
-85.6012 -459.687 -1110 14 16 23
-83.5622 -461.294 -1114 13 15 22
-81.3613 -462.074 -1116 12 14 21
-79.2943 -463.683 -1120 14 16 22
-77.1425 -464.879 -1123 14 16 21
-74.9122 -465.662 -1125 14 16 20
-72.803 -467.275 -1129 13 15 21
-70.6153 -468.474 -1132 14 16 22
-68.3553 -469.261 -1134 14 16 22
-66.0876 -470.05 -1136 15 17 23
-63.8681 -471.253 -1139 15 16 25
-61.5825 -472.044 -1141 16 17 27
-59.341 -473.249 -1144 16 17 27
-57.1869 -475.284 -1149 15 16 26
-55.0124 -477.319 -1154 13 14 24
-52.7718 -478.942 -1158 14 15 27
-50.5583 -480.98 -1163 17 18 29
-48.2416 -482.192 -1166 16 17 27
-45.8734 -482.991 -1168 15 16 26
-43.5715 -484.619 -1172 13 14 23
-41.2533 -486.248 -1176 14 16 23
-38.8857 -487.465 -1179 15 17 24
-36.5367 -489.097 -1183 13 15 22
-34.1137 -489.903 -1185 14 16 24
-31.736 -491.538 -1189 15 17 23
-29.2434 -491.52 -1189 16 18 24
-26.8186 -492.744 -1192 14 16 22
-24.4835 -496.036 -1200 17 19 25
-271.725 -477.913 -1128 25 27 34
-270.892 -480.713 -1135 21 23 30
-268.849 -481.396 -1137 18 20 28
-265.863 -480.387 -1135 22 21 29
-263.12 -479.803 -1134 24 23 32
-260.384 -479.222 -1133 24 24 33
-257.428 -478.219 -1131 22 24 31
-254.708 -477.641 -1130 22 24 31
-251.772 -476.643 -1128 24 26 33
-248.846 -475.646 -1126 24 26 32
-245.932 -474.652 -1124 21 23 29
-242.596 -472.815 -1120 20 22 28
-239.495 -471.403 -1117 20 22 28
-236.408 -469.994 -1114 20 22 28
-234.177 -470.274 -1115 21 23 29
