ply
format ascii 1.0
comment Created by Open3D
element vertex 1420
property double x
property double y
property double z
property uchar red
property uchar green
property uchar blue
end_header
-73.0805 175.767 -724 160 131 117
-71.2058 174.771 -720 152 124 110
-69.6386 174.505 -719 145 119 106
-67.9813 173.997 -717 139 113 101
-66.2399 173.247 -714 133 108 101
-64.6927 172.982 -713 133 108 100
-63.2389 172.961 -713 131 106 97
-61.699 172.698 -712 128 103 97
-60.079 172.192 -710 125 101 95
-58.6329 172.172 -710 121 99 92
-57.1872 172.153 -710 119 97 92
-55.5851 171.65 -708 117 96 91
-54.068 171.389 -707 118 96 91
-52.7042 171.614 -708 118 96 91
-51.2645 171.596 -708 114 92 87
-49.7548 171.337 -707 111 92 88
-48.318 171.321 -707 114 95 91
-46.8152 171.063 -706 118 100 93
-45.4454 171.29 -707 120 102 97
-44.0097 171.275 -707 120 101 99
-42.6346 171.503 -708 117 101 105
-41.1395 171.247 -707 119 103 107
-39.7048 171.233 -707 125 107 111
-37.9458 169.767 -701 134 122 127
-15.2918 155.838 -644 143 130 130
-13.88 154.624 -639 138 126 126
-12.5674 154.377 -638 134 116 117
-11.2412 153.889 -636 130 111 112
-9.92331 153.402 -634 130 111 112
-8.61351 152.915 -632 129 107 105
-7.3119 152.428 -630 126 103 100
-6.03762 152.426 -630 127 102 95
-4.74825 151.941 -628 130 104 96
-3.47251 151.697 -627 130 103 95
-2.20444 151.696 -627 134 99 91
-0.934812 151.454 -626 134 100 92
0.330687 151.212 -625 133 99 92
1.59477 151.212 -625 132 98 92
2.85879 151.213 -625 130 96 90
4.11631 150.972 -624 127 93 87
5.36975 150.732 -623 123 93 86
6.6299 150.734 -623 125 95 88
7.87735 150.494 -622 128 97 92
9.15028 150.739 -623 129 96 92
10.4106 150.742 -623 128 94 90
11.6709 150.746 -623 124 93 88
12.9107 150.508 -622 122 92 88
14.1693 150.513 -622 118 93 89
15.4032 150.276 -621 117 93 90
16.66 150.281 -621 121 97 95
17.8881 150.045 -620 122 100 97
19.2049 150.535 -622 120 99 96
20.53 151.025 -624 121 100 98
21.9332 152.001 -628 126 103 108
23.2789 152.492 -630 130 109 112
-196.665 285.419 -1179 215 212 215
-189.931 279.061 -1153 217 214 218
-183.47 272.948 -1128 220 216 221
-178.238 268.533 -1110 225 217 219
-173.4 264.604 -1094 229 221 222
-168.004 259.71 -1074 231 223 225
-124.89 203.679 -843 213 182 169
-121.687 201.223 -833 212 182 167
-118.239 198.284 -821 212 182 168
-115.977 197.279 -817 214 185 171
-113.452 195.792 -811 214 187 174
-110.816 194.065 -804 213 186 174
-108.616 193.063 -800 215 188 175
-105.899 191.097 -792 214 187 173
-103.611 189.856 -787 214 186 171
-101.214 188.375 -781 213 185 167
-99.0986 187.377 -777 212 184 168
-96.6237 185.657 -770 213 184 169
-94.5486 184.66 -766 211 182 167
-92.2481 183.183 -760 208 179 164
-90.2115 182.189 -756 202 175 160
-87.9577 180.714 -750 198 170 155
-86.0748 179.962 -747 195 167 152
-84.2049 179.211 -744 191 164 149
-82.3481 178.461 -741 188 161 146
-80.7224 178.193 -740 184 156 142
-78.9944 177.685 -738 172 147 130
-77.0653 176.696 -734 163 139 121
-75.2562 175.949 -731 158 131 114
-73.359 174.962 -727 152 125 110
-71.4788 173.975 -723 150 122 108
-69.906 173.711 -722 143 118 106
-68.2431 173.207 -720 137 112 100
-66.5888 172.704 -718 131 107 101
-65.0341 172.442 -717 131 106 99
-63.484 172.18 -716 130 105 96
-61.8518 171.678 -714 125 101 95
-60.2283 171.177 -712 122 99 93
-58.8612 171.398 -713 120 99 92
-57.3294 171.139 -712 119 98 92
-55.8021 170.88 -711 118 97 92
-54.3559 170.862 -711 117 96 91
-52.9845 171.084 -712 115 94 89
-51.4647 170.827 -711 113 92 87
-50.0197 170.81 -711 114 95 92
-48.5753 170.794 -711 116 98 95
-47.1974 171.018 -712 117 100 94
-45.6232 170.523 -710 118 101 98
-44.3063 170.988 -712 120 102 102
-42.9817 171.454 -714 116 104 110
-41.5912 171.68 -715 118 105 111
-11.3612 154.232 -643 142 129 134
-10.0139 153.509 -640 142 129 135
-8.69243 153.026 -638 142 124 127
-7.36753 152.304 -635 139 120 122
-6.07394 152.062 -634 135 115 113
-4.77688 151.581 -632 132 111 108
-3.48799 151.099 -630 129 108 105
-2.21424 151.099 -630 131 106 100
-0.939011 150.858 -629 131 107 100
0.332164 150.618 -628 128 105 98
1.60185 150.619 -628 125 101 96
2.86697 150.38 -627 123 99 95
4.12808 150.141 -626 120 97 93
5.39379 150.142 -626 118 96 90
6.65961 150.144 -626 118 97 90
7.91276 149.907 -625 121 98 93
9.19128 150.15 -626 121 97 92
10.4406 149.913 -625 118 94 89
11.742 150.396 -627 116 91 87
12.9687 149.921 -625 117 94 91
14.2557 150.165 -626 114 94 93
15.4973 149.93 -625 113 95 95
16.7618 149.935 -625 118 100 101
18.0264 149.941 -625 123 106 107
19.3529 150.427 -627 127 111 112
20.7863 151.633 -632 130 116 116
-201.414 286.345 -1193 218 215 221
-195.098 280.76 -1170 216 213 217
-188.221 274.218 -1143 219 213 215
-180.482 266.241 -1110 229 220 219
-175.129 261.625 -1091 227 219 221
-169.54 256.533 -1070 228 221 225
-162.788 249.526 -1041 217 209 214
-129.745 206.968 -864 216 185 172
-124.701 201.656 -842 216 185 172
-121.501 199.221 -832 213 183 168
-118.632 197.266 -824 212 183 169
-116.648 196.749 -822 213 184 170
-113.694 194.557 -813 211 184 171
-111.33 193.323 -808 213 186 172
-108.851 191.851 -802 214 187 173
-106.399 190.381 -796 212 185 170
-103.84 188.672 -789 212 185 169
-101.31 186.965 -782 213 184 167
-99.0659 185.736 -777 211 182 166
-96.7173 184.27 -771 211 182 166
-94.6408 183.283 -767 209 180 165
-92.4603 182.057 -762 204 176 161
-90.1818 180.594 -756 198 171 156
-88.1632 179.609 -752 194 166 151
-86.392 179.103 -750 189 160 145
-84.4035 178.12 -746 182 155 140
-82.5431 177.376 -743 179 152 137
-80.9139 177.111 -742 174 147 133
-79.1825 176.607 -740 164 139 122
-77.2499 175.627 -736 155 131 113
-75.4372 174.886 -733 151 125 107
-73.5366 173.907 -729 149 123 107
-71.7518 173.168 -726 146 120 107
-70.0766 172.668 -724 138 114 102
-68.4101 172.168 -722 133 109 98
-66.8451 171.908 -721 130 106 101
-65.2848 171.647 -720 129 104 98
-63.7291 171.388 -719 127 102 95
-62.0913 170.891 -717 123 101 95
-60.6314 170.871 -717 122 100 94
-59.1719 170.851 -717 120 99 93
-57.6325 170.594 -716 118 97 92
-56.0977 170.337 -715 118 97 92
-54.5673 170.081 -714 117 97 92
-53.1903 170.301 -715 116 95 90
-51.8096 170.522 -716 115 94 89
-50.2847 170.268 -715 114 97 93
-48.9008 170.489 -716 117 101 97
-47.3808 170.236 -715 117 101 96
-45.9937 170.459 -716 117 101 100
-44.6651 170.92 -718 120 103 105
-43.3287 171.382 -720 118 107 116
-41.752 170.892 -718 123 113 122
-6.11986 151.92 -639 146 132 136
-4.85091 152.631 -642 137 120 119
-3.5256 151.441 -637 134 118 117
-2.23114 150.965 -635 134 118 114
-0.94918 151.202 -636 131 115 110
0.335227 150.727 -634 128 114 109
1.6192 150.965 -635 125 110 106
2.89801 150.728 -634 124 109 106
4.1597 150.016 -631 123 109 107
5.43512 150.017 -631 124 109 105
6.7106 150.019 -631 123 108 104
7.97346 149.784 -630 124 109 104
9.2617 150.024 -631 123 107 102
10.5374 150.028 -631 121 105 100
11.8505 150.507 -633 121 103 100
13.0889 150.035 -631 123 106 105
14.4104 150.515 -633 120 105 108
15.6657 150.282 -632 122 109 113
-206.05 286.978 -1206 216 213 219
-198.479 279.774 -1176 216 213 219
-193.2 275.665 -1159 216 213 220
-185.69 268.231 -1128 224 216 216
-177.172 259.136 -1090 225 217 218
-171.702 254.325 -1070 230 220 221
-165.524 248.328 -1045 218 205 205
-156.95 238.533 -1004 193 172 166
-136.815 213.496 -899 217 186 169
-129.402 204.667 -862 216 186 171
-125.104 200.589 -845 214 184 169
-122.191 198.65 -837 213 183 168
-119.025 196.237 -827 212 183 168
-116.61 195.012 -822 212 183 169
-114.076 193.551 -816 211 184 170
-111.707 192.329 -811 211 184 170
-108.816 190.158 -802 210 183 169
-106.364 188.701 -796 210 183 168
-103.937 187.244 -790 210 183 168
-101.407 185.552 -783 210 181 164
-99.1609 184.335 -778 209 180 163
-96.9364 183.118 -773 208 179 162
-94.7332 181.902 -768 206 177 162
-92.6727 180.925 -764 201 173 158
-90.5101 179.711 -759 196 169 154
-88.486 178.735 -755 193 165 149
-86.4789 177.759 -751 188 159 144
-84.7152 177.258 -749 179 151 136
-82.8494 176.521 -746 173 145 131
-81.1055 176.021 -744 166 139 125
-79.4775 175.759 -743 157 133 116
-77.5395 174.787 -739 151 127 108
-75.7213 174.053 -736 148 122 102
-73.8152 173.082 -732 147 122 105
-72.0248 172.349 -729 144 120 107
-70.2473 171.617 -726 134 111 100
-68.672 171.358 -725 132 109 99
-67.0087 170.864 -723 129 106 102
-65.5355 170.842 -723 128 104 99
-63.9741 170.585 -722 127 102 96
-62.4174 170.328 -721 122 101 96
-60.8653 170.072 -720 122 101 96
-59.4002 170.052 -720 120 99 94
-57.9357 170.033 -720 118 97 92
-56.3932 169.779 -719 116 96 91
-55.008 169.997 -720 116 96 91
-53.6192 170.215 -721 116 96 91
-52.0822 169.962 -720 117 96 91
-50.5496 169.71 -719 115 98 94
-49.2264 170.166 -721 118 102 98
-47.7629 170.15 -721 118 102 98
-46.2998 170.135 -721 119 103 104
-45.0859 171.064 -725 121 104 108
-43.6155 171.049 -725 118 109 119
6.81472 151.052 -641 131 122 123
-211.258 288.267 -1222 216 213 220
-202.738 279.944 -1187 212 207 212
-196.727 274.927 -1166 215 210 215
-191.138 270.384 -1147 218 213 218
-182.667 261.602 -1110 222 217 221
-174.027 252.354 -1071 220 216 221
-168.117 246.88 -1048 219 203 201
-160.878 239.289 -1016 194 172 165
-151.273 227.934 -968 202 170 154
-142.331 217.292 -923 216 186 168
-134.184 207.596 -882 213 186 169
-128.76 201.905 -858 213 183 168
-125.063 198.805 -845 211 181 166
-122.005 196.648 -836 210 180 165
-118.842 194.257 -826 211 182 167
-116.714 193.513 -823 212 183 169
-114.179 192.065 -817 210 182 168
-111.808 190.853 -812 208 180 166
-109.052 188.937 -804 208 180 166
-106.73 187.728 -799 209 181 166
-103.904 185.579 -790 208 179 164
-101.503 184.137 -784 206 177 160
-99.2562 182.93 -779 205 176 159
-96.905 181.489 -773 202 173 156
-94.8259 180.519 -769 200 172 157
-92.764 179.55 -765 196 169 154
-90.8384 178.817 -762 190 163 148
-88.6916 177.614 -757 186 158 143
-86.6812 176.648 -753 181 152 137
-84.914 176.151 -751 174 145 130
-83.0447 175.42 -748 168 140 125
-81.2973 174.925 -746 159 133 118
-79.6657 174.664 -745 152 127 110
-77.8291 173.936 -742 147 123 105
-75.9025 172.974 -738 145 119 100
-73.993 172.012 -734 144 119 103
-72.1003 171.051 -730 141 117 104
-70.418 170.56 -728 134 111 100
-68.7446 170.069 -726 131 108 98
-67.1724 169.813 -725 128 107 102
-65.7862 170.026 -726 128 105 99
-64.2192 169.771 -725 128 104 98
-62.6569 169.516 -724 123 102 97
-61.0992 169.262 -723 121 100 95
-59.6285 169.243 -723 120 99 94
-58.1583 169.224 -723 118 98 93
-56.6886 169.205 -723 116 96 91
-55.3722 169.655 -725 115 95 90
-53.9737 169.872 -726 116 96 91
-52.427 169.621 -725 119 98 93
-50.955 169.604 -725 116 100 96
-49.4153 169.354 -724 118 102 98
-47.9462 169.339 -724 119 103 99
-46.5417 169.558 -725 121 105 106
-45.2579 170.244 -728 122 106 112
-43.7218 169.996 -727 122 113 125
-216.532 289.492 -1238 208 205 213
-206.696 279.603 -1196 218 215 223
-201.477 275.797 -1180 217 210 214
-196.157 271.76 -1163 217 210 213
-189.077 265.156 -1135 222 214 218
-179.811 255.286 -1093 220 215 220
-171.859 247.056 -1058 215 211 216
-164.855 239.997 -1028 194 172 163
-158.61 233.875 -1002 198 170 155
-146.537 218.89 -938 213 179 157
-138.893 210.211 -901 213 188 169
-132.468 203.169 -871 207 184 168
-128.568 199.861 -857 210 180 165
-125.467 197.722 -848 209 179 163
-121.82 194.651 -835 207 177 161
-119.235 193.214 -829 208 179 165
-116.676 191.778 -823 210 181 167
-114.142 190.343 -817 208 180 165
-111.91 189.375 -813 208 179 165
-109.152 187.476 -805 207 178 164
-106.963 186.51 -801 207 178 163
-104.265 184.614 -793 205 176 161
-101.989 183.417 -788 204 175 158
-99.7338 182.221 -783 202 173 156
-97.3752 180.793 -777 198 169 152
-95.1652 179.599 -772 192 165 150
-93.0979 178.639 -768 190 163 148
-90.9285 177.446 -763 183 156 141
-88.8974 176.487 -759 177 149 134
-86.9986 175.762 -756 174 145 130
-84.9998 174.804 -752 169 140 125
-83.24 174.313 -750 162 135 120
-81.4891 173.822 -748 153 129 114
-79.7471 173.331 -746 149 125 107
-77.909 172.609 -743 145 120 102
-76.1867 172.12 -741 142 116 98
-74.2716 171.167 -737 138 114 98
-72.4722 170.447 -734 135 111 98
-70.7823 169.96 -732 131 108 97
-69.1012 169.473 -730 130 107 97
-67.5215 169.219 -729 127 106 101
-66.0369 169.198 -729 127 105 99
-64.4644 168.945 -728 127 104 98
-62.8099 168.461 -726 125 104 99
-61.3331 168.441 -726 122 101 97
-59.7744 168.19 -725 119 98 92
-58.3006 168.171 -725 117 97 92
-56.9841 168.617 -727 117 98 93
-55.7363 169.294 -730 117 97 92
-54.1794 169.045 -729 117 97 92
-52.6271 168.796 -728 119 99 94
-51.1496 168.78 -728 116 100 97
-49.6724 168.764 -728 119 103 100
-48.1958 168.748 -728 121 105 102
-46.8478 169.197 -730 122 107 109
-45.3678 169.182 -730 125 110 116
-76.0928 326.209 -1408 120 95 90
-224.171 293.666 -1267 188 187 197
-211.566 280.386 -1210 218 216 224
-205.248 275.222 -1188 214 211 219
-200.729 272.378 -1176 218 210 213
-194.408 266.988 -1153 219 211 214
-186.019 258.592 -1117 222 213 215
-176.793 248.812 -1075 223 213 213
-169.368 241.351 -1043 187 173 169
-162.878 235.051 -1016 197 168 150
-152.546 222.972 -964 202 171 149
-143.211 212.055 -917 215 185 162
-136.383 204.611 -885 211 186 167
-132.121 200.87 -869 207 182 164
-127.927 197.131 -853 209 179 162
-125.279 195.704 -847 207 177 160
-122.511 194.047 -840 206 176 159
-119.341 191.699 -830 207 178 163
-117.064 190.738 -826 208 179 164
-114.246 188.854 -818 207 178 163
-112.149 188.125 -815 207 178 163
-109.253 186.013 -806 204 175 161
-106.929 184.825 -801 203 174 159
-104.231 182.945 -793 203 174 159
-101.956 181.759 -788 201 172 157
-99.7021 180.574 -783 198 168 152
-97.72 179.851 -780 194 164 147
-95.6279 178.898 -776 188 161 146
-93.553 177.946 -772 187 159 144
-91.4953 176.995 -768 179 151 136
-89.4547 176.045 -764 172 144 129
-87.4312 175.095 -760 168 139 124
-85.4248 174.146 -756 162 134 119
-83.5465 173.429 -753 155 129 114
-81.79 172.942 -751 150 126 111
-80.0424 172.456 -749 145 121 104
-78.3036 171.97 -747 140 116 98
-76.5737 171.485 -745 138 112 94
-74.651 170.541 -741 137 112 96
-72.8441 169.827 -738 136 112 98
-71.0499 169.114 -735 130 107 96
-69.3632 168.632 -733 129 106 96
-67.7779 168.38 -732 126 105 100
-66.2877 168.359 -732 125 104 99
-64.7981 168.339 -732 125 104 99
-63.136 167.858 -730 124 103 100
-61.6516 167.839 -730 122 101 96
-60.1676 167.82 -730 119 98 91
-58.6037 167.571 -729 116 98 92
-57.2012 167.783 -730 117 99 94
-55.9476 168.454 -733 118 98 93
-54.4595 168.437 -733 118 98 94
-52.8273 167.961 -731 119 99 96
-51.4144 168.174 -732 117 102 99
-49.9978 168.388 -733 120 106 103
-48.3791 167.913 -731 124 108 105
-46.8971 167.898 -731 125 109 112
-78.6394 322.139 -1403 117 96 89
-75.6366 321.426 -1400 119 98 91
-216.14 280.654 -1222 206 205 215
-209.751 275.535 -1200 220 217 225
-204.837 272.255 -1186 217 213 219
-200.665 269.895 -1176 217 209 211
-192.492 262.031 -1142 219 211 213
-183.129 252.336 -1100 222 212 212
-174.271 243.105 -1060 199 183 174
-167.691 236.859 -1033 190 170 157
-158.82 227.178 -991 201 169 145
-149.808 217.044 -947 206 176 152
-139.731 205.082 -895 214 186 164
-134.953 200.685 -876 209 181 162
-131.168 197.665 -863 205 177 158
-127.737 195.105 -852 206 176 159
-125.535 194.378 -849 205 175 158
-122.472 192.279 -840 205 175 158
-119.591 190.41 -832 206 176 161
-117.169 189.228 -827 205 176 161
-114.768 188.048 -822 205 176 161
-111.976 186.182 -814 203 174 160
-109.354 184.547 -807 201 172 158
-107.162 183.598 -803 200 171 156
-104.461 181.736 -795 199 170 155
-102.053 180.332 -789 197 168 153
-99.9252 179.386 -785 193 163 147
-97.8145 178.441 -781 189 159 142
-95.8442 177.725 -778 185 156 141
-93.6447 176.553 -773 183 155 140
-91.5855 175.611 -769 177 148 133
-89.6606 174.897 -766 169 140 125
-87.6337 173.956 -762 162 133 118
-85.7368 173.244 -759 152 125 110
-83.8529 172.533 -756 146 121 106
-82.0909 172.051 -754 144 121 106
-80.4446 171.797 -753 144 120 103
-78.5934 171.088 -750 140 116 99
-76.9607 170.836 -749 138 112 95
-75.1312 170.128 -746 136 112 97
-73.3146 169.42 -743 135 111 98
-71.7041 169.17 -742 128 106 95
-69.9091 168.464 -739 128 106 97
-68.312 168.214 -738 126 105 98
-66.7196 167.965 -737 124 103 97
-65.2202 167.944 -737 123 102 96
-63.4621 167.241 -734 120 99 96
-61.9699 167.221 -734 118 97 94
-60.4783 167.202 -734 116 96 92
-58.9068 166.956 -733 117 99 95
-57.4182 166.938 -733 117 99 96
-56.159 167.603 -736 116 99 91
-54.6653 167.586 -736 117 99 93
-53.3165 168.024 -738 118 99 95
-51.6792 167.553 -736 118 104 101
-50.2549 167.765 -737 121 106 104
-48.7609 167.749 -737 125 109 107
-47.139 167.279 -735 125 112 116
-81.7457 320.367 -1408 117 97 96
-77.6623 315.337 -1386 118 96 94
-74.8029 315.086 -1385 123 99 95
-222.91 283.606 -1246 201 199 208
-214.481 276.027 -1213 217 216 224
-209.685 273.003 -1200 221 217 222
-204.6 269.526 -1185 218 212 216
-199.92 266.506 -1172 218 211 215
-190.072 256.441 -1128 218 210 212
-180.742 246.835 -1086 208 196 193
-172.08 237.917 -1047 190 167 151
-165.042 231.048 -1017 194 169 150
-155.726 220.775 -972 200 169 146
-146.757 210.735 -928 210 181 160
-139.219 202.516 -892 211 182 163
-134.449 198.16 -873 205 173 155
-130.671 195.168 -860 204 171 153
-127.996 193.767 -854 202 172 155
-125.2 192.139 -847 202 172 155
-122.288 190.286 -839 204 172 156
-119.841 189.114 -834 203 174 159
-117.132 187.49 -827 202 173 158
-114.872 186.547 -823 201 172 157
-112.216 184.925 -816 199 170 156
-109.726 183.531 -810 200 171 156
-107.395 182.364 -805 199 170 155
-104.823 180.746 -798 196 167 152
-102.28 179.128 -791 193 164 149
-100.276 178.417 -788 190 160 144
-98.2848 177.707 -785 188 158 142
-96.1837 176.772 -781 182 153 138
-94.221 176.063 -778 178 149 135
-92.0332 174.903 -773 169 140 126
-89.9837 173.97 -769 157 129 115
-88.0662 173.263 -766 153 125 111
-86.0489 172.332 -762 148 124 109
-84.1595 171.627 -759 144 120 106
-82.3919 171.149 -757 140 117 102
-80.74 170.898 -756 139 115 101
-78.7785 169.969 -752 137 113 99
-77.2449 169.944 -752 133 110 96
-75.5105 169.469 -750 132 109 98
-73.6864 168.768 -747 130 108 99
-72.0682 168.519 -746 127 106 95
-70.3602 168.046 -744 126 105 95
-68.6609 167.572 -742 125 104 95
-67.2419 167.777 -743 124 103 96
-65.7308 167.757 -743 122 101 94
-63.8746 166.834 -739 119 98 95
-62.4571 167.04 -740 115 96 93
-60.7067 166.344 -737 114 98 95
-59.0493 165.874 -735 118 100 98
-57.6354 166.081 -736 119 101 98
-56.2179 166.29 -737 116 103 90
-54.7226 166.272 -737 118 103 94
-53.3 166.481 -738 118 101 95
-52.0141 167.142 -741 120 104 100
-50.4439 166.9 -740 124 108 105
-48.7458 166.209 -737 126 112 111
-80.5596 312.916 -1388 120 99 102
-76.742 308.834 -1370 122 100 102
-74.1858 309.713 -1374 125 102 100
-243.224 299.845 -1329 192 191 200
-233.578 291.199 -1291 207 205 212
-221.768 279.626 -1240 213 211 218
-214.237 273.244 -1212 221 220 228
-209.27 270.023 -1198 222 215 219
-204.709 267.254 -1186 223 215 218
-199.858 264.037 -1172 216 210 215
-190.855 255.191 -1133 218 209 210
-177.025 239.594 -1064 185 169 163
-169.89 232.786 -1034 192 167 150
-163.368 226.656 -1007 193 166 146
-153.436 215.58 -958 202 172 152
-144.023 204.958 -911 207 177 159
-138.395 199.516 -887 203 172 155
-134.715 196.774 -875 197 164 149
-131.238 194.26 -864 199 166 151
-127.807 191.747 -853 198 168 151
-125.604 191.033 -850 200 169 152
-122.395 188.748 -840 203 171 155
-120.234 188.036 -837 201 171 156
-117.379 186.202 -829 200 170 155
-114.976 185.044 -824 198 169 154
-112.319 183.437 -817 196 167 151
-109.963 182.28 -812 196 167 151
-107.362 180.675 -805 194 165 150
-104.922 179.296 -799 193 163 149
-102.507 177.918 -793 191 161 147
-100.372 176.989 -789 186 157 143
-98.1292 175.837 -784 183 154 139
-96.154 175.134 -781 179 148 136
-94.1919 174.432 -778 173 143 130
-92.2428 173.731 -775 164 135 121
-90.3069 173.031 -772 153 126 112
-88.4988 172.555 -770 149 122 108
-86.4739 171.632 -766 145 120 108
-84.5769 170.933 -763 142 119 105
-82.8017 170.46 -761 139 116 101
-81.0353 169.987 -759 137 113 100
-79.2778 169.514 -757 136 112 99
-77.5291 169.042 -755 132 109 96
-75.8899 168.795 -754 130 108 97
-74.2553 168.548 -753 128 107 98
-72.6255 168.302 -752 126 105 95
-70.9058 167.832 -750 124 103 94
-69.1948 167.363 -748 124 103 95
-67.6736 167.342 -748 123 102 95
-65.9759 166.874 -746 121 100 93
-64.287 166.407 -744 119 98 94
-62.6911 166.164 -743 117 97 92
-61.1821 166.145 -743 117 98 94
-59.513 165.679 -741 119 101 98
-57.9308 165.438 -740 120 102 99
-56.6582 166.091 -743 119 106 95
-55.0769 165.85 -742 121 106 99
-53.6446 166.057 -743 121 104 99
-52.2087 166.264 -744 122 106 103
-50.5647 165.802 -742 126 110 108
-82.6234 307.363 -1376 124 103 103
-79.3164 305.328 -1367 125 103 107
-76.0466 303.294 -1358 123 102 105
-73.4074 303.718 -1360 122 102 103
-71.4362 307.046 -1375 118 102 102
-257.715 304.654 -1362 188 188 200
-250.566 299.432 -1339 204 203 213
-245.551 296.672 -1327 209 208 216
-239.307 292.35 -1308 211 210 218
-231.155 285.573 -1278 210 207 214
-219.911 274.779 -1230 218 214 222
-213.817 270.245 -1210 222 219 227
-208.507 266.607 -1194 220 213 216
-204.128 264.087 -1183 216 209 211
-198.943 260.454 -1167 215 211 216
-187.765 248.79 -1115 207 196 195
-174.642 234.233 -1050 186 165 157
-169.181 229.719 -1030 195 169 152
-161.534 222.086 -996 196 169 152
-151.627 211.113 -947 203 172 154
-143.347 202.152 -907 206 173 156
-138.041 197.206 -885 201 168 152
-134.828 195.159 -876 196 164 149
-131.653 193.113 -867 197 166 149
-128.516 191.069 -858 197 166 149
-126.452 190.585 -856 198 166 150
-123.086 188.098 -845 199 166 151
-120.628 186.947 -840 197 166 151
-118.05 185.576 -834 198 167 152
-115.359 183.983 -827 197 168 151
-112.422 181.946 -818 196 166 149
-110.2 181.022 -814 193 163 146
-107.729 179.655 -808 190 160 145
-105.415 178.511 -803 188 157 143
-102.863 176.923 -796 186 155 142
-100.85 176.225 -793 181 152 138
-98.4746 174.861 -787 174 145 131
-96.6169 174.387 -785 172 142 131
-94.7682 173.914 -783 163 134 122
-92.8096 173.219 -780 157 129 115
-90.8639 172.525 -777 152 124 110
-89.0462 172.053 -775 147 120 106
-87.1246 171.361 -772 142 117 106
-85.216 170.669 -769 139 115 102
-83.3203 169.977 -766 135 112 97
-81.5443 169.508 -764 135 112 99
-79.6724 168.818 -761 135 112 99
-77.9161 168.351 -759 132 109 96
-76.2692 168.106 -758 129 107 97
-74.5285 167.639 -756 126 105 96
-72.7965 167.173 -754 125 104 95
-71.1677 166.93 -753 123 102 94
-69.4512 166.465 -751 123 102 95
-67.9243 166.444 -751 121 100 93
-66.3094 166.202 -750 120 99 92
-64.4402 165.296 -746 120 99 94
-63.0094 165.498 -747 119 98 92
-61.4104 165.258 -746 120 98 91
-59.8963 165.24 -746 119 100 97
-58.461 165.443 -747 120 103 99
-57.0221 165.647 -748 120 107 98
-55.5054 165.63 -748 123 107 102
-53.9892 165.614 -748 124 106 103
-52.4735 165.597 -748 123 107 104
-86.4999 308.502 -1394 120 101 101
-81.4578 300.289 -1357 120 102 104
-78.3063 298.715 -1350 127 105 108
-75.2397 297.365 -1344 127 109 112
-72.8995 298.891 -1351 136 122 125
-70.22 299.091 -1352 139 131 138
-68.3356 302.83 -1369 129 122 129
-254.988 298.681 -1348 215 214 226
-248.993 294.838 -1331 213 212 222
-244.92 293.212 -1324 214 212 221
-239.782 290.259 -1311 210 207 215
-233.073 285.317 -1289 211 206 214
-222.167 275.067 -1243 221 217 225
-212.515 266.15 -1203 223 220 228
-208.268 263.873 -1193 221 214 218
-204.238 261.82 -1184 215 208 211
-198.371 257.337 -1164 216 212 215
-181.815 238.71 -1080 175 161 157
-173.424 230.479 -1043 186 165 154
-167.651 225.566 -1021 194 167 152
-159.539 217.343 -984 198 168 154
-149.66 206.474 -935 204 170 154
-142.987 199.806 -905 202 169 150
-138.934 196.672 -891 196 163 143
-135.094 193.762 -878 192 163 143
-132.22 192.176 -871 192 163 143
-129.076 190.151 -862 197 164 146
-126.561 189.01 -857 197 164 148
-123.777 187.428 -850 198 165 151
-121.166 186.068 -844 196 163 149
-118.298 184.268 -836 196 163 149
-115.603 182.69 -829 196 166 150
-112.937 181.113 -822 195 165 148
-110.437 179.757 -816 192 162 145
-107.963 178.403 -810 186 156 141
-105.514 177.049 -804 180 150 135
-103.09 175.696 -798 179 149 134
-100.819 174.565 -793 176 147 132
-98.82 173.874 -790 169 140 125
-96.7106 172.965 -786 161 132 120
-94.7395 172.276 -783 152 124 111
-92.9004 171.807 -781 148 121 108
-90.9533 171.12 -778 147 120 106
-89.249 170.873 -777 143 116 103
-87.5495 170.626 -776 139 114 104
-85.5225 169.721 -772 137 113 100
-83.73 169.255 -770 134 111 96
-81.8397 168.571 -767 133 110 97
-79.9623 167.887 -764 133 110 97
-78.0978 167.205 -761 130 109 96
-76.4473 166.962 -760 128 107 96
-74.7031 166.5 -758 123 102 93
-73.2571 166.697 -759 125 104 96
-71.6187 166.456 -758 123 102 94
-69.8925 165.995 -756 122 101 94
-68.4463 166.194 -757 120 99 92
-66.7314 165.735 -755 120 99 92
-64.9389 165.056 -752 120 99 94
-63.412 165.037 -752 120 98 91
-61.8034 164.799 -751 121 98 90
-60.1191 164.342 -749 117 99 96
-58.7563 164.763 -751 120 103 99
-57.4622 165.403 -754 120 107 99
-55.7855 164.948 -752 123 107 103
-54.2616 164.931 -752 125 107 105
-83.9305 296.608 -1353 118 102 106
-80.6531 294.611 -1344 117 103 109
-77.6449 293.491 -1339 123 108 113
-74.8253 293.03 -1337 135 123 128
-72.2302 293.446 -1339 151 142 149
-69.8354 294.74 -1345 155 151 161
-67.367 295.815 -1350 147 144 155
-65.1184 297.986 -1360 144 143 156
-260.786 299.432 -1364 212 210 221
-253.776 294.525 -1342 214 212 223
-248.917 292.035 -1331 212 210 220
-244.106 289.548 -1320 210 207 216
-238.978 286.623 -1307 211 208 216
-227.579 276.028 -1259 215 210 218
-219.241 268.945 -1227 225 220 228
-212.097 263.182 -1201 224 220 226
-207.507 260.489 -1189 213 207 212
-203.658 258.675 -1181 213 207 211
-192.007 246.789 -1127 200 193 193
-178.899 232.72 -1063 166 150 144
-174.369 229.602 -1049 188 166 155
-166.123 221.453 -1012 196 166 152
-158.194 213.528 -976 198 167 153
-148.655 203.2 -929 200 166 144
-142.47 197.251 -902 195 162 138
-138.736 194.585 -890 188 156 133
-135.207 192.139 -879 186 157 136
-132.635 191.006 -874 187 157 137
-129.486 189 -865 192 159 139
-127.114 188.087 -861 192 160 143
-123.885 185.865 -851 192 159 144
-121.56 184.955 -847 191 158 144
-118.545 182.954 -838 191 159 144
-115.986 181.609 -832 191 161 146
-113.041 179.61 -823 192 162 145
-111.081 179.14 -821 189 159 142
-108.463 177.58 -814 181 151 136
-106.269 176.676 -810 176 146 131
-103.834 175.336 -804 176 146 131
-101.933 174.869 -802 174 144 129
-99.1655 172.876 -793 167 138 123
-97.4197 172.629 -792 158 129 117
-95.1949 171.511 -787 150 122 109
-93.3482 171.047 -785 147 120 107
-91.5104 170.583 -783 145 118 104
-89.7964 170.338 -782 142 115 102
-87.9745 169.876 -780 140 115 105
-86.0506 169.197 -777 137 113 100
-84.1398 168.518 -774 133 110 95
-82.2419 167.84 -771 131 108 95
-80.2523 166.946 -767 130 108 95
-78.3822 166.269 -764 128 107 94
-76.7262 166.028 -763 128 107 96
-75.0748 165.788 -762 125 104 95
-73.6211 165.984 -763 123 102 95
-71.9751 165.744 -762 123 102 95
-70.4261 165.723 -762 122 101 94
-68.7874 165.485 -761 121 100 93
-67.1533 165.247 -760 120 99 92
-65.4374 164.793 -758 121 100 95
-63.8146 164.556 -757 122 100 94
-62.0318 163.885 -754 123 99 92
-60.6629 164.302 -756 118 100 97
-59.1299 164.284 -756 120 103 100
-57.5975 164.267 -756 120 106 100
-56.288 164.902 -759 123 106 103
-54.6782 164.668 -758 125 107 105
-83.0993 290.968 -1340 118 105 112
-79.7892 288.773 -1330 121 110 119
-77.1 288.75 -1330 127 119 129
-74.4674 288.944 -1331 145 138 147
-72.047 290.008 -1336 151 147 156
-69.4513 290.421 -1338 151 149 160
-66.8481 290.835 -1340 145 143 155
-64.4288 292.118 -1346 133 131 148
-62.2609 294.703 -1358 129 128 142
-257.84 293.3 -1349 213 210 220
-252.565 290.397 -1336 212 209 219
-247.533 287.714 -1324 212 209 219
-243.108 285.685 -1315 211 208 216
-236.712 281.269 -1295 210 207 215
-228.595 274.684 -1265 217 212 220
-215.602 262.025 -1207 225 220 226
-211.328 259.791 -1197 224 218 222
-207.619 258.209 -1190 205 201 206
-203.425 255.978 -1180 214 209 214
-193.994 247.026 -1139 184 175 173
-178.509 230.055 -1061 167 149 141
-172.489 225.017 -1038 191 167 155
-165.909 219.114 -1011 197 165 152
-157.336 210.397 -971 194 161 146
-148.93 201.685 -931 197 163 140
-143.375 196.66 -908 190 157 134
-139.162 193.369 -893 183 151 128
-136.089 191.596 -885 182 152 131
-132.899 189.608 -876 185 154 133
-130.046 188.054 -869 187 155 134
-127.666 187.15 -865 188 155 138
-124.576 185.166 -856 186 153 137
-122.098 184.048 -851 186 153 138
-119.641 182.93 -846 187 155 140
-116.509 180.733 -836 187 157 142
-113.831 179.186 -829 186 156 140
-111.318 177.856 -823 183 153 136
-108.964 176.743 -818 177 147 132
-106.5 175.415 -812 173 143 128
-104.191 174.303 -807 171 141 126
-102.03 173.409 -803 167 138 123
-99.511 171.867 -796 162 134 119
-97.5137 171.191 -793 155 126 114
-95.4085 170.299 -789 147 120 108
-93.5582 169.839 -787 145 118 106
-91.8337 169.596 -786 143 117 103
-89.9994 169.138 -784 142 116 103
-88.2866 168.896 -783 138 113 103
-86.468 168.438 -781 135 111 99
-84.5496 167.766 -778 131 108 94
-82.5374 166.879 -774 131 108 95
-80.6469 166.208 -771 130 108 95
-78.7692 165.538 -768 128 107 94
-77.2061 165.515 -768 128 107 97
-75.6435 165.492 -768 126 105 96
-74.1781 165.686 -769 123 102 94
-72.4259 165.233 -767 123 102 94
-70.7749 164.997 -766 122 101 94
-68.9478 164.33 -763 121 100 93
-67.3101 164.095 -762 120 99 92
-65.5907 163.644 -760 121 100 97
-63.88 163.195 -758 124 102 98
-62.4247 163.391 -759 124 100 97
-60.7252 162.943 -757 119 103 101
-59.1124 162.71 -756 121 105 103
-57.8851 163.554 -760 122 107 102
-56.4196 163.752 -761 123 107 105
-54.8784 163.736 -761 124 107 106
-85.7848 288.205 -1340 121 104 108
-82.0829 284.74 -1324 119 108 117
-79.4059 284.716 -1324 125 116 126
-76.8455 285.123 -1326 138 136 154
-74.3336 285.746 -1329 150 148 164
-71.7562 286.155 -1331 151 150 163
-69.2752 286.994 -1335 151 148 159
-66.6788 287.404 -1337 145 142 152
-64.2184 288.459 -1342 131 129 146
-61.9218 290.375 -1351 120 120 137
-59.8084 293.367 -1365 114 115 132
-258.145 290.894 -1351 215 212 221
-251.545 286.513 -1331 214 211 220
-246.899 284.286 -1321 209 206 214
-242.112 281.847 -1310 204 200 208
-235.363 277.043 -1288 213 208 217
-224.372 267.082 -1242 222 216 224
-215.36 259.276 -1206 228 221 225
-210.735 256.634 -1194 224 216 217
-207.034 255.067 -1187 207 204 211
-202.503 252.429 -1175 214 210 216
-187.977 237.119 -1104 167 154 150
-178.456 227.831 -1061 177 157 147
-172.604 223.055 -1039 190 166 152
-165.86 216.995 -1011 194 161 147
-157.452 208.578 -972 194 161 146
-149.206 200.164 -933 197 163 141
-143.648 195.187 -910 187 155 132
-139.744 192.357 -897 176 144 121
-136.203 189.958 -886 177 147 126
-133.315 188.418 -879 185 155 134
-130.307 186.664 -871 186 154 133
-127.923 185.769 -867 184 151 134
-124.83 183.804 -858 181 148 132
-122.635 183.125 -855 181 148 132
-119.323 180.734 -844 183 151 136
-117.032 179.842 -840 184 153 138
-114.072 177.882 -831 180 150 133
-111.826 176.992 -827 176 146 129
-109.198 175.462 -820 170 141 125
-107.255 175.002 -818 168 139 124
-104.934 173.902 -813 163 134 119
-102.762 173.016 -809 157 129 115
-100.482 171.917 -804 156 128 115
-98.0996 170.605 -798 151 122 110
-95.864 169.507 -793 146 118 106
-94.1249 169.266 -792 143 116 104
-92.0404 168.384 -788 139 115 102
-90.2024 167.93 -786 138 114 101
-88.4861 167.69 -785 136 111 101
-86.664 167.237 -783 134 110 98
-84.5247 166.144 -778 131 108 95
-82.7264 165.693 -776 131 108 95
-80.937 165.242 -774 130 108 95
-79.1563 164.792 -772 126 105 92
-77.4849 164.555 -771 124 103 94
-76.0152 164.746 -772 123 102 93
-74.735 165.365 -775 125 104 95
-72.9711 164.916 -773 123 102 94
-71.4007 164.895 -773 122 101 94
-69.5599 164.235 -770 122 101 94
-67.9085 164.001 -769 120 99 93
-65.8304 162.702 -763 122 100 99
-64.4511 163.11 -765 124 101 99
-62.8175 162.878 -764 126 102 101
-60.8678 161.794 -759 121 106 107
-59.5642 162.416 -762 120 104 104
-58.325 163.252 -766 122 107 103
-56.9961 163.874 -769 124 109 108
-89.196 287.788 -1351 120 104 103
-84.2878 280.521 -1317 122 107 113
-81.1912 279.006 -1310 124 113 125
-78.7831 279.835 -1314 132 124 137
-76.3016 280.451 -1317 140 139 160
-74.0323 281.92 -1324 154 153 171
-71.5197 282.537 -1327 159 158 171
-69.0994 283.581 -1332 158 156 167
-66.5597 284.2 -1335 150 149 159
-64.1519 285.459 -1341 137 136 150
-61.7663 286.93 -1348 129 125 144
-59.7033 290.106 -1363 120 116 138
-57.7475 294.132 -1382 119 115 130
-255.968 285.71 -1340 212 209 217
-251.281 283.504 -1330 202 199 207
-245.705 280.234 -1315 201 198 206
-240.562 277.392 -1302 210 205 214
-234.745 273.701 -1285 219 214 223
-220.874 260.43 -1223 225 218 224
-214.582 255.895 -1202 231 223 226
-210.497 253.917 -1193 220 211 212
-206.625 252.153 -1185 215 213 219
-201.754 249.115 -1171 211 206 209
-185.198 231.403 -1088 157 142 136
-178.404 225.608 -1061 181 160 148
-172.719 221.092 -1040 188 164 149
-165.319 214.241 -1008 192 162 147
-157.082 206.118 -970 192 162 145
-149.642 198.849 -936 196 163 140
-144.553 194.558 -916 187 155 132
-140.326 191.33 -901 177 145 122
-137.085 189.379 -892 180 150 129
-134.034 187.641 -884 187 156 135
-131.166 186.117 -877 183 151 131
-128.624 185.018 -872 180 147 130
-125.375 182.859 -862 175 142 126
-122.886 181.763 -857 174 141 125
-119.712 179.607 -847 177 145 129
-117.276 178.512 -842 179 147 131
-114.588 176.995 -835 176 146 129
-112.199 175.902 -830 170 140 123
-109.832 174.81 -825 165 136 119
-107.617 173.931 -821 164 135 119
-105.42 173.053 -817 158 129 114
-103.113 171.963 -812 151 124 110
-100.702 170.663 -806 149 122 108
-98.6856 169.999 -803 147 119 107
-96.5612 169.124 -799 141 114 102
-94.5728 168.462 -796 138 112 100
-92.4807 167.588 -792 138 114 101
-90.6351 167.138 -790 137 113 101
-88.7985 166.689 -788 133 110 99
-86.86 166.029 -785 131 108 96
-85.0432 165.581 -783 131 108 95
-82.9155 164.5 -778 130 107 94
-81.1225 164.053 -776 128 105 92
-79.3383 163.607 -774 124 103 90
-77.8643 163.796 -775 122 101 92
-76.2885 163.774 -775 121 100 91
-74.9061 164.174 -777 123 102 95
-73.2331 163.942 -776 122 101 94
-71.657 163.921 -776 123 102 95
-69.5398 162.633 -770 123 102 95
-67.9771 162.613 -770 122 101 95
-66.1563 161.96 -767 123 101 100
-64.5166 161.73 -766 125 102 102
-62.8815 161.501 -765 128 104 105
-61.8122 162.75 -771 122 108 110
-60.2502 162.732 -771 120 105 107
-58.6887 162.715 -771 121 107 105
-85.276 272.537 -1292 124 108 108
-82.5359 272.091 -1290 125 110 116
-80.3623 273.544 -1297 131 122 133
-78.221 275.208 -1305 144 138 151
-75.99 276.662 -1312 145 141 163
-73.7874 278.327 -1320 152 149 168
-71.3375 279.15 -1324 155 154 169
-68.9238 280.184 -1329 155 155 167
-66.3909 280.797 -1332 151 151 162
-64.0855 282.464 -1340 139 139 153
-61.5652 283.29 -1344 135 129 149
-59.292 285.38 -1354 128 119 143
-57.4385 289.789 -1375 125 115 136
-256.848 283.953 -1345 196 193 203
-250.83 280.291 -1328 195 192 202
-245.073 276.842 -1312 206 203 213
-240.307 274.451 -1301 212 207 216
-229.929 265.524 -1259 222 217 225
-220.449 257.445 -1221 226 221 228
-213.627 252.322 -1197 228 222 227
-209.553 250.364 -1188 214 207 210
-205.344 248.197 -1178 226 220 221
-200.662 245.399 -1165 206 197 196
-186.165 230.389 -1094 153 138 132
-179.192 224.44 -1066 184 164 151
-172.005 218.074 -1036 185 161 145
-164.78 211.5 -1005 188 159 144
-156.388 203.247 -966 189 160 143
-149.598 196.892 -936 195 163 141
-144.826 193.063 -918 189 157 135
-140.753 190.078 -904 183 151 129
-137.353 187.936 -894 184 153 132
-134.753 186.845 -889 185 153 133
-131.577 184.916 -880 181 148 129
-129.324 184.248 -877 176 143 126
-125.921 181.9 -866 169 136 120
-122.564 179.554 -855 168 135 118
-120.101 178.469 -850 172 139 123
-117.521 177.175 -844 171 138 122
-114.829 175.672 -837 164 133 116
-112.707 175.01 -834 163 133 116
-110.732 174.558 -832 162 133 116
-108.372 173.478 -827 158 129 113
-106.163 172.608 -823 153 124 109
-103.845 171.529 -818 146 119 105
-101.298 170.032 -811 144 117 103
-99.2714 169.374 -808 142 115 103
-97.0166 168.298 -803 137 112 99
-94.9019 167.432 -799 135 111 98
-93.1544 167.196 -798 137 113 100
-90.8384 165.913 -792 135 111 99
-88.9982 165.468 -790 132 109 98
-87.1669 165.024 -788 130 107 95
-85.3445 164.58 -786 130 107 94
-83.531 164.137 -784 129 106 93
-81.5172 163.276 -780 126 104 91
-79.8279 163.044 -779 124 104 90
-78.0428 162.603 -777 124 103 94
-76.6602 162.999 -779 122 101 93
-75.3665 163.605 -782 122 101 94
-73.6838 163.375 -781 121 100 93
-72.098 163.354 -781 122 101 94
-70.0616 162.288 -776 124 103 96
-68.6637 162.686 -778 123 102 96
-66.396 160.994 -770 122 100 99
-65.1717 161.812 -774 124 102 102
-63.3566 161.166 -771 127 104 105
-62.4357 162.82 -779 121 108 112
-60.7017 162.385 -777 121 107 111
-83.7999 265.26 -1270 126 111 111
-81.297 265.446 -1271 126 114 121
-79.1623 266.885 -1278 131 124 137
-77.3597 269.577 -1291 145 140 154
-75.5051 272.27 -1304 142 135 157
-73.3192 273.919 -1312 138 132 152
-70.9938 275.151 -1318 144 142 159
-68.7486 276.801 -1326 153 156 169
-66.2224 277.408 -1329 147 150 163
-63.8282 278.642 -1335 129 130 144
-61.3645 279.668 -1340 121 120 139
-59.0562 281.529 -1349 120 116 139
-56.8374 284.017 -1361 120 115 136
-255.628 279.878 -1339 193 192 202
-249.813 276.462 -1323 205 203 212
-244.628 273.674 -1310 210 207 215
-237.837 269.009 -1288 216 211 220
-226.028 258.501 -1238 220 215 224
-217.136 251.13 -1203 227 223 229
-212.852 248.981 -1193 228 222 227
-208.964 247.251 -1185 214 207 211
-205.111 245.523 -1177 229 223 224
-200.432 242.753 -1164 195 187 186
-187.472 229.769 -1102 151 137 131
-178.469 221.377 -1062 186 165 152
-171.79 215.699 -1035 184 160 144
-164.076 208.566 -1001 188 159 144
-156.182 201.02 -965 188 159 142
-149.875 195.353 -938 193 162 141
-145.573 192.187 -923 189 158 137
-141.646 189.439 -910 183 151 130
-138.081 187.11 -899 185 153 132
-135.623 186.238 -895 184 151 131
-132.585 184.535 -887 182 148 130
-129.434 182.626 -878 175 141 124
-126.175 180.51 -868 165 132 114
-123.532 179.226 -862 165 132 114
-120.632 177.528 -854 165 132 116
-117.487 175.416 -844 164 131 115
-115.07 174.344 -839 161 131 114
-112.945 173.688 -836 158 129 112
-111.099 173.448 -835 154 126 109
-108.603 172.171 -829 151 122 107
-106.262 171.102 -824 146 118 103
-104.196 170.449 -821 141 114 100
-101.643 168.966 -814 141 114 100
-99.4887 168.108 -810 141 114 102
-97.2305 167.042 -805 137 111 100
-95.4684 166.807 -804 134 109 98
-93.4779 166.158 -801 133 108 98
-91.0418 164.68 -794 132 107 97
-89.536 164.862 -795 129 106 95
-87.3633 163.8 -790 128 105 92
-86.08 164.397 -793 129 106 93
-83.7202 162.922 -786 128 105 92
-82.4343 163.52 -789 126 104 91
-80.1125 162.047 -782 125 105 91
-78.6231 162.231 -783 125 104 96
-77.0319 162.209 -783 123 102 95
-75.5377 162.395 -784 122 101 96
-73.6628 161.753 -781 121 100 94
-72.2622 162.146 -783 122 101 94
-70.2222 161.091 -778 123 102 95
-68.8206 161.485 -780 122 101 95
-66.722 160.224 -774 122 101 98
-65.9108 162.068 -783 122 100 100
-64.3244 162.05 -783 124 102 103
-63.2994 163.48 -790 120 107 112
-85.2552 259.342 -1254 125 111 111
-83.0506 260.352 -1259 126 114 116
-80.6985 260.949 -1262 124 117 126
-78.3969 261.754 -1266 126 121 137
-76.3793 263.593 -1275 134 130 148
-74.3839 265.639 -1285 139 136 156
-72.5721 268.512 -1299 139 136 155
-70.5429 270.766 -1310 137 135 154
-68.3663 272.606 -1319 144 144 160
-66.0045 273.827 -1325 147 147 163
-63.6668 275.256 -1332 130 130 146
-61.2555 276.478 -1338 118 116 135
-58.9082 278.114 -1346 115 113 134
-56.529 279.751 -1354 117 113 133
-54.436 283.041 -1370 117 113 131
-256.891 278.521 -1346 201 200 210
-250.875 274.932 -1329 208 206 215
-242.505 268.656 -1299 215 212 221
-235.923 264.245 -1278 219 214 223
-224.686 254.463 -1231 222 217 225
-217.796 249.439 -1207 231 227 232
-212.613 246.279 -1192 228 222 226
-208.728 244.566 -1184 217 210 214
-203.659 241.41 -1169 230 223 225
-198.997 238.668 -1156 187 178 178
-186.058 225.814 -1094 149 135 131
-178.25 218.952 -1061 183 162 150
-171.243 212.918 -1032 182 158 143
-163.538 205.857 -998 184 157 142
-156.137 199.006 -965 184 157 140
-149.992 193.601 -939 191 161 142
-145.847 190.673 -925 186 155 134
-142.073 188.159 -913 181 149 128
-138.81 186.265 -904 184 152 131
-135.736 184.578 -896 182 149 129
-133.145 183.51 -891 178 144 126
-130.281 182.031 -884 172 139 121
-126.866 179.73 -873 166 133 115
-123.64 177.636 -863 161 128 110
-120.88 176.161 -856 158 125 108
-118.011 174.481 -848 158 125 109
-115.723 173.625 -844 153 124 108
-113.588 172.976 -841 153 124 108
-111.334 172.121 -837 151 123 108
-109.228 171.473 -834 148 121 106
-107.006 170.621 -830 144 116 101
-104.674 169.563 -825 141 114 99
-102.364 168.506 -820 141 114 100
-100.075 167.45 -815 142 115 103
-97.8067 166.395 -810 137 112 101
-95.9164 165.957 -808 134 109 99
-93.9182 165.315 -805 132 107 97
-91.9332 164.672 -802 130 106 95
-89.6233 163.415 -796 129 106 95
-87.7808 162.98 -794 128 105 93
-86.3814 163.366 -796 127 104 92
-84.3355 162.521 -792 126 103 90
-82.8289 162.703 -793 126 105 92
-80.8069 161.859 -789 126 107 93
-79.0025 161.426 -787 124 104 96
-77.4036 161.404 -787 122 101 94
-75.8054 161.383 -787 121 100 95
-74.4907 161.977 -790 121 100 94
-72.8877 161.956 -790 122 101 95
-71.0145 161.321 -787 123 102 95
-69.5952 161.712 -789 123 102 96
-67.8235 161.283 -787 124 102 101
-84.1438 253.468 -1238 123 111 113
-82.0381 254.673 -1244 125 114 118
-79.9727 256.083 -1251 127 119 128
-77.8177 257.289 -1257 125 121 137
-75.6392 258.496 -1263 125 122 141
-73.6107 260.317 -1272 132 129 148
-71.9374 263.571 -1288 140 138 157
-69.9849 266.007 -1300 137 135 155
-67.829 267.829 -1309 135 133 151
-65.7868 270.266 -1321 144 143 160
-63.5534 272.089 -1330 135 133 152
-61.0553 272.89 -1334 121 119 139
-58.6729 274.305 -1341 117 115 135
-56.4298 276.539 -1352 117 113 130
-54.103 278.569 -1362 117 113 131
-256.627 275.498 -1345 202 201 212
-250.237 271.536 -1326 208 206 217
-240.01 263.276 -1286 216 213 223
-233.088 258.502 -1263 220 215 224
-221.52 248.41 -1214 224 220 228
-216.111 245.075 -1198 229 225 230
-212.018 243.174 -1189 226 220 223
-208.14 241.478 -1181 221 214 216
-203.775 239.172 -1170 227 220 224
-196.704 233.597 -1143 178 168 170
-184.476 221.691 -1085 147 133 129
-175.68 213.673 -1046 178 158 146
-170.697 210.152 -1029 182 159 144
-162.837 202.958 -994 181 156 139
-155.608 196.38 -962 182 155 138
-150.109 191.847 -940 189 159 143
-146.752 189.969 -931 186 154 134
-142.655 187.072 -917 180 148 127
-139.538 185.4 -909 181 147 128
-136.91 184.342 -904 179 145 126
-133.855 182.673 -896 174 140 121
-131.129 181.413 -890 169 136 118
-127.702 179.135 -879 166 133 115
-124.322 176.858 -868 158 125 107
-121.552 175.397 -861 153 120 103
-118.812 173.938 -854 152 119 103
-116.376 172.887 -849 148 119 104
-113.692 171.43 -842 147 119 104
-111.835 171.195 -841 144 117 102
-109.721 170.553 -838 142 115 100
-107.62 169.912 -835 141 114 99
-105.279 168.865 -830 141 114 99
-102.709 167.412 -823 141 114 100
-100.66 166.774 -820 140 113 101
-98.383 165.729 -815 135 110 99
-96.3643 165.092 -812 133 108 98
-94.7085 165.066 -812 131 108 97
-92.3659 163.82 -806 129 106 95
-90.8364 163.998 -807 130 107 96
-88.4195 162.55 -800 130 107 96
-87.1167 163.136 -803 127 104 93
-85.2701 162.705 -801 125 102 89
-83.5368 162.479 -800 126 105 91
-81.501 161.644 -796 124 105 91
-79.7833 161.418 -795 123 103 96
-77.7754 160.584 -791 121 101 94
-76.2658 160.766 -792 120 99 94
-74.5643 160.542 -791 122 101 96
-73.0519 160.725 -792 124 103 98
-71.536 160.907 -793 124 103 96
-70.1049 161.294 -795 125 104 98
-68.8385 162.086 -799 125 103 102
-85.1526 246.672 -1217 125 110 109
-83.7128 249.689 -1232 122 111 118
-81.8834 251.692 -1242 122 112 119
-79.8227 253.088 -1249 125 116 126
-77.6105 254.08 -1254 122 118 135
-75.3189 254.869 -1258 122 120 139
-73.0117 255.659 -1262 130 126 145
-71.0241 257.665 -1272 136 133 153
-69.1582 260.279 -1285 136 134 155
-67.3957 263.501 -1301 130 128 148
-65.42 266.115 -1314 143 141 159
-63.2969 268.325 -1325 139 139 156
-60.9012 269.523 -1331 125 124 142
-58.613 271.329 -1340 118 116 136
-56.2055 272.731 -1347 115 112 129
-53.8895 274.74 -1357 116 113 130
-51.9105 278.775 -1377 117 113 132
-249.412 267.952 -1322 210 207 218
-237.89 258.359 -1275 219 216 226
-229.333 251.81 -1243 222 217 226
-221.093 245.468 -1212 225 220 228
-215.689 242.167 -1196 230 226 231
-211.78 240.488 -1188 224 220 222
-207.906 238.81 -1180 222 217 219
-203.544 236.527 -1169 226 219 223
-194.412 228.582 -1130 170 160 161
-183.234 218.012 -1078 145 131 127
-176.471 212.502 -1051 177 156 144
-170.318 207.602 -1027 179 156 142
-162.136 200.077 -990 178 154 136
-155.241 193.971 -960 177 151 134
-149.908 189.686 -939 184 155 139
-146.081 187.221 -927 184 153 133
-142.771 185.364 -918 178 146 125
-139.806 183.911 -911 176 142 124
-137.175 182.863 -906 174 140 121
-134.565 181.817 -901 172 138 118
-131.24 179.762 -891 168 135 116
-128.248 178.113 -883 167 134 115
-125.289 176.464 -875 158 125 106
-122.224 174.615 -866 150 117 99
-119.892 173.775 -862 145 112 96
-116.892 171.928 -853 139 110 95
-115.01 171.695 -852 140 111 96
-112.734 170.857 -848 137 110 95
-110.476 170.02 -844 136 109 94
-108.106 168.983 -839 138 111 96
-106.137 168.551 -837 139 112 97
-103.679 167.314 -831 138 111 97
-100.878 165.474 -822 136 109 97
-98.8385 164.842 -819 133 108 97
-96.5749 163.809 -814 132 108 97
-94.5657 163.179 -811 130 107 96
-92.9132 163.154 -811 128 105 95
-91.0364 162.726 -809 128 106 96
-89.279 162.5 -808 129 106 95
-87.5265 162.275 -807 128 105 94
-86.0979 162.653 -809 126 103 90
-83.8269 161.423 -803 124 104 90
-82.3998 161.803 -805 123 104 90
-80.6643 161.579 -804 122 102 95
-78.7369 160.955 -801 121 101 94
-76.7261 160.129 -797 121 100 95
-75.2976 160.51 -799 123 102 97
-73.6772 160.49 -799 125 104 98
-72.1476 160.671 -800 125 104 97
-70.7909 161.254 -803 125 104 99
-84.5695 242.549 -1209 126 114 116
-82.8067 244.532 -1219 124 116 127
-81.2678 247.318 -1233 122 114 125
-79.4174 249.302 -1243 124 115 127
-77.2798 250.484 -1249 122 118 135
-75.1186 251.666 -1255 123 121 140
-72.7604 252.248 -1258 122 120 139
-70.4464 253.03 -1262 127 125 145
-68.4935 255.216 -1273 133 131 152
-66.9112 259.007 -1292 129 127 147
-65.1034 262.196 -1308 133 132 151
-62.8975 263.983 -1317 135 136 152
-60.7472 266.171 -1328 125 124 142
-58.5095 268.159 -1338 120 118 136
-56.1901 269.947 -1347 117 115 133
-53.8747 271.936 -1357 115 113 131
-51.7833 275.328 -1374 115 111 130
-247.08 262.782 -1310 214 210 221
-237.078 254.893 -1271 220 217 226
-226.871 246.608 -1230 225 220 229
-220.12 241.935 -1207 227 222 230
-215.449 239.47 -1195 227 223 228
-211.722 238.009 -1188 218 214 217
-207.848 236.349 -1180 219 215 218
-204.532 235.29 -1175 225 218 222
-195.047 227.026 -1134 163 153 154
-184.203 216.965 -1084 145 131 125
-176.925 210.912 -1054 176 155 143
-170.436 205.662 -1028 174 151 138
-163.238 199.415 -997 172 149 130
-156.33 193.371 -967 172 147 130
-151.782 190.13 -951 179 151 136
-146.513 185.891 -930 183 152 132
-142.887 183.653 -919 181 149 128
-140.382 182.815 -915 175 141 123
-137.591 181.578 -909 171 137 118
-134.826 180.342 -903 170 136 116
-131.94 178.908 -896 166 134 114
-129.084 177.475 -889 166 133 113
-125.828 175.444 -879 157 125 104
-123.178 174.212 -873 148 115 97
-120.137 172.383 -864 140 107 90
-117.545 171.154 -858 132 103 88
-115.248 170.324 -854 134 106 90
-112.836 169.296 -849 135 108 92
-110.838 168.866 -847 135 110 93
-108.849 168.438 -845 136 111 95
-106.742 167.81 -842 136 111 96
-104.274 166.586 -836 134 109 95
-101.955 165.562 -831 133 106 94
-99.4147 164.14 -824 131 106 95
-97.7346 164.113 -824 131 107 96
-95.4724 163.091 -819 129 106 95
-93.8041 163.065 -819 127 105 94
-91.799 162.443 -816 125 104 95
-90.4697 163.015 -819 128 106 95
-88.5868 162.593 -817 129 106 95
-86.6064 161.972 -814 125 104 91
-84.8477 161.75 -813 124 104 90
-83.2983 161.926 -814 123 104 90
-81.2441 161.108 -810 122 102 95
-79.5999 161.086 -810 120 100 93
-77.3789 159.871 -804 121 99 94
-85.0461 234.712 -1182 124 111 114
-83.9172 238.263 -1200 131 120 125
-82.3089 240.623 -1212 129 124 138
-81.1139 244.373 -1231 123 117 131
-79.3319 246.535 -1242 125 116 129
-77.0732 247.308 -1246 121 118 135
-74.8589 248.279 -1251 121 119 138
-72.5671 249.053 -1255 118 117 136
-70.2599 249.828 -1259 123 122 142
-68.1522 251.396 -1267 128 127 148
-66.3753 254.354 -1282 126 125 146
-64.4389 256.916 -1295 127 126 146
