ply
format ascii 1.0
comment Created by Open3D
element vertex 1356
property double x
property double y
property double z
property uchar red
property uchar green
property uchar blue
end_header
-282.127 -770.502 -1378 124 106 90
-278.597 -769.154 -1376 126 105 92
-275.278 -768.368 -1375 127 106 97
-272.165 -768.143 -1375 128 107 98
-269.25 -768.479 -1376 126 105 96
-265.946 -767.702 -1375 127 106 97
-263.032 -768.043 -1376 129 108 98
-259.927 -767.829 -1376 131 110 99
-256.638 -767.06 -1375 134 113 102
-253.356 -766.294 -1374 134 113 102
-250.263 -766.088 -1374 132 111 100
-247.172 -765.885 -1374 130 109 98
-244.262 -766.241 -1375 130 107 96
-241.701 -767.714 -1378 128 105 95
-238.955 -768.632 -1380 125 102 93
-236.031 -768.995 -1381 123 100 91
-233.274 -769.917 -1383 120 98 89
-230.677 -771.398 -1386 116 95 86
-227.905 -772.324 -1388 107 88 76
-225.288 -773.809 -1391 99 80 67
-222.819 -775.852 -1395 96 77 63
-220.019 -776.783 -1397 93 74 62
-217.524 -778.829 -1401 89 70 58
-215.166 -781.433 -1406 86 67 55
-212.485 -782.926 -1409 83 64 52
-209.645 -783.866 -1411 70 53 45
-207.091 -785.918 -1415 67 53 45
-204.233 -786.862 -1417 117 106 99
-182.491 -773.712 -1395 113 94 91
-178.63 -770.238 -1389 150 127 114
-174.798 -766.769 -1383 162 134 119
-171.242 -764.411 -1379 167 138 123
-167.706 -762.057 -1375 168 139 127
-164.189 -759.706 -1371 171 138 125
-160.926 -758.466 -1369 171 138 124
-157.097 -754.46 -1362 174 141 127
-153.98 -753.78 -1361 175 145 130
-150.535 -751.442 -1357 177 147 132
-147.327 -750.214 -1355 180 150 135
-144.342 -750.096 -1355 182 153 138
-141.359 -749.981 -1355 181 151 136
-138.173 -748.762 -1353 179 150 135
-135.296 -749.205 -1354 179 149 140
-132.124 -747.99 -1352 179 148 139
-129.152 -747.885 -1352 172 141 132
-126.088 -747.229 -1351 164 135 121
-123.212 -747.681 -1352 162 133 116
-120.245 -747.583 -1352 161 132 115
-117.451 -748.593 -1354 158 129 114
-114.397 -747.947 -1353 158 128 111
-111.595 -748.962 -1355 157 127 111
-108.545 -748.32 -1354 151 122 108
-105.812 -749.892 -1357 148 120 105
-102.839 -749.808 -1357 142 115 100
-100.015 -750.832 -1359 136 109 94
-97.2544 -752.409 -1362 128 104 88
-94.4125 -753.437 -1364 118 95 80
-91.9648 -757.781 -1372 112 90 75
-89.2884 -760.469 -1377 102 83 71
-299.775 -779.882 -1386 117 101 90
-296.828 -780.198 -1387 118 102 84
-292.609 -777.142 -1382 119 102 80
-289.044 -775.777 -1380 122 103 81
-285.077 -773.291 -1376 123 106 88
-281.95 -773.057 -1376 125 108 91
-278.421 -771.702 -1374 127 106 93
-275.104 -770.912 -1373 126 105 96
-271.794 -770.125 -1372 130 109 100
-269.079 -771.025 -1374 131 110 101
-265.777 -770.243 -1373 129 108 99
-263.057 -771.148 -1375 131 110 100
-260.329 -772.054 -1377 132 111 100
-256.662 -770.159 -1374 134 113 102
-253.379 -769.389 -1373 135 114 103
-250.286 -769.182 -1373 133 112 101
-247.015 -768.418 -1372 131 110 99
-243.751 -767.656 -1371 130 107 96
-241.372 -769.696 -1375 129 106 97
-238.63 -770.619 -1377 129 105 99
-236.053 -772.103 -1380 127 104 95
-233.296 -773.029 -1382 121 99 90
-230.533 -773.958 -1384 115 94 85
-227.598 -774.329 -1385 108 89 77
-224.661 -774.703 -1386 102 83 69
-222.201 -776.756 -1390 100 81 65
-219.253 -777.134 -1391 96 77 63
-217.235 -780.866 -1398 91 72 58
-214.422 -781.806 -1400 88 69 56
-212.055 -784.424 -1405 85 66 54
-209.37 -785.927 -1408 72 55 46
-206.821 -787.989 -1412 68 53 46
-203.967 -788.938 -1414 107 96 90
-186.797 -782.007 -1403 132 119 115
-182.508 -776.84 -1394 118 100 97
-178.904 -774.464 -1390 152 129 114
-174.94 -770.42 -1383 164 137 122
-171.381 -768.052 -1379 169 140 125
-167.72 -765.129 -1374 170 141 129
-164.202 -762.767 -1370 173 140 127
-160.939 -761.521 -1368 171 138 124
-157.34 -758.609 -1363 173 140 126
-154.218 -757.926 -1362 177 147 132
-150.879 -756.132 -1359 180 150 135
-147.664 -754.899 -1357 182 153 138
-144.459 -753.667 -1355 183 154 139
-141.473 -753.551 -1355 181 152 137
-138.284 -752.326 -1353 178 149 134
-135.206 -751.659 -1352 179 149 140
-132.133 -750.995 -1351 178 148 139
-129.256 -751.444 -1352 171 140 131
-126.284 -751.341 -1352 164 135 120
-123.495 -752.351 -1354 162 133 117
-120.431 -751.697 -1353 161 132 115
-117.72 -753.267 -1356 160 131 116
-114.405 -750.951 -1352 157 127 110
-111.602 -751.97 -1354 156 126 110
-108.712 -752.436 -1355 153 124 110
-105.897 -753.46 -1357 148 121 106
-102.922 -753.375 -1357 144 117 102
-100.022 -753.849 -1358 135 108 93
-97.3329 -755.989 -1362 128 103 87
-94.4886 -757.022 -1364 119 96 80
-91.8376 -759.721 -1369 112 90 75
-89.2307 -762.977 -1375 102 83 71
-300.24 -784.164 -1387 137 117 102
-297.074 -783.915 -1387 130 110 89
-292.64 -780.28 -1381 126 106 80
-289.493 -780.037 -1381 125 104 81
-285.313 -776.975 -1376 126 108 89
-282.183 -776.739 -1376 126 108 92
-278.246 -774.249 -1372 128 106 95
-275.331 -774.584 -1373 128 106 96
-272.019 -773.793 -1372 131 110 100
-269.302 -774.696 -1374 131 110 101
-265.609 -772.783 -1371 128 107 98
-262.508 -772.565 -1371 130 109 99
-259.787 -773.476 -1373 132 111 100
-256.312 -772.136 -1371 133 112 99
-253.034 -771.362 -1370 133 112 99
-249.945 -771.154 -1370 132 111 98
-247.038 -771.512 -1371 131 110 99
-243.774 -770.746 -1370 132 109 100
-241.395 -772.796 -1374 130 107 99
-238.48 -773.161 -1375 127 103 97
-235.905 -774.652 -1378 126 103 94
-232.981 -775.02 -1379 122 100 91
-230.222 -775.954 -1381 116 95 86
-227.456 -776.889 -1383 111 92 80
-224.846 -778.388 -1386 105 86 72
-222.064 -779.327 -1388 102 83 67
-219.591 -781.391 -1392 98 79 65
-216.947 -782.895 -1395 94 75 61
-214.291 -784.402 -1398 92 73 59
-212.078 -787.592 -1404 85 66 54
-209.244 -788.541 -1406 72 56 47
-206.697 -790.614 -1410 67 52 45
-203.845 -791.566 -1412 98 87 82
-186.55 -784.043 -1400 134 121 116
-183.181 -782.771 -1398 128 110 107
-178.792 -777.025 -1388 154 131 116
-175.336 -775.2 -1385 165 138 123
-171.646 -772.26 -1380 170 141 126
-168.101 -769.883 -1376 170 143 131
-164.216 -765.831 -1369 173 143 129
-160.835 -764.02 -1366 168 138 123
-157.353 -761.653 -1362 172 139 125
-153.89 -759.289 -1358 179 148 133
-150.335 -756.37 -1353 181 151 136
-147.784 -758.484 -1357 182 153 138
-144.47 -756.688 -1354 180 151 136
-141.484 -756.571 -1354 179 150 135
-138.295 -755.34 -1352 177 148 133
-135.215 -754.67 -1351 176 146 137
-132.044 -753.443 -1349 177 146 137
-129.17 -753.896 -1350 171 140 131
-126.199 -753.791 -1350 163 136 121
-123.504 -755.365 -1353 161 133 117
-120.529 -755.265 -1353 162 133 117
-117.642 -755.726 -1354 160 131 116
-114.582 -755.074 -1353 157 127 111
-111.611 -754.982 -1353 156 126 110
-108.72 -755.45 -1354 152 123 108
-105.905 -756.479 -1356 147 120 105
-103.006 -756.952 -1357 143 116 101
-100.03 -756.869 -1357 136 109 94
-97.2688 -758.462 -1360 127 101 86
-94.4959 -760.057 -1363 121 97 81
-91.6436 -761.096 -1365 112 89 74
-89.0431 -764.368 -1371 99 80 67
-300.058 -786.756 -1385 161 131 108
-297.108 -787.074 -1386 156 126 102
-292.459 -782.853 -1379 147 117 92
-289.315 -782.61 -1379 138 112 86
-285.343 -780.1 -1375 139 114 92
-282.008 -779.296 -1374 136 112 92
-278.274 -777.361 -1371 134 111 95
-275.36 -777.697 -1372 138 114 99
-272.047 -776.902 -1371 138 114 101
-268.937 -776.677 -1371 135 113 104
-265.248 -774.755 -1368 134 110 104
-262.917 -776.801 -1372 135 112 104
-259.624 -776.017 -1371 135 112 103
-256.151 -774.671 -1369 135 114 102
-252.874 -773.893 -1368 135 114 103
-249.969 -774.25 -1369 132 111 100
-246.882 -774.044 -1369 130 109 98
-243.798 -773.84 -1369 131 110 102
-241.243 -775.335 -1372 129 109 101
-238.677 -776.83 -1375 127 106 99
-235.929 -777.764 -1377 125 103 97
-232.836 -777.569 -1377 121 99 93
-230.245 -779.072 -1380 118 97 89
-227.479 -780.011 -1382 113 94 79
-224.544 -780.388 -1383 107 89 75
-222.087 -782.46 -1387 101 83 70
-219.298 -783.406 -1389 99 80 66
-216.814 -785.482 -1393 93 74 60
-214.161 -786.995 -1396 89 70 56
-211.799 -789.638 -1401 84 65 53
-209.416 -792.281 -1406 74 56 47
-206.867 -794.364 -1410 70 54 45
-203.868 -794.757 -1411 95 81 74
-200.725 -794.591 -1411 154 147 141
-186.037 -784.947 -1395 141 132 124
-182.282 -781.982 -1390 135 118 110
-178.939 -780.708 -1388 161 135 116
-175.226 -777.751 -1383 167 139 122
-171.786 -775.921 -1380 171 141 126
-167.75 -771.284 -1372 172 144 130
-164.111 -768.337 -1367 175 146 130
-160.613 -765.955 -1363 174 145 129
-157.251 -764.139 -1360 173 146 127
-154.016 -762.887 -1358 177 150 132
-151.014 -762.762 -1358 178 151 134
-147.905 -762.078 -1357 181 151 136
-144.802 -761.396 -1356 179 149 135
-141.495 -759.594 -1353 179 149 135
-138.408 -758.918 -1352 179 149 134
-135.326 -758.245 -1351 177 148 136
-132.152 -757.013 -1349 174 145 134
-129.276 -757.467 -1350 170 140 131
-126.396 -757.923 -1351 167 138 126
-123.696 -759.504 -1354 164 134 120
-120.716 -759.404 -1354 162 132 117
-117.738 -759.306 -1354 159 130 115
-114.845 -759.772 -1355 156 127 112
-111.702 -758.558 -1353 156 127 112
-108.809 -759.028 -1354 153 124 109
-106.069 -760.622 -1357 149 121 106
-103.09 -760.536 -1357 142 115 100
-100.332 -762.134 -1360 135 108 93
-97.4912 -763.174 -1362 126 102 86
-94.5035 -763.096 -1362 121 97 82
-91.651 -764.14 -1364 113 90 75
-89.0507 -767.427 -1370 102 83 68
-299.876 -789.346 -1383 166 138 116
-297.142 -790.237 -1385 168 138 115
-293.341 -788.277 -1382 169 139 114
-289.767 -786.892 -1380 167 139 111
-285.79 -784.37 -1376 163 136 111
-282.655 -784.131 -1376 158 132 110
-278.71 -781.616 -1372 154 128 109
-275.791 -781.953 -1373 149 123 105
-272.274 -780.585 -1371 144 119 102
-268.965 -779.789 -1370 141 116 106
-265.276 -777.858 -1367 141 118 109
-262.561 -778.775 -1369 136 114 104
-259.272 -777.988 -1368 133 112 101
-256.177 -777.773 -1368 134 113 102
-252.715 -776.423 -1366 135 114 103
-249.812 -776.782 -1367 134 113 102
-246.907 -777.142 -1368 133 112 101
-243.644 -776.37 -1367 133 112 101
-241.443 -779.007 -1372 129 108 98
-238.528 -779.374 -1373 130 106 98
-235.782 -780.312 -1375 127 105 97
-232.86 -780.684 -1376 122 100 92
-230.103 -781.626 -1378 117 96 89
-227.503 -783.137 -1381 112 94 81
-224.73 -784.083 -1383 108 91 77
-222.271 -786.164 -1387 100 83 70
-219.48 -787.114 -1389 100 81 67
-216.838 -788.633 -1392 94 75 61
-214.338 -790.72 -1396 89 70 56
-211.974 -793.375 -1401 84 65 53
-209.143 -794.332 -1403 77 58 48
-206.891 -797.557 -1409 75 57 47
-204.326 -799.65 -1413 89 73 65
-201.175 -799.482 -1413 143 135 129
-185.79 -786.964 -1392 139 131 123
-182.564 -786.246 -1391 141 123 112
-178.958 -783.835 -1387 165 136 116
-175.244 -780.864 -1382 168 139 122
-171.803 -779.025 -1379 171 142 127
-168.011 -775.496 -1373 174 146 132
-164.486 -773.099 -1369 177 149 132
-160.628 -769.012 -1362 179 150 131
-157.264 -767.187 -1359 179 151 133
-153.916 -765.365 -1356 181 152 136
-151.027 -765.804 -1357 180 152 136
-147.918 -765.116 -1356 180 150 134
-144.6 -763.303 -1353 178 149 135
-141.611 -763.185 -1353 178 149 135
-138.214 -760.814 -1349 177 148 133
-135.137 -760.137 -1348 175 145 136
-131.967 -758.899 -1346 172 142 133
-129.094 -759.356 -1347 168 138 129
-126.219 -759.814 -1348 165 136 124
-123.432 -760.839 -1350 164 135 120
-120.458 -760.738 -1350 162 133 116
-117.747 -762.331 -1353 160 131 116
-114.77 -762.235 -1353 156 127 112
-111.876 -762.705 -1354 155 126 111
-108.898 -762.614 -1354 154 125 110
-106.078 -763.652 -1356 148 121 106
-103.174 -764.13 -1357 141 114 99
-100.341 -765.172 -1359 134 107 92
-97.4995 -766.217 -1361 128 104 86
-94.4421 -765.575 -1360 119 96 79
-91.6589 -767.187 -1363 110 87 72
-88.9285 -769.364 -1367 104 85 71
-299.261 -790.789 -1379 166 140 118
-296.319 -791.11 -1380 174 144 119
-292.739 -789.715 -1378 181 149 122
-289.801 -790.042 -1379 184 153 125
-286.446 -789.226 -1378 183 153 127
-282.893 -787.841 -1376 184 155 131
-279.148 -785.886 -1373 182 155 132
-275.822 -785.08 -1372 178 151 129
-272.105 -783.133 -1369 172 146 125
-268.602 -781.761 -1367 159 135 121
-265.304 -780.965 -1366 151 127 114
-262.398 -781.314 -1367 144 120 108
-259.3 -781.095 -1367 137 115 101
-256.204 -780.878 -1367 135 114 101
-252.741 -779.522 -1365 131 110 98
-249.838 -779.882 -1366 129 108 97
-246.753 -779.674 -1366 131 109 98
-243.848 -780.039 -1367 130 109 98
-241.117 -780.977 -1369 128 107 96
-238.38 -781.916 -1371 131 106 97
-235.636 -782.859 -1373 128 104 95
-232.716 -783.232 -1374 125 102 92
-229.793 -783.609 -1375 120 99 91
-227.034 -784.557 -1377 114 95 84
-224.593 -786.647 -1381 110 92 79
-221.975 -788.169 -1384 103 86 72
-219.189 -789.124 -1386 101 82 68
-216.707 -791.219 -1390 97 78 64
-214.056 -792.747 -1393 93 74 60
-211.545 -794.845 -1397 86 67 55
-209.167 -797.514 -1402 78 59 49
-206.769 -800.184 -1407 74 55 45
-204.785 -804.562 -1415 77 61 53
-201.628 -804.393 -1415 131 123 116
-185.41 -788.406 -1388 143 132 125
-182.059 -787.117 -1386 148 128 116
-178.848 -786.399 -1385 165 136 117
-175.009 -782.845 -1379 167 138 121
-171.696 -781.566 -1377 174 145 129
-167.905 -778.02 -1371 174 147 132
-164.502 -776.179 -1368 177 149 132
-160.525 -771.506 -1360 178 149 131
-157.858 -773.075 -1363 179 150 133
-154.384 -770.677 -1359 181 152 136
-151.375 -770.55 -1359 182 153 138
-148.04 -768.725 -1356 181 151 134
-144.72 -766.903 -1353 178 148 134
-141.31 -764.518 -1349 177 148 134
-138.123 -763.269 -1347 177 148 134
-135.048 -762.589 -1346 175 145 136
-131.978 -761.912 -1345 171 141 132
-129.009 -761.803 -1345 168 138 129
-126.323 -763.397 -1348 166 137 125
-123.442 -763.86 -1349 164 135 121
-120.647 -764.891 -1351 164 135 118
-117.757 -765.359 -1352 161 132 117
-114.864 -765.829 -1353 157 128 113
-111.885 -765.735 -1353 156 127 112
-108.988 -766.209 -1354 154 125 110
-106.166 -767.252 -1356 148 121 106
-103.259 -767.731 -1357 142 115 100
-100.35 -768.213 -1358 135 108 93
-97.6515 -770.394 -1362 127 103 85
-94.7978 -771.446 -1364 118 94 77
-91.7344 -770.803 -1363 110 87 72
-88.8715 -771.86 -1365 103 84 70
-86.0636 -773.484 -1368 97 78 64
-298.429 -791.642 -1374 164 138 117
-296.141 -793.694 -1378 174 143 118
-292.562 -792.292 -1376 185 151 121
-289.415 -792.045 -1376 188 155 124
-286.48 -792.376 -1377 191 158 129
-282.926 -790.984 -1375 190 159 133
-279.587 -790.17 -1374 189 160 137
-275.854 -788.21 -1371 189 162 138
-272.932 -788.552 -1372 188 162 139
-269.222 -786.599 -1369 183 159 143
-265.528 -784.649 -1366 178 154 138
-262.619 -785 -1367 170 146 131
-259.329 -784.205 -1366 156 132 116
-256.045 -783.414 -1365 141 118 103
-252.769 -782.625 -1364 137 114 100
-249.865 -782.987 -1365 137 115 102
-246.779 -782.777 -1365 139 116 105
-243.696 -782.57 -1365 134 111 100
-240.791 -782.939 -1366 129 107 96
-238.406 -785.03 -1370 132 108 97
-235.49 -785.403 -1371 129 106 95
-232.572 -785.779 -1372 126 103 92
-229.986 -787.302 -1375 121 99 89
-227.389 -788.828 -1378 116 96 84
-224.455 -789.21 -1379 112 92 79
-222.001 -791.311 -1383 106 88 74
-219.214 -792.27 -1385 103 84 70
-216.732 -794.375 -1389 101 82 68
-213.928 -795.338 -1391 96 77 63
-211.419 -797.446 -1395 90 71 59
-208.894 -799.556 -1399 80 61 50
-206.942 -803.954 -1407 72 53 43
-204.232 -805.495 -1410 71 55 46
-201.368 -806.468 -1412 120 111 103
-185.431 -791.548 -1387 145 134 128
-182.079 -790.252 -1385 151 131 116
-178.997 -790.101 -1385 167 138 119
-175.155 -786.531 -1379 169 140 122
-171.839 -785.245 -1377 173 143 127
-168.29 -782.823 -1373 174 146 131
-164.639 -779.833 -1368 176 148 132
-161.013 -776.847 -1363 178 149 132
-157.757 -775.574 -1361 178 149 132
-154.399 -773.734 -1358 180 151 134
-150.944 -771.328 -1354 181 152 136
-147.836 -770.634 -1353 183 153 136
-144.412 -768.234 -1349 180 150 136
-141.217 -766.976 -1347 176 147 133
-137.93 -765.152 -1344 176 147 133
-135.059 -765.608 -1345 174 145 134
-132.087 -765.496 -1345 172 142 132
-129.308 -766.526 -1347 169 139 130
-126.24 -765.85 -1346 167 138 125
-123.453 -766.884 -1348 166 137 122
-120.479 -766.783 -1348 164 135 118
-117.681 -767.822 -1350 163 134 119
-114.96 -769.431 -1353 160 131 116
-111.978 -769.337 -1353 157 128 113
-108.917 -768.676 -1352 152 125 110
-106.175 -770.292 -1355 150 122 107
-103.269 -770.774 -1356 144 117 102
-100.285 -770.689 -1356 135 108 93
-97.4454 -771.744 -1358 126 102 84
-94.5982 -772.801 -1360 120 97 80
-91.4736 -771.587 -1358 113 90 75
-88.7496 -773.785 -1362 102 82 68
-85.9459 -775.417 -1365 94 74 61
-297.596 -792.478 -1369 161 136 115
-295.102 -793.961 -1372 174 142 117
-292.172 -794.289 -1373 184 148 115
-288.82 -793.463 -1372 190 155 123
-286.307 -794.952 -1375 193 159 127
-283.167 -794.709 -1375 193 160 133
-279.418 -792.736 -1372 191 161 137
-276.088 -791.921 -1371 191 162 138
-272.765 -791.11 -1370 189 162 138
-269.253 -789.725 -1368 188 163 144
-265.948 -788.92 -1367 187 162 143
-262.842 -788.695 -1367 183 158 139
-259.928 -789.05 -1368 176 152 133
-256.637 -788.254 -1367 169 145 129
-253.354 -787.461 -1366 162 137 122
-250.26 -787.247 -1366 150 126 111
-247.169 -787.036 -1366 143 119 106
-243.902 -786.252 -1365 139 115 103
-240.818 -786.047 -1365 134 111 99
-238.259 -787.571 -1368 133 110 97
-235.345 -787.946 -1369 130 107 95
-232.598 -788.899 -1371 125 102 91
-229.845 -789.854 -1373 122 99 88
-227.416 -791.962 -1377 119 97 84
-224.645 -792.921 -1379 115 94 81
-222.188 -795.032 -1383 109 90 76
-219.399 -795.995 -1385 104 85 71
-216.759 -797.535 -1388 102 83 69
-214.108 -799.077 -1391 99 80 66
-211.293 -800.046 -1393 93 74 60
-208.921 -802.74 -1398 83 64 51
-206.675 -806.01 -1404 76 57 45
-204.114 -808.133 -1408 72 55 45
-200.967 -807.962 -1408 111 100 91
-184.917 -792.399 -1382 143 132 125
-181.574 -791.099 -1380 153 133 117
-178.371 -790.374 -1379 170 141 122
-174.793 -787.934 -1375 174 144 126
-171.359 -786.069 -1372 175 146 128
-167.572 -782.49 -1366 175 146 131
-164.295 -781.205 -1364 177 148 133
-161.266 -781.068 -1364 179 150 133
-157.773 -778.644 -1360 178 149 133
-154.187 -775.651 -1355 181 152 135
-151.07 -774.95 -1354 182 153 136
-147.522 -771.964 -1349 182 153 136
-143.997 -768.981 -1344 179 151 136
-141.021 -768.861 -1344 177 149 135
-137.943 -768.172 -1343 176 147 133
-135.172 -769.202 -1345 171 143 131
-132.197 -769.09 -1345 169 141 130
-129.32 -769.552 -1346 168 140 129
-126.533 -770.589 -1348 167 139 125
-123.556 -770.484 -1348 163 135 120
-120.58 -770.382 -1348 161 133 116
-117.692 -770.854 -1349 162 134 119
-114.886 -771.899 -1351 160 132 117
-112.072 -772.947 -1353 157 129 114
-109.089 -772.855 -1353 152 125 110
-106.185 -773.336 -1354 149 122 107
-103.355 -774.391 -1356 142 115 100
-100.294 -773.735 -1355 136 109 94
-97.5266 -775.365 -1358 129 105 88
-94.3984 -774.143 -1356 123 99 82
-91.4148 -774.066 -1356 114 90 75
-88.6278 -775.703 -1359 103 83 67
-85.8914 -777.913 -1363 96 77 62
-296.981 -793.878 -1365 160 135 113
-294.494 -795.368 -1368 175 142 116
-291.997 -796.86 -1371 180 146 114
-289.488 -798.354 -1374 185 151 119
-286.344 -798.107 -1374 190 156 125
-283.203 -797.863 -1374 192 159 132
-280.064 -797.622 -1374 191 160 135
-276.525 -796.223 -1372 189 160 135
-272.998 -794.827 -1370 190 162 138
-269.286 -792.855 -1367 189 162 142
-266.175 -792.626 -1367 187 161 141
-262.873 -791.82 -1366 186 160 140
-259.96 -792.177 -1367 182 158 139
-256.856 -791.956 -1367 182 157 140
-253.569 -791.159 -1366 179 152 138
-250.29 -790.365 -1365 171 147 131
-247.017 -789.574 -1364 165 141 126
-243.93 -789.365 -1364 158 134 119
-240.669 -788.58 -1363 147 123 110
-238.113 -790.111 -1366 140 115 99
-235.201 -790.488 -1367 132 108 92
-232.626 -792.024 -1370 127 103 89
-229.873 -792.983 -1372 123 100 89
-227.443 -795.1 -1376 122 99 87
-224.672 -796.064 -1378 119 97 84
-221.894 -797.03 -1380 107 88 74
-219.267 -798.575 -1383 104 85 71
-216.63 -800.122 -1386 103 84 70
-214.135 -802.248 -1390 102 83 69
-211.472 -803.799 -1393 97 76 63
-209.097 -806.505 -1398 89 68 56
-206.26 -807.483 -1400 76 57 45
-204.141 -811.346 -1407 70 53 43
-200.851 -810.598 -1406 103 90 81
-197.566 -809.853 -1405 155 146 138
-193.873 -807.382 -1401 158 152 146
-189.111 -800.305 -1389 160 150 145
-184.939 -795.538 -1381 143 131 125
-181.727 -794.807 -1380 156 133 117
-178.263 -792.927 -1377 169 140 120
-174.94 -791.627 -1375 176 147 126
-171.253 -788.602 -1370 176 147 128
-167.836 -786.732 -1367 176 147 132
-164.434 -784.866 -1364 178 149 133
-161.283 -784.153 -1363 179 150 134
-157.674 -781.142 -1358 180 151 136
-154.316 -779.285 -1355 181 152 137
-150.75 -776.281 -1350 183 154 137
-147.317 -773.856 -1346 183 154 136
-144.011 -772.008 -1343 180 152 137
-141.034 -771.888 -1343 176 149 135
-137.956 -771.196 -1342 175 146 132
-135.286 -772.805 -1345 170 143 131
-132.505 -773.841 -1347 167 140 128
-129.717 -774.88 -1349 167 140 128
-126.64 -774.198 -1348 167 140 126
-123.66 -774.093 -1348 166 139 124
-120.681 -773.99 -1348 163 137 119
-117.703 -773.89 -1348 161 135 118
-114.982 -775.514 -1351 160 133 118
-112.165 -776.567 -1353 156 129 114
-109.261 -777.048 -1354 151 124 109
-106.431 -778.105 -1356 148 121 106
-103.518 -778.591 -1357 145 118 103
-100.601 -779.078 -1358 138 111 96
-97.4644 -777.848 -1356 130 105 90
-94.5471 -778.341 -1357 123 99 83
-91.3564 -776.542 -1354 114 90 74
-88.7672 -779.908 -1360 104 84 68
-297.019 -797.018 -1364 160 135 112
-294.532 -798.515 -1367 174 141 114
-291.395 -798.262 -1367 180 147 118
-288.683 -799.18 -1369 184 151 122
-286.59 -801.85 -1374 189 156 127
-283.24 -801.021 -1373 190 158 134
-280.101 -800.779 -1373 190 160 136
-276.561 -799.372 -1371 188 159 134
-273.033 -797.97 -1369 191 161 136
-269.517 -796.571 -1367 191 162 143
-266.013 -795.176 -1365 190 161 143
-262.713 -794.366 -1364 188 161 143
-259.801 -794.724 -1365 185 160 143
-256.324 -793.339 -1363 185 159 143
-253.229 -793.12 -1363 183 155 141
-250.137 -792.904 -1363 181 156 140
-246.866 -792.11 -1362 179 153 138
-243.96 -792.481 -1363 176 149 134
-240.698 -791.692 -1362 167 140 126
-238.316 -793.812 -1366 160 132 113
-235.229 -793.609 -1366 146 118 100
-232.315 -793.99 -1367 136 110 94
-229.566 -794.954 -1369 127 104 93
-227.306 -797.662 -1374 122 100 89
-224.374 -798.049 -1375 119 98 87
-221.922 -800.18 -1379 110 91 75
-219.295 -801.733 -1382 106 87 73
-216.814 -803.867 -1386 106 87 73
-214.163 -805.423 -1389 102 83 69
-211.652 -807.561 -1393 98 78 64
-209.125 -809.7 -1397 92 72 59
-206.435 -811.261 -1400 82 61 50
-203.734 -812.825 -1403 70 53 43
-200.449 -812.074 -1402 92 78 69
-197.171 -811.325 -1401 145 136 128
-193.622 -809.422 -1398 153 146 140
-189.135 -803.47 -1388 157 144 137
-184.828 -798.102 -1379 147 130 123
-181.486 -796.789 -1377 159 135 119
-178.025 -794.9 -1374 172 143 124
-174.452 -792.437 -1370 176 146 125
-170.773 -789.398 -1365 177 149 127
-167.732 -789.255 -1365 178 149 132
-164.211 -786.802 -1361 178 149 132
-160.946 -785.507 -1359 178 149 132
-157.923 -785.372 -1359 181 152 137
-154.219 -781.773 -1353 182 153 139
-150.542 -778.177 -1347 183 154 139
-147.223 -776.318 -1344 181 152 133
-143.918 -774.462 -1341 179 151 135
-140.943 -774.342 -1341 177 150 136
-138.175 -775.378 -1343 174 147 133
-135.299 -775.84 -1344 172 145 134
-132.617 -777.458 -1347 168 141 131
-129.73 -777.924 -1348 167 140 128
-126.652 -777.239 -1347 169 142 128
-123.672 -777.133 -1347 168 141 126
-120.872 -778.184 -1349 166 140 122
-117.89 -778.083 -1349 163 137 119
-114.993 -778.561 -1350 160 133 117
-112.094 -779.042 -1351 155 128 113
-109.272 -780.102 -1353 153 126 111
-106.442 -781.164 -1355 151 124 109
-103.528 -781.651 -1356 146 119 104
-100.537 -781.565 -1356 138 111 96
-97.3307 -779.753 -1353 129 105 89
-94.6266 -781.977 -1357 122 98 82
-91.3657 -779.594 -1353 112 88 72
-88.8419 -783.551 -1360 104 84 67
-297.494 -801.336 -1365 159 134 113
-295.003 -802.84 -1368 172 139 112
-292.074 -803.172 -1369 180 147 120
-289.144 -803.506 -1370 183 151 124
-286.629 -805.016 -1373 187 155 128
-283.484 -804.769 -1373 188 158 136
-280.138 -803.939 -1372 190 161 139
-276.598 -802.526 -1370 189 161 139
-273.468 -802.289 -1370 191 161 138
-269.75 -800.297 -1367 191 161 143
-266.242 -798.895 -1365 191 162 145
-263.132 -798.666 -1365 190 161 144
-259.644 -797.271 -1363 187 160 145
-256.356 -796.463 -1362 188 160 145
-252.703 -794.49 -1359 186 157 142
-250.168 -796.027 -1362 183 157 141
-246.896 -795.228 -1361 180 153 138
-243.99 -795.601 -1362 177 150 135
-240.905 -795.392 -1362 172 145 130
-238.346 -796.938 -1365 171 144 123
-235.259 -796.734 -1365 164 136 115
-232.344 -797.116 -1366 154 128 110
-229.595 -798.085 -1368 141 117 104
-227.004 -799.639 -1371 131 108 96
-224.239 -800.612 -1373 125 102 91
-221.628 -802.169 -1376 118 98 82
-219.165 -804.312 -1380 110 90 74
-216.843 -807.039 -1385 106 87 71
-214.346 -809.184 -1389 102 83 69
-211.681 -810.749 -1392 98 77 64
-209.154 -812.899 -1396 92 71 59
-206.464 -814.467 -1399 84 63 52
-203.472 -814.874 -1400 73 54 44
-200.477 -815.283 -1401 81 65 56
-196.917 -813.367 -1398 138 127 118
-193.51 -812.037 -1396 152 145 139
-189.569 -808.384 -1390 154 141 133
-184.985 -801.827 -1379 148 129 119
-181.772 -801.089 -1378 162 135 121
-178.176 -798.61 -1374 173 144 123
-174.473 -795.554 -1369 175 145 121
-170.918 -793.082 -1365 177 149 127
-167.629 -791.776 -1363 177 148 131
-164.351 -790.473 -1361 178 149 132
-160.964 -788.592 -1358 178 149 134
-157.476 -786.133 -1354 181 152 138
-154.35 -785.42 -1353 183 154 140
-150.558 -781.227 -1346 182 152 137
-147.238 -779.359 -1343 178 149 130
-144.04 -778.074 -1341 177 149 133
-141.168 -778.533 -1342 177 150 136
-138.292 -778.995 -1343 175 148 134
-135.515 -780.038 -1345 172 145 134
-132.631 -780.504 -1346 170 143 132
-129.937 -782.132 -1349 168 141 129
-126.948 -782.023 -1349 168 141 127
-123.869 -781.336 -1348 166 139 124
-120.974 -781.812 -1349 165 139 121
-117.989 -781.711 -1349 164 138 120
-115.091 -782.191 -1350 162 135 119
-112.272 -783.254 -1352 157 130 115
-109.365 -783.738 -1353 155 128 113
-106.611 -785.384 -1356 151 124 109
-103.54 -784.716 -1355 145 118 103
-100.622 -785.209 -1356 137 111 96
-97.485 -783.967 -1354 131 107 90
-94.7765 -786.201 -1358 122 98 82
-91.5782 -784.385 -1355 111 87 71
-89.0478 -788.361 -1362 102 81 65
-297.753 -805.079 -1365 158 134 113
-294.828 -805.411 -1366 171 138 111
-291.901 -805.744 -1367 178 146 118
-289.184 -806.67 -1369 182 150 123
-286.251 -807.008 -1370 186 154 127
-283.524 -807.938 -1372 187 157 135
-279.973 -806.515 -1370 188 159 138
-276.433 -805.096 -1368 186 160 140
-273.106 -804.269 -1367 190 160 141
-269.786 -803.444 -1366 192 163 147
-266.082 -801.447 -1363 190 162 147
-262.974 -801.218 -1363 188 160 145
-259.678 -800.403 -1362 185 158 143
-256.012 -798.417 -1359 185 157 141
-252.921 -798.196 -1359 185 155 136
-250.2 -799.153 -1361 182 156 138
-247.11 -798.937 -1361 180 154 137
-244.38 -799.898 -1363 177 150 135
-241.29 -799.688 -1363 174 147 132
-238.377 -800.068 -1364 171 144 127
-235.289 -799.863 -1364 169 143 124
-232.374 -800.247 -1365 161 135 117
-229.288 -800.048 -1365 153 129 114
-226.868 -802.195 -1369 149 125 110
-224.269 -803.758 -1372 139 115 102
-221.658 -805.323 -1375 126 106 90
-219.036 -806.89 -1378 117 97 82
-216.873 -810.215 -1384 110 91 77
-214.221 -811.785 -1387 103 84 70
-211.71 -813.942 -1391 98 79 64
-209.184 -816.101 -1395 95 75 60
-206.789 -818.847 -1400 86 65 53
-203.792 -819.255 -1401 75 56 45
-200.506 -818.497 -1400 74 57 46
-196.945 -816.572 -1397 130 119 110
-193.537 -815.236 -1395 151 144 138
-189.595 -811.565 -1389 152 140 131
-185.681 -807.898 -1383 148 129 118
-181.664 -803.652 -1376 164 137 123
-178.069 -801.162 -1372 170 141 121
-174.494 -798.675 -1368 175 145 120
-170.814 -795.608 -1363 177 149 125
-167.526 -794.295 -1361 175 147 129
-164.249 -792.986 -1359 176 147 131
-161.102 -792.263 -1358 179 150 135
-157.494 -789.21 -1353 182 153 139
-154.482 -789.076 -1353 182 153 138
-150.799 -785.447 -1347 180 151 134
-147.474 -783.57 -1344 179 150 133
-144.27 -782.279 -1342 179 151 136
-141.393 -782.74 -1343 176 149 135
-138.41 -782.62 -1343 175 148 134
-135.63 -783.668 -1345 172 145 132
-132.744 -784.136 -1346 168 141 129
-129.951 -785.189 -1348 168 141 129
-126.868 -784.497 -1347 166 139 125
-123.882 -784.39 -1347 166 139 124
-120.988 -784.868 -1348 164 140 122
-117.915 -784.183 -1347 164 138 120
-115.104 -785.248 -1349 162 136 119
-112.201 -785.733 -1350 160 132 118
-109.377 -786.803 -1352 155 128 114
-106.466 -787.293 -1353 150 123 108
-103.475 -787.203 -1353 145 118 103
-100.633 -788.28 -1355 135 111 95
-97.5678 -787.614 -1354 130 106 89
-94.7173 -788.695 -1356 125 101 84
-91.7236 -788.615 -1356 115 91 75
-89.1234 -792.028 -1362 101 80 64
-299.105 -811.795 -1370 155 133 114
-296.598 -813.311 -1373 169 138 113
-293.652 -813.645 -1374 176 144 117
-290.282 -812.797 -1373 181 149 122
-287.129 -812.544 -1373 184 152 125
-283.151 -809.928 -1369 187 157 131
-279.603 -808.499 -1367 188 158 133
-276.068 -807.073 -1365 189 159 136
-272.944 -806.833 -1365 191 161 140
-269.625 -806.005 -1364 189 162 144
-266.314 -805.18 -1363 186 162 146
-263.01 -804.359 -1362 185 161 145
-259.522 -802.95 -1360 185 159 143
-256.235 -802.134 -1359 184 157 142
-252.769 -800.732 -1357 184 155 140
-249.866 -801.103 -1358 184 155 140
-246.961 -801.477 -1359 181 152 137
-244.233 -802.442 -1361 177 148 133
-241.322 -802.821 -1362 174 147 132
-238.408 -803.201 -1363 172 146 129
-235.666 -804.174 -1365 169 143 125
-232.405 -803.382 -1364 164 137 121
-229.487 -803.77 -1365 158 132 116
-226.899 -805.338 -1368 155 129 114
-224.299 -806.908 -1371 148 121 108
-221.527 -807.892 -1373 136 112 101
-219.066 -810.054 -1377 132 108 96
-216.589 -812.218 -1381 123 97 85
-213.942 -813.796 -1384 110 85 71
-211.741 -817.14 -1390 104 80 65
-209.364 -819.896 -1395 98 74 58
-206.524 -820.892 -1397 86 66 51
-203.822 -822.477 -1400 75 56 44
-200.536 -821.715 -1399 71 54 43
-197.255 -820.955 -1398 118 106 97
-193.565 -818.438 -1394 148 141 136
-189.621 -814.75 -1388 148 136 129
-185.438 -809.893 -1380 149 128 115
-181.556 -806.213 -1374 166 138 119
-178.093 -804.298 -1371 172 143 121
-174.645 -802.386 -1368 175 145 120
-170.961 -799.305 -1363 175 147 124
-167.424 -796.813 -1359 177 148 128
-164.028 -794.912 -1356 179 149 130
-161.24 -795.944 -1358 179 150 135
-157.397 -791.704 -1351 180 151 136
-154.043 -789.812 -1348 181 152 136
-150.928 -789.095 -1347 181 152 133
-147.82 -788.381 -1346 179 152 138
-144.609 -787.084 -1344 177 150 137
-141.62 -786.961 -1344 177 150 138
-138.529 -786.255 -1343 175 148 133
-135.646 -786.722 -1344 173 146 133
-132.759 -787.192 -1345 168 141 129
-129.869 -787.665 -1346 165 138 126
-126.882 -787.554 -1346 167 140 126
-123.804 -786.862 -1345 167 140 126
-120.822 -786.757 -1345 166 139 124
-117.928 -787.239 -1346 164 137 122
-114.86 -786.554 -1345 161 133 118
-112.048 -787.627 -1347 158 129 115
-109.308 -789.286 -1350 153 126 112
-106.399 -789.778 -1351 149 122 108
-103.487 -790.272 -1352 144 117 102
-100.719 -791.938 -1355 133 109 93
-97.7234 -791.853 -1355 125 102 87
-94.7284 -791.771 -1355 121 98 83
-91.8697 -792.86 -1357 114 91 75
-89.134 -795.119 -1361 103 82 66
-299.587 -816.167 -1371 154 132 113
-297.075 -817.69 -1374 166 136 113
-293.697 -816.834 -1373 172 141 116
-290.114 -815.387 -1371 181 149 122
-286.544 -813.944 -1369 184 152 125
-282.778 -811.91 -1366 186 155 130
-279.234 -810.475 -1364 186 156 131
-275.905 -809.637 -1363 188 158 135
-272.583 -808.802 -1362 190 160 139
-269.466 -808.564 -1362 188 160 141
-266.352 -808.329 -1362 186 162 146
-263.24 -808.096 -1362 186 162 146
-259.558 -806.088 -1359 185 159 144
-256.27 -805.268 -1358 184 157 142
-252.989 -804.453 -1357 187 158 143
-250.084 -804.825 -1358 186 157 142
-247.358 -805.792 -1360 184 155 140
-244.446 -806.169 -1361 178 150 135
-241.887 -807.734 -1364 174 147 132
-238.966 -808.116 -1365 171 144 128
-235.871 -807.908 -1365 167 141 123
-232.948 -808.295 -1366 163 136 121
-229.855 -808.093 -1366 157 130 115
-227.096 -809.077 -1368 154 127 112
-224.494 -810.654 -1371 149 122 108
-221.72 -811.642 -1373 141 116 104
-218.938 -812.632 -1375 139 113 101
-216.464 -814.806 -1379 135 106 93
-213.974 -816.982 -1383 124 94 81
-211.467 -819.159 -1387 115 88 72
-209.095 -821.929 -1392 104 79 62
-206.555 -824.11 -1396 89 67 52
-203.707 -825.112 -1398 78 60 47
-200.566 -824.937 -1398 72 55 44
-197.285 -824.174 -1397 108 94 85
-193.733 -822.234 -1394 146 137 132
-189.649 -817.939 -1387 151 139 133
-185.598 -813.649 -1380 153 130 117
-181.978 -811.131 -1376 167 139 117
-178.637 -809.796 -1374 172 143 120
-174.796 -806.107 -1368 174 144 119
-171.359 -804.189 -1365 173 145 123
-167.939 -802.275 -1362 176 147 125
-164.411 -799.775 -1358 178 148 127
-160.904 -797.279 -1354 178 149 134
-157.766 -796.552 -1353 179 150 135
-154.519 -795.24 -1351 182 153 137
-150.946 -792.164 -1346 181 152 135
-147.837 -791.447 -1345 178 151 136
-144.734 -790.732 -1344 177 150 136
-141.848 -791.196 -1345 177 150 138
-138.648 -789.899 -1343 175 148 133
-135.863 -790.956 -1345 173 146 132
-132.775 -790.252 -1344 170 143 131
-129.981 -791.315 -1346 170 143 131
-126.897 -790.616 -1345 169 142 129
-123.819 -789.92 -1344 168 141 127
-120.746 -789.227 -1343 166 139 124
-117.679 -788.536 -1342 161 137 121
-114.703 -788.436 -1342 158 134 118
-111.645 -787.751 -1341 156 129 115
-109.24 -791.768 -1348 152 128 112
-106.254 -791.675 -1348 148 122 107
-103.422 -792.759 -1350 143 116 101
-100.583 -793.845 -1352 134 107 92
-97.8796 -796.108 -1356 123 98 83
-94.7398 -794.851 -1354 118 95 79
-91.8131 -795.358 -1355 112 89 73
-89.0795 -797.628 -1359 104 84 68
-86.2024 -798.726 -1361 100 80 65
-83.1951 -798.653 -1361 97 78 64
-298.102 -815.172 -1363 154 132 113
-296.039 -817.898 -1368 164 135 112
-293.1 -818.235 -1369 171 140 116
-289.735 -817.379 -1368 177 145 118
-286.168 -815.93 -1366 181 149 122
-282.406 -813.887 -1363 184 154 128
-279.071 -813.041 -1362 186 156 131
-275.54 -811.602 -1360 188 158 135
-272.623 -811.957 -1361 190 160 139
-269.505 -811.718 -1361 189 160 141
-266.586 -812.078 -1362 186 162 146
-263.472 -811.844 -1362 189 162 147
-260.169 -811.017 -1361 187 160 145
-256.495 -809.002 -1358 184 157 142
-253.398 -808.778 -1358 187 158 143
-250.672 -809.747 -1360 185 156 141
-247.393 -808.932 -1359 184 155 140
-244.841 -810.501 -1362 179 152 137
-241.744 -810.288 -1362 176 149 134
-238.825 -810.671 -1363 172 145 129
-235.904 -811.058 -1364 167 141 123
-232.981 -811.446 -1365 163 136 121
-229.888 -811.243 -1365 158 131 116
-227.461 -813.42 -1369 153 126 111
-224.855 -815.004 -1372 149 122 107
-222.237 -816.59 -1375 143 118 104
-219.129 -816.396 -1375 138 113 99
-216.81 -819.174 -1380 136 107 93
-214.005 -820.172 -1382 131 102 88
-211.194 -821.173 -1384 124 96 81
-208.676 -823.362 -1388 111 84 69
-206.143 -825.554 -1392 94 70 55
-203.447 -827.154 -1395 81 61 47
-200.31 -826.977 -1395 73 55 42
-197.316 -827.396 -1396 100 84 76
-193.762 -825.448 -1393 147 135 128
-189.814 -821.725 -1387 151 138 131
-185.894 -818.007 -1381 157 134 121
-182.004 -814.293 -1375 169 141 119
-178.532 -812.359 -1372 173 144 121
-175.203 -811.021 -1370 174 144 119
-171.76 -809.094 -1367 174 146 124
-168.208 -806.579 -1363 176 147 126
-164.433 -802.884 -1357 175 146 125
-160.925 -800.376 -1353 176 147 132
-157.436 -797.871 -1349 180 151 136
-154.539 -798.327 -1350 181 152 136
-151.19 -796.42 -1347 179 150 133
-147.966 -795.107 -1345 177 150 134
-144.752 -793.798 -1343 177 150 136
-141.759 -793.673 -1343 176 149 137
-138.872 -794.143 -1344 173 146 131
-135.981 -794.614 -1345 173 146 132
-133.087 -795.088 -1346 173 146 134
-130.287 -796.155 -1348 172 144 132
-127.196 -795.453 -1347 169 142 128
-123.926 -793.572 -1344 168 141 127
-120.851 -792.876 -1343 167 140 125
-117.693 -791.591 -1341 162 137 122
-114.717 -791.491 -1341 160 135 120
-111.824 -791.983 -1342 158 131 117
-109.173 -794.247 -1346 155 131 115
-106.267 -794.744 -1347 149 124 108
-103.665 -797.603 -1352 144 117 102
-100.595 -796.925 -1351 135 108 93
-97.8196 -798.608 -1354 123 99 83
-94.6115 -796.756 -1351 117 94 78
-91.8924 -799.034 -1355 112 89 73
-89.0908 -800.725 -1358 105 85 69
-86.3402 -803.007 -1362 103 83 67
-297.93 -817.747 -1361 153 130 114
-295.652 -819.885 -1365 165 135 113
-293.146 -821.425 -1368 172 140 116
-289.78 -820.565 -1367 177 145 118
-286.212 -819.108 -1365 178 148 121
-282.864 -818.255 -1364 181 151 125
-279.113 -816.206 -1361 185 155 130
-275.582 -814.761 -1359 188 158 135
-272.463 -814.517 -1359 191 159 138
-269.347 -814.277 -1359 190 159 139
-266.234 -814.039 -1359 188 162 146
-263.511 -815.003 -1361 189 162 147
-260.016 -813.573 -1359 187 160 145
-256.911 -813.344 -1359 186 159 144
-253.809 -813.118 -1359 185 156 141
-250.893 -813.493 -1360 182 153 138
-247.976 -813.871 -1361 180 151 136
-245.056 -814.25 -1362 177 150 135
-242.135 -814.633 -1363 177 150 135
-239.211 -815.018 -1364 174 147 131
-235.939 -814.211 -1363 171 145 127
-233.357 -815.796 -1366 167 140 125
-230.259 -815.591 -1366 161 134 119
-227.827 -817.777 -1370 155 128 113
-224.888 -818.174 -1371 149 122 108
-222.594 -820.961 -1376 142 116 102
-219.162 -819.573 -1374 138 112 99
-216.843 -822.364 -1379 137 108 94
-213.728 -822.174 -1379 130 101 87
-211.227 -824.372 -1383 124 96 81
-208.558 -825.975 -1386 115 88 72
-206.027 -828.176 -1390 101 77 59
-203.334 -829.784 -1393 85 63 47
-200.485 -830.798 -1395 76 56 41
-197.347 -830.623 -1395 94 78 67
-193.932 -829.261 -1393 142 129 120
-189.706 -824.33 -1385 145 132 124
-186.057 -821.785 -1381 157 133 120
-181.765 -816.269 -1372 169 141 120
-178.558 -815.516 -1371 174 146 123
-175.1 -813.577 -1368 175 147 122
-171.532 -811.046 -1364 178 150 128
-167.861 -807.925 -1359 178 150 128
-164.455 -805.996 -1356 177 149 127
-161.065 -804.071 -1353 176 147 132
-157.807 -802.743 -1351 178 149 133
-154.444 -800.824 -1348 178 149 133
-151.322 -800.096 -1347 178 149 131
-147.984 -798.184 -1344 177 149 134
-144.662 -796.274 -1341 175 148 134
-141.777 -796.743 -1342 176 149 137
-138.683 -796.027 -1341 173 146 131
-135.897 -797.094 -1343 173 146 132
-133.005 -797.57 -1344 173 146 134
-130.207 -798.642 -1346 171 143 131
-127.212 -798.53 -1346 167 140 127
-123.941 -796.641 -1343 166 139 125
-120.866 -795.941 -1342 167 140 125
-117.883 -795.837 -1342 165 138 123
-114.645 -793.956 -1339 163 136 121
-111.755 -794.451 -1340 160 133 118
-109.105 -796.726 -1344 154 130 114
-106.281 -797.818 -1346 147 123 107
-103.525 -799.504 -1349 142 117 101
-100.757 -801.193 -1352 133 108 92
-97.8322 -801.699 -1353 122 99 83
-94.6235 -799.838 -1350 114 91 75
-91.7685 -800.942 -1352 110 87 71
-88.9054 -802.048 -1354 104 83 67
-86.0979 -803.749 -1357 101 81 65
-298.415 -822.131 -1362 154 131 117
-296.35 -824.883 -1367 163 135 115
-293.407 -825.222 -1368 171 140 117
-289.614 -823.152 -1365 174 144 117
-286.258 -822.291 -1364 177 148 120
-282.909 -821.434 -1363 179 150 123
-279.362 -819.978 -1361 183 153 128
-275.624 -817.923 -1358 187 157 134
-272.104 -816.474 -1356 191 160 138
-269.388 -817.437 -1358 191 159 138
-266.471 -817.8 -1359 187 160 145
-263.358 -817.564 -1359 190 162 147
-260.247 -817.33 -1359 188 160 145
-257.139 -817.1 -1359 187 159 144
-253.847 -816.271 -1358 183 154 139
-250.931 -816.648 -1359 180 151 136
-247.831 -816.427 -1359 177 149 134
-245.093 -817.409 -1361 175 148 133
-241.994 -817.192 -1361 174 147 132
-239.247 -818.18 -1363 175 148 133
-235.975 -817.368 -1362 172 146 128
-233.393 -818.96 -1365 166 139 124
-230.293 -818.755 -1365 161 134 119
-228.029 -821.551 -1370 157 130 115
-225.415 -823.149 -1373 151 124 110
-222.952 -825.348 -1377 146 119 106
-219.835 -825.152 -1377 141 114 102
-217.192 -826.756 -1380 139 110 96
-214.227 -827.164 -1381 135 106 92
-211.413 -828.174 -1383 133 105 90
-208.291 -827.988 -1383 120 94 76
-205.912 -830.798 -1388 111 84 64
-203.221 -832.413 -1391 93 69 50
-200.374 -833.432 -1393 79 59 43
-197.521 -834.453 -1395 89 72 59
-194.242 -833.682 -1394 136 121 111
-190.01 -828.728 -1386 143 130 120
-185.816 -823.78 -1378 158 134 120
-182.19 -821.226 -1374 170 143 123
-178.324 -817.482 -1368 175 147 125
-175.126 -816.729 -1367 175 147 123
-171.683 -814.784 -1364 178 150 128
-168.255 -812.842 -1361 178 150 128
-164.236 -807.919 -1353 176 148 126
-161.087 -807.179 -1352 176 147 132
-157.595 -804.651 -1348 176 147 131
-154.58 -804.513 -1348 175 146 129
-151.229 -802.589 -1345 175 146 127
-148.114 -801.861 -1344 175 148 132
-144.897 -800.539 -1342 176 149 134
-141.69 -799.22 -1340 175 148 136
-138.701 -799.097 -1340 175 148 133
-135.814 -799.573 -1341 173 146 132
-133.023 -800.647 -1343 173 146 133
-130.224 -801.724 -1345 170 143 130
-127.229 -801.611 -1345 168 141 127
-124.142 -800.905 -1344 168 141 127
-121.061 -800.202 -1343 166 139 124
-118.162 -800.693 -1344 163 136 121
-115.002 -799.399 -1342 163 136 121
-112.019 -799.3 -1342 159 132 117
-109.2 -800.394 -1344 152 128 112
-106.531 -802.681 -1348 146 122 106
-103.385 -801.399 -1346 138 114 98
-100.397 -801.309 -1346 128 104 88
-97.6281 -803.009 -1349 119 95 79
-94.4255 -801.139 -1346 112 89 73
-91.6447 -802.843 -1349 109 86 70
-88.9172 -805.145 -1353 103 83 67
-86.1094 -806.853 -1356 99 79 63
-296.271 -819.255 -1351 149 128 117
-294.663 -823.233 -1358 157 131 114
-291.953 -824.181 -1360 168 138 116
-289.237 -825.132 -1362 173 144 116
-286.094 -824.873 -1362 176 147 119
-283.37 -825.828 -1364 180 150 123
-279.612 -823.76 -1361 182 152 129
-276.074 -822.3 -1359 183 153 130
-272.548 -820.844 -1357 186 155 133
-269.232 -819.996 -1356 190 158 137
-266.12 -819.756 -1356 186 159 144
-263.593 -821.333 -1359 186 157 142
-260.48 -821.098 -1359 186 157 142
-257.369 -820.866 -1359 186 157 142
-254.073 -820.033 -1358 182 154 139
-250.97 -819.808 -1358 179 152 137
-247.869 -819.585 -1358 179 152 137
-245.132 -820.571 -1360 177 150 135
-242.209 -820.957 -1361 174 147 132
-239.285 -821.345 -1362 174 147 132
-236.531 -822.339 -1364 170 145 127
-233.6 -822.732 -1365 163 137 122
-230.498 -822.525 -1365 158 133 117
-228.231 -825.333 -1370 156 130 114
-225.615 -826.939 -1373 151 125 111
-222.826 -827.943 -1375 148 122 108
-219.87 -828.349 -1376 144 118 104
-217.227 -829.96 -1379 142 113 99
-214.417 -830.971 -1381 136 107 93
-211.294 -830.782 -1381 132 104 89
-208.475 -831.799 -1383 121 95 75
-205.946 -834.02 -1387 116 87 65
-202.962 -834.44 -1388 100 73 52
-200.408 -836.666 -1392 81 58 42
-197.695 -838.292 -1395 82 63 48
-194.414 -837.518 -1394 132 115 102
-190.453 -833.742 -1388 145 130 118
-186.385 -829.371 -1381 159 135 120
-182.351 -825.004 -1374 171 144 124
-179.003 -823.644 -1372 177 149 126
-175.153 -819.885 -1366 176 148 124
-171.835 -818.531 -1364 176 148 126
-168.156 -815.381 -1359 177 149 127
-164.502 -812.234 -1354 176 148 126
-161.11 -810.291 -1351 174 145 130
-157.733 -808.35 -1348 176 147 130
-154.716 -808.213 -1348 176 147 130
-151.25 -805.679 -1344 176 147 129
-148.355 -806.146 -1345 175 148 131
-145.024 -804.219 -1342 175 149 132
-141.921 -803.493 -1341 175 148 136
-138.823 -802.77 -1340 174 147 132
-136.035 -803.847 -1342 173 146 131
-133.041 -803.728 -1342 173 146 132
-130.242 -804.81 -1344 171 143 129
-127.435 -805.894 -1346 170 141 128
-124.436 -805.783 -1346 170 142 128
-121.438 -805.675 -1346 166 139 125
-118.354 -804.97 -1345 163 136 121
-115.275 -804.269 -1344 162 135 120
-112.368 -804.767 -1345 156 131 115
-109.215 -803.473 -1343 149 125 109
-106.388 -804.575 -1345 143 119 103
-103.322 -803.884 -1344 137 113 97
-100.784 -807.383 -1350 128 104 88
-97.7137 -806.698 -1349 121 98 81
-94.9296 -808.407 -1352 115 93 75
-91.8611 -807.727 -1351 112 89 73
-89.1926 -810.636 -1356 104 83 67
-86.3756 -812.353 -1359 95 76 60
-293.626 -823.37 -1352 155 130 116
-292.217 -827.976 -1360 163 133 114
-289.285 -828.322 -1361 170 140 114
-286.352 -828.671 -1362 174 145 118
-283.417 -829.022 -1363 178 149 121
-280.069 -828.159 -1362 180 150 127
-276.526 -826.692 -1360 180 150 127
-272.994 -825.229 -1358 183 152 130
-269.474 -823.769 -1356 187 155 134
-266.556 -824.135 -1357 185 157 142
-263.636 -824.504 -1358 184 156 141
-260.522 -824.268 -1358 183 154 139
-257.221 -823.428 -1357 182 153 138
-253.927 -822.592 -1356 181 154 139
-251.01 -822.971 -1357 180 153 138
-247.726 -822.141 -1356 178 151 136
-244.99 -823.132 -1358 176 149 134
-242.07 -823.52 -1359 174 147 132
-239.147 -823.91 -1360 173 146 131
-236.049 -823.697 -1360 170 146 130
-233.295 -824.697 -1362 163 139 124
-230.366 -825.095 -1363 158 134 119
-227.768 -826.706 -1366 154 130 114
-225.488 -829.529 -1371 151 128 112
-222.701 -830.538 -1373 147 123 107
-220.066 -832.155 -1376 142 118 102
-217.736 -834.982 -1381 139 112 97
-214.764 -835.394 -1382 134 106 91
-211.636 -835.203 -1382 131 102 87
-208.51 -835.016 -1382 121 95 75
-206.129 -837.851 -1387 118 87 64
-203.143 -838.273 -1388 106 75 53
-200.586 -840.508 -1392 88 62 44
-197.729 -841.538 -1394 77 57 41
-194.307 -840.156 -1392 122 103 88
-190.485 -836.967 -1387 142 125 111
-186.551 -833.179 -1381 163 139 124
-182.646 -829.395 -1375 170 144 124
-179.031 -826.822 -1371 177 149 127
-175.051 -822.443 -1364 176 148 124
-171.735 -821.083 -1362 174 146 124
-167.934 -817.315 -1356 176 148 126
-164.769 -816.564 -1355 175 148 126
-161.372 -814.612 -1352 174 145 128
-157.405 -809.65 -1344 174 145 128
-154.623 -810.716 -1346 176 147 130
-151.271 -808.774 -1343 177 148 131
-148.486 -809.845 -1345 175 148 130
-145.153 -807.909 -1342 174 148 130
-142.47 -809.587 -1345 175 148 136
-139.256 -808.258 -1343 173 146 132
-136.155 -807.534 -1342 172 145 131
-133.059 -806.813 -1341 172 145 131
-130.357 -808.501 -1344 173 144 130
-127.548 -809.59 -1346 170 141 127
-124.546 -809.478 -1346 167 138 124
-121.636 -809.971 -1347 166 139 125
-118.723 -810.466 -1348 163 137 121
-115.462 -808.558 -1345 160 134 117
-112.635 -809.66 -1347 153 129 113
-109.555 -808.96 -1346 148 124 108
-106.482 -808.264 -1345 145 121 105
-103.567 -808.772 -1346 138 114 98
-100.724 -809.883 -1348 129 105 88
-97.4374 -807.393 -1344 123 101 82
-94.8727 -810.912 -1350 116 95 76
-92.0101 -812.031 -1352 111 88 71
-89.2711 -814.353 -1356 101 81 64
-86.5789 -817.278 -1361 93 74 58
-294.11 -827.766 -1353 151 128 115
-293.127 -833.616 -1363 162 132 113
-290.398 -834.574 -1365 166 136 111
-287.243 -834.312 -1365 172 142 116
-284.298 -834.664 -1366 175 146 118
-280.94 -833.796 -1365 177 147 124
-276.776 -830.49 -1360 178 149 126
-273.442 -829.63 -1359 184 155 131
-269.718 -827.552 -1356 188 156 135
-266.797 -827.92 -1357 185 156 141
-263.874 -828.29 -1358 184 155 140
-260.373 -826.833 -1356 184 155 140
-257.642 -827.818 -1358 183 154 139
-253.968 -825.758 -1355 180 152 137
-250.866 -825.53 -1355 179 152 137
-247.583 -824.696 -1354 179 152 137
-245.03 -826.301 -1357 176 149 134
-241.931 -826.081 -1357 173 146 131
-239.714 -828.907 -1362 170 143 128
-236.608 -828.693 -1362 167 143 127
-233.676 -829.089 -1363 165 141 126
-231.081 -830.704 -1366 161 137 122
-227.973 -830.498 -1366 156 132 116
-225.361 -832.118 -1369 152 128 113
-222.738 -833.739 -1372 148 124 108
-219.944 -834.755 -1374 143 117 100
-217.3 -836.381 -1377 139 112 97
-214.489 -837.402 -1379 136 108 93
-211.672 -838.425 -1381 130 101 86
-208.697 -838.844 -1382 123 97 77
-206.165 -841.085 -1386 120 89 65
-203.471 -842.722 -1389 110 78 54
-200.621 -843.754 -1391 93 67 47
-197.764 -844.788 -1393 80 57 41
-194.481 -844.006 -1392 114 92 76
-190.792 -841.408 -1388 144 125 109
-186.853 -837.602 -1382 163 139 124
-182.942 -833.801 -1376 169 143 124
-178.93 -829.398 -1369 175 146 125
-175.207 -826.21 -1364 176 148 126
-171.636 -823.633 -1360 174 146 124
-167.96 -820.453 -1355 174 146 124
-164.673 -819.094 -1353 174 148 126
-161.158 -816.527 -1349 175 147 129
-157.779 -814.569 -1346 174 145 128
-154.646 -813.824 -1345 174 145 128
-151.406 -812.477 -1343 175 146 129
-148.508 -812.948 -1344 174 147 130
-145.39 -812.213 -1343 174 148 130
-142.703 -813.898 -1346 173 146 134
-139.38 -811.959 -1343 173 146 132
-136.276 -811.231 -1342 174 147 132
-133.177 -810.507 -1341 172 145 131
-130.181 -810.39 -1341 170 142 128
-127.187 -810.275 -1341 168 140 126
-124.564 -812.58 -1345 166 137 123
-121.744 -813.678 -1347 162 135 121
-118.828 -814.175 -1348 162 135 119
-115.737 -813.467 -1347 158 132 114
-112.651 -812.761 -1346 151 127 111
-109.49 -811.455 -1344 146 122 106
-106.814 -813.774 -1348 143 119 103
-103.428 -810.662 -1343 137 113 97
-100.888 -814.192 -1349 129 105 87
-97.8141 -813.501 -1348 122 99 81
-95.1678 -816.432 -1353 111 91 72
-92.296 -817.556 -1355 107 85 66
-89.3502 -818.078 -1356 100 80 63
-86.5282 -819.81 -1359 94 75 59
