ply
format ascii 1.0
comment Created by Open3D
element vertex 1472
property double x
property double y
property double z
property uchar red
property uchar green
property uchar blue
end_header
-42.0647 -979.408 -1618 19 19 19
-38.4078 -977.556 -1615 14 14 14
-34.8293 -977.524 -1615 12 12 12
-31.2124 -976.284 -1613 10 10 11
-27.6561 -976.863 -1614 10 10 12
-24.0956 -977.445 -1615 11 11 13
-20.5182 -977.425 -1615 10 10 12
-16.9306 -976.804 -1614 10 10 12
-13.3392 -975.58 -1612 11 12 13
-9.74481 -973.149 -1608 11 11 13
-6.16032 -969.511 -1602 12 12 14
-2.60593 -967.086 -1598 12 12 14
0.928969 -962.849 -1591 11 12 14
4.44407 -961.036 -1588 11 13 16
7.96618 -961.647 -1589 11 13 18
11.4709 -960.445 -1587 14 16 20
15.0142 -962.273 -1590 15 17 20
18.5591 -963.498 -1592 13 15 18
22.141 -965.937 -1596 15 15 17
25.757 -968.985 -1601 16 16 20
29.3586 -970.825 -1604 15 16 18
32.9944 -973.274 -1608 12 14 14
36.5118 -972.094 -1606 11 13 15
40.1204 -973.339 -1608 13 14 17
43.7384 -974.587 -1610 13 14 18
47.3655 -975.839 -1612 12 14 18
51.0654 -978.304 -1616 14 14 18
54.7497 -980.168 -1619 13 13 17
58.5916 -984.456 -1626 14 14 18
62.3508 -986.932 -1630 11 13 17
65.9258 -986.384 -1629 10 12 18
69.5824 -987.05 -1630 10 12 18
73.0197 -984.691 -1626 13 14 18
-200.176 -985.003 -1612 15 11 12
-196.182 -982.991 -1609 13 13 15
-191.487 -977.318 -1600 14 14 16
-187.186 -973.483 -1594 14 14 15
-182.338 -966.599 -1583 12 12 12
-178.332 -963.994 -1579 12 12 14
-174.677 -963.224 -1578 13 13 15
-171.029 -962.458 -1577 15 15 17
-167.706 -963.526 -1579 16 16 18
-163.959 -962.157 -1577 14 14 16
-160.325 -961.4 -1576 13 13 15
-156.796 -961.258 -1576 14 13 15
-152.588 -956.849 -1569 13 13 16
-149.173 -957.323 -1570 14 14 17
-145.755 -957.8 -1571 14 14 16
-142.696 -960.718 -1576 13 13 15
-138.91 -958.764 -1573 12 12 14
-135.053 -956.202 -1569 13 13 15
-131.214 -953.645 -1565 13 13 15
-127.558 -952.31 -1563 14 14 16
-124.23 -953.416 -1565 15 15 17
-120.74 -953.306 -1565 14 14 16
-117.551 -955.635 -1569 13 13 15
-114.345 -957.967 -1573 13 13 16
-111.051 -959.693 -1576 13 13 16
-107.746 -961.421 -1579 13 13 15
-104.89 -967.415 -1589 13 13 15
-101.8 -971.583 -1596 11 11 13
-98.4327 -973.32 -1599 10 12 15
-94.9941 -974.45 -1601 13 13 15
-91.6617 -976.801 -1605 12 12 14
-88.477 -980.98 -1612 12 12 14
-84.9462 -981.511 -1613 13 13 15
-81.4621 -982.654 -1615 13 13 15
-77.97 -983.799 -1617 12 12 14
-53.1325 -988.862 -1626 17 13 14
-49.4942 -988.208 -1625 19 16 17
-45.7478 -985.125 -1620 20 17 18
-42.1022 -983.87 -1618 21 18 19
-38.4658 -982.618 -1616 19 16 17
-34.7956 -980.153 -1612 13 12 14
-31.2014 -979.515 -1611 10 10 12
-27.6122 -978.881 -1610 10 10 12
-24.0573 -979.466 -1611 11 11 11
-20.4856 -979.446 -1611 11 11 12
-16.8931 -978.214 -1609 11 11 13
-13.3014 -976.376 -1606 12 12 14
-9.71698 -973.934 -1602 11 11 13
-6.14268 -970.279 -1596 11 11 13
-2.6034 -969.667 -1595 12 12 14
0.929302 -966.627 -1590 12 12 15
4.46226 -968.454 -1593 12 13 16
7.97342 -966.027 -1589 13 15 19
11.5101 -967.252 -1591 16 18 22
15.056 -968.48 -1593 16 18 22
18.6341 -970.927 -1597 14 16 19
22.2026 -972.161 -1599 16 16 18
25.8121 -974.615 -1603 14 14 17
29.3848 -975.248 -1604 13 14 15
32.9622 -975.883 -1605 11 13 13
36.5445 -976.523 -1606 10 12 14
40.1814 -978.382 -1609 12 12 16
43.7232 -977.811 -1608 12 12 16
47.3787 -979.676 -1611 12 14 18
51.0795 -982.153 -1615 13 13 17
54.8325 -985.241 -1620 13 13 17
58.6081 -988.333 -1625 14 14 18
62.33 -990.212 -1628 11 13 17
65.9444 -990.27 -1628 10 12 17
69.6875 -992.156 -1631 12 13 18
73.2199 -991.003 -1629 14 14 18
-200.481 -990.103 -1613 16 9 13
-196.238 -986.854 -1608 15 11 11
-192.379 -985.45 -1606 13 13 14
-186.885 -975.462 -1590 14 14 17
-182.272 -969.773 -1581 11 13 17
-178.606 -968.996 -1580 13 13 15
-174.946 -968.223 -1579 14 14 16
-171.618 -969.292 -1581 16 16 18
-168.176 -969.751 -1582 16 16 18
-164.315 -967.762 -1579 14 14 16
-160.673 -967.002 -1578 13 13 15
-157.037 -966.246 -1577 15 12 15
-153.115 -963.655 -1573 14 14 16
-149.498 -962.905 -1572 14 14 16
-145.98 -962.772 -1572 14 14 16
-142.463 -962.641 -1572 14 14 16
-139.124 -963.739 -1574 14 14 16
-135.261 -961.165 -1570 14 14 16
-131.584 -959.821 -1568 14 14 16
-127.837 -957.867 -1565 15 15 17
-124.342 -957.753 -1565 15 15 17
-120.849 -957.643 -1565 15 15 17
-117.657 -959.982 -1569 15 15 17
-114.375 -961.713 -1572 14 14 16
-111.222 -964.67 -1577 14 14 16
-108.253 -969.465 -1585 14 14 16
-105.183 -973.65 -1592 13 13 15
-101.891 -976.003 -1596 12 12 14
-98.6444 -978.97 -1601 12 12 14
-95.1389 -979.494 -1602 12 12 14
-92.0299 -984.301 -1610 12 12 14
-88.6665 -986.664 -1614 13 13 15
-85.3915 -990.254 -1620 13 13 15
-81.7878 -990.179 -1620 13 13 15
-78.378 -992.551 -1624 13 13 15
-49.4167 -990.258 -1621 18 15 16
-45.7606 -988.994 -1619 19 16 17
-42.1139 -987.733 -1617 20 17 18
-38.405 -984.642 -1612 18 15 16
-34.762 -982.777 -1609 14 14 16
-31.1713 -982.136 -1608 13 13 15
-27.5339 -979.667 -1604 12 12 14
-23.9893 -980.255 -1605 12 12 12
-20.4149 -979.624 -1604 11 11 12
-16.8452 -978.997 -1603 12 12 14
-13.247 -975.929 -1598 12 12 14
-9.68306 -974.087 -1595 11 11 13
-6.14429 -974.08 -1595 12 12 14
-2.60719 -974.687 -1596 12 12 14
0.931979 -972.854 -1593 12 12 16
4.46626 -972.856 -1593 13 14 18
8.00057 -972.862 -1593 15 17 21
11.5352 -972.871 -1593 16 18 22
15.1075 -975.326 -1597 17 19 23
18.6862 -977.174 -1600 15 17 20
22.2364 -977.192 -1600 14 14 16
25.8354 -979.046 -1603 14 14 16
29.4114 -979.682 -1604 11 12 13
32.9714 -979.71 -1604 10 12 12
36.509 -979.131 -1603 10 12 14
40.1674 -981.608 -1607 12 12 16
43.6808 -980.424 -1605 12 12 16
47.3331 -982.298 -1608 13 13 17
51.0621 -985.397 -1613 13 13 17
54.814 -988.5 -1618 13 13 17
58.5526 -990.995 -1622 13 13 17
62.3479 -994.104 -1627 11 13 17
66.0038 -994.773 -1628 11 13 17
69.7503 -996.667 -1631 13 14 18
73.3758 -996.732 -1631 14 14 18
-196.783 -993.189 -1611 14 10 9
-192.674 -990.546 -1607 15 14 15
-187.879 -984.209 -1597 15 15 18
-183.13 -977.878 -1587 12 14 18
-179.221 -975.864 -1584 13 13 15
-175.659 -975.703 -1584 14 14 16
-171.774 -973.697 -1581 13 13 15
-168.116 -972.926 -1580 13 13 17
-164.673 -973.39 -1581 14 14 17
-161.125 -973.242 -1581 13 13 15
-156.582 -966.942 -1571 13 13 15
-153.254 -968.032 -1573 14 14 16
-150.014 -969.741 -1576 15 15 17
-146.112 -967.145 -1572 15 15 17
-142.773 -968.244 -1574 15 15 17
-139.338 -968.731 -1575 15 15 17
-135.814 -968.606 -1575 14 14 16
-131.788 -964.795 -1569 16 16 18
-128.198 -964.062 -1568 16 16 18
-124.693 -963.947 -1568 16 16 18
-121.267 -964.45 -1569 16 16 18
-118.138 -967.415 -1574 15 15 17
-114.915 -969.767 -1578 15 15 17
-111.675 -972.123 -1582 15 15 17
-108.829 -978.167 -1592 14 14 16
-105.675 -981.756 -1598 13 13 15
-102.431 -984.734 -1603 12 12 14
-99.042 -986.486 -1606 13 13 15
-95.5815 -987.626 -1608 14 14 16
-92.1703 -989.383 -1611 13 13 15
-88.9115 -992.986 -1617 12 12 14
-85.5742 -995.977 -1622 12 12 14
-82.0638 -997.129 -1624 13 13 15
-78.5936 -998.898 -1627 14 14 16
-53.1954 -997.254 -1625 17 13 14
-49.5832 -997.207 -1625 17 14 15
-45.8868 -995.323 -1622 19 16 17
-42.1519 -992.215 -1617 19 16 17
-38.4635 -989.725 -1613 18 15 16
-34.8149 -987.851 -1610 15 15 17
-31.1799 -985.98 -1607 15 15 17
-27.5414 -983.499 -1603 14 14 16
-23.9659 -982.863 -1602 13 13 15
-20.3951 -982.229 -1601 12 12 14
-16.7972 -979.758 -1597 13 13 15
-13.2173 -977.291 -1593 13 13 15
-9.69184 -978.508 -1595 12 12 14
-6.14591 -977.887 -1594 13 13 15
-2.60794 -978.496 -1595 13 13 15
0.934077 -978.496 -1595 13 13 17
4.47891 -979.112 -1596 13 14 18
8.01795 -978.504 -1595 14 16 21
11.5528 -977.9 -1594 16 18 22
15.1307 -980.366 -1598 16 18 22
18.7381 -983.449 -1603 15 16 20
22.2149 -979.786 -1597 12 13 16
25.8106 -981.649 -1600 14 14 16
29.3278 -980.447 -1598 12 12 14
32.8368 -979.248 -1596 13 13 15
36.4281 -980.506 -1598 13 13 17
39.9538 -979.927 -1597 12 12 16
43.6659 -983.647 -1603 12 12 16
47.3759 -986.756 -1608 12 12 16
51.045 -988.642 -1611 14 14 18
54.7959 -991.759 -1616 13 13 17
58.5695 -994.879 -1621 14 14 18
62.2509 -996.161 -1623 12 13 17
66.0636 -999.288 -1628 12 14 18
69.7706 -1000.58 -1630 12 14 18
73.5323 -1002.48 -1633 14 14 18
-201.221 -1000.97 -1616 18 11 14
-197.085 -998.315 -1612 15 11 10
-192.85 -995.04 -1607 14 13 14
-188.168 -989.293 -1598 14 14 17
-184.453 -988.503 -1597 12 14 18
-179.611 -981.529 -1586 14 14 16
-176.486 -983.841 -1590 13 13 15
-172.583 -981.825 -1587 13 13 15
-169.121 -982.287 -1588 13 13 17
-165.449 -981.515 -1587 14 14 16
-161.68 -980.129 -1585 15 15 17
-157.722 -977.51 -1581 14 14 16
-153.686 -974.276 -1576 13 13 15
-149.77 -971.665 -1572 13 13 15
-146.245 -971.53 -1572 14 14 16
-142.54 -970.162 -1570 14 14 16
-139.111 -970.651 -1571 14 14 16
-135.679 -971.143 -1572 16 16 18
-132.076 -970.403 -1571 16 16 18
-128.314 -968.432 -1568 16 16 18
-124.807 -968.316 -1568 17 17 19
-121.455 -969.439 -1570 16 16 18
-118.095 -970.564 -1572 15 15 17
-115.165 -975.397 -1580 15 15 17
-112.13 -979.615 -1587 15 15 17
-109.202 -985.069 -1596 13 13 15
-105.837 -986.823 -1599 11 11 13
-102.46 -988.579 -1602 12 12 14
-98.9469 -989.104 -1603 13 13 15
-95.9063 -994.569 -1612 13 13 15
-92.2541 -993.866 -1611 13 13 15
-88.9923 -997.485 -1617 13 13 15
-85.7046 -1001.11 -1623 12 12 14
-82.1383 -1001.65 -1624 13 13 15
-78.665 -1003.42 -1627 14 14 16
-53.3748 -1004.24 -1629 17 14 15
-49.6283 -1001.72 -1625 17 14 15
-45.8717 -998.599 -1620 19 16 17
-42.1379 -995.477 -1615 19 16 17
-38.4745 -993.591 -1612 17 14 15
-34.7599 -989.86 -1606 17 16 18
-31.1499 -988.597 -1604 17 17 19
-27.5149 -986.106 -1600 16 16 18
-23.9726 -986.698 -1601 13 13 15
-20.3497 -983.597 -1596 13 13 15
-16.7808 -982.347 -1594 13 13 15
-13.2292 -981.717 -1593 13 13 15
-9.70044 -982.94 -1595 13 13 15
-6.1514 -982.316 -1594 13 13 15
-2.61175 -983.545 -1596 13 13 16
0.937354 -985.393 -1599 13 13 17
4.49138 -985.396 -1599 12 13 19
8.02027 -982.32 -1594 13 15 21
11.549 -981.097 -1592 14 16 20
15.1066 -982.341 -1594 15 17 21
18.6381 -981.74 -1593 13 15 19
22.2351 -984.224 -1597 12 14 18
25.7209 -981.781 -1593 13 13 15
29.2259 -980.573 -1591 12 12 14
32.8048 -981.834 -1593 12 12 14
36.37 -982.482 -1594 12 12 16
39.99 -984.366 -1597 11 11 15
43.6239 -986.253 -1600 11 11 15
47.4189 -991.226 -1608 11 11 15
51.0597 -992.504 -1610 12 12 16
54.9135 -997.484 -1618 15 15 19
58.5142 -997.536 -1618 14 14 18
62.346 -1001.29 -1624 14 14 18
66.0424 -1002.58 -1626 12 14 18
69.9198 -1006.34 -1632 13 14 17
73.8245 -1010.11 -1638 14 14 18
-202.029 -1008.62 -1621 17 11 12
-197.266 -1002.84 -1612 16 12 11
-193.267 -1000.79 -1609 14 13 14
-188.812 -996.26 -1602 13 13 15
-184.391 -991.735 -1595 12 14 18
-180.003 -987.216 -1588 14 15 17
-176.426 -987.052 -1588 14 14 16
-172.741 -986.27 -1587 13 13 15
-169.063 -985.491 -1586 13 13 17
-165.287 -984.095 -1584 15 15 18
-161.624 -983.323 -1583 16 16 18
-157.967 -982.555 -1582 15 15 17
-154.022 -979.928 -1578 14 14 17
-150.098 -977.304 -1574 13 13 16
-146.565 -977.168 -1574 12 12 14
-142.943 -976.414 -1573 12 12 14
-139.504 -976.905 -1574 14 14 16
-135.803 -975.538 -1572 16 16 18
-132.197 -974.794 -1571 15 15 17
-128.596 -974.054 -1570 16 16 18
-124.921 -972.697 -1568 16 16 18
-121.798 -975.686 -1573 16 16 18
-118.429 -976.816 -1575 16 16 18
-115.563 -982.29 -1584 15 15 17
-112.445 -985.906 -1590 15 15 17
-109.575 -992.005 -1600 13 13 15
-106 -991.906 -1600 10 10 12
-102.681 -994.29 -1604 11 11 13
-99.2226 -995.438 -1606 12 12 14
-95.7557 -996.588 -1608 13 13 15
-92.3955 -998.981 -1612 13 13 15
-89.1837 -1003.24 -1619 13 13 15
-85.6244 -1003.78 -1620 13 13 15
-82.112 -1004.94 -1622 13 13 15
-78.5916 -1006.1 -1624 13 13 15
-53.5874 -1011.87 -1634 15 12 13
-49.7957 -1008.73 -1629 16 13 14
-46.0269 -1005.59 -1624 19 16 17
-42.2547 -1001.84 -1618 20 17 18
-38.5095 -998.084 -1612 18 15 16
-34.8131 -994.954 -1607 17 16 18
-31.1977 -993.686 -1605 17 17 19
-27.6087 -993.04 -1604 16 16 20
-23.9944 -991.159 -1601 15 15 17
-20.4192 -990.52 -1600 14 14 18
-16.8277 -988.646 -1597 12 12 16
-13.2579 -987.394 -1595 14 14 16
-9.71539 -988.003 -1596 13 13 15
-6.18395 -991.091 -1601 14 14 17
-2.62398 -991.706 -1602 13 13 17
0.940053 -991.705 -1602 12 12 16
4.49285 -989.232 -1598 12 14 19
8.0327 -987.38 -1595 12 14 20
11.5595 -985.532 -1592 14 16 20
15.073 -983.687 -1589 13 15 19
18.5967 -983.084 -1588 11 13 17
22.13 -983.102 -1588 9 11 15
25.6476 -982.505 -1587 12 12 14
29.1793 -982.53 -1587 13 13 15
32.6906 -981.94 -1586 13 13 15
36.2662 -983.21 -1588 11 11 15
39.9765 -987.579 -1595 11 10 16
43.691 -991.332 -1601 13 11 18
47.4622 -995.708 -1608 16 13 18
51.265 -1000.09 -1615 15 15 19
54.8958 -1000.76 -1616 16 16 20
58.6402 -1003.29 -1620 15 15 19
62.3645 -1005.2 -1623 15 15 19
66.062 -1006.5 -1625 13 15 17
69.8979 -1009.66 -1630 14 15 18
73.9372 -1015.3 -1639 15 15 19
-202.34 -1013.8 -1622 18 12 13
-197.816 -1009.24 -1615 16 12 12
-193.326 -1004.69 -1608 14 13 14
-188.869 -1000.14 -1601 14 14 16
-184.792 -997.467 -1597 13 15 19
-180.623 -994.175 -1592 13 14 16
-176.7 -992.136 -1589 14 14 16
-172.683 -989.478 -1585 12 13 15
-169.219 -989.944 -1586 13 13 17
-165.648 -989.789 -1586 13 13 17
-162.079 -989.638 -1586 15 15 17
-158.412 -988.866 -1585 15 15 18
-154.067 -983.731 -1577 14 14 18
-150.427 -982.966 -1576 15 15 19
-146.327 -979.087 -1570 15 15 19
-142.893 -979.578 -1571 14 14 16
-139.455 -980.071 -1572 13 13 15
-135.928 -979.944 -1572 12 12 14
-132.066 -977.327 -1568 14 14 16
-128.878 -979.7 -1572 16 16 18
-125.036 -977.09 -1568 16 16 18
-121.91 -980.092 -1573 15 15 17
-118.764 -983.096 -1578 14 14 16
-115.961 -989.218 -1588 14 14 16
-112.831 -992.85 -1594 14 14 16
-109.745 -997.107 -1601 13 13 15
-106.164 -997.008 -1601 11 11 13
-102.712 -998.157 -1603 11 11 13
-99.1281 -998.064 -1603 12 12 14
-95.9032 -1001.71 -1609 12 12 14
-92.4229 -1002.87 -1611 14 14 16
-89.1553 -1006.52 -1617 13 13 15
-85.7028 -1008.31 -1620 12 12 14
-82.1366 -1008.85 -1621 13 13 15
-78.6636 -1010.65 -1624 15 15 17
-75.1318 -1011.82 -1626 15 15 19
-53.6693 -1017.06 -1635 18 15 16
-49.8414 -1013.28 -1629 18 15 16
-46.0122 -1008.89 -1622 17 14 15
-42.2149 -1004.49 -1615 18 15 16
-38.5447 -1002.59 -1612 17 14 15
-34.8884 -1000.69 -1609 15 15 17
-31.2651 -999.415 -1607 17 17 19
-27.6511 -998.144 -1605 18 18 22
-24.0914 -998.742 -1606 17 17 21
-20.4634 -996.234 -1602 15 15 19
-16.8851 -995.595 -1601 14 14 18
-13.3032 -994.337 -1599 14 14 16
-9.74865 -994.949 -1600 14 14 18
-6.20498 -998.051 -1605 14 14 18
-2.63929 -1001.16 -1610 13 13 17
0.942761 -998.046 -1605 13 13 17
4.50819 -996.183 -1602 11 13 18
8.05524 -993.702 -1598 10 13 19
11.5557 -988.736 -1590 12 14 18
15.0963 -988.749 -1590 10 12 16
18.6139 -987.52 -1588 9 11 15
22.1366 -986.917 -1587 9 11 15
25.6389 -985.695 -1585 12 12 14
29.1692 -985.721 -1585 13 13 15
32.7206 -986.371 -1586 13 13 15
36.3224 -988.269 -1589 12 11 17
39.963 -990.792 -1593 13 12 19
43.7585 -996.428 -1602 16 14 21
47.5946 -1002.07 -1611 19 16 21
51.2168 -1002.74 -1612 17 17 21
54.9123 -1004.65 -1615 14 14 18
58.6941 -1007.81 -1620 14 14 18
62.3063 -1007.87 -1620 15 15 19
66.0008 -1009.17 -1622 14 16 18
69.8334 -1012.35 -1627 15 16 19
74.0502 -1020.5 -1640 15 15 19
-203.153 -1021.52 -1627 19 13 14
-198.613 -1016.94 -1620 17 13 14
-193.626 -1009.85 -1609 15 12 14
-188.926 -1004.02 -1600 14 14 16
-184.617 -1000.08 -1594 10 12 16
-180.222 -995.524 -1587 10 11 13
-176.084 -992.222 -1582 12 12 14
-171.861 -988.297 -1576 11 13 15
-168.308 -988.139 -1576 12 14 18
-165.175 -990.492 -1580 12 13 16
-161.411 -989.087 -1578 14 14 16
-158.058 -990.192 -1580 14 14 18
-153.818 -985.661 -1573 15 15 19
-150.662 -988.025 -1577 16 16 20
-147.116 -987.887 -1577 16 16 20
-143.207 -985.247 -1573 16 16 18
-139.673 -985.116 -1573 15 15 17
-136.14 -984.988 -1573 15 15 17
-132.272 -982.359 -1569 16 16 18
-128.997 -984.116 -1572 15 15 17
-125.471 -983.998 -1572 14 14 16
-122.488 -988.265 -1579 14 14 16
-119.099 -989.405 -1581 13 13 15
-116.287 -995.554 -1591 12 12 14
-113.006 -997.95 -1595 12 12 14
-109.64 -999.724 -1598 10 10 12
-106.195 -1000.88 -1600 11 11 13
-102.486 -999.528 -1598 11 11 13
-99.0959 -1001.31 -1601 12 12 14
-95.932 -1005.6 -1608 14 14 16
-92.4508 -1006.76 -1610 14 14 16
-89.2375 -1011.06 -1617 13 13 15
-85.5702 -1010.35 -1616 12 12 14
-82.1616 -1012.77 -1620 14 14 16
-78.7846 -1015.82 -1625 15 15 17
-75.2935 -1017.63 -1628 14 14 18
-53.85 -1024.14 -1639 18 15 16
-50.0097 -1020.35 -1633 16 13 14
-46.1682 -1015.93 -1626 18 15 16
-42.3584 -1011.52 -1619 17 14 15
-38.652 -1008.98 -1615 14 14 14
-34.9638 -1006.45 -1611 15 15 16
-31.3523 -1005.79 -1610 18 18 21
-27.7627 -1005.76 -1610 20 20 24
-24.1585 -1005.12 -1609 19 19 23
-20.5717 -1005.09 -1609 16 16 20
-16.9429 -1002.58 -1605 15 15 19
-13.3653 -1002.56 -1605 15 15 17
-9.77568 -1001.3 -1603 16 16 20
-6.2224 -1004.42 -1608 14 14 18
-2.63845 -1004.42 -1608 13 13 17
0.946652 -1005.67 -1610 13 13 17
4.52378 -1003.17 -1606 11 13 18
8.07302 -999.427 -1600 10 13 19
11.5737 -993.815 -1591 10 12 16
15.101 -992.578 -1589 11 13 17
18.5959 -990.095 -1585 11 13 17
22.1709 -991.988 -1588 12 14 18
25.6787 -990.76 -1586 15 15 17
29.1962 -990.161 -1585 14 14 16
32.7508 -990.815 -1586 13 13 17
36.356 -992.721 -1589 15 13 20
40.0503 -996.505 -1595 16 15 20
43.8262 -1001.54 -1603 17 16 21
47.6384 -1006.58 -1611 20 17 22
51.3597 -1009.13 -1615 16 16 20
55.0311 -1010.43 -1617 14 14 18
58.6757 -1011.1 -1618 13 13 17
62.3255 -1011.79 -1619 15 15 19
66.0616 -1013.72 -1622 15 17 19
69.8549 -1016.28 -1626 16 16 19
74.1186 -1025.1 -1640 16 15 19
-203.842 -1028.64 -1631 20 12 14
-198.553 -1020.26 -1618 16 12 13
-193.686 -1013.77 -1608 15 12 14
-188.866 -1007.28 -1598 13 13 15
-184.441 -1002.7 -1591 11 13 17
-180.049 -998.116 -1584 11 12 15
-175.803 -994.17 -1578 11 11 14
-172.131 -993.377 -1577 10 12 16
-168.144 -990.699 -1573 11 13 17
-164.596 -990.544 -1573 11 13 17
-160.845 -989.132 -1571 14 14 17
-157.705 -991.502 -1575 14 14 18
-153.961 -990.098 -1573 14 14 18
-150.611 -991.214 -1575 13 13 17
-146.599 -987.929 -1570 15 15 19
-143.614 -991.569 -1576 17 17 19
-139.448 -987.034 -1569 16 16 18
-136.267 -989.421 -1573 17 17 19
-132.648 -988.667 -1572 18 18 20
-129.035 -987.916 -1571 16 16 18
-125.827 -990.313 -1575 16 16 18
-122.68 -993.341 -1580 16 16 18
-119.587 -997 -1586 14 14 16
-116.468 -1000.66 -1592 12 12 14
-113.111 -1002.44 -1595 11 11 13
-109.605 -1002.97 -1596 11 11 13
-105.829 -1000.98 -1593 12 12 14
-102.645 -1004.65 -1599 12 12 14
-99.2496 -1006.44 -1602 12 12 14
-95.603 -1005.73 -1601 14 14 16
-92.479 -1010.66 -1609 14 14 16
-89.0993 -1013.09 -1613 12 12 14
-85.7554 -1016.15 -1618 11 11 13
-82.0855 -1015.44 -1617 14 14 16
-78.9546 -1021.65 -1627 15 15 17
-75.4096 -1022.83 -1629 16 16 20
-57.9819 -1036.33 -1651 18 15 16
-53.9656 -1030.01 -1641 16 13 14
-50.056 -1024.94 -1633 16 13 14
-46.2677 -1021.75 -1628 17 14 15
-42.45 -1017.32 -1621 18 15 16
-38.7357 -1014.77 -1617 15 15 15
-35.1482 -1015.36 -1618 14 14 16
-31.5567 -1015.96 -1619 15 15 18
-27.8747 -1013.42 -1615 18 18 22
-24.271 -1013.4 -1615 18 18 22
-20.5906 -1009.61 -1609 16 16 20
-16.9901 -1008.97 -1608 14 14 18
-13.4027 -1008.96 -1608 16 16 20
-9.80911 -1008.32 -1607 17 17 21
-6.22416 -1008.31 -1607 15 15 19
-2.63576 -1007.05 -1605 13 13 17
0.947609 -1010.19 -1610 12 12 16
4.52228 -1006.43 -1604 11 12 17
8.07548 -1003.29 -1599 9 12 18
11.6281 -1002.05 -1597 10 12 16
15.1625 -1000.18 -1594 12 14 18
18.7189 -1000.19 -1594 12 14 18
22.2475 -998.958 -1592 12 14 18
25.7674 -997.726 -1590 17 17 20
29.3155 -997.752 -1590 18 18 22
32.8433 -997.153 -1589 18 18 22
36.4585 -999.068 -1592 18 17 22
40.1126 -1001.61 -1596 17 17 21
43.9218 -1007.3 -1605 17 16 21
47.653 -1010.48 -1610 17 17 21
51.3756 -1013.04 -1614 15 15 19
55.0481 -1014.34 -1616 13 13 17
58.6938 -1015.02 -1617 12 12 16
62.3832 -1016.34 -1619 15 15 19
66.123 -1018.28 -1622 19 16 21
69.9628 -1021.48 -1627 18 15 19
-204.159 -1033.9 -1632 18 10 12
-198.616 -1024.21 -1617 15 11 12
-193.747 -1017.69 -1607 15 12 14
-189.043 -1011.81 -1598 13 13 15
-184.382 -1005.94 -1589 11 13 17
-179.308 -997.54 -1576 13 14 18
-175.298 -994.841 -1572 13 13 17
-171.309 -992.148 -1568 10 12 16
-167.66 -991.356 -1567 10 12 16
-164.227 -991.833 -1568 11 12 16
-160.79 -992.313 -1569 14 14 18
-156.95 -990.267 -1566 14 14 18
-153.615 -991.386 -1568 13 13 17
-150.273 -992.507 -1570 11 11 15
-146.736 -992.368 -1570 13 13 17
-143.201 -992.232 -1570 15 15 19
-139.667 -992.1 -1570 14 14 17
-136.134 -991.971 -1570 14 14 16
-132.519 -991.213 -1569 15 15 17
-129.155 -992.354 -1571 16 16 18
-125.944 -994.761 -1575 16 16 18
-122.95 -999.066 -1582 15 15 17
-119.85 -1002.74 -1588 12 12 14
-116.431 -1003.89 -1590 10 10 12
-112.862 -1003.79 -1590 11 11 13
-109.501 -1005.58 -1593 12 12 14
-105.661 -1002.95 -1589 13 13 15
-102.291 -1004.75 -1592 12 12 14
-99.3422 -1010.96 -1602 14 14 16
-96.2898 -1016.55 -1611 15 15 17
-92.7378 -1017.09 -1612 14 14 16
-89.1823 -1017.64 -1613 10 10 12
-85.6762 -1018.82 -1615 11 11 13
-82.3144 -1021.9 -1620 12 12 14
-79.0767 -1026.87 -1628 15 15 17
-75.6651 -1029.95 -1633 15 15 19
-57.8952 -1038.46 -1647 15 12 13
-53.983 -1034 -1640 15 12 13
-50.1332 -1030.17 -1634 14 11 12
-46.3392 -1026.97 -1629 15 12 13
-42.6728 -1026.3 -1628 17 14 15
-38.9874 -1025 -1626 15 14 14
-35.2679 -1022.44 -1622 13 12 14
-31.664 -1023.04 -1623 12 12 15
-28.0388 -1023.02 -1623 14 14 17
-24.2935 -1017.95 -1615 15 15 18
-20.6482 -1016.04 -1612 14 14 18
-16.9848 -1012.24 -1606 14 14 18
-13.39 -1011.59 -1605 14 16 20
-9.79984 -1010.95 -1604 16 17 21
-6.21818 -1010.94 -1604 15 15 19
-2.63492 -1010.31 -1603 13 13 17
0.945036 -1010.94 -1604 11 13 17
4.52382 -1010.31 -1603 10 12 16
8.10828 -1010.95 -1604 10 12 16
11.6535 -1007.81 -1599 13 15 19
15.1863 -1005.3 -1595 15 17 21
18.7716 -1006.57 -1597 15 17 21
22.3243 -1005.96 -1596 16 18 22
25.9213 -1007.25 -1598 19 19 23
29.4352 -1005.38 -1595 20 20 24
32.9774 -1004.78 -1594 20 20 24
36.5843 -1006.07 -1596 19 19 23
40.2003 -1007.37 -1598 18 18 22
43.9902 -1012.45 -1606 18 18 22
47.7272 -1015.65 -1611 17 17 21
51.3917 -1016.96 -1613 14 14 18
55.0654 -1018.27 -1615 14 14 18
58.7124 -1018.95 -1616 15 15 19
62.3643 -1019.64 -1617 16 16 20
66.0624 -1020.96 -1619 19 16 21
70.0712 -1026.7 -1628 18 15 20
-204.602 -1039.82 -1634 17 11 12
-198.804 -1028.81 -1617 14 11 12
-194.533 -1025.44 -1612 14 12 13
-189.34 -1016.99 -1599 13 13 15
-184.439 -1009.82 -1588 12 14 18
-179.932 -1004.56 -1580 14 16 20
-175.575 -999.942 -1573 14 15 19
-171.47 -996.6 -1568 13 15 19
-167.496 -993.897 -1564 13 15 19
-163.857 -993.106 -1563 13 15 19
-160.224 -992.318 -1562 15 15 19
-156.697 -992.168 -1562 14 13 19
-153.074 -991.387 -1561 13 13 18
-149.839 -993.149 -1564 14 14 18
-146.219 -992.375 -1563 12 12 16
-142.879 -993.509 -1565 12 12 15
-139.531 -994.645 -1567 14 14 17
-136.088 -995.15 -1568 14 14 16
-132.558 -995.024 -1568 14 14 16
-129.441 -998.073 -1573 15 15 17
-126.143 -999.856 -1576 16 16 18
-122.987 -1002.91 -1581 15 15 17
-119.735 -1005.33 -1585 13 13 15
-116.467 -1007.76 -1589 10 10 12
-112.897 -1007.65 -1589 10 10 12
-109.397 -1008.18 -1590 11 11 13
-106.027 -1009.98 -1593 13 13 15
-102.644 -1011.79 -1596 13 13 15
-99.0628 -1011.69 -1596 14 14 16
-96.2006 -1019.21 -1608 15 15 17
-92.8823 -1022.29 -1613 14 14 16
-89.3211 -1022.84 -1614 12 12 12
-86.2874 -1029.72 -1625 11 11 13
-82.5949 -1029.01 -1624 10 10 12
-79.3939 -1034.64 -1633 12 12 14
-57.9142 -1042.49 -1646 17 13 14
-53.9675 -1037.37 -1638 15 12 13
-50.1186 -1033.52 -1632 13 10 11
-46.3256 -1030.31 -1627 14 11 12
-42.634 -1029 -1625 17 13 14
-39.0719 -1030.86 -1628 16 13 14
-35.4531 -1031.46 -1629 13 13 15
-31.7717 -1030.16 -1627 14 14 16
-28.0304 -1026.33 -1621 15 15 17
-24.3161 -1022.51 -1615 15 15 17
-20.629 -1018.69 -1609 14 14 18
-16.99 -1016.14 -1605 13 13 17
-13.3941 -1015.49 -1604 12 14 18
-9.78447 -1012.95 -1600 14 14 18
-6.20444 -1012.31 -1599 13 13 17
-2.62586 -1010.41 -1596 12 12 16
0.94128 -1010.41 -1596 9 11 15
4.50843 -1010.41 -1596 9 11 16
8.07561 -1010.41 -1596 11 13 19
11.6499 -1011.06 -1597 15 17 23
15.21 -1010.44 -1596 16 18 23
18.8012 -1011.72 -1598 17 19 23
22.3452 -1010.47 -1596 18 20 24
25.9457 -1011.76 -1598 20 20 24
29.4444 -1009.25 -1594 20 20 24
33.0291 -1009.92 -1595 20 20 24
36.6414 -1011.22 -1597 19 19 23
40.389 -1015.68 -1604 19 19 23
44.0588 -1017.62 -1607 17 17 21
47.7424 -1019.57 -1610 16 16 20
51.4078 -1020.88 -1612 15 15 19
55.0829 -1022.2 -1614 15 15 19
58.7311 -1022.88 -1615 17 17 21
62.5 -1025.47 -1619 17 17 21
66.2876 -1028.07 -1623 18 18 22
70.4385 -1035.73 -1635 18 16 20
-204.42 -1042.56 -1631 18 12 13
-198.623 -1031.5 -1614 16 12 14
-193.751 -1024.92 -1604 15 13 15
-189.045 -1018.99 -1595 13 13 15
-184.614 -1014.34 -1588 11 13 17
-180.103 -1009.06 -1580 14 16 20
-175.853 -1005.06 -1574 15 17 21
-171.523 -1000.43 -1567 12 16 19
-167.762 -998.988 -1565 13 15 19
-163.907 -996.915 -1562 14 16 20
-160.375 -996.762 -1562 16 16 20
-156.745 -995.974 -1561 14 13 20
-153.12 -995.189 -1560 12 11 18
-149.502 -994.407 -1559 13 12 18
-146.17 -995.543 -1561 12 12 16
-142.648 -995.406 -1561 13 13 16
-139.306 -996.548 -1563 14 14 16
-135.956 -997.693 -1565 16 16 18
-132.599 -998.841 -1567 16 16 18
-129.316 -1000.63 -1570 16 16 18
-126.502 -1006.24 -1579 16 16 18
-123.181 -1008.04 -1582 15 15 17
-119.773 -1009.2 -1584 13 13 15
-116.503 -1011.63 -1588 11 11 13
-112.79 -1010.25 -1586 12 12 14
-109.431 -1012.06 -1589 13 13 15
-105.86 -1011.96 -1589 14 14 16
-102.741 -1016.32 -1596 15 15 17
-99.4668 -1019.4 -1601 15 15 17
-96.1714 -1022.49 -1606 15 15 17
-93.085 -1028.14 -1615 12 12 14
-89.5714 -1029.32 -1617 12 12 13
-86.156 -1031.79 -1621 12 12 14
-82.8253 -1035.52 -1627 12 12 14
-79.4685 -1039.27 -1633 12 12 14
-76.225 -1044.92 -1642 12 12 14
-58.0743 -1049.06 -1649 17 13 14
-53.9193 -1040.1 -1635 15 12 13
-50.1042 -1036.87 -1630 15 12 13
-46.369 -1034.92 -1627 15 12 13
-42.7003 -1034.24 -1626 16 12 13
-39.0124 -1032.93 -1624 15 12 13
-35.4645 -1035.44 -1628 15 15 16
-31.7428 -1032.86 -1624 14 14 16
-28.1086 -1032.83 -1624 15 15 17
-24.3691 -1028.36 -1617 16 16 19
-20.6354 -1022.61 -1608 14 14 18
-16.9848 -1019.41 -1603 13 13 17
-13.3816 -1018.13 -1601 12 12 16
-9.77521 -1015.57 -1597 13 13 17
-6.19868 -1014.93 -1596 13 13 17
-2.62151 -1012.38 -1592 11 11 15
0.939879 -1012.38 -1592 9 11 15
4.49867 -1011.75 -1591 9 11 16
8.05787 -1011.75 -1591 10 12 18
11.632 -1013.04 -1593 12 14 20
15.1672 -1011.14 -1590 13 15 19
18.7482 -1012.43 -1592 14 16 20
22.3242 -1013.08 -1593 16 18 22
25.9052 -1013.74 -1594 18 18 22
29.4536 -1013.13 -1593 19 19 23
33.1223 -1016.34 -1598 19 19 23
36.7221 -1017.01 -1599 17 17 21
40.4019 -1019.59 -1603 16 16 20
44.1005 -1022.18 -1607 15 15 19
47.7873 -1024.13 -1610 15 15 19
51.4563 -1025.45 -1612 15 15 19
55.1348 -1026.77 -1614 17 17 21
58.8228 -1028.1 -1616 18 18 22
62.5589 -1030.06 -1619 18 18 22
66.6363 -1037.12 -1630 14 14 18
70.7203 -1043.55 -1640 14 14 18
-204.615 -1047.22 -1631 20 14 15
-199.059 -1037.4 -1616 18 14 16
-193.815 -1028.87 -1603 16 13 16
-189.462 -1024.83 -1597 14 14 16
-185.139 -1020.8 -1591 12 14 18
-180.502 -1014.86 -1582 14 15 19
-176.02 -1009.55 -1574 15 17 21
-171.905 -1006.18 -1569 15 17 21
-167.814 -1002.81 -1564 16 18 22
-163.958 -1000.73 -1561 16 18 22
-160.116 -998.654 -1558 18 18 22
-156.491 -997.863 -1557 15 14 21
-152.774 -996.434 -1555 13 12 19
-149.452 -997.572 -1557 13 12 19
-145.934 -997.431 -1557 15 15 19
-142.509 -997.934 -1558 16 16 20
-139.171 -999.081 -1560 15 15 19
-136.085 -1002.15 -1565 16 16 18
-132.725 -1003.31 -1567 17 17 19
-129.851 -1008.3 -1575 17 17 19
-126.381 -1008.82 -1576 16 16 18
-123.454 -1013.82 -1584 14 14 16
-119.583 -1011.15 -1580 12 12 14
-116.466 -1014.87 -1586 12 12 14
-113.039 -1016.05 -1588 14 14 16
-109.741 -1018.5 -1592 14 14 16
-106.294 -1019.68 -1594 15 15 17
-102.838 -1020.86 -1596 15 15 17
-99.7475 -1025.88 -1604 15 15 17
-96.2624 -1027.06 -1606 14 14 16
-93 -1030.81 -1612 13 13 15
-89.7115 -1034.56 -1618 11 11 13
-86.3971 -1038.31 -1624 11 11 13
-82.7507 -1038.23 -1624 14 14 16
-79.5437 -1043.91 -1633 14 14 16
-76.1111 -1047.03 -1638 14 14 16
-58.0233 -1051.83 -1646 17 13 14
-53.9702 -1044.74 -1635 15 12 13
-50.0285 -1038.94 -1626 15 12 13
-46.2987 -1036.98 -1623 15 12 13
-42.688 -1037.58 -1624 14 11 12
-39.0252 -1036.9 -1623 14 11 12
-35.4326 -1038.14 -1625 12 12 13
-31.7924 -1038.11 -1625 12 12 14
-28.0831 -1035.53 -1621 14 14 16
-24.3618 -1031.67 -1615 15 15 19
-20.6934 -1029.09 -1611 15 14 19
-17.0113 -1024.61 -1604 13 12 18
-13.4109 -1023.95 -1603 14 14 18
-9.78455 -1020.11 -1597 12 12 16
-6.1927 -1017.55 -1593 12 12 16
-2.61903 -1014.99 -1589 12 12 16
0.937888 -1013.71 -1587 10 12 16
4.48303 -1011.79 -1584 10 10 14
8.04033 -1013.08 -1586 11 11 15
11.5991 -1013.73 -1587 12 12 16
15.1625 -1014.38 -1588 10 12 16
18.7307 -1015.03 -1589 10 12 16
22.2754 -1014.41 -1588 11 13 17
25.8158 -1013.8 -1587 15 15 19
29.426 -1015.74 -1590 18 18 22
33.0086 -1016.41 -1591 18 18 22
36.7338 -1020.91 -1598 15 15 19
40.4656 -1024.78 -1604 15 15 19
44.1146 -1026.1 -1606 15 15 19
47.7733 -1027.42 -1608 15 15 19
51.4093 -1028.11 -1609 17 17 21
55.0845 -1029.44 -1611 16 16 20
58.8056 -1031.41 -1614 18 18 22
62.5409 -1033.38 -1617 18 18 22
66.5768 -1039.84 -1627 16 16 20
70.7012 -1046.93 -1638 15 15 19
-205.062 -1053.19 -1633 19 15 16
-199.003 -1040.74 -1614 17 13 15
-194.242 -1034.75 -1605 16 13 16
-190 -1031.34 -1600 15 15 17
-185.782 -1027.94 -1595 15 15 18
-181.475 -1023.9 -1589 15 15 19
-177.084 -1019.22 -1582 15 17 21
-172.618 -1013.89 -1574 18 20 24
-168.404 -1009.87 -1568 19 21 25
-164.114 -1005.2 -1561 19 21 26
-160.269 -1003.11 -1558 19 19 23
-156.54 -1001.67 -1556 18 17 24
-152.92 -1000.88 -1555 17 16 23
-149.402 -1000.74 -1555 18 17 23
-145.979 -1001.24 -1556 17 17 21
-142.462 -1001.1 -1556 17 17 21
-139.393 -1004.18 -1561 16 16 20
-136.128 -1005.98 -1564 17 17 20
-133.021 -1009.07 -1569 17 17 21
-129.975 -1012.8 -1575 17 17 19
-127.064 -1017.82 -1583 15 15 17
-123.727 -1019.63 -1586 12 12 14
-120.152 -1019.51 -1586 10 10 12
-116.871 -1021.97 -1590 12 12 14
-113.218 -1021.22 -1589 14 14 16
-109.984 -1024.33 -1594 15 15 17
-106.795 -1028.08 -1600 14 14 16
-103.194 -1027.98 -1600 14 14 16
-99.9046 -1031.09 -1605 14 14 16
-96.4739 -1032.93 -1608 13 13 15
-93.2617 -1037.33 -1615 13 13 15
-89.6304 -1037.25 -1615 12 12 14
-86.2129 -1039.73 -1619 12 12 14
-82.8804 -1043.5 -1625 14 14 16
-79.3268 -1044.71 -1627 14 14 16
-76.3695 -1054.27 -1642 16 16 18
-58.0078 -1055.23 -1644 16 12 13
-53.9553 -1048.12 -1633 16 12 13
-50.1067 -1044.22 -1627 16 13 14
-46.1998 -1038.4 -1618 16 13 14
-42.5969 -1039 -1619 15 12 13
-38.99 -1039.6 -1620 14 11 12
-35.2917 -1037.64 -1617 11 10 12
-31.705 -1038.89 -1619 10 10 13
-28.075 -1038.86 -1619 11 11 15
-24.4 -1036.91 -1616 14 14 18
-20.7772 -1036.89 -1616 15 14 20
-17.0273 -1029.17 -1604 15 14 21
-13.4152 -1027.88 -1602 14 14 18
-9.78757 -1024.01 -1596 14 14 18
-6.19472 -1021.44 -1592 14 14 18
-2.6215 -1019.51 -1589 14 14 18
0.938853 -1018.23 -1587 13 13 17
4.49024 -1016.95 -1585 13 13 17
8.04285 -1016.95 -1585 12 12 16
11.5809 -1015.68 -1583 13 13 17
15.1578 -1017.62 -1586 13 13 17
18.6896 -1016.35 -1584 11 11 15
22.2406 -1016.37 -1584 12 13 17
25.7915 -1016.39 -1584 13 13 17
29.3987 -1018.34 -1587 15 15 19
32.9985 -1019.66 -1589 15 15 19
36.7458 -1024.82 -1597 15 15 19
40.4283 -1027.43 -1601 15 15 19
44.1293 -1030.04 -1605 14 14 18
47.7295 -1030.08 -1605 15 15 19
51.4583 -1032.69 -1609 15 15 19
55.137 -1034.03 -1611 15 15 19
58.8617 -1036.01 -1614 16 16 20
62.6778 -1039.28 -1619 17 17 21
66.804 -1047.04 -1631 16 15 22
-200.058 -1049.92 -1621 16 13 15
-195.277 -1043.9 -1612 17 14 17
-190.658 -1038.53 -1604 15 15 17
-186.427 -1035.11 -1599 15 15 18
-181.878 -1029.76 -1591 14 15 19
-177.366 -1024.41 -1583 14 16 22
-173.113 -1020.35 -1577 18 20 24
-168.781 -1015.66 -1570 19 21 26
-164.377 -1010.33 -1562 20 22 28
-160.526 -1008.23 -1559 21 20 26
-156.489 -1004.84 -1554 21 20 27
-152.968 -1004.69 -1554 20 19 26
-149.353 -1003.9 -1553 20 19 25
-146.025 -1005.05 -1555 20 19 25
-142.782 -1006.85 -1558 17 17 22
-139.616 -1009.3 -1562 17 17 21
-136.52 -1012.4 -1567 18 18 22
-133.403 -1015.5 -1572 19 19 23
-130.347 -1019.25 -1578 16 16 20
-126.864 -1019.77 -1579 14 14 17
-123.612 -1022.24 -1583 12 12 14
-120.191 -1023.41 -1585 11 11 13
-116.836 -1025.23 -1588 13 13 15
-113.611 -1028.35 -1593 14 14 16
-110.365 -1031.47 -1598 15 15 17
-107.031 -1033.95 -1602 14 14 16
-103.551 -1035.14 -1604 12 12 14
-100.062 -1036.33 -1606 13 13 15
-96.6863 -1038.82 -1610 12 12 14
-93.293 -1041.31 -1614 12 12 14
-89.8826 -1043.8 -1618 12 12 14
-86.4019 -1045.65 -1621 12 12 14
-82.9085 -1047.51 -1624 13 13 15
-79.4513 -1050.01 -1628 13 13 15
-76.1632 -1055.09 -1636 14 14 16
-73.46 -1069.21 -1658 16 16 18
-58.2398 -1063.15 -1649 17 13 16
-54.106 -1054.72 -1636 19 15 16
-50.0928 -1047.58 -1625 18 15 16
-46.3297 -1044.95 -1621 17 14 15
-42.6375 -1043.62 -1619 18 15 16
-39.0272 -1044.23 -1620 15 12 13
-35.3472 -1042.9 -1618 12 11 13
-31.696 -1042.22 -1617 11 11 13
-28.0843 -1042.84 -1618 11 11 15
-24.4384 -1042.17 -1617 12 11 17
-20.7584 -1039.57 -1613 14 13 20
-17.1285 -1038.91 -1612 17 16 23
-13.4279 -1032.45 -1602 18 16 21
-9.81517 -1030.51 -1599 17 17 21
-6.20822 -1027.28 -1594 18 18 22
-2.6254 -1024.69 -1590 17 17 21
0.93923 -1022.12 -1586 15 15 19
4.48614 -1019.54 -1582 15 14 20
8.04561 -1020.83 -1584 14 13 20
11.5922 -1020.2 -1583 14 14 18
15.1534 -1020.86 -1584 15 15 19
18.6839 -1019.58 -1582 16 16 19
22.2617 -1020.89 -1584 16 16 18
25.7511 -1018.34 -1580 14 14 18
29.3526 -1020.3 -1583 15 15 19
33.0093 -1023.55 -1588 15 15 19
36.7349 -1028.1 -1595 16 16 20
40.3659 -1029.42 -1597 15 15 19
44.0613 -1032.04 -1601 14 14 18
47.7456 -1034.02 -1604 15 15 19
51.4115 -1035.36 -1606 15 15 19
55.1212 -1037.34 -1609 14 14 18
58.8816 -1039.98 -1613 15 15 19
62.6604 -1042.61 -1617 18 18 22
66.9088 -1052.35 -1632 16 18 24
-207.597 -1073.66 -1650 19 15 16
-200.622 -1056.54 -1624 16 13 15
-195.587 -1049.19 -1613 19 16 19
-190.961 -1043.8 -1605 15 15 17
-187.307 -1043.62 -1605 14 14 17
-182.397 -1036.29 -1594 13 14 18
-178.323 -1033.51 -1590 13 15 21
-173.939 -1028.79 -1583 16 18 22
-169.697 -1024.73 -1577 19 21 26
-165.063 -1018.07 -1567 21 23 29
-160.784 -1013.36 -1560 22 23 29
-156.741 -1009.96 -1555 22 21 28
-153.214 -1009.81 -1555 22 21 28
-149.593 -1009.02 -1554 22 21 29
-146.354 -1010.82 -1557 21 20 27
-143.011 -1011.98 -1559 20 19 25
-139.929 -1015.09 -1564 19 19 23
-137.175 -1020.8 -1573 19 19 23
-133.701 -1021.31 -1574 16 16 20
-130.555 -1024.43 -1579 15 15 19
-127.308 -1026.9 -1583 13 13 17
-123.653 -1026.13 -1582 13 13 15
-120.383 -1028.61 -1586 13 13 15
-117.096 -1031.09 -1590 15 15 17
-114.078 -1036.16 -1598 17 17 19
-110.817 -1039.3 -1603 16 16 18
-107.402 -1041.14 -1606 13 13 15
-103.909 -1042.33 -1608 12 12 14
-100.533 -1044.83 -1612 12 12 14
-96.8994 -1044.73 -1612 12 12 15
-93.3826 -1045.94 -1614 12 12 15
-89.8579 -1047.14 -1616 12 12 14
-86.3249 -1048.35 -1618 12 12 14
-82.8349 -1050.22 -1621 12 12 14
-79.381 -1052.73 -1625 14 14 16
-76.0964 -1057.84 -1633 15 15 19
-73.3087 -1070.72 -1653 15 15 18
-58.1542 -1065.29 -1645 18 14 17
-54.1248 -1058.76 -1635 17 13 14
-50.0792 -1050.94 -1623 16 13 14
-46.374 -1049.6 -1621 18 15 16
-42.652 -1047.61 -1618 21 18 19
-38.9681 -1046.28 -1616 19 16 17
-35.3591 -1046.89 -1617 13 12 14
-31.7067 -1046.21 -1616 12 12 15
-28.0417 -1044.89 -1614 12 12 16
-24.4314 -1045.51 -1615 11 10 17
-20.7268 -1041.6 -1609 12 11 18
-17.1236 -1042.23 -1610 15 14 21
-13.491 -1040.92 -1608 20 17 22
-9.82442 -1035.08 -1599 19 19 23
-6.21419 -1031.84 -1594 19 19 23
-2.63285 -1031.19 -1593 18 18 22
0.942574 -1029.25 -1590 19 19 23
4.49623 -1025.36 -1584 17 17 22
8.06874 -1027.31 -1587 19 19 23
11.6106 -1025.38 -1584 20 20 24
15.1776 -1026.04 -1585 19 19 23
18.69 -1023.47 -1581 19 19 22
22.2832 -1025.43 -1584 18 18 21
25.7923 -1023.51 -1581 18 18 22
29.4551 -1027.42 -1587 19 19 23
33.0619 -1028.75 -1589 19 19 23
36.7472 -1032.02 -1594 17 17 21
40.4553 -1035.29 -1599 16 16 20
44.1314 -1037.28 -1602 15 15 19
47.7317 -1037.32 -1602 16 16 20
51.3649 -1038.02 -1603 16 16 20
55.1744 -1041.95 -1609 16 16 20
58.9016 -1043.95 -1612 17 17 21
62.7982 -1048.54 -1619 17 17 21
66.9322 -1056.38 -1631 15 17 23
-209.058 -1084.96 -1660 19 14 15
-201.93 -1067.12 -1633 16 13 15
-196.748 -1059.08 -1621 18 15 20
-191.742 -1051.71 -1610 15 15 19
-187.606 -1048.91 -1606 14 14 18
-182.917 -1042.85 -1597 14 14 18
-178.721 -1039.41 -1592 13 15 19
-173.998 -1032.71 -1582 15 17 21
-169.862 -1029.28 -1577 19 21 26
-165.223 -1022.59 -1567 21 23 29
-161.147 -1019.17 -1562 21 23 29
-156.994 -1015.1 -1556 22 22 29
-153.264 -1013.65 -1554 23 22 29
-149.835 -1014.15 -1555 23 22 30
-146.872 -1017.92 -1561 22 21 28
-143.517 -1019.08 -1563 21 20 27
-140.692 -1024.16 -1571 20 19 25
-137.569 -1027.28 -1576 19 19 23
-134.256 -1029.11 -1579 15 15 19
-130.599 -1028.33 -1578 12 12 16
-127.189 -1029.51 -1580 13 13 17
-123.537 -1028.73 -1579 14 14 16
-120.347 -1031.87 -1584 14 14 16
-117.209 -1035.67 -1590 16 16 18
-113.974 -1038.81 -1595 16 16 18
-110.717 -1041.96 -1600 15 15 17
-107.371 -1044.46 -1604 13 13 15
-104.009 -1046.96 -1608 12 12 14
-100.505 -1048.16 -1610 11 11 13
-96.993 -1049.37 -1612 12 12 15
-93.5308 -1051.23 -1615 13 13 17
-90.0559 -1053.09 -1618 13 13 15
-86.515 -1054.31 -1620 12 12 14
-83.0683 -1056.83 -1624 12 12 14
-79.5065 -1058.05 -1626 14 14 17
-76.2165 -1063.18 -1634 16 16 20
-73.3351 -1074.82 -1652 14 14 17
-58.2457 -1070.66 -1646 18 15 17
-54.1439 -1062.8 -1634 17 13 14
-50.1892 -1056.9 -1625 16 13 14
-46.3901 -1053.6 -1620 18 15 16
-42.7459 -1053.56 -1620 21 18 19
-39.078 -1052.87 -1619 19 16 17
-35.3494 -1050.23 -1615 13 12 14
-31.7176 -1050.2 -1615 12 12 15
-28.0687 -1049.52 -1614 12 12 16
-24.4095 -1048.19 -1612 12 11 18
-20.708 -1044.27 -1606 12 11 18
-17.0656 -1042.3 -1603 13 12 19
-13.4367 -1040.34 -1600 16 13 18
-9.82777 -1039.03 -1598 16 16 20
-6.22386 -1037.07 -1595 18 18 22
-2.63204 -1034.46 -1591 20 20 24
0.943553 -1033.81 -1590 21 21 25
4.5092 -1031.86 -1587 22 20 25
8.08661 -1033.17 -1589 23 20 25
11.6293 -1030.58 -1585 23 23 27
15.1924 -1030.59 -1585 23 23 27
18.7201 -1028.66 -1582 22 22 26
22.2908 -1029.33 -1583 22 22 26
25.8499 -1029.35 -1583 21 21 25
29.4651 -1031.33 -1586 21 21 25
33.094 -1033.31 -1589 21 21 25
36.7366 -1035.3 -1592 18 18 22
40.4186 -1037.93 -1596 15 15 19
44.0637 -1039.28 -1598 15 15 19
47.778 -1041.92 -1602 17 17 21
51.5107 -1044.57 -1606 17 17 21
55.1934 -1045.92 -1608 18 18 22
58.9586 -1048.58 -1612 16 16 20
62.9754 -1055.15 -1622 15 15 19
67.1202 -1063.02 -1634 13 15 18
-202.994 -1076.45 -1640 16 13 14
-197.67 -1067.72 -1627 15 15 19
-192.645 -1060.31 -1616 15 15 19
-188.608 -1058.16 -1613 16 16 20
-184.243 -1054.04 -1607 15 15 19
-179.794 -1049.27 -1600 11 13 18
-175.049 -1042.54 -1590 12 14 18
-170.89 -1039.09 -1585 17 19 23
-165.595 -1028.44 -1569 21 23 29
-161.2 -1023.03 -1561 21 23 29
-157.147 -1019.6 -1556 22 22 29
-153.71 -1020.11 -1557 22 21 28
-150.077 -1019.3 -1556 22 21 29
-147.015 -1022.43 -1561 21 20 27
-144.116 -1026.88 -1568 19 18 25
-141.008 -1030.01 -1573 17 16 23
-137.441 -1029.87 -1573 16 15 21
-134.386 -1033.67 -1579 15 15 20
-130.726 -1032.89 -1578 14 14 18
-127.232 -1033.42 -1579 13 13 17
-123.814 -1034.6 -1581 14 14 17
-120.54 -1037.1 -1585 14 14 17
-117.47 -1041.56 -1592 14 14 16
-114.156 -1044.07 -1596 13 13 15
-110.963 -1047.88 -1602 10 10 12
-107.61 -1050.39 -1606 11 11 13
-104.305 -1053.56 -1611 12 12 14
-100.79 -1054.77 -1613 13 13 15
-97.0871 -1054.02 -1612 13 13 16
-93.6215 -1055.89 -1615 13 13 17
-90.1432 -1057.76 -1618 13 13 15
-86.4386 -1057.02 -1617 12 12 14
-82.9952 -1059.55 -1621 12 12 14
-79.6326 -1063.39 -1627 13 13 17
-76.3838 -1069.2 -1636 13 13 17
-73.3618 -1078.93 -1651 13 14 17
-58.2667 -1074.75 -1645 18 15 17
-54.1962 -1067.51 -1634 18 14 15
-50.1759 -1060.28 -1623 16 13 14
-46.3491 -1056.31 -1617 17 14 15
-42.708 -1056.27 -1617 19 16 17
-39.0675 -1056.23 -1617 17 15 16
-35.3398 -1053.58 -1613 14 13 15
-31.6697 -1052.24 -1611 13 13 15
-28.061 -1052.86 -1612 13 13 17
-24.3573 -1049.57 -1607 13 11 18
-20.715 -1048.24 -1605 11 9 15
-17.0714 -1046.27 -1602 12 11 17
-13.4329 -1043.64 -1598 13 11 16
-9.83731 -1043.63 -1598 13 13 17
-6.22987 -1041.66 -1595 16 16 20
-2.63952 -1041 -1594 19 19 23
0.945944 -1039.7 -1592 20 20 24
4.52219 -1038.39 -1590 22 22 26
8.09967 -1038.4 -1590 23 23 27
11.648 -1035.8 -1586 23 23 27
15.2167 -1035.81 -1586 23 23 27
18.7382 -1033.21 -1582 23 23 27
22.3124 -1033.89 -1583 22 22 26
25.8913 -1034.56 -1584 23 23 27
29.5309 -1037.2 -1588 21 21 25
33.1887 -1039.85 -1592 19 19 23
36.8878 -1043.15 -1597 16 16 20
40.5847 -1045.8 -1601 16 16 20
44.2446 -1047.15 -1603 17 17 21
47.9437 -1049.15 -1606 17 17 21
51.8177 -1054.43 -1614 19 19 23
55.4874 -1055.13 -1615 18 18 22
59.2357 -1057.15 -1618 18 18 22
63.1145 -1061.13 -1624 16 16 20
67.5143 -1072.95 -1642 15 15 17
-210.225 -1098.56 -1666 19 13 15
-203.441 -1082.54 -1642 15 12 13
-197.986 -1073.11 -1628 14 14 16
-192.953 -1065.67 -1617 16 16 20
-188.91 -1063.5 -1614 16 16 20
-184.653 -1060.02 -1609 15 15 19
-180.308 -1055.89 -1603 11 13 19
-175.661 -1049.79 -1594 12 14 18
-170.95 -1043.03 -1584 15 17 21
-166.074 -1034.97 -1572 18 20 25
-161.565 -1028.88 -1563 20 21 27
-157.604 -1026.09 -1559 21 21 27
-153.959 -1025.28 -1558 23 23 30
-150.417 -1025.13 -1558 21 21 29
-147.254 -1027.62 -1562 18 18 25
-143.889 -1028.79 -1564 16 17 23
-141.056 -1033.91 -1572 14 13 20
-137.401 -1033.12 -1571 13 12 18
-134.007 -1034.3 -1573 13 12 17
-130.522 -1034.83 -1574 12 12 15
-127.034 -1035.36 -1575 14 14 18
-123.778 -1037.87 -1579 15 15 19
-120.125 -1037.09 -1578 17 17 20
-117.142 -1042.23 -1586 15 15 17
-113.981 -1046.06 -1592 12 13 15
-110.794 -1049.89 -1598 11 12 14
-107.312 -1051.1 -1600 10 11 13
-104.082 -1054.94 -1606 12 13 15
-100.638 -1056.81 -1609 12 13 16
-97.1216 -1058.02 -1611 12 13 16
-93.5968 -1059.24 -1613 13 13 17
-90.287 -1063.09 -1619 13 13 15
-86.6298 -1063.01 -1619 13 13 14
-83.1787 -1065.55 -1623 13 13 14
-79.6613 -1067.44 -1626 13 13 16
-76.4115 -1073.27 -1635 14 14 18
-73.3443 -1082.39 -1649 15 15 19
-58.3944 -1080.82 -1647 16 13 15
-54.2823 -1072.89 -1635 16 14 12
-50.2248 -1064.97 -1623 16 13 14
-46.4229 -1061.64 -1618 16 14 15
-42.7232 -1060.28 -1616 17 17 19
-39.033 -1058.93 -1614 16 16 18
-35.3522 -1057.58 -1612 15 15 17
-31.6611 -1055.58 -1609 14 14 17
-28.0012 -1054.24 -1607 13 13 17
-24.3506 -1052.9 -1605 15 12 17
-20.6576 -1048.94 -1599 13 12 16
-17.0239 -1046.96 -1596 12 12 16
-13.4038 -1044.97 -1593 12 12 16
-9.80969 -1044.31 -1592 12 12 16
-6.22027 -1043.64 -1591 14 14 18
-2.63707 -1043.64 -1591 16 16 20
0.945744 -1042.98 -1590 18 18 22
4.52099 -1041.67 -1588 19 19 23
8.09747 -1041.68 -1588 21 21 25
11.6522 -1039.72 -1585 23 23 27
15.2124 -1039.08 -1584 23 23 27
18.7567 -1037.78 -1582 23 23 27
22.3344 -1038.46 -1583 23 23 27
25.9167 -1039.14 -1584 21 21 25
29.5783 -1042.45 -1589 20 20 24
33.2002 -1043.79 -1591 18 18 22
36.9007 -1047.1 -1596 16 16 20
40.6496 -1051.08 -1602 17 17 21
44.3983 -1054.4 -1607 17 17 21
48.0505 -1055.1 -1608 18 18 22
51.7719 -1057.12 -1611 20 20 24
55.5416 -1059.8 -1615 19 19 23
59.3302 -1062.48 -1619 17 17 21
63.3318 -1068.45 -1628 16 16 20
67.8272 -1081.64 -1648 15 15 17
-209.801 -1100.11 -1661 22 14 16
-203.394 -1086 -1640 17 12 15
-197.937 -1076.53 -1626 13 13 17
-193.263 -1071.04 -1618 13 12 19
-188.979 -1067.54 -1613 13 12 19
-185.294 -1067.36 -1613 15 14 21
-180.823 -1062.55 -1606 11 14 20
-176.276 -1057.08 -1598 14 15 19
-171.55 -1050.29 -1588 16 16 20
-166.661 -1042.19 -1576 17 17 21
-162.242 -1036.74 -1568 19 20 24
-157.86 -1031.29 -1560 20 21 26
-154.012 -1029.15 -1557 19 21 27
-150.758 -1030.98 -1560 17 19 26
-147.493 -1032.82 -1563 15 17 23
-144.123 -1034 -1565 15 17 23
-140.656 -1034.52 -1566 14 13 20
-137.185 -1035.04 -1567 11 11 15
-133.712 -1035.57 -1568 13 13 16
-130.484 -1038.08 -1572 14 14 16
-127.24 -1040.59 -1576 16 16 20
-123.9 -1042.45 -1579 17 17 21
-120.472 -1043.65 -1581 15 15 18
-117.109 -1045.52 -1584 13 13 16
-113.878 -1048.7 -1589 10 12 14
-110.694 -1052.55 -1595 10 12 14
-107.283 -1054.42 -1598 10 12 14
-104.119 -1058.94 -1605 10 12 15
-100.674 -1060.82 -1608 11 13 17
-97.2772 -1063.36 -1612 12 13 17
-93.6885 -1063.92 -1613 13 13 17
-90.2638 -1066.47 -1617 14 14 16
-86.6613 -1067.04 -1618 13 13 14
-83.2088 -1069.6 -1622 13 13 13
-79.6903 -1071.5 -1625 14 14 16
-76.5331 -1078.67 -1636 15 15 19
-73.4606 -1087.83 -1650 16 16 19
-58.4515 -1085.59 -1647 18 15 17
-54.2356 -1075.65 -1632 16 14 12
-50.243 -1069.01 -1622 15 12 13
-46.4108 -1065.01 -1616 18 16 18
-42.6591 -1062.33 -1612 19 19 21
-38.9016 -1058.99 -1607 17 17 19
-35.277 -1058.96 -1607 16 16 18
-31.5738 -1056.29 -1603 15 15 18
-27.9065 -1054.28 -1600 14 14 18
-24.2529 -1052.28 -1597 16 14 19
-20.626 -1050.94 -1595 15 14 18
-17.0298 -1050.92 -1595 14 14 18
-13.4168 -1049.59 -1593 14 14 18
-9.8131 -1048.26 -1591 13 13 17
-6.22632 -1048.25 -1591 12 12 16
-2.63772 -1047.59 -1590 13 13 17
0.945546 -1046.27 -1588 14 14 18
4.52265 -1045.61 -1587 14 14 18
8.09528 -1044.96 -1586 16 16 20
11.6563 -1043.65 -1584 20 20 24
15.2082 -1042.35 -1582 20 20 24
18.787 -1043.02 -1583 20 20 24
22.3846 -1044.36 -1585 22 22 26
25.9914 -1045.7 -1587 22 22 26
29.6447 -1048.37 -1591 18 18 22
33.3582 -1052.35 -1597 16 16 20
37.0527 -1055.02 -1601 17 17 21
40.7659 -1057.7 -1605 18 18 22
44.4697 -1059.72 -1608 19 19 23
48.1873 -1061.74 -1611 20 20 24
51.887 -1063.11 -1613 19 19 23
55.493 -1062.5 -1612 18 18 22
59.3517 -1066.51 -1618 15 15 19
63.4718 -1074.48 -1630 13 14 17
-210.642 -1108.3 -1666 23 14 14
-203.969 -1092.79 -1643 19 11 13
-198.743 -1084.61 -1631 15 12 17
-193.933 -1078.43 -1622 14 14 18
-189.284 -1072.92 -1614 14 13 18
-185.708 -1073.4 -1615 14 13 20
-181.453 -1069.9 -1610 12 14 20
-176.782 -1063.74 -1601 13 14 18
-171.936 -1056.26 -1590 14 14 18
-167.673 -1052.1 -1584 17 17 21
-162.713 -1043.3 -1571 18 19 24
-158.624 -1039.83 -1566 17 19 24
-154.758 -1037.68 -1563 14 16 22
-150.714 -1034.21 -1558 12 14 21
-147.355 -1035.39 -1560 11 13 19
-143.989 -1036.57 -1562 9 11 17
-140.525 -1037.09 -1563 9 8 15
-137.058 -1037.62 -1564 10 10 14
-133.673 -1038.81 -1566 12 12 16
-130.281 -1040.01 -1568 17 17 19
-126.881 -1041.21 -1570 17 18 22
-123.865 -1045.72 -1577 16 16 20
-120.362 -1046.27 -1578 14 14 18
-117.225 -1050.13 -1584 12 12 16
-113.703 -1050.68 -1585 11 12 14
-110.526 -1054.54 -1591 11 12 14
-107.188 -1057.09 -1595 11 12 14
-103.832 -1059.63 -1599 9 10 14
-100.335 -1060.86 -1601 10 11 15
-96.9501 -1063.41 -1605 11 12 16
-93.5483 -1065.97 -1609 13 13 17
-90.4087 -1071.84 -1618 14 14 16
-86.7466 -1071.75 -1618 13 13 15
-83.2908 -1074.31 -1622 13 13 14
-79.8669 -1077.55 -1627 14 14 16
-76.7957 -1086.08 -1640 15 15 19
-73.5774 -1093.29 -1651 16 16 19
-58.7576 -1095.01 -1654 18 14 17
-54.4554 -1083.7 -1637 17 14 15
-50.3234 -1074.38 -1623 17 14 15
-46.3989 -1068.38 -1614 18 16 18
-42.6215 -1065.03 -1609 19 19 21
-38.9157 -1063 -1606 20 17 20
-35.2237 -1060.98 -1603 18 17 20
-31.5259 -1058.3 -1599 17 16 19
-27.8989 -1057.61 -1598 16 16 20
-24.2311 -1054.93 -1594 15 15 19
-20.5945 -1052.93 -1591 15 15 19
-16.993 -1052.25 -1590 17 17 21
-13.3878 -1050.91 -1588 15 15 19
-9.80418 -1050.9 -1588 15 15 19
-6.22064 -1050.89 -1588 14 14 18
-2.63693 -1050.88 -1588 13 13 17
0.94535 -1049.56 -1586 12 12 16
4.52432 -1049.56 -1586 11 11 15
8.09821 -1048.91 -1585 12 12 16
11.6605 -1047.59 -1583 14 14 18
15.2521 -1048.93 -1585 16 16 20
18.8413 -1049.61 -1586 19 19 23
22.4492 -1050.95 -1588 20 20 24
26.0335 -1050.98 -1588 21 21 25
29.7299 -1054.98 -1594 18 18 22
33.3911 -1056.99 -1597 16 16 20
37.0198 -1057.69 -1598 17 17 21
40.8567 -1063.68 -1607 19 19 23
44.458 -1063.06 -1606 19 19 23
48.1451 -1064.43 -1608 20 20 24
51.745 -1063.82 -1607 19 19 23
55.5822 -1067.85 -1613 15 15 19
59.447 -1071.88 -1619 13 13 17
63.6124 -1080.54 -1632 13 13 17
-210.726 -1112.52 -1665 26 16 16
-203.551 -1094.27 -1638 20 12 14
-198.575 -1087.39 -1628 15 12 17
-193.887 -1081.85 -1620 12 12 16
-189.12 -1075.65 -1611 13 13 17
-185.778 -1077.47 -1614 11 11 15
-181.634 -1074.61 -1610 11 13 19
-177.4 -1071.1 -1605 14 15 20
-172.757 -1064.92 -1596 15 15 19
-168.793 -1062.74 -1593 15 15 19
-163.704 -1053.24 -1579 15 16 22
-159.39 -1048.41 -1572 15 17 23
