ply
format ascii 1.0
comment Created by Open3D
element vertex 1474
property double x
property double y
property double z
property uchar red
property uchar green
property uchar blue
end_header
-77.9116 -760.651 -1391 26 23 28
-75.2013 -763.871 -1397 26 23 28
-72.7239 -769.827 -1408 26 23 28
-70.7928 -782.345 -1431 23 19 24
-39.5517 -780.267 -1428 31 23 25
-36.0111 -770.949 -1411 28 20 22
-32.7316 -766.004 -1402 26 21 22
-29.4916 -761.062 -1393 31 26 29
-26.405 -759.401 -1390 33 29 32
-23.298 -756.65 -1385 31 28 31
-20.2423 -754.994 -1382 32 29 32
-17.1998 -753.34 -1379 30 27 30
-14.2117 -753.873 -1380 28 25 28
-11.1868 -752.225 -1377 26 23 26
-8.18121 -751.125 -1375 23 20 24
-5.18418 -750.027 -1373 24 21 26
-2.19447 -748.385 -1370 22 19 22
0.781613 -746.199 -1366 21 18 21
3.75147 -746.201 -1366 24 21 24
6.70642 -744.567 -1363 30 27 31
9.64838 -742.935 -1360 34 31 36
12.5961 -742.397 -1359 34 31 35
15.5281 -741.316 -1357 34 30 33
18.4651 -740.783 -1356 33 30 33
21.4453 -741.891 -1358 33 30 33
24.3984 -741.91 -1358 30 27 30
27.3721 -742.477 -1359 31 28 33
30.3055 -741.953 -1358 31 28 33
33.2351 -741.432 -1357 32 29 34
36.1337 -740.367 -1355 30 27 30
39.1395 -741.49 -1357 29 26 30
42.0924 -741.522 -1357 29 26 30
45.0788 -742.103 -1358 28 26 31
48.07 -742.687 -1359 28 27 34
51.0284 -742.726 -1359 28 27 34
54.1066 -744.408 -1362 27 26 33
57.1145 -744.999 -1363 26 26 28
60.1273 -745.592 -1364 28 26 30
63.2376 -747.281 -1367 26 23 28
66.41 -749.519 -1371 23 23 25
69.651 -752.307 -1376 25 23 24
72.8089 -754.004 -1379 28 25 26
76.0355 -756.25 -1383 29 26 29
79.2233 -757.953 -1386 30 26 29
82.5434 -760.752 -1391 26 22 25
86.1938 -766.288 -1401 29 25 28
89.8888 -771.828 -1411 39 31 35
-203.924 -782.569 -1416 36 18 18
-198.511 -773.565 -1400 35 23 26
-193.451 -765.672 -1386 33 24 28
-189.415 -761.651 -1379 32 25 29
-185.819 -759.291 -1375 29 22 26
-181.975 -755.829 -1369 26 21 24
-178.03 -751.82 -1362 29 24 27
-175.145 -752.23 -1363 30 26 29
-171.121 -747.676 -1355 29 25 28
-167.878 -746.435 -1353 29 26 29
-165.012 -746.853 -1354 30 27 30
-161.903 -746.17 -1353 30 27 30
-158.8 -745.49 -1352 30 27 30
-155.818 -745.363 -1352 32 29 32
-152.838 -745.239 -1352 33 30 33
-149.527 -743.464 -1349 35 32 35
-146.339 -742.243 -1347 35 32 35
-143.162 -741.025 -1345 35 32 35
-139.994 -739.809 -1343 34 33 34
-137.041 -739.698 -1343 34 34 34
-134.089 -739.589 -1343 34 34 34
-131.334 -740.584 -1345 35 33 34
-128.571 -741.581 -1347 36 33 35
-125.894 -743.131 -1350 36 33 38
-123.022 -743.581 -1351 34 31 36
-120.326 -745.135 -1354 32 29 34
-117.444 -745.59 -1355 29 26 32
-114.389 -744.946 -1354 26 23 28
-111.588 -745.956 -1356 22 19 24
-108.698 -746.418 -1357 20 17 22
-105.805 -746.882 -1358 23 20 25
-103.06 -748.449 -1361 27 24 29
-100.156 -748.917 -1362 30 27 32
-97.3192 -749.938 -1364 33 30 35
-94.4751 -750.961 -1366 34 31 36
-91.5562 -751.436 -1367 34 31 36
-88.8282 -753.563 -1371 35 32 37
-86.2086 -756.79 -1377 33 30 35
-83.443 -758.921 -1381 28 25 30
-80.6606 -761.053 -1385 25 22 27
-77.9737 -764.287 -1391 26 23 28
-75.2073 -766.973 -1396 27 24 29
-72.6267 -771.858 -1405 27 24 29
-70.7502 -784.985 -1429 24 21 26
-39.4723 -781.8 -1424 33 24 26
-36.0398 -774.633 -1411 29 22 24
-32.6642 -767.468 -1398 26 20 21
-29.4939 -764.15 -1392 28 24 25
-26.3689 -761.383 -1387 32 28 29
-23.2996 -759.716 -1384 31 28 31
-20.2436 -758.052 -1381 34 30 33
-17.1885 -755.841 -1377 34 30 33
-14.1817 -755.28 -1376 33 29 32
-11.1632 -753.623 -1373 29 26 29
-8.16987 -753.067 -1372 27 24 29
-5.17695 -751.964 -1370 26 23 28
-2.19455 -751.412 -1369 24 21 24
0.782905 -750.314 -1367 22 19 22
3.75167 -749.218 -1365 23 20 23
6.71175 -748.124 -1363 28 25 28
9.66336 -747.033 -1361 32 29 33
12.6154 -746.493 -1360 33 30 35
15.5518 -745.407 -1358 34 30 35
18.4934 -744.872 -1357 33 30 33
21.4624 -745.437 -1358 32 29 32
24.3999 -744.906 -1357 31 28 31
27.3738 -745.476 -1358 30 27 32
30.3074 -744.95 -1357 30 27 32
33.286 -745.524 -1358 30 27 32
36.2427 -745.552 -1358 29 26 29
39.1997 -745.582 -1358 30 27 30
42.2191 -746.713 -1360 30 27 30
45.1813 -746.748 -1360 28 28 32
48.073 -745.687 -1358 28 27 34
51.0692 -746.276 -1359 28 27 34
54.0702 -746.867 -1360 27 26 33
57.16 -748.559 -1363 26 26 28
60.2635 -750.254 -1366 26 25 29
63.5196 -753.599 -1372 25 24 28
66.56 -754.2 -1373 23 23 25
69.7065 -755.903 -1376 27 24 25
72.867 -757.608 -1379 28 25 26
76.0964 -759.865 -1383 29 25 28
79.2293 -761.026 -1385 28 24 27
82.5499 -763.838 -1390 25 21 24
86.2011 -769.401 -1400 31 27 30
-197.962 -774.484 -1395 35 23 26
-193.467 -768.773 -1385 34 24 28
-189.156 -763.623 -1376 32 24 28
-185.834 -762.362 -1374 32 25 29
-182.122 -759.438 -1369 29 22 26
-178.435 -756.519 -1364 29 22 26
-174.772 -753.603 -1359 28 24 27
-171.259 -751.245 -1355 28 25 28
-167.889 -749.444 -1352 28 25 28
-164.901 -749.31 -1352 28 25 28
-161.914 -749.178 -1352 28 25 28
-158.928 -749.048 -1352 28 25 28
-156.059 -749.475 -1353 28 25 28
-152.735 -747.688 -1350 30 27 30
-149.426 -745.904 -1347 33 30 33
-146.24 -744.678 -1345 34 31 34
-143.064 -743.454 -1343 35 32 35
-139.794 -741.679 -1340 34 33 34
-136.947 -742.121 -1341 33 33 33
-134.097 -742.565 -1342 33 33 33
-131.146 -742.458 -1342 34 32 33
-128.388 -743.459 -1344 35 32 33
-125.715 -745.016 -1347 35 32 37
-122.939 -746.022 -1349 32 29 34
-120.245 -747.583 -1352 30 27 32
-117.365 -748.04 -1353 25 22 29
-114.397 -747.947 -1353 23 20 25
-111.677 -749.514 -1356 22 19 24
-108.785 -749.978 -1357 23 20 25
-105.968 -750.997 -1359 26 23 28
-103.067 -751.466 -1360 30 27 32
-100.162 -751.937 -1361 32 29 34
-97.2544 -752.409 -1362 35 32 37
-94.4817 -753.989 -1365 34 31 36
-91.6966 -755.572 -1368 35 32 37
-89.029 -758.26 -1373 34 31 36
-86.2778 -760.399 -1377 30 27 32
-83.4494 -761.987 -1380 26 23 28
-80.667 -764.13 -1384 26 22 27
-77.8117 -765.723 -1387 27 24 29
-75.1598 -769.526 -1394 28 25 30
-72.6332 -774.986 -1404 26 23 28
-39.3651 -782.768 -1419 34 26 28
-35.9407 -775.567 -1406 29 22 23
-32.6903 -771.127 -1398 26 20 21
-29.4962 -767.241 -1391 26 22 23
-26.409 -765.564 -1388 31 27 29
-23.3182 -763.338 -1384 30 27 30
-20.2451 -761.114 -1380 33 29 31
-17.1772 -758.341 -1375 34 30 32
-14.1827 -758.329 -1375 33 29 32
-11.1558 -756.113 -1371 30 27 30
-8.15835 -755.002 -1369 28 25 29
-5.16972 -753.894 -1367 27 24 28
-2.19464 -754.442 -1368 26 23 26
0.782481 -752.788 -1365 24 21 24
3.75205 -752.238 -1364 21 18 21
6.71235 -751.139 -1362 22 19 22
9.67111 -750.594 -1361 27 24 29
12.6163 -749.5 -1359 31 27 32
15.5529 -748.409 -1357 34 30 35
18.481 -747.319 -1355 33 30 33
21.4639 -748.438 -1357 32 29 32
24.4016 -747.905 -1356 33 30 33
27.3554 -747.926 -1356 31 28 33
30.287 -747.398 -1355 30 27 32
33.2882 -748.526 -1357 30 27 31
36.2184 -748.003 -1356 28 26 28
39.2022 -748.585 -1357 29 27 29
42.1597 -748.617 -1357 28 27 29
45.151 -749.204 -1358 27 27 31
48.0761 -748.69 -1357 26 25 32
51.1102 -749.833 -1359 28 28 33
54.1932 -751.531 -1362 29 29 33
57.2899 -753.231 -1365 26 26 29
60.3561 -754.382 -1367 23 23 27
63.5705 -757.192 -1372 22 22 26
66.6133 -757.796 -1373 22 22 24
69.6612 -758.403 -1374 24 23 25
72.8726 -760.668 -1378 27 25 27
76.1024 -762.936 -1382 28 25 28
79.3502 -765.207 -1386 24 23 25
82.6163 -767.48 -1390 24 23 25
86.1471 -771.966 -1398 29 28 30
-197.555 -775.942 -1391 34 22 25
-193.485 -771.878 -1384 34 23 27
-189.172 -766.703 -1375 31 23 27
-185.579 -764.321 -1371 31 24 28
-182.404 -763.613 -1370 29 22 26
-178.58 -760.122 -1364 29 22 26
-175.043 -757.749 -1360 28 24 27
-171.525 -755.38 -1356 28 25 28
-167.901 -752.457 -1351 28 25 28
-165.279 -753.992 -1354 28 25 28
-161.925 -752.188 -1351 29 26 29
-159.175 -753.171 -1353 28 25 28
-156.07 -752.487 -1352 27 24 27
-153.199 -752.917 -1353 28 25 28
-149.658 -750.012 -1348 31 28 31
-146.467 -748.779 -1346 31 28 31
-143.18 -746.993 -1343 34 31 34
-140.012 -745.766 -1341 33 31 33
-137.16 -746.209 -1342 32 32 32
-134.106 -745.543 -1341 33 33 33
-131.35 -746.547 -1343 35 33 34
-128.683 -748.11 -1346 37 34 35
-125.91 -749.118 -1348 33 30 35
-123.13 -750.128 -1350 28 25 30
-120.342 -751.141 -1352 27 24 29
-117.459 -751.6 -1353 23 20 26
-114.489 -751.506 -1353 21 18 23
-111.602 -751.97 -1354 23 20 25
-108.632 -751.881 -1354 26 24 29
-105.897 -753.46 -1357 30 27 32
-102.998 -753.931 -1358 33 30 35
-100.096 -754.404 -1359 34 31 36
-97.3329 -755.989 -1362 33 31 36
-94.4886 -757.022 -1364 34 31 36
-91.7706 -759.166 -1368 36 33 38
-89.036 -761.313 -1372 34 31 36
-86.3474 -764.016 -1377 29 26 31
-83.5166 -765.612 -1380 26 23 28
-80.7319 -767.765 -1384 28 25 30
-77.8744 -769.365 -1387 29 27 32
-75.2203 -773.186 -1394 27 25 30
-72.7952 -779.782 -1406 24 21 26
-35.9185 -778.147 -1404 30 22 24
-32.6932 -774.24 -1397 27 21 22
-29.4986 -770.335 -1390 28 22 23
-26.4112 -768.65 -1387 32 27 28
-23.3201 -766.413 -1383 31 27 30
-20.232 -763.625 -1378 31 27 29
-17.166 -760.839 -1373 32 29 31
-14.1734 -760.827 -1373 32 29 32
-11.1403 -758.046 -1368 32 29 32
-8.15894 -758.038 -1368 30 27 30
-5.17762 -758.033 -1368 30 27 30
-2.19634 -758.03 -1368 29 26 29
0.782632 -755.813 -1364 26 23 26
3.75225 -755.261 -1363 25 22 25
6.71279 -754.157 -1361 25 22 25
9.66466 -753.055 -1359 26 23 27
12.6265 -753.064 -1359 28 25 29
15.5654 -751.968 -1357 31 28 31
18.496 -750.873 -1355 32 29 32
21.4494 -750.889 -1355 33 30 33
24.4212 -751.462 -1356 32 29 32
27.337 -750.374 -1354 33 29 32
30.2892 -750.398 -1354 30 27 30
33.315 -752.086 -1357 30 27 30
36.2744 -752.114 -1357 29 29 31
39.2917 -753.253 -1359 28 28 29
42.2249 -752.732 -1358 27 27 29
45.2207 -753.322 -1359 27 27 31
48.115 -752.251 -1357 27 27 31
51.1137 -752.845 -1358 27 27 31
54.1574 -753.997 -1360 27 27 30
57.2941 -756.259 -1364 26 26 30
60.449 -758.525 -1368 24 24 28
63.5755 -760.239 -1371 22 22 26
66.7157 -761.955 -1374 22 22 24
69.7682 -762.565 -1375 24 24 26
72.8785 -763.731 -1377 27 26 28
75.9984 -764.901 -1379 27 24 27
79.4142 -768.847 -1386 23 23 25
82.6234 -770.577 -1389 22 22 24
86.2783 -776.193 -1399 26 25 27
-198.428 -782.433 -1396 35 23 26
-193.923 -776.668 -1386 33 23 26
-189.603 -771.468 -1377 31 23 27
-186.272 -770.194 -1375 31 24 28
-182.553 -767.242 -1370 29 22 26
-179.119 -765.414 -1367 28 21 25
-175.314 -761.91 -1361 28 24 27
-171.791 -759.528 -1357 29 26 29
-168.163 -756.591 -1352 29 26 29
-165.291 -757.015 -1353 30 27 30
-162.057 -755.762 -1351 28 25 28
-159.069 -755.63 -1351 28 25 28
-156.198 -756.061 -1352 27 24 27
-153.097 -755.375 -1351 28 25 28
-149.78 -753.575 -1348 30 27 30
-146.477 -751.777 -1345 30 27 30
-143.403 -751.099 -1344 32 29 32
-140.125 -749.307 -1341 32 30 32
-137.272 -749.753 -1342 31 31 31
-134.115 -748.525 -1340 31 31 31
-131.359 -749.534 -1342 33 31 33
-128.596 -750.545 -1344 36 33 36
-125.919 -752.116 -1347 32 29 34
-123.23 -753.69 -1350 26 23 28
-120.261 -753.591 -1350 25 22 27
-117.468 -754.61 -1352 22 19 25
-114.413 -753.958 -1351 21 20 24
-111.611 -754.982 -1353 25 24 28
-108.64 -754.892 -1353 28 27 32
-105.827 -755.921 -1355 31 29 34
-102.93 -756.394 -1356 33 30 35
-100.03 -756.869 -1357 33 30 35
-97.3404 -759.02 -1361 30 29 34
-94.6346 -761.172 -1365 33 31 36
-91.845 -762.769 -1368 35 32 37
-89.238 -766.041 -1374 33 30 35
-86.4801 -768.2 -1378 29 26 31
-83.5843 -769.246 -1380 26 23 28
-80.6806 -770.294 -1382 29 26 31
-77.8252 -771.901 -1385 31 29 34
-75.1192 -775.183 -1391 27 25 30
-72.6469 -781.253 -1402 24 21 26
-35.9219 -781.282 -1403 28 20 22
-32.6961 -777.356 -1396 27 19 21
-29.5224 -773.99 -1390 25 21 22
-26.4134 -771.74 -1386 28 23 24
-23.322 -769.492 -1382 30 26 28
-20.2483 -767.248 -1378 31 28 31
-17.1673 -763.892 -1372 32 29 32
-14.1641 -763.323 -1371 32 29 32
-11.1411 -761.085 -1367 32 29 32
-8.16551 -761.634 -1368 30 27 30
-5.17418 -760.515 -1366 31 28 31
-2.19483 -760.512 -1366 32 29 32
0.782602 -758.842 -1363 29 26 29
3.7554 -758.844 -1363 27 24 27
6.71836 -757.735 -1361 26 23 26
9.67264 -756.628 -1359 26 23 26
12.6276 -756.08 -1358 27 24 27
15.5553 -754.421 -1355 30 27 30
18.4837 -753.322 -1353 33 30 33
21.4352 -753.338 -1353 32 29 32
24.387 -753.356 -1353 30 27 30
27.339 -753.377 -1353 30 26 29
30.2912 -753.401 -1353 29 26 29
33.293 -754.54 -1355 30 27 30
36.277 -755.126 -1356 28 28 30
39.2947 -756.27 -1358 27 27 27
42.197 -755.19 -1356 27 27 29
45.1908 -755.782 -1357 26 26 30
48.083 -754.706 -1355 26 26 30
51.1175 -755.86 -1357 26 26 30
54.1613 -757.017 -1359 26 26 30
57.2985 -759.291 -1363 26 26 30
60.4095 -761.01 -1366 24 24 28
63.4415 -761.617 -1367 22 22 25
66.5753 -763.341 -1370 22 22 24
69.6216 -763.954 -1371 24 24 26
72.8846 -766.798 -1376 27 26 29
76.1151 -769.088 -1380 27 24 27
79.3641 -771.381 -1384 22 22 24
82.6311 -773.676 -1388 22 21 23
86.7186 -783.221 -1405 27 25 28
-198.733 -786.707 -1397 35 20 22
-193.662 -778.662 -1383 36 23 25
-189.483 -774 -1375 34 26 28
-186.29 -773.283 -1374 34 27 31
-182.569 -770.317 -1369 31 25 29
-179.135 -768.48 -1366 29 24 29
-175.716 -766.647 -1363 28 24 27
-172.185 -764.254 -1359 29 25 28
-168.176 -759.615 -1351 31 27 30
-165.549 -761.165 -1354 30 27 32
-162.07 -758.782 -1350 30 27 31
-159.199 -759.212 -1351 29 26 29
-156.094 -758.52 -1350 30 26 29
-153.222 -758.955 -1351 29 26 29
-149.791 -756.584 -1347 28 25 28
-146.815 -756.462 -1347 29 26 29
-143.52 -754.658 -1344 33 30 33
-140.031 -751.735 -1339 33 31 33
-137.077 -751.621 -1339 30 30 30
-134.124 -751.51 -1339 29 29 29
-131.27 -751.962 -1340 30 29 30
-128.605 -753.539 -1343 33 30 33
-125.928 -755.118 -1346 29 26 31
-123.239 -756.699 -1349 23 20 25
-120.36 -757.16 -1350 23 20 25
-117.477 -757.624 -1351 24 21 28
-114.506 -757.529 -1351 28 25 29
-111.619 -757.997 -1352 29 26 29
-108.648 -757.907 -1352 28 25 30
-105.835 -758.94 -1354 30 27 32
-102.938 -759.415 -1355 33 30 35
-100.037 -759.893 -1356 32 29 34
-97.3481 -762.053 -1360 32 29 34
-94.6423 -764.216 -1364 32 29 34
-91.987 -766.941 -1369 33 30 35
-89.3107 -769.668 -1374 31 28 33
-86.5505 -771.837 -1378 29 26 31
-83.6524 -772.887 -1380 27 24 29
-80.7463 -773.941 -1382 30 27 32
-78.001 -776.676 -1387 30 27 32
-75.1804 -778.853 -1391 25 22 27
-72.8617 -786.631 -1405 22 19 24
-35.951 -784.98 -1403 29 21 23
-32.6758 -779.916 -1394 28 20 22
-29.5252 -777.094 -1389 24 20 21
-26.4158 -774.833 -1385 26 22 23
-23.324 -772.575 -1381 30 26 28
-20.2794 -771.439 -1379 32 29 32
-17.2062 -768.626 -1374 33 30 33
-14.186 -767.495 -1372 33 30 33
-11.1663 -765.806 -1369 31 28 31
-8.17211 -765.239 -1368 31 28 31
-5.17454 -763.556 -1365 32 29 32
-2.19493 -763.553 -1365 32 29 32
0.783332 -762.433 -1363 30 27 30
3.75305 -761.316 -1361 28 25 28
6.71883 -760.761 -1360 27 24 27
9.68047 -760.209 -1359 25 22 25
12.6378 -759.658 -1358 27 24 27
15.5679 -757.992 -1355 30 27 30
18.5261 -758.006 -1355 31 28 31
21.4528 -756.903 -1353 30 27 30
24.4069 -756.922 -1353 28 25 28
27.3613 -756.943 -1353 30 26 29
30.3159 -756.967 -1353 30 27 30
33.3448 -758.671 -1356 30 28 31
36.3334 -759.259 -1357 29 29 31
39.2977 -759.29 -1357 28 28 30
42.2002 -758.204 -1355 28 28 31
45.2275 -759.359 -1357 28 28 32
48.0866 -757.719 -1354 28 28 32
51.0839 -758.319 -1355 27 27 31
54.1258 -759.481 -1357 25 25 29
57.3031 -762.325 -1362 25 25 29
60.3703 -763.493 -1364 24 24 28
63.4932 -765.223 -1367 22 22 25
66.6784 -767.515 -1371 23 23 25
69.6784 -767.571 -1371 25 25 27
72.8381 -769.309 -1374 27 26 28
76.0116 -771.049 -1377 26 25 27
79.3138 -773.913 -1382 23 23 25
82.8175 -778.459 -1390 25 23 25
86.4805 -784.129 -1400 28 25 28
90.3801 -791.483 -1413 36 29 33
-197.901 -786.468 -1390 36 19 20
-193.262 -780.083 -1379 37 21 23
-189.363 -776.53 -1373 36 26 28
-185.765 -774.113 -1369 36 29 33
-182.32 -772.265 -1366 31 25 30
-179.283 -772.115 -1366 28 24 29
-175.603 -769.142 -1361 27 23 26
-171.947 -766.173 -1356 27 23 26
-168.564 -764.337 -1353 31 27 30
-165.563 -764.199 -1353 33 30 35
-162.083 -761.805 -1349 32 29 33
-159.095 -761.672 -1349 29 26 29
-156.107 -761.542 -1349 28 24 27
-152.894 -760.286 -1347 28 25 28
-149.803 -759.596 -1346 29 26 29
-146.827 -759.474 -1346 29 26 29
-143.532 -757.662 -1343 32 29 32
-140.355 -756.416 -1341 33 31 33
-137.19 -755.174 -1339 30 30 30
-134.034 -753.934 -1337 29 29 29
-131.182 -754.389 -1338 30 29 30
-128.424 -755.409 -1340 31 28 31
-125.844 -757.56 -1344 26 23 28
-123.157 -759.148 -1347 22 19 24
-120.28 -759.611 -1348 23 20 25
-117.486 -760.64 -1350 26 23 30
-114.515 -760.545 -1350 30 27 31
-111.545 -760.452 -1350 30 27 30
-108.577 -760.361 -1350 29 26 31
-105.844 -761.963 -1353 31 28 33
-102.87 -761.877 -1353 34 31 36
-100.119 -763.483 -1356 34 31 36
-97.3562 -765.091 -1359 32 29 34
-94.7199 -767.827 -1364 32 29 34
-91.9279 -769.439 -1367 30 27 32
-89.3188 -772.741 -1373 30 27 32
-86.4328 -773.795 -1375 28 25 30
-83.5995 -775.413 -1378 29 26 31
-80.7539 -777.034 -1381 31 28 33
-77.9522 -779.219 -1385 29 26 31
-75.1878 -781.969 -1390 23 20 25
-73.0251 -791.472 -1407 21 18 23
-35.9035 -787 -1400 29 21 23
-32.726 -784.162 -1395 28 20 22
-29.5705 -781.325 -1390 25 20 21
-26.4564 -779.054 -1386 26 22 23
-23.3769 -777.348 -1383 29 25 28
-20.2813 -774.519 -1378 33 30 33
-17.2203 -772.256 -1374 35 32 35
-14.1871 -770.557 -1371 35 32 35
-11.1591 -768.298 -1367 31 28 31
-8.16081 -767.166 -1365 32 29 32
-5.17491 -766.599 -1364 31 28 31
-2.192 -765.472 -1362 30 27 30
0.782913 -764.909 -1361 29 26 29
3.75623 -764.912 -1361 29 26 29
6.7195 -763.792 -1359 28 25 28
9.67426 -762.675 -1357 25 22 25
12.6297 -762.122 -1356 26 23 26
15.5691 -761.009 -1354 29 26 29
18.5003 -759.899 -1352 32 29 32
21.4386 -759.354 -1351 33 30 33
24.4268 -760.496 -1353 30 27 30
27.3837 -760.518 -1353 30 27 30
30.3408 -760.541 -1353 29 27 30
33.3475 -761.692 -1355 28 28 30
36.3095 -761.721 -1355 28 28 30
39.2429 -761.19 -1354 29 29 31
42.1412 -760.098 -1352 29 29 32
45.1979 -761.821 -1355 29 29 33
48.0905 -760.735 -1353 28 28 32
51.0881 -761.338 -1354 27 27 31
54.1303 -762.506 -1356 25 25 29
57.308 -765.363 -1361 24 24 28
60.3311 -765.974 -1362 24 24 28
63.4988 -768.274 -1366 24 24 27
66.6843 -770.578 -1370 25 25 27
69.7864 -771.759 -1372 25 25 27
72.8978 -772.943 -1374 26 26 28
76.074 -774.691 -1377 24 24 26
79.4364 -778.131 -1383 23 23 25
82.7662 -781.011 -1388 25 23 26
86.7988 -790.084 -1404 29 25 29
90.3903 -794.659 -1412 35 28 32
-193.423 -783.765 -1379 37 21 23
-189.245 -779.059 -1371 35 25 27
-185.783 -777.199 -1368 32 25 29
-182.337 -775.341 -1365 30 24 28
-179.3 -775.191 -1365 26 22 27
-175.878 -773.34 -1362 26 22 25
-172.47 -771.491 -1359 29 25 28
-168.704 -767.944 -1353 32 28 31
-165.578 -767.238 -1352 33 30 35
-162.097 -764.832 -1348 32 29 33
-158.99 -764.131 -1347 30 27 30
-156.005 -764 -1347 28 25 28
-153.021 -763.872 -1347 29 26 29
-149.927 -763.179 -1346 29 26 29
-146.948 -763.056 -1346 31 28 31
-143.757 -761.802 -1344 32 29 32
-140.471 -759.984 -1341 33 31 33
-137.2 -758.169 -1338 30 30 30
-134.345 -758.623 -1339 28 28 28
-131.389 -758.513 -1339 29 28 29
-128.625 -759.538 -1341 27 24 27
-126.042 -761.698 -1345 24 21 26
-123.259 -762.727 -1347 23 20 24
-120.29 -762.627 -1347 26 23 26
-117.409 -763.094 -1348 30 27 34
-114.525 -763.565 -1349 32 29 33
-111.472 -762.905 -1348 32 29 32
-108.586 -763.38 -1349 30 27 32
-105.774 -764.423 -1351 29 26 31
-102.879 -764.903 -1352 31 28 33
-99.9802 -765.385 -1353 33 30 35
-97.3647 -768.131 -1358 31 28 33
-94.7283 -770.88 -1363 30 27 32
-92.0036 -773.065 -1367 27 24 29
-89.2622 -775.252 -1371 26 23 28
-86.4411 -776.876 -1374 29 26 31
-83.5469 -777.937 -1376 30 27 32
-80.7033 -779.565 -1379 30 27 32
-77.9601 -782.326 -1384 26 23 28
-75.4662 -787.915 -1394 22 19 24
-72.9812 -794.071 -1405 21 18 23
-35.933 -790.708 -1400 28 20 22
-32.7293 -787.291 -1394 29 21 23
-29.6161 -785.571 -1391 27 23 25
-26.5163 -783.854 -1388 26 22 24
-23.413 -781.575 -1384 27 23 26
-20.3126 -778.733 -1379 30 27 30
-17.2719 -777.588 -1377 33 30 33
-14.1987 -774.187 -1371 33 30 33
-11.1764 -772.483 -1368 33 30 33
-8.17343 -771.345 -1366 32 29 32
-5.18289 -770.775 -1365 30 27 30
-2.19372 -769.078 -1362 28 25 28
0.783648 -768.513 -1361 27 24 27
3.75647 -767.951 -1360 28 25 28
6.73007 -767.955 -1360 29 26 29
9.68214 -766.268 -1357 27 24 27
12.6493 -766.277 -1357 27 24 27
15.6051 -765.724 -1356 30 27 30
18.5429 -764.609 -1354 32 29 32
21.5038 -764.625 -1354 32 29 32
24.4651 -764.644 -1354 30 27 30
27.4266 -764.666 -1354 29 26 29
30.4108 -765.254 -1355 27 27 29
33.375 -765.281 -1355 28 28 30
36.3394 -765.309 -1355 29 29 31
39.3044 -765.341 -1355 29 29 31
42.1759 -763.68 -1352 29 29 32
45.1685 -764.281 -1353 29 29 33
48.1302 -764.319 -1353 28 28 32
51.0923 -764.36 -1353 27 27 31
54.1749 -766.099 -1356 27 27 31
57.3132 -768.405 -1360 25 25 29
60.4253 -770.148 -1363 23 23 27
63.6441 -773.025 -1368 24 24 28
66.7393 -774.209 -1370 26 26 28
69.8948 -775.961 -1373 25 25 27
72.9579 -776.585 -1374 25 25 27
76.0814 -777.777 -1376 23 23 25
79.502 -781.798 -1383 22 22 24
82.8942 -785.257 -1389 24 21 24
86.2518 -788.154 -1394 27 23 26
89.9522 -793.881 -1404 33 26 30
-193.303 -786.314 -1377 38 21 23
-188.85 -780.445 -1367 34 24 26
-185.803 -780.288 -1367 31 23 27
-182.222 -777.851 -1363 30 23 27
-178.924 -776.559 -1361 27 23 28
-175.508 -774.699 -1358 26 22 25
-172.106 -772.842 -1355 27 23 26
-168.595 -770.419 -1351 30 26 29
-165.226 -768.569 -1348 31 28 33
-161.992 -767.292 -1346 31 28 32
-158.886 -766.588 -1345 31 28 31
-155.903 -766.457 -1345 30 27 30
-152.693 -765.188 -1343 30 27 30
-149.717 -765.062 -1343 31 28 31
-146.852 -765.508 -1344 31 28 31
-143.77 -764.817 -1343 31 28 31
-140.483 -762.991 -1340 33 30 33
-137.314 -761.736 -1338 32 30 30
-134.457 -762.192 -1339 28 28 28
-131.4 -761.512 -1338 28 27 28
-128.732 -763.111 -1341 25 22 25
-125.959 -764.143 -1343 23 20 25
-123.178 -765.178 -1345 26 23 27
-120.211 -765.076 -1345 29 26 29
-117.332 -765.547 -1346 31 28 35
-114.535 -766.588 -1348 32 29 33
-111.482 -765.925 -1347 31 28 31
-108.595 -766.402 -1348 30 27 32
-105.862 -768.018 -1351 29 26 31
-102.888 -767.932 -1351 30 27 32
-100.137 -769.553 -1354 33 30 35
-97.4454 -771.744 -1358 31 28 33
-94.8068 -774.505 -1363 27 24 29
-92.0798 -776.701 -1367 26 23 28
-89.3361 -778.898 -1371 27 24 29
-86.4496 -779.961 -1373 29 26 31
-83.6161 -781.595 -1376 30 27 32
-80.7115 -782.662 -1378 28 25 30
-77.9681 -785.437 -1383 25 22 27
-75.2035 -788.212 -1388 24 21 26
-72.8337 -795.533 -1401 22 19 24
-35.9883 -794.992 -1401 28 20 22
-32.7094 -789.857 -1392 28 22 23
-29.6405 -789.264 -1391 27 23 26
-26.5573 -788.106 -1389 25 21 24
-23.4492 -785.816 -1385 24 20 23
-20.3588 -783.528 -1381 26 23 26
-17.2736 -780.676 -1376 31 28 31
-14.1897 -776.692 -1369 33 30 33
-11.1775 -775.546 -1367 34 31 34
-8.16213 -773.269 -1363 31 28 31
-5.17568 -772.696 -1362 30 27 30
-2.19222 -771.559 -1360 29 26 29
0.783809 -771.558 -1360 29 26 29
3.7569 -770.993 -1359 29 26 29
6.72582 -770.43 -1358 31 28 31
9.69024 -769.869 -1357 30 27 30
12.6505 -769.312 -1356 30 27 30
15.595 -768.189 -1354 32 29 32
18.5172 -766.501 -1351 31 28 31
21.4899 -767.084 -1352 29 26 29
24.4493 -767.104 -1352 28 25 28
27.4494 -768.26 -1354 29 26 29
30.3911 -767.717 -1353 29 29 31
33.4026 -768.878 -1355 29 29 31
36.3695 -768.907 -1355 30 30 32
39.3078 -768.371 -1354 28 28 31
42.2421 -767.837 -1353 29 29 33
45.2394 -768.441 -1354 29 29 33
48.2056 -768.48 -1354 28 28 32
51.2103 -769.089 -1355 26 26 30
54.2198 -769.7 -1356 26 26 30
57.3184 -771.45 -1359 24 24 28
60.3866 -772.634 -1361 23 23 27
63.5571 -774.956 -1365 25 25 28
66.7457 -777.281 -1369 27 27 29
69.9017 -779.041 -1372 26 26 28
73.0183 -780.236 -1374 24 24 26
76.1446 -781.434 -1376 22 22 24
79.6254 -786.042 -1384 21 21 23
82.6643 -786.11 -1384 22 19 22
86.3851 -792.428 -1395 26 22 25
-192.763 -787.141 -1372 37 20 22
-188.732 -782.965 -1365 33 22 25
-185.414 -781.66 -1363 32 24 27
-181.974 -779.785 -1360 31 24 28
-178.811 -779.06 -1359 29 25 30
-175.396 -777.192 -1356 28 24 27
-172.25 -776.473 -1355 26 22 25
-168.736 -774.038 -1351 28 24 27
-165.364 -772.179 -1348 32 28 33
-161.886 -769.75 -1344 31 28 32
-158.901 -769.616 -1344 29 26 29
-156.033 -770.056 -1345 30 27 30
-152.821 -768.782 -1343 31 28 31
-149.843 -768.655 -1343 31 28 31
-146.975 -769.103 -1344 31 28 31
-143.997 -768.981 -1344 29 26 29
-140.706 -767.145 -1341 30 27 30
-137.635 -766.456 -1340 32 29 30
-134.67 -766.342 -1340 29 28 28
-131.804 -766.803 -1341 26 25 25
-128.936 -767.265 -1342 24 21 23
-126.064 -767.73 -1343 23 20 24
-123.189 -768.198 -1344 29 26 29
-120.132 -767.525 -1343 32 29 32
-117.343 -768.568 -1345 32 29 34
-114.545 -769.614 -1347 30 27 32
-111.575 -769.519 -1347 29 26 29
-108.686 -769.999 -1348 31 28 33
-105.872 -771.052 -1350 32 29 33
-102.974 -771.535 -1351 33 30 34
-100.22 -773.164 -1354 33 30 35
-97.5984 -775.936 -1359 30 27 32
-94.8857 -778.139 -1363 28 25 30
-92.1564 -780.345 -1367 25 22 27
-89.28 -781.411 -1369 28 25 30
-86.3956 -782.479 -1371 29 26 31
-83.564 -784.12 -1374 30 27 32
-80.7201 -785.764 -1377 28 25 30
-77.9202 -787.98 -1381 26 23 28
-75.1576 -790.769 -1386 24 21 26
-72.7381 -797.554 -1398 23 20 25
-36.0439 -799.291 -1402 27 19 21
-32.807 -795.272 -1395 29 23 24
-29.6651 -792.966 -1391 27 23 26
-26.541 -790.662 -1387 25 21 24
-23.4686 -789.501 -1385 23 19 22
-20.3757 -787.203 -1381 25 22 25
-17.2879 -784.337 -1376 30 27 30
-14.2222 -781.474 -1371 34 31 34
-11.1867 -779.184 -1367 35 32 35
-8.16882 -776.896 -1363 31 28 31
-5.17627 -775.75 -1361 29 26 29
-2.19072 -774.037 -1358 27 24 27
0.783214 -774.037 -1358 26 23 26
3.75734 -774.039 -1358 29 26 29
6.73149 -774.043 -1358 28 28 30
9.70552 -774.05 -1358 30 27 30
12.6798 -774.059 -1358 30 27 30
15.6426 -773.501 -1357 31 28 31
18.5601 -771.235 -1353 31 28 31
21.5237 -771.252 -1353 29 26 29
24.5059 -771.841 -1354 30 27 30
27.452 -771.293 -1353 30 27 30
30.4164 -771.317 -1353 28 28 30
33.4304 -772.484 -1355 27 27 29
36.373 -771.943 -1354 28 28 30
39.3116 -771.405 -1353 27 27 31
42.246 -770.869 -1352 28 28 32
45.277 -772.046 -1354 30 30 34
48.2458 -772.084 -1354 28 28 32
51.2529 -772.696 -1355 25 25 29
54.3049 -773.881 -1357 25 25 29
57.4084 -775.638 -1360 25 25 29
60.5256 -777.399 -1363 25 24 30
63.6566 -779.162 -1366 26 26 31
66.8502 -781.498 -1370 27 27 29
69.909 -782.125 -1371 25 25 27
73.026 -783.326 -1373 24 25 27
76.2079 -785.1 -1376 23 25 27
79.2887 -785.735 -1377 22 22 24
82.6734 -789.227 -1383 22 19 22
86.3332 -795.005 -1393 27 23 26
-193.207 -791.984 -1374 39 22 24
-189.445 -788.94 -1369 35 23 26
-185.162 -783.596 -1360 33 24 28
-181.859 -782.289 -1358 31 24 28
-178.567 -780.984 -1356 29 25 30
-175.414 -780.259 -1355 28 24 28
-171.887 -777.809 -1351 27 23 26
-168.503 -775.938 -1348 28 24 27
-165.258 -774.646 -1346 31 27 32
-162.023 -773.357 -1344 30 27 31
-158.798 -772.071 -1342 28 25 28
-156.048 -773.089 -1344 29 26 29
-152.95 -772.384 -1343 29 26 29
-149.969 -772.256 -1343 30 27 30
-146.989 -772.131 -1343 30 27 30
-144.225 -773.158 -1345 29 26 29
-140.929 -771.313 -1342 30 27 30
-138.059 -771.771 -1343 29 26 27
-135.185 -772.23 -1344 27 24 25
-132.013 -770.969 -1342 25 22 23
-129.044 -770.859 -1342 24 21 22
-125.982 -770.177 -1341 25 22 25
-123.109 -770.647 -1342 30 27 30
-120.144 -770.545 -1342 32 29 32
-117.354 -771.593 -1344 31 28 33
-114.386 -771.496 -1344 31 28 31
-111.668 -773.123 -1347 33 30 33
-108.696 -773.03 -1347 34 31 36
-105.882 -774.088 -1349 33 30 34
-102.984 -774.574 -1350 33 30 33
-100.378 -777.357 -1355 32 29 34
-97.68 -779.569 -1359 29 26 31
-94.8954 -781.209 -1362 25 22 27
-92.1661 -783.425 -1366 25 22 27
-89.2894 -784.496 -1368 29 26 31
-86.4047 -785.569 -1370 30 27 32
-83.5121 -786.644 -1372 30 27 32
-80.6702 -788.295 -1375 28 25 30
-77.8723 -790.522 -1379 26 23 28
-75.1119 -793.324 -1384 24 21 26
-72.4864 -797.848 -1392 23 20 25
-36.1511 -804.75 -1405 29 21 23
-32.8815 -800.139 -1397 27 21 22
-29.7325 -797.822 -1393 27 23 25
-26.6014 -795.507 -1389 26 22 25
-23.4542 -792.051 -1383 25 21 24
-20.3778 -790.314 -1380 23 20 23
-17.2897 -787.435 -1375 27 24 27
-14.2029 -783.413 -1368 33 30 34
-11.1714 -781.112 -1364 35 32 35
-8.15753 -778.813 -1360 32 29 32
-5.17287 -778.235 -1359 28 25 28
-2.18923 -776.514 -1356 27 24 27
0.782801 -776.513 -1356 28 25 28
3.75502 -776.515 -1356 29 27 30
6.72708 -776.52 -1356 29 29 31
9.69223 -775.954 -1355 31 28 31
12.6718 -776.536 -1356 30 27 30
15.6211 -775.403 -1354 30 27 30
18.5482 -773.699 -1351 30 27 30
21.5099 -773.716 -1351 30 27 30
24.4901 -774.308 -1352 31 28 31
27.4749 -774.903 -1353 31 28 31
30.4643 -775.5 -1354 27 28 30
33.4338 -775.527 -1354 25 27 29
36.3497 -774.41 -1352 26 26 28
39.3153 -774.442 -1352 28 28 32
42.2814 -774.476 -1352 28 28 32
45.2813 -775.086 -1353 30 30 34
48.3931 -777.416 -1357 29 29 33
51.3715 -777.458 -1357 24 23 29
54.4305 -778.649 -1359 23 22 28
57.4565 -779.269 -1360 24 24 28
60.5763 -781.037 -1363 25 24 31
63.7099 -782.809 -1366 27 26 32
66.8084 -784.009 -1368 26 26 30
70.0185 -786.359 -1372 25 25 27
73.0873 -786.993 -1373 26 28 30
76.1609 -787.628 -1374 24 26 28
79.4702 -790.56 -1379 22 22 24
82.7425 -792.921 -1383 25 22 25
86.0334 -795.286 -1387 29 26 28
-193.371 -795.69 -1374 38 21 23
-189.606 -792.631 -1369 34 22 25
-185.319 -787.262 -1360 34 25 28
-182.281 -787.106 -1360 32 25 29
-178.586 -784.059 -1355 31 27 32
-175.563 -783.908 -1355 29 25 28
-172.159 -782.025 -1352 27 23 26
-169.021 -781.302 -1351 29 25 28
-165.398 -778.269 -1346 30 26 31
-162.16 -776.974 -1344 31 27 32
-159.051 -776.259 -1343 29 26 29
-156.18 -776.704 -1344 29 26 29
-153.193 -776.573 -1344 29 26 29
-150.319 -777.022 -1345 31 28 31
-147.113 -775.74 -1343 30 27 30
-144.025 -775.04 -1342 31 28 31
-140.838 -773.764 -1340 31 28 31
-138.072 -774.801 -1342 29 26 27
-134.997 -774.108 -1341 27 24 25
-132.125 -774.572 -1342 25 22 23
-129.057 -773.885 -1341 25 22 23
-126.182 -774.354 -1342 28 25 27
-123.121 -773.672 -1341 30 27 30
-120.245 -774.146 -1342 32 29 32
-117.365 -774.622 -1343 31 28 33
-114.482 -775.101 -1344 33 30 34
-111.596 -775.582 -1345 35 32 35
-108.787 -776.642 -1347 33 30 34
-105.892 -777.128 -1348 32 29 32
-103.147 -778.769 -1351 32 29 32
-100.389 -780.412 -1354 31 28 33
-97.7623 -783.211 -1359 28 25 30
-95.045 -785.435 -1363 26 23 28
-92.2435 -787.084 -1366 25 22 27
-89.2992 -787.584 -1367 31 28 33
-86.4143 -788.662 -1369 32 29 34
-83.5215 -789.743 -1371 30 27 32
-80.738 -791.977 -1375 29 26 31
-77.9377 -794.215 -1379 26 23 28
-75.175 -797.03 -1384 24 21 26
-72.4431 -800.423 -1390 22 19 24
-36.0784 -806.206 -1401 27 19 21
-32.8383 -802.149 -1394 27 21 22
-29.672 -799.246 -1389 27 23 26
-26.5278 -796.345 -1384 27 23 26
-23.423 -794.023 -1380 25 21 24
-20.3506 -792.278 -1377 23 20 23
-17.2916 -790.536 -1374 25 22 26
-14.2147 -787.071 -1368 32 29 34
-11.1889 -785.334 -1365 34 31 34
-8.16444 -782.45 -1360 32 29 32
-5.16949 -780.718 -1357 29 26 29
-2.18935 -779.564 -1355 30 27 30
0.781811 -778.413 -1353 31 28 31
3.75547 -779.566 -1355 31 28 31
6.72783 -779.57 -1355 29 29 31
9.70041 -779.577 -1355 30 27 30
12.6731 -779.587 -1355 29 26 29
15.6458 -779.599 -1355 29 25 28
18.5912 -778.462 -1353 29 26 29
21.5281 -777.329 -1351 29 26 29
24.4925 -777.348 -1351 29 26 29
27.498 -778.521 -1353 30 27 30
30.4675 -778.545 -1353 27 28 30
33.4371 -778.572 -1353 27 28 30
36.3802 -778.026 -1352 28 28 30
39.3485 -778.058 -1352 29 27 33
42.317 -778.093 -1352 28 28 32
45.3194 -778.705 -1353 28 28 32
48.3624 -779.896 -1355 26 26 30
51.3768 -780.513 -1356 23 22 28
54.4361 -781.709 -1358 23 22 28
57.5048 -782.908 -1360 25 23 28
60.5384 -783.533 -1361 25 24 30
63.7169 -785.889 -1365 27 27 31
66.8158 -787.095 -1367 26 26 30
70.0264 -789.456 -1371 26 26 28
73.0422 -789.517 -1371 29 28 30
76.225 -791.307 -1374 25 23 26
79.3641 -792.525 -1376 22 22 26
82.7524 -796.049 -1382 25 22 25
86.0436 -798.425 -1386 29 25 27
-193.395 -798.822 -1373 34 17 19
-190.045 -797.495 -1371 31 19 20
-185.75 -792.1 -1362 33 24 26
-182.168 -789.617 -1358 33 26 30
-178.475 -786.556 -1353 32 28 33
-175.583 -786.986 -1354 30 26 30
-172.306 -785.675 -1352 28 24 27
-168.915 -783.786 -1349 28 24 27
-165.415 -781.32 -1345 29 25 30
-162.298 -780.599 -1344 32 28 33
-159.068 -779.3 -1342 31 28 31
-156.313 -780.327 -1344 30 27 30
-153.209 -779.615 -1343 30 27 30
-150.223 -779.486 -1343 30 27 30
-147.019 -778.198 -1341 30 27 30
-144.04 -778.074 -1341 30 27 30
-140.957 -777.373 -1340 30 27 30
-137.983 -777.255 -1340 30 27 28
-135.011 -777.138 -1340 29 26 27
-132.237 -778.185 -1342 26 23 24
-129.262 -778.073 -1342 27 24 25
-126.289 -777.965 -1342 28 25 28
-123.225 -777.279 -1341 30 27 30
-120.257 -777.176 -1341 32 29 32
-117.377 -777.654 -1342 32 29 34
-114.409 -777.556 -1342 32 29 33
-111.691 -779.198 -1345 32 29 32
-108.88 -780.263 -1347 32 29 32
-106.139 -781.909 -1350 33 30 33
-103.31 -782.979 -1352 34 31 34
-100.622 -785.209 -1356 30 27 32
-97.917 -787.441 -1360 27 24 29
-95.0556 -788.517 -1362 26 23 28
-92.1864 -789.595 -1364 26 23 28
-89.2439 -790.097 -1365 32 29 34
-86.361 -791.18 -1367 34 31 36
-83.531 -792.845 -1370 33 30 35
-80.7475 -795.09 -1374 29 26 31
-77.9471 -797.337 -1378 26 23 28
-75.1841 -800.165 -1383 25 22 27
-72.4521 -803.574 -1389 22 19 24
-36.0315 -808.228 -1398 27 19 21
-32.8659 -805.887 -1394 26 20 21
-29.6542 -801.814 -1387 28 23 26
-26.5311 -799.478 -1383 27 23 26
-23.4087 -796.566 -1378 25 21 24
-20.3529 -795.392 -1376 22 19 22
-17.2809 -793.063 -1372 25 22 26
-14.2266 -790.738 -1368 30 28 33
-11.1737 -787.259 -1362 31 28 31
-8.16518 -785.517 -1359 30 27 31
-5.16991 -783.778 -1356 31 28 32
-2.18804 -782.04 -1353 31 28 32
0.781978 -781.462 -1352 30 27 30
3.75316 -782.042 -1353 30 27 30
6.7238 -782.046 -1353 29 29 31
9.6943 -782.053 -1353 30 29 31
12.6651 -782.063 -1353 28 26 28
15.613 -780.919 -1351 28 25 28
18.5521 -779.777 -1349 28 25 28
21.5622 -781.528 -1352 26 25 27
24.5315 -781.548 -1352 25 25 27
27.5213 -782.148 -1353 26 26 28
30.4933 -782.173 -1353 27 27 29
33.4654 -782.2 -1353 28 28 30
36.4111 -781.651 -1352 27 27 31
39.3526 -781.105 -1351 31 28 35
42.3214 -781.14 -1351 30 29 34
45.3243 -781.756 -1352 29 29 33
48.3677 -782.952 -1354 27 27 31
51.4203 -784.15 -1356 26 26 30
54.4822 -785.352 -1358 27 26 30
57.5534 -786.556 -1360 26 23 28
60.5896 -787.185 -1361 25 25 29
63.724 -788.973 -1364 27 27 30
66.8723 -790.763 -1367 25 25 28
69.9833 -791.978 -1369 27 27 29
73.1572 -793.775 -1372 27 24 27
76.3451 -795.574 -1375 25 23 26
79.489 -796.797 -1377 21 21 23
82.8224 -799.759 -1382 24 21 24
-192.997 -800.206 -1369 33 16 18
-189.653 -798.872 -1367 29 17 18
-185.773 -795.205 -1361 32 22 25
-182.19 -792.71 -1357 34 27 31
-178.759 -790.803 -1354 32 28 33
-175.603 -790.067 -1353 30 26 30
-172.198 -788.166 -1350 29 25 28
-169.059 -787.436 -1349 29 25 28
-165.803 -786.125 -1347 29 25 29
-162.557 -784.817 -1345 30 26 31
-159.441 -784.096 -1344 28 25 28
-156.447 -783.96 -1344 30 27 30
-153.454 -783.827 -1344 28 25 28
-150.463 -783.697 -1344 28 25 28
-147.254 -782.404 -1342 28 25 28
-144.163 -781.696 -1341 27 24 27
-140.762 -779.243 -1337 28 25 28
-137.895 -779.706 -1338 28 25 27
-134.824 -779.007 -1337 28 25 26
-132.251 -781.224 -1341 28 25 26
-129.276 -781.112 -1341 27 24 25
-126.209 -780.42 -1340 28 25 28
-123.239 -780.314 -1340 29 26 29
-120.36 -780.792 -1341 31 28 31
-117.302 -780.108 -1340 32 29 34
-114.421 -780.591 -1341 31 28 32
-111.703 -782.241 -1344 30 27 30
-109.053 -784.475 -1348 31 28 31
-106.23 -785.547 -1350 32 29 33
-103.551 -787.785 -1354 34 31 34
-100.856 -790.025 -1358 30 27 32
-97.9281 -790.522 -1359 26 23 28
-94.9967 -791.021 -1360 26 23 27
-92.1295 -792.105 -1362 28 25 30
-89.1888 -792.609 -1363 34 31 36
-86.3711 -794.279 -1366 34 31 37
-83.5409 -795.951 -1369 33 30 36
-80.8748 -799.369 -1375 28 25 30
-78.0699 -801.627 -1379 25 22 27
-75.1935 -803.305 -1382 24 21 26
-72.4092 -806.149 -1387 23 20 24
-36.062 -811.986 -1398 28 20 22
-32.823 -807.891 -1391 25 19 20
-29.6365 -804.38 -1385 26 22 24
-26.4959 -801.452 -1380 27 24 26
-23.4115 -799.689 -1377 25 22 27
-20.3554 -798.509 -1375 25 22 27
-17.3082 -797.331 -1373 23 21 25
-14.2387 -794.414 -1368 24 24 28
-11.1832 -790.919 -1362 30 26 31
-8.17214 -789.169 -1359 31 28 33
-5.16672 -786.26 -1354 32 29 34
-2.18817 -785.095 -1352 31 28 33
0.782147 -784.514 -1351 29 26 30
3.75641 -785.678 -1353 29 27 30
6.72457 -785.101 -1352 30 30 32
9.70272 -785.689 -1353 30 30 32
12.676 -785.699 -1353 30 28 31
15.6493 -785.711 -1353 30 27 30
18.6228 -785.726 -1353 30 27 30
21.5966 -785.743 -1353 28 27 29
24.5524 -785.182 -1352 27 27 29
27.5447 -785.785 -1353 27 27 29
30.5418 -786.39 -1354 26 26 28
33.494 -785.837 -1353 27 27 29
36.442 -785.285 -1352 29 29 33
39.3861 -784.737 -1351 30 27 34
42.3261 -784.191 -1350 28 27 32
45.2958 -784.229 -1350 27 27 31
48.2658 -784.269 -1350 27 27 31
51.3502 -786.054 -1353 26 26 30
54.4082 -787.261 -1355 24 23 27
57.5178 -789.052 -1358 26 23 28
60.6857 -791.426 -1362 24 24 28
63.7782 -792.641 -1364 26 26 28
66.9781 -795.022 -1368 27 27 29
70.0942 -796.242 -1370 26 26 28
73.273 -798.047 -1373 26 23 26
76.2988 -798.111 -1373 24 21 24
79.5567 -800.503 -1377 21 21 23
82.653 -801.153 -1378 25 22 25
-193.446 -805.1 -1371 35 18 20
-190.094 -803.76 -1369 33 19 20
-186.069 -799.488 -1362 34 21 23
-182.482 -796.981 -1358 34 24 29
-179.046 -795.065 -1355 31 27 30
-175.625 -793.151 -1352 29 25 28
-172.347 -791.828 -1350 29 25 28
-169.205 -791.095 -1349 30 26 29
-165.822 -789.191 -1346 28 24 29
-162.576 -787.877 -1344 28 24 29
-159.34 -786.566 -1342 28 25 30
-156.232 -785.844 -1341 29 26 30
-153.357 -786.297 -1342 29 26 30
-150.48 -786.752 -1343 28 25 28
-147.271 -785.452 -1341 28 28 30
-144.071 -784.156 -1339 27 27 28
-140.988 -783.447 -1338 25 25 25
-137.807 -782.156 -1336 26 23 26
-134.838 -782.039 -1336 27 24 27
-131.969 -782.51 -1337 26 23 26
-129.097 -782.983 -1338 26 23 24
-126.128 -782.874 -1338 27 24 27
-123.16 -782.766 -1338 29 26 29
-120.283 -783.247 -1339 31 29 27
-117.315 -783.145 -1339 32 29 32
-114.519 -784.215 -1341 32 29 32
-111.798 -785.873 -1344 30 27 30
-109.146 -788.117 -1348 31 28 33
-106.399 -789.778 -1351 31 28 32
-103.64 -791.442 -1354 31 28 31
-100.794 -792.523 -1356 29 26 31
-97.9397 -793.607 -1358 25 22 26
-94.9381 -793.524 -1358 25 23 26
-92.0051 -794.028 -1359 27 27 31
-89.134 -795.119 -1361 33 33 37
-86.3816 -797.381 -1365 36 35 40
-83.7345 -800.813 -1371 33 30 37
-81.0028 -803.663 -1376 27 24 29
-78.1365 -805.347 -1379 25 22 27
-75.3666 -808.201 -1384 24 21 26
-72.6277 -811.641 -1390 24 20 23
-39.4777 -822.204 -1409 30 21 23
-36.1702 -817.504 -1401 27 19 21
-32.8509 -811.639 -1391 24 18 19
-29.6831 -808.695 -1386 25 21 22
-26.5568 -806.337 -1382 26 23 25
-23.4314 -803.399 -1377 26 23 26
-20.3874 -802.796 -1376 24 21 26
-17.3229 -801.03 -1373 21 19 24
-14.282 -799.85 -1371 23 23 27
-11.209 -795.755 -1364 31 27 32
-8.19097 -793.997 -1361 32 29 34
-5.17481 -790.491 -1355 33 30 35
-2.18993 -788.738 -1352 30 27 32
0.782898 -788.154 -1351 28 25 28
3.75411 -788.156 -1351 28 26 29
6.72037 -787.577 -1350 30 30 32
9.68229 -787.001 -1349 30 30 32
12.668 -788.177 -1351 30 29 31
15.6396 -788.189 -1351 31 28 31
18.5975 -787.62 -1350 31 28 31
21.5672 -787.638 -1350 28 27 29
24.5552 -788.241 -1351 28 28 30
27.548 -788.847 -1352 28 28 30
30.5452 -789.455 -1353 29 29 31
33.4729 -788.315 -1351 29 29 31
36.4732 -788.929 -1352 28 28 32
39.4198 -788.378 -1351 29 26 33
42.3623 -787.829 -1350 26 25 30
45.368 -788.451 -1351 25 25 29
48.3429 -788.491 -1351 25 25 29
51.3941 -789.701 -1353 23 23 27
54.4947 -791.497 -1356 22 21 25
57.5669 -792.713 -1358 26 24 29
60.6038 -793.347 -1359 24 24 28
63.7393 -795.152 -1362 24 24 27
66.9864 -798.127 -1367 27 27 29
70.0003 -798.185 -1367 25 25 27
73.3356 -801.751 -1373 26 23 27
76.4198 -802.399 -1374 23 21 25
79.567 -803.634 -1376 22 22 24
82.6637 -804.287 -1377 26 23 26
-189.98 -806.309 -1367 33 19 20
-186.367 -803.786 -1363 33 20 22
-182.64 -800.678 -1358 34 23 27
-179.2 -798.752 -1355 32 28 31
-175.777 -796.83 -1352 32 28 31
-172.623 -796.089 -1351 31 27 30
-168.974 -792.995 -1346 28 24 27
-166.089 -793.439 -1347 29 25 29
-162.838 -792.119 -1345 30 26 31
-159.478 -790.213 -1342 29 26 31
-156.367 -789.487 -1341 31 27 31
-153.604 -790.531 -1343 31 28 31
-150.61 -790.399 -1343 30 27 30
-147.288 -788.504 -1340 26 26 28
-144.411 -788.966 -1341 26 25 27
-141.004 -786.49 -1337 25 23 23
-137.823 -785.193 -1335 25 22 25
-134.752 -784.487 -1334 26 23 26
-131.984 -785.548 -1336 27 24 27
-129.016 -785.436 -1336 30 27 28
-126.237 -786.501 -1338 30 27 29
-123.174 -785.806 -1337 30 27 30
-120.386 -786.876 -1339 30 28 26
-117.328 -786.186 -1338 32 29 31
-114.532 -787.261 -1340 32 29 32
-111.811 -788.926 -1343 33 30 33
-109.078 -790.593 -1346 33 30 35
-106.491 -793.436 -1351 32 29 33
-103.729 -795.108 -1354 28 25 28
-100.731 -795.019 -1354 25 22 27
-97.7352 -794.934 -1354 25 22 27
-94.8798 -796.025 -1356 29 26 31
-91.9486 -796.532 -1357 32 32 36
-89.145 -798.215 -1360 34 34 38
-86.5191 -801.661 -1366 38 37 41
-83.8063 -804.521 -1371 32 29 34
-81.0134 -806.798 -1375 28 25 30
-78.2603 -809.663 -1380 26 23 28
-75.4313 -811.943 -1384 25 22 27
-72.7423 -815.986 -1391 24 20 23
-39.2871 -821.321 -1401 29 20 22
-36.0977 -818.943 -1397 26 18 20
-32.8317 -814.224 -1389 24 18 19
-29.6871 -811.853 -1385 24 20 21
-26.5411 -808.898 -1380 27 24 26
-23.4514 -807.118 -1377 26 23 26
-20.4049 -806.513 -1376 25 22 27
-17.3629 -805.911 -1375 22 19 24
-14.3046 -804.139 -1372 21 18 23
-11.235 -800.611 -1366 28 24 29
-8.20402 -798.258 -1362 29 26 31
-5.18692 -795.323 -1357 32 29 34
-2.19493 -793.561 -1354 31 28 32
0.783652 -791.802 -1351 29 26 29
3.76016 -792.39 -1352 29 26 29
6.73113 -791.809 -1351 27 27 29
9.69775 -791.23 -1350 28 28 30
12.679 -791.825 -1351 29 29 31
15.6647 -792.424 -1352 29 28 30
18.641 -792.439 -1352 29 26 29
21.6017 -791.87 -1351 26 26 28
24.6128 -793.062 -1353 27 27 29
27.5512 -791.912 -1351 27 27 29
30.5263 -791.937 -1351 28 28 31
33.5265 -792.551 -1352 27 27 30
36.5045 -792.581 -1352 25 25 29
39.4828 -792.614 -1352 31 28 35
42.3987 -791.477 -1350 29 26 32
45.407 -792.101 -1351 25 22 27
48.3844 -792.141 -1351 22 22 26
51.4002 -792.771 -1352 22 22 26
54.4612 -793.989 -1354 23 23 27
57.489 -794.624 -1355 25 25 29
60.5666 -795.847 -1357 23 23 27
63.7472 -798.247 -1361 24 24 27
66.9949 -801.236 -1366 24 24 26
69.9581 -800.708 -1365 23 23 25
73.345 -804.876 -1372 24 21 26
76.4298 -805.527 -1373 25 23 27
79.6353 -807.355 -1376 24 24 26
82.5545 -806.252 -1374 26 23 26
-189.729 -808.263 -1364 33 20 21
-186.53 -807.507 -1363 32 20 21
-182.664 -803.791 -1357 33 23 25
-178.959 -800.672 -1352 31 27 30
-175.799 -799.925 -1351 32 28 31
-172.646 -799.181 -1350 31 27 30
-169.121 -796.665 -1346 28 24 27
-165.986 -795.927 -1345 28 24 28
-162.858 -795.192 -1344 31 27 32
-159.735 -794.46 -1343 30 27 32
-156.502 -793.139 -1341 31 27 30
-153.623 -793.596 -1342 31 27 30
-150.629 -793.464 -1342 30 27 30
-147.416 -792.151 -1340 28 26 29
-144.321 -791.434 -1339 27 24 26
-141.232 -790.719 -1338 26 23 24
-138.045 -789.415 -1336 27 24 27
-134.97 -788.706 -1335 27 24 27
-132.198 -789.771 -1337 27 24 27
-129.224 -789.658 -1337 30 27 28
-126.252 -789.547 -1337 31 28 30
-123.188 -788.849 -1336 31 28 31
-120.221 -788.743 -1336 31 29 29
-117.342 -789.23 -1337 33 30 33
-114.631 -790.9 -1340 35 32 35
-111.824 -791.983 -1342 36 33 36
-109.173 -794.247 -1346 35 32 37
-106.504 -796.514 -1350 34 31 35
-103.665 -797.603 -1352 30 27 30
-100.67 -797.515 -1352 26 23 28
-97.7473 -798.019 -1353 26 23 28
-94.8216 -798.525 -1354 33 30 35
-91.8924 -799.034 -1355 37 34 39
-89.1564 -801.314 -1359 37 34 39
-86.5304 -804.776 -1365 36 33 38
-83.7563 -807.06 -1369 30 27 32
-81.0832 -810.526 -1375 28 24 29
-78.3846 -813.994 -1381 26 23 28
-75.4964 -815.695 -1384 24 21 26
-72.7527 -819.168 -1390 23 19 22
-39.3771 -826.293 -1403 30 21 23
-36.1806 -823.905 -1399 28 20 22
-32.9546 -820.341 -1393 23 17 18
-29.7555 -816.781 -1387 25 21 22
-26.5639 -812.634 -1380 28 25 27
-23.4886 -811.435 -1378 28 25 28
-20.4372 -810.828 -1377 26 23 27
-17.3904 -810.222 -1376 23 20 24
-14.3377 -809.031 -1374 21 18 23
-11.2693 -806.076 -1369 24 21 26
-8.22916 -803.713 -1365 27 24 29
-5.21036 -801.941 -1362 30 27 32
-2.20013 -798.405 -1356 31 28 31
0.78557 -796.638 -1353 29 26 29
3.76344 -796.051 -1352 27 25 28
6.73195 -794.878 -1350 25 25 27
9.70626 -794.885 -1350 25 25 27
12.6806 -794.895 -1350 26 26 28
15.6781 -796.085 -1352 27 27 29
18.6709 -796.689 -1353 27 26 28
21.6205 -795.528 -1351 24 24 26
24.5975 -795.548 -1351 24 24 26
27.5546 -794.982 -1350 25 25 27
30.5527 -795.596 -1351 25 25 29
33.506 -795.035 -1350 27 27 31
36.5361 -796.243 -1352 28 28 32
39.4585 -795.098 -1350 29 26 33
42.4668 -795.722 -1351 30 27 32
45.4799 -796.35 -1352 26 23 28
48.462 -796.39 -1352 24 21 26
51.5208 -797.612 -1354 24 24 28
54.5485 -798.247 -1355 25 25 29
57.4963 -797.706 -1354 24 24 28
60.5742 -798.935 -1356 24 24 26
63.7552 -801.346 -1360 26 25 27
66.9055 -803.17 -1363 27 26 28
70.0698 -804.998 -1366 26 26 28
73.462 -809.185 -1373 26 23 27
76.4957 -809.25 -1373 23 21 24
79.7042 -811.086 -1376 23 23 25
82.6861 -810.567 -1375 26 23 26
-189.477 -810.211 -1361 35 21 23
-186.556 -810.641 -1362 33 20 21
-182.285 -805.123 -1353 32 22 24
-179.381 -805.56 -1354 30 25 28
-175.823 -803.025 -1350 30 26 29
-172.668 -802.277 -1349 29 25 28
-169.269 -800.343 -1346 27 23 26
-166.008 -799.008 -1344 27 23 27
-162.636 -797.08 -1341 30 26 31
-159.756 -797.534 -1342 30 27 32
-156.522 -796.207 -1340 29 26 30
-153.757 -797.259 -1342 29 26 29
-150.76 -797.126 -1342 29 26 29
-147.654 -796.402 -1341 28 27 29
-144.554 -795.681 -1340 27 26 28
-141.355 -794.368 -1338 26 23 26
-138.269 -793.653 -1337 27 24 27
-135.29 -793.533 -1337 29 26 29
-132.214 -792.823 -1336 28 25 28
-129.24 -792.709 -1336 29 27 26
-126.361 -793.191 -1337 30 28 29
-123.48 -793.675 -1338 31 28 31
-120.415 -792.975 -1337 33 30 31
-117.444 -792.871 -1337 35 32 36
-114.559 -793.363 -1338 37 34 38
-111.838 -795.044 -1341 36 33 36
-109.186 -797.319 -1345 33 30 34
-106.596 -800.189 -1350 31 28 32
-103.525 -799.504 -1349 27 24 27
-100.608 -800.008 -1350 26 23 28
-97.6876 -800.514 -1351 30 27 31
-94.7637 -801.023 -1352 36 33 36
-91.9721 -802.719 -1355 39 36 41
-89.2337 -805.01 -1359 37 34 39
-86.542 -807.895 -1364 32 29 34
-83.8901 -811.375 -1370 27 24 31
-81.1536 -814.264 -1375 27 23 28
-78.282 -815.971 -1378 27 23 28
-75.5072 -818.865 -1383 22 19 24
-72.7634 -822.353 -1389 22 18 21
-39.5236 -832.469 -1407 29 21 23
-36.2636 -828.886 -1401 27 19 21
-32.9831 -824.124 -1393 24 18 19
-29.8242 -821.73 -1389 25 21 22
-26.664 -818.747 -1384 28 24 26
-23.526 -815.768 -1379 28 25 28
-20.4549 -814.566 -1377 24 21 24
-17.4054 -813.958 -1376 23 20 24
-14.3397 -812.169 -1373 23 20 25
-11.2872 -810.384 -1370 23 20 25
-8.24229 -808.009 -1366 25 22 27
-5.21106 -805.046 -1361 31 28 33
-2.20191 -802.085 -1356 32 29 32
0.78673 -800.901 -1354 27 26 29
3.76952 -800.312 -1353 25 25 27
6.74794 -799.725 -1352 26 26 28
9.72199 -799.141 -1351 27 27 29
12.7105 -799.742 -1352 27 27 29
15.7268 -801.529 -1355 28 28 30
18.7011 -800.953 -1354 25 25 27
21.6552 -799.787 -1352 25 25 27
24.6189 -799.216 -1351 27 27 29
27.5785 -798.647 -1350 26 26 28
30.5567 -798.672 -1350 25 25 29
33.5349 -798.7 -1350 26 26 30
36.4866 -798.139 -1349 27 27 31
39.4342 -797.581 -1348 28 25 30
42.4092 -797.616 -1348 25 22 27
45.4521 -798.838 -1350 28 25 30
48.4324 -798.879 -1350 26 23 28
51.4512 -799.514 -1351 23 23 25
54.5152 -800.744 -1353 24 24 26
57.4611 -800.2 -1352 23 23 25
60.5821 -802.028 -1355 26 26 28
63.7169 -803.857 -1358 29 27 30
66.9146 -806.282 -1362 31 28 31
70.1307 -808.71 -1366 27 27 29
73.4187 -811.733 -1371 26 23 26
76.5623 -812.982 -1373 21 20 22
79.7155 -814.234 -1375 21 21 23
82.6976 -813.713 -1374 26 23 26
-186.034 -811.389 -1357 33 19 20
-182.445 -808.834 -1353 31 21 23
-179.538 -809.273 -1354 28 23 26
-176.108 -807.323 -1351 26 22 25
-173.076 -807.169 -1351 27 23 26
-169.543 -804.629 -1347 29 25 28
-166.277 -803.287 -1345 29 25 28
-162.9 -801.35 -1342 30 26 31
-159.777 -800.611 -1341 30 27 31
-156.542 -799.278 -1339 29 26 29
-153.662 -799.739 -1340 30 27 30
-150.667 -799.605 -1340 29 26 29
-147.673 -799.474 -1340 25 24 26
-144.573 -798.749 -1339 24 24 26
-141.584 -798.624 -1339 26 23 26
-138.183 -796.115 -1335 26 23 26
-135.307 -796.592 -1336 29 26 29
-132.329 -796.474 -1336 31 27 30
-129.353 -796.359 -1336 30 28 26
-126.377 -796.247 -1336 30 28 28
-123.588 -797.329 -1338 32 29 32
-120.43 -796.031 -1336 32 29 30
-117.547 -796.522 -1337 33 30 34
-114.745 -797.612 -1339 35 32 36
-111.853 -798.108 -1340 36 33 36
