ply
format ascii 1.0
comment Created by Open3D
element vertex 1463
property double x
property double y
property double z
property uchar red
property uchar green
property uchar blue
end_header
-126.325 -1037.2 -1356 27 23 26
-122.675 -1033.23 -1351 27 24 28
-119.049 -1029.26 -1346 24 21 26
-115.62 -1026.83 -1343 24 21 26
-112.626 -1028.23 -1345 26 23 28
-109.135 -1025.04 -1341 27 24 29
-105.98 -1024.92 -1341 25 22 27
-102.826 -1024.79 -1341 22 19 24
-99.8965 -1026.97 -1344 24 21 26
-96.8098 -1027.62 -1345 26 23 28
-93.7891 -1029.03 -1347 23 21 26
-90.5582 -1028.16 -1346 21 21 25
-87.5277 -1029.59 -1348 22 22 26
-84.3011 -1028.72 -1347 23 23 27
-81.2608 -1030.15 -1349 23 23 27
-78.3856 -1033.88 -1354 25 22 27
-75.3212 -1035.32 -1356 24 21 26
-72.3545 -1038.28 -1360 22 19 24
-69.3191 -1040.49 -1363 20 17 22
-66.4158 -1044.99 -1369 22 19 24
-63.2544 -1045.68 -1370 23 19 24
-60.2643 -1049.43 -1375 21 18 23
-57.0853 -1050.12 -1376 23 20 25
-53.7849 -1048.53 -1374 25 21 26
-50.6785 -1050.76 -1377 23 20 25
-47.3517 -1048.41 -1374 24 21 28
-44.3608 -1053.7 -1381 25 22 28
-41.278 -1057.46 -1386 28 25 30
-38.2545 -1063.52 -1394 37 34 37
-35.3196 -1073.4 -1407 48 42 48
-32.4153 -1086.33 -1424 61 53 57
-29.493 -1101.55 -1444 68 58 60
-26.3509 -1111.43 -1457 74 58 54
-23.0853 -1118.27 -1466 78 60 58
-19.7108 -1121.3 -1470 78 60 58
-16.3178 -1124.33 -1474 82 63 61
-12.9149 -1128.12 -1479 90 66 60
-9.48899 -1131.92 -1484 97 71 64
-6.02736 -1133.44 -1486 110 79 69
-2.55664 -1134.96 -1488 116 80 67
0.924036 -1137.25 -1491 122 81 69
4.40987 -1137.25 -1491 132 83 71
7.91184 -1139.55 -1494 133 87 76
11.4048 -1139.56 -1494 130 87 77
14.9479 -1143.39 -1499 108 72 65
18.4404 -1142.64 -1498 90 62 60
21.9873 -1144.96 -1501 95 65 63
25.4466 -1142.7 -1498 96 65 64
28.9885 -1144.25 -1500 95 68 66
32.5618 -1146.58 -1503 96 71 68
36.1977 -1150.43 -1508 95 70 66
39.8309 -1153.53 -1512 102 74 67
43.4544 -1155.87 -1515 120 84 70
50.5452 -1155.98 -1515 153 102 88
54.127 -1156.8 -1516 160 106 92
-146.909 -1074.67 -1398 28 20 24
-142.473 -1066.05 -1387 24 17 21
-138.591 -1061.27 -1381 23 16 20
-134.74 -1056.5 -1375 23 16 20
-130.344 -1047.12 -1363 24 20 23
-126.566 -1042.36 -1357 29 22 26
-123 -1039.15 -1353 26 21 26
-119.366 -1035.16 -1348 25 22 27
-115.842 -1031.95 -1344 24 21 26
-112.506 -1030.28 -1342 25 22 27
-109.263 -1029.39 -1341 25 22 27
-106.025 -1028.49 -1340 25 22 27
-102.87 -1028.37 -1340 24 21 26
-100.013 -1031.32 -1344 24 21 26
-96.7068 -1029.67 -1342 25 22 27
-93.7594 -1031.86 -1345 21 19 24
-90.6641 -1032.52 -1346 19 19 23
-87.5001 -1032.42 -1346 21 21 25
-84.2743 -1031.55 -1345 21 21 25
-81.2351 -1032.98 -1347 22 21 25
-78.2453 -1035.19 -1350 24 21 26
-75.131 -1035.87 -1351 23 20 25
-72.226 -1039.62 -1356 23 20 25
-69.2473 -1042.6 -1360 22 19 24
-66.202 -1044.82 -1363 21 18 23
-63.0971 -1046.28 -1365 21 17 22
-60.0713 -1049.27 -1369 20 17 22
-56.8612 -1049.2 -1369 21 18 23
-53.6517 -1049.14 -1369 23 19 24
-50.627 -1052.91 -1374 22 19 24
-47.476 -1054.39 -1376 22 19 25
-44.3482 -1056.63 -1379 24 21 27
-41.3261 -1061.94 -1386 26 23 28
-38.3815 -1070.33 -1397 29 26 29
-35.3356 -1077.18 -1406 44 38 43
-32.339 -1087.1 -1419 58 49 55
-29.4046 -1101.62 -1438 68 55 60
-26.3272 -1113.84 -1454 74 58 54
-23.0491 -1119.94 -1462 77 61 58
-19.7069 -1124.51 -1468 78 61 58
-16.3035 -1126.79 -1471 81 61 59
-12.9037 -1130.6 -1476 86 64 59
-9.4936 -1135.95 -1483 92 65 57
-6.0384 -1139.01 -1487 115 81 70
-2.56303 -1141.3 -1490 127 86 72
0.925756 -1142.83 -1492 128 85 69
4.42116 -1143.6 -1493 132 85 72
7.92107 -1144.37 -1494 139 91 80
11.4106 -1143.62 -1493 138 90 79
14.9154 -1144.4 -1494 135 90 78
18.4128 -1144.42 -1494 110 78 70
21.9251 -1145.21 -1495 96 62 59
25.3744 -1142.94 -1492 93 62 59
28.9257 -1145.27 -1495 87 63 59
32.4698 -1146.84 -1497 90 65 60
35.9757 -1146.88 -1497 93 68 65
39.561 -1149.22 -1500 94 69 67
43.1321 -1150.8 -1502 96 73 70
46.6509 -1150.85 -1502 115 84 78
50.17 -1150.91 -1502 135 92 82
53.8329 -1154.04 -1506 142 95 84
57.477 -1156.4 -1509 140 89 77
61.257 -1161.07 -1515 137 93 80
-173.876 -1171.11 -1516 46 26 26
-152.977 -1097.93 -1422 27 19 23
-147.083 -1079.23 -1398 25 17 21
-142.846 -1072.11 -1389 23 16 20
-138.956 -1067.31 -1383 24 17 21
-135.193 -1063.29 -1378 23 16 20
-131.072 -1056.19 -1369 25 21 24
-127.182 -1050.64 -1362 28 21 25
-123.145 -1043.55 -1353 27 22 25
-119.772 -1041.86 -1351 26 22 25
-115.978 -1036.33 -1344 25 22 27
-112.387 -1032.34 -1339 27 24 29
-109.31 -1032.98 -1340 26 23 29
-105.991 -1031.31 -1338 22 19 25
-102.914 -1031.95 -1339 23 20 25
-99.9819 -1034.15 -1342 23 20 25
-96.8206 -1034.03 -1342 22 20 25
-93.73 -1034.69 -1343 21 19 24
-90.5683 -1034.58 -1343 21 20 25
-87.6029 -1036.79 -1346 22 22 26
-84.2478 -1034.38 -1343 23 23 27
-81.1493 -1035.05 -1344 22 22 26
-78.2211 -1038.03 -1348 25 23 27
-75.2192 -1040.25 -1351 25 23 27
-72.2041 -1042.48 -1354 23 21 25
-69.1756 -1044.7 -1357 22 19 24
-66.1824 -1047.7 -1361 23 20 25
-63.1248 -1049.94 -1364 21 18 23
-59.966 -1050.63 -1365 20 17 22
-56.8863 -1052.88 -1368 20 17 22
-53.7146 -1053.58 -1369 20 17 22
-50.5388 -1054.29 -1370 22 18 23
-47.4279 -1056.54 -1373 23 20 25
-44.4323 -1061.87 -1380 22 19 24
-41.3148 -1064.9 -1384 24 21 26
-38.3715 -1073.32 -1395 27 24 27
-35.3266 -1080.2 -1404 33 27 31
-32.3313 -1090.16 -1417 51 44 47
-29.2957 -1100.89 -1431 65 56 59
-26.2311 -1113.17 -1447 74 60 58
-22.9655 -1119.3 -1455 79 61 59
-19.703 -1127.73 -1466 80 61 58
-16.3003 -1130.02 -1469 81 61 56
-12.91 -1134.62 -1475 81 61 56
-9.48521 -1138.45 -1480 84 63 58
-6.03323 -1141.52 -1484 114 85 76
-2.55889 -1143.05 -1486 131 94 82
0.924587 -1144.59 -1488 134 87 76
4.41448 -1145.36 -1489 141 89 80
7.91462 -1146.91 -1491 144 95 85
11.401 -1146.15 -1490 143 95 84
14.923 -1148.47 -1493 146 94 80
18.4469 -1150.03 -1495 131 87 76
21.9509 -1150.06 -1495 102 68 59
25.4553 -1150.08 -1495 89 60 53
29.018 -1152.42 -1498 83 60 56
32.5733 -1154 -1500 87 62 56
35.9941 -1150.96 -1496 88 63 61
39.6076 -1154.08 -1500 92 68 66
43.0677 -1152.59 -1498 94 69 67
46.5503 -1151.88 -1497 97 72 68
50.0284 -1151.16 -1496 108 77 68
53.6457 -1153.53 -1499 131 91 80
57.2394 -1155.14 -1501 147 98 85
61.0051 -1159.83 -1507 150 97 82
64.6712 -1162.21 -1510 155 101 84
68.3069 -1163.83 -1512 156 103 86
-173.164 -1169.87 -1508 48 28 28
-167.107 -1152.6 -1486 35 24 29
-153.481 -1104.91 -1425 28 18 23
-147.573 -1086.12 -1401 26 18 24
-142.913 -1075.87 -1388 25 17 21
-139.12 -1071.83 -1383 25 18 24
-135.648 -1070.12 -1381 23 18 26
-131.036 -1059.11 -1367 28 21 25
-127.333 -1055.09 -1362 28 21 25
-123.473 -1049.52 -1355 26 20 24
-119.559 -1043.18 -1347 26 20 24
-116.116 -1040.71 -1344 24 21 24
-112.52 -1036.71 -1339 27 24 29
-109.194 -1035.03 -1337 26 23 29
-105.958 -1034.12 -1336 23 20 27
-102.882 -1034.77 -1337 21 18 23
-100.025 -1037.75 -1341 23 20 25
-96.7905 -1036.86 -1340 23 22 26
-93.701 -1037.52 -1341 21 21 25
-90.4726 -1036.64 -1340 21 20 27
-87.3805 -1037.31 -1341 23 23 27
-84.1589 -1036.43 -1340 23 23 27
-80.9428 -1035.56 -1339 25 25 29
-78.0229 -1038.56 -1343 24 24 26
-75.085 -1041.56 -1347 24 24 27
-72.129 -1044.57 -1351 27 25 29
-69.3082 -1049.9 -1358 28 25 30
-66.1631 -1050.59 -1359 26 23 28
-63.2455 -1055.15 -1365 24 21 26
-59.9927 -1054.31 -1364 23 20 25
-56.9117 -1056.56 -1367 22 19 24
-53.7386 -1057.26 -1368 21 18 23
-50.6721 -1060.29 -1372 21 17 22
-47.4146 -1059.46 -1371 20 16 21
-44.4524 -1065.59 -1379 21 17 22
-41.4232 -1070.95 -1386 22 19 24
-38.3616 -1076.31 -1393 27 23 26
-35.2675 -1081.67 -1400 29 22 26
-32.3008 -1092.45 -1414 46 39 42
-29.2071 -1100.91 -1425 63 55 57
-26.153 -1113.24 -1441 74 58 55
-22.9451 -1121.71 -1452 77 59 57
-19.6857 -1130.18 -1463 79 60 57
-16.2749 -1131.71 -1465 81 61 56
-12.9075 -1137.87 -1473 86 65 60
-9.4642 -1139.4 -1475 88 64 60
-6.01992 -1142.48 -1479 112 81 73
-2.55152 -1143.25 -1480 131 94 82
0.923829 -1147.11 -1485 140 92 81
4.41395 -1148.66 -1487 147 93 85
7.9135 -1150.21 -1489 146 94 84
11.4146 -1151 -1490 148 97 86
14.9207 -1151.78 -1491 153 100 86
18.444 -1153.35 -1493 150 100 88
21.9182 -1151.83 -1491 118 81 71
25.383 -1150.31 -1489 93 63 55
28.897 -1151.12 -1490 89 64 60
32.4162 -1151.92 -1491 90 63 57
35.916 -1151.97 -1491 87 63 60
39.4958 -1154.33 -1494 89 65 62
43.0037 -1154.38 -1494 92 68 62
46.543 -1155.2 -1495 93 69 65
50.0541 -1155.26 -1495 94 70 62
53.5659 -1155.32 -1495 111 78 68
57.1162 -1156.16 -1496 141 101 88
60.8341 -1160.09 -1501 162 105 93
64.5761 -1164.03 -1506 161 106 90
68.1162 -1164.11 -1506 156 105 87
71.8474 -1167.29 -1510 154 103 84
75.5982 -1170.47 -1514 155 100 81
79.2638 -1172.1 -1516 157 100 79
82.776 -1171.43 -1515 158 100 84
-171.991 -1165.47 -1496 48 27 30
-166.068 -1148.91 -1475 36 23 28
-159.365 -1126.13 -1446 32 20 24
-153.341 -1107.25 -1422 32 20 23
-147.96 -1092.28 -1403 28 20 26
-143.186 -1081.21 -1389 27 19 23
-139.286 -1076.37 -1383 27 20 25
-135.711 -1073.87 -1380 28 24 29
-131.192 -1063.59 -1367 30 23 27
-127.859 -1062.66 -1366 27 22 25
-124.167 -1058.62 -1361 24 20 23
-119.968 -1049.92 -1350 24 20 23
-116.34 -1045.89 -1345 23 20 23
-112.738 -1041.87 -1340 26 23 28
-109.405 -1040.18 -1338 27 24 29
-106.084 -1038.5 -1336 24 21 28
-103.158 -1040.7 -1339 22 19 24
-100.07 -1041.36 -1340 24 21 26
-96.9777 -1042.02 -1341 24 22 27
-93.8122 -1041.91 -1341 23 23 27
-90.5801 -1041.02 -1340 25 24 31
-87.3537 -1040.14 -1339 24 24 28
-84.1958 -1040.04 -1339 24 24 28
-81.0993 -1040.71 -1340 25 25 28
-78.0573 -1042.17 -1342 26 26 28
-75.2299 -1046.74 -1348 26 26 30
-72.3749 -1051.31 -1354 26 25 29
-69.4925 -1055.89 -1360 27 24 29
-66.4364 -1058.13 -1363 25 22 27
-63.3669 -1060.39 -1366 25 22 27
-60.1959 -1061.09 -1367 27 24 29
-57.1041 -1063.35 -1370 27 24 29
-53.8415 -1062.51 -1369 25 22 27
-50.8061 -1066.33 -1374 24 20 25
-47.54 -1065.49 -1373 21 18 23
-44.4727 -1069.32 -1378 23 20 25
-41.4422 -1074.7 -1385 23 20 25
-38.4621 -1082.41 -1395 26 22 25
-35.3343 -1087.02 -1401 29 25 28
-32.2932 -1095.51 -1412 46 40 43
-29.2007 -1104.01 -1423 61 53 55
-26.1294 -1115.62 -1438 72 57 56
-22.9563 -1125.67 -1451 76 58 56
-19.7089 -1134.96 -1463 77 58 55
-16.283 -1135.71 -1464 80 60 55
-12.8964 -1140.35 -1470 83 62 57
-9.46887 -1143.44 -1474 91 66 61
-6.01881 -1145.76 -1477 112 80 71
-2.54931 -1145.75 -1477 137 99 86
0.922661 -1148.86 -1481 146 97 87
4.40749 -1150.41 -1483 153 96 86
7.90153 -1151.97 -1485 155 99 87
11.3899 -1151.98 -1485 159 103 91
14.9285 -1155.88 -1490 162 104 90
18.429 -1155.89 -1490 162 106 94
21.9295 -1155.92 -1490 132 92 82
25.3962 -1154.4 -1488 95 63 55
28.8732 -1153.65 -1487 87 62 58
32.3459 -1152.91 -1486 88 63 59
35.8624 -1153.73 -1487 88 64 62
39.4632 -1156.88 -1491 88 66 62
42.9682 -1156.93 -1491 89 70 63
46.5672 -1159.31 -1494 92 68 64
50.1136 -1160.14 -1495 98 71 64
53.6654 -1160.98 -1496 99 71 61
57.184 -1161.05 -1496 109 77 67
60.9064 -1165 -1501 141 90 84
64.5241 -1166.62 -1503 137 85 74
68.016 -1165.93 -1502 124 78 61
71.7422 -1169.11 -1506 127 81 63
75.338 -1169.98 -1507 143 92 76
79.0964 -1173.18 -1511 154 96 78
82.6009 -1172.49 -1510 157 98 86
86.3299 -1174.93 -1513 164 106 92
93.5242 -1175.92 -1514 195 128 112
-171.276 -1164.14 -1488 50 30 31
-165.59 -1149.07 -1469 43 28 30
-159.556 -1130.89 -1446 37 24 26
-153.524 -1111.93 -1422 33 21 24
-148.242 -1097.68 -1404 27 19 23
-143.667 -1088.12 -1392 26 18 20
-139.452 -1080.92 -1383 25 18 21
-135.873 -1078.41 -1380 23 19 24
-131.637 -1070.43 -1370 27 20 24
-127.637 -1064.03 -1362 23 19 22
-123.859 -1059.19 -1356 23 19 23
-120.289 -1055.92 -1352 23 19 22
-116.826 -1053.44 -1349 24 21 24
-113.125 -1048.61 -1343 26 23 28
-109.536 -1044.58 -1338 27 24 30
-106.21 -1042.89 -1336 25 22 29
-103.127 -1043.54 -1337 23 20 25
-99.8899 -1042.64 -1336 25 22 27
-96.8037 -1043.3 -1337 27 25 29
-93.6439 -1043.19 -1337 25 25 29
-90.6204 -1044.64 -1339 25 24 31
-87.3272 -1042.97 -1337 26 26 30
-84.2332 -1043.65 -1338 25 25 29
-81.0142 -1042.77 -1337 25 25 29
-78.0921 -1045.79 -1341 26 26 29
-75.2635 -1050.38 -1347 26 26 30
-72.4611 -1055.75 -1354 28 26 31
-69.7288 -1062.68 -1363 32 29 34
-66.6131 -1064.16 -1365 30 27 32
-63.5816 -1067.2 -1369 26 23 28
-60.2675 -1065.57 -1367 28 25 30
-57.172 -1067.84 -1370 29 26 31
-53.9449 -1067.77 -1370 29 26 31
-50.8295 -1070.05 -1373 28 24 29
-47.7352 -1073.11 -1377 28 25 30
-44.5256 -1073.83 -1378 27 24 29
-41.5515 -1080.79 -1387 26 23 28
-38.4249 -1084.64 -1392 27 23 28
-35.3006 -1089.27 -1398 32 28 31
-32.217 -1096.24 -1407 45 40 44
-29.112 -1104 -1417 59 52 56
-26.0694 -1116.43 -1433 70 56 55
-22.9677 -1129.65 -1450 76 58 56
-19.7322 -1139.75 -1463 77 58 54
-16.3134 -1141.29 -1465 78 58 53
-12.9117 -1145.16 -1470 82 61 56
-9.45449 -1145.15 -1470 91 66 60
-6.00956 -1147.48 -1473 112 78 69
-2.54538 -1147.47 -1473 141 100 89
0.921278 -1150.59 -1477 151 102 92
4.40378 -1152.93 -1480 162 105 93
7.8951 -1154.49 -1482 165 108 94
11.3959 -1156.06 -1484 169 111 96
14.9365 -1159.98 -1489 170 109 94
18.4262 -1159.22 -1488 170 112 97
21.9411 -1160.02 -1489 144 100 89
25.4095 -1158.49 -1487 99 62 55
28.8882 -1157.74 -1486 89 61 58
32.3409 -1156.22 -1484 89 65 61
35.8327 -1156.26 -1484 91 67 63
39.3514 -1157.09 -1485 89 67 63
42.9329 -1159.47 -1488 88 68 63
46.5291 -1161.87 -1491 91 69 62
50.0727 -1162.7 -1492 97 70 62
53.6575 -1164.32 -1494 96 70 62
57.2906 -1166.73 -1497 100 72 64
60.9791 -1169.92 -1501 126 86 81
64.5151 -1169.99 -1501 138 89 79
68.0519 -1170.07 -1501 134 87 73
71.6848 -1171.71 -1503 138 89 73
75.1276 -1170.24 -1501 149 97 80
78.7715 -1171.89 -1503 158 105 89
82.4803 -1174.33 -1506 166 108 91
86.1474 -1175.99 -1508 175 115 98
89.8245 -1177.65 -1510 193 130 112
93.5122 -1179.32 -1512 197 129 114
-170.791 -1164.35 -1482 51 29 29
-165.564 -1152.36 -1467 52 35 34
-159.969 -1137.24 -1448 62 47 47
-154.033 -1118.99 -1425 38 24 27
-148.527 -1103.1 -1405 29 18 23
-143.426 -1089.58 -1388 28 18 21
-139.317 -1083.13 -1380 29 20 22
-135.445 -1078.26 -1374 24 19 24
-131.795 -1074.96 -1370 26 19 23
-127.884 -1069.31 -1363 23 18 23
-124.191 -1065.23 -1358 23 19 24
-120.611 -1061.95 -1354 24 20 23
-116.879 -1057.1 -1348 25 22 25
-113.429 -1054.61 -1345 26 23 28
-109.995 -1052.12 -1342 27 24 29
-106.736 -1051.21 -1341 24 21 28
-103.328 -1048.73 -1338 22 19 24
-100.159 -1048.61 -1338 23 20 25
-97.2098 -1050.84 -1341 25 24 28
-93.8964 -1049.16 -1339 23 23 27
-91 -1052.18 -1343 23 22 29
-87.6934 -1050.51 -1341 26 26 30
-84.3971 -1048.84 -1339 26 26 30
-81.4753 -1051.87 -1343 25 25 29
-78.652 -1056.47 -1349 26 26 30
-75.6893 -1059.51 -1353 27 27 31
-72.7622 -1063.34 -1358 28 26 31
-69.9147 -1068.73 -1365 30 27 32
-66.7417 -1069.44 -1366 31 28 33
-63.7507 -1073.27 -1371 29 26 31
-60.4719 -1072.41 -1370 27 24 29
-57.2404 -1072.34 -1370 30 27 32
-54.0489 -1073.06 -1371 31 28 33
-50.8532 -1073.78 -1372 30 26 31
-47.7229 -1076.07 -1375 28 25 30
-44.6435 -1079.93 -1380 24 22 27
-41.5711 -1084.57 -1386 22 19 24
-38.4432 -1088.43 -1391 28 24 29
-35.2921 -1092.3 -1396 33 29 34
-32.1638 -1097.74 -1403 41 36 40
-29.0645 -1105.53 -1413 56 48 51
-26.0095 -1117.23 -1428 67 53 52
-22.9316 -1131.28 -1446 74 58 55
-19.7152 -1142.21 -1460 74 57 53
-16.3217 -1145.32 -1464 73 54 50
-12.9094 -1148.43 -1468 77 56 51
-9.45276 -1148.42 -1468 85 59 53
-6.0003 -1149.19 -1469 121 85 75
-2.54123 -1149.18 -1469 152 110 96
0.920108 -1152.31 -1473 162 113 102
4.39433 -1153.88 -1475 168 115 99
7.88867 -1157.02 -1479 173 116 100
11.3944 -1159.38 -1482 175 117 100
14.9343 -1163.3 -1487 177 116 98
18.4113 -1161.76 -1485 178 117 101
21.9379 -1163.35 -1487 153 103 92
25.4058 -1161.81 -1485 103 62 54
28.8257 -1158.72 -1481 95 65 62
32.2707 -1157.19 -1479 92 68 64
35.8032 -1158.79 -1481 92 70 64
39.2925 -1158.84 -1481 93 70 64
42.869 -1161.24 -1484 96 71 65
46.5538 -1165.98 -1490 95 72 67
50.1328 -1167.61 -1492 93 70 65
53.6141 -1166.89 -1491 94 70 63
57.2828 -1170.08 -1495 100 74 65
60.8896 -1171.72 -1497 112 82 73
64.5064 -1173.36 -1499 151 100 88
67.9974 -1172.66 -1498 160 107 89
71.6274 -1174.31 -1500 162 107 88
75.2178 -1175.18 -1501 165 109 88
78.7085 -1174.49 -1500 172 112 90
82.415 -1176.93 -1503 173 110 91
86.0218 -1177.82 -1504 176 114 96
89.8728 -1181.84 -1509 185 123 106
93.4387 -1181.95 -1509 189 125 106
97.2629 -1185.2 -1513 184 117 98
100.973 -1186.89 -1515 133 76 69
-170.19 -1163.74 -1475 69 45 42
-165.312 -1154.07 -1463 92 71 67
-160.052 -1141.25 -1447 100 81 78
-154.328 -1124.5 -1426 38 24 25
-149.024 -1110.12 -1408 30 19 24
-143.807 -1095.76 -1390 29 19 22
-139.688 -1089.28 -1382 29 20 22
-135.707 -1083.6 -1375 27 20 24
-131.665 -1077.13 -1367 26 19 23
-127.945 -1073.03 -1362 26 21 25
-124.066 -1067.37 -1355 26 22 27
-120.668 -1065.64 -1353 24 21 24
-117.02 -1061.56 -1348 25 22 25
-113.904 -1062.21 -1349 28 25 29
-110.292 -1058.14 -1344 27 24 30
-106.864 -1055.64 -1341 25 22 29
-103.53 -1053.94 -1339 24 21 26
-100.205 -1052.24 -1337 26 23 28
-97.1818 -1053.7 -1339 25 23 27
-94.0095 -1053.58 -1339 23 23 27
-91.1775 -1057.41 -1344 24 23 30
-87.8644 -1055.72 -1342 24 24 29
-85.0036 -1059.55 -1347 23 23 27
-81.6341 -1057.09 -1344 23 23 27
-78.805 -1061.72 -1350 26 26 30
-75.9484 -1066.34 -1356 24 26 30
-72.957 -1069.4 -1360 25 26 30
-69.9475 -1072.46 -1364 26 26 30
-66.8219 -1073.95 -1366 29 26 31
-63.6877 -1075.44 -1368 26 23 28
-60.4563 -1075.36 -1368 27 24 29
-57.2255 -1075.29 -1368 28 25 30
-54.0743 -1076.8 -1370 29 26 31
-50.9143 -1078.31 -1372 30 26 31
-47.7454 -1079.82 -1374 27 25 30
-44.6324 -1082.91 -1378 23 23 27
-41.5609 -1087.57 -1384 24 21 26
-38.351 -1089.09 -1386 28 24 29
-35.2079 -1092.98 -1391 31 27 32
-32.1106 -1099.22 -1399 37 32 36
-29.017 -1107.04 -1409 55 47 49
-25.9495 -1118.01 -1423 67 53 52
-22.8638 -1131.34 -1440 73 57 55
-19.6578 -1142.31 -1454 75 58 56
-16.2965 -1147 -1460 74 56 53
-12.8897 -1150.13 -1464 78 57 52
-9.43816 -1150.12 -1464 86 59 53
-5.99512 -1151.68 -1466 133 97 87
-2.54248 -1153.24 -1468 158 114 100
0.9206 -1156.39 -1472 167 116 104
4.39382 -1157.17 -1473 168 118 99
7.89293 -1161.11 -1478 171 117 99
11.4005 -1163.48 -1481 173 116 98
14.9223 -1165.85 -1484 174 118 99
18.3839 -1163.51 -1481 176 115 97
21.8906 -1164.32 -1482 144 93 83
25.3338 -1162 -1479 106 64 57
28.724 -1158.1 -1474 97 67 64
32.1349 -1155.78 -1471 94 69 65
35.7253 -1159.75 -1476 92 71 64
39.1806 -1159.01 -1475 95 71 63
42.8049 -1162.99 -1480 100 73 64
46.4848 -1167.76 -1486 98 69 66
50.0924 -1170.17 -1489 90 68 67
53.6066 -1170.24 -1489 92 69 62
57.3519 -1175.02 -1495 96 72 63
61.0037 -1177.45 -1498 103 78 67
64.5412 -1177.52 -1498 159 108 94
68.034 -1176.82 -1497 177 122 102
71.6662 -1178.47 -1499 180 123 101
75.2081 -1178.56 -1499 187 127 103
78.751 -1178.66 -1499 194 128 99
82.4046 -1180.33 -1501 192 125 102
86.1257 -1182.79 -1504 193 124 105
89.9812 -1186.83 -1509 191 123 105
93.3654 -1184.58 -1506 183 119 101
97.1227 -1187.05 -1509 153 96 88
100.628 -1186.38 -1508 96 57 54
104.476 -1189.66 -1512 62 28 27
108.272 -1192.15 -1515 58 27 28
-169.935 -1165.48 -1471 94 70 63
-165.287 -1157.36 -1461 101 77 70
-160.357 -1146.86 -1448 122 98 91
-154.516 -1129.25 -1426 45 28 29
-149.205 -1114.81 -1408 28 17 22
-143.981 -1100.38 -1390 31 20 24
-139.857 -1093.87 -1382 29 19 21
-135.971 -1088.96 -1376 28 20 24
-132.211 -1084.84 -1371 26 19 23
-128.664 -1082.31 -1368 26 21 26
-124.583 -1075.03 -1359 26 22 26
-120.903 -1070.93 -1354 24 21 24
-117.336 -1067.62 -1350 25 22 25
-113.958 -1065.9 -1348 27 24 29
-110.344 -1061.81 -1343 27 24 29
-107.313 -1063.26 -1345 25 22 29
-103.887 -1060.76 -1342 25 22 27
-100.477 -1058.26 -1339 27 24 29
-97.5901 -1061.3 -1343 25 23 28
-94.4748 -1061.98 -1344 24 24 28
-91.3557 -1062.65 -1345 25 24 31
-88.5608 -1067.28 -1351 25 25 29
-85.3592 -1067.18 -1351 23 23 27
-82.4018 -1070.24 -1355 24 24 28
-79.3094 -1071.72 -1357 25 25 29
-76.3768 -1075.57 -1362 22 24 28
-73.1527 -1075.48 -1362 21 22 26
-70.032 -1076.97 -1364 23 23 27
-66.8537 -1077.68 -1365 24 21 28
-63.6248 -1077.6 -1365 24 21 26
-60.3966 -1077.53 -1365 26 23 28
-57.2528 -1079.03 -1367 25 22 27
-54.0211 -1078.97 -1367 25 22 27
-50.9015 -1081.27 -1370 28 24 29
-47.6986 -1082 -1371 27 25 30
-44.5565 -1084.31 -1374 27 26 31
-41.5208 -1089.78 -1381 27 24 29
-38.3419 -1092.1 -1384 31 27 32
-35.149 -1094.43 -1387 32 28 33
-32.0344 -1099.91 -1394 35 30 35
-28.9282 -1106.97 -1403 50 43 46
-25.853 -1117.2 -1416 66 52 51
-22.7642 -1129.79 -1432 71 55 53
-19.6137 -1143.18 -1449 74 56 53
-16.2937 -1150.26 -1458 74 54 49
-12.8874 -1153.4 -1462 75 54 47
-9.44312 -1154.17 -1463 88 61 53
-5.98994 -1154.16 -1463 143 107 95
-2.54028 -1155.73 -1465 158 114 100
0.918804 -1157.31 -1467 165 114 102
4.38435 -1158.1 -1468 167 115 97
7.86513 -1160.48 -1471 168 114 95
11.3835 -1165.22 -1477 172 117 97
14.89 -1166.82 -1479 173 119 98
18.3317 -1163.68 -1475 171 114 96
21.8579 -1166.07 -1478 122 83 73
25.313 -1164.52 -1476 98 65 60
28.7393 -1162.19 -1473 96 69 65
32.1956 -1161.44 -1472 91 67 64
35.7444 -1163.85 -1475 94 69 63
39.1483 -1161.52 -1472 95 71 65
42.828 -1167.1 -1479 95 71 65
46.447 -1170.31 -1483 94 70 64
49.9847 -1171.16 -1484 95 71 65
53.5636 -1172.8 -1486 94 69 62
57.4213 -1179.97 -1495 95 69 59
61.0777 -1182.41 -1498 99 72 58
64.5762 -1181.7 -1497 145 104 91
68.1618 -1182.57 -1498 183 133 113
71.7528 -1183.44 -1499 191 135 113
75.0985 -1180.37 -1495 200 139 114
78.4784 -1178.1 -1492 201 140 108
82.2296 -1181.35 -1496 203 139 115
85.8861 -1183.03 -1498 199 135 116
89.6128 -1185.51 -1501 173 112 96
93.2924 -1187.2 -1503 144 88 75
97.1115 -1190.48 -1507 119 71 62
100.617 -1189.81 -1506 73 39 38
104.187 -1189.93 -1506 60 28 28
108.045 -1193.22 -1510 61 30 31
-169.911 -1168.81 -1469 91 67 59
-165.263 -1160.65 -1459 97 72 63
-160.331 -1150.11 -1446 123 97 87
-154.921 -1135.6 -1428 49 33 32
-149.599 -1121.1 -1410 28 16 21
-144.365 -1106.61 -1392 29 17 21
-140.332 -1100.87 -1385 29 19 21
-136.335 -1095.14 -1378 26 18 22
-132.372 -1089.41 -1371 26 19 23
-128.821 -1086.87 -1368 25 21 25
-124.735 -1079.56 -1359 23 20 25
-121.319 -1077.82 -1357 24 21 24
-117.566 -1072.91 -1351 25 22 27
-114.181 -1071.18 -1349 26 23 28
-110.56 -1067.08 -1344 26 23 28
-107.444 -1067.74 -1345 24 21 28
-104.014 -1065.23 -1342 25 22 27
-100.674 -1063.51 -1340 26 23 28
-97.4907 -1063.39 -1340 26 23 28
-94.5898 -1066.45 -1344 26 25 30
-91.603 -1068.72 -1347 26 25 31
-88.7998 -1073.37 -1353 26 26 30
-85.6528 -1074.05 -1354 25 25 29
-82.8673 -1079.5 -1361 24 24 28
-79.6399 -1079.4 -1361 22 22 26
-76.4696 -1080.1 -1362 21 22 27
-73.134 -1078.43 -1360 20 21 26
-70.0143 -1079.92 -1362 23 22 28
-66.7388 -1079.05 -1361 25 22 28
-63.5154 -1078.97 -1361 23 20 25
-60.3813 -1080.48 -1363 24 21 26
-57.1965 -1081.2 -1364 25 22 27
-53.968 -1081.13 -1364 28 25 30
-50.8517 -1083.45 -1367 29 26 31
-47.7217 -1085.76 -1370 30 27 32
-44.5456 -1087.29 -1372 27 24 29
-41.4207 -1090.41 -1376 26 23 28
-38.2496 -1092.74 -1379 30 27 32
-35.0648 -1095.07 -1382 31 28 33
-31.9122 -1098.99 -1387 32 29 33
-28.7981 -1105.3 -1395 41 37 40
-25.7014 -1113.98 -1406 56 46 51
-22.5848 -1124.25 -1419 65 49 51
-19.4612 -1137.69 -1436 68 52 52
-16.224 -1148.76 -1450 69 53 52
-12.8676 -1155.08 -1458 72 51 46
-9.43497 -1156.65 -1460 101 70 62
-5.99296 -1158.23 -1462 144 107 96
-2.54502 -1161.39 -1466 151 108 96
0.92181 -1164.56 -1470 157 109 97
4.3926 -1163.77 -1469 163 108 95
7.88569 -1166.95 -1473 167 111 97
11.4052 -1170.92 -1478 168 112 98
14.8981 -1170.94 -1478 169 116 101
18.3291 -1167 -1473 135 92 78
21.8699 -1170.19 -1477 93 63 58
25.3095 -1167.84 -1474 90 63 60
28.7354 -1165.5 -1471 91 66 62
32.1912 -1164.74 -1470 90 66 62
35.7395 -1167.16 -1473 93 68 62
39.1427 -1164.83 -1470 93 68 63
42.793 -1169.63 -1476 93 69 65
46.3782 -1172.07 -1479 94 70 64
49.9444 -1173.71 -1481 93 69 63
53.5204 -1175.36 -1483 94 69 61
57.3374 -1181.77 -1491 94 68 58
60.9887 -1184.22 -1494 97 70 57
64.5686 -1185.09 -1495 127 93 80
68.1994 -1186.75 -1497 168 119 102
71.6966 -1186.04 -1496 175 120 100
75.0391 -1182.96 -1492 180 122 100
78.4686 -1181.47 -1490 176 123 95
82.2198 -1184.74 -1494 161 108 87
85.7037 -1184.05 -1493 143 89 73
89.6621 -1189.71 -1500 129 78 64
93.2818 -1190.61 -1501 123 75 62
97.101 -1193.9 -1505 100 61 53
100.472 -1191.64 -1502 63 32 32
104.176 -1193.36 -1504 59 28 29
107.962 -1195.87 -1507 60 28 30
-169.657 -1170.54 -1465 90 66 58
-165.126 -1163.14 -1456 92 67 59
-160.195 -1152.56 -1443 116 91 81
-155.22 -1141.18 -1429 54 37 34
-149.995 -1127.42 -1412 34 20 22
-144.853 -1113.67 -1395 32 21 23
-140.606 -1106.31 -1386 26 17 19
-136.997 -1103.74 -1383 22 18 23
-133.114 -1098.79 -1377 27 19 23
-129.733 -1097.83 -1376 27 20 24
-125.715 -1091.29 -1368 24 20 23
-121.647 -1083.96 -1359 22 19 24
-117.971 -1079.82 -1354 24 21 28
-114.406 -1076.49 -1350 26 23 29
-110.943 -1073.96 -1347 25 22 27
-107.495 -1071.44 -1344 23 20 25
-104.374 -1072.1 -1345 24 21 26
-101.249 -1072.77 -1346 27 24 29
-97.9741 -1071.85 -1345 28 25 30
-94.9169 -1073.33 -1347 28 25 30
-91.9193 -1075.61 -1350 25 25 29
-88.974 -1078.68 -1354 22 22 26
-85.8842 -1080.17 -1356 24 24 28
-83.0295 -1084.84 -1362 24 24 28
-79.7958 -1084.74 -1362 22 22 26
-76.4506 -1083.06 -1360 22 21 28
-73.2233 -1082.96 -1360 21 20 27
-69.9969 -1082.88 -1360 22 21 28
-66.6239 -1080.4 -1357 22 19 24
-63.4995 -1081.92 -1359 19 16 21
-60.322 -1082.64 -1360 23 20 25
-57.1823 -1084.16 -1362 27 24 29
-53.9942 -1084.89 -1363 29 26 31
-50.8392 -1086.41 -1365 32 29 34
-47.7101 -1088.74 -1368 30 27 32
-44.5675 -1091.07 -1371 25 22 27
-41.3808 -1092.61 -1373 26 23 28
-38.2129 -1094.95 -1376 31 28 33
-35.0059 -1096.5 -1378 31 28 33
-31.8358 -1099.64 -1382 28 25 30
-28.6885 -1104.38 -1388 33 29 34
-25.5314 -1109.91 -1395 47 39 44
-22.3892 -1117.84 -1405 62 47 49
-19.2814 -1130.54 -1421 63 47 47
-16.0755 -1141.66 -1435 65 49 47
-12.786 -1151.19 -1447 73 52 47
-9.3947 -1155.15 -1452 94 65 61
-5.97139 -1157.53 -1455 114 82 76
-2.54109 -1163.1 -1462 117 81 73
0.921901 -1167.87 -1468 121 81 72
4.39811 -1168.67 -1469 128 84 77
7.88465 -1170.26 -1471 129 86 80
11.4116 -1175.05 -1477 120 79 72
14.9164 -1175.86 -1478 104 66 60
18.3391 -1171.11 -1472 82 55 49
21.8375 -1171.93 -1473 86 60 58
25.289 -1170.37 -1471 90 64 62
28.7314 -1168.81 -1469 90 65 61
32.1868 -1168.05 -1468 87 63 58
35.7589 -1171.28 -1472 87 63 57
39.2174 -1170.53 -1471 88 64 59
42.8454 -1174.55 -1476 91 67 62
46.3409 -1174.61 -1476 91 67 61
49.8705 -1175.46 -1477 89 65 60
53.4416 -1177.12 -1479 91 66 59
57.1381 -1181.17 -1484 94 68 59
60.7772 -1183.63 -1487 97 68 56
64.4745 -1186.89 -1491 102 69 57
68.1003 -1188.56 -1493 116 74 60
71.6403 -1188.65 -1493 121 75 60
75.1811 -1188.74 -1493 119 72 57
78.7228 -1188.83 -1493 112 66 50
82.3204 -1189.73 -1494 111 65 53
85.8086 -1189.03 -1493 116 70 58
89.5327 -1191.53 -1496 116 71 60
93.0228 -1190.85 -1495 109 66 56
96.6385 -1191.76 -1496 82 49 43
100.126 -1191.08 -1495 57 30 30
103.749 -1192.01 -1496 56 26 27
107.592 -1195.32 -1500 0 0 0
-169.287 -1171.46 -1460 88 65 57
-164.762 -1164.03 -1451 88 65 56
-159.615 -1151.8 -1436 93 70 59
-154.868 -1141.98 -1424 59 40 37
-150.074 -1131.37 -1411 39 24 24
-145.448 -1121.56 -1399 35 23 24
-141.389 -1115.77 -1392 28 20 22
-137.662 -1112.4 -1388 21 18 23
-133.666 -1106.62 -1381 24 18 22
-130.271 -1105.66 -1380 25 19 23
-126.146 -1098.29 -1371 23 20 25
-122.514 -1094.93 -1367 23 19 24
-118.727 -1089.97 -1361 24 20 25
-115.056 -1085.83 -1356 26 22 27
-111.409 -1081.68 -1351 24 21 26
-107.948 -1079.15 -1348 23 20 25
-104.424 -1075.81 -1344 24 21 26
-101.147 -1074.89 -1343 27 24 29
-98.0217 -1075.56 -1344 28 25 30
-94.963 -1077.05 -1346 27 24 29
-91.9641 -1079.33 -1349 24 22 27
-89.0833 -1083.22 -1354 24 23 27
-85.9897 -1084.71 -1356 23 23 27
-82.8874 -1086.21 -1358 22 22 26
-79.7178 -1086.91 -1359 23 23 27
-76.4319 -1086.01 -1358 22 21 28
-73.0976 -1084.32 -1356 22 20 27
-69.7735 -1082.63 -1354 23 20 25
-66.6073 -1083.35 -1355 24 21 26
-63.4371 -1084.07 -1356 27 23 28
-60.2627 -1084.79 -1357 30 26 31
-57.0423 -1084.72 -1357 31 27 32
-53.9811 -1087.85 -1361 31 28 33
-50.7897 -1088.58 -1362 30 27 32
-47.629 -1090.12 -1364 27 24 29
-44.4593 -1091.66 -1366 24 21 26
-41.3108 -1094.01 -1369 27 24 29
-38.1207 -1095.56 -1371 32 29 34
-34.8961 -1096.31 -1372 30 27 32
-31.7594 -1100.27 -1377 31 28 33
-28.5166 -1101.03 -1378 32 29 33
-25.3977 -1107.39 -1386 43 35 41
-22.2091 -1112.15 -1392 52 40 42
-19.1283 -1124.91 -1408 56 42 43
-15.927 -1134.48 -1420 60 45 44
-12.6954 -1146.44 -1435 67 43 41
-9.34766 -1152.82 -1443 68 43 41
-5.95799 -1158.4 -1450 74 48 45
-2.5352 -1163.99 -1457 80 54 49
0.919893 -1168.78 -1463 78 49 43
4.38865 -1169.58 -1464 78 53 51
7.86754 -1171.19 -1466 83 57 56
11.3792 -1175.2 -1471 83 57 56
14.9047 -1178.41 -1475 79 54 52
18.3618 -1176.03 -1472 75 53 52
21.8941 -1178.45 -1475 84 59 55
25.3374 -1176.09 -1472 85 60 56
28.8256 -1176.12 -1472 86 61 57
32.3141 -1176.16 -1472 84 60 56
35.9003 -1179.4 -1476 84 60 56
39.319 -1177.05 -1473 85 61 58
42.9854 -1181.89 -1479 86 62 59
46.4293 -1180.35 -1477 87 63 58
49.9655 -1181.21 -1478 87 63 59
53.471 -1181.27 -1478 87 63 57
57.1698 -1185.33 -1483 88 62 54
60.6474 -1184.61 -1482 89 62 52
64.3375 -1187.88 -1486 93 59 51
67.9558 -1189.56 -1488 94 60 48
71.3922 -1188.05 -1486 99 62 52
74.82 -1186.54 -1484 104 65 55
78.4501 -1188.23 -1486 114 72 62
82.146 -1190.73 -1489 119 78 71
85.5115 -1188.44 -1486 112 72 64
89.2833 -1191.74 -1490 97 59 53
92.8882 -1192.66 -1491 76 41 36
96.6928 -1195.97 -1495 61 32 32
100.182 -1195.29 -1494 54 30 31
103.946 -1197.82 -1497 57 27 28
107.653 -1199.55 -1499 0 0 0
-169.033 -1173.17 -1456 89 65 59
-164.853 -1168.13 -1450 86 62 55
-159.924 -1157.45 -1437 80 57 48
-155.605 -1150.81 -1429 53 33 30
-151.006 -1141.77 -1418 38 23 22
-146.461 -1132.72 -1407 33 20 21
-141.971 -1123.69 -1396 30 22 24
-138.031 -1118.69 -1390 27 23 28
-134.122 -1113.69 -1384 27 21 25
-130.432 -1110.31 -1380 26 20 24
-126.578 -1105.32 -1374 22 19 23
-123.114 -1103.56 -1372 23 20 25
-119.049 -1096.17 -1363 25 22 28
-115.283 -1091.2 -1357 26 23 29
-111.795 -1088.64 -1354 26 23 28
-108.242 -1085.29 -1350 25 22 27
-104.709 -1081.94 -1346 23 20 25
-101.272 -1079.41 -1343 24 21 26
-98.1428 -1080.09 -1344 25 22 27
-94.939 -1079.97 -1344 25 22 27
-91.8046 -1080.65 -1345 25 22 27
-89.0616 -1086.17 -1352 24 23 27
-85.8419 -1086.06 -1352 22 22 26
-82.8675 -1089.17 -1356 21 21 25
-79.5226 -1087.46 -1354 23 20 25
-76.3571 -1088.17 -1355 25 22 28
-72.9718 -1085.67 -1352 24 21 27
-69.808 -1086.38 -1353 24 21 26
-66.5418 -1085.49 -1352 28 25 30
-63.3279 -1085.41 -1352 31 27 32
-60.2036 -1086.94 -1354 32 28 33
-57.0704 -1088.48 -1356 31 27 32
-53.8887 -1089.21 -1357 33 29 34
-50.8522 -1093.16 -1362 31 28 33
-47.6876 -1094.7 -1364 28 25 30
-44.4489 -1094.65 -1364 27 24 29
-41.2407 -1095.39 -1365 31 28 33
-38.0285 -1096.15 -1366 33 30 35
-34.8372 -1097.71 -1368 32 29 34
-31.6368 -1099.27 -1370 29 26 31
-28.4688 -1102.44 -1374 30 27 32
-25.3188 -1107.23 -1380 37 32 37
-22.1246 -1111.21 -1385 47 36 41
-19.0022 -1120.81 -1397 52 39 42
-15.7781 -1127.21 -1405 55 41 41
-12.5693 -1138.42 -1419 65 42 41
-9.27479 -1147.23 -1430 71 46 45
-5.91599 -1153.64 -1438 75 52 50
-2.51558 -1158.45 -1444 75 54 51
0.915579 -1166.47 -1454 74 53 49
4.37617 -1169.68 -1458 73 55 53
7.85062 -1172.1 -1461 78 58 56
11.3779 -1178.53 -1469 78 58 56
14.913 -1182.56 -1474 78 55 54
18.4096 -1182.58 -1474 75 53 52
21.9657 -1185.81 -1478 79 56 52
25.4204 -1183.43 -1475 81 57 54
28.8808 -1181.86 -1473 82 58 55
32.398 -1182.7 -1474 83 59 55
35.9447 -1184.35 -1476 84 62 56
39.3942 -1182.79 -1474 84 61 58
42.9804 -1185.25 -1477 83 60 57
46.4237 -1183.7 -1475 85 60 56
49.9597 -1184.56 -1476 82 58 54
53.4648 -1184.63 -1476 82 58 54
57.0475 -1186.3 -1478 82 60 54
60.5585 -1186.37 -1478 81 59 53
64.2435 -1189.66 -1482 88 57 52
67.8569 -1191.35 -1484 88 60 52
71.24 -1189.03 -1481 95 64 56
74.862 -1190.72 -1483 100 65 59
78.4415 -1191.62 -1484 96 59 55
82.0818 -1193.33 -1486 83 50 46
85.4445 -1191.02 -1483 72 42 38
89.1537 -1193.54 -1486 65 37 34
92.6287 -1192.85 -1485 56 30 29
96.4238 -1196.18 -1489 56 28 30
99.9705 -1196.3 -1489 56 30 34
103.727 -1198.84 -1492 0 0 0
-168.895 -1175.68 -1453 97 73 68
-164.489 -1169 -1445 90 66 60
-159.678 -1159.09 -1433 80 57 48
-155.362 -1152.42 -1425 53 33 28
-150.767 -1143.33 -1414 39 22 21
-146.539 -1136.68 -1406 34 20 21
-142.046 -1127.61 -1395 30 22 24
-138.203 -1123.39 -1390 29 24 27
-134.095 -1116.76 -1382 29 23 27
-130.594 -1114.97 -1380 29 22 26
-126.736 -1109.97 -1374 29 25 28
-123.087 -1106.58 -1370 27 24 29
-119.284 -1101.58 -1364 28 25 32
-115.851 -1099.82 -1362 30 26 33
-112.099 -1094.84 -1356 29 25 30
-108.537 -1091.47 -1352 26 23 28
-104.917 -1087.3 -1347 24 21 26
-101.473 -1084.75 -1344 25 22 27
-98.1184 -1083.01 -1342 28 25 30
-94.9155 -1082.89 -1342 27 24 29
-92.1236 -1087.62 -1348 26 23 28
-89.2381 -1091.54 -1353 23 22 26
-85.8848 -1089.81 -1351 20 20 24
-82.7866 -1091.32 -1353 19 19 23
-79.4448 -1089.61 -1351 21 18 23
-76.2262 -1089.51 -1351 23 20 25
-72.9002 -1087.81 -1349 24 21 26
-69.7396 -1088.52 -1350 28 25 30
-66.5257 -1088.44 -1350 33 30 35
-63.3126 -1088.36 -1350 34 29 35
-60.2337 -1090.7 -1353 32 27 33
-57.099 -1092.24 -1355 30 26 31
-53.9953 -1094.59 -1358 33 29 34
-50.8404 -1096.14 -1360 29 25 30
-47.7116 -1098.49 -1363 27 24 28
-44.4712 -1098.44 -1363 30 27 31
-41.2616 -1099.19 -1364 33 30 35
-37.9918 -1098.33 -1363 34 31 36
-34.8037 -1099.9 -1365 33 30 35
-31.6066 -1101.47 -1367 29 26 31
-28.4003 -1103.04 -1369 27 24 29
-25.2215 -1106.24 -1373 31 26 33
-21.992 -1107.82 -1375 43 36 40
-18.8349 -1114.24 -1383 55 45 47
-15.6064 -1118.24 -1388 61 47 46
-12.3985 -1126.28 -1398 65 48 42
-9.15632 -1135.94 -1410 71 50 47
-5.85721 -1145.6 -1422 73 52 49
-2.49069 -1150.42 -1428 75 54 51
0.908098 -1160.09 -1440 78 56 55
4.35466 -1167.35 -1449 80 56 52
7.81194 -1169.77 -1452 80 56 53
11.3378 -1177.84 -1462 82 58 56
14.9214 -1186.72 -1473 84 60 58
18.4575 -1189.15 -1476 79 57 54
21.993 -1190.79 -1478 79 55 52
25.4693 -1189.21 -1476 80 56 54
28.9169 -1186.83 -1473 83 59 57
32.3502 -1184.45 -1470 82 58 54
35.843 -1184.49 -1470 82 61 55
39.3362 -1184.54 -1470 80 59 56
42.8589 -1185.39 -1471 80 58 54
46.3554 -1185.45 -1471 80 55 51
49.8524 -1185.51 -1471 79 54 50
53.3499 -1185.57 -1471 77 53 49
56.848 -1185.64 -1471 76 52 48
60.3466 -1185.71 -1471 75 50 46
64.0631 -1189.82 -1476 76 49 46
67.7123 -1192.32 -1479 74 49 44
71.0876 -1189.99 -1476 72 46 42
74.6518 -1190.89 -1477 70 44 42
78.3272 -1193.4 -1480 66 40 40
81.852 -1193.5 -1480 59 37 35
85.0891 -1189.57 -1475 50 29 24
88.8441 -1192.91 -1479 45 24 20
92.4317 -1193.83 -1480 47 23 21
96.025 -1194.75 -1481 55 25 27
-168.525 -1176.56 -1448 96 72 67
-164.353 -1171.47 -1442 96 72 66
-159.655 -1162.33 -1431 87 64 55
-155.339 -1155.64 -1423 58 38 33
-150.636 -1145.7 -1411 39 21 19
-146.827 -1142.27 -1407 33 19 20
-142.121 -1131.53 -1394 28 20 22
-138.177 -1126.49 -1388 25 20 23
-134.165 -1120.64 -1381 25 20 24
-130.852 -1120.47 -1381 26 21 26
-126.894 -1114.63 -1374 23 20 24
-123.151 -1110.42 -1369 25 21 26
-119.696 -1108.64 -1367 26 23 28
-115.741 -1102.01 -1359 26 23 28
-112.073 -1097.81 -1354 29 25 30
-108.431 -1093.62 -1349 30 26 31
-105.126 -1092.68 -1348 26 23 28
-101.6 -1089.31 -1344 25 22 27
-98.314 -1088.37 -1343 28 25 30
-95.1047 -1088.25 -1343 26 23 28
-92.1016 -1090.56 -1346 26 23 28
-89.0192 -1092.07 -1348 24 21 26
-85.8009 -1091.96 -1348 21 18 23
-82.6449 -1092.67 -1349 19 19 23
-79.3083 -1090.94 -1347 22 19 24
-76.1516 -1091.66 -1348 25 22 27
-72.8828 -1090.75 -1347 27 24 29
-69.723 -1091.47 -1348 30 27 31
-66.5098 -1091.39 -1348 35 31 36
-63.3914 -1092.93 -1350 38 31 37
-60.2195 -1093.66 -1351 36 29 35
-57.1702 -1096.83 -1355 33 27 33
-54.0226 -1098.37 -1357 30 26 31
-50.9037 -1100.74 -1360 27 23 28
-47.771 -1103.1 -1363 30 26 30
-44.4938 -1102.24 -1362 32 29 32
-41.3128 -1103.8 -1364 33 30 35
-38.0111 -1102.13 -1362 34 31 36
-34.8471 -1104.52 -1365 31 28 33
-31.5996 -1104.47 -1365 29 26 31
-28.3732 -1105.25 -1366 27 24 31
-25.1792 -1107.64 -1369 28 25 32
-21.9392 -1108.42 -1370 38 31 37
-18.722 -1110.82 -1373 50 41 45
-15.4793 -1112.42 -1375 57 45 46
-12.2629 -1117.26 -1381 64 47 36
-9.03757 -1124.52 -1390 69 49 44
-5.76944 -1131.8 -1399 72 52 48
-2.45002 -1135.03 -1403 75 54 51
0.895343 -1147.16 -1418 78 53 51
4.31225 -1159.3 -1433 77 55 49
7.75184 -1164.16 -1439 78 55 52
11.2744 -1174.69 -1452 81 57 56
14.8996 -1188.46 -1469 83 58 57
18.4806 -1194.14 -1476 78 51 50
21.9461 -1191.74 -1473 75 52 50
25.4149 -1190.15 -1471 78 54 51
28.8743 -1188.57 -1469 78 54 50
32.3027 -1186.18 -1466 76 52 46
35.7657 -1185.41 -1465 73 52 48
39.3317 -1187.89 -1468 74 53 51
42.8249 -1187.94 -1468 72 49 47
46.3501 -1188.81 -1469 73 49 46
49.8806 -1189.67 -1470 72 48 45
53.3438 -1188.93 -1469 70 46 44
56.764 -1187.38 -1467 69 45 43
60.3399 -1189.07 -1469 66 42 40
63.9258 -1190.77 -1471 63 40 38
67.4302 -1190.85 -1471 60 38 36
70.9835 -1191.75 -1472 58 33 32
74.5931 -1193.46 -1474 55 30 29
78.1601 -1194.36 -1475 49 25 24
81.6219 -1193.65 -1474 49 25 26
84.9645 -1191.33 -1471 48 24 23
88.4739 -1191.44 -1471 50 25 26
92.047 -1192.36 -1472 50 24 26
95.6906 -1194.1 -1474 0 0 0
-168.737 -1181.5 -1448 96 72 68
-164.674 -1177.21 -1443 99 75 69
-159.856 -1167.22 -1431 95 72 63
-155.425 -1159.68 -1422 66 44 37
-150.612 -1148.89 -1409 38 19 15
-146.803 -1145.44 -1405 33 19 20
-142.198 -1135.47 -1393 28 20 22
-138.351 -1131.22 -1388 26 21 24
-134.237 -1124.53 -1380 24 21 25
-130.448 -1120.29 -1375 23 20 25
-126.776 -1116.87 -1371 22 19 24
-123.756 -1119.15 -1374 25 21 26
-119.671 -1111.67 -1365 24 21 27
-116.057 -1108.26 -1361 25 22 29
-112.38 -1104.05 -1356 29 25 30
-108.889 -1101.47 -1353 28 24 29
-105.024 -1094.82 -1345 25 22 27
-101.576 -1092.25 -1342 25 22 27
-98.3641 -1092.12 -1342 25 22 27
-95.0112 -1090.38 -1340 23 20 25
-91.8746 -1091.07 -1341 23 20 25
-88.8002 -1092.58 -1343 23 20 25
-85.6536 -1093.29 -1344 24 21 26
-82.3804 -1092.37 -1343 23 21 26
-79.1718 -1092.27 -1343 25 22 27
-75.9642 -1092.17 -1343 28 25 30
-72.8116 -1092.89 -1344 31 27 32
-69.7068 -1094.43 -1346 35 31 34
-66.4943 -1094.34 -1346 35 31 36
-63.3767 -1095.89 -1348 36 30 36
-60.2502 -1097.44 -1350 38 31 37
-57.1149 -1098.99 -1352 36 29 35
-54.0105 -1101.36 -1355 30 26 31
-50.8549 -1102.92 -1357 29 25 30
-47.7254 -1105.29 -1360 33 29 33
-44.4187 -1103.61 -1358 33 30 33
-41.2431 -1105.18 -1360 33 30 35
-38.0307 -1105.94 -1361 31 28 35
-34.8395 -1107.52 -1363 30 27 33
-31.5463 -1105.86 -1361 27 24 29
-28.3255 -1106.63 -1362 29 26 31
-25.137 -1109.04 -1365 28 25 31
-21.8543 -1107.38 -1363 30 25 32
-18.6497 -1109.79 -1366 52 45 50
-15.3971 -1109.77 -1366 68 58 59
-12.1714 -1112.19 -1369 68 52 43
-8.9446 -1116.24 -1374 68 48 43
-5.7147 -1124.36 -1384 70 50 46
-2.425 -1126.79 -1387 71 51 47
0.882758 -1134.1 -1396 75 53 48
4.23941 -1143.04 -1407 76 54 49
7.63768 -1150.36 -1416 74 53 49
11.1022 -1160.12 -1428 72 51 48
14.7356 -1178.82 -1451 70 49 47
18.3158 -1186.97 -1461 70 45 43
21.8245 -1188.62 -1463 66 44 43
25.3257 -1189.46 -1464 68 46 46
28.8318 -1190.3 -1465 68 46 47
32.277 -1188.72 -1463 61 43 43
35.6884 -1186.32 -1460 63 43 41
39.247 -1188.81 -1463 63 42 42
42.7034 -1188.05 -1462 64 43 43
46.2504 -1189.73 -1464 63 43 43
49.8074 -1191.41 -1466 63 43 41
53.3381 -1192.29 -1467 62 41 39
56.8354 -1192.36 -1467 57 35 34
60.3745 -1193.25 -1468 54 32 31
63.8754 -1193.33 -1468 48 26 25
67.3313 -1192.6 -1467 46 24 23
70.9278 -1194.31 -1469 50 24 24
74.5349 -1196.03 -1471 50 25 24
78.1521 -1197.75 -1473 48 24 24
81.5581 -1196.22 -1471 49 25 26
84.8977 -1193.89 -1468 49 25 24
88.284 -1192.37 -1466 52 26 27
91.7243 -1191.67 -1465 0 0 0
-168.717 -1184.83 -1446 97 73 68
-164.654 -1180.52 -1441 103 79 73
-160.506 -1175.4 -1435 100 77 68
-155.841 -1166.19 -1424 80 58 50
-151.016 -1155.35 -1411 43 24 19
-146.884 -1149.43 -1404 36 22 23
-142.378 -1140.24 -1393 28 20 22
-137.927 -1131.06 -1382 27 20 24
-134.017 -1125.98 -1376 27 21 24
-130.422 -1123.35 -1373 26 22 25
-126.659 -1119.1 -1368 25 21 26
-123.191 -1117.31 -1366 24 19 27
-119.646 -1114.7 -1363 25 22 29
-116.032 -1111.28 -1359 25 23 29
-112.356 -1107.05 -1354 26 22 27
-109.027 -1106.09 -1353 26 22 27
-105.313 -1101.05 -1347 28 24 29
-102.007 -1100.1 -1346 28 24 29
-98.855 -1100.79 -1347 25 22 27
-95.1309 -1094.95 -1340 21 18 25
-91.9904 -1095.65 -1341 20 17 23
-88.581 -1093.08 -1338 22 19 25
-85.4424 -1093.79 -1339 23 20 25
-82.177 -1092.87 -1338 25 22 27
-79.0944 -1094.4 -1340 28 24 31
-75.8899 -1094.3 -1340 32 28 34
-72.6862 -1094.21 -1340 33 29 34
-69.6389 -1096.57 -1343 35 31 38
-66.4791 -1097.3 -1344 37 33 38
-63.3152 -1098.03 -1345 36 32 37
-60.2814 -1101.22 -1349 37 32 38
-57.1867 -1103.6 -1352 33 29 34
-54.1183 -1106.79 -1356 30 26 31
-50.9938 -1109.17 -1359 32 28 33
-47.8205 -1110.74 -1361 32 28 34
-44.6054 -1111.5 -1362 33 28 35
-41.3557 -1111.45 -1362 31 28 33
-38.1064 -1111.4 -1362 29 26 31
-34.8831 -1112.17 -1363 29 26 31
-31.6323 -1112.12 -1363 28 25 31
-28.3609 -1111.27 -1362 28 26 31
-25.0947 -1110.42 -1361 29 25 29
-21.8336 -1109.58 -1360 28 24 31
-18.6047 -1110.37 -1361 56 50 54
-15.3713 -1111.16 -1362 79 67 65
-12.1243 -1111.14 -1362 85 66 59
-8.91659 -1116.03 -1368 82 64 57
-5.67225 -1119.28 -1372 75 56 50
-2.40693 -1121.72 -1375 67 46 41
0.875006 -1127.43 -1382 63 43 40
4.20561 -1137.22 -1394 54 41 34
7.57165 -1143.76 -1402 54 40 36
11.0306 -1156.01 -1417 55 40 37
14.6018 -1171.52 -1436 57 41 38
18.1131 -1177.26 -1443 60 39 40
21.5982 -1179.73 -1446 60 38 37
25.1326 -1183.84 -1451 59 39 38
28.691 -1187.95 -1456 56 37 37
32.141 -1187.17 -1455 52 34 34
35.6357 -1188.03 -1456 54 34 32
39.2428 -1192.16 -1461 53 31 32
42.6404 -1189.76 -1458 46 25 26
46.1821 -1191.45 -1460 44 24 24
49.6662 -1191.51 -1460 43 23 21
53.1868 -1192.39 -1461 42 22 20
56.5967 -1190.83 -1459 45 24 23
60.327 -1195.8 -1465 46 24 23
63.6511 -1192.62 -1461 46 24 23
67.1405 -1192.7 -1461 47 25 24
70.7757 -1195.23 -1464 52 26 26
74.4259 -1197.77 -1467 52 27 26
77.932 -1197.87 -1467 51 27 26
81.4944 -1198.79 -1468 51 27 27
84.9469 -1198.08 -1467 49 25 24
88.2144 -1194.92 -1463 0 0 0
-168.465 -1186.51 -1442 86 62 57
-163.949 -1178.89 -1433 102 77 71
-159.814 -1173.75 -1427 102 79 70
-155.272 -1165.33 -1417 94 71 64
-150.458 -1154.44 -1404 54 31 27
-146.337 -1148.5 -1397 41 23 23
-142.252 -1142.56 -1390 32 20 25
-138.102 -1135.81 -1382 29 21 25
-134.187 -1130.7 -1376 27 21 25
-130.398 -1126.42 -1371 27 22 27
-126.727 -1122.97 -1367 26 22 27
-123.167 -1120.35 -1364 25 21 26
-119.71 -1118.55 -1362 26 22 28
-116.094 -1115.12 -1358 27 24 31
-112.166 -1108.41 -1350 26 22 27
-108.842 -1107.44 -1349 26 22 27
-105.681 -1108.13 -1350 27 23 28
-102.288 -1106.36 -1348 25 22 27
-98.6863 -1102.12 -1343 21 18 23
-95.1093 -1097.9 -1338 22 19 27
-91.832 -1096.96 -1337 22 19 25
-88.4943 -1095.2 -1335 25 22 27
-85.231 -1094.27 -1334 27 23 28
-82.158 -1095.81 -1336 26 26 30
-78.9582 -1095.71 -1336 32 27 35
-75.8724 -1097.25 -1338 36 31 38
-72.7239 -1097.97 -1339 37 33 38
-69.5712 -1098.7 -1340 38 34 39
-66.5136 -1101.08 -1343 38 34 39
-63.3481 -1101.81 -1344 37 33 38
-60.3127 -1105.01 -1348 35 31 36
-57.259 -1108.22 -1352 30 26 31
-54.1067 -1109.79 -1354 28 24 29
-50.9456 -1111.36 -1356 31 27 32
-47.7402 -1112.12 -1357 34 30 35
-44.4978 -1112.06 -1357 32 28 33
-41.2559 -1112.01 -1357 29 26 29
-38.0705 -1113.59 -1359 27 24 29
-34.8503 -1114.37 -1360 26 23 28
-31.6257 -1115.14 -1361 24 21 27
-28.3342 -1113.47 -1359 25 26 30
-25.071 -1112.62 -1358 29 25 32
-21.7646 -1109.31 -1354 32 26 29
-18.5459 -1110.1 -1355 67 58 56
-15.334 -1111.72 -1357 91 74 66
-12.1038 -1112.52 -1358 96 75 66
-8.88854 -1115.79 -1362 89 72 64
-5.65848 -1119.87 -1367 88 69 61
-2.40109 -1122.33 -1370 80 59 52
0.871239 -1125.6 -1374 69 47 42
4.18382 -1134.62 -1385 51 43 37
7.53271 -1141.18 -1393 48 36 31
10.9354 -1149.38 -1403 48 33 30
14.4269 -1160.87 -1417 48 31 31
17.8974 -1166.62 -1424 49 27 31
21.3564 -1169.92 -1428 45 25 23
24.887 -1175.69 -1435 45 25 24
28.4511 -1181.46 -1442 44 24 24
31.9164 -1182.32 -1443 41 23 23
35.4359 -1184.82 -1446 43 24 23
39.0776 -1190.6 -1453 44 25 25
42.5187 -1189.83 -1452 43 24 24
46.0507 -1191.53 -1454 43 25 25
49.3544 -1187.49 -1449 43 23 23
52.9262 -1190.01 -1452 44 24 22
56.2802 -1187.62 -1449 48 27 26
59.9913 -1192.62 -1455 50 28 26
63.3392 -1190.24 -1452 48 27 24
66.9494 -1192.78 -1455 52 28 27
70.4781 -1193.68 -1456 54 30 29
74.0631 -1195.42 -1458 52 28 27
77.5522 -1195.51 -1458 50 26 25
81.0977 -1196.43 -1459 51 27 26
84.5908 -1196.54 -1459 51 27 26
87.8434 -1193.37 -1455 0 0 0
-167.861 -1185.71 -1435 74 50 48
-163.929 -1182.19 -1431 81 57 55
-159.794 -1177.02 -1425 95 71 65
-155.141 -1167.74 -1414 95 71 65
-150.543 -1158.46 -1403 57 34 28
-146.419 -1152.49 -1396 41 23 23
-142.126 -1144.88 -1387 34 21 24
-138.078 -1138.92 -1380 29 20 23
-134.065 -1132.97 -1373 27 19 23
-130.374 -1129.5 -1369 29 22 28
-126.517 -1124.38 -1363 28 24 29
-123.505 -1126.7 -1366 26 22 27
-119.687 -1121.59 -1360 25 21 27
-116.071 -1118.15 -1356 26 23 30
-112.558 -1115.53 -1353 30 26 31
-109.062 -1112.91 -1350 30 26 31
-105.424 -1108.65 -1345 28 24 29
-102.267 -1109.34 -1346 25 22 27
-98.6649 -1105.09 -1341 24 21 26
-95.2304 -1102.5 -1338 24 21 26
-91.6738 -1098.26 -1333 24 21 26
-88.4079 -1097.32 -1332 26 22 27
-85.3396 -1098.86 -1334 29 25 30
-82.1394 -1098.75 -1334 29 28 33
-78.9994 -1099.47 -1335 34 29 36
-75.9122 -1101.02 -1337 37 33 39
-72.7619 -1101.75 -1338 37 33 38
-69.6076 -1102.48 -1339 36 32 37
-66.4494 -1103.22 -1340 35 31 36
-63.4286 -1106.43 -1344 33 29 34
-60.3893 -1109.64 -1348 31 27 32
-57.2892 -1112.04 -1351 28 24 29
-54.1754 -1114.44 -1354 27 23 28
-50.935 -1114.37 -1354 29 25 30
-47.6951 -1114.31 -1354 30 26 32
-44.5215 -1115.89 -1356 28 24 30
-41.2169 -1114.19 -1354 26 23 27
-38.0907 -1117.43 -1358 26 23 28
-34.8175 -1116.57 -1357 28 25 30
-31.596 -1117.35 -1358 28 25 30
-28.3075 -1115.66 -1356 29 29 33
-25.0842 -1116.45 -1357 31 27 32
-21.7921 -1113.95 -1354 51 39 38
-18.5968 -1116.4 -1357 86 69 63
-15.3761 -1118.02 -1359 95 74 62
-12.1548 -1120.47 -1362 93 74 63
-8.89985 -1120.46 -1362 93 75 65
-5.66147 -1123.74 -1366 95 74 65
-2.4005 -1125.38 -1368 95 73 64
0.871276 -1128.67 -1372 91 68 60
4.165 -1132.79 -1377 78 60 58
7.47745 -1136.08 -1381 70 50 48
10.8247 -1141.03 -1387 50 29 28
14.2109 -1146.81 -1394 44 24 23
17.5677 -1148.47 -1396 40 21 20
20.9944 -1153.43 -1402 41 23 23
24.502 -1160.87 -1411 41 22 22
28.0923 -1169.95 -1422 41 21 21
31.6692 -1176.57 -1430 40 22 22
35.2847 -1183.2 -1438 41 23 23
38.8579 -1187.36 -1443 41 23 23
42.3678 -1189.05 -1445 43 25 25
45.824 -1189.11 -1445 44 26 26
49.1104 -1185.06 -1440 43 23 23
52.7018 -1188.41 -1444 43 24 24
56.1185 -1187.66 -1443 46 27 25
59.7788 -1191.85 -1448 48 28 25
63.1578 -1190.28 -1446 51 30 27
66.7585 -1192.83 -1449 54 30 29
70.3256 -1194.57 -1451 54 30 29
73.954 -1197.13 -1454 53 29 27
77.2782 -1194.76 -1451 52 28 26
81.0341 -1198.97 -1456 53 29 28
84.5824 -1199.9 -1457 52 28 27
-167.843 -1189.02 -1433 63 41 43
-163.796 -1184.66 -1428 69 47 49
-159.438 -1177.81 -1420 73 49 46
-155.011 -1170.15 -1411 74 50 45
-150.736 -1163.32 -1403 56 33 25
-146.397 -1155.66 -1394 39 21 21
-142.616 -1152.16 -1390 35 21 24
-138.356 -1144.52 -1381 31 21 24
-134.531 -1140.2 -1376 29 21 25
-130.541 -1134.23 -1369 29 22 26
-126.865 -1130.75 -1365 26 22 27
-123.21 -1127.28 -1361 25 21 26
-119.664 -1124.64 -1358 24 20 26
-116.219 -1122.83 -1356 27 22 30
-112.952 -1122.68 -1356 28 24 29
-109.201 -1117.57 -1350 28 24 29
-105.873 -1116.61 -1349 27 23 28
-102.246 -1112.34 -1344 26 22 27
-99.0121 -1112.21 -1344 25 21 26
-95.2097 -1105.46 -1336 24 21 28
-91.7223 -1102.03 -1332 23 20 25
-88.388 -1100.26 -1330 25 22 27
-85.1924 -1100.15 -1330 30 26 31
-82.1827 -1102.53 -1333 30 27 32
-79.1596 -1104.9 -1336 33 30 35
-76.0092 -1105.63 -1337 35 31 36
-72.7459 -1104.71 -1336 36 32 37
-69.6966 -1107.1 -1339 35 31 36
-66.6335 -1109.49 -1342 33 29 34
-63.5096 -1111.06 -1344 30 26 31
-60.4217 -1113.46 -1347 29 25 30
-57.2774 -1115.04 -1349 28 24 29
-54.1244 -1116.62 -1351 29 25 30
-50.8493 -1115.73 -1350 29 25 30
-47.6149 -1115.67 -1350 27 23 29
-44.3481 -1114.78 -1349 26 21 29
-41.0866 -1113.9 -1348 25 22 27
-37.9146 -1115.5 -1350 28 25 30
-34.682 -1115.45 -1350 27 24 29
-31.5431 -1118.72 -1354 28 25 30
-28.3017 -1118.68 -1354 28 25 30
-25.0977 -1120.3 -1356 37 31 31
-21.7876 -1116.96 -1352 79 61 55
-18.6067 -1120.24 -1356 97 74 64
