ply
format ascii 1.0
comment Created by Open3D
element vertex 1384
property double x
property double y
property double z
property uchar red
property uchar green
property uchar blue
end_header
40.6532 100.288 -1340 199 182 187
43.6422 101.041 -1350 195 181 187
46.6369 101.719 -1359 195 183 190
49.7404 102.547 -1370 199 191 202
52.9649 103.525 -1383 219 213 224
56.5636 105.103 -1404 230 225 238
60.035 106.307 -1420 216 209 223
63.5265 107.436 -1435 204 198 212
67.1243 108.64 -1451 210 208 222
-152.768 75.9268 -1035 75 67 73
-151.685 76.4252 -1042 100 91 97
-150.431 76.8502 -1048 202 191 196
-149.155 77.2752 -1054 220 209 214
-147.716 77.627 -1059 222 210 215
-146.12 77.9057 -1063 223 211 217
-144.781 78.3309 -1069 219 207 214
-143.285 78.683 -1074 218 206 213
-141.375 78.8154 -1076 223 207 213
-139.976 79.2409 -1082 220 202 208
-138.682 79.7397 -1089 218 197 206
-137.235 80.1654 -1095 213 193 203
-136.011 80.7375 -1103 205 186 197
-134.756 81.3096 -1111 200 183 192
-133.232 81.7354 -1117 192 177 185
-131.332 81.9418 -1120 191 176 184
-129.191 82.0022 -1121 188 173 181
-126.255 81.5507 -1115 187 172 180
-122.12 80.2951 -1098 200 185 193
-117.836 78.8939 -1079 207 192 200
-114.809 78.2975 -1071 180 165 173
-111.92 77.7747 -1064 183 167 175
-109.886 77.8368 -1065 191 174 182
-108.152 78.1184 -1069 196 179 187
-106.502 78.4731 -1074 199 182 190
-105.318 79.1933 -1084 200 183 191
-103.905 79.7674 -1092 198 181 188
-102.554 80.4146 -1101 191 174 180
-100.803 80.7698 -1106 189 168 175
-99.0332 81.1251 -1111 185 164 171
-96.9824 81.2615 -1113 185 164 169
-94.8393 81.325 -1114 185 164 169
-92.8592 81.5348 -1117 186 164 169
-90.8677 81.7448 -1120 184 163 166
-88.9442 82.0279 -1124 183 162 166
-87.0825 82.3841 -1129 185 164 169
-85.5021 83.0323 -1138 195 171 176
-83.7401 83.5347 -1145 204 178 182
-81.7374 83.8184 -1149 203 177 179
-79.5811 83.9563 -1151 205 178 180
-77.4175 84.0945 -1153 207 179 180
-75.051 84.0142 -1152 206 178 179
-72.6892 83.9339 -1151 204 176 178
-70.3931 83.9269 -1151 203 175 175
-68.0975 83.9202 -1151 204 175 176
-65.6882 83.7678 -1149 205 173 176
-63.2873 83.6156 -1147 200 171 175
-60.895 83.4638 -1145 196 168 172
-58.5623 83.385 -1144 194 166 170
-56.234 83.3065 -1143 191 163 167
-53.9574 83.3011 -1143 192 164 168
-51.7264 83.3688 -1144 198 171 175
-49.4919 83.4367 -1145 211 185 189
-47.2539 83.5048 -1146 204 178 182
-45.0514 83.6461 -1148 209 183 187
-42.804 83.7146 -1149 213 187 191
-40.6236 83.9291 -1152 218 193 197
-38.5314 84.3623 -1158 222 198 201
-36.3217 84.5772 -1161 222 200 203
-34.159 84.938 -1166 223 201 204
-32.0041 85.3719 -1172 227 205 208
-29.7748 85.6602 -1176 229 205 208
-27.5065 85.8759 -1179 228 205 207
-25.2266 86.0919 -1182 225 203 204
-22.9542 86.3809 -1186 223 201 202
-20.6662 86.6701 -1190 222 200 201
-18.3163 86.7409 -1191 218 196 197
-16.0027 87.0306 -1195 215 193 194
-13.6619 87.2476 -1198 219 195 196
-11.3 87.3921 -1200 225 201 202
-8.93008 87.5368 -1202 227 203 204
-6.56327 87.8273 -1206 225 199 201
-4.17369 87.9724 -1208 223 197 199
-1.7762 88.1178 -1210 223 199 200
0.62974 88.3362 -1213 223 199 200
3.04511 88.4821 -1215 224 200 201
5.48192 88.8466 -1220 225 201 204
7.94514 89.2842 -1226 224 202 205
10.4577 89.9405 -1235 225 203 206
13.0376 90.8156 -1247 231 210 213
15.7895 92.4192 -1269 233 212 215
18.5281 93.5133 -1284 214 193 198
21.3428 94.6806 -1300 206 187 192
24.0925 95.3383 -1309 205 187 191
26.8577 95.9235 -1317 205 187 193
29.5654 96.2176 -1321 205 187 192
32.3138 96.5848 -1326 205 187 191
35.0559 96.8795 -1330 207 187 188
37.8708 97.3201 -1336 205 187 188
40.7705 97.9068 -1344 200 184 190
43.6701 98.4208 -1351 196 184 192
46.7353 99.2266 -1362 196 185 194
49.9897 100.324 -1377 202 193 208
53.3041 101.422 -1392 222 214 226
56.84 102.812 -1411 233 227 236
60.2827 103.911 -1426 215 209 222
63.6528 104.791 -1438 210 205 219
67.4877 106.328 -1459 219 219 235
-151.277 73.1349 -1025 72 65 71
-151.379 74.1904 -1040 87 80 85
-150.273 74.6752 -1047 179 168 173
-148.999 75.0886 -1053 222 210 215
-147.562 75.4308 -1058 222 210 215
-145.969 75.7018 -1062 226 212 219
-144.496 76.0442 -1067 222 209 216
-143.004 76.3866 -1072 219 207 214
-141.23 76.5867 -1075 225 208 216
-139.704 76.9293 -1080 224 205 213
-138.159 77.2721 -1085 222 201 210
-136.72 77.6861 -1091 218 197 207
-135.381 78.1714 -1098 210 191 202
-134.015 78.6568 -1105 200 184 192
-132.622 79.1422 -1112 193 178 186
-130.499 79.2007 -1113 192 177 185
-128.142 79.1172 -1112 188 173 181
-124.997 78.5358 -1104 192 177 185
-120.885 77.3148 -1087 209 193 200
-117.17 76.3076 -1073 183 166 173
-113.941 75.5855 -1063 179 163 169
-111.699 75.5035 -1062 186 170 177
-109.875 75.7062 -1065 194 177 185
-108.04 75.9089 -1068 196 179 187
-106.591 76.3961 -1075 198 181 189
-105.308 77.0256 -1084 198 181 189
-104.276 77.8682 -1096 200 183 190
-102.731 78.3555 -1103 194 177 183
-101.067 78.772 -1109 189 169 176
-99.2019 79.0465 -1113 184 163 170
-97.1473 79.1792 -1115 184 163 169
-95.0003 79.2409 -1116 185 164 169
-92.9333 79.3739 -1118 185 163 168
-91.0212 79.6491 -1122 184 163 167
-89.0147 79.8535 -1125 184 163 167
-87.1512 80.2 -1130 186 165 170
-85.4938 80.7595 -1138 195 171 176
-83.732 81.2481 -1145 203 177 181
-81.8007 81.595 -1150 204 178 180
-79.6426 81.7292 -1152 205 178 180
-77.4772 81.8636 -1154 207 179 181
-75.1741 81.8562 -1154 206 178 180
-72.8716 81.8492 -1154 205 177 179
-70.5086 81.7714 -1153 204 176 176
-68.2093 81.7648 -1153 203 174 175
-65.8533 81.6875 -1152 204 173 176
-63.5019 81.6104 -1151 200 172 175
-61.0486 81.3918 -1148 196 168 172
-58.7102 81.3152 -1147 193 165 169
-56.2778 81.097 -1144 190 162 166
-53.9994 81.0918 -1144 194 166 170
-51.7666 81.1576 -1145 201 174 178
-49.5304 81.2237 -1146 210 183 187
-47.2905 81.29 -1147 204 178 182
-45.1255 81.4981 -1150 209 183 187
-42.8744 81.5649 -1151 213 187 191
-40.6549 81.7026 -1153 216 192 195
-38.4944 81.9823 -1157 220 196 199
-36.2869 82.1913 -1160 220 198 201
-34.1265 82.5422 -1165 223 201 204
-31.9736 82.9642 -1171 226 204 207
-29.7719 83.3154 -1176 228 206 209
-27.5272 83.5961 -1180 228 205 208
-25.2455 83.8061 -1183 225 203 204
-22.9714 84.0872 -1187 225 203 204
-20.6642 84.2976 -1190 222 200 201
-18.3299 84.4375 -1192 215 193 194
-15.9878 84.5775 -1194 214 191 192
-13.6606 84.8594 -1198 222 198 199
-11.2989 84.9999 -1200 226 202 203
-8.93666 85.2115 -1203 222 198 199
-6.56264 85.4232 -1206 222 196 198
-4.1733 85.5644 -1208 222 197 198
-1.7775 85.7766 -1211 222 198 199
0.630194 85.9891 -1214 222 198 199
3.04982 86.2017 -1217 223 199 200
5.48139 86.4146 -1220 225 201 203
7.93789 86.7694 -1225 223 201 203
10.4143 87.1245 -1230 223 201 204
12.9736 87.9047 -1241 227 206 209
15.6387 89.0394 -1257 235 214 218
18.4253 90.4578 -1277 223 202 207
21.3407 92.089 -1300 207 189 193
24.0533 92.587 -1307 207 189 193
26.8347 93.227 -1316 205 187 192
29.585 93.6547 -1322 206 188 192
32.3349 94.0119 -1327 206 189 193
35.1052 94.3694 -1332 206 188 190
37.9238 94.7979 -1338 204 186 189
40.797 95.2977 -1345 201 185 191
43.7306 95.8685 -1353 197 184 192
46.765 96.5814 -1363 197 186 195
49.8397 97.2946 -1373 204 195 211
53.031 98.1499 -1385 225 217 230
56.5927 99.5725 -1405 236 229 237
60.1079 100.783 -1422 220 215 227
63.6467 101.923 -1438 218 214 227
67.7586 103.843 -1465 223 224 242
-150.229 70.5918 -1018 69 63 70
-151.219 72.0336 -1039 72 65 72
-149.972 72.4355 -1045 149 140 145
-148.843 72.9066 -1052 218 208 213
-147.548 73.3085 -1058 224 212 217
-145.68 73.4333 -1060 227 212 219
-144.211 73.7661 -1065 226 212 219
-142.99 74.2374 -1072 222 210 217
-141.085 74.3626 -1074 226 209 218
-139.561 74.6956 -1079 226 207 216
-138.018 75.0288 -1084 225 204 213
-136.331 75.2928 -1088 218 198 207
-134.752 75.6261 -1093 212 193 202
-133.396 76.0978 -1100 202 186 194
-131.656 76.3621 -1104 195 180 188
-129.431 76.3499 -1104 190 175 183
-126.862 76.1305 -1101 188 173 181
-122.948 75.0818 -1086 205 190 198
-119.094 74.0335 -1071 192 175 182
-116.067 73.4695 -1063 174 157 163
-113.608 73.2515 -1060 183 166 172
-111.689 73.3792 -1062 192 175 181
-109.865 73.5761 -1065 196 179 187
-108.232 73.9114 -1070 196 179 187
-106.878 74.4539 -1078 198 181 189
-105.687 75.1347 -1088 197 180 188
-104.456 75.8154 -1098 200 183 190
-103 76.3581 -1106 195 178 184
-101.24 76.6938 -1111 190 170 177
-99.3708 76.9606 -1115 185 164 171
-97.3995 77.1585 -1118 183 162 169
-95.1616 77.1495 -1118 186 164 170
-93.1739 77.3477 -1121 185 163 168
-91.1748 77.5462 -1124 185 164 168
-89.0854 77.6758 -1126 186 165 169
-87.2201 78.0125 -1131 187 165 170
-85.636 78.6252 -1140 196 171 176
-83.7242 78.9622 -1145 204 178 182
-81.7929 79.2993 -1150 204 178 180
-79.6351 79.4297 -1152 205 178 180
-77.4698 79.5603 -1154 206 178 180
-75.167 79.5533 -1154 207 179 181
-72.9279 79.6153 -1155 207 179 181
-70.6242 79.6086 -1155 205 177 177
-68.3803 79.6711 -1156 203 175 175
-66.0186 79.596 -1155 202 173 175
-63.6063 79.4522 -1153 199 171 175
-61.2024 79.3086 -1151 197 169 173
-58.8582 79.2341 -1150 192 164 168
-56.4692 79.091 -1148 190 162 166
-54.1831 79.0858 -1148 198 170 174
-51.9427 79.1498 -1149 207 180 184
-49.6986 79.214 -1150 206 179 183
-47.4509 79.2784 -1151 206 180 184
-45.239 79.4118 -1153 206 180 184
-42.9448 79.4078 -1153 209 183 187
-40.6864 79.4728 -1154 214 188 192
-38.4907 79.6757 -1157 221 195 199
-36.2523 79.8099 -1159 221 198 201
-34.0939 80.151 -1164 224 202 205
-31.9433 80.5611 -1170 225 203 206
-29.7691 80.9713 -1176 227 205 208
-27.5013 81.1753 -1179 228 206 209
-25.2431 81.4482 -1183 227 205 206
-22.9499 81.6526 -1186 227 205 207
-20.6623 81.926 -1190 223 201 202
-18.3282 82.0618 -1192 215 193 194
-15.9997 82.2668 -1195 215 192 193
-13.6594 82.4719 -1198 220 196 197
-11.3073 82.6773 -1201 221 196 198
-8.94326 82.8829 -1204 218 193 195
-6.57836 83.2264 -1209 221 195 196
-4.18328 83.3636 -1211 221 196 197
-1.78028 83.501 -1213 221 197 198
0.63065 83.6386 -1215 221 197 198
3.05204 83.8453 -1218 222 198 199
5.47639 83.9145 -1219 224 200 201
7.93067 84.2593 -1224 224 201 203
10.4049 84.6044 -1229 224 202 205
12.9304 85.1562 -1237 224 203 206
15.5875 86.259 -1253 229 208 211
18.3947 87.7751 -1275 233 212 217
21.2403 89.0849 -1294 212 194 198
24.0879 90.1198 -1309 206 188 192
26.8526 90.6729 -1317 206 187 190
29.6493 91.2263 -1325 206 188 192
32.4294 91.6423 -1331 205 188 192
35.2335 92.0586 -1337 206 188 191
38.0337 92.4062 -1342 204 186 190
40.8841 92.823 -1348 202 185 191
43.7265 93.1713 -1353 198 185 193
46.7606 93.8641 -1363 200 189 198
49.7986 94.4883 -1372 207 200 215
53.1792 95.664 -1389 229 221 234
56.7485 97.0465 -1409 237 230 239
60.4402 98.4984 -1430 225 218 229
64.0834 99.7441 -1448 225 220 233
-148.887 67.9426 -1009 70 64 71
-150.914 69.8142 -1037 71 63 71
-149.958 70.339 -1045 133 125 131
-148.688 70.7292 -1051 217 207 212
-147.395 71.1195 -1057 226 214 219
-145.529 71.2407 -1059 229 214 220
-144.063 71.5639 -1064 230 215 222
-142.71 71.9543 -1070 226 214 221
-140.941 72.1431 -1073 227 211 219
-139.419 72.4665 -1078 229 210 219
-137.751 72.7228 -1082 228 207 216
-136.068 72.9792 -1086 217 197 206
-134.246 73.1685 -1089 216 197 206
-132.778 73.5595 -1095 206 190 199
-130.69 73.6148 -1096 196 181 189
-128.364 73.5358 -1095 190 175 183
-125.237 72.9871 -1087 194 179 187
-121.578 72.1031 -1074 203 188 196
-118.305 71.4209 -1064 183 166 173
-115.62 71.0747 -1059 176 159 165
-113.491 71.0644 -1059 187 170 176
-111.573 71.1884 -1061 196 179 186
-109.855 71.4467 -1065 197 180 188
-108.425 71.9064 -1072 195 178 186
-107.067 72.4332 -1080 198 181 189
-105.677 72.9601 -1088 199 182 190
-104.827 73.8894 -1102 200 183 190
-103.27 74.3493 -1109 196 179 185
-101.595 74.7422 -1115 191 172 178
-99.629 74.9342 -1118 185 165 172
-97.5648 75.0594 -1120 184 163 170
-95.3231 75.0507 -1120 185 163 170
-93.3315 75.2432 -1123 186 164 170
-91.3287 75.4358 -1126 184 163 168
-89.3146 75.6287 -1129 186 164 169
-87.3664 75.8886 -1133 188 166 171
-85.7033 76.4167 -1141 194 170 174
-83.8627 76.8108 -1147 203 177 181
-81.8566 77.0713 -1151 204 178 180
-79.766 77.2648 -1154 206 179 181
-77.6642 77.4586 -1157 208 180 182
-75.3555 77.4517 -1157 207 180 182
-72.9844 77.3781 -1156 206 178 180
-70.8012 77.5055 -1158 203 175 176
-68.4924 77.4992 -1158 202 174 175
-66.0698 77.3593 -1156 200 172 174
-63.6557 77.2196 -1154 199 171 174
-61.3564 77.214 -1154 195 167 171
-58.9552 77.0748 -1152 192 164 168
-56.6117 77.0027 -1151 193 165 169
-54.3198 76.9976 -1151 201 173 178
-52.0283 76.9929 -1151 208 180 184
-49.8237 77.1221 -1153 204 176 180
-47.5703 77.1846 -1154 206 180 184
-45.3133 77.2473 -1155 207 181 185
-43.0155 77.2434 -1155 210 184 188
-40.7532 77.3064 -1156 215 189 193
-38.5205 77.4366 -1158 219 193 197
-36.2802 77.567 -1160 221 196 200
-34.0616 77.7645 -1163 224 201 204
-31.9677 78.2964 -1171 224 202 205
-29.7157 78.4942 -1174 227 205 208
-27.4988 78.8259 -1179 229 207 210
-25.2195 79.0241 -1182 228 206 209
-22.9478 79.2894 -1186 228 206 209
-20.6256 79.4212 -1188 221 200 203
-18.3111 79.62 -1191 213 191 194
-15.9982 79.8858 -1195 215 192 195
-13.6809 80.2187 -1200 219 195 196
-11.3345 80.4851 -1204 217 192 194
-8.96474 80.6847 -1207 219 193 195
-6.59409 81.0182 -1212 219 193 194
-4.19326 81.1514 -1214 220 195 195
-1.78452 81.2849 -1216 221 197 198
0.632146 81.4185 -1218 220 196 197
3.05927 81.6192 -1221 222 198 199
5.49385 81.7533 -1223 224 200 201
7.94938 82.0213 -1227 223 201 203
10.4039 82.1558 -1229 223 201 204
12.9188 82.6248 -1236 222 201 204
15.499 83.2945 -1246 226 205 208
18.2488 84.5663 -1265 236 215 219
21.1563 86.1725 -1289 225 206 210
24.0305 87.311 -1306 205 187 191
26.8298 87.9818 -1316 206 185 189
29.6467 88.5861 -1325 206 187 191
32.4752 89.1237 -1333 204 187 191
35.2831 89.528 -1339 205 187 191
38.0867 89.8656 -1344 205 187 191
40.9411 90.2703 -1350 203 186 192
43.7871 90.6085 -1355 200 187 195
46.6877 91.0138 -1361 204 193 202
49.7578 91.6868 -1371 209 203 217
53.1359 92.8284 -1388 229 224 235
56.7434 94.2378 -1409 235 229 238
60.4348 95.6477 -1430 226 219 230
64.3429 97.2586 -1454 230 225 237
-150.755 67.6686 -1036 72 64 72
-149.945 68.2431 -1045 117 109 115
-148.392 68.4911 -1049 205 195 200
-147.242 68.9351 -1056 228 216 221
-145.516 69.1179 -1059 233 218 224
-143.914 69.3662 -1063 234 220 226
-142.431 69.6798 -1068 230 217 224
-141.06 70.0588 -1074 229 212 220
-139.148 70.1768 -1076 229 210 219
-137.611 70.4907 -1081 229 207 215
-135.93 70.7394 -1085 219 198 206
-133.988 70.858 -1087 219 199 208
-132.16 71.0418 -1090 210 193 202
-129.963 71.0303 -1090 201 186 194
-127.415 70.8234 -1087 194 179 187
-124.189 70.226 -1078 206 191 199
-120.661 69.4336 -1066 196 180 188
-117.85 69.0323 -1060 177 161 169
-115.282 68.7616 -1056 186 170 177
-113.159 68.7516 -1056 197 180 187
-111.563 69.0672 -1061 195 178 186
-109.845 69.3178 -1065 192 175 183
-108.516 69.8289 -1073 191 174 182
-107.057 70.275 -1080 197 180 188
-106.056 71.0464 -1092 200 183 191
-104.723 71.6227 -1101 200 183 190
-103.447 72.2641 -1111 196 179 185
-101.768 72.6453 -1117 191 173 179
-99.8875 72.8966 -1121 183 164 171
-97.7303 72.953 -1122 183 162 169
-95.4848 72.9444 -1122 186 164 171
-93.4063 73.0662 -1124 187 165 172
-91.4017 73.2532 -1127 184 163 168
-89.3858 73.4402 -1130 184 162 167
-87.5128 73.7574 -1135 186 164 169
-85.8459 74.2697 -1143 192 168 172
-84.0015 74.6521 -1149 201 175 179
-81.9205 74.8398 -1152 203 177 181
-79.759 74.9626 -1154 206 179 182
-77.6573 75.1506 -1157 208 180 182
-75.3488 75.1439 -1157 206 179 181
-73.1042 75.2024 -1158 204 178 180
-70.856 75.261 -1159 204 176 178
-68.5454 75.2549 -1159 202 174 176
-66.121 75.1192 -1157 201 173 175
-63.7052 74.9837 -1155 198 170 173
-61.2978 74.8484 -1153 193 165 169
-58.95 74.7782 -1152 194 166 170
-56.6558 74.7732 -1152 198 170 175
-54.3621 74.7683 -1152 204 175 182
-52.1141 74.8286 -1153 202 174 179
-49.9057 74.9539 -1155 200 172 176
-47.6485 75.0146 -1156 200 174 178
-45.3878 75.0754 -1157 205 179 183
-43.0861 75.0716 -1157 210 184 188
-40.8201 75.1328 -1158 215 189 193
-38.5171 75.1293 -1158 216 190 195
-36.3083 75.3207 -1161 219 194 199
-34.0878 75.5123 -1164 223 199 203
-31.9376 75.8986 -1170 224 202 205
-29.7131 76.1554 -1174 227 205 208
-27.4731 76.4124 -1178 227 205 208
-25.1959 76.6047 -1181 228 206 209
-22.9265 76.8621 -1185 228 207 210
-20.6238 77.0548 -1188 221 200 203
-18.3403 77.3774 -1193 211 189 192
-16.0236 77.6353 -1197 218 195 198
-13.6911 77.8935 -1201 218 194 196
-11.3429 78.1517 -1205 218 193 195
-8.9788 78.4103 -1209 218 192 194
-6.59351 78.6042 -1212 219 193 193
-4.19635 78.7983 -1215 221 196 196
-1.78584 78.9277 -1217 221 196 197
0.632086 78.9925 -1218 219 195 196
3.059 79.1873 -1221 220 196 197
5.49336 79.3173 -1223 221 197 198
7.94868 79.5774 -1227 221 198 200
10.4115 79.7727 -1230 221 199 202
12.9281 80.2277 -1237 221 200 203
15.4726 80.683 -1244 225 204 207
18.2039 81.852 -1262 230 209 212
21.0231 83.086 -1281 239 219 223
23.9548 84.45 -1302 216 196 201
26.8478 85.4252 -1317 208 187 191
29.6664 86.0114 -1326 208 188 193
32.4967 86.5331 -1334 206 189 194
35.3326 86.9902 -1341 206 188 192
38.1117 87.2528 -1345 205 187 192
40.998 87.7104 -1352 205 188 194
43.7833 87.9087 -1355 202 189 197
46.7522 88.4317 -1363 206 195 204
49.8259 89.0847 -1373 211 206 218
53.1695 90.1274 -1389 230 225 236
56.4163 90.9108 -1401 234 229 238
60.3027 92.6032 -1427 231 224 236
-149.869 65.2111 -1030 73 66 74
-149.358 65.8946 -1041 89 81 87
-147.955 66.1983 -1046 177 167 172
-146.951 66.692 -1054 228 216 221
-145.366 66.9325 -1058 232 217 223
-143.766 67.1732 -1062 234 219 225
-142.285 67.4772 -1067 232 217 225
-140.916 67.8445 -1073 231 214 222
-139.265 68.0854 -1077 229 210 219
-137.472 68.2632 -1080 230 208 215
-135.793 68.5043 -1084 222 201 208
-133.73 68.556 -1085 218 197 206
-131.663 68.6079 -1086 211 195 203
-129.236 68.4704 -1084 207 192 200
-126.584 68.2068 -1080 204 189 197
-123.372 67.6278 -1071 209 193 201
-120.312 67.1124 -1063 187 170 178
-117.506 66.7234 -1057 181 166 174
-115.053 66.5241 -1054 195 180 188
-113.256 66.7038 -1057 198 181 189
-111.449 66.8835 -1060 192 175 183
-109.836 67.1895 -1065 193 176 184
-108.406 67.6219 -1072 196 178 186
-106.949 68.0542 -1079 199 180 189
-106.047 68.865 -1092 200 183 192
-104.904 69.5497 -1103 198 181 189
-103.532 70.1083 -1112 197 180 186
-101.759 70.4148 -1117 193 175 181
-99.8788 70.6584 -1121 183 164 170
-97.809 70.7761 -1123 182 161 168
-95.4766 70.7048 -1122 185 163 170
-93.4814 70.8859 -1125 186 165 172
-91.556 71.13 -1129 184 163 168
-89.5362 71.3113 -1132 183 161 166
-87.5824 71.5558 -1136 185 163 167
-85.9887 72.1154 -1145 190 166 170
-83.9942 72.36 -1149 197 171 175
-81.9134 72.5419 -1152 203 177 181
-79.8212 72.724 -1155 206 179 183
-77.6506 72.8432 -1157 209 181 183
-75.3423 72.8368 -1157 207 180 182
-73.0979 72.8934 -1158 205 179 181
-70.9111 73.0132 -1160 206 178 180
-68.5987 73.0073 -1160 203 175 177
-66.1725 72.8757 -1158 201 173 175
-63.81 72.8073 -1157 196 168 172
-61.4519 72.7391 -1156 193 165 169
-59.0984 72.6711 -1155 197 169 173
-56.7985 72.6661 -1155 204 176 181
-54.5462 72.7244 -1156 207 179 185
-52.2452 72.7198 -1156 201 173 177
-49.9878 72.7785 -1157 201 173 177
-47.7269 72.8373 -1158 200 174 178
-45.4623 72.8962 -1159 204 178 182
-43.1569 72.8925 -1159 209 183 187
-40.8518 72.8889 -1159 212 186 190
-38.5803 72.9484 -1160 214 188 192
-36.399 73.1968 -1164 218 193 199
-34.1434 73.3196 -1166 221 198 202
-31.9894 73.6941 -1172 223 201 204
-29.7359 73.8801 -1175 226 204 207
-27.5174 74.1921 -1180 226 204 207
-25.2151 74.3156 -1182 228 206 209
-22.9438 74.565 -1186 228 206 209
-20.6221 74.6889 -1188 220 199 202
-18.3541 75.0645 -1194 212 190 193
-16.0356 75.3145 -1198 217 194 197
-13.7128 75.6276 -1203 217 193 196
-11.3702 75.9409 -1208 218 192 195
-8.99289 76.1286 -1211 217 191 193
-6.60383 76.3166 -1214 216 190 190
-4.19945 76.4419 -1216 221 195 196
-1.78863 76.6302 -1219 222 196 198
0.633066 76.693 -1220 220 196 197
3.06375 76.8818 -1223 219 195 196
5.50637 77.0707 -1226 220 196 197
7.96095 77.2599 -1229 220 196 198
10.4275 77.4493 -1232 222 198 201
12.9165 77.7017 -1236 223 201 204
15.4215 77.9544 -1240 223 201 204
18.0147 78.5216 -1249 227 205 208
20.808 79.7177 -1268 236 215 218
23.824 81.4171 -1295 237 216 220
26.7844 82.6137 -1314 212 191 196
29.6191 83.2449 -1324 209 190 195
32.4695 83.8134 -1333 208 190 196
35.2506 84.1307 -1338 209 191 194
38.1368 84.6368 -1346 207 189 193
40.9641 84.9546 -1351 206 189 195
43.844 85.3354 -1357 203 190 199
46.8168 85.8423 -1365 207 196 205
49.8943 86.4754 -1375 214 207 219
53.1267 87.2973 -1388 234 227 238
56.4515 88.1825 -1402 235 230 239
60.4243 89.9486 -1430 234 230 242
-148.838 62.7168 -1023 69 64 71
-149.058 63.6853 -1039 74 66 72
-148.084 64.1632 -1047 144 133 139
-147.078 64.6412 -1055 227 215 220
-145.216 64.7516 -1057 234 218 224
-143.754 65.0459 -1062 235 219 225
-142.273 65.3403 -1067 232 217 225
-140.641 65.5735 -1071 233 215 223
-138.995 65.8068 -1075 230 211 220
-137.333 66.0402 -1079 233 211 218
-135.406 66.1513 -1081 227 206 213
-133.472 66.2626 -1083 218 197 206
-131.288 66.2516 -1083 213 196 205
-128.748 66.0574 -1080 207 192 200
-125.987 65.7411 -1075 210 195 203
-123.132 65.3639 -1069 203 187 195
-120.075 64.8648 -1061 186 169 177
-117.385 64.5493 -1056 188 172 180
-115.262 64.5397 -1056 191 176 184
-113.354 64.6525 -1058 190 173 181
-111.544 64.8265 -1061 189 172 180
-109.93 65.1229 -1066 193 176 184
-108.7 65.6637 -1075 198 179 188
-107.039 65.9602 -1080 199 180 189
-105.941 66.6232 -1091 198 181 191
-104.8 67.2862 -1102 196 180 188
-103.616 67.9492 -1113 196 180 186
-101.842 68.246 -1118 194 176 182
-100.227 68.665 -1125 184 165 171
-98.1492 68.7789 -1127 182 161 168
-95.7239 68.6489 -1125 183 162 169
-93.6398 68.7631 -1127 185 164 171
-91.7106 68.9995 -1131 184 163 168
-89.6079 69.1141 -1133 183 162 167
-87.6522 69.3508 -1137 186 164 167
-85.9815 69.8316 -1145 190 166 170
-83.9872 70.0685 -1149 197 171 175
-81.9065 70.2447 -1152 203 177 181
-79.8146 70.421 -1155 206 179 183
-77.7112 70.5974 -1158 209 181 183
-75.4663 70.6521 -1159 208 181 183
-73.218 70.7069 -1160 206 180 182
-71.0275 70.823 -1162 208 180 182
-68.7112 70.8173 -1162 206 177 179
-66.2812 70.6898 -1160 202 171 174
-63.9701 70.6845 -1160 195 167 171
-61.6063 70.6184 -1159 194 166 170
-59.247 70.5525 -1158 199 171 175
-56.8921 70.4869 -1157 206 179 183
-54.6832 70.6041 -1159 204 178 184
-52.3765 70.5997 -1159 200 173 177
-50.1565 70.7174 -1161 202 174 178
-47.8465 70.7133 -1161 201 175 179
-45.537 70.7095 -1161 204 178 182
-43.2278 70.7059 -1161 208 182 186
-40.9189 70.7024 -1161 210 184 188
-38.6104 70.6992 -1161 213 187 192
-36.3959 70.8788 -1164 217 192 198
-34.1406 70.9978 -1166 220 196 201
-31.9322 71.2386 -1170 222 200 203
-29.7082 71.4796 -1174 226 204 207
-27.4918 71.7817 -1179 228 205 208
-25.1917 71.9013 -1181 230 206 209
-22.9225 72.1429 -1185 228 205 208
-20.6551 72.4455 -1190 220 198 201
-18.3987 72.87 -1197 212 190 193
-16.0611 73.0512 -1200 215 193 196
-13.7458 73.4153 -1206 215 191 194
-11.3787 73.5969 -1209 217 192 195
-8.99958 73.7787 -1212 215 190 193
-6.60329 73.8998 -1214 215 189 189
-4.19911 74.0211 -1216 217 191 191
-1.78848 74.2035 -1219 216 190 192
0.632491 74.2034 -1219 218 192 194
3.06599 74.508 -1224 219 193 195
5.5104 74.6909 -1227 219 195 196
7.97324 74.935 -1231 220 196 198
10.4436 75.1184 -1234 221 197 200
12.9259 75.3019 -1237 221 199 202
15.4203 75.4857 -1240 222 200 203
17.9555 75.7915 -1245 223 201 204
20.6748 76.7062 -1260 231 209 212
23.73 78.5344 -1290 242 221 224
26.7006 79.7541 -1310 224 203 208
29.5943 80.5478 -1323 210 190 195
32.4425 81.0983 -1332 209 191 195
35.1686 81.2838 -1335 210 190 193
37.9636 81.5912 -1340 210 190 194
40.8698 82.0816 -1348 208 191 197
43.8727 82.6939 -1358 205 193 202
46.9158 83.3067 -1368 207 197 207
49.8901 83.7369 -1375 219 212 222
53.1223 84.5328 -1388 235 228 238
56.5274 85.5117 -1404 236 230 239
60.7149 87.5265 -1437 237 233 246
-149.189 61.6623 -1040 73 65 71
-148.354 62.1839 -1049 104 94 99
-147.066 62.5277 -1055 211 199 204
-145.479 62.753 -1059 240 223 229
-143.743 62.9191 -1062 239 223 229
-142.128 63.1447 -1066 233 218 226
-140.63 63.4295 -1071 234 216 225
-138.854 63.5959 -1074 231 212 221
-137.195 63.8218 -1078 232 210 217
-135.27 63.9293 -1080 229 207 215
-133.215 63.9777 -1081 222 201 210
-130.793 63.8488 -1079 215 198 206
-128.38 63.7201 -1077 210 195 203
-125.625 63.4142 -1072 214 199 207
-122.891 63.1085 -1067 199 183 191
-119.839 62.6257 -1059 190 173 181
-117.376 62.4388 -1056 186 170 177
-115.253 62.4295 -1056 182 166 173
-113.345 62.5386 -1058 182 165 172
-111.64 62.7661 -1062 186 169 176
-110.024 63.0527 -1067 186 169 177
-108.792 63.5759 -1076 190 172 180
-107.327 63.9808 -1083 194 176 184
-106.03 64.504 -1092 196 179 189
-104.697 65.0272 -1101 195 179 187
-103.514 65.6685 -1112 194 179 185
-101.834 66.0146 -1118 194 176 182
-100.219 66.4199 -1125 185 167 173
-98.1412 66.5301 -1127 183 162 169
-95.9714 66.5814 -1128 183 162 169
-93.8814 66.6919 -1130 185 164 171
-91.8653 66.8616 -1133 184 163 168
-89.8379 67.0314 -1136 183 162 167
-87.7993 67.2014 -1139 186 164 167
-86.0497 67.6074 -1146 191 166 170
-84.1997 67.9546 -1152 198 172 176
-82.0421 68.066 -1154 203 177 181
-80.0845 68.3545 -1159 205 179 182
-77.9734 68.5251 -1162 209 182 184
-75.7206 68.578 -1163 209 182 184
-73.4015 68.5721 -1163 207 181 183
-71.144 68.6253 -1164 208 180 182
-68.7648 68.5608 -1163 207 178 180
-66.3331 68.4376 -1161 203 174 176
-64.0201 68.4324 -1161 197 169 172
-61.6545 68.3685 -1160 196 168 172
-59.3445 68.3637 -1160 201 173 177
-57.035 68.3591 -1160 203 176 181
-54.6788 68.2957 -1159 195 169 175
-52.4174 68.3504 -1160 197 169 173
-50.1093 68.3463 -1160 199 171 175
-47.8015 68.3425 -1160 198 172 176
-45.5333 68.3977 -1161 203 177 181
-43.2987 68.512 -1163 208 182 186
-40.9509 68.4498 -1162 210 184 188
-38.707 68.5644 -1164 213 188 192
-36.4868 68.7381 -1167 215 190 196
-34.2257 68.8531 -1169 219 196 200
-31.957 68.9683 -1171 221 199 202
-29.7311 69.2015 -1175 225 203 206
-27.4895 69.4348 -1179 228 206 209
-25.211 69.6094 -1182 230 206 209
-22.9594 69.9019 -1187 227 205 208
-20.6708 70.1358 -1191 219 197 200
-18.4126 70.5464 -1198 213 191 194
-16.0999 70.8395 -1203 215 193 195
-13.7561 71.0739 -1207 214 190 193
-11.3965 71.3084 -1211 215 191 194
-9.01371 71.4843 -1214 213 189 192
-6.61364 71.6014 -1216 215 189 189
-4.20568 71.7188 -1218 212 186 186
-1.79274 71.9541 -1222 210 184 186
0.633993 71.954 -1222 215 189 191
3.07326 72.2486 -1227 219 193 195
5.52792 72.4845 -1231 217 193 194
7.98555 72.6028 -1233 219 195 197
10.4427 72.6624 -1234 221 197 200
12.9249 72.84 -1237 218 196 199
15.3942 72.9 -1238 220 198 201
17.9108 73.1368 -1242 225 203 206
20.5255 73.6683 -1251 228 206 209
23.3602 74.7889 -1270 236 214 217
26.4947 76.5576 -1300 234 215 221
29.4354 77.502 -1316 215 196 201
32.3668 78.2702 -1329 212 194 198
35.1395 78.5673 -1334 210 188 191
37.9606 78.9236 -1340 210 190 193
40.9271 79.5157 -1350 206 189 195
43.9338 80.108 -1360 204 193 204
46.8776 80.524 -1367 211 202 215
50.0313 81.2347 -1379 221 214 223
53.1946 81.8868 -1390 236 229 237
56.7644 83.0695 -1410 242 235 243
61.1325 85.254 -1447 244 240 252
-150.038 59.9223 -1046 71 63 69
-149.474 60.5407 -1057 76 66 71
-147.89 60.7583 -1061 183 171 176
-146.155 60.9187 -1064 241 224 230
-144.137 60.9647 -1065 241 225 231
-142.117 61.0108 -1066 234 219 227
-140.488 61.2288 -1070 236 218 227
-138.585 61.3324 -1072 234 215 224
-136.802 61.4934 -1075 233 211 218
-134.884 61.5973 -1077 231 210 217
-132.835 61.6442 -1078 223 202 211
-130.298 61.4625 -1075 215 198 206
-128.013 61.3953 -1074 214 199 207
-125.264 61.0998 -1069 213 198 206
-122.536 60.8045 -1064 187 171 179
-119.943 60.5665 -1060 182 165 173
-117.811 60.5574 -1060 182 165 171
-115.68 60.5484 -1060 179 162 168
-113.765 60.6537 -1062 180 163 169
-112.052 60.8735 -1066 184 167 174
-110.324 61.0933 -1070 185 168 176
-108.885 61.4845 -1077 189 172 180
-107.418 61.8758 -1084 190 173 181
-106.021 62.3242 -1092 193 176 186
-104.593 62.7727 -1100 195 178 187
-103.413 63.3924 -1111 194 179 185
-101.917 63.8409 -1119 195 177 183
-100.389 64.2895 -1127 187 169 175
-98.4819 64.5101 -1131 184 163 170
-96.3893 64.6166 -1133 184 163 170
-94.2064 64.6664 -1134 185 164 171
-92.1824 64.8302 -1137 183 162 167
-90.0681 64.9373 -1139 182 161 165
-88.0236 65.1015 -1142 184 162 165
-86.1181 65.3799 -1147 190 166 170
-84.1932 65.6583 -1152 198 172 176
-82.1068 65.8229 -1155 202 176 180
-80.1474 66.1016 -1160 204 178 181
-78.0344 66.2665 -1163 207 181 183
-75.7799 66.3176 -1164 209 183 185
-73.5219 66.3688 -1165 207 181 183
-71.1995 66.3632 -1165 208 180 182
-68.8777 66.3579 -1165 206 178 180
-66.4993 66.2958 -1164 203 175 177
-64.1805 66.2907 -1164 199 172 175
-61.756 66.1721 -1162 200 173 177
-59.4423 66.1674 -1162 202 174 178
-57.0306 66.0491 -1160 198 170 175
-54.7217 66.0448 -1160 191 164 170
-52.4134 66.0407 -1160 195 167 171
-50.1485 66.0937 -1161 197 169 173
-47.8802 66.1469 -1162 197 171 175
-45.6474 66.2572 -1164 200 174 178
-43.3698 66.3107 -1165 203 177 181
-40.9829 66.1936 -1163 205 179 183
-38.7373 66.3044 -1165 209 183 187
-36.484 66.4153 -1167 213 187 193
-34.2231 66.5265 -1169 216 193 197
-31.9545 66.6377 -1171 218 196 199
-29.754 66.9199 -1176 224 202 205
-27.5107 67.1453 -1180 228 206 209
-25.2517 67.3709 -1184 230 206 209
-23.0157 67.7105 -1190 227 204 207
-20.7213 67.9365 -1194 219 197 200
-18.4726 68.3902 -1202 214 192 195
-16.1388 68.6163 -1206 215 192 195
-13.7892 68.8428 -1210 214 190 193
-11.405 68.9556 -1212 214 190 193
-9.01302 69.0686 -1214 213 189 192
-6.6077 69.1249 -1215 214 188 188
-4.20536 69.2952 -1218 212 186 186
-1.79261 69.5226 -1222 211 185 187
0.634459 69.5794 -1223 216 190 192
3.07552 69.864 -1228 218 192 194
5.52748 70.035 -1231 216 192 193
7.99141 70.2062 -1234 219 195 197
10.4419 70.2069 -1234 222 198 201
12.9239 70.3785 -1237 220 198 201
15.393 70.4365 -1238 218 196 199
17.9094 70.6654 -1242 220 198 201
20.5075 71.122 -1250 223 201 204
23.2295 71.8634 -1263 226 204 207
26.2481 73.2878 -1288 235 217 223
29.3213 74.5986 -1311 226 208 213
32.1208 75.0562 -1319 214 196 200
35.0314 75.6847 -1330 213 191 195
37.986 76.3135 -1341 209 188 192
40.8937 76.7718 -1349 206 189 197
43.9304 77.4011 -1360 205 194 206
46.9769 77.9737 -1370 213 204 218
50.2086 78.7742 -1384 222 217 225
53.3053 79.2905 -1393 237 231 239
56.76 80.2624 -1410 243 236 244
61.4657 82.8285 -1455 248 244 254
-151.031 58.2139 -1053 71 65 71
-152.008 59.4187 -1075 77 68 74
-149.691 59.3522 -1074 169 158 164
-147.38 59.2858 -1073 235 220 227
-144.532 58.9987 -1068 240 225 232
-142.373 58.988 -1068 239 223 231
-140.346 59.0326 -1069 241 222 230
-138.186 59.0223 -1069 240 219 227
-136.41 59.1776 -1072 236 212 220
-134.372 59.2227 -1073 232 209 218
-132.332 59.268 -1074 222 201 210
-129.803 59.0927 -1071 213 197 205
-127.407 58.9727 -1069 218 203 211
-124.786 58.7427 -1065 206 189 195
-122.412 58.6232 -1063 181 163 171
-119.821 58.3936 -1059 175 156 164
-117.802 58.4399 -1060 173 156 163
-115.781 58.4863 -1061 175 158 165
-113.863 58.588 -1063 179 162 168
-112.254 58.8552 -1068 181 162 169
-110.728 59.1775 -1074 186 165 173
-109.079 59.4449 -1079 188 168 175
-107.509 59.7674 -1085 191 171 179
-106.208 60.2551 -1094 189 175 183
-104.871 60.7429 -1103 193 178 186
-103.405 61.1758 -1111 193 178 184
-101.818 61.5536 -1118 194 177 183
-100.381 62.0415 -1127 189 171 177
-98.4744 62.2544 -1131 185 164 171
-96.4671 62.4122 -1134 184 163 170
-94.3654 62.5153 -1136 186 165 172
-92.3377 62.6735 -1139 184 163 168
-90.2195 62.7767 -1141 181 160 165
-88.0941 62.8801 -1143 183 161 164
-86.1866 63.1487 -1148 187 163 168
-84.1138 63.3074 -1151 193 167 172
-82.1717 63.5763 -1156 200 174 178
-80.2795 63.9002 -1162 204 178 181
-78.1627 64.0594 -1165 207 181 183
-75.9044 64.1087 -1166 209 183 185
-73.6427 64.1581 -1167 208 182 184
-71.3164 64.1527 -1167 208 180 182
-68.9316 64.0926 -1166 207 179 181
-66.5514 64.0326 -1165 203 175 177
-64.2309 64.0278 -1165 201 174 178
-61.9108 64.0232 -1165 203 176 180
-59.5912 64.0186 -1165 203 175 179
-57.1738 63.9044 -1163 194 166 171
-54.812 63.8454 -1162 191 163 169
-52.4997 63.8414 -1162 193 165 170
-50.188 63.8376 -1162 195 167 171
-47.9178 63.889 -1163 196 170 174
-45.644 63.9404 -1164 197 171 175
-43.4038 64.047 -1166 199 173 177
-41.015 63.934 -1164 205 179 183
-38.7676 64.041 -1166 207 181 185
-36.4813 64.093 -1167 210 184 190
-34.2498 64.2552 -1170 213 189 193
-31.9793 64.3626 -1172 215 193 196
-29.7771 64.6349 -1177 221 199 202
-27.5319 64.8525 -1181 225 203 206
-25.2711 65.0701 -1185 227 204 207
-23.0139 65.3429 -1190 226 204 208
-20.7371 65.6159 -1195 220 198 202
-18.4866 66.0537 -1203 214 192 195
-16.1376 66.2171 -1206 215 192 195
-13.7768 66.3808 -1209 215 191 194
-11.4136 66.5995 -1213 215 189 193
-9.0272 66.7634 -1216 213 187 191
-6.61808 66.8178 -1217 212 186 186
-4.21195 66.9821 -1220 212 186 187
-1.79541 67.2015 -1224 213 187 189
0.635445 67.2563 -1225 215 189 191
3.07779 67.4761 -1229 214 189 191
5.53156 67.6411 -1232 215 191 192
7.99728 67.8063 -1235 218 193 196
10.4496 67.807 -1235 220 195 198
12.9229 67.9177 -1237 218 196 199
15.3918 67.9736 -1238 218 195 198
17.9225 68.2494 -1243 219 196 199
20.4896 68.5803 -1249 221 199 202
23.1726 69.1859 -1260 223 201 204
25.9403 69.9015 -1273 232 214 218
29.0058 71.2214 -1297 238 220 225
31.9479 72.0474 -1312 218 200 206
34.9498 72.8736 -1327 213 191 196
37.9265 73.5353 -1339 209 188 193
40.9512 74.1972 -1351 209 192 198
43.8948 74.6397 -1359 206 196 207
47.0419 75.3571 -1372 214 206 220
50.3137 76.1846 -1387 226 221 229
53.4924 76.7926 -1398 241 235 244
57.1181 77.9503 -1419 247 240 248
-153.443 58.6402 -1101 168 159 165
-150.802 58.4694 -1098 225 213 220
-146.146 57.5003 -1080 236 223 230
-142.762 57.0108 -1071 242 226 234
-140.335 56.8941 -1069 248 228 235
-138.047 56.8309 -1068 241 220 227
-136.018 56.8743 -1069 235 210 218
-133.862 56.8646 -1069 234 211 219
-131.952 56.9614 -1071 224 203 212
-129.794 56.952 -1071 217 200 208
-127.398 56.8364 -1069 217 202 209
-125.011 56.721 -1067 190 172 179
-122.748 56.659 -1066 172 153 160
-120.377 56.544 -1064 170 149 156
-118.46 56.6417 -1066 172 152 161
-116.645 56.7926 -1069 170 151 159
-114.819 56.9437 -1072 172 154 160
-112.981 57.0949 -1075 175 154 161
-111.339 57.3524 -1080 181 156 164
-109.475 57.5038 -1083 183 158 164
-107.898 57.8146 -1089 187 163 169
-106.588 58.2847 -1098 184 173 178
-105.053 58.6487 -1105 188 176 182
-103.677 59.1189 -1114 190 177 184
-102.175 59.536 -1122 193 176 182
-100.552 59.9002 -1129 189 172 178
-98.7285 60.1583 -1134 186 164 170
-96.7152 60.3105 -1137 183 162 168
-94.6908 60.4628 -1140 182 161 167
-92.6551 60.6152 -1143 181 159 165
-90.4501 60.6617 -1144 180 158 164
-88.2418 60.7084 -1145 182 160 164
-86.2554 60.9142 -1149 187 163 168
-84.1807 61.0672 -1152 192 167 173
-82.0947 61.2202 -1155 199 173 177
-80.2046 61.5325 -1161 206 180 183
-78.157 61.7388 -1165 209 182 184
-75.9639 61.8393 -1167 210 184 186
-73.7004 61.887 -1168 206 180 182
-71.3724 61.8818 -1168 208 180 181
-69.0449 61.8768 -1168 207 179 180
-66.6608 61.819 -1167 207 178 180
-64.2813 61.7614 -1166 207 180 183
-61.9594 61.7568 -1166 207 180 184
-59.6892 61.8055 -1167 199 170 176
-57.268 61.6954 -1165 192 163 169
-54.9023 61.6385 -1164 191 162 168
-52.6315 61.6876 -1165 192 164 168
-50.3139 61.6839 -1165 193 165 169
-47.9967 61.6805 -1165 194 168 171
-45.7191 61.7301 -1166 195 169 172
-43.4751 61.8328 -1168 198 172 175
-41.0826 61.7239 -1166 204 178 182
-38.7981 61.774 -1167 206 180 184
-36.5412 61.8772 -1169 208 182 188
-34.2765 61.9805 -1171 211 187 192
-32.0043 62.0841 -1173 213 190 194
-29.7497 62.2406 -1176 217 194 198
-27.5533 62.5561 -1182 220 198 201
-25.2693 62.713 -1185 224 201 205
-22.9929 62.923 -1189 225 203 207
-20.7182 63.186 -1194 220 199 203
-18.4699 63.608 -1202 216 194 197
-16.1498 63.8714 -1207 214 192 195
-13.7986 64.082 -1211 215 191 194
-11.4316 64.2928 -1215 215 189 193
-9.0414 64.4508 -1218 213 187 191
-6.62848 64.5031 -1219 211 185 185
-4.21511 64.6085 -1221 210 184 185
-1.79675 64.8201 -1225 210 184 186
0.635915 64.8729 -1226 211 185 187
3.08007 65.0847 -1230 210 185 187
5.53116 65.1909 -1232 212 188 189
7.9967 65.3501 -1235 215 190 193
10.4573 65.4037 -1236 215 189 193
12.9324 65.5103 -1238 217 193 196
15.4156 65.6172 -1240 221 197 200
17.95 65.8829 -1245 220 197 200
20.4717 66.0431 -1248 220 198 201
23.1893 66.7326 -1261 222 200 203
25.8365 67.1047 -1268 228 207 210
28.6907 67.9005 -1283 240 220 225
31.6778 68.8553 -1301 229 211 217
34.9736 70.2866 -1328 211 191 197
37.8671 70.7656 -1337 209 189 194
40.9786 71.5624 -1352 209 192 198
44.15 72.3594 -1367 208 197 208
47.1071 72.7332 -1374 217 209 223
50.4552 73.6366 -1391 230 225 233
53.6799 74.2756 -1403 242 236 244
-163.155 59.1645 -1154 73 66 72
-159.146 58.5381 -1142 169 161 167
-151.548 57.3891 -1120 235 222 229
-144.352 55.4832 -1083 246 231 239
-140.851 54.961 -1073 250 233 240
-138.554 54.9001 -1072 247 227 234
-136.136 54.7882 -1070 243 220 227
-133.977 54.7788 -1070 232 211 218
-131.943 54.8209 -1071 225 205 213
-129.785 54.8118 -1071 221 204 211
-127.746 54.8541 -1072 198 182 189
-125.588 54.8453 -1072 172 153 162
-123.315 54.7856 -1071 167 148 156
-121.161 54.7771 -1071 167 147 156
-119.452 54.9734 -1075 166 147 155
-117.51 55.0675 -1077 164 145 152
-115.775 55.264 -1081 166 148 154
-113.709 55.3072 -1082 168 148 154
-112.053 55.555 -1087 171 148 156
-110.175 55.7006 -1090 174 150 157
-108.584 55.9997 -1096 181 158 165
-106.872 56.2477 -1101 180 168 173
-105.521 56.7001 -1110 184 170 177
-103.949 57.0505 -1117 187 173 181
-102.259 57.3498 -1123 192 175 181
-100.456 57.5982 -1128 193 175 181
-98.8086 57.9488 -1135 189 167 172
-96.7935 58.0952 -1138 184 163 168
-94.7673 58.2417 -1141 182 161 166
-92.7297 58.3884 -1144 182 160 167
-90.6019 58.4842 -1146 181 159 165
-88.4668 58.5801 -1148 181 159 164
-86.4746 58.7782 -1152 185 163 168
-84.394 58.9254 -1155 189 167 172
-82.3021 59.0727 -1158 199 173 177
-80.2681 59.2712 -1162 206 179 182
-78.2187 59.4698 -1166 210 182 184
-76.0238 59.5665 -1168 211 184 186
-73.7583 59.6123 -1169 206 180 182
-71.4285 59.6074 -1169 209 181 181
-69.04 59.5516 -1168 208 179 180
-66.6562 59.4959 -1167 211 180 183
-64.2768 59.4405 -1166 210 182 185
-62.0082 59.4871 -1167 208 180 184
-59.7361 59.5339 -1168 199 170 177
-57.4115 59.5299 -1168 195 165 171
-55.04 59.4751 -1167 194 163 168
-52.7182 59.4714 -1167 189 162 165
-50.3535 59.4169 -1166 188 162 164
-47.9934 59.3626 -1165 190 164 166
-45.7551 59.4613 -1167 193 167 169
-43.5093 59.5601 -1169 195 170 172
-41.1502 59.5063 -1168 199 173 177
-38.8951 59.6055 -1170 202 176 180
-36.6011 59.6538 -1171 208 183 189
-34.3034 59.7023 -1172 212 187 193
-32.0566 59.8529 -1175 214 189 195
-29.7729 59.9526 -1177 216 191 197
-27.5281 60.1544 -1181 220 195 201
-25.2676 60.3564 -1185 224 200 205
-23.0107 60.6094 -1190 225 202 206
-20.6994 60.7607 -1193 222 198 202
-18.4532 61.1667 -1201 217 195 198
-16.1487 61.4711 -1207 215 193 196
-13.8204 61.7758 -1213 213 191 194
-11.4684 62.0804 -1219 213 188 190
-9.04819 62.0797 -1219 212 186 189
-6.64434 62.232 -1222 208 182 184
-4.22862 62.3844 -1225 209 183 184
-1.79956 62.486 -1227 209 182 183
0.636904 62.5369 -1228 208 182 184
3.08236 62.6898 -1231 209 183 185
5.53526 62.792 -1233 211 185 187
8.00909 62.9961 -1237 213 187 190
10.465 62.9968 -1237 213 187 190
12.9524 63.1503 -1240 215 191 194
15.4393 63.2532 -1242 219 195 198
17.9632 63.4581 -1246 220 196 199
20.4867 63.6121 -1249 220 197 200
23.0958 63.9702 -1256 221 198 201
25.794 64.4812 -1266 224 200 203
28.6439 65.2471 -1281 234 212 217
31.505 65.9113 -1294 238 219 225
34.7078 67.136 -1318 216 198 204
37.8645 68.1063 -1337 209 191 197
41.097 69.0769 -1356 210 193 199
44.2761 69.844 -1371 211 199 210
47.4124 70.4585 -1383 218 209 222
50.7781 71.328 -1400 231 226 234
54.1353 72.0958 -1415 245 239 248
-168.375 58.6777 -1191 72 65 71
-165.266 58.4203 -1186 171 163 169
-163.69 58.7048 -1192 217 205 213
-159.52 58.0539 -1179 235 222 230
-153.405 56.6649 -1151 246 232 240
-143.466 53.7999 -1093 252 237 243
-138.933 52.9046 -1075 253 236 242
-136.509 52.797 -1073 250 229 236
-134.469 52.8372 -1074 237 218 224
-132.304 52.8283 -1074 226 208 215
-130.624 53.0163 -1078 202 185 191
-129.048 53.2536 -1083 171 154 161
-126.868 53.2451 -1083 163 145 153
-125.034 53.3842 -1086 165 147 156
-122.849 53.376 -1086 163 145 153
-121.111 53.5645 -1090 160 143 149
-119.029 53.6057 -1091 158 140 146
-116.945 53.647 -1092 159 142 148
-114.857 53.6884 -1093 162 142 149
-112.87 53.7791 -1095 165 143 150
-110.673 53.7717 -1095 169 147 154
-108.873 53.9609 -1099 172 150 157
-107.156 54.1992 -1104 175 158 164
-105.704 54.5849 -1112 181 164 171
-103.942 54.8233 -1117 185 169 177
-102.343 55.1601 -1124 191 174 180
-100.628 55.4478 -1130 195 177 183
-98.889 55.7356 -1136 191 169 174
-96.872 55.8763 -1139 183 162 167
-94.927 56.0662 -1143 181 160 167
-92.8045 56.1581 -1145 182 160 167
-90.6749 56.2502 -1147 181 159 166
-88.4609 56.2933 -1148 181 159 164
-86.4688 56.4836 -1152 186 162 168
-84.2422 56.527 -1153 190 166 172
-82.2966 56.7666 -1158 197 171 175
-80.3317 57.0064 -1163 205 178 182
-78.2805 57.1972 -1167 210 182 184
-76.0186 57.2411 -1168 210 183 185
-73.8165 57.3342 -1170 206 180 182
-71.4848 57.3294 -1170 211 183 184
-69.1536 57.3248 -1170 209 179 181
-66.8231 57.3203 -1170 213 182 185
-64.493 57.316 -1170 212 183 187
-62.1634 57.3118 -1170 206 178 182
-59.8856 57.3568 -1171 198 169 176
-57.6042 57.4019 -1172 196 166 172
-55.225 57.3492 -1171 193 163 168
-52.8502 57.2967 -1170 189 162 164
-50.4797 57.2443 -1169 188 162 164
-48.0725 57.1431 -1167 189 164 165
-45.8304 57.238 -1169 192 166 168
-43.5436 57.284 -1170 192 166 168
-41.1827 57.2323 -1169 193 167 171
-38.8924 57.2786 -1170 199 173 178
-36.6611 57.423 -1173 206 180 186
-34.3304 57.4206 -1173 210 185 191
-32.0818 57.5653 -1176 212 187 193
-29.7962 57.6612 -1178 216 191 197
-27.5495 57.8551 -1182 220 195 201
-25.2445 57.9513 -1184 223 198 204
-22.9704 58.1453 -1188 224 200 204
-20.698 58.3887 -1193 222 198 201
-18.5134 58.9747 -1205 219 197 200
-16.1877 59.2183 -1210 217 195 198
-13.8651 59.5599 -1217 213 191 194
-11.4865 59.7548 -1221 212 188 190
-9.07728 59.852 -1223 211 187 188
-6.66021 59.9494 -1225 210 184 186
-4.23525 60.0469 -1227 210 183 184
-1.80238 60.1446 -1229 210 182 182
0.637896 60.1935 -1230 208 182 184
3.08716 60.3404 -1233 209 183 185
5.53937 60.3897 -1234 212 186 188
8.00855 60.5369 -1237 213 188 189
10.4728 60.5865 -1238 213 189 190
12.962 60.7341 -1241 215 191 194
15.4507 60.8329 -1243 217 193 196
17.9908 61.0787 -1248 219 195 197
20.5345 61.2757 -1252 220 196 199
23.131 61.5709 -1258 223 199 202
25.7719 61.915 -1265 225 198 202
28.5302 62.4552 -1276 228 203 209
31.2838 62.8978 -1285 239 217 224
34.5737 64.2705 -1313 223 210 218
37.9752 65.6435 -1341 209 195 202
41.1245 66.4293 -1357 211 197 203
44.144 66.9216 -1367 214 202 212
47.2721 67.5121 -1379 224 212 224
50.5934 68.2986 -1395 239 233 242
54.0934 69.2324 -1414 246 241 250
-171.191 57.2398 -1211 72 65 70
-168.739 57.229 -1211 174 166 172
-166.975 57.4545 -1216 216 204 213
-163.163 56.9715 -1206 231 219 227
-159.792 56.6305 -1199 247 235 242
-153.563 55.2509 -1170 252 237 243
-143.964 52.5971 -1114 252 235 241
-137.517 51.0302 -1081 250 232 239
-135.462 51.0688 -1082 235 218 225
-133.773 51.2489 -1086 203 187 194
-132.918 51.7595 -1097 175 158 166
-131.661 52.1285 -1105 166 149 157
-130.842 52.6862 -1117 159 142 150
-128.134 52.4893 -1113 161 144 152
-126.009 52.5284 -1114 158 141 149
-123.214 52.2846 -1109 158 141 147
-120.876 52.2298 -1108 156 139 145
-118.436 52.1279 -1106 155 138 144
-115.796 51.9319 -1102 157 138 144
-113.687 51.9718 -1103 160 139 146
-111.272 51.8704 -1101 165 143 150
-109.56 52.0989 -1106 168 146 153
-107.731 52.2805 -1110 171 149 156
-106.077 52.5562 -1116 178 157 166
-104.121 52.6909 -1119 181 162 171
-102.792 53.1551 -1129 187 170 176
-100.71 53.2428 -1131 196 178 184
-98.7956 53.4248 -1135 194 172 178
-96.8658 53.6069 -1139 184 162 169
-94.9208 53.7891 -1143 181 160 167
-92.7985 53.8772 -1145 181 160 167
-90.7481 54.0125 -1148 181 160 166
-88.5322 54.054 -1149 181 159 164
-86.5382 54.2366 -1153 185 161 167
-84.3829 54.3252 -1155 190 165 171
-82.4334 54.5551 -1160 196 170 174
-80.4647 54.7851 -1165 203 176 180
-78.4766 55.0152 -1170 209 181 183
-76.2089 55.0573 -1171 209 182 184
-73.9379 55.0996 -1172 207 181 183
-71.6634 55.142 -1173 212 184 186
-69.2673 55.0905 -1172 210 181 183
-66.8758 55.0392 -1171 212 180 183
-64.5991 55.0821 -1172 208 179 183
-62.3188 55.125 -1173 200 172 176
-60.0351 55.1682 -1174 196 167 174
-57.7479 55.2115 -1175 194 166 171
-55.4101 55.2079 -1175 191 163 167
-53.0274 55.1575 -1174 188 163 164
-50.606 55.0603 -1172 187 163 164
-48.193 54.9632 -1170 186 162 163
-45.9059 55.0072 -1171 187 163 164
-43.6152 55.0513 -1172 189 163 165
-41.3209 55.0956 -1173 191 165 169
-39.0229 55.1401 -1174 197 171 175
-36.7838 55.2786 -1177 200 174 180
-34.4453 55.2764 -1177 205 180 186
-32.1616 55.3682 -1179 209 184 190
-29.8449 55.4131 -1180 216 191 197
-27.5711 55.5522 -1183 218 193 199
-25.2642 55.6445 -1185 219 194 200
-22.9689 55.7838 -1188 221 197 201
-20.714 56.0642 -1194 222 198 201
-18.4662 56.4386 -1202 219 197 200
-16.2001 56.8601 -1211 217 195 198
-13.83 57 -1214 214 192 195
-11.4763 57.2809 -1220 212 189 191
-9.0767 57.4211 -1223 212 188 191
-6.66522 57.5615 -1226 211 185 187
-4.24188 57.702 -1229 209 183 184
-1.8052 57.7957 -1231 210 182 182
0.639408 57.8896 -1233 210 183 185
3.09196 57.9836 -1235 211 185 187
5.5435 57.9839 -1235 212 186 188
8.00803 58.0782 -1237 212 187 188
10.489 58.2196 -1240 214 190 191
12.9716 58.3143 -1242 215 191 194
15.4622 58.4091 -1244 216 192 195
18.0041 58.6449 -1249 218 194 197
20.5332 58.787 -1252 220 196 199
23.1295 59.0701 -1258 222 198 201
25.7499 59.3534 -1264 224 196 200
28.439 59.7307 -1272 224 199 204
31.2574 60.2961 -1284 230 208 214
34.2292 61.0495 -1300 240 229 237
37.4914 62.179 -1324 208 199 206
40.9401 63.4495 -1351 208 197 204
44.0766 64.1097 -1365 219 204 212
47.3033 64.8171 -1380 232 217 225
50.5538 65.4777 -1394 244 236 246
54.2047 66.5614 -1417 249 243 252
-174.714 55.9486 -1236 0 0 0
-171.515 55.7117 -1231 177 169 175
-169.711 55.9275 -1236 211 202 211
-165.452 55.3291 -1223 216 206 214
-162.181 55.0477 -1217 228 217 225
-158.541 54.6308 -1208 248 232 238
-153.776 53.8073 -1190 251 234 240
-149.72 53.2102 -1177 249 231 237
-144.342 52.1164 -1153 233 216 223
-143.742 52.7404 -1167 201 185 193
-142.602 53.1835 -1177 173 156 164
-140.47 53.2652 -1179 166 149 156
-137.511 53.0309 -1174 158 142 150
-134.688 52.8419 -1170 159 142 150
-130.751 52.2015 -1156 158 141 149
-127.094 51.6519 -1144 156 139 145
-123.814 51.2379 -1135 156 139 145
-120.142 50.6437 -1122 154 137 143
-117.259 50.3656 -1116 154 136 143
-114.608 50.1781 -1112 154 134 141
-112.276 50.1261 -1111 157 136 143
-110.048 50.1193 -1111 160 138 146
-108.113 50.248 -1114 169 143 152
-106.451 50.5121 -1120 174 151 160
-104.766 50.7762 -1126 178 156 165
-102.876 50.9503 -1130 183 164 171
-100.971 51.1245 -1134 194 175 181
-99.1376 51.3438 -1139 196 175 182
-97.1149 51.473 -1142 186 165 172
-95.081 51.6024 -1145 181 160 167
-92.9548 51.6869 -1147 180 159 166
-90.9005 51.8165 -1150 181 159 166
-88.6808 51.8561 -1151 182 160 165
-86.683 52.031 -1155 185 161 166
-84.6699 52.206 -1159 188 163 169
-82.6415 52.381 -1163 195 169 173
-80.6669 52.6013 -1168 201 175 178
-78.6059 52.7766 -1172 206 180 182
-76.3344 52.8169 -1173 209 183 185
-74.0594 52.8574 -1174 209 183 185
-71.7812 52.8981 -1175 213 185 187
-69.4404 52.8937 -1175 211 182 185
-67.043 52.8446 -1174 209 178 181
-64.7604 52.8856 -1175 202 174 177
-62.4744 52.9268 -1176 195 167 171
-60.1337 52.9231 -1176 193 164 171
-57.8427 52.9645 -1177 192 163 169
-55.5009 52.9611 -1177 190 162 166
-53.1145 52.9128 -1176 187 163 164
-50.7325 52.8647 -1175 187 163 164
-48.3548 52.8167 -1174 185 161 164
-46.0599 52.8588 -1175 187 162 164
-43.7242 52.8561 -1175 190 164 166
-41.424 52.8986 -1176 192 166 170
-39.087 52.8961 -1176 196 170 174
-36.8753 53.0738 -1180 199 173 179
-34.5602 53.1165 -1181 203 177 183
