ply
format ascii 1.0
comment Created by Open3D
element vertex 1439
property double x
property double y
property double z
property uchar red
property uchar green
property uchar blue
end_header
22.4505 258.58 -1544 34 47 83
25.5263 258.418 -1543 46 63 101
28.6168 258.424 -1543 75 91 126
31.7281 258.599 -1544 99 113 142
-178.769 221.353 -1330 100 104 128
-176.191 221.48 -1331 91 95 119
-171.394 218.778 -1315 78 82 106
-126.355 171.909 -1034 249 221 205
-122.813 169.886 -1022 254 228 208
-120.501 169.526 -1020 254 231 213
-117.966 168.835 -1016 254 235 217
-115.563 168.31 -1013 254 242 228
-113.284 167.952 -1011 255 249 236
-111.125 167.76 -1010 255 251 243
-108.971 167.569 -1009 254 252 247
-107.033 167.711 -1010 253 253 250
-104.677 167.189 -1007 253 253 251
-102.538 166.999 -1006 254 253 251
-100.903 167.64 -1010 255 253 250
-99.0564 167.95 -1012 254 253 249
-97.2988 168.426 -1015 254 253 248
-95.2484 168.404 -1015 253 253 249
-93.1988 168.383 -1015 252 252 248
-91.1499 168.362 -1015 250 250 246
-89.2773 168.673 -1017 252 249 239
-87.4832 169.151 -1020 250 247 235
-85.6777 169.629 -1023 254 245 222
-83.8608 170.107 -1026 254 243 221
-82.1919 170.917 -1031 255 240 220
-80.8144 172.391 -1040 253 238 220
-78.6183 181.784 -1097 249 223 203
-78.3615 186.406 -1125 254 229 210
-76.9104 188.377 -1137 255 240 224
-75.0835 189.52 -1144 255 242 227
-73.3562 190.994 -1153 254 243 229
-71.4702 192.137 -1160 254 240 225
-69.5567 193.281 -1167 254 240 224
-67.558 194.259 -1173 236 213 197
-65.7581 195.9 -1183 123 118 120
-63.8114 197.21 -1191 78 91 112
-61.9878 199.017 -1202 75 105 146
-59.9719 200.328 -1210 54 83 127
-58.1621 202.467 -1223 55 80 126
-56.2551 204.441 -1235 60 88 136
-54.7794 208.236 -1258 50 80 129
-52.9626 211.037 -1275 55 84 133
-51.0386 213.674 -1291 59 89 138
-48.9382 215.814 -1304 57 88 137
-46.8927 218.452 -1320 54 85 132
-44.5487 219.931 -1329 53 84 131
-42.1376 221.245 -1337 56 82 132
-39.5767 221.898 -1341 53 79 129
-37.0276 222.716 -1346 58 84 134
-34.5353 224.032 -1354 62 88 138
-31.9171 224.687 -1358 63 89 140
-29.3048 225.507 -1363 60 86 138
-26.5946 225.666 -1364 59 85 137
-23.9856 226.819 -1371 56 82 134
-21.4108 228.633 -1382 61 84 135
-18.765 230.118 -1391 64 87 138
-16.1524 232.595 -1406 70 93 144
-13.4418 234.412 -1417 77 99 149
-10.6575 235.567 -1424 74 95 144
-7.85601 237.054 -1433 61 82 131
-5.00833 238.045 -1439 56 77 124
-2.13649 239.037 -1445 50 71 116
0.760407 240.36 -1453 45 65 109
3.68663 241.518 -1460 45 65 108
6.64562 242.843 -1468 49 69 110
9.67587 245.161 -1482 56 72 115
12.8388 248.968 -1505 68 84 127
16.0942 252.776 -1528 50 68 106
19.2287 253.773 -1534 28 43 80
22.3582 254.439 -1538 44 57 94
25.4211 254.279 -1537 59 74 111
28.4989 254.285 -1537 89 104 138
31.577 254.292 -1537 102 116 145
-179.132 219.119 -1333 99 101 125
-175.754 218.258 -1328 89 91 114
-129.298 170.97 -1041 252 219 204
-125.105 168.149 -1024 255 221 205
-122.425 167.301 -1019 254 226 207
-119.883 166.617 -1015 252 228 208
-117.359 165.934 -1011 254 234 213
-115.195 165.744 -1010 254 242 227
-112.923 165.39 -1008 255 249 234
-110.66 165.037 -1006 255 252 243
-108.622 165.013 -1006 254 253 248
-106.48 164.825 -1005 253 253 250
-104.654 165.129 -1007 253 253 251
-102.413 164.778 -1005 254 253 251
-100.78 165.411 -1009 255 253 250
-98.6428 165.225 -1008 253 253 249
-96.8937 165.695 -1011 253 253 249
-94.6641 165.346 -1009 253 253 249
-92.6271 165.325 -1009 251 251 247
-90.6805 165.469 -1010 249 249 245
-88.643 165.449 -1010 251 248 236
-86.7776 165.757 -1012 251 247 233
-85.2399 166.72 -1018 253 244 218
-83.3517 167.029 -1020 253 241 218
-81.775 167.993 -1026 255 239 219
-80.4079 169.449 -1035 254 239 221
-79.2322 171.395 -1047 251 235 217
-78.3771 174.161 -1064 249 228 208
-78.0992 178.399 -1090 249 223 201
-77.9262 183.128 -1119 254 228 207
-76.6227 185.402 -1133 255 237 221
-74.8699 186.694 -1141 255 239 223
-73.2127 188.314 -1151 255 241 226
-71.2696 189.279 -1157 255 240 223
-69.3029 190.245 -1163 254 239 221
-67.4853 191.702 -1172 246 224 205
-65.799 193.65 -1184 144 134 130
-63.7436 194.617 -1190 70 75 86
-61.8709 196.239 -1200 79 104 141
-59.8594 197.533 -1208 74 100 140
-58.1967 200.137 -1224 55 79 125
-56.197 201.759 -1234 60 87 135
-54.4189 204.363 -1250 62 91 140
-52.5771 206.967 -1266 55 82 130
-50.7901 210.061 -1285 54 83 131
-48.7022 212.175 -1298 56 86 135
-46.8112 215.434 -1318 56 87 134
-44.4383 216.731 -1326 54 85 132
-42.0337 218.029 -1334 58 84 135
-39.5679 219.164 -1341 55 81 132
-37.0469 220.136 -1347 59 85 136
-34.5021 221.109 -1353 61 87 137
-31.91 221.919 -1358 62 88 138
-29.2767 222.566 -1362 59 85 136
-26.5497 222.56 -1362 58 84 136
-23.9278 223.534 -1368 58 84 136
-21.2666 224.346 -1373 60 83 134
-18.653 225.976 -1383 62 85 136
-16.0799 228.75 -1400 68 91 142
-13.3725 230.381 -1410 73 96 146
-10.6176 231.848 -1419 71 94 143
-7.83241 233.48 -1429 67 88 137
-5.00361 234.949 -1438 60 81 129
-2.13308 235.766 -1443 50 71 118
0.758138 236.746 -1449 42 62 107
3.67573 237.89 -1456 42 62 106
6.62155 239.035 -1463 47 67 108
9.60832 240.507 -1472 55 71 112
12.674 242.797 -1486 62 77 119
15.9326 247.212 -1513 64 83 122
19.1366 249.503 -1527 45 61 99
22.2515 250.161 -1531 46 60 97
25.3659 250.657 -1534 58 71 108
28.4555 250.826 -1535 88 102 137
31.5289 250.833 -1535 99 114 143
-132.521 170.327 -1050 241 217 208
-127.158 166.081 -1024 249 221 204
-124.1 164.756 -1016 250 223 206
-121.437 163.918 -1011 253 228 209
-118.912 163.243 -1007 254 232 212
-116.637 162.893 -1005 255 237 216
-114.485 162.706 -1004 254 245 227
-112.226 162.356 -1002 255 250 234
-110.306 162.494 -1003 255 252 242
-108.275 162.47 -1003 255 253 246
-106.138 162.284 -1002 255 253 248
-104.111 162.261 -1002 255 253 251
-102.186 162.4 -1003 254 253 251
-100.358 162.702 -1005 253 253 252
-98.3275 162.68 -1005 253 253 250
-96.4889 162.982 -1007 253 253 249
-94.4556 162.961 -1007 253 253 249
-92.6066 163.264 -1009 252 252 247
-90.481 163.083 -1008 251 250 244
-88.7112 163.548 -1011 252 247 233
-86.7585 163.691 -1012 251 245 228
-84.8861 163.995 -1014 254 241 215
-83.1699 164.624 -1018 253 239 215
-81.4382 165.253 -1022 254 238 217
-79.9241 166.367 -1029 252 237 218
-78.7608 168.289 -1041 251 235 216
-77.8443 170.859 -1057 249 229 209
-77.5089 174.882 -1082 247 225 199
-77.2824 179.391 -1110 250 226 198
-76.2677 182.283 -1128 255 237 218
-74.8534 184.367 -1141 255 240 222
-72.815 184.997 -1145 255 240 225
-71.3154 187.082 -1158 255 237 220
-69.5855 188.682 -1168 254 235 218
-67.7008 189.959 -1176 247 226 206
-65.8956 191.56 -1186 166 153 144
-63.8903 192.676 -1193 69 66 68
-61.8572 193.793 -1200 75 94 127
-59.7472 194.749 -1206 81 102 139
-57.8036 196.35 -1216 60 84 130
-55.9115 198.276 -1228 54 79 128
-54.2329 201.17 -1246 66 92 142
-52.3579 203.58 -1261 60 86 134
-50.6208 206.797 -1281 52 79 127
-48.5789 209.047 -1295 55 83 133
-46.6589 212.103 -1314 58 86 134
-44.3616 213.707 -1324 58 86 134
-42.0245 215.312 -1334 59 86 138
-39.5297 216.271 -1340 56 83 135
-37.0112 217.231 -1346 60 87 139
-34.469 218.192 -1352 59 85 135
-31.856 218.83 -1356 57 83 133
-29.2274 219.469 -1360 58 84 134
-26.5633 219.947 -1363 59 86 137
-23.9051 220.587 -1367 57 84 136
-21.2929 221.873 -1375 56 79 130
-18.6759 223.482 -1385 58 81 132
-16.0419 225.415 -1397 65 88 139
-13.3316 226.864 -1406 71 94 145
-10.6004 228.636 -1417 71 94 144
-7.8198 230.248 -1427 72 94 143
-4.9956 231.698 -1436 69 91 139
-2.13412 232.988 -1444 59 81 129
0.759011 234.118 -1451 45 66 112
3.67746 235.086 -1457 40 61 105
6.6109 235.733 -1461 45 65 107
9.58669 237.025 -1469 52 67 108
12.62 238.803 -1480 56 70 110
15.7607 241.549 -1497 59 79 119
18.9695 244.296 -1514 54 72 111
22.1884 246.398 -1527 35 52 91
25.2941 246.887 -1530 45 58 95
28.4308 247.539 -1534 86 99 134
31.4809 247.384 -1533 100 115 144
-129.716 164.655 -1028 245 216 199
-126.137 162.705 -1016 248 223 205
-123.34 161.717 -1010 249 225 206
-121.05 161.37 -1008 252 228 210
-118.65 160.864 -1005 255 234 214
-116.263 160.358 -1002 255 239 218
-114.004 160.013 -1000 255 246 228
-112.201 160.308 -1002 255 250 234
-109.842 159.804 -999 255 252 241
-107.819 159.781 -999 255 253 245
-105.691 159.598 -998 255 253 247
-103.465 159.255 -996 255 253 250
-101.451 159.233 -996 254 253 251
-99.8373 159.85 -1000 253 253 253
-97.8169 159.829 -1000 253 253 250
-95.8931 159.968 -1001 253 253 249
-93.8723 159.947 -1001 253 253 249
-92.2194 160.566 -1005 252 252 247
-90.2818 160.706 -1006 252 250 244
-88.3409 160.846 -1007 253 247 232
-86.4824 161.147 -1009 252 245 227
-84.7003 161.607 -1012 254 241 214
-82.9068 162.068 -1015 253 239 214
-81.1815 162.689 -1019 255 239 217
-79.6737 163.789 -1026 254 238 218
-78.2141 165.049 -1034 252 235 215
-77.5329 168.065 -1053 250 230 207
-76.8474 171.24 -1073 249 224 202
-76.7783 176.011 -1103 252 226 202
-75.9132 179.186 -1123 255 235 215
-74.6403 181.563 -1138 255 238 219
-72.8627 182.823 -1146 255 238 222
-71.0536 184.084 -1154 255 235 218
-69.4512 185.983 -1166 254 233 217
-67.7436 187.723 -1177 245 229 211
-65.9369 189.303 -1187 184 171 158
-63.8764 190.246 -1193 74 63 57
-61.7923 191.189 -1199 66 77 107
-59.6846 192.133 -1205 87 102 137
-57.696 193.555 -1214 70 95 143
-55.8083 195.456 -1226 53 77 127
-53.9164 197.517 -1239 58 81 132
-52.0974 200.056 -1255 62 87 135
-50.2938 202.914 -1273 56 82 131
-48.3809 205.613 -1290 54 81 131
-46.5068 208.79 -1310 58 84 132
-44.2514 210.534 -1321 62 89 137
-41.9524 212.278 -1332 59 88 140
-39.4621 213.225 -1338 53 81 133
-36.9482 214.173 -1344 58 85 137
-34.4106 215.121 -1350 58 84 134
-31.8256 215.911 -1355 57 83 133
-29.1995 216.542 -1359 60 86 136
-26.5381 217.014 -1362 61 88 139
-23.8999 217.805 -1367 58 85 137
-21.2573 218.756 -1373 55 78 129
-18.6044 219.867 -1380 56 79 130
-15.9811 221.775 -1392 62 85 136
-13.3003 223.525 -1403 66 89 140
-10.5682 225.115 -1413 70 93 144
-7.80156 226.866 -1424 72 95 145
-4.98761 228.458 -1434 72 95 145
-2.13221 229.891 -1443 70 93 142
0.759362 231.324 -1452 57 78 125
3.67163 231.803 -1455 46 66 112
6.60046 232.441 -1459 50 70 112
9.55204 233.239 -1464 53 69 109
12.5662 234.835 -1474 46 60 99
15.6414 236.75 -1486 49 67 107
18.8151 239.303 -1502 63 81 121
22.0819 242.175 -1520 42 60 100
25.239 243.295 -1527 32 46 83
28.3505 243.779 -1530 70 84 118
31.3918 243.626 -1529 99 114 143
-128.3 160.813 -1017 249 220 203
-125.489 159.837 -1011 249 225 205
-122.825 159.02 -1006 251 227 207
-120.543 158.678 -1004 253 229 209
-118.152 158.178 -1001 255 235 214
-115.89 157.837 -999 255 240 219
-113.637 157.496 -997 255 247 229
-111.505 157.314 -996 255 250 234
-109.049 156.659 -992 255 252 241
-107.041 156.635 -992 255 253 245
-104.928 156.455 -991 255 253 247
-102.923 156.433 -991 255 253 249
-101.022 156.569 -992 254 253 250
-99.0172 156.547 -992 253 253 253
-97.209 156.842 -994 253 253 250
-95.2978 156.979 -995 253 253 249
-93.5708 157.432 -998 253 253 249
-91.9243 158.043 -1002 252 252 246
-90.1726 158.497 -1005 252 250 243
-88.2342 158.635 -1006 255 247 232
-86.3781 158.932 -1008 253 244 227
-84.431 159.071 -1009 255 242 215
-82.3989 159.054 -1009 254 239 215
-80.5268 159.351 -1011 255 239 217
-79.2684 160.91 -1021 253 237 217
-77.5923 161.682 -1026 252 235 215
-76.5593 163.871 -1040 253 231 210
-76.1149 167.479 -1063 250 224 204
-76.1355 172.346 -1094 252 223 204
-75.4238 175.796 -1116 255 233 214
-74.2964 178.458 -1133 255 237 218
-72.8471 180.489 -1146 255 238 219
-71.1615 182.049 -1156 255 235 215
-69.3767 183.451 -1165 253 232 213
-67.9593 185.956 -1181 245 227 212
-66.256 187.831 -1193 193 177 166
-64.0768 188.447 -1197 75 61 54
-62.0367 189.536 -1204 53 57 83
-59.8204 190.152 -1208 85 95 126
-57.7311 191.242 -1215 75 101 148
-55.6143 192.331 -1222 59 82 131
-53.7309 194.366 -1235 51 73 123
-51.9618 197.03 -1252 56 79 128
-50.204 200.009 -1271 60 84 134
-48.3705 202.988 -1290 55 81 131
-46.5323 206.283 -1311 60 85 133
-44.175 207.532 -1319 64 89 137
-41.9119 209.411 -1331 59 87 139
-39.3947 210.189 -1336 54 82 133
-36.9128 211.282 -1343 55 82 133
-34.3267 211.903 -1347 58 84 134
-31.7484 212.683 -1352 61 87 137
-29.1503 213.463 -1357 60 86 137
-26.513 214.086 -1361 60 86 138
-23.8773 214.867 -1366 58 85 137
-21.2992 216.436 -1376 56 79 131
-18.6274 217.375 -1382 57 80 132
-15.9547 218.63 -1390 60 83 134
-13.2312 219.57 -1396 62 85 136
-10.5136 221.141 -1406 69 92 143
-7.74518 222.397 -1414 74 97 148
-4.95877 224.283 -1426 74 97 148
-2.1303 226.799 -1442 75 98 149
0.75867 228.214 -1451 66 87 135
3.6759 229.158 -1457 52 72 119
6.6036 229.631 -1460 54 74 117
9.54987 230.262 -1464 51 68 107
12.5122 230.894 -1468 40 56 95
15.5224 231.998 -1475 42 60 100
18.7234 235.147 -1495 61 79 119
21.9754 237.983 -1513 57 75 115
25.1014 238.931 -1519 31 47 83
28.2888 240.195 -1527 50 65 100
31.3646 240.359 -1528 91 106 136
-130.084 158.45 -1015 246 219 206
-127.39 157.642 -1010 252 223 206
-124.842 156.991 -1006 251 227 207
-122.189 156.185 -1001 254 230 210
-119.797 155.691 -998 255 233 213
-117.301 155.042 -994 255 237 216
-115.401 155.173 -995 255 243 221
-112.701 154.213 -989 255 249 230
-110.698 154.19 -989 255 250 233
-108.586 154.011 -988 255 252 241
-106.478 153.832 -987 255 253 245
-104.482 153.81 -987 255 253 246
-102.382 153.632 -986 255 253 249
-100.389 153.61 -986 254 253 250
-98.4971 153.745 -987 253 253 251
-96.6995 154.036 -989 253 253 250
-94.7987 154.171 -990 253 253 249
-93.3635 155.086 -996 253 253 249
-91.3544 155.066 -996 253 252 247
-89.6152 155.514 -999 253 251 244
-87.777 155.807 -1001 255 248 233
-85.9314 156.1 -1003 253 244 227
-83.9948 156.238 -1004 254 241 215
-82.0549 156.376 -1005 254 239 215
-80.1912 156.67 -1007 254 238 216
-78.9411 158.209 -1017 252 236 216
-77.0465 158.503 -1019 253 236 215
-76.175 160.976 -1035 254 233 212
-75.3113 163.604 -1052 253 227 207
-75.3539 168.409 -1083 250 221 202
-75.0023 172.591 -1110 253 230 212
-74.1495 175.841 -1131 255 236 218
-72.5774 177.535 -1142 255 238 219
-70.9617 179.23 -1153 255 236 215
-69.362 181.081 -1165 253 233 213
-68.0024 183.708 -1182 246 225 214
-66.6306 186.492 -1200 190 171 164
-64.4914 187.255 -1205 77 61 57
-62.3841 188.174 -1211 50 47 69
-60.0552 188.472 -1213 81 85 112
-57.6714 188.615 -1214 76 104 147
-55.557 189.691 -1221 64 90 135
-53.5455 191.233 -1231 51 76 122
-51.6189 193.241 -1244 55 79 126
-50.1144 197.114 -1269 60 84 132
-48.1729 199.589 -1285 56 82 131
-46.416 203.151 -1308 57 81 130
-44.0987 204.539 -1317 60 84 133
-41.8086 206.239 -1328 58 85 137
-39.3864 207.472 -1336 57 84 135
-36.8501 208.241 -1341 56 83 133
-34.2685 208.855 -1345 57 83 133
-31.7182 209.779 -1351 62 88 138
-29.1441 210.705 -1357 59 86 138
-26.5074 211.32 -1361 56 83 135
-23.8897 212.246 -1367 59 86 138
-21.2483 213.173 -1373 58 83 135
-18.61 214.411 -1381 57 81 133
-15.9054 215.184 -1386 59 82 133
-13.1905 216.112 -1392 60 83 134
-10.4516 217.041 -1398 66 89 140
-7.69432 218.126 -1405 73 95 146
-4.95429 221.23 -1425 74 97 148
-2.11806 222.626 -1434 74 97 148
0.756411 224.644 -1447 66 88 137
3.67009 225.887 -1455 54 75 122
6.59319 226.353 -1458 51 72 116
9.53486 226.976 -1462 49 68 108
12.4926 227.6 -1466 42 59 98
15.4875 228.534 -1472 41 57 97
18.6192 230.866 -1487 51 68 109
21.8546 233.665 -1505 63 81 121
25.1128 235.999 -1520 40 57 93
28.3199 237.402 -1529 32 48 83
31.3785 237.408 -1529 76 91 122
34.5274 238.037 -1533 97 111 140
-131.469 155.634 -1010 244 216 203
-129.031 155.144 -1007 249 221 206
-126.48 154.501 -1003 251 223 206
-123.823 153.705 -998 252 227 208
-121.431 153.217 -995 255 231 212
-119.052 152.73 -992 255 236 216
-116.922 152.551 -991 255 240 219
-114.565 152.065 -988 255 245 223
-112.564 152.042 -988 255 250 231
-110.115 151.403 -984 255 251 234
-107.904 151.072 -982 255 252 240
-105.917 151.05 -982 255 253 244
-103.931 151.028 -982 255 253 246
-101.945 151.007 -982 255 253 249
-99.9611 150.986 -982 254 253 250
-98.0774 151.119 -983 253 253 251
-96.0926 151.098 -983 253 253 249
-94.3001 151.386 -985 253 253 249
-92.7816 152.135 -990 253 253 248
-91.1518 152.73 -994 253 252 246
-89.417 153.172 -997 253 251 244
-87.6709 153.615 -1000 255 248 233
-85.6564 153.597 -1000 253 244 227
-83.7263 153.733 -1001 254 240 215
-81.6295 153.562 -1000 253 238 214
-79.9355 154.159 -1004 253 237 215
-78.0709 154.45 -1006 252 236 215
-76.5769 155.508 -1013 252 235 215
-75.7175 157.949 -1029 254 233 212
-74.5082 159.775 -1041 253 228 208
-74.1556 163.596 -1066 248 222 202
-73.9058 167.878 -1094 248 225 207
-73.6097 172.313 -1123 255 234 216
-72.3081 174.599 -1138 255 236 217
-70.8854 176.732 -1152 254 236 214
-69.5857 179.325 -1169 253 234 213
-68.3333 182.225 -1188 244 223 210
-67.3384 186.046 -1213 185 168 160
-65.1735 186.799 -1218 74 59 54
-62.8347 187.092 -1220 39 35 56
-60.3398 186.926 -1219 76 79 105
-57.8493 186.761 -1218 79 106 149
-55.4999 187.056 -1220 69 95 140
-53.4474 188.424 -1229 53 79 124
-51.4006 189.946 -1239 55 78 125
-49.6301 192.695 -1257 62 87 134
-48.0504 196.517 -1282 61 89 134
-46.158 199.42 -1301 55 81 128
-44.0894 201.863 -1317 56 82 130
-41.674 202.927 -1324 59 85 137
-39.2308 203.992 -1331 58 85 136
-36.76 205.057 -1338 58 85 136
-34.185 205.662 -1342 60 86 136
-31.6177 206.422 -1347 61 87 137
-29.0522 207.335 -1353 62 88 139
-26.424 207.942 -1357 62 88 139
-23.8149 208.856 -1363 59 85 136
-21.2284 210.231 -1372 57 83 134
-18.6061 211.606 -1381 54 79 130
-15.8677 211.909 -1383 60 83 134
-13.1688 212.978 -1390 60 83 135
-10.412 213.435 -1393 65 88 139
-7.68165 214.966 -1403 69 91 142
-4.90794 216.343 -1412 70 92 143
-2.11304 219.254 -1431 73 96 147
0.755724 221.552 -1446 70 93 142
3.6769 223.391 -1458 59 82 129
6.60071 223.699 -1460 52 74 117
9.53926 224.16 -1463 44 64 106
12.4814 224.469 -1465 40 60 102
15.4423 224.931 -1468 38 53 94
18.4902 226.314 -1477 42 58 98
21.6759 228.77 -1493 56 74 114
25.0249 232.145 -1515 57 73 109
28.2399 233.683 -1525 27 43 78
31.3719 234.302 -1529 53 68 99
34.5428 235.076 -1534 94 108 136
37.6603 235.389 -1536 97 111 138
-132.306 152.23 -1001 239 214 207
-130.27 152.203 -1001 247 217 200
-127.851 151.72 -998 250 222 205
-125.572 151.39 -996 252 226 208
-123.177 150.908 -993 253 231 212
-120.673 150.275 -989 254 233 214
-118.667 150.251 -989 255 237 218
-116.19 149.619 -985 255 241 221
-114.078 149.443 -984 255 245 223
-111.629 148.812 -980 255 250 230
-109.421 148.486 -978 255 251 233
-107.222 148.16 -976 255 252 239
-105.356 148.29 -977 255 253 244
-103.38 148.268 -977 255 253 246
-101.405 148.247 -977 255 253 249
-99.4316 148.226 -977 254 253 250
-97.5582 148.358 -978 253 253 251
-95.8772 148.793 -981 253 253 249
-93.9935 148.925 -982 253 253 249
-92.3876 149.513 -986 253 254 247
-90.7663 150.1 -990 253 252 245
-88.9502 150.385 -992 254 252 245
-87.0392 150.518 -993 255 249 234
-85.2105 150.804 -995 253 244 227
-83.2908 150.938 -996 254 239 215
-81.2046 150.77 -995 251 236 213
-79.521 151.359 -999 251 235 213
-77.8996 152.101 -1004 250 234 214
-76.2587 152.842 -1009 251 234 214
-75.1133 154.644 -1021 254 233 212
-73.9919 156.598 -1034 252 229 208
-73.4448 159.915 -1056 248 222 202
-73.2151 164.14 -1084 246 222 204
-73.0046 168.667 -1114 255 232 214
-72.1026 171.831 -1135 255 234 216
-70.7478 174.088 -1150 253 234 214
-69.5118 176.798 -1168 250 232 212
-68.9518 181.476 -1199 239 219 205
-67.9905 185.397 -1225 173 157 147
-66.337 187.653 -1240 68 54 48
-63.8001 187.489 -1239 34 30 51
-60.7727 185.812 -1228 68 72 98
-58.0749 185.043 -1223 77 103 147
-55.5795 184.88 -1222 72 98 143
-53.3929 185.777 -1228 59 85 131
-51.4316 187.581 -1240 60 82 130
-49.3436 189.084 -1250 60 84 132
-47.7407 192.704 -1274 61 88 135
-46.113 196.627 -1300 57 83 131
-43.9131 198.433 -1312 53 79 127
-41.6969 200.39 -1325 63 89 141
-39.3111 201.743 -1334 61 88 140
-36.7799 202.491 -1339 58 85 137
-34.2034 203.089 -1343 60 86 136
-31.6347 203.838 -1348 63 89 139
-29.0677 204.739 -1354 63 89 139
-26.4575 205.49 -1359 62 88 138
-23.8974 206.846 -1368 58 84 134
-21.2396 207.597 -1373 56 82 132
-18.6024 208.802 -1381 52 77 127
-15.8415 208.799 -1381 57 80 131
-13.1377 209.703 -1387 56 79 132
-10.4174 210.759 -1394 62 85 137
-7.67465 211.967 -1402 64 87 138
-4.89307 212.873 -1408 62 85 136
-2.1082 215.896 -1428 70 93 144
0.751904 217.559 -1439 74 97 147
3.65833 219.373 -1451 71 94 143
6.59938 220.735 -1460 64 86 134
9.53734 221.19 -1463 53 73 120
12.4959 221.797 -1467 42 62 108
15.46 222.254 -1470 40 53 94
18.4988 223.467 -1478 40 54 95
21.7004 226.041 -1495 52 67 107
24.8876 227.86 -1507 62 76 114
28.2155 230.436 -1524 34 49 84
31.4065 231.501 -1531 34 49 81
34.5582 232.112 -1535 83 97 126
37.6771 232.422 -1537 100 114 141
-132.705 148.414 -989 239 212 203
-131.618 149.437 -996 243 215 203
-130.114 150.01 -1000 251 221 202
-127.569 149.384 -996 251 223 204
-125.042 148.758 -992 254 229 210
-122.78 148.433 -990 254 232 213
-120.527 148.109 -988 255 236 217
-117.803 147.185 -982 255 239 220
-115.812 147.161 -982 255 242 222
-113.591 146.838 -980 255 245 225
-111.492 146.666 -979 255 250 230
-109.175 146.194 -976 255 251 233
-106.98 145.872 -974 254 251 238
-105.118 146 -975 254 252 243
-103.147 145.979 -975 255 253 246
-101.177 145.958 -975 255 253 249
-99.2077 145.938 -975 254 253 249
-97.4386 146.217 -977 253 253 249
-95.5645 146.347 -978 252 252 248
-93.7829 146.627 -980 253 253 249
-92.0877 147.057 -983 252 253 246
-90.381 147.488 -986 252 252 244
-88.5735 147.769 -988 252 250 242
-86.5833 147.751 -988 255 246 230
-84.8506 148.182 -991 252 243 225
-83.023 148.464 -993 254 239 215
-80.8617 148.149 -991 252 236 213
-79.1865 148.73 -995 250 233 211
-77.7286 149.761 -1002 251 234 214
-76.3187 150.941 -1010 252 235 214
-74.5831 151.523 -1014 255 233 212
-73.7622 154.048 -1031 253 229 209
-73.0822 157.022 -1051 249 225 205
-72.66 160.742 -1076 244 220 200
-72.4001 165.059 -1105 252 228 210
-72.0244 169.376 -1134 255 233 215
-71.1024 172.648 -1156 252 232 213
-70.3306 176.516 -1182 245 227 207
-70.3751 182.774 -1224 233 213 197
-69.8634 187.986 -1259 152 137 128
-67.5538 188.569 -1263 59 48 41
-65.486 189.9 -1272 37 32 54
-61.4036 185.259 -1241 58 60 88
-58.3004 183.306 -1228 75 97 140
-55.5682 182.399 -1222 78 102 149
-53.3386 183.135 -1227 67 93 141
-51.2967 184.616 -1237 64 85 135
-49.2941 186.397 -1249 58 80 130
-47.5811 189.521 -1270 60 86 135
-45.749 192.496 -1290 61 88 136
-43.8706 195.621 -1311 56 82 131
-41.7199 197.85 -1326 64 90 142
-39.3621 199.334 -1336 63 90 142
-36.7449 199.625 -1338 60 87 139
-34.1965 200.364 -1343 60 86 136
-31.6283 201.103 -1348 63 89 139
-29.0404 201.843 -1353 60 86 136
-26.4521 202.733 -1359 59 85 135
-23.8576 203.772 -1366 59 85 135
-21.2043 204.513 -1371 61 87 137
-18.5716 205.702 -1379 57 82 132
-15.8383 205.997 -1381 57 80 131
-13.1539 207.188 -1389 56 79 132
-10.3928 207.484 -1391 62 85 138
-7.65673 208.675 -1399 60 84 135
-4.87474 209.27 -1403 58 82 133
-2.09156 211.358 -1417 67 90 141
0.750524 214.341 -1437 73 96 147
3.65508 216.281 -1450 73 96 147
6.58903 217.475 -1458 70 93 144
9.53545 218.222 -1463 60 80 131
12.4934 218.821 -1467 50 69 121
15.4673 219.421 -1471 45 58 99
18.47 220.17 -1476 42 54 95
21.5944 221.964 -1488 48 58 100
24.866 224.654 -1506 56 70 107
28.1542 226.897 -1521 40 54 90
31.3591 228.096 -1529 16 32 64
34.5737 229.147 -1536 56 70 99
37.7185 229.602 -1539 95 109 136
-133.057 144.646 -977 206 190 196
-132.544 146.248 -988 247 218 207
-130.667 146.37 -989 252 221 208
-129.307 147.083 -994 251 222 203
-127.031 146.762 -992 254 228 208
-124.764 146.44 -990 255 230 210
-122.135 145.676 -985 255 233 213
-120.015 145.504 -984 255 236 216
-117.419 144.741 -979 255 239 218
-115.317 144.57 -978 255 241 220
-112.873 143.955 -974 255 246 225
-111.014 144.081 -975 255 251 232
-108.817 143.763 -973 255 251 233
-106.629 143.446 -971 254 251 237
-104.774 143.573 -972 254 252 242
-102.492 143.109 -969 255 253 245
-100.742 143.384 -971 255 253 249
-98.9842 143.659 -973 253 252 248
-97.2195 143.935 -975 253 253 249
-95.3499 144.063 -976 253 252 248
-93.4769 144.192 -977 253 252 248
-91.9754 144.911 -982 252 253 246
-89.9046 144.745 -981 252 252 244
-88.0179 144.875 -982 252 250 241
-86.1277 145.005 -983 254 246 229
-84.2343 145.136 -984 252 243 224
-82.3376 145.266 -985 253 238 215
-80.3559 145.25 -985 252 236 213
-79.0114 146.414 -993 251 233 211
-77.3252 146.988 -997 250 232 212
-76.0768 148.447 -1007 252 234 213
-74.4211 149.169 -1012 255 232 211
-73.1752 150.775 -1023 252 229 208
-72.2332 153.119 -1039 250 226 206
-71.7677 156.641 -1063 243 219 199
-71.796 161.49 -1096 250 226 206
-71.8195 166.632 -1131 255 232 214
-71.6416 171.627 -1165 251 231 213
-71.3874 176.769 -1200 241 221 204
-71.7407 183.825 -1248 221 201 185
-71.2918 189.26 -1285 127 113 104
-69.4118 191.161 -1298 51 41 35
-66.0391 188.938 -1283 38 32 54
-61.886 184.213 -1251 56 57 84
-58.3362 180.962 -1229 75 94 137
-55.7389 180.509 -1226 78 101 148
-53.2844 180.498 -1226 71 96 144
-51.1206 181.518 -1233 69 90 141
-49.1659 183.422 -1246 59 82 133
-47.0846 185.032 -1257 62 88 138
-45.3144 188.114 -1278 67 93 143
-43.8619 192.962 -1311 61 87 136
-41.7115 195.161 -1326 62 88 139
-39.3248 196.478 -1335 60 86 138
-36.7925 197.206 -1340 59 85 137
-34.1897 197.641 -1343 61 87 137
-31.5751 198.076 -1346 62 88 137
-29.0775 199.394 -1355 59 85 134
-26.4857 200.271 -1361 59 85 135
-23.8528 201.002 -1366 60 86 136
-21.231 202.028 -1373 62 88 138
-18.5679 202.907 -1379 60 85 135
-15.8236 203.05 -1380 59 82 133
-13.1418 204.224 -1388 56 79 132
-10.3982 204.811 -1392 58 82 134
-7.64431 205.545 -1397 58 84 134
-4.87728 206.573 -1404 58 82 133
-2.08526 207.897 -1413 64 87 138
0.744623 209.809 -1426 67 90 141
3.63419 212.164 -1442 70 93 144
6.57418 214.078 -1455 71 94 145
9.52707 215.109 -1462 61 83 133
12.5163 216.288 -1470 53 75 124
15.5063 217.027 -1475 48 63 105
18.5414 218.06 -1482 44 58 100
21.6335 219.389 -1491 44 58 99
24.8609 221.6 -1506 48 62 100
28.13 223.666 -1520 44 59 95
31.3938 225.29 -1531 14 31 64
34.6568 226.621 -1540 30 45 74
37.858 227.364 -1545 85 99 127
40.9205 227.225 -1544 96 110 139
-133.167 142.8 -978 221 203 205
-131.713 143.358 -982 245 215 203
-130.245 143.916 -986 253 222 209
-128.761 144.474 -990 251 225 207
-126.749 144.448 -990 254 228 209
-124.361 143.986 -987 255 230 210
-122.11 143.67 -985 255 234 213
-119.625 143.062 -981 255 237 215
-116.796 142.018 -974 255 239 217
-114.705 141.849 -973 255 242 220
-112.734 141.827 -973 255 246 225
-110.764 141.805 -973 255 250 231
-108.684 141.637 -972 255 251 233
-106.498 141.325 -970 254 252 236
-104.43 141.158 -969 254 252 241
-102.26 140.846 -967 255 253 244
-100.307 140.826 -967 255 253 248
-98.3543 140.807 -967 253 252 248
-96.6021 141.079 -969 252 252 248
-95.0379 141.642 -973 254 252 248
-93.0758 141.624 -973 254 252 248
-91.4889 142.188 -977 252 253 246
-89.4286 142.024 -976 251 251 243
-87.6419 142.298 -978 251 249 240
-86.023 142.863 -982 254 245 229
-84.0465 142.846 -982 251 242 223
-82.1541 142.975 -983 253 239 216
-80.3399 143.25 -985 252 236 213
-78.6775 143.816 -989 250 232 210
-76.8446 144.091 -991 250 232 212
-75.3064 144.949 -997 252 233 212
-73.8917 146.097 -1005 254 231 210
-72.517 147.391 -1014 255 230 210
-71.6628 149.848 -1031 251 226 206
-70.9435 152.74 -1051 244 219 199
-71.1924 157.958 -1087 248 224 204
-71.7418 164.192 -1130 253 229 211
-73.0528 191.302 -1317 102 89 81
-66.6436 188.079 -1295 37 30 49
-62.6651 184 -1267 56 56 81
-58.5146 179.051 -1233 76 93 136
-55.6824 177.878 -1225 74 96 143
-53.2304 177.867 -1225 70 93 142
-50.9447 178.438 -1229 70 91 142
-48.9194 180.025 -1240 61 84 135
-47.0005 182.193 -1255 58 84 134
-45.5181 186.394 -1284 65 90 141
-43.686 189.579 -1306 68 93 144
-41.6404 192.183 -1324 64 90 140
-39.2876 193.627 -1334 58 84 135
-36.7578 194.345 -1339 58 84 136
-34.1829 194.919 -1343 60 86 136
-31.5922 195.493 -1347 59 85 135
-29.0932 196.793 -1356 58 84 132
-26.4416 197.223 -1359 59 85 135
-23.8132 197.944 -1364 60 86 136
-21.1804 198.81 -1370 59 85 135
-18.5508 199.967 -1378 57 82 133
-15.832 200.399 -1381 58 81 132
-13.1298 201.267 -1387 57 80 133
-10.3887 201.845 -1391 58 81 134
-7.63174 202.424 -1395 57 83 133
-4.85551 202.858 -1398 59 83 134
-2.07602 204.163 -1407 61 84 135
0.741336 206.049 -1420 60 83 134
3.61081 207.936 -1433 66 89 140
6.55032 210.404 -1450 68 91 142
9.53808 212.437 -1464 60 85 134
12.5309 213.6 -1472 55 81 129
15.5242 214.328 -1477 50 68 112
18.5502 215.203 -1483 45 62 104
21.6584 216.658 -1493 44 59 99
24.8231 218.258 -1504 44 59 98
28.1614 220.876 -1522 47 62 100
31.3876 222.188 -1531 23 40 74
34.6274 223.355 -1539 20 35 66
37.826 224.088 -1544 55 69 98
40.8594 223.806 -1542 98 112 141
-132.506 138.097 -959 192 180 184
-132.868 140.519 -976 234 213 213
-131.151 140.781 -978 251 221 208
-129.955 141.619 -984 254 224 210
-127.955 141.594 -984 254 229 211
-126.084 141.713 -985 252 228 209
-123.833 141.401 -983 254 230 211
-121.467 140.945 -980 255 235 214
-118.992 140.347 -976 255 237 216
-116.414 139.605 -971 255 240 218
-114.329 139.438 -970 255 244 223
-111.901 138.841 -966 255 247 226
-110.06 138.963 -967 253 251 231
-107.992 138.798 -966 254 252 233
-105.819 138.49 -964 255 253 237
-103.763 138.326 -963 255 253 242
-101.711 138.163 -962 254 252 243
-99.7685 138.143 -962 254 252 246
-98.0299 138.411 -964 254 253 248
-96.3838 138.823 -967 252 252 248
-94.824 139.378 -971 254 252 248
-92.9619 139.503 -972 254 252 248
-90.8157 139.199 -970 252 253 245
-88.9531 139.325 -971 251 251 242
-87.2664 139.738 -974 249 248 237
-85.4808 140.008 -976 252 244 227
-83.6022 140.135 -977 252 242 224
-81.8874 140.549 -980 253 237 215
-80.0796 140.82 -982 252 235 213
-78.2645 141.092 -984 252 234 212
-76.7521 141.937 -990 250 232 212
-75.1406 142.639 -995 250 231 211
-73.5832 143.485 -1001 253 229 209
-72.2883 144.904 -1011 254 229 209
-71.0929 146.61 -1023 253 227 207
-70.1872 149.032 -1040 246 220 198
-70.3272 153.891 -1074 246 221 201
-74.314 191.927 -1340 75 64 57
-71.2555 190.91 -1333 39 31 29
-67.8654 188.892 -1319 33 25 41
-63.543 184.01 -1285 49 48 72
-58.7878 177.411 -1239 72 85 126
-55.5352 174.966 -1222 73 94 139
-53.1766 175.242 -1224 66 90 137
-50.8519 175.661 -1227 63 84 134
-48.91 177.513 -1240 62 84 134
-46.8415 179.078 -1251 55 80 130
-45.0485 181.932 -1271 61 84 136
-43.4099 185.788 -1298 72 95 148
-41.5694 189.215 -1322 67 93 143
-39.221 190.639 -1332 60 86 137
-36.7507 191.633 -1339 59 85 137
-34.2271 192.485 -1345 59 85 135
-31.6564 193.194 -1350 57 82 132
-29.0446 193.761 -1354 57 82 130
-26.4559 194.614 -1360 58 83 133
-23.826 195.325 -1365 58 84 134
-21.1609 195.893 -1369 56 82 132
-18.4665 196.318 -1372 56 81 132
-15.8175 197.459 -1380 57 80 131
-13.1083 198.172 -1385 58 81 133
-10.3643 198.599 -1388 62 85 137
-7.62483 199.456 -1394 60 85 135
-4.85807 200.17 -1399 61 84 135
-2.06531 200.312 -1400 60 83 134
0.737531 202.172 -1413 58 81 132
3.57988 203.317 -1421 63 86 137
6.48114 205.322 -1435 66 90 141
9.47112 208.042 -1454 60 89 137
12.5199 210.476 -1471 58 88 135
15.5212 211.337 -1477 54 77 121
18.5592 212.342 -1484 47 68 110
21.6395 213.491 -1492 46 63 103
24.7853 214.926 -1502 44 60 98
28.0449 216.935 -1516 47 63 101
31.4019 219.23 -1532 27 44 80
34.6657 220.525 -1541 13 28 59
37.8677 221.247 -1546 33 47 76
40.9043 220.969 -1544 94 108 137
-131.753 137.396 -968 240 217 216
-130.187 137.796 -971 253 224 210
-129.137 138.764 -978 254 225 210
-127.41 139.023 -980 253 227 209
-125.676 139.283 -982 255 230 212
-123.179 138.691 -978 255 232 214
-120.947 138.384 -976 255 237 216
-118.237 137.511 -970 255 238 217
-115.912 137.063 -967 255 242 221
-113.6 136.616 -964 255 246 225
-111.532 136.452 -963 255 249 228
-109.583 136.431 -963 255 252 232
-107.412 136.127 -961 255 253 233
-105.359 135.965 -960 255 254 237
-103.312 135.803 -959 255 254 243
-101.057 135.359 -956 255 253 244
-99.2307 135.481 -957 255 253 247
-97.2993 135.462 -957 254 253 247
-95.8669 136.151 -962 253 253 248
-93.9269 136.133 -962 254 253 249
-92.3702 136.681 -966 254 252 248
-90.4237 136.664 -966 251 252 244
-88.5696 136.788 -967 251 251 241
-86.712 136.913 -968 249 248 236
-84.8512 137.038 -969 252 243 226
-83.2438 137.587 -973 251 242 223
-81.788 138.42 -979 254 238 216
-79.9827 138.687 -981 253 236 214
-78.1698 138.955 -983 252 234 212
-76.5047 139.505 -987 251 233 213
-74.8241 140.056 -991 250 231 211
-73.2751 140.89 -997 253 229 210
-71.8455 142.006 -1005 252 228 208
-70.7318 143.83 -1018 251 226 206
-69.634 145.794 -1032 247 221 199
-77.8459 191.345 -1355 146 126 110
-75.6859 192.742 -1365 53 42 37
-72.2572 190.892 -1352 38 30 29
-68.1096 186.926 -1324 36 28 41
-63.4813 181.266 -1284 41 39 59
-59.2035 176.172 -1248 65 76 114
-55.7518 173.197 -1227 73 93 136
-53.0795 172.481 -1222 65 89 135
-50.7178 172.753 -1224 64 83 132
-48.8611 174.861 -1239 66 87 136
-46.87 176.686 -1252 57 80 129
-45.217 180.064 -1276 59 82 133
-43.435 183.302 -1299 68 91 142
-41.4356 185.974 -1318 72 98 147
-39.1546 187.66 -1330 63 89 140
-36.6887 188.64 -1337 60 86 138
-34.2206 189.762 -1345 58 83 133
-31.6035 190.179 -1348 53 77 128
-29.0819 191.302 -1356 56 79 128
-26.4314 191.72 -1359 57 82 131
-23.7866 192.28 -1363 58 84 134
-21.1259 192.84 -1367 59 85 135
-18.4629 193.541 -1372 61 86 136
-15.7801 194.243 -1377 62 85 136
-13.0869 195.087 -1383 59 82 133
-10.3698 195.931 -1389 63 86 137
-7.60701 196.212 -1391 64 87 138
-4.85006 197.057 -1397 61 84 135
-2.07083 198.043 -1404 61 84 135
0.73373 198.325 -1406 60 83 134
3.57668 200.301 -1420 62 86 137
6.48443 202.559 -1436 65 90 140
9.45631 204.817 -1452 62 93 139
12.4835 206.935 -1467 61 94 139
15.5393 208.63 -1479 60 86 133
18.568 209.48 -1485 51 74 118
21.65 210.612 -1493 47 67 109
24.8464 212.451 -1506 47 64 102
28.0952 214.29 -1519 49 66 104
31.4368 216.411 -1534 33 50 86
34.659 217.405 -1541 15 29 61
37.8114 217.836 -1544 34 47 76
40.87 217.702 -1543 79 93 122
-131.456 135.145 -966 245 221 219
-129.894 135.54 -969 253 223 209
-128.584 136.215 -974 255 227 212
-126.476 136.051 -973 254 228 210
-124.628 136.167 -974 255 231 214
-121.77 135.165 -967 255 234 218
-119.933 135.282 -968 255 238 217
-117.361 134.561 -963 255 240 219
-114.931 133.98 -959 255 243 223
-112.989 133.958 -959 255 247 226
-110.584 133.378 -955 255 250 229
-108.425 133.078 -953 255 252 231
-106.721 133.337 -955 255 253 233
-104.242 132.619 -950 255 254 236
-102.43 132.739 -951 255 254 243
-100.298 132.441 -949 255 254 245
-98.5898 132.701 -951 255 254 248
-96.9758 133.101 -954 254 253 247
-95.2508 133.362 -956 253 254 247
-93.421 133.483 -957 254 252 248
-91.6834 133.745 -959 254 252 248
-89.9385 134.007 -961 252 253 245
-88.0032 133.99 -961 251 251 241
-86.1582 134.113 -962 248 247 235
-84.5725 134.654 -966 251 242 225
-82.9714 135.196 -970 251 242 223
-81.1878 135.459 -972 255 239 217
-79.5599 136.002 -976 254 237 215
-77.837 136.405 -979 253 235 213
-76.1802 136.947 -983 252 234 214
-74.5835 137.63 -988 252 232 213
-72.8203 138.034 -991 254 230 212
-71.403 139.134 -999 252 229 208
-70.0932 140.514 -1009 250 227 205
-78.9226 191.245 -1374 98 79 64
-76.614 192.344 -1382 42 31 28
-73.2589 190.799 -1371 36 28 30
-69.331 187.585 -1348 35 28 37
-59.2872 173.924 -1250 58 65 99
-55.7412 170.713 -1227 70 87 129
-53.1998 170.425 -1225 67 88 134
-50.8325 170.693 -1227 66 84 132
-48.9307 172.632 -1241 67 87 135
-46.8237 174.014 -1251 59 83 129
-45.3856 178.178 -1281 57 80 129
-43.2262 179.839 -1293 68 91 140
-41.3336 182.89 -1315 71 97 145
-39.0883 184.691 -1328 68 94 144
-36.6544 185.796 -1336 57 83 135
-34.1633 186.763 -1343 52 75 126
-31.5975 187.452 -1348 53 76 126
-29.0121 188.142 -1353 55 78 127
-26.4069 188.832 -1358 55 81 130
-23.782 189.523 -1363 57 83 133
-21.1064 189.936 -1366 56 82 132
-18.4594 190.766 -1372 58 83 134
-15.7657 191.319 -1376 60 83 134
-13.0655 192.012 -1381 62 85 136
-10.3529 192.844 -1387 68 91 142
-7.61109 193.537 -1392 64 87 138
-4.85265 194.37 -1398 62 85 136
-2.06604 194.787 -1401 64 87 138
0.733584 195.482 -1406 64 87 138
3.55587 196.316 -1412 62 86 137
6.43808 198.264 -1426 61 87 137
9.38927 200.49 -1442 59 91 137
12.4386 203.273 -1462 60 95 139
15.4837 204.944 -1474 66 93 142
18.5521 206.337 -1484 57 82 128
21.6313 207.453 -1492 49 71 114
24.7922 208.987 -1503 48 65 103
28.0158 210.661 -1515 52 69 107
31.3899 213.03 -1532 41 58 94
34.6749 214.427 -1542 20 33 65
37.9022 215.268 -1548 29 40 70
40.9152 214.858 -1545 66 80 109
43.9168 214.449 -1542 92 105 131
-131.601 131.412 -953 227 210 209
-132.111 133.869 -971 247 224 221
-129.869 133.569 -969 255 226 210
-128.428 134.096 -973 255 227 211
-125.932 133.521 -969 255 229 209
-123.837 133.36 -968 255 232 213
-121.118 132.511 -962 255 236 218
-118.796 132.075 -959 255 239 219
-116.365 131.502 -955 255 240 221
-114.19 131.205 -953 255 243 224
-112.025 130.909 -951 255 247 225
-110.101 130.888 -951 255 251 228
-107.949 130.592 -949 255 253 232
-105.919 130.435 -948 255 253 233
-103.674 130.003 -945 255 253 236
-101.657 129.846 -944 255 253 242
-99.9624 130.102 -946 255 253 244
-98.1567 130.221 -947 255 253 246
-96.0429 129.928 -945 254 253 247
-94.436 130.323 -948 253 253 249
-92.7202 130.58 -950 255 253 247
-91.1883 131.113 -954 255 254 247
-89.3603 131.234 -955 254 253 244
-87.5289 131.355 -956 251 250 240
-85.7839 131.613 -958 249 248 236
-84.0315 131.872 -960 250 244 228
-82.4427 132.406 -964 251 243 226
-80.9221 133.078 -969 252 237 216
-79.382 133.749 -974 253 235 215
-77.7429 134.284 -978 255 235 215
-76.011 134.682 -981 253 233 213
-74.2676 135.08 -984 252 232 212
-72.5128 135.478 -987 255 231 212
-71.604 137.523 -1002 252 228 206
-69.8717 138.059 -1006 250 227 203
-81.8977 189.028 -1378 160 141 128
-79.597 190.111 -1386 58 41 31
-76.9323 190.37 -1388 39 28 29
-73.7794 189.396 -1381 34 26 30
-69.421 185.132 -1350 37 30 37
-64.7424 179.634 -1310 36 33 49
-59.94 173.315 -1264 55 60 90
-56.0033 169.054 -1233 69 86 125
-53.3635 168.495 -1229 71 93 136
-50.9058 168.486 -1229 70 87 134
-48.961 170.259 -1242 66 85 131
-47.2266 172.991 -1262 59 83 128
-45.1646 174.765 -1275 58 79 126
-43.2516 177.361 -1294 64 86 133
-41.3258 180.231 -1315 68 94 141
-39.1399 182.28 -1330 68 94 144
-36.6475 183.095 -1336 57 83 135
-34.2078 184.322 -1345 56 79 130
-31.5917 184.727 -1348 59 82 132
-29.0282 185.544 -1354 59 83 130
-26.4215 186.224 -1359 57 83 131
-23.8474 187.315 -1367 58 84 133
-21.1489 187.585 -1369 57 83 133
-18.456 187.992 -1372 57 82 133
-15.7971 188.948 -1379 60 83 134
-13.0631 189.22 -1381 65 88 139
-10.3287 189.629 -1384 72 95 146
-7.60955 190.723 -1392 64 88 139
-4.85178 191.544 -1398 62 85 136
-2.06272 191.68 -1399 63 86 137
0.735005 193.05 -1409 64 88 139
3.56276 193.873 -1415 62 86 137
6.42787 195.107 -1424 61 87 137
9.37453 197.301 -1440 59 92 137
12.3851 199.495 -1456 60 95 139
15.4494 201.553 -1471 62 91 142
18.536 203.2 -1483 58 84 132
21.6417 204.574 -1493 50 74 117
24.8041 206.086 -1504 50 67 106
28.066 208.009 -1518 53 70 108
31.4251 210.207 -1534 45 62 98
34.6009 210.898 -1539 23 36 67
37.7727 211.453 -1543 17 28 58
40.8281 211.323 -1542 53 65 95
43.8232 210.92 -1539 91 103 130
-130.994 127.053 -935 180 165 165
-131.577 129.474 -953 235 217 215
-132.087 131.895 -971 247 225 220
-129.711 131.464 -968 255 226 210
-127.876 131.576 -969 255 227 209
-125.259 130.873 -964 255 230 209
-123.047 130.579 -962 255 232 212
-120.088 129.471 -954 255 235 215
-118.03 129.313 -953 255 240 221
-115.49 128.613 -948 255 240 222
-113.45 128.456 -947 255 243 225
-111.533 128.436 -947 255 247 225
-109.501 128.28 -946 255 250 226
-107.247 127.853 -943 255 251 231
-105.117 127.562 -941 255 252 234
-103.216 127.543 -941 255 252 236
-101.208 127.389 -940 255 253 242
-99.4157 127.506 -941 255 253 244
-97.5168 127.488 -941 255 253 246
-95.8219 127.741 -943 254 253 247
-94.0202 127.859 -944 253 253 248
-92.3128 128.113 -946 255 253 247
-90.5025 128.232 -947 255 253 247
-88.9696 128.757 -951 255 253 244
-87.0551 128.741 -951 253 251 241
-85.4099 129.131 -954 250 249 237
-83.4908 129.115 -954 251 245 230
-81.829 129.506 -957 249 242 226
-80.3227 130.168 -962 253 238 218
-78.634 130.559 -965 252 234 215
-77.1723 131.357 -971 254 234 215
-75.7646 132.29 -978 254 232 211
-74.1785 132.952 -983 254 231 211
-72.3525 133.209 -985 255 229 210
-71.0907 134.549 -995 253 226 203
-69.5811 135.482 -1002 253 226 201
-82.2392 187.052 -1384 120 102 92
-79.7546 187.713 -1389 56 40 35
-77.029 187.834 -1390 41 31 34
-74.0864 187.414 -1387 32 24 30
-70.7964 186.05 -1377 35 29 35
-66.8553 182.795 -1353 34 32 47
-60.0712 171.165 -1267 53 56 81
-56.1292 166.966 -1236 65 82 118
-53.4839 166.416 -1232 66 88 129
-50.9379 166.136 -1230 64 82 126
-49.0309 168.018 -1244 64 84 128
-47.0683 169.9 -1258 63 85 129
-45.2271 172.458 -1277 59 81 125
-43.4442 175.556 -1300 64 86 131
-41.2869 177.439 -1314 64 89 135
-39.0739 179.322 -1328 67 93 142
-36.6408 180.395 -1336 58 84 136
-34.1506 181.334 -1343 56 79 130
-31.5859 182.003 -1348 54 78 127
-29.0228 182.807 -1354 59 83 129
-26.3972 183.343 -1358 61 86 134
-23.8082 184.283 -1365 58 84 132
-21.1759 185.089 -1371 58 84 134
-18.4795 185.49 -1374 57 82 132
-15.7598 185.757 -1376 59 82 133
-13.0607 186.43 -1381 63 86 137
-10.3342 186.967 -1385 67 91 142
-7.58087 187.236 -1387 65 90 140
-4.84398 188.45 -1396 62 87 138
-2.06384 188.989 -1400 60 86 136
0.732256 189.529 -1404 62 87 137
3.54953 190.339 -1410 62 86 137
6.4222 192.095 -1423 62 86 137
9.32077 193.311 -1432 58 89 136
12.3234 195.608 -1449 63 97 142
15.3939 197.906 -1466 63 92 144
18.4702 199.529 -1478 58 85 134
21.5943 201.153 -1490 54 79 125
24.75 202.642 -1501 53 71 112
28.0055 204.537 -1515 53 70 110
31.3988 206.972 -1533 44 61 97
34.6844 208.328 -1543 23 36 68
37.8147 208.605 -1545 13 24 54
40.9265 208.747 -1546 46 57 87
43.872 208.08 -1541 90 101 128
-131.553 127.537 -953 241 220 218
-131.383 129.253 -966 248 225 220
-129.017 128.828 -963 255 227 212
-127.325 129.072 -965 255 228 212
-124.587 128.247 -959 255 232 212
-122.257 127.823 -956 255 232 212
-119.437 126.865 -949 255 233 213
-117.637 126.978 -950 255 239 221
-115.347 126.556 -947 255 241 222
-113.31 126.401 -946 255 243 225
-111.16 126.114 -944 255 246 225
-109.134 125.96 -943 255 249 225
-107.227 125.94 -943 255 251 231
-104.875 125.387 -939 255 252 233
-102.868 125.235 -938 255 252 237
-100.759 124.949 -936 255 253 242
-98.8694 124.931 -936 255 253 244
-96.8774 124.78 -935 255 253 246
-95.2965 125.163 -938 254 253 246
-93.6047 125.413 -940 253 254 247
-91.8081 125.529 -941 255 253 247
-90.0083 125.646 -942 254 252 246
-88.4857 126.164 -946 255 253 244
-86.4901 126.015 -945 254 253 242
-84.7678 126.266 -947 252 251 239
-82.8632 126.251 -947 252 246 232
-81.3866 126.902 -952 249 242 226
-79.5567 127.021 -953 252 237 217
-78.1308 127.807 -959 252 234 215
-76.6815 128.592 -965 253 233 214
-75.0537 129.112 -969 254 232 213
-73.5614 129.898 -975 254 231 211
-71.9722 130.551 -980 255 229 209
-70.7206 131.87 -990 253 225 203
-69.499 133.322 -1001 250 222 198
-84.8119 183.869 -1381 204 185 174
-82.3431 184.52 -1386 80 63 56
-79.7975 185.038 -1390 46 33 32
-76.9042 184.758 -1388 39 28 34
-74.1263 184.744 -1388 36 26 34
-70.6808 183.001 -1375 32 27 32
-67.436 181.657 -1365 32 30 44
-61.1032 171.532 -1289 49 51 73
-56.2099 164.735 -1238 61 78 113
-53.6045 164.326 -1235 62 84 124
-51.0529 164.05 -1233 54 72 115
-49.0614 165.638 -1245 53 73 115
-47.0223 167.226 -1257 62 84 126
-45.2544 170.011 -1278 60 82 125
-43.3361 172.531 -1297 62 84 127
-41.1223 174.119 -1309 62 86 132
-39.0375 176.506 -1327 68 93 143
-36.6068 177.564 -1335 60 86 138
-34.1699 178.754 -1344 56 79 130
-31.5567 179.147 -1347 49 73 122
-29.0176 180.073 -1354 52 76 122
-26.4313 180.866 -1360 61 86 133
-23.8038 181.526 -1365 60 86 134
-21.1721 182.32 -1371 57 83 133
-18.4762 182.716 -1374 54 78 129
-15.7799 183.245 -1378 51 74 125
-13.0394 183.375 -1379 53 76 127
-10.3248 184.038 -1384 60 83 134
-7.59047 184.701 -1389 63 87 139
-4.83619 185.365 -1394 64 90 141
-2.06348 186.162 -1400 62 88 139
0.733159 186.96 -1406 61 87 138
3.56382 188.29 -1416 61 86 137
6.40751 188.823 -1420 63 86 138
9.31911 190.42 -1432 60 87 136
12.2872 192.15 -1445 63 93 140
15.3282 194.148 -1460 61 90 142
18.5042 196.943 -1481 58 85 135
21.6048 198.277 -1491 53 79 127
24.7786 199.877 -1503 51 70 112
28.0188 201.61 -1516 53 71 112
31.3931 203.876 -1533 49 66 104
34.6783 205.212 -1543 27 39 73
37.8567 205.751 -1547 14 25 57
40.9191 205.625 -1546 42 53 84
43.8641 204.967 -1541 86 98 126
-131.367 123.648 -938 204 188 187
-130.977 125.074 -949 242 222 219
-130.407 126.369 -959 248 224 220
-128.19 126.082 -957 255 227 212
-126.379 126.191 -958 255 229 213
-123.525 125.246 -951 255 232 212
-121.468 125.093 -950 255 233 212
-118.535 124.018 -942 255 234 213
-116.502 123.866 -941 255 238 218
-114.352 123.582 -939 255 241 222
-112.331 123.43 -938 255 243 225
-110.316 123.278 -937 255 244 224
-108.536 123.39 -938 255 247 225
-106.753 123.503 -939 255 250 230
-104.409 122.958 -935 255 251 232
-102.301 122.676 -933 255 252 235
-100.31 122.527 -932 255 253 241
-98.4292 122.509 -932 255 253 242
-96.4456 122.36 -931 254 252 244
-94.8731 122.738 -934 255 253 245
-93.1897 122.984 -936 255 253 247
-91.499 123.23 -938 255 253 247
-89.5144 123.083 -937 255 253 246
-88.2828 123.986 -944 255 253 244
-86.2001 123.708 -942 255 253 243
-84.6631 124.218 -946 253 252 240
-82.4984 123.809 -943 253 247 233
-81.0302 124.451 -948 249 242 226
-78.9582 124.175 -946 252 237 217
-77.5467 124.948 -952 253 235 215
-76.0322 125.591 -957 252 232 213
-74.6531 126.496 -964 253 231 212
-73.1711 127.27 -970 252 229 210
-71.4453 127.651 -973 253 227 207
-70.208 128.95 -983 249 222 203
-69.0007 130.381 -994 244 215 197
-85.2265 181.996 -1388 170 151 141
-82.5066 182.113 -1389 57 41 35
-79.8982 182.492 -1392 43 31 36
-77.0567 182.347 -1391 41 29 37
-74.2733 182.333 -1391 38 27 35
-71.0793 181.272 -1383 28 24 29
-67.9674 180.342 -1376 29 28 40
-63.7465 176.268 -1345 48 49 70
-56.2907 162.497 -1240 57 73 106
-53.7685 162.356 -1239 67 88 127
-51.1266 161.823 -1235 57 75 116
-49.0133 162.993 -1244 47 67 108
-47.1636 165.212 -1261 58 80 121
-45.2818 167.562 -1279 61 83 124
-43.3952 170.174 -1299 61 83 125
-41.2407 172.001 -1313 60 84 130
-39.0893 174.089 -1329 65 90 139
-36.5728 174.738 -1334 58 84 136
-34.1892 176.172 -1345 56 79 130
-31.598 176.691 -1349 47 70 120
-28.9696 177.078 -1352 43 67 113
-26.3878 177.859 -1358 51 77 124
-23.7822 178.64 -1364 58 84 132
-21.1374 179.291 -1369 60 86 136
-18.446 179.681 -1372 59 84 134
-15.7771 180.463 -1378 55 78 129
-13.0182 180.33 -1377 52 75 126
-10.3081 180.983 -1382 55 78 130
-7.58369 181.767 -1388 59 82 135
-4.82842 182.29 -1392 63 88 140
-2.06018 183.075 -1398 64 90 142
0.730415 183.468 -1401 63 89 141
3.54809 184.646 -1410 62 88 140
6.39268 185.564 -1417 63 86 139
9.27193 186.613 -1425 64 87 139
12.2255 188.317 -1438 67 91 141
15.2836 190.677 -1456 65 92 144
18.4011 192.906 -1473 63 89 141
21.5431 194.743 -1487 55 81 132
24.7411 196.581 -1501 50 70 112
28.0138 198.55 -1516 53 71 113
31.3262 200.389 -1530 51 68 107
34.7395 202.491 -1546 27 40 74
37.85 202.628 -1547 14 25 57
40.8853 202.373 -1545 34 45 77
43.8563 201.857 -1541 83 95 123
-130.643 121.094 -933 206 190 189
-130.401 122.628 -945 241 221 218
-129.84 123.903 -955 249 226 222
-127.23 123.231 -950 255 227 212
-125.169 123.08 -949 255 229 213
-122.204 122.02 -941 255 232 212
-120.424 122.129 -942 255 233 213
-117.885 121.46 -937 255 235 214
-115.739 121.18 -935 255 237 217
-113.602 120.9 -933 255 239 220
-111.713 120.881 -933 255 242 224
-109.943 120.991 -934 255 244 224
-107.938 120.842 -933 255 247 226
-106.166 120.953 -934 255 249 229
-103.944 120.546 -931 255 250 231
-102.064 120.528 -931 255 252 234
-99.7542 119.992 -927 255 253 239
-97.8839 119.975 -927 255 253 241
-96.0142 119.958 -927 255 253 243
-94.4501 120.329 -930 255 253 244
-92.576 120.313 -930 255 253 246
-90.8977 120.556 -932 255 253 247
-89.0211 120.54 -932 255 253 247
-87.7062 121.3 -938 255 253 244
-85.7274 121.156 -937 254 252 243
-84.1113 121.529 -940 253 251 241
-81.8716 120.997 -936 253 247 233
-80.4177 121.629 -941 251 244 228
-78.6106 121.745 -942 252 238 217
-76.8815 121.99 -944 252 235 215
-75.3039 122.493 -948 252 232 213
-74.0206 123.514 -956 252 230 211
-72.5549 124.276 -962 251 228 210
-70.9189 124.78 -966 251 225 207
