ply
format ascii 1.0
comment Created by Open3D
element vertex 1363
property double x
property double y
property double z
property uchar red
property uchar green
property uchar blue
end_header
84.4879 -651.67 -1466 218 205 211
87.4152 -650.391 -1463 220 206 211
90.4539 -650.002 -1462 219 206 211
93.5534 -650.06 -1462 224 211 216
96.7861 -651.01 -1464 229 217 220
99.8915 -651.072 -1464 230 221 219
103.279 -652.916 -1468 234 225 226
106.468 -653.427 -1469 239 230 230
109.437 -652.606 -1467 237 228 228
112.476 -652.231 -1466 233 225 225
115.591 -652.304 -1466 228 222 222
118.787 -652.823 -1467 225 222 222
121.906 -652.899 -1467 226 220 217
125.282 -654.313 -1470 222 214 209
128.497 -654.839 -1471 217 208 201
132.075 -657.147 -1476 208 195 188
135.034 -656.342 -1474 195 180 170
138.549 -658.21 -1478 186 168 157
141.89 -659.19 -1480 197 172 150
144.947 -658.835 -1479 211 174 145
147.9 -658.037 -1477 210 171 141
150.438 -655.459 -1471 207 168 141
152.429 -650.653 -1460 167 137 118
-85.8412 -653.866 -1463 103 102 113
-83.192 -657.387 -1471 183 181 193
-80.2376 -658.676 -1474 225 224 236
-77.1665 -659.073 -1475 223 228 246
-73.8911 -657.684 -1472 220 226 243
-70.6772 -656.745 -1470 217 223 241
-67.4723 -655.808 -1468 223 228 241
-64.3642 -655.766 -1468 222 227 240
-61.1315 -654.386 -1465 221 226 239
-58.0705 -654.795 -1466 222 225 242
-54.8559 -653.419 -1463 222 225 245
-51.6545 -652.045 -1460 223 226 249
-48.4993 -651.12 -1458 223 226 246
-45.4155 -651.09 -1458 227 231 250
-42.274 -650.169 -1456 230 233 253
-39.249 -651.037 -1458 232 234 254
-36.1911 -651.459 -1459 235 237 255
-33.1292 -651.884 -1460 237 238 255
-30.0429 -651.864 -1460 243 237 255
-26.9754 -652.292 -1461 244 238 255
-23.8711 -651.83 -1460 242 237 255
-20.7855 -651.815 -1460 239 235 255
-17.7122 -652.25 -1461 237 234 253
-14.6449 -653.132 -1463 236 234 251
-11.5456 -652.677 -1462 234 233 239
-8.47377 -654.011 -1465 235 233 239
-5.37077 -653.113 -1463 237 233 238
-2.2827 -654.004 -1465 236 229 231
0.812154 -653.557 -1464 225 218 218
3.91346 -654.898 -1467 215 206 205
7.02746 -656.24 -1470 213 193 188
10.1544 -657.585 -1473 211 191 183
13.2939 -658.932 -1476 211 191 181
16.4684 -661.174 -1481 220 192 177
19.6247 -662.078 -1483 226 193 172
22.7895 -662.984 -1485 230 190 164
25.9977 -664.786 -1489 224 182 151
29.2038 -666.143 -1492 211 170 144
32.3576 -666.162 -1492 178 137 117
35.5118 -666.184 -1492 139 91 70
38.6143 -665.315 -1490 148 102 81
41.6809 -664.001 -1487 182 136 115
44.7953 -663.582 -1486 203 164 143
47.8414 -662.271 -1483 218 181 157
50.9441 -661.856 -1482 223 186 160
54.0063 -660.997 -1480 228 187 158
57.1379 -661.032 -1480 229 190 161
60.1479 -659.729 -1477 232 193 164
63.2313 -659.322 -1476 232 191 164
66.2212 -658.023 -1473 232 194 169
69.199 -656.726 -1470 233 195 171
72.2139 -655.877 -1468 227 189 173
75.2724 -655.477 -1467 218 184 167
78.3272 -655.08 -1466 211 178 162
81.3784 -654.684 -1465 206 177 165
84.484 -654.736 -1465 206 176 162
87.4706 -653.897 -1463 205 174 159
90.5115 -653.507 -1462 204 173 157
93.6131 -653.566 -1462 207 176 159
96.9799 -655.415 -1466 209 180 163
99.955 -654.583 -1464 208 185 166
103.415 -656.884 -1469 212 190 175
106.535 -656.951 -1469 217 195 180
109.582 -656.573 -1468 218 196 181
112.548 -655.749 -1466 219 194 182
115.743 -656.269 -1467 217 193 179
118.863 -656.344 -1467 217 193 178
121.984 -656.421 -1467 224 196 181
125.447 -658.29 -1471 224 196 178
128.753 -659.266 -1473 226 198 178
131.801 -658.901 -1472 225 194 174
135.12 -659.882 -1474 216 186 167
138.355 -660.417 -1475 210 179 158
141.788 -661.85 -1478 215 179 150
145.039 -662.389 -1479 219 175 142
148.496 -663.827 -1482 213 171 140
151.455 -663.027 -1480 203 165 140
-85.6611 -655.582 -1459 99 91 102
-83.2452 -660.92 -1471 139 130 139
-80.2343 -661.766 -1473 189 179 186
-77.2157 -662.614 -1475 209 203 212
-73.9382 -661.218 -1472 221 214 224
-70.7222 -660.274 -1470 231 224 233
-67.4693 -658.882 -1467 229 224 231
-64.3614 -658.84 -1467 228 224 231
-61.254 -658.8 -1467 225 222 230
-58.2265 -659.66 -1469 220 222 237
-55.0409 -658.725 -1467 220 224 240
-51.8289 -657.344 -1464 223 229 248
-48.6301 -655.965 -1461 225 230 246
-45.4756 -655.037 -1459 226 231 246
-42.359 -654.56 -1458 226 231 247
-39.3009 -654.983 -1459 232 234 253
-36.239 -655.408 -1460 234 236 254
-33.1503 -655.386 -1460 236 238 255
-30.0621 -655.366 -1460 236 236 255
-26.9556 -654.898 -1459 235 235 255
-23.8535 -654.433 -1458 232 233 253
-20.7987 -655.317 -1460 231 232 243
-17.7235 -655.754 -1461 232 232 239
-14.6541 -656.641 -1463 234 232 233
-11.5687 -657.081 -1464 238 224 219
-8.48473 -657.973 -1466 221 206 200
-5.38147 -657.519 -1465 204 188 181
-2.28405 -657.517 -1465 194 175 164
0.813176 -657.517 -1465 196 174 161
3.9186 -658.865 -1468 206 182 167
7.03196 -659.766 -1470 229 190 169
10.1676 -661.567 -1474 230 194 171
13.3115 -662.921 -1477 229 195 172
16.4679 -664.277 -1480 230 194 170
19.6371 -665.635 -1483 232 193 166
22.804 -666.546 -1485 231 190 161
25.9969 -667.908 -1488 229 181 145
29.2028 -669.273 -1491 213 168 139
32.4217 -670.639 -1494 177 135 111
35.5344 -669.763 -1492 138 89 65
38.6391 -668.889 -1490 149 102 78
41.7075 -667.568 -1487 183 136 111
44.7937 -666.698 -1485 206 164 138
47.8719 -665.829 -1483 220 180 152
50.9421 -664.963 -1481 224 186 157
54.0044 -664.099 -1479 226 187 159
57.0972 -663.685 -1478 227 190 161
60.1455 -662.825 -1476 232 194 165
63.2288 -662.415 -1475 235 195 167
66.2186 -661.109 -1472 237 196 169
69.2432 -660.254 -1470 238 195 168
72.2601 -659.401 -1468 237 191 166
75.3204 -658.999 -1467 234 188 160
78.3772 -658.599 -1466 227 182 152
81.4861 -658.65 -1466 222 178 145
84.5956 -658.704 -1466 220 176 143
87.5863 -657.86 -1464 220 176 142
90.6933 -657.917 -1464 222 178 144
93.6727 -657.078 -1462 227 183 150
96.9096 -658.038 -1464 229 189 156
100.019 -658.101 -1464 228 193 162
103.341 -659.515 -1467 231 197 170
106.386 -659.132 -1466 234 200 174
109.502 -659.202 -1466 238 203 178
112.466 -658.374 -1464 241 204 183
115.659 -658.896 -1465 241 205 184
118.777 -658.972 -1465 238 204 182
121.979 -659.499 -1466 241 202 179
125.527 -661.828 -1471 240 202 175
128.748 -662.359 -1472 237 199 170
131.885 -662.443 -1472 234 192 164
135.207 -663.429 -1474 225 187 160
138.538 -664.417 -1476 220 181 153
141.783 -664.957 -1477 221 179 146
145.328 -666.851 -1481 220 176 141
148.892 -668.746 -1485 215 173 142
151.961 -668.393 -1484 203 165 140
-85.4811 -657.285 -1455 96 92 96
-83.0154 -662.2 -1466 130 121 122
-80.0677 -663.503 -1469 181 165 161
-77.0557 -664.355 -1471 198 176 169
-74.0359 -665.21 -1473 202 178 170
-70.9601 -665.615 -1474 207 179 170
-67.6506 -663.764 -1470 211 189 182
-64.6221 -664.625 -1472 217 197 191
-61.3768 -663.23 -1469 220 203 199
-58.3034 -663.643 -1470 217 210 216
-55.0762 -662.252 -1467 219 215 221
-51.9684 -662.218 -1467 223 223 230
-48.7279 -660.38 -1463 228 225 232
-45.5047 -658.544 -1459 233 230 235
-42.4151 -658.516 -1459 239 236 240
-39.353 -658.941 -1460 248 242 248
-36.2621 -658.916 -1460 249 242 248
-33.1488 -658.443 -1459 247 239 245
-30.0813 -658.874 -1460 245 236 247
-26.9728 -658.404 -1459 240 230 239
-23.8688 -657.937 -1458 233 221 229
-20.812 -658.825 -1460 230 214 214
-17.7469 -659.715 -1462 224 206 201
-14.6636 -660.156 -1463 223 201 190
-11.576 -660.599 -1464 224 193 178
-8.49591 -661.946 -1467 220 188 173
-5.38504 -661.039 -1465 216 184 167
-2.28403 -660.586 -1464 217 181 160
0.813835 -661.036 -1465 221 182 160
3.91861 -661.941 -1467 229 186 163
7.03188 -662.846 -1469 236 193 168
10.1742 -665.108 -1474 235 195 168
13.3379 -667.372 -1479 233 195 166
16.4785 -667.833 -1480 229 193 166
19.6498 -669.198 -1483 230 192 163
22.834 -670.566 -1486 227 188 157
25.9962 -671.033 -1487 231 178 142
29.1825 -671.953 -1489 214 166 136
32.3992 -673.327 -1492 176 133 107
35.5573 -673.349 -1492 138 88 62
38.6638 -672.47 -1490 151 102 75
41.7622 -671.593 -1488 187 139 110
44.8226 -670.267 -1485 209 162 131
47.8704 -668.943 -1482 220 178 146
50.9404 -668.072 -1480 224 184 151
54.0026 -667.203 -1478 224 186 159
57.0566 -666.336 -1476 227 190 162
60.1434 -665.922 -1475 230 193 165
63.2695 -665.961 -1475 228 193 167
66.306 -665.1 -1473 230 195 167
69.2876 -663.789 -1470 231 195 167
72.405 -663.835 -1470 233 190 163
75.4715 -663.431 -1469 231 186 154
78.588 -663.481 -1469 227 182 148
81.5941 -662.629 -1467 226 182 143
84.65 -662.231 -1466 225 180 141
87.6427 -661.383 -1464 225 180 141
90.6895 -660.989 -1463 228 183 146
93.7331 -660.596 -1462 234 189 151
96.9056 -661.109 -1463 239 194 156
100.083 -661.625 -1464 244 200 161
103.337 -662.594 -1466 246 203 170
106.454 -662.662 -1466 246 204 173
109.573 -662.732 -1466 248 206 177
112.616 -662.352 -1465 249 207 182
115.892 -663.33 -1467 247 207 183
118.934 -662.953 -1466 245 206 182
122.307 -664.388 -1469 247 206 181
125.608 -665.373 -1471 246 205 178
128.919 -666.359 -1473 244 202 174
132.239 -667.349 -1475 239 197 167
135.477 -667.888 -1476 231 190 160
138.815 -668.881 -1478 223 182 150
142.163 -669.877 -1480 223 182 145
145.52 -670.876 -1482 223 180 144
148.887 -671.876 -1484 215 174 141
151.957 -671.521 -1483 202 163 135
-85.301 -658.976 -1451 102 96 98
-82.899 -664.371 -1463 129 117 112
-80.1194 -667.043 -1469 183 164 150
-77.2103 -668.808 -1473 208 177 153
-73.9327 -667.397 -1470 214 179 151
-70.8614 -667.805 -1471 217 177 146
-67.6482 -666.852 -1469 211 178 159
-64.5759 -667.263 -1470 211 179 161
-61.4164 -666.768 -1469 208 178 162
-58.341 -667.184 -1470 203 180 169
-55.1117 -665.785 -1467 201 180 169
-51.931 -664.843 -1465 201 182 171
-48.7926 -664.357 -1464 209 190 180
-45.5964 -662.965 -1461 217 197 186
-42.4716 -662.483 -1460 221 201 189
-39.3784 -662.456 -1460 225 203 191
-36.2855 -662.432 -1460 226 203 191
-33.1474 -661.502 -1458 227 204 191
-30.08 -661.935 -1459 228 206 196
-26.9716 -661.463 -1458 230 205 195
-23.8841 -661.447 -1458 232 205 194
-20.8111 -661.886 -1459 236 204 193
-17.734 -662.327 -1460 236 202 187
-14.6629 -663.224 -1462 236 199 180
-11.5834 -664.123 -1464 234 198 176
-8.49572 -665.024 -1466 231 194 172
-5.38842 -664.566 -1465 222 186 163
-2.28696 -664.563 -1465 222 181 156
0.813752 -664.109 -1464 228 185 157
3.91577 -664.565 -1465 235 190 159
7.03162 -665.929 -1468 233 192 167
10.1602 -667.296 -1471 232 194 168
13.3105 -669.118 -1475 229 194 167
16.4668 -670.488 -1478 227 193 165
19.6492 -672.315 -1482 229 191 159
22.8181 -673.236 -1484 228 186 151
26.013 -674.613 -1487 229 176 140
29.1817 -675.084 -1488 212 163 132
32.3766 -676.012 -1490 175 128 101
35.5087 -675.58 -1489 138 91 66
38.6628 -675.604 -1489 148 102 74
41.7331 -674.269 -1486 183 137 109
44.791 -672.935 -1483 206 160 130
47.8367 -671.604 -1480 218 176 141
50.939 -671.182 -1479 222 181 144
54.0008 -670.309 -1477 226 185 154
57.0548 -669.437 -1475 226 188 160
60.1007 -668.567 -1473 227 191 163
63.2245 -668.607 -1473 224 191 165
66.3039 -668.195 -1472 226 192 162
69.4268 -668.239 -1472 226 190 160
72.4518 -667.377 -1470 230 188 158
75.5204 -666.971 -1469 232 188 154
78.5319 -666.113 -1467 230 185 149
81.6468 -666.165 -1467 231 184 143
84.7625 -666.219 -1467 229 181 144
87.7592 -665.367 -1465 230 183 146
90.8103 -664.97 -1464 232 185 151
93.922 -665.03 -1464 235 190 154
96.9682 -664.638 -1463 243 197 160
100.08 -664.702 -1463 251 202 164
103.333 -665.676 -1465 251 204 171
106.378 -665.29 -1464 251 205 174
109.494 -665.36 -1464 252 207 178
112.535 -664.978 -1463 251 208 182
115.73 -665.506 -1464 250 209 184
118.849 -665.583 -1464 248 208 183
122.303 -667.48 -1468 249 208 183
125.519 -668.015 -1469 248 207 180
129.177 -670.826 -1475 244 202 173
132.504 -671.821 -1477 241 199 165
135.565 -671.453 -1476 236 193 159
138.811 -671.997 -1477 228 184 149
142.063 -672.543 -1478 225 183 146
145.418 -673.547 -1480 221 180 144
148.382 -672.732 -1478 208 170 139
151.748 -673.74 -1480 192 156 130
-85.4153 -662.938 -1452 103 94 96
-82.8393 -666.991 -1461 130 116 110
-80.226 -671.047 -1470 184 163 147
-77.3128 -672.822 -1474 208 175 143
-74.0814 -671.86 -1472 215 180 144
-71.0519 -672.725 -1474 218 179 138
-67.9686 -673.137 -1475 214 178 153
-64.7057 -671.724 -1472 217 181 155
-61.4981 -670.77 -1470 218 182 156
-58.3391 -670.275 -1469 222 186 161
-55.0346 -667.957 -1464 226 188 161
-51.8227 -666.554 -1461 231 191 162
-48.6908 -666.065 -1460 236 196 170
-45.626 -666.49 -1461 240 201 174
-42.4409 -665.093 -1458 243 204 176
-39.3229 -664.611 -1457 245 206 177
-36.2841 -665.498 -1459 247 207 180
-33.1233 -664.107 -1456 250 210 184
-30.0583 -664.543 -1457 245 211 182
-26.9706 -664.524 -1457 246 211 183
-23.8995 -664.964 -1458 246 210 184
-20.8103 -664.95 -1458 246 208 187
-17.7455 -665.849 -1460 243 204 183
-14.6824 -667.207 -1463 241 201 179
-11.575 -666.742 -1462 231 199 174
-8.48957 -667.648 -1464 229 195 172
-5.39183 -668.099 -1465 223 188 165
-2.28695 -667.641 -1464 220 182 153
0.814416 -667.641 -1464 224 182 151
3.91846 -668.098 -1465 233 188 153
7.03138 -669.014 -1467 232 190 162
10.153 -669.931 -1469 231 193 165
13.3191 -672.675 -1475 228 194 167
16.4887 -674.509 -1479 227 194 167
19.6753 -676.345 -1483 228 190 158
22.8482 -677.272 -1485 227 184 148
25.9949 -677.287 -1485 223 172 134
29.2006 -678.674 -1488 207 158 126
32.3758 -679.15 -1489 168 121 92
35.4601 -677.804 -1486 132 90 69
38.6101 -677.828 -1486 140 99 78
41.704 -676.941 -1484 174 135 113
44.7899 -676.058 -1482 200 160 136
47.8678 -675.175 -1480 215 173 138
50.9375 -674.295 -1478 221 179 139
54.036 -673.873 -1477 229 183 147
57.0919 -672.997 -1475 227 187 155
60.2215 -673.035 -1475 228 191 159
63.2655 -672.163 -1473 226 191 160
66.3471 -671.748 -1472 225 190 155
69.3777 -670.88 -1470 226 189 154
72.5482 -671.383 -1471 229 189 155
75.6209 -670.975 -1470 230 186 152
78.5829 -669.655 -1467 228 183 147
81.6999 -669.708 -1467 228 181 142
84.7019 -668.849 -1465 226 179 141
87.6964 -667.992 -1463 227 180 143
90.8073 -668.05 -1463 232 185 150
93.9831 -668.567 -1464 237 192 156
96.965 -667.716 -1462 244 199 163
100.213 -668.694 -1464 246 201 166
103.259 -668.303 -1463 248 205 173
106.374 -668.372 -1463 252 209 178
109.565 -668.899 -1464 251 208 178
112.685 -668.972 -1464 250 208 182
115.884 -669.503 -1465 250 209 183
119.008 -669.58 -1465 249 208 184
122.383 -671.03 -1468 249 209 186
125.6 -671.568 -1469 247 208 180
128.999 -673.023 -1472 243 204 174
132.321 -674.023 -1474 241 201 165
135.745 -675.483 -1477 240 195 159
138.808 -675.115 -1476 232 188 152
141.867 -674.749 -1475 228 185 149
145.12 -675.301 -1476 222 180 146
147.876 -673.566 -1472 208 169 139
151.129 -674.122 -1473 184 148 122
-85.4122 -665.992 -1451 109 100 102
-83.0637 -671.904 -1464 128 115 110
-80.2783 -674.604 -1470 182 161 145
-77.1533 -674.552 -1470 205 174 143
-73.9787 -674.044 -1469 214 180 146
-70.9053 -674.455 -1470 219 180 142
-67.7362 -673.951 -1469 223 183 149
-64.572 -673.449 -1468 224 184 149
-61.4126 -672.949 -1467 225 184 149
-58.258 -672.451 -1466 228 187 154
-54.92 -669.662 -1460 232 189 156
-51.7855 -669.169 -1459 238 192 159
-48.6224 -668.218 -1457 242 200 169
-45.4682 -667.271 -1455 247 205 174
-42.4103 -667.7 -1456 249 206 175
-39.3215 -667.674 -1456 252 207 178
-36.2331 -667.649 -1456 253 209 180
-33.0994 -666.709 -1454 254 209 180
-30.0159 -666.689 -1454 251 208 183
-26.9326 -666.67 -1454 249 207 183
-23.8495 -666.654 -1454 247 207 184
-20.781 -667.098 -1455 245 207 188
-17.7327 -668.46 -1458 243 206 186
-14.6819 -670.284 -1462 239 203 183
-11.5825 -670.275 -1462 233 202 180
-8.50083 -671.644 -1465 229 197 174
-5.39524 -671.639 -1465 226 192 169
-2.28989 -671.637 -1465 221 184 154
0.815082 -671.178 -1464 222 181 149
3.92634 -672.555 -1467 231 187 152
7.03595 -672.559 -1467 231 189 156
10.1596 -673.481 -1469 231 192 162
13.319 -675.781 -1474 229 193 166
16.466 -676.708 -1476 226 193 166
19.6616 -679.012 -1481 225 188 157
22.8632 -680.86 -1485 220 180 145
26.012 -680.876 -1485 219 168 129
29.1608 -680.895 -1485 202 154 121
32.3536 -681.832 -1487 161 115 86
35.4118 -680.02 -1483 124 85 65
38.6353 -681.42 -1486 137 96 76
41.7033 -680.07 -1483 172 130 110
44.8496 -680.099 -1483 193 158 133
47.8991 -678.753 -1480 211 170 138
51.0054 -678.327 -1479 219 176 142
54.0713 -677.444 -1477 223 181 142
57.0905 -676.105 -1474 224 185 146
60.1791 -675.684 -1473 227 188 149
63.2639 -675.266 -1472 230 187 152
66.3454 -674.85 -1471 228 189 152
69.4701 -674.894 -1471 228 189 152
72.5463 -674.482 -1470 229 190 153
75.5674 -673.613 -1468 231 188 152
78.527 -672.287 -1465 230 186 149
81.6419 -672.339 -1465 228 182 144
84.6417 -671.476 -1463 225 179 141
87.8138 -671.992 -1464 227 181 144
90.9287 -672.05 -1464 232 186 149
93.9804 -671.652 -1463 240 194 157
97.0286 -671.255 -1462 247 201 165
100.142 -671.32 -1462 250 204 168
103.256 -671.387 -1462 250 207 175
106.444 -671.915 -1463 253 210 179
109.562 -671.986 -1463 250 207 177
112.759 -672.518 -1464 250 208 180
115.881 -672.593 -1464 251 209 183
119.005 -672.67 -1464 251 209 184
122.213 -673.209 -1465 249 209 186
125.512 -674.21 -1467 247 207 181
128.996 -676.132 -1471 244 204 175
132.408 -677.597 -1474 243 203 169
135.834 -679.064 -1477 241 196 160
138.993 -679.155 -1477 232 188 152
141.864 -677.867 -1474 227 184 148
144.723 -676.582 -1471 222 179 145
146.867 -672.078 -1461 207 169 140
-83.0615 -674.992 -1463 122 114 110
-80.3311 -678.167 -1470 179 162 149
-77.3615 -679.499 -1473 206 176 150
-74.128 -678.527 -1471 211 177 149
-71.0967 -679.402 -1473 219 178 145
-67.8269 -677.972 -1470 226 183 146
-64.6584 -677.467 -1469 229 186 149
-61.4109 -676.042 -1466 230 187 150
-58.0575 -673.237 -1460 230 187 154
-54.8808 -672.277 -1458 232 188 155
-51.6419 -670.398 -1454 240 195 163
-48.5541 -670.365 -1454 246 202 170
-45.4042 -669.412 -1452 250 207 176
-42.4089 -670.766 -1455 250 208 178
-39.2662 -669.817 -1453 251 208 181
-36.2319 -670.714 -1455 252 209 182
-33.0983 -669.77 -1453 252 209 182
-30.0148 -669.749 -1453 251 208 185
-26.9316 -669.73 -1453 252 209 186
-23.8816 -670.636 -1455 250 209 186
-20.8232 -671.543 -1457 246 209 185
-17.7321 -671.53 -1457 243 206 182
-14.6714 -672.902 -1460 239 202 178
-11.5822 -673.354 -1461 236 201 181
-8.4947 -674.269 -1463 233 197 175
-5.39149 -674.265 -1463 230 194 170
-2.29127 -675.184 -1465 226 187 156
0.816119 -675.184 -1465 223 183 152
3.92351 -675.186 -1465 228 185 155
7.03593 -675.65 -1466 230 188 158
10.1663 -677.038 -1469 231 192 163
13.3006 -677.968 -1471 229 192 165
16.4881 -680.743 -1477 224 192 165
19.6612 -682.138 -1480 222 187 158
22.8628 -683.996 -1484 217 180 149
26.0116 -684.012 -1484 219 168 129
29.1604 -684.03 -1484 194 149 115
32.3096 -684.05 -1484 154 111 81
35.411 -683.15 -1482 124 88 67
38.6607 -685.019 -1486 138 96 78
41.815 -685.045 -1486 167 124 106
44.9394 -684.613 -1485 191 155 131
47.9629 -682.799 -1481 209 167 137
51.0043 -681.449 -1478 217 173 140
54.0335 -680.1 -1475 221 176 138
57.0892 -679.215 -1473 221 180 141
60.2186 -679.253 -1473 226 185 146
63.2626 -678.372 -1471 230 187 151
66.4341 -678.876 -1472 229 190 153
69.4686 -677.998 -1470 228 189 152
72.594 -678.045 -1470 229 188 151
75.6171 -677.171 -1468 232 187 153
78.686 -676.761 -1467 231 186 150
81.6955 -675.891 -1465 227 181 143
84.6974 -675.023 -1463 227 181 143
87.8715 -675.542 -1464 231 185 147
90.9265 -675.139 -1463 233 187 149
94.1065 -675.662 -1464 240 194 156
97.0924 -674.802 -1462 248 202 165
100.276 -675.328 -1463 252 206 170
103.395 -675.396 -1463 250 206 173
106.441 -675.003 -1462 251 208 176
109.634 -675.536 -1463 251 208 177
112.833 -676.071 -1464 250 207 179
115.957 -676.147 -1464 250 208 183
119.083 -676.225 -1464 250 208 184
122.293 -676.766 -1465 250 208 185
125.509 -677.31 -1466 247 207 181
128.642 -677.395 -1466 245 205 176
132.316 -680.253 -1472 243 202 169
135.464 -680.342 -1472 241 196 160
138.614 -680.433 -1472 233 189 153
141.476 -679.138 -1469 227 184 148
144.228 -677.383 -1465 220 177 143
145.757 -670.081 -1449 206 167 139
147.938 -666.016 -1440 168 132 107
-83.4004 -680.865 -1468 122 114 113
-80.4935 -682.665 -1472 179 162 152
-77.4126 -683.077 -1473 208 176 155
-74.1769 -682.099 -1471 214 178 152
-70.9987 -681.588 -1470 222 177 143
-67.7792 -680.614 -1468 226 183 151
-64.5248 -679.18 -1465 228 185 153
-61.1581 -676.356 -1459 230 187 155
-58.0561 -676.317 -1459 231 188 158
-54.8416 -674.889 -1456 233 190 160
-51.5694 -672.537 -1451 240 197 167
-48.5193 -672.967 -1452 249 204 172
-45.4341 -672.936 -1452 251 207 177
-42.3202 -672.443 -1451 252 210 182
-39.2379 -672.416 -1451 253 211 184
-36.2059 -673.318 -1453 253 211 184
-33.0973 -672.832 -1452 253 211 184
-29.9933 -672.348 -1451 252 211 188
-26.9308 -672.792 -1452 253 213 190
-23.8644 -673.239 -1453 253 213 190
-20.7796 -673.224 -1453 247 211 185
-17.7194 -674.138 -1455 246 209 184
-14.671 -675.981 -1459 243 205 184
-11.574 -675.972 -1459 237 200 176
-8.48857 -676.892 -1461 234 197 172
-5.39125 -677.351 -1462 230 193 168
-2.29285 -678.738 -1465 227 188 158
0.816233 -678.275 -1464 226 185 155
3.93429 -680.129 -1468 229 186 156
7.04053 -679.206 -1466 231 190 158
10.187 -681.529 -1471 231 192 162
13.3003 -681.073 -1470 228 191 164
16.499 -684.326 -1477 222 189 159
19.6744 -685.728 -1480 222 185 155
22.8781 -687.596 -1484 217 178 147
26.0463 -688.076 -1485 213 164 126
29.219 -688.557 -1486 190 145 112
32.3963 -689.041 -1487 150 108 78
35.4585 -687.21 -1483 120 87 69
38.6863 -688.625 -1486 131 94 77
41.8145 -688.188 -1485 159 120 103
44.9389 -687.753 -1484 189 151 128
47.9946 -686.394 -1481 208 165 135
51.0381 -685.036 -1478 214 169 137
54.1059 -684.144 -1476 221 174 136
57.1657 -683.254 -1474 220 178 139
60.2994 -683.293 -1474 224 182 143
63.3906 -682.87 -1473 228 183 147
66.5232 -682.913 -1473 228 187 149
69.5146 -681.567 -1470 229 188 150
72.5926 -681.151 -1469 228 187 150
75.5125 -679.345 -1465 231 186 150
78.5234 -678.469 -1463 230 184 148
81.5264 -677.595 -1461 227 181 143
84.6955 -678.114 -1462 229 183 145
87.8696 -678.634 -1463 232 186 148
90.9867 -678.694 -1463 235 189 151
94.1688 -679.219 -1464 241 195 157
97.2231 -678.819 -1463 246 200 163
100.274 -678.42 -1462 248 202 166
103.392 -678.488 -1462 250 205 171
106.512 -678.558 -1462 249 205 173
109.632 -678.63 -1462 250 206 175
112.753 -678.703 -1462 250 207 178
115.876 -678.779 -1462 249 207 182
118.999 -678.857 -1462 249 207 183
122.124 -678.938 -1462 248 206 183
125.506 -680.413 -1465 247 205 179
128.727 -680.962 -1466 246 204 176
132.134 -682.442 -1469 245 202 170
135.185 -682.067 -1468 243 198 162
138.046 -680.764 -1465 235 191 155
140.702 -678.533 -1460 228 185 149
143.338 -676.304 -1455 218 175 140
145.149 -670.357 -1442 204 165 137
-83.4558 -684.438 -1468 123 114 114
-80.6017 -686.714 -1473 178 159 151
-77.5693 -687.594 -1475 206 174 153
-74.2766 -686.145 -1472 213 177 152
-71.0942 -685.63 -1471 220 177 143
-67.7781 -683.72 -1467 224 181 149
-64.4355 -681.345 -1462 227 184 152
-61.2406 -680.372 -1460 230 187 155
-57.9751 -678.468 -1456 234 191 161
-54.8027 -677.499 -1454 236 193 163
-51.5324 -675.134 -1449 242 199 169
-48.5514 -676.498 -1452 250 204 175
-45.3703 -675.069 -1449 253 208 180
-42.3191 -675.506 -1450 253 211 183
-39.2099 -675.013 -1449 254 212 184
-36.205 -676.385 -1452 254 212 184
-33.0964 -675.896 -1451 255 213 185
-30.0132 -675.875 -1451 253 213 190
-26.9487 -676.322 -1452 254 214 191
-23.8802 -676.771 -1453 254 214 192
-20.7934 -676.756 -1453 248 213 188
-17.7311 -677.675 -1455 247 211 187
-14.6606 -678.596 -1457 246 209 187
-11.5736 -679.053 -1458 241 204 178
-8.48847 -679.978 -1460 236 199 173
-5.3947 -680.905 -1462 231 194 168
-2.29424 -682.299 -1465 228 188 158
0.817834 -682.765 -1466 227 185 154
3.94221 -684.629 -1470 230 187 155
7.05976 -684.167 -1469 231 189 156
10.2007 -685.57 -1472 230 190 160
13.3364 -686.044 -1473 228 189 162
16.5211 -688.383 -1478 223 188 155
19.6741 -688.861 -1479 222 184 150
22.9087 -691.669 -1485 217 176 142
26.0636 -691.686 -1485 208 162 125
29.258 -692.636 -1487 179 136 105
32.505 -694.519 -1491 140 98 70
35.6017 -693.145 -1488 117 87 72
38.8162 -694.101 -1490 127 92 79
41.9551 -693.662 -1489 149 112 98
45.0596 -692.76 -1487 183 143 124
48.1239 -691.393 -1484 204 160 133
51.2102 -690.494 -1482 212 166 135
54.2153 -688.666 -1478 222 170 133
57.3201 -688.237 -1477 221 174 137
60.4622 -688.276 -1477 223 177 139
63.5188 -687.386 -1475 225 180 144
66.5674 -686.497 -1473 225 184 145
69.5608 -685.144 -1470 226 185 146
72.6903 -685.192 -1470 226 185 147
75.6142 -683.376 -1466 229 183 146
78.6293 -682.496 -1464 229 182 145
81.6364 -681.617 -1462 231 183 145
84.7519 -681.672 -1462 231 185 146
87.8679 -681.73 -1462 232 186 147
90.9849 -681.789 -1462 238 192 154
94.1672 -682.318 -1463 243 197 159
97.2214 -681.915 -1462 244 198 160
100.341 -681.981 -1462 245 199 161
103.391 -681.583 -1461 248 203 168
106.656 -682.586 -1463 249 204 172
109.705 -682.191 -1462 249 204 172
112.906 -682.733 -1463 248 205 175
116.032 -682.809 -1463 249 207 181
119.078 -682.421 -1462 247 205 179
122.121 -682.035 -1461 243 201 176
125.418 -683.051 -1463 243 201 174
128.549 -683.136 -1463 244 201 172
131.862 -684.157 -1465 243 200 168
134.999 -684.247 -1465 242 197 163
137.95 -683.404 -1463 236 191 156
140.507 -680.694 -1457 227 183 147
143.533 -680.322 -1456 218 175 139
145.75 -676.213 -1447 201 163 134
-84.0804 -692.705 -1478 121 113 112
-80.8197 -691.712 -1476 172 154 146
-77.6737 -691.659 -1476 205 175 155
-74.4273 -690.671 -1474 213 178 154
-71.0449 -688.279 -1469 223 180 146
-67.7308 -686.359 -1465 225 182 150
-64.4785 -684.909 -1462 228 185 153
-61.1975 -682.993 -1458 231 188 156
-57.9341 -681.08 -1454 236 193 161
-54.8015 -680.573 -1453 238 195 164
-51.6024 -679.133 -1450 243 200 170
-48.5169 -679.099 -1450 249 203 174
-45.4005 -678.599 -1449 252 207 179
-42.3181 -678.57 -1449 253 210 182
-39.2089 -678.075 -1448 253 211 183
-36.1792 -678.986 -1450 255 213 185
-33.0728 -678.495 -1449 255 213 185
-29.9918 -678.474 -1449 250 213 189
-26.9295 -678.923 -1450 251 213 190
-23.8632 -679.374 -1451 253 213 192
-20.8072 -680.296 -1453 246 213 188
-17.7186 -680.283 -1453 245 210 186
-14.6602 -681.677 -1456 246 210 187
-11.5892 -683.072 -1459 244 207 180
-8.494 -683.534 -1460 241 203 176
-5.39467 -683.997 -1461 234 196 169
-2.2974 -686.336 -1466 229 187 156
0.81907 -686.803 -1467 228 185 153
3.95034 -689.146 -1472 231 187 153
7.06442 -687.745 -1469 233 189 153
10.2353 -691.028 -1476 232 189 159
13.3544 -690.1 -1474 229 187 160
16.5435 -692.451 -1479 224 188 152
19.6608 -691.527 -1477 221 182 145
22.9085 -694.818 -1484 214 173 137
26.0635 -694.835 -1484 204 158 122
29.3171 -697.195 -1489 170 130 102
32.5268 -698.152 -1491 131 95 70
35.6254 -696.77 -1488 113 88 73
38.764 -696.327 -1487 121 89 76
42.0113 -697.758 -1490 141 106 93
45.0898 -696.383 -1487 175 135 118
48.156 -695.009 -1484 197 155 127
51.2791 -694.574 -1483 208 163 132
54.3983 -694.141 -1482 220 165 129
57.4362 -692.773 -1479 221 170 132
60.5437 -692.345 -1478 224 174 137
63.6044 -691.449 -1476 224 178 141
66.7476 -691.493 -1476 224 181 143
69.7021 -689.665 -1472 225 181 143
72.6895 -688.307 -1469 226 181 143
75.6132 -686.482 -1465 227 180 142
78.6819 -686.066 -1464 227 179 141
81.691 -685.182 -1462 231 182 144
84.8087 -685.238 -1462 231 185 146
87.9269 -685.296 -1462 232 186 148
91.1081 -685.825 -1463 237 191 153
94.1658 -685.418 -1462 241 195 157
97.1533 -684.545 -1460 243 197 159
100.34 -685.08 -1461 245 199 161
103.318 -684.21 -1459 246 201 165
106.508 -684.75 -1460 248 203 168
109.704 -685.292 -1461 248 204 171
112.981 -686.305 -1463 247 204 174
116.031 -685.912 -1462 244 202 172
119.077 -685.522 -1461 243 201 171
122.287 -686.073 -1462 241 199 171
125.503 -686.625 -1463 242 198 169
128.812 -687.65 -1465 243 200 169
131.86 -687.268 -1464 243 200 168
135.274 -688.766 -1467 242 197 163
138.231 -687.919 -1465 237 192 155
140.987 -686.135 -1461 226 181 143
144.221 -686.7 -1462 217 172 136
146.755 -683.98 -1456 200 162 134
-84.1369 -696.316 -1478 116 108 108
-80.7097 -693.905 -1473 163 146 138
-77.6205 -694.323 -1474 202 172 154
-74.4267 -693.801 -1473 210 177 153
-71.0443 -691.397 -1468 221 178 144
-67.7763 -689.937 -1465 226 183 150
-64.5658 -688.951 -1463 231 188 155
-61.1546 -685.612 -1456 233 190 158
-57.9731 -684.63 -1454 236 193 161
-54.8383 -684.122 -1453 239 196 164
-51.6726 -683.144 -1451 242 199 169
-48.5495 -682.639 -1450 248 203 170
-45.4937 -683.079 -1451 251 206 174
-42.3757 -682.579 -1450 252 209 179
-39.2352 -681.609 -1448 253 210 180
-36.1785 -682.055 -1449 254 212 183
-33.0722 -681.561 -1448 255 212 184
-30.0325 -682.481 -1450 249 212 188
-26.9475 -682.462 -1450 250 212 189
-23.8957 -683.386 -1452 251 211 190
-20.8212 -683.842 -1453 247 211 185
-17.7304 -683.829 -1453 244 208 183
-14.66 -684.759 -1455 244 208 184
-11.5731 -685.221 -1456 247 209 182
-8.48228 -685.685 -1457 244 206 178
-5.39446 -687.092 -1460 237 198 168
-2.29724 -689.443 -1465 231 187 153
0.82012 -690.854 -1468 228 184 148
3.95312 -692.738 -1472 231 185 149
7.08853 -693.213 -1473 233 187 149
10.256 -695.572 -1478 232 187 154
13.3725 -694.168 -1475 230 186 157
16.5657 -696.531 -1480 226 186 148
19.7538 -697.955 -1483 221 180 142
22.9239 -698.44 -1484 212 171 134
26.0809 -698.457 -1484 198 152 116
29.3762 -701.77 -1491 162 126 100
32.6577 -704.144 -1496 123 92 71
35.8171 -703.697 -1495 112 88 75
38.8682 -701.369 -1490 115 87 75
41.9831 -700.454 -1488 130 99 88
45.1202 -700.013 -1487 167 126 113
48.2209 -699.103 -1485 191 148 122
51.3136 -698.195 -1483 206 160 130
54.3981 -697.289 -1481 216 160 125
57.5137 -696.856 -1480 217 165 127
60.5434 -695.483 -1477 221 171 133
63.6472 -695.054 -1476 221 175 137
66.7472 -694.627 -1475 223 178 140
69.7015 -692.789 -1471 224 178 139
72.788 -692.367 -1470 223 177 138
75.8708 -691.946 -1469 225 176 138
78.8963 -691.056 -1467 226 176 138
81.9138 -690.168 -1465 228 179 141
84.9236 -689.282 -1463 227 181 142
88.0461 -689.34 -1463 230 184 146
91.1071 -688.93 -1462 237 191 153
94.2936 -689.464 -1463 241 195 157
97.1523 -687.643 -1459 243 195 157
100.338 -688.181 -1460 244 197 159
103.317 -687.307 -1458 243 198 162
106.507 -687.849 -1459 244 199 165
109.702 -688.394 -1460 244 200 166
112.98 -689.412 -1462 244 201 169
116.029 -689.018 -1461 243 200 164
119.076 -688.626 -1460 241 198 163
122.118 -688.236 -1459 240 197 164
125.501 -689.735 -1462 242 197 164
128.371 -688.405 -1459 241 196 163
131.769 -689.909 -1462 240 197 163
134.812 -689.527 -1461 239 194 160
138.041 -690.091 -1462 233 188 151
141.083 -689.714 -1461 223 178 141
144.615 -691.699 -1465 219 174 138
147.358 -689.909 -1461 203 165 138
149.777 -686.704 -1454 153 119 96
-84.3647 -701.356 -1481 111 105 105
-80.8191 -697.985 -1474 155 138 130
-77.5148 -696.511 -1471 196 167 148
-74.3253 -695.986 -1470 208 175 152
-70.85 -692.623 -1463 222 179 145
-67.7758 -693.049 -1464 226 183 149
-64.3887 -690.164 -1458 230 187 153
-61.1539 -688.702 -1455 233 190 157
-58.0521 -688.661 -1455 236 193 161
-54.8375 -687.204 -1452 240 197 165
-51.7432 -687.167 -1452 243 200 169
-48.6493 -687.133 -1452 249 204 170
-45.5557 -687.101 -1452 251 206 173
-42.4042 -686.125 -1450 251 207 176
-39.2617 -685.151 -1448 252 207 176
-36.1779 -685.126 -1448 252 208 177
-33.0716 -684.629 -1447 253 210 180
-29.9906 -684.608 -1447 249 210 185
-26.9471 -685.535 -1449 251 210 186
-23.8952 -686.464 -1451 253 211 187
-20.8065 -686.449 -1451 246 209 183
-17.7423 -687.382 -1453 245 208 181
-14.6496 -687.371 -1453 245 208 181
-11.5651 -687.836 -1454 246 206 180
-8.48203 -688.775 -1456 244 203 174
-5.39075 -689.716 -1458 238 197 164
-2.29727 -692.552 -1464 231 186 148
0.820245 -693.971 -1467 226 180 142
3.95303 -695.865 -1471 227 181 143
7.09343 -696.815 -1473 230 184 145
10.263 -699.186 -1478 229 184 149
13.3907 -698.248 -1476 228 182 150
16.5658 -699.677 -1479 223 181 140
19.7406 -700.636 -1481 217 174 134
22.9704 -703.015 -1486 209 166 127
26.0986 -702.086 -1484 193 147 111
29.3961 -705.417 -1491 151 118 97
32.7235 -708.75 -1498 116 88 73
35.8173 -706.88 -1494 112 89 80
38.8947 -705.013 -1490 112 88 78
41.9832 -703.621 -1487 124 97 87
45.1507 -703.65 -1487 160 121 110
48.2536 -702.736 -1485 188 145 120
51.3484 -701.823 -1483 205 159 130
54.4351 -700.912 -1481 214 159 123
57.4749 -699.531 -1478 215 163 125
60.5844 -699.097 -1477 218 169 130
63.6903 -698.666 -1476 219 172 131
66.7471 -697.764 -1474 220 174 135
69.8435 -697.337 -1473 221 174 135
72.9859 -697.385 -1473 221 172 134
75.8704 -695.068 -1468 224 173 135
78.8958 -694.174 -1466 224 173 135
82.0252 -694.228 -1466 224 175 137
85.0974 -693.812 -1465 224 178 139
88.1058 -692.923 -1463 227 181 142
91.1689 -692.51 -1462 232 186 147
94.293 -692.573 -1462 238 192 153
97.218 -691.217 -1459 242 193 155
100.269 -690.81 -1458 243 195 157
103.316 -690.406 -1457 244 198 160
106.579 -691.425 -1459 243 198 164
109.626 -691.024 -1458 241 196 163
112.902 -692.048 -1460 240 195 163
116.029 -692.126 -1460 237 195 155
119.156 -692.206 -1460 237 194 155
122.285 -692.288 -1460 238 193 155
125.329 -691.898 -1459 236 191 155
128.546 -692.459 -1460 234 189 153
131.858 -693.496 -1462 233 188 151
134.996 -693.587 -1462 235 190 156
138.135 -693.68 -1462 232 187 149
141.468 -694.724 -1464 224 179 142
145.009 -696.72 -1468 222 177 141
148.468 -698.244 -1471 204 167 140
151.734 -698.821 -1472 150 117 95
-84.194 -703.086 -1477 106 102 104
-80.5996 -699.221 -1469 151 134 128
-77.1984 -696.788 -1464 193 164 146
-74.0216 -696.26 -1463 206 173 151
-70.7044 -694.308 -1459 221 178 146
-67.5438 -693.785 -1458 226 183 149
-64.2998 -692.312 -1455 229 186 152
-61.1113 -691.318 -1453 231 187 153
-58.0116 -691.277 -1453 233 189 157
-54.8369 -690.287 -1451 238 194 162
-51.7069 -689.775 -1450 242 198 166
-48.6822 -690.693 -1452 245 199 165
-45.5552 -690.185 -1451 245 200 166
-42.4038 -689.204 -1449 248 203 171
-39.2611 -688.225 -1447 250 205 172
-36.2024 -688.675 -1448 250 205 173
-33.0483 -687.224 -1445 249 206 175
-29.9902 -687.679 -1446 247 206 177
-26.9281 -688.135 -1447 249 207 179
-23.8785 -689.069 -1449 251 207 181
-20.8206 -690.005 -1451 248 209 179
-17.7421 -690.467 -1452 247 207 178
-14.6494 -690.456 -1452 246 206 176
-11.5649 -690.923 -1453 245 203 174
-8.47615 -691.391 -1454 240 199 167
-5.38685 -692.338 -1456 234 191 156
-2.29555 -695.188 -1462 230 184 144
0.820182 -697.09 -1466 225 179 140
3.95314 -698.993 -1470 226 180 142
7.08853 -699.473 -1471 223 177 138
10.2562 -701.856 -1476 226 180 143
13.4178 -702.815 -1478 225 179 144
16.5883 -703.777 -1480 221 176 133
19.7674 -704.74 -1482 213 167 127
22.9551 -705.706 -1484 203 157 118
26.1164 -705.723 -1484 181 136 100
29.4358 -709.546 -1492 136 106 90
32.9645 -717.177 -1508 110 86 76
39.1039 -711.994 -1497 109 89 81
42.1532 -709.644 -1492 118 94 86
45.2422 -708.247 -1489 155 120 110
48.2213 -705.424 -1483 186 143 120
51.3139 -704.507 -1481 200 154 126
54.3618 -703.116 -1478 209 156 120
57.436 -702.203 -1476 212 162 124
60.5025 -701.292 -1474 215 165 127
63.6041 -700.858 -1473 219 169 129
66.6566 -699.951 -1471 221 173 133
69.7961 -699.997 -1471 222 174 135
72.8867 -699.57 -1470 222 173 135
75.8704 -698.193 -1467 224 173 133
78.9496 -697.77 -1466 226 175 136
82.137 -698.301 -1467 228 177 139
85.0972 -696.93 -1464 225 179 140
88.2261 -696.989 -1464 225 179 140
91.1685 -695.622 -1461 230 184 145
94.1635 -694.733 -1459 236 189 151
97.1509 -693.846 -1457 241 192 154
100.337 -694.39 -1458 240 192 154
103.386 -693.983 -1457 239 193 155
106.652 -695.008 -1459 237 192 157
109.701 -694.605 -1458 234 189 155
112.979 -695.634 -1460 232 187 155
116.028 -695.236 -1459 232 190 148
119.238 -695.793 -1460 233 190 150
122.284 -695.399 -1459 235 190 152
125.414 -695.484 -1459 234 189 150
128.634 -696.047 -1460 234 189 150
131.768 -696.137 -1460 236 191 152
135.181 -697.659 -1463 235 190 156
138.702 -699.66 -1467 232 187 149
142.242 -701.664 -1471 226 181 144
145.998 -704.625 -1477 224 179 143
149.377 -705.68 -1479 203 166 139
153.076 -708.17 -1484 147 115 95
-84.5368 -709.109 -1482 106 100 103
-80.5999 -702.354 -1468 144 127 121
-77.1456 -699.43 -1462 192 163 147
-74.0722 -699.856 -1463 207 174 153
-70.7042 -697.415 -1458 221 180 147
-67.5436 -696.889 -1457 227 182 148
-64.2995 -695.409 -1454 227 182 148
-61.1951 -695.366 -1454 228 183 149
-57.9713 -693.891 -1451 230 185 151
-54.95 -694.808 -1453 236 191 157
-51.7778 -693.816 -1451 239 194 162
-48.6819 -693.781 -1451 241 194 161
-45.5863 -693.749 -1451 242 195 162
-42.4327 -692.763 -1449 243 198 166
-39.3151 -692.257 -1448 244 199 165
-36.177 -691.275 -1446 242 197 164
-33.0479 -690.295 -1444 239 196 163
-29.9484 -689.795 -1443 237 195 161
-26.8905 -690.254 -1444 240 195 163
-23.8452 -691.193 -1446 243 196 166
-20.806 -692.611 -1449 242 199 167
-17.7419 -693.554 -1451 241 198 166
-14.6594 -694.021 -1452 240 197 165
-11.5727 -694.49 -1453 239 197 165
-8.48195 -694.961 -1454 233 191 156
-5.39056 -695.913 -1456 226 184 146
-2.29402 -697.822 -1460 224 178 137
0.819751 -699.733 -1464 222 175 136
3.94769 -701.169 -1467 223 175 137
7.08382 -702.128 -1469 220 174 135
10.2494 -704.524 -1474 224 178 138
13.4089 -705.488 -1476 224 177 137
16.6221 -708.367 -1482 219 172 129
19.7942 -708.857 -1483 208 162 121
22.9863 -709.828 -1485 196 150 110
26.1696 -710.323 -1486 174 131 98
29.4954 -714.166 -1494 130 103 89
39.2614 -718.061 -1502 102 85 79
42.2669 -714.743 -1495 109 89 83
45.2732 -711.904 -1489 147 116 107
48.2543 -709.067 -1483 183 140 117
51.2796 -707.189 -1479 198 153 124
54.3989 -706.747 -1478 208 158 121
57.4754 -705.829 -1476 211 162 124
60.5027 -704.435 -1473 215 165 126
63.6907 -704.956 -1474 219 168 128
66.7929 -704.522 -1473 221 173 132
69.8439 -703.612 -1471 223 174 133
72.9366 -703.183 -1470 222 171 132
75.9741 -702.277 -1468 224 172 132
79.0036 -701.374 -1466 226 175 135
82.0253 -700.472 -1464 227 176 137
85.1556 -700.53 -1464 224 178 139
88.1659 -699.632 -1462 223 177 138
91.231 -699.215 -1461 223 176 137
94.2282 -698.322 -1459 228 179 142
97.084 -696.473 -1455 230 182 144
100.337 -697.498 -1457 230 182 144
103.386 -697.089 -1456 230 184 147
106.579 -697.64 -1457 232 187 151
109.701 -697.714 -1457 232 187 153
112.824 -697.791 -1457 234 189 156
115.949 -697.87 -1457 234 190 153
119.238 -698.908 -1459 234 190 153
122.284 -698.513 -1458 234 190 153
125.414 -698.598 -1458 237 192 154
128.545 -698.685 -1458 238 193 155
131.858 -699.733 -1460 239 194 156
135.458 -702.222 -1465 237 194 156
138.892 -703.754 -1468 237 193 152
142.63 -706.728 -1474 233 189 148
146.395 -709.704 -1480 227 182 143
149.884 -711.245 -1483 205 165 138
153.388 -712.789 -1486 150 116 99
-80.2707 -702.604 -1461 139 123 117
-76.9346 -700.626 -1457 187 160 144
-73.7685 -700.093 -1456 207 175 155
-70.5101 -698.601 -1453 222 181 148
-67.4044 -698.554 -1453 228 183 148
-64.2551 -698.027 -1452 228 183 147
-61.1529 -697.984 -1452 228 183 147
-58.0111 -697.463 -1451 229 184 150
-54.912 -697.424 -1451 234 189 155
-51.742 -696.426 -1449 238 193 159
-48.6818 -696.872 -1450 240 193 160
-45.5862 -696.839 -1450 241 195 161
-42.4618 -696.329 -1449 240 195 161
-39.3421 -695.82 -1448 241 194 161
-36.2019 -694.833 -1446 240 195 161
-33.0705 -693.848 -1444 237 193 160
-29.9481 -692.865 -1442 238 193 156
-26.909 -693.807 -1444 238 191 156
-23.8781 -695.231 -1447 238 189 155
-20.8347 -696.657 -1450 234 189 154
-17.754 -697.124 -1451 233 187 152
-14.6593 -697.113 -1451 230 184 149
-11.5726 -697.585 -1452 226 183 150
-8.48174 -698.058 -1453 222 180 144
-5.38316 -698.053 -1453 219 177 139
-2.2923 -700.453 -1458 221 174 133
0.8182 -701.413 -1460 220 171 131
3.94782 -704.297 -1466 220 170 130
7.08394 -705.262 -1468 220 172 134
10.2634 -708.631 -1475 222 173 133
13.4454 -710.561 -1479 221 171 130
16.6447 -712.493 -1483 215 167 123
19.8479 -713.947 -1486 205 158 116
23.0487 -714.923 -1488 192 146 106
26.258 -715.901 -1490 167 124 94
29.6145 -720.244 -1499 124 99 85
42.3808 -719.863 -1498 107 88 82
45.213 -714.127 -1486 134 109 101
48.2225 -711.756 -1481 175 133 109
51.2456 -709.868 -1477 193 149 120
54.3259 -708.943 -1475 205 157 120
57.4371 -708.501 -1474 210 161 122
60.5032 -707.581 -1472 214 165 126
63.7347 -708.585 -1474 218 167 128
66.7481 -707.187 -1471 218 171 130
69.8445 -706.754 -1470 219 171 131
72.9869 -706.803 -1470 219 171 130
76.0264 -705.893 -1468 221 170 129
79.004 -704.504 -1465 222 172 131
82.1378 -704.56 -1465 222 173 132
85.2142 -704.136 -1464 223 176 135
88.1664 -702.753 -1461 224 176 137
91.0439 -700.891 -1457 223 175 137
94.2283 -701.436 -1458 224 177 139
97.2178 -700.54 -1456 227 182 144
100.268 -700.127 -1455 230 185 148
103.529 -701.16 -1457 231 188 152
106.725 -701.714 -1458 233 188 152
109.852 -701.789 -1458 234 189 154
112.902 -701.384 -1457 236 191 157
116.029 -701.464 -1457 236 191 159
119.156 -701.545 -1457 235 191 156
122.201 -701.147 -1456 234 191 155
125.243 -700.751 -1455 238 193 155
128.458 -701.32 -1456 240 195 157
131.678 -701.892 -1457 240 196 158
135.089 -703.43 -1460 239 197 159
138.704 -705.934 -1465 240 195 155
142.341 -708.441 -1470 237 192 153
145.902 -710.468 -1474 230 185 146
149.583 -712.981 -1479 210 169 141
153.39 -715.978 -1485 156 122 105
-84.7676 -717.385 -1484 104 99 102
-80.3811 -706.693 -1462 135 119 113
-76.9878 -704.222 -1457 183 156 141
-73.8194 -703.687 -1456 204 173 153
-70.7045 -703.637 -1456 220 178 146
-67.5438 -703.105 -1455 228 184 148
-64.3439 -702.093 -1453 231 186 150
-61.195 -701.567 -1452 233 188 152
-58.0911 -701.525 -1452 234 189 155
-54.8363 -699.554 -1448 236 191 157
-51.6705 -698.551 -1446 239 194 160
-48.6145 -698.999 -1447 243 197 162
-45.5547 -699.449 -1448 242 196 160
-42.4325 -698.936 -1447 242 196 160
-39.3963 -699.874 -1449 243 197 161
-36.2518 -698.882 -1447 244 198 163
-33.1392 -698.375 -1446 242 197 165
-29.9688 -696.421 -1442 241 192 155
-26.9276 -697.367 -1444 240 190 154
-23.845 -697.35 -1444 238 187 152
-20.8202 -699.266 -1448 232 186 148
-17.7418 -699.736 -1449 232 186 148
-14.6491 -699.724 -1449 229 183 145
-11.5646 -700.198 -1450 222 180 146
-8.48175 -701.157 -1452 219 176 141
-5.39041 -702.118 -1454 218 174 138
-2.29234 -703.564 -1457 221 173 132
0.818702 -705.012 -1460 219 169 128
3.94256 -706.463 -1463 217 167 125
7.07925 -707.915 -1466 218 170 130
10.2497 -710.819 -1472 220 170 128
13.4276 -712.758 -1476 219 168 125
16.6227 -714.701 -1480 214 165 120
19.8217 -716.162 -1483 203 155 114
23.0491 -718.108 -1487 189 142 104
26.2233 -718.126 -1487 153 116 90
29.5758 -722.491 -1496 118 98 88
42.6932 -728.388 -1508 101 88 82
45.3662 -719.724 -1490 114 99 98
48.2885 -715.892 -1482 167 124 99
51.3853 -714.96 -1480 187 143 114
54.4741 -714.031 -1478 201 155 119
57.5547 -713.103 -1476 209 161 120
60.6275 -712.178 -1474 215 166 127
63.8219 -712.704 -1475 220 169 132
66.8397 -711.3 -1472 218 172 133
69.9404 -710.864 -1471 220 173 133
73.0374 -710.431 -1470 222 175 134
76.1308 -709.999 -1469 220 173 130
79.0586 -708.12 -1465 218 170 129
82.0825 -707.209 -1463 217 169 128
85.0984 -706.3 -1461 217 169 128
88.0462 -704.91 -1458 220 172 133
91.0444 -704.005 -1456 226 177 139
94.0997 -703.586 -1455 230 184 146
97.2184 -703.653 -1455 235 190 151
100.269 -703.237 -1454 235 190 152
103.458 -703.792 -1455 235 190 154
106.726 -704.833 -1457 235 190 154
109.777 -704.424 -1456 236 192 157
112.903 -704.501 -1456 236 193 159
116.029 -704.581 -1456 238 193 159
119.239 -705.147 -1457 237 193 157
122.202 -704.263 -1455 237 193 156
125.416 -704.833 -1456 240 195 157
128.635 -705.405 -1457 242 197 159
131.86 -705.98 -1458 241 196 159
135.183 -707.042 -1460 240 196 160
138.895 -710.043 -1466 240 195 156
142.343 -711.594 -1469 238 193 154
145.706 -712.663 -1471 231 186 146
149.485 -715.673 -1477 212 170 140
153.083 -717.717 -1481 159 126 107
-84.8837 -721.542 -1485 103 99 100
-80.437 -710.309 -1462 133 118 112
-76.8827 -706.368 -1454 182 155 139
-73.7185 -705.83 -1453 203 171 150
-70.6079 -705.779 -1453 220 177 144
-67.405 -704.76 -1451 230 184 148
-64.3442 -705.2 -1452 235 190 153
-61.1954 -704.67 -1451 238 193 158
-58.0514 -704.143 -1450 241 196 162
-54.7985 -702.162 -1446 241 196 163
-51.6706 -701.639 -1445 244 199 166
-48.5474 -701.119 -1444 245 199 166
-45.5234 -702.057 -1446 244 198 165
-42.4032 -701.541 -1445 242 197 163
-39.3692 -702.483 -1447 243 197 164
-36.2269 -701.486 -1445 242 198 164
-33.1393 -701.462 -1445 240 197 163
-29.9895 -699.984 -1442 240 195 159
-26.9276 -700.449 -1443 237 192 156
-23.8781 -701.402 -1445 236 190 156
-20.849 -703.329 -1449 235 190 154
-17.754 -703.315 -1449 233 187 151
-14.6593 -703.304 -1449 230 185 149
-11.5726 -703.78 -1450 228 183 145
-8.48761 -704.744 -1452 224 179 141
-5.38674 -704.739 -1452 222 177 139
-2.29063 -706.193 -1455 223 175 134
0.818274 -707.648 -1458 219 171 130
3.94539 -710.077 -1463 216 168 127
7.07457 -710.566 -1464 216 168 125
10.2568 -714.455 -1472 218 167 124
13.4369 -716.405 -1476 217 165 121
16.6567 -719.327 -1482 211 159 115
19.8222 -719.34 -1482 199 148 109
23.0807 -722.268 -1488 183 135 99
26.3299 -724.226 -1492 139 110 89
42.5246 -728.716 -1501 99 87 83
45.3673 -722.92 -1489 109 96 97
48.3873 -720.525 -1484 155 116 92
51.4904 -719.589 -1482 179 137 109
54.6225 -719.141 -1481 198 150 115
57.79 -719.18 -1481 208 158 118
60.752 -716.793 -1476 215 163 125
63.8664 -716.351 -1475 220 167 131
66.9318 -715.425 -1473 219 170 132
69.8939 -713.53 -1469 223 174 134
72.9391 -712.609 -1467 226 178 137
76.132 -713.146 -1468 224 178 135
79.0599 -711.257 -1464 224 176 135
82.0835 -710.342 -1462 222 174 133
85.0412 -708.943 -1459 224 176 135
88.0472 -708.031 -1457 231 184 145
90.9203 -706.15 -1453 237 190 151
94.1004 -706.7 -1454 236 190 152
97.1523 -706.281 -1453 236 191 152
100.339 -706.836 -1454 234 189 151
103.53 -707.394 -1455 235 190 152
106.727 -707.953 -1456 237 192 156
109.854 -708.029 -1456 239 194 160
112.904 -707.621 -1455 240 195 161
116.19 -708.674 -1457 239 194 160
119.158 -707.783 -1455 238 193 156
122.203 -707.381 -1454 239 194 156
125.331 -707.468 -1454 241 196 158
128.548 -708.043 -1455 242 196 158
131.952 -709.594 -1458 241 196 158
135.277 -710.661 -1460 241 196 159
138.802 -712.704 -1464 240 195 155
142.249 -714.263 -1467 238 194 153
145.61 -715.338 -1469 230 186 144
149.285 -717.876 -1474 214 171 140
152.57 -718.469 -1475 163 130 109
-84.9431 -725.223 -1485 111 103 99
-80.6034 -714.91 -1464 131 117 114
-77.0422 -710.948 -1456 181 152 134
-73.8208 -709.919 -1454 203 168 146
-70.7544 -710.356 -1455 217 174 140
-67.4985 -708.843 -1452 230 184 147
-64.3891 -708.797 -1452 237 191 154
-61.2381 -708.265 -1451 239 194 160
-58.0519 -707.247 -1449 242 197 163
-54.761 -704.767 -1444 244 199 165
-51.5993 -703.754 -1442 245 200 167
-48.5476 -704.207 -1443 245 200 168
-45.5236 -705.15 -1445 244 199 167
-42.4033 -704.631 -1444 244 199 167
-39.3967 -706.066 -1447 245 200 167
-36.2522 -705.064 -1445 246 201 167
-33.1394 -704.552 -1444 244 200 165
-30.0104 -703.554 -1442 243 197 161
-26.9463 -704.022 -1443 242 196 161
-23.8616 -704.004 -1443 242 196 162
-20.8059 -704.964 -1445 240 195 159
-17.7296 -705.439 -1446 237 192 156
-14.6492 -705.915 -1447 233 190 152
-11.5726 -706.882 -1449 233 188 150
-8.4818 -707.363 -1450 231 186 148
-5.39792 -709.309 -1454 229 184 145
-2.29384 -710.282 -1456 228 180 139
0.819342 -711.745 -1459 223 174 135
3.94535 -713.21 -1462 221 172 134
7.07956 -714.19 -1464 220 169 127
10.2361 -716.148 -1468 219 167 124
13.419 -718.595 -1473 220 168 124
16.6572 -722.508 -1481 210 158 114
19.8761 -724.473 -1485 195 148 108
23.2055 -729.366 -1495 174 131 95
26.6132 -735.238 -1507 135 106 87
45.399 -726.608 -1489 109 94 94
48.5842 -726.64 -1489 139 108 87
51.7004 -725.7 -1487 169 131 106
54.6977 -723.297 -1482 193 146 113
57.8694 -723.336 -1482 207 156 117
60.7945 -720.449 -1476 215 163 125
63.9111 -720.005 -1475 218 165 129
66.8876 -718.098 -1471 221 173 132
69.9428 -717.17 -1469 227 179 138
72.9902 -716.244 -1467 231 183 142
76.1333 -716.296 -1467 234 188 145
79.061 -714.397 -1463 236 189 147
82.0848 -713.477 -1461 235 187 146
85.0424 -712.071 -1458 235 187 146
88.0483 -711.155 -1456 235 189 150
90.9211 -709.264 -1452 238 192 154
94.1018 -709.817 -1453 239 193 155
97.1534 -709.396 -1452 239 194 155
100.271 -709.465 -1452 237 193 154
103.46 -710.026 -1453 236 193 154
106.655 -710.588 -1454 239 194 158
109.704 -710.176 -1453 239 194 159
112.828 -710.254 -1453 239 194 158
115.953 -710.334 -1453 239 194 160
