ply
format ascii 1.0
comment Created by Open3D
element vertex 1401
property double x
property double y
property double z
property uchar red
property uchar green
property uchar blue
end_header
60.4851 452.507 -1627 209 186 164
64.1145 454.756 -1635 210 185 163
67.6117 455.894 -1639 215 188 171
70.9094 455.642 -1638 220 193 178
74.6117 457.896 -1646 230 196 177
77.9683 457.925 -1646 233 200 183
81.5232 459.069 -1650 230 197 182
84.8893 459.1 -1650 227 197 182
88.4164 459.969 -1653 223 194 178
91.6236 459.168 -1650 221 196 179
95.107 459.761 -1652 217 189 173
98.6589 460.633 -1655 223 196 181
102.347 462.063 -1660 180 158 148
105.93 462.938 -1663 108 92 91
-53.3497 459.732 -1666 86 70 75
-49.7779 458.056 -1660 114 90 90
-46.147 455.555 -1651 174 142 138
-42.6309 453.882 -1645 205 174 164
-39.1874 452.763 -1641 215 186 177
-35.7386 451.37 -1636 218 191 188
-32.3699 450.805 -1634 227 202 195
-28.9562 449.414 -1629 255 243 235
-25.6734 449.955 -1631 243 224 214
-22.3004 448.843 -1627 235 216 206
-19.0022 449.111 -1628 235 217 206
-15.6808 448.828 -1627 236 219 212
-12.3713 448.823 -1627 239 222 214
-8.98387 444.957 -1613 245 227 217
-5.70292 444.954 -1613 246 231 222
-2.4207 444.677 -1612 246 234 225
0.858688 444.952 -1613 243 231 225
4.13959 444.953 -1613 242 232 225
7.45732 447.162 -1621 243 234 226
10.7544 447.166 -1621 238 231 220
14.0257 446.343 -1618 230 225 213
17.2957 445.797 -1616 223 223 210
20.5576 445.253 -1614 221 221 214
23.8116 444.71 -1612 229 229 223
27.0408 443.892 -1609 252 253 253
30.2391 442.799 -1605 251 254 252
33.5258 443.087 -1606 250 253 251
36.8629 443.928 -1609 255 255 254
40.3619 446.426 -1618 253 252 252
43.6013 445.89 -1616 247 247 249
46.8618 445.631 -1615 244 239 237
50.2119 446.202 -1617 229 223 217
53.4711 445.946 -1616 227 216 199
56.7972 446.242 -1617 234 216 199
60.2019 447.093 -1620 234 214 196
63.9723 450.428 -1632 232 209 190
67.3797 451.005 -1634 236 211 191
71.0556 453.24 -1642 245 216 197
74.4926 453.82 -1644 252 218 199
77.8912 454.125 -1645 252 220 203
81.3438 454.707 -1647 250 220 205
84.8054 455.291 -1649 248 221 207
88.2757 455.876 -1651 241 214 200
91.6439 455.91 -1651 230 206 191
95.0706 456.222 -1652 228 202 183
98.6213 457.088 -1655 230 205 186
102.247 458.23 -1659 211 192 179
105.953 459.651 -1664 133 117 111
-57.5718 463.036 -1691 154 129 129
-53.4576 457.265 -1670 119 89 91
-49.729 454.234 -1659 129 95 94
-46.0177 450.93 -1647 180 143 139
-42.5371 449.545 -1642 202 176 169
-39.1248 448.708 -1639 217 193 186
-35.7032 447.599 -1635 224 203 199
-32.3576 447.312 -1634 229 211 207
-28.892 445.111 -1626 252 237 233
-25.6323 445.922 -1629 254 246 241
-22.2783 445.092 -1626 252 242 237
-18.9951 445.631 -1628 251 246 240
-15.6364 444.256 -1623 252 246 243
-12.3667 445.346 -1627 253 248 244
-8.98616 441.784 -1614 253 251 244
-5.7043 441.781 -1614 250 253 246
-2.41819 440.958 -1611 249 254 248
0.858899 441.779 -1614 249 254 250
4.1405 441.78 -1614 249 254 251
7.44512 443.151 -1619 249 255 251
10.7239 442.607 -1617 245 254 253
13.9858 441.79 -1614 243 253 252
17.2677 441.796 -1614 232 244 241
20.4735 440.161 -1608 220 235 234
23.7582 440.443 -1609 232 247 247
26.9802 439.631 -1606 237 250 254
30.2088 439.095 -1604 246 253 254
33.4715 439.107 -1604 249 254 253
36.826 440.215 -1608 254 252 250
40.1971 441.325 -1612 254 253 252
43.6117 442.709 -1617 250 250 250
46.844 442.179 -1615 251 249 247
50.1618 442.471 -1616 255 253 251
53.4508 442.491 -1616 255 251 246
56.8107 443.059 -1618 253 243 236
60.1419 443.355 -1619 249 237 229
63.8698 446.391 -1630 249 232 222
67.3129 447.237 -1633 251 233 223
70.8123 448.359 -1637 253 234 223
74.3738 449.756 -1642 249 228 220
77.7196 449.784 -1642 250 228 218
81.2143 450.636 -1645 249 225 213
84.5676 450.668 -1645 252 223 208
88.1354 451.796 -1649 244 217 202
91.6092 452.378 -1651 237 213 197
95.092 452.961 -1653 236 212 195
98.7031 454.094 -1657 241 217 200
102.331 455.228 -1661 225 205 190
105.467 454.171 -1657 155 134 125
-61.1717 460.806 -1696 216 183 179
-57.5162 459.154 -1690 207 167 161
-53.4696 453.971 -1671 191 145 142
-49.6206 449.877 -1656 161 119 114
-45.8888 446.327 -1643 187 148 142
-42.4176 444.952 -1638 224 203 198
-39.0147 444.122 -1635 253 236 231
-35.6462 443.565 -1633 254 242 238
-32.3059 443.281 -1632 254 244 243
-28.9523 442.726 -1630 255 246 246
-25.6384 442.716 -1630 252 253 253
-22.2152 440.534 -1622 251 254 254
-19.023 442.971 -1631 249 253 253
-15.6113 440.249 -1621 249 255 255
-12.3089 439.972 -1620 242 252 251
-8.97157 437.795 -1612 234 251 247
-5.70237 438.336 -1614 231 252 249
-2.41738 437.519 -1611 231 253 250
0.858048 438.062 -1613 229 252 251
4.13372 437.792 -1612 228 252 252
7.43774 439.423 -1618 229 252 253
10.7066 438.612 -1615 226 254 255
13.9806 438.345 -1614 217 245 251
17.2397 437.808 -1612 208 236 239
20.4529 436.457 -1607 213 242 248
23.6607 435.379 -1603 219 248 254
26.886 434.845 -1601 229 250 255
30.1033 434.312 -1599 240 252 253
33.3756 434.596 -1600 249 255 255
36.7206 435.696 -1604 254 253 251
40.0822 436.796 -1608 254 254 253
43.5414 438.714 -1615 253 253 253
46.7975 438.459 -1614 249 249 248
50.143 439.02 -1616 251 251 251
53.4309 439.04 -1616 251 253 253
56.7543 439.332 -1617 252 254 253
60.0823 439.626 -1618 253 255 253
63.6889 441.823 -1626 254 252 248
67.164 442.934 -1630 254 250 246
70.656 444.047 -1634 252 247 243
74.0289 444.346 -1635 250 243 241
77.5485 445.461 -1639 241 230 225
80.8876 445.491 -1639 234 218 209
84.2788 445.794 -1640 241 216 201
87.7817 446.641 -1643 243 217 201
91.353 447.762 -1647 242 218 203
94.7688 448.069 -1648 239 219 203
98.4873 449.737 -1654 243 223 207
101.985 450.318 -1656 231 208 193
105.3 450.085 -1655 184 159 146
-64.9043 459.368 -1704 158 136 141
-61.3293 458.536 -1701 176 132 125
-57.6649 456.896 -1695 215 165 155
-53.6735 452.293 -1678 204 154 144
-49.8717 448.77 -1665 189 145 135
-45.9835 443.901 -1647 215 176 166
-42.4536 441.998 -1640 242 227 222
-39.0717 441.444 -1638 255 250 246
-35.6548 440.352 -1634 254 251 247
-32.2742 439.531 -1631 252 252 252
-28.9238 438.981 -1629 251 252 254
-25.5975 438.701 -1628 241 253 254
-22.2206 437.345 -1623 238 252 253
-18.9459 437.876 -1625 233 249 250
-15.596 436.523 -1620 231 252 253
-12.3271 437.326 -1623 227 249 250
-8.96833 434.358 -1612 223 250 249
-5.69672 434.625 -1613 214 248 247
-2.41638 434.084 -1611 209 244 244
0.857731 434.623 -1613 206 245 244
4.13229 434.355 -1612 207 246 245
7.4212 435.165 -1615 207 246 245
10.6958 434.899 -1614 201 243 248
13.9405 433.826 -1610 198 239 244
17.18 433.023 -1607 201 240 243
20.369 431.413 -1601 211 246 250
23.6223 431.422 -1601 217 250 255
26.8088 430.353 -1597 225 249 254
30.0546 430.364 -1597 239 253 254
33.3213 430.645 -1598 247 255 255
36.6611 431.736 -1602 253 253 252
40.0175 432.828 -1606 252 252 251
43.4173 434.191 -1611 252 253 253
46.693 434.208 -1611 252 252 252
50.0933 435.304 -1615 250 251 252
53.3778 435.323 -1615 246 252 255
56.698 435.613 -1616 247 253 255
60.0598 436.174 -1618 247 253 255
63.7435 438.893 -1628 248 253 254
67.0979 439.187 -1629 247 253 254
70.5431 440.021 -1632 246 254 254
74.0012 440.857 -1635 251 254 254
77.4251 441.424 -1637 250 250 248
80.9068 442.263 -1640 248 242 236
84.3502 442.833 -1642 253 235 220
87.8558 443.674 -1645 247 227 212
91.2079 443.707 -1645 241 220 206
94.7334 444.551 -1648 244 225 211
98.3314 445.666 -1652 244 226 212
101.762 445.973 -1653 233 207 193
105.006 445.472 -1651 198 170 154
-68.6673 457.901 -1712 164 158 172
-65.185 457.876 -1712 174 145 146
-61.595 457.051 -1709 172 122 111
-57.9497 455.692 -1704 210 154 140
-54.0056 451.66 -1689 214 163 148
-50.0929 447.362 -1673 218 173 160
-46.106 441.729 -1652 234 195 184
-42.5415 439.574 -1644 250 235 231
-39.0574 437.954 -1638 254 247 243
-35.6417 436.871 -1634 252 252 248
-32.282 436.324 -1632 246 252 253
-28.9131 435.511 -1629 242 252 254
-25.6037 435.501 -1629 232 250 252
-22.2398 434.423 -1625 226 247 248
-18.9274 434.148 -1624 221 245 245
-15.5806 432.805 -1619 214 244 245
-12.2846 432.532 -1618 211 242 243
-8.97048 431.192 -1613 209 242 243
-5.69814 431.457 -1614 199 241 241
-2.41709 430.92 -1612 196 240 240
0.857418 431.188 -1613 191 241 240
4.13579 431.456 -1614 186 236 235
7.41387 431.458 -1614 184 234 233
10.6854 431.194 -1613 189 238 242
13.9354 430.397 -1610 195 243 246
17.1629 429.333 -1606 201 247 248
20.3615 428.003 -1601 215 251 253
23.5547 426.942 -1597 219 252 255
26.8157 427.219 -1598 231 253 255
30.0058 426.427 -1595 239 254 255
33.2673 426.706 -1596 243 254 255
36.6246 428.056 -1601 252 254 254
39.9529 428.872 -1604 251 253 253
43.3204 429.957 -1608 250 253 253
46.6178 430.241 -1609 254 254 254
50.0127 431.328 -1613 251 251 252
53.3581 431.882 -1615 249 251 255
56.7121 432.437 -1617 247 250 252
60.1119 433.261 -1620 246 250 252
63.681 435.156 -1627 247 253 254
66.9906 435.18 -1627 246 254 254
70.3875 435.74 -1629 245 254 254
73.8834 436.837 -1633 248 254 250
77.2546 437.132 -1634 249 254 250
80.6304 437.429 -1635 252 254 250
84.1136 438.262 -1638 255 251 243
87.5028 438.561 -1639 253 243 234
91.0634 439.664 -1643 250 236 226
94.411 439.699 -1643 247 232 221
98.3546 442.41 -1653 243 227 215
101.909 443.25 -1656 229 204 193
105.603 444.627 -1661 184 156 143
-72.6715 457.732 -1725 160 169 189
-68.8025 455.318 -1716 177 172 185
-65.2752 455.028 -1715 183 150 147
-61.6445 453.944 -1711 199 146 132
-58.2004 454.187 -1712 234 176 160
-54.2415 450.187 -1697 223 173 154
-50.1643 444.597 -1676 200 156 141
-46.1728 439.009 -1655 186 148 135
-42.5517 436.341 -1645 224 206 203
-39.0193 434.204 -1637 253 250 247
-35.6504 433.66 -1635 247 250 247
-32.2703 432.852 -1632 239 250 251
-28.9026 432.045 -1629 234 248 249
-25.563 431.504 -1627 226 248 247
-22.2044 430.435 -1623 222 247 245
-18.8972 430.162 -1622 217 245 243
-15.5845 429.626 -1620 210 244 244
-12.2725 428.825 -1617 208 242 243
-8.97285 428.025 -1614 205 240 242
-5.69252 427.758 -1613 187 234 233
-2.4163 427.491 -1612 177 227 225
0.856375 427.491 -1612 172 228 225
4.13438 428.022 -1614 175 230 228
7.41116 428.024 -1614 186 239 239
10.6681 427.232 -1611 194 244 245
13.913 426.441 -1608 199 248 248
17.1353 425.386 -1604 206 252 251
20.3286 424.067 -1599 219 251 251
23.546 423.544 -1597 225 253 253
26.7724 423.288 -1596 237 253 254
30.0135 423.298 -1596 241 254 255
33.2551 423.31 -1596 244 255 255
36.5655 424.119 -1599 250 254 255
39.8635 424.663 -1601 250 254 255
43.2508 426.004 -1606 251 254 254
46.5718 426.551 -1608 251 253 253
50.0254 428.161 -1614 251 252 252
53.3716 428.71 -1616 249 251 252
56.8316 430.057 -1621 246 249 248
60.2011 430.609 -1623 239 242 241
63.5402 430.897 -1624 231 240 238
66.9249 431.451 -1626 230 241 238
70.2753 431.741 -1627 230 241 239
73.585 431.768 -1627 239 245 237
77.0371 432.591 -1630 244 250 244
80.4035 432.886 -1631 248 254 252
83.7747 433.181 -1632 252 254 251
87.3107 434.274 -1636 253 252 248
90.8637 435.369 -1640 255 249 243
94.319 435.933 -1642 254 245 236
98.4374 439.42 -1655 243 231 221
102.241 441.315 -1662 232 210 202
105.882 442.416 -1666 185 161 150
110.132 445.908 -1679 173 146 132
-72.4767 453.011 -1721 153 167 190
-68.8577 452.195 -1718 170 170 183
-65.3658 452.171 -1718 193 163 158
-61.7302 451.095 -1714 224 171 156
-58.1454 450.284 -1711 252 196 178
-54.3177 447.369 -1700 241 189 172
-50.3556 442.877 -1683 209 162 148
-46.3235 437.07 -1661 191 148 135
-42.5881 433.37 -1647 215 192 187
-39.0766 431.513 -1640 253 249 245
-35.6811 430.711 -1637 250 249 247
-32.2585 429.383 -1632 239 249 250
-28.9098 428.846 -1630 231 245 246
-25.5537 428.046 -1627 226 248 246
-22.1963 426.986 -1623 227 250 248
-18.8786 426.452 -1621 226 251 248
-15.5789 426.183 -1620 221 252 252
-12.2605 425.125 -1616 218 250 250
-8.97524 424.859 -1615 210 246 244
-5.69045 424.33 -1613 194 238 236
-2.41532 424.065 -1612 184 232 230
0.855535 423.802 -1611 184 235 234
4.12766 424.066 -1612 191 241 241
7.38551 423.279 -1609 199 250 250
10.631 422.493 -1606 202 249 251
13.8647 421.708 -1603 204 251 252
17.0862 420.925 -1600 209 254 253
20.3085 420.405 -1598 225 254 255
23.5522 420.413 -1598 232 255 255
26.7626 419.896 -1596 242 255 255
30.0027 419.906 -1596 243 254 255
33.243 419.918 -1596 244 255 255
36.5293 420.457 -1598 250 254 255
39.7744 420.47 -1598 250 254 255
43.1003 421.275 -1601 249 254 255
46.468 422.344 -1605 251 254 254
49.8832 423.677 -1610 251 254 254
53.3191 425.011 -1615 247 252 252
56.8108 426.61 -1621 245 249 248
60.1051 426.631 -1621 240 244 242
63.478 427.18 -1623 230 244 239
66.7771 427.204 -1623 229 244 239
70.1203 427.492 -1624 229 244 239
73.4226 427.518 -1624 240 245 237
76.8673 428.335 -1627 245 251 245
80.2264 428.627 -1628 248 255 254
83.6928 429.446 -1631 247 253 254
87.1722 430.267 -1634 248 253 254
90.7754 431.616 -1639 255 253 250
94.2273 432.176 -1641 255 252 246
98.2232 435.108 -1652 253 245 237
102.019 436.988 -1659 246 232 228
105.59 437.816 -1662 229 213 207
109.895 441.543 -1676 196 178 169
-76.037 449.903 -1723 152 170 195
-72.7453 451.182 -1728 148 166 190
-69.0733 450.113 -1724 165 169 182
-65.4943 449.566 -1722 192 168 163
-61.996 449.543 -1722 227 176 159
-58.3283 448.217 -1717 240 184 166
-54.6175 446.369 -1710 221 168 152
-50.6066 441.652 -1692 194 146 131
-46.502 435.37 -1668 194 149 135
-42.6761 430.917 -1651 210 183 177
-39.0388 427.77 -1639 255 249 244
-35.6247 426.713 -1635 252 251 248
-32.2272 425.657 -1631 238 249 249
-28.864 424.863 -1628 230 245 245
-25.4661 423.287 -1622 227 249 247
-22.1474 422.757 -1620 228 252 250
-18.837 422.228 -1618 228 252 250
-15.5541 422.222 -1618 224 253 253
-12.2638 421.956 -1617 220 251 251
-8.97764 421.691 -1616 212 247 246
-5.68838 420.905 -1613 202 243 241
-2.41454 420.643 -1612 200 243 241
0.855228 420.382 -1611 203 247 247
4.12351 420.383 -1611 205 250 251
7.37825 419.602 -1608 205 251 252
10.6207 418.823 -1605 204 250 254
13.8424 417.783 -1601 205 251 254
17.0695 417.267 -1599 208 253 253
20.2757 416.491 -1596 224 254 255
23.5289 416.759 -1597 232 255 255
26.7529 416.508 -1596 243 255 255
29.9919 416.518 -1596 243 254 255
33.2101 416.268 -1595 243 255 255
36.4933 416.803 -1597 250 254 255
39.7351 416.816 -1597 249 254 255
43.0579 417.614 -1600 248 254 255
46.3645 418.152 -1602 250 254 255
49.8343 419.997 -1609 249 254 255
53.234 421.059 -1613 245 254 255
56.7203 422.645 -1619 244 252 252
60.1575 423.711 -1623 242 249 249
63.455 423.733 -1623 231 251 246
66.7532 423.756 -1623 232 252 246
70.0516 423.781 -1623 232 252 245
73.4865 424.59 -1626 242 250 246
76.934 425.4 -1629 246 254 251
80.2468 425.429 -1629 247 255 254
83.7139 426.242 -1632 248 254 254
87.1407 426.795 -1634 248 254 254
90.6317 427.61 -1637 252 253 252
94.1932 428.688 -1641 253 253 248
97.7717 429.768 -1645 255 253 247
101.613 431.894 -1653 255 253 252
105.552 434.283 -1662 254 251 248
109.069 434.844 -1664 235 228 223
113.203 437.759 -1675 137 135 143
-76.098 446.765 -1725 148 166 192
-72.8035 448.034 -1730 147 164 188
-69.249 447.749 -1729 164 168 183
-65.5089 446.172 -1723 188 169 167
-62.0458 446.408 -1724 225 177 163
-58.4434 445.61 -1721 226 173 156
-54.6938 443.518 -1713 205 152 136
-50.6782 438.839 -1695 193 145 129
-46.5969 432.867 -1672 194 150 134
-42.6868 427.674 -1652 206 177 170
-39.0248 424.294 -1639 254 246 240
-35.6338 423.504 -1636 251 251 247
-32.2355 422.456 -1632 235 248 246
-28.8892 421.928 -1630 227 245 243
-25.4884 420.365 -1624 223 249 247
-22.1668 419.839 -1622 226 252 250
-18.8419 419.055 -1619 226 252 250
-15.5389 418.532 -1617 223 251 251
-12.2594 418.527 -1617 219 249 249
-8.97986 418.523 -1617 214 248 248
-5.69359 418.003 -1615 215 250 249
-2.41676 417.742 -1614 218 253 253
0.855455 417.225 -1612 217 253 254
4.12213 416.967 -1611 215 254 255
7.3756 416.192 -1608 209 251 253
10.6168 415.419 -1605 197 250 253
13.8547 414.906 -1603 192 243 245
17.0846 414.393 -1601 196 243 244
20.3065 413.883 -1599 216 250 252
23.55 413.89 -1599 227 255 255
26.7936 413.899 -1599 240 255 255
30.0186 413.651 -1598 240 254 255
33.24 413.403 -1597 241 254 255
36.5031 413.674 -1598 248 254 255
39.7706 413.947 -1599 248 254 255
43.0695 414.479 -1601 248 254 255
46.3768 415.013 -1603 249 254 255
49.8165 416.584 -1609 249 254 255
53.2809 418.155 -1615 248 254 255
56.7351 419.47 -1620 248 253 255
60.062 419.749 -1621 245 250 252
63.3541 419.771 -1621 233 248 247
66.6469 419.794 -1621 232 248 245
70.0266 420.337 -1623 233 249 244
73.3699 420.621 -1624 243 251 252
76.8593 421.684 -1628 246 254 255
80.218 421.971 -1629 247 255 255
83.5814 422.259 -1630 248 254 253
87.003 422.808 -1632 249 254 253
90.544 423.876 -1636 252 255 253
93.9873 424.427 -1638 251 252 249
97.5585 425.498 -1642 253 253 250
101.269 427.088 -1648 251 252 253
104.879 428.161 -1652 252 252 253
108.637 429.754 -1658 238 236 237
112.69 432.386 -1668 137 139 146
-72.5254 442.825 -1724 147 161 186
-69.0243 442.8 -1724 163 165 183
-65.4098 442.006 -1721 186 169 173
-62.0239 442.754 -1724 224 178 168
-58.4226 441.963 -1721 213 163 149
-54.6745 439.888 -1713 208 156 140
-50.7799 436.275 -1699 209 162 146
-46.5804 429.324 -1672 199 156 140
-42.5167 422.633 -1646 197 173 163
-38.9396 420.051 -1636 253 246 237
-35.5777 419.524 -1634 247 252 247
-32.2044 418.742 -1631 231 250 246
-28.8435 417.961 -1628 221 244 241
-25.4794 416.925 -1624 214 245 244
-22.159 416.403 -1622 217 249 248
-18.8469 415.882 -1620 218 249 249
-15.5527 415.62 -1619 219 249 249
-12.2626 415.358 -1618 219 250 250
-8.98786 415.611 -1619 219 252 253
-5.69508 414.838 -1616 224 254 255
-2.4158 414.323 -1614 226 255 255
0.855683 414.067 -1613 224 251 255
4.12056 413.554 -1611 217 251 254
7.36839 412.529 -1607 207 247 250
10.6131 412.019 -1605 185 245 242
13.8325 410.997 -1601 173 231 229
17.0679 410.745 -1600 181 233 232
20.3247 411.009 -1601 208 248 250
23.5564 410.76 -1600 221 255 255
26.784 410.512 -1599 233 252 255
30.0268 410.522 -1599 236 253 255
33.249 410.276 -1598 239 255 255
36.4902 410.289 -1598 248 254 255
39.7317 410.302 -1598 248 254 255
43.0004 410.573 -1599 249 254 255
46.3603 411.616 -1603 248 254 255
49.706 412.404 -1606 248 254 255
53.1961 414.219 -1613 250 253 255
56.6799 415.78 -1619 250 254 255
60.0406 416.314 -1621 248 253 255
63.2927 416.079 -1620 242 251 253
66.6645 416.615 -1622 242 251 252
70.045 417.153 -1624 242 252 250
73.4341 417.692 -1626 247 253 255
76.8794 418.49 -1629 247 254 255
80.3373 419.288 -1632 247 254 255
83.6544 419.317 -1632 249 254 253
87.1319 420.118 -1635 250 254 253
90.5673 420.663 -1637 252 254 252
93.8966 420.696 -1637 252 255 252
97.5238 422.015 -1642 251 253 250
101.111 423.078 -1646 250 253 253
104.398 422.857 -1645 252 254 255
108.27 424.951 -1653 213 215 216
112.245 427.304 -1662 116 120 127
-72.4158 438.665 -1722 152 162 188
-68.88 438.386 -1721 165 165 185
-65.4629 438.872 -1723 185 168 178
-62.0381 439.359 -1725 224 181 173
-58.3344 437.81 -1719 209 162 151
-54.6872 436.517 -1714 210 159 144
-50.792 432.933 -1700 220 175 159
-46.4248 424.512 -1667 203 163 147
-42.6051 420.168 -1650 191 167 158
-38.9022 416.334 -1635 253 242 234
-35.5435 415.811 -1633 245 250 244
-32.1931 415.29 -1631 230 251 246
-28.8335 414.516 -1628 221 247 243
-25.4861 413.743 -1625 217 247 243
-22.1649 413.225 -1623 219 250 249
-18.852 412.709 -1621 219 251 251
-15.5473 412.194 -1619 220 251 251
-12.2736 412.443 -1620 223 253 253
-8.97922 411.93 -1618 225 254 255
-5.69305 411.419 -1616 229 254 255
-2.41504 410.908 -1614 228 252 255
0.855383 410.653 -1613 225 249 254
4.11409 409.636 -1609 215 249 253
7.36578 409.129 -1607 200 243 246
10.6026 408.368 -1604 171 235 231
13.8448 408.118 -1603 173 235 231
17.0831 407.868 -1602 188 243 241
20.3302 407.875 -1602 210 253 253
23.5629 407.628 -1601 215 254 255
26.8082 407.637 -1601 230 252 255
30.035 407.392 -1600 235 254 255
33.258 407.149 -1599 237 254 255
36.5002 407.161 -1599 248 254 255
39.7675 407.429 -1600 249 254 255
43.0122 407.444 -1600 250 254 255
46.373 408.478 -1604 248 254 255
49.7503 409.513 -1608 248 254 255
53.1773 410.805 -1613 250 254 255
56.5552 411.588 -1616 249 254 255
59.9454 412.372 -1619 248 254 255
63.2704 412.649 -1620 248 254 255
66.6411 413.181 -1622 247 253 254
70.0635 413.969 -1625 248 255 254
73.4534 414.504 -1627 249 255 255
76.8523 415.04 -1629 248 254 255
80.2598 415.577 -1631 247 254 255
83.6249 415.86 -1632 248 254 255
86.9414 415.89 -1632 249 254 254
90.4247 416.686 -1635 251 252 249
93.8062 416.973 -1636 252 253 249
97.3707 418.026 -1640 252 254 249
100.83 418.57 -1642 251 254 250
104.424 419.626 -1646 250 254 252
107.905 420.173 -1648 197 202 202
112.137 423.526 -1661 110 117 123
-68.8961 434.998 -1722 160 164 183
-65.4781 435.48 -1724 182 168 176
-61.9806 435.458 -1724 220 178 172
-58.3479 434.427 -1720 213 167 158
-54.7639 433.65 -1717 211 163 153
-50.8341 429.843 -1702 230 186 175
-46.4922 421.745 -1670 208 167 155
-42.5128 415.921 -1647 193 166 162
-38.9125 413.129 -1636 254 236 232
-35.4876 411.854 -1631 249 246 240
-32.1622 411.59 -1630 229 248 242
-28.8234 411.074 -1628 224 249 243
-25.4929 410.56 -1626 225 247 238
-22.1572 409.794 -1623 226 250 245
-18.8687 409.787 -1623 227 253 252
-15.5515 409.023 -1620 226 252 254
-12.2692 409.019 -1620 228 252 255
-8.97615 408.51 -1618 230 252 255
-5.68752 407.75 -1615 227 252 255
-2.41578 407.749 -1615 227 252 255
0.855086 407.244 -1613 218 251 254
4.12021 406.992 -1612 199 244 247
7.37235 406.237 -1609 172 229 229
10.6188 405.735 -1607 149 211 210
13.8574 405.234 -1605 174 234 234
17.0772 404.482 -1602 199 249 251
20.3232 404.488 -1602 211 252 255
23.5398 403.991 -1600 215 254 255
26.7988 404.252 -1601 225 253 255
30.0245 404.01 -1600 232 252 255
33.2673 404.021 -1600 236 251 255
36.5103 404.033 -1600 245 251 254
39.7784 404.299 -1601 247 252 254
43.0242 404.313 -1601 248 252 253
46.3279 404.834 -1603 247 253 255
49.6711 405.608 -1606 247 254 255
53.0599 406.636 -1610 247 253 253
56.4654 407.665 -1614 248 253 254
59.9986 409.454 -1621 250 255 255
63.2873 409.475 -1621 246 251 253
66.7 410.255 -1624 248 253 254
70.1253 411.037 -1627 247 254 254
73.5183 411.567 -1629 249 253 255
76.8727 411.846 -1630 248 252 254
80.281 412.379 -1632 246 253 255
83.5958 412.407 -1632 247 254 255
87.0178 412.942 -1634 247 253 255
90.3932 413.226 -1635 251 252 250
93.7163 413.258 -1635 252 253 249
97.2774 414.302 -1639 252 254 248
100.733 414.842 -1641 251 255 248
104.261 415.636 -1644 246 250 246
107.867 416.684 -1648 181 186 186
112.301 420.768 -1664 103 112 120
-68.6323 429.857 -1716 156 164 183
-65.2656 430.586 -1719 180 171 179
-61.8514 431.065 -1721 210 172 164
-58.294 430.543 -1719 218 175 166
-54.6175 429.021 -1713 219 174 165
-50.727 425.497 -1699 232 190 178
-46.4763 418.217 -1670 206 167 152
-42.5757 413.194 -1650 194 165 158
-38.9466 410.175 -1638 250 232 224
-35.4972 408.66 -1632 238 247 238
-32.1906 408.648 -1632 225 247 239
-28.8312 407.886 -1629 224 251 242
-25.5156 407.627 -1628 221 253 248
-22.1769 406.867 -1625 226 255 254
-18.8971 407.111 -1626 226 254 255
-15.5654 406.103 -1622 223 251 254
-12.2802 406.098 -1622 226 255 255
-8.9842 405.594 -1620 225 254 254
-5.69277 404.841 -1617 211 253 253
-2.41483 404.338 -1615 193 239 242
0.855321 404.088 -1614 163 217 220
4.12143 403.838 -1613 151 206 208
7.37436 403.089 -1610 149 205 207
10.6284 402.842 -1609 168 226 227
13.8699 402.345 -1607 190 247 248
17.0927 401.6 -1604 202 253 254
20.3415 401.606 -1604 208 250 253
23.561 401.113 -1602 215 254 255
26.8231 401.372 -1603 225 253 255
30.0329 400.881 -1601 230 252 255
33.2974 401.142 -1602 235 251 255
36.5204 400.904 -1601 243 251 252
39.7895 401.167 -1602 244 251 252
43.0361 401.182 -1602 245 249 250
46.3697 401.948 -1605 243 250 252
49.6849 402.466 -1607 245 252 253
52.9757 402.734 -1608 247 255 254
56.411 404.005 -1613 249 254 254
59.7928 404.776 -1616 250 254 254
63.1484 405.298 -1618 251 254 255
66.6769 406.824 -1624 247 253 254
70.1011 407.599 -1627 245 254 254
73.4928 408.125 -1629 250 254 255
76.799 408.151 -1629 251 255 255
80.2042 408.679 -1631 248 254 255
83.4645 408.456 -1630 246 253 254
86.8279 408.736 -1631 246 254 254
90.362 409.769 -1635 250 254 254
93.6838 409.801 -1635 250 253 252
97.3626 411.338 -1641 250 253 251
100.575 410.87 -1639 247 255 250
104.161 411.908 -1643 244 247 245
107.83 413.199 -1648 176 175 177
112.194 416.998 -1663 104 113 122
-68.409 424.993 -1711 150 160 181
-65.1675 426.461 -1717 174 172 180
-61.6507 426.191 -1716 204 170 162
-58.0367 425.177 -1712 212 173 162
-54.4714 424.413 -1709 233 190 179
-50.5604 420.67 -1694 235 195 180
-46.3769 413.949 -1667 210 172 155
-42.5095 409.216 -1648 198 167 155
-38.9096 406.47 -1637 244 228 217
-35.4416 404.72 -1630 225 247 238
-32.1599 404.956 -1631 214 246 236
-28.8037 404.201 -1628 216 251 241
-25.5069 404.192 -1628 208 253 251
-22.1966 403.936 -1627 214 253 253
-18.8906 403.68 -1626 218 250 251
-15.5792 403.178 -1624 211 242 245
-12.2836 402.925 -1623 204 238 241
-8.98652 402.425 -1621 186 226 229
-5.69783 401.926 -1619 158 214 214
-2.41708 401.428 -1617 149 211 209
0.855358 400.931 -1615 153 222 221
4.11735 400.187 -1612 175 235 236
7.3718 399.693 -1610 192 244 246
10.618 399.199 -1608 194 249 250
13.8564 398.707 -1606 197 251 252
17.0975 398.464 -1605 199 251 253
20.3346 398.222 -1604 209 253 255
23.5824 398.23 -1604 214 255 255
26.8305 398.238 -1604 229 254 255
30.0601 398 -1603 232 252 255
33.2859 397.762 -1602 235 252 255
36.5536 398.023 -1603 241 253 252
39.8007 398.036 -1603 241 251 250
43.0481 398.05 -1603 242 248 247
46.3538 398.562 -1605 242 248 247
49.668 399.075 -1607 245 251 251
52.9906 399.589 -1609 247 254 255
56.3917 400.601 -1613 248 254 255
59.8094 401.614 -1617 249 254 255
63.1658 402.132 -1619 247 253 255
66.6541 403.396 -1624 244 252 254
70.0771 404.164 -1627 243 253 255
73.4677 404.686 -1629 249 254 255
76.7255 404.463 -1628 249 255 255
80.1274 404.987 -1630 246 254 255
83.5894 405.76 -1633 250 255 255
86.9046 405.789 -1633 249 254 253
90.3862 406.565 -1636 249 252 249
93.8809 407.342 -1639 251 253 251
97.3291 407.872 -1641 254 255 255
100.602 407.657 -1640 248 255 251
104.189 408.686 -1644 241 244 243
107.924 410.214 -1650 169 166 170
112.358 414.229 -1666 108 117 128
-68.6256 422.863 -1717 146 158 179
-65.3351 424.072 -1722 161 166 175
-61.7376 423.312 -1719 203 177 169
-58.0848 422.06 -1714 212 181 170
-54.5166 421.302 -1711 233 193 180
-50.5136 416.853 -1693 235 195 179
-46.4168 410.927 -1669 214 175 156
-42.5725 406.48 -1651 199 163 151
-38.944 403.512 -1639 239 224 213
-35.473 401.776 -1632 214 248 241
-32.149 401.519 -1631 199 249 239
-28.794 400.77 -1628 190 244 233
-25.4825 400.515 -1627 190 242 247
-22.1619 400.014 -1625 198 245 248
-18.861 399.761 -1624 199 241 243
-15.5452 399.017 -1621 197 237 237
-12.2794 399.505 -1623 196 237 237
-8.98352 399.009 -1621 192 236 234
-5.7029 399.006 -1621 195 240 237
-2.41933 398.513 -1619 201 247 244
0.856656 398.266 -1618 202 248 247
4.12369 397.529 -1615 201 249 247
7.37842 396.792 -1612 201 252 249
10.6277 396.303 -1610 196 251 251
13.8689 395.815 -1608 198 252 252
17.113 395.574 -1607 201 252 252
20.3403 395.088 -1605 210 252 253
23.5892 395.095 -1605 214 253 255
26.8382 395.104 -1605 227 251 254
30.05 394.621 -1603 232 253 255
33.2954 394.632 -1603 234 253 255
36.5639 394.89 -1604 238 253 253
39.8369 395.149 -1605 239 252 252
43.0873 395.163 -1605 242 251 250
46.3958 395.671 -1607 243 251 251
49.713 396.179 -1609 244 251 251
52.9726 396.197 -1609 245 254 254
56.3027 396.708 -1611 245 253 254
59.6781 397.466 -1614 246 253 254
63.0273 397.979 -1616 247 254 254
66.3444 398.248 -1617 234 243 245
69.9241 399.995 -1624 235 246 248
73.3075 400.511 -1626 245 255 253
76.5581 400.29 -1625 246 255 254
79.9036 400.563 -1626 244 254 255
83.4076 401.576 -1630 248 255 255
86.8219 402.098 -1632 248 253 253
90.466 403.606 -1638 250 253 248
93.7917 403.637 -1638 254 253 251
97.474 405.148 -1644 255 252 252
100.691 404.689 -1642 248 255 251
104.09 404.97 -1643 238 241 241
107.691 405.992 -1647 160 157 162
112.05 409.727 -1662 109 117 129
-65.3131 420.445 -1722 149 160 171
-61.4655 417.982 -1712 189 173 169
-57.9299 417.474 -1710 212 191 184
-54.3391 416.478 -1706 232 200 186
-50.4668 413.043 -1692 236 202 186
-46.4568 407.901 -1671 212 178 161
-42.584 403.248 -1652 187 155 143
-38.9784 400.549 -1641 224 217 208
-35.4829 398.584 -1633 188 239 235
-32.1382 398.085 -1631 164 230 225
-28.8374 398.075 -1631 143 212 208
-25.4897 397.333 -1628 158 225 231
-22.1817 397.081 -1627 196 251 254
-18.8779 396.831 -1626 212 255 255
-15.5496 395.848 -1622 215 253 254
-12.2678 395.844 -1622 216 254 254
-8.99162 396.084 -1623 213 252 251
-5.70797 396.082 -1623 213 252 251
-2.42308 395.837 -1622 213 252 251
0.857426 395.348 -1620 212 251 251
4.12219 394.129 -1615 208 252 251
7.3759 393.399 -1612 201 251 248
10.6241 392.914 -1610 198 249 248
13.8643 392.43 -1608 199 250 249
17.1072 392.191 -1607 199 249 248
20.3335 391.709 -1605 207 250 250
23.596 391.96 -1606 214 254 255
26.8125 391.481 -1604 227 252 254
30.0773 391.734 -1605 230 251 255
33.2842 391.257 -1603 234 252 255
36.5517 391.513 -1604 239 252 255
39.8234 391.769 -1605 239 252 254
43.0728 391.783 -1605 241 252 252
46.3803 392.287 -1607 244 253 254
49.6653 392.547 -1608 245 253 254
52.9877 393.052 -1610 243 253 252
56.3186 393.559 -1612 246 254 253
59.695 394.311 -1615 247 254 253
63.0453 394.82 -1617 247 254 254
66.4449 395.574 -1620 233 243 243
69.9435 396.818 -1625 207 219 218
73.2378 396.842 -1625 220 238 232
76.6266 397.355 -1627 237 253 249
79.8769 397.137 -1626 242 254 255
83.4817 398.63 -1632 240 254 255
86.846 398.903 -1633 242 255 255
90.4356 400.154 -1638 249 254 252
93.8175 400.429 -1639 252 253 252
97.3226 401.194 -1642 255 251 251
100.412 400.25 -1638 249 254 251
103.929 401.017 -1641 233 236 237
107.524 402.03 -1645 152 154 159
-65.064 415.369 -1716 145 159 174
-61.2297 412.928 -1706 162 158 159
-57.7751 412.908 -1706 190 182 179
-54.1937 411.921 -1702 209 187 174
-50.4202 409.242 -1691 207 183 170
-46.497 404.87 -1673 187 162 148
-42.7502 401.467 -1659 179 154 145
-39.013 397.581 -1643 215 220 213
-35.5363 395.875 -1636 153 222 219
-32.1867 395.38 -1634 130 210 211
-28.8631 395.128 -1633 136 218 221
-25.5126 394.393 -1630 161 241 247
-22.1607 393.417 -1626 191 253 253
-18.8601 393.169 -1625 209 253 253
-15.5445 392.437 -1622 219 253 255
-12.2638 392.433 -1622 218 251 253
-8.98312 392.429 -1622 218 252 252
-5.70623 392.669 -1623 216 253 252
-2.42065 392.183 -1621 214 252 251
0.857139 391.941 -1620 211 250 251
4.11834 390.49 -1614 208 252 253
7.37339 390.009 -1612 203 251 252
10.6206 389.528 -1610 201 250 249
13.8596 389.048 -1608 200 249 248
17.1122 389.053 -1608 199 249 247
20.3393 388.575 -1606 204 250 249
23.5734 388.341 -1605 208 252 252
26.8036 388.107 -1604 225 249 253
30.0485 388.116 -1604 231 249 255
33.2731 387.885 -1603 234 247 255
36.5394 388.139 -1604 240 250 254
39.8103 388.393 -1605 243 253 255
43.0853 388.649 -1606 245 253 255
46.3936 389.148 -1608 245 252 255
49.6796 389.406 -1609 243 251 255
53.0028 389.907 -1611 241 253 252
56.2649 389.925 -1611 245 254 253
59.6013 390.428 -1613 247 254 254
62.9462 390.933 -1615 245 255 255
66.3409 391.681 -1618 244 254 254
69.9202 393.398 -1625 228 242 242
73.2583 393.664 -1626 197 216 220
76.6481 394.173 -1628 208 230 234
79.9975 394.441 -1629 219 247 249
83.6073 395.921 -1635 230 252 254
87.0827 396.676 -1638 234 255 255
90.571 397.432 -1641 245 254 251
94.0149 397.947 -1643 248 253 251
97.4679 398.463 -1645 251 253 250
100.623 397.769 -1642 249 255 253
104.021 398.046 -1643 221 227 228
107.357 398.081 -1643 140 146 152
-64.6635 409.362 -1706 142 157 175
-60.7789 406.462 -1694 148 153 162
-57.3838 406.683 -1695 147 149 156
-53.9849 406.904 -1696 154 150 145
-50.3737 405.448 -1690 158 151 145
-46.3983 400.634 -1670 153 146 139
-42.7362 397.98 -1659 172 163 160
-39.0001 394.129 -1643 203 224 221
-35.5897 393.157 -1639 126 212 209
-32.2351 392.666 -1637 111 202 204
-28.8713 391.936 -1634 138 230 233
-25.5198 391.208 -1631 157 247 251
-22.2215 391.2 -1631 182 252 255
-18.8771 390.234 -1627 202 254 255
-15.5585 389.509 -1624 217 249 253
-12.2596 389.025 -1622 219 252 254
-8.98018 389.021 -1622 215 252 252
-5.7043 389.259 -1623 214 251 252
-2.41844 388.538 -1620 215 251 252
0.855797 388.058 -1618 212 250 253
4.1194 387.339 -1615 205 250 251
7.37091 386.622 -1612 197 249 249
10.6103 385.905 -1609 189 250 246
13.8463 385.429 -1607 188 248 244
17.1065 385.674 -1608 194 248 245
20.3326 385.201 -1606 202 247 247
23.5802 385.208 -1606 205 248 248
26.7947 384.737 -1604 219 248 251
30.0574 384.986 -1605 226 249 253
33.2622 384.517 -1603 232 248 253
36.5501 385.008 -1605 239 250 253
39.7971 385.02 -1605 243 254 255
43.0711 385.274 -1606 244 253 255
46.3783 385.768 -1608 242 251 254
49.6323 385.784 -1608 240 250 253
52.9196 386.041 -1609 238 249 250
56.1766 386.059 -1609 244 253 254
59.5446 386.798 -1612 246 253 255
62.9644 387.778 -1616 245 255 255
66.278 388.039 -1617 244 254 255
69.8542 389.741 -1624 241 253 254
73.234 390.245 -1626 231 248 252
76.6698 390.989 -1629 223 243 248
80.1184 391.735 -1632 211 242 245
83.6309 392.722 -1636 217 243 245
87.0008 392.991 -1637 222 247 248
90.541 393.98 -1641 233 249 245
93.9266 394.251 -1642 240 253 249
97.3171 394.522 -1643 243 254 250
100.713 394.795 -1644 246 254 252
103.986 394.589 -1643 203 213 214
107.257 394.383 -1642 121 135 142
-53.9036 402.868 -1694 142 148 153
-50.2977 401.424 -1688 145 150 152
-46.3832 397.128 -1670 142 146 148
-42.7479 394.735 -1660 177 182 185
-39.1298 392.106 -1649 194 226 228
-35.6432 390.429 -1642 105 196 195
-32.2837 389.943 -1640 91 186 188
-28.9325 389.457 -1638 124 220 223
-25.5741 388.735 -1635 149 244 248
-22.2279 388.014 -1632 167 250 254
-18.9057 387.532 -1630 183 254 254
-15.5726 386.576 -1626 204 251 254
-12.2708 386.096 -1624 205 251 252
-8.9828 385.854 -1623 210 251 251
-5.69907 385.614 -1622 209 250 250
-2.41623 384.9 -1619 208 250 249
0.854987 384.424 -1617 205 248 249
4.11813 383.949 -1615 197 246 246
7.36844 383.238 -1612 192 248 246
10.6135 382.765 -1610 185 249 247
13.8591 382.532 -1609 187 249 247
17.1115 382.537 -1609 193 248 247
20.3513 382.305 -1608 203 247 247
23.5873 382.075 -1607 208 248 249
26.7859 381.37 -1604 219 249 251
30.0476 381.617 -1605 226 250 253
33.272 381.389 -1604 232 250 253
36.4927 381.163 -1603 239 250 252
39.7839 381.651 -1605 242 253 254
43.057 381.902 -1606 243 253 254
46.3344 382.154 -1607 241 251 253
49.616 382.408 -1608 240 250 252
52.9023 382.662 -1609 241 251 252
56.1581 382.68 -1609 243 251 254
59.4882 383.175 -1611 246 253 255
62.827 383.67 -1613 246 255 255
66.2152 384.405 -1616 244 255 255
69.8743 386.568 -1625 243 254 255
73.2551 387.067 -1627 241 253 251
76.7858 388.281 -1632 243 255 253
80.2394 389.021 -1635 243 254 254
83.8078 390.237 -1640 230 251 251
87.2379 390.741 -1642 218 242 242
90.6768 391.246 -1644 207 237 239
94.0674 391.514 -1645 218 247 246
97.4036 391.545 -1645 223 251 247
100.741 391.578 -1645 239 253 253
103.952 391.135 -1643 175 191 195
107.287 391.169 -1643 106 125 133
-50.1325 396.705 -1683 139 149 163
-46.2849 392.918 -1667 129 139 151
-42.7341 391.253 -1660 183 199 208
-39.1883 389.355 -1652 178 218 224
-35.7619 388.4 -1648 98 187 188
-32.3519 387.446 -1644 92 186 186
-28.9938 386.965 -1642 121 217 217
-25.6284 386.249 -1639 118 214 218
-22.2888 385.77 -1637 117 212 215
-18.9807 385.764 -1637 135 229 231
-15.6441 385.051 -1634 167 238 238
-12.3122 384.104 -1630 182 246 245
-9.00757 383.629 -1628 201 248 245
-5.7077 382.92 -1625 201 251 247
-2.42 382.212 -1622 198 249 245
0.855765 381.505 -1619 196 248 246
4.12431 381.27 -1618 193 249 245
7.37991 380.565 -1615 187 248 242
10.6298 380.096 -1613 189 251 253
13.8804 379.865 -1612 194 253 255
17.1378 379.87 -1612 199 251 253
20.3825 379.64 -1611 208 250 253
23.6235 379.412 -1610 214 252 255
26.8273 378.713 -1607 227 251 255
30.0751 378.722 -1607 230 252 255
33.2612 378.025 -1604 233 252 255
36.5036 378.036 -1604 240 252 251
39.7711 378.285 -1605 240 251 251
43.0698 378.769 -1607 243 252 250
46.3192 378.784 -1607 243 251 250
49.6309 379.271 -1609 243 250 249
52.8851 379.287 -1609 245 253 252
56.1399 379.305 -1609 246 253 253
59.5059 380.031 -1612 247 254 254
62.8455 380.522 -1614 248 255 255
66.1938 381.014 -1616 245 255 254
69.8516 383.158 -1625 243 254 255
73.3664 384.361 -1630 245 255 254
76.9021 385.564 -1635 243 254 251
80.3606 386.297 -1638 245 254 252
83.934 387.502 -1643 239 255 253
87.3158 387.766 -1644 232 251 249
90.7026 388.031 -1645 199 241 243
94.0941 388.297 -1646 194 238 237
97.4904 388.563 -1647 199 244 241
100.83 388.595 -1647 226 247 250
104.045 388.157 -1645 149 170 175
107.382 388.191 -1645 99 120 130
-49.908 391.542 -1676 139 149 167
-46.2978 389.658 -1668 141 152 168
-42.7461 388.009 -1661 190 210 224
-39.2943 387.061 -1657 154 192 204
-35.8589 386.115 -1653 100 175 180
-32.44 385.17 -1649 110 193 195
-29.0375 384.226 -1645 142 228 228
-25.6983 383.983 -1644 121 220 221
-22.3226 383.041 -1640 100 196 198
-19.0094 383.035 -1640 95 189 191
-15.6583 382.095 -1636 110 192 190
-12.3309 381.39 -1633 118 197 196
-9.02129 380.92 -1631 133 205 203
-5.70932 379.749 -1626 139 213 211
-2.41909 378.814 -1622 149 223 221
0.856016 378.347 -1620 156 226 227
4.12305 377.88 -1618 154 225 224
7.38205 377.415 -1616 155 226 225
10.6462 377.418 -1616 165 232 236
13.9018 377.188 -1615 171 239 241
17.1748 377.427 -1616 175 247 246
20.4266 377.199 -1615 184 250 250
23.6598 376.739 -1613 190 253 252
26.8854 376.28 -1611 212 254 254
30.1029 375.822 -1609 218 255 255
33.292 375.132 -1606 225 255 255
36.5146 374.909 -1605 230 255 255
39.7831 375.155 -1606 229 253 254
43.056 375.402 -1607 234 253 253
46.3619 375.883 -1609 235 253 252
49.6764 376.366 -1611 235 252 251
52.9339 376.383 -1611 244 253 252
56.1916 376.4 -1611 246 254 253
59.4867 376.652 -1612 246 254 253
62.8253 377.139 -1614 246 255 255
66.2135 377.861 -1617 244 254 253
69.7862 379.518 -1624 243 255 255
73.3878 381.177 -1631 245 255 254
76.9713 382.603 -1637 244 254 252
80.4328 383.33 -1640 245 255 252
84.0091 384.525 -1645 238 253 250
87.5533 385.487 -1649 233 249 247
91.0592 386.217 -1652 183 240 238
94.4068 386.247 -1652 159 219 216
97.6959 386.044 -1651 157 219 217
101.165 386.544 -1653 197 222 228
104.264 385.641 -1649 114 138 145
107.609 385.675 -1649 95 118 129
-49.7135 386.644 -1670 137 149 168
-46.2832 386.166 -1668 164 178 194
-42.8098 385.226 -1664 177 201 219
-39.4004 384.75 -1662 137 174 189
-35.9126 383.349 -1656 105 168 180
-32.528 382.875 -1654 112 191 195
-29.0812 381.477 -1648 143 226 228
-25.7058 380.774 -1645 139 233 235
-22.3563 380.303 -1643 144 233 235
-19.0267 380.065 -1642 148 233 235
-15.6916 379.597 -1640 146 226 226
-12.3648 379.129 -1638 138 218 218
-9.04607 378.663 -1636 132 211 210
-5.7252 377.504 -1631 124 207 206
-2.42436 376.345 -1626 124 207 206
0.857326 375.651 -1623 122 202 203
4.1318 375.42 -1622 115 192 194
7.38876 374.496 -1618 117 192 193
10.6626 374.73 -1619 116 190 193
13.9405 374.966 -1620 119 195 198
17.2223 375.202 -1621 114 201 200
20.4833 374.977 -1620 116 206 203
23.7404 374.752 -1619 130 221 217
26.9602 374.066 -1616 170 234 235
30.1495 373.149 -1612 186 245 247
33.3642 372.696 -1610 194 246 250
36.5484 372.013 -1607 198 244 246
39.7953 372.025 -1607 201 246 247
43.069 372.269 -1608 207 248 248
46.3761 372.746 -1610 211 250 249
49.6607 372.993 -1611 215 251 250
52.917 373.01 -1611 237 253 252
56.2086 373.258 -1612 239 253 253
59.5047 373.508 -1613 242 254 254
62.8052 373.759 -1614 244 255 255
66.2743 374.938 -1619 240 252 254
69.8498 376.58 -1626 240 254 255
73.4544 378.224 -1633 243 255 254
76.9938 379.406 -1638 243 254 254
80.5541 380.589 -1643 242 253 254
84.0844 381.542 -1647 227 253 253
87.6314 382.496 -1651 212 245 245
91.1954 383.451 -1655 151 227 227
94.4338 383.017 -1653 131 204 204
97.7829 383.048 -1653 145 215 216
101.255 383.543 -1655 180 203 213
104.421 382.88 -1652 102 125 136
107.705 382.682 -1651 99 121 133
-49.6384 382.693 -1668 138 151 168
-46.2963 382.907 -1669 174 190 205
-42.8477 382.205 -1666 143 173 192
-39.459 381.963 -1665 132 170 188
-35.988 380.804 -1660 122 177 194
-32.5965 380.334 -1658 108 188 195
-29.1426 378.948 -1652 138 225 228
-25.7602 378.252 -1649 164 246 248
-22.3765 377.327 -1645 177 251 252
-19.0439 377.091 -1644 180 247 250
-15.7058 376.626 -1642 184 248 252
-12.3685 375.934 -1639 183 247 250
-9.04895 375.472 -1637 181 245 245
-5.73386 374.781 -1634 170 244 243
-2.42664 373.404 -1628 165 241 240
0.858109 372.716 -1625 157 237 237
4.13565 372.487 -1624 153 230 231
7.40006 371.801 -1621 151 225 226
10.6855 372.263 -1623 137 223 223
13.9876 372.955 -1626 135 221 221
17.2489 372.501 -1624 126 213 213
20.54 372.736 -1625 114 204 203
23.8063 372.514 -1624 117 209 208
27.0184 371.604 -1620 138 224 223
30.2334 370.925 -1617 147 234 234
33.4781 370.705 -1616 144 232 233
36.6507 369.799 -1612 141 227 226
39.857 369.352 -1610 145 230 228
43.1358 369.595 -1611 150 233 230
46.419 369.838 -1612 156 237 233
49.6758 369.853 -1612 162 242 238
52.9661 370.099 -1613 174 241 239
56.2954 370.575 -1615 180 245 244
59.5966 370.823 -1616 188 249 249
62.9411 371.301 -1618 179 240 240
66.458 372.698 -1624 164 223 223
69.9996 374.096 -1630 171 228 228
73.566 375.496 -1636 182 236 236
77.1105 376.667 -1641 195 247 247
80.7738 378.299 -1648 195 245 246
84.262 379.014 -1651 176 234 235
87.816 379.959 -1655 154 215 216
91.3871 380.905 -1659 117 203 203
94.6895 380.705 -1658 114 195 196
98.166 381.195 -1660 137 212 214
101.651 381.685 -1662 154 176 188
105.083 381.947 -1663 99 120 133
109.106 384.278 -1673 98 118 132
-49.5931 378.98 -1667 135 146 167
-46.3374 379.874 -1671 148 161 180
-42.9116 379.406 -1669 134 157 177
-39.5179 379.166 -1668 127 158 177
-36.1068 378.699 -1666 128 175 192
-32.6845 378.007 -1663 123 195 204
-29.1865 376.179 -1655 126 204 211
-25.799 375.489 -1652 154 230 233
-22.3968 374.345 -1647 177 249 252
-19.0379 373.656 -1644 183 250 255
-15.7105 373.424 -1643 189 250 254
-12.3722 372.737 -1640 186 248 250
-9.05718 372.507 -1639 184 248 245
-5.73571 371.596 -1635 177 247 244
-2.43192 370.912 -1632 174 246 243
0.85975 370.23 -1629 168 247 244
4.14186 369.777 -1627 171 248 246
7.41613 369.324 -1625 170 246 243
10.7019 369.554 -1626 169 248 247
14.0091 370.24 -1629 167 247 246
17.2753 369.79 -1627 166 249 250
20.5463 369.569 -1626 163 248 249
23.7987 369.121 -1624 159 245 246
27.0601 368.901 -1623 155 244 248
30.2614 368.001 -1619 140 233 235
33.5089 367.784 -1618 122 221 220
36.7301 367.34 -1616 121 219 217
39.9435 366.898 -1614 118 216 214
43.2025 366.91 -1614 118 220 217
46.4908 367.152 -1615 125 225 223
49.7527 367.167 -1615 130 229 226
53.0478 367.41 -1616 133 227 227
56.3474 367.654 -1617 140 233 232
59.7254 368.355 -1620 142 234 233
63.1547 369.283 -1624 124 218 216
66.6008 370.213 -1628 100 194 192
70.1924 371.826 -1635 92 186 184
73.633 372.531 -1638 92 187 187
77.2742 374.146 -1645 102 198 198
80.7486 374.853 -1648 101 202 202
84.4908 376.699 -1656 99 199 199
87.8948 376.953 -1657 86 186 185
91.5237 378.119 -1662 91 183 182
94.8882 378.148 -1662 106 190 191
98.3127 378.405 -1663 133 209 212
101.742 378.664 -1664 130 147 164
105.366 379.606 -1668 102 119 135
-49.3399 373.698 -1659 127 137 161
-46.2676 375.936 -1669 127 138 161
-42.924 376.147 -1670 118 136 158
-39.553 376.134 -1670 113 138 159
-36.1607 375.898 -1669 112 150 168
-32.753 375.437 -1667 120 181 192
-29.248 373.625 -1659 130 196 205
-25.8223 372.491 -1654 130 201 208
-22.417 371.357 -1649 151 221 227
-19.0437 370.45 -1645 173 242 247
-15.6866 369.544 -1641 184 247 250
-12.3608 369.09 -1639 188 252 252
-9.04884 368.861 -1638 182 247 243
-5.73386 368.183 -1635 171 239 236
-2.42954 367.281 -1631 166 235 233
0.858953 366.605 -1628 165 242 236
4.13809 366.156 -1626 166 243 237
7.41832 366.158 -1626 170 248 243
10.692 365.935 -1625 173 246 243
13.996 366.615 -1628 173 246 244
17.2699 366.394 -1627 170 246 247
20.5399 366.175 -1626 166 246 248
23.806 365.957 -1625 165 246 249
27.0849 365.964 -1625 153 239 249
30.3454 365.748 -1624 130 222 227
33.6021 365.533 -1623 113 213 211
36.855 365.318 -1622 118 216 214
40.0796 364.88 -1620 111 211 209
43.2962 364.442 -1618 105 209 207
46.5916 364.681 -1619 106 210 210
49.8605 364.696 -1619 107 211 211
53.1299 364.712 -1619 110 211 214
56.5042 365.405 -1622 115 215 215
59.928 366.324 -1626 133 232 231
63.2906 366.793 -1628 135 236 230
66.7438 367.715 -1632 131 231 226
70.3852 369.538 -1640 117 216 214
73.7001 369.561 -1640 114 215 216
77.3443 371.161 -1647 122 223 225
80.7725 371.636 -1649 130 227 228
84.5665 373.69 -1658 124 220 219
88.0796 374.393 -1661 93 189 187
91.6605 375.322 -1665 105 188 188
95.0301 375.351 -1665 121 191 193
98.5776 376.057 -1668 140 193 198
102.138 376.765 -1671 108 127 142
105.965 378.375 -1678 97 116 130
-46.004 370.446 -1660 122 135 158
-42.8338 371.995 -1667 119 137 160
-39.5646 372.875 -1671 115 138 160
-36.1496 372.417 -1669 111 141 162
-32.7627 372.184 -1668 109 153 164
-29.3096 371.058 -1663 132 180 189
-25.8924 370.158 -1659 124 190 202
-22.4781 369.035 -1654 126 197 205
-19.0957 368.136 -1650 136 210 215
-15.72 367.015 -1645 154 230 227
-12.3871 366.564 -1643 174 247 245
-9.05711 365.892 -1640 182 247 249
-5.74275 365.444 -1638 178 247 249
-2.43035 364.104 -1632 176 247 248
0.860268 363.88 -1631 169 241 235
4.14452 363.435 -1629 161 237 233
7.42509 363.214 -1628 157 238 237
10.7085 363.216 -1628 159 241 236
14.0089 363.666 -1630 161 242 239
17.2647 363.002 -1627 161 241 241
20.5588 363.231 -1628 155 237 238
23.828 363.014 -1627 151 234 235
27.0932 362.799 -1626 131 225 227
30.3734 362.808 -1626 114 209 211
33.6953 363.264 -1628 107 204 204
36.9573 363.052 -1627 112 212 211
40.2156 362.84 -1626 113 215 212
43.4435 362.407 -1624 110 217 213
46.7211 362.42 -1624 111 217 214
49.9685 362.212 -1623 110 215 213
53.3105 362.674 -1625 106 214 212
56.6611 363.137 -1627 104 212 210
60.0938 364.048 -1631 130 238 235
63.5433 364.96 -1635 141 247 243
66.9277 365.426 -1637 140 245 241
70.4495 366.563 -1642 137 239 236
73.8123 366.808 -1643 134 235 236
77.4615 368.394 -1650 139 240 242
80.9925 369.312 -1654 148 240 242
84.7445 371.123 -1662 134 224 223
88.2647 371.82 -1665 107 197 194
91.9625 373.187 -1671 131 200 202
95.1721 372.546 -1668 140 195 198
98.7838 373.469 -1672 136 170 176
102.29 373.946 -1674 101 123 136
-36.1604 369.161 -1670 112 135 158
-32.8118 369.371 -1671 106 134 147
-29.4065 368.92 -1669 122 151 163
-25.9627 367.806 -1664 138 176 187
-22.5256 366.473 -1658 132 186 193
-19.1131 365.141 -1652 127 195 197
-15.763 364.693 -1650 118 197 197
-12.391 363.363 -1644 133 210 211
-9.05986 362.697 -1641 167 239 242
-5.74093 362.031 -1638 175 248 251
-2.43117 360.925 -1633 175 248 252
0.860531 360.704 -1632 180 248 250
4.14312 360.042 -1629 169 243 243
7.42276 359.822 -1628 161 241 240
10.7118 360.046 -1629 155 238 233
14.0047 360.271 -1630 152 236 231
17.2594 359.612 -1627 147 233 231
20.5525 359.839 -1628 137 225 224
23.8355 359.846 -1628 129 218 217
27.1184 359.854 -1628 118 215 213
30.4202 360.083 -1629 111 208 207
33.7471 360.535 -1631 103 199 199
37.037 360.546 -1631 96 200 197
40.2775 360.115 -1629 95 200 196
43.5105 359.686 -1627 92 200 196
46.822 359.921 -1628 95 200 196
50.1071 359.935 -1628 96 201 197
53.5238 360.835 -1632 91 202 198
56.8875 361.294 -1634 83 196 192
60.3335 362.196 -1638 102 215 213
63.7182 362.657 -1640 132 239 239
67.1117 363.12 -1642 136 242 241
70.471 363.362 -1643 139 243 240
74.0593 364.71 -1649 143 241 241
77.5786 365.618 -1653 147 244 245
81.1149 366.527 -1657 138 228 228
84.8717 368.321 -1665 120 203 201
88.3437 368.79 -1667 120 198 195
92.0998 370.366 -1674 144 193 199
95.4854 370.394 -1674 139 181 186
99.2854 371.973 -1681 115 146 151
102.931 372.889 -1685 99 124 134
-32.8804 366.769 -1675 122 135 151
-29.4505 366.103 -1672 135 147 161
-26.0796 366.095 -1672 145 150 158
-22.6411 364.993 -1667 140 171 175
-19.2692 364.767 -1666 132 187 185
-15.8156 362.573 -1656 114 193 196
-12.4476 361.693 -1652 119 199 201
-9.08472 360.376 -1646 130 211 213
-5.74984 359.279 -1641 152 229 234
-2.43496 358.183 -1636 168 244 250
0.861323 357.745 -1634 177 246 252
4.14956 357.308 -1632 173 246 250
7.43887 357.31 -1632 170 246 246
