ply
format ascii 1.0
comment Created by Open3D
element vertex 1408
property double x
property double y
property double z
property uchar red
property uchar green
property uchar blue
end_header
38.3072 467.42 -1527 126 89 75
41.4871 468.049 -1529 114 79 70
44.4711 466.537 -1524 92 67 70
47.6225 466.863 -1525 79 60 66
50.8118 467.496 -1527 63 56 66
53.9389 467.518 -1527 53 46 55
57.0292 467.235 -1526 51 44 53
60.4312 469.404 -1533 49 41 52
63.3233 467.593 -1527 49 43 54
65.5385 461.189 -1506 51 45 56
-92.0049 475.8 -1564 150 141 140
-88.9099 476.371 -1566 187 177 175
-85.8074 476.942 -1568 226 204 192
-82.1181 474.169 -1559 199 173 160
-78.9725 474.44 -1560 193 164 150
-75.2406 471.062 -1549 186 152 139
-71.9267 470.119 -1546 166 133 120
-68.4034 467.656 -1538 125 95 81
-65.083 466.412 -1534 138 105 91
-61.7796 465.169 -1530 168 135 120
-58.5315 464.232 -1527 163 129 114
-55.2599 462.992 -1523 167 133 118
-52.1078 462.665 -1522 170 136 121
-48.9281 462.036 -1520 186 148 132
-45.7569 461.408 -1518 200 160 143
-42.6224 461.086 -1517 203 160 141
-39.6227 462.284 -1521 202 157 137
-36.5348 462.572 -1522 206 161 140
-33.4433 462.861 -1523 210 166 142
-30.3479 463.152 -1524 211 168 144
-27.2665 463.748 -1526 209 167 144
-24.1139 463.129 -1524 209 165 143
-20.9559 462.208 -1521 195 154 134
-17.8104 461.288 -1518 162 124 107
-14.7063 461.281 -1518 131 98 83
-11.5794 460.364 -1515 112 82 68
-8.50414 461.576 -1519 103 82 73
-5.40183 461.877 -1520 93 74 71
-2.29094 461.267 -1518 89 72 70
0.814768 462.482 -1522 74 65 68
3.92929 462.787 -1523 77 64 68
7.03869 462.486 -1522 88 73 77
10.1374 461.882 -1520 93 73 72
13.2539 462.19 -1521 97 75 73
16.3533 461.893 -1520 105 79 74
19.5128 463.116 -1524 121 83 70
22.5997 462.517 -1522 148 107 92
25.7292 462.831 -1523 194 146 123
28.7875 461.931 -1520 212 166 142
31.8755 461.64 -1519 232 188 163
34.9829 461.654 -1519 246 196 172
38.1405 462.277 -1521 214 168 145
41.3067 462.902 -1523 155 111 91
44.4231 462.92 -1523 105 74 68
47.6336 463.851 -1526 87 65 64
50.6905 463.264 -1524 66 61 69
53.7396 462.678 -1522 59 52 60
56.8931 463.005 -1523 60 53 61
60.1692 464.246 -1527 59 48 57
63.2135 463.664 -1525 55 47 57
65.8153 460.042 -1513 54 47 58
69.1428 461.591 -1518 55 48 57
-88.4754 470.853 -1559 192 181 178
-85.4432 471.723 -1562 232 209 197
-82.1889 471.386 -1561 205 179 168
-78.8888 470.748 -1559 201 173 161
-75.7432 471.018 -1560 204 169 157
-72.0826 467.968 -1550 191 157 143
-68.597 465.825 -1543 160 128 110
-65.2678 464.59 -1539 171 137 119
-61.9556 463.356 -1535 189 155 136
-58.6602 462.123 -1531 194 160 141
-55.3456 460.59 -1526 193 158 139
-52.1202 459.662 -1523 195 160 140
-48.9398 459.038 -1521 210 168 149
-45.7679 458.414 -1519 217 174 154
-42.7451 459.301 -1522 217 172 150
-39.6061 458.982 -1521 220 174 152
-36.5916 460.173 -1525 225 180 157
-33.539 461.064 -1528 224 182 158
-30.3949 460.749 -1527 225 182 159
-27.2729 460.737 -1527 224 181 158
-24.1354 460.425 -1526 222 179 154
-20.9747 459.51 -1523 215 173 149
-17.8147 458.295 -1519 190 149 127
-14.6905 457.685 -1517 158 122 104
-11.5822 457.378 -1516 139 105 88
-8.49498 457.977 -1518 134 107 92
-5.39252 457.974 -1518 135 110 98
-2.29312 458.576 -1520 135 112 100
0.816041 460.084 -1525 128 112 105
3.93018 459.783 -1524 143 124 118
7.03563 459.182 -1522 160 139 134
10.1463 459.186 -1522 172 148 142
13.2658 459.493 -1523 190 164 157
16.3573 458.895 -1521 207 176 165
19.5174 460.11 -1525 203 159 141
22.6199 459.817 -1524 211 165 145
25.7354 459.827 -1524 201 150 126
28.8131 459.235 -1522 174 120 97
31.8831 458.644 -1520 191 137 114
34.9681 458.356 -1519 233 175 150
38.0995 458.673 -1520 250 198 174
41.1539 458.086 -1518 216 164 142
44.2296 457.803 -1517 135 97 86
47.4889 459.331 -1522 99 69 63
50.636 459.653 -1523 76 64 66
53.7877 459.977 -1524 65 56 60
57.0185 460.905 -1527 60 52 57
60.3014 462.137 -1531 53 47 57
63.3528 461.559 -1529 54 49 60
65.9181 457.662 -1516 55 51 63
69.1594 458.596 -1519 54 47 56
72.223 458.324 -1518 52 46 56
-85.2437 467.434 -1559 209 186 173
-82.3127 468.898 -1564 198 172 161
-79.2101 469.464 -1566 201 174 164
-75.9544 469.132 -1565 211 176 164
-72.657 468.502 -1563 201 166 152
-68.9684 465.176 -1552 190 156 136
-65.5374 463.349 -1546 191 157 137
-62.1719 461.824 -1541 193 159 139
-58.7891 460.001 -1535 203 169 149
-55.4675 458.479 -1530 203 167 146
-52.2012 457.258 -1526 208 170 149
-49.048 456.938 -1525 219 173 153
-45.8995 456.618 -1524 224 178 157
-42.7554 456.301 -1523 227 181 159
-39.6417 456.283 -1523 232 186 164
-36.5764 456.867 -1525 235 189 168
-33.5252 457.751 -1528 231 188 168
-30.4022 457.738 -1528 231 185 163
-27.2796 457.726 -1528 230 183 160
-24.1097 456.817 -1525 227 184 157
-20.9523 455.909 -1522 226 183 156
-17.7838 454.403 -1517 211 169 143
-14.6844 454.396 -1517 190 150 129
-11.5622 453.492 -1514 177 140 120
-8.49704 454.986 -1519 165 136 119
-5.39744 455.282 -1520 164 137 123
-2.29361 455.581 -1521 165 139 125
0.81464 456.179 -1523 169 148 137
3.92591 456.18 -1523 194 169 159
7.04665 456.782 -1525 219 192 183
10.1554 456.486 -1524 237 207 194
13.2863 457.09 -1526 243 211 196
16.3827 456.497 -1524 233 196 179
19.5349 457.403 -1527 227 177 155
22.6104 456.513 -1524 209 156 133
25.7078 456.223 -1523 171 114 89
28.8012 455.935 -1522 183 123 100
31.8698 455.349 -1520 207 145 122
34.9075 454.464 -1517 217 156 128
38.0584 455.078 -1519 232 173 146
41.1638 455.095 -1519 240 184 157
44.1821 454.213 -1516 176 132 115
47.4066 455.431 -1520 115 79 65
50.5816 456.05 -1522 88 67 61
53.6241 455.473 -1520 82 67 64
56.9947 457.594 -1527 74 61 61
60.1583 457.917 -1528 59 54 63
63.2021 457.344 -1526 57 53 64
66.0212 455.273 -1519 55 51 64
69.358 456.799 -1524 57 50 59
72.2405 455.33 -1519 54 48 58
75.004 453.262 -1512 50 45 56
78.359 454.793 -1517 48 45 55
-90.8326 460.257 -1546 164 156 153
-88.0618 462.304 -1553 172 162 157
-84.9352 462.566 -1554 201 178 165
-82.0156 464.02 -1559 192 168 156
-79.0762 465.475 -1564 191 165 154
-75.9716 466.039 -1566 198 164 151
-72.627 465.115 -1563 192 157 141
-69.0288 462.408 -1554 187 149 128
-65.5104 460 -1546 189 151 130
-62.1463 458.486 -1541 199 161 140
-58.6883 456.081 -1533 206 168 147
-55.4085 454.868 -1529 210 170 150
-52.1796 453.953 -1526 219 178 157
-49.06 453.932 -1526 233 191 167
-45.8505 453.02 -1523 234 194 168
-42.7377 453.002 -1523 232 194 165
-39.6774 453.58 -1525 229 193 163
-36.6092 454.159 -1527 230 193 164
-33.4674 453.848 -1526 235 193 167
-30.3499 453.834 -1526 240 193 169
-27.2505 454.12 -1527 238 189 166
-24.084 453.217 -1524 230 188 161
-20.9437 452.613 -1522 228 185 159
-17.7766 451.118 -1517 220 176 152
-14.6687 450.814 -1516 204 165 143
-11.5498 449.917 -1513 195 158 138
-8.47676 450.805 -1516 182 153 138
-5.38817 451.397 -1518 169 140 126
-2.28977 451.693 -1519 187 158 144
0.814312 452.882 -1523 227 200 186
3.92939 453.478 -1525 246 219 206
7.05747 454.372 -1528 245 212 200
10.1779 454.376 -1528 228 194 175
13.3071 454.678 -1529 217 181 161
16.4297 454.684 -1529 218 176 155
19.5523 454.691 -1529 225 171 146
22.6604 454.403 -1528 189 132 106
25.7478 453.818 -1526 167 106 80
28.8461 453.532 -1525 182 118 94
31.9195 452.949 -1523 222 157 134
34.9622 452.071 -1520 240 178 148
38.0427 451.789 -1519 237 176 146
41.0926 451.21 -1517 246 187 156
44.1638 450.93 -1516 211 163 139
47.3871 452.139 -1520 136 92 72
50.5276 452.456 -1521 109 77 64
53.5314 451.585 -1518 100 75 65
56.8592 453.393 -1524 88 67 59
60.1334 454.607 -1528 68 60 66
63.2588 454.633 -1528 62 58 67
66.2545 453.767 -1525 59 56 66
69.3749 453.795 -1525 58 51 60
72.5433 454.121 -1526 56 50 60
75.2704 451.771 -1518 51 46 57
78.3267 451.505 -1517 48 45 55
-94.0233 457.243 -1547 169 167 164
-90.9128 457.501 -1548 172 166 161
-87.8557 458.055 -1550 173 165 159
-84.8457 458.907 -1553 186 164 151
-81.8768 460.055 -1557 201 178 165
-78.9428 461.499 -1562 197 173 160
-75.8435 462.058 -1564 199 166 152
-72.5508 461.437 -1562 196 161 145
-68.8673 458.159 -1551 197 157 136
-65.3565 455.768 -1543 204 164 142
-61.9193 453.675 -1536 216 175 153
-58.5877 452.174 -1531 223 182 160
-55.3133 450.969 -1527 230 188 167
-52.1241 450.356 -1525 241 198 177
-49.0077 450.336 -1525 243 203 181
-45.8618 450.021 -1524 241 203 177
-42.7483 450.003 -1524 236 202 171
-39.6092 449.691 -1523 233 201 168
-36.4984 449.676 -1523 231 198 166
-33.388 449.661 -1523 237 195 167
-30.2779 449.648 -1523 239 193 167
-27.2037 450.227 -1525 236 189 164
-24.0741 449.921 -1524 229 187 162
-20.9351 449.322 -1522 228 185 161
-17.7693 447.838 -1517 223 179 156
-14.6628 447.536 -1516 208 170 149
-11.5451 446.645 -1513 202 166 146
-8.47346 447.527 -1516 197 164 150
-5.37892 447.524 -1516 211 177 163
-2.28876 448.408 -1519 247 212 198
0.813451 449.293 -1522 248 219 204
3.92276 449.589 -1523 233 195 179
7.05004 450.773 -1527 219 179 161
10.1737 451.071 -1528 219 182 158
13.3016 451.371 -1529 221 181 157
16.4121 451.082 -1528 221 175 151
19.5443 451.385 -1529 229 172 146
22.6364 450.803 -1527 193 134 108
25.754 450.813 -1527 204 143 117
28.8343 450.234 -1525 203 141 116
31.8854 449.36 -1522 219 158 132
34.9707 449.079 -1521 253 195 164
38.0522 448.798 -1520 248 190 159
41.0757 447.929 -1517 248 191 158
44.2331 448.537 -1519 232 183 155
47.4923 450.032 -1524 165 118 94
50.6397 450.347 -1525 127 87 70
53.721 450.073 -1524 117 84 70
57.0224 451.573 -1529 109 80 67
60.03 450.71 -1526 88 72 70
63.1501 450.736 -1526 73 62 67
66.3142 451.057 -1527 68 61 69
69.2099 449.608 -1522 63 55 64
72.1335 448.456 -1518 59 52 61
75.0908 447.599 -1515 53 47 57
78.2945 448.222 -1517 48 45 55
81.7218 450.027 -1523 48 46 56
85.23 452.13 -1530 47 46 56
-90.8758 454.153 -1548 174 168 164
-87.8766 454.997 -1551 172 164 158
-84.9204 456.136 -1555 175 154 141
-81.791 456.395 -1556 209 186 173
-78.7592 457.242 -1559 211 187 174
-75.7157 458.091 -1562 210 180 165
-72.2892 456.595 -1557 201 168 150
-68.6618 453.634 -1547 204 166 145
-65.1606 451.261 -1539 220 179 156
-61.6926 448.89 -1531 235 194 171
-58.4874 448.279 -1529 244 202 180
-55.2546 447.376 -1526 249 206 184
-52.1372 447.355 -1526 251 207 185
-49.02 447.334 -1526 244 203 189
-45.9334 447.608 -1527 239 200 182
-42.731 446.711 -1524 238 202 178
-39.5931 446.401 -1523 237 201 174
-36.4597 446.093 -1522 234 197 170
-33.3306 445.785 -1521 239 196 173
-30.2258 445.772 -1521 236 194 170
-27.1569 446.347 -1523 231 190 164
-24.0328 446.044 -1522 226 186 162
-20.9128 445.742 -1521 230 187 166
-17.7855 445.148 -1519 236 189 171
-14.6665 444.555 -1517 235 200 178
-11.5556 443.964 -1515 243 211 189
-8.46999 444.252 -1516 242 206 185
-5.38369 444.836 -1518 241 199 177
-2.28945 445.42 -1520 239 196 175
0.813473 446.299 -1523 233 190 168
3.92368 446.593 -1524 239 193 171
7.04704 447.475 -1527 247 197 175
10.1696 447.771 -1528 228 188 164
13.2874 447.776 -1528 215 173 149
16.4055 447.782 -1528 214 168 143
19.5491 448.375 -1530 218 162 136
22.6715 448.384 -1530 191 132 106
25.7942 448.394 -1530 227 166 140
28.917 448.405 -1530 226 165 139
31.9772 447.538 -1527 233 172 147
35.0025 446.379 -1523 255 200 171
38.0867 446.101 -1522 253 197 166
41.1403 445.531 -1520 248 192 160
44.2732 445.841 -1521 238 189 159
47.4107 446.153 -1522 191 143 116
50.6853 447.639 -1527 143 96 79
53.8049 447.66 -1527 124 88 74
57.0737 448.855 -1531 118 85 72
60.1236 448.292 -1529 100 77 72
63.0831 447.145 -1525 85 68 70
66.1569 446.878 -1524 79 66 72
68.8637 444.266 -1515 71 63 71
71.8192 443.415 -1512 62 55 63
75.1593 444.911 -1517 55 48 57
78.4689 446.115 -1521 49 46 56
81.6347 446.441 -1522 49 46 56
84.9725 447.648 -1526 47 46 56
-94.4936 453.177 -1556 185 189 189
-91.1912 452.557 -1554 181 178 176
-88.011 452.521 -1554 170 165 161
-84.9408 453.069 -1556 174 160 152
-81.8106 453.326 -1557 203 183 174
-78.6264 453.294 -1557 208 185 175
-75.4428 453.263 -1557 207 179 167
-72.1208 452.36 -1554 206 177 165
-68.4566 449.13 -1543 215 185 173
-65.0074 447.066 -1536 232 199 184
-61.5872 445.003 -1529 244 211 196
-58.3874 444.397 -1527 250 215 199
-55.1962 443.792 -1525 250 215 200
-52.0819 443.77 -1525 249 214 200
-48.9039 443.168 -1523 243 209 194
-45.8247 443.44 -1524 241 206 187
-42.6577 442.84 -1522 240 204 178
-39.5252 442.533 -1521 239 200 171
-36.3732 441.936 -1519 238 199 170
-33.2515 441.631 -1518 238 198 173
-30.174 441.909 -1519 240 194 170
-27.0925 442.189 -1520 237 190 166
-24.0389 443.051 -1523 235 201 179
-20.9182 442.751 -1522 249 215 194
-17.7901 442.162 -1520 254 230 209
-14.6799 441.864 -1519 254 231 207
-11.5739 441.568 -1518 246 205 181
-8.47772 441.564 -1518 228 185 159
-5.38865 442.143 -1520 236 190 163
-2.29165 442.723 -1522 243 196 169
0.814219 443.596 -1525 248 202 174
3.92976 444.178 -1527 254 208 181
7.05348 444.762 -1529 254 203 177
10.1788 445.057 -1530 228 188 163
13.2993 445.062 -1530 219 176 151
16.4309 445.359 -1531 212 165 140
19.5539 445.366 -1531 214 158 132
22.6919 445.665 -1532 183 125 98
25.7838 445.093 -1530 190 129 104
28.9242 445.395 -1531 225 163 139
32.027 445.116 -1530 239 177 153
35.0113 443.384 -1524 250 196 169
38.0963 443.108 -1523 251 197 168
41.2047 443.124 -1523 247 192 161
44.3135 443.141 -1523 240 190 160
47.3916 442.869 -1522 202 153 126
50.6981 444.634 -1528 155 107 90
53.9592 445.819 -1532 134 98 88
57.1624 446.424 -1534 117 84 76
60.2173 445.865 -1532 105 78 72
63.3057 445.599 -1531 95 74 73
66.6076 446.789 -1535 84 66 69
69.3355 444.197 -1526 71 63 71
72.2175 442.77 -1521 64 56 64
75.8222 445.711 -1531 57 50 59
79.1077 446.616 -1534 52 47 57
82.1915 446.357 -1533 51 47 57
85.3834 446.682 -1534 46 45 55
-96.8246 446.1 -1543 239 249 250
-94.6985 450.976 -1560 203 213 214
-91.6825 451.806 -1563 211 215 214
-88.4853 451.77 -1563 184 186 185
-85.1251 450.869 -1560 203 199 197
-81.9353 450.835 -1560 230 219 213
-78.4939 449.358 -1555 237 222 215
-75.0252 447.594 -1549 239 223 215
-71.628 446.12 -1544 241 223 216
-68.0745 443.492 -1535 245 228 224
-64.6429 441.443 -1528 250 233 227
-61.2807 439.684 -1522 253 236 230
-58.2111 439.949 -1523 253 232 225
-54.9933 439.06 -1520 250 227 221
-51.9587 439.617 -1522 246 223 217
-48.8202 439.308 -1521 247 225 214
-45.8364 440.444 -1525 246 219 204
-42.6406 439.56 -1522 236 204 182
-39.5094 439.255 -1521 239 201 174
-36.3826 438.951 -1520 241 203 175
-33.2821 438.937 -1520 242 208 182
-30.2016 439.213 -1521 249 211 189
-27.1352 439.78 -1523 255 219 197
-24.0766 440.636 -1526 253 223 202
-20.951 440.338 -1525 244 218 196
-17.8298 440.042 -1524 229 202 180
-14.703 439.458 -1522 228 183 158
-11.5998 439.452 -1522 234 189 162
-8.48546 438.871 -1520 240 195 163
-5.39007 439.157 -1521 242 195 164
-2.29065 439.444 -1522 249 202 171
0.814433 440.599 -1526 255 210 179
3.92554 440.6 -1526 255 215 187
7.05052 441.468 -1529 255 210 184
10.188 442.338 -1532 238 196 171
13.3028 442.054 -1531 228 184 159
16.4565 442.926 -1534 216 169 144
19.5844 442.933 -1534 211 153 127
22.7421 443.519 -1536 195 135 109
25.8407 442.951 -1534 175 115 91
28.9503 442.673 -1533 202 138 115
32.0142 441.819 -1530 223 158 135
35.0432 440.678 -1526 234 177 152
38.1062 440.115 -1524 245 189 163
41.1342 439.264 -1521 242 186 158
44.3248 440.148 -1524 241 187 159
47.4659 440.455 -1525 203 151 126
50.7773 442.207 -1531 136 89 75
54.0784 443.672 -1536 124 95 90
57.2513 443.984 -1537 112 88 85
60.3111 443.429 -1535 102 81 79
63.4869 443.743 -1536 97 78 77
66.7977 444.925 -1540 88 70 70
69.5348 442.351 -1531 71 63 71
72.4258 440.935 -1526 65 57 65
76.0394 443.854 -1536 60 53 62
79.179 443.885 -1536 54 49 58
-97.1624 444.496 -1549 232 250 252
-94.7216 447.901 -1561 200 218 220
-91.5876 448.151 -1562 204 220 221
-88.3935 448.116 -1562 184 199 200
-84.9821 446.934 -1558 231 243 244
-81.6403 446.04 -1555 251 254 252
-78.2105 444.575 -1550 252 252 248
-74.8986 443.684 -1547 255 252 246
-71.2286 440.5 -1536 255 252 250
-67.9145 439.326 -1532 255 252 255
-64.6596 438.439 -1529 255 251 252
-61.2564 436.407 -1522 254 250 251
-58.188 436.67 -1523 255 250 251
-54.9353 435.501 -1519 255 249 250
-51.8699 435.767 -1520 255 249 251
-48.7687 435.747 -1520 254 249 246
-45.7281 436.301 -1522 250 241 233
-42.5958 435.997 -1521 229 209 192
-39.4677 435.695 -1520 242 212 189
-36.3681 435.679 -1520 253 231 208
-33.2689 435.666 -1520 254 235 213
-30.1698 435.653 -1520 253 222 198
-27.1066 436.215 -1522 233 199 174
-24.0513 437.065 -1525 231 190 167
-20.929 436.769 -1524 229 188 165
-17.8111 436.475 -1523 227 186 162
-14.6972 436.182 -1522 233 190 161
-11.5952 436.177 -1522 236 192 163
-8.4934 436.173 -1522 239 195 165
-5.39859 436.744 -1524 243 197 167
-2.29436 437.029 -1525 250 203 174
0.815183 437.888 -1528 255 213 184
3.93163 438.176 -1529 255 216 190
7.04777 438.178 -1529 255 214 191
10.1839 439.041 -1532 245 201 178
13.2974 438.759 -1531 245 200 176
16.4286 439.051 -1532 237 187 162
19.564 439.345 -1533 203 144 116
22.7036 439.64 -1534 198 137 109
25.8137 439.363 -1533 189 128 102
28.9389 439.374 -1533 190 126 100
32.0434 439.1 -1532 200 134 109
35.0293 437.393 -1526 216 156 130
38.1409 437.408 -1526 243 184 158
41.1719 436.563 -1523 240 184 156
44.3945 437.727 -1527 245 189 161
47.5093 437.745 -1527 212 158 134
50.8566 439.771 -1534 114 68 54
54.1976 441.512 -1540 97 71 67
57.4148 442.108 -1542 103 84 83
60.3656 440.698 -1537 102 86 84
63.5444 441.009 -1538 97 80 78
66.9012 442.469 -1543 88 71 68
69.7797 440.775 -1537 66 58 66
72.4919 438.222 -1528 63 55 64
76.3061 442.267 -1542 60 53 62
79.7143 443.732 -1547 55 50 58
82.4473 441.469 -1539 53 49 57
-102.193 435.828 -1530 222 240 247
-100.098 440.346 -1546 230 252 254
-97.563 443.155 -1556 225 249 252
-94.5629 443.972 -1559 194 220 223
-91.3169 443.651 -1558 180 208 210
-88.3021 444.47 -1561 174 202 205
-85.0032 443.866 -1559 219 248 252
-81.2932 440.987 -1549 232 253 252
-77.7257 438.678 -1541 238 254 254
-74.6271 438.933 -1542 242 253 250
-70.9688 435.773 -1531 242 253 252
-67.6218 434.323 -1526 244 253 254
-64.5495 434.581 -1527 246 254 255
-61.1117 432.28 -1519 245 253 255
-58.0124 432.257 -1519 245 253 255
-54.8775 431.95 -1518 247 253 255
-51.7812 431.929 -1518 247 252 254
-48.6854 431.909 -1518 255 251 253
-45.7102 433.029 -1522 255 243 239
-42.6069 433.012 -1522 251 232 220
-39.4782 432.711 -1521 248 231 211
-36.3538 432.412 -1520 245 215 194
-33.2777 432.682 -1521 229 196 174
-30.158 432.386 -1520 222 183 158
-27.096 432.943 -1522 226 185 159
-24.0261 433.502 -1524 235 189 164
-20.9345 433.778 -1525 236 192 166
-17.8041 433.202 -1523 236 193 166
-14.7108 433.48 -1524 237 193 162
-11.6135 433.759 -1525 237 193 163
-8.50674 433.755 -1525 242 195 167
-5.40004 433.752 -1525 246 198 169
-2.29338 433.751 -1525 251 203 174
0.814334 434.319 -1527 255 212 185
3.92763 434.605 -1528 255 216 192
7.04042 434.607 -1528 255 215 195
10.1732 435.464 -1531 250 202 182
13.3096 436.037 -1533 252 206 184
16.4328 436.043 -1533 239 190 164
19.5817 436.619 -1535 176 114 83
22.7684 437.765 -1539 179 115 85
25.8708 437.206 -1537 201 140 110
28.984 436.932 -1536 219 155 126
32.0726 436.375 -1534 212 147 118
35.0613 434.681 -1528 203 142 113
38.1259 434.127 -1526 233 174 145
41.1827 433.573 -1524 236 181 152
44.3188 433.875 -1525 244 187 158
47.5217 434.746 -1528 223 168 142
50.8696 436.757 -1535 141 97 79
54.2115 438.485 -1541 84 60 54
57.4665 439.361 -1544 78 60 57
60.538 438.815 -1542 88 74 71
63.7259 439.124 -1543 95 80 77
67.1781 441.142 -1550 86 71 67
70.1605 440.03 -1546 65 57 65
73.1273 438.92 -1542 65 57 65
76.7211 441.511 -1551 65 58 67
79.9919 442.112 -1553 61 56 64
-102.353 433.386 -1533 224 249 253
-100.253 437.87 -1549 220 249 254
-97.3368 438.962 -1553 218 249 254
-94.4653 440.338 -1558 189 220 225
-91.457 441.149 -1561 150 190 191
-88.3807 441.68 -1563 176 216 218
-84.7519 439.385 -1555 210 251 255
-81.3663 438.223 -1551 220 252 254
-77.897 436.496 -1545 225 253 255
-74.2593 433.642 -1535 231 254 254
-70.9874 432.766 -1532 235 254 254
-67.6841 431.609 -1528 239 253 255
-64.5243 431.301 -1527 235 252 254
-61.1681 429.582 -1521 235 253 254
-58.0661 429.559 -1521 236 254 255
-54.8922 428.972 -1519 237 253 253
-51.761 428.669 -1518 240 254 255
-48.6664 428.649 -1518 253 251 253
-45.6623 429.478 -1521 239 228 224
-42.5903 429.743 -1522 223 201 188
-39.4887 429.727 -1522 227 191 168
-36.4114 429.995 -1523 227 189 166
-33.3084 429.981 -1523 232 192 169
-30.2057 429.969 -1523 233 191 165
-27.0855 429.675 -1522 235 192 165
-24.001 429.948 -1523 239 193 164
-20.9127 430.221 -1524 239 194 165
-17.7854 429.649 -1522 239 196 167
-14.6954 429.925 -1523 241 197 166
-11.6014 430.202 -1524 244 198 168
-8.49798 430.199 -1524 247 197 172
-5.39088 429.914 -1523 249 198 171
-2.29409 430.759 -1526 251 199 171
0.815087 431.606 -1529 254 208 183
3.92859 431.607 -1529 255 211 188
7.04673 431.891 -1530 252 209 189
10.1825 432.741 -1533 241 193 174
13.3216 433.31 -1535 247 199 178
16.4478 433.316 -1535 222 170 143
19.5867 433.605 -1536 175 110 78
22.7595 434.461 -1539 194 128 95
25.8943 434.47 -1539 197 135 102
28.9727 433.634 -1536 224 163 129
32.0809 433.364 -1535 233 173 138
35.0935 431.965 -1530 218 158 126
38.161 431.415 -1528 234 178 146
41.1935 430.583 -1525 235 183 153
44.4758 432.294 -1531 241 184 155
47.5964 432.312 -1531 216 161 133
50.9161 434.025 -1537 170 125 103
54.2606 435.74 -1543 123 94 80
57.4068 435.762 -1543 103 80 69
60.4751 435.22 -1541 99 83 74
63.7835 436.374 -1545 94 81 73
67.2386 438.377 -1552 82 71 64
70.3599 438.121 -1551 70 60 68
73.5252 438.149 -1551 68 59 67
76.7901 438.744 -1553 69 61 69
79.7032 437.361 -1548 67 62 70
-102.847 432.338 -1541 220 251 254
-100.409 435.385 -1552 212 251 255
-97.4243 436.188 -1555 210 247 254
-94.3681 436.712 -1557 199 234 243
-91.2458 436.956 -1558 160 212 213
-88.0072 436.641 -1557 179 230 231
-84.5011 434.925 -1551 200 245 249
-81.3348 434.893 -1551 208 247 253
-77.7659 432.619 -1543 213 250 255
-74.2789 430.628 -1536 220 251 255
-70.9598 429.478 -1532 229 254 255
-67.702 428.61 -1529 239 255 255
-64.4993 428.024 -1527 230 251 254
-61.2248 426.879 -1523 227 249 252
-58.0436 426.295 -1521 222 249 255
-54.871 425.713 -1519 226 247 248
-51.775 425.692 -1519 235 253 251
-48.6796 425.673 -1519 250 250 248
-45.6747 426.495 -1522 226 216 206
-42.6019 426.759 -1523 216 192 171
-39.5254 427.023 -1524 228 192 166
-36.4212 427.008 -1524 231 193 167
-33.3174 426.995 -1524 235 193 168
-30.194 426.702 -1523 235 192 167
-27.0928 426.691 -1523 238 195 170
-23.9917 426.682 -1523 241 197 171
-20.9046 426.953 -1524 240 196 170
-17.7786 426.385 -1522 240 196 171
-14.6898 426.659 -1523 241 197 170
-11.5894 426.654 -1523 242 198 172
-8.48905 426.65 -1523 244 199 174
-5.38881 426.648 -1523 247 199 174
-2.29161 427.207 -1525 249 200 175
0.814586 428.327 -1529 252 205 180
3.92699 428.328 -1529 255 208 184
7.04403 428.61 -1530 252 204 182
10.1851 429.734 -1534 239 190 166
13.3426 430.859 -1538 221 170 144
16.4628 430.585 -1537 167 111 82
19.6174 431.152 -1539 173 112 80
22.7507 431.16 -1539 216 154 121
25.8842 431.17 -1539 206 147 114
28.9613 430.34 -1536 207 146 113
32.0684 430.071 -1535 232 171 138
35.1027 428.964 -1531 242 184 153
38.1212 427.857 -1527 243 186 155
41.2586 428.153 -1528 239 187 156
44.4586 429.01 -1531 235 180 150
47.7021 430.148 -1535 208 154 125
50.9624 431.288 -1539 185 135 109
54.2395 432.43 -1543 161 124 104
57.4218 432.732 -1544 143 111 93
60.5301 432.474 -1543 120 100 85
63.7587 433.059 -1545 99 84 73
66.9525 433.365 -1546 83 72 63
70.1965 433.952 -1548 74 63 69
73.3544 433.979 -1548 70 60 67
76.1671 432.046 -1541 69 60 68
79.209 431.515 -1539 66 61 68
-102.874 429.31 -1542 214 250 255
-99.9818 430.385 -1546 211 248 253
-97.3241 432.574 -1554 209 247 254
-94.0287 431.981 -1552 208 245 255
-90.8594 431.945 -1552 197 249 252
-87.8039 432.468 -1554 190 242 246
-84.4686 431.6 -1551 191 239 245
-81.0414 430.177 -1546 198 242 250
-77.8368 429.868 -1545 204 246 255
-74.3953 428.169 -1539 213 248 254
-71.0251 426.751 -1534 220 250 255
-67.7203 425.611 -1530 227 251 255
-64.6012 425.586 -1530 223 249 253
-61.2817 424.171 -1525 221 247 252
-58.0976 423.592 -1523 216 245 253
-54.9581 423.292 -1522 223 244 246
-51.8573 423.272 -1522 236 252 252
-48.725 422.974 -1521 249 247 242
-45.6571 423.234 -1522 220 207 194
-42.6134 423.774 -1524 222 196 172
-39.5102 423.758 -1524 229 192 166
-36.4072 423.743 -1524 230 191 165
-33.3046 423.73 -1524 234 192 167
-30.1824 423.44 -1523 237 195 170
-27.0824 423.429 -1523 239 197 172
-23.9983 423.697 -1524 241 198 172
-20.8966 423.689 -1524 241 197 172
-17.7834 423.403 -1523 241 197 173
-14.6938 423.675 -1524 241 198 171
-11.5849 423.392 -1523 240 196 170
-8.48034 423.11 -1522 242 197 171
-5.39029 423.664 -1524 244 198 171
-2.29233 424.218 -1526 249 202 176
0.815342 425.608 -1531 253 207 181
3.93329 425.887 -1532 255 209 185
7.05516 426.167 -1533 254 207 184
10.1811 426.448 -1534 246 198 170
13.3373 427.565 -1538 207 157 128
16.4458 427.014 -1536 168 114 83
19.5588 426.743 -1535 205 150 120
22.7124 427.308 -1537 227 172 142
25.8575 427.595 -1538 233 179 148
28.9314 426.771 -1535 223 164 134
32.056 426.783 -1535 226 164 134
35.1809 426.796 -1535 244 188 159
38.2312 425.976 -1532 248 192 162
41.3776 426.269 -1533 241 186 154
44.5576 426.842 -1535 223 171 139
47.8701 428.528 -1541 206 153 122
51.009 428.547 -1541 205 148 119
54.2537 429.401 -1544 184 136 110
57.3252 428.867 -1542 163 118 93
60.3892 428.333 -1540 131 102 83
63.4865 428.079 -1539 110 87 76
66.5804 427.825 -1538 94 76 70
69.5801 427.017 -1535 82 70 72
72.7578 427.323 -1536 76 64 68
75.6931 426.238 -1532 73 63 70
78.8699 426.546 -1533 68 60 65
-104.474 419.967 -1520 196 230 240
-102.902 426.282 -1543 210 247 255
-100.073 427.625 -1548 214 249 254
-97.0992 428.416 -1551 211 248 255
-93.9323 428.38 -1551 207 246 255
-90.7662 428.344 -1551 199 249 255
-87.5444 428.034 -1550 195 245 252
-84.1642 426.897 -1546 194 243 250
-80.9057 426.314 -1544 196 242 251
-77.6057 425.455 -1541 196 242 252
-74.3669 424.874 -1539 204 243 251
-70.9518 423.19 -1533 209 244 253
-67.7388 422.612 -1531 215 247 255
-64.4922 421.758 -1528 218 247 253
-61.2583 420.906 -1525 221 250 255
-58.1135 420.608 -1524 218 249 254
-55.0094 420.586 -1524 226 247 250
-51.8376 420.014 -1522 238 254 254
-48.7704 420.271 -1523 244 240 231
-45.6997 420.529 -1524 211 195 180
-42.6252 420.788 -1525 220 191 167
-39.4952 420.497 -1524 228 189 164
-36.3934 420.482 -1524 230 189 165
-33.2701 420.193 -1523 234 191 167
-30.171 420.181 -1523 238 195 171
-27.0898 420.446 -1524 239 197 172
-23.9891 420.436 -1524 241 198 172
-20.9024 420.704 -1525 240 197 171
-17.7883 420.421 -1524 239 196 170
-14.6785 420.139 -1523 239 196 168
-11.5806 420.134 -1523 238 194 166
-8.4826 420.13 -1523 238 192 163
-5.39532 420.955 -1526 241 195 165
-2.29456 421.505 -1528 249 202 173
0.815035 422.332 -1531 254 208 181
3.93171 422.609 -1532 255 210 185
7.05249 422.887 -1533 255 210 187
10.1838 423.442 -1535 254 212 186
13.3409 424.55 -1539 235 188 162
16.4502 424.004 -1537 218 170 141
19.5514 423.459 -1535 244 197 169
22.6742 423.467 -1535 251 207 179
25.7971 423.476 -1535 254 211 184
28.9015 423.211 -1534 252 203 176
31.9602 422.395 -1531 240 184 156
35.1904 423.787 -1536 246 190 161
38.2914 423.525 -1535 247 190 160
41.4698 424.092 -1537 231 173 141
44.6566 424.66 -1539 213 156 124
47.914 425.782 -1543 212 156 125
51.0557 425.801 -1543 210 153 124
54.2682 426.373 -1545 188 138 112
57.2662 425.29 -1541 164 117 92
60.4444 425.588 -1542 132 101 83
63.5035 425.06 -1540 113 88 78
66.5551 424.533 -1538 96 76 72
69.7802 425.111 -1540 87 74 74
73.0141 425.69 -1542 82 70 73
75.8122 423.786 -1535 79 68 75
-104.915 418.632 -1527 196 230 241
-102.996 423.527 -1545 208 246 255
-100.164 424.86 -1550 216 250 255
-97.3127 426.193 -1555 211 246 255
-93.6545 423.964 -1547 208 245 255
-90.7319 425.026 -1551 201 246 255
-87.3419 423.896 -1547 201 246 255
-84.1867 423.864 -1547 197 244 254
-80.8751 423.011 -1544 195 242 252
-77.7274 422.981 -1544 193 240 250
-74.3871 421.856 -1540 200 241 250
-70.9712 420.185 -1534 202 242 252
-67.8016 419.885 -1533 209 247 255
-64.4677 418.491 -1528 219 250 255
-61.2753 417.919 -1526 221 252 255
-58.1297 417.623 -1525 215 249 254
-55.0247 417.602 -1525 229 250 254
-51.9542 417.855 -1526 241 255 255
-48.848 417.836 -1526 229 220 207
-45.7124 417.545 -1525 205 186 168
-42.609 417.528 -1525 218 186 161
-39.4802 417.239 -1524 229 188 165
-36.3558 416.951 -1523 232 189 166
-33.2575 416.938 -1523 234 188 166
-30.1595 416.926 -1523 237 194 169
-27.0618 416.915 -1523 237 195 169
-24.0116 417.727 -1526 238 195 168
-20.9219 417.992 -1527 237 194 166
-17.7933 417.437 -1525 236 193 165
-14.6826 417.157 -1524 237 192 163
-11.5838 417.153 -1524 237 192 163
-8.4795 416.875 -1523 236 191 160
-5.38975 417.42 -1525 240 193 162
-2.2936 418.24 -1528 247 200 168
0.815262 419.334 -1532 253 206 178
3.93014 419.335 -1532 253 207 180
7.05424 419.885 -1534 255 211 186
10.1668 419.614 -1533 255 213 190
13.3099 420.44 -1536 255 215 190
16.4118 419.898 -1534 255 211 184
19.5058 419.357 -1532 255 214 189
22.6508 419.913 -1534 255 213 188
25.737 419.374 -1532 255 212 187
28.834 419.111 -1531 255 206 179
31.969 419.396 -1532 254 201 173
35.2 420.778 -1537 251 195 165
38.3518 421.065 -1538 231 173 142
41.535 421.628 -1540 212 152 119
44.7846 422.74 -1544 208 147 117
47.989 423.305 -1546 209 150 119
51.0694 422.776 -1544 206 150 120
54.2475 423.069 -1545 187 137 110
57.3559 422.817 -1544 162 115 89
60.5 422.839 -1544 132 99 82
63.6855 423.136 -1545 116 89 79
66.7029 422.339 -1542 98 78 74
69.9349 422.913 -1544 86 72 70
73.1757 423.488 -1546 83 70 71
76.1785 422.694 -1543 76 65 72
-107.005 411.598 -1513 144 176 189
-105.631 418.359 -1538 199 236 247
-103.224 421.312 -1549 213 251 255
-100.127 421.546 -1550 215 250 255
-97.151 422.325 -1553 215 250 255
-93.6194 420.658 -1547 212 247 254
-90.4638 420.623 -1547 203 245 253
-87.0833 419.502 -1543 205 246 255
-83.883 419.199 -1542 206 246 255
-80.5305 418.08 -1538 205 246 255
-77.6479 419.41 -1543 199 241 251
-74.3108 418.294 -1539 203 241 250
-70.9908 417.18 -1535 205 242 252
-67.7319 416.339 -1532 212 248 255
-64.4857 415.499 -1529 218 251 255
-61.3326 415.203 -1528 218 251 255
-58.1841 414.909 -1527 213 247 253
-55.0762 414.888 -1527 230 250 253
-51.9687 414.868 -1527 236 251 253
-48.9258 415.393 -1529 207 196 180
-45.7552 414.832 -1527 205 185 164
-42.649 414.815 -1527 219 186 159
-39.4913 414.257 -1525 229 186 162
-36.3422 413.699 -1523 232 187 164
-33.2233 413.415 -1522 234 187 164
-30.1285 413.403 -1522 235 191 164
-27.034 413.392 -1522 233 191 163
-23.9869 414.198 -1525 233 189 160
-20.9004 414.461 -1526 233 190 161
-17.7867 414.182 -1525 234 191 162
-14.6868 414.176 -1525 234 190 160
-11.5947 414.443 -1526 234 190 159
-8.48737 414.167 -1525 232 187 155
-5.39853 414.979 -1528 236 190 157
-2.29434 415.25 -1529 242 195 162
0.814427 415.792 -1531 246 199 169
3.92601 415.793 -1531 244 197 168
7.03322 415.524 -1530 252 206 177
10.1431 415.527 -1530 255 214 192
13.2789 416.346 -1533 255 212 189
16.3735 415.809 -1531 255 212 187
19.4602 415.272 -1529 255 213 189
22.5832 415.552 -1530 255 212 188
25.6936 415.561 -1530 255 212 188
28.8043 415.571 -1530 254 207 181
31.9571 416.126 -1532 245 193 165
35.1639 417.225 -1536 223 168 136
38.3373 417.782 -1538 201 143 111
41.5463 418.612 -1541 197 134 100
44.7679 419.443 -1544 209 146 115
48.002 420.275 -1547 211 150 119
51.0834 419.75 -1545 205 150 118
54.2272 419.77 -1545 185 135 107
57.4087 420.063 -1546 161 114 87
60.5554 420.085 -1546 133 101 78
63.8264 420.923 -1549 119 92 77
66.8941 420.404 -1547 104 83 75
70.135 420.973 -1549 88 74 72
73.3848 421.544 -1551 87 74 74
76.6927 422.387 -1554 81 70 77
-108.308 413.495 -1532 185 219 234
-106.004 416.693 -1544 201 241 252
-103.385 418.814 -1552 212 253 255
-100.348 419.315 -1554 216 251 255
-97.1147 419.009 -1553 218 252 255
-93.7659 418.164 -1550 217 250 254
-90.3717 417.051 -1546 211 250 254
-86.9945 415.939 -1542 213 250 255
-83.9062 416.177 -1543 216 250 255
-80.6576 415.607 -1541 215 249 255
-77.5183 415.578 -1541 206 241 249
-74.235 414.74 -1538 210 243 253
-70.9644 413.904 -1535 212 245 253
-67.7067 413.07 -1532 213 247 252
-64.4617 412.237 -1529 216 250 254
-61.2696 411.674 -1527 215 249 253
-58.1625 411.652 -1527 214 247 253
-55.0918 411.9 -1528 234 251 253
-52.0515 412.42 -1530 220 232 231
-48.9715 412.671 -1531 196 183 165
-45.7981 412.114 -1529 208 184 162
-42.661 411.828 -1528 221 185 157
-39.4767 411.004 -1525 229 184 159
-36.3286 410.451 -1523 230 184 160
-33.2109 410.169 -1522 233 185 162
-30.1371 410.427 -1523 233 188 160
-27.0417 410.416 -1523 231 188 158
-23.9937 411.215 -1526 233 187 157
-20.9063 411.476 -1527 233 188 158
-17.8034 411.469 -1527 232 189 158
-14.7103 411.733 -1528 231 187 157
-11.6055 411.728 -1528 231 187 156
-8.501 411.724 -1528 230 187 153
-5.40005 411.991 -1529 236 191 157
-2.29489 412.259 -1530 238 193 159
0.813595 412.259 -1530 240 193 160
3.92465 412.529 -1531 232 184 151
7.02602 411.992 -1529 244 195 162
10.1326 411.995 -1529 255 211 190
13.2478 412.269 -1530 255 215 193
16.3675 412.544 -1531 255 213 188
19.453 412.012 -1529 255 213 190
22.56 412.02 -1529 255 210 186
25.7177 412.837 -1532 246 195 172
28.8313 412.847 -1532 225 171 145
32.0076 413.667 -1535 202 146 118
35.2422 415.027 -1540 194 136 105
38.4477 415.849 -1543 193 133 101
41.6656 416.673 -1546 204 141 108
44.809 416.689 -1546 210 148 119
48.0151 417.245 -1548 218 157 127
51.1964 417.533 -1549 210 155 122
54.2771 417.013 -1547 186 136 106
57.4243 417.034 -1547 164 117 88
60.5329 416.786 -1546 140 107 82
63.8439 417.888 -1550 123 96 78
66.8689 417.103 -1547 108 87 75
70.2446 418.477 -1552 89 74 71
73.5467 419.313 -1555 86 72 73
-109.399 414.51 -1548 185 221 239
-106.377 415.006 -1550 194 238 250
-103.414 415.77 -1553 204 249 255
-100.31 416 -1554 216 250 255
-97.0789 415.696 -1553 218 251 255
-93.5499 414.055 -1547 219 253 255
-90.2214 413.219 -1544 215 250 254
-87.0187 412.918 -1543 218 251 255
-83.6577 411.817 -1539 224 252 255
-80.5231 411.786 -1539 226 251 255
-77.3388 411.49 -1538 221 245 253
-74.0628 410.659 -1535 221 246 255
-70.8458 410.098 -1533 218 246 252
-67.5492 409.002 -1529 217 247 250
-64.4379 408.978 -1529 217 251 255
-61.2872 408.687 -1528 217 250 255
-58.2553 409.2 -1530 218 249 255
-55.1436 409.179 -1530 237 251 249
-52.0663 409.427 -1531 201 209 204
-48.9855 409.676 -1532 198 183 165
-45.8411 409.391 -1531 209 184 161
-42.7011 409.107 -1530 218 181 152
-39.488 408.023 -1526 226 181 154
-36.3868 408.009 -1526 229 183 157
-33.2423 407.461 -1524 230 182 158
-30.1457 407.45 -1524 228 183 154
-27.0494 407.439 -1524 227 184 152
-23.9848 407.965 -1526 230 185 151
-20.8986 408.224 -1527 229 185 152
-17.7969 408.217 -1527 226 183 152
-14.7048 408.478 -1528 227 182 149
-11.6164 409.008 -1530 226 182 149
-8.50889 409.004 -1530 226 183 149
-5.40159 409.002 -1530 230 186 151
-2.29563 409.267 -1531 232 187 151
0.813298 409 -1530 231 184 151
3.92311 409.268 -1531 212 164 130
7.03261 409.27 -1531 208 159 125
10.1488 409.541 -1532 232 180 156
13.2689 409.812 -1533 237 185 160
16.3934 410.085 -1534 237 185 158
19.5094 410.092 -1534 227 172 146
22.6107 409.832 -1533 214 159 133
25.7585 410.376 -1535 204 148 122
28.877 410.386 -1535 187 129 101
32.0583 411.199 -1538 181 120 91
35.2749 412.281 -1542 190 130 99
38.4584 412.829 -1544 204 143 112
41.6232 413.111 -1545 216 154 122
44.8505 413.93 -1548 217 157 128
48.0593 414.482 -1550 222 163 133
51.1775 414.232 -1549 216 160 128
54.3973 414.787 -1551 191 140 109
57.6258 415.342 -1553 171 123 93
60.8237 415.631 -1554 145 112 85
64.1907 416.992 -1559 123 97 75
67.2333 416.214 -1556 107 87 71
70.5806 417.309 -1560 91 75 71
73.8032 417.603 -1561 82 68 67
77.3262 419.504 -1568 75 64 71
-112.663 411.782 -1550 168 193 213
-110.065 413.867 -1558 184 218 236
-106.612 412.765 -1554 177 233 241
-103.442 412.726 -1554 188 246 253
-100.145 412.158 -1552 215 248 255
-97.1058 412.653 -1554 212 248 254
-93.5156 410.76 -1547 212 251 254
-90.3636 410.726 -1547 215 252 255
-87.156 410.428 -1546 222 255 255
-83.6815 408.804 -1540 228 254 255
-80.4936 408.509 -1539 231 252 255
-77.2602 407.949 -1537 231 251 255
-74.0356 407.391 -1535 227 250 255
-70.8199 406.834 -1533 224 250 255
-67.6128 406.278 -1531 220 250 253
-64.4565 405.988 -1530 214 249 253
-61.3449 405.965 -1530 214 248 253
-58.3481 406.739 -1533 221 251 255
-55.1954 406.453 -1532 238 250 245
-52.1832 407.23 -1535 192 197 189
-49.0634 407.211 -1535 204 185 168
-45.8842 406.663 -1533 211 183 160
-42.6855 405.852 -1530 216 178 148
-39.4735 404.776 -1526 220 176 147
-36.3973 405.027 -1527 223 178 150
-33.2737 404.749 -1526 226 179 152
-30.1545 404.472 -1525 224 180 149
-27.0396 404.197 -1524 223 180 148
-23.9761 404.718 -1526 224 179 145
-20.891 404.975 -1527 224 179 145
-17.802 405.233 -1528 222 179 145
-14.7187 405.757 -1530 223 179 144
-11.6274 406.283 -1532 224 180 145
-8.52254 406.545 -1533 226 182 147
-5.40313 406.012 -1531 228 183 147
-2.29788 406.541 -1533 226 180 144
0.813875 406.275 -1532 221 174 141
3.92689 406.541 -1533 205 158 125
7.03922 406.543 -1533 190 142 108
10.1648 407.077 -1535 184 132 103
13.29 407.347 -1536 189 136 107
16.4195 407.617 -1537 204 149 119
19.5531 407.889 -1538 203 147 117
22.6761 407.897 -1538 209 152 122
25.833 408.436 -1540 207 151 121
28.9792 408.711 -1541 200 140 110
32.1508 409.253 -1543 199 137 107
35.3307 409.796 -1545 208 147 117
38.4941 410.074 -1546 219 158 127
41.6619 410.354 -1547 223 164 131
44.834 410.635 -1548 221 165 133
48.0418 411.183 -1550 224 168 137
51.2578 411.731 -1552 219 162 133
54.4125 411.751 -1552 197 144 117
57.7159 412.832 -1556 176 125 98
60.9187 413.12 -1557 144 111 84
64.2907 414.469 -1562 122 97 75
67.5541 415.024 -1564 105 87 71
70.7357 415.049 -1564 94 77 74
73.8233 414.545 -1562 87 72 72
77.347 416.43 -1569 81 70 77
-113.421 411.381 -1561 168 193 212
-110.237 411.34 -1561 181 212 231
-106.573 409.457 -1554 160 226 232
-103.338 409.155 -1553 179 247 251
-100.108 408.855 -1552 214 249 255
-96.7582 408.029 -1549 210 248 254
-93.4816 407.468 -1547 205 246 251
-90.2724 407.171 -1546 213 250 254
-86.9552 406.349 -1543 220 253 255
-83.7054 405.791 -1541 229 254 255
-80.412 404.972 -1538 232 253 255
-77.1819 404.417 -1536 231 251 255
-73.9123 403.599 -1533 227 251 255
-70.7018 403.047 -1531 224 251 255
-67.5441 402.758 -1530 219 249 253
-64.4331 402.735 -1530 212 250 254
-61.3227 402.712 -1530 214 250 254
-58.3269 403.48 -1533 221 252 255
-55.2114 403.459 -1533 237 249 242
-52.1643 403.966 -1535 188 192 182
-49.0457 403.948 -1535 203 183 166
-45.8675 403.404 -1533 208 179 156
-42.6979 402.862 -1531 213 174 143
-39.5627 402.584 -1530 214 172 141
-36.4318 402.307 -1529 215 172 142
-33.2835 401.769 -1527 218 173 143
-30.1831 401.757 -1527 219 176 144
-27.0475 401.22 -1525 219 176 144
-23.9517 401.211 -1525 221 176 142
-20.8971 401.993 -1528 221 176 140
-17.8072 402.249 -1529 221 176 140
-14.7327 403.032 -1532 222 177 141
-11.6384 403.554 -1534 222 177 141
-8.5362 404.076 -1536 219 174 136
-5.41175 403.547 -1534 221 175 139
-2.30144 404.072 -1536 221 175 139
0.815705 404.072 -1536 209 164 132
3.93817 404.599 -1538 204 158 126
7.05502 404.338 -1537 193 146 114
10.1875 404.867 -1539 200 148 115
13.3198 405.134 -1540 223 172 138
16.4455 405.14 -1540 213 159 124
19.5841 405.409 -1541 206 152 119
22.7121 405.417 -1541 225 171 138
25.8739 405.952 -1543 222 169 134
28.9875 405.699 -1542 218 161 128
32.1599 406.236 -1544 219 158 128
35.2949 406.248 -1544 223 164 135
38.4801 406.788 -1546 227 169 138
41.6466 407.066 -1547 228 170 137
44.8467 407.608 -1549 227 172 139
48.0552 408.151 -1551 227 173 141
51.2392 408.432 -1552 223 165 140
54.4277 408.714 -1553 201 147 123
57.5837 408.734 -1553 174 122 100
60.8184 409.282 -1555 140 105 82
64.0204 409.568 -1556 120 94 75
67.141 409.329 -1555 108 91 77
70.2126 408.827 -1553 99 81 78
73.4656 409.38 -1555 91 75 75
76.6783 409.67 -1556 85 74 80
-110.126 407.759 -1560 173 203 222
-106.535 406.152 -1554 148 222 227
-103.168 405.33 -1551 173 249 252
-100.008 405.294 -1551 210 251 255
-96.7857 404.997 -1550 210 251 255
-93.5687 404.702 -1549 207 248 253
-90.2398 403.885 -1546 204 241 249
-87.0929 403.853 -1546 208 243 249
-83.7839 403.039 -1543 219 248 252
-80.4877 402.226 -1540 225 252 255
-77.3048 401.936 -1539 226 252 255
-73.9821 400.865 -1535 220 250 255
-70.7225 400.055 -1532 219 250 255
-67.4756 399.247 -1529 215 246 253
-64.3678 399.223 -1529 210 247 254
-61.2605 399.201 -1529 213 249 255
-58.2679 399.963 -1532 219 253 255
-55.1915 400.203 -1533 234 249 241
-52.1116 400.445 -1534 182 190 180
-49.028 400.688 -1535 200 180 163
-45.881 400.41 -1534 205 177 153
-42.7104 399.872 -1532 210 173 142
-39.5485 399.335 -1530 211 170 138
-36.4187 399.061 -1529 209 167 135
-33.3151 399.048 -1529 211 168 133
-30.192 398.776 -1528 212 168 135
-27.091 398.766 -1528 212 169 135
-23.9902 398.757 -1528 215 170 134
-20.8896 398.749 -1528 216 171 135
-17.8008 399.003 -1529 219 174 136
-14.7369 400.041 -1533 220 174 137
-11.6343 400.297 -1534 220 174 137
-8.53876 401.076 -1537 217 172 135
-5.42036 401.074 -1537 217 171 136
-2.3037 401.333 -1538 212 166 131
0.816475 401.333 -1538 204 159 128
3.94177 401.856 -1540 202 156 125
7.06165 401.597 -1539 221 175 145
10.2038 402.383 -1542 254 211 175
13.3409 402.648 -1543 232 181 144
16.493 403.175 -1545 205 154 117
19.6151 402.921 -1544 215 164 128
22.748 402.928 -1544 239 187 152
25.9148 403.459 -1546 239 189 152
29.0147 402.947 -1544 229 175 142
32.1691 403.219 -1545 228 171 141
35.305 403.231 -1545 230 174 144
38.5159 404.027 -1548 232 176 145
41.6586 404.042 -1548 232 176 143
44.9175 405.101 -1552 233 180 146
48.1308 405.64 -1554 233 180 148
51.2869 405.658 -1554 226 170 147
54.5132 406.199 -1556 205 151 129
57.6741 406.219 -1556 175 123 102
60.8355 406.241 -1556 143 106 86
63.9563 406.002 -1555 124 96 80
67.0735 405.764 -1554 105 87 76
70.1873 405.528 -1553 97 79 76
73.2975 405.292 -1552 93 77 76
76.4537 405.319 -1552 87 76 81
-109.805 403.408 -1556 171 200 220
-106.634 403.369 -1556 140 218 226
-103.131 402.036 -1551 161 241 247
-99.9718 402 -1551 203 251 254
-96.7511 401.706 -1550 211 253 255
-93.4748 401.153 -1548 214 253 255
-90.2076 400.602 -1546 214 250 255
-87.0055 400.312 -1545 207 242 249
-83.8082 400.022 -1544 208 239 245
-80.5111 399.216 -1541 205 239 244
-77.3275 398.929 -1540 201 235 240
-73.9557 397.607 -1535 194 233 239
-70.6972 396.804 -1532 203 238 246
-67.4956 396.261 -1530 212 243 252
-64.3448 395.979 -1529 211 246 254
-61.3188 396.474 -1531 209 245 253
-58.2471 396.712 -1532 211 250 254
-55.1718 396.951 -1533 229 248 242
-52.093 397.191 -1534 179 191 183
-49.0105 397.432 -1535 202 182 166
-45.8945 397.415 -1535 207 179 156
-42.751 397.14 -1534 211 174 144
-39.6119 396.867 -1533 209 169 136
-36.501 396.853 -1533 205 164 130
-33.3904 396.841 -1533 207 165 127
-30.1812 395.535 -1528 208 165 129
-27.0814 395.525 -1528 209 165 131
-23.9503 394.998 -1526 212 166 130
-20.8822 395.508 -1528 213 167 130
-17.7829 395.501 -1528 214 169 131
-14.7125 396.272 -1531 215 169 131
-11.6301 397.044 -1534 213 168 130
-8.53559 397.817 -1537 210 166 131
-5.4186 397.814 -1537 208 163 130
-2.30446 398.331 -1539 204 159 126
0.816185 398.072 -1538 205 159 130
3.94046 398.59 -1540 230 186 156
7.0637 398.592 -1540 247 204 175
10.2066 399.372 -1543 232 181 144
13.3361 399.376 -1543 210 159 122
16.4977 400.158 -1546 210 159 121
19.6335 400.164 -1546 227 177 140
22.7547 399.913 -1545 247 198 161
25.9223 400.439 -1547 236 186 149
29.0042 399.672 -1544 230 180 147
32.1577 399.942 -1545 233 181 151
35.3153 400.213 -1546 236 183 151
38.527 401.003 -1549 240 186 154
41.6706 401.017 -1549 241 185 152
44.9303 402.068 -1553 239 187 152
48.1136 402.344 -1554 236 185 151
51.3014 402.62 -1555 228 180 153
54.5637 403.416 -1558 211 162 137
57.7277 403.436 -1558 180 132 108
60.97 403.975 -1560 150 111 89
64.0567 403.479 -1558 132 101 82
67.2652 403.762 -1559 113 91 77
70.4333 403.786 -1559 101 82 77
73.5546 403.553 -1558 97 79 77
76.7217 403.579 -1558 90 78 83
-109.766 400.106 -1556 172 201 222
-106.527 399.811 -1555 134 216 225
-103.161 399.002 -1552 150 232 240
-99.9364 398.709 -1551 193 248 252
-96.7168 398.417 -1550 209 252 254
-93.4417 397.87 -1548 217 254 255
-90.2339 397.58 -1547 219 252 255
-87.031 397.292 -1546 219 251 255
-83.8327 397.005 -1545 221 253 255
-80.6393 396.719 -1544 214 251 254
-77.4005 396.177 -1542 208 245 250
-74.074 395.123 -1538 202 244 250
-70.8106 394.327 -1535 208 244 252
-67.604 393.788 -1533 216 247 255
-64.3642 392.995 -1530 213 247 254
-61.2971 393.229 -1531 204 240 248
-58.1885 393.208 -1531 194 236 243
-55.1523 393.702 -1533 219 245 243
-52.0406 393.683 -1533 184 204 199
-48.9613 393.922 -1534 203 186 170
-45.8484 393.905 -1534 208 182 160
-42.7637 394.147 -1535 210 175 146
-39.6237 393.875 -1534 209 169 136
-36.4404 393.092 -1531 203 163 129
-33.3568 393.336 -1532 204 163 123
-30.2102 392.811 -1530 205 162 124
-27.1072 392.801 -1530 206 162 125
-23.9575 392.022 -1527 207 161 123
-20.9022 392.785 -1530 206 161 123
-17.7882 392.521 -1529 206 161 123
-14.6977 392.772 -1530 205 160 122
-11.6259 393.794 -1534 202 158 121
-8.52708 394.304 -1536 201 158 126
-5.41667 394.558 -1537 200 155 123
-2.30055 394.557 -1537 204 159 127
0.816427 395.07 -1539 238 194 165
3.93896 395.328 -1540 244 203 173
7.06577 395.587 -1541 220 173 142
10.2097 396.36 -1544 207 156 121
13.3486 396.621 -1545 211 160 124
16.4919 396.883 -1546 221 172 135
19.6265 396.889 -1546 236 187 151
22.7614 396.896 -1546 241 192 157
25.9298 397.419 -1548 243 192 154
29.0127 396.658 -1545 241 192 158
32.1878 397.182 -1547 240 193 162
35.3028 396.938 -1546 245 194 160
38.5134 397.721 -1549 246 194 160
41.6558 397.735 -1549 247 192 157
44.9142 398.777 -1553 244 192 158
48.1275 399.307 -1555 238 188 154
51.3163 399.582 -1556 227 185 154
54.5794 400.371 -1559 217 174 144
57.7812 400.647 -1560 195 150 121
60.9095 400.412 -1559 168 128 101
64.0341 400.177 -1558 149 113 91
67.2415 400.457 -1559 131 103 86
70.2727 399.71 -1556 108 88 81
73.7174 401.277 -1562 98 80 77
76.793 400.79 -1560 91 79 85
80.0151 401.075 -1561 80 76 84
-109.727 396.807 -1556 170 195 215
-106.558 396.769 -1556 134 216 223
-103.125 395.713 -1552 145 228 235
-99.9013 395.422 -1551 181 244 251
-96.6828 395.133 -1550 203 252 255
-93.2882 394.08 -1546 215 254 255
-90.1439 394.048 -1546 228 252 255
-86.8879 393.507 -1544 227 252 254
-83.6948 393.222 -1543 228 254 253
-80.5066 392.939 -1542 225 254 255
-77.3733 392.911 -1542 224 254 255
-74.1443 392.375 -1540 223 254 255
-70.8319 391.331 -1536 221 252 255
-67.6244 390.797 -1534 219 250 254
-64.3836 390.01 -1531 213 250 254
-61.2356 389.733 -1530 210 249 253
-58.0921 389.457 -1529 186 233 239
-55.0251 389.692 -1530 201 240 242
-51.9206 389.674 -1530 206 242 243
-48.8803 390.165 -1532 207 203 183
-45.8323 390.658 -1534 204 186 163
-42.7487 390.897 -1535 208 175 149
-39.6098 390.629 -1534 213 169 139
-36.4991 390.615 -1534 205 162 130
-33.4104 390.858 -1535 201 162 122
-30.239 390.083 -1532 200 159 120
-27.1155 389.818 -1531 199 158 119
-24.0119 389.809 -1531 205 159 124
-20.9085 389.801 -1531 203 157 121
-17.7937 389.54 -1530 204 157 121
-14.7118 390.044 -1532 203 160 125
-11.6068 390.039 -1532 194 152 118
-8.5186 390.799 -1535 193 153 124
-5.4077 390.797 -1535 214 173 143
-2.29833 391.05 -1536 253 214 184
0.81508 391.304 -1537 245 204 173
3.9351 391.814 -1539 208 159 126
7.05868 392.071 -1540 207 156 122
10.206 393.092 -1544 210 156 117
13.3353 393.097 -1544 215 161 123
16.486 393.611 -1546 230 179 142
19.6322 393.872 -1547 242 193 157
22.7387 393.37 -1545 243 194 159
25.8873 393.633 -1546 245 193 156
29.0026 393.388 -1545 243 194 160
32.1556 393.654 -1546 243 197 166
35.336 394.175 -1548 246 197 163
38.5497 394.952 -1551 245 194 160
41.668 394.711 -1550 247 192 156
44.8696 395.235 -1552 243 192 160
48.1105 396.016 -1555 240 190 158
51.2651 396.033 -1555 228 191 156
54.5603 397.07 -1559 220 181 146
57.7609 397.345 -1560 206 164 130
60.888 397.111 -1559 186 145 111
64.1348 397.642 -1561 163 125 96
67.304 397.665 -1561 146 112 89
70.3835 397.18 -1559 121 100 92
73.9744 399.498 -1568 102 84 80
76.8644 397.996 -1562 93 81 88
-113.293 395.068 -1562 157 185 204
-109.76 393.765 -1557 156 187 206
