ply
format ascii 1.0
comment Created by Open3D
element vertex 1374
property double x
property double y
property double z
property uchar red
property uchar green
property uchar blue
end_header
-502.101 -501.73 -1168 175 129 63
-499.42 -500.904 -1166 175 129 62
-497.172 -500.507 -1165 175 129 62
-494.501 -499.681 -1163 167 121 55
-492.26 -499.284 -1162 162 116 50
-490.022 -498.886 -1161 161 116 50
-487.787 -498.489 -1160 166 121 55
-484.717 -497.232 -1157 168 123 57
-482.49 -496.835 -1156 165 120 54
-480.267 -496.437 -1155 165 119 54
-478.046 -496.039 -1154 166 120 55
-475.828 -495.642 -1153 166 119 53
-473.613 -495.244 -1152 164 117 51
-471.81 -495.275 -1152 167 122 57
-469.599 -494.877 -1151 166 121 56
-467.391 -494.479 -1150 172 127 63
-465.186 -494.081 -1149 170 125 61
-463.387 -494.113 -1149 162 116 51
-461.587 -494.144 -1149 172 126 61
-459.387 -493.746 -1148 172 128 66
-457.589 -493.777 -1148 172 128 66
-455.393 -493.378 -1147 168 127 61
-453.596 -493.41 -1147 166 125 59
-451.798 -493.441 -1147 164 124 58
-449.608 -493.042 -1146 166 126 60
-447.42 -492.643 -1145 171 130 64
-445.236 -492.244 -1144 175 134 68
-442.667 -491.414 -1142 172 132 66
-440.875 -491.445 -1142 170 130 64
-438.699 -491.045 -1141 172 132 66
-436.526 -490.646 -1140 174 134 68
-434.356 -490.246 -1139 171 132 67
-432.568 -490.277 -1139 170 131 66
-430.78 -490.307 -1139 172 134 68
-428.615 -489.907 -1138 173 135 69
-426.828 -489.937 -1138 173 134 68
-425.041 -489.968 -1138 171 132 66
-423.625 -490.429 -1139 175 136 71
-421.836 -490.459 -1139 177 138 73
-420.046 -490.489 -1139 172 133 69
-418.256 -490.519 -1139 172 133 69
-416.466 -490.549 -1139 173 134 74
-415.04 -491.01 -1140 170 131 71
-413.61 -491.471 -1141 165 131 73
-411.816 -491.501 -1141 160 126 68
-410.38 -491.961 -1142 158 124 66
-408.942 -492.422 -1143 159 125 67
-407.856 -493.314 -1145 160 126 70
-406.409 -493.774 -1146 161 127 71
-404.959 -494.235 -1147 161 127 72
-403.505 -494.696 -1148 160 126 71
-402.398 -495.587 -1150 162 128 72
-401.284 -496.479 -1152 163 129 73
-399.123 -496.077 -1151 163 128 74
-397.656 -496.538 -1152 161 126 72
-396.185 -496.999 -1153 161 126 73
-395.052 -497.89 -1155 163 128 75
-393.573 -498.351 -1156 161 128 75
-392.429 -499.242 -1158 159 126 73
-390.941 -499.703 -1159 159 126 74
-389.45 -500.163 -1160 158 125 73
-388.289 -501.055 -1162 161 127 73
-387.122 -501.947 -1164 163 129 75
-386.279 -503.27 -1167 166 132 78
-385.756 -505.024 -1171 169 135 81
-386.204 -508.073 -1178 165 135 86
-386.629 -511.121 -1185 163 133 84
-387.032 -514.17 -1192 155 125 75
-387.413 -517.219 -1199 149 119 69
-387.128 -519.406 -1204 140 112 61
-386.507 -521.161 -1208 141 113 62
-386.191 -523.348 -1213 141 112 63
-386.176 -525.967 -1219 140 111 62
-386.458 -529.017 -1226 144 115 68
-598.482 -543.93 -1264 153 120 92
-585.19 -533.639 -1240 161 127 67
-576.677 -527.649 -1226 159 125 65
-571.488 -524.672 -1219 165 123 57
-566.321 -521.694 -1212 165 123 57
-562.107 -519.577 -1207 173 123 55
-558.836 -518.32 -1204 173 123 55
-556.037 -517.494 -1202 169 123 56
-552.783 -516.237 -1199 166 120 53
-549.538 -514.98 -1196 164 121 53
-547.218 -514.584 -1195 167 124 56
-544.9 -514.188 -1194 169 123 56
-541.676 -512.93 -1191 169 123 56
-538.914 -512.103 -1189 171 123 56
-536.61 -511.706 -1188 170 122 55
-534.309 -511.309 -1187 167 121 56
-531.561 -510.482 -1185 167 121 56
-529.267 -510.085 -1184 173 125 58
-526.53 -509.257 -1182 176 128 61
-524.243 -508.86 -1181 176 128 59
-521.517 -508.032 -1179 176 128 59
-518.796 -507.203 -1177 178 130 61
-516.082 -506.375 -1175 179 131 62
-513.811 -505.977 -1174 174 128 63
-511.106 -505.149 -1172 174 128 63
-508.842 -504.751 -1171 177 128 64
-506.581 -504.353 -1170 180 131 67
-503.892 -503.524 -1168 177 131 66
-501.208 -502.694 -1166 173 127 62
-498.959 -502.296 -1165 171 125 58
-496.712 -501.898 -1164 172 126 59
-494.044 -501.068 -1162 168 122 55
-492.228 -501.101 -1162 165 119 52
-489.99 -500.702 -1161 163 120 52
-487.755 -500.303 -1160 166 123 55
-484.684 -499.042 -1157 167 123 58
-482.458 -498.643 -1156 166 122 57
-479.819 -497.812 -1154 167 121 56
-477.6 -497.413 -1153 167 121 56
-475.383 -497.013 -1152 168 120 53
-473.17 -496.614 -1151 168 120 53
-471.369 -496.646 -1151 169 125 60
-469.159 -496.246 -1150 169 125 60
-467.359 -496.278 -1150 172 128 64
-465.559 -496.31 -1150 168 124 60
-463.355 -495.91 -1149 160 114 50
-461.556 -495.942 -1149 170 124 60
-459.356 -495.542 -1148 171 128 66
-457.558 -495.573 -1148 170 127 65
-455.362 -495.173 -1147 166 126 61
-453.564 -495.204 -1147 165 125 60
-451.767 -495.235 -1147 164 124 59
-449.184 -494.403 -1145 165 125 60
-446.999 -494.002 -1144 169 129 63
-444.816 -493.602 -1143 173 133 67
-442.636 -493.201 -1142 173 133 67
-440.844 -493.232 -1142 172 132 66
-438.284 -492.399 -1140 174 134 68
-436.495 -492.43 -1140 174 134 68
-434.325 -492.028 -1139 171 133 67
-432.537 -492.059 -1139 170 132 66
-430.749 -492.089 -1139 172 133 70
-428.961 -492.12 -1139 172 133 70
-426.798 -491.718 -1138 174 134 69
-425.011 -491.749 -1138 172 132 67
-423.595 -492.211 -1139 174 135 72
-421.806 -492.242 -1139 176 137 74
-419.647 -491.84 -1138 173 134 71
-418.226 -492.302 -1139 172 133 70
-416.436 -492.332 -1139 173 134 73
-414.646 -492.362 -1139 169 130 69
-413.58 -493.257 -1141 166 132 74
-411.786 -493.287 -1141 160 126 68
-410.351 -493.749 -1142 158 124 66
-408.912 -494.211 -1143 159 125 67
-407.47 -494.673 -1144 160 126 70
-406.734 -496 -1147 162 128 72
-405.282 -496.463 -1148 163 128 74
-403.827 -496.925 -1149 163 128 74
-402.718 -497.82 -1151 159 125 67
-401.254 -498.282 -1152 161 127 69
-399.787 -498.744 -1153 161 126 72
-397.971 -498.774 -1153 161 126 72
-396.499 -499.236 -1154 160 125 73
-395.365 -500.131 -1156 161 126 74
-393.884 -500.593 -1157 160 127 74
-392.399 -501.055 -1158 159 126 73
-390.912 -501.517 -1159 158 124 74
-389.42 -501.98 -1160 159 125 75
-387.926 -502.442 -1161 161 128 73
-386.76 -503.336 -1163 163 130 75
-385.588 -504.231 -1165 164 131 76
-385.398 -506.425 -1170 167 134 79
-386.175 -509.917 -1178 165 134 85
-386.6 -512.977 -1185 162 131 82
-387.002 -516.037 -1192 155 126 72
-387.383 -519.097 -1199 150 121 67
-387.098 -521.291 -1204 145 116 62
-386.797 -523.486 -1209 145 116 62
-386.48 -525.681 -1214 141 114 66
-386.146 -527.876 -1219 138 111 63
-386.427 -530.937 -1226 142 112 63
-585.626 -536.008 -1241 162 127 67
-577.582 -530.429 -1228 160 125 65
-570.984 -526.145 -1218 165 124 58
-566.286 -523.588 -1212 167 126 60
-562.537 -521.895 -1208 173 125 56
-559.73 -521.066 -1206 171 123 54
-556.002 -519.372 -1202 167 121 54
-553.209 -518.543 -1200 164 118 51
-549.963 -517.281 -1197 163 120 52
-547.641 -516.884 -1196 167 124 56
-544.866 -516.053 -1194 169 123 56
-541.642 -514.791 -1191 168 122 55
-538.88 -513.961 -1189 171 123 56
-536.576 -513.563 -1188 172 124 57
-534.275 -513.165 -1187 168 122 56
-531.528 -512.334 -1185 168 122 56
-529.233 -511.935 -1184 172 124 56
-526.497 -511.105 -1182 174 126 58
-524.21 -510.706 -1181 175 127 58
-521.041 -509.442 -1178 176 128 59
-518.322 -508.611 -1176 177 129 61
-515.609 -507.779 -1174 176 128 60
-513.34 -507.38 -1173 176 130 64
-510.637 -506.548 -1171 175 129 63
-508.375 -506.149 -1170 177 128 64
-506.115 -505.749 -1169 179 130 66
-502.996 -504.484 -1166 175 129 64
-500.746 -504.085 -1165 171 125 60
-498.498 -503.685 -1164 170 124 57
-496.253 -503.285 -1163 172 126 59
-493.586 -502.452 -1161 170 124 57
-491.772 -502.485 -1161 171 125 58
-489.535 -502.085 -1160 169 124 57
-487.302 -501.684 -1159 167 122 55
-484.233 -500.418 -1156 165 121 56
-482.426 -500.45 -1156 166 122 57
-479.787 -499.617 -1154 168 122 57
-477.568 -499.216 -1153 169 123 58
-475.351 -498.815 -1152 170 122 55
-473.549 -498.847 -1152 172 124 57
-470.927 -498.013 -1150 174 129 64
-468.72 -497.612 -1149 174 129 64
-467.328 -498.077 -1150 173 129 65
-465.122 -497.675 -1149 167 123 59
-463.324 -497.707 -1149 159 114 50
-461.123 -497.306 -1148 169 124 60
-459.324 -497.337 -1148 172 128 66
-457.128 -496.935 -1147 171 127 65
-454.934 -496.534 -1146 169 128 64
-453.138 -496.565 -1146 170 129 65
-450.948 -496.163 -1145 168 128 63
-448.761 -495.761 -1144 166 126 61
-446.577 -495.359 -1143 169 129 62
-444.395 -494.956 -1142 174 134 67
-442.604 -494.987 -1142 174 134 68
-440.427 -494.585 -1141 174 134 68
-438.253 -494.182 -1140 176 136 70
-436.464 -494.213 -1140 175 135 69
-434.294 -493.81 -1139 172 134 68
-432.886 -494.275 -1140 172 134 68
-431.097 -494.305 -1140 174 135 72
-428.931 -493.902 -1139 174 135 72
-426.767 -493.499 -1138 172 132 67
-424.98 -493.529 -1138 173 133 68
-423.193 -493.56 -1138 174 135 72
-421.405 -493.59 -1138 175 136 73
-419.617 -493.62 -1138 173 134 71
-417.829 -493.65 -1138 172 133 70
-416.406 -494.114 -1139 172 133 72
-414.616 -494.145 -1139 170 131 70
-413.187 -494.608 -1140 165 131 73
-411.756 -495.072 -1141 160 126 68
-410.321 -495.536 -1142 159 125 67
-408.524 -495.566 -1142 161 127 69
-407.44 -496.464 -1144 162 128 72
-406.35 -497.362 -1146 163 129 73
-404.899 -497.825 -1147 165 130 76
-403.797 -498.723 -1149 166 131 77
-402.688 -499.621 -1151 163 129 71
-401.573 -500.519 -1153 163 129 71
-399.757 -500.549 -1153 163 128 74
-398.287 -501.013 -1154 162 127 73
-396.813 -501.477 -1155 162 127 75
-395.677 -502.375 -1157 162 127 75
-394.195 -502.838 -1158 161 128 75
-392.709 -503.302 -1159 160 127 74
-391.219 -503.766 -1160 159 124 74
-389.727 -504.23 -1161 161 126 76
-388.231 -504.693 -1162 163 130 75
-387.063 -505.591 -1164 163 130 75
-386.221 -506.924 -1167 163 130 75
-385.368 -508.256 -1170 166 133 78
-385.817 -511.327 -1177 164 133 84
-386.244 -514.397 -1184 161 130 81
-386.973 -517.903 -1192 154 127 75
-387.676 -521.408 -1200 150 123 71
-387.39 -523.611 -1205 147 117 66
-387.087 -525.813 -1210 147 117 66
-386.45 -527.582 -1214 144 115 69
-386.117 -529.784 -1219 140 111 65
-386.713 -533.291 -1227 142 112 67
-576.605 -531.48 -1226 161 124 65
-571.417 -528.481 -1219 166 126 61
-566.718 -525.915 -1213 168 128 63
-562.968 -524.216 -1209 173 125 56
-560.159 -523.383 -1207 170 122 53
-556.893 -522.118 -1204 166 120 53
-553.636 -520.851 -1201 163 117 50
-550.847 -520.019 -1199 163 120 52
-547.607 -518.752 -1196 166 123 55
-544.832 -517.919 -1194 167 121 54
-541.608 -516.652 -1191 167 121 54
-538.846 -515.819 -1189 172 124 57
-536.09 -514.985 -1187 173 125 58
-533.79 -514.586 -1186 169 123 56
-531.494 -514.186 -1185 169 123 56
-529.199 -513.786 -1184 171 123 54
-526.463 -512.952 -1182 173 125 56
-523.732 -512.118 -1180 174 126 57
-520.565 -510.849 -1177 175 127 58
-517.848 -510.015 -1175 174 126 59
-515.136 -509.18 -1173 172 124 57
-512.431 -508.345 -1171 172 126 59
-510.168 -507.944 -1170 172 126 59
-507.907 -507.543 -1169 175 126 62
-505.649 -507.142 -1168 177 128 64
-502.963 -506.307 -1166 173 127 62
-500.283 -505.472 -1164 169 123 58
-498.465 -505.505 -1164 167 121 54
-495.793 -504.669 -1162 167 121 54
-493.553 -504.267 -1161 171 125 58
-491.315 -503.865 -1160 173 127 60
-489.503 -503.898 -1160 172 126 59
-486.849 -503.062 -1158 167 121 54
-484.201 -502.225 -1156 164 120 55
-481.976 -501.823 -1155 166 122 57
-479.754 -501.421 -1154 169 123 58
-477.121 -500.584 -1152 169 123 58
-475.319 -500.616 -1152 171 123 56
-473.106 -500.214 -1151 175 127 60
-470.486 -499.377 -1149 178 132 67
-468.28 -498.974 -1148 176 130 65
-466.889 -499.44 -1149 173 129 65
-464.686 -499.037 -1148 167 123 59
-462.485 -498.634 -1147 161 117 53
-460.689 -498.666 -1147 170 126 62
-458.893 -498.698 -1147 171 127 65
-457.096 -498.729 -1147 170 126 64
-454.505 -497.891 -1145 170 127 65
-452.711 -497.922 -1145 172 129 67
-450.523 -497.519 -1144 168 128 63
-448.337 -497.115 -1143 165 125 60
-446.155 -496.711 -1142 167 127 59
-443.975 -496.308 -1141 172 132 64
-442.186 -496.339 -1141 173 133 67
-440.396 -496.37 -1141 173 133 67
-438.607 -496.401 -1141 174 134 68
-436.817 -496.431 -1141 174 134 68
-434.645 -496.027 -1140 172 134 68
-432.856 -496.058 -1140 172 134 68
-431.066 -496.089 -1140 173 134 71
-428.9 -495.684 -1139 174 135 72
-426.737 -495.279 -1138 172 132 67
-424.95 -495.31 -1138 173 133 68
-423.162 -495.34 -1138 174 135 72
-421.005 -494.935 -1137 174 135 72
-419.587 -495.401 -1138 173 134 71
-417.799 -495.431 -1138 171 132 69
-416.376 -495.896 -1139 171 132 71
-414.585 -495.927 -1139 171 132 71
-413.157 -496.392 -1140 166 132 74
-411.726 -496.858 -1141 163 129 71
-409.931 -496.888 -1141 163 129 71
-408.495 -497.353 -1142 164 130 72
-407.054 -497.818 -1143 163 129 73
-405.965 -498.719 -1145 164 130 74
-404.869 -499.62 -1147 165 131 75
-403.767 -500.521 -1149 165 131 75
-403.008 -501.858 -1152 165 131 73
-401.543 -502.324 -1153 164 130 72
-399.727 -502.353 -1153 163 128 74
-398.257 -502.819 -1154 163 128 74
-397.127 -503.72 -1156 163 128 76
-395.648 -504.185 -1157 163 128 76
-393.825 -504.215 -1157 161 128 75
-392.679 -505.116 -1159 160 127 74
-391.527 -506.017 -1161 160 125 75
-390.033 -506.483 -1162 162 127 77
-388.201 -506.512 -1162 163 130 75
-387.034 -507.413 -1164 162 129 74
-385.86 -508.315 -1166 161 128 73
-385.339 -510.088 -1170 164 131 76
-385.46 -512.733 -1176 163 133 84
-386.214 -516.251 -1184 162 132 83
-387.268 -520.205 -1193 155 129 79
-387.969 -523.723 -1201 152 126 76
-388.003 -526.369 -1207 150 120 71
-387.057 -527.708 -1210 147 117 68
-386.738 -529.918 -1215 145 115 70
-386.72 -532.565 -1221 142 112 67
-387.628 -536.521 -1230 142 111 70
-577.04 -533.83 -1227 163 125 66
-570.913 -529.95 -1218 167 128 63
-566.215 -527.374 -1212 168 129 64
-562.467 -525.669 -1208 171 124 55
-559.66 -524.834 -1206 170 123 54
-556.395 -523.563 -1203 165 120 54
-553.601 -522.728 -1201 164 119 53
-550.353 -521.457 -1198 164 121 53
-547.572 -520.621 -1196 165 122 54
-544.797 -519.784 -1194 165 119 53
-541.573 -518.513 -1191 167 121 55
-538.812 -517.676 -1189 173 126 59
-536.056 -516.84 -1187 174 127 60
-533.756 -516.439 -1186 171 125 58
-531.459 -516.037 -1185 170 124 57
-529.165 -515.636 -1184 173 125 56
-526.429 -514.799 -1182 176 128 59
-523.254 -513.526 -1179 177 129 60
-520.531 -512.688 -1177 178 130 61
-517.373 -511.415 -1174 178 130 63
-514.664 -510.578 -1172 178 130 63
-511.96 -509.74 -1170 175 129 62
-509.698 -509.337 -1169 174 128 61
-507.874 -509.371 -1169 173 126 61
-505.616 -508.968 -1168 171 124 59
-502.93 -508.13 -1166 171 125 60
-500.25 -507.291 -1164 171 125 60
-498.432 -507.324 -1164 169 123 56
-495.761 -506.485 -1162 167 121 54
-493.095 -505.646 -1160 169 123 56
-490.859 -505.243 -1159 172 126 59
-488.626 -504.839 -1158 171 125 58
-486.396 -504.436 -1157 168 122 55
-483.75 -503.596 -1155 166 121 56
-481.944 -503.629 -1155 167 122 57
-479.306 -502.789 -1153 169 123 58
-477.089 -502.385 -1152 169 123 58
-474.875 -501.981 -1151 172 124 57
-472.663 -501.577 -1150 177 129 62
-470.454 -501.173 -1149 179 133 68
-468.248 -500.769 -1148 177 131 66
-466.451 -500.801 -1148 173 129 65
-464.654 -500.832 -1148 169 125 61
-462.454 -500.428 -1147 166 122 58
-460.658 -500.46 -1147 172 128 64
-458.861 -500.491 -1147 173 129 67
-456.666 -500.086 -1146 172 128 66
-454.474 -499.682 -1145 172 130 66
-452.284 -499.277 -1144 173 131 67
-450.098 -498.871 -1143 168 128 63
-447.914 -498.466 -1142 164 124 59
-445.733 -498.061 -1141 166 128 59
-443.555 -497.656 -1140 171 133 64
-441.768 -497.687 -1140 172 132 66
-440.366 -498.154 -1141 171 131 65
-438.191 -497.748 -1140 171 131 65
-436.786 -498.216 -1141 172 132 66
-434.614 -497.81 -1140 171 133 67
-432.825 -497.841 -1140 171 133 67
-430.658 -497.435 -1139 172 133 70
-428.87 -497.466 -1139 172 133 70
-427.081 -497.496 -1139 173 133 68
-425.293 -497.527 -1139 174 134 69
-423.132 -497.12 -1138 172 133 70
-421.344 -497.151 -1138 171 132 69
-419.925 -497.618 -1139 172 133 70
-418.136 -497.648 -1139 172 133 70
-416.346 -497.678 -1139 170 131 70
-414.555 -497.708 -1139 171 132 71
-413.127 -498.175 -1140 168 134 76
-411.696 -498.642 -1141 167 133 75
-409.901 -498.672 -1141 167 133 75
-408.107 -498.702 -1141 166 132 74
-407.024 -499.607 -1143 163 129 73
-405.935 -500.511 -1145 163 129 73
-404.84 -501.415 -1147 164 130 74
-404.089 -502.756 -1150 163 129 73
-402.978 -503.661 -1152 162 128 70
-401.513 -504.128 -1153 162 128 70
-399.698 -504.157 -1153 162 127 73
-398.227 -504.624 -1154 161 126 72
-397.097 -505.529 -1156 161 126 74
-395.618 -505.996 -1157 161 126 74
-394.135 -506.463 -1158 160 127 74
-392.65 -506.93 -1159 158 125 72
-391.498 -507.834 -1161 161 126 76
-390.003 -508.301 -1162 161 126 76
-388.172 -508.33 -1162 162 129 75
-386.672 -508.797 -1163 162 129 75
-385.5 -509.702 -1165 160 128 74
-384.98 -511.481 -1169 162 130 76
-385.103 -514.136 -1175 163 133 84
-385.532 -517.228 -1182 163 133 84
-386.589 -521.196 -1191 155 130 80
-387.94 -525.603 -1201 153 128 78
-387.973 -528.258 -1207 154 123 74
-387.027 -529.601 -1210 149 118 69
-386.708 -531.82 -1215 144 114 70
-386.69 -534.476 -1221 142 112 68
-387.283 -538.008 -1229 140 110 74
-577.474 -536.182 -1228 164 125 66
-571.346 -532.288 -1219 168 130 64
-566.647 -529.704 -1213 168 130 64
-562.898 -527.992 -1209 169 123 54
-560.089 -527.154 -1207 168 122 53
-556.823 -525.879 -1204 165 121 56
-554.027 -525.04 -1202 164 120 55
-550.778 -523.765 -1199 165 122 54
-547.537 -522.489 -1196 165 122 54
-544.763 -521.65 -1194 165 119 54
-541.539 -520.373 -1191 168 122 57
-538.777 -519.534 -1189 172 126 59
-536.022 -518.694 -1187 173 127 60
-533.722 -518.291 -1186 173 127 60
-531.425 -517.889 -1185 171 125 58
-528.685 -517.049 -1183 174 126 57
-525.95 -516.208 -1181 176 128 59
-522.777 -514.931 -1178 178 130 61
-520.055 -514.09 -1176 180 132 63
-517.34 -513.25 -1174 181 133 66
-514.191 -511.972 -1171 180 132 65
-511.927 -511.568 -1170 180 134 67
-509.665 -511.164 -1169 178 132 65
-507.841 -511.197 -1169 173 127 62
-505.15 -510.356 -1167 168 122 57
-502.897 -509.951 -1166 167 121 56
-500.217 -509.11 -1164 171 125 60
-497.971 -508.705 -1163 172 126 59
-495.301 -507.864 -1161 171 125 58
-492.637 -507.021 -1159 169 123 56
-490.403 -506.617 -1158 170 124 57
-488.172 -506.212 -1157 170 124 57
-485.943 -505.807 -1156 169 123 56
-483.298 -504.964 -1154 169 123 58
-481.494 -504.997 -1154 168 122 57
-479.274 -504.591 -1153 168 122 57
-477.057 -504.186 -1152 168 122 57
-474.842 -503.78 -1151 172 124 57
-472.631 -503.375 -1150 177 129 62
-470.013 -502.531 -1148 178 132 67
-468.216 -502.563 -1148 177 131 66
-466.013 -502.157 -1147 174 130 66
-464.218 -502.189 -1147 171 127 63
-462.019 -501.783 -1146 171 127 63
-460.224 -501.815 -1146 174 130 66
-458.43 -501.847 -1146 173 130 68
-456.634 -501.878 -1146 172 129 67
-454.045 -501.034 -1144 172 130 65
-451.858 -500.627 -1143 172 130 65
-449.673 -500.221 -1142 168 128 63
-447.491 -499.814 -1141 167 127 62
-445.702 -499.845 -1141 168 130 61
-443.524 -499.438 -1140 173 135 66
-441.736 -499.469 -1140 173 133 67
-439.949 -499.5 -1140 171 131 65
-438.16 -499.531 -1140 171 131 65
-436.755 -500 -1141 172 132 66
-434.583 -499.593 -1140 170 132 66
-432.415 -499.185 -1139 170 132 66
-430.627 -499.216 -1139 171 132 69
-428.839 -499.247 -1139 171 132 69
-427.051 -499.277 -1139 173 133 68
-425.262 -499.308 -1139 174 134 69
-423.102 -498.9 -1138 171 132 69
-421.684 -499.369 -1139 170 131 68
-419.895 -499.399 -1139 172 133 70
-418.472 -499.868 -1140 171 132 69
-416.681 -499.898 -1140 170 131 70
-414.525 -499.49 -1139 171 132 71
-413.097 -499.959 -1140 168 134 76
-411.666 -500.427 -1141 169 135 77
-409.872 -500.457 -1141 169 135 77
-408.077 -500.487 -1141 166 132 74
-407.351 -501.833 -1144 163 129 73
-406.26 -502.741 -1146 164 130 74
-404.81 -503.209 -1147 165 131 75
-403.707 -504.116 -1149 163 129 73
-402.599 -505.024 -1151 163 129 71
-401.483 -505.931 -1153 163 129 71
-399.668 -505.961 -1153 162 127 73
-398.198 -506.43 -1154 161 126 72
-397.067 -507.337 -1156 161 126 74
-395.588 -507.806 -1157 162 127 75
-394.106 -508.274 -1158 159 126 73
-392.62 -508.743 -1159 157 124 71
-391.468 -509.651 -1161 160 125 75
-389.638 -509.68 -1161 160 125 75
-388.142 -510.149 -1162 161 128 75
-386.643 -510.617 -1163 162 129 76
-385.14 -511.086 -1164 159 128 75
-384.951 -513.31 -1169 161 130 77
-384.746 -515.535 -1174 163 133 84
-385.177 -518.639 -1181 163 133 84
-386.559 -523.06 -1191 153 130 79
-387.587 -527.043 -1200 151 128 77
-388.264 -530.586 -1208 155 124 75
-387.637 -532.373 -1212 149 118 69
-387.315 -534.6 -1217 145 115 72
-387.293 -537.265 -1223 144 114 71
-388.828 -542.128 -1234 140 111 80
-577.438 -538.1 -1228 164 125 65
-571.779 -534.63 -1220 167 129 63
-567.546 -532.474 -1215 168 130 64
-563.328 -530.319 -1210 168 122 53
-560.517 -529.477 -1208 167 121 52
-556.788 -527.759 -1204 166 122 57
-553.992 -526.917 -1202 165 121 56
-551.202 -526.075 -1200 166 123 55
-547.503 -524.357 -1196 166 123 55
-544.728 -523.514 -1194 167 121 56
-541.504 -522.234 -1191 168 122 57
-538.743 -521.391 -1189 171 125 59
-535.988 -520.548 -1187 172 126 60
-533.238 -519.705 -1185 171 125 59
-530.943 -519.301 -1184 169 123 57
-528.204 -518.458 -1182 173 125 56
-525.47 -517.614 -1180 175 127 58
-522.299 -516.332 -1177 176 128 58
-520.022 -515.927 -1176 178 130 60
-516.866 -514.645 -1173 178 130 62
-514.158 -513.801 -1171 175 127 59
-511.893 -513.396 -1170 174 128 62
-509.196 -512.551 -1168 174 128 62
-506.938 -512.146 -1167 172 126 61
-504.684 -511.74 -1166 168 122 57
-502.433 -511.334 -1165 167 121 55
-500.184 -510.929 -1164 168 122 56
-497.938 -510.523 -1163 168 123 56
-495.268 -509.678 -1161 168 123 56
-493.03 -509.272 -1160 170 124 57
-490.794 -508.865 -1159 169 123 56
-488.561 -508.459 -1158 169 123 56
-485.91 -507.613 -1156 170 124 57
-483.685 -507.207 -1155 170 124 58
-481.462 -506.8 -1154 169 123 57
-479.242 -506.393 -1153 169 123 58
-477.025 -505.986 -1152 169 123 58
-474.81 -505.579 -1151 172 125 58
-472.188 -504.733 -1149 176 129 62
-469.981 -504.326 -1148 176 131 66
-468.184 -504.358 -1148 177 132 67
-465.981 -503.95 -1147 174 130 66
-463.781 -503.543 -1146 172 128 64
-461.584 -503.135 -1145 174 130 66
-459.791 -503.167 -1145 174 130 66
-457.998 -503.198 -1145 171 130 66
-455.806 -502.791 -1144 171 130 66
-453.617 -502.383 -1143 170 129 64
-451.431 -501.974 -1142 169 128 63
-449.248 -501.566 -1141 167 127 62
-447.067 -501.158 -1140 168 128 63
-445.28 -501.189 -1140 169 131 63
-443.104 -500.781 -1139 170 132 64
-441.318 -500.812 -1139 170 132 65
-439.532 -500.843 -1139 169 131 64
-438.129 -501.313 -1140 170 130 64
-436.724 -501.784 -1141 170 130 64
-434.552 -501.375 -1140 168 130 64
-432.384 -500.966 -1139 169 131 65
-430.596 -500.997 -1139 171 132 69
-428.808 -501.028 -1139 169 130 67
-427.02 -501.058 -1139 172 132 67
-425.232 -501.089 -1139 174 134 69
-423.815 -501.559 -1140 171 132 69
-422.024 -501.59 -1140 170 131 68
-420.602 -502.06 -1141 171 132 69
-418.809 -502.091 -1141 170 131 68
-416.651 -501.681 -1140 169 130 70
-414.859 -501.711 -1140 171 132 72
-413.429 -502.182 -1141 168 133 75
-411.636 -502.212 -1141 168 133 75
-409.841 -502.242 -1141 168 134 76
-408.405 -502.712 -1142 166 132 74
-407.321 -503.622 -1144 164 130 74
-406.23 -504.533 -1146 165 131 75
-404.427 -504.563 -1146 166 132 76
-403.326 -505.473 -1148 164 130 74
-402.219 -506.384 -1150 165 131 73
-401.105 -507.295 -1152 164 130 72
-398.945 -506.884 -1151 162 127 74
-397.823 -507.794 -1153 162 127 74
-396.694 -508.705 -1155 163 128 76
-395.217 -509.175 -1156 162 127 75
-393.396 -509.205 -1156 159 126 73
-392.252 -510.116 -1158 157 124 71
-391.101 -511.026 -1160 159 124 74
-389.609 -511.496 -1161 159 124 74
-388.113 -511.966 -1162 159 127 74
-386.613 -512.436 -1163 159 127 74
-385.441 -513.347 -1165 159 128 75
-384.921 -515.139 -1169 163 132 79
-384.388 -516.931 -1173 165 134 85
-385.147 -520.486 -1181 164 133 84
-386.529 -524.923 -1191 154 129 79
-387.557 -528.92 -1200 151 126 76
-388.234 -532.476 -1208 155 123 73
-387.927 -534.71 -1213 150 118 68
-387.921 -537.385 -1219 144 115 73
-388.213 -540.501 -1226 144 115 73
-389.743 -545.381 -1237 141 113 83
-578.813 -541.336 -1231 163 124 63
-573.149 -537.854 -1223 165 127 61
-567.51 -534.371 -1215 167 129 63
-563.293 -532.208 -1210 169 123 54
-560.482 -531.363 -1208 169 123 54
-556.753 -529.639 -1204 167 123 58
-554.418 -529.234 -1203 166 122 57
-551.167 -527.949 -1200 167 124 56
-547.468 -526.224 -1196 168 125 57
-545.149 -525.819 -1195 169 123 58
-542.379 -524.973 -1193 168 122 57
-539.615 -524.128 -1191 169 123 58
-536.405 -522.842 -1188 170 124 59
-533.654 -521.996 -1186 167 121 56
-531.357 -521.59 -1185 168 122 57
-528.17 -520.304 -1182 174 126 57
-525.436 -519.457 -1180 176 128 59
-522.709 -518.611 -1178 175 127 56
-519.988 -517.764 -1176 176 128 57
-516.832 -516.477 -1173 177 129 60
-514.124 -515.63 -1171 174 126 57
-511.422 -514.783 -1169 170 124 59
-509.162 -514.376 -1168 169 123 58
-506.905 -513.969 -1167 169 123 58
-504.651 -513.562 -1166 168 122 57
-502.399 -513.154 -1165 167 121 54
-500.151 -512.747 -1164 167 121 54
-498.333 -512.78 -1164 165 122 54
-495.235 -511.492 -1161 166 123 55
-492.997 -511.084 -1160 170 124 57
-490.761 -510.676 -1159 168 122 55
-488.106 -509.828 -1157 168 122 55
-485.457 -508.979 -1155 170 124 57
-483.233 -508.571 -1154 170 124 57
-481.429 -508.603 -1154 170 124 57
-479.209 -508.195 -1153 172 126 61
-476.992 -507.786 -1152 173 127 62
-474.778 -507.378 -1151 175 129 62
-472.567 -506.969 -1150 176 130 63
-469.949 -506.12 -1148 175 131 66
-467.744 -505.711 -1147 176 132 67
-465.543 -505.302 -1146 173 129 65
-463.345 -504.893 -1145 171 127 63
-461.149 -504.484 -1144 174 130 66
-459.759 -504.956 -1145 172 128 64
-457.566 -504.547 -1144 171 131 66
-455.376 -504.138 -1143 172 132 67
-453.189 -503.728 -1142 171 131 66
-451.399 -503.759 -1142 169 129 64
-449.216 -503.35 -1141 169 129 64
-447.036 -502.94 -1140 171 131 66
-445.249 -502.971 -1140 170 130 64
-443.073 -502.561 -1139 167 127 61
-441.287 -502.592 -1139 170 132 65
-439.886 -503.065 -1140 169 131 64
-438.098 -503.096 -1140 172 132 67
-436.31 -503.127 -1140 171 131 66
-434.141 -502.716 -1139 168 130 64
-431.974 -502.306 -1138 170 132 66
-430.188 -502.336 -1138 173 134 71
-428.401 -502.367 -1138 171 132 69
-426.615 -502.398 -1138 172 132 67
-425.201 -502.87 -1139 174 134 69
-423.412 -502.9 -1139 170 131 68
-421.994 -503.372 -1140 169 130 67
-420.203 -503.403 -1140 172 133 70
-418.779 -503.875 -1141 171 132 69
-416.986 -503.905 -1141 169 130 71
-415.193 -503.935 -1141 170 131 72
-413.399 -503.966 -1141 169 132 75
-411.605 -503.996 -1141 169 132 75
-410.171 -504.468 -1142 168 134 76
-408.732 -504.939 -1143 167 133 75
-407.291 -505.411 -1144 165 131 75
-406.2 -506.325 -1146 165 131 75
-404.75 -506.797 -1147 166 132 76
-403.648 -507.71 -1149 164 130 74
-402.539 -508.624 -1151 162 128 70
-401.075 -509.096 -1152 161 127 69
-399.262 -509.126 -1152 160 125 73
-398.138 -510.04 -1154 161 126 74
-397.008 -510.953 -1156 160 127 74
-395.187 -510.983 -1156 158 125 72
-393.366 -511.013 -1156 157 124 71
-392.222 -511.927 -1158 157 124 71
-391.072 -512.84 -1160 157 123 73
-389.579 -513.312 -1161 157 123 73
-388.417 -514.226 -1163 157 126 73
-387.249 -515.14 -1165 157 126 73
-386.074 -516.054 -1167 159 128 75
-385.55 -517.852 -1171 164 133 80
-384.687 -519.208 -1174 167 136 87
-385.444 -522.776 -1182 165 134 85
-386.175 -526.344 -1190 155 129 79
-387.204 -530.355 -1199 151 125 75
-388.526 -534.808 -1209 156 122 72
-388.856 -537.935 -1216 151 117 67
-388.846 -540.619 -1222 141 113 71
-389.449 -544.189 -1230 141 113 71
-580.658 -545.023 -1235 161 123 62
-573.114 -539.763 -1223 164 126 60
-567.942 -536.709 -1216 166 128 62
-563.723 -534.538 -1211 170 125 57
-560.447 -533.249 -1208 167 122 54
-557.18 -531.96 -1205 165 121 56
-554.844 -531.554 -1204 165 121 56
-551.132 -529.823 -1200 165 121 55
-547.891 -528.533 -1197 167 123 57
-545.571 -528.126 -1196 169 123 58
-542.799 -527.278 -1194 168 122 57
-539.58 -525.987 -1191 168 122 57
-535.919 -524.255 -1187 170 124 59
-533.169 -523.406 -1185 169 123 58
-530.875 -522.999 -1184 171 125 60
-527.689 -521.708 -1181 172 124 55
-524.957 -520.858 -1179 174 126 57
-522.675 -520.451 -1178 171 124 53
-519.954 -519.601 -1176 171 124 53
-517.239 -518.751 -1174 174 126 57
-514.53 -517.901 -1172 172 124 55
-511.826 -517.05 -1170 170 124 59
-509.565 -516.642 -1169 167 121 56
-506.872 -515.792 -1167 168 122 57
-504.618 -515.383 -1166 170 124 59
-502.366 -514.974 -1165 168 123 56
-500.118 -514.565 -1164 167 122 55
-498.3 -514.598 -1164 166 123 55
-495.202 -513.305 -1161 166 123 55
-492.964 -512.896 -1160 171 125 58
-490.728 -512.487 -1159 168 122 55
-488.074 -511.635 -1157 168 122 55
-485.845 -511.225 -1156 169 123 56
-483.62 -510.816 -1155 168 122 55
-481.814 -510.848 -1155 169 123 56
-479.177 -509.996 -1153 171 125 59
-476.96 -509.586 -1152 170 124 58
-474.746 -509.176 -1151 175 130 63
-472.534 -508.766 -1150 178 133 66
-469.916 -507.913 -1148 175 131 66
-467.712 -507.503 -1147 177 133 68
-465.511 -507.093 -1146 172 128 65
-463.313 -506.682 -1145 172 128 65
-461.117 -506.271 -1144 174 130 66
-459.326 -506.303 -1144 174 130 66
-457.535 -506.335 -1144 173 133 68
-454.946 -505.481 -1142 171 131 66
-452.76 -505.07 -1141 170 130 65
-450.973 -505.101 -1141 170 130 65
-449.185 -505.133 -1141 171 131 65
-447.005 -504.721 -1140 171 131 65
-445.218 -504.753 -1140 169 131 63
-443.042 -504.341 -1139 166 128 60
-441.643 -504.815 -1140 166 128 61
-439.855 -504.846 -1140 167 129 62
-437.683 -504.434 -1139 169 129 64
-435.897 -504.465 -1139 167 127 62
-434.11 -504.496 -1139 165 126 62
-431.943 -504.084 -1138 169 130 66
-430.157 -504.115 -1138 171 132 69
-428.371 -504.146 -1138 169 130 67
-426.584 -504.176 -1138 172 133 68
-425.171 -504.65 -1139 174 135 70
-423.01 -504.238 -1138 174 135 72
-421.593 -504.711 -1139 171 132 69
-420.172 -505.185 -1140 171 132 70
-418.381 -505.215 -1140 170 131 69
-416.59 -505.246 -1140 170 131 72
-415.162 -505.719 -1141 171 132 73
-413.369 -505.75 -1141 170 133 76
-411.575 -505.78 -1141 169 132 75
-410.141 -506.253 -1142 167 132 74
-408.702 -506.727 -1143 166 131 73
-407.617 -507.643 -1145 167 133 77
-406.17 -508.117 -1146 168 134 78
-405.073 -509.034 -1148 167 133 77
-403.618 -509.507 -1149 165 131 75
-402.509 -510.424 -1151 164 130 72
-401.045 -510.897 -1152 162 128 70
-399.578 -511.371 -1153 163 128 76
-398.108 -511.844 -1154 163 128 76
-396.978 -512.761 -1156 159 126 73
-395.499 -513.234 -1157 156 123 70
-393.677 -513.264 -1157 156 123 70
-392.193 -513.737 -1158 156 123 70
-391.042 -514.654 -1160 158 124 74
-389.55 -515.128 -1161 157 123 73
-388.388 -516.045 -1163 155 124 71
-387.219 -516.962 -1165 157 126 73
-386.375 -518.323 -1168 160 129 76
-385.85 -520.127 -1172 161 130 77
-385.313 -521.932 -1176 163 132 83
-385.088 -524.181 -1181 165 134 85
-385.821 -527.761 -1189 160 134 84
-387.174 -532.23 -1199 152 126 76
-389.138 -537.587 -1211 158 124 74
-389.145 -540.281 -1217 150 116 66
-389.77 -543.863 -1225 144 116 74
-389.736 -546.557 -1231 142 114 72
-579.681 -546.065 -1233 160 124 62
-572.609 -541.229 -1222 164 126 60
-567.439 -538.164 -1215 166 128 62
-563.222 -535.985 -1210 168 125 57
-559.484 -534.249 -1206 164 121 53
-556.22 -532.955 -1203 165 121 56
-553.887 -532.547 -1202 165 121 56
-550.638 -531.253 -1199 166 122 57
-547.856 -530.402 -1197 167 123 58
-545.08 -529.55 -1195 169 123 58
-542.31 -528.699 -1193 168 122 57
-539.546 -527.847 -1191 167 121 56
-535.884 -526.108 -1187 167 121 56
-533.135 -525.257 -1185 167 121 56
-530.392 -524.404 -1183 168 122 57
-527.655 -523.552 -1181 169 121 52
-524.923 -522.699 -1179 170 122 53
-522.641 -522.29 -1178 167 121 50
-519.92 -521.437 -1176 166 120 49
-517.646 -521.028 -1175 171 123 54
-514.935 -520.174 -1173 168 120 51
-512.23 -519.321 -1171 170 124 59
-509.531 -518.468 -1169 167 121 56
-506.839 -517.614 -1167 168 122 57
-504.584 -517.204 -1166 170 124 59
-502.333 -516.794 -1165 168 125 57
-500.084 -516.383 -1164 167 124 56
-497.839 -515.973 -1163 168 125 57
-495.17 -515.118 -1161 168 125 57
-492.931 -514.708 -1160 169 123 56
-490.695 -514.297 -1159 167 121 54
-488.041 -513.442 -1157 167 121 54
-485.813 -513.031 -1156 169 123 56
-483.587 -512.62 -1155 168 122 55
-481.781 -512.653 -1155 168 122 55
-479.145 -511.797 -1153 170 124 57
-476.928 -511.386 -1152 170 124 57
-474.713 -510.974 -1151 173 130 62
-472.502 -510.563 -1150 176 133 65
-469.884 -509.707 -1148 176 132 67
-468.088 -509.739 -1148 177 133 68
-465.479 -508.883 -1146 171 127 65
-463.281 -508.471 -1145 173 129 67
-461.085 -508.059 -1144 177 133 69
-459.294 -508.09 -1144 177 133 69
-457.103 -507.678 -1143 174 134 69
-454.516 -506.821 -1141 171 131 66
-452.332 -506.409 -1140 169 129 64
-450.546 -506.44 -1140 170 130 65
-448.76 -506.471 -1140 170 130 64
-446.581 -506.059 -1139 171 131 65
-444.796 -506.09 -1139 170 132 63
-443.01 -506.121 -1139 168 130 61
-441.225 -506.152 -1139 166 128 61
-439.438 -506.183 -1139 168 130 63
-437.652 -506.215 -1139 169 129 64
-435.866 -506.246 -1139 168 128 63
-434.079 -506.277 -1139 166 127 64
-431.912 -505.863 -1138 167 128 65
-430.126 -505.894 -1138 170 131 68
-428.716 -506.369 -1139 172 133 70
-426.553 -505.955 -1138 171 133 67
-425.14 -506.43 -1139 172 134 68
-422.98 -506.016 -1138 173 134 71
-421.563 -506.492 -1139 172 133 70
-420.142 -506.967 -1140 171 132 71
-418.351 -506.997 -1140 171 132 71
-416.56 -507.028 -1140 170 131 72
-414.768 -507.058 -1140 171 132 73
-412.976 -507.088 -1140 169 132 75
-411.545 -507.563 -1141 169 132 75
-410.11 -508.038 -1142 169 132 75
-409.03 -508.958 -1144 170 133 76
-407.586 -509.433 -1145 168 134 78
-406.494 -510.353 -1147 167 133 77
-405.043 -510.828 -1148 165 131 75
-403.939 -511.748 -1150 163 129 73
-402.829 -512.668 -1152 164 130 72
-401.363 -513.143 -1153 163 129 71
-399.895 -513.618 -1154 162 127 75
-398.768 -514.539 -1156 161 126 74
-397.635 -515.459 -1158 158 125 72
-396.153 -515.934 -1159 157 124 71
-394.327 -515.963 -1159 157 124 71
-392.84 -516.438 -1160 157 124 71
-391.35 -516.913 -1161 159 125 75
-389.856 -517.388 -1162 158 124 74
-389.026 -518.754 -1165 156 125 72
-387.854 -519.674 -1167 158 127 74
-386.676 -520.594 -1169 160 129 76
-386.15 -522.405 -1173 161 130 77
-385.611 -524.216 -1177 162 132 83
-385.71 -526.918 -1183 162 132 83
-386.44 -530.511 -1191 161 134 84
-387.144 -534.105 -1199 155 128 78
-389.429 -539.926 -1212 156 122 72
-389.115 -542.184 -1217 151 117 67
-389.74 -545.778 -1225 144 116 74
-390.972 -550.264 -1235 140 112 70
-580.585 -548.878 -1235 160 124 61
-573.979 -544.469 -1225 164 126 60
-568.805 -541.394 -1218 166 128 62
-564.583 -539.207 -1213 167 124 58
-560.376 -537.02 -1208 164 121 55
-557.109 -535.722 -1205 163 120 54
-554.313 -534.868 -1203 165 122 56
-551.522 -534.014 -1201 167 123 58
-548.279 -532.715 -1198 167 123 58
-545.045 -531.415 -1195 168 122 57
-542.275 -530.561 -1193 168 122 57
-539.511 -529.706 -1191 167 121 56
-535.85 -527.961 -1187 166 120 55
-533.101 -527.106 -1185 167 121 55
-530.358 -526.251 -1183 166 120 54
-527.621 -525.396 -1181 168 120 51
-525.334 -524.985 -1180 169 121 52
-522.607 -524.129 -1178 167 121 50
-520.328 -523.718 -1177 168 122 51
-517.612 -522.862 -1175 171 123 54
-514.901 -522.006 -1173 169 121 52
-512.197 -521.149 -1171 169 123 57
-509.498 -520.293 -1169 165 119 53
-506.805 -519.436 -1167 165 119 53
-504.551 -519.025 -1166 168 122 56
-501.869 -518.168 -1164 167 124 56
-499.622 -517.756 -1163 168 125 57
-497.378 -517.344 -1162 168 125 57
-494.71 -516.486 -1160 167 124 56
-492.898 -516.519 -1160 168 122 55
-490.663 -516.107 -1159 166 120 53
-488.008 -515.249 -1157 166 120 53
-485.78 -514.836 -1156 167 121 54
-483.554 -514.424 -1155 166 120 53
-481.749 -514.457 -1155 167 121 54
-479.528 -514.044 -1154 169 123 56
-476.895 -513.185 -1152 171 125 58
-474.681 -512.772 -1151 175 130 63
-472.47 -512.359 -1150 176 131 64
-469.852 -511.5 -1148 176 132 67
-467.648 -511.087 -1147 177 133 68
-465.447 -510.673 -1146 169 125 63
-463.249 -510.259 -1145 175 131 69
-461.054 -509.846 -1144 182 138 74
-459.262 -509.877 -1144 178 134 70
-457.071 -509.464 -1143 173 133 69
-454.485 -508.604 -1141 169 129 65
-452.301 -508.19 -1140 169 129 64
-450.515 -508.221 -1140 171 131 66
-448.728 -508.253 -1140 169 131 64
-446.55 -507.838 -1139 170 132 65
-444.765 -507.869 -1139 171 134 65
-443.368 -508.347 -1140 171 134 65
-441.581 -508.378 -1140 171 133 66
-439.407 -507.963 -1139 169 131 64
-437.621 -507.994 -1139 170 130 65
-435.835 -508.025 -1139 170 130 65
-433.667 -507.61 -1138 168 129 66
-431.881 -507.641 -1138 165 126 63
-430.095 -507.672 -1138 166 127 64
-428.309 -507.703 -1138 170 131 68
-426.523 -507.733 -1138 173 135 69
-425.109 -508.21 -1139 172 134 68
-422.949 -507.795 -1138 172 133 70
-421.532 -508.272 -1139 172 133 70
-420.112 -508.748 -1140 172 133 72
-418.321 -508.779 -1140 171 132 71
-416.895 -509.256 -1141 170 132 73
-414.738 -508.84 -1140 169 131 72
-413.671 -509.763 -1142 167 130 73
-411.876 -509.793 -1142 167 130 73
-410.439 -510.27 -1143 169 132 75
-409.357 -511.193 -1145 171 134 77
-408.268 -512.116 -1147 169 135 79
-406.819 -512.593 -1148 166 132 76
-405.365 -513.069 -1149 164 130 74
-404.26 -513.992 -1151 163 129 73
-403.148 -514.915 -1153 162 128 70
-401.682 -515.392 -1154 163 129 71
-400.558 -516.316 -1156 161 126 74
-399.083 -516.792 -1157 160 125 73
-398.291 -518.162 -1160 158 125 73
-396.465 -518.192 -1160 158 125 73
-394.978 -518.669 -1161 159 126 73
-393.488 -519.145 -1162 160 127 74
-391.657 -519.175 -1162 159 124 73
-390.497 -520.098 -1164 159 124 73
-389.33 -521.022 -1166 159 128 75
-388.157 -521.945 -1168 160 129 76
-386.977 -522.869 -1170 159 128 76
-386.449 -524.686 -1174 161 130 78
-385.908 -526.503 -1178 163 133 84
-386.007 -529.215 -1184 163 133 84
-386.086 -531.927 -1190 161 132 84
-387.114 -535.98 -1199 157 128 80
-389.078 -541.374 -1211 152 121 72
-389.085 -544.087 -1217 149 118 69
-390.027 -548.141 -1226 145 116 74
-390.625 -551.748 -1234 140 111 69
-581.019 -551.251 -1236 160 124 60
-573.474 -545.935 -1224 164 126 60
-568.302 -542.848 -1217 166 128 62
-564.082 -540.654 -1212 167 125 60
-560.341 -538.905 -1208 165 123 58
-557.074 -537.602 -1205 161 119 53
-554.277 -536.745 -1203 163 121 55
-551.027 -535.441 -1200 166 122 57
-547.786 -534.138 -1197 167 123 58
-545.01 -533.28 -1195 167 121 56
-542.695 -532.869 -1194 167 121 56
-539.476 -531.565 -1191 167 121 56
-536.267 -530.26 -1188 167 121 56
-533.066 -528.956 -1185 166 120 53
-530.772 -528.544 -1184 165 119 52
-528.033 -527.685 -1182 167 119 50
-525.3 -526.827 -1180 168 120 51
-523.017 -526.414 -1179 168 122 51
-520.295 -525.555 -1177 168 122 51
-518.019 -525.143 -1176 170 122 53
-514.868 -523.837 -1173 168 120 51
-512.163 -522.977 -1171 167 121 54
-509.464 -522.118 -1169 163 117 50
-506.772 -521.258 -1167 163 117 50
-504.085 -520.398 -1165 166 120 53
-501.835 -519.985 -1164 165 122 54
-499.588 -519.571 -1163 166 123 55
-497.345 -519.158 -1162 165 122 54
-494.677 -518.297 -1160 162 119 51
-492.865 -518.33 -1160 167 121 54
-491.053 -518.363 -1160 166 120 53
-488.397 -517.503 -1158 165 119 52
-486.167 -517.089 -1157 164 118 51
-484.359 -517.121 -1157 164 118 51
-482.133 -516.707 -1156 166 120 53
-479.495 -515.846 -1154 170 124 57
-476.863 -514.984 -1152 174 128 61
-474.649 -514.57 -1151 178 132 65
-472.027 -513.708 -1149 176 130 63
-469.411 -512.846 -1147 176 132 67
-467.209 -512.431 -1146 177 133 68
-465.009 -512.016 -1145 167 123 61
-463.217 -512.048 -1145 175 131 69
-461.022 -511.632 -1144 183 141 76
-459.632 -512.112 -1145 179 137 72
-457.439 -511.696 -1144 171 131 68
-454.851 -510.833 -1142 168 128 65
-452.666 -510.418 -1141 170 130 65
-450.483 -510.002 -1140 172 132 67
-448.697 -510.033 -1140 170 132 65
-446.519 -509.617 -1139 170 132 65
-444.343 -509.201 -1138 171 135 66
-442.948 -509.68 -1139 171 135 66
-441.162 -509.711 -1139 172 134 67
-439.376 -509.742 -1139 170 132 65
-437.59 -509.774 -1139 170 130 65
-435.803 -509.805 -1139 171 131 66
-434.017 -509.836 -1139 170 131 68
-432.23 -509.867 -1139 166 127 64
-430.442 -509.898 -1139 166 127 64
-428.655 -509.928 -1139 170 131 68
-426.867 -509.959 -1139 174 136 70
-425.079 -509.99 -1139 173 135 69
-423.29 -510.021 -1139 173 134 71
-421.871 -510.499 -1140 173 134 71
-420.081 -510.53 -1140 173 134 73
-418.29 -510.56 -1140 173 134 73
-416.864 -511.038 -1141 171 134 75
-415.071 -511.069 -1141 168 131 72
-413.64 -511.547 -1142 166 129 72
-412.206 -512.026 -1143 167 130 73
-410.768 -512.504 -1144 169 132 75
-409.684 -513.43 -1146 170 133 76
-408.238 -513.908 -1147 167 133 77
-406.788 -514.387 -1148 166 132 76
-405.688 -515.313 -1150 164 130 74
-404.23 -515.791 -1151 164 130 74
-403.118 -516.717 -1153 161 127 69
-401.652 -517.196 -1154 162 128 70
-400.528 -518.122 -1156 160 127 74
-399.398 -519.049 -1158 159 126 73
-398.262 -519.975 -1160 159 125 75
-396.777 -520.453 -1161 159 125 75
-395.288 -520.932 -1162 160 127 74
-393.458 -520.961 -1162 162 129 76
-391.964 -521.44 -1163 159 124 72
-390.467 -521.918 -1164 159 124 72
-389.301 -522.844 -1166 160 129 76
-388.46 -524.219 -1169 161 130 77
-387.278 -525.146 -1171 158 128 77
-386.749 -526.97 -1175 160 130 79
-386.206 -528.793 -1179 164 134 85
-386.303 -531.514 -1185 163 133 84
-387.029 -535.132 -1193 162 132 85
-387.407 -538.302 -1200 157 127 80
-389.048 -543.267 -1211 152 122 75
-389.055 -545.989 -1217 148 118 71
-389.679 -549.609 -1225 144 113 72
-391.227 -554.574 -1236 141 110 69
-580.042 -552.284 -1234 160 123 58
-573.438 -547.844 -1224 163 126 61
-568.733 -545.195 -1218 165 128 63
-563.581 -542.097 -1211 168 126 61
-559.841 -540.342 -1207 167 125 60
-556.577 -539.034 -1204 164 122 56
-553.781 -538.174 -1202 164 122 56
-550.533 -536.866 -1199 166 122 57
-547.294 -535.558 -1196 166 122 57
-544.976 -535.145 -1195 167 121 56
-542.206 -534.284 -1193 167 121 56
-539.895 -533.871 -1192 166 120 55
-536.232 -532.114 -1188 165 119 54
-533.482 -531.253 -1186 168 122 55
-531.185 -530.84 -1185 167 121 54
-528.445 -529.978 -1183 168 121 51
-525.711 -529.116 -1181 169 122 52
-522.983 -528.254 -1179 171 125 54
-520.703 -527.84 -1178 171 125 54
-517.985 -526.978 -1176 170 122 53
-515.273 -526.116 -1174 170 122 53
-512.567 -525.254 -1172 168 122 55
-509.431 -523.943 -1169 166 120 53
-506.738 -523.08 -1167 167 121 54
-504.052 -522.217 -1165 168 122 55
-501.802 -521.802 -1164 165 122 54
-499.126 -520.939 -1162 163 120 52
-497.311 -520.972 -1162 161 118 50
-494.644 -520.108 -1160 159 116 48
-492.832 -520.141 -1160 165 119 52
-491.02 -520.175 -1160 165 119 52
-488.364 -519.311 -1158 164 118 51
-486.134 -518.895 -1157 163 117 50
-483.489 -518.031 -1155 164 117 50
-481.684 -518.063 -1155 168 121 54
-479.047 -517.199 -1153 173 127 60
-476.416 -516.334 -1151 176 130 63
-473.792 -515.47 -1149 177 132 65
-471.584 -515.053 -1148 175 130 63
-468.969 -514.188 -1146 177 133 68
-466.769 -513.772 -1145 176 132 67
-464.977 -513.804 -1145 165 121 59
-463.185 -513.836 -1145 174 130 68
-460.99 -513.419 -1144 181 140 75
-459.199 -513.451 -1144 180 139 74
-457.008 -513.034 -1143 172 132 69
-454.421 -512.168 -1141 169 129 66
-452.237 -511.751 -1140 170 130 65
-450.056 -511.333 -1139 172 132 67
-448.272 -511.365 -1139 171 133 66
-446.487 -511.396 -1139 172 134 67
-444.312 -510.979 -1138 171 135 66
-443.306 -511.908 -1140 170 134 65
-441.518 -511.939 -1140 170 132 65
-439.345 -511.522 -1139 168 130 63
-437.559 -511.553 -1139 169 129 64
-435.772 -511.584 -1139 171 131 66
-433.986 -511.615 -1139 171 132 69
-432.199 -511.646 -1139 169 130 67
-430.033 -511.227 -1138 169 130 67
-428.247 -511.258 -1138 174 135 72
-426.836 -511.739 -1139 173 135 69
-424.675 -511.32 -1138 173 135 69
-422.888 -511.351 -1138 173 134 71
-421.471 -511.831 -1139 173 134 71
-420.05 -512.311 -1140 174 135 74
-418.26 -512.341 -1140 176 137 76
-417.199 -513.27 -1142 173 136 77
-415.405 -513.301 -1142 169 132 73
-413.972 -513.781 -1143 167 130 73
-412.536 -514.261 -1144 168 131 74
-411.456 -515.19 -1146 169 132 74
-410.369 -516.12 -1148 168 131 73
-408.564 -516.15 -1148 166 132 76
-407.112 -516.63 -1149 165 131 75
-405.658 -517.11 -1150 164 130 74
-404.551 -518.039 -1152 163 129 73
-403.088 -518.519 -1153 162 128 70
-401.621 -518.999 -1154 161 127 69
-400.845 -520.378 -1157 159 126 73
-399.713 -521.308 -1159 159 126 73
-398.232 -521.788 -1160 159 127 76
-396.747 -522.268 -1161 159 127 76
-395.258 -522.748 -1162 159 126 73
-393.428 -522.777 -1162 160 127 74
-391.597 -522.807 -1162 162 127 75
-390.437 -523.737 -1164 159 124 72
-389.605 -525.116 -1167 159 128 75
-388.43 -526.046 -1169 161 130 77
-387.579 -527.426 -1172 158 128 77
-387.048 -529.256 -1176 159 129 78
-386.504 -531.086 -1180 163 133 84
-386.599 -533.816 -1186 162 132 83
-386.675 -536.547 -1192 165 134 86
-387.377 -540.178 -1200 158 127 79
-388.054 -543.809 -1208 154 125 81
-388.705 -547.441 -1216 146 117 73
-389.649 -551.523 -1225 143 111 70
-391.83 -557.407 -1238 143 111 70
-580.006 -554.208 -1234 162 124 58
-573.402 -549.754 -1224 161 125 61
-568.697 -547.095 -1218 162 126 62
-563.545 -543.986 -1211 167 125 60
-559.806 -542.225 -1207 166 124 59
-556.079 -540.463 -1203 163 121 56
-553.746 -540.049 -1202 164 122 57
-550.498 -538.737 -1199 167 123 58
-547.259 -537.424 -1196 168 124 59
-544.484 -536.56 -1194 168 122 58
-541.716 -535.696 -1192 167 121 57
-539.407 -535.282 -1191 166 120 55
-536.198 -533.968 -1188 165 119 54
-533.447 -533.104 -1186 164 118 51
-531.151 -532.689 -1185 164 118 51
-528.411 -531.824 -1183 162 116 45
-526.122 -531.409 -1182 163 117 46
-523.392 -530.544 -1180 168 122 51
-520.669 -529.679 -1178 168 122 51
-517.951 -528.813 -1176 166 118 49
-515.239 -527.948 -1174 168 120 51
-512.533 -527.083 -1172 171 125 58
-509.397 -525.767 -1169 169 123 56
-506.705 -524.901 -1167 171 125 58
-504.018 -524.035 -1165 171 125 58
-501.769 -523.619 -1164 166 123 55
-499.092 -522.752 -1162 164 121 53
-496.85 -522.336 -1161 162 119 51
-494.611 -521.919 -1160 161 118 50
-492.799 -521.952 -1160 165 119 52
-490.987 -521.985 -1160 165 119 52
-488.331 -521.118 -1158 166 120 53
-486.102 -520.701 -1157 165 119 52
-483.875 -520.284 -1156 166 118 51
-481.651 -519.867 -1155 171 123 56
-479.014 -518.999 -1153 174 128 61
-475.97 -517.681 -1150 175 129 62
-473.347 -516.813 -1148 176 133 65
-471.141 -516.395 -1147 174 131 63
-468.937 -515.977 -1146 176 132 68
-466.737 -515.559 -1145 173 129 65
-464.945 -515.592 -1145 165 121 59
-462.748 -515.173 -1144 174 130 68
-460.958 -515.205 -1144 178 138 73
-459.167 -515.237 -1144 178 138 73
-456.976 -514.819 -1143 172 132 69
-454.39 -513.95 -1141 170 130 67
-452.206 -513.531 -1140 171 131 66
-450.025 -513.112 -1139 172 132 67
-447.847 -512.693 -1138 171 133 66
-446.064 -512.724 -1138 172 134 67
-444.28 -512.756 -1138 172 136 67
-442.885 -513.238 -1139 171 135 66
-441.1 -513.269 -1139 173 135 69
-439.314 -513.3 -1139 170 132 66
-437.528 -513.332 -1139 169 129 64
-435.741 -513.363 -1139 170 130 65
-433.955 -513.394 -1139 171 132 69
-432.168 -513.425 -1139 171 132 69
-430.381 -513.456 -1139 171 132 69
-428.217 -513.036 -1138 173 134 71
-426.805 -513.518 -1139 171 133 67
-424.644 -513.097 -1138 173 135 69
-423.229 -513.579 -1139 173 134 71
-421.81 -514.061 -1140 173 134 71
-420.02 -514.091 -1140 174 135 74
-418.963 -515.024 -1142 176 137 76
-417.169 -515.054 -1142 172 135 76
-415.738 -515.536 -1143 167 130 71
-414.304 -516.017 -1144 167 130 73
-412.506 -516.048 -1144 168 131 74
-411.067 -516.529 -1145 168 131 72
-409.981 -517.462 -1147 167 130 71
-408.533 -517.943 -1148 165 131 75
-407.082 -518.425 -1149 165 131 75
-405.628 -518.906 -1150 164 130 74
-404.521 -519.839 -1152 163 129 73
-403.058 -520.321 -1153 161 127 69
-401.591 -520.802 -1154 161 127 69
-400.814 -522.186 -1157 160 127 74
-399.683 -523.119 -1159 161 128 75
-398.201 -523.6 -1160 159 128 77
-396.717 -524.082 -1161 158 127 76
-395.228 -524.563 -1162 159 126 73
-393.398 -524.593 -1162 159 126 73
-391.568 -524.623 -1162 161 126 74
-390.408 -525.556 -1164 160 125 73
-389.241 -526.489 -1166 159 128 75
-388.4 -527.873 -1169 160 129 76
-387.219 -528.806 -1171 158 128 77
-386.689 -530.642 -1175 159 129 78
-386.474 -532.93 -1180 162 132 83
-386.243 -535.218 -1185 162 132 83
-386.321 -537.958 -1191 164 133 84
-387.024 -541.601 -1199 158 127 78
-388.024 -545.697 -1208 154 126 84
-388.994 -549.793 -1217 145 117 75
-389.936 -553.889 -1226 143 111 69
-579.499 -555.682 -1233 162 123 59
-573.366 -551.662 -1224 159 124 60
-568.661 -548.994 -1218 159 124 60
-563.509 -545.875 -1211 163 122 56
-559.77 -544.108 -1207 163 122 56
