ply
format ascii 1.0
comment Created by Open3D
element vertex 1432
property double x
property double y
property double z
property uchar red
property uchar green
property uchar blue
end_header
-493.94 -1007.48 -1253 56 76 118
-491.606 -1006.71 -1252 51 75 118
-490.057 -1007.55 -1253 52 76 119
-487.726 -1006.79 -1252 56 80 124
-485.398 -1006.02 -1251 52 76 120
-483.845 -1006.86 -1252 51 75 119
-481.904 -1006.89 -1252 54 78 122
-479.964 -1006.93 -1252 60 84 129
-478.023 -1006.97 -1252 58 82 127
-476.462 -1007.81 -1253 52 76 120
-474.52 -1007.84 -1253 47 71 115
-472.955 -1008.69 -1254 51 75 119
-471.386 -1009.53 -1255 58 82 126
-469.815 -1010.37 -1256 55 78 127
-468.239 -1011.21 -1257 52 75 124
-465.919 -1010.44 -1256 49 75 123
-464.71 -1012.09 -1258 44 70 118
-462.759 -1012.12 -1258 41 64 113
-461.174 -1012.97 -1259 32 55 104
-459.586 -1013.81 -1260 27 51 97
-457.632 -1013.85 -1260 29 53 99
-456.039 -1014.69 -1261 30 56 102
-453.723 -1013.92 -1260 32 58 104
-451.767 -1013.96 -1260 37 63 109
-449.456 -1013.19 -1259 40 66 112
-447.502 -1013.23 -1259 40 66 112
-446.256 -1014.87 -1261 38 64 110
-445.004 -1016.52 -1263 38 64 110
-443.394 -1017.36 -1264 35 61 107
-442.13 -1019.01 -1266 36 62 110
-441.208 -1021.46 -1269 39 65 113
-440.277 -1023.92 -1272 36 62 112
-438.301 -1023.95 -1272 35 61 111
-435.64 -1022.38 -1270 35 61 109
-434.01 -1023.22 -1271 35 61 109
-431.356 -1021.65 -1269 34 60 108
-429.047 -1020.88 -1268 38 64 112
-427.077 -1020.92 -1268 43 69 117
-425.443 -1021.76 -1269 40 66 114
-423.805 -1022.61 -1270 38 64 110
-422.828 -1025.06 -1273 45 71 117
-421.842 -1027.51 -1276 44 70 116
-421.833 -1032.38 -1282 38 64 110
-421.806 -1037.25 -1288 36 63 111
-422.412 -1043.73 -1296 36 63 111
-422.667 -1049.41 -1303 36 62 112
-422.256 -1053.47 -1308 30 56 106
-421.187 -1055.93 -1311 31 57 105
-420.107 -1058.38 -1314 31 57 105
-419.336 -1061.64 -1318 32 60 102
-418.237 -1064.09 -1321 28 56 98
-417.443 -1067.35 -1325 28 52 96
-417.576 -1073.03 -1332 35 59 103
-740.894 -1066.05 -1326 53 62 86
-734.373 -1059.62 -1318 49 60 88
-728.433 -1054 -1311 48 59 87
-723.623 -1049.99 -1306 46 60 89
-719.932 -1047.58 -1303 45 59 88
-717.354 -1046.79 -1302 45 60 89
-712.031 -1041.97 -1296 47 62 91
-707.276 -1037.96 -1291 48 63 95
-701.988 -1033.14 -1285 51 66 98
-696.176 -1027.52 -1278 54 68 105
-690.928 -1022.7 -1272 54 68 105
-686.781 -1019.49 -1268 55 72 108
-683.728 -1017.89 -1266 55 72 108
-681.22 -1017.09 -1265 52 69 107
-678.178 -1015.49 -1263 50 67 105
-675.677 -1014.7 -1262 51 69 105
-673.712 -1014.7 -1262 50 68 104
-671.749 -1014.71 -1262 46 63 99
-669.255 -1013.91 -1261 41 58 94
-667.293 -1013.92 -1261 36 53 85
-664.803 -1013.13 -1260 33 50 82
-662.317 -1012.33 -1259 33 51 87
-660.358 -1012.34 -1259 35 53 89
-658.922 -1013.15 -1260 35 52 92
-656.441 -1012.36 -1259 33 50 90
-653.963 -1011.56 -1258 35 52 90
-652.007 -1011.57 -1258 39 56 94
-649.017 -1009.97 -1256 40 57 95
-647.062 -1009.98 -1256 38 55 93
-645.109 -1009.99 -1256 36 53 89
-642.644 -1009.2 -1255 37 54 90
-640.692 -1009.21 -1255 39 56 92
-638.741 -1009.22 -1255 38 55 91
-636.79 -1009.23 -1255 36 54 94
-634.332 -1008.43 -1254 32 50 90
-632.384 -1008.45 -1254 29 47 89
-629.932 -1007.65 -1253 30 48 90
-627.984 -1007.66 -1253 27 45 83
-625.537 -1006.87 -1252 30 48 86
-622.596 -1005.28 -1250 39 61 100
-619.66 -1003.68 -1248 48 70 109
-616.236 -1001.28 -1245 52 76 119
-613.314 -999.688 -1243 60 84 127
-610.399 -998.093 -1241 62 83 128
-607.001 -995.695 -1238 61 82 127
-604.589 -994.905 -1237 59 83 129
-603.155 -995.724 -1238 59 83 129
-601.232 -995.739 -1238 53 79 125
-599.31 -995.756 -1238 50 76 122
-597.87 -996.576 -1239 47 74 122
-596.908 -998.201 -1241 46 73 121
-595.94 -999.827 -1243 46 74 119
-594.966 -1001.45 -1245 44 72 117
-593.986 -1003.08 -1247 43 69 115
-592.526 -1003.9 -1248 44 70 116
-591.535 -1005.53 -1250 47 71 117
-590.539 -1007.16 -1252 45 69 115
-589.536 -1008.79 -1254 42 66 112
-588.528 -1010.42 -1256 40 64 110
-587.046 -1011.24 -1257 39 65 113
-585.56 -1012.06 -1258 41 67 115
-584.538 -1013.7 -1260 40 67 115
-583.045 -1014.52 -1261 37 64 112
-582.011 -1016.15 -1263 37 63 111
-580.972 -1017.79 -1265 37 63 111
-580.382 -1020.22 -1268 38 61 110
-579.784 -1022.66 -1271 37 60 109
-579.177 -1025.1 -1274 35 58 109
-577.655 -1025.93 -1275 29 52 103
-576.58 -1027.56 -1277 30 53 102
-575.952 -1030 -1280 33 56 105
-574.862 -1031.63 -1282 32 58 104
-574.216 -1034.07 -1285 32 58 104
-574.005 -1037.32 -1289 31 57 101
-575.114 -1042.98 -1296 31 57 101
-575.759 -1047.84 -1302 20 44 85
-577.266 -1054.3 -1310 10 34 75
-579.627 -1062.38 -1320 15 29 58
-581.083 -1068.85 -1328 60 74 103
-580.768 -1072.1 -1332 123 127 147
-579.573 -1073.74 -1334 58 62 82
-575.774 -1070.55 -1330 22 27 44
-571.988 -1067.36 -1326 23 28 45
-567.354 -1062.56 -1320 23 27 48
-562.311 -1056.96 -1313 22 26 47
-557.29 -1051.35 -1306 23 31 53
-553.991 -1048.97 -1303 27 35 57
-551.125 -1047.39 -1301 25 34 58
-547.843 -1045.01 -1298 24 33 57
-545.411 -1044.23 -1297 26 38 63
-542.983 -1043.46 -1296 28 40 65
-540.557 -1042.69 -1295 28 42 71
-538.135 -1041.92 -1294 23 37 66
-534.887 -1039.53 -1291 21 38 69
-530.824 -1035.54 -1286 25 42 73
-527.598 -1033.16 -1283 31 48 80
-523.971 -1029.97 -1279 35 52 84
-520.765 -1027.59 -1276 38 55 91
-517.975 -1026.01 -1274 43 60 96
-514.381 -1022.83 -1270 49 66 102
-511.606 -1021.25 -1268 54 71 107
-508.034 -1018.06 -1264 54 75 110
-504.874 -1015.68 -1261 56 77 112
-502.123 -1014.1 -1259 60 82 121
-498.979 -1011.72 -1256 63 85 124
-495.846 -1009.34 -1253 62 82 124
-493.511 -1008.57 -1252 59 79 121
-491.178 -1007.8 -1251 49 73 116
-489.63 -1008.64 -1252 51 75 118
-487.3 -1007.87 -1251 60 84 128
-485.361 -1007.9 -1251 56 80 124
-483.809 -1008.75 -1252 56 80 124
-481.869 -1008.78 -1252 58 82 126
-479.928 -1008.82 -1252 60 84 128
-477.987 -1008.85 -1252 59 83 127
-476.426 -1009.7 -1253 50 74 118
-474.862 -1010.54 -1254 45 69 113
-474.05 -1012.99 -1257 50 74 118
-472.101 -1013.03 -1257 57 81 125
-470.152 -1013.06 -1257 56 79 128
-468.575 -1013.91 -1258 50 73 122
-466.253 -1013.14 -1257 41 67 115
-464.673 -1013.98 -1258 34 60 108
-462.723 -1014.02 -1258 34 57 106
-461.138 -1014.86 -1259 29 52 101
-459.914 -1016.51 -1261 29 53 99
-457.958 -1016.55 -1261 31 55 101
-455.64 -1015.78 -1260 29 55 101
-453.685 -1015.81 -1260 33 59 105
-451.731 -1015.85 -1260 38 64 110
-450.132 -1016.69 -1261 39 65 111
-447.82 -1015.93 -1260 40 66 112
-446.219 -1016.77 -1261 38 64 110
-444.614 -1017.61 -1262 37 63 109
-443.356 -1019.26 -1264 34 60 106
-441.744 -1020.11 -1265 35 61 109
-440.823 -1022.56 -1268 39 65 113
-439.546 -1024.21 -1270 35 61 111
-437.919 -1025.06 -1271 32 58 108
-435.946 -1025.09 -1271 36 62 110
-433.972 -1025.13 -1271 35 61 109
-431.318 -1023.56 -1269 34 60 108
-429.009 -1022.79 -1268 37 63 111
-427.04 -1022.82 -1268 42 68 116
-425.07 -1022.86 -1268 38 64 112
-423.767 -1024.51 -1270 36 62 108
-422.791 -1026.97 -1273 42 68 114
-422.466 -1031.04 -1278 42 68 114
-422.454 -1035.92 -1284 37 63 109
-422.751 -1041.6 -1291 37 64 112
-423.352 -1048.09 -1299 37 64 112
-423.278 -1052.97 -1305 37 63 113
-422.541 -1056.24 -1309 30 56 106
-421.47 -1058.7 -1312 30 56 104
-420.07 -1060.35 -1314 30 56 104
-419.299 -1063.61 -1318 31 59 101
-418.199 -1066.07 -1321 24 52 94
-417.72 -1070.15 -1326 27 51 95
-418.479 -1077.45 -1335 38 62 106
-734.923 -1062.48 -1319 48 59 86
-728.981 -1056.85 -1312 49 60 87
-724.17 -1052.83 -1307 47 61 90
-720.479 -1050.42 -1304 45 59 88
-716.797 -1048.01 -1301 44 59 88
-712.574 -1044.79 -1297 45 60 89
-708.365 -1041.58 -1293 46 61 93
-703.075 -1036.75 -1287 51 66 98
-697.803 -1031.92 -1281 53 67 104
-692.008 -1026.29 -1274 54 68 105
-687.857 -1023.07 -1270 55 72 108
-685.342 -1022.28 -1269 56 73 109
-681.213 -1019.06 -1265 55 72 110
-678.17 -1017.46 -1263 54 71 109
-675.669 -1016.66 -1262 51 69 106
-673.706 -1016.67 -1262 48 66 103
-671.742 -1016.67 -1262 44 62 99
-668.717 -1015.07 -1260 43 61 98
-666.756 -1015.08 -1260 40 57 91
-664.268 -1014.28 -1259 37 54 88
-662.308 -1014.29 -1259 33 51 87
-660.35 -1014.3 -1259 34 52 88
-658.914 -1015.11 -1260 36 53 93
-656.432 -1014.31 -1259 33 50 90
-653.954 -1013.51 -1258 34 51 89
-651.479 -1012.72 -1257 37 54 92
-649.524 -1012.73 -1257 41 58 96
-647.053 -1011.93 -1256 39 56 94
-644.585 -1011.13 -1255 36 53 89
-642.634 -1011.14 -1255 38 55 91
-640.682 -1011.15 -1255 39 56 92
-638.731 -1011.16 -1255 37 54 90
-636.779 -1011.17 -1255 35 53 93
-634.828 -1011.18 -1255 32 50 90
-632.875 -1011.19 -1255 28 47 89
-631.428 -1012.01 -1256 26 45 87
-628.974 -1011.22 -1255 23 41 79
-626.523 -1010.42 -1254 25 43 81
-623.579 -1008.82 -1252 31 53 92
-621.136 -1008.03 -1251 39 61 100
-618.202 -1006.43 -1249 46 69 112
-614.781 -1004.03 -1246 53 76 119
-610.877 -1000.82 -1242 57 78 123
-607.967 -999.22 -1240 57 78 123
-605.552 -998.429 -1239 58 82 128
-603.141 -997.638 -1238 58 82 128
-601.217 -997.652 -1238 53 78 123
-599.294 -997.667 -1238 50 75 120
-597.853 -998.487 -1239 49 75 122
-596.891 -1000.11 -1241 49 75 122
-595.923 -1001.74 -1243 47 73 119
-594.949 -1003.37 -1245 46 72 118
-593.968 -1005 -1247 45 70 116
-592.983 -1006.63 -1249 44 69 115
-591.516 -1007.45 -1250 46 70 116
-590.52 -1009.08 -1252 47 71 117
-589.516 -1010.71 -1254 43 68 114
-588.508 -1012.35 -1256 38 63 109
-587.025 -1013.17 -1257 39 65 113
-586.006 -1014.8 -1259 40 66 114
-584.98 -1016.44 -1261 40 67 115
-583.486 -1017.26 -1262 38 65 113
-582.449 -1018.9 -1264 40 65 113
-581.407 -1020.53 -1266 40 65 113
-580.816 -1022.97 -1269 40 63 112
-580.217 -1025.41 -1272 38 61 110
-579.608 -1027.85 -1275 36 59 109
-578.084 -1028.68 -1276 31 54 104
-577.46 -1031.13 -1279 30 53 102
-576.826 -1033.57 -1282 30 53 102
-575.735 -1035.21 -1284 30 56 102
-574.638 -1036.85 -1286 32 58 104
-575.316 -1041.71 -1292 32 58 102
-575.088 -1044.96 -1296 32 58 102
-575.732 -1049.83 -1302 24 48 88
-576.797 -1055.5 -1309 13 37 77
-579.598 -1064.39 -1320 16 30 59
-580.615 -1070.07 -1327 58 72 101
-579.867 -1072.52 -1330 122 128 147
-579.109 -1074.97 -1333 56 62 81
-575.743 -1072.57 -1330 20 25 42
-572.388 -1070.18 -1327 19 24 41
-567.754 -1065.38 -1321 22 26 47
-562.28 -1058.95 -1313 23 27 48
-557.686 -1054.15 -1307 24 31 53
-554.385 -1051.76 -1304 28 35 57
-550.669 -1048.56 -1300 25 34 58
-547.812 -1046.98 -1298 25 34 58
-545.379 -1046.2 -1297 26 38 63
-542.951 -1045.43 -1296 29 41 66
-540.525 -1044.66 -1295 29 42 70
-537.687 -1043.08 -1293 23 36 64
-534.44 -1040.69 -1290 19 36 67
-530.378 -1036.69 -1285 22 39 70
-527.564 -1035.1 -1283 26 43 75
-524.348 -1032.72 -1280 31 48 80
-521.548 -1031.14 -1278 35 52 87
-518.348 -1028.75 -1275 42 59 94
-515.562 -1027.17 -1273 43 60 96
-512.379 -1024.78 -1270 49 66 102
-508.803 -1021.59 -1266 54 75 110
-505.641 -1019.2 -1263 59 80 115
-502.487 -1016.81 -1260 61 83 122
-498.946 -1013.62 -1256 63 85 124
-496.208 -1012.04 -1254 60 81 123
-493.87 -1011.27 -1253 54 75 117
-491.536 -1010.5 -1252 52 75 118
-489.596 -1010.53 -1252 53 76 119
-487.655 -1010.57 -1252 55 79 123
-486.102 -1011.41 -1253 56 80 124
-484.546 -1012.25 -1254 59 83 127
-482.218 -1011.48 -1253 57 81 125
-480.659 -1012.32 -1254 60 84 128
-479.097 -1013.16 -1255 57 81 125
-477.531 -1014.01 -1256 49 72 116
-475.962 -1014.85 -1257 46 69 113
-474.39 -1015.69 -1258 49 73 117
-472.441 -1015.73 -1258 54 78 122
-470.489 -1015.77 -1258 51 75 122
-468.911 -1016.61 -1259 45 69 116
-466.588 -1015.84 -1258 38 63 111
-465.006 -1016.68 -1259 34 59 107
-463.053 -1016.72 -1259 34 58 105
-461.467 -1017.56 -1260 30 54 101
-459.877 -1018.41 -1261 31 55 101
-457.921 -1018.44 -1261 31 55 101
-455.603 -1017.67 -1260 27 53 99
-454.008 -1018.52 -1261 33 59 105
-451.693 -1017.75 -1260 40 66 112
-449.739 -1017.78 -1260 38 64 110
-447.783 -1017.82 -1260 39 65 112
-446.182 -1018.66 -1261 36 62 109
-444.577 -1019.51 -1262 36 62 108
-443.32 -1021.16 -1264 32 58 104
-442.056 -1022.81 -1266 33 59 107
-441.133 -1025.27 -1269 36 62 110
-439.856 -1026.93 -1271 33 59 108
-438.227 -1027.77 -1272 31 57 106
-435.909 -1027 -1271 37 63 111
-433.935 -1027.04 -1271 37 63 111
-431.621 -1026.27 -1270 34 60 108
-428.972 -1024.69 -1268 36 62 110
-427.003 -1024.73 -1268 41 67 114
-425.033 -1024.76 -1268 39 65 112
-424.064 -1027.22 -1271 36 62 108
-423.418 -1030.49 -1275 39 65 111
-423.09 -1034.57 -1280 40 66 112
-423.404 -1040.27 -1287 36 62 108
-424.023 -1046.77 -1295 38 65 112
-423.64 -1050.85 -1300 37 64 111
-423.565 -1055.74 -1306 37 63 113
-423.149 -1059.82 -1311 31 57 107
-421.753 -1061.47 -1313 30 56 104
-420.671 -1063.94 -1316 29 55 103
-419.579 -1066.4 -1319 28 56 98
-418.794 -1069.67 -1323 23 51 93
-418.312 -1073.75 -1328 29 53 97
-419.381 -1081.87 -1338 36 60 104
-734.917 -1064.53 -1319 47 59 84
-728.975 -1058.89 -1312 48 60 85
-724.717 -1055.67 -1308 48 62 91
-720.471 -1052.45 -1304 47 61 90
-716.79 -1050.03 -1301 46 61 90
-713.117 -1047.62 -1298 45 60 89
-708.905 -1044.4 -1294 45 60 92
-704.16 -1040.37 -1289 52 67 99
-698.886 -1035.53 -1283 54 68 105
-693.63 -1030.7 -1277 57 71 108
-690.559 -1029.09 -1275 52 69 105
-685.335 -1024.25 -1269 54 71 107
-680.667 -1020.22 -1264 56 73 111
-678.163 -1019.42 -1263 56 73 111
-675.663 -1018.62 -1262 54 71 109
-673.165 -1017.82 -1261 50 67 105
-671.202 -1017.83 -1261 45 63 101
-668.178 -1016.22 -1259 44 62 100
-666.22 -1016.23 -1259 43 60 96
-664.26 -1016.24 -1259 40 57 93
-662.301 -1016.24 -1259 36 54 90
-660.342 -1016.25 -1259 35 53 89
-658.382 -1016.26 -1259 35 52 92
-656.424 -1016.27 -1259 32 49 89
-653.945 -1015.47 -1258 31 48 86
-651.989 -1015.48 -1258 35 52 90
-650.032 -1015.49 -1258 41 58 96
-647.559 -1014.69 -1257 39 56 94
-644.577 -1013.08 -1255 35 52 88
-642.624 -1013.09 -1255 37 54 90
-640.673 -1013.1 -1255 39 56 92
-638.72 -1013.11 -1255 37 54 90
-636.261 -1012.31 -1254 36 54 94
-634.311 -1012.32 -1254 33 51 91
-632.866 -1013.14 -1255 28 48 90
-630.914 -1013.15 -1255 28 48 90
-628.462 -1012.36 -1254 28 46 84
-626.512 -1012.37 -1254 27 45 83
-623.566 -1010.76 -1252 26 46 86
-621.62 -1010.78 -1252 31 51 91
-618.684 -1009.17 -1250 40 62 105
-614.768 -1005.96 -1246 50 72 115
-611.848 -1004.35 -1244 55 76 121
-608.934 -1002.75 -1242 56 77 122
-606.516 -1001.96 -1241 57 81 127
-604.1 -1001.17 -1240 57 81 127
-601.687 -1000.37 -1239 54 78 122
-599.763 -1000.39 -1239 53 77 121
-598.321 -1001.21 -1240 52 78 124
-597.356 -1002.84 -1242 52 78 124
-596.386 -1004.47 -1244 48 74 120
-594.933 -1005.29 -1245 49 75 121
-593.951 -1006.92 -1247 50 74 120
-592.964 -1008.55 -1249 45 69 115
-591.973 -1010.19 -1251 45 69 115
-590.973 -1011.82 -1253 48 72 118
-589.498 -1012.65 -1254 46 72 118
-588.488 -1014.28 -1256 41 67 113
-587.006 -1015.11 -1257 38 65 113
-585.986 -1016.74 -1259 38 65 113
-584.96 -1018.38 -1261 38 65 113
-583.003 -1018.4 -1261 38 65 113
-582.428 -1020.84 -1264 42 65 114
-581.386 -1022.48 -1266 43 66 115
-580.337 -1024.11 -1268 42 65 114
-580.194 -1027.36 -1272 40 63 112
-579.13 -1029 -1274 35 58 107
-578.06 -1030.64 -1276 34 57 106
-577.436 -1033.09 -1279 36 59 108
-576.803 -1035.54 -1282 32 55 104
-576.159 -1037.98 -1285 28 54 100
-575.506 -1040.43 -1288 31 57 103
-574.845 -1042.88 -1291 32 58 102
-575.062 -1046.94 -1296 35 61 105
-575.263 -1051.01 -1301 33 57 96
-576.77 -1057.5 -1309 18 42 81
-579.571 -1066.41 -1320 14 28 57
-579.712 -1070.48 -1325 52 66 95
-579.838 -1074.54 -1330 118 124 143
-579.514 -1077.81 -1334 54 60 79
-576.58 -1076.22 -1332 20 25 42
-572.791 -1073.02 -1328 19 24 41
-568.153 -1068.2 -1322 22 26 47
-562.679 -1061.76 -1314 23 27 48
-558.509 -1057.75 -1309 25 31 53
-553.929 -1052.93 -1303 27 33 55
-550.639 -1050.54 -1300 25 34 58
-547.779 -1048.95 -1298 26 35 59
-545.348 -1048.18 -1297 27 39 64
-542.919 -1047.4 -1296 30 42 67
-539.659 -1045.01 -1293 31 42 70
-537.238 -1044.23 -1292 25 36 64
-534.409 -1042.65 -1290 19 36 67
-530.345 -1038.64 -1285 19 36 67
-527.12 -1036.24 -1282 23 40 72
-523.904 -1033.85 -1279 28 45 77
-520.699 -1031.46 -1276 32 49 83
-518.314 -1030.68 -1275 39 56 90
-515.933 -1029.91 -1274 43 60 96
-512.749 -1027.51 -1271 46 63 99
-509.574 -1025.12 -1268 49 70 105
-506.007 -1021.92 -1264 55 76 111
-502.454 -1018.72 -1260 58 80 119
-499.308 -1016.33 -1257 62 84 123
-496.965 -1015.56 -1256 60 82 123
-493.837 -1013.16 -1253 54 76 117
-491.502 -1012.39 -1252 57 79 122
-489.951 -1013.23 -1253 57 79 122
-488.009 -1013.26 -1253 50 74 118
-486.455 -1014.11 -1254 55 79 123
-484.897 -1014.95 -1255 58 82 126
-482.952 -1014.99 -1255 52 76 120
-481.39 -1015.83 -1256 58 82 126
-479.824 -1016.67 -1257 53 77 121
-478.256 -1017.52 -1258 50 71 116
-476.684 -1018.36 -1259 49 70 115
-474.732 -1018.4 -1259 49 73 117
-472.404 -1017.62 -1258 49 73 117
-470.828 -1018.47 -1259 45 69 115
-468.875 -1018.51 -1259 40 64 110
-466.552 -1017.73 -1258 38 61 110
-464.97 -1018.58 -1259 37 60 109
-463.018 -1018.61 -1259 36 60 106
-461.431 -1019.46 -1260 28 52 98
-460.205 -1021.11 -1262 27 51 97
-457.885 -1020.34 -1261 26 50 96
-455.928 -1020.38 -1261 25 51 97
-453.612 -1019.6 -1260 36 62 108
-451.299 -1018.83 -1259 45 71 117
-449.345 -1018.87 -1259 41 67 113
-447.747 -1019.71 -1260 39 65 113
-446.145 -1020.56 -1261 37 63 111
-444.893 -1022.22 -1263 37 63 109
-443.633 -1023.87 -1265 34 60 106
-442.368 -1025.53 -1267 35 61 109
-441.096 -1027.18 -1269 37 63 111
-439.818 -1028.84 -1271 35 61 109
-437.845 -1028.87 -1271 35 61 109
-435.872 -1028.91 -1271 38 64 112
-433.898 -1028.95 -1271 38 64 112
-431.584 -1028.17 -1270 35 61 109
-429.274 -1027.4 -1269 35 61 109
-427.303 -1027.44 -1269 40 66 112
-425.332 -1027.48 -1269 40 66 112
-424.361 -1029.94 -1272 37 63 109
-423.713 -1033.22 -1276 38 64 110
-423.714 -1038.11 -1282 39 67 112
-424.354 -1044.63 -1290 37 65 110
-424.313 -1049.52 -1296 40 68 113
-424.255 -1054.42 -1302 37 65 110
-424.176 -1059.32 -1308 35 61 111
-423.757 -1063.4 -1313 29 55 105
-422.359 -1065.06 -1315 30 56 104
-421.273 -1067.53 -1318 29 55 103
-420.178 -1070 -1321 26 54 97
-419.39 -1073.27 -1325 25 53 96
-419.219 -1078.17 -1331 30 54 98
-419.97 -1085.5 -1340 32 56 100
-735.466 -1067.39 -1320 49 61 86
-730.079 -1062.55 -1314 46 58 83
-724.71 -1057.7 -1308 45 59 87
-720.465 -1054.48 -1304 41 55 83
-717.334 -1052.87 -1302 39 54 83
-713.11 -1049.64 -1298 41 56 85
-709.446 -1047.22 -1295 44 59 91
-705.246 -1043.99 -1291 48 63 95
-701.057 -1040.76 -1287 54 68 105
-696.339 -1036.72 -1282 58 72 109
-690.011 -1030.26 -1274 50 67 102
-684.788 -1025.42 -1268 56 73 108
-680.661 -1022.19 -1264 60 77 114
-678.157 -1021.39 -1263 60 77 114
-675.12 -1019.78 -1261 57 74 112
-672.624 -1018.97 -1260 55 72 110
-670.663 -1018.98 -1260 51 69 108
-668.172 -1018.18 -1259 48 66 105
-666.212 -1018.19 -1259 42 60 98
-663.725 -1017.39 -1258 38 56 94
-661.767 -1017.39 -1258 33 51 88
-659.81 -1017.4 -1258 33 51 88
-658.898 -1019.03 -1260 36 53 92
-656.416 -1018.22 -1259 33 50 89
-654.458 -1018.23 -1259 32 49 87
-652.498 -1018.24 -1259 36 53 91
-651.056 -1019.06 -1260 36 53 91
-647.036 -1015.83 -1256 37 54 92
-644.568 -1015.03 -1255 36 53 90
-642.616 -1015.04 -1255 34 51 88
-640.663 -1015.05 -1255 36 54 91
-638.202 -1014.25 -1254 38 56 93
-635.744 -1013.45 -1253 39 57 97
-634.301 -1014.27 -1254 40 58 98
-632.855 -1015.09 -1255 36 55 96
-629.899 -1013.48 -1253 33 52 93
-628.45 -1014.3 -1254 29 47 85
-626.002 -1013.5 -1253 23 41 79
-623.555 -1012.7 -1252 24 44 84
-621.608 -1012.71 -1252 29 49 89
-618.177 -1010.3 -1249 32 54 96
-615.743 -1009.5 -1248 42 64 106
-612.818 -1007.9 -1246 46 67 112
-609.411 -1005.48 -1243 52 73 118
-607.48 -1005.5 -1243 59 83 129
-605.06 -1004.7 -1242 58 82 128
-602.645 -1003.9 -1241 56 80 124
-600.233 -1003.11 -1240 55 79 123
-598.307 -1003.13 -1240 51 76 122
-597.342 -1004.76 -1242 53 78 124
-596.371 -1006.39 -1244 49 75 121
-594.917 -1007.21 -1245 50 76 122
-593.46 -1008.04 -1246 52 76 122
-592.473 -1009.67 -1248 48 72 118
-591.482 -1011.31 -1250 44 68 114
-590.483 -1012.94 -1252 42 66 112
-589.481 -1014.58 -1254 39 65 111
-588.47 -1016.21 -1256 38 64 110
-586.987 -1017.04 -1257 39 66 114
-585.967 -1018.68 -1259 40 67 115
-584.941 -1020.32 -1261 38 65 113
-583.445 -1021.14 -1262 38 65 113
-582.868 -1023.59 -1265 38 61 110
-581.365 -1024.42 -1266 42 65 114
-580.773 -1026.87 -1269 42 64 113
-580.173 -1029.32 -1272 39 61 110
-579.563 -1031.77 -1275 36 59 108
-578.491 -1033.41 -1277 35 58 107
-577.413 -1035.05 -1279 35 58 107
-576.328 -1036.69 -1281 33 56 105
-576.135 -1039.95 -1285 29 55 100
-575.482 -1042.4 -1288 31 57 102
-575.265 -1045.66 -1292 35 61 105
-575.48 -1049.74 -1297 37 63 107
-575.679 -1053.81 -1302 35 59 99
-578.066 -1061.93 -1312 19 43 83
-579.105 -1067.62 -1319 18 32 61
-580.122 -1073.31 -1326 44 58 87
-580.682 -1078.19 -1332 113 119 138
-580.789 -1082.27 -1337 56 62 81
-577.418 -1079.87 -1334 20 25 43
-573.624 -1076.66 -1330 16 21 39
-568.554 -1071.02 -1323 20 24 45
-563.505 -1065.38 -1316 23 27 48
-559.333 -1061.37 -1311 27 33 55
-554.75 -1056.54 -1305 29 35 57
-551.456 -1054.14 -1302 25 34 58
-548.172 -1051.74 -1299 27 36 60
-545.317 -1050.15 -1297 30 42 67
-543.308 -1050.18 -1297 31 43 68
-540.462 -1048.59 -1295 29 40 68
-537.623 -1047 -1293 26 37 65
-533.962 -1043.8 -1289 18 35 66
-530.726 -1041.4 -1286 19 36 67
-527.5 -1039 -1283 21 38 70
-523.873 -1035.79 -1279 22 39 71
-520.667 -1033.39 -1276 27 44 78
-518.688 -1033.43 -1276 34 51 85
-515.901 -1031.84 -1274 41 58 94
-513.12 -1030.25 -1272 45 62 98
-509.541 -1027.04 -1268 44 64 99
-505.974 -1023.84 -1264 44 64 99
-502.42 -1020.63 -1260 49 71 110
-499.672 -1019.04 -1258 58 80 119
-496.535 -1016.64 -1255 59 81 121
-494.197 -1015.87 -1254 54 76 116
-491.86 -1015.09 -1253 58 80 123
-490.309 -1015.94 -1254 58 80 123
-488.365 -1015.97 -1254 57 80 124
-486.809 -1016.81 -1255 57 80 124
-485.636 -1018.47 -1257 55 79 123
-483.302 -1017.69 -1256 54 78 122
-482.122 -1019.35 -1258 54 78 122
-480.553 -1020.19 -1259 54 78 122
-478.981 -1021.04 -1260 46 67 112
-476.649 -1020.26 -1259 46 67 112
-474.696 -1020.3 -1259 42 66 110
-472.744 -1020.33 -1259 38 62 106
-470.792 -1020.37 -1259 34 58 104
-468.839 -1020.4 -1259 36 60 106
-466.145 -1018.82 -1257 37 60 109
-464.565 -1019.66 -1258 33 56 105
-462.981 -1020.51 -1259 36 60 106
-461.76 -1022.17 -1261 29 53 99
-460.169 -1023.01 -1262 30 54 100
-457.485 -1021.43 -1260 28 52 98
-455.892 -1022.27 -1261 28 54 100
-453.576 -1021.5 -1260 44 70 116
-451.621 -1021.54 -1260 47 73 119
-449.665 -1021.57 -1260 36 62 108
-448.065 -1022.42 -1261 37 63 111
-446.816 -1024.08 -1263 38 64 112
-445.208 -1024.92 -1264 40 66 112
-443.597 -1025.77 -1265 38 64 110
-441.633 -1025.81 -1265 40 66 114
-440.712 -1028.28 -1268 41 67 115
-439.09 -1029.12 -1269 37 63 111
-437.12 -1029.16 -1269 39 65 113
-435.835 -1030.82 -1271 39 65 113
-433.861 -1030.86 -1271 33 59 107
-431.548 -1030.08 -1270 31 57 105
-429.575 -1030.12 -1270 37 63 111
-427.603 -1030.15 -1270 43 69 115
-426.3 -1031.81 -1272 43 69 115
-425.325 -1034.28 -1275 39 65 111
-425.005 -1038.38 -1280 38 64 110
-425.66 -1044.9 -1288 35 63 108
-425.303 -1049 -1293 34 62 107
-425.258 -1053.9 -1299 38 66 111
-425.52 -1059.62 -1306 36 64 109
-425.112 -1063.71 -1311 27 53 103
-423.72 -1065.37 -1313 26 52 102
-422.321 -1067.03 -1315 31 57 105
-421.235 -1069.5 -1318 30 56 104
-420.141 -1071.98 -1321 30 58 101
-419.353 -1075.26 -1325 27 55 98
-419.497 -1080.98 -1332 32 57 101
-737.131 -1071.88 -1323 49 61 86
-730.627 -1065.4 -1315 48 60 85
-724.703 -1059.74 -1308 46 60 87
-721.01 -1057.31 -1305 41 55 82
-717.876 -1055.7 -1303 37 52 81
-713.103 -1051.66 -1298 38 53 82
-709.44 -1049.23 -1295 41 56 88
-705.786 -1046.81 -1292 46 61 93
-702.141 -1044.39 -1289 52 66 103
-697.419 -1040.34 -1284 57 71 108
-691.629 -1034.68 -1277 49 66 100
-685.861 -1029.01 -1270 55 72 106
-681.192 -1024.97 -1265 61 78 114
-678.15 -1023.35 -1263 62 79 115
-674.578 -1020.93 -1260 61 78 116
-672.083 -1020.12 -1259 57 74 112
-670.124 -1020.13 -1259 51 69 109
-668.164 -1020.14 -1259 47 65 105
-666.205 -1020.14 -1259 45 63 103
-664.245 -1020.15 -1259 41 59 99
-661.76 -1019.35 -1258 35 53 91
-659.802 -1019.36 -1258 33 51 89
-658.891 -1020.98 -1260 35 52 90
-656.408 -1020.18 -1259 33 50 88
-654.449 -1020.19 -1259 31 48 86
-652.49 -1020.2 -1259 33 50 88
-650.014 -1019.39 -1258 37 54 92
-647.027 -1017.78 -1256 35 52 90
-644.558 -1016.98 -1255 34 51 89
-642.095 -1016.18 -1254 35 52 90
-639.632 -1015.38 -1253 37 55 93
-638.193 -1016.2 -1254 40 58 96
-635.734 -1015.39 -1253 40 58 98
-633.786 -1015.4 -1253 40 58 98
-632.341 -1016.22 -1254 35 53 93
-629.385 -1014.61 -1252 34 52 92
-627.939 -1015.43 -1253 32 50 88
-625.989 -1015.44 -1253 28 46 84
-623.545 -1014.65 -1252 27 47 87
-621.101 -1013.84 -1251 28 48 88
-618.661 -1013.05 -1250 28 50 91
-616.224 -1012.25 -1249 36 58 99
-612.807 -1009.83 -1246 38 59 104
-609.89 -1008.22 -1244 48 69 114
-607.956 -1008.23 -1244 59 83 129
-605.535 -1007.43 -1243 59 83 129
-603.116 -1006.63 -1242 55 79 123
-600.219 -1005.03 -1240 53 77 121
-598.292 -1005.04 -1240 53 77 123
-597.327 -1006.68 -1242 58 82 128
-595.877 -1007.5 -1243 53 79 125
-594.424 -1008.33 -1244 52 78 124
-592.968 -1009.15 -1245 51 75 121
-591.983 -1010.79 -1247 46 70 116
-590.992 -1012.43 -1249 41 65 111
-589.996 -1014.06 -1251 38 62 108
-589.463 -1016.51 -1254 36 62 108
-588.922 -1018.96 -1257 37 63 109
-586.97 -1018.98 -1257 38 65 113
-585.948 -1020.62 -1259 40 67 115
-584.922 -1022.26 -1261 39 66 114
-583.889 -1023.9 -1263 38 65 113
-582.849 -1025.54 -1265 35 58 107
-581.804 -1027.18 -1267 38 61 110
-580.753 -1028.82 -1269 41 62 111
-580.152 -1031.27 -1272 42 63 112
-579.542 -1033.73 -1275 40 63 112
-578.468 -1035.37 -1277 39 62 111
-577.39 -1037.01 -1279 38 61 110
-576.756 -1039.47 -1282 35 58 107
-577.008 -1043.54 -1287 29 55 99
-576.351 -1046 -1290 28 54 98
-576.131 -1049.26 -1294 31 57 101
-575.899 -1052.53 -1298 34 60 104
-576.539 -1057.42 -1304 35 59 100
-577.6 -1063.12 -1311 21 45 86
-578.64 -1068.82 -1318 25 40 69
-580.095 -1075.34 -1326 34 49 78
-581.527 -1081.85 -1334 108 114 134
-581.195 -1085.12 -1338 55 61 81
-577.822 -1082.72 -1335 19 23 43
-573.597 -1078.69 -1330 18 22 42
-568.955 -1073.85 -1324 16 20 41
-563.905 -1068.2 -1317 19 23 44
-559.303 -1063.36 -1311 24 30 52
-555.57 -1060.15 -1307 27 33 55
-551.85 -1056.93 -1303 26 34 58
-548.142 -1053.72 -1299 29 37 61
-545.708 -1052.94 -1298 30 42 67
-542.858 -1051.34 -1296 29 41 66
-540.431 -1050.56 -1295 29 40 68
-537.176 -1048.16 -1292 26 37 65
-533.517 -1044.94 -1288 18 35 66
-530.283 -1042.54 -1285 18 35 66
-527.058 -1040.14 -1282 21 38 70
-523.841 -1037.73 -1279 23 40 72
-520.635 -1035.33 -1276 27 44 78
-518.251 -1034.55 -1275 32 49 83
-515.869 -1033.77 -1274 38 55 91
-512.684 -1031.37 -1271 44 61 97
-509.509 -1028.97 -1268 43 61 97
-505.942 -1025.75 -1264 41 59 95
-502.387 -1022.54 -1260 44 66 105
-499.243 -1020.14 -1257 52 74 113
-496.899 -1019.36 -1256 54 76 115
-494.557 -1018.58 -1255 53 75 114
-493.004 -1019.42 -1256 56 78 121
-491.057 -1019.46 -1256 53 75 118
-489.11 -1019.49 -1256 54 75 120
-487.551 -1020.33 -1257 57 78 123
-486.375 -1021.99 -1259 54 78 122
-484.423 -1022.02 -1259 50 74 118
-482.854 -1022.87 -1260 45 69 113
-481.282 -1023.72 -1261 41 65 109
-479.326 -1023.75 -1261 38 59 104
-477.371 -1023.79 -1261 37 58 103
-475.039 -1023.01 -1260 36 60 104
-472.709 -1022.23 -1259 35 59 103
-470.757 -1022.27 -1259 33 57 103
-468.804 -1022.3 -1259 36 60 106
-466.48 -1021.52 -1258 38 61 110
-464.899 -1022.37 -1259 35 58 107
-463.313 -1023.22 -1260 33 57 103
-461.725 -1024.06 -1261 32 56 102
-460.134 -1024.91 -1262 36 60 106
-457.813 -1024.14 -1261 33 57 103
-456.218 -1024.98 -1262 32 58 104
-454.26 -1025.02 -1262 43 69 115
-452.66 -1025.87 -1263 46 72 118
-450.7 -1025.9 -1263 38 64 110
-449.095 -1026.75 -1264 35 61 109
-447.488 -1027.6 -1265 38 64 112
-445.876 -1028.45 -1266 39 65 111
-444.262 -1029.3 -1267 36 62 108
-442.295 -1029.33 -1267 36 62 110
-441.023 -1030.99 -1269 38 64 112
-439.053 -1031.03 -1269 36 62 110
-437.083 -1031.07 -1269 39 65 113
-435.113 -1031.1 -1269 38 64 112
-433.484 -1031.95 -1270 35 61 109
-431.172 -1031.18 -1269 34 60 108
-429.201 -1031.21 -1269 39 65 113
-427.903 -1032.87 -1271 44 70 116
-426.599 -1034.53 -1273 42 68 114
-425.956 -1037.82 -1277 39 65 111
-426.296 -1043.55 -1284 39 65 111
-426.284 -1048.46 -1290 41 69 114
-425.924 -1052.56 -1295 34 62 107
-426.203 -1058.29 -1302 34 62 107
-425.809 -1062.39 -1307 34 62 107
-425.074 -1065.68 -1311 30 56 106
-424.005 -1068.15 -1314 31 57 107
-422.284 -1069 -1315 33 59 107
-421.198 -1071.48 -1318 30 56 104
-420.103 -1073.95 -1321 29 57 100
-419.948 -1078.87 -1327 31 59 102
-419.774 -1083.78 -1333 35 61 105
-730.064 -1066.64 -1314 50 62 87
-724.142 -1060.96 -1307 45 59 86
-721.003 -1059.34 -1305 42 56 83
-716.769 -1056.11 -1301 38 52 81
-713.096 -1053.68 -1298 37 51 80
-710.529 -1052.87 -1297 38 53 85
-707.418 -1051.26 -1295 44 59 91
-703.223 -1048.01 -1291 51 65 102
-699.042 -1044.77 -1287 56 70 107
-693.789 -1039.91 -1281 54 71 105
-688.015 -1034.23 -1274 58 75 109
-682.263 -1028.56 -1267 59 76 112
-678.143 -1025.32 -1263 59 76 112
-674.571 -1022.89 -1260 60 77 115
-672.611 -1022.9 -1260 58 75 113
-670.116 -1022.09 -1259 52 70 111
-668.158 -1022.1 -1259 49 67 108
-666.198 -1022.1 -1259 45 63 105
-663.71 -1021.3 -1258 44 62 104
-661.753 -1021.31 -1258 40 58 97
-659.795 -1021.31 -1258 37 55 94
-658.36 -1022.13 -1259 35 53 91
-656.4 -1022.14 -1259 34 52 90
-654.441 -1022.15 -1259 33 51 89
-651.964 -1021.34 -1258 32 50 88
-650.007 -1021.35 -1258 34 51 89
-647.534 -1020.55 -1257 32 49 87
-644.55 -1018.93 -1255 32 49 87
-642.086 -1018.13 -1254 34 51 89
-639.624 -1017.32 -1253 36 54 92
-638.184 -1018.14 -1254 38 56 94
-635.218 -1016.53 -1252 39 57 97
-632.764 -1015.72 -1251 39 57 97
-630.818 -1015.73 -1251 37 55 95
-628.37 -1014.93 -1250 36 54 94
-626.927 -1015.75 -1251 37 55 93
-624.982 -1015.76 -1251 36 54 92
-622.538 -1014.96 -1250 31 51 91
-621.09 -1015.78 -1251 28 48 88
-618.649 -1014.98 -1250 25 47 88
-615.72 -1013.37 -1248 29 51 92
-613.286 -1012.57 -1247 27 48 92
-611.348 -1012.58 -1247 37 58 102
-608.432 -1010.97 -1245 48 70 116
-606.496 -1010.98 -1245 52 74 120
-604.075 -1010.18 -1244 55 78 122
-601.659 -1009.38 -1243 57 80 124
-599.727 -1009.4 -1243 55 79 125
-598.276 -1010.22 -1244 59 83 129
-596.342 -1010.23 -1244 59 85 131
-594.887 -1011.06 -1245 54 80 126
-593.429 -1011.89 -1246 50 74 120
-592.442 -1013.52 -1248 45 69 115
-591.449 -1015.16 -1250 43 65 112
-589.98 -1015.99 -1251 40 62 109
-588.976 -1017.63 -1253 38 63 109
-588.435 -1020.08 -1256 39 64 110
-586.486 -1020.1 -1256 40 66 113
-585.465 -1021.74 -1258 41 67 114
-584.903 -1024.2 -1261 41 67 115
-583.87 -1025.84 -1263 42 68 116
-582.831 -1027.48 -1265 37 60 109
-581.785 -1029.13 -1267 38 61 110
-580.733 -1030.77 -1269 40 62 111
-579.675 -1032.41 -1271 41 63 112
-579.52 -1035.68 -1275 41 64 113
-578.448 -1037.33 -1277 42 65 114
-577.82 -1039.79 -1280 41 64 113
-577.633 -1043.06 -1284 38 61 110
-577.434 -1046.33 -1288 31 57 101
-576.776 -1048.79 -1291 28 54 98
-576.108 -1051.25 -1294 29 55 99
-576.319 -1055.33 -1299 33 59 103
-576.514 -1059.42 -1304 31 55 96
-577.134 -1064.32 -1310 23 47 88
-578.614 -1070.84 -1318 29 44 74
-581.382 -1079.8 -1329 24 39 69
-584.551 -1089.58 -1341 106 113 133
-579.094 -1087.2 -1338 23 28 46
-574.862 -1083.16 -1333 20 25 43
-569.786 -1077.5 -1326 14 18 39
-564.305 -1071.03 -1318 19 23 44
-559.701 -1066.18 -1312 24 30 52
-555.968 -1062.96 -1308 26 32 54
-551.398 -1058.11 -1302 25 33 57
-548.114 -1055.7 -1299 30 38 62
-545.257 -1054.1 -1297 32 44 69
-542.41 -1052.5 -1295 33 45 70
-539.568 -1050.91 -1293 32 43 71
-536.316 -1048.5 -1290 29 40 68
-533.073 -1046.09 -1287 23 39 70
-529.427 -1042.87 -1283 22 38 69
-526.205 -1040.46 -1280 21 38 70
-522.992 -1038.05 -1277 23 40 72
-520.196 -1036.46 -1275 28 45 79
-517.813 -1035.67 -1274 31 48 82
-515.028 -1034.08 -1272 34 52 88
-512.653 -1033.3 -1271 41 59 95
-509.477 -1030.89 -1268 40 60 95
-505.91 -1027.67 -1264 38 58 93
-502.754 -1025.26 -1261 41 63 101
-499.608 -1022.85 -1258 45 67 105
-497.262 -1022.07 -1257 47 69 108
-495.313 -1022.1 -1257 51 73 112
-493.364 -1022.14 -1257 56 78 121
-491.807 -1022.98 -1258 53 75 118
-489.856 -1023.01 -1258 54 75 120
-488.681 -1024.67 -1260 57 78 123
-487.114 -1025.52 -1261 52 76 119
-484.774 -1024.74 -1260 46 70 113
-483.203 -1025.59 -1261 41 65 109
-481.629 -1026.43 -1262 36 60 104
-479.673 -1026.47 -1262 33 54 99
-477.337 -1025.69 -1261 31 52 97
-475.004 -1024.91 -1260 31 55 99
-473.05 -1024.94 -1260 33 57 101
-471.096 -1024.98 -1260 32 56 102
-468.769 -1024.2 -1259 35 59 105
-466.446 -1023.42 -1258 39 62 111
-464.864 -1024.27 -1259 38 61 110
-463.279 -1025.12 -1260 34 58 104
-461.324 -1025.15 -1260 37 61 107
-459.734 -1026 -1261 41 66 111
-458.141 -1026.85 -1262 38 63 108
-456.544 -1027.7 -1263 36 62 108
-454.584 -1027.73 -1263 42 68 114
-452.983 -1028.58 -1264 43 69 115
-451.735 -1030.25 -1266 38 64 110
-449.77 -1030.28 -1266 35 61 108
-448.159 -1031.13 -1267 38 64 111
-446.545 -1031.98 -1268 39 65 111
-444.928 -1032.83 -1269 35 61 107
-442.608 -1032.05 -1268 36 62 110
-440.987 -1032.9 -1269 39 65 113
-438.671 -1032.12 -1268 39 65 114
-436.702 -1032.16 -1268 39 65 114
-434.391 -1031.38 -1267 40 66 114
-432.765 -1032.23 -1268 39 65 113
-430.796 -1032.27 -1268 38 64 111
-429.164 -1033.12 -1269 40 66 113
-428.204 -1035.6 -1272 43 69 115
-426.898 -1037.26 -1274 41 67 113
-426.92 -1042.18 -1280 38 64 110
-426.924 -1047.1 -1286 39 65 111
-426.908 -1052.02 -1292 41 67 113
-426.874 -1056.95 -1298 35 61 107
-426.494 -1061.05 -1303 33 59 105
-425.772 -1064.35 -1307 33 59 105
-425.037 -1067.64 -1311 31 57 106
-423.968 -1070.12 -1314 31 57 106
-422.568 -1071.79 -1316 32 58 105
-421.481 -1074.27 -1319 29 55 102
-420.702 -1077.56 -1323 27 53 98
-420.544 -1082.49 -1329 31 57 102
-420.366 -1087.41 -1335 32 58 101
-728.946 -1067.05 -1312 52 64 89
-724.135 -1062.99 -1307 45 59 86
-719.339 -1058.94 -1302 45 59 86
-716.211 -1057.32 -1300 41 55 84
-713.639 -1056.51 -1299 36 50 79
-711.617 -1056.52 -1299 37 52 84
-707.957 -1054.08 -1296 43 58 90
-704.851 -1052.46 -1294 50 64 101
-701.207 -1050.03 -1291 54 68 105
-696.49 -1045.97 -1286 56 73 107
-689.629 -1038.66 -1277 58 75 109
-683.872 -1032.97 -1270 58 75 111
-678.673 -1028.09 -1264 59 76 112
-675.1 -1025.66 -1261 61 78 116
-672.603 -1024.85 -1260 60 77 115
-670.111 -1024.05 -1259 54 72 114
-668.151 -1024.06 -1259 50 68 110
-666.19 -1024.06 -1259 46 64 108
-663.704 -1023.26 -1258 45 63 107
-661.746 -1023.26 -1258 43 61 101
-659.788 -1023.27 -1258 40 58 98
-658.353 -1024.09 -1259 39 57 95
-656.394 -1024.1 -1259 36 54 92
-654.434 -1024.1 -1259 33 51 89
-651.956 -1023.3 -1258 31 49 87
-650.516 -1024.12 -1259 32 49 87
-647.526 -1022.5 -1257 31 48 86
-644.543 -1020.88 -1255 33 50 88
-642.078 -1020.07 -1254 35 52 90
-639.616 -1019.27 -1253 36 54 92
-638.176 -1020.09 -1254 39 57 95
-634.702 -1017.66 -1251 41 59 99
-632.25 -1016.85 -1250 41 59 99
-630.81 -1017.68 -1251 38 55 95
-628.361 -1016.87 -1250 38 55 95
-626.917 -1017.69 -1251 40 57 95
-624.472 -1016.89 -1250 40 57 95
-623.025 -1017.71 -1251 33 53 93
-621.079 -1017.72 -1251 29 49 89
-618.144 -1016.11 -1249 25 47 88
-616.202 -1016.12 -1249 24 46 87
-614.259 -1016.13 -1249 22 42 86
-611.826 -1015.33 -1248 26 46 90
-608.909 -1013.71 -1246 33 54 99
-607.459 -1014.53 -1247 40 61 106
-605.034 -1013.73 -1246 51 72 117
-603.098 -1013.75 -1246 58 79 124
-601.16 -1013.76 -1246 54 78 124
-599.224 -1013.77 -1246 57 81 127
-597.287 -1013.78 -1246 59 87 132
-595.351 -1013.8 -1246 52 80 125
-593.891 -1014.63 -1247 49 73 119
-591.953 -1014.64 -1247 45 69 115
-590.961 -1016.28 -1249 45 66 113
-589.964 -1017.92 -1251 42 63 110
-588.49 -1018.75 -1252 40 64 110
-587.952 -1021.21 -1255 42 66 112
-586.468 -1022.04 -1256 41 67 113
-585.448 -1023.68 -1258 40 66 112
-584.886 -1026.14 -1261 41 67 115
-583.853 -1027.79 -1263 46 72 120
-583.273 -1030.24 -1266 44 67 116
-581.766 -1031.08 -1267 43 66 115
-580.714 -1032.72 -1269 40 63 112
-580.112 -1035.18 -1272 41 64 113
-579.046 -1036.83 -1274 40 63 112
-578.428 -1039.29 -1277 42 65 114
-577.799 -1041.75 -1280 42 65 114
-577.162 -1044.22 -1283 40 63 112
-576.516 -1046.68 -1286 34 60 104
-576.754 -1050.77 -1291 30 56 100
-576.086 -1053.23 -1294 29 55 99
-576.296 -1057.32 -1299 32 58 102
-576.049 -1060.6 -1303 28 52 93
-576.23 -1064.7 -1308 27 51 92
-579.907 -1075.3 -1321 27 42 73
-584.419 -1087.54 -1336 24 39 70
-576.129 -1087.64 -1336 20 25 42
-570.619 -1081.15 -1328 14 18 39
-565.134 -1074.67 -1320 21 25 46
-559.674 -1068.18 -1312 28 34 56
-555.941 -1064.95 -1308 32 38 60
-551.794 -1060.91 -1303 31 39 63
-548.086 -1057.68 -1299 33 41 65
-545.23 -1056.08 -1297 34 46 71
-541.962 -1053.66 -1294 35 47 72
-539.121 -1052.06 -1292 34 45 73
-536.286 -1050.46 -1290 30 41 69
-533.044 -1048.05 -1287 25 40 71
-529.397 -1044.82 -1283 24 39 70
-526.175 -1042.41 -1280 21 38 70
-522.552 -1039.18 -1276 22 39 71
-519.758 -1037.58 -1274 27 44 78
-517.375 -1036.79 -1273 31 48 82
-514.592 -1035.19 -1271 37 55 91
-512.218 -1034.41 -1270 43 61 97
-509.045 -1032 -1267 41 62 97
-505.879 -1029.59 -1264 40 61 96
-502.723 -1027.17 -1261 45 66 103
-499.973 -1025.57 -1259 45 66 103
-498.021 -1025.61 -1259 46 66 106
-496.069 -1025.64 -1259 54 74 114
-493.725 -1024.86 -1258 53 75 118
-492.165 -1025.7 -1259 50 72 115
-490.602 -1026.55 -1260 50 71 116
-489.036 -1027.4 -1261 51 72 117
-487.081 -1027.43 -1261 44 68 111
-484.741 -1026.65 -1260 39 63 106
-483.17 -1027.49 -1261 37 61 105
-481.596 -1028.34 -1262 33 57 101
-480.019 -1029.19 -1263 35 56 101
-477.682 -1028.41 -1262 31 52 97
-475.348 -1027.63 -1261 31 55 99
-473.391 -1027.66 -1261 32 56 100
-471.062 -1026.88 -1260 30 54 100
-468.735 -1026.1 -1259 34 58 104
-466.412 -1025.32 -1258 41 64 113
-465.199 -1026.98 -1260 40 63 112
-462.876 -1026.2 -1259 38 62 108
-460.923 -1026.24 -1259 41 65 111
-459.334 -1027.09 -1260 42 68 112
-457.742 -1027.93 -1261 41 67 111
-456.147 -1028.78 -1262 38 64 110
-454.549 -1029.64 -1263 38 64 110
-453.664 -1032.12 -1266 37 65 110
-452.413 -1033.78 -1268 37 65 110
-450.8 -1034.63 -1269 39 65 111
-448.831 -1034.67 -1269 42 68 114
-446.861 -1034.7 -1269 43 69 115
-444.892 -1034.74 -1269 39 65 111
-442.573 -1033.96 -1268 39 65 113
-440.257 -1033.18 -1267 42 68 116
-438.289 -1033.21 -1267 40 66 116
-435.978 -1032.43 -1266 37 63 113
-434.355 -1033.28 -1267 40 66 114
-432.729 -1034.14 -1268 40 66 114
-430.76 -1034.17 -1268 38 64 110
-429.467 -1035.84 -1270 38 64 110
-428.504 -1038.32 -1273 41 67 113
-428.203 -1042.44 -1278 40 66 112
-427.551 -1045.73 -1282 38 64 110
-427.219 -1049.85 -1287 40 66 112
-427.863 -1056.41 -1295 34 60 106
-427.824 -1061.34 -1301 32 58 104
-427.112 -1064.64 -1305 31 57 103
-426.061 -1067.13 -1308 30 56 102
-425.325 -1070.42 -1312 28 54 102
-423.931 -1072.09 -1314 26 52 100
-422.531 -1073.76 -1316 26 52 98
-421.444 -1076.25 -1319 26 52 98
-420.665 -1079.55 -1323 29 55 101
-420.507 -1084.48 -1329 30 56 102
-420.959 -1091.05 -1337 28 54 97
-729.494 -1069.91 -1313 54 66 91
-723.019 -1063.4 -1305 49 62 89
-718.779 -1060.15 -1301 49 62 89
-716.203 -1059.34 -1300 43 57 86
-713.631 -1058.53 -1299 36 50 79
-711.61 -1058.54 -1299 38 51 85
-709.043 -1057.73 -1298 45 58 92
-706.477 -1056.92 -1297 50 64 100
-703.374 -1055.3 -1295 53 67 103
-698.109 -1050.42 -1289 54 71 105
-691.782 -1043.9 -1281 55 72 106
-685.48 -1037.39 -1273 57 74 110
-680.278 -1032.51 -1267 59 76 112
-675.629 -1028.44 -1262 61 78 117
-672.597 -1026.82 -1260 61 78 117
-670.104 -1026.01 -1259 56 74 117
-667.613 -1025.2 -1258 52 70 113
-666.185 -1026.02 -1259 51 68 113
-663.697 -1025.21 -1258 48 65 110
-661.739 -1025.22 -1258 43 62 102
-659.781 -1025.23 -1258 42 61 101
-658.346 -1026.05 -1259 43 61 99
-656.387 -1026.06 -1259 38 56 94
-653.907 -1025.25 -1258 33 51 88
-652.467 -1026.07 -1259 29 47 84
-650.508 -1026.08 -1259 32 49 87
-647.518 -1024.45 -1257 32 49 87
-645.049 -1023.65 -1256 33 51 89
-643.095 -1023.66 -1256 35 53 91
-640.63 -1022.85 -1255 37 55 93
-639.185 -1023.67 -1256 40 58 96
-635.709 -1021.23 -1253 42 60 100
-633.759 -1021.24 -1253 41 59 99
-631.809 -1021.25 -1253 38 55 95
-628.854 -1019.63 -1251 40 57 97
-626.907 -1019.64 -1251 40 57 95
-624.962 -1019.65 -1251 38 55 93
-623.015 -1019.65 -1251 34 55 93
-621.069 -1019.66 -1251 34 55 93
-618.629 -1018.86 -1250 31 53 94
-617.178 -1019.69 -1251 26 48 89
-614.74 -1018.88 -1250 23 42 86
-612.306 -1018.08 -1249 25 44 88
-609.386 -1016.46 -1247 28 49 94
-607.447 -1016.47 -1247 33 54 99
-605.994 -1017.29 -1248 43 64 109
-604.537 -1018.12 -1249 49 70 115
-602.595 -1018.13 -1249 49 73 119
-600.655 -1018.15 -1249 54 78 124
-598.232 -1017.34 -1248 58 86 131
-595.815 -1016.54 -1247 54 82 127
-593.877 -1016.55 -1247 52 76 122
-591.939 -1016.57 -1247 48 72 118
-590.947 -1018.21 -1249 46 67 114
-589.478 -1019.04 -1250 43 64 111
-588.475 -1020.69 -1252 41 65 111
-587.467 -1022.33 -1254 44 68 114
-586.453 -1023.98 -1256 40 66 112
-585.432 -1025.62 -1258 38 64 110
-584.406 -1027.27 -1260 40 66 114
-583.835 -1029.73 -1263 47 73 121
-582.795 -1031.38 -1265 45 68 117
-581.29 -1032.21 -1266 42 65 114
-580.696 -1034.68 -1269 40 63 112
-579.638 -1036.33 -1271 42 65 114
-579.027 -1038.79 -1274 40 63 112
-578.408 -1041.26 -1277 42 65 114
-577.78 -1043.72 -1280 42 65 114
-577.591 -1047 -1284 40 63 112
-577.392 -1050.28 -1288 35 61 105
-577.626 -1054.38 -1293 32 58 102
-576.955 -1056.85 -1296 31 57 101
-576.717 -1060.13 -1300 31 57 101
-576.467 -1063.42 -1304 32 55 96
-577.529 -1069.15 -1311 32 55 96
-580.322 -1078.14 -1322 29 44 75
-583.958 -1088.77 -1335 31 46 77
-576.534 -1090.5 -1337 18 23 40
-570.593 -1083.18 -1328 18 22 42
-565.537 -1077.5 -1321 22 26 46
-559.648 -1070.18 -1312 28 34 56
-555.913 -1066.95 -1308 33 39 61
-551.767 -1062.9 -1303 33 41 65
-548.48 -1060.47 -1300 35 43 67
-544.782 -1057.24 -1296 34 46 71
-541.516 -1054.82 -1293 36 48 73
-538.676 -1053.21 -1291 35 46 73
-535.427 -1050.8 -1288 29 40 67
-532.187 -1048.38 -1285 24 39 70
-528.956 -1045.96 -1282 25 40 71
-525.324 -1042.72 -1278 23 40 72
-522.113 -1040.3 -1275 25 42 74
-519.32 -1038.7 -1273 29 46 80
-516.533 -1037.1 -1271 33 50 84
-514.157 -1036.31 -1270 41 59 95
-510.978 -1033.89 -1267 45 63 99
-508.21 -1032.29 -1265 43 63 98
-505.448 -1030.69 -1263 44 64 99
-503.091 -1029.9 -1262 47 68 105
-500.339 -1028.3 -1260 45 66 103
-498.782 -1029.15 -1261 45 65 105
-496.432 -1028.36 -1260 54 74 114
-494.478 -1028.39 -1260 48 70 113
-492.915 -1029.24 -1261 45 67 110
-490.959 -1029.27 -1261 45 66 110
-489.004 -1029.31 -1261 43 64 108
-487.048 -1029.33 -1261 36 60 103
-484.323 -1027.74 -1259 33 57 100
-482.754 -1028.58 -1260 33 57 101
-481.563 -1030.25 -1262 31 55 99
-479.606 -1030.28 -1262 35 56 101
-477.648 -1030.32 -1262 32 53 98
-475.314 -1029.53 -1261 31 55 98
-473.358 -1029.57 -1261 31 55 98
-471.402 -1029.6 -1261 29 53 98
-469.074 -1028.82 -1260 35 59 104
-466.748 -1028.03 -1259 42 65 114
-465.165 -1028.88 -1260 42 65 114
-463.21 -1028.92 -1260 40 64 110
-461.255 -1028.95 -1260 42 66 112
-459.3 -1028.98 -1260 41 67 111
-458.071 -1030.65 -1262 41 67 111
-456.474 -1031.5 -1263 39 65 111
-455.234 -1033.17 -1265 35 61 107
-453.988 -1034.84 -1267 34 62 107
-452.735 -1036.51 -1269 39 67 112
-451.121 -1037.36 -1270 42 68 114
-449.149 -1037.39 -1270 45 71 117
-447.178 -1037.43 -1270 45 71 117
-444.856 -1036.65 -1269 41 67 113
-442.886 -1036.68 -1269 40 66 115
-440.569 -1035.9 -1268 41 67 116
-437.908 -1034.3 -1266 39 65 115
-435.943 -1034.34 -1266 34 60 110
-434.32 -1035.19 -1267 37 63 111
-432.693 -1036.04 -1268 37 63 111
-431.064 -1036.89 -1269 34 60 106
-429.432 -1037.75 -1270 35 61 107
-428.806 -1041.05 -1274 39 65 110
-428.501 -1045.17 -1279 40 66 111
-427.849 -1048.48 -1283 39 65 111
-428.179 -1054.23 -1290 40 66 112
-428.157 -1059.17 -1296 35 61 107
-428.116 -1064.11 -1302 34 60 106
-427.075 -1066.6 -1305 32 58 104
-426.35 -1069.9 -1309 30 56 102
-425.288 -1072.39 -1312 29 55 103
-423.572 -1073.25 -1313 29 55 103
-422.495 -1075.74 -1316 28 54 100
-421.407 -1078.22 -1319 28 54 100
-420.629 -1081.53 -1323 30 56 102
-420.786 -1087.29 -1330 31 57 103
-420.922 -1093.05 -1337 33 60 102
-728.931 -1071.13 -1312 54 66 91
-723.012 -1065.43 -1305 53 64 92
-719.325 -1062.99 -1302 52 63 91
-716.197 -1061.36 -1300 45 59 88
-714.173 -1061.37 -1300 38 52 81
-712.151 -1061.37 -1300 38 51 86
-709.582 -1060.57 -1299 44 57 92
-707.016 -1059.76 -1298 49 64 98
-703.366 -1057.31 -1295 52 67 101
-698.644 -1053.24 -1290 51 68 102
-692.856 -1047.53 -1283 50 67 101
-687.089 -1041.82 -1276 55 72 108
-680.808 -1035.3 -1268 59 76 112
-676.158 -1031.22 -1263 60 77 117
-673.125 -1029.59 -1261 61 78 118
-670.098 -1027.97 -1259 58 76 120
-668.138 -1027.97 -1259 52 70 114
-665.649 -1027.16 -1258 53 70 116
-663.691 -1027.17 -1258 51 68 114
-661.732 -1027.18 -1258 45 65 105
-660.299 -1028 -1259 43 63 103
-657.817 -1027.19 -1258 44 62 100
-655.859 -1027.2 -1258 40 58 96
-653.381 -1026.39 -1257 36 54 90
-651.425 -1026.4 -1257 35 53 89
-649.985 -1027.22 -1258 35 52 90
-646.996 -1025.59 -1256 36 53 91
-645.041 -1025.6 -1256 37 55 93
-643.087 -1025.61 -1256 37 55 93
-641.133 -1025.62 -1256 38 56 94
-638.669 -1024.81 -1255 38 56 94
-635.194 -1022.37 -1252 38 56 96
-633.751 -1023.19 -1253 38 56 96
-631.801 -1023.2 -1253 40 57 97
-628.846 -1021.57 -1251 43 60 100
-626.899 -1021.58 -1251 40 57 95
-624.453 -1020.77 -1250 37 54 92
-622.509 -1020.78 -1250 36 57 94
-621.061 -1021.61 -1251 38 59 96
-618.619 -1020.8 -1250 36 58 99
-617.168 -1021.63 -1251 30 52 93
-614.73 -1020.82 -1250 28 46 90
-612.786 -1020.83 -1250 28 46 90
-610.353 -1020.02 -1249 29 49 94
-608.41 -1020.03 -1249 31 51 96
-606.954 -1020.86 -1250 36 57 102
-605.01 -1020.87 -1250 42 63 108
-603.548 -1021.7 -1251 44 68 114
-601.122 -1020.89 -1250 52 76 122
-598.699 -1020.09 -1249 54 82 127
-596.28 -1019.29 -1248 54 82 127
-594.339 -1019.3 -1248 54 78 124
-592.4 -1019.31 -1248 50 74 120
-590.46 -1019.33 -1248 48 69 116
-588.992 -1020.15 -1249 46 67 114
-587.991 -1021.8 -1251 44 68 114
-587.453 -1024.27 -1254 45 69 115
-586.438 -1025.92 -1256 40 66 112
-584.951 -1026.75 -1257 39 65 111
-583.926 -1028.4 -1259 39 65 113
-583.357 -1030.86 -1262 43 69 117
-582.317 -1032.51 -1264 38 61 110
-581.271 -1034.16 -1266 37 60 109
-580.221 -1035.81 -1268 37 60 109
-579.619 -1038.28 -1271 41 64 113
-579.009 -1040.75 -1274 41 64 113
-578.389 -1043.22 -1277 42 65 114
-578.212 -1046.51 -1281 41 64 113
-578.022 -1049.79 -1285 39 62 111
-577.819 -1053.08 -1289 35 61 105
-578.053 -1057.19 -1294 33 59 103
-577.378 -1059.66 -1297 32 58 102
-576.696 -1062.13 -1300 31 57 101
-577.331 -1067.05 -1306 36 58 99
-578.387 -1072.79 -1313 33 55 96
-581.178 -1081.8 -1324 32 47 78
-577.803 -1095 -1340 18 23 40
-571.857 -1087.67 -1331 19 23 43
-565.082 -1078.7 -1320 22 26 46
-560.476 -1073.83 -1314 26 32 54
-556.313 -1069.76 -1309 30 36 58
-552.164 -1065.7 -1304 29 37 61
-548.032 -1061.64 -1299 31 39 63
-544.335 -1058.4 -1295 32 44 69
-541.07 -1055.97 -1292 34 46 71
-537.814 -1053.55 -1289 32 44 69
-534.567 -1051.12 -1286 29 41 66
-531.745 -1049.52 -1284 26 41 72
-528.103 -1046.27 -1280 27 42 73
-525.295 -1044.67 -1278 26 43 75
-521.676 -1041.43 -1274 27 44 76
-518.476 -1039 -1271 32 49 83
-515.692 -1037.39 -1269 38 55 89
-513.319 -1036.61 -1268 43 61 97
-510.142 -1034.18 -1265 44 62 98
-507.377 -1032.58 -1263 42 60 96
-505.018 -1031.79 -1262 43 61 97
-503.061 -1031.82 -1262 44 65 102
-500.706 -1031.03 -1261 42 63 100
-499.146 -1031.88 -1262 42 62 102
-497.189 -1031.91 -1262 50 70 110
-495.232 -1031.94 -1262 44 66 109
-493.274 -1031.97 -1262 42 64 107
-491.317 -1032 -1262 43 65 108
-489.36 -1032.03 -1262 41 63 106
-487.016 -1031.24 -1261 35 59 102
-484.676 -1030.46 -1260 33 57 100
-483.105 -1031.31 -1261 35 59 103
-481.531 -1032.16 -1262 35 59 103
-479.573 -1032.19 -1262 35 56 101
-477.615 -1032.22 -1262 32 53 98
-475.281 -1031.44 -1261 31 55 98
-473.7 -1032.29 -1262 32 56 99
-471.369 -1031.5 -1261 31 55 99
-469.412 -1031.54 -1261 36 60 104
-466.715 -1029.93 -1259 41 64 113
-465.5 -1031.6 -1261 40 63 112
-463.544 -1031.64 -1261 41 65 111
-461.587 -1031.67 -1261 42 66 112
-459.996 -1032.52 -1262 40 66 110
-458.037 -1032.55 -1262 41 67 111
-456.801 -1034.22 -1264 39 65 111
-455.56 -1035.9 -1266 34 60 106
-453.954 -1036.75 -1267 33 61 106
-452.7 -1038.42 -1269 36 64 109
-450.731 -1038.45 -1269 41 67 113
-449.115 -1039.31 -1270 43 69 115
-447.143 -1039.34 -1270 40 66 112
-445.172 -1039.38 -1270 39 65 111
