ply
format ascii 1.0
comment Created by Open3D
element vertex 1427
property double x
property double y
property double z
property uchar red
property uchar green
property uchar blue
end_header
-468.86 -963.287 -1261 54 88 136
-468.384 -966.384 -1265 57 91 139
-468.264 -970.246 -1270 60 90 139
-468.129 -974.108 -1275 62 92 141
-467.978 -977.969 -1280 63 94 143
-707.039 -1088.49 -1427 55 64 90
-704.341 -1087.77 -1426 48 57 83
-701.154 -1086.28 -1424 46 55 79
-696.501 -1082.51 -1419 45 54 78
-690.885 -1077.2 -1412 48 57 83
-680.902 -1065.04 -1396 52 61 87
-618.394 -976.651 -1280 53 63 89
-613.047 -971.348 -1273 53 63 89
-607.241 -965.281 -1265 51 65 93
-603.374 -962.266 -1261 53 67 95
-599.996 -960.014 -1258 54 67 99
-597.104 -958.528 -1256 55 68 100
-593.744 -956.277 -1253 53 70 102
-589.92 -953.262 -1249 53 70 102
-586.58 -951.011 -1246 55 70 101
-583.248 -948.759 -1243 55 70 101
-579.927 -946.511 -1240 55 68 101
-576.148 -943.495 -1236 55 68 101
-573.776 -942.772 -1235 50 69 99
-571.869 -942.812 -1235 50 69 99
-569.501 -942.088 -1234 49 71 103
-568.055 -942.891 -1235 49 71 103
-566.15 -942.932 -1235 50 71 103
-563.786 -942.209 -1234 48 69 101
-561.425 -941.485 -1233 47 69 100
-559.521 -941.527 -1233 46 68 99
-557.165 -940.804 -1232 47 68 100
-554.362 -939.318 -1230 47 68 100
-551.564 -937.832 -1228 50 70 103
-549.22 -937.109 -1227 50 70 103
-546.879 -936.386 -1226 51 71 105
-544.541 -935.665 -1225 52 72 106
-542.206 -934.942 -1224 52 73 109
-540.315 -934.983 -1224 52 73 109
-538.425 -935.025 -1224 52 73 110
-536.095 -934.302 -1223 50 71 108
-533.769 -933.58 -1222 48 70 107
-531.881 -933.623 -1222 48 70 107
-529.993 -933.664 -1222 48 70 108
-528.105 -933.706 -1222 48 70 108
-525.786 -932.984 -1221 44 66 105
-523.899 -933.026 -1221 45 67 106
-522.439 -933.832 -1222 45 67 106
-520.976 -934.639 -1223 44 66 105
-519.085 -934.681 -1223 45 67 106
-518.041 -936.252 -1225 47 69 108
-516.568 -937.058 -1226 49 71 110
-515.092 -937.865 -1227 51 73 112
-513.613 -938.672 -1228 52 74 115
-511.713 -938.714 -1228 51 73 114
-509.399 -937.992 -1227 49 73 113
-507.501 -938.035 -1227 51 75 115
-505.191 -937.313 -1226 51 76 118
-503.294 -937.354 -1226 50 75 117
-501.806 -938.162 -1227 48 74 117
-499.907 -938.204 -1227 48 74 117
-498.414 -939.011 -1228 48 75 115
-496.918 -939.818 -1229 48 75 115
-494.612 -939.095 -1228 49 75 118
-492.31 -938.373 -1227 50 76 119
-489.211 -936.121 -1224 50 76 119
-486.918 -935.398 -1223 50 76 119
-485.024 -935.44 -1223 50 76 119
-482.734 -934.716 -1222 50 76 119
-482.809 -938.582 -1227 52 79 120
-482.084 -940.919 -1230 50 77 118
-481.349 -943.256 -1233 48 75 118
-481.771 -947.888 -1239 43 70 113
-479.852 -947.93 -1239 43 69 113
-478.703 -949.502 -1241 43 69 113
-477.932 -951.839 -1244 43 69 114
-476.386 -952.646 -1245 50 76 121
-475.218 -954.219 -1247 52 80 125
-474.423 -956.557 -1250 53 81 126
-473.24 -958.128 -1252 52 83 130
-472.052 -959.701 -1254 53 84 131
-470.856 -961.273 -1256 54 84 131
-469.281 -962.081 -1257 54 84 131
-469.19 -965.949 -1262 53 87 135
-468.342 -968.286 -1265 55 89 137
-467.854 -971.391 -1269 58 89 139
-467.353 -974.494 -1273 62 93 143
-467.936 -979.895 -1280 64 95 144
-704.797 -1090.71 -1427 52 61 87
-701.116 -1088.45 -1424 48 57 81
-696.462 -1084.67 -1419 45 54 78
-691.335 -1080.12 -1413 46 55 81
-680.861 -1067.16 -1396 50 59 85
-620.288 -981.654 -1284 53 62 88
-612.046 -971.753 -1271 56 65 91
-607.684 -967.968 -1266 54 68 97
-603.815 -964.946 -1262 56 70 99
-599.958 -961.924 -1258 57 70 103
-596.59 -959.668 -1255 57 70 103
-593.231 -957.412 -1252 54 71 103
-589.882 -955.157 -1249 54 71 103
-586.541 -952.901 -1246 55 70 101
-582.741 -949.881 -1242 56 71 102
-579.888 -948.389 -1240 58 71 104
-577.041 -946.898 -1238 57 70 103
-575.13 -946.938 -1238 52 71 101
-572.292 -945.446 -1236 52 71 101
-570.845 -946.251 -1237 50 73 103
-568.936 -946.291 -1237 49 72 102
-567.026 -946.331 -1237 48 69 100
-565.116 -946.371 -1237 46 67 98
-562.75 -945.645 -1236 47 70 100
-560.388 -944.921 -1235 47 70 100
-558.029 -944.197 -1234 47 68 99
-555.222 -942.706 -1232 46 67 98
-552.421 -941.217 -1230 50 69 102
-549.627 -939.728 -1228 51 70 103
-546.838 -938.238 -1226 52 71 104
-544.5 -937.514 -1225 53 72 105
-542.165 -936.79 -1224 51 72 109
-540.274 -936.831 -1224 51 72 109
-537.504 -935.342 -1222 51 72 109
-535.615 -935.382 -1222 49 70 107
-533.728 -935.424 -1222 49 70 107
-531.84 -935.466 -1222 49 70 107
-530.385 -936.273 -1223 48 70 107
-528.495 -936.314 -1223 48 70 107
-526.605 -936.356 -1223 45 67 106
-525.144 -937.163 -1224 45 67 106
-523.68 -937.972 -1225 46 68 107
-521.36 -937.247 -1224 46 68 107
-519.468 -937.29 -1224 46 68 107
-518.844 -939.629 -1227 48 70 109
-516.947 -939.672 -1227 50 72 111
-515.469 -940.479 -1228 52 74 113
-513.988 -941.287 -1229 53 75 116
-512.088 -941.33 -1229 52 74 115
-509.772 -940.606 -1228 50 74 113
-507.872 -940.648 -1228 51 75 114
-505.56 -939.924 -1227 50 77 117
-503.252 -939.2 -1226 50 77 117
-501.763 -940.009 -1227 50 76 119
-499.457 -939.285 -1226 50 76 119
-498.372 -940.859 -1228 50 77 117
-496.47 -940.901 -1228 50 77 117
-494.57 -940.943 -1228 51 77 120
-492.268 -940.219 -1227 53 79 122
-489.169 -937.962 -1224 52 78 121
-487.274 -938.004 -1224 52 78 121
-485.378 -938.046 -1224 50 76 119
-483.088 -937.321 -1223 47 73 116
-483.16 -941.195 -1228 49 76 116
-482.042 -942.769 -1230 47 74 114
-482.088 -946.644 -1235 44 70 114
-481.341 -948.985 -1238 38 64 108
-480.197 -950.56 -1240 37 63 107
-479.047 -952.135 -1242 38 64 108
-477.89 -953.71 -1244 40 66 112
-476.726 -955.285 -1246 48 74 120
-475.557 -956.861 -1248 52 80 125
-474.761 -959.203 -1251 54 82 127
-473.198 -960.011 -1252 54 85 132
-472.01 -961.586 -1254 55 86 133
-470.44 -962.396 -1255 55 85 132
-469.239 -963.97 -1257 55 85 132
-468.776 -967.08 -1261 53 87 135
-467.931 -969.423 -1264 52 86 134
-467.444 -972.532 -1268 59 90 141
-467.311 -976.408 -1273 63 94 145
-467.894 -981.819 -1280 66 97 146
-706.964 -1092.84 -1427 57 66 91
-704.759 -1092.88 -1427 53 62 87
-701.078 -1090.62 -1424 49 58 82
-696.424 -1086.83 -1419 47 56 80
-692.274 -1083.8 -1415 48 57 83
-682.285 -1071.59 -1399 51 60 86
-633.38 -1001.19 -1307 51 60 86
-618.32 -980.544 -1280 56 65 91
-612.491 -974.451 -1272 61 70 96
-607.647 -969.891 -1266 58 72 100
-602.821 -965.331 -1260 58 72 100
-599.445 -963.069 -1257 57 70 103
-596.553 -961.574 -1255 57 70 103
-593.667 -960.078 -1253 56 72 104
-590.316 -957.817 -1250 56 72 104
-586.503 -954.791 -1246 55 70 101
-583.64 -953.295 -1244 55 70 101
-580.785 -951.802 -1242 58 71 104
-578.4 -951.073 -1241 58 71 104
-575.091 -948.813 -1238 54 73 103
-573.179 -948.851 -1238 54 73 103
-571.267 -948.889 -1238 49 72 101
-569.815 -949.695 -1239 47 70 99
-567.903 -949.735 -1239 46 67 97
-565.533 -949.009 -1238 45 66 96
-563.165 -948.282 -1237 44 67 97
-560.801 -947.555 -1236 47 70 100
-558.441 -946.829 -1235 48 69 100
-555.632 -945.336 -1233 46 67 98
-552.381 -943.077 -1230 49 68 100
-549.586 -941.583 -1228 51 70 102
-546.797 -940.091 -1226 53 72 105
-544.459 -939.364 -1225 54 73 106
-542.123 -938.638 -1224 54 75 111
-539.791 -937.912 -1223 52 73 109
-537.022 -936.419 -1221 49 70 106
-535.136 -936.46 -1221 48 69 105
-533.686 -937.268 -1222 49 70 107
-531.798 -937.309 -1222 49 70 107
-530.343 -938.117 -1223 48 70 107
-528.885 -938.926 -1224 47 69 106
-527.425 -939.735 -1225 46 68 106
-525.96 -940.543 -1226 46 68 106
-524.065 -940.585 -1226 48 70 108
-522.17 -940.627 -1226 49 71 109
-520.275 -940.669 -1226 50 72 111
-519.225 -942.246 -1228 50 72 111
-517.326 -942.287 -1228 51 73 112
-515.847 -943.096 -1229 51 73 112
-514.365 -943.906 -1230 52 74 114
-512.462 -943.948 -1230 51 73 113
-510.559 -943.989 -1230 49 73 112
-508.244 -943.266 -1229 49 73 112
-505.518 -941.772 -1227 49 76 116
-503.209 -941.046 -1226 51 78 118
-501.721 -941.856 -1227 51 78 119
-499.415 -941.13 -1226 50 77 118
-497.924 -941.94 -1227 53 80 120
-496.429 -942.749 -1228 52 79 119
-494.528 -942.791 -1228 53 80 121
-492.226 -942.065 -1227 53 80 121
-489.527 -940.572 -1225 54 80 123
-487.232 -939.846 -1224 53 79 122
-485.336 -939.887 -1224 49 75 118
-483.441 -939.929 -1224 42 68 111
-482.725 -942.274 -1227 41 68 108
-482.001 -944.62 -1230 41 68 108
-481.656 -947.734 -1234 41 67 111
-481.299 -950.848 -1238 36 62 106
-480.543 -953.194 -1241 35 61 105
-479.391 -954.771 -1243 39 65 109
-478.617 -957.118 -1246 43 69 114
-477.068 -957.928 -1247 50 76 121
-475.897 -959.506 -1249 53 81 126
-475.098 -961.852 -1252 55 83 128
-473.535 -962.663 -1253 56 87 134
-471.968 -963.473 -1254 57 88 135
-470.398 -964.282 -1255 56 86 133
-469.198 -965.861 -1257 55 85 132
-468.363 -968.207 -1260 52 86 134
-467.518 -970.554 -1263 52 86 134
-467.034 -973.67 -1267 60 91 141
-467.27 -978.323 -1273 63 94 144
-467.852 -983.744 -1280 64 96 145
-706.928 -1095.02 -1427 57 66 90
-704.722 -1095.06 -1427 52 61 85
-701.041 -1092.79 -1424 48 57 81
-696.877 -1089.76 -1420 47 56 80
-691.748 -1085.19 -1414 48 57 83
-683.224 -1075.25 -1401 50 59 85
-665.017 -1049.96 -1368 50 59 85
-618.283 -982.49 -1280 56 65 91
-612.937 -977.154 -1273 61 70 96
-607.13 -971.048 -1265 57 71 98
-602.785 -967.247 -1260 57 71 98
-599.407 -964.978 -1257 56 69 102
-596.516 -963.48 -1255 57 70 103
-593.63 -961.982 -1253 57 72 104
-590.279 -959.716 -1250 56 71 103
-587.407 -958.217 -1248 56 71 102
-584.542 -956.719 -1246 56 71 102
-581.682 -955.221 -1244 59 72 105
-578.363 -952.955 -1241 58 71 104
-575.517 -951.457 -1239 53 72 102
-573.141 -950.727 -1238 52 71 101
-571.229 -950.765 -1238 47 70 99
-570.236 -952.34 -1240 45 68 97
-567.863 -951.612 -1239 44 65 95
-565.95 -951.651 -1239 43 64 94
-563.58 -950.921 -1238 42 65 95
-560.762 -949.425 -1236 46 69 99
-558.401 -948.697 -1235 49 70 101
-555.592 -947.2 -1233 46 67 98
-552.34 -944.936 -1230 48 67 98
-549.545 -943.439 -1228 51 70 101
-546.757 -941.943 -1226 53 72 105
-544.419 -941.215 -1225 54 73 106
-542.083 -940.487 -1224 54 75 110
-539.31 -938.991 -1222 52 73 108
-537.421 -939.031 -1222 49 70 105
-535.095 -938.303 -1221 48 69 104
-533.209 -938.344 -1221 49 70 107
-531.322 -938.385 -1221 49 70 107
-530.302 -939.963 -1223 49 71 108
-529.276 -941.541 -1225 49 71 108
-526.953 -940.814 -1224 47 69 106
-525.918 -942.392 -1226 47 69 106
-524.024 -942.434 -1226 49 71 108
-522.128 -942.475 -1226 51 73 110
-520.657 -943.285 -1227 52 74 113
-519.606 -944.865 -1229 52 74 113
-517.705 -944.906 -1229 51 73 112
-516.225 -945.718 -1230 50 72 111
-515.159 -947.297 -1232 49 71 110
-513.253 -947.338 -1232 50 72 111
-510.933 -946.611 -1231 49 73 112
-508.202 -945.116 -1229 49 73 112
-505.889 -944.389 -1228 48 75 115
-503.578 -943.662 -1227 49 76 116
-501.68 -943.704 -1227 48 75 115
-499.373 -942.975 -1226 48 75 115
-497.882 -943.786 -1227 52 79 119
-496.387 -944.598 -1228 53 80 120
-494.889 -945.409 -1229 53 80 120
-492.585 -944.681 -1228 52 79 119
-489.885 -943.184 -1226 52 78 121
-487.588 -942.456 -1225 52 78 121
-485.295 -941.729 -1224 48 74 117
-483.399 -941.77 -1224 42 68 111
-482.684 -944.12 -1227 40 67 107
-482.351 -947.24 -1231 39 66 106
-482.004 -950.359 -1235 43 69 113
-481.646 -953.479 -1239 40 66 110
-480.114 -954.29 -1240 39 65 109
-480.12 -958.181 -1245 43 69 113
-479.342 -960.53 -1248 47 73 117
-478.174 -962.112 -1250 52 78 122
-476.998 -963.693 -1252 54 82 127
-475.816 -965.274 -1254 56 84 129
-473.871 -965.316 -1254 55 86 133
-472.303 -966.128 -1255 55 86 133
-470.357 -966.169 -1255 54 84 131
-469.156 -967.75 -1257 55 85 132
-467.95 -969.332 -1259 52 86 134
-467.107 -971.683 -1262 52 86 134
-466.992 -975.575 -1267 60 91 140
-466.861 -979.467 -1272 64 95 144
-467.445 -984.898 -1279 62 96 144
-706.398 -1096.43 -1426 53 62 87
-704.192 -1096.47 -1426 50 59 84
-701.004 -1094.96 -1424 49 58 82
-696.35 -1091.16 -1419 48 57 81
-691.222 -1086.58 -1413 47 56 82
-684.162 -1078.93 -1403 47 56 82
-670.327 -1060.51 -1379 48 57 83
-619.697 -986.746 -1283 56 65 91
-613.382 -979.859 -1274 61 70 96
-607.095 -972.973 -1265 56 70 97
-602.748 -969.161 -1260 55 69 96
-599.372 -966.89 -1257 56 69 101
-596.004 -964.617 -1254 57 70 102
-593.12 -963.115 -1252 56 71 103
-591.186 -963.152 -1252 55 70 102
-588.311 -961.65 -1250 55 70 101
-585.442 -960.147 -1248 55 70 101
-583.982 -960.955 -1249 56 69 101
-579.257 -956.376 -1243 54 67 99
-575.944 -954.105 -1240 48 67 96
-573.565 -953.373 -1239 47 66 95
-572.113 -954.18 -1240 44 67 96
-569.738 -953.45 -1239 43 66 95
-568.283 -954.257 -1240 42 63 93
-566.368 -954.297 -1240 41 62 92
-563.997 -953.565 -1239 40 62 93
-560.722 -951.295 -1236 45 67 98
-558.362 -950.566 -1235 50 70 101
-555.552 -949.065 -1233 48 68 99
-552.75 -947.565 -1231 47 66 97
-550.401 -946.835 -1230 50 69 100
-547.162 -944.564 -1227 53 73 106
-544.823 -943.836 -1226 54 74 107
-542.043 -942.336 -1224 53 74 109
-539.269 -940.836 -1222 52 73 108
-536.941 -940.106 -1221 50 71 106
-535.055 -940.146 -1221 49 70 105
-533.168 -940.186 -1221 49 70 107
-532.151 -941.767 -1223 49 70 107
-530.695 -942.578 -1224 49 71 108
-529.235 -943.389 -1225 51 73 110
-527.342 -943.43 -1225 50 72 109
-525.877 -944.241 -1226 50 72 109
-524.409 -945.052 -1227 49 71 108
-522.939 -945.865 -1228 48 70 107
-521.04 -945.906 -1228 49 71 110
-519.987 -947.487 -1230 50 72 111
-518.506 -948.299 -1231 51 73 112
-517.022 -949.111 -1232 50 72 111
-515.535 -949.923 -1233 47 69 108
-513.212 -949.194 -1232 48 70 109
-511.306 -949.236 -1232 49 72 111
-508.573 -947.736 -1230 49 72 111
-506.258 -947.008 -1229 46 73 113
-503.536 -945.509 -1227 45 72 112
-501.229 -944.78 -1226 46 73 113
-499.332 -944.821 -1226 46 73 113
-497.84 -945.634 -1227 49 76 116
-495.941 -945.676 -1227 52 79 119
-494.444 -946.488 -1228 52 79 119
-492.142 -945.758 -1227 51 78 118
-489.843 -945.029 -1226 50 76 119
-487.547 -944.299 -1225 50 76 119
-485.65 -944.34 -1225 48 75 116
-483.358 -943.611 -1224 46 73 114
-482.642 -945.966 -1227 44 71 112
-481.917 -948.32 -1230 41 68 109
-481.963 -952.216 -1235 45 71 115
-480.827 -953.8 -1237 45 71 115
-480.459 -956.926 -1241 42 68 112
-480.078 -960.052 -1245 46 72 116
-479.301 -962.407 -1248 49 75 119
-478.132 -963.992 -1250 51 77 121
-477.337 -966.347 -1253 53 81 126
-476.153 -967.931 -1255 54 82 127
-474.207 -967.972 -1255 51 82 129
-472.261 -968.014 -1255 50 81 128
-470.315 -968.056 -1255 52 82 129
-469.115 -969.639 -1257 54 84 131
-468.28 -971.996 -1260 53 87 135
-467.436 -974.351 -1263 54 88 136
-466.582 -976.708 -1266 60 91 139
-466.82 -981.378 -1272 63 94 142
-467.038 -986.048 -1278 62 94 143
-711.27 -1099.31 -1427 50 59 85
-709.065 -1099.35 -1427 46 55 81
-706.362 -1098.61 -1426 47 56 82
-704.157 -1098.64 -1426 47 56 82
-700.477 -1096.37 -1423 51 59 83
-696.313 -1093.32 -1419 53 61 85
-691.185 -1088.73 -1413 53 62 88
-684.613 -1081.84 -1404 55 64 90
-672.236 -1065.69 -1383 56 65 91
-622.078 -992.554 -1288 60 69 95
-612.384 -980.257 -1272 64 73 99
-607.06 -974.898 -1265 61 75 102
-603.192 -971.85 -1261 58 72 99
-599.814 -969.573 -1258 58 72 103
-596.445 -967.296 -1255 59 73 104
-594.032 -966.56 -1254 58 73 105
-592.094 -966.595 -1254 57 72 104
-589.216 -965.09 -1252 56 71 103
-586.344 -963.585 -1250 54 69 101
-584.412 -963.62 -1250 50 64 95
-580.152 -959.803 -1245 49 63 94
-576.835 -957.528 -1242 44 63 91
-574.453 -956.793 -1241 45 64 92
-571.614 -955.29 -1239 42 65 94
-570.16 -956.098 -1240 42 65 94
-568.245 -956.136 -1240 42 63 94
-566.329 -956.174 -1240 42 63 94
-563.958 -955.44 -1239 40 61 92
-560.683 -953.166 -1236 44 65 96
-558.774 -953.206 -1236 49 68 99
-556.414 -952.473 -1235 48 67 98
-553.608 -950.969 -1233 47 66 97
-550.808 -949.466 -1231 51 70 101
-547.569 -947.191 -1228 54 75 108
-545.672 -947.231 -1228 56 77 110
-542.446 -944.957 -1225 54 75 110
-539.671 -943.454 -1223 52 73 108
-536.901 -941.95 -1221 51 72 107
-534.576 -941.217 -1220 50 71 106
-533.564 -942.801 -1222 50 71 108
-532.111 -943.614 -1223 50 71 108
-530.655 -944.426 -1224 49 71 108
-529.195 -945.237 -1225 50 72 109
-527.732 -946.05 -1226 50 72 109
-526.265 -946.862 -1227 50 72 109
-525.223 -948.446 -1229 49 71 108
-523.749 -949.259 -1230 48 70 107
-522.272 -950.072 -1231 49 71 110
-521.214 -951.657 -1233 50 72 111
-519.729 -952.471 -1234 49 71 110
-518.24 -953.283 -1235 47 69 108
-516.33 -953.326 -1235 47 67 107
-514.003 -952.594 -1234 47 67 107
-512.094 -952.636 -1234 47 69 108
-509.359 -951.134 -1232 48 70 109
-506.629 -949.631 -1230 45 72 112
-504.316 -948.901 -1229 44 71 111
-501.187 -946.625 -1226 45 72 112
-499.29 -946.666 -1226 47 74 114
-497.393 -946.708 -1226 47 74 114
-495.9 -947.522 -1227 50 77 117
-494 -947.563 -1227 51 78 118
-491.299 -946.061 -1225 50 77 117
-489.802 -946.874 -1226 50 76 119
-487.904 -946.915 -1226 50 76 119
-485.609 -946.184 -1225 49 76 116
-483.712 -946.225 -1225 49 76 116
-482.601 -947.811 -1227 48 74 117
-482.268 -950.942 -1231 41 67 110
-481.531 -953.301 -1234 46 72 116
-480.786 -955.66 -1237 46 72 116
-480.417 -958.792 -1241 42 68 112
-480.037 -961.924 -1245 46 72 116
-479.259 -964.284 -1248 50 76 120
-478.09 -965.871 -1250 50 76 120
-477.296 -968.231 -1253 48 76 121
-476.112 -969.818 -1255 50 78 123
-474.166 -969.859 -1255 47 78 125
-472.22 -969.9 -1255 47 78 125
-470.649 -970.716 -1256 52 82 129
-469.447 -972.303 -1258 55 85 132
-468.239 -973.889 -1260 55 89 137
-467.024 -975.476 -1262 56 90 138
-466.909 -979.383 -1267 60 90 137
-466.411 -982.516 -1271 63 93 140
-466.631 -987.197 -1277 60 91 140
-467.196 -992.649 -1284 59 90 139
-708.534 -1100.76 -1426 49 59 85
-706.329 -1100.79 -1426 51 60 86
-703.63 -1100.05 -1425 44 53 79
-699.949 -1097.77 -1422 52 61 85
-695.788 -1094.72 -1418 52 61 85
-690.661 -1090.12 -1412 53 62 88
-683.602 -1082.43 -1402 52 61 87
-672.2 -1067.8 -1383 53 62 88
-628.322 -1004.55 -1301 57 67 93
-613.794 -984.511 -1275 59 69 95
-607.506 -977.597 -1266 59 70 98
-603.158 -973.769 -1261 61 72 100
-598.826 -969.942 -1256 59 73 104
-596.409 -969.204 -1255 59 73 104
-594.47 -969.239 -1255 58 73 105
-592.53 -969.273 -1255 57 72 104
-589.651 -967.765 -1253 53 68 99
-587.714 -967.8 -1253 51 66 97
-584.843 -966.291 -1251 49 64 94
-581.047 -963.238 -1247 49 64 94
-578.192 -961.73 -1245 44 63 91
-575.342 -960.221 -1243 43 62 90
-572.499 -958.712 -1241 41 63 90
-570.582 -958.75 -1241 40 62 89
-568.665 -958.788 -1241 40 61 91
-566.748 -958.826 -1241 42 63 93
-563.92 -957.318 -1239 41 62 92
-561.553 -956.584 -1238 44 65 95
-559.639 -956.621 -1238 49 69 100
-556.826 -955.115 -1236 48 68 99
-554.467 -954.381 -1235 48 67 99
-551.664 -952.874 -1233 52 71 103
-548.421 -950.594 -1230 56 76 109
-546.521 -950.633 -1230 56 76 109
-543.292 -948.354 -1227 56 77 112
-540.072 -946.074 -1224 56 77 112
-537.302 -944.568 -1222 53 75 111
-534.536 -943.06 -1220 49 71 107
-533.525 -944.647 -1222 48 69 105
-532.071 -945.46 -1223 49 70 106
-530.614 -946.273 -1224 48 71 108
-529.154 -947.086 -1225 47 70 107
-527.691 -947.899 -1226 49 71 108
-526.654 -949.487 -1228 49 71 108
-525.61 -951.073 -1230 50 72 109
-524.56 -952.66 -1232 49 71 108
-523.079 -953.475 -1233 45 68 107
-522.441 -955.836 -1236 45 68 107
-520.95 -956.65 -1237 45 68 107
-519.037 -956.691 -1237 44 67 106
-517.125 -956.733 -1237 45 67 105
-514.795 -956.001 -1236 45 67 105
-512.883 -956.042 -1236 47 69 108
-510.144 -954.537 -1234 48 70 109
-507.823 -953.804 -1233 44 71 110
-505.095 -952.298 -1231 45 72 111
-501.555 -949.246 -1227 47 72 112
-499.656 -949.286 -1227 46 71 111
-497.757 -949.327 -1227 46 71 111
-495.859 -949.369 -1227 47 72 112
-493.556 -948.636 -1226 49 76 116
-491.258 -947.904 -1225 49 76 116
-489.761 -948.719 -1226 48 75 116
-487.862 -948.76 -1226 47 74 115
-485.964 -948.801 -1226 48 75 116
-484.46 -949.616 -1227 48 75 116
-483.347 -951.205 -1229 49 76 117
-482.618 -953.568 -1232 49 76 117
-481.88 -955.931 -1235 48 74 117
-481.133 -958.294 -1238 47 73 116
-480.763 -961.432 -1242 47 72 117
-479.995 -963.796 -1245 48 73 118
-478.834 -965.386 -1247 48 74 119
-478.049 -967.751 -1250 46 72 117
-477.253 -970.114 -1253 45 74 119
-476.07 -971.705 -1255 48 77 122
-474.124 -971.746 -1255 47 78 125
-472.555 -972.562 -1256 49 80 127
-470.607 -972.604 -1256 53 84 131
-469.406 -974.193 -1258 56 87 134
-468.198 -975.784 -1260 56 88 137
-467.353 -978.148 -1263 58 90 139
-466.868 -981.287 -1267 60 91 139
-466.736 -985.2 -1272 58 89 137
-466.589 -989.115 -1277 58 90 140
-467.519 -995.354 -1285 64 96 146
-708.004 -1102.16 -1425 50 62 87
-705.8 -1102.2 -1425 48 57 83
-703.103 -1101.46 -1424 49 58 84
-699.916 -1099.94 -1422 48 60 83
-695.265 -1096.11 -1417 50 62 85
-689.649 -1090.73 -1410 53 62 88
-682.593 -1083.03 -1400 54 63 89
-671.193 -1068.36 -1381 54 63 89
-627.323 -1004.99 -1299 56 68 93
-615.205 -988.775 -1278 57 69 94
-607.472 -979.524 -1266 60 69 97
-602.646 -974.915 -1260 63 72 100
-598.791 -971.854 -1256 60 74 105
-596.85 -971.887 -1256 59 73 104
-594.91 -971.923 -1256 57 72 104
-592.967 -971.955 -1256 55 70 102
-591.497 -972.764 -1257 51 66 97
-589.086 -972.026 -1256 48 63 94
-585.743 -969.74 -1253 45 63 91
-583.341 -969.002 -1252 44 62 90
-580.013 -966.716 -1249 41 59 87
-576.694 -964.429 -1246 40 58 86
-573.385 -962.144 -1243 41 60 86
-571.005 -961.406 -1242 43 62 88
-569.085 -961.442 -1242 42 64 91
-567.166 -961.48 -1242 42 64 91
-564.792 -960.743 -1241 40 62 89
-562.422 -960.007 -1240 44 66 93
-560.054 -959.271 -1239 48 69 100
-557.688 -958.534 -1238 47 68 99
-554.878 -957.024 -1236 48 67 100
-552.52 -956.287 -1235 53 72 105
-549.274 -954.004 -1232 57 76 109
-546.482 -952.493 -1230 57 76 109
-543.253 -950.21 -1227 58 79 114
-540.915 -949.473 -1226 58 79 114
-538.581 -948.738 -1225 55 77 114
-535.374 -946.454 -1222 53 75 112
-533.922 -947.268 -1223 52 73 108
-532.466 -948.081 -1224 51 72 107
-531.008 -948.896 -1225 47 72 108
-529.114 -948.935 -1225 45 70 106
-527.651 -949.75 -1226 47 69 106
-527.042 -952.114 -1229 48 70 107
-525.997 -953.704 -1231 48 70 107
-524.519 -954.519 -1232 48 70 107
-523.462 -956.108 -1234 45 69 108
-523.245 -959.249 -1238 44 68 107
-521.331 -959.29 -1238 44 68 107
-519.835 -960.105 -1239 44 68 107
-517.919 -960.146 -1239 45 67 104
-515.587 -959.413 -1238 45 67 104
-513.256 -958.678 -1237 46 68 107
-510.103 -956.395 -1234 47 69 108
-507.782 -955.661 -1233 42 69 107
-505.054 -954.152 -1231 43 70 108
-501.922 -951.867 -1228 46 70 109
-499.615 -951.134 -1227 46 70 109
-497.716 -951.175 -1227 48 72 111
-495.413 -950.441 -1226 48 72 111
-493.516 -950.482 -1226 47 74 114
-491.217 -949.747 -1225 47 74 114
-489.32 -949.788 -1225 45 72 112
-487.423 -949.829 -1225 45 72 112
-485.923 -950.645 -1226 47 73 116
-484.419 -951.461 -1227 48 74 117
-483.305 -953.053 -1229 51 78 118
-482.577 -955.42 -1232 50 77 117
-481.839 -957.789 -1235 49 75 118
-481.869 -961.708 -1240 48 74 117
-481.109 -964.075 -1243 50 74 120
-480.339 -966.444 -1246 50 74 120
-479.56 -968.812 -1249 46 74 119
-478.389 -970.405 -1251 44 72 117
-477.212 -971.997 -1253 44 74 119
-475.649 -972.814 -1254 48 78 123
-474.083 -973.632 -1255 49 80 127
-472.513 -974.449 -1256 51 82 129
-470.94 -975.266 -1257 54 85 132
-469.364 -976.083 -1258 56 87 134
-468.156 -977.677 -1260 57 88 137
-467.312 -980.046 -1263 58 89 138
-466.826 -983.191 -1267 57 88 137
-467.062 -987.888 -1273 56 87 136
-466.548 -991.034 -1277 57 90 141
-467.476 -997.283 -1285 63 96 147
-468.743 -1004.31 -1294 78 104 152
-707.973 -1104.35 -1425 49 61 86
-705.769 -1104.38 -1425 48 57 83
-703.07 -1103.63 -1424 46 55 81
-699.39 -1101.34 -1421 50 61 84
-695.23 -1098.27 -1417 55 66 89
-689.615 -1092.88 -1410 56 65 91
-683.046 -1085.94 -1401 57 66 92
-672.617 -1072.79 -1384 55 64 90
-627.291 -1006.97 -1299 59 71 96
-616.617 -993.049 -1281 60 72 97
-609.839 -985.33 -1271 60 70 98
-604.526 -979.936 -1264 61 71 99
-600.665 -976.868 -1260 58 72 103
-597.767 -975.35 -1258 57 71 102
-595.823 -975.384 -1258 55 70 101
-594.35 -976.193 -1259 54 69 100
-592.875 -977.003 -1260 49 64 94
-589.989 -975.485 -1258 44 59 89
-586.175 -972.418 -1254 41 59 86
-583.771 -971.678 -1253 41 59 86
-580.906 -970.163 -1251 38 56 84
-577.121 -967.096 -1247 36 54 82
-574.272 -965.582 -1245 38 57 83
-571.888 -964.842 -1244 41 60 86
-569.966 -964.878 -1244 40 62 89
-568.043 -964.915 -1244 42 64 91
-565.666 -964.176 -1243 41 63 90
-562.838 -962.662 -1241 44 66 93
-560.016 -961.147 -1239 49 69 100
-557.2 -959.634 -1237 48 68 99
-554.84 -958.895 -1236 49 68 101
-552.482 -958.157 -1235 54 73 106
-549.237 -955.869 -1232 57 76 109
-546.888 -955.13 -1231 55 74 107
-543.658 -952.841 -1228 56 77 111
-541.318 -952.103 -1227 54 75 109
-538.982 -951.366 -1226 51 73 109
-536.211 -949.852 -1224 48 70 106
-534.319 -949.891 -1224 47 68 103
-532.862 -950.706 -1225 47 68 103
-530.968 -950.745 -1225 45 68 105
-529.507 -951.562 -1226 46 69 106
-527.611 -951.601 -1226 46 69 106
-526.573 -953.193 -1228 46 69 106
-525.529 -954.785 -1230 46 69 106
-524.478 -956.376 -1232 46 69 106
-523.422 -957.97 -1234 46 69 107
-522.782 -960.34 -1237 44 67 105
-521.29 -961.157 -1238 43 66 105
-519.795 -961.974 -1239 44 67 106
-518.296 -962.791 -1240 44 66 103
-515.546 -961.279 -1238 42 64 101
-513.216 -960.543 -1237 43 65 104
-510.475 -959.031 -1235 45 67 106
-507.741 -957.519 -1233 42 69 107
-505.013 -956.006 -1231 43 70 108
-502.291 -954.494 -1229 46 70 109
-500.388 -954.534 -1229 44 68 107
-498.081 -953.799 -1228 47 71 111
-495.776 -953.062 -1227 49 73 113
-493.877 -953.103 -1227 48 75 115
-491.577 -952.367 -1226 47 74 114
-489.678 -952.408 -1226 45 72 112
-488.178 -953.225 -1227 44 71 111
-486.279 -953.267 -1227 46 73 114
-484.773 -954.084 -1228 49 76 117
-483.658 -955.679 -1230 50 77 118
-482.928 -958.051 -1233 50 77 118
-482.578 -961.2 -1237 50 76 119
-481.828 -963.573 -1240 49 75 118
-481.455 -966.721 -1244 49 73 118
-480.684 -969.095 -1247 47 71 116
-479.903 -971.466 -1250 44 72 116
-479.112 -973.839 -1253 44 72 116
-477.552 -974.659 -1254 46 76 121
-475.987 -975.477 -1255 50 80 125
-474.419 -976.296 -1256 52 83 130
-472.472 -976.337 -1256 53 84 131
-470.899 -977.156 -1257 55 86 133
-470.069 -979.528 -1260 56 87 134
-468.487 -980.348 -1261 57 88 137
-467.641 -982.721 -1264 59 90 139
-467.153 -985.872 -1268 56 87 136
-467.02 -989.801 -1273 57 88 137
-467.237 -994.507 -1279 60 92 143
-468.89 -1002.33 -1289 65 97 148
-706.234 -1107.34 -1426 52 61 87
-703.039 -1105.81 -1424 45 54 80
-699.359 -1103.52 -1421 53 62 86
-695.197 -1100.44 -1417 59 68 92
-689.583 -1095.04 -1410 57 66 92
-683.5 -1088.85 -1402 57 66 92
-672.584 -1074.91 -1384 52 61 87
-631.121 -1015.17 -1307 60 72 97
-620.917 -1001.99 -1290 62 74 99
-611.246 -989.599 -1274 60 71 99
-605.928 -984.192 -1267 59 70 98
-602.54 -981.896 -1264 57 71 102
-598.685 -978.82 -1260 56 70 101
-597.21 -979.629 -1261 53 68 99
-595.733 -980.44 -1262 52 67 98
-593.781 -980.473 -1262 48 63 92
-589.955 -977.399 -1258 43 58 87
-587.543 -976.658 -1257 38 56 82
-585.134 -975.915 -1256 39 57 83
-581.799 -973.618 -1253 36 54 82
-578.011 -970.544 -1249 35 53 81
-575.158 -969.025 -1247 37 56 82
-572.771 -968.284 -1246 39 58 84
-570.846 -968.32 -1246 38 60 87
-568.463 -967.579 -1245 41 63 90
-565.629 -966.061 -1243 43 65 92
-562.801 -964.543 -1241 44 66 93
-560.431 -963.802 -1240 49 68 99
-557.163 -961.507 -1237 50 69 100
-554.353 -959.99 -1235 50 69 102
-551.55 -958.473 -1233 54 73 106
-548.753 -956.956 -1231 56 75 108
-546.85 -956.993 -1231 54 73 106
-543.619 -954.698 -1228 52 73 106
-541.721 -954.736 -1228 52 73 106
-539.383 -953.997 -1227 50 72 107
-536.61 -952.48 -1225 48 70 105
-534.717 -952.519 -1225 47 68 103
-532.823 -952.558 -1225 47 68 103
-531.362 -953.373 -1226 46 68 105
-529.467 -953.412 -1226 46 68 105
-527.572 -953.452 -1226 44 69 105
-526.105 -954.268 -1227 44 69 105
-525.49 -956.641 -1230 43 68 104
-524.439 -958.237 -1232 44 69 105
-522.958 -959.054 -1233 47 69 106
-522.319 -961.427 -1236 45 67 104
-520.828 -962.245 -1237 43 65 104
-519.335 -963.064 -1238 43 65 104
-517.42 -963.104 -1238 43 65 102
-515.088 -962.367 -1237 41 63 100
-512.76 -961.629 -1236 43 65 104
-510.021 -960.113 -1234 46 68 107
-507.7 -959.375 -1233 43 70 108
-504.972 -957.86 -1231 45 72 110
-502.658 -957.122 -1230 47 71 110
-500.348 -956.385 -1229 45 69 108
-498.446 -956.426 -1229 46 70 111
-496.543 -956.466 -1229 50 74 115
-494.239 -955.729 -1228 50 77 117
-491.937 -954.991 -1227 50 77 117
-490.437 -955.809 -1228 49 76 116
-488.536 -955.851 -1228 48 75 115
-486.634 -955.891 -1228 49 76 116
-485.127 -956.709 -1229 51 78 118
-484.01 -958.308 -1231 50 76 119
-483.67 -961.462 -1235 49 75 118
-482.537 -963.06 -1237 48 74 117
-482.176 -966.216 -1241 48 74 117
-481.8 -969.371 -1245 48 72 116
-481.413 -972.527 -1249 45 69 113
-480.63 -974.904 -1252 42 70 113
-479.071 -975.723 -1253 45 73 116
-477.891 -977.322 -1255 48 78 123
-476.325 -978.142 -1256 53 83 128
-474.378 -978.184 -1256 54 85 132
-472.431 -978.224 -1256 53 84 131
-471.233 -979.824 -1258 54 85 132
-470.401 -982.201 -1261 55 86 133
-469.189 -983.8 -1263 57 88 137
-467.969 -985.399 -1265 60 91 140
-467.849 -989.335 -1270 59 90 139
-467.713 -993.271 -1275 60 91 140
-467.927 -997.987 -1281 62 93 144
-469.213 -1005.04 -1290 65 96 147
-706.699 -1110.3 -1427 52 61 87
-703.502 -1108.77 -1425 50 59 85
-699.82 -1106.47 -1422 54 63 87
-695.167 -1102.61 -1417 59 68 92
-690.04 -1097.97 -1411 56 65 91
-683.956 -1091.78 -1403 56 65 91
-672.067 -1076.25 -1383 53 62 88
-624.254 -1009.41 -1297 61 73 98
-612.654 -993.877 -1277 59 70 98
-608.288 -990.018 -1272 59 70 98
-603.938 -986.158 -1267 57 71 101
-600.553 -983.854 -1264 56 70 100
-599.072 -984.664 -1265 53 67 97
-597.115 -984.695 -1265 50 64 94
-594.218 -983.173 -1263 47 61 90
-591.796 -982.426 -1262 44 58 87
-589.379 -981.683 -1261 37 55 81
-586.031 -979.381 -1258 37 55 81
-582.693 -977.079 -1255 34 52 79
-578.902 -973.999 -1251 34 52 79
-576.046 -972.477 -1249 38 57 83
-573.656 -971.734 -1248 40 59 85
-571.726 -971.768 -1248 39 61 88
-568.427 -969.468 -1245 42 64 91
-565.593 -967.946 -1243 43 65 92
-563.217 -967.203 -1242 43 65 92
-560.394 -965.682 -1240 49 68 99
-556.676 -962.604 -1236 52 71 102
-553.868 -961.083 -1234 52 71 103
-551.066 -959.561 -1232 53 72 104
-548.715 -958.819 -1231 55 74 107
-546.368 -958.077 -1230 54 73 106
-543.582 -956.557 -1228 53 74 107
-541.683 -956.594 -1228 54 75 108
-539.785 -956.632 -1228 52 74 109
-537.01 -955.112 -1226 48 70 105
-535.114 -955.149 -1226 47 68 103
-533.22 -955.188 -1226 48 69 104
-531.757 -956.005 -1227 47 69 106
-530.292 -956.823 -1228 47 69 106
-527.963 -956.083 -1227 44 67 104
-526.494 -956.9 -1228 44 67 104
-525.451 -958.499 -1230 43 66 103
-524.4 -960.096 -1232 43 66 103
-522.918 -960.915 -1233 46 68 105
-521.857 -962.513 -1235 46 68 105
-519.946 -962.553 -1235 44 66 104
-518.456 -963.372 -1236 44 66 104
-516.544 -963.412 -1236 42 64 101
-514.215 -962.672 -1235 42 64 101
-511.89 -961.933 -1234 45 67 106
-509.568 -961.194 -1233 48 70 109
-507.66 -961.234 -1233 45 71 109
-504.932 -959.715 -1231 46 72 110
-502.618 -958.975 -1230 48 72 111
-500.307 -958.236 -1229 49 73 112
-498.811 -959.056 -1230 48 72 113
-496.907 -959.096 -1230 51 75 116
-494.601 -958.357 -1229 50 77 117
-492.298 -957.618 -1228 51 78 118
-490.396 -957.658 -1228 52 79 119
-488.495 -957.698 -1228 53 80 120
-486.99 -958.518 -1229 52 79 119
-485.876 -960.118 -1231 53 80 120
-484.756 -961.719 -1233 50 76 119
-484.021 -964.1 -1236 49 75 118
-483.277 -966.482 -1239 48 74 117
-482.911 -969.642 -1243 49 75 118
-482.92 -973.583 -1248 50 74 118
-481.758 -975.184 -1250 46 70 114
-480.588 -976.786 -1252 42 70 113
-479.413 -978.387 -1254 46 74 117
-478.231 -979.989 -1256 49 79 124
-476.663 -980.81 -1257 54 84 129
-474.715 -980.852 -1257 55 86 133
-473.142 -981.672 -1258 54 85 132
-472.315 -984.055 -1261 54 85 132
-471.106 -985.656 -1263 56 87 134
-469.89 -987.259 -1265 58 89 138
-469.038 -989.64 -1268 61 92 141
-468.544 -992.803 -1272 62 93 142
-468.405 -996.748 -1277 61 92 141
-467.885 -999.912 -1281 61 92 142
-468.807 -1006.2 -1289 64 95 145
-703.966 -1111.74 -1426 52 61 87
-700.283 -1109.43 -1423 52 61 85
-695.626 -1105.56 -1418 56 65 89
-690.497 -1100.91 -1412 55 64 90
-684.413 -1094.7 -1404 57 66 92
-674.951 -1083.04 -1389 56 65 91
-658.754 -1060.46 -1360 64 73 99
-626.15 -1014.51 -1301 60 72 97
-615.022 -999.726 -1282 58 69 97
-611.126 -996.636 -1278 57 68 96
-606.289 -991.989 -1272 55 69 98
-602.422 -988.901 -1268 55 69 98
-601.881 -991.272 -1271 52 66 95
-598.972 -989.745 -1269 48 62 91
-595.597 -987.436 -1266 45 59 88
-593.639 -987.468 -1266 43 57 86
-590.747 -985.942 -1264 38 56 82
-587.395 -983.635 -1261 38 56 82
-583.124 -979.768 -1256 36 54 80
-579.793 -977.461 -1253 36 54 80
-576.934 -975.936 -1251 38 57 83
-574.08 -974.41 -1249 41 60 86
-572.149 -974.444 -1249 41 63 90
-569.305 -972.919 -1247 44 66 93
-566.467 -971.393 -1245 44 66 93
-563.635 -969.868 -1243 43 65 92
-560.359 -967.564 -1240 49 68 99
-557.09 -965.257 -1237 53 72 103
-554.281 -963.734 -1235 53 72 103
-551.477 -962.209 -1233 53 72 103
-549.124 -961.465 -1232 53 72 105
-546.331 -959.94 -1230 53 72 105
-543.545 -958.416 -1228 53 74 107
-541.646 -958.453 -1228 53 74 107
-539.747 -958.489 -1228 50 71 106
-536.973 -956.966 -1226 46 67 102
-535.077 -957.003 -1226 44 65 100
-533.617 -957.822 -1227 46 67 102
-532.586 -959.421 -1229 47 69 106
-531.117 -960.24 -1230 47 69 106
-529.216 -960.279 -1230 45 67 104
-528.17 -961.877 -1232 44 66 103
-526.692 -962.697 -1233 43 65 102
-525.211 -963.517 -1234 43 65 102
-524.151 -965.118 -1236 45 67 104
-522.662 -965.938 -1237 46 68 105
-520.749 -965.978 -1237 45 67 104
-518.835 -966.017 -1237 45 67 104
-516.922 -966.057 -1237 42 64 101
-515.008 -966.096 -1237 42 64 101
-512.265 -964.575 -1235 45 67 106
-509.941 -963.833 -1234 48 70 109
-507.62 -963.092 -1233 46 70 109
-505.302 -962.351 -1232 47 71 110
-502.578 -960.829 -1230 50 74 113
-500.675 -960.868 -1230 52 76 115
-498.771 -960.909 -1230 52 76 117
-496.867 -960.948 -1230 53 77 118
-494.561 -960.207 -1229 51 78 118
-492.257 -959.466 -1228 50 77 117
-490.755 -960.287 -1229 51 78 118
-488.853 -960.328 -1229 52 79 119
-487.346 -961.15 -1230 53 80 120
-485.835 -961.97 -1231 52 79 119
-484.715 -963.574 -1233 50 76 119
-483.589 -965.177 -1235 49 75 118
-483.236 -968.344 -1239 49 75 118
-483.259 -972.293 -1244 50 76 119
-482.493 -974.678 -1247 51 75 119
-481.717 -977.064 -1250 48 72 116
-480.548 -978.668 -1252 44 72 115
-479.754 -981.054 -1255 47 75 118
-478.19 -981.877 -1256 49 79 124
-476.622 -982.699 -1257 54 84 129
-474.673 -982.74 -1257 55 86 133
-473.477 -984.345 -1259 54 85 132
-472.274 -985.949 -1261 56 87 134
-471.065 -987.554 -1263 58 89 136
-469.849 -989.16 -1265 59 90 139
-468.997 -991.546 -1268 61 92 141
-468.503 -994.715 -1272 64 95 144
-468.364 -998.666 -1277 62 93 142
-467.844 -1001.84 -1281 62 93 142
-703.937 -1113.92 -1426 51 60 85
-700.252 -1111.61 -1423 50 59 83
-695.596 -1107.73 -1418 52 61 85
-690.466 -1103.07 -1412 52 61 87
-684.383 -1096.85 -1404 55 64 90
-674.92 -1085.16 -1389 57 66 91
-658.24 -1061.76 -1359 61 70 95
-640.686 -1036.78 -1327 59 69 95
-628.045 -1019.62 -1305 57 67 93
-618.83 -1007.94 -1290 56 66 93
-613.965 -1003.28 -1284 56 66 93
-608.641 -997.836 -1277 53 66 94
-605.241 -995.524 -1274 51 64 92
-605.164 -998.68 -1278 48 62 90
-600.356 -994.024 -1272 46 60 88
-597.918 -993.273 -1271 43 57 85
-595.014 -991.742 -1269 42 56 84
-591.181 -988.648 -1265 41 58 84
-588.293 -987.117 -1263 42 59 85
-585.412 -985.587 -1261 40 58 84
-582.537 -984.058 -1259 39 57 83
-579.205 -981.745 -1256 39 58 84
-575.885 -979.434 -1253 41 60 86
-572.573 -977.124 -1250 43 63 90
-569.727 -975.594 -1248 46 66 93
-566.888 -974.066 -1246 47 67 95
-563.6 -971.754 -1243 45 65 93
-559.871 -968.663 -1239 48 67 97
-557.055 -967.134 -1237 52 71 101
-554.244 -965.606 -1235 53 72 103
-551.44 -964.077 -1233 52 71 102
-548.643 -962.551 -1231 53 72 105
-545.85 -961.021 -1229 53 72 105
-543.508 -960.276 -1228 52 72 105
-541.609 -960.312 -1228 52 72 105
-539.71 -960.349 -1228 49 70 105
-537.374 -959.603 -1227 47 68 103
-535.476 -959.641 -1227 47 68 103
-534.448 -961.241 -1229 48 69 104
-532.982 -962.062 -1230 46 68 104
-531.079 -962.099 -1230 45 67 103
-529.177 -962.136 -1230 45 67 104
-528.132 -963.74 -1232 44 66 103
-526.654 -964.56 -1233 43 65 102
-525.172 -965.38 -1234 44 66 103
-523.264 -965.42 -1234 45 67 104
-522.2 -967.023 -1236 45 67 104
-519.867 -966.28 -1235 45 67 104
-518.376 -967.1 -1236 45 67 104
-516.465 -967.141 -1236 44 66 103
-514.552 -967.18 -1236 43 65 102
-512.226 -966.437 -1235 46 68 107
-509.901 -965.694 -1234 49 71 110
-507.58 -964.95 -1233 47 71 109
-505.262 -964.208 -1232 47 71 109
-502.947 -963.464 -1231 49 73 112
-500.635 -962.721 -1230 49 73 112
-498.731 -962.76 -1230 50 74 114
-496.423 -962.018 -1229 51 75 115
-494.521 -962.058 -1229 49 76 115
-492.217 -961.315 -1228 48 75 114
-490.715 -962.137 -1229 48 75 115
-488.812 -962.177 -1229 50 77 117
-487.306 -963 -1230 51 78 119
-485.795 -963.823 -1231 50 77 118
-484.675 -965.429 -1233 48 74 117
-483.94 -967.818 -1236 48 74 117
-483.586 -970.991 -1240 48 74 117
-483.218 -974.163 -1244 46 72 115
-482.452 -976.554 -1247 45 70 114
-481.676 -978.943 -1250 46 71 115
-481.274 -982.117 -1254 45 74 118
-480.095 -983.723 -1256 47 76 120
-478.53 -984.548 -1257 48 78 123
-476.96 -985.372 -1258 53 83 128
-475.388 -986.197 -1259 55 86 133
-473.812 -987.02 -1260 54 85 132
-472.607 -988.627 -1262 56 87 134
-471.397 -990.235 -1264 59 90 137
-470.18 -991.843 -1266 60 91 140
-468.956 -993.451 -1268 62 93 142
-468.831 -997.409 -1273 63 94 144
-468.69 -1001.37 -1278 62 93 143
-700.716 -1114.57 -1424 53 62 86
-695.567 -1109.9 -1418 51 60 84
-690.438 -1105.23 -1412 50 59 85
-684.352 -1099 -1404 53 62 88
-674.404 -1086.51 -1388 59 68 92
-655.304 -1059.14 -1353 61 70 94
-641.141 -1039.6 -1328 59 68 94
-630.903 -1026.32 -1311 57 66 92
-618.801 -1009.91 -1290 55 64 90
-614.414 -1006.02 -1285 55 64 90
-609.565 -1001.35 -1279 51 62 90
-608.536 -1002.95 -1281 48 59 87
-604.66 -999.847 -1277 44 58 85
-601.268 -997.529 -1274 43 57 84
-598.827 -996.777 -1273 42 57 84
-595.919 -995.242 -1271 43 58 85
-592.084 -992.141 -1267 43 58 85
-589.192 -990.607 -1265 44 59 86
-586.307 -989.072 -1263 42 60 86
-582.965 -986.755 -1260 42 60 86
-579.633 -984.438 -1257 42 60 86
-576.311 -982.123 -1254 45 63 89
-572.997 -979.807 -1251 45 64 90
-570.149 -978.273 -1249 46 65 91
-566.853 -975.957 -1246 48 67 95
-563.113 -972.859 -1242 47 66 94
-560.288 -971.327 -1240 49 68 98
-557.02 -969.012 -1237 51 70 100
-554.209 -967.479 -1235 51 70 101
-551.405 -965.947 -1233 51 70 101
-548.606 -964.415 -1231 54 73 106
-545.371 -962.101 -1228 55 74 107
-543.029 -961.352 -1227 57 76 109
-541.573 -962.172 -1228 54 73 106
-539.674 -962.208 -1228 49 70 105
-537.775 -962.244 -1228 47 68 103
-535.875 -962.28 -1228 48 69 104
-534.412 -963.102 -1229 49 70 105
-532.945 -963.923 -1230 47 69 104
-531.042 -963.959 -1230 46 68 103
-529.57 -964.78 -1231 44 66 103
-528.523 -966.385 -1233 42 64 101
-526.616 -966.423 -1233 44 66 103
-525.134 -967.245 -1234 46 68 105
-522.802 -966.499 -1233 46 68 105
-521.317 -967.322 -1234 45 67 104
-519.408 -967.36 -1234 45 67 104
-517.918 -968.182 -1235 46 68 105
-516.008 -968.221 -1235 46 68 105
-514.097 -968.26 -1235 45 67 104
-511.771 -967.515 -1234 48 70 109
-509.448 -966.769 -1233 50 72 111
-507.541 -966.809 -1233 46 71 107
-505.223 -966.064 -1232 44 69 105
-502.907 -965.319 -1231 45 69 108
-500.595 -964.575 -1230 45 69 108
-498.286 -963.83 -1229 44 68 107
-496.384 -963.87 -1229 45 69 108
-494.481 -963.909 -1229 45 72 110
-492.177 -963.164 -1228 46 73 111
-490.675 -963.987 -1229 47 74 114
-489.171 -964.812 -1230 50 77 117
-487.266 -964.851 -1230 50 76 119
-485.756 -965.675 -1231 48 74 117
-485.028 -968.069 -1234 47 73 116
-484.291 -970.462 -1237 46 72 115
-483.546 -972.857 -1240 43 69 112
-483.178 -976.035 -1244 38 64 107
-482.412 -978.429 -1247 37 63 107
-482.02 -981.607 -1251 43 69 113
-481.233 -984.002 -1254 45 75 120
-480.055 -985.612 -1256 45 75 120
-479.25 -988.006 -1259 48 78 123
-477.678 -988.833 -1260 53 83 128
-475.725 -988.873 -1260 53 84 131
-474.147 -989.698 -1261 53 84 131
-472.567 -990.524 -1262 56 87 134
-471.356 -992.134 -1264 60 91 138
-470.139 -993.745 -1266 61 92 141
-469.285 -996.14 -1269 62 93 142
-469.158 -1000.11 -1274 62 93 144
-469.016 -1004.07 -1279 60 91 142
-701.181 -1117.54 -1425 52 61 85
-696.521 -1113.65 -1420 52 61 85
-691.387 -1108.97 -1414 52 61 86
-684.811 -1101.94 -1405 54 63 88
-674.376 -1088.63 -1388 58 67 91
-659.634 -1068.27 -1362 60 69 93
-644.491 -1047.12 -1335 57 66 91
-628.95 -1025.19 -1307 53 62 87
-620.69 -1015.02 -1294 51 60 86
-615.341 -1009.55 -1287 52 61 87
-612.395 -1008.01 -1285 48 59 86
-609.457 -1006.47 -1283 43 54 81
-605.103 -1002.58 -1278 39 52 78
-602.653 -1001.83 -1277 39 52 78
-600.207 -1001.07 -1276 40 54 81
-596.357 -997.965 -1272 42 56 83
-592.988 -995.642 -1269 43 58 84
-590.558 -994.888 -1268 43 58 84
-587.204 -992.566 -1265 44 61 87
-583.396 -989.459 -1261 45 62 88
-580.062 -987.137 -1258 44 62 88
-577.197 -985.601 -1256 45 63 89
-573.88 -983.279 -1253 45 64 90
-570.573 -980.958 -1250 45 64 90
-566.819 -977.852 -1246 46 65 93
-563.985 -976.315 -1244 48 67 95
-561.158 -974.78 -1242 49 68 98
-558.336 -973.244 -1240 50 69 99
-555.521 -971.708 -1238 51 70 101
-552.265 -969.388 -1235 53 72 103
-549.017 -967.067 -1232 55 74 107
-545.336 -963.962 -1228 56 75 108
-542.552 -962.428 -1226 57 76 109
-541.096 -963.247 -1227 55 74 107
-539.199 -963.284 -1227 49 70 105
-537.301 -963.319 -1227 48 69 104
-535.403 -963.355 -1227 50 71 106
-534.81 -965.746 -1230 50 71 106
-533.774 -967.353 -1232 46 68 103
-532.3 -968.176 -1233 44 66 101
-530.823 -968.997 -1234 45 67 103
-528.914 -969.035 -1234 45 67 103
-527.433 -969.858 -1235 45 67 103
-525.522 -969.894 -1235 48 70 106
-523.188 -969.148 -1234 49 71 108
-521.279 -969.185 -1234 49 71 108
-519.79 -970.009 -1235 48 70 107
-517.88 -970.047 -1235 47 69 106
-515.969 -970.086 -1235 47 69 105
-514.474 -970.909 -1236 47 69 105
-512.147 -970.163 -1235 49 71 109
-510.236 -970.201 -1235 51 73 111
-507.913 -969.454 -1234 49 74 110
-505.183 -967.922 -1232 46 71 107
-502.868 -967.175 -1231 46 70 109
-500.556 -966.428 -1230 47 71 110
-498.247 -965.681 -1229 46 70 109
-496.748 -966.507 -1230 46 70 109
-494.844 -966.546 -1230 44 71 109
-492.94 -966.586 -1230 46 73 111
-490.636 -965.838 -1229 49 76 116
-489.131 -966.664 -1230 49 76 116
-487.623 -967.489 -1231 45 71 114
-486.506 -969.101 -1233 43 69 112
-485.382 -970.712 -1235 42 68 111
-484.252 -972.324 -1237 40 66 109
-483.505 -974.722 -1240 40 66 109
-483.138 -977.905 -1244 40 66 109
-482.371 -980.304 -1247 39 65 109
-481.595 -982.703 -1250 42 68 112
-480.426 -984.316 -1252 44 74 119
-479.632 -986.714 -1255 48 78 123
-479.209 -989.899 -1259 50 80 125
-477.638 -990.727 -1260 53 83 128
-475.684 -990.767 -1260 55 86 133
-474.107 -991.594 -1261 57 88 135
-472.526 -992.42 -1262 58 89 136
-471.315 -994.034 -1264 59 90 137
-470.47 -996.434 -1267 61 92 141
-469.614 -998.833 -1270 61 92 141
-469.117 -1002.02 -1274 60 91 142
-468.975 -1005.99 -1279 59 90 141
-702.138 -1121.3 -1427 54 63 87
-698.456 -1118.97 -1424 54 63 87
-693.316 -1114.28 -1418 54 63 87
-685.758 -1105.66 -1407 55 64 88
-672.405 -1087.62 -1384 57 66 90
-660.575 -1071.93 -1364 58 67 91
-644.945 -1049.95 -1336 56 65 89
-630.366 -1029.54 -1310 53 62 86
-623.54 -1021.71 -1300 51 60 86
-617.704 -1015.45 -1292 50 59 85
-614.75 -1013.91 -1290 45 57 82
-610.853 -1010.79 -1286 42 54 79
-606.969 -1007.68 -1282 40 52 77
-605.456 -1008.49 -1283 40 52 77
-601.588 -1005.38 -1279 41 55 82
-598.202 -1003.05 -1276 43 57 84
-594.826 -1000.72 -1273 42 58 82
-591.924 -999.18 -1271 43 59 83
-588.101 -996.066 -1267 45 60 87
-584.289 -992.952 -1263 46 61 88
-581.413 -991.411 -1261 44 62 88
-579.003 -990.657 -1260 44 62 88
-575.68 -988.331 -1257 45 64 90
-571.909 -985.217 -1253 45 64 90
-568.15 -982.104 -1249 45 64 92
-565.312 -980.566 -1247 48 67 95
-562.931 -979.812 -1246 50 69 99
-558.752 -975.913 -1241 50 69 99
-555.487 -973.588 -1238 50 69 100
-552.677 -972.049 -1236 51 70 101
-549.429 -969.724 -1233 54 73 106
-546.633 -968.185 -1231 57 76 109
-542.959 -965.073 -1227 58 77 110
-541.061 -965.108 -1227 56 75 108
-539.163 -965.143 -1227 52 73 108
-537.703 -965.965 -1228 50 71 106
-536.239 -966.785 -1229 50 71 106
-535.643 -969.182 -1232 49 70 105
-534.171 -970.005 -1233 46 68 103
-532.695 -970.828 -1234 45 67 102
-531.216 -971.651 -1235 45 66 101
-529.306 -971.688 -1235 45 66 101
-527.822 -972.511 -1236 46 67 102
-525.485 -971.762 -1235 47 68 103
-523.15 -971.012 -1234 47 69 106
-522.085 -972.623 -1236 48 70 107
-519.753 -971.874 -1235 49 71 108
-517.422 -971.125 -1234 48 70 107
-515.513 -971.162 -1234 47 69 104
-514.02 -971.988 -1235 48 70 105
-512.108 -972.025 -1235 49 71 108
-510.197 -972.064 -1235 50 72 109
-507.875 -971.315 -1234 48 73 109
-505.555 -970.567 -1233 46 71 107
-502.83 -969.032 -1231 45 69 108
-500.11 -967.495 -1229 45 69 108
-497.803 -966.747 -1228 45 69 108
-496.305 -967.573 -1229 45 69 108
-494.403 -967.612 -1229 44 71 109
-492.5 -967.65 -1229 46 73 111
-490.198 -966.902 -1228 47 74 114
-489.092 -968.515 -1230 45 72 112
-487.583 -969.342 -1231 41 67 110
-486.466 -970.957 -1233 39 65 108
-485.735 -973.359 -1236 40 66 109
-484.212 -974.185 -1237 40 66 109
-483.856 -977.375 -1241 41 67 110
-483.487 -980.565 -1245 43 69 112
-481.945 -981.393 -1246 43 69 113
-480.784 -983.007 -1248 44 70 114
-480.002 -985.411 -1251 44 74 119
-479.21 -987.813 -1254 46 76 121
-478.408 -990.217 -1257 51 81 126
-477.218 -991.832 -1259 52 82 127
-475.644 -992.66 -1260 54 85 132
-474.067 -993.489 -1261 56 87 134
-472.861 -995.105 -1263 58 89 136
-471.648 -996.721 -1265 59 90 137
-470.429 -998.337 -1267 60 91 140
-469.573 -1000.74 -1270 61 92 141
-469.445 -1004.72 -1275 60 91 142
-468.934 -1007.91 -1279 60 91 142
-693.779 -1117.25 -1419 56 65 89
-682.321 -1102.31 -1400 56 65 89
-672.864 -1090.53 -1385 56 65 89
-662.484 -1077.17 -1368 56 65 89
-645.884 -1053.57 -1338 53 64 87
-632.264 -1034.7 -1314 50 61 84
-625.91 -1027.64 -1305 49 58 83
-618.633 -1019.01 -1294 47 56 81
-614.722 -1015.88 -1290 43 55 80
-611.3 -1013.55 -1287 41 53 78
-609.307 -1013.58 -1287 40 52 76
-605.427 -1010.45 -1283 40 52 76
-602.029 -1008.12 -1280 41 55 81
-599.11 -1006.57 -1278 44 58 84
-596.197 -1005.03 -1276 43 57 82
-591.894 -1001.12 -1271 45 59 84
-587.142 -996.424 -1265 46 61 88
-583.797 -994.091 -1262 46 61 88
-581.383 -993.334 -1261 44 62 88
-578.053 -991.001 -1258 44 62 88
-575.19 -989.458 -1256 44 63 89
-572.333 -987.912 -1254 46 65 91
-568.574 -984.793 -1250 46 65 93
-566.186 -984.038 -1249 48 67 95
-563.802 -983.282 -1248 50 69 99
-559.619 -979.375 -1243 50 69 99
-556.799 -977.832 -1241 49 68 98
-553.539 -975.503 -1238 50 69 99
-550.286 -973.171 -1235 52 71 104
-547.043 -970.841 -1232 54 73 106
-543.368 -967.723 -1228 56 75 108
-541.027 -966.969 -1227 54 73 106
-539.568 -967.792 -1228 51 72 107
-538.106 -968.614 -1229 49 70 105
-536.641 -969.437 -1230 48 69 104
-536.043 -971.837 -1233 47 68 103
-534.567 -972.659 -1234 45 67 103
-533.09 -973.483 -1235 44 66 102
-532.04 -975.096 -1237 44 66 101
-530.127 -975.133 -1237 44 66 101
-528.212 -975.169 -1237 44 66 101
-525.873 -974.417 -1236 44 66 101
-523.961 -974.454 -1236 46 68 104
-522.47 -975.279 -1237 47 69 105
-520.136 -974.528 -1236 47 69 106
-517.804 -973.776 -1235 46 68 105
-516.311 -974.603 -1236 44 66 101
-514.814 -975.429 -1237 46 68 103
-512.486 -974.679 -1236 49 71 108
-510.159 -973.928 -1235 49 71 108
-507.836 -973.177 -1234 47 70 107
-505.517 -972.427 -1233 46 69 106
-502.791 -970.888 -1231 46 70 109
-500.072 -969.348 -1229 46 70 109
-497.764 -968.598 -1228 47 71 110
-495.863 -968.636 -1228 47 71 110
-493.962 -968.675 -1228 46 73 111
-491.66 -967.925 -1227 48 75 113
-489.76 -967.963 -1227 47 74 114
-488.655 -969.579 -1229 44 71 111
-487.544 -971.195 -1231 43 70 111
-486.427 -972.813 -1233 42 69 110
-485.696 -975.219 -1236 42 69 111
-484.565 -976.837 -1238 43 70 112
-484.206 -980.031 -1242 45 71 114
-483.058 -981.648 -1244 46 72 115
-481.518 -982.477 -1245 45 71 115
-480.36 -984.096 -1247 46 72 116
-479.578 -986.503 -1250 46 75 120
-478.788 -988.91 -1253 50 79 124
-477.988 -991.318 -1256 53 83 128
-476.799 -992.936 -1258 53 83 128
-475.604 -994.554 -1260 53 84 131
-474.027 -995.384 -1261 55 86 133
-472.82 -997.003 -1263 57 88 135
-471.608 -998.622 -1265 58 89 136
-470.389 -1000.24 -1267 59 90 139
-469.533 -1002.65 -1270 60 91 140
