ply
format ascii 1.0
comment Created by Open3D
element vertex 1414
property double x
property double y
property double z
property uchar red
property uchar green
property uchar blue
end_header
-567.618 -1110.9 -1411 69 99 146
-566.234 -1112.52 -1413 64 94 141
-564.845 -1114.14 -1415 60 90 137
-563.052 -1114.97 -1416 59 89 136
-561.255 -1115.81 -1417 61 91 138
-559.85 -1117.43 -1419 62 92 139
-558.046 -1118.26 -1420 59 89 136
-556.629 -1119.88 -1422 54 84 131
-555.206 -1121.5 -1424 50 80 129
-553.388 -1122.33 -1425 48 78 127
-551.954 -1123.95 -1427 46 76 123
-550.513 -1125.57 -1429 43 73 120
-548.683 -1126.41 -1430 42 72 119
-547.231 -1128.03 -1432 42 72 119
-546.915 -1132.01 -1437 41 71 120
-545.825 -1134.42 -1440 41 71 120
-545.103 -1137.62 -1444 39 69 114
-543.992 -1140.03 -1447 35 65 110
-542.498 -1141.65 -1449 35 66 115
-540.997 -1143.27 -1451 38 69 118
-538.747 -1143.32 -1451 44 63 94
-536.497 -1143.37 -1451 57 76 107
-534.038 -1157.74 -1469 29 34 49
-532.483 -1159.36 -1471 34 40 59
-530.561 -1160.19 -1472 38 44 63
-527.918 -1159.45 -1471 37 45 71
-525.635 -1159.5 -1471 38 46 72
-521.929 -1156.39 -1467 31 45 70
-518.235 -1153.29 -1463 31 45 70
-515.258 -1151.75 -1461 34 49 80
-511.937 -1149.44 -1458 42 57 88
-508.974 -1147.9 -1456 46 61 93
-505.669 -1145.58 -1453 48 63 95
-502.373 -1143.26 -1450 49 66 98
-499.086 -1140.94 -1447 51 68 100
-496.495 -1140.2 -1446 50 69 102
-493.907 -1139.46 -1445 48 67 100
-491.322 -1138.71 -1444 52 70 106
-487.723 -1135.6 -1440 54 72 108
-484.137 -1132.49 -1436 54 74 116
-482.241 -1133.32 -1437 56 76 118
-479.005 -1131 -1434 55 75 117
-475.778 -1128.68 -1431 58 78 120
-473.554 -1128.72 -1431 62 84 123
-470.341 -1126.4 -1428 65 87 126
-468.448 -1127.23 -1429 64 88 131
-466.226 -1127.27 -1429 65 89 132
-463.679 -1126.53 -1428 67 91 134
-461.458 -1126.57 -1428 70 94 137
-459.558 -1127.4 -1429 69 95 139
-457.334 -1127.44 -1429 69 95 139
-454.792 -1126.7 -1428 70 96 140
-451.937 -1125.16 -1426 71 97 141
-449.718 -1125.2 -1426 73 99 143
-447.498 -1125.24 -1426 71 97 141
-445.278 -1125.28 -1426 71 97 143
-443.058 -1125.33 -1426 75 101 147
-441.147 -1126.16 -1427 76 102 150
-438.925 -1126.2 -1427 71 97 145
-437.009 -1127.03 -1428 67 97 146
-434.785 -1127.07 -1428 69 99 148
-432.258 -1126.32 -1427 70 99 151
-430.035 -1126.36 -1427 66 95 147
-428.112 -1127.19 -1428 65 95 144
-426.186 -1128.02 -1429 67 97 146
-424.552 -1129.64 -1431 66 96 145
-422.322 -1129.68 -1431 65 95 144
-420.386 -1130.51 -1432 66 96 143
-418.738 -1132.12 -1434 67 97 144
-416.793 -1132.95 -1435 64 94 143
-415.133 -1134.57 -1437 60 90 139
-413.18 -1135.4 -1438 62 92 139
-410.938 -1135.44 -1438 63 93 140
-408.98 -1136.27 -1439 64 91 141
-406.453 -1135.52 -1438 63 90 140
-404.21 -1135.55 -1438 64 91 141
-401.687 -1134.8 -1437 65 92 142
-399.167 -1134.05 -1436 64 91 139
-396.927 -1134.09 -1436 65 92 140
-394.687 -1134.13 -1436 63 90 138
-392.719 -1134.95 -1437 63 90 138
-390.748 -1135.78 -1438 64 91 139
-389.314 -1138.19 -1441 58 85 133
-388.408 -1142.17 -1446 56 84 129
-387.485 -1146.16 -1451 53 81 126
-683.635 -1156.29 -1468 59 63 85
-682.292 -1157.9 -1470 59 69 90
-678.629 -1155.57 -1467 60 70 91
-674.976 -1153.24 -1464 65 75 96
-670.872 -1150.13 -1460 71 81 102
-665.407 -1144.65 -1453 70 83 110
-661.332 -1141.53 -1449 71 84 111
-657.271 -1138.42 -1445 71 85 113
-653.675 -1136.09 -1442 69 83 111
-650.992 -1135.34 -1441 68 82 111
-646.961 -1132.23 -1437 71 85 114
-643.841 -1130.69 -1435 74 88 117
-640.281 -1128.37 -1432 75 89 118
-636.282 -1125.25 -1428 74 89 118
-631.853 -1121.35 -1423 75 90 119
-628.767 -1119.82 -1421 75 92 123
-625.686 -1118.28 -1419 76 93 124
-622.613 -1116.74 -1417 78 95 129
-619.106 -1114.42 -1414 80 97 131
-616.046 -1112.88 -1412 82 100 138
-613.862 -1112.92 -1412 85 103 141
-611.244 -1112.17 -1411 88 106 144
-608.197 -1110.64 -1409 90 108 146
-606.448 -1111.47 -1410 86 105 143
-603.839 -1110.72 -1409 86 105 143
-601.658 -1110.76 -1409 89 107 147
-599.478 -1110.8 -1409 89 107 147
-597.299 -1110.85 -1409 86 106 147
-595.54 -1111.68 -1410 85 105 146
-592.938 -1110.93 -1409 81 105 148
-590.757 -1110.97 -1409 80 104 147
-588.578 -1111.02 -1409 78 103 145
-586.397 -1111.06 -1409 77 102 144
-583.802 -1110.31 -1408 77 101 144
-581.623 -1110.36 -1408 77 101 144
-579.855 -1111.19 -1409 75 101 144
-577.675 -1111.23 -1409 75 101 144
-575.494 -1111.28 -1409 74 102 145
-573.719 -1112.11 -1410 72 100 143
-571.942 -1112.94 -1411 71 100 146
-569.758 -1112.98 -1411 73 102 148
-567.976 -1113.82 -1412 70 100 146
-565.79 -1113.86 -1412 65 95 141
-564.002 -1114.7 -1413 61 91 139
-562.609 -1116.32 -1415 60 90 138
-560.814 -1117.15 -1416 63 93 140
-559.805 -1119.56 -1419 67 97 144
-558 -1120.4 -1420 59 89 137
-556.192 -1121.23 -1421 52 82 130
-554.77 -1122.85 -1423 48 78 127
-552.954 -1123.69 -1424 49 79 128
-551.135 -1124.52 -1425 48 78 125
-549.698 -1126.15 -1427 42 72 119
-547.87 -1126.98 -1428 37 67 114
-546.804 -1129.39 -1431 37 67 114
-546.108 -1132.6 -1435 39 69 117
-545.021 -1135.01 -1438 42 72 120
-544.679 -1139 -1443 38 69 115
-543.946 -1142.21 -1447 34 65 111
-542.826 -1144.62 -1450 36 67 115
-541.324 -1146.24 -1452 35 66 114
-539.072 -1146.29 -1452 42 61 91
-535.083 -1162.31 -1472 31 35 49
-533.884 -1164.73 -1475 33 39 58
-531.235 -1163.98 -1474 37 43 62
-528.589 -1163.24 -1473 33 41 66
-525.589 -1161.71 -1471 37 45 70
-521.883 -1158.59 -1467 34 48 73
-518.189 -1155.48 -1463 30 44 69
-515.213 -1153.95 -1461 34 49 80
-511.541 -1150.83 -1457 42 57 88
-508.929 -1150.09 -1456 44 59 91
-505.624 -1147.77 -1453 44 59 91
-502.675 -1146.23 -1451 45 62 94
-499.731 -1144.69 -1449 48 65 97
-497.137 -1143.95 -1448 52 71 104
-494.546 -1143.2 -1447 51 70 103
-491.277 -1140.88 -1444 53 71 107
-488.357 -1139.34 -1442 55 73 109
-484.767 -1136.22 -1438 55 75 117
-482.532 -1136.27 -1438 56 76 118
-478.961 -1133.15 -1434 56 76 118
-475.735 -1130.82 -1431 58 78 120
-473.18 -1130.08 -1430 65 87 127
-470.298 -1128.54 -1428 66 88 128
-468.406 -1129.37 -1429 65 89 132
-466.183 -1129.42 -1429 65 89 132
-463.961 -1129.46 -1429 66 90 133
-461.738 -1129.5 -1429 69 93 136
-459.515 -1129.54 -1429 69 95 139
-457.292 -1129.59 -1429 69 95 139
-454.751 -1128.84 -1428 70 96 140
-452.529 -1128.88 -1428 70 96 140
-449.676 -1127.34 -1426 70 96 140
-447.457 -1127.38 -1426 70 96 140
-445.237 -1127.42 -1426 71 97 143
-443.017 -1127.46 -1426 75 101 147
-441.416 -1129.09 -1428 75 101 149
-438.884 -1128.34 -1427 71 97 145
-436.663 -1128.38 -1427 65 96 145
-434.44 -1128.42 -1427 64 95 144
-432.218 -1128.46 -1427 64 93 145
-430.297 -1129.29 -1428 62 91 143
-428.072 -1129.33 -1428 63 93 142
-426.444 -1130.95 -1430 66 96 145
-424.512 -1131.78 -1431 67 97 146
-422.282 -1131.82 -1431 68 98 147
-420.64 -1133.44 -1433 66 97 145
-418.698 -1134.27 -1434 67 98 146
-417.044 -1135.9 -1436 64 94 143
-415.094 -1136.73 -1437 60 90 139
-413.141 -1137.56 -1438 61 90 137
-411.47 -1139.18 -1440 62 91 138
-409.225 -1139.22 -1440 63 90 139
-406.697 -1138.46 -1439 63 90 139
-404.734 -1139.29 -1440 65 92 142
-401.928 -1137.75 -1438 66 93 143
-399.685 -1137.79 -1438 64 91 139
-397.442 -1137.83 -1438 65 92 140
-395.473 -1138.65 -1439 64 91 139
-392.681 -1137.11 -1437 64 91 139
-390.982 -1138.73 -1439 66 93 141
-390.087 -1142.72 -1444 61 88 136
-388.907 -1145.93 -1448 56 83 130
-387.715 -1149.13 -1452 55 82 129
-683.135 -1157.74 -1467 60 64 87
-681.328 -1158.56 -1468 56 66 87
-678.131 -1157.02 -1466 56 66 87
-674.94 -1155.48 -1464 62 72 93
-670.835 -1152.35 -1460 69 79 100
-666.744 -1149.23 -1456 73 84 112
-662.209 -1145.32 -1451 75 86 114
-658.145 -1142.2 -1447 69 83 110
-654.092 -1139.08 -1443 68 82 109
-650.955 -1137.54 -1441 68 82 111
-647.826 -1136 -1439 70 84 113
-644.252 -1133.66 -1436 73 87 116
-640.242 -1130.54 -1432 75 89 118
-635.798 -1126.63 -1427 74 89 118
-633.146 -1125.88 -1426 76 91 120
-630.055 -1124.34 -1424 75 92 123
-626.529 -1122.01 -1421 75 92 123
-622.573 -1118.89 -1417 77 94 128
-619.942 -1118.14 -1416 79 96 130
-616.879 -1116.6 -1414 80 98 136
-614.257 -1115.85 -1413 83 101 139
-611.204 -1114.31 -1411 88 106 144
-609.02 -1114.35 -1411 90 108 146
-607.268 -1115.18 -1412 88 106 144
-604.226 -1113.64 -1410 88 106 144
-602.044 -1113.68 -1410 90 108 148
-599.862 -1113.72 -1410 90 108 148
-597.68 -1113.77 -1410 87 107 147
-595.498 -1113.81 -1410 86 106 146
-592.896 -1113.06 -1409 82 106 149
-591.135 -1113.89 -1410 82 106 149
-588.535 -1113.14 -1409 79 106 146
-585.938 -1112.4 -1408 77 104 144
-583.759 -1112.44 -1408 77 101 144
-581.993 -1113.27 -1409 76 100 143
-579.812 -1113.31 -1409 75 101 144
-577.631 -1113.36 -1409 77 103 146
-575.45 -1113.4 -1409 75 103 146
-574.083 -1115.02 -1411 72 100 143
-572.304 -1115.86 -1412 69 99 144
-570.118 -1115.9 -1412 72 102 147
-567.932 -1115.95 -1412 71 101 146
-565.746 -1115.99 -1412 65 95 140
-564.357 -1117.62 -1414 61 91 140
-562.962 -1119.24 -1416 61 91 140
-561.166 -1120.07 -1417 64 94 141
-559.366 -1120.91 -1418 67 97 144
-557.562 -1121.74 -1419 62 92 141
-555.756 -1122.58 -1420 53 83 132
-554.336 -1124.2 -1422 46 76 125
-552.521 -1125.04 -1423 46 76 125
-550.317 -1125.09 -1423 45 75 122
-549.268 -1127.5 -1426 41 71 118
-547.441 -1128.34 -1427 38 68 115
-546.376 -1130.75 -1430 39 69 116
-546.063 -1134.75 -1435 40 70 117
-544.976 -1137.17 -1438 42 72 119
-545.011 -1141.96 -1444 38 69 116
-543.901 -1144.38 -1447 36 67 114
-542.781 -1146.8 -1450 37 68 115
-541.278 -1148.43 -1452 31 62 109
-539.027 -1148.47 -1452 41 59 87
-535.763 -1166.11 -1474 28 31 44
-534.2 -1167.73 -1476 26 32 51
-531.91 -1167.78 -1476 33 39 58
-529.261 -1167.03 -1475 32 40 64
-525.9 -1164.71 -1472 39 47 71
-521.837 -1160.8 -1467 33 47 72
-518.498 -1158.47 -1464 30 44 69
-515.167 -1156.14 -1461 34 49 80
-511.144 -1152.23 -1456 44 59 90
-508.534 -1151.48 -1455 47 62 94
-505.927 -1150.74 -1454 47 62 94
-502.629 -1148.41 -1451 48 65 97
-499.687 -1146.87 -1449 51 68 100
-496.749 -1145.33 -1447 51 70 103
-493.818 -1143.79 -1445 51 70 103
-491.233 -1143.04 -1444 53 71 107
-488.651 -1142.3 -1443 55 73 109
-485.398 -1139.97 -1440 56 76 118
-483.16 -1140.01 -1440 57 77 119
-479.586 -1136.89 -1436 57 77 119
-476.024 -1133.76 -1432 59 79 121
-473.467 -1133.01 -1431 64 86 127
-470.584 -1131.47 -1429 65 87 128
-468.69 -1132.31 -1430 64 88 131
-466.467 -1132.35 -1430 65 89 132
-463.918 -1131.6 -1429 66 90 133
-462.019 -1132.44 -1430 69 93 136
-459.795 -1132.48 -1430 69 95 139
-457.57 -1132.52 -1430 68 94 138
-455.027 -1131.77 -1429 69 95 139
-452.804 -1131.81 -1429 68 94 138
-449.949 -1130.27 -1427 68 94 138
-447.729 -1130.31 -1427 70 96 140
-445.508 -1130.35 -1427 72 98 144
-442.976 -1129.6 -1426 73 99 145
-441.374 -1131.23 -1428 73 99 147
-438.536 -1129.68 -1426 71 97 145
-436.622 -1130.52 -1427 64 95 144
-434.4 -1130.56 -1427 62 93 142
-432.177 -1130.6 -1427 62 91 143
-430.859 -1133.02 -1430 64 93 145
-428.631 -1133.06 -1430 65 95 144
-426.702 -1133.89 -1431 65 95 144
-424.472 -1133.93 -1431 64 94 143
-422.538 -1134.76 -1432 65 95 144
-420.307 -1134.8 -1432 64 95 144
-418.659 -1136.42 -1434 64 95 144
-417.005 -1138.05 -1436 62 92 141
-415.055 -1138.88 -1437 59 89 138
-413.39 -1140.51 -1439 62 89 137
-411.432 -1141.34 -1440 62 89 137
-408.902 -1140.58 -1439 62 89 137
-406.941 -1141.41 -1440 63 90 138
-404.695 -1141.45 -1440 64 91 141
-402.17 -1140.7 -1439 67 94 144
-399.647 -1139.94 -1438 66 93 141
-397.957 -1141.57 -1440 67 94 142
-395.71 -1141.6 -1440 65 92 140
-393.19 -1140.85 -1439 63 90 138
-391.76 -1143.27 -1442 63 90 138
-390.32 -1145.68 -1445 58 85 133
-388.87 -1148.1 -1448 53 80 128
-387.945 -1152.1 -1453 52 79 127
-683.102 -1159.98 -1467 60 64 87
-680.831 -1160.01 -1467 57 67 88
-677.634 -1158.46 -1465 59 69 90
-674.445 -1156.92 -1463 64 73 95
-670.801 -1154.58 -1460 68 77 99
-666.251 -1150.66 -1455 69 80 108
-661.26 -1145.95 -1449 72 83 111
-656.744 -1142.03 -1444 68 82 109
-654.056 -1141.28 -1443 69 83 110
-650.468 -1138.94 -1440 70 84 113
-647.788 -1138.18 -1439 71 85 114
-643.766 -1135.06 -1435 72 86 115
-639.311 -1131.14 -1430 73 87 116
-636.652 -1130.38 -1429 72 87 116
-633.996 -1129.63 -1428 74 89 118
-630.46 -1127.3 -1425 76 93 124
-626.049 -1123.38 -1420 78 95 126
-622.972 -1121.83 -1418 79 96 130
-619.903 -1120.29 -1416 79 96 130
-617.276 -1119.54 -1415 78 96 135
-614.217 -1117.99 -1413 82 100 139
-611.597 -1117.24 -1412 85 103 141
-609.413 -1117.28 -1412 85 103 141
-607.658 -1118.11 -1413 86 104 142
-604.614 -1116.57 -1411 88 106 144
-602.004 -1115.82 -1410 90 109 149
-599.821 -1115.86 -1410 91 110 150
-597.639 -1115.9 -1410 86 108 147
-595.035 -1115.15 -1409 84 106 145
-592.854 -1115.19 -1409 83 107 150
-590.255 -1114.44 -1408 84 108 151
-588.076 -1114.48 -1408 81 108 148
-585.896 -1114.52 -1408 80 107 147
-583.717 -1114.57 -1408 80 104 147
-582.363 -1116.19 -1410 78 102 145
-580.181 -1116.23 -1410 77 103 146
-577.999 -1116.28 -1410 78 104 147
-575.407 -1115.53 -1409 75 103 146
-574.854 -1118.74 -1413 72 100 143
-572.665 -1118.78 -1413 70 100 145
-570.478 -1118.82 -1413 73 103 148
-568.29 -1118.87 -1413 71 101 146
-566.102 -1118.91 -1413 65 95 140
-565.112 -1121.33 -1416 61 91 139
-563.316 -1122.17 -1417 60 90 138
-561.122 -1122.21 -1417 60 91 138
-559.321 -1123.04 -1418 62 93 140
-557.125 -1123.09 -1418 60 90 139
-555.32 -1123.93 -1419 52 82 131
-553.512 -1124.76 -1420 46 76 125
-551.7 -1125.6 -1421 45 75 124
-549.885 -1126.43 -1422 45 75 122
-548.452 -1128.06 -1424 43 73 120
-547.397 -1130.48 -1427 41 71 118
-547.095 -1134.49 -1432 41 71 118
-546.778 -1138.5 -1437 41 71 117
-544.931 -1139.33 -1438 40 70 116
-544.966 -1144.13 -1444 37 68 116
-544.231 -1147.35 -1448 35 66 114
-542.735 -1148.98 -1450 35 66 112
-541.232 -1150.61 -1452 23 54 100
-539.352 -1151.45 -1453 34 51 77
-535.717 -1168.32 -1474 28 31 43
-534.877 -1171.54 -1478 25 31 50
-532.585 -1171.58 -1478 32 38 57
-529.574 -1170.04 -1476 34 42 66
-525.854 -1166.92 -1472 38 46 70
-521.791 -1163 -1467 37 51 76
-518.098 -1159.87 -1463 36 50 75
-514.769 -1157.54 -1460 41 56 87
-511.099 -1154.42 -1456 48 63 94
-508.838 -1154.46 -1456 49 64 96
-505.882 -1152.92 -1454 49 64 96
-502.931 -1151.38 -1452 49 66 98
-500.332 -1150.63 -1451 51 68 100
-498.078 -1150.67 -1451 51 70 103
-494.799 -1148.34 -1448 52 71 104
-492.209 -1147.59 -1447 52 70 106
-488.607 -1144.46 -1443 54 72 108
-485.354 -1142.13 -1440 56 75 117
-482.781 -1141.38 -1439 57 76 118
-479.209 -1138.25 -1435 58 78 119
-476.313 -1136.7 -1433 60 80 121
-473.424 -1135.16 -1431 61 83 124
-470.871 -1134.41 -1430 61 83 124
-468.648 -1134.45 -1430 61 85 128
-466.424 -1134.5 -1430 63 87 130
-464.2 -1134.54 -1430 65 89 132
-461.977 -1134.58 -1430 70 94 137
-460.074 -1135.42 -1431 71 97 141
-457.528 -1134.66 -1430 70 96 140
-455.303 -1134.71 -1430 68 94 138
-453.079 -1134.75 -1430 68 94 138
-450.223 -1133.2 -1428 69 95 139
-448.001 -1133.25 -1428 71 97 141
-445.467 -1132.49 -1427 70 96 142
-442.935 -1131.74 -1426 69 95 141
-441.025 -1132.58 -1427 70 96 144
-438.495 -1131.82 -1426 72 98 146
-436.581 -1132.66 -1427 64 95 144
-434.664 -1133.49 -1428 61 92 141
-432.44 -1133.53 -1428 61 90 142
-430.819 -1135.16 -1430 65 94 146
-428.591 -1135.2 -1430 64 94 144
-426.662 -1136.03 -1431 59 89 139
-424.433 -1136.07 -1431 59 89 138
-422.498 -1136.91 -1432 62 92 141
-420.56 -1137.74 -1433 60 91 140
-418.328 -1137.78 -1433 59 90 139
-416.385 -1138.61 -1434 58 88 137
-414.727 -1140.24 -1436 58 88 137
-412.776 -1141.07 -1437 62 91 138
-410.822 -1141.91 -1438 63 92 139
-408.864 -1142.74 -1439 63 90 138
-406.902 -1143.57 -1440 64 91 139
-404.657 -1143.61 -1440 64 91 141
-402.132 -1142.86 -1439 69 96 146
-399.887 -1142.89 -1439 69 96 144
-398.195 -1144.52 -1441 68 95 143
-395.948 -1144.56 -1441 64 91 139
-393.699 -1144.6 -1441 60 87 135
-391.994 -1146.22 -1443 58 85 133
-390.553 -1148.64 -1446 53 80 128
-389.102 -1151.06 -1449 49 76 124
-388.976 -1157.45 -1457 49 76 124
-680.334 -1161.46 -1466 58 68 89
-677.139 -1159.91 -1464 58 68 89
-673.95 -1158.36 -1462 63 71 93
-669.849 -1155.22 -1458 67 75 97
-665.301 -1151.29 -1453 68 79 107
-659.857 -1145.78 -1446 73 84 112
-656.709 -1144.23 -1444 69 83 110
-653.113 -1141.89 -1441 70 84 111
-649.528 -1139.55 -1438 72 86 115
-646.851 -1138.79 -1437 72 86 115
-642.833 -1135.65 -1433 73 87 116
-640.168 -1134.9 -1432 73 87 116
-637.06 -1133.35 -1430 72 87 116
-633.959 -1131.8 -1428 72 87 116
-629.979 -1128.67 -1424 75 92 123
-626.453 -1126.33 -1421 78 95 126
-623.375 -1124.78 -1419 80 97 131
-620.303 -1123.23 -1417 80 97 131
-617.674 -1122.48 -1416 80 98 138
-614.613 -1120.93 -1414 83 101 141
-611.991 -1120.17 -1413 84 102 140
-609.373 -1119.42 -1412 83 101 139
-606.758 -1118.67 -1411 85 103 141
-604.146 -1117.91 -1410 86 104 142
-601.963 -1117.95 -1410 88 108 148
-599.781 -1117.99 -1410 90 110 150
-597.599 -1118.03 -1410 87 109 148
-594.994 -1117.28 -1409 85 107 146
-592.392 -1116.53 -1408 82 106 149
-590.213 -1116.57 -1408 82 106 149
-588.034 -1116.61 -1408 82 109 149
-586.271 -1117.45 -1409 80 107 147
-583.676 -1116.69 -1408 81 105 148
-582.322 -1118.32 -1410 81 105 148
-580.139 -1118.36 -1410 79 105 148
-577.956 -1118.4 -1410 80 106 149
-575.365 -1117.65 -1409 77 105 148
-573.997 -1119.28 -1411 72 100 143
-571.812 -1119.32 -1411 70 100 145
-570.031 -1120.16 -1412 71 101 146
-567.845 -1120.2 -1412 70 100 145
-566.059 -1121.04 -1413 65 95 140
-564.669 -1122.67 -1415 62 92 139
-562.478 -1122.71 -1415 62 92 139
-560.286 -1122.76 -1415 60 91 138
-558.884 -1124.39 -1417 58 89 136
-556.688 -1124.43 -1417 56 86 135
-554.494 -1124.48 -1417 52 82 131
-552.688 -1125.31 -1418 48 78 127
-550.879 -1126.15 -1419 46 76 125
-549.068 -1126.99 -1420 46 76 123
-548.023 -1129.41 -1423 45 75 122
-546.968 -1131.84 -1426 42 72 119
-546.287 -1135.06 -1430 40 70 117
-545.592 -1138.28 -1434 41 71 116
-544.507 -1140.7 -1437 39 69 114
-544.543 -1145.51 -1443 37 68 117
-543.81 -1148.73 -1447 37 68 117
-542.689 -1151.16 -1450 37 67 112
-541.187 -1152.79 -1452 25 55 100
-539.307 -1153.63 -1453 34 50 74
-536.034 -1171.33 -1475 32 35 46
-534.831 -1173.76 -1478 29 35 54
-532.899 -1174.6 -1479 34 40 59
-529.887 -1173.05 -1477 37 45 69
-525.809 -1169.13 -1472 38 46 70
-522.102 -1166 -1468 34 48 73
-518.407 -1162.86 -1464 34 48 73
-514.019 -1158.14 -1458 39 54 85
-511.405 -1157.39 -1457 45 60 91
-508.794 -1156.65 -1456 47 62 94
-505.837 -1155.1 -1454 49 64 96
-503.233 -1154.35 -1453 50 67 99
-500.632 -1153.6 -1452 50 67 99
-498.377 -1153.65 -1452 51 70 103
-495.096 -1151.31 -1449 52 71 104
-491.825 -1148.97 -1446 52 70 106
-488.563 -1146.63 -1443 53 71 107
-484.973 -1143.49 -1439 53 71 113
-482.066 -1141.95 -1437 54 72 114
-479.165 -1140.4 -1435 58 78 118
-475.938 -1138.06 -1432 63 83 123
-473.051 -1136.51 -1430 62 84 125
-470.828 -1136.55 -1430 60 82 123
-468.605 -1136.6 -1430 58 82 125
-466.382 -1136.64 -1430 61 85 128
-464.158 -1136.68 -1430 65 89 132
-461.934 -1136.73 -1430 70 94 137
-460.032 -1137.56 -1431 71 97 141
-457.806 -1137.6 -1431 71 97 141
-455.262 -1136.85 -1430 68 94 138
-453.037 -1136.89 -1430 67 93 137
-450.182 -1135.35 -1428 68 94 138
-447.96 -1135.39 -1428 70 96 140
-445.738 -1135.43 -1428 70 96 142
-442.894 -1133.88 -1426 70 96 142
-440.984 -1134.72 -1427 72 98 146
-438.454 -1133.96 -1426 72 98 146
-436.54 -1134.8 -1427 63 94 143
-434.623 -1135.63 -1428 59 90 139
-432.4 -1135.67 -1428 59 88 140
-430.778 -1137.3 -1430 63 92 144
-428.851 -1138.14 -1431 62 91 143
-426.622 -1138.18 -1431 57 86 138
-424.393 -1138.22 -1431 57 87 136
-422.459 -1139.05 -1432 60 90 139
-420.228 -1139.09 -1432 59 90 139
-417.996 -1139.13 -1432 58 89 138
-416.055 -1139.97 -1433 58 88 137
-414.399 -1141.6 -1435 59 89 138
-412.737 -1143.23 -1437 62 92 139
-410.783 -1144.06 -1438 62 92 139
-408.825 -1144.9 -1439 63 90 138
-406.581 -1144.94 -1439 66 93 141
-404.618 -1145.77 -1440 65 92 142
-402.094 -1145.01 -1439 68 95 145
-400.127 -1145.85 -1440 67 94 142
-398.158 -1146.68 -1441 66 93 141
-396.185 -1147.51 -1442 62 89 137
-394.481 -1149.14 -1444 59 86 134
-392.772 -1150.77 -1446 58 85 133
-391.326 -1153.2 -1449 53 80 128
-389.87 -1155.62 -1452 48 75 123
-676.644 -1161.35 -1463 61 70 92
-673.456 -1159.8 -1461 64 73 95
-669.814 -1157.45 -1458 67 76 98
-665.726 -1154.31 -1454 66 77 105
-661.193 -1150.37 -1449 69 80 108
-657.13 -1147.23 -1445 70 84 111
-653.533 -1144.88 -1442 69 83 110
-650.397 -1143.33 -1440 69 83 112
-646.367 -1140.18 -1436 70 84 113
-643.695 -1139.42 -1435 70 84 113
-641.026 -1138.67 -1434 72 86 115
-638.361 -1137.91 -1433 72 87 116
-634.81 -1135.56 -1430 72 87 116
-630.385 -1131.63 -1425 75 92 123
-627.298 -1130.08 -1423 76 93 124
-624.216 -1128.52 -1421 78 95 129
-620.704 -1126.18 -1418 80 97 131
-617.2 -1123.83 -1415 82 100 139
-614.575 -1123.08 -1414 84 102 141
-611.953 -1122.32 -1413 85 103 140
-609.335 -1121.56 -1412 84 102 139
-606.719 -1120.81 -1411 87 105 143
-604.535 -1120.85 -1411 86 104 142
-602.35 -1120.88 -1411 88 108 148
-600.166 -1120.92 -1411 91 111 151
-597.559 -1120.17 -1410 89 111 150
-594.954 -1119.41 -1409 87 109 148
-592.351 -1118.66 -1408 85 109 152
-590.173 -1118.7 -1408 83 107 150
-587.575 -1117.94 -1407 82 107 149
-585.813 -1118.78 -1408 80 105 147
-583.22 -1118.03 -1407 81 105 148
-581.867 -1119.66 -1409 81 105 148
-580.097 -1120.49 -1410 79 105 148
-577.504 -1119.74 -1409 81 107 150
-575.731 -1120.58 -1410 78 107 150
-573.954 -1121.41 -1411 73 102 145
-571.771 -1121.46 -1411 69 99 146
-569.585 -1121.5 -1411 69 99 146
-567.802 -1122.33 -1412 68 98 143
-566.016 -1123.17 -1413 65 95 140
-564.626 -1124.8 -1415 64 94 140
-562.037 -1124.05 -1414 64 94 140
-560.243 -1124.89 -1415 62 93 140
-558.84 -1126.52 -1417 59 90 137
-556.252 -1125.77 -1416 55 85 134
-554.45 -1126.61 -1417 53 83 132
-552.644 -1127.45 -1418 48 78 127
-551.224 -1129.08 -1420 44 74 123
-549.41 -1129.92 -1421 44 74 121
-548.363 -1132.35 -1424 44 74 121
-547.308 -1134.78 -1427 43 73 120
-546.624 -1138 -1431 40 70 117
-545.928 -1141.23 -1435 39 70 114
-544.841 -1143.66 -1438 38 69 113
-544.499 -1147.68 -1443 40 71 121
-543.389 -1150.11 -1446 39 70 120
-542.27 -1152.54 -1449 41 70 114
-541.141 -1154.97 -1452 36 65 109
-539.261 -1155.81 -1453 44 60 84
-535.988 -1173.54 -1475 29 31 41
-534.786 -1175.98 -1478 30 36 55
-532.132 -1175.23 -1477 35 41 60
-529.482 -1174.48 -1476 40 48 72
-526.12 -1172.13 -1473 42 50 74
-522.056 -1168.2 -1468 36 50 75
-517.653 -1163.47 -1462 37 51 76
-514.327 -1161.13 -1459 38 53 84
-511.36 -1159.58 -1457 41 56 87
-508.749 -1158.83 -1456 43 58 90
-505.793 -1157.28 -1454 47 62 94
-503.188 -1156.53 -1453 47 64 96
-500.588 -1155.78 -1452 46 63 95
-497.989 -1155.03 -1451 50 69 102
-494.711 -1152.68 -1448 52 71 104
-491.781 -1151.14 -1446 52 70 105
-488.519 -1148.79 -1443 52 70 105
-484.592 -1144.85 -1438 49 67 108
-481.687 -1143.3 -1436 49 67 108
-479.122 -1142.55 -1435 56 76 116
-476.227 -1141 -1433 63 83 123
-473.339 -1139.45 -1431 62 84 125
-470.785 -1138.7 -1430 61 83 124
-468.562 -1138.74 -1430 60 84 127
-466.339 -1138.78 -1430 63 87 130
-464.116 -1138.83 -1430 69 93 136
-461.569 -1138.07 -1429 72 96 139
-459.989 -1139.71 -1431 69 95 139
-457.764 -1139.75 -1431 67 93 137
-455.538 -1139.79 -1431 68 94 138
-452.995 -1139.04 -1430 67 93 137
-450.14 -1137.48 -1428 67 93 137
-448.232 -1138.32 -1429 69 95 139
-445.696 -1137.57 -1428 71 97 143
-442.853 -1136.02 -1426 74 100 146
-440.943 -1136.85 -1427 74 100 148
-438.414 -1136.1 -1426 68 94 142
-436.5 -1136.94 -1427 62 93 142
-434.583 -1137.77 -1428 61 92 141
-432.359 -1137.81 -1428 61 90 142
-431.039 -1140.24 -1431 64 93 145
-429.11 -1141.08 -1432 64 93 145
-426.88 -1141.12 -1432 60 89 141
-424.353 -1140.36 -1431 59 90 139
-422.124 -1140.4 -1431 59 90 139
-419.895 -1140.44 -1431 61 92 140
-417.957 -1141.28 -1432 61 92 140
-416.016 -1142.12 -1433 61 91 140
-414.938 -1145.34 -1437 61 91 140
-413.272 -1146.98 -1439 62 92 139
-411.315 -1147.81 -1440 61 91 138
-409.07 -1147.85 -1440 63 92 139
-407.108 -1148.69 -1441 67 96 143
-404.58 -1147.93 -1440 66 93 143
-402.335 -1147.97 -1440 66 93 143
-400.367 -1148.8 -1441 64 91 138
-398.396 -1149.64 -1442 65 92 139
-396.147 -1149.68 -1442 63 90 137
-394.444 -1151.31 -1444 61 88 135
-392.463 -1152.14 -1445 60 87 135
-391.828 -1156.96 -1451 53 80 128
-390.638 -1160.19 -1455 47 76 122
-680.735 -1166.74 -1467 60 68 90
-677.075 -1164.38 -1464 61 69 91
-672.963 -1161.23 -1460 63 73 94
-668.863 -1158.08 -1456 67 77 98
-665.235 -1155.73 -1453 67 78 106
-660.703 -1151.79 -1448 70 81 109
-657.097 -1149.43 -1445 68 82 109
-653.499 -1147.08 -1442 69 83 110
-649.91 -1144.72 -1439 71 85 114
-647.233 -1143.96 -1438 72 86 115
-644.558 -1143.2 -1437 72 86 115
-641.438 -1141.65 -1435 72 86 115
-637.88 -1139.29 -1432 72 87 116
-634.775 -1137.74 -1430 72 87 116
-630.348 -1133.79 -1425 76 93 124
-627.701 -1133.03 -1424 75 92 123
-624.18 -1130.68 -1421 75 92 126
-620.229 -1127.54 -1417 79 96 130
-617.163 -1125.98 -1415 84 102 140
-614.972 -1126.02 -1415 85 103 141
-611.916 -1124.46 -1413 85 103 139
-609.296 -1123.7 -1412 86 104 140
-606.681 -1122.95 -1411 86 104 142
-604.924 -1123.78 -1412 86 104 142
-602.312 -1123.02 -1411 88 108 148
-599.703 -1122.27 -1410 90 110 150
-597.096 -1121.51 -1409 87 109 148
-594.915 -1121.55 -1409 86 108 147
-592.734 -1121.59 -1409 85 109 152
-589.714 -1120.04 -1407 84 108 151
-587.535 -1120.07 -1407 82 106 149
-585.357 -1120.11 -1407 81 105 148
-583.179 -1120.15 -1407 81 105 148
-581.826 -1121.79 -1409 81 105 148
-579.645 -1121.83 -1409 77 103 146
-577.463 -1121.87 -1409 79 105 148
-575.281 -1121.91 -1409 78 108 151
-573.506 -1122.75 -1410 74 104 147
-571.323 -1122.79 -1410 68 98 147
-569.14 -1122.83 -1410 69 99 148
-567.76 -1124.46 -1412 68 98 143
-565.974 -1125.3 -1413 66 96 141
-563.786 -1125.35 -1413 65 95 140
-561.994 -1126.18 -1414 66 96 141
-560.596 -1127.82 -1416 64 95 142
-558.797 -1128.66 -1417 60 91 138
-556.209 -1127.9 -1416 54 84 133
-554.798 -1129.54 -1418 52 82 131
-553.381 -1131.18 -1420 48 78 127
-551.569 -1132.02 -1421 44 74 123
-550.14 -1133.65 -1423 43 73 120
-548.705 -1135.29 -1425 44 74 121
-548.031 -1138.52 -1429 42 72 119
-547.344 -1141.75 -1433 39 69 116
-546.265 -1144.19 -1436 38 70 112
-545.175 -1146.62 -1439 38 70 112
-544.077 -1149.05 -1442 41 72 123
-542.969 -1151.49 -1445 38 69 120
-541.851 -1153.92 -1448 43 71 114
-540.724 -1156.36 -1451 44 72 115
-538.845 -1157.2 -1452 50 66 90
-538.072 -1160.43 -1456 81 97 121
-535.943 -1175.76 -1475 26 27 37
-534.017 -1176.6 -1476 31 35 55
-532.087 -1177.44 -1477 36 40 60
-529.078 -1175.9 -1475 39 47 71
-525.718 -1173.55 -1472 41 49 73
-521.656 -1169.61 -1467 37 51 76
-518.316 -1167.26 -1464 39 53 78
-514.987 -1164.91 -1461 40 55 86
-510.614 -1160.17 -1455 41 56 87
-507.656 -1158.62 -1453 44 59 91
-505.4 -1158.67 -1453 49 64 96
-503.491 -1159.51 -1454 52 69 101
-500.888 -1158.76 -1453 52 69 101
-498.288 -1158 -1452 51 70 103
-495.008 -1155.65 -1449 53 72 105
-492.078 -1154.1 -1447 53 70 104
-488.137 -1150.16 -1442 53 70 104
-484.212 -1146.21 -1437 48 66 106
-481.309 -1144.66 -1435 47 65 105
-478.412 -1143.11 -1433 54 74 114
-475.852 -1142.35 -1432 59 79 119
-473.296 -1141.6 -1431 64 86 127
-470.414 -1140.05 -1429 63 85 126
-468.192 -1140.09 -1429 61 85 128
-466.297 -1140.93 -1430 63 87 130
-464.073 -1140.97 -1430 68 92 135
-461.527 -1140.22 -1429 71 95 138
-459.626 -1141.06 -1430 69 95 139
-457.722 -1141.89 -1431 69 95 139
-455.496 -1141.94 -1431 68 94 138
-453.271 -1141.98 -1431 68 94 138
-450.099 -1139.63 -1428 69 95 139
-448.191 -1140.47 -1429 69 95 139
-445.655 -1139.71 -1428 71 97 143
-443.122 -1138.95 -1427 76 102 148
-440.901 -1138.99 -1427 74 100 148
-438.373 -1138.23 -1426 64 90 138
-436.459 -1139.07 -1427 64 94 143
-434.846 -1140.71 -1429 65 95 144
-432.622 -1140.75 -1429 63 92 144
-430.999 -1142.39 -1431 62 91 143
-429.07 -1143.23 -1432 60 89 141
-426.84 -1143.27 -1432 59 88 140
-424.017 -1141.71 -1430 60 91 140
-422.084 -1142.55 -1431 59 90 139
-420.149 -1143.39 -1432 65 95 142
-418.209 -1144.22 -1433 65 95 142
-416.557 -1145.86 -1435 63 93 142
-414.898 -1147.5 -1437 62 92 141
-413.233 -1149.13 -1439 63 93 140
-411.276 -1149.97 -1440 62 92 139
-409.6 -1151.61 -1442 64 94 141
-407.069 -1150.85 -1441 67 97 144
-404.823 -1150.88 -1441 68 95 145
-402.576 -1150.92 -1441 66 93 143
-400.329 -1150.96 -1441 64 92 137
-398.358 -1151.8 -1442 66 94 139
-396.109 -1151.83 -1442 64 92 137
-394.133 -1152.67 -1443 61 89 134
-392.968 -1155.9 -1447 60 87 135
-391.791 -1159.14 -1451 53 80 128
-680.705 -1168.99 -1467 59 67 89
-677.044 -1166.62 -1464 60 68 90
-672.471 -1162.67 -1459 60 70 91
-669.293 -1161.11 -1457 64 74 95
-664.746 -1157.15 -1452 67 78 105
-661.128 -1154.79 -1449 70 81 108
-657.519 -1152.43 -1446 71 84 111
-653.466 -1149.28 -1442 72 85 112
-650.33 -1147.72 -1440 71 85 114
-647.65 -1146.95 -1439 73 87 116
-644.523 -1145.39 -1437 74 88 117
-640.956 -1143.03 -1434 73 87 116
-638.291 -1142.27 -1433 73 88 117
-635.184 -1140.71 -1431 75 90 119
-631.199 -1137.56 -1427 78 94 125
-627.666 -1135.2 -1424 78 94 125
-623.705 -1132.05 -1420 76 93 127
-620.193 -1129.69 -1417 78 95 129
-617.563 -1128.93 -1416 82 100 137
-614.936 -1128.17 -1415 84 102 139
-612.312 -1127.41 -1414 84 102 139
-609.691 -1126.65 -1413 84 102 139
-607.074 -1125.89 -1412 84 102 141
-605.315 -1126.72 -1413 86 104 143
-601.848 -1124.37 -1410 85 105 145
-599.664 -1124.4 -1410 90 110 150
-597.481 -1124.44 -1410 88 110 149
-595.298 -1124.48 -1410 84 106 145
-593.115 -1124.52 -1410 83 107 150
-590.093 -1122.96 -1408 82 106 149
-587.496 -1122.2 -1407 81 105 148
-585.317 -1122.24 -1407 79 103 146
-583.553 -1123.08 -1408 77 102 145
-581.786 -1123.92 -1409 77 102 145
-579.193 -1123.16 -1408 76 103 145
-577.013 -1123.2 -1408 79 106 148
-574.832 -1123.24 -1408 78 107 150
-572.652 -1123.28 -1408 76 105 148
-570.471 -1123.32 -1408 71 100 147
-568.695 -1124.16 -1409 70 99 146
-566.512 -1124.2 -1409 68 99 145
-564.731 -1125.04 -1410 66 97 143
-562.946 -1125.88 -1411 65 95 141
-561.158 -1126.72 -1412 65 95 141
-559.762 -1128.36 -1414 64 95 142
-558.36 -1130 -1416 62 93 140
-556.167 -1130.04 -1416 56 86 135
-554.755 -1131.68 -1418 53 83 132
-553.337 -1133.32 -1420 48 78 127
-551.914 -1134.96 -1422 44 74 123
-550.87 -1137.39 -1425 44 74 121
-549.432 -1139.03 -1427 45 75 122
-548.371 -1141.47 -1430 44 74 121
-547.301 -1143.91 -1433 43 73 120
-545.841 -1145.55 -1435 41 70 116
-544.373 -1147.19 -1437 43 72 118
-543.278 -1149.63 -1440 40 70 120
-541.797 -1151.27 -1442 38 68 118
-540.684 -1153.71 -1445 37 66 110
-540.307 -1157.74 -1450 38 67 111
-538.801 -1159.39 -1452 45 64 92
-537.658 -1161.82 -1455 76 95 123
-536.361 -1173.94 -1470 44 45 59
-535.171 -1176.38 -1473 26 27 41
-534.333 -1179.62 -1477 22 25 44
-532.042 -1179.66 -1477 35 38 57
-528.674 -1177.31 -1474 38 45 67
-525.316 -1174.96 -1471 40 47 69
-521.255 -1171.01 -1466 36 50 75
-517.564 -1167.86 -1462 38 52 77
-513.885 -1164.71 -1458 40 55 86
-510.92 -1163.16 -1456 42 57 88
-507.612 -1160.8 -1453 45 60 92
-505.356 -1160.85 -1453 48 63 95
-502.754 -1160.09 -1452 49 67 99
-500.499 -1160.14 -1452 51 69 101
-497.901 -1159.38 -1451 52 71 103
-494.965 -1157.83 -1449 55 74 106
-491.354 -1154.68 -1445 56 73 107
-487.756 -1151.52 -1441 53 70 104
-483.832 -1147.57 -1436 51 69 110
-481.266 -1146.81 -1435 51 69 110
-478.368 -1145.26 -1433 52 74 114
-475.477 -1143.7 -1431 59 81 121
-472.923 -1142.95 -1430 64 87 130
-470.371 -1142.19 -1429 63 86 129
-468.149 -1142.23 -1429 62 86 129
-466.254 -1143.07 -1430 65 89 132
-464.032 -1143.12 -1430 70 94 137
-461.162 -1141.56 -1428 74 98 141
-459.584 -1143.2 -1430 73 99 143
-457.68 -1144.04 -1431 72 98 142
-455.136 -1143.28 -1430 71 96 139
-452.912 -1143.32 -1430 71 96 139
-450.688 -1143.36 -1430 70 96 140
-448.463 -1143.41 -1430 70 96 140
-445.926 -1142.65 -1429 73 99 146
-443.082 -1141.09 -1427 75 101 148
-441.17 -1141.93 -1428 72 98 146
-438.948 -1141.97 -1428 68 94 142
-437.03 -1142.81 -1429 65 95 145
-435.11 -1143.65 -1430 65 95 145
-433.187 -1144.49 -1431 64 95 146
-431.561 -1146.13 -1433 63 94 145
-429.629 -1146.97 -1434 61 91 141
-426.8 -1145.41 -1432 58 88 138
-424.867 -1146.25 -1433 58 89 138
-422.339 -1145.49 -1432 60 91 140
-420.109 -1145.53 -1432 64 94 142
-418.462 -1147.17 -1434 64 94 142
-416.518 -1148.01 -1435 63 94 142
-415.148 -1150.45 -1438 63 94 142
-413.481 -1152.09 -1440 65 95 142
-411.523 -1152.93 -1441 66 96 143
-409.561 -1153.77 -1442 67 96 143
-407.031 -1153 -1441 68 97 144
-405.065 -1153.84 -1442 68 96 146
-402.538 -1153.08 -1441 67 95 145
-400.291 -1153.12 -1441 64 91 138
-398.32 -1153.96 -1442 62 89 136
-396.071 -1154 -1442 63 90 137
-394.368 -1155.63 -1444 63 90 137
-392.931 -1158.07 -1447 59 86 134
-680.675 -1171.23 -1467 60 68 90
-677.015 -1168.87 -1464 61 69 91
-673.824 -1167.3 -1462 60 70 91
-669.722 -1164.13 -1458 63 73 94
-665.173 -1160.17 -1453 66 78 103
-662.466 -1159.4 -1452 70 82 107
-657.943 -1155.44 -1447 71 82 110
-653.888 -1152.28 -1443 70 81 109
-650.297 -1149.91 -1440 68 83 112
-647.166 -1148.35 -1438 71 86 115
-644.938 -1148.38 -1438 73 88 117
-641.818 -1146.82 -1436 73 88 117
-639.148 -1146.05 -1435 74 89 118
-636.037 -1144.49 -1433 76 91 120
-632.491 -1142.13 -1430 77 92 123
-628.513 -1138.97 -1426 78 93 124
-624.548 -1135.8 -1422 76 93 127
-620.596 -1132.65 -1418 77 94 128
-617.963 -1131.88 -1417 81 99 135
-614.899 -1130.32 -1415 84 102 138
-612.276 -1129.56 -1414 85 103 141
-609.654 -1128.79 -1413 86 104 142
-607.466 -1128.83 -1413 85 102 142
-605.278 -1128.86 -1413 86 103 143
-602.236 -1127.3 -1411 85 105 145
-600.051 -1127.34 -1411 89 109 149
-597.866 -1127.38 -1411 89 111 150
-595.26 -1126.62 -1410 88 110 149
-593.076 -1126.65 -1410 87 111 154
-590.055 -1125.09 -1408 83 107 150
-587.875 -1125.13 -1408 81 105 149
-585.694 -1125.17 -1408 79 103 147
-583.1 -1124.41 -1407 77 103 146
-581.334 -1125.25 -1408 77 103 146
-578.742 -1124.49 -1407 75 103 145
-576.563 -1124.53 -1407 77 105 147
-574.792 -1125.37 -1408 79 107 150
-573.018 -1126.21 -1409 80 108 151
-570.836 -1126.25 -1409 73 101 146
-568.654 -1126.29 -1409 71 99 144
-566.471 -1126.33 -1409 66 97 144
-564.689 -1127.17 -1410 65 96 143
-562.904 -1128.01 -1411 64 94 141
-561.116 -1128.85 -1412 65 95 142
-559.72 -1130.49 -1414 64 94 141
-558.319 -1132.13 -1416 61 91 138
-556.91 -1133.77 -1418 61 91 140
-555.496 -1135.41 -1420 55 85 134
-554.075 -1137.06 -1422 49 79 128
-552.648 -1138.7 -1424 46 76 125
-551.601 -1141.14 -1427 46 76 123
-550.159 -1142.78 -1429 46 76 123
-549.095 -1145.22 -1432 45 75 122
-547.639 -1146.87 -1434 45 75 122
-545.797 -1147.71 -1435 48 74 124
-544.709 -1150.15 -1438 47 73 123
-543.235 -1151.79 -1440 43 70 120
-541.753 -1153.44 -1442 39 66 116
-540.266 -1155.08 -1444 35 65 110
-539.518 -1158.32 -1448 33 63 108
-538.386 -1160.77 -1451 40 61 92
-536.875 -1162.41 -1453 69 90 121
-536.461 -1166.46 -1458 129 135 152
-534.399 -1176.99 -1471 22 24 42
-533.203 -1179.44 -1474 21 23 41
-530.916 -1179.48 -1474 34 36 54
-527.553 -1177.12 -1471 39 45 65
-524.556 -1175.57 -1469 42 48 68
-520.855 -1172.41 -1465 38 52 77
-517.165 -1169.26 -1461 40 54 79
-513.84 -1166.9 -1458 41 56 87
-510.525 -1164.54 -1455 43 58 89
-507.218 -1162.18 -1452 46 61 93
-504.964 -1162.23 -1452 48 63 95
-502.364 -1161.47 -1451 47 66 97
-500.111 -1161.52 -1451 50 69 100
-497.514 -1160.76 -1450 54 73 104
-494.238 -1158.4 -1447 55 74 105
-490.971 -1156.04 -1444 54 71 105
-487.712 -1153.68 -1441 53 70 104
-484.126 -1150.52 -1437 51 69 111
-481.223 -1148.97 -1435 51 69 111
-477.992 -1146.61 -1432 52 74 115
-475.435 -1145.85 -1431 57 79 120
-473.211 -1145.89 -1431 62 86 130
-470.987 -1145.93 -1431 61 85 129
-468.435 -1145.17 -1430 62 86 129
-466.212 -1145.22 -1430 67 91 134
-463.665 -1144.46 -1429 71 95 138
-461.443 -1144.5 -1429 73 97 140
-459.543 -1145.34 -1430 70 96 140
-457.638 -1146.18 -1431 69 95 139
-455.095 -1145.43 -1430 71 95 138
-452.871 -1145.47 -1430 72 96 139
-450.331 -1144.71 -1429 72 98 142
-448.422 -1145.55 -1430 74 100 144
-445.885 -1144.79 -1429 74 100 148
-443.351 -1144.03 -1428 75 101 149
-441.129 -1144.07 -1428 74 100 148
-439.214 -1144.91 -1429 71 97 145
-437.296 -1145.75 -1430 66 95 147
-435.374 -1146.6 -1431 65 94 146
-433.449 -1147.44 -1432 63 94 145
-431.822 -1149.08 -1434 63 94 145
-429.589 -1149.12 -1434 63 93 142
-427.356 -1149.16 -1434 60 90 139
-424.827 -1148.4 -1433 59 89 138
-422.3 -1147.64 -1432 60 90 139
-420.363 -1148.48 -1433 63 93 142
-418.423 -1149.32 -1434 64 94 143
-416.769 -1150.96 -1436 63 94 141
-415.397 -1153.4 -1439 61 92 139
-413.442 -1154.24 -1440 62 92 139
-411.77 -1155.89 -1442 64 94 141
-409.522 -1155.93 -1442 67 94 142
-406.992 -1155.16 -1441 68 95 143
-405.027 -1156 -1442 67 97 146
-402.5 -1155.24 -1441 68 98 147
-400.253 -1155.28 -1441 68 95 143
-398.006 -1155.32 -1441 64 91 139
-395.759 -1155.35 -1441 63 90 138
-393.785 -1156.19 -1442 63 90 138
-392.079 -1157.83 -1444 59 86 134
-391.446 -1162.68 -1450 54 81 129
-683.387 -1174.25 -1468 57 61 81
-681.112 -1174.28 -1468 58 66 88
-677.449 -1171.91 -1465 61 69 91
-673.796 -1169.54 -1462 63 73 94
-669.691 -1166.36 -1458 65 75 96
-666.059 -1163.99 -1455 67 79 104
-661.067 -1159.22 -1449 70 82 107
-657.001 -1156.05 -1445 70 81 109
-653.856 -1154.48 -1443 69 80 108
-651.169 -1153.71 -1442 69 83 112
-647.585 -1151.35 -1439 73 87 116
-645.356 -1151.38 -1439 73 88 117
-641.785 -1149.01 -1436 72 87 116
-639.115 -1148.24 -1435 73 88 117
-636.004 -1146.67 -1433 74 89 118
-631.131 -1141.9 -1427 75 90 121
-628.039 -1140.34 -1425 78 93 124
-624.075 -1137.17 -1421 76 93 127
-620.561 -1134.8 -1418 77 94 128
-617.929 -1134.04 -1417 81 99 135
-615.3 -1133.27 -1416 84 102 138
-612.673 -1132.5 -1415 84 102 139
-610.051 -1131.74 -1414 85 103 140
-607.43 -1130.97 -1413 85 103 142
-605.67 -1131.81 -1414 86 104 143
-602.627 -1130.25 -1412 87 107 147
-600.44 -1130.28 -1412 90 110 150
-597.83 -1129.52 -1411 89 111 150
-595.223 -1128.76 -1410 89 111 150
-593.038 -1128.79 -1410 87 111 154
-590.017 -1127.23 -1408 83 107 150
-587.837 -1127.27 -1408 83 107 151
-585.656 -1127.3 -1408 80 104 148
-582.647 -1125.74 -1406 79 105 148
-580.882 -1126.58 -1407 79 105 148
-578.291 -1125.82 -1406 77 105 147
-576.524 -1126.66 -1407 77 105 147
-574.753 -1127.5 -1408 79 107 150
-572.978 -1128.34 -1409 80 108 151
-570.795 -1128.38 -1409 75 103 148
-568.209 -1127.62 -1408 70 98 143
-566.029 -1127.66 -1408 64 95 142
-564.649 -1129.3 -1410 62 93 140
-562.464 -1129.34 -1410 63 93 139
-560.677 -1130.18 -1411 65 95 141
-559.679 -1132.63 -1414 64 94 141
-558.671 -1135.07 -1417 60 90 137
-556.868 -1135.91 -1418 61 91 139
-555.845 -1138.36 -1421 56 86 134
-554.422 -1140 -1423 52 82 131
-552.993 -1141.64 -1425 49 79 128
-551.944 -1144.09 -1428 45 75 122
-550.501 -1145.73 -1430 43 73 120
-549.052 -1147.38 -1432 45 75 122
-547.596 -1149.02 -1434 49 79 126
-546.135 -1150.67 -1436 47 73 123
-544.666 -1152.32 -1438 44 70 120
-543.191 -1153.96 -1440 40 68 117
-541.334 -1154.81 -1441 38 66 115
-539.849 -1156.45 -1443 37 66 111
-539.101 -1159.7 -1447 32 61 106
-537.6 -1161.35 -1449 37 57 90
-536.461 -1163.8 -1452 58 78 111
-536.049 -1167.85 -1457 125 131 149
-532.435 -1180.05 -1472 19 21 39
-530.151 -1180.09 -1472 29 31 49
-527.509 -1179.33 -1471 36 42 62
-524.155 -1176.97 -1468 42 48 68
-520.811 -1174.61 -1465 40 53 77
-517.121 -1171.45 -1461 43 56 80
-513.444 -1168.29 -1457 42 57 87
-510.13 -1165.92 -1454 44 59 89
-507.175 -1164.36 -1452 47 62 95
-504.573 -1163.61 -1451 47 62 95
-502.32 -1163.65 -1451 45 64 96
-500.067 -1163.69 -1451 48 67 99
-497.814 -1163.74 -1451 52 71 103
-494.195 -1160.57 -1447 53 72 104
-490.927 -1158.21 -1444 53 70 104
-488.008 -1156.65 -1442 52 69 103
-483.746 -1151.88 -1436 51 69 110
-480.845 -1150.32 -1434 51 69 110
-477.949 -1148.75 -1432 53 75 116
-475.392 -1147.99 -1431 59 81 122
-472.838 -1147.23 -1430 61 85 129
-470.615 -1147.28 -1430 61 85 129
-468.393 -1147.32 -1430 64 88 131
-466.17 -1147.36 -1430 68 92 135
-463.947 -1147.4 -1430 71 95 138
-461.401 -1146.64 -1429 71 95 138
-459.501 -1147.49 -1430 67 93 137
-457.277 -1147.53 -1430 66 92 136
-455.054 -1147.57 -1430 68 92 135
-452.513 -1146.81 -1429 69 93 136
-450.29 -1146.85 -1429 72 98 143
-448.067 -1146.89 -1429 74 100 145
-445.844 -1146.93 -1429 72 98 146
-443.621 -1146.97 -1429 72 98 146
-441.088 -1146.21 -1428 73 99 146
-439.481 -1147.86 -1430 72 98 145
-437.255 -1147.9 -1430 66 95 147
-435.334 -1148.74 -1431 63 92 144
-433.107 -1148.78 -1431 61 92 143
-431.481 -1150.43 -1433 63 94 145
-429.549 -1151.27 -1434 65 95 144
-427.018 -1150.5 -1433 64 94 143
-424.491 -1149.74 -1432 62 92 141
-422.85 -1151.39 -1434 61 91 140
-420.91 -1152.23 -1435 62 92 141
-418.967 -1153.07 -1436 62 92 141
-417.31 -1154.72 -1438 61 92 139
-415.647 -1156.36 -1440 59 90 137
-413.978 -1158.01 -1442 61 91 138
-412.016 -1158.85 -1443 64 94 141
-409.767 -1158.89 -1443 68 95 143
-407.236 -1158.12 -1442 67 94 142
-405.269 -1158.97 -1443 66 96 145
-402.741 -1158.2 -1442 68 98 147
-400.215 -1157.44 -1441 68 95 143
-398.244 -1158.28 -1442 65 92 140
-395.721 -1157.51 -1441 64 91 139
-393.474 -1157.55 -1441 63 90 138
-392.041 -1160 -1444 60 86 134
-391.139 -1164.05 -1449 54 80 128
-390.757 -1169.71 -1456 48 78 127
-680.621 -1175.73 -1467 56 64 86
-677.422 -1174.16 -1465 61 69 91
-673.767 -1171.78 -1462 64 74 95
-670.122 -1169.4 -1459 67 77 98
-666.03 -1166.22 -1455 67 79 104
-661.949 -1163.04 -1451 70 82 107
-657.881 -1159.87 -1447 69 80 108
-655.639 -1159.9 -1447 69 80 108
-651.591 -1156.72 -1443 71 85 114
-648.004 -1154.35 -1440 73 87 116
-645.772 -1154.38 -1440 72 87 116
-642.2 -1152 -1437 71 86 115
-638.638 -1149.63 -1434 71 86 115
-635.529 -1148.06 -1432 71 86 115
-630.656 -1143.28 -1426 74 89 120
-628.006 -1142.51 -1425 77 92 123
-624.042 -1139.33 -1421 77 94 128
-620.528 -1136.96 -1418 79 96 130
-617.894 -1136.19 -1417 81 99 135
-615.266 -1135.43 -1416 83 101 137
-612.639 -1134.66 -1415 82 100 136
-610.016 -1133.89 -1414 83 101 137
-607.394 -1133.12 -1413 85 103 141
-605.635 -1133.96 -1414 85 103 141
-602.591 -1132.39 -1412 86 106 146
-599.554 -1130.82 -1410 91 111 151
-596.946 -1130.06 -1409 89 111 150
-594.764 -1130.09 -1409 88 110 149
-592.581 -1130.13 -1409 85 109 152
-589.561 -1128.56 -1407 83 107 150
-587.381 -1128.6 -1407 83 107 151
-585.202 -1128.64 -1407 81 105 149
-582.609 -1127.87 -1406 80 106 149
-580.431 -1127.91 -1406 81 107 150
-577.841 -1127.15 -1405 79 107 149
-576.074 -1127.98 -1406 79 107 149
-574.305 -1128.83 -1407 79 107 150
-572.533 -1129.67 -1408 78 106 149
-569.947 -1128.91 -1407 76 104 149
-567.363 -1128.14 -1406 69 97 142
-565.587 -1128.98 -1407 63 93 140
-563.808 -1129.83 -1408 62 92 139
-561.626 -1129.86 -1408 62 92 137
-560.637 -1132.31 -1411 64 94 139
-559.639 -1134.76 -1414 64 94 141
-558.63 -1137.21 -1417 60 90 137
-556.827 -1138.05 -1418 57 87 134
-555.803 -1140.5 -1421 56 86 133
-554.77 -1142.95 -1424 55 85 134
-553.34 -1144.6 -1426 50 80 129
-551.903 -1146.24 -1428 43 73 120
-550.074 -1147.09 -1429 40 70 117
-549.01 -1149.54 -1432 44 74 121
-547.555 -1151.19 -1434 48 78 125
-545.712 -1152.03 -1435 43 70 120
-543.866 -1152.88 -1436 39 66 116
-542.772 -1155.33 -1439 34 64 111
-541.291 -1156.97 -1441 33 63 110
-539.806 -1158.62 -1443 36 64 109
-538.686 -1161.08 -1446 34 62 107
-537.186 -1162.72 -1448 39 57 93
-536.787 -1166.78 -1453 52 70 106
-532.029 -1181.46 -1471 21 23 41
-530.467 -1183.11 -1473 27 29 47
-527.823 -1182.35 -1472 34 40 60
-524.111 -1179.18 -1468 43 49 69
-520.411 -1176.01 -1464 43 55 78
-517.078 -1173.64 -1461 46 58 81
-513.753 -1171.28 -1458 44 59 88
-510.437 -1168.91 -1455 44 59 88
-507.48 -1167.35 -1453 47 62 96
-504.877 -1166.59 -1452 47 62 96
-502.969 -1167.43 -1453 44 63 96
-500.368 -1166.67 -1452 46 65 98
-497.771 -1165.91 -1451 50 69 102
-494.151 -1162.74 -1447 51 70 103
-491.564 -1161.98 -1446 52 69 103
-488.303 -1159.61 -1443 51 68 102
-484.378 -1155.64 -1438 51 69 109
-481.473 -1154.07 -1436 53 71 111
-478.574 -1152.51 -1434 55 77 118
-475.682 -1150.94 -1432 60 82 123
-473.127 -1150.18 -1431 61 85 129
-470.574 -1149.42 -1430 62 86 130
-468.351 -1149.46 -1430 64 88 131
-466.455 -1150.31 -1431 67 91 134
-463.906 -1149.55 -1430 69 93 136
-461.36 -1148.78 -1429 69 93 136
-459.138 -1148.82 -1429 66 92 136
-456.916 -1148.87 -1429 66 92 136
-454.694 -1148.91 -1429 68 92 136
-452.155 -1148.14 -1428 69 93 137
-449.934 -1148.19 -1428 70 98 143
-448.34 -1149.83 -1430 72 100 145
-446.115 -1149.88 -1430 70 96 144
-443.89 -1149.92 -1430 70 96 144
-441.666 -1149.96 -1430 73 99 145
-439.133 -1149.19 -1429 72 98 144
-437.215 -1150.04 -1430 66 95 147
-435.293 -1150.88 -1431 63 92 144
-433.369 -1151.73 -1432 60 91 142
-431.441 -1152.57 -1433 62 93 144
-429.509 -1153.41 -1434 65 95 144
-426.979 -1152.65 -1433 66 96 145
-425.044 -1153.5 -1434 64 94 143
-422.811 -1153.54 -1434 63 93 142
-420.871 -1154.38 -1435 62 92 141
-419.219 -1156.03 -1437 61 91 140
-417.561 -1157.67 -1439 60 91 138
-416.185 -1160.13 -1442 60 91 138
-414.226 -1160.97 -1443 62 92 139
-411.977 -1161.01 -1443 66 96 143
-410.013 -1161.85 -1444 69 96 144
-407.48 -1161.09 -1443 68 95 143
-405.231 -1161.13 -1443 63 93 142
-402.702 -1160.36 -1442 65 95 144
-400.177 -1159.59 -1441 67 94 142
-398.206 -1160.44 -1442 65 92 140
-395.409 -1158.86 -1440 64 91 139
-393.437 -1159.71 -1441 61 88 136
-392.004 -1162.16 -1444 57 83 131
-391.101 -1166.22 -1449 52 78 126
-390.988 -1172.7 -1457 51 81 130
-680.594 -1177.98 -1467 57 65 87
-677.395 -1176.4 -1465 61 69 91
-674.2 -1174.82 -1463 64 73 95
-670.555 -1172.44 -1460 66 75 97
-667.376 -1170.86 -1458 67 79 104
-663.746 -1168.48 -1455 69 81 106
-659.671 -1165.29 -1451 70 81 109
-655.611 -1162.11 -1447 71 82 110
-652.013 -1159.73 -1444 71 85 114
-649.324 -1158.96 -1443 72 86 115
-646.19 -1157.38 -1441 71 86 115
-642.17 -1154.2 -1437 71 86 115
-639.051 -1152.62 -1435 71 86 115
-636.384 -1151.85 -1434 69 84 113
-631.951 -1147.86 -1429 72 87 118
-628.414 -1145.49 -1426 77 92 123
-624.888 -1143.11 -1423 79 96 130
-621.808 -1141.53 -1421 81 98 132
-618.298 -1139.16 -1418 81 99 134
-615.231 -1137.58 -1416 81 99 134
-612.605 -1136.81 -1415 81 99 135
-609.981 -1136.04 -1414 85 103 139
-607.36 -1135.27 -1413 85 103 141
-604.744 -1134.5 -1412 80 98 136
-601.702 -1132.93 -1410 82 103 141
-599.093 -1132.16 -1409 89 110 148
-596.487 -1131.39 -1408 89 111 150
-594.304 -1131.43 -1408 87 109 148
-592.124 -1131.46 -1408 83 107 150
-589.524 -1130.7 -1407 83 107 150
-587.345 -1130.73 -1407 82 106 149
-584.75 -1129.97 -1406 82 106 149
-582.571 -1130 -1406 82 108 151
-579.567 -1128.43 -1404 82 108 151
-577.392 -1128.47 -1404 80 108 150
-575.627 -1129.31 -1405 80 108 150
-573.859 -1130.15 -1406 80 108 151
-571.68 -1130.19 -1406 78 106 149
-570.312 -1131.84 -1408 75 103 148
-568.13 -1131.87 -1408 70 98 143
-566.352 -1132.72 -1409 64 94 141
-563.769 -1131.95 -1408 63 93 140
-561.587 -1131.99 -1408 63 93 138
-560.2 -1133.64 -1410 64 94 139
-559.203 -1136.09 -1413 63 93 140
-558.196 -1138.54 -1416 61 91 138
-556.787 -1140.19 -1418 56 86 133
-555.763 -1142.64 -1421 56 86 133
-554.34 -1144.29 -1423 55 85 134
-552.911 -1145.94 -1425 50 80 129
-551.088 -1146.79 -1426 45 75 122
-549.648 -1148.44 -1428 44 74 121
-548.585 -1150.89 -1431 44 74 121
-547.131 -1152.54 -1433 43 73 120
-545.289 -1153.39 -1434 38 66 116
-544.202 -1155.84 -1437 36 64 114
-542.729 -1157.49 -1439 34 64 110
-541.249 -1159.14 -1441 33 63 109
-540.137 -1161.6 -1444 37 66 110
-539.388 -1164.86 -1448 38 67 111
-537.884 -1166.51 -1450 45 64 101
-537.114 -1169.77 -1454 47 66 103
-529.703 -1183.71 -1471 29 31 49
-527.062 -1182.95 -1470 33 40 61
-523.71 -1180.58 -1467 42 49 70
-520.723 -1179.01 -1465 45 56 79
-517.388 -1176.64 -1462 49 60 83
-513.71 -1173.47 -1458 46 60 89
-510.745 -1171.9 -1456 44 58 87
-507.437 -1169.53 -1453 45 60 94
-505.182 -1169.57 -1453 46 61 95
-503.272 -1170.42 -1454 43 62 95
-500.325 -1168.85 -1452 46 65 98
-497.728 -1168.09 -1451 49 68 101
-494.791 -1166.52 -1449 51 70 103
-491.861 -1164.96 -1447 51 68 102
-488.599 -1162.58 -1444 51 68 102
-485.345 -1160.21 -1441 52 71 111
-482.437 -1158.64 -1439 55 74 114
-479.2 -1156.27 -1436 56 78 119
-476.305 -1154.7 -1434 59 81 122
-473.745 -1153.94 -1433 63 86 130
-470.531 -1151.56 -1430 64 87 131
-468.637 -1152.41 -1431 64 88 131
-466.413 -1152.45 -1431 65 89 132
-464.188 -1152.49 -1431 66 90 133
-461.641 -1151.73 -1430 68 92 135
-459.418 -1151.77 -1430 66 92 136
-457.194 -1151.81 -1430 65 91 135
-454.652 -1151.05 -1429 69 93 137
-452.43 -1151.09 -1429 69 93 137
