ply
format ascii 1.0
comment Created by Open3D
element vertex 1393
property double x
property double y
property double z
property uchar red
property uchar green
property uchar blue
end_header
-70.7036 -403.821 -1981 162 162 200
-66.7146 -403.801 -1981 132 133 171
-62.6627 -403.376 -1979 164 167 204
-434.539 -408.858 -1954 72 79 119
-433.715 -411.87 -1969 49 55 102
-429.995 -412.164 -1971 127 133 180
-425.407 -411.622 -1969 162 168 213
-419.547 -409.828 -1961 133 139 185
-414.995 -409.29 -1959 128 134 178
-411.504 -409.797 -1962 119 126 165
-406.966 -409.261 -1960 84 91 125
-401.413 -407.683 -1953 105 112 145
-396.909 -407.151 -1951 131 137 173
-392.215 -406.411 -1948 126 132 165
-387.937 -406.091 -1947 163 170 201
-382.483 -404.52 -1940 178 186 220
-378.426 -404.411 -1940 187 195 229
-373.023 -402.844 -1933 199 207 241
-368.033 -401.695 -1928 196 203 239
-363.823 -401.382 -1927 118 126 163
-359.434 -400.862 -1925 151 160 204
-354.686 -399.927 -1921 181 191 237
-350.688 -399.826 -1921 189 198 246
-347.235 -400.35 -1924 197 208 250
-343.238 -400.251 -1924 191 201 246
-339.772 -400.778 -1927 189 196 246
-336.296 -401.305 -1930 169 177 220
-332.295 -401.209 -1930 146 154 196
-328.296 -401.115 -1930 121 128 166
-324.468 -401.229 -1931 127 133 169
-321.469 -402.384 -1937 111 116 150
-317.464 -402.293 -1937 131 138 173
-314.595 -403.656 -1944 128 135 172
-310.261 -403.152 -1942 172 178 217
-306.57 -403.479 -1944 159 167 205
-302.405 -403.185 -1943 129 136 174
-298.401 -403.099 -1943 139 143 180
-293.794 -402.185 -1939 162 166 205
-290.401 -402.932 -1943 168 173 213
-286.109 -402.435 -1941 165 171 211
-282.265 -402.562 -1942 137 144 186
-278.132 -402.275 -1941 129 136 183
-274.57 -402.818 -1944 160 168 216
-270.859 -403.155 -1946 87 95 144
-267.006 -403.286 -1947 43 46 96
-263.69 -404.246 -1952 33 34 79
-259.692 -404.172 -1952 38 39 79
-255.695 -404.099 -1952 98 99 134
-251.7 -404.027 -1952 138 139 175
-247.708 -403.956 -1952 150 153 188
-243.718 -403.887 -1952 151 155 193
-239.852 -404.025 -1953 143 148 186
-235.743 -403.751 -1952 134 141 179
-231.522 -403.271 -1950 75 81 116
-227.427 -403 -1949 30 34 68
-222.879 -401.902 -1944 34 34 67
-219.03 -402.047 -1945 36 35 71
-214.846 -401.572 -1943 39 37 80
-211.215 -402.132 -1946 38 36 77
-207.254 -402.073 -1946 49 46 86
-203.922 -403.254 -1952 35 38 85
-200.055 -403.404 -1953 27 31 81
-196.286 -403.761 -1955 25 30 85
-192.51 -404.119 -1957 32 36 89
-188.342 -403.653 -1955 39 43 95
-183.996 -402.774 -1951 51 54 105
-180.221 -403.136 -1953 86 88 135
-176.529 -403.705 -1956 158 159 203
-172.386 -403.243 -1954 159 158 197
-168.252 -402.782 -1952 122 122 161
-164.212 -402.529 -1951 114 117 155
-160.26 -402.484 -1951 105 109 146
-156.309 -402.439 -1951 111 115 152
-152.437 -402.602 -1952 112 116 152
-148.486 -402.56 -1952 118 122 158
-144.685 -402.931 -1954 118 122 159
-140.301 -401.654 -1948 76 81 113
-136.362 -401.615 -1948 63 68 100
-132.56 -401.989 -1950 153 156 192
-128.355 -401.128 -1946 189 195 230
-124.424 -401.093 -1946 196 203 239
-120.493 -401.058 -1946 168 174 226
-116.743 -401.643 -1949 86 92 155
-112.866 -401.817 -1950 81 86 164
-108.986 -401.992 -1951 66 73 152
-105.265 -402.786 -1955 90 96 175
-101.372 -402.963 -1956 67 72 148
-97.7759 -404.377 -1963 67 72 146
-93.8172 -404.35 -1963 103 108 181
-90.1341 -405.56 -1969 84 88 153
-86.0774 -405.124 -1967 68 72 136
-82.1129 -405.1 -1967 76 79 141
-78.2683 -405.696 -1970 137 140 190
-74.4877 -406.704 -1975 166 167 214
-70.6875 -407.713 -1980 148 148 186
-66.6995 -407.694 -1980 133 135 172
-62.6484 -407.264 -1978 165 168 205
-58.1612 -403.747 -1961 139 142 176
-434.443 -412.762 -1953 56 63 106
-434.281 -416.439 -1971 46 52 101
-430.338 -416.523 -1972 133 139 185
-425.53 -415.765 -1969 164 170 214
-419.668 -413.953 -1961 140 147 193
-415.115 -413.409 -1959 148 155 199
-410.994 -413.288 -1959 95 100 139
-406.253 -412.536 -1956 70 76 110
-401.118 -411.364 -1951 125 132 165
-396.21 -410.405 -1947 164 171 208
-391.725 -409.869 -1945 156 163 198
-387.052 -409.124 -1942 166 173 206
-382.199 -408.169 -1938 183 191 226
-377.755 -407.638 -1936 193 201 236
-373.131 -406.898 -1933 191 200 235
-368.139 -405.738 -1928 200 209 248
-363.739 -405.211 -1926 145 154 196
-359.537 -404.895 -1925 108 119 175
-354.973 -404.161 -1922 161 172 229
-350.972 -404.059 -1922 175 186 243
-346.974 -403.958 -1922 186 198 243
-342.979 -403.858 -1922 181 191 237
-339.869 -404.81 -1927 173 180 229
-336.219 -405.132 -1929 162 170 213
-332.39 -405.246 -1930 162 170 212
-328.731 -405.57 -1932 140 147 185
-324.898 -405.686 -1933 132 137 173
-321.395 -406.222 -1936 153 157 193
-317.227 -405.92 -1935 156 163 199
-314.199 -407.088 -1941 116 123 159
-310.35 -407.208 -1942 169 176 211
-306.5 -407.329 -1943 176 184 221
-302.648 -407.451 -1944 146 154 191
-298.64 -407.364 -1944 155 159 196
-294.636 -407.279 -1944 165 169 208
-290.185 -406.566 -1941 162 166 207
-286.781 -407.321 -1945 167 173 214
-282.636 -407.03 -1944 151 157 201
-278.211 -406.321 -1941 138 145 193
-274.366 -406.452 -1942 134 143 193
-270.658 -406.792 -1944 75 84 135
-266.945 -407.133 -1946 49 52 107
-263.36 -407.685 -1949 33 34 81
-259.766 -408.237 -1952 41 42 82
-255.637 -407.955 -1951 75 76 111
-251.514 -407.673 -1950 114 115 151
-247.779 -408.02 -1952 105 107 145
-243.787 -407.949 -1952 96 100 139
-240.044 -408.298 -1954 137 141 180
-235.931 -408.021 -1953 135 141 179
-231.706 -407.537 -1951 90 95 131
-227.725 -407.471 -1951 35 38 72
-223.287 -406.571 -1947 34 33 66
-219.317 -406.508 -1947 34 33 67
-214.907 -405.611 -1943 38 36 76
-211.275 -406.176 -1946 40 39 80
-207.526 -406.534 -1948 46 45 88
-203.771 -406.893 -1950 49 53 108
-200.112 -407.461 -1953 44 48 107
-196.542 -408.239 -1957 36 41 106
-192.663 -408.392 -1958 38 44 102
-188.492 -407.921 -1956 46 51 108
-184.52 -407.868 -1956 48 52 106
-180.641 -408.024 -1957 57 58 106
-176.399 -407.348 -1954 105 105 149
-172.17 -406.673 -1951 115 114 151
-168.472 -407.25 -1954 124 125 162
-164.343 -406.786 -1952 126 129 167
-160.469 -406.948 -1953 122 126 161
-156.433 -406.695 -1952 120 124 159
-152.714 -407.276 -1955 134 139 173
-148.528 -406.608 -1952 167 171 205
-144.652 -406.775 -1953 163 167 201
-140.484 -406.109 -1950 144 149 180
-136.54 -406.07 -1950 58 63 94
-132.393 -405.407 -1947 95 98 133
-128.391 -405.162 -1946 182 187 221
-124.331 -404.71 -1944 195 201 234
-120.651 -405.508 -1948 172 177 231
-116.656 -405.266 -1947 96 101 168
-112.898 -405.858 -1950 90 95 181
-108.961 -405.826 -1950 46 52 137
-105.348 -407.045 -1956 86 91 175
-101.505 -407.432 -1958 64 69 143
-97.6539 -407.819 -1960 41 47 114
-93.8436 -408.416 -1963 59 65 128
-90.0678 -409.223 -1967 67 70 133
-86.0578 -408.99 -1966 74 77 138
-82.0108 -408.55 -1964 103 106 165
-78.3301 -409.983 -1971 146 148 197
-74.4709 -410.586 -1974 129 130 177
-70.7432 -412.021 -1981 121 121 159
-66.7519 -412.001 -1981 125 127 165
-62.7928 -412.191 -1982 133 136 174
-58.3557 -409.055 -1967 110 113 147
-433.903 -416.238 -1950 38 45 90
-433.528 -419.738 -1967 62 67 118
-429.592 -419.824 -1968 147 153 199
-425.439 -419.698 -1968 159 167 207
-419.792 -418.081 -1961 143 150 195
-415.237 -417.532 -1959 142 149 192
-411.534 -417.836 -1961 144 148 187
-406.58 -416.863 -1957 133 137 173
-400.824 -415.041 -1949 166 170 205
-396.936 -415.136 -1950 164 171 209
-392.242 -414.382 -1947 163 170 206
-386.966 -412.991 -1941 145 152 186
-382.507 -412.452 -1939 166 174 210
-377.865 -411.703 -1936 183 192 229
-372.467 -410.104 -1929 189 199 237
-368.629 -410.208 -1930 201 211 252
-364.034 -409.463 -1927 162 172 218
-359.829 -409.145 -1926 87 97 170
-355.261 -408.403 -1923 75 87 156
-351.074 -408.087 -1922 105 117 184
-346.714 -407.561 -1920 140 152 201
-342.901 -407.672 -1921 164 174 223
-339.262 -407.997 -1923 168 175 223
-335.793 -408.535 -1926 146 154 197
-331.97 -408.65 -1927 154 162 204
-328.656 -409.402 -1931 163 170 208
-324.992 -409.73 -1933 132 137 175
-321.156 -409.848 -1934 136 140 176
-317.483 -410.179 -1936 131 138 174
-314.29 -411.146 -1941 127 134 170
-310.28 -411.055 -1941 156 163 196
-306.904 -411.813 -1945 176 183 219
-302.891 -411.724 -1945 168 175 211
-298.88 -411.637 -1945 150 154 191
-295.176 -411.974 -1947 162 166 206
-291.315 -412.1 -1948 168 172 213
-287.159 -411.805 -1947 166 172 213
-282.572 -410.876 -1943 151 158 201
-278.578 -410.795 -1943 152 159 207
-274.445 -410.503 -1942 110 120 173
-270.736 -410.847 -1944 62 72 126
-267.021 -411.191 -1946 46 50 109
-263.571 -411.96 -1950 31 34 84
-260.24 -412.94 -1955 33 35 77
-256.235 -412.866 -1955 50 51 86
-252.103 -412.581 -1954 74 75 111
-248.358 -412.931 -1956 49 49 89
-244.232 -412.649 -1955 41 43 84
-240.113 -412.368 -1954 96 98 140
-236.603 -413.143 -1958 124 128 167
-232.723 -413.286 -1959 101 105 142
-228.024 -411.954 -1953 43 46 80
-223.81 -411.467 -1951 33 32 65
-219.268 -410.348 -1946 36 34 68
-215.301 -410.286 -1946 36 33 69
-211.336 -410.224 -1946 37 35 79
-207.586 -410.586 -1948 52 51 99
-203.934 -411.159 -1951 72 77 140
-200.374 -411.943 -1955 68 75 142
-196.699 -412.518 -1958 58 67 140
-192.817 -412.673 -1959 66 74 137
-188.932 -412.829 -1960 48 56 117
-184.478 -411.722 -1955 69 74 131
-180.785 -412.301 -1958 102 104 154
-176.63 -411.829 -1956 134 134 178
-172.396 -411.147 -1953 150 151 186
-168.348 -410.887 -1952 137 138 175
-164.474 -411.05 -1953 158 161 199
-160.598 -411.214 -1954 159 163 199
-156.558 -410.958 -1953 154 158 193
-152.68 -411.124 -1954 172 177 208
-148.647 -410.87 -1953 178 183 214
-144.619 -410.618 -1952 145 150 181
-140.741 -410.787 -1953 128 131 163
-136.719 -410.537 -1952 68 71 103
-132.567 -409.867 -1949 69 72 107
-128.494 -409.41 -1947 158 162 196
-124.494 -409.163 -1946 194 199 232
-120.561 -409.128 -1946 162 167 222
-116.869 -409.935 -1950 90 95 163
-113.046 -410.322 -1952 91 97 183
-109.383 -411.342 -1957 65 69 153
-105.432 -411.311 -1957 66 71 152
-101.585 -411.701 -1959 50 54 120
-97.7315 -412.093 -1961 33 38 94
-93.8704 -412.486 -1963 41 46 96
-90.0477 -413.09 -1966 42 44 101
-86.1699 -413.485 -1968 53 56 112
-82.1176 -413.041 -1966 79 82 136
-78.3126 -413.858 -1970 74 76 123
-74.4544 -414.467 -1973 58 60 105
-70.6561 -415.496 -1978 72 72 110
-66.7372 -415.897 -1980 65 67 106
-62.9058 -416.928 -1985 113 116 155
-58.4909 -413.97 -1971 128 131 165
-432.774 -423.025 -1963 46 51 105
-429.064 -423.327 -1965 143 149 198
-424.916 -423.2 -1965 169 177 218
-419.059 -421.351 -1957 125 133 176
-414.3 -420.582 -1954 135 143 185
-410.607 -420.889 -1956 146 150 190
-406.077 -420.338 -1954 117 121 159
-400.942 -419.142 -1949 162 166 203
-396.646 -418.809 -1948 149 156 191
-392.56 -418.692 -1948 143 150 186
-387.08 -417.072 -1941 157 164 200
-382.423 -416.313 -1938 174 183 222
-377.586 -415.341 -1934 160 169 209
-372.577 -414.157 -1929 147 157 198
-368.355 -413.832 -1928 188 196 242
-364.141 -413.509 -1927 139 147 195
-360.121 -413.402 -1927 85 94 173
-355.55 -412.653 -1924 92 102 179
-351.908 -412.977 -1926 82 91 167
-347.358 -412.231 -1923 109 119 178
-343.358 -412.129 -1923 167 175 232
-339.538 -412.243 -1924 187 194 243
-335.892 -412.572 -1926 151 159 203
-332.24 -412.901 -1928 138 146 188
-328.752 -413.446 -1931 151 158 196
-325.087 -413.778 -1933 155 161 198
-321.582 -414.325 -1936 165 169 206
-317.74 -414.445 -1937 115 122 156
-314.22 -414.994 -1940 112 118 152
-310.211 -414.902 -1940 99 105 138
-306.52 -415.239 -1942 160 167 201
-302.823 -415.578 -1944 164 171 205
-299.121 -415.917 -1946 171 175 211
-294.958 -415.616 -1945 173 177 214
-291.55 -416.385 -1949 174 178 217
-287.685 -416.513 -1950 163 169 209
-282.655 -414.935 -1943 147 154 196
-278.946 -415.28 -1945 103 112 161
-274.808 -414.985 -1944 69 80 132
-270.676 -414.692 -1943 43 55 108
-267.099 -415.253 -1946 39 44 103
-263.648 -416.029 -1950 44 47 97
-260.182 -416.806 -1954 35 36 77
-256.44 -417.157 -1956 35 35 73
-252.563 -417.296 -1957 33 33 72
-248.557 -417.223 -1957 28 28 70
-244.678 -417.364 -1958 31 32 75
-241.166 -418.146 -1962 40 42 85
-236.793 -417.436 -1959 122 126 165
-232.91 -417.581 -1960 110 113 150
-228.324 -416.449 -1955 46 48 81
-224.104 -415.957 -1953 35 35 68
-219.895 -415.466 -1951 33 32 65
-215.363 -414.338 -1946 32 30 64
-211.397 -414.276 -1946 31 33 80
-207.753 -414.854 -1949 55 58 114
-203.993 -415.219 -1951 78 86 157
-200.227 -415.586 -1953 51 60 132
-196.655 -416.38 -1957 54 64 139
-192.872 -416.748 -1959 82 91 162
-188.89 -416.693 -1959 94 103 172
-184.626 -416.001 -1956 155 160 224
-180.653 -415.948 -1956 163 167 223
-176.41 -415.258 -1953 164 166 216
-172.357 -414.995 -1952 168 170 210
-168.397 -414.945 -1952 135 136 177
-164.522 -415.109 -1953 153 155 197
-160.562 -415.062 -1953 152 155 193
-156.683 -415.229 -1954 171 175 211
-152.802 -415.396 -1955 149 154 186
-148.69 -414.928 -1953 123 128 160
-144.883 -415.31 -1955 115 120 153
-140.853 -415.056 -1954 138 141 176
-136.829 -414.804 -1953 84 87 123
-132.877 -414.765 -1953 59 62 101
-128.729 -414.09 -1950 153 156 193
-124.658 -413.628 -1948 199 203 238
-120.844 -414.017 -1950 136 141 199
-116.903 -413.983 -1950 58 64 126
-113.079 -414.374 -1952 71 77 147
-109.191 -414.554 -1953 55 60 128
-105.355 -414.948 -1955 42 46 113
-101.407 -414.918 -1955 41 44 103
-97.5603 -415.314 -1957 41 44 96
-93.7538 -415.923 -1960 39 42 91
-89.9361 -416.533 -1963 39 43 91
-86.0195 -416.719 -1964 37 41 89
-81.9323 -416.059 -1961 38 43 91
-78.2555 -417.521 -1968 40 43 87
-74.3248 -417.711 -1969 40 44 86
-70.5335 -418.75 -1974 42 42 81
-66.6214 -419.155 -1976 39 40 80
-62.8287 -420.409 -1982 106 109 148
-433.786 -428.039 -1967 38 43 99
-430.066 -428.344 -1969 120 126 178
-425.044 -427.345 -1965 174 181 226
-420.256 -426.566 -1962 123 131 174
-414.848 -425.136 -1956 123 130 173
-409.889 -424.143 -1952 128 132 173
-405.367 -423.586 -1950 105 110 147
-400.65 -422.813 -1947 164 169 205
-395.95 -422.042 -1944 153 161 194
-392.072 -422.141 -1945 141 149 184
-387.196 -421.157 -1941 153 159 199
-381.945 -419.74 -1935 180 190 231
-377.113 -418.758 -1931 165 175 217
-372.494 -417.996 -1928 142 152 196
-368.465 -417.885 -1928 181 188 238
-364.628 -417.992 -1929 107 113 166
-360.789 -418.101 -1930 56 64 142
-356.21 -417.344 -1927 77 84 164
-352.561 -417.671 -1929 84 91 172
-348.003 -416.917 -1926 114 121 189
-343.639 -416.381 -1924 156 163 227
-339.992 -416.712 -1926 175 182 232
-335.817 -416.395 -1925 178 186 230
-332.338 -416.944 -1928 158 166 208
-328.339 -416.846 -1928 160 166 204
-325.015 -417.614 -1932 159 164 202
-321.179 -417.734 -1933 154 158 195
-317.506 -418.071 -1935 74 81 114
-314.151 -418.842 -1939 119 125 158
-310.303 -418.965 -1940 110 115 148
-306.137 -418.657 -1939 101 107 140
-302.601 -419.215 -1942 108 115 147
-298.748 -419.342 -1943 115 119 153
-295.652 -420.548 -1949 162 166 202
-291.037 -419.598 -1945 169 172 209
-287.327 -419.944 -1947 152 158 197
-282.883 -419.213 -1944 156 163 205
-278.885 -419.13 -1944 97 106 156
-274.464 -418.401 -1941 56 68 120
-271.034 -419.183 -1945 41 54 107
-267.178 -419.318 -1946 44 49 107
-263.59 -419.886 -1949 39 42 92
-259.859 -420.24 -1951 39 39 78
-256.253 -420.81 -1954 41 41 82
-252.637 -421.381 -1957 31 31 72
-248.757 -421.522 -1958 25 25 70
-244.875 -421.665 -1959 28 29 74
-241.236 -422.239 -1962 33 36 80
-237.104 -421.953 -1961 105 109 148
-233.572 -422.744 -1965 114 117 153
-228.624 -420.955 -1957 46 47 79
-224.744 -421.104 -1958 34 33 65
-220.297 -420.178 -1954 35 33 66
-216.312 -420.114 -1954 38 37 71
-212.002 -419.406 -1951 55 59 112
-208.346 -419.989 -1954 51 58 124
-204.262 -419.713 -1953 58 67 144
-200.388 -419.869 -1954 23 33 110
-196.612 -420.24 -1956 33 44 120
-192.732 -420.398 -1957 63 72 150
-188.656 -420.127 -1956 115 123 201
-184.68 -420.072 -1956 163 169 242
-180.613 -419.804 -1955 155 159 225
-176.552 -419.537 -1954 163 167 225
-172.496 -419.271 -1953 154 157 204
-168.446 -419.006 -1952 131 133 179
-164.485 -418.957 -1952 158 160 202
-160.444 -418.695 -1951 165 168 207
-156.569 -418.863 -1952 180 184 221
-152.534 -418.604 -1951 187 191 225
-148.581 -418.559 -1951 161 165 200
-144.777 -418.946 -1953 90 94 130
-140.75 -418.689 -1952 103 106 146
-136.798 -418.649 -1952 100 102 143
-132.78 -418.395 -1951 63 65 109
-128.7 -417.928 -1949 157 160 200
-124.694 -417.676 -1948 192 196 235
-120.879 -418.069 -1950 91 96 155
-117.237 -419.106 -1955 47 52 114
-113.343 -419.287 -1956 49 54 122
-109.391 -419.254 -1956 45 49 112
-105.493 -419.437 -1957 39 42 104
-101.54 -419.407 -1957 38 41 96
-97.5886 -419.378 -1957 36 39 88
-93.8289 -420.207 -1961 35 38 83
-90.0539 -421.038 -1965 31 35 76
-86.1759 -421.44 -1967 32 37 78
-82.0397 -420.559 -1963 28 34 77
-78.1987 -421.178 -1966 34 38 78
-74.1953 -420.941 -1965 36 40 80
-70.3753 -421.777 -1969 37 37 78
-66.5733 -422.828 -1974 39 40 81
-62.7836 -424.095 -1980 70 72 113
-434.8 -433.074 -1971 37 42 99
-430.633 -432.942 -1971 57 62 116
-425.172 -431.494 -1965 130 136 184
-419.954 -430.268 -1960 131 137 181
-414.761 -429.044 -1955 147 153 196
-410.223 -428.48 -1953 157 161 202
-405.489 -427.698 -1950 124 130 166
-401.183 -427.357 -1949 170 177 211
-396.477 -426.578 -1946 163 172 200
-392.392 -426.458 -1946 150 158 191
-387.113 -425.026 -1940 160 166 207
-382.652 -424.471 -1938 180 190 233
-377.422 -423.042 -1932 169 179 223
-372.413 -421.834 -1927 151 161 208
-367.811 -421.066 -1924 165 172 226
-364.359 -421.612 -1927 70 75 132
-360.897 -422.159 -1930 47 52 123
-356.872 -422.051 -1930 46 51 128
-352.849 -421.944 -1930 60 65 148
-348.649 -421.619 -1929 142 149 225
-344.278 -421.078 -1927 172 179 249
-340.447 -421.193 -1928 180 187 237
-336.615 -421.31 -1929 178 186 230
-332.437 -420.991 -1928 191 199 241
-328.777 -421.328 -1930 128 132 171
-325.28 -421.885 -1933 148 152 190
-321.774 -422.443 -1936 111 115 152
-318.257 -423.001 -1939 133 139 173
-314.083 -422.688 -1938 166 173 206
-310.555 -423.249 -1941 143 148 182
-306.386 -422.938 -1940 102 108 141
-302.224 -422.629 -1939 49 56 88
-298.376 -422.757 -1940 45 48 82
-294.981 -423.54 -1944 92 95 130
-290.675 -423.017 -1942 154 157 192
-287.265 -423.801 -1946 158 164 204
-283.259 -423.716 -1946 171 177 220
-278.824 -422.979 -1943 130 139 189
-274.829 -422.896 -1943 73 85 136
-271.115 -423.25 -1945 44 57 108
-267.394 -423.605 -1947 33 38 92
-263.668 -423.961 -1949 28 31 79
-260.869 -425.84 -1958 31 31 70
-256.985 -425.98 -1959 32 32 75
-253.1 -426.122 -1960 31 31 75
-249.466 -426.699 -1963 38 39 89
-245.447 -426.625 -1963 42 44 92
-241.923 -427.422 -1967 57 60 107
-237.9 -427.351 -1967 101 105 144
-233.76 -427.063 -1966 113 116 153
-228.809 -425.257 -1958 46 47 79
-225.04 -425.624 -1960 32 30 62
-220.25 -424.038 -1953 34 32 63
-216.487 -424.407 -1955 42 42 77
-212.174 -423.692 -1952 79 85 143
-208.301 -423.847 -1953 65 75 150
-204.217 -423.568 -1952 52 61 142
-200.447 -423.942 -1954 28 38 117
-196.369 -423.667 -1953 39 50 124
-192.789 -424.476 -1957 63 70 155
-188.711 -424.203 -1956 99 105 192
-184.64 -423.931 -1955 122 128 211
-180.759 -424.094 -1956 130 135 211
-176.604 -423.607 -1954 140 144 214
-172.37 -422.905 -1951 109 111 169
-168.323 -422.638 -1950 151 153 208
-164.449 -422.805 -1951 166 168 212
-160.409 -422.54 -1950 173 177 217
-156.294 -422.06 -1948 172 176 215
-152.5 -422.448 -1950 181 185 221
-148.701 -422.837 -1952 156 160 198
-144.745 -422.793 -1952 114 118 157
-140.791 -422.751 -1952 147 149 194
-136.769 -422.493 -1951 140 142 188
-132.751 -422.237 -1950 109 108 158
-128.672 -421.765 -1948 181 182 227
-124.923 -422.377 -1951 176 178 220
-120.853 -421.908 -1949 50 55 114
-117.091 -422.522 -1952 48 51 118
-113.087 -422.272 -1951 47 47 127
-109.199 -422.456 -1952 49 51 118
-105.255 -422.424 -1952 43 45 109
-101.415 -422.826 -1954 39 40 95
-97.4676 -422.797 -1954 35 38 83
-93.6172 -423.201 -1956 37 40 79
-89.7594 -423.607 -1958 31 37 72
-85.8944 -424.014 -1960 30 36 72
-81.9383 -423.989 -1960 30 36 74
-78.1023 -424.614 -1963 28 33 71
-74.1415 -424.592 -1963 27 31 69
-70.2887 -425.22 -1966 37 37 78
-66.458 -426.065 -1970 39 40 82
-62.6434 -427.127 -1975 46 48 90
-433.388 -435.689 -1964 37 44 110
-429.453 -435.778 -1965 57 62 124
-424.869 -435.204 -1963 100 103 152
-420.082 -434.409 -1960 111 115 161
-414.888 -433.173 -1955 147 150 196
-410.558 -432.825 -1954 104 107 146
-406.029 -432.257 -1952 80 86 121
-401.511 -431.69 -1950 143 150 183
-397.005 -431.126 -1948 169 177 212
-393.116 -431.226 -1949 164 173 208
-387.63 -429.558 -1942 165 174 211
-382.176 -427.893 -1935 182 191 233
-377.145 -426.671 -1930 165 174 217
-372.139 -425.451 -1925 146 152 199
-367.922 -425.118 -1924 96 101 155
-364.28 -425.448 -1926 45 50 107
-360.82 -426 -1929 44 48 118
-356.795 -425.891 -1929 49 52 125
-352.956 -426.004 -1930 65 68 144
-348.574 -425.456 -1928 131 136 209
-344.561 -425.35 -1928 154 160 230
-340.373 -425.026 -1927 162 168 222
-336.542 -425.143 -1928 167 174 222
-332.538 -425.041 -1928 186 193 239
-328.365 -424.721 -1927 81 86 127
-324.705 -425.062 -1929 71 76 116
-321.039 -425.405 -1931 116 122 161
-317.86 -426.41 -1936 156 160 196
-313.853 -426.314 -1936 164 168 203
-310.329 -426.88 -1939 121 126 159
-306.004 -426.347 -1937 109 114 144
-302.315 -426.695 -1939 115 120 149
-298.312 -426.604 -1939 93 100 130
-294.767 -427.174 -1942 42 48 80
-290.762 -427.086 -1942 85 90 123
-287.204 -427.658 -1945 156 162 205
-283.052 -427.352 -1944 176 183 227
-279.338 -427.707 -1946 153 162 212
-275.336 -427.623 -1946 87 99 152
-271.614 -427.98 -1948 51 64 119
-267.475 -427.679 -1947 32 36 91
-264.153 -428.697 -1952 29 31 79
-260.414 -429.058 -1954 30 29 67
-256.8 -429.638 -1957 26 27 72
-253.175 -430.22 -1960 43 45 92
-249.414 -430.584 -1962 42 48 106
-245.646 -430.948 -1964 44 49 103
-242.118 -431.752 -1968 65 69 121
-237.85 -431.241 -1966 107 111 151
-234.306 -432.048 -1970 98 100 138
-229.228 -430.005 -1961 44 44 77
-225.566 -430.594 -1964 27 27 58
-220.767 -428.993 -1957 30 29 62
-216.773 -428.927 -1957 41 39 86
-212.672 -428.643 -1956 69 74 138
-208.79 -428.799 -1957 75 84 162
-204.592 -428.299 -1955 46 55 137
-200.507 -428.019 -1954 39 49 130
-196.628 -428.179 -1955 50 62 140
-192.945 -428.778 -1958 73 80 163
-188.671 -428.063 -1955 67 74 157
-184.6 -427.789 -1954 64 68 149
-180.535 -427.515 -1953 63 67 143
-176.656 -427.681 -1954 58 63 133
-172.421 -426.972 -1951 99 101 166
-168.459 -426.921 -1951 109 111 173
-164.414 -426.652 -1950 72 75 127
-160.21 -425.947 -1947 122 126 172
-156.42 -426.338 -1949 135 138 182
-152.468 -426.291 -1949 130 134 175
-148.516 -426.247 -1949 131 135 177
-144.714 -426.64 -1951 130 134 178
-140.761 -426.597 -1951 148 151 198
-136.599 -425.9 -1948 148 151 199
-132.722 -426.078 -1949 156 156 210
-128.776 -426.04 -1949 177 177 231
-124.96 -426.439 -1951 104 103 157
-121.075 -426.621 -1952 41 44 107
-117.306 -427.241 -1955 43 45 112
-113.12 -426.332 -1951 64 65 137
-109.287 -426.736 -1953 68 73 147
-105.34 -426.704 -1953 36 42 114
-101.548 -427.329 -1956 37 40 99
-97.5963 -427.299 -1956 36 39 90
-93.8364 -428.145 -1960 34 37 82
-89.9236 -428.336 -1961 35 38 82
-86.0951 -428.964 -1964 32 35 76
-82.1717 -429.158 -1965 34 37 73
-78.1653 -428.916 -1964 33 36 72
-74.1257 -428.456 -1962 33 35 71
-70.3095 -429.308 -1966 42 42 79
-66.4439 -429.943 -1969 38 39 79
-62.5668 -430.579 -1972 38 40 82
-58.4106 -429.251 -1966 47 51 90
-431.977 -438.279 -1957 58 65 134
-428.274 -438.593 -1959 53 58 124
-424.567 -438.909 -1961 68 72 123
-419.569 -437.883 -1957 66 69 118
-415.016 -437.306 -1955 99 101 149
-410.474 -436.731 -1953 92 95 134
-405.945 -436.157 -1951 84 89 125
-401.428 -435.586 -1949 116 122 156
-396.719 -434.792 -1946 159 167 205
-392.632 -434.67 -1946 167 176 213
-387.549 -433.433 -1941 166 177 212
-382.095 -431.751 -1934 180 190 231
-377.457 -430.965 -1931 129 139 181
-372.447 -429.733 -1926 63 69 114
-368.226 -429.396 -1925 52 57 108
-364.202 -429.283 -1925 46 51 106
-360.743 -429.841 -1928 52 54 122
-356.719 -429.731 -1928 57 58 128
-352.515 -429.399 -1927 57 59 130
-348.5 -429.291 -1927 87 90 160
-344.844 -429.63 -1929 104 108 177
-340.301 -428.857 -1926 92 98 155
-336.645 -429.198 -1928 111 117 167
-332.812 -429.318 -1929 157 163 209
-328.466 -428.772 -1927 67 72 115
-324.804 -429.117 -1929 89 95 136
-321.137 -429.463 -1931 117 124 163
-317.629 -430.032 -1934 125 129 167
-313.949 -430.38 -1936 129 132 170
-310.743 -431.396 -1941 99 104 137
-306.255 -430.635 -1938 102 106 136
-302.251 -430.542 -1938 124 128 155
-298.402 -430.672 -1939 130 139 167
-294.4 -430.582 -1939 89 97 128
-290.701 -430.937 -1941 63 69 104
-286.848 -431.07 -1942 140 146 189
-283.138 -431.428 -1944 161 167 213
-279.423 -431.786 -1946 161 170 220
-275.278 -431.479 -1945 98 109 165
-271.418 -431.618 -1946 64 76 136
-267.555 -431.758 -1947 35 37 95
-264.098 -432.564 -1951 30 31 82
-260.626 -433.371 -1955 32 31 68
-256.877 -433.735 -1957 29 31 76
-253.381 -434.544 -1961 41 44 93
-249.616 -434.911 -1963 45 55 120
-245.845 -435.279 -1965 65 72 133
-242.068 -435.648 -1967 84 89 146
-237.801 -435.132 -1965 108 110 153
-234.258 -435.946 -1969 79 80 121
-229.297 -434.105 -1961 36 35 70
-225.29 -434.036 -1961 32 35 68
-220.72 -432.862 -1956 33 36 71
-217.17 -433.68 -1960 46 43 100
-212.083 -431.403 -1950 57 59 128
-208.853 -432.888 -1957 67 75 153
-204.34 -431.719 -1952 69 78 161
-200.465 -431.879 -1953 52 62 145
-196.989 -432.924 -1958 60 72 156
-193.003 -432.865 -1958 77 86 165
-188.921 -432.587 -1957 51 58 135
-184.656 -431.867 -1954 40 43 119
-180.682 -431.812 -1954 32 36 108
-176.438 -431.095 -1951 39 43 112
-172.562 -431.263 -1952 70 72 140
-168.337 -430.549 -1949 66 69 135
-164.463 -430.72 -1950 50 55 113
-160.258 -430.008 -1947 102 105 156
-156.467 -430.402 -1949 113 116 164
-152.513 -430.355 -1949 141 143 189
-148.713 -430.751 -1951 126 129 175
-144.758 -430.707 -1951 98 101 149
-140.803 -430.664 -1951 86 89 136
-136.64 -429.96 -1948 100 103 152
-132.694 -429.92 -1948 110 111 167
-128.815 -430.101 -1949 95 95 155
-124.998 -430.504 -1951 52 50 112
-120.863 -429.805 -1948 40 43 110
-117.161 -430.652 -1952 42 44 111
-112.98 -429.735 -1948 63 64 131
-109.208 -430.363 -1951 69 75 149
-105.263 -430.331 -1951 44 50 124
-101.475 -430.961 -1954 37 41 103
-97.5756 -431.152 -1955 36 41 97
-93.6251 -431.123 -1955 30 35 87
-89.8129 -431.757 -1958 32 35 86
-86.0332 -432.613 -1962 34 38 85
-82.1544 -433.028 -1964 33 37 76
-78.2683 -433.445 -1966 35 36 74
-74.2613 -433.202 -1965 37 38 76
-70.3662 -433.621 -1967 41 42 77
-66.43 -433.821 -1968 37 38 75
-62.4903 -434.022 -1969 33 34 73
-58.2795 -432.24 -1961 53 57 99
-431.575 -437.812 -1936 50 64 130
-432.111 -442.425 -1957 67 74 138
-428.626 -442.968 -1960 60 66 129
-424.916 -443.287 -1962 52 57 114
-419.914 -442.251 -1958 89 93 144
-415.357 -441.669 -1956 107 110 158
-410.182 -440.411 -1951 139 141 185
-405.447 -439.606 -1948 140 143 184
-400.729 -438.803 -1945 86 90 127
-396.434 -438.454 -1944 109 116 153
-391.542 -437.429 -1940 115 123 159
-386.67 -436.405 -1936 174 185 220
-381.621 -435.159 -1931 192 202 243
-376.791 -434.139 -1927 157 167 209
-372.756 -434.023 -1927 55 59 104
-368.532 -433.682 -1926 52 56 104
-364.126 -433.118 -1924 44 47 98
-360.855 -433.906 -1928 54 56 119
-356.274 -433.12 -1925 62 65 130
-352.99 -433.909 -1929 80 83 153
-348.607 -433.351 -1927 98 102 169
-345.13 -433.918 -1930 78 82 148
-340.759 -433.362 -1928 64 70 127
-337.273 -433.931 -1931 71 75 125
-332.569 -432.929 -1927 60 64 109
-328.908 -433.276 -1929 102 106 147
-324.736 -432.95 -1928 162 167 207
-320.903 -433.075 -1929 147 154 190
-317.726 -434.098 -1934 125 129 165
-314.207 -434.674 -1937 115 119 154
-310.679 -435.251 -1940 131 136 167
-306.824 -435.38 -1941 141 145 175
-302.655 -435.061 -1940 168 172 200
-298.956 -435.417 -1942 155 163 195
-294.795 -435.102 -1941 105 112 146
-290.64 -434.787 -1940 64 68 108
-286.935 -435.146 -1942 118 124 168
-283.079 -435.283 -1943 164 170 216
-279.221 -435.42 -1944 160 169 221
-275.503 -435.783 -1946 99 110 168
-271.919 -436.37 -1949 54 66 129
-268.325 -436.959 -1952 52 54 112
-263.908 -436.206 -1949 37 38 88
-260.572 -437.244 -1954 32 31 67
-257.087 -438.06 -1958 32 33 73
-253.071 -437.981 -1958 34 37 78
-249.819 -439.246 -1964 44 54 118
-245.795 -439.17 -1964 60 67 129
-242.019 -439.542 -1966 78 82 143
-237.873 -439.245 -1965 89 92 132
-234.091 -439.62 -1967 55 56 95
-229.601 -438.655 -1963 31 30 63
-225.818 -439.032 -1965 34 36 76
-221.239 -437.847 -1960 52 55 98
-217.126 -437.557 -1959 55 59 120
-212.909 -437.044 -1957 49 57 127
-208.81 -436.756 -1956 60 71 150
-204.926 -436.916 -1957 83 91 177
-200.936 -436.854 -1957 48 58 144
-197.15 -437.24 -1959 56 68 156
-192.864 -436.511 -1956 60 69 148
-188.882 -436.452 -1956 38 45 122
-184.523 -435.503 -1952 38 41 112
-180.552 -435.447 -1952 34 38 107
-176.311 -434.724 -1949 49 53 120
-172.791 -435.786 -1954 80 82 146
-168.734 -435.511 -1953 72 74 136
-164.682 -435.237 -1952 53 58 110
-160.636 -434.964 -1951 100 103 153
-156.675 -434.916 -1951 140 143 192
-152.56 -434.423 -1949 136 138 189
-148.758 -434.823 -1951 130 133 182
-144.727 -434.555 -1950 76 80 125
-140.557 -433.843 -1947 45 47 95
-136.611 -433.801 -1947 48 50 99
-132.666 -433.76 -1947 46 47 105
-128.854 -434.166 -1949 69 69 132
-124.971 -434.35 -1950 54 54 120
-121.085 -434.535 -1951 40 44 115
-117.016 -434.054 -1949 36 39 108
-113.188 -434.464 -1951 46 46 112
-109.185 -434.208 -1950 52 56 123
-105.295 -434.398 -1951 49 53 119
-101.506 -435.034 -1954 38 40 102
-97.705 -435.672 -1957 41 47 107
-93.7971 -435.865 -1958 39 48 106
-90.0236 -436.728 -1962 37 43 100
-86.1908 -437.369 -1965 32 38 91
-82.3885 -438.234 -1969 31 37 82
-78.2919 -437.542 -1966 34 37 80
-74.3593 -437.741 -1967 31 33 75
-70.4233 -437.941 -1968 36 37 72
-66.4838 -438.143 -1969 35 36 71
-62.5726 -438.569 -1971 37 38 73
-58.3863 -436.993 -1964 51 55 101
-53.7298 -431.413 -1939 74 78 124
-432.027 -446.347 -1956 52 58 119
-428.105 -446.439 -1957 74 79 139
-424.183 -446.532 -1958 49 54 112
-418.759 -445.031 -1952 109 113 164
-414.213 -444.444 -1950 149 152 200
-409.679 -443.858 -1948 126 128 174
-405.158 -443.274 -1946 144 147 190
-400.648 -442.691 -1944 123 127 166
-396.763 -442.794 -1945 84 91 128
-391.665 -441.531 -1940 85 93 129
-386.991 -440.726 -1937 173 182 218
-381.938 -439.468 -1932 196 205 246
-377.692 -439.121 -1931 165 175 218
-373.066 -438.321 -1928 74 78 122
-368.838 -437.977 -1927 72 75 121
-364.24 -437.18 -1924 53 56 103
-360.967 -437.975 -1928 47 49 109
-356.2 -436.954 -1924 53 56 117
-352.368 -437.07 -1925 78 82 147
-348.535 -437.187 -1926 91 94 156
-345.237 -437.987 -1930 75 78 139
-341.219 -437.879 -1930 48 51 106
-337.378 -438 -1931 46 48 97
-333.363 -437.895 -1931 54 56 100
-329.351 -437.792 -1931 72 76 117
-325.174 -437.463 -1930 136 140 180
-321.336 -437.589 -1931 160 164 201
-317.989 -438.395 -1935 176 179 214
-314.305 -438.75 -1937 168 171 205
-310.935 -439.558 -1941 121 126 156
-307.235 -439.914 -1943 144 148 178
-303.373 -440.046 -1944 156 160 190
-299.202 -439.726 -1943 125 132 166
-295.038 -439.407 -1942 105 111 148
-290.73 -438.863 -1940 68 72 115
-286.729 -438.773 -1940 92 98 143
-283.458 -439.816 -1945 167 174 219
-279.02 -439.05 -1942 165 173 227
-275.73 -440.094 -1947 103 113 173
-272.143 -440.687 -1950 51 62 127
-268.407 -441.055 -1952 67 69 126
-264.396 -440.972 -1952 37 38 88
-261.053 -442.021 -1957 32 31 65
-257.823 -443.295 -1963 30 31 66
-253.924 -443.442 -1964 46 48 84
-249.897 -443.364 -1964 66 74 135
-246.246 -443.964 -1967 59 66 125
-242.217 -443.888 -1967 41 46 103
-238.068 -443.588 -1966 36 38 74
-234.401 -444.192 -1969 29 31 66
-229.905 -443.218 -1965 32 30 62
-225.428 -442.246 -1961 43 44 88
-220.743 -440.823 -1955 77 79 127
-216.749 -440.756 -1955 76 86 154
-212.431 -440.013 -1952 44 55 130
-208.233 -439.498 -1950 50 63 143
-204.674 -440.336 -1954 62 71 157
-200.382 -439.597 -1951 36 45 132
-197.009 -440.887 -1957 37 48 133
-192.825 -440.377 -1955 46 54 133
-189.036 -440.768 -1957 37 44 120
-184.485 -439.359 -1951 30 34 97
-180.607 -439.529 -1952 35 39 102
-176.455 -439.023 -1950 48 52 116
-172.578 -439.194 -1951 59 61 121
-168.613 -439.142 -1951 38 41 98
-164.817 -439.541 -1953 40 46 94
-160.52 -438.59 -1949 55 59 108
-156.563 -438.542 -1949 97 100 149
-152.528 -438.269 -1948 119 122 173
-148.804 -438.898 -1951 127 130 178
-144.772 -438.628 -1950 60 64 108
-140.745 -438.359 -1949 35 38 85
-136.512 -437.417 -1945 43 45 94
-132.843 -438.275 -1949 49 51 110
-128.894 -438.235 -1949 86 87 151
-124.817 -437.746 -1947 82 83 150
-120.936 -437.933 -1948 49 53 124
-116.932 -437.672 -1947 37 40 110
-112.991 -437.637 -1947 36 36 105
-109.051 -437.602 -1947 36 37 104
-105.435 -438.918 -1953 40 41 108
-101.433 -438.661 -1952 42 47 116
-97.535 -438.856 -1953 60 67 139
-93.7778 -439.725 -1957 62 72 145
-90.0051 -440.596 -1961 51 62 133
-85.9977 -440.344 -1960 43 53 118
-82.3299 -441.891 -1967 43 50 104
-78.4353 -442.316 -1969 33 36 81
-74.4576 -442.292 -1969 32 34 77
-70.6237 -443.168 -1973 35 35 72
-66.7405 -443.821 -1976 35 35 69
-62.687 -443.352 -1974 39 40 72
-58.6121 -442.66 -1971 51 54 104
-54.0512 -437.926 -1950 77 82 131
-431.28 -449.578 -1952 43 48 105
-428.46 -450.822 -1958 65 70 127
-424.318 -450.686 -1958 53 57 115
-419.535 -449.861 -1955 77 81 132
-414.982 -449.268 -1953 152 155 202
-410.23 -448.447 -1950 128 130 175
-405.078 -447.167 -1945 118 121 165
-400.363 -446.349 -1942 118 123 164
-396.888 -446.912 -1945 115 123 160
-391.789 -445.638 -1940 119 127 163
-387.114 -444.825 -1937 174 182 219
-382.454 -444.014 -1934 195 204 245
-377.811 -443.205 -1931 162 171 214
-372.99 -442.168 -1927 60 64 105
-368.955 -442.05 -1927 52 55 98
-363.976 -440.787 -1922 48 50 94
-360.894 -441.819 -1927 43 45 100
-355.942 -440.559 -1922 46 49 105
-352.845 -441.593 -1927 72 76 135
-348.645 -441.253 -1926 72 75 131
-345.346 -442.059 -1930 51 54 109
-341.149 -441.722 -1929 42 42 94
-337.309 -441.844 -1930 44 44 90
-333.295 -441.738 -1930 53 53 94
-329.284 -441.633 -1930 125 127 169
-325.613 -441.988 -1932 164 165 206
-321.603 -441.886 -1932 172 174 211
-317.76 -442.014 -1933 178 181 214
-314.403 -442.829 -1937 165 167 200
-311.032 -443.645 -1941 164 169 198
-307.173 -443.776 -1942 148 152 183
-303.312 -443.908 -1943 125 128 160
-299.604 -444.271 -1945 109 116 152
-295.738 -444.406 -1946 136 142 182
-291.42 -443.857 -1944 80 83 131
-287.114 -443.309 -1942 82 87 133
-283.547 -443.905 -1945 167 173 219
-279.395 -443.588 -1944 160 166 223
-276.1 -444.642 -1949 96 104 167
-272.088 -444.556 -1949 44 53 121
-268.491 -445.155 -1952 39 42 96
-264.884 -445.756 -1955 28 30 79
-261.268 -446.357 -1958 31 30 63
-257.246 -446.276 -1958 34 34 67
-253.486 -446.652 -1960 50 51 83
-249.593 -446.801 -1961 47 54 107
-245.947 -447.407 -1964 43 49 100
-242.045 -447.559 -1965 32 37 87
-237.9 -447.256 -1964 29 30 64
-234.117 -447.638 -1966 24 24 57
-230.094 -447.565 -1966 28 25 56
-225.268 -445.901 -1959 32 32 77
-221.15 -445.604 -1958 63 64 115
-216.816 -444.853 -1955 63 77 151
-212.606 -444.331 -1953 44 57 133
-208.405 -443.81 -1951 37 49 129
-204.843 -444.655 -1955 47 55 141
-200.547 -443.91 -1952 59 68 153
-196.667 -444.075 -1953 48 58 139
-192.588 -443.788 -1952 49 57 134
-188.708 -443.956 -1953 47 54 129
-184.258 -442.761 -1948 34 39 95
-180.385 -442.932 -1949 33 38 96
-176.51 -443.103 -1950 35 39 100
-172.809 -443.731 -1953 39 42 95
-168.665 -443.223 -1951 34 37 88
-165.037 -444.08 -1955 31 37 85
-161.064 -444.029 -1955 36 40 89
-156.772 -443.072 -1951 58 61 110
-152.81 -443.023 -1951 65 68 118
-148.85 -442.977 -1951 101 105 152
-144.668 -442.25 -1948 78 82 125
-140.427 -441.298 -1944 41 44 91
-136.695 -441.936 -1947 37 39 89
-132.611 -441.44 -1945 42 44 105
-128.933 -442.307 -1949 65 67 131
-124.856 -441.814 -1947 65 67 134
-121.098 -442.457 -1950 40 44 115
-117.088 -442.193 -1949 38 41 112
-113.142 -442.157 -1949 37 39 111
-109.14 -441.896 -1948 34 35 104
-105.414 -442.77 -1952 34 36 105
-101.516 -442.965 -1953 52 59 136
-97.7648 -443.841 -1957 75 85 166
-93.9504 -444.492 -1960 79 91 175
-90.1706 -445.37 -1964 55 69 151
-86.2876 -445.797 -1966 61 74 150
-82.439 -446.451 -1969 58 68 131
-78.5392 -446.879 -1971 34 39 86
-74.7075 -447.762 -1975 31 34 78
-70.8603 -448.647 -1979 30 32 68
-66.9638 -449.305 -1982 31 32 66
-63.0239 -449.739 -1984 36 37 69
-58.898 -448.813 -1980 49 52 103
-54.345 -444.262 -1960 73 77 128
-432.303 -454.655 -1956 36 40 92
-429.911 -456.375 -1964 53 58 112
-425.104 -455.54 -1961 73 76 129
-419.67 -454.011 -1955 103 106 154
-415.327 -453.644 -1954 125 127 171
-410.572 -452.815 -1951 128 130 174
-405.624 -451.756 -1947 140 143 186
-400.903 -450.93 -1944 123 129 170
-397.219 -451.266 -1946 141 147 186
-391.51 -449.284 -1938 133 140 178
-386.837 -448.464 -1935 165 173 211
-382.378 -447.877 -1933 200 208 248
-377.736 -447.061 -1930 163 171 213
-372.334 -445.319 -1923 44 48 87
-368.88 -445.895 -1926 44 47 87
-363.902 -444.621 -1921 46 48 91
-360.072 -444.736 -1922 42 44 93
-356.24 -444.853 -1923 51 53 103
-352.774 -445.434 -1926 85 89 141
-348.755 -445.322 -1926 71 75 124
-345.097 -445.674 -1928 47 50 99
-341.08 -445.564 -1928 39 39 84
-337.241 -445.687 -1929 54 53 95
-333.401 -445.811 -1930 116 115 152
-329.218 -445.475 -1929 178 179 221
-325.716 -446.063 -1932 178 178 220
-321.372 -445.499 -1930 166 165 205
-318.025 -446.32 -1934 156 157 192
-314.016 -446.22 -1934 163 165 198
-310.81 -447.274 -1939 180 185 217
-306.795 -447.176 -1939 191 195 228
-303.408 -448.001 -1943 162 165 200
-299.544 -448.136 -1944 100 106 146
-295.375 -447.811 -1943 113 119 162
-291.362 -447.718 -1943 85 90 140
-286.909 -446.936 -1940 108 113 162
-283.636 -447.997 -1945 167 173 222
-278.908 -446.756 -1940 143 148 207
-275.903 -448.281 -1947 78 84 146
-271.615 -447.733 -1945 31 38 105
-268.576 -449.259 -1952 28 30 80
-264.832 -449.635 -1954 26 28 74
-261.216 -450.242 -1957 29 28 62
-257.984 -451.54 -1963 26 27 59
-254.083 -451.689 -1964 33 34 66
-249.926 -451.38 -1963 31 36 79
-246.4 -452.221 -1967 32 37 79
-241.998 -451.455 -1964 24 29 68
-238.095 -451.609 -1965 20 22 55
-233.952 -451.305 -1964 20 21 53
-230.283 -451.921 -1967 26 23 54
-225.338 -450.011 -1959 28 27 68
-221.219 -449.711 -1958 55 56 100
-216.773 -448.724 -1954 64 75 143
-212.672 -448.426 -1953 47 56 126
-208.363 -447.671 -1950 43 50 122
-204.592 -448.065 -1952 50 58 137
-200.404 -447.542 -1950 69 77 156
-196.93 -448.628 -1955 49 60 136
-192.451 -447.419 -1950 41 50 122
-188.671 -447.818 -1952 37 45 115
-184.505 -447.301 -1950 36 41 91
-180.627 -447.473 -1951 31 37 89
-176.565 -447.187 -1950 32 37 92
-172.686 -447.362 -1951 36 39 88
-168.804 -447.537 -1952 29 33 82
-164.582 -446.797 -1949 25 30 84
-160.867 -447.434 -1952 28 33 82
-156.901 -447.384 -1952 33 39 84
-153.014 -447.565 -1953 55 58 103
-148.972 -447.288 -1952 54 58 102
-144.936 -447.013 -1951 58 62 105
-140.904 -446.739 -1950 40 44 93
-136.808 -446.238 -1948 36 39 91
-132.857 -446.195 -1948 36 38 100
-128.841 -445.925 -1947 42 44 108
-124.83 -445.657 -1946 40 42 107
-121.011 -446.076 -1948 36 40 110
-117.064 -446.039 -1948 44 49 120
-113.119 -446.003 -1948 51 58 133
-109.342 -446.655 -1951 42 47 120
-105.555 -447.308 -1954 50 55 128
-101.704 -447.734 -1956 68 78 164
-97.8953 -448.389 -1959 73 85 175
-93.9797 -448.588 -1960 66 79 172
-90.1068 -449.017 -1962 33 50 142
-86.1388 -448.989 -1962 57 73 158
-82.4647 -450.565 -1969 56 70 143
-78.5237 -450.768 -1970 43 49 99
-74.7307 -451.889 -1975 32 36 80
-70.8823 -452.781 -1979 30 33 68
-67.0183 -453.675 -1983 31 32 67
-63.0435 -453.883 -1984 36 37 71
-58.9757 -453.407 -1982 49 52 103
-54.3896 -448.585 -1961 70 73 124
-434.211 -460.691 -1964 32 37 83
-431.583 -462.192 -1971 46 51 101
-426.109 -460.646 -1965 90 94 142
-420.664 -459.102 -1959 149 152 197
-415.674 -458.029 -1955 160 162 204
-410.704 -456.958 -1951 142 144 185
-405.755 -455.889 -1947 139 143 182
-401.445 -455.524 -1946 151 158 195
-396.939 -454.926 -1944 167 174 213
-391.838 -453.629 -1939 106 112 152
-386.562 -452.099 -1933 139 147 185
-381.908 -451.273 -1930 194 202 241
-376.682 -449.748 -1924 139 147 188
-372.26 -449.159 -1922 45 49 87
-367.85 -448.572 -1920 41 45 83
-363.829 -448.454 -1920 44 48 87
-359.813 -448.337 -1920 44 46 92
-356.169 -448.689 -1922 55 57 104
-352.887 -449.508 -1926 91 94 140
-348.686 -449.162 -1925 80 84 128
-345.208 -449.75 -1928 52 56 99
-341.19 -449.64 -1928 39 39 80
-337.174 -449.53 -1928 85 84 123
-333.335 -449.656 -1929 169 168 203
-329.494 -449.782 -1930 167 166 207
-325.82 -450.143 -1932 162 161 203
-321.808 -450.039 -1932 132 131 172
-318.291 -450.635 -1935 138 138 175
-314.116 -450.301 -1934 168 169 204
-310.589 -450.899 -1937 180 184 220
-306.419 -450.567 -1936 186 190 227
-303.349 -451.866 -1942 171 174 212
-299.486 -452.002 -1943 154 160 203
-295.773 -452.372 -1945 125 131 176
-291.755 -452.278 -1945 104 109 161
-287.888 -452.417 -1946 138 143 198
-284.456 -453.256 -1950 171 176 231
-279.572 -451.771 -1944 121 125 184
-276.274 -452.844 -1949 63 67 127
-272.819 -453.686 -1953 32 37 98
-268.799 -453.599 -1953 28 30 74
-264.916 -453.746 -1954 27 28 70
-261.433 -454.591 -1958 32 31 66
-258.066 -455.669 -1963 35 35 67
-253.905 -455.355 -1962 35 36 67
-250.005 -455.507 -1963 24 28 63
-246.604 -456.588 -1968 24 28 63
-242.568 -456.51 -1968 22 26 61
-238.292 -455.97 -1966 18 21 54
-234.026 -455.431 -1964 20 22 55
-230.005 -455.357 -1964 27 25 58
-224.949 -453.198 -1955 28 27 63
-220.724 -452.663 -1953 38 38 75
-216.731 -452.594 -1953 43 49 105
-212.739 -452.526 -1953 43 47 105
-208.536 -451.995 -1951 45 47 107
-204.552 -451.93 -1951 55 60 132
-200.57 -451.866 -1951 80 86 159
-196.69 -452.034 -1952 68 78 152
-192.512 -451.509 -1950 48 57 123
-188.537 -451.449 -1950 22 30 92
-184.658 -451.621 -1951 26 32 79
-180.776 -451.795 -1952 29 34 83
-176.802 -451.738 -1952 34 39 91
-172.917 -451.914 -1953 29 33 81
-169.03 -452.091 -1954 35 38 87
-164.802 -451.344 -1951 34 39 95
-161 -451.755 -1953 33 39 87
-156.79 -451.011 -1950 28 34 77
-152.984 -451.425 -1952 37 42 82
-149.019 -451.377 -1952 43 48 89
-145.13 -451.562 -1953 42 46 89
-140.876 -450.592 -1949 60 64 117
-136.851 -450.316 -1948 58 62 117
-132.967 -450.505 -1949 45 47 110
-129.014 -450.463 -1949 43 44 111
-125.062 -450.423 -1949 33 33 103
-121.236 -450.847 -1951 35 38 111
-117.282 -450.809 -1951 44 50 125
-113.271 -450.542 -1950 59 72 150
-109.377 -450.738 -1951 70 80 163
-105.75 -452.09 -1957 84 94 177
-101.84 -452.288 -1958 73 86 177
-97.926 -452.487 -1959 69 82 174
-94.297 -454.074 -1966 56 69 160
-90.2729 -453.814 -1965 28 45 137
-86.2976 -453.786 -1965 50 66 154
-82.5323 -454.914 -1970 59 71 152
-78.6281 -455.35 -1972 45 51 106
-74.6784 -455.557 -1973 37 41 89
-70.797 -456.227 -1976 33 36 71
-67.0394 -457.821 -1983 32 35 72
-62.9996 -457.57 -1982 32 34 73
-59.0836 -458.243 -1985 44 47 94
-54.6286 -454.532 -1969 64 66 114
-433.69 -464.163 -1961 34 38 82
-431.067 -465.677 -1968 33 39 88
-425.597 -464.117 -1962 83 87 131
-419.942 -462.323 -1955 150 154 197
-415.384 -461.713 -1953 158 161 202
-410.417 -460.632 -1949 146 149 185
-405.471 -459.553 -1945 134 138 174
-401.576 -459.657 -1946 136 142 178
-397.068 -459.054 -1944 147 154 193
-391.966 -457.745 -1939 84 91 131
-386.688 -456.201 -1933 129 136 174
-382.428 -455.84 -1932 181 188 227
-377.784 -455.008 -1929 104 112 152
-373.35 -454.414 -1927 44 48 85
-368.544 -453.35 -1923 44 48 84
-363.947 -452.523 -1920 46 50 87
-360.117 -452.641 -1921 51 53 94
-356.285 -452.76 -1922 45 46 89
-352.268 -452.644 -1922 77 79 120
-348.618 -453.001 -1924 70 73 112
-344.961 -453.359 -1926 48 52 90
-340.946 -453.248 -1926 58 58 96
-336.933 -453.138 -1926 111 111 148
-333.097 -453.264 -1927 146 145 180
-329.258 -453.392 -1928 120 118 160
-326.094 -454.461 -1933 102 100 143
-321.411 -453.416 -1929 104 102 145
-318.394 -454.723 -1935 119 118 159
-313.892 -453.915 -1932 136 136 175
-310.689 -454.989 -1937 136 140 180
-306.517 -454.654 -1936 147 150 191
-303.134 -455.495 -1940 147 149 192
-299.274 -455.632 -1941 112 117 164
-295.564 -456.005 -1943 129 135 184
-291.699 -456.145 -1944 138 143 196
-288.128 -456.755 -1947 154 158 217
-284.11 -456.663 -1947 147 151 213
-279.949 -456.337 -1946 91 93 150
-276.505 -457.186 -1950 58 60 115
-271.928 -456.159 -1946 34 37 89
-269.023 -457.947 -1954 30 33 71
-265.137 -458.096 -1955 29 31 67
-261.784 -459.182 -1960 53 52 87
-258.017 -459.567 -1962 49 50 81
-254.375 -460.187 -1965 28 29 59
-250.467 -460.34 -1966 20 24 53
-246.808 -460.963 -1969 24 28 58
-242.769 -460.884 -1969 37 40 72
-238.368 -460.104 -1966 28 31 67
-234.22 -459.795 -1965 24 27 63
-230.078 -459.486 -1964 40 39 74
-225.251 -457.776 -1957 34 33 67
-220.795 -456.768 -1953 31 30 63
-216.689 -456.464 -1952 28 28 70
-212.589 -456.162 -1951 30 30 73
-208.496 -455.86 -1950 34 33 79
-204.617 -456.028 -1951 37 40 102
-200.531 -455.729 -1950 79 83 148
-196.854 -456.367 -1953 75 85 156
-192.672 -455.837 -1951 40 49 109
-189.08 -456.71 -1955 27 36 89
-185.095 -456.65 -1955 29 35 80
-181.205 -456.825 -1956 25 31 78
-177.13 -456.535 -1955 42 47 98
-173.061 -456.245 -1954 66 69 119
-168.997 -455.957 -1953 56 59 110
-164.432 -454.269 -1946 49 54 110
-160.639 -454.684 -1948 37 42 89
-156.759 -454.867 -1949 25 31 72
-152.876 -455.051 -1950 28 35 71
-149.219 -455.936 -1954 31 37 76
-145.102 -455.422 -1952 39 43 85
-141.066 -455.143 -1951 52 57 112
-137.035 -454.866 -1950 48 53 112
-133.077 -454.823 -1950 49 51 117
-129.121 -454.781 -1950 50 51 121
-125.102 -454.507 -1949 47 48 121
-121.15 -454.468 -1949 33 37 114
-117.199 -454.43 -1949 63 70 150
-113.365 -454.859 -1951 76 93 179
-109.411 -454.824 -1951 83 97 189
-105.729 -455.955 -1956 87 100 194
-102.028 -457.087 -1961 75 90 187
-98.157 -457.522 -1963 76 90 184
-94.2309 -457.724 -1964 75 88 180
-90.3935 -458.394 -1967 57 73 162
-86.325 -457.9 -1965 55 70 158
-82.4328 -458.339 -1967 59 70 157
-78.5333 -458.779 -1969 47 53 112
-74.6642 -459.454 -1972 35 40 92
-70.7836 -460.13 -1975 32 35 70
-66.993 -461.506 -1981 32 34 74
-63.0196 -461.718 -1982 32 34 78
-59.1023 -462.397 -1985 45 46 89
-432.948 -467.386 -1957 34 40 84
-431.647 -470.347 -1970 34 39 90
-426.389 -469.011 -1965 42 47 89
-420.725 -467.2 -1958 106 112 152
-416.372 -466.823 -1957 139 143 182
-410.974 -465.255 -1951 116 119 154
-405.395 -463.451 -1944 128 131 165
-401.502 -463.557 -1945 126 131 166
-396.994 -462.948 -1943 96 103 141
-391.488 -461.15 -1936 84 92 132
-385.814 -459.117 -1928 129 136 174
-382.157 -459.467 -1930 164 170 210
-377.124 -458.151 -1925 73 80 121
-372.503 -457.314 -1922 47 50 87
-368.473 -457.192 -1922 45 49 85
-364.256 -456.834 -1921 46 50 85
-359.672 -456.001 -1918 53 54 92
-356.03 -456.359 -1920 42 43 81
-352.2 -456.48 -1921 50 53 89
-348.369 -456.603 -1922 44 48 83
-344.895 -457.202 -1925 37 41 77
-340.88 -457.089 -1925 44 45 81
-337.043 -457.215 -1926 75 75 112
-333.205 -457.343 -1927 78 77 116
-329.024 -456.997 -1926 69 68 111
-325.525 -457.602 -1929 70 70 113
-321.349 -457.259 -1928 73 72 116
-318.333 -458.577 -1934 59 59 103
-314.157 -458.237 -1933 110 110 154
-311.271 -459.794 -1940 133 136 182
-306.617 -458.745 -1936 153 156 202
-303.389 -459.83 -1941 139 141 189
-299.525 -459.968 -1942 68 72 123
-296.117 -460.819 -1946 66 69 121
-292.244 -460.959 -1947 94 98 152
-288.518 -461.338 -1949 93 96 156
-284.931 -461.955 -1952 83 86 148
-280.472 -461.153 -1949 74 77 129
-276.453 -461.062 -1949 56 59 107
-272.575 -461.209 -1950 32 35 77
-269.523 -462.777 -1957 27 29 63
-265.63 -462.926 -1958 34 35 68
-261.467 -462.604 -1957 46 45 77
-258.101 -463.701 -1962 35 35 64
-254.327 -464.091 -1964 23 24 51
-250.166 -463.773 -1963 24 25 56
-246.888 -465.109 -1969 26 26 59
-242.971 -465.266 -1970 42 43 78
-238.445 -464.243 -1966 38 39 80
-234.415 -464.167 -1966 29 30 71
-230.269 -463.855 -1965 33 33 67
-225.439 -462.129 -1958 28 28 60
-221.092 -461.349 -1955 27 26 57
-217.203 -461.514 -1956 29 27 66
-212.985 -460.972 -1954 30 27 67
-209.098 -461.14 -1955 30 27 68
-204.998 -460.837 -1954 34 34 89
-201.11 -461.007 -1955 66 67 125
-197.22 -461.179 -1956 47 56 117
-193.129 -460.88 -1955 29 37 91
-189.141 -460.818 -1955 29 37 85
-185.344 -461.229 -1957 29 35 79
-181.541 -461.641 -1959 32 37 83
-177.368 -461.112 -1957 35 40 91
-173.382 -461.055 -1957 65 68 121
-168.965 -459.822 -1952 63 65 119
-165.077 -460.004 -1953 40 45 98
-160.938 -459.48 -1951 30 35 81
