ply
format ascii 1.0
comment Created by Open3D
element vertex 1368
property double x
property double y
property double z
property uchar red
property uchar green
property uchar blue
end_header
-288.313 -1171.9 -1940 141 142 174
-281.151 -1160.17 -1921 113 114 149
-249.166 -1077.36 -1785 140 148 191
-242.672 -1066.27 -1767 135 145 187
-236.802 -1057.61 -1753 138 146 185
-231.794 -1052.58 -1745 142 150 186
-227.348 -1049.96 -1741 124 131 165
-222.664 -1046.14 -1735 82 87 117
-218.514 -1044.74 -1733 108 112 141
-215.119 -1046.96 -1737 126 129 160
-211.343 -1047.37 -1738 122 123 157
-207.087 -1045.38 -1735 126 127 157
-203.197 -1045.2 -1735 160 163 193
-199.08 -1043.81 -1733 164 169 199
-195.2 -1043.64 -1733 154 161 198
-191.1 -1042.26 -1731 157 164 197
-187.444 -1043.3 -1733 157 164 197
-183.357 -1041.93 -1731 153 160 196
-179.385 -1041.17 -1730 149 156 189
-175.216 -1039.2 -1727 159 166 199
-171.756 -1041.46 -1731 159 166 199
-167.796 -1040.7 -1730 143 152 178
-164.505 -1044.17 -1736 85 96 133
-161.003 -1046.43 -1740 53 66 108
-157.486 -1048.69 -1744 43 60 101
-153.6 -1048.55 -1744 42 55 96
-150.402 -1053.23 -1752 66 78 116
-146.417 -1052.5 -1751 139 146 179
-142.764 -1054.17 -1754 149 157 193
-139.099 -1055.85 -1757 129 136 172
-135.576 -1058.73 -1762 111 118 152
-131.583 -1058.02 -1761 118 123 156
-127.959 -1060.3 -1765 92 97 126
-124.318 -1062.59 -1769 134 139 167
-120.593 -1064.29 -1772 164 172 198
-116.526 -1062.98 -1770 168 174 200
-112.852 -1065.28 -1774 165 171 199
-109.037 -1066.39 -1776 170 177 208
-105.156 -1066.89 -1777 180 187 220
-101.442 -1069.2 -1781 184 192 222
-97.8757 -1073.32 -1788 153 162 190
-94.0165 -1074.43 -1790 135 140 172
-90.4513 -1079.15 -1798 106 111 138
-86.7553 -1082.68 -1804 134 139 164
-83.0337 -1086.2 -1810 174 179 204
-79.2861 -1089.73 -1816 180 186 203
-75.5958 -1094.46 -1824 103 107 124
-71.9098 -1099.8 -1833 75 77 93
-68.555 -1111.14 -1852 72 73 86
-458.778 -1181.32 -1925 87 82 83
-452.391 -1175.99 -1917 132 118 109
-447.915 -1175.58 -1917 185 165 151
-444.369 -1177.62 -1921 171 143 123
-438.977 -1174.77 -1917 160 123 97
-433.608 -1171.92 -1913 150 107 79
-429.16 -1171.53 -1913 149 103 74
-423.384 -1167.47 -1907 152 104 76
-417.42 -1162.8 -1900 147 104 80
-413.232 -1163.03 -1901 143 100 79
-408.829 -1162.66 -1901 138 95 76
-403.579 -1159.84 -1897 143 100 83
-399.194 -1159.48 -1897 196 172 163
-394.812 -1159.12 -1897 254 241 235
-390.641 -1159.37 -1898 249 247 242
-386.265 -1159.02 -1898 255 250 247
-381.692 -1158.06 -1897 254 248 247
-377.326 -1157.72 -1897 252 246 246
-372.768 -1156.77 -1896 245 236 238
-368.801 -1157.65 -1898 229 225 220
-365.213 -1159.76 -1902 210 207 198
-361.23 -1160.65 -1904 180 165 144
-357.805 -1163.37 -1909 160 126 99
-354.175 -1165.49 -1913 145 110 85
-349.981 -1165.78 -1914 135 102 80
-345.968 -1166.69 -1916 126 97 79
-341.592 -1166.38 -1916 126 96 77
-337.747 -1167.89 -1919 152 123 102
-333.545 -1168.2 -1920 189 177 161
-329.856 -1170.34 -1924 176 167 162
-326.321 -1173.08 -1929 161 152 150
-322.934 -1176.44 -1935 164 154 155
-319.193 -1178.58 -1939 169 155 156
-315.437 -1180.73 -1943 164 153 157
-311.347 -1181.66 -1945 159 151 157
-306.934 -1181.38 -1945 153 149 163
-302.992 -1182.93 -1948 149 150 159
-298.732 -1183.27 -1949 158 161 168
-294.017 -1181.79 -1947 163 168 178
-287.828 -1174.24 -1935 159 160 189
-280.377 -1161.24 -1914 128 129 160
-249.668 -1083.5 -1787 139 146 186
-243.439 -1073.58 -1771 134 142 181
-237.554 -1064.88 -1757 130 137 176
-232.4 -1059.22 -1748 96 104 139
-227.681 -1055.38 -1742 79 86 119
-223.12 -1052.15 -1737 98 103 131
-218.583 -1048.92 -1732 154 158 187
-215.187 -1051.15 -1736 141 144 174
-211.409 -1051.56 -1737 116 120 151
-207.271 -1050.17 -1735 132 134 167
-203.496 -1050.59 -1736 132 136 170
-199.603 -1050.41 -1736 125 129 166
-195.374 -1048.42 -1733 147 151 192
-191.16 -1046.43 -1730 124 130 167
-187.394 -1046.87 -1731 109 116 151
-183.414 -1046.1 -1730 123 131 169
-179.441 -1045.33 -1729 144 151 185
-175.575 -1045.17 -1729 166 173 206
-172.008 -1046.83 -1732 141 148 179
-168.139 -1046.68 -1732 128 136 166
-164.556 -1048.34 -1735 124 137 177
-160.961 -1050.01 -1738 88 105 151
-157.445 -1052.28 -1742 75 97 149
-153.56 -1052.15 -1742 81 101 150
-150.277 -1056.24 -1749 120 136 182
-146.38 -1056.11 -1749 174 179 212
-142.565 -1056.58 -1750 185 193 228
-138.826 -1057.66 -1752 177 184 218
-135.311 -1060.56 -1757 149 156 189
-131.401 -1060.44 -1757 145 150 181
-127.927 -1063.95 -1763 141 145 172
-124.218 -1065.65 -1766 145 149 172
-120.496 -1067.35 -1769 161 166 193
-116.564 -1067.24 -1769 172 177 205
-112.76 -1068.35 -1771 179 184 214
-108.949 -1069.46 -1773 181 188 219
-105.308 -1072.38 -1778 190 195 228
-101.475 -1073.49 -1780 191 198 230
-97.6884 -1075.21 -1783 186 195 225
-93.9946 -1078.14 -1788 137 141 176
-90.3299 -1081.68 -1794 108 112 143
-86.5914 -1084.61 -1799 123 127 156
-82.7856 -1086.95 -1803 167 172 197
-79.1377 -1091.7 -1811 188 194 212
-75.3722 -1095.25 -1817 125 130 146
-71.7379 -1101.21 -1827 75 77 93
-68.3192 -1111.4 -1844 74 75 89
-65.0001 -1124.6 -1866 72 71 82
-457.767 -1183.04 -1919 112 102 98
-451.388 -1177.69 -1911 186 169 158
-446.688 -1176.66 -1910 190 168 153
-441.997 -1175.64 -1909 171 140 118
-436.628 -1172.77 -1905 164 123 98
-432.189 -1172.38 -1905 155 110 84
-427.306 -1170.75 -1903 156 109 82
-422.215 -1168.52 -1900 158 110 81
-417.141 -1166.29 -1897 152 107 83
-413.392 -1167.75 -1900 143 98 75
-408.771 -1166.76 -1899 141 95 74
-404.16 -1165.78 -1898 153 110 91
-399.768 -1165.41 -1898 180 147 135
-395.796 -1166.28 -1900 255 233 225
-391.408 -1165.92 -1900 251 248 245
-386.82 -1164.95 -1899 252 249 248
-382.24 -1163.98 -1898 250 246 246
-377.47 -1162.41 -1896 246 243 246
-373.107 -1162.07 -1896 239 229 228
-368.941 -1162.35 -1897 225 219 214
-365.16 -1163.85 -1900 207 204 195
-361.748 -1166.58 -1905 198 192 177
-357.754 -1167.48 -1907 165 147 126
-354.125 -1169.61 -1911 127 106 83
-350.298 -1171.12 -1914 121 98 78
-346.1 -1171.42 -1915 135 110 91
-341.544 -1170.49 -1914 182 158 141
-337.7 -1172.02 -1917 206 183 169
-333.499 -1172.33 -1918 168 154 146
-329.982 -1175.08 -1923 162 152 141
-326.616 -1178.45 -1929 164 154 143
-323.058 -1181.21 -1934 166 153 146
-319.481 -1183.98 -1939 166 151 157
-315.884 -1186.74 -1944 164 152 157
-311.627 -1187.07 -1945 163 156 160
-307.053 -1186.18 -1944 164 160 173
-302.797 -1186.51 -1945 163 164 170
-298.387 -1186.24 -1945 166 170 171
-293.224 -1182.93 -1940 165 169 171
-287.045 -1175.35 -1928 151 155 178
-279.456 -1161.68 -1906 122 126 155
-243.932 -1079.71 -1773 121 128 166
-238.174 -1071.58 -1760 70 77 114
-233.141 -1066.5 -1752 60 67 102
-228.278 -1062.03 -1745 64 71 104
-223.449 -1057.57 -1738 125 130 157
-218.905 -1054.32 -1733 165 169 197
-215.131 -1054.74 -1734 176 180 208
-211.233 -1054.55 -1734 151 156 184
-207.457 -1054.97 -1735 105 109 142
-203.678 -1055.39 -1736 117 121 156
-199.781 -1055.21 -1736 144 148 185
-195.774 -1054.42 -1735 151 155 196
-191.441 -1051.82 -1731 131 138 177
-187.779 -1052.86 -1733 88 96 133
-183.79 -1052.09 -1732 106 116 155
-179.705 -1050.71 -1730 135 144 179
-175.935 -1051.16 -1731 149 156 191
-172.261 -1052.22 -1733 168 175 207
-168.289 -1051.46 -1732 169 176 208
-164.703 -1053.13 -1735 149 161 203
-161.012 -1054.2 -1737 127 143 193
-157.495 -1056.48 -1741 86 111 169
-153.608 -1056.35 -1741 92 115 170
-150.411 -1061.06 -1749 150 170 221
-146.678 -1062.14 -1751 188 193 226
-142.855 -1062.62 -1752 190 197 231
-139.108 -1063.71 -1754 187 195 228
-135.508 -1066.01 -1758 163 170 203
-131.668 -1066.5 -1759 164 169 200
-128.114 -1069.41 -1764 167 171 198
-124.258 -1069.91 -1765 153 157 181
-120.603 -1072.22 -1769 162 167 194
-116.734 -1072.72 -1770 176 181 209
-112.861 -1073.23 -1771 178 184 213
-109.046 -1074.34 -1773 179 186 217
-105.343 -1076.67 -1777 185 192 225
-101.508 -1077.79 -1779 177 184 217
-97.7204 -1079.51 -1782 139 146 179
-94.0255 -1082.46 -1787 137 143 179
-90.3599 -1086.01 -1793 107 113 147
-86.6685 -1089.57 -1799 116 121 153
-82.9052 -1092.52 -1804 156 161 186
-79.3393 -1098.5 -1814 182 190 207
-75.5223 -1101.46 -1819 150 158 174
-71.9195 -1108.06 -1830 78 83 100
-68.4541 -1117.68 -1846 72 73 87
-65.1276 -1130.94 -1868 72 72 82
-459.622 -1192.18 -1925 167 154 148
-452.277 -1184.33 -1913 194 177 166
-446.163 -1179.58 -1906 190 169 155
-441.245 -1177.93 -1904 170 138 115
-436.341 -1176.29 -1902 163 119 89
-430.997 -1173.42 -1898 157 113 86
-425.901 -1171.17 -1895 154 110 86
-420.6 -1168.31 -1891 156 110 84
-415.983 -1167.31 -1890 150 107 83
-411.811 -1167.54 -1891 137 95 72
-407.638 -1167.78 -1892 142 95 74
-403.464 -1168.03 -1893 148 107 87
-399.712 -1169.51 -1896 167 130 115
-395.742 -1170.38 -1898 239 208 199
-391.147 -1169.4 -1897 244 236 234
-386.766 -1169.05 -1897 246 243 240
-381.985 -1167.46 -1895 246 244 242
-377.018 -1165.27 -1892 240 240 240
-372.856 -1165.54 -1893 234 232 227
-368.694 -1165.82 -1894 218 215 208
-365.108 -1167.94 -1898 205 199 192
-361.887 -1171.3 -1904 190 184 174
-358.08 -1172.82 -1907 183 173 165
-354.447 -1174.95 -1911 169 157 148
-350.617 -1176.48 -1914 164 147 135
-346.053 -1175.54 -1913 208 190 174
-341.497 -1174.62 -1912 188 171 157
-338.007 -1177.38 -1917 158 143 135
-333.976 -1178.3 -1919 164 148 142
-330.453 -1181.07 -1924 162 149 140
-327.081 -1184.45 -1930 166 155 144
-323.853 -1188.45 -1937 166 155 148
-319.771 -1189.38 -1939 164 155 157
-316.008 -1191.55 -1943 166 158 163
-310.947 -1188.81 -1939 158 153 163
-306.382 -1187.92 -1938 152 148 161
-301.825 -1187.03 -1937 150 148 161
-297.889 -1188.59 -1940 142 142 154
-292.279 -1183.43 -1932 128 130 144
-286.559 -1177.65 -1923 123 126 147
-278.535 -1162.09 -1898 121 125 151
-243.877 -1083.42 -1771 163 170 210
-238.524 -1077.08 -1761 143 151 187
-234.017 -1074.42 -1757 135 142 177
-229.008 -1069.32 -1749 129 136 169
-224.293 -1065.45 -1743 160 164 191
-219.861 -1062.8 -1739 152 156 183
-215.822 -1061.99 -1738 148 152 178
-211.667 -1060.58 -1736 143 147 175
-208.003 -1061.61 -1738 56 61 89
-204.331 -1062.65 -1740 53 58 87
-200.076 -1060.63 -1737 107 113 144
-195.95 -1059.23 -1735 131 136 177
-191.946 -1058.45 -1734 143 149 188
-187.948 -1057.67 -1733 133 141 178
-183.743 -1055.67 -1730 141 150 190
-180.178 -1057.33 -1733 133 141 179
-176.195 -1056.56 -1732 134 142 178
-172.416 -1057.02 -1733 127 135 168
-168.246 -1055.03 -1730 138 145 178
-164.566 -1056.1 -1732 150 161 200
-160.971 -1057.79 -1735 126 142 190
-157.274 -1058.86 -1737 82 103 163
-153.57 -1059.94 -1739 92 113 168
-150.202 -1063.46 -1745 151 170 220
-146.641 -1065.77 -1749 187 193 225
-142.738 -1065.64 -1749 186 193 227
-139.074 -1067.34 -1752 187 195 229
-135.553 -1070.26 -1757 175 182 215
-131.786 -1071.36 -1759 166 170 201
-127.865 -1071.24 -1759 185 189 218
-124.087 -1072.35 -1761 182 186 214
-120.37 -1074.06 -1764 173 178 207
-116.508 -1074.57 -1765 176 181 210
-112.771 -1076.29 -1768 181 186 215
-109.082 -1078.63 -1772 180 185 218
-105.437 -1081.57 -1777 174 182 216
-101.713 -1083.91 -1781 167 174 208
-98.0273 -1086.87 -1786 151 155 190
-94.3203 -1089.82 -1791 137 145 183
-90.5919 -1092.78 -1796 135 140 176
-86.8905 -1096.35 -1802 155 159 193
-83.0253 -1098.1 -1805 111 116 141
-79.3664 -1102.9 -1813 140 147 167
-75.5897 -1106.48 -1819 166 173 192
-71.9051 -1111.89 -1828 93 97 117
-68.4782 -1122.16 -1845 74 75 87
-65.0112 -1133.05 -1863 77 77 86
-457.897 -1192.03 -1916 199 183 173
-451.512 -1186.64 -1908 193 173 159
-446.107 -1183.73 -1904 201 178 161
-439.797 -1178.35 -1896 182 149 121
-434.907 -1176.7 -1894 165 125 93
-430.031 -1175.06 -1892 161 120 89
-424.944 -1172.8 -1889 157 114 88
-420.32 -1171.79 -1888 149 104 79
-415.706 -1170.78 -1887 138 94 71
-411.536 -1171.02 -1888 134 91 69
-407.366 -1171.26 -1889 146 101 78
-403.196 -1171.51 -1890 149 108 86
-399.236 -1172.38 -1892 150 113 94
-395.271 -1173.25 -1894 202 169 155
-391.3 -1174.13 -1896 223 212 208
-387.121 -1174.39 -1897 228 224 220
-382.335 -1172.79 -1895 229 229 225
-377.364 -1170.59 -1892 228 226 223
-372.804 -1169.62 -1891 217 220 216
-368.642 -1169.9 -1892 206 207 203
-364.865 -1171.42 -1895 192 188 183
-361.077 -1172.94 -1898 193 182 177
-357.28 -1174.46 -1901 192 179 169
-354.4 -1179.08 -1909 190 176 163
-350.571 -1180.61 -1912 172 161 152
-346.188 -1180.29 -1912 154 151 140
-342.345 -1181.83 -1915 153 149 137
-338.845 -1184.6 -1920 158 147 138
-334.803 -1185.53 -1922 164 148 138
-331.271 -1188.3 -1927 163 151 139
-327.38 -1189.85 -1930 163 154 142
-324.148 -1193.87 -1937 161 154 148
-319.402 -1192.34 -1935 152 149 152
-315.156 -1192.67 -1936 145 143 149
-309.625 -1188.07 -1929 135 130 135
-305.237 -1187.79 -1929 125 119 120
-300.228 -1185.05 -1925 128 123 130
-296.931 -1189.09 -1932 134 130 145
-291.636 -1185.13 -1926 131 129 150
-286.969 -1183.63 -1924 107 107 129
-245.063 -1092.65 -1778 163 172 216
-239.96 -1087.52 -1770 168 176 215
-235.029 -1083 -1763 166 173 211
-230.264 -1079.11 -1757 165 172 208
-225.398 -1074.6 -1750 169 175 205
-220.82 -1071.33 -1745 178 183 211
-216.266 -1068.06 -1740 178 183 209
-212.347 -1067.86 -1740 178 182 212
-208.43 -1067.67 -1740 170 176 198
-204.633 -1068.1 -1741 110 116 138
-200.373 -1066.08 -1738 70 77 99
-196.466 -1065.9 -1738 106 113 147
-192.119 -1063.27 -1734 141 147 182
-188.117 -1062.48 -1733 144 150 186
-184.122 -1061.7 -1732 145 153 191
-180.237 -1061.53 -1732 132 140 178
-176.252 -1060.76 -1731 111 119 157
-172.671 -1062.44 -1734 130 138 172
-168.495 -1060.45 -1731 122 129 159
-164.619 -1060.3 -1731 133 142 178
-160.838 -1060.76 -1732 128 141 183
-157.235 -1062.46 -1735 88 107 161
-153.443 -1062.93 -1736 104 122 172
-149.993 -1065.85 -1741 161 179 226
-146.606 -1069.39 -1747 193 202 232
-142.948 -1071.1 -1750 192 200 233
-139.359 -1073.42 -1754 190 197 231
-135.752 -1075.74 -1758 188 195 228
-131.829 -1075.62 -1758 197 201 234
-127.98 -1076.12 -1759 187 192 224
-124.058 -1076 -1759 184 189 219
-120.273 -1077.12 -1761 175 180 210
-116.415 -1077.62 -1762 170 175 204
-112.744 -1079.96 -1766 170 176 205
-109.057 -1082.31 -1770 167 173 205
-105.472 -1085.88 -1776 161 169 205
-101.805 -1088.84 -1781 165 171 208
-97.8957 -1089.37 -1782 155 158 195
-94.1415 -1091.72 -1786 147 152 190
-90.421 -1094.7 -1791 168 174 210
-86.7273 -1098.28 -1797 168 175 209
-82.8697 -1100.04 -1800 110 118 142
-79.3501 -1106.69 -1811 91 99 124
-75.5327 -1109.68 -1816 136 143 167
-71.8122 -1114.5 -1824 102 106 129
-68.2795 -1122.99 -1838 75 76 88
-64.9648 -1136.37 -1860 78 77 87
-456.17 -1191.85 -1907 187 168 157
-450.985 -1189.56 -1904 195 174 158
-444.88 -1184.76 -1897 206 180 159
-438.581 -1179.36 -1889 194 161 132
-433.932 -1178.33 -1888 191 155 125
-428.611 -1175.43 -1884 190 152 123
-423.762 -1173.79 -1882 195 149 123
-419.819 -1174.64 -1884 171 125 100
-415.43 -1174.25 -1884 161 114 89
-410.827 -1173.25 -1883 164 116 93
-407.096 -1174.73 -1886 164 118 90
-402.715 -1174.36 -1886 163 120 93
-398.76 -1175.23 -1888 159 119 93
-394.801 -1176.11 -1890 177 145 124
-391.042 -1177.61 -1893 215 199 187
-387.07 -1178.5 -1895 223 214 207
-382.688 -1178.14 -1895 222 220 218
-377.712 -1175.92 -1892 218 216 216
-372.95 -1174.33 -1890 207 206 206
-368.787 -1174.61 -1891 197 196 196
-364.623 -1174.89 -1892 193 187 184
-360.839 -1176.42 -1895 190 177 171
-357.044 -1177.95 -1898 181 168 159
-353.797 -1181.35 -1904 177 164 153
-349.792 -1182.27 -1906 167 158 148
-345.419 -1181.95 -1906 157 150 141
-341.586 -1183.49 -1909 154 148 140
-338.273 -1186.89 -1915 152 147 136
-334.413 -1188.44 -1918 153 145 145
-330.026 -1188.14 -1918 152 146 145
-325.133 -1185.98 -1915 143 138 137
-322.603 -1192.49 -1926 133 128 130
-317.381 -1189.1 -1921 127 121 125
-313.816 -1191.91 -1926 127 122 126
-308.463 -1187.91 -1920 125 121 126
-305.2 -1191.96 -1927 116 112 113
-299.722 -1187.35 -1920 93 88 90
-295.818 -1188.94 -1923 79 74 79
-289.629 -1181.25 -1911 68 64 69
-285.589 -1182.22 -1913 55 51 61
-278.013 -1168.37 -1891 64 60 72
-245.701 -1099.48 -1781 128 139 192
-241.129 -1096.78 -1777 142 150 197
-236.311 -1092.86 -1771 136 144 189
-231.129 -1087.1 -1762 165 174 216
-226.506 -1083.8 -1757 171 180 215
-221.781 -1079.9 -1751 179 186 218
-216.836 -1074.76 -1743 184 189 219
-212.418 -1072.1 -1739 178 187 217
-208.5 -1071.91 -1739 153 161 185
-204.584 -1071.72 -1739 127 135 157
-200.209 -1069.07 -1735 65 71 92
-196.306 -1068.89 -1735 73 80 107
-191.85 -1065.63 -1730 117 122 153
-188.071 -1066.08 -1731 120 124 160
-183.97 -1064.68 -1729 157 164 198
-180.505 -1066.97 -1733 131 138 173
-176.717 -1067.43 -1734 134 141 177
-173.226 -1069.73 -1738 174 181 214
-169.33 -1069.57 -1738 173 178 206
-165.435 -1069.42 -1738 168 174 205
-161.448 -1068.66 -1737 167 175 211
-157.377 -1067.28 -1735 150 163 203
-153.67 -1068.37 -1737 169 180 221
-150.042 -1070.08 -1740 186 197 239
-146.403 -1071.79 -1743 192 202 234
-142.669 -1072.89 -1745 198 206 240
-139.246 -1076.45 -1751 194 201 235
-135.643 -1078.78 -1755 189 196 229
-131.873 -1079.89 -1757 184 188 221
-128.023 -1080.39 -1758 186 190 222
-124.1 -1080.27 -1758 184 189 218
-120.245 -1080.78 -1759 188 193 223
-116.52 -1082.51 -1762 179 184 213
-112.655 -1083.02 -1763 164 169 198
-108.909 -1084.77 -1766 159 164 197
-105.33 -1088.35 -1772 150 157 194
-101.611 -1090.72 -1776 155 162 198
-97.5992 -1090.01 -1775 146 151 186
-93.9628 -1093.61 -1781 139 145 182
-90.351 -1097.82 -1788 165 171 207
-86.5641 -1100.2 -1792 172 179 213
-82.7602 -1102.58 -1796 120 128 153
-79.2024 -1108.65 -1806 103 111 137
-75.4761 -1112.87 -1813 105 112 137
-71.6799 -1116.49 -1819 103 107 130
-68.0808 -1123.79 -1831 79 78 92
-64.6738 -1135.39 -1850 81 80 91
-60.8883 -1141.47 -1860 81 80 87
-449.273 -1189.33 -1895 163 142 129
-443.653 -1185.77 -1890 183 158 139
-437.131 -1179.71 -1881 213 182 157
-432.957 -1179.93 -1882 219 185 160
-428.1 -1178.28 -1880 219 182 157
-423.256 -1176.63 -1878 221 176 155
-419.318 -1177.48 -1880 205 160 138
-415.375 -1178.35 -1882 173 127 104
-411.427 -1179.21 -1884 167 120 94
-407.259 -1179.46 -1885 167 119 89
-403.089 -1179.71 -1886 165 121 91
-398.919 -1179.96 -1887 164 123 93
-394.958 -1180.84 -1889 164 131 106
-390.992 -1181.72 -1891 207 184 169
-387.225 -1183.23 -1894 209 191 181
-383.245 -1184.12 -1896 207 197 193
-378.062 -1181.27 -1892 204 202 200
-373.691 -1180.92 -1892 196 195 193
-369.129 -1179.96 -1891 187 187 185
-364.575 -1178.99 -1890 185 179 176
-360.601 -1179.9 -1892 181 171 167
-356.621 -1180.82 -1894 174 163 159
-353.38 -1184.23 -1900 163 153 147
-349.197 -1184.52 -1901 152 142 138
-345.194 -1185.45 -1903 145 137 133
-341.185 -1186.38 -1905 141 135 132
-338.939 -1193.53 -1917 142 136 132
-334.721 -1193.85 -1918 135 128 131
-330.33 -1193.54 -1918 130 124 128
-325.433 -1191.37 -1915 132 128 131
-321.894 -1194.18 -1920 133 127 129
-315.689 -1187.04 -1909 123 117 119
-312.311 -1190.49 -1915 100 94 96
-307.139 -1187.09 -1910 70 66 70
-302.944 -1187.43 -1911 55 51 53
-297.498 -1182.81 -1904 55 51 52
-293.164 -1182.53 -1904 56 52 53
-288.227 -1179.78 -1900 57 53 56
-283.908 -1179.52 -1900 59 54 60
-278.121 -1173.05 -1890 65 60 69
-246.616 -1107.57 -1786 94 106 157
-241.893 -1104.24 -1781 109 121 171
-237.062 -1100.3 -1775 127 137 185
-231.997 -1095.13 -1767 163 169 213
-227.358 -1091.82 -1762 180 185 218
-222.618 -1087.9 -1756 183 188 221
-217.657 -1082.74 -1748 189 193 227
-212.735 -1077.59 -1740 184 193 221
-208.451 -1075.53 -1737 178 186 211
-204.536 -1075.35 -1737 169 176 201
-200.161 -1072.68 -1733 166 171 195
-196.258 -1072.5 -1733 159 164 191
-192.358 -1072.32 -1733 151 156 185
-188.351 -1071.53 -1732 81 86 117
-184.457 -1071.36 -1732 94 102 130
-180.774 -1072.43 -1734 118 125 155
-176.981 -1072.89 -1735 114 121 152
-173.385 -1074.58 -1738 173 180 210
-169.484 -1074.42 -1738 183 187 214
-165.585 -1074.27 -1738 186 191 219
-161.874 -1075.36 -1740 190 198 228
-157.702 -1073.36 -1737 196 201 229
-153.81 -1073.22 -1737 192 196 227
-150.179 -1074.93 -1740 187 190 224
-146.62 -1077.27 -1744 181 192 227
-142.881 -1078.37 -1746 193 201 236
-139.532 -1082.56 -1753 197 204 239
-135.844 -1084.29 -1756 192 199 232
-132.069 -1085.4 -1758 177 180 212
-128.213 -1085.9 -1759 175 179 210
-124.142 -1084.55 -1757 168 173 202
-120.218 -1084.44 -1757 184 189 218
-116.56 -1086.8 -1761 183 188 217
-112.693 -1087.31 -1762 175 180 210
-109.07 -1090.3 -1767 152 157 190
-105.545 -1094.52 -1774 158 166 201
-101.875 -1097.51 -1779 160 169 204
-97.853 -1096.8 -1778 148 159 192
-94.2064 -1100.42 -1784 154 161 197
-90.5342 -1104.03 -1790 160 168 203
-86.691 -1105.8 -1793 80 88 122
-82.9275 -1108.81 -1798 123 130 158
-79.2305 -1113.05 -1805 117 125 152
-75.4612 -1116.68 -1811 106 113 139
-71.6266 -1119.7 -1816 95 97 120
-68.0682 -1127.65 -1829 87 85 101
-64.6625 -1139.3 -1848 80 79 91
-61.0418 -1148.49 -1863 78 77 84
-447.085 -1187.8 -1884 184 164 152
-441.72 -1184.86 -1880 174 150 132
-436.844 -1183.19 -1878 217 188 166
-432.442 -1182.78 -1878 228 196 175
-427.134 -1179.86 -1874 228 191 172
-422.75 -1179.46 -1874 226 182 166
-419.264 -1181.58 -1878 213 170 153
-414.66 -1180.56 -1877 181 137 118
-410.282 -1180.17 -1877 173 126 99
-406.558 -1181.68 -1880 173 125 92
-401.969 -1180.67 -1879 171 126 93
-397.811 -1180.92 -1880 164 123 91
-393.653 -1181.18 -1881 155 122 95
-390.115 -1183.32 -1885 201 175 157
-386.563 -1185.47 -1889 207 185 173
-382.996 -1187.62 -1893 205 191 187
-378.214 -1186.01 -1891 192 188 185
-373.841 -1185.66 -1891 181 178 175
-369.081 -1184.06 -1889 172 170 166
-364.914 -1184.34 -1890 173 167 166
-360.554 -1184 -1890 173 162 163
-357.141 -1186.8 -1895 166 155 155
-353.895 -1190.23 -1901 148 139 139
-349.521 -1189.9 -1901 135 125 126
-345.151 -1189.58 -1901 126 117 119
-341.143 -1190.51 -1903 128 120 123
-338.192 -1195.2 -1911 129 125 126
-333.809 -1194.88 -1911 120 116 118
-329.258 -1193.95 -1910 104 100 103
-324.374 -1191.77 -1907 79 75 78
-321.353 -1196.47 -1915 66 61 62
-314.823 -1188.06 -1902 60 55 56
-311.947 -1193.39 -1911 55 49 50
-307.101 -1191.23 -1908 54 50 53
-303.383 -1193.44 -1912 54 50 51
-297.773 -1188.17 -1904 53 49 50
-293.589 -1188.52 -1905 58 54 55
-288.19 -1183.88 -1898 62 58 60
-284.32 -1185.49 -1901 62 58 61
-278.083 -1177.12 -1888 64 60 64
-254.827 -1130.26 -1814 118 122 162
-248.364 -1119.44 -1797 134 141 188
-242.524 -1111.11 -1784 112 120 176
-237.681 -1107.16 -1778 95 102 159
-232.605 -1101.96 -1770 141 144 195
-228.213 -1099.88 -1767 182 187 221
-223.584 -1096.56 -1762 182 188 221
-218.605 -1091.37 -1754 187 192 224
-213.42 -1084.95 -1744 185 193 222
-209.003 -1082.27 -1740 175 183 210
-204.841 -1080.84 -1738 165 172 199
-200.46 -1078.16 -1734 173 178 206
-196.665 -1078.6 -1735 175 180 207
-192.535 -1077.18 -1733 181 186 212
-188.524 -1076.38 -1732 170 175 198
-184.627 -1076.21 -1732 108 116 138
-180.731 -1076.04 -1732 103 111 135
-177.143 -1077.74 -1735 118 126 152
-173.643 -1080.07 -1739 148 155 186
-169.932 -1081.15 -1741 179 184 213
-166.119 -1081.62 -1742 182 189 218
-162.116 -1080.84 -1741 189 199 230
-158.21 -1080.7 -1741 199 205 233
-154.128 -1079.31 -1739 198 202 234
-150.317 -1079.79 -1740 191 194 229
-146.586 -1080.9 -1742 176 185 223
-143.012 -1083.25 -1746 185 192 229
-139.5 -1086.22 -1751 193 200 236
-135.891 -1088.57 -1755 193 200 233
-132.039 -1089.07 -1756 178 183 214
-128.184 -1089.57 -1757 146 151 181
-124.184 -1088.84 -1756 156 161 190
-120.191 -1088.11 -1755 97 102 132
-116.534 -1090.48 -1759 148 153 183
-112.732 -1091.61 -1761 162 167 196
-109.17 -1095.23 -1767 137 142 174
-105.522 -1098.23 -1772 150 157 193
-101.91 -1101.85 -1778 152 161 196
-97.9974 -1102.38 -1779 127 141 173
-94.2925 -1105.39 -1784 138 146 182
-90.6168 -1109.02 -1790 123 132 166
-86.8185 -1111.42 -1794 94 104 136
-83.0032 -1113.82 -1798 121 127 157
-79.2148 -1116.85 -1803 122 127 155
-75.4049 -1119.87 -1808 116 121 147
-71.6525 -1124.14 -1815 118 120 142
-68.0557 -1131.51 -1827 99 96 111
-64.6864 -1143.83 -1847 82 80 91
-60.9335 -1150.59 -1858 77 76 83
-444.657 -1185.6 -1872 195 179 169
-441.432 -1188.34 -1877 185 164 148
-437.256 -1188.56 -1878 192 167 147
-432.85 -1188.15 -1878 217 189 167
-427.993 -1186.48 -1876 223 190 169
-423.826 -1186.71 -1877 220 178 160
-420.106 -1188.21 -1880 206 165 147
-415.492 -1187.18 -1879 186 144 127
-411.106 -1186.79 -1879 175 131 102
-406.941 -1187.04 -1880 170 127 94
-401.918 -1184.76 -1877 168 126 94
-397.549 -1184.38 -1877 160 122 92
-393.394 -1184.64 -1878 147 116 92
-390.067 -1187.43 -1883 177 152 136
-386.516 -1189.58 -1887 190 169 159
-382.95 -1191.74 -1891 183 172 170
-378.368 -1190.76 -1890 176 170 165
-373.598 -1189.14 -1888 167 163 158
-368.253 -1185.65 -1883 161 159 155
-363.902 -1185.3 -1883 151 147 146
-359.364 -1184.34 -1882 141 132 133
-355.4 -1185.26 -1884 130 120 122
-352.176 -1188.7 -1890 118 110 113
-347.271 -1186.49 -1887 110 101 105
-342.747 -1185.54 -1886 99 91 95
-339.488 -1188.99 -1892 86 79 83
-336.913 -1194.96 -1902 74 71 74
-332.372 -1194.01 -1901 60 56 57
-328.011 -1193.71 -1901 53 48 48
-323.825 -1194.03 -1902 53 49 50
-319.804 -1194.98 -1904 53 49 52
-314.619 -1191.55 -1899 53 49 52
-312.4 -1199.41 -1912 56 51 53
-307.709 -1197.87 -1910 55 51 54
-303.823 -1199.47 -1913 57 53 54
-297.58 -1191.66 -1901 54 50 51
-292.011 -1186.38 -1893 59 55 56
-287.241 -1184.23 -1890 63 59 60
-283.087 -1184.59 -1891 63 59 61
-277.752 -1179.94 -1884 65 61 63
-272.451 -1175.3 -1877 67 64 82
-265.756 -1164.41 -1860 90 89 113
-257.032 -1144.14 -1828 138 140 169
-250.531 -1133.26 -1811 142 147 187
-244.245 -1123.02 -1795 142 146 194
-238.035 -1112.79 -1779 115 119 170
-233.083 -1108.19 -1772 121 128 178
-228.683 -1106.1 -1769 175 187 227
-223.663 -1100.89 -1761 178 189 226
-218.558 -1095.06 -1752 181 189 224
-213.74 -1090.48 -1745 184 189 221
-209.076 -1086.54 -1739 183 188 218
-204.677 -1083.85 -1735 181 186 216
-200.645 -1083.04 -1734 172 177 207
-196.733 -1082.85 -1734 175 180 210
-192.713 -1082.05 -1733 174 180 206
-188.807 -1081.87 -1733 171 177 196
-184.69 -1080.45 -1731 158 165 186
-180.897 -1080.9 -1732 107 114 139
-177.204 -1081.99 -1734 124 131 159
-173.504 -1083.07 -1736 116 123 157
-169.893 -1084.79 -1739 146 154 187
-166.367 -1087.13 -1743 163 173 207
-162.358 -1086.35 -1742 139 151 192
-158.265 -1084.96 -1740 156 166 208
-154.359 -1084.81 -1740 145 157 199
-150.368 -1084.05 -1739 151 164 206
-146.637 -1085.16 -1741 179 188 226
-143.225 -1088.76 -1747 188 196 233
-139.549 -1090.5 -1750 196 204 241
-135.783 -1091.62 -1752 195 202 236
-132.01 -1092.74 -1754 178 184 215
-128.229 -1093.87 -1756 88 94 123
-124.157 -1092.51 -1754 80 84 113
-120.369 -1093.64 -1756 113 118 149
-116.707 -1096.02 -1760 159 164 195
-112.835 -1096.54 -1761 137 142 172
-109.27 -1100.17 -1767 126 131 162
-105.559 -1102.57 -1771 70 77 111
-101.832 -1104.96 -1775 89 98 132
-97.922 -1105.49 -1776 130 144 175
-94.1144 -1107.27 -1779 151 159 194
-90.3959 -1110.3 -1784 132 141 174
-86.6075 -1112.71 -1788 56 65 96
-82.802 -1115.12 -1792 72 77 105
-79.1115 -1119.4 -1799 90 95 121
-75.3487 -1123.06 -1805 108 112 136
-71.6785 -1128.59 -1814 135 136 157
-68.0808 -1135.99 -1826 121 117 131
-64.7456 -1149 -1847 85 82 93
-60.9565 -1155.16 -1857 78 77 85
-57.4293 -1167.55 -1877 79 76 81
-439.497 -1187.37 -1867 205 188 178
-436.506 -1190.77 -1873 177 157 141
-431.646 -1189.09 -1871 179 156 137
-426.571 -1186.77 -1868 192 163 140
-422.645 -1187.64 -1870 195 157 134
-420.057 -1192.32 -1878 194 156 134
-415 -1190.02 -1875 189 152 133
-411.057 -1190.9 -1877 182 147 121
-406.892 -1191.14 -1878 174 143 114
-402.298 -1190.13 -1877 170 141 112
-397.713 -1189.11 -1876 182 155 133
-393.765 -1190.01 -1878 206 183 167
-390.227 -1192.17 -1882 197 178 166
-385.65 -1191.17 -1881 166 150 144
-382.094 -1193.34 -1885 154 148 149
-377.723 -1192.98 -1885 150 144 142
-372.959 -1191.36 -1883 144 139 136
-368.6 -1191.01 -1883 128 124 121
-365.599 -1195.09 -1890 118 114 113
-360.466 -1192.22 -1886 107 101 102
-356.489 -1193.15 -1888 90 82 85
-351.947 -1192.18 -1887 73 65 66
-346.86 -1189.33 -1883 61 53 54
-343.251 -1191.53 -1887 61 54 55
-339.806 -1194.36 -1892 59 55 56
-336.342 -1197.2 -1897 58 55 56
-331.983 -1196.89 -1897 55 51 51
-327.11 -1194.69 -1894 54 50 49
-322.423 -1193.12 -1892 51 47 48
-318.591 -1194.71 -1895 52 48 50
-312.923 -1189.37 -1887 54 50 52
-312.038 -1202.31 -1908 54 50 53
-306.867 -1198.87 -1903 58 54 57
-302.677 -1199.22 -1904 60 56 58
-297.231 -1194.53 -1897 56 52 53
-291.511 -1188.59 -1888 57 53 54
-286.14 -1183.91 -1881 62 58 59
-282.152 -1184.9 -1883 66 62 63
-276.535 -1178.98 -1874 65 61 63
-266.433 -1171.55 -1863 69 67 81
-259.523 -1159.36 -1844 119 120 137
-252.287 -1145.29 -1822 146 149 183
-245.835 -1134.37 -1805 152 156 192
-239.328 -1122.84 -1787 165 169 206
-233.958 -1116.33 -1777 113 123 161
-229.154 -1112.35 -1771 102 118 162
-224.253 -1107.74 -1764 122 137 183
-219.135 -1101.88 -1755 134 146 193
-214.061 -1096.03 -1746 159 163 199
-209.39 -1092.07 -1740 164 169 202
-205.339 -1091.25 -1739 157 162 193
-201.063 -1089.18 -1736 138 143 175
-197.143 -1088.99 -1736 159 162 195
-193.114 -1088.18 -1735 157 160 192
-189.2 -1088.01 -1735 122 127 151
-184.861 -1085.32 -1731 126 131 157
-181.065 -1085.78 -1732 152 157 186
-177.368 -1086.87 -1734 138 143 176
-173.964 -1089.84 -1739 125 131 167
-170.149 -1090.3 -1740 128 137 173
-166.521 -1092.03 -1743 150 160 197
-162.602 -1091.88 -1743 138 147 190
-158.593 -1091.1 -1742 146 159 211
-154.679 -1090.95 -1742 100 116 167
-150.94 -1092.07 -1744 103 122 173
-147.025 -1091.93 -1744 162 173 211
-143.439 -1094.3 -1748 182 191 231
-139.758 -1096.04 -1751 188 196 237
-135.986 -1097.17 -1753 179 187 223
-132.056 -1097.04 -1753 155 162 191
-128.347 -1098.8 -1756 99 104 133
-124.272 -1097.43 -1754 85 89 117
-120.549 -1099.2 -1757 149 154 185
-116.881 -1101.59 -1761 154 159 190
-113.004 -1102.11 -1762 144 149 180
-109.247 -1103.88 -1765 118 123 154
-105.537 -1106.28 -1769 82 89 122
-101.753 -1108.06 -1772 80 88 121
-98.0122 -1110.47 -1776 146 158 189
-94.2543 -1112.88 -1780 165 173 207
-90.4792 -1115.3 -1784 180 189 221
-86.6872 -1117.72 -1788 144 152 183
-82.9246 -1120.77 -1793 70 75 98
-79.1844 -1124.44 -1799 80 83 106
-75.4182 -1128.12 -1805 103 105 128
-71.8237 -1134.93 -1816 146 144 165
-68.1435 -1141.11 -1826 121 117 127
-64.5596 -1149.8 -1840 90 87 96
-60.7825 -1155.99 -1850 81 80 88
-57.237 -1167.81 -1869 80 77 82
-435.523 -1192.33 -1867 199 185 177
-430.441 -1190 -1864 199 181 168
-425.606 -1188.31 -1862 199 177 155
-421.464 -1188.54 -1863 202 171 149
-418.665 -1192.61 -1870 202 169 147
-414.952 -1194.12 -1873 204 175 155
-411.667 -1196.92 -1878 213 189 170
-407.061 -1195.89 -1877 213 194 175
-403.109 -1196.78 -1879 212 196 178
-398.727 -1196.4 -1879 196 181 170
-393.719 -1194.11 -1876 184 173 165
-389.767 -1195.01 -1878 178 167 161
-385.4 -1194.64 -1878 139 129 126
-381.848 -1196.82 -1882 126 119 123
-377.679 -1197.1 -1883 122 114 116
-373.51 -1197.38 -1884 119 112 113
-368.949 -1196.39 -1883 102 98 97
-366.138 -1201.12 -1891 83 79 78
-360.424 -1196.33 -1884 62 57 57
-355.692 -1194.73 -1882 54 47 49
-350.599 -1191.85 -1878 63 56 54
-346.819 -1193.43 -1881 62 56 53
-342.664 -1193.73 -1882 64 58 56
-339.407 -1197.22 -1888 60 57 55
-335.771 -1199.43 -1892 58 56 54
-331.945 -1201.02 -1895 56 54 53
-326.726 -1197.54 -1890 57 54 55
-322.727 -1198.5 -1892 58 55 56
-318.049 -1196.93 -1890 57 54 55
-313.549 -1196 -1889 60 56 57
-311.349 -1203.94 -1902 62 58 60
-306.187 -1200.48 -1897 61 57 59
-302.165 -1201.46 -1899 58 54 56
-296.726 -1196.75 -1892 55 51 52
-291.012 -1190.78 -1883 55 51 52
-285.038 -1183.56 -1872 60 56 57
-280.017 -1180.13 -1867 65 61 62
-274.135 -1172.92 -1856 62 58 61
-268.598 -1166.98 -1847 57 51 59
-263.39 -1162.3 -1840 60 55 64
-257.653 -1155.11 -1829 65 63 73
-251.83 -1147.3 -1817 121 121 147
-245.928 -1138.85 -1804 166 170 201
-239.954 -1129.79 -1790 168 176 210
-234.968 -1125.15 -1783 151 160 194
-229.887 -1119.88 -1775 103 115 155
-224.971 -1115.25 -1768 79 92 135
-220.09 -1110.63 -1761 96 109 156
-215.12 -1105.38 -1753 148 152 189
-210.067 -1099.51 -1744 162 167 202
-205.767 -1097.42 -1741 160 165 198
-201.598 -1095.97 -1739 144 147 181
-197.327 -1093.9 -1736 155 156 191
-193.071 -1091.82 -1733 165 166 201
-189.377 -1092.9 -1735 156 161 193
-185.247 -1091.47 -1733 133 140 173
-181.129 -1090.04 -1731 147 153 187
-177.226 -1089.87 -1731 155 159 194
-173.826 -1092.86 -1736 139 143 180
-169.915 -1092.7 -1736 132 138 174
-166.389 -1095.06 -1740 140 148 184
-162.566 -1095.53 -1741 148 155 195
-159.014 -1097.9 -1745 155 166 213
-154.912 -1096.49 -1743 142 155 204
-151.167 -1097.61 -1745 128 143 197
-147.499 -1099.36 -1748 125 138 179
-143.737 -1100.48 -1750 145 155 197
-139.808 -1100.35 -1750 187 195 238
-135.957 -1100.85 -1751 185 193 229
-132.028 -1100.72 -1751 114 120 148
-128.247 -1101.86 -1753 82 86 113
-124.529 -1103.63 -1756 142 144 172
-120.73 -1104.77 -1758 129 134 165
-116.99 -1106.54 -1761 159 164 195
-113.237 -1108.32 -1764 152 157 188
-109.596 -1111.36 -1769 145 150 181
-105.814 -1113.14 -1772 158 164 195
-102.078 -1115.56 -1776 123 130 161
-98.2136 -1116.72 -1778 157 166 196
-94.6066 -1121.03 -1785 168 174 207
-90.7154 -1122.2 -1787 187 193 225
-86.9132 -1124.63 -1791 190 195 225
-83.1866 -1128.32 -1797 165 169 189
-79.5221 -1133.27 -1805 160 162 182
-75.6971 -1136.33 -1810 183 184 202
-72.0881 -1143.17 -1821 194 191 206
-68.3186 -1148.13 -1829 134 129 137
-64.6545 -1155.6 -1841 88 85 93
-60.6743 -1158.05 -1845 78 77 85
-57.2288 -1171.8 -1867 78 75 80
-427.158 -1196.88 -1867 192 172 161
-424.132 -1200.32 -1873 199 178 166
-420.858 -1203.12 -1878 202 180 168
-415.792 -1200.8 -1875 195 176 163
-412.279 -1202.96 -1879 187 172 159
-406.799 -1199.37 -1874 183 172 162
-401.99 -1197.7 -1872 179 172 166
-397.195 -1196.04 -1870 168 157 154
-392.834 -1195.66 -1870 162 153 151
-389.1 -1197.21 -1873 155 147 145
-384.534 -1196.2 -1872 132 124 124
-380.789 -1197.75 -1875 119 113 112
-377.035 -1199.3 -1878 92 85 88
-372.873 -1199.58 -1879 72 64 70
-368.907 -1200.51 -1881 58 52 55
-367.261 -1209.09 -1895 57 53 52
-361.341 -1203.64 -1887 63 59 58
-356.975 -1203.3 -1887 71 67 66
-352.053 -1201.05 -1884 73 69 66
-348.07 -1201.99 -1886 71 66 63
-342.989 -1199.11 -1882 71 65 62
-339.549 -1201.97 -1887 68 66 63
-334.313 -1198.47 -1882 61 59 58
-330.682 -1200.7 -1886 60 58 57
-325.478 -1197.21 -1881 59 56 57
-321.325 -1197.54 -1882 61 58 59
-318.349 -1202.32 -1890 61 58 59
-306.799 -1207.16 -1899 62 58 59
-301.973 -1204.96 -1896 61 57 58
-295.75 -1197.06 -1884 61 57 58
-288.657 -1185.34 -1866 60 56 58
-282.106 -1175.55 -1851 64 60 61
-276.678 -1170.2 -1843 65 61 62
-271.289 -1164.87 -1835 63 59 63
-265.794 -1158.9 -1826 60 53 61
-260.915 -1155.48 -1821 57 51 60
-256.344 -1153.33 -1818 55 51 59
-251.512 -1149.92 -1813 73 70 89
-246.296 -1144.61 -1805 139 139 166
-240.716 -1137.41 -1794 168 170 207
-235.716 -1132.75 -1787 172 176 212
-230.751 -1128.09 -1780 166 172 209
-225.819 -1123.44 -1773 142 150 188
-220.922 -1118.79 -1766 136 145 184
-216.304 -1115.42 -1761 145 149 186
-211.349 -1110.15 -1753 153 157 193
-206.788 -1106.79 -1748 154 158 193
-202.251 -1103.43 -1743 148 151 186
-197.853 -1100.71 -1739 142 144 179
-193.475 -1098 -1735 143 145 180
-189.445 -1097.18 -1734 142 146 183
-185.207 -1095.11 -1731 146 152 186
-181.613 -1096.84 -1734 156 162 195
-177.699 -1096.67 -1734 155 160 193
-174.49 -1100.93 -1741 141 146 179
-170.368 -1099.5 -1739 138 145 179
-166.736 -1101.24 -1742 134 143 179
-162.625 -1099.82 -1740 144 153 192
-159.071 -1102.2 -1744 154 162 203
-155.235 -1102.68 -1745 151 160 204
-151.395 -1103.17 -1746 141 153 201
-147.637 -1104.3 -1748 136 148 192
-143.954 -1106.05 -1751 162 171 216
-140.098 -1106.55 -1752 174 182 226
-136.084 -1105.79 -1751 170 178 214
-132.302 -1106.93 -1753 132 138 168
-128.586 -1108.7 -1756 140 144 172
-124.858 -1110.48 -1759 169 170 198
-121.324 -1114.15 -1765 165 170 201
-117.431 -1114.67 -1766 157 162 194
-113.664 -1116.46 -1769 102 107 140
-110.008 -1119.51 -1774 173 178 209
-106.032 -1119.41 -1774 197 202 233
-102.23 -1121.2 -1777 197 202 233
-98.5815 -1124.89 -1783 179 183 215
-94.6947 -1126.06 -1785 129 134 167
-90.9015 -1128.5 -1789 165 169 200
-87.0912 -1130.94 -1793 195 199 227
-83.3568 -1134.65 -1799 197 201 221
-79.7285 -1140.25 -1808 196 199 215
-75.9769 -1144.59 -1815 200 202 216
-72.2741 -1150.19 -1824 163 160 169
-68.4196 -1153.91 -1830 146 142 146
-64.6092 -1158.89 -1838 92 89 95
-60.5662 -1160.1 -1840 77 76 84
-56.9138 -1169.5 -1855 78 75 80
-52.9388 -1173.23 -1861 0 0 0
-418.123 -1199.53 -1864 183 171 172
-413.972 -1199.77 -1865 181 172 164
-410.479 -1201.95 -1869 191 181 176
-405.451 -1199.63 -1866 196 187 184
-402.161 -1202.45 -1871 187 179 181
-397.789 -1202.07 -1871 168 154 155
-392.369 -1198.48 -1866 129 118 118
-388.433 -1199.39 -1868 95 86 85
-383.874 -1198.37 -1867 82 74 72
-380.137 -1199.93 -1870 73 68 66
-376.591 -1202.14 -1874 63 57 58
-373.825 -1206.91 -1882 66 58 65
-369.652 -1207.19 -1883 66 59 65
-366.448 -1210.69 -1889 64 59 60
-360.727 -1205.85 -1882 72 68 67
-356.558 -1206.15 -1883 74 72 69
-351.266 -1202.61 -1878 73 69 69
-346.924 -1202.28 -1878 77 73 72
-341.856 -1199.39 -1874 76 70 69
-338.251 -1201.62 -1878 72 69 69
-332.853 -1197.46 -1872 65 64 64
-329.592 -1200.99 -1878 61 61 61
-325.268 -1200.67 -1878 62 60 59
-321.63 -1202.92 -1882 62 60 59
-317.134 -1201.98 -1881 59 56 56
-309.971 -1207.13 -1890 58 55 57
-303.856 -1199.81 -1879 61 57 58
-297.317 -1190.59 -1865 63 59 60
-291.002 -1182.01 -1852 66 62 63
-284.44 -1172.17 -1837 67 63 65
-278.56 -1164.88 -1826 65 61 62
-273.183 -1159.52 -1818 64 60 60
-268.29 -1156.07 -1813 61 57 63
-263.568 -1153.27 -1809 60 53 64
-258.437 -1148.56 -1802 59 52 64
-254.046 -1147.04 -1800 57 51 60
-249.667 -1145.53 -1798 59 55 66
-245.163 -1143.38 -1795 72 67 85
-240.272 -1139.33 -1789 129 120 151
-235.675 -1136.56 -1785 165 163 200
-231.098 -1133.79 -1781 160 163 200
-226.287 -1129.75 -1775 156 163 200
-221.882 -1127.63 -1772 161 164 205
-217.369 -1124.88 -1768 161 164 200
-212.514 -1120.22 -1761 128 131 167
-207.812 -1116.21 -1755 99 102 139
-202.907 -1110.93 -1747 125 128 167
-198.04 -1105.65 -1739 164 166 203
-193.434 -1101.65 -1733 159 160 195
-189.623 -1102.11 -1734 129 132 169
-185.595 -1101.29 -1733 134 139 171
-181.888 -1102.39 -1735 163 168 199
-178.174 -1103.49 -1737 166 171 202
-174.353 -1103.96 -1738 153 160 193
-170.332 -1103.16 -1737 137 147 182
-166.893 -1106.18 -1742 137 150 187
-162.684 -1104.12 -1739 121 135 178
-159.038 -1105.87 -1742 148 155 196
-155.292 -1107 -1744 144 151 191
-151.624 -1108.75 -1747 139 149 191
-147.86 -1109.88 -1749 128 137 182
-144.253 -1112.28 -1753 142 151 194
-140.47 -1113.42 -1755 134 142 184
-136.523 -1113.29 -1755 139 147 184
-132.804 -1115.06 -1758 76 83 115
-129.073 -1116.84 -1761 106 112 143
-125.543 -1120.53 -1767 121 124 153
-121.713 -1121.68 -1769 138 143 175
-117.874 -1122.84 -1771 115 121 153
-114.028 -1124 -1773 113 119 152
-110.235 -1125.79 -1776 162 165 198
-106.251 -1125.69 -1776 193 195 226
-102.556 -1128.76 -1781 198 199 229
-98.7292 -1130.57 -1784 203 205 237
-94.9426 -1133.01 -1788 189 194 225
-91.1901 -1136.09 -1793 170 173 204
-87.3673 -1138.54 -1797 198 200 228
-83.5739 -1141.63 -1802 207 211 231
-79.803 -1145.36 -1808 211 212 227
-76.048 -1149.72 -1815 210 209 221
-72.3417 -1155.35 -1824 171 163 172
-68.4087 -1157.82 -1828 160 150 153
-64.5289 -1161.55 -1834 101 93 95
-60.6228 -1165.3 -1840 83 78 80
-56.9976 -1175.37 -1856 78 75 80
-416.73 -1199.76 -1856 110 104 101
-411.483 -1196.77 -1852 104 98 97
-407.138 -1196.37 -1852 91 85 84
-402.362 -1194.69 -1850 85 79 78
-398.676 -1196.24 -1853 85 81 78
-395.193 -1198.44 -1857 80 75 73
-390.853 -1198.06 -1857 75 70 66
-387.558 -1200.91 -1862 77 73 68
-383.009 -1199.89 -1861 75 69 66
-379.689 -1202.75 -1866 73 67 65
-375.344 -1202.38 -1866 72 67 66
-372.196 -1205.89 -1872 73 68 70
-368.828 -1208.75 -1877 72 65 67
-365.634 -1212.26 -1883 70 64 65
-359.922 -1207.41 -1876 77 72 71
-356.711 -1210.93 -1882 78 76 73
-352.539 -1211.23 -1883 79 74 74
-348.366 -1211.53 -1884 78 73 73
-343.097 -1207.99 -1879 77 72 72
-338.936 -1208.3 -1880 71 68 70
-332.282 -1199.63 -1867 65 64 65
-327.799 -1198.67 -1866 60 60 60
-322.805 -1195.79 -1862 63 58 60
-319.029 -1197.41 -1865 60 55 55
-315.075 -1198.39 -1867 60 55 55
-300.585 -1191.09 -1857 63 59 60
-294.569 -1183.75 -1846 61 56 57
-288.291 -1175.13 -1833 64 61 61
-282.541 -1168.45 -1823 66 63 63
-277.451 -1164.34 -1817 65 61 61
-272.09 -1158.95 -1809 67 60 60
-267.064 -1154.85 -1803 60 56 62
-262.215 -1151.4 -1798 59 54 58
-257.391 -1147.95 -1793 59 54 57
-252.734 -1145.14 -1789 57 51 57
-248.792 -1145.54 -1790 58 50 60
-244.576 -1144.67 -1789 59 49 62
-240.5 -1144.44 -1789 71 57 74
-236.295 -1143.57 -1788 93 82 108
-231.967 -1142.07 -1786 140 130 161
-227.14 -1138.01 -1780 153 144 179
-222.969 -1137.16 -1779 161 160 199
-218.313 -1133.76 -1774 177 180 218
-213.44 -1129.08 -1767 125 129 167
-208.72 -1125.04 -1761 63 69 106
-204.029 -1121.01 -1755 55 67 107
-199.025 -1115.08 -1746 83 92 135
-193.952 -1108.5 -1736 113 120 166
-190.24 -1109.6 -1738 103 107 148
-185.985 -1107.5 -1735 139 143 179
-182.27 -1108.61 -1737 128 131 166
-178.446 -1109.07 -1738 149 150 182
-174.919 -1111.46 -1742 156 163 199
-170.886 -1110.66 -1741 145 155 192
-167.05 -1111.13 -1742 147 160 199
-162.931 -1109.7 -1740 151 162 197
-159.371 -1112.1 -1744 153 162 196
-155.795 -1114.5 -1748 147 154 189
-152.115 -1116.27 -1751 153 159 200
-148.423 -1118.04 -1754 122 129 176
-144.801 -1120.45 -1758 131 141 184
-141.003 -1121.59 -1760 140 154 192
-137.119 -1122.1 -1761 128 138 178
-133.459 -1124.52 -1765 122 130 167
-129.709 -1126.3 -1768 142 150 185
-126.16 -1130 -1774 130 142 175
-122.24 -1130.52 -1775 136 142 178
-118.451 -1132.32 -1778 141 147 183
-114.65 -1134.12 -1781 176 182 218
-110.712 -1134.65 -1782 201 205 238
-106.711 -1134.55 -1782 203 203 231
-102.941 -1137 -1786 206 204 230
-99.0437 -1138.17 -1788 204 208 236
-95.2446 -1140.63 -1792 207 210 242
-91.4795 -1143.72 -1797 196 199 230
-87.6927 -1146.82 -1802 184 187 216
-83.8846 -1149.92 -1807 208 208 230
-79.8781 -1150.48 -1808 212 208 219
-76.0356 -1153.59 -1813 200 192 198
-72.1715 -1156.7 -1818 160 144 150
-68.2108 -1158.54 -1821 165 149 150
-64.2374 -1160.39 -1824 168 154 152
-60.383 -1164.78 -1831 106 95 90
-56.7131 -1173.63 -1845 85 81 85
-408.102 -1191.11 -1835 89 83 80
-404.672 -1193.31 -1839 93 87 85
-400.358 -1192.92 -1839 92 86 85
-396.478 -1193.83 -1841 87 83 80
-393.232 -1196.69 -1846 80 76 73
-388.492 -1195.01 -1844 76 72 68
-386.058 -1200.47 -1853 75 72 66
-382.555 -1202.69 -1857 77 71 68
-378.223 -1202.32 -1857 75 69 67
-374.499 -1203.9 -1860 76 70 69
-368.004 -1210.29 -1871 75 69 68
-363.849 -1210.59 -1872 75 69 68
-359.885 -1211.53 -1874 80 74 73
-356.485 -1214.42 -1879 78 74 73
-351.379 -1211.49 -1875 80 74 73
-347.776 -1213.74 -1879 79 74 73
-341.234 -1205.65 -1867 73 69 68
-336.374 -1203.39 -1864 67 64 66
-330.107 -1195.97 -1853 63 60 61
-325.301 -1193.72 -1850 62 59 60
-320.338 -1190.82 -1846 59 56 62
-318.308 -1198.9 -1859 60 54 58
-314.026 -1198.6 -1859 60 53 56
-310.58 -1201.52 -1864 58 53 53
-303.991 -1192.2 -1850 55 52 54
-297.633 -1183.54 -1837 58 53 56
-291.337 -1174.88 -1824 61 54 58
-285.891 -1169.45 -1816 62 59 61
-280.795 -1165.31 -1810 64 61 62
-276.341 -1163.76 -1808 64 60 61
-271.145 -1158.99 -1801 69 64 61
-266.43 -1156.16 -1797 63 60 61
-261.59 -1152.69 -1792 69 67 65
-256.631 -1148.58 -1786 90 88 83
-251.703 -1144.48 -1780 59 57 52
-247.778 -1144.88 -1781 65 56 55
-243.988 -1145.93 -1783 77 65 64
-239.653 -1144.42 -1781 97 81 76
-235.859 -1145.48 -1783 113 91 100
-232.058 -1146.54 -1785 125 103 118
-227.484 -1143.75 -1781 147 124 146
-223.307 -1142.89 -1780 158 150 185
-218.891 -1140.75 -1777 165 166 201
-214.006 -1136.05 -1770 169 173 210
-209.275 -1132 -1764 128 132 178
-204.572 -1127.95 -1758 64 72 118
-199.671 -1122.63 -1750 53 62 108
-194.92 -1117.95 -1743 67 76 123
-190.531 -1115.2 -1739 79 86 133
-186.699 -1115.66 -1740 95 105 146
-182.759 -1115.49 -1740 161 172 209
-178.718 -1114.67 -1739 184 188 215
-175.085 -1116.43 -1742 176 182 205
-171.245 -1116.9 -1743 176 183 206
-167.113 -1115.46 -1741 181 187 210
-163.367 -1116.58 -1743 178 186 209
-159.705 -1118.35 -1746 174 182 207
-156.032 -1120.12 -1749 169 177 204
-152.346 -1121.9 -1752 142 150 188
-148.733 -1124.32 -1756 124 136 177
-145.021 -1126.1 -1759 133 145 183
-141.297 -1127.88 -1762 149 157 191
-137.483 -1129.03 -1764 142 149 187
-133.964 -1132.74 -1770 134 141 177
-130.125 -1133.9 -1772 139 146 180
-126.635 -1138.25 -1779 130 135 168
-122.701 -1138.77 -1780 110 113 147
-119.097 -1142.5 -1786 158 160 194
-115.081 -1142.39 -1786 165 166 201
-111.376 -1145.48 -1791 194 195 225
-107.291 -1144.73 -1790 198 201 232
-103.385 -1145.91 -1792 192 195 228
-99.3591 -1145.82 -1792 200 201 228
-95.4411 -1147 -1794 190 193 228
-91.6679 -1150.11 -1799 195 201 233
-87.8731 -1153.22 -1804 168 178 201
-84.0103 -1155.7 -1808 170 159 182
-80.0863 -1157.54 -1811 192 178 186
-76.1915 -1160.02 -1815 171 154 153
-72.3192 -1163.15 -1820 176 153 147
-68.3502 -1165 -1823 166 152 146
-64.4742 -1168.77 -1829 161 147 141
-60.6051 -1173.18 -1836 168 155 147
-56.859 -1180.79 -1848 84 80 83
-52.7172 -1180.74 -1848 84 80 83
-406.274 -1189.93 -1825 91 85 82
-402.424 -1190.84 -1827 93 87 84
-398.133 -1190.45 -1827 91 85 82
-392.984 -1187.46 -1823 87 83 80
-389.777 -1190.33 -1828 82 78 75
-386.973 -1194.51 -1835 79 75 71
-384.139 -1198.69 -1842 78 75 69
-380.246 -1199.62 -1844 77 71 68
-373.049 -1203.44 -1851 74 68 67
-365.801 -1207.27 -1858 78 72 71
-362.84 -1211.46 -1865 76 70 69
-359.081 -1213.06 -1868 77 72 71
-356.261 -1217.91 -1876 78 74 73
-352.657 -1220.16 -1880 77 71 70
-348.298 -1219.82 -1880 76 70 69
-341.015 -1209.1 -1864 70 66 65
-328.465 -1194.19 -1842 60 57 58
-322.799 -1188.69 -1834 58 55 56
-319.084 -1190.32 -1837 56 59 63
-316.388 -1195.84 -1846 56 55 59
-312.131 -1195.54 -1846 55 52 55
-306.71 -1190.71 -1839 56 52 52
-300.173 -1181.35 -1825 55 54 54
-293.216 -1170.06 -1808 56 54 56
-287.621 -1163.96 -1799 59 56 61
-283.015 -1161.74 -1796 62 58 62
-278.425 -1159.53 -1793 65 61 64
-274.465 -1159.91 -1794 64 60 61
-270.05 -1158.35 -1792 71 71 65
-265.351 -1155.51 -1788 124 124 120
-260.672 -1152.67 -1784 188 188 184
-256.015 -1149.84 -1780 208 208 204
-251.378 -1147.01 -1776 137 135 125
-247.459 -1147.42 -1777 96 87 73
-243.537 -1147.83 -1778 112 99 84
-239.479 -1147.59 -1778 121 102 86
-235.688 -1148.66 -1780 129 98 95
-231.89 -1149.72 -1782 128 97 97
-227.447 -1147.57 -1779 133 101 106
-223.144 -1146.06 -1777 141 124 143
-219.1 -1145.85 -1777 145 139 170
-214.211 -1141.13 -1770 161 160 199
-209.712 -1138.34 -1766 163 164 205
-205.001 -1134.28 -1760 97 103 150
-200.433 -1130.86 -1755 77 85 133
-195.554 -1125.52 -1747 82 91 140
-191.59 -1125.33 -1747 139 146 185
-187.307 -1123.22 -1744 163 173 208
-183.459 -1123.69 -1745 170 181 214
-179.403 -1122.87 -1744 185 189 213
-175.655 -1123.99 -1746 191 193 213
-171.605 -1123.18 -1745 190 191 213
-167.657 -1123.01 -1745 192 193 216
-163.711 -1122.85 -1745 183 187 208
-159.858 -1123.34 -1746 176 181 206
-156.27 -1125.77 -1750 180 185 212
-152.578 -1127.55 -1753 160 168 206
-148.96 -1129.98 -1757 110 123 165
-145.159 -1131.12 -1759 118 131 171
-141.672 -1134.84 -1765 129 140 173
-137.848 -1136 -1767 132 141 179
-134.319 -1139.72 -1773 129 138 173
-130.617 -1142.17 -1777 119 127 161
-127.041 -1145.9 -1783 119 119 149
-123.094 -1146.42 -1784 146 147 179
-119.344 -1148.88 -1788 177 177 210
-115.448 -1150.05 -1790 188 185 220
-111.545 -1151.23 -1792 194 193 226
-107.453 -1150.48 -1791 197 199 232
-103.656 -1152.95 -1795 197 200 235
-99.6202 -1152.85 -1795 209 211 244
-95.5318 -1152.12 -1794 204 207 238
-91.755 -1155.24 -1799 193 195 223
-87.9567 -1158.36 -1804 186 184 207
-83.9507 -1158.92 -1805 146 121 135
-79.9853 -1160.13 -1807 164 137 139
-76.2218 -1164.55 -1814 176 148 142
-72.3481 -1167.69 -1819 181 154 141
-68.4527 -1170.83 -1824 158 142 127
-64.5355 -1173.98 -1829 150 137 124
-60.6956 -1179.05 -1837 184 172 165
-56.8513 -1184.77 -1846 88 84 87
-52.7386 -1185.36 -1847 83 79 82
-366.158 -1212.66 -1858 77 71 70
-361.83 -1212.31 -1858 76 70 69
-354.707 -1216.83 -1866 74 70 69
-351.123 -1219.09 -1870 73 68 67
-339.332 -1207.34 -1853 65 61 60
