ply
format ascii 1.0
comment Created by Open3D
element vertex 1509
property double x
property double y
property double z
property uchar red
property uchar green
property uchar blue
end_header
-141.644 60.8941 -1839 44 48 73
-136.698 60.3251 -1822 42 46 73
-132.26 59.9549 -1811 33 38 65
-128.221 59.7505 -1805 32 37 64
-124.207 59.5462 -1799 33 38 66
-120.353 59.4084 -1795 31 36 64
-116.385 59.2046 -1789 30 35 64
-112.631 59.1001 -1786 32 37 66
-108.768 58.9298 -1781 34 39 68
-104.807 58.6935 -1774 36 41 74
-100.59 58.2918 -1762 44 50 84
-96.6417 58.0228 -1754 50 57 91
-92.4075 57.5555 -1740 43 48 83
-88.792 57.4523 -1737 35 39 75
-85.2382 57.3823 -1735 35 38 72
-81.7403 57.3454 -1734 36 39 73
-78.2921 57.3419 -1734 32 37 67
-74.9309 57.4046 -1736 29 34 63
-71.4388 57.3683 -1735 30 35 63
-67.9513 57.3322 -1734 31 36 64
-64.431 57.2631 -1732 30 35 64
-61.0249 57.2934 -1733 29 34 61
-57.5156 57.2247 -1731 29 34 60
-54.0772 57.2222 -1731 28 33 58
-50.6099 57.1867 -1730 30 34 60
-47.1743 57.1846 -1730 30 34 61
-43.7391 57.1825 -1730 32 36 61
-40.281 57.1476 -1729 33 37 62
-36.8698 57.179 -1730 34 38 63
-33.4548 57.2105 -1731 33 37 64
-30.0189 57.2091 -1731 33 37 64
-26.5832 57.2078 -1731 32 37 64
-23.1476 57.2067 -1731 31 36 61
-19.7009 57.1727 -1730 28 33 58
-16.2772 57.205 -1731 27 32 56
-12.8421 57.2043 -1731 27 32 56
-9.40718 57.2038 -1731 28 34 56
-5.97232 57.2035 -1731 27 32 53
-2.53603 57.1703 -1730 32 36 57
0.896261 57.1372 -1729 29 35 57
4.3271 57.1373 -1729 31 36 59
7.76245 57.1706 -1730 34 38 61
11.2018 57.2041 -1731 39 43 71
14.6622 57.3038 -1734 43 47 76
18.1346 57.4037 -1737 42 47 80
21.6439 57.5698 -1742 42 48 81
25.1299 57.6369 -1744 45 52 85
28.6242 57.7042 -1746 46 53 87
32.1265 57.7717 -1748 40 47 81
35.6779 57.9054 -1752 40 47 81
39.223 58.0062 -1755 41 48 82
42.829 58.1733 -1760 42 49 83
46.4289 58.3075 -1764 49 57 95
50.1866 58.6071 -1773 50 58 96
53.8592 58.7747 -1778 43 51 89
57.7136 59.1078 -1788 36 44 84
61.5396 59.375 -1796 38 46 85
65.4341 59.6754 -1805 46 53 91
69.3267 59.9428 -1813 41 49 84
73.292 60.2436 -1822 36 44 78
77.2936 60.5445 -1831 39 47 83
80.9778 60.5811 -1832 41 50 83
84.713 60.6509 -1834 37 46 76
-173.184 58.0053 -1862 45 49 76
-170.003 58.1849 -1868 33 37 64
-166.177 58.1467 -1867 31 35 62
-162.096 58.0152 -1863 26 30 57
-158.201 57.9463 -1861 25 29 52
-154.316 57.8774 -1859 25 29 53
-150.116 57.6843 -1853 22 27 52
-145.784 57.429 -1845 30 34 59
-141.407 57.1429 -1836 47 51 76
-136.692 56.7014 -1822 41 45 72
-132.327 56.3846 -1812 33 38 65
-128.286 56.1924 -1806 30 35 64
-124.271 56.0005 -1800 31 36 65
-120.481 55.9019 -1797 30 35 64
-116.51 55.7104 -1791 31 36 65
-112.689 55.5812 -1787 34 39 68
-108.763 55.39 -1781 33 38 67
-104.862 55.1988 -1775 36 42 75
-100.757 54.8836 -1765 44 51 85
-96.4722 54.4442 -1751 47 54 88
-92.669 54.2537 -1745 41 47 81
-88.8392 54.0322 -1738 37 41 76
-85.3328 53.9975 -1737 34 38 72
-81.8311 53.9629 -1736 33 36 70
-78.3338 53.9285 -1735 32 37 66
-74.9276 53.9564 -1736 31 36 64
-71.4357 53.9223 -1735 31 36 63
-67.9875 53.9194 -1735 31 36 64
-64.4283 53.8234 -1732 28 33 62
-61.0222 53.8517 -1733 27 32 59
-57.5796 53.8494 -1733 28 33 59
-54.1373 53.847 -1733 29 34 59
-50.6955 53.8448 -1733 30 35 61
-47.2269 53.8117 -1732 32 36 63
-43.7878 53.8098 -1732 32 36 61
-40.3026 53.7459 -1730 32 36 62
-36.9108 53.8064 -1732 33 37 62
-33.4921 53.836 -1733 35 39 66
-30.0696 53.8658 -1734 37 41 68
-26.6281 53.8646 -1734 35 40 67
-23.1734 53.8325 -1733 31 36 62
-19.7115 53.7695 -1731 28 33 58
-16.2765 53.7687 -1731 28 33 58
-12.849 53.7992 -1732 30 35 59
-9.40678 53.7677 -1731 31 37 59
-5.97551 53.7984 -1732 30 35 56
-2.53739 53.7672 -1731 32 36 58
0.896738 53.7361 -1730 29 35 57
4.32691 53.7051 -1729 31 37 59
7.75763 53.7054 -1729 34 39 62
11.1949 53.7368 -1730 38 42 68
14.6531 53.8306 -1733 43 47 75
18.1338 53.9555 -1737 41 46 79
21.6305 54.0806 -1741 41 47 81
25.1145 54.1437 -1743 45 52 86
28.6065 54.2069 -1745 46 53 87
32.1252 54.3014 -1748 40 47 82
35.6763 54.4271 -1752 40 47 81
39.1766 54.4597 -1753 40 47 81
42.8515 54.7099 -1761 42 49 84
46.5322 54.9293 -1768 49 57 95
50.2693 55.1799 -1776 49 57 95
53.9781 55.3685 -1782 42 50 88
57.7434 55.5883 -1789 38 46 85
61.6054 55.8704 -1798 39 47 86
65.4313 56.0907 -1805 45 52 90
69.1707 56.2178 -1809 40 48 83
73.2485 56.5937 -1821 37 45 79
77.1214 56.7833 -1827 40 48 84
81.107 57.0353 -1835 43 51 85
84.6631 56.9766 -1833 38 47 77
-173.083 54.2695 -1861 42 46 71
-170.087 54.4961 -1869 35 39 66
-166.26 54.4603 -1868 28 32 59
-162.35 54.3956 -1866 28 32 59
-158.28 54.2726 -1862 23 27 50
-154.393 54.2081 -1860 22 26 50
-150.272 54.0565 -1855 21 26 51
-145.778 53.7593 -1845 28 33 58
-140.862 53.2875 -1829 45 49 74
-136.537 53.0199 -1820 38 42 69
-132.248 52.7524 -1811 31 35 63
-128.281 52.6017 -1806 30 35 64
-124.266 52.4219 -1800 32 37 66
-120.544 52.3589 -1798 31 36 65
-116.635 52.2087 -1793 30 35 65
-112.684 52.0296 -1787 34 39 69
-108.82 51.8796 -1782 34 39 68
-104.621 51.5552 -1771 36 43 75
-100.696 51.3474 -1764 46 53 87
-96.3031 50.8779 -1748 46 53 87
-92.6653 50.7869 -1745 40 46 80
-88.8867 50.6086 -1739 38 42 77
-85.3294 50.547 -1737 35 38 72
-81.8749 50.5438 -1737 33 36 70
-78.3758 50.5116 -1736 32 37 66
-74.9678 50.5377 -1737 34 39 67
-71.474 50.5057 -1736 33 38 65
-68.0632 50.5321 -1737 33 38 65
-64.5001 50.4423 -1734 31 36 63
-61.0903 50.4689 -1735 30 35 62
-57.6437 50.4665 -1735 30 35 61
-54.2288 50.4934 -1736 29 34 59
-50.7227 50.4332 -1734 32 36 63
-47.225 50.3731 -1732 33 37 64
-43.7608 50.3422 -1731 32 36 61
-40.3009 50.3115 -1730 32 36 62
-36.888 50.3391 -1731 33 37 63
-33.4907 50.3959 -1733 37 41 68
-30.0337 50.3656 -1732 38 42 69
-26.6117 50.3935 -1733 35 40 67
-23.1725 50.3926 -1733 31 36 61
-19.7221 50.3627 -1732 30 35 60
-16.2758 50.3329 -1731 32 37 62
-12.8559 50.3905 -1733 32 38 61
-9.41183 50.361 -1732 32 38 60
-5.97527 50.3607 -1732 30 34 57
-2.53583 50.3024 -1730 30 34 57
0.896181 50.2733 -1729 29 35 57
4.32423 50.2443 -1728 32 38 60
7.75732 50.2736 -1729 34 39 62
11.2074 50.3612 -1732 38 42 68
14.6694 50.4489 -1735 41 46 73
18.1435 50.5368 -1738 40 45 78
21.6545 50.683 -1743 40 46 80
25.1567 50.7711 -1746 45 52 86
28.671 50.8594 -1749 45 52 86
32.179 50.9188 -1751 43 50 84
35.736 51.0364 -1755 38 45 81
39.2197 51.0379 -1755 39 46 81
42.8498 51.214 -1761 42 49 83
46.504 51.3902 -1767 46 54 92
50.2956 51.683 -1777 48 56 94
54.0365 51.8886 -1784 43 51 89
57.8379 52.1235 -1792 37 45 84
61.6372 52.3295 -1799 39 46 85
65.4649 52.5356 -1806 45 52 90
69.3591 52.771 -1814 41 49 84
73.2857 53.0064 -1822 36 44 78
77.2449 53.2422 -1830 43 51 87
81.1037 53.3907 -1835 43 51 85
84.7983 53.4231 -1836 39 48 78
-172.333 50.348 -1853 42 46 70
-169.99 50.7493 -1868 35 39 66
-166.253 50.7432 -1868 30 34 61
-162.431 50.71 -1867 26 30 57
-158.529 50.6497 -1865 25 29 52
-154.387 50.5083 -1860 23 27 51
-150.186 50.3398 -1854 22 27 52
-145.772 50.09 -1845 33 37 62
-141.088 49.7318 -1832 45 49 74
-136.532 49.4011 -1820 37 42 69
-132.17 49.1248 -1810 33 38 65
-128.205 48.9842 -1805 31 36 64
-124.261 48.844 -1800 31 36 64
-120.472 48.7581 -1797 31 36 65
-116.566 48.6181 -1792 32 37 68
-112.617 48.4511 -1786 34 39 70
-108.755 48.3115 -1781 36 41 71
-104.676 48.0635 -1772 39 46 78
-100.578 47.7885 -1762 48 55 89
-96.5198 47.5137 -1752 46 52 86
-92.7148 47.3475 -1746 39 44 79
-88.9856 47.2086 -1741 38 42 77
-85.4244 47.1513 -1739 34 38 71
-81.919 47.1211 -1738 31 35 68
-78.418 47.0911 -1737 31 37 66
-74.965 47.0883 -1737 34 40 68
-71.4713 47.0585 -1736 33 38 65
-68.0214 47.056 -1736 34 39 66
-64.5348 47.0264 -1735 32 37 64
-61.1231 47.0512 -1736 29 34 60
-57.6415 47.0219 -1735 30 35 61
-54.258 47.0741 -1737 30 35 61
-50.7501 47.018 -1735 29 34 61
-47.2504 46.962 -1733 28 33 60
-43.7844 46.9333 -1732 29 34 60
-40.2761 46.8505 -1729 32 36 63
-36.8653 46.8762 -1730 35 39 66
-33.4701 46.9291 -1732 36 41 69
-30.0326 46.9279 -1732 38 43 71
-26.626 46.9811 -1734 36 41 69
-23.1983 47.0073 -1735 32 37 64
-19.7441 46.9794 -1734 32 37 63
-16.294 46.9517 -1733 32 37 62
-12.8628 46.9782 -1734 31 37 61
-9.41692 46.9507 -1733 31 37 59
-5.97505 46.9234 -1732 28 33 56
-2.54013 46.9503 -1733 29 33 56
0.897181 46.8961 -1731 28 33 57
4.33157 46.8962 -1731 31 37 60
7.76599 46.8964 -1731 33 39 61
11.2134 46.9509 -1733 37 41 69
14.6773 47.0327 -1736 39 43 72
18.1428 47.0875 -1738 42 47 80
21.6661 47.2508 -1744 44 51 85
25.1845 47.36 -1748 43 50 85
28.7026 47.4422 -1751 41 48 81
32.2145 47.4976 -1753 41 48 82
35.7753 47.6072 -1757 38 45 81
39.33 47.6898 -1760 39 46 80
42.9455 47.8268 -1765 41 48 82
46.6338 48.0181 -1772 44 51 89
50.4352 48.2909 -1782 48 55 94
54.1556 48.4554 -1788 45 53 91
57.9325 48.6471 -1795 40 48 86
61.6349 48.7577 -1799 38 45 83
65.3899 48.8955 -1804 43 50 88
69.28 49.1148 -1812 42 49 85
73.4438 49.497 -1826 33 41 75
77.3262 49.6624 -1832 40 48 84
81.2774 49.8551 -1839 42 50 84
84.8413 49.8038 -1837 37 46 76
-171.769 46.5092 -1847 41 45 65
-169.893 47.0069 -1867 36 40 67
-166.336 47.0516 -1869 31 35 62
-162.773 47.0964 -1871 26 30 57
-158.608 46.9651 -1866 27 31 54
-154.714 46.9094 -1864 24 29 52
-150.18 46.6526 -1854 25 30 55
-145.767 46.4211 -1845 39 43 68
-141.083 46.0892 -1832 44 48 73
-136.527 45.7827 -1820 34 39 66
-132.239 45.5517 -1811 32 37 64
-128.343 45.4467 -1807 30 35 62
-124.395 45.3167 -1802 29 34 63
-120.535 45.2119 -1798 33 38 67
-116.692 45.1073 -1794 36 41 72
-112.676 44.9275 -1787 36 41 72
-108.628 44.7226 -1779 38 43 74
-104.495 44.4677 -1769 43 50 83
-100.346 44.1876 -1758 50 57 91
-96.2961 43.933 -1748 46 50 85
-92.6054 43.8293 -1744 39 43 78
-88.8803 43.7006 -1739 37 41 75
-85.3723 43.6725 -1738 33 38 69
-81.8217 43.6194 -1736 31 36 67
-78.3701 43.6167 -1736 28 35 64
-74.9192 43.6142 -1736 32 38 66
-71.3865 43.5613 -1734 32 37 64
-67.9798 43.5841 -1735 34 39 65
-64.4954 43.5568 -1734 32 37 64
-61.1209 43.6049 -1736 28 33 58
-57.6727 43.6029 -1736 29 34 60
-54.2561 43.6261 -1737 29 34 61
-50.7775 43.5992 -1736 29 34 61
-47.2761 43.5474 -1734 29 34 61
-43.8082 43.5207 -1733 30 35 62
-40.3213 43.4691 -1731 32 37 64
-36.9066 43.4929 -1732 34 38 65
-33.4883 43.5168 -1733 36 41 70
-30.0315 43.4906 -1732 37 42 71
-26.6251 43.5399 -1734 35 40 69
-23.2109 43.5893 -1736 33 38 65
-19.7662 43.5886 -1736 31 36 63
-16.331 43.6131 -1737 31 36 61
-12.892 43.6377 -1738 30 35 59
-9.43832 43.6122 -1737 30 36 58
-5.98174 43.5366 -1734 28 33 55
-2.54151 43.5365 -1734 29 33 56
0.898702 43.5365 -1734 27 32 57
4.33642 43.5114 -1733 31 36 60
7.78815 43.587 -1736 34 40 62
11.2324 43.5873 -1736 39 43 71
14.6937 43.638 -1738 40 44 74
18.1422 43.6385 -1738 42 46 81
21.6778 43.8149 -1745 43 49 85
25.1548 43.8408 -1746 42 49 85
28.718 43.9924 -1752 39 46 79
32.2502 44.0688 -1755 39 46 80
35.8148 44.1704 -1759 37 44 80
39.3286 44.1967 -1760 38 45 80
42.9683 44.3488 -1766 42 49 83
46.6848 44.5512 -1774 44 51 89
50.49 44.804 -1784 50 57 96
54.2446 44.9816 -1791 46 54 94
57.9627 45.109 -1796 42 50 88
61.7013 45.2366 -1801 38 45 83
65.5326 45.4146 -1808 43 50 88
69.3923 45.5927 -1815 44 51 87
73.4815 45.8966 -1827 34 42 76
77.3657 46.05 -1833 39 47 83
81.2304 46.1783 -1838 43 52 85
84.7459 46.1057 -1835 33 42 72
-171.577 42.7873 -1845 40 45 63
-169.432 43.1763 -1862 36 40 67
-166.509 43.3796 -1871 30 34 61
-162.942 43.4209 -1873 26 30 57
-158.858 43.3231 -1869 26 30 52
-154.958 43.2719 -1867 25 29 52
-150.418 43.0353 -1857 27 31 55
-145.92 42.799 -1847 41 45 69
-140.847 42.3775 -1829 40 44 69
-136.372 42.1182 -1818 32 37 64
-132.161 41.9287 -1810 31 36 63
-128.126 41.7857 -1804 31 36 63
-124.184 41.6659 -1799 30 35 63
-120.464 41.6158 -1797 35 40 69
-116.558 41.4963 -1792 37 42 73
-112.609 41.3539 -1786 37 42 73
-108.625 41.1884 -1779 38 43 74
-104.492 40.9534 -1769 43 50 83
-100.286 40.6725 -1757 49 56 90
-96.2379 40.4379 -1747 46 50 85
-92.6024 40.3656 -1744 41 45 79
-88.8774 40.247 -1739 37 42 75
-85.3204 40.1981 -1737 32 37 68
-81.8191 40.1723 -1736 32 37 68
-78.3676 40.1699 -1736 27 34 63
-74.9167 40.1675 -1736 30 37 65
-71.4253 40.142 -1735 30 35 62
-68.056 40.1861 -1737 32 37 63
-64.5676 40.1609 -1736 32 37 62
-61.1894 40.2052 -1738 29 34 59
-57.7373 40.2034 -1738 29 34 60
-54.2856 40.2016 -1738 29 34 61
-50.7759 40.1537 -1736 29 34 61
-47.3291 40.1522 -1736 29 34 61
-43.8068 40.0814 -1733 31 36 63
-40.32 40.0339 -1731 34 38 65
-36.9054 40.0558 -1732 36 40 67
-33.4872 40.0778 -1733 36 41 70
-30.0479 40.0768 -1733 35 40 69
-26.6396 40.1222 -1735 34 39 68
-23.2503 40.2139 -1739 33 38 66
-19.7997 40.2133 -1739 32 37 64
-16.3587 40.2358 -1740 30 36 62
-12.9065 40.2354 -1740 30 36 61
-9.44889 40.2119 -1739 31 37 59
-5.98845 40.1423 -1736 30 34 57
-2.54436 40.1422 -1736 30 34 57
0.900744 40.1884 -1738 27 32 57
4.34378 40.1422 -1736 29 35 59
7.79238 40.1656 -1737 31 39 61
11.2385 40.1658 -1737 38 42 69
14.6848 40.1662 -1737 41 45 73
18.1416 40.1899 -1738 41 45 80
21.6646 40.3293 -1744 42 48 83
25.1684 40.3994 -1747 44 51 87
28.6843 40.4696 -1750 41 49 82
32.2124 40.5399 -1753 39 47 80
35.7729 40.6335 -1757 38 45 81
39.3496 40.7271 -1761 40 47 81
43.0156 40.8903 -1768 44 51 85
46.7622 41.0999 -1777 46 53 91
50.545 41.3095 -1786 51 59 98
54.2125 41.4037 -1790 48 56 96
57.9286 41.5211 -1795 42 50 88
61.6993 41.6617 -1801 37 45 83
65.4942 41.8025 -1807 43 50 88
69.3518 41.9665 -1814 46 54 89
73.5193 42.2927 -1828 36 44 78
77.4898 42.4801 -1836 36 44 80
81.4043 42.6214 -1842 42 51 84
85.0203 42.6009 -1841 32 41 71
-170.735 38.9253 -1836 53 58 74
-169.336 39.4505 -1861 37 41 68
-166.237 39.5941 -1868 31 35 62
-162.937 39.6954 -1873 27 31 58
-159.363 39.7332 -1875 27 31 52
-155.119 39.6015 -1869 26 30 52
-150.576 39.3853 -1859 28 32 55
-145.837 39.1056 -1846 40 44 68
-141.151 38.8262 -1833 37 41 66
-136.668 38.5892 -1822 32 37 64
-132.377 38.3948 -1813 32 37 64
-128.335 38.264 -1807 33 38 65
-124.387 38.1545 -1802 32 37 66
-120.661 38.1087 -1800 35 40 69
-116.684 37.9783 -1794 36 41 72
-112.606 37.8057 -1786 36 41 72
-108.561 37.6332 -1778 37 42 73
-104.253 37.355 -1765 45 52 85
-100.054 37.0981 -1753 49 56 90
-96.1248 36.9261 -1745 45 50 84
-92.4934 36.8599 -1742 41 46 79
-88.8237 36.7727 -1738 37 42 75
-85.3179 36.7491 -1737 31 36 68
-81.8166 36.7256 -1736 30 35 66
-78.3653 36.7232 -1736 27 34 63
-74.8714 36.6999 -1735 28 34 62
-71.4644 36.7189 -1736 27 32 58
-68.0148 36.717 -1736 29 34 59
-64.603 36.7362 -1737 30 35 60
-61.1876 36.7556 -1738 27 32 58
-57.7023 36.7328 -1737 28 33 59
-54.284 36.7523 -1738 29 34 61
-50.7744 36.7085 -1736 30 35 62
-47.3276 36.7072 -1736 30 35 63
-43.7802 36.6213 -1732 33 38 65
-40.2955 36.5778 -1730 36 40 67
-36.9043 36.619 -1732 35 39 66
-33.4669 36.618 -1732 35 40 69
-30.047 36.6382 -1733 37 42 71
-26.6388 36.6797 -1735 37 42 71
-23.2496 36.7636 -1739 35 40 68
-19.8105 36.7841 -1740 33 38 65
-16.3676 36.8047 -1741 30 38 64
-12.9135 36.8043 -1741 30 37 62
-9.45404 36.7829 -1740 31 38 60
-5.99517 36.7404 -1738 33 37 60
-2.54575 36.7191 -1737 32 36 59
0.901234 36.7614 -1739 26 31 56
4.35116 36.7614 -1739 27 33 57
7.80112 36.7616 -1739 30 37 59
11.2511 36.7619 -1739 37 41 68
14.7182 36.8045 -1741 42 46 74
18.1619 36.7839 -1740 40 45 79
21.6764 36.8901 -1745 41 47 82
25.1533 36.9119 -1746 44 52 88
28.7326 37.0607 -1753 43 51 84
32.2481 37.1039 -1755 40 48 81
35.8126 37.1894 -1759 38 45 81
39.3485 37.2327 -1761 38 45 80
43.0143 37.3819 -1768 42 49 83
46.7872 37.5946 -1778 47 54 92
50.5152 37.744 -1785 53 60 99
54.2412 37.8724 -1791 49 57 97
57.9914 38.0009 -1797 39 47 85
61.7317 38.1083 -1802 35 42 80
65.6373 38.3004 -1811 41 48 86
69.5409 38.4716 -1819 46 54 89
73.5976 38.7062 -1830 35 43 77
77.5297 38.8565 -1837 31 39 75
81.4463 38.9856 -1843 39 47 81
85.0178 38.9457 -1841 33 42 72
-169.059 35.6906 -1858 39 43 71
-166.233 35.8784 -1868 33 37 65
-162.933 35.9701 -1873 29 33 61
-159.444 36.0236 -1876 26 32 52
-155.281 35.9236 -1871 26 31 52
-150.734 35.7276 -1861 27 32 55
-145.991 35.4742 -1848 37 42 66
-141.07 35.1634 -1832 35 39 64
-136.44 34.9103 -1819 32 37 63
-132.3 34.7724 -1812 32 37 63
-128.402 34.6923 -1808 32 37 66
-124.522 34.6123 -1804 34 39 68
-120.725 34.5516 -1801 36 41 70
-116.876 34.4718 -1797 34 39 70
-112.792 34.3153 -1789 35 40 71
-108.68 34.1399 -1780 37 42 73
-104.368 33.8878 -1767 46 53 86
-100.166 33.655 -1755 50 58 92
-96.2323 33.4991 -1747 43 50 83
-92.6502 33.4583 -1745 39 45 78
-88.9746 33.3793 -1741 37 42 75
-85.3646 33.3196 -1738 31 36 69
-81.8144 33.2791 -1736 30 35 68
-78.2729 33.2386 -1734 27 34 63
-74.8262 33.2366 -1734 30 36 63
-71.4213 33.2539 -1735 28 33 58
-68.0129 33.2713 -1736 30 34 59
-64.5639 33.2696 -1736 32 37 62
-61.1859 33.3063 -1738 29 34 61
-57.7008 33.2856 -1737 28 33 60
-54.2513 33.2841 -1737 29 34 61
-50.773 33.2636 -1736 31 36 65
-47.3264 33.2624 -1736 33 38 66
-43.8295 33.2229 -1734 35 40 67
-40.341 33.1835 -1732 37 41 68
-36.9247 33.2017 -1733 35 39 66
-33.466 33.1816 -1732 34 39 68
-30.0462 33.1999 -1733 38 43 72
-26.6381 33.2375 -1735 41 46 75
-23.2489 33.3135 -1739 38 43 71
-19.7986 33.313 -1739 36 41 68
-16.3672 33.3508 -1741 31 39 65
-12.9057 33.3313 -1740 30 38 62
-9.45379 33.331 -1740 31 39 61
-5.99846 33.3116 -1739 34 38 61
-2.55008 33.3307 -1740 34 38 61
0.902244 33.3498 -1741 27 32 57
4.35604 33.3499 -1741 28 33 57
7.80988 33.35 -1741 30 36 58
11.2508 33.312 -1739 35 39 66
14.6924 33.2932 -1738 41 45 73
18.1614 33.3319 -1740 41 46 79
21.6634 33.409 -1744 43 50 85
25.1814 33.4863 -1748 47 55 91
28.7155 33.5636 -1752 43 51 85
32.2656 33.641 -1756 38 46 80
35.8116 33.6994 -1759 37 44 80
39.3698 33.7578 -1762 37 44 78
43.0131 33.8738 -1768 40 47 81
46.7069 34.0091 -1775 47 54 92
50.4855 34.1828 -1784 52 60 99
54.2094 34.2991 -1790 49 57 97
57.9253 34.3964 -1795 40 48 86
61.6957 34.5129 -1801 34 42 80
65.563 34.6678 -1809 40 47 85
69.5008 34.842 -1818 45 53 89
73.5956 35.0739 -1830 36 44 79
77.612 35.2483 -1839 30 38 74
81.6648 35.4229 -1848 39 47 81
85.2463 35.3867 -1846 36 44 74
-168.782 31.9431 -1855 39 43 71
-166.406 32.1974 -1870 33 36 65
-163.277 32.3142 -1877 29 33 62
-159.355 32.276 -1875 26 32 53
-155.526 32.2551 -1874 27 33 54
-150.973 32.0795 -1864 30 36 58
-145.83 31.7663 -1846 39 44 68
-140.99 31.5048 -1831 36 40 65
-136.586 31.3295 -1821 32 37 62
-132.443 31.206 -1814 32 37 63
-128.541 31.1342 -1810 34 39 67
-124.657 31.0625 -1806 34 39 68
-120.99 31.0424 -1805 35 40 69
-116.873 30.902 -1797 34 39 69
-112.916 30.7962 -1791 35 41 72
-108.677 30.6045 -1780 39 45 77
-104.07 30.2926 -1762 48 55 89
-99.9921 30.1183 -1752 47 54 88
-96.1749 30.0129 -1746 43 49 82
-92.5418 29.9592 -1743 37 43 76
-88.9211 29.9054 -1740 34 40 73
-85.3625 29.8691 -1738 34 39 72
-81.7653 29.8156 -1735 30 35 68
-78.3161 29.8137 -1735 27 34 63
-74.8675 29.812 -1735 29 36 64
-71.4607 29.8275 -1736 29 36 62
-68.0112 29.8259 -1736 31 36 62
-64.6367 29.8587 -1738 32 37 63
-61.1844 29.8572 -1738 31 36 63
-57.6994 29.8387 -1737 29 34 62
-54.25 29.8374 -1737 28 33 61
-50.7718 29.819 -1736 31 36 63
-47.3252 29.8179 -1736 33 38 64
-43.8285 29.7825 -1734 32 37 63
-40.3633 29.7643 -1733 33 37 64
-36.9451 29.7806 -1734 36 40 67
-33.4845 29.7626 -1733 33 38 65
-30.0455 29.7619 -1733 38 43 70
-26.6067 29.7612 -1733 40 45 73
-23.2216 29.8294 -1737 39 44 72
-19.7867 29.846 -1738 37 42 70
-16.348 29.8628 -1739 33 38 66
-12.898 29.8625 -1739 30 36 62
-9.45356 29.8794 -1740 30 37 61
-5.99832 29.862 -1739 28 34 57
-2.55002 29.8791 -1740 26 31 54
0.90222 29.8963 -1741 28 33 57
4.35844 29.9135 -1742 29 35 58
7.80969 29.8965 -1741 30 36 58
11.27 29.9139 -1742 32 37 63
14.709 29.8798 -1740 35 40 67
18.1714 29.8974 -1741 39 45 76
21.7001 30.0009 -1747 40 48 81
25.224 30.0701 -1751 43 51 86
28.7475 30.1222 -1754 42 50 84
32.2832 30.1745 -1757 37 45 79
35.8107 30.2096 -1759 36 43 79
39.3241 30.2276 -1760 37 44 78
42.9877 30.3488 -1767 40 47 81
46.6269 30.4357 -1772 46 54 92
50.456 30.6258 -1783 50 58 97
54.1475 30.7129 -1788 49 57 97
57.9239 30.8344 -1795 41 50 89
61.7628 30.9732 -1803 36 45 83
65.6339 31.1121 -1811 40 47 85
69.5374 31.2512 -1819 44 52 88
73.634 31.459 -1831 36 46 80
77.6945 31.6325 -1841 32 40 76
81.6628 31.7546 -1848 40 48 81
85.4749 31.8081 -1851 37 45 77
-168.596 28.2229 -1853 43 45 68
-166.403 28.4784 -1870 36 38 64
-163.36 28.5968 -1878 26 28 57
-159.522 28.5782 -1877 24 27 51
-155.274 28.4837 -1871 26 30 54
-150.808 28.3436 -1862 31 35 60
-145.826 28.0969 -1846 41 44 69
-141.141 27.8961 -1833 38 39 65
-136.658 27.7259 -1822 31 36 61
-132.586 27.6319 -1816 30 35 61
-128.538 27.5379 -1810 34 39 66
-124.723 27.4896 -1807 33 38 67
-120.988 27.4567 -1805 32 37 66
-116.936 27.3478 -1798 32 37 66
-112.85 27.2237 -1790 33 39 69
-108.553 27.039 -1778 38 45 79
-104.245 26.8391 -1765 48 53 88
-100.218 26.7002 -1756 46 50 85
-96.3381 26.5918 -1749 40 45 78
-92.7521 26.5594 -1747 34 40 73
-89.1237 26.5119 -1744 32 39 73
-85.6062 26.4949 -1743 32 37 70
-81.9992 26.4476 -1740 28 33 66
-78.4498 26.4155 -1738 28 34 63
-74.9954 26.414 -1738 30 37 65
-71.5826 26.4277 -1739 30 37 64
-68.1273 26.4263 -1739 30 35 62
-64.7097 26.4401 -1740 30 35 62
-61.2535 26.4388 -1740 30 35 62
-57.7313 26.4072 -1738 31 36 64
-54.2488 26.3909 -1737 30 35 64
-50.7999 26.3898 -1737 31 36 62
-47.3515 26.3888 -1737 32 37 62
-43.8781 26.3727 -1736 31 35 60
-40.3857 26.3414 -1734 32 36 62
-36.9443 26.3406 -1734 34 38 65
-33.4838 26.3247 -1733 33 38 63
-30.0275 26.3089 -1732 37 42 68
-26.6215 26.3387 -1734 40 45 72
-23.2211 26.3838 -1737 39 44 72
-19.7863 26.3985 -1738 37 41 70
-16.357 26.4285 -1740 34 38 67
-12.9051 26.4282 -1740 32 36 64
-9.45879 26.4432 -1741 29 34 61
-5.99819 26.4127 -1739 27 33 56
-2.54997 26.4278 -1740 26 32 54
0.901681 26.4277 -1740 28 34 56
4.35584 26.443 -1741 29 35 57
7.80054 26.4127 -1739 29 35 57
11.2503 26.4129 -1739 30 35 59
14.7086 26.4284 -1740 34 39 64
18.1815 26.4591 -1742 38 45 74
21.6624 26.4899 -1744 40 47 79
25.209 26.5815 -1750 43 50 84
28.7469 26.6428 -1754 43 50 84
32.2825 26.689 -1757 39 46 80
35.8303 26.7353 -1760 35 42 78
39.3903 26.7816 -1763 34 41 76
43.0111 26.8584 -1768 38 45 79
46.6785 26.9505 -1774 44 52 90
50.3983 27.0578 -1781 49 57 96
54.2069 27.1956 -1790 50 58 98
57.9226 27.2727 -1795 42 52 92
61.7272 27.3803 -1802 37 47 86
65.6325 27.5184 -1811 38 48 83
69.6123 27.6717 -1821 42 52 85
73.6726 27.8403 -1832 38 49 81
77.7772 28.0091 -1843 35 43 77
81.9262 28.1779 -1854 39 47 81
85.6116 28.1796 -1854 35 43 77
-166.578 24.7859 -1872 35 37 62
-163.531 24.8889 -1880 28 29 57
-159.774 24.8861 -1880 24 26 51
-155.188 24.7508 -1870 28 30 55
-150.481 24.5893 -1858 33 37 62
-145.824 24.4279 -1846 41 44 69
-141.138 24.2533 -1833 36 39 64
-136.881 24.145 -1825 30 35 61
-132.802 24.0631 -1819 28 33 59
-128.962 24.0211 -1816 33 38 65
-124.859 23.9263 -1809 34 39 68
-121.119 23.8977 -1807 32 37 66
-116.934 23.7765 -1798 33 38 67
-112.659 23.629 -1787 33 38 69
-108.429 23.4816 -1776 41 48 82
-104.184 23.3211 -1764 49 56 91
-99.9879 23.1607 -1752 44 51 86
-96.3913 23.1324 -1750 39 44 77
-92.8035 23.1043 -1748 34 39 73
-89.2242 23.0762 -1746 31 38 72
-85.7519 23.0746 -1746 32 37 69
-82.0919 23.0203 -1742 29 34 66
-78.5386 22.9924 -1740 29 35 64
-75.0371 22.9779 -1739 30 35 63
-71.54 22.9634 -1738 30 36 63
-68.0868 22.9621 -1738 29 34 61
-64.6713 22.9742 -1739 29 34 61
-61.2171 22.973 -1739 31 36 63
-57.697 22.9456 -1737 31 36 64
-54.279 22.9578 -1738 30 35 64
-50.8282 22.9568 -1738 32 37 63
-47.3778 22.956 -1738 32 37 63
-43.9025 22.942 -1737 30 34 61
-40.4315 22.928 -1736 31 35 62
-36.9436 22.9009 -1734 31 35 62
-33.4831 22.8871 -1733 32 37 64
-30.0443 22.8865 -1733 35 40 67
-26.621 22.8992 -1734 38 43 70
-23.2207 22.9384 -1737 40 44 72
-19.7859 22.9512 -1738 40 44 73
-16.3567 22.9773 -1740 37 41 70
-12.9049 22.977 -1740 33 38 66
-9.45861 22.9901 -1741 29 34 61
-6.00497 22.9899 -1741 27 33 55
-2.55139 22.9898 -1741 27 33 55
0.901662 22.9766 -1740 27 33 55
4.35576 22.9899 -1741 26 31 54
7.8004 22.9636 -1739 27 32 55
11.2566 22.977 -1740 29 33 57
14.6999 22.964 -1739 34 39 63
18.202 23.0303 -1744 39 45 74
21.6992 23.0703 -1747 41 48 80
25.2374 23.1367 -1752 44 51 85
28.7791 23.19 -1756 44 51 86
32.337 23.2434 -1760 39 46 81
35.8703 23.2704 -1762 34 41 74
39.3895 23.2843 -1763 32 39 73
43.0833 23.3907 -1771 37 44 78
46.6513 23.4179 -1773 43 50 90
50.4257 23.5376 -1782 49 57 97
54.2059 23.6442 -1790 50 58 98
58.0506 23.7641 -1799 44 54 94
61.863 23.8577 -1806 38 48 87
65.7399 23.9645 -1814 37 48 83
69.6492 24.0714 -1822 43 54 86
73.7516 24.2312 -1834 41 52 84
77.9023 24.3911 -1846 39 47 82
81.9246 24.4982 -1854 39 47 81
85.5176 24.4733 -1852 33 41 75
-168.954 20.897 -1857 56 60 81
-167.109 21.1307 -1878 37 39 64
-163.702 21.1733 -1882 28 29 57
-159.686 21.1371 -1879 28 30 54
-155.351 21.056 -1872 30 33 56
-150.64 20.9187 -1860 37 41 64
-145.742 20.7478 -1845 40 44 69
-141.367 20.6444 -1836 34 38 63
-137.103 20.5523 -1828 30 35 62
-132.873 20.4603 -1820 29 34 61
-128.96 20.4134 -1816 35 40 67
-124.926 20.3439 -1810 37 42 70
-121.05 20.2971 -1806 35 40 69
-116.997 20.2166 -1799 35 40 69
-112.783 20.1025 -1789 32 38 69
-108.61 19.9885 -1779 43 50 84
-104.123 19.8071 -1763 50 57 92
-100.1 19.7045 -1754 44 51 87
-96.3347 19.6468 -1749 40 45 78
-92.802 19.6342 -1748 35 41 74
-89.1718 19.5991 -1745 32 39 73
-85.7014 19.5978 -1745 33 39 70
-82.1848 19.5853 -1744 32 37 68
-78.5825 19.5504 -1741 31 36 65
-75.079 19.538 -1740 31 36 64
-71.5801 19.5256 -1739 30 35 62
-68.164 19.5358 -1740 28 33 60
-64.7074 19.5348 -1740 29 34 61
-61.2513 19.5339 -1740 31 36 63
-57.7625 19.5217 -1739 31 36 64
-54.3718 19.5433 -1741 29 34 63
-50.8566 19.5201 -1739 31 36 63
-47.4316 19.5306 -1740 32 37 64
-43.9776 19.5299 -1740 30 35 62
-40.4775 19.5068 -1738 31 35 62
-36.9856 19.4838 -1736 31 35 62
-33.5212 19.472 -1735 35 40 67
-30.0611 19.4603 -1734 37 42 69
-26.6206 19.4599 -1734 39 44 71
-23.2203 19.4932 -1737 41 46 74
-19.7742 19.4929 -1737 42 46 75
-16.3565 19.5263 -1740 38 42 70
-12.9047 19.526 -1740 33 37 65
-9.45302 19.5259 -1740 29 34 61
-6.00833 19.5482 -1742 26 31 54
-2.55428 19.5594 -1743 28 34 56
0.902165 19.5369 -1741 28 34 56
4.35818 19.5482 -1742 27 32 54
7.80475 19.5258 -1740 27 31 54
11.2564 19.526 -1740 29 33 56
14.6912 19.5037 -1738 33 37 61
18.1808 19.5488 -1742 38 43 71
21.6865 19.594 -1746 42 48 80
25.1937 19.6281 -1749 45 52 86
28.7295 19.6734 -1753 44 51 87
32.3549 19.7636 -1761 38 45 80
35.8901 19.7866 -1763 35 42 75
39.4559 19.8208 -1766 35 42 76
43.0826 19.8776 -1771 41 48 83
46.7294 19.9344 -1776 47 53 94
50.538 20.0473 -1786 52 59 99
54.2656 20.1155 -1792 52 60 100
58.1142 20.2174 -1801 45 55 95
61.862 20.2744 -1806 37 48 87
65.7026 20.3539 -1813 37 48 83
69.5716 20.4336 -1820 42 53 87
73.7102 20.5806 -1833 43 54 87
77.8589 20.7165 -1845 40 48 84
81.8791 20.8075 -1853 37 45 80
85.5624 20.8088 -1853 33 41 75
-166.928 17.3779 -1876 37 40 64
-163.787 17.4407 -1883 27 30 56
-159.854 17.4201 -1881 29 31 54
-155.432 17.3441 -1873 29 31 54
-150.72 17.2311 -1861 37 41 64
-146.056 17.1181 -1849 40 44 68
-141.211 16.9775 -1834 33 37 62
-137.027 16.911 -1827 31 36 63
-133.017 16.863 -1822 31 36 63
-129.1 16.8241 -1818 37 42 69
-125.2 16.7855 -1814 37 42 70
-121.25 16.7377 -1809 35 40 69
-117.125 16.6623 -1801 34 39 69
-113.034 16.5868 -1793 32 37 69
-108.364 16.4189 -1775 42 49 83
-104.004 16.2881 -1761 47 54 89
-99.9849 16.2036 -1752 42 49 85
-96.2783 16.1654 -1748 40 45 78
-92.6945 16.1457 -1746 37 42 76
-89.1193 16.1261 -1744 31 38 72
-85.7985 16.1527 -1747 31 37 68
-82.2779 16.1425 -1746 31 36 67
-78.7168 16.123 -1744 31 36 65
-75.2506 16.122 -1744 31 36 64
-71.7437 16.1118 -1743 30 35 62
-68.2806 16.111 -1743 29 34 61
-64.8181 16.1102 -1743 31 36 63
-61.3913 16.1186 -1744 32 37 64
-57.8613 16.0994 -1742 31 36 64
-54.4647 16.1172 -1744 29 34 63
-50.9436 16.098 -1742 30 35 62
-47.4582 16.0882 -1741 31 36 63
-43.977 16.0784 -1740 30 35 62
-40.4769 16.0594 -1738 33 37 64
-37.0064 16.0496 -1737 33 37 64
-33.5208 16.0307 -1735 33 38 65
-30.078 16.0303 -1735 39 44 71
-26.6509 16.0392 -1736 41 46 73
-23.2467 16.0666 -1739 40 45 74
-19.7967 16.0664 -1739 40 45 74
-16.3656 16.0846 -1741 38 42 69
-12.9193 16.0937 -1742 34 38 66
-9.46376 16.0935 -1742 30 35 62
-6.01514 16.1119 -1744 27 33 56
-2.55717 16.1211 -1745 28 34 56
0.903706 16.1118 -1744 29 35 57
4.35812 16.0934 -1742 28 33 55
7.80464 16.075 -1740 27 31 54
11.2498 16.0659 -1739 29 33 56
14.691 16.0568 -1738 32 36 59
18.191 16.1032 -1743 37 42 69
21.6737 16.1219 -1745 43 49 80
25.2366 16.1869 -1752 48 55 89
28.811 16.2427 -1758 46 53 89
32.3544 16.2708 -1761 39 46 81
35.9507 16.3174 -1766 35 42 75
39.5 16.3363 -1768 36 43 77
43.082 16.3646 -1771 42 49 83
46.7814 16.4298 -1778 47 53 94
50.509 16.4951 -1785 51 58 98
54.4162 16.6067 -1797 52 60 100
58.1134 16.6443 -1801 44 54 94
61.8954 16.7005 -1807 36 46 85
65.7017 16.7568 -1813 34 45 80
69.6853 16.8501 -1823 40 51 85
73.7896 16.9619 -1835 44 55 88
77.8578 17.0553 -1845 40 48 84
81.8338 17.121 -1852 38 46 81
-166.66 13.6258 -1873 36 40 63
-163.611 13.6824 -1881 27 31 56
-159.937 13.6881 -1882 28 30 53
-155.513 13.6284 -1874 28 30 53
-150.961 13.5541 -1864 37 41 64
-146.37 13.4727 -1853 38 42 67
-141.671 13.3766 -1840 31 35 60
-137.325 13.3098 -1831 29 34 61
-133.089 13.2503 -1823 30 35 62
-129.17 13.22 -1819 35 40 67
-125.13 13.1751 -1813 35 40 68
-121.315 13.1521 -1810 33 38 67
-117.254 13.1001 -1803 33 38 69
-112.843 13.0045 -1790 36 42 74
-108.79 12.9453 -1782 45 52 86
-104.239 12.8208 -1765 45 52 87
-100.041 12.7326 -1753 40 47 82
-96.2772 12.6953 -1748 41 46 78
-92.7466 12.6871 -1747 36 42 74
-89.1694 12.6717 -1745 30 36 69
-85.8466 12.6927 -1748 30 35 67
-82.3241 12.6846 -1747 31 36 68
-78.761 12.6693 -1745 31 37 66
-75.2929 12.6685 -1745 30 36 64
-71.7841 12.6605 -1744 30 35 62
-68.319 12.6598 -1744 32 37 65
-64.8174 12.6519 -1743 33 38 66
-61.4258 12.6658 -1745 32 37 64
-57.8939 12.6507 -1743 33 38 66
-54.4641 12.6574 -1744 33 38 67
-51.0016 12.6569 -1744 31 36 63
-47.4576 12.6347 -1741 30 35 62
-43.9765 12.627 -1740 29 34 61
-40.4765 12.612 -1738 31 36 63
-37.0059 12.6044 -1737 32 37 64
-33.5204 12.5895 -1735 31 36 62
-30.095 12.5965 -1736 35 40 66
-26.6506 12.5962 -1736 38 43 69
-23.2331 12.6105 -1738 40 45 73
-19.7965 12.6175 -1739 40 45 74
-16.3749 12.6391 -1742 38 43 71
-12.9266 12.6462 -1743 35 40 67
-9.47452 12.6534 -1744 33 38 65
-6.02197 12.6678 -1746 32 37 60
-2.56008 12.675 -1747 29 35 57
0.904731 12.6678 -1746 28 33 57
4.36558 12.6605 -1745 29 33 57
7.80904 12.6316 -1741 28 32 55
11.2496 12.6172 -1739 28 33 57
14.6824 12.6028 -1737 28 33 58
18.1699 12.632 -1741 34 39 66
21.6487 12.6467 -1743 41 46 78
25.2075 12.6977 -1750 49 55 89
28.778 12.7415 -1756 47 54 89
32.3908 12.7926 -1763 40 47 81
35.9299 12.8074 -1765 35 42 75
39.5666 12.8513 -1771 35 42 76
43.1545 12.8735 -1774 39 46 80
46.8335 12.9175 -1780 44 50 90
50.565 12.9688 -1787 47 54 94
54.4156 13.0419 -1797 49 57 96
58.145 13.0787 -1802 44 54 94
61.9289 13.1228 -1808 36 46 85
65.701 13.1598 -1813 34 45 80
69.6463 13.2258 -1822 39 49 83
73.6279 13.2918 -1831 48 58 91
77.9413 13.4087 -1847 42 50 86
81.9654 13.4675 -1855 41 49 84
85.5141 13.4466 -1852 39 47 81
-166.391 9.88577 -1870 37 42 63
-163.436 9.93217 -1879 28 32 57
-159.936 9.94688 -1882 27 29 54
-155.595 9.90853 -1875 28 30 55
-151.04 9.8546 -1865 38 42 65
-146.29 9.78485 -1852 38 42 66
-141.67 9.72043 -1840 33 37 62
-137.174 9.66133 -1829 32 37 62
-133.161 9.63396 -1824 33 38 63
-129.24 9.6119 -1820 34 39 66
-125.129 9.57403 -1813 35 40 68
-121.448 9.56787 -1812 32 37 66
-117.318 9.52478 -1804 34 39 70
-113.031 9.46588 -1793 42 48 80
-108.606 9.39118 -1779 49 56 90
-104.179 9.31125 -1764 46 53 87
-100.04 9.25246 -1753 40 47 81
-96.3314 9.23064 -1749 40 45 76
-92.7458 9.21942 -1747 36 41 73
-89.0665 9.19766 -1743 31 36 69
-85.6495 9.20231 -1744 31 36 69
-82.182 9.20172 -1744 33 38 71
-78.7152 9.20114 -1744 30 37 66
-75.2059 9.19532 -1743 31 37 66
-71.8246 9.20535 -1745 32 37 65
-68.3185 9.19957 -1744 33 38 67
-64.854 9.19909 -1744 31 36 65
-61.4253 9.20392 -1745 33 37 64
-57.9266 9.19822 -1744 35 39 67
-54.4325 9.19255 -1743 35 40 69
-50.9426 9.1869 -1742 32 37 65
-47.43 9.176 -1740 30 35 62
-43.9256 9.16512 -1738 29 34 62
-40.4528 9.15955 -1737 30 35 62
-36.9843 9.154 -1736 31 36 63
-33.5008 9.1432 -1734 32 37 62
-30.0774 9.14825 -1735 31 37 61
-26.6504 9.15332 -1736 35 40 65
-23.2195 9.15842 -1737 40 46 73
-19.7963 9.16881 -1739 42 47 76
-16.3653 9.17922 -1741 38 43 72
-12.9191 9.18439 -1742 34 39 67
-9.47987 9.20013 -1745 34 39 66
-6.02882 9.21589 -1748 33 39 62
-2.56299 9.22113 -1749 29 35 57
0.905759 9.21586 -1748 28 33 58
4.36304 9.19479 -1744 29 34 58
7.81794 9.18956 -1743 29 33 56
11.2495 9.16854 -1739 30 35 60
14.6823 9.15809 -1737 31 36 61
18.1593 9.17402 -1740 35 40 67
21.6485 9.18998 -1743 41 46 77
25.1929 9.22178 -1749 48 53 87
28.7613 9.25361 -1755 49 56 90
32.4273 9.30656 -1765 41 48 83
35.9296 9.3068 -1765 38 45 79
39.5439 9.33344 -1770 37 44 78
43.1298 9.34956 -1773 41 48 82
46.8331 9.38679 -1780 46 53 91
50.5646 9.42405 -1787 49 57 95
54.4757 9.48772 -1799 50 58 96
58.1768 9.50921 -1803 44 54 94
62.0312 9.55184 -1811 38 48 87
65.8091 9.57867 -1816 34 44 82
69.7222 9.62135 -1824 40 49 84
73.8686 9.69044 -1837 52 60 94
78.1095 9.76483 -1851 42 50 86
81.9647 9.78651 -1855 41 49 84
85.5133 9.77128 -1852 38 46 80
-163.435 6.19636 -1879 30 34 59
-160.02 6.20883 -1883 29 30 56
-155.594 6.18175 -1875 29 31 56
-151.444 6.16458 -1870 37 41 64
-146.447 6.11117 -1854 36 40 64
-141.746 6.06768 -1841 34 38 63
-137.398 6.03739 -1832 34 39 64
-133.233 6.01372 -1825 34 39 64
-129.239 5.99666 -1820 34 39 66
-125.197 5.97632 -1814 33 39 68
-121.247 5.9593 -1809 33 39 69
-117.187 5.9357 -1802 35 41 74
-113.094 5.90884 -1794 41 47 80
-108.545 5.85565 -1778 47 54 88
-104.06 5.80248 -1762 45 52 86
-100.154 5.77897 -1755 42 49 83
-96.2758 5.75548 -1748 41 46 77
-92.6389 5.74518 -1745 36 41 72
-89.0148 5.7349 -1742 31 36 69
-85.5998 5.7378 -1743 30 35 68
-82.1815 5.74072 -1744 32 37 70
-78.7599 5.74365 -1745 29 36 67
-75.2917 5.7433 -1745 31 37 67
-71.8242 5.74297 -1745 34 39 67
-68.3964 5.74595 -1746 34 39 68
-64.8908 5.74236 -1745 33 38 67
-61.3897 5.73879 -1744 35 39 67
-57.9263 5.73852 -1744 35 40 69
-54.4321 5.73498 -1743 34 39 68
-50.9716 5.73474 -1743 28 35 63
-47.4842 5.73123 -1742 27 33 61
-44.0012 5.72774 -1741 29 34 63
-40.5224 5.72426 -1740 29 34 62
-37.048 5.72079 -1739 31 36 63
-33.5392 5.71077 -1736 32 37 62
-30.0946 5.71063 -1736 31 37 62
-26.6502 5.7105 -1736 35 43 67
-23.2194 5.71368 -1737 41 46 73
-19.7962 5.72016 -1739 41 46 73
-16.3746 5.72995 -1742 39 44 73
-12.9487 5.74304 -1746 35 40 68
-9.49068 5.74628 -1747 33 38 65
-6.03223 5.75282 -1749 32 38 61
-2.56444 5.75609 -1750 31 36 59
0.90679 5.75609 -1750 30 34 59
4.37302 5.74952 -1748 29 34 58
7.82687 5.73968 -1745 30 34 57
11.2624 5.72657 -1741 30 36 59
14.7075 5.72334 -1740 33 38 62
18.1697 5.7267 -1741 36 41 68
21.6608 5.73666 -1744 40 45 75
25.2216 5.75979 -1751 46 51 84
28.7448 5.76978 -1754 50 57 91
32.3903 5.79952 -1763 43 50 84
35.9498 5.80954 -1766 38 45 80
39.5214 5.81958 -1769 36 42 77
43.1052 5.82964 -1772 41 46 81
46.7802 5.84958 -1778 46 53 89
50.536 5.87612 -1786 48 55 93
54.3846 5.90926 -1796 47 55 95
58.241 5.93912 -1805 46 56 96
61.9966 5.95584 -1810 40 50 89
65.8088 5.97587 -1816 34 44 82
69.7982 6.00909 -1826 41 49 85
73.9084 6.0489 -1838 51 59 94
78.109 6.09203 -1851 42 50 86
82.141 6.11872 -1859 41 49 85
85.6514 6.10592 -1855 35 43 78
-165.945 2.44279 -1865 46 51 71
-163.26 2.45821 -1877 32 36 61
-159.934 2.46446 -1882 28 29 55
-155.676 2.45632 -1876 28 30 55
-151.12 2.44295 -1866 37 41 64
-146.447 2.42697 -1854 35 39 64
-141.823 2.411 -1842 32 36 61
-137.473 2.39896 -1833 30 35 60
-133.306 2.38955 -1826 31 36 62
-129.238 2.38146 -1820 36 40 67
-125.127 2.37207 -1813 33 39 69
-121.313 2.36792 -1810 33 40 71
-116.992 2.35332 -1799 35 42 75
-112.841 2.34133 -1790 42 49 82
-108.239 2.3189 -1773 44 51 85
-104.119 2.30563 -1763 42 49 83
-100.153 2.29498 -1755 41 48 82
-96.3306 2.28695 -1749 41 46 77
-92.7448 2.28416 -1747 35 40 72
-89.1679 2.28138 -1745 30 35 68
-85.6978 2.28122 -1745 30 35 67
-82.1342 2.27846 -1743 32 37 69
-78.7145 2.27962 -1744 31 37 68
-75.2916 2.28078 -1745 32 38 68
-71.8239 2.28065 -1745 35 40 69
-68.357 2.28052 -1745 35 40 69
-64.8906 2.2804 -1745 34 39 68
-61.3895 2.27898 -1744 36 40 69
-57.8929 2.27756 -1743 37 42 71
-54.432 2.27746 -1743 35 40 69
-50.9714 2.27736 -1743 28 35 64
-47.5113 2.27727 -1743 25 32 61
-44.001 2.27458 -1741 28 33 62
-40.5456 2.2745 -1741 29 34 62
-37.0266 2.27051 -1738 31 36 64
-33.5584 2.26914 -1737 33 38 63
-30.0772 2.26647 -1735 31 37 62
-26.6501 2.26772 -1736 32 40 64
-23.2193 2.26898 -1737 39 44 71
-19.7961 2.27156 -1739 40 45 72
-16.3746 2.27544 -1742 39 44 72
-12.9486 2.28064 -1746 37 42 70
-9.49608 2.28323 -1748 34 39 66
-6.03566 2.28583 -1750 32 37 62
-2.56443 2.28582 -1750 32 37 61
0.906787 2.28582 -1750 33 37 62
4.37051 2.28191 -1747 33 37 61
7.83133 2.28061 -1746 33 37 60
11.2753 2.27671 -1743 29 34 57
14.7328 2.27674 -1743 33 39 62
18.2009 2.27807 -1744 36 41 67
21.698 2.28203 -1747 39 44 74
25.2503 2.28991 -1753 45 50 83
28.8102 2.29649 -1758 50 57 91
32.3902 2.30308 -1763 43 50 85
35.9293 2.30575 -1765 36 44 79
39.4989 2.30974 -1768 35 40 74
43.0807 2.31374 -1771 41 45 79
46.7538 2.32166 -1777 46 53 89
50.5925 2.33612 -1788 47 55 93
54.4449 2.34928 -1798 45 53 93
58.3053 2.36114 -1807 46 56 97
62.0649 2.36779 -1812 40 50 89
65.9535 2.37836 -1820 35 45 83
69.9891 2.39286 -1831 40 49 86
74.069 2.40736 -1842 50 58 94
78.2776 2.42449 -1855 43 51 87
82.2291 2.43248 -1861 42 50 86
85.7435 2.42741 -1857 37 45 81
-163.26 -1.27333 -1877 33 37 61
-160.104 -1.27794 -1884 31 33 57
-155.759 -1.27306 -1877 31 33 57
-151.039 -1.2648 -1865 38 42 65
-146.684 -1.25925 -1857 34 39 63
-141.977 -1.25032 -1844 30 35 60
-137.698 -1.24478 -1836 29 34 61
-133.379 -1.23856 -1827 32 36 63
-129.38 -1.23507 -1822 35 39 66
-124.989 -1.2275 -1811 33 39 69
-120.978 -1.22334 -1805 33 40 71
-116.667 -1.21578 -1794 34 41 75
-112.463 -1.20891 -1784 45 52 86
-108.239 -1.20137 -1773 46 53 87
-104.119 -1.1945 -1763 40 47 81
-100.096 -1.18832 -1754 39 46 80
-96.3856 -1.18553 -1750 39 44 75
-92.7449 -1.18342 -1747 34 39 70
-89.1167 -1.18131 -1744 32 37 68
-85.5995 -1.18056 -1743 31 36 67
-82.1341 -1.18049 -1743 33 38 69
-78.6694 -1.18043 -1743 34 39 70
-75.2484 -1.18104 -1744 34 39 69
-71.7416 -1.1803 -1743 35 40 69
-68.2003 -1.17889 -1741 34 39 68
-64.779 -1.17951 -1742 33 38 67
-61.3191 -1.17946 -1742 35 40 69
-57.8265 -1.17873 -1741 37 42 71
-54.4632 -1.18072 -1744 35 40 69
-51.0299 -1.18135 -1745 29 36 65
-47.5386 -1.18063 -1744 26 33 62
-44.0263 -1.17924 -1742 27 32 61
-40.5922 -1.17988 -1743 29 34 63
-37.0692 -1.17782 -1740 32 37 66
-33.5971 -1.17711 -1739 33 38 65
-30.1292 -1.17641 -1738 30 36 62
-26.6808 -1.17639 -1738 31 39 63
-23.2327 -1.17637 -1738 37 43 69
-19.8075 -1.1777 -1740 41 46 73
-16.384 -1.17972 -1743 40 45 72
-12.9561 -1.18241 -1747 40 45 72
-9.50694 -1.18444 -1750 37 42 69
-6.03911 -1.18511 -1751 34 38 64
-2.56589 -1.1851 -1751 32 36 61
0.907305 -1.1851 -1751 32 36 61
4.37301 -1.18307 -1748 33 37 61
7.8403 -1.18308 -1748 32 36 59
11.2947 -1.18173 -1746 30 34 57
14.7582 -1.18174 -1746 33 37 60
18.2427 -1.18311 -1748 34 38 63
21.76 -1.18583 -1752 36 40 71
25.2791 -1.18789 -1755 42 47 80
28.843 -1.19129 -1760 48 55 89
32.4086 -1.19402 -1764 42 49 83
35.9496 -1.19541 -1766 35 43 77
39.4765 -1.19612 -1767 35 40 74
43.0807 -1.19886 -1771 40 45 78
46.7274 -1.20228 -1776 46 53 89
50.5641 -1.20977 -1787 48 55 93
54.3844 -1.2159 -1796 46 54 94
58.3376 -1.22407 -1808 43 53 95
62.0991 -1.22751 -1813 37 47 88
65.9897 -1.23298 -1821 36 46 84
69.9126 -1.23845 -1829 40 48 85
74.0287 -1.24664 -1841 49 57 93
78.3197 -1.25686 -1856 45 53 89
82.0965 -1.25828 -1858 44 52 88
-163.521 -5.01287 -1880 34 38 61
-160.189 -5.02564 -1885 33 35 58
-155.926 -5.0091 -1879 34 37 60
-151.201 -4.97657 -1867 40 44 67
-146.763 -4.95207 -1858 33 38 63
-142.054 -4.91692 -1845 29 34 59
-137.848 -4.89778 -1838 30 35 62
-133.525 -4.87333 -1829 33 38 64
-129.594 -4.86221 -1825 35 39 66
-125.059 -4.82714 -1812 33 39 69
-121.045 -4.81073 -1806 31 38 69
-116.667 -4.77835 -1794 33 40 74
-112.463 -4.75132 -1784 49 56 90
-108.056 -4.71365 -1770 47 54 88
-104.001 -4.68931 -1761 40 47 81
-100.039 -4.66766 -1753 38 45 79
-96.3858 -4.65933 -1750 37 42 73
-92.692 -4.64835 -1746 34 39 70
-89.168 -4.64537 -1745 33 37 69
-85.6979 -4.64507 -1745 32 37 68
-82.1343 -4.63945 -1743 32 37 68
-78.6695 -4.63917 -1743 31 36 67
-75.2053 -4.6389 -1743 34 39 69
-71.7006 -4.63599 -1742 34 39 68
-68.2396 -4.63574 -1742 32 37 66
-64.742 -4.63285 -1741 32 37 66
-61.284 -4.63263 -1741 35 40 69
-57.8598 -4.63509 -1742 37 42 71
-54.4945 -4.64287 -1745 36 41 70
-51.03 -4.64269 -1745 30 37 66
-47.5932 -4.64518 -1746 27 34 63
-44.0769 -4.6397 -1744 28 33 63
-40.6155 -4.63955 -1744 28 33 63
-37.0906 -4.63143 -1741 32 37 66
-33.6358 -4.63131 -1741 30 35 62
-30.1639 -4.62854 -1740 31 36 63
-26.6962 -4.62578 -1739 31 39 63
-23.2595 -4.62835 -1740 36 42 68
-19.8303 -4.6336 -1742 40 45 72
-16.3934 -4.63885 -1744 40 45 72
-12.9635 -4.64944 -1748 41 46 73
-9.50696 -4.65472 -1750 39 44 71
-6.03912 -4.65736 -1751 36 40 65
-2.5659 -4.65734 -1751 31 35 60
0.907307 -4.65734 -1751 30 34 59
4.37051 -4.64671 -1747 31 35 59
7.83583 -4.64673 -1747 30 34 57
11.2947 -4.64411 -1746 29 33 56
14.7667 -4.64681 -1747 31 35 58
18.2531 -4.65219 -1749 32 36 61
21.7725 -4.6629 -1753 33 38 68
25.2935 -4.67096 -1756 39 44 76
28.8594 -4.68435 -1761 45 52 86
32.4087 -4.69244 -1764 42 49 83
35.9497 -4.69788 -1766 38 46 80
39.499 -4.70333 -1768 37 43 76
43.0808 -4.71146 -1771 40 45 79
46.7538 -4.72758 -1777 46 53 89
50.5925 -4.75701 -1788 49 56 95
54.5056 -4.78912 -1800 47 55 95
58.4345 -4.81859 -1811 43 54 96
62.202 -4.8321 -1816 36 47 88
66.0261 -4.84829 -1822 35 45 84
69.9128 -4.86716 -1829 36 45 82
74.1093 -4.90466 -1843 46 54 90
78.2777 -4.93687 -1855 45 53 89
82.0525 -4.94247 -1857 44 52 88
85.6051 -4.93478 -1854 39 47 83
-163.696 -8.75973 -1882 34 38 61
-160.275 -8.77735 -1886 34 36 59
-155.926 -8.74381 -1879 36 39 62
-151.283 -8.69169 -1868 38 43 66
-146.922 -8.65355 -1860 29 34 58
-142.286 -8.59684 -1848 27 32 57
-138.074 -8.56342 -1841 30 35 60
-133.744 -8.52073 -1832 34 39 65
-129.594 -8.48737 -1825 36 40 67
-125.197 -8.43543 -1814 33 39 71
-121.046 -8.39748 -1806 31 38 71
-116.602 -8.3363 -1793 33 40 74
-112.275 -8.27981 -1781 49 56 90
-107.812 -8.20941 -1766 46 53 87
-104.06 -8.19016 -1762 40 47 81
-100.268 -8.1663 -1757 38 45 78
-96.4964 -8.14246 -1752 37 40 72
-92.6925 -8.11399 -1746 35 38 70
-89.2707 -8.11808 -1747 36 39 71
-85.7475 -8.1129 -1746 34 39 70
-82.1818 -8.10309 -1744 32 37 68
-78.715 -8.1026 -1744 31 36 67
-75.2919 -8.10677 -1745 34 39 69
-71.7009 -8.09238 -1742 35 40 69
-68.2008 -8.08731 -1741 33 38 67
-64.7423 -8.0869 -1741 33 38 67
-61.3195 -8.09116 -1742 35 40 69
-57.9265 -8.10009 -1744 36 41 70
-54.5572 -8.11367 -1747 36 41 70
-51.0887 -8.11335 -1747 31 38 67
-47.6207 -8.11305 -1747 29 36 65
-44.1024 -8.10348 -1745 29 34 65
-40.639 -8.10322 -1745 27 32 62
-37.1334 -8.09369 -1743 31 36 65
-33.6746 -8.09347 -1743 29 34 61
-30.1987 -8.08864 -1742 29 35 61
-26.7424 -8.08846 -1742 30 38 62
-23.273 -8.08366 -1741 36 41 68
-19.8304 -8.08818 -1742 40 45 72
-16.3935 -8.09735 -1744 41 46 74
-12.9636 -8.11583 -1748 41 46 73
-9.50701 -8.12505 -1750 39 44 71
-6.03915 -8.12965 -1751 37 41 66
-2.56738 -8.13426 -1752 32 36 61
0.907312 -8.12961 -1751 30 34 60
4.37304 -8.1157 -1748 30 34 58
7.84484 -8.12038 -1749 29 33 56
11.3077 -8.1158 -1748 30 34 57
14.7836 -8.12052 -1749 29 34 57
18.2637 -8.12527 -1750 30 34 59
21.8099 -8.15325 -1756 33 38 67
25.3513 -8.17197 -1760 39 44 75
28.9087 -8.19071 -1764 44 51 85
32.4823 -8.20947 -1768 41 48 81
36.0313 -8.21897 -1770 37 45 79
39.5439 -8.2192 -1770 38 44 77
43.1053 -8.22874 -1772 41 46 79
46.7804 -8.25688 -1778 46 53 89
50.5928 -8.30362 -1788 49 56 94
54.4453 -8.35039 -1798 49 57 97
58.4348 -8.41111 -1811 43 56 97
62.2023 -8.4347 -1816 37 50 90
65.9902 -8.45832 -1821 36 46 86
69.9131 -8.4959 -1829 32 41 78
73.8684 -8.5335 -1837 43 51 87
78.0671 -8.59436 -1850 46 54 90
81.9645 -8.61808 -1855 46 53 89
-163.089 -12.4551 -1875 37 41 64
-160.021 -12.5068 -1883 33 35 58
-156.094 -12.4921 -1881 36 39 61
-151.284 -12.4044 -1868 37 43 65
-146.844 -12.3431 -1859 30 35 59
-142.441 -12.2821 -1850 28 33 58
-138.15 -12.2278 -1842 29 34 59
-133.818 -12.1668 -1833 34 39 64
-129.808 -12.1325 -1828 38 42 69
-125.474 -12.065 -1818 35 41 73
-121.181 -11.9976 -1808 34 41 74
-116.798 -11.9169 -1796 34 41 75
-112.212 -11.8097 -1780 46 53 88
-107.874 -11.7225 -1767 42 49 84
-103.884 -11.6685 -1759 39 46 79
-100.098 -11.6345 -1754 36 43 76
-96.387 -11.6071 -1750 37 41 71
-92.7991 -11.593 -1748 37 40 71
-89.2713 -11.5855 -1747 37 40 72
-85.699 -11.5715 -1745 36 41 72
-82.1824 -11.5641 -1744 33 38 69
-78.7156 -11.5634 -1744 33 38 69
-75.2494 -11.5628 -1744 35 40 70
-71.7015 -11.5488 -1742 36 41 70
-68.2404 -11.5482 -1742 35 40 71
-64.8543 -11.5609 -1744 35 40 70
-61.3904 -11.5604 -1744 36 40 69
-57.9934 -11.5731 -1746 36 41 70
-54.5576 -11.5792 -1747 36 41 70
-51.0599 -11.5721 -1746 32 39 68
-47.5938 -11.5717 -1746 31 38 67
-44.0775 -11.558 -1744 31 36 67
-40.616 -11.5577 -1744 27 32 62
-37.1336 -11.5507 -1743 30 35 64
-33.6555 -11.5438 -1742 28 33 59
-30.1989 -11.5435 -1742 29 35 60
-26.7273 -11.5366 -1741 30 38 62
-23.2731 -11.5364 -1741 35 40 67
-19.8306 -11.5428 -1742 39 44 71
-16.3936 -11.5559 -1744 42 47 76
-12.9562 -11.5757 -1747 42 47 75
-9.50165 -11.5888 -1749 40 44 71
-6.0392 -11.602 -1751 37 41 66
-2.56739 -11.6086 -1752 33 37 62
0.907319 -11.602 -1751 32 36 63
4.37807 -11.5954 -1750 32 36 60
7.84938 -11.5954 -1750 30 34 57
11.3143 -11.5889 -1749 29 35 57
14.7838 -11.589 -1749 30 35 58
18.2742 -11.6024 -1751 31 36 61
21.7852 -11.6224 -1754 33 38 67
25.3227 -11.6491 -1758 40 45 76
28.8926 -11.6825 -1763 47 52 85
32.4642 -11.7093 -1767 40 47 80
36.0316 -11.7295 -1770 35 43 77
39.6112 -11.7497 -1773 38 43 77
43.1786 -11.7633 -1775 41 46 80
46.886 -11.8101 -1782 44 51 87
50.6215 -11.8569 -1789 48 55 93
54.6577 -11.9634 -1805 48 56 95
58.4997 -12.017 -1813 44 57 98
62.3055 -12.0573 -1819 42 54 95
66.0994 -12.091 -1824 38 48 88
69.9519 -12.1313 -1830 30 39 77
73.9494 -12.1916 -1839 43 51 88
78.0676 -12.2652 -1850 48 56 92
81.6558 -12.2527 -1848 47 55 91
-163.438 -16.2173 -1879 41 45 68
-160.193 -16.2673 -1885 33 35 58
-156.095 -16.231 -1881 36 40 62
-151.286 -16.117 -1868 38 44 66
-146.766 -16.0291 -1858 32 37 61
-142.596 -15.9757 -1852 30 35 60
-138.301 -15.905 -1844 31 36 61
-134.185 -15.8515 -1838 37 41 67
-129.881 -15.7724 -1829 38 43 70
-125.821 -15.7192 -1823 37 43 74
-121.383 -15.6143 -1811 37 44 77
-116.865 -15.4923 -1797 39 46 80
-112.024 -15.3185 -1777 44 51 85
-107.814 -15.2225 -1766 38 45 80
-103.885 -15.1609 -1759 36 44 76
-100.156 -15.1253 -1755 35 43 74
-96.4982 -15.0983 -1752 37 41 70
-92.8003 -15.0627 -1748 37 40 70
-89.2722 -15.0531 -1747 37 39 71
-85.6999 -15.0348 -1745 35 39 71
-82.1833 -15.0253 -1744 32 37 68
-78.7164 -15.0243 -1744 32 37 67
-75.2071 -15.0149 -1743 35 40 70
-71.7433 -15.014 -1743 37 42 71
-68.2803 -15.0132 -1743 38 43 73
-64.8922 -15.0297 -1745 37 42 72
-61.4262 -15.029 -1745 37 41 70
-58.0272 -15.0455 -1747 36 41 70
-54.527 -15.0362 -1746 35 40 70
-51.0604 -15.0356 -1746 31 37 66
-47.5397 -15.0179 -1744 33 39 68
-44.0526 -15.0087 -1743 33 38 68
-40.5932 -15.0082 -1743 28 33 63
-37.134 -15.0078 -1743 28 33 62
-33.6752 -15.0074 -1743 27 33 56
-30.2339 -15.0156 -1744 28 35 57
-26.7429 -14.9981 -1742 29 37 58
-23.2734 -14.9892 -1741 32 39 62
-19.8422 -15.0062 -1743 37 44 68
-16.3938 -15.0146 -1744 43 48 77
-12.9564 -15.0402 -1747 42 47 75
-9.50718 -15.0659 -1750 38 42 69
-6.03581 -15.0658 -1750 35 39 65
-2.56742 -15.083 -1752 34 38 63
0.907847 -15.083 -1752 33 37 63
4.37812 -15.0658 -1750 32 36 61
7.84946 -15.0659 -1750 30 35 59
11.3209 -15.066 -1750 28 33 57
14.7924 -15.0661 -1750 30 35 59
18.2744 -15.0749 -1751 32 37 63
21.7854 -15.101 -1754 35 40 69
25.3229 -15.1357 -1758 41 46 77
28.8929 -15.1791 -1763 44 50 82
32.4829 -15.2225 -1768 40 46 79
36.0523 -15.2487 -1771 36 43 77
39.6116 -15.2663 -1773 38 43 77
43.1791 -15.284 -1775 40 46 80
46.8601 -15.3362 -1781 44 51 87
50.6503 -15.4143 -1790 48 55 93
