ply
format ascii 1.0
comment Created by Open3D
element vertex 1479
property double x
property double y
property double z
property uchar red
property uchar green
property uchar blue
end_header
614.957 284.05 -1891 143 109 93
618.823 284.029 -1890 135 101 87
621.371 283.408 -1885 130 95 81
625.894 283.69 -1886 138 103 88
628.757 283.22 -1882 140 105 91
634.634 284.106 -1887 137 103 90
640.202 284.843 -1891 139 103 87
644.089 284.828 -1890 145 108 92
649.007 285.267 -1892 149 112 95
653.25 285.405 -1892 188 148 127
656.456 285.091 -1889 203 164 141
659.655 284.777 -1886 214 176 151
663.551 284.767 -1885 216 180 155
667.448 284.757 -1884 219 180 159
671.704 284.899 -1884 225 185 165
675.966 285.043 -1884 226 186 168
679.874 285.036 -1883 220 181 165
684.873 285.484 -1885 209 172 156
691.351 286.54 -1891 203 166 151
697.494 287.446 -1896 207 168 152
704.407 288.658 -1903 208 167 153
711.732 290.023 -1911 204 162 150
721.348 292.302 -1925 218 175 167
-429.516 263.584 -1808 70 90 149
-425.934 263.644 -1809 68 84 150
-421.884 263.413 -1808 66 83 148
-418.305 263.474 -1809 65 82 147
-414.954 263.682 -1811 66 81 144
-410.917 263.454 -1810 65 79 142
-406.663 263.081 -1808 62 78 142
-403.313 263.291 -1810 60 78 141
-399.074 262.92 -1808 59 77 140
-395.504 262.986 -1809 59 73 137
-391.932 263.053 -1810 54 69 131
-388.574 263.265 -1812 58 73 132
-385.424 263.624 -1815 57 73 133
-381.423 263.402 -1814 53 69 128
-378.054 263.617 -1816 50 66 125
-373.65 263.107 -1813 52 66 123
-370.281 263.323 -1815 54 65 121
-365.696 262.669 -1811 53 65 115
-361.93 262.597 -1811 48 60 109
-357.376 261.946 -1807 44 51 101
-354.015 262.165 -1809 56 68 124
-350.456 262.24 -1810 63 78 137
-346.704 262.171 -1810 58 69 125
-343.713 262.682 -1814 58 69 127
-339.771 262.469 -1813 57 69 130
-336.022 262.402 -1813 64 76 140
-332.092 262.192 -1812 69 81 146
-328.169 261.981 -1811 48 57 113
-324.97 262.351 -1814 38 46 97
-320.875 261.998 -1812 45 51 96
-317.667 262.369 -1815 53 61 111
-313.757 262.162 -1814 54 63 114
-309.854 261.956 -1813 55 64 116
-306.127 261.895 -1813 59 69 126
-301.734 261.257 -1809 65 76 136
-298.844 261.92 -1814 70 78 144
-294.471 261.284 -1810 69 77 142
-291.402 261.804 -1814 55 63 127
-287.051 261.17 -1810 47 55 116
-283.658 261.402 -1812 49 57 118
-279.486 260.914 -1809 57 65 127
-275.481 260.571 -1807 66 75 140
-271.337 260.085 -1804 69 79 147
-267.8 260.176 -1805 67 81 148
-263.969 259.98 -1804 70 84 151
-260.289 259.928 -1804 71 85 154
-256.895 260.166 -1806 70 87 157
-252.514 259.395 -1801 67 86 158
-249.122 259.634 -1803 66 83 157
-245.044 259.154 -1800 67 85 159
-241.382 259.106 -1800 65 84 157
-237.326 258.628 -1797 61 79 151
-234.064 259.013 -1800 62 79 152
-230.408 258.968 -1800 62 79 152
-226.754 258.923 -1800 58 75 147
-223.35 259.167 -1802 56 71 140
-220.183 259.699 -1806 57 72 139
-216.283 259.369 -1804 58 74 140
-212.864 259.614 -1806 58 74 140
-208.859 259.142 -1803 62 78 144
-205.21 259.102 -1803 61 77 143
-201.339 258.774 -1801 54 72 138
-197.587 258.592 -1800 49 67 133
-193.841 258.41 -1799 52 66 129
-190.418 258.66 -1801 50 63 120
-186.884 258.767 -1802 46 58 109
-183.654 259.305 -1806 45 55 102
-180.508 259.987 -1811 41 51 97
-177.539 260.957 -1818 39 49 93
-174.638 262.071 -1826 37 46 86
-171.988 263.616 -1837 35 43 79
-168.745 264.301 -1842 32 40 76
-165.304 264.699 -1845 28 36 72
-161.765 264.954 -1847 26 34 68
-158.048 264.923 -1847 25 34 66
-154.082 264.462 -1844 31 40 72
-150.292 264.289 -1843 32 41 73
-146.348 263.83 -1840 35 44 76
-142.573 263.659 -1839 35 46 76
-138.727 263.345 -1837 37 47 78
-135.184 263.605 -1839 39 48 80
-131.277 263.149 -1836 42 49 83
-127.731 263.411 -1838 44 51 87
-123.907 263.099 -1836 42 50 88
-120.29 263.219 -1837 40 48 88
-116.415 262.766 -1834 40 48 88
-112.799 262.887 -1835 41 49 91
-109.12 262.866 -1835 40 49 91
-105.385 262.702 -1834 40 49 91
-101.71 262.682 -1834 42 52 98
-97.9831 262.519 -1833 44 54 101
-94.1575 262.071 -1830 47 57 103
-90.2953 261.48 -1826 50 60 106
-86.4499 260.89 -1822 54 64 111
-82.6666 260.445 -1819 51 67 118
-79.0698 260.572 -1820 49 64 114
-75.3868 260.414 -1819 50 62 111
-71.8266 260.686 -1821 50 62 111
-68.1842 260.672 -1821 49 61 109
-64.4714 260.373 -1819 46 60 115
-60.8341 260.361 -1819 45 61 114
-57.2287 260.493 -1820 44 63 115
-53.6491 260.768 -1822 52 66 113
-49.9524 260.472 -1820 57 70 117
-46.3402 260.606 -1821 53 66 119
-42.6541 260.311 -1819 51 64 118
-39.0193 260.303 -1819 51 64 120
-35.3653 260.153 -1818 47 57 101
-31.8029 260.719 -1822 48 57 101
-28.1939 260.999 -1824 49 55 98
-24.5905 261.424 -1827 50 55 95
-20.941 261.419 -1827 49 53 92
-17.3294 261.988 -1831 41 49 90
-13.6797 262.128 -1832 43 51 92
-10.037 262.555 -1835 47 55 95
-6.37557 262.696 -1836 47 55 96
-2.71145 262.982 -1838 44 52 92
0.960409 263.268 -1840 40 46 87
4.63797 263.411 -1841 36 43 82
8.32386 263.699 -1843 35 42 80
12.0115 263.844 -1844 37 44 78
15.6945 263.847 -1844 43 50 86
19.3674 263.707 -1843 44 52 92
23.0614 263.854 -1844 42 50 89
26.7594 264.002 -1845 31 39 77
30.4618 264.151 -1846 31 38 72
34.1497 264.157 -1846 34 41 75
37.8176 264.021 -1845 35 42 75
41.5268 264.172 -1846 34 40 68
45.1913 264.037 -1845 36 42 69
48.905 264.189 -1846 36 43 72
52.6518 264.485 -1848 42 49 80
56.346 264.496 -1848 41 49 81
59.9756 264.221 -1846 41 47 80
63.7012 264.376 -1847 39 45 78
67.3948 264.389 -1847 37 43 76
71.012 264.116 -1845 40 45 78
74.6624 263.987 -1844 45 50 83
78.3092 263.858 -1843 45 52 87
81.9526 263.731 -1842 46 53 93
85.5929 263.604 -1841 46 54 97
89.2782 263.621 -1841 47 53 98
92.9138 263.495 -1840 48 54 99
96.6512 263.657 -1841 47 54 100
100.393 263.819 -1842 47 53 98
104.14 263.982 -1843 48 54 98
107.834 264.003 -1843 50 55 97
111.528 264.024 -1843 48 53 94
115.223 264.046 -1843 46 51 91
118.79 263.782 -1841 42 50 88
122.616 264.092 -1843 43 50 90
126.245 263.973 -1842 46 54 96
130.083 264.284 -1844 50 55 96
133.858 264.453 -1845 47 52 92
137.638 264.623 -1846 42 50 88
141.193 264.364 -1844 39 47 86
144.977 264.535 -1845 38 46 86
148.524 264.276 -1843 41 49 91
152.148 264.162 -1842 41 48 90
155.853 264.192 -1842 45 52 93
159.646 264.366 -1843 47 57 101
163.355 264.398 -1843 49 59 104
167.066 264.43 -1843 47 59 105
171.057 264.893 -1846 52 60 105
174.682 264.783 -1845 52 59 104
178.498 264.961 -1846 54 60 105
182.122 264.853 -1845 52 57 101
185.844 264.889 -1845 48 52 95
189.362 264.638 -1843 49 53 94
192.979 264.532 -1842 50 55 94
196.806 264.713 -1843 44 51 87
200.531 264.752 -1843 51 58 94
204.368 264.935 -1844 56 58 91
208.21 265.119 -1845 63 57 84
212.403 265.735 -1849 73 71 97
216.614 266.352 -1853 137 124 139
220.487 266.538 -1854 184 133 110
224.365 266.726 -1855 186 139 113
227.757 266.338 -1852 189 141 114
231.639 266.527 -1853 193 141 109
235.018 266.141 -1850 196 138 104
238.775 266.188 -1850 197 138 103
243.058 266.81 -1854 197 138 101
246.427 266.427 -1851 197 136 103
250.462 266.763 -1853 195 132 101
254.233 266.813 -1853 192 130 97
258.563 267.439 -1857 189 126 93
261.357 266.482 -1850 184 121 86
265.415 266.821 -1852 181 118 82
269.192 266.874 -1852 180 118 84
273.562 267.504 -1856 177 116 83
277.501 267.702 -1857 175 113 80
281.296 267.757 -1857 178 115 81
284.785 267.524 -1855 188 123 89
288.269 267.292 -1853 198 135 101
291.432 266.772 -1849 204 142 109
295.22 266.83 -1849 205 144 113
299.819 267.61 -1854 206 146 113
303.294 267.381 -1852 205 146 113
306.598 267.008 -1849 205 147 115
309.893 266.635 -1846 204 147 116
313.687 266.697 -1846 203 145 114
317.828 267.048 -1848 208 147 117
321.805 267.256 -1849 210 152 122
325.79 267.464 -1850 212 154 123
329.781 267.673 -1851 211 154 122
333.419 267.594 -1850 202 148 116
336.874 267.371 -1848 197 142 112
340.691 267.438 -1848 195 136 110
344.512 267.506 -1848 190 132 102
349.843 268.733 -1856 189 130 97
353.495 268.658 -1855 188 127 91
358.11 269.308 -1859 186 128 91
361.381 268.945 -1856 189 129 93
365.627 269.307 -1858 190 127 92
368.492 268.655 -1853 191 127 81
372.746 269.019 -1855 192 127 83
376.199 268.803 -1853 191 126 84
380.673 269.314 -1856 189 126 82
383.919 268.955 -1853 188 125 83
388.622 269.612 -1857 190 127 86
392.287 269.545 -1856 190 125 84
396.805 270.059 -1859 190 125 87
401.124 270.43 -1861 191 127 89
405.89 271.091 -1865 189 127 87
409.578 271.028 -1864 190 129 86
414.817 271.983 -1870 190 128 85
418.742 272.066 -1870 189 128 84
423.123 272.441 -1872 189 128 87
427.744 272.963 -1875 191 130 90
431.229 272.758 -1873 190 130 90
435.175 272.845 -1873 189 129 85
438.656 272.641 -1871 189 129 85
444.025 273.604 -1877 188 129 85
448.229 273.84 -1878 186 130 87
452.683 274.222 -1880 189 131 87
456.42 274.168 -1879 185 128 85
460.402 274.26 -1879 181 125 89
463.894 274.061 -1877 182 122 85
469.126 274.885 -1882 181 121 84
472.875 274.834 -1881 182 122 85
476.878 274.93 -1881 182 122 86
481.651 275.466 -1884 177 121 88
485.669 275.563 -1884 173 118 86
489.691 275.662 -1884 171 115 81
493.455 275.615 -1883 164 113 80
497.483 275.716 -1883 158 109 76
502.315 276.256 -1886 153 107 73
535.643 277.541 -1889 102 86 84
540.302 277.945 -1891 101 84 82
547.277 279.526 -1901 95 77 74
550.82 279.344 -1899 92 74 68
556.113 280.046 -1903 103 78 73
560.545 280.307 -1904 109 84 78
563.8 279.981 -1901 109 82 75
566.151 279.213 -1895 110 83 75
571.189 279.771 -1898 112 83 74
573.821 279.152 -1893 119 87 78
576.436 278.532 -1888 122 88 78
580.264 278.504 -1887 125 89 77
583.474 278.181 -1884 128 94 83
587.612 278.301 -1884 128 93 83
592.697 278.866 -1887 129 95 85
597.485 279.285 -1889 120 93 84
602.924 280 -1893 116 92 84
608.065 280.569 -1896 115 90 83
612.903 280.992 -1898 112 87 80
616.454 280.823 -1896 108 86 80
620.985 281.099 -1897 105 84 81
622.559 280.042 -1889 106 84 81
627.422 280.469 -1891 110 88 83
630.963 280.303 -1889 110 89 85
635.846 280.731 -1891 108 88 85
640.745 281.161 -1893 111 87 82
644.636 281.147 -1892 108 82 75
648.871 281.282 -1892 106 81 71
653.113 281.417 -1892 128 97 87
657.013 281.405 -1891 149 118 104
660.215 281.097 -1888 176 142 124
664.115 281.086 -1887 184 148 123
667.307 280.779 -1884 191 149 131
673.344 281.665 -1889 207 161 146
677.975 281.956 -1890 204 157 144
681.535 281.8 -1888 193 147 133
686.181 282.093 -1889 168 124 105
692.3 282.985 -1894 156 113 93
697.714 283.58 -1897 161 115 95
704.628 284.774 -1904 159 112 94
711.953 286.121 -1912 170 124 109
721.944 288.517 -1927 204 159 144
725.979 288.521 -1926 224 179 172
-462.932 260.076 -1804 145 154 196
-458.833 259.84 -1803 99 110 155
-456.258 260.469 -1808 70 87 147
-433.731 260.227 -1810 67 88 151
-429.906 260.141 -1810 67 87 147
-425.378 259.625 -1807 67 82 147
-421.8 259.685 -1808 67 81 146
-417.99 259.602 -1808 68 81 147
-414.642 259.807 -1810 67 79 142
-410.382 259.439 -1808 63 75 137
-407.032 259.645 -1810 58 73 134
-402.787 259.278 -1808 58 74 133
-399.216 259.343 -1809 57 73 132
-395.425 259.264 -1809 57 69 128
-392.071 259.473 -1811 53 64 123
-388.712 259.683 -1813 54 65 121
-385.135 259.75 -1814 51 65 120
-381.137 259.532 -1813 51 66 121
-377.563 259.601 -1814 47 62 117
-373.37 259.241 -1812 46 59 113
-369.596 259.168 -1812 46 58 110
-365.422 258.81 -1810 47 57 103
-361.459 258.596 -1809 44 54 100
-357.503 258.382 -1808 43 51 99
-353.554 258.17 -1807 55 68 121
-350.194 258.387 -1809 53 68 125
-346.828 258.604 -1811 50 59 111
-343.456 258.822 -1813 53 62 118
-339.517 258.613 -1812 59 70 134
-335.771 258.547 -1812 67 79 140
-332.027 258.482 -1812 52 64 124
-328.467 258.56 -1813 43 51 98
-325.085 258.782 -1815 38 45 89
-321.167 258.576 -1814 44 51 92
-318.13 259.084 -1818 53 62 110
-313.696 258.453 -1814 53 62 111
-309.793 258.249 -1813 52 61 112
-305.898 258.047 -1812 54 64 120
-301.675 257.561 -1809 61 72 130
-298.291 257.787 -1811 73 81 148
-293.763 257.018 -1806 68 76 141
-290.382 257.246 -1808 49 57 118
-286.678 257.19 -1808 42 51 106
-283.289 257.419 -1810 49 58 112
-279.122 256.938 -1807 55 63 122
-275.428 256.885 -1807 64 73 136
-271.585 256.689 -1806 69 80 148
-267.451 256.211 -1803 68 81 148
-263.479 255.875 -1801 72 86 153
-259.805 255.825 -1801 71 87 154
-256.276 255.917 -1802 69 87 157
-252.044 255.3 -1798 66 87 159
-248.521 255.394 -1799 66 85 157
-244.451 254.92 -1796 67 87 159
-240.933 255.015 -1797 64 84 156
-237.28 254.969 -1797 60 79 151
-234.279 255.633 -1802 63 82 153
-230.235 255.163 -1799 60 79 150
-226.962 255.544 -1802 57 74 145
-223.431 255.642 -1803 58 73 142
-219.897 255.741 -1804 58 74 141
-216.241 255.699 -1804 58 74 140
-212.587 255.658 -1804 58 74 140
-208.935 255.618 -1804 62 78 144
-205.284 255.578 -1804 61 77 143
-201.523 255.397 -1803 54 72 138
-197.439 254.792 -1799 49 67 133
-193.911 254.896 -1800 50 65 126
-190.275 254.859 -1800 49 62 118
-186.745 254.965 -1801 47 59 110
-183.618 255.637 -1806 47 57 103
-180.573 256.451 -1812 45 55 101
-177.407 257.124 -1817 42 52 96
-174.222 257.798 -1822 39 48 87
-171.487 259.18 -1832 34 42 78
-168.621 260.421 -1841 31 39 75
-165.272 260.954 -1845 29 37 72
-161.646 261.064 -1846 26 34 68
-157.847 260.893 -1845 26 34 67
-153.969 260.58 -1843 29 38 70
-150.018 260.127 -1840 29 38 70
-146.081 259.674 -1837 36 45 76
-142.313 259.505 -1836 38 48 78
-138.398 259.054 -1833 37 46 78
-134.938 259.452 -1836 39 48 80
-131.181 259.285 -1835 44 51 86
-127.637 259.543 -1837 43 50 86
-123.884 259.378 -1836 43 51 89
-120.136 259.213 -1835 42 50 90
-116.265 258.767 -1832 40 48 88
-112.531 258.604 -1831 41 49 92
-108.921 258.724 -1832 41 50 92
-105.193 258.562 -1831 41 51 93
-101.524 258.543 -1831 42 53 100
-97.8572 258.524 -1831 45 55 102
-94.0365 258.082 -1828 49 59 106
-90.1791 257.499 -1824 51 61 108
-86.4333 257.2 -1822 53 63 110
-82.6507 256.761 -1819 53 66 116
-78.8808 256.322 -1816 53 65 115
-75.2894 256.448 -1817 54 65 114
-71.6945 256.575 -1818 51 63 113
-67.9839 256.28 -1816 49 61 111
-64.3173 256.126 -1815 45 61 118
-60.6552 255.973 -1814 47 64 120
-57.0919 256.244 -1816 50 68 123
-53.4623 256.233 -1816 56 69 119
-49.833 256.224 -1816 60 72 121
-46.2296 256.356 -1817 57 70 123
-42.599 256.347 -1817 55 67 121
-38.9904 256.48 -1818 50 63 116
-35.378 256.614 -1819 44 55 98
-31.7969 257.031 -1822 49 58 101
-28.1731 257.167 -1823 49 55 97
-24.5724 257.585 -1826 49 53 94
-20.9485 257.863 -1828 50 54 93
-17.3262 258.282 -1831 44 52 92
-13.6845 258.561 -1833 45 53 93
-10.0242 258.559 -1833 47 55 95
-6.3707 258.84 -1835 48 56 96
-2.70949 259.121 -1837 44 52 92
0.959693 259.403 -1839 40 46 87
4.63961 259.827 -1842 36 43 82
8.32681 260.11 -1844 35 42 80
12.0158 260.253 -1845 35 42 76
15.7086 260.397 -1846 42 50 85
19.3953 260.4 -1846 44 52 92
23.0568 260.122 -1844 42 50 89
26.7543 260.268 -1845 30 38 76
30.4723 260.556 -1847 30 37 71
34.1618 260.562 -1847 34 41 75
37.8308 260.427 -1846 35 42 75
41.5863 260.858 -1849 34 42 69
45.2316 260.584 -1847 35 43 70
48.9486 260.734 -1848 34 41 70
52.6987 261.026 -1850 38 45 75
56.4266 261.178 -1851 37 44 75
60.0941 261.048 -1850 38 44 77
63.7925 261.06 -1850 38 45 78
67.4914 261.072 -1850 35 42 75
71.0755 260.662 -1847 38 44 77
74.729 260.535 -1846 42 47 80
78.3791 260.408 -1845 41 47 81
82.0259 260.283 -1844 43 51 89
85.6694 260.157 -1843 46 54 96
89.3095 260.033 -1842 47 53 95
93.0475 260.192 -1843 47 53 96
96.7899 260.351 -1844 46 54 96
100.483 260.37 -1844 47 53 96
104.177 260.389 -1844 46 52 95
107.813 260.268 -1843 44 49 91
111.506 260.289 -1843 44 50 90
115.201 260.311 -1843 42 49 87
118.767 260.051 -1841 39 47 83
122.592 260.356 -1843 38 46 84
126.289 260.38 -1843 43 49 90
130.058 260.546 -1844 45 49 89
133.687 260.43 -1843 40 44 83
137.537 260.739 -1845 38 45 83
141.089 260.483 -1843 39 47 86
144.792 260.51 -1843 38 46 86
148.576 260.68 -1844 43 51 93
152.284 260.708 -1844 44 52 93
155.907 260.596 -1843 46 54 94
159.701 260.768 -1844 46 56 100
163.501 260.941 -1845 47 57 102
167.215 260.972 -1845 46 57 103
171.024 261.146 -1846 49 56 100
174.648 261.038 -1845 48 55 98
178.173 260.789 -1843 51 57 102
181.889 260.823 -1843 49 54 98
185.607 260.859 -1843 47 51 94
189.12 260.611 -1841 51 55 97
192.732 260.507 -1840 51 56 94
196.768 260.969 -1843 42 49 82
200.709 261.29 -1845 47 54 89
204.439 261.329 -1845 53 56 88
208.17 261.369 -1845 59 55 82
212.247 261.834 -1848 84 73 96
216.222 262.159 -1850 145 125 137
220.206 262.484 -1852 186 135 110
224.2 262.811 -1854 186 135 110
228.081 262.996 -1855 187 136 110
231.594 262.757 -1853 191 138 107
234.718 262.093 -1848 198 140 107
238.857 262.564 -1851 202 142 108
242.617 262.61 -1851 199 139 103
246.113 262.374 -1849 197 135 101
250.278 262.847 -1852 196 132 99
254.046 262.896 -1852 193 131 97
258.234 263.372 -1855 191 128 93
261.448 262.854 -1851 188 123 88
265.65 263.331 -1854 180 118 82
268.995 262.956 -1851 178 115 81
272.919 263.151 -1852 175 113 81
276.7 263.204 -1852 178 116 82
280.786 263.542 -1854 188 126 92
283.962 263.028 -1850 200 137 102
287.124 262.515 -1846 204 143 110
291.533 263.14 -1850 205 145 112
295.641 263.481 -1852 205 146 115
299.114 263.255 -1850 206 148 116
303.399 263.74 -1853 205 147 115
306.87 263.515 -1851 205 147 115
310 263.005 -1847 207 148 116
313.965 263.208 -1848 205 145 115
318.109 263.555 -1850 207 147 121
322.09 263.759 -1851 210 150 122
326.606 264.393 -1855 206 146 117
330.785 264.742 -1857 201 140 108
334.255 264.521 -1855 194 133 103
337.172 263.874 -1850 187 126 96
341.546 264.368 -1853 185 122 92
345.935 264.863 -1856 179 115 88
350.528 265.502 -1860 175 111 82
354.569 265.714 -1861 175 110 79
359.002 266.212 -1864 178 112 76
362.673 266.14 -1863 177 113 78
366.342 266.068 -1862 174 111 78
369.413 265.569 -1858 176 112 68
373.074 265.498 -1857 180 114 72
376.328 265.143 -1854 184 116 75
380.598 265.503 -1856 182 117 74
384.258 265.435 -1855 181 115 74
389.173 266.227 -1860 180 114 74
393.055 266.303 -1860 181 116 76
398.007 267.097 -1865 183 118 78
401.691 267.033 -1864 184 119 80
406.027 267.399 -1866 183 119 81
410.375 267.766 -1868 179 118 75
414.513 267.99 -1869 179 118 75
420.002 269.077 -1876 182 121 79
423.491 268.873 -1874 185 123 82
427.658 269.1 -1875 183 121 81
431.144 268.898 -1873 182 121 81
434.856 268.84 -1872 184 121 77
439.038 269.07 -1873 183 120 77
443.7 269.589 -1876 184 121 78
448.14 269.964 -1878 180 120 78
453.074 270.629 -1882 179 119 76
456.815 270.575 -1881 177 118 77
461.29 270.954 -1883 173 118 83
464.295 270.47 -1879 176 118 83
469.281 271.139 -1883 173 115 80
472.78 270.945 -1881 171 114 79
477.289 271.327 -1883 167 110 76
481.299 271.423 -1883 159 106 78
485.829 271.808 -1885 152 102 76
488.813 271.328 -1881 149 97 70
492.308 271.137 -1879 143 96 70
548.606 276.294 -1906 96 88 91
552.159 276.115 -1904 89 79 76
557.461 276.807 -1908 100 79 77
561.314 276.775 -1907 94 76 77
565.465 276.888 -1907 90 72 74
566.335 275.405 -1896 94 74 73
572.277 276.392 -1902 94 73 73
574.613 275.636 -1896 94 74 73
577.234 275.026 -1891 94 74 71
581.375 275.143 -1891 97 74 69
585.832 275.407 -1892 100 78 74
589.986 275.527 -1892 101 78 75
595.088 276.084 -1895 103 80 78
600.209 276.643 -1898 107 88 88
606.621 277.786 -1905 106 91 91
612.43 278.64 -1910 107 91 92
617.297 279.057 -1912 104 89 90
621.529 279.183 -1912 103 89 91
626.748 279.749 -1915 102 91 99
625.397 277.393 -1898 101 90 97
628.619 277.083 -1895 98 88 93
630.833 276.334 -1889 97 90 96
636.388 277.049 -1893 99 92 100
640.274 277.034 -1892 105 91 99
644.502 277.166 -1892 105 88 93
650.108 277.885 -1896 101 86 85
654.013 277.873 -1895 97 80 81
656.877 277.421 -1891 99 85 84
660.078 277.116 -1888 109 89 84
663.977 277.106 -1887 122 87 77
668.231 277.244 -1887 123 87 80
673.204 277.676 -1889 133 95 88
678.91 278.404 -1893 136 99 88
684.28 278.987 -1896 136 100 87
690.396 279.865 -1901 141 106 91
695.445 280.303 -1903 152 116 102
701.245 281.038 -1907 164 124 109
706.33 281.479 -1909 160 118 105
711.059 281.774 -1910 164 122 110
717.672 282.808 -1916 168 128 113
720.551 282.367 -1912 164 121 112
-618.283 259.794 -1798 234 211 198
-495.408 256.055 -1796 114 127 168
-493.46 256.955 -1803 96 108 156
-473.605 256.194 -1801 103 113 166
-470.799 256.67 -1805 109 118 170
-466.946 256.577 -1805 88 97 150
-465.406 257.765 -1814 74 84 138
-459.506 256.538 -1806 79 90 146
-456.168 256.732 -1808 70 88 155
-450.823 255.791 -1802 68 86 153
-448.237 256.413 -1807 69 87 153
-443.666 255.9 -1804 63 82 147
-437.474 256.579 -1810 68 88 155
-433.166 256.21 -1808 63 82 146
-428.871 255.842 -1806 61 79 141
-425.059 255.759 -1806 65 79 141
-420.784 255.394 -1804 67 79 142
-417.446 255.595 -1806 64 74 139
-414.103 255.797 -1808 59 69 131
-409.62 255.293 -1805 55 65 126
-406.503 255.638 -1808 55 67 126
-402.486 255.418 -1807 55 67 124
-398.697 255.34 -1807 52 64 119
-394.911 255.263 -1807 51 61 114
-391.562 255.469 -1809 52 62 115
-387.993 255.535 -1810 53 62 113
-384.848 255.883 -1813 46 57 107
-380.853 255.668 -1812 48 60 110
-377.49 255.877 -1814 46 59 108
-373.297 255.522 -1812 45 57 106
-369.728 255.591 -1813 44 56 104
-364.947 254.815 -1808 44 52 94
-360.989 254.605 -1807 40 49 91
-357.236 254.535 -1807 39 49 94
-353.486 254.467 -1807 48 61 112
-349.932 254.54 -1808 46 60 114
-346.76 254.895 -1811 47 54 105
-343.579 255.251 -1814 53 62 118
-339.639 255.044 -1813 62 73 137
-335.891 254.979 -1813 62 74 131
-332.329 255.056 -1814 42 54 108
-328.404 254.851 -1813 39 47 85
-324.843 254.929 -1814 38 45 83
-321.282 255.008 -1815 46 53 91
-317.719 255.087 -1816 54 64 112
-314.154 255.167 -1817 50 61 109
-309.905 254.686 -1814 46 55 105
-306.176 254.627 -1814 48 58 112
-302.451 254.569 -1814 57 68 123
-297.904 253.809 -1809 75 82 150
-293.706 253.332 -1806 67 75 138
-290.165 253.416 -1807 50 58 113
-286.147 253.081 -1805 45 54 104
-283.078 253.587 -1809 48 57 106
-278.76 252.973 -1805 52 61 116
-275.375 253.2 -1807 61 71 131
-271.232 252.728 -1804 67 79 146
-267.252 252.396 -1802 67 82 149
-263.428 252.206 -1801 71 85 152
-260.044 252.436 -1803 70 85 153
-256.227 252.247 -1802 69 87 157
-252.136 251.778 -1799 67 88 160
-248.75 252.011 -1801 69 88 160
-244.949 251.824 -1800 68 88 160
-241.289 251.777 -1800 64 85 157
-237.102 251.173 -1796 63 82 153
-233.714 251.408 -1798 65 84 154
-229.936 251.224 -1797 57 76 146
-226.793 251.739 -1801 55 73 143
-223.016 251.557 -1800 58 73 142
-219.855 252.074 -1804 58 74 141
-216.2 252.033 -1804 58 74 140
-212.664 252.132 -1805 58 74 140
-208.779 251.812 -1803 63 79 145
-205.017 251.633 -1802 61 77 143
-201.261 251.455 -1801 54 72 137
-197.182 250.859 -1797 48 66 131
-193.659 250.962 -1798 47 62 122
-190.028 250.925 -1798 46 60 115
-186.813 251.448 -1802 45 57 108
-183.583 251.971 -1806 46 57 103
-180.538 252.774 -1812 45 55 101
-177.373 253.437 -1817 44 54 98
-174.571 254.659 -1826 41 50 89
-171.454 255.463 -1832 34 42 78
-168.406 256.407 -1839 30 38 74
-165.241 257.212 -1845 29 37 72
-161.528 257.181 -1845 27 35 69
-157.817 257.151 -1845 26 35 67
-153.772 256.564 -1841 27 36 68
-149.827 256.118 -1838 30 39 71
-145.895 255.672 -1835 38 47 78
-142.053 255.366 -1833 38 47 77
-138.146 254.922 -1830 35 44 76
-134.545 255.035 -1831 38 47 79
-131.227 255.707 -1836 45 52 88
-127.404 255.404 -1834 44 52 89
-123.658 255.241 -1833 45 53 91
-119.982 255.218 -1833 44 52 92
-116.18 254.917 -1831 40 48 88
-112.449 254.756 -1830 40 47 92
-108.841 254.875 -1831 41 49 93
-105.173 254.855 -1831 42 52 94
-101.45 254.696 -1830 44 56 103
-97.7854 254.677 -1830 46 58 105
-93.9158 254.103 -1826 50 60 107
-90.0631 253.529 -1822 52 62 109
-86.2272 252.956 -1818 54 64 112
-82.4534 252.522 -1815 56 67 116
-78.7791 252.368 -1814 57 67 117
-75.1508 252.354 -1814 58 67 117
-71.5627 252.479 -1815 54 65 116
-67.8962 252.327 -1814 51 63 114
-64.2697 252.314 -1814 43 62 120
-60.6103 252.163 -1813 46 64 122
-57.0497 252.431 -1815 52 68 127
-53.4521 252.559 -1816 58 71 123
-49.7961 252.41 -1815 60 72 123
-46.17 252.402 -1815 57 70 123
-42.5441 252.393 -1815 55 68 120
-38.9616 252.664 -1817 50 62 112
-35.3324 252.657 -1817 44 54 97
-31.7559 253.068 -1820 48 57 99
-28.1522 253.34 -1822 49 55 96
-24.5407 253.613 -1824 48 53 93
-20.9216 253.887 -1826 49 53 92
-17.3134 254.44 -1830 47 53 94
-13.682 254.854 -1833 48 54 95
-10.0114 254.574 -1831 48 56 96
-6.36954 255.128 -1835 48 56 95
-2.70605 255.127 -1835 44 52 90
0.958981 255.544 -1838 40 47 86
4.63119 255.684 -1839 36 43 82
8.32074 256.241 -1843 36 43 81
12.0003 256.243 -1843 32 39 73
15.6802 256.246 -1843 41 48 83
19.3704 256.388 -1844 44 52 92
23.0526 256.392 -1844 42 50 87
26.7782 256.814 -1847 30 38 74
30.4995 257.097 -1849 29 36 69
34.1922 257.103 -1849 34 41 74
37.8646 256.971 -1848 35 42 75
41.6009 257.257 -1850 33 41 68
45.2475 256.987 -1848 34 42 68
48.9923 257.274 -1850 32 39 68
52.7742 257.701 -1853 34 41 71
56.5075 257.85 -1854 34 41 72
60.1151 257.444 -1851 35 41 74
63.8148 257.455 -1851 37 43 76
67.4421 257.19 -1849 35 42 75
71.0619 256.924 -1847 36 42 75
74.6338 256.521 -1844 38 43 76
78.3217 256.535 -1844 40 46 79
82.0103 256.55 -1844 41 48 85
85.6532 256.427 -1843 42 50 90
89.3411 256.443 -1843 42 48 87
93.0299 256.461 -1843 41 48 86
96.8766 256.896 -1846 42 50 88
100.573 256.915 -1846 43 50 90
104.214 256.795 -1845 42 48 88
107.851 256.675 -1844 38 45 82
111.545 256.696 -1844 38 43 80
115.116 256.439 -1842 39 44 80
118.744 256.322 -1841 39 47 82
122.702 256.902 -1845 39 46 82
126.334 256.786 -1844 40 47 85
129.963 256.671 -1843 43 47 85
133.734 256.835 -1844 37 41 79
137.436 256.86 -1844 37 44 81
141.062 256.747 -1843 39 47 86
144.843 256.914 -1844 40 48 88
148.548 256.941 -1844 43 51 93
152.337 257.109 -1845 45 53 94
155.962 256.999 -1844 47 55 94
159.671 257.029 -1844 45 55 98
163.47 257.199 -1845 45 55 98
167.093 257.09 -1844 45 55 100
170.713 256.983 -1843 47 54 96
174.426 257.016 -1843 46 52 95
178.139 257.049 -1843 44 50 94
181.756 256.944 -1842 44 49 92
185.37 256.839 -1841 46 50 93
189.084 256.874 -1841 49 53 95
192.905 257.05 -1842 47 53 90
196.837 257.366 -1844 40 47 79
200.671 257.543 -1845 43 49 82
204.511 257.721 -1846 52 56 87
208.13 257.621 -1845 55 54 81
212.207 258.079 -1848 96 78 94
216.064 258.26 -1849 154 127 134
219.807 258.301 -1849 187 135 108
223.915 258.762 -1852 187 133 108
227.915 259.085 -1854 188 133 108
231.549 258.989 -1853 190 134 105
235.435 259.173 -1854 195 136 105
238.941 258.938 -1852 198 137 105
242.702 258.984 -1852 199 136 102
245.933 258.471 -1848 198 134 100
250.23 259.078 -1852 198 132 99
253.861 258.986 -1851 194 129 95
258.045 259.454 -1854 193 127 93
261.115 258.804 -1849 193 126 92
265.169 259.134 -1851 192 127 90
268.071 258.345 -1845 190 125 89
272.425 258.957 -1849 187 122 87
276.199 259.009 -1849 194 129 94
280.581 259.623 -1853 201 136 101
283.601 258.976 -1848 203 139 104
287.38 259.03 -1848 200 139 107
291.477 259.366 -1850 202 140 108
295.106 259.282 -1849 203 140 108
299.218 259.619 -1851 205 143 110
303.013 259.677 -1851 205 143 109
306.479 259.455 -1849 206 143 108
310.108 259.373 -1848 204 142 109
313.905 259.433 -1848 200 138 106
318.22 259.915 -1851 198 137 108
322.376 260.257 -1853 197 136 106
327.071 261.022 -1858 190 129 97
331.078 261.226 -1859 183 120 87
334.731 261.149 -1858 177 116 88
338.382 261.073 -1857 171 111 83
342.585 261.42 -1859 166 107 81
346.613 261.627 -1860 164 101 76
350.837 261.975 -1862 161 98 72
355.262 262.465 -1865 162 97 69
359.51 262.816 -1867 158 96 63
362.991 262.604 -1865 157 95 63
366.467 262.392 -1863 160 98 69
369.739 262.041 -1860 163 100 62
373.604 262.113 -1860 168 103 65
376.66 261.621 -1856 173 106 70
381.139 262.118 -1859 176 110 71
385.011 262.192 -1859 178 112 72
389.933 262.972 -1864 180 112 72
393.823 263.048 -1864 181 115 76
398.783 263.83 -1869 179 114 74
402.259 263.626 -1867 179 114 73
406.165 263.704 -1867 179 115 78
410.075 263.783 -1867 174 113 73
415.319 264.711 -1873 172 112 71
419.472 264.934 -1874 173 112 73
424.086 265.44 -1877 177 114 75
428.031 265.523 -1877 175 113 74
431.059 265.041 -1873 173 113 73
434.771 264.984 -1872 177 112 69
438.014 264.644 -1869 174 109 68
443.849 265.863 -1877 175 110 69
447.575 265.808 -1876 173 114 76
453.226 266.888 -1883 167 111 74
456.967 266.835 -1882 163 108 72
460.954 266.925 -1882 162 110 78
463.956 266.448 -1878 161 110 78
468.69 266.965 -1881 155 105 74
472.436 266.915 -1880 147 99 68
476.181 266.866 -1879 141 95 68
480.693 267.244 -1881 131 90 67
549.439 270.866 -1895 74 69 73
557.642 272.978 -1909 86 72 74
559.73 272.088 -1902 88 76 82
565.055 272.772 -1906 84 74 81
567.415 272.026 -1900 86 72 78
573.064 272.856 -1905 81 69 76
575.104 271.967 -1898 79 70 75
578.644 271.796 -1896 84 76 80
639.128 272.625 -1889 97 91 99
645.052 273.476 -1894 97 90 99
651.004 274.33 -1899 96 87 89
656.294 274.896 -1902 98 86 92
657.437 273.728 -1893 97 88 93
662.74 274.296 -1896 91 79 81
666.303 274.142 -1894 96 72 69
672.342 275.002 -1899 101 77 74
675.56 274.704 -1896 98 75 73
681.639 275.568 -1901 99 77 72
687.386 276.287 -1905 109 87 79
693.885 277.299 -1911 116 92 84
697.494 277.151 -1909 122 98 92
702.939 277.729 -1912 123 94 87
708.404 278.31 -1915 115 85 78
714.262 279.037 -1919 115 83 78
719.396 279.475 -1921 114 83 75
-975.263 265.932 -1768 218 192 173
-971.156 265.868 -1769 220 193 176
-968.695 266.256 -1773 218 196 178
-965.68 266.494 -1776 220 195 176
-955.866 265.924 -1775 220 193 169
-684.065 256.953 -1789 228 199 186
-678.816 256.385 -1786 235 202 187
-548.076 254.642 -1803 105 118 162
-543.232 254.111 -1800 96 108 158
-540.502 254.569 -1804 95 107 156
-537.166 254.746 -1806 96 109 157
-510.808 252.722 -1796 103 119 170
-507.491 252.904 -1798 102 117 165
-502.77 252.383 -1795 93 108 158
-498.622 252.145 -1794 82 96 148
-495.587 252.47 -1797 80 96 150
-493.09 253.076 -1802 86 100 157
-490.847 253.823 -1808 78 91 151
-485.62 253.026 -1803 70 83 143
-481.488 252.792 -1802 77 89 149
-477.894 252.839 -1803 77 88 149
-474.301 252.887 -1804 67 78 137
-471.75 253.496 -1809 57 68 127
-466.855 252.845 -1805 54 64 124
-465.059 253.875 -1813 60 70 129
-459.417 252.806 -1806 67 78 136
-455.826 252.857 -1807 68 84 150
-450.485 251.93 -1801 68 85 150
-447.406 252.263 -1804 61 79 143
-443.825 252.317 -1805 59 76 138
-440.245 252.372 -1806 61 79 140
-436.664 252.427 -1807 65 84 144
-433.322 252.623 -1809 64 81 142
-429.263 252.4 -1808 61 76 138
-424.742 251.899 -1805 59 74 132
-421.403 252.097 -1807 59 71 130
-417.365 251.877 -1806 61 68 130
-414.023 252.076 -1808 56 64 123
-410.222 251.997 -1808 54 61 119
-406.425 251.919 -1808 55 64 118
-402.185 251.563 -1806 55 63 115
-398.84 251.765 -1808 51 60 110
-395.054 251.689 -1808 51 59 108
-391.919 252.031 -1811 52 60 109
-388.133 251.957 -1811 52 59 107
-384.774 252.161 -1813 46 55 100
-381.2 252.227 -1814 48 57 101
-377.209 252.016 -1813 44 53 96
-373.02 251.666 -1811 43 53 97
-369.25 251.596 -1811 45 55 100
-365.281 251.387 -1810 46 54 93
-360.92 250.901 -1807 39 47 87
-356.97 250.694 -1806 41 49 91
-353.418 250.766 -1807 45 56 103
-349.865 250.838 -1808 42 55 105
-346.503 251.049 -1810 50 59 112
-342.945 251.122 -1811 61 71 127
-339.199 251.058 -1811 65 76 136
-335.642 251.132 -1812 46 57 105
-331.899 251.069 -1812 34 44 89
-328.341 251.145 -1813 34 42 74
-324.781 251.222 -1814 38 45 80
-321.397 251.438 -1816 47 54 91
-317.833 251.516 -1817 54 66 116
-313.921 251.318 -1816 49 60 110
-310.187 251.259 -1816 43 52 102
-306.118 250.924 -1814 47 57 110
-302.393 250.866 -1814 62 71 126
-298.013 250.257 -1810 77 83 150
-293.976 249.924 -1808 59 65 125
-289.95 249.593 -1806 43 50 98
-286.093 249.4 -1805 45 52 100
-282.242 249.209 -1804 48 56 103
-278.398 249.018 -1803 51 58 111
-274.713 248.966 -1803 57 67 126
-270.88 248.776 -1802 62 75 141
-266.756 248.312 -1799 65 80 146
-263.086 248.262 -1799 68 84 151
-259.418 248.213 -1799 69 84 155
-255.752 248.165 -1799 69 87 160
-251.808 247.841 -1797 67 87 161
-248.012 247.656 -1796 69 88 161
-244.086 247.335 -1794 68 87 160
-240.573 247.427 -1795 65 86 159
-236.794 247.244 -1794 64 83 154
-233.41 247.476 -1796 62 81 151
-229.764 247.433 -1796 54 75 145
-226.246 247.528 -1797 57 76 145
-222.974 247.899 -1800 57 72 141
-219.692 248.271 -1803 58 74 140
-215.919 248.092 -1802 57 73 139
-212.388 248.19 -1803 57 73 139
-208.855 248.288 -1804 61 77 143
-204.979 247.974 -1802 57 73 139
-201.335 247.936 -1802 50 68 132
-197.255 247.349 -1798 46 63 127
-193.515 247.175 -1797 45 60 119
-189.886 247.139 -1797 45 58 112
-186.881 247.929 -1803 45 57 107
-183.752 248.582 -1808 45 55 102
-180.703 249.373 -1814 43 53 98
-177.73 250.302 -1821 42 52 96
-174.539 250.956 -1826 41 50 89
-171.609 252.023 -1834 35 43 79
-168.374 252.679 -1839 32 40 76
-165.031 253.197 -1843 30 38 73
-161.498 253.442 -1845 28 37 69
-157.616 253.137 -1843 26 35 67
-153.66 252.697 -1840 26 35 67
-149.636 252.119 -1836 32 41 73
-145.708 251.68 -1833 37 46 77
-141.872 251.378 -1831 37 46 76
-138.12 251.215 -1830 36 45 77
-134.52 251.327 -1831 38 47 79
-130.917 251.44 -1832 44 51 87
-127.241 251.416 -1832 45 53 90
-123.635 251.53 -1833 45 53 93
-119.894 251.37 -1832 43 51 91
-116.095 251.074 -1830 41 49 89
-112.305 250.778 -1828 41 49 92
-108.702 250.895 -1829 42 51 93
-105.038 250.875 -1829 43 53 95
-101.32 250.718 -1828 46 57 104
-97.6602 250.7 -1828 48 59 106
-93.8983 250.408 -1826 49 59 106
-90.0463 249.842 -1822 52 62 110
-86.2111 249.278 -1818 57 66 115
-82.3471 248.576 -1813 59 68 118
-78.721 248.562 -1813 59 67 117
-75.0126 248.273 -1811 59 67 117
-71.3523 248.122 -1810 57 67 119
-67.7713 248.247 -1811 54 65 118
-64.1869 248.372 -1812 47 66 126
-60.5657 248.36 -1812 51 68 130
-56.9762 248.486 -1813 55 70 133
-53.3539 248.476 -1813 59 71 125
-49.732 248.467 -1813 57 69 121
-46.1105 248.458 -1813 51 64 115
-42.4894 248.449 -1813 49 61 111
-38.9115 248.716 -1815 47 59 107
-35.3065 248.846 -1816 48 58 100
-31.7151 249.114 -1818 46 55 97
-28.147 249.657 -1822 46 52 93
-24.5228 249.789 -1823 48 52 91
-20.9177 250.196 -1826 49 53 90
-17.2913 250.466 -1828 47 52 92
-13.6646 250.874 -1831 49 54 94
-10.0094 250.872 -1831 48 56 96
-6.35451 250.871 -1831 47 55 93
-2.70557 251.418 -1835 43 51 89
0.958272 251.692 -1837 39 46 84
4.63033 251.966 -1839 36 43 80
8.3147 252.379 -1842 35 42 79
12.0046 252.655 -1844 34 41 75
15.6856 252.657 -1844 41 48 83
19.3984 253.071 -1847 43 51 90
23.0856 253.075 -1847 41 48 85
26.7876 253.217 -1848 28 35 71
30.4774 253.222 -1848 26 33 66
34.1858 253.365 -1849 32 39 71
37.8577 253.235 -1848 33 39 72
41.5706 253.379 -1849 33 39 67
45.2636 253.387 -1849 33 40 67
49.0096 253.67 -1851 30 37 66
52.7359 253.817 -1852 32 39 69
56.4967 254.101 -1854 33 40 72
60.1364 253.838 -1852 35 40 73
63.8719 253.986 -1853 37 42 75
67.4661 253.587 -1850 35 41 74
71.087 253.326 -1848 35 40 73
74.7412 253.202 -1847 35 40 73
78.3073 252.805 -1844 39 44 77
81.9951 252.82 -1844 37 44 79
85.6837 252.836 -1844 36 44 81
89.4213 252.989 -1845 36 43 78
93.1132 253.006 -1845 35 42 77
96.911 253.298 -1847 37 44 79
100.554 253.179 -1846 40 47 83
104.25 253.198 -1846 41 47 84
107.889 253.081 -1845 40 47 82
111.525 252.964 -1844 39 44 79
115.095 252.71 -1842 40 45 79
118.916 253.007 -1844 40 47 81
122.745 253.303 -1846 41 48 82
126.447 253.327 -1846 42 49 84
130.009 253.076 -1844 42 47 84
133.782 253.238 -1845 37 41 78
137.485 253.263 -1845 37 44 80
141.112 253.151 -1844 39 46 85
144.894 253.315 -1845 40 48 87
148.681 253.48 -1846 41 49 91
152.391 253.508 -1846 43 51 91
156.102 253.537 -1846 44 52 90
159.901 253.703 -1847 46 56 98
163.616 253.734 -1847 44 54 97
167.333 253.764 -1847 43 53 97
170.866 253.521 -1845 44 50 92
174.487 253.416 -1844 43 49 90
178.203 253.449 -1844 43 49 92
181.82 253.345 -1843 45 50 91
185.436 253.242 -1842 48 52 93
189.254 253.414 -1843 48 52 93
192.973 253.45 -1843 44 50 86
196.694 253.486 -1843 40 47 78
200.416 253.523 -1843 45 46 77
204.472 253.974 -1846 51 52 82
208.204 254.012 -1846 51 52 80
212.052 254.189 -1847 115 87 95
215.672 254.091 -1846 165 129 128
219.647 254.407 -1848 184 131 102
223.39 254.449 -1848 184 128 101
227.995 255.455 -1855 185 129 102
231.88 255.636 -1856 186 130 101
235.391 255.404 -1854 188 128 98
238.767 255.035 -1851 187 126 96
242.263 254.804 -1849 188 125 92
246.019 254.85 -1849 189 124 92
249.913 255.035 -1850 190 123 92
254.087 255.495 -1853 188 122 90
257.718 255.406 -1852 191 124 92
261.489 255.454 -1852 195 128 95
265.119 255.366 -1851 192 129 94
268.602 255.14 -1849 195 130 96
272.667 255.467 -1851 198 132 99
276.146 255.242 -1849 195 132 98
279.62 255.019 -1847 191 128 94
283.394 255.071 -1847 188 125 93
287.948 255.816 -1852 186 128 99
291.579 255.732 -1851 187 128 99
295.528 255.926 -1852 189 127 98
299.484 256.12 -1853 193 131 99
303.283 256.177 -1853 194 131 99
306.752 255.958 -1851 193 129 95
310.552 256.016 -1851 188 127 94
314.524 256.213 -1852 185 124 92
318.847 256.688 -1855 179 119 90
323.184 257.164 -1858 177 116 85
327.361 257.503 -1860 172 111 79
331.371 257.703 -1861 166 103 70
335.027 257.628 -1860 161 100 72
339.046 257.83 -1861 154 94 68
342.52 257.618 -1859 149 93 70
347.292 258.376 -1864 152 91 67
351.524 258.72 -1866 155 93 68
355.766 259.064 -1868 156 92 66
359.634 259.132 -1868 148 92 64
363.506 259.201 -1868 145 87 61
366.987 258.992 -1866 149 89 66
370.662 258.924 -1865 154 93 60
374.135 258.717 -1863 159 97 64
378.009 258.789 -1863 165 99 68
381.681 258.722 -1862 170 105 70
385.766 258.934 -1863 173 107 68
390.695 259.703 -1868 173 107 64
393.959 259.361 -1865 175 110 71
398.92 260.132 -1870 173 109 70
402.397 259.93 -1868 172 110 70
406.305 260.008 -1868 171 110 72
410.435 260.225 -1869 170 108 70
415.461 261 -1874 170 107 70
419.615 261.219 -1875 169 107 71
424.23 261.718 -1878 170 106 70
427.948 261.661 -1877 169 105 69
431.436 261.464 -1875 168 107 70
434.687 261.129 -1872 169 105 68
437.929 260.794 -1869 167 105 69
443.29 261.716 -1875 166 105 70
447.726 262.081 -1877 160 105 73
452.416 262.587 -1880 150 101 72
456.151 262.535 -1879 147 100 72
460.375 262.763 -1880 141 99 72
463.125 262.153 -1875 134 92 68
662.86 272.024 -1909 97 87 97
672.741 274.438 -1925 97 88 95
675.314 273.86 -1920 95 84 83
680.348 274.282 -1922 97 87 85
681.836 273.276 -1914 93 88 87
684.011 272.557 -1908 89 87 87
687.247 272.266 -1905 90 89 91
693.381 273.119 -1910 96 88 91
699.544 273.975 -1915 98 88 92
702.796 273.687 -1912 100 87 91
707.52 273.972 -1913 98 83 87
713 274.546 -1916 98 81 85
-985.345 260.627 -1753 218 189 170
-982.924 261.007 -1757 215 183 166
-976.596 260.349 -1754 219 184 165
-973.065 260.434 -1756 224 187 164
-970.086 260.668 -1759 227 188 165
-967.103 260.902 -1762 230 191 169
-964.114 261.137 -1765 225 193 170
-961.665 261.521 -1769 228 195 168
-954.044 261.551 -1772 226 193 161
-946.082 262.561 -1783 232 194 163
-897.949 259.863 -1778 223 197 178
-892.451 259.381 -1776 225 198 179
-871.571 260.016 -1788 232 203 179
-867.604 259.979 -1789 235 204 178
-861.711 259.362 -1786 239 207 181
-857.283 259.182 -1786 243 209 183
-852.386 258.858 -1785 239 214 186
-845.602 257.956 -1780 223 202 179
-841.215 257.78 -1780 161 143 123
-840.128 258.619 -1787 150 139 128
-837.612 259.023 -1791 102 99 97
-834.621 259.283 -1794 88 85 84
-841.804 262.721 -1819 81 77 76
-829.425 262.491 -1821 85 82 83
-825.914 262.608 -1823 104 93 91
-817.444 261.142 -1814 141 124 121
-682.016 252.452 -1784 236 200 178
-677.159 252.034 -1782 237 200 177
-632.596 253.586 -1805 232 186 151
-628.19 253.321 -1804 233 186 151
-622.757 252.637 -1800 235 187 152
-618.723 252.514 -1800 240 190 156
-614.695 252.393 -1800 241 195 159
-609.994 251.992 -1798 243 199 162
-581.377 250.896 -1796 255 226 213
-576.765 250.504 -1794 254 227 215
-547.969 250.884 -1803 87 100 169
-543.427 250.5 -1801 92 103 175
-539.798 250.535 -1802 89 103 166
-536.169 250.57 -1803 88 103 165
-532.836 250.744 -1805 87 102 164
-512.131 249.686 -1801 87 105 167
-508.522 249.726 -1802 84 101 161
-503.513 249.075 -1798 78 95 157
-499.638 248.979 -1798 76 93 156
-495.491 248.745 -1797 80 97 161
-492.721 249.203 -1801 82 98 161
-489.124 249.248 -1802 74 90 150
-484.988 249.016 -1801 66 81 142
-480.594 248.647 -1799 67 81 143
-478.067 249.247 -1804 65 77 141
-473.421 248.741 -1801 63 75 139
-470.617 249.204 -1805 62 74 138
-466.248 248.838 -1803 58 69 131
-463.687 249.44 -1808 55 67 126
-458.82 248.8 -1804 61 72 130
-455.991 249.265 -1808 62 77 139
-450.649 248.351 -1802 59 76 138
-447.816 248.817 -1806 55 73 136
-443.986 248.732 -1806 57 73 132
-440.161 248.649 -1806 59 75 134
-436.097 248.428 -1805 64 82 136
-432.042 248.208 -1804 63 78 137
-427.994 247.989 -1803 58 71 133
-423.249 247.358 -1799 56 69 123
-420.39 247.828 -1803 55 66 122
-417.055 248.024 -1805 58 64 123
-413.257 247.946 -1805 56 61 116
-409.69 248.005 -1806 54 59 113
-406.123 248.065 -1807 51 58 107
-401.886 247.715 -1805 49 56 103
-398.544 247.914 -1807 50 57 103
-395.197 248.113 -1809 51 58 104
-391.628 248.176 -1810 48 55 100
-388.059 248.24 -1811 48 54 98
-384.701 248.442 -1813 45 52 93
-381.128 248.507 -1814 41 49 88
-377.554 248.572 -1815 38 45 83
-373.773 248.502 -1815 36 44 83
-369.588 248.158 -1813 40 48 89
-365.817 248.089 -1813 42 51 88
-361.251 247.474 -1809 39 47 85
-357.298 247.27 -1808 43 50 89
-353.938 247.477 -1810 43 52 97
-350.38 247.548 -1811 42 53 100
-346.82 247.619 -1812 56 66 121
-343.07 247.555 -1812 67 77 132
-339.323 247.491 -1812 55 64 119
-335.578 247.428 -1812 38 46 87
-331.654 247.229 -1811 33 41 79
-328.098 247.304 -1812 34 41 71
-324.721 247.516 -1814 38 45 80
-320.983 247.456 -1814 49 56 94
-317.424 247.533 -1815 48 60 112
-313.517 247.338 -1814 44 55 107
-309.788 247.28 -1814 42 51 101
-305.723 246.95 -1812 53 62 116
-302.004 246.894 -1812 69 78 133
-297.792 246.429 -1809 75 81 145
-293.758 246.102 -1807 49 56 112
-289.735 245.775 -1805 38 46 88
-285.881 245.586 -1804 39 46 92
-282.346 245.669 -1805 45 52 100
-278.346 245.345 -1803 52 59 110
-274.51 245.158 -1802 58 68 124
-270.679 244.971 -1801 64 77 138
-266.855 244.786 -1800 66 81 146
-263.183 244.737 -1800 68 83 150
-259.658 244.824 -1801 68 83 156
-255.704 244.505 -1799 67 84 160
-251.901 244.322 -1798 68 86 164
-247.828 243.868 -1795 68 86 163
-244.449 244.094 -1797 68 86 163
-240.394 243.642 -1794 63 83 157
-236.354 243.191 -1791 61 81 153
-232.977 243.419 -1793 57 76 147
-229.082 243.105 -1791 56 76 145
-225.449 243.063 -1791 57 75 144
-222.066 243.293 -1793 59 74 142
-218.92 243.795 -1797 59 75 141
-215.28 243.755 -1797 60 76 142
-211.76 243.852 -1798 60 76 142
-208.354 244.084 -1800 57 73 139
-204.599 243.911 -1799 47 63 129
-200.963 243.873 -1799 40 58 122
-196.999 243.43 -1796 40 58 122
-193.479 243.53 -1797 44 58 117
-189.851 243.495 -1797 45 58 112
-186.639 244.002 -1801 46 58 107
-183.616 244.781 -1807 47 57 103
-180.869 245.966 -1816 44 54 99
-177.892 246.882 -1823 41 50 94
-174.889 247.797 -1830 37 46 85
-171.765 248.578 -1836 33 41 77
-168.252 248.817 -1838 33 41 76
-165.09 249.599 -1844 28 37 71
-161.206 249.298 -1842 26 35 67
-157.502 249.269 -1842 26 35 67
-153.548 248.835 -1839 29 38 70
-149.608 248.401 -1836 31 40 72
-145.682 247.968 -1833 33 42 74
-141.691 247.401 -1829 36 45 75
-138.245 247.781 -1832 37 46 77
-134.495 247.621 -1831 39 48 80
-130.821 247.597 -1831 44 51 88
-127.079 247.438 -1830 46 53 91
-123.477 247.55 -1831 44 52 92
-119.676 247.257 -1829 42 50 90
-115.883 246.965 -1827 44 52 92
-112.1 246.674 -1825 44 52 94
-108.503 246.789 -1826 43 52 95
-104.732 246.5 -1824 44 54 97
-101.135 246.616 -1825 47 56 104
-97.4821 246.598 -1825 48 58 106
-93.7269 246.31 -1823 49 58 106
-89.7827 245.483 -1817 50 60 109
-86.1479 245.467 -1817 55 66 115
-82.2866 244.776 -1812 61 68 118
-78.5762 244.491 -1810 61 68 117
-74.916 244.342 -1809 61 68 118
-71.3786 244.599 -1811 57 67 120
-67.7214 244.451 -1810 55 66 120
-64.1751 244.709 -1812 51 69 131
-60.5545 244.698 -1812 54 71 133
-57.0286 245.092 -1815 59 72 136
-53.3736 244.947 -1814 59 70 125
-49.7778 245.073 -1815 54 64 117
-46.1784 245.199 -1816 46 59 109
-42.5519 245.191 -1816 45 57 105
-38.9258 245.183 -1816 43 55 101
-35.3582 245.582 -1819 46 56 97
-31.7442 245.711 -1820 43 52 94
-28.1573 246.11 -1823 44 50 91
-24.5451 246.376 -1825 47 51 89
-20.9139 246.506 -1826 47 51 88
-17.2977 246.908 -1829 48 52 91
-13.677 247.445 -1833 50 55 94
-10.0131 247.308 -1832 48 54 95
-6.36727 247.711 -1835 45 53 91
-2.70657 247.845 -1836 40 48 86
0.959652 248.385 -1840 38 45 82
4.63201 248.386 -1840 35 42 79
8.31772 248.792 -1843 34 41 76
12.009 249.064 -1845 38 45 79
15.6828 248.931 -1844 40 48 82
19.3737 249.07 -1845 41 49 87
23.094 249.479 -1848 40 47 84
26.8117 249.753 -1850 28 35 71
30.5047 249.758 -1850 25 32 65
34.1981 249.764 -1850 30 36 68
37.8711 249.636 -1849 34 39 70
41.5629 249.643 -1849 33 38 66
45.2552 249.651 -1849 34 40 67
49.0006 249.93 -1851 31 38 67
52.7546 250.209 -1853 31 38 70
56.5168 250.489 -1855 32 39 72
60.1903 250.365 -1854 36 39 71
63.86 250.241 -1853 37 41 73
67.417 249.713 -1849 36 41 72
71.0356 249.455 -1847 36 41 73
74.6871 249.334 -1846 34 39 72
78.3352 249.212 -1845 36 43 77
82.0245 249.227 -1845 34 41 75
85.7143 249.242 -1845 34 41 75
89.4533 249.394 -1846 34 41 74
93.0961 249.275 -1845 34 41 74
96.8408 249.428 -1846 36 43 76
100.481 249.311 -1845 39 45 78
104.118 249.194 -1844 42 47 81
107.752 249.078 -1843 40 46 79
111.444 249.098 -1843 37 42 75
115.136 249.119 -1843 37 42 74
118.894 249.276 -1844 37 44 76
122.723 249.568 -1846 38 45 77
126.424 249.591 -1846 37 46 79
130.056 249.479 -1845 39 45 81
133.685 249.368 -1844 36 42 78
137.385 249.393 -1844 37 44 80
140.933 249.148 -1842 37 44 82
144.711 249.309 -1843 39 46 85
148.251 249.066 -1841 40 47 86
152.198 249.499 -1844 42 49 87
155.735 249.257 -1842 42 49 86
159.525 249.421 -1843 44 52 92
163.321 249.586 -1844 41 50 90
167.121 249.751 -1845 39 49 91
170.742 249.647 -1844 40 47 88
174.361 249.543 -1843 42 48 88
178.17 249.711 -1844 43 49 90
181.787 249.609 -1843 48 52 92
185.704 249.913 -1845 48 52 92
189.424 249.948 -1845 46 50 90
193.147 249.983 -1845 43 48 84
197.084 250.29 -1847 41 47 78
200.923 250.462 -1848 45 45 71
204.767 250.635 -1849 47 48 75
208.391 250.537 -1848 51 53 82
212.472 250.983 -1851 135 99 97
215.983 250.751 -1849 171 128 117
219.606 250.656 -1848 181 127 97
223.469 250.832 -1849 183 126 98
227.83 251.552 -1854 184 125 98
231.213 251.187 -1851 183 126 97
235.347 251.637 -1854 185 126 95
238.98 251.545 -1853 185 124 93
242.873 251.726 -1854 184 122 89
246.24 251.363 -1851 184 119 88
250.677 252.088 -1856 185 118 88
254.039 251.727 -1853 183 117 88
258.366 252.318 -1857 183 117 86
261.582 251.823 -1853 184 118 87
265.356 251.871 -1853 182 120 88
268.552 251.377 -1849 184 120 88
272.469 251.563 -1850 186 119 88
275.946 251.342 -1848 181 118 86
279.719 251.393 -1848 178 116 85
283.648 251.582 -1849 173 114 84
287.583 251.771 -1850 166 111 86
291.682 252.097 -1852 166 110 85
295.633 252.287 -1853 169 111 86
299.105 252.07 -1851 171 111 83
303.226 252.398 -1853 174 114 84
306.695 252.183 -1851 173 111 80
310.494 252.24 -1851 169 111 80
314.805 252.707 -1854 168 110 80
319.302 253.311 -1858 161 104 77
322.95 253.235 -1857 156 97 67
327.476 253.841 -1861 155 95 63
331.486 254.039 -1862 155 92 59
335.144 253.964 -1861 150 89 61
338.983 254.027 -1861 145 85 59
343.192 254.364 -1863 141 83 61
347.6 254.838 -1866 148 87 63
352.022 255.313 -1869 150 89 65
356.46 255.789 -1872 150 89 64
360.336 255.856 -1872 144 90 66
364.215 255.924 -1872 139 85 64
367.508 255.583 -1869 137 82 65
370.989 255.378 -1867 141 86 59
374.667 255.311 -1866 148 92 66
378.546 255.382 -1866 154 95 69
382.223 255.316 -1865 159 98 67
386.314 255.525 -1866 165 99 64
391.248 256.283 -1871 166 96 57
395.363 256.494 -1872 165 99 63
399.484 256.706 -1873 165 100 64
403.182 256.644 -1872 166 101 65
407.315 256.858 -1873 165 102 67
410.797 256.66 -1871 162 100 66
415.603 257.287 -1875 162 100 66
420.207 257.778 -1878 162 101 68
424.375 257.995 -1879 161 99 67
428.095 257.938 -1878 159 97 66
431.584 257.744 -1876 158 99 67
434.836 257.414 -1873 158 101 71
437.612 256.809 -1868 152 97 68
442.97 257.718 -1874 149 95 67
-996.75 257.732 -1757 232 198 176
-992.059 257.518 -1757 234 196 172
-985.694 256.866 -1754 230 191 167
-981.593 256.801 -1755 229 189 172
-976.942 256.592 -1755 233 190 172
-974.518 256.968 -1759 236 190 167
-969.878 256.76 -1759 235 190 166
-965.249 256.554 -1759 238 192 170
-961.177 256.494 -1760 240 198 172
-958.198 256.727 -1763 243 201 170
-954.132 256.669 -1764 241 200 167
