ply
format ascii 1.0
comment Created by Open3D
element vertex 1342
property double x
property double y
property double z
property uchar red
property uchar green
property uchar blue
end_header
-290.165 -766.062 -1505 177 177 181
-286.625 -765.34 -1504 190 190 194
-283.28 -765.13 -1504 194 194 197
-280.124 -765.43 -1505 193 193 196
-276.966 -765.733 -1506 194 194 198
-274.17 -767.055 -1509 196 196 198
-271.005 -767.362 -1510 194 194 196
-268.192 -768.688 -1513 189 189 191
-264.843 -768.491 -1513 184 184 188
-262.188 -770.329 -1517 184 184 188
-259.006 -770.645 -1518 186 186 190
-255.822 -770.963 -1519 191 191 195
-252.969 -772.298 -1522 193 193 197
-249.94 -773.128 -1524 191 191 195
-246.744 -773.453 -1525 187 187 191
-244.024 -775.301 -1529 188 188 192
-240.974 -776.137 -1531 189 189 193
-238.383 -778.495 -1536 189 189 193
-235.314 -779.335 -1538 193 193 197
-232.841 -782.203 -1544 198 198 202
-229.453 -782.034 -1544 196 195 200
-226.652 -783.892 -1548 192 192 196
-222.97 -782.715 -1546 191 191 195
-220.294 -785.084 -1551 192 192 196
-217.318 -786.442 -1554 194 194 198
-214.882 -789.826 -1561 191 191 195
-211.875 -791.188 -1564 182 182 184
-209.524 -795.08 -1572 183 183 185
-206.091 -794.928 -1572 184 184 186
-203.948 -799.835 -1582 177 174 175
-200.878 -801.203 -1585 160 157 158
-198.169 -804.09 -1591 157 155 155
-195.314 -806.473 -1596 79 79 79
-192.198 -807.848 -1599 62 62 62
-181.989 -808.448 -1601 63 63 65
-177.728 -804.783 -1594 91 91 93
-173.391 -800.616 -1586 158 158 158
-169.732 -799.481 -1584 173 173 175
-165.455 -795.322 -1576 177 176 177
-161.316 -791.67 -1569 179 176 177
-157.913 -791.554 -1569 181 178 179
-154.315 -790.432 -1567 180 177 178
-150.631 -788.808 -1564 180 177 178
-147.432 -789.708 -1566 178 175 176
-144.042 -789.602 -1566 182 179 181
-140.384 -787.986 -1563 191 188 190
-136.652 -785.869 -1559 199 196 199
-132.854 -783.25 -1554 200 197 200
-129.244 -781.643 -1551 198 195 198
-125.731 -780.543 -1549 196 193 195
-122.069 -778.437 -1545 196 193 196
-118.656 -777.846 -1544 198 195 198
-115.323 -777.761 -1544 198 195 196
-111.846 -776.671 -1542 196 195 196
-108.449 -776.088 -1541 191 190 192
-105.126 -776.01 -1541 186 186 186
-101.672 -774.928 -1539 191 189 191
-98.1631 -773.345 -1536 193 190 193
-94.6065 -771.261 -1532 187 184 187
-91.1872 -770.187 -1530 183 180 183
-87.7773 -769.116 -1528 179 176 179
-84.4322 -768.55 -1527 182 179 182
-81.1453 -768.49 -1527 182 181 183
-77.8082 -767.929 -1526 179 179 181
-74.476 -767.37 -1525 185 185 187
-71.2423 -767.821 -1526 192 192 194
-67.8267 -766.261 -1523 192 192 194
-64.6791 -767.722 -1526 185 185 187
-61.3582 -767.174 -1525 184 184 186
-58.1564 -768.137 -1527 186 186 188
-54.8387 -767.593 -1526 188 188 190
-51.7625 -770.572 -1532 190 190 192
-48.4709 -770.536 -1532 192 192 193
-45.2979 -772.514 -1536 193 193 193
-42.0534 -773.488 -1538 192 192 194
-38.7755 -773.962 -1539 194 194 196
-35.5397 -775.444 -1542 201 201 203
-32.2705 -776.425 -1544 209 209 209
-28.918 -775.397 -1542 209 209 210
-25.7071 -778.394 -1548 206 206 208
-22.4419 -780.388 -1552 206 206 206
-19.1351 -781.379 -1554 204 204 204
-15.83 -782.875 -1557 204 204 204
-12.5282 -785.378 -1562 204 204 206
-9.20508 -787.885 -1567 201 201 203
-5.84563 -788.382 -1568 206 206 208
-2.49321 -792.402 -1576 118 118 118
0.8926 -795.418 -1582 67 67 67
-367.585 -795.339 -1545 189 188 194
-362.9 -792.492 -1540 197 196 203
-358.708 -790.677 -1537 186 185 192
-353.841 -787.324 -1531 189 188 194
-349.003 -783.975 -1525 192 191 197
-343.97 -780.117 -1518 192 194 200
-340.094 -778.833 -1516 191 191 198
-336.008 -777.04 -1513 191 191 197
-332.158 -775.762 -1511 189 189 191
-328.321 -774.489 -1509 185 185 189
-324.496 -773.218 -1507 186 186 190
-320.683 -771.951 -1505 187 187 191
-316.672 -770.175 -1502 189 189 193
-313.094 -769.427 -1501 187 187 191
-309.936 -769.707 -1502 188 188 192
-306.369 -768.965 -1501 192 192 196
-303.011 -768.738 -1501 184 184 188
-300.255 -770.05 -1504 176 176 180
-296.896 -769.827 -1504 172 172 174
-293.541 -769.608 -1504 175 175 178
-289.995 -768.879 -1503 181 181 185
-286.647 -768.665 -1503 184 184 188
-283.113 -767.941 -1502 182 182 184
-280.332 -769.266 -1505 182 181 183
-277.172 -769.57 -1506 181 180 185
-274.373 -770.898 -1509 179 178 181
-271.026 -770.696 -1509 176 175 178
-268.035 -771.518 -1511 175 174 178
-264.513 -770.81 -1510 171 171 175
-261.863 -772.657 -1514 172 172 176
-258.514 -772.464 -1514 179 179 183
-256.179 -775.334 -1520 188 188 192
-253.155 -776.166 -1522 193 193 197
-249.796 -775.98 -1522 193 193 197
-246.926 -777.326 -1525 191 191 195
-244.044 -778.673 -1528 193 193 197
-240.994 -779.513 -1530 194 194 198
-238.404 -781.883 -1535 196 196 200
-235.487 -783.237 -1538 197 197 201
-232.56 -784.592 -1541 195 195 199
-229.621 -785.948 -1544 194 193 200
-226.525 -786.798 -1546 191 191 196
-223.279 -787.141 -1547 192 192 196
-220.598 -789.522 -1552 195 195 199
-217.478 -790.378 -1554 198 198 202
-215.453 -795.304 -1564 195 195 199
-212.437 -796.672 -1567 191 191 193
-209.811 -799.567 -1573 191 191 193
-206.898 -801.447 -1577 190 190 192
-204.227 -804.345 -1583 173 170 171
-201.786 -808.26 -1591 163 161 160
-198.937 -810.653 -1596 157 155 154
-195.947 -812.539 -1600 79 76 77
-192.219 -811.381 -1598 66 65 65
-189.092 -812.764 -1601 63 63 63
-181.439 -809.447 -1595 66 63 66
-177.635 -807.793 -1592 85 83 85
-173.955 -806.649 -1590 154 154 154
-169.964 -803.987 -1585 180 177 180
-165.681 -799.806 -1577 178 175 177
-161.742 -797.151 -1572 179 176 177
-157.827 -794.499 -1567 183 180 181
-153.935 -791.85 -1562 185 182 183
-150.548 -791.738 -1562 183 180 181
-147.257 -792.136 -1563 182 179 180
-143.779 -791.523 -1562 186 183 184
-140.306 -790.913 -1561 193 190 191
-136.752 -789.798 -1559 203 200 203
-132.95 -787.166 -1554 207 204 207
-129.172 -784.538 -1549 204 201 204
-125.741 -783.939 -1548 199 196 197
-122.237 -782.835 -1546 197 194 196
-118.742 -781.735 -1544 198 195 198
-115.407 -781.649 -1544 197 194 195
-111.928 -780.554 -1542 197 195 197
-108.528 -779.967 -1541 195 195 197
-105.066 -778.877 -1539 194 194 194
-101.746 -778.801 -1539 194 193 194
-98.1706 -776.704 -1535 193 190 193
-94.7371 -775.622 -1533 194 191 194
-91.3727 -775.048 -1532 194 191 194
-87.8411 -772.959 -1528 192 189 192
-84.4935 -772.391 -1527 194 191 194
-81.2575 -772.836 -1528 192 191 193
-77.9668 -772.778 -1528 188 188 190
-74.5302 -771.206 -1525 190 190 192
-71.3875 -772.67 -1528 192 192 194
-67.9652 -771.102 -1525 197 197 199
-64.7261 -771.559 -1526 195 195 197
-61.4028 -771.007 -1525 195 195 197
-58.2367 -772.481 -1528 190 190 192
-54.9864 -772.945 -1529 186 186 188
-51.8338 -774.928 -1533 189 189 191
-48.5061 -774.386 -1532 190 190 191
-45.3307 -776.374 -1536 190 190 190
-42.0565 -776.848 -1537 189 189 191
-38.7783 -777.324 -1538 196 196 198
-35.5193 -778.307 -1540 204 204 206
-32.2939 -780.304 -1544 210 210 210
-28.9765 -780.282 -1544 209 209 210
-25.7258 -782.284 -1548 207 207 209
-22.4292 -783.277 -1550 210 210 210
-19.1367 -784.778 -1553 209 209 209
-15.8415 -786.786 -1557 207 207 207
-12.5453 -789.808 -1563 203 203 205
-9.21182 -791.821 -1567 200 200 202
-5.85354 -792.827 -1569 205 205 207
-2.49641 -796.866 -1577 118 118 118
0.892812 -798.887 -1581 66 66 66
-368.1 -799.839 -1546 187 187 192
-362.466 -794.907 -1537 201 200 207
-358.044 -792.567 -1533 185 184 191
-354.107 -791.264 -1531 191 190 196
-349.266 -787.898 -1525 198 198 202
-344.002 -783.505 -1517 198 200 205
-340.349 -782.731 -1516 198 198 204
-336.482 -781.443 -1514 193 192 199
-332.407 -779.643 -1511 189 189 191
-328.35 -777.847 -1508 188 188 191
-325.17 -778.117 -1509 188 188 192
-320.923 -775.812 -1505 189 189 193
-316.909 -774.027 -1502 191 191 195
-313.537 -773.79 -1502 192 192 196
-309.962 -773.041 -1501 195 195 199
-306.598 -772.81 -1501 194 194 198
-303.238 -772.582 -1501 187 187 191
-300.08 -772.87 -1502 184 184 188
-296.525 -772.132 -1501 185 185 187
-293.369 -772.426 -1502 184 184 187
-289.632 -771.18 -1500 183 183 187
-286.288 -770.964 -1500 178 178 182
-282.947 -770.752 -1500 177 175 178
-280.354 -772.596 -1504 176 173 177
-277.194 -772.902 -1505 176 173 178
-274.941 -775.777 -1511 177 174 178
-271.587 -775.573 -1511 179 176 179
-268.589 -776.398 -1513 181 178 183
-265.411 -776.712 -1514 184 183 187
-262.75 -778.568 -1518 186 186 190
-259.219 -777.86 -1517 191 191 195
-256.707 -780.232 -1522 195 195 199
-253.676 -781.067 -1524 196 196 200
-250.31 -780.88 -1524 194 194 198
-247.109 -781.207 -1525 194 194 198
-244.385 -783.074 -1529 195 195 199
-241.173 -783.405 -1530 195 195 199
-238.114 -784.251 -1532 197 197 201
-235.355 -786.123 -1536 199 199 203
-232.581 -787.997 -1540 198 198 202
-229.344 -788.337 -1541 193 192 199
-226.546 -790.214 -1545 190 190 195
-223.443 -791.07 -1547 190 190 194
-220.903 -793.974 -1553 193 193 197
-217.778 -794.834 -1555 196 196 200
-215.474 -798.762 -1563 192 192 196
-212.594 -800.648 -1567 191 191 193
-210.099 -804.068 -1574 196 195 197
-207.444 -806.978 -1580 195 193 196
-204.765 -809.89 -1586 170 168 167
-201.554 -810.761 -1588 165 163 161
-199.084 -814.697 -1596 156 154 152
-195.723 -815.062 -1597 77 74 75
-192.12 -814.408 -1596 64 63 64
-188.404 -813.248 -1594 62 62 62
-184.814 -812.6 -1593 60 60 62
-181.459 -812.975 -1594 62 60 63
-178.436 -814.882 -1598 78 75 78
-174.74 -813.732 -1596 147 147 147
-170.625 -810.546 -1590 180 178 180
-166.118 -805.324 -1580 180 177 179
-162.17 -802.655 -1575 180 176 177
-157.842 -797.951 -1566 183 180 181
-154.048 -795.798 -1562 184 181 182
-150.659 -795.686 -1562 184 181 182
-147.271 -795.577 -1562 183 180 181
-143.884 -795.47 -1562 185 182 183
-140.589 -795.874 -1563 190 187 188
-136.852 -793.736 -1559 198 195 198
-133.305 -792.618 -1557 206 203 206
-129.517 -789.976 -1552 206 203 206
-125.752 -787.338 -1547 202 199 200
-122.326 -786.738 -1546 200 197 199
-118.752 -785.123 -1543 200 197 200
-115.192 -783.51 -1540 201 198 199
-111.864 -783.427 -1540 201 199 200
-108.396 -782.329 -1538 198 197 199
-105.075 -782.251 -1538 195 195 195
-101.688 -781.666 -1537 195 193 195
-98.3063 -781.084 -1536 193 190 193
-94.8063 -779.488 -1533 192 189 192
-91.3799 -778.403 -1531 191 188 191
-87.9629 -777.32 -1529 190 187 190
-84.6107 -776.749 -1528 192 189 192
-81.1571 -775.163 -1525 191 190 192
-77.9726 -776.121 -1527 189 189 191
-74.6824 -776.065 -1527 189 189 191
-71.3461 -775.504 -1526 191 191 193
-67.9702 -774.436 -1524 193 193 195
-64.7734 -775.404 -1526 194 194 196
-61.4072 -774.341 -1524 199 199 201
-58.2029 -775.314 -1526 200 200 202
-55.0265 -776.797 -1529 195 195 197
-51.8716 -778.79 -1533 192 192 194
-48.6048 -779.261 -1534 191 191 193
-45.3933 -780.751 -1537 191 191 191
-42.142 -781.734 -1539 192 192 194
-38.9075 -783.228 -1542 197 197 199
-35.5913 -783.201 -1542 202 202 204
-32.3383 -784.7 -1545 207 207 207
-29.0164 -784.678 -1545 207 207 208
-25.7612 -786.689 -1549 207 207 209
-22.4311 -786.672 -1549 209 209 209
-19.1505 -788.688 -1553 211 211 211
-15.8733 -791.722 -1559 211 211 211
-12.5545 -793.743 -1563 205 205 205
-9.21839 -795.767 -1567 200 200 201
-5.85794 -796.777 -1569 205 205 207
-2.49664 -800.329 -1576 121 121 121
-368.617 -804.352 -1547 183 182 187
-362.268 -797.836 -1535 207 206 214
-358.315 -796.523 -1533 197 196 202
-354.375 -795.213 -1531 193 192 198
-349.988 -792.869 -1527 194 193 198
-345.17 -789.491 -1521 201 202 207
-341.28 -788.193 -1519 203 203 209
-337.181 -786.379 -1516 196 195 201
-333.539 -785.607 -1515 189 189 191
-329.251 -783.283 -1511 188 188 191
-325.847 -783.035 -1511 186 186 190
-321.805 -781.236 -1508 188 188 191
-317.992 -779.958 -1506 189 189 193
-313.982 -778.166 -1503 187 187 191
-310.608 -777.931 -1503 189 189 193
-307.033 -777.181 -1502 191 191 194
-303.263 -775.916 -1500 191 191 194
-300.305 -776.723 -1502 190 190 194
-296.55 -775.464 -1500 194 194 196
-293.198 -775.243 -1500 196 196 199
-289.462 -773.99 -1498 195 195 199
-286.502 -774.807 -1500 191 191 195
-283.347 -775.109 -1501 194 193 197
-280.75 -776.963 -1505 198 195 200
-277.585 -777.269 -1506 197 194 199
-275.147 -779.642 -1511 194 191 194
-271.43 -778.406 -1509 193 190 193
-268.79 -780.266 -1513 194 191 195
-265.258 -779.55 -1512 195 194 198
-262.426 -780.899 -1515 195 195 199
-259.241 -781.219 -1516 196 196 200
-256.561 -783.087 -1520 196 196 200
-253.532 -783.927 -1522 196 196 200
-250.661 -785.284 -1525 194 194 198
-247.455 -785.612 -1526 194 194 198
-244.247 -785.943 -1527 195 195 199
-241.194 -786.791 -1529 200 200 204
-237.98 -787.127 -1530 203 203 207
-235.07 -788.494 -1533 199 199 203
-232.149 -789.863 -1536 197 197 201
-228.919 -790.205 -1537 196 195 202
-226.127 -792.091 -1541 197 197 203
-223.32 -793.98 -1545 199 199 203
-220.64 -796.384 -1550 200 200 203
-218.22 -799.817 -1557 200 200 203
-215.496 -802.224 -1562 189 189 193
-212.888 -805.145 -1568 192 192 194
-210.255 -808.069 -1574 199 197 200
-207.598 -810.993 -1580 196 193 196
-204.917 -813.919 -1586 168 166 164
-202.211 -816.847 -1592 167 165 163
-199.231 -818.75 -1596 152 150 148
-195.5 -817.578 -1594 79 76 77
-191.66 -815.896 -1591 63 62 62
-187.952 -814.729 -1589 62 62 62
-178.232 -817.397 -1595 71 68 71
-174.869 -817.779 -1596 134 134 134
-171.073 -816.114 -1593 174 171 174
-166.556 -810.866 -1583 181 178 181
-162.187 -806.135 -1574 182 178 179
-158.161 -802.943 -1568 185 182 183
-154.162 -799.756 -1562 185 182 183
-150.577 -798.619 -1560 185 182 183
-147.097 -797.997 -1559 186 183 184
-143.898 -798.913 -1561 186 183 184
-140.423 -798.296 -1560 188 185 186
-136.865 -797.17 -1558 195 192 195
-133.317 -796.047 -1556 204 201 204
-129.612 -793.904 -1552 206 203 206
-125.926 -791.763 -1548 205 202 203
-122.416 -790.649 -1546 204 201 202
-118.917 -789.537 -1544 200 197 200
-115.427 -788.428 -1542 204 201 202
-111.801 -786.299 -1538 207 204 206
-108.406 -785.706 -1537 205 202 205
-105.015 -785.116 -1536 203 203 203
-101.564 -784.018 -1534 203 201 203
-98.2506 -783.944 -1534 204 201 204
-94.8142 -782.851 -1532 206 203 204
-91.3276 -781.25 -1529 206 204 205
-88.0275 -781.183 -1529 202 200 202
-84.6729 -780.609 -1528 201 199 201
-81.2701 -779.526 -1526 201 200 202
-78.0811 -780.489 -1528 196 196 197
-74.6883 -779.411 -1526 193 193 195
-71.4921 -780.379 -1528 192 192 193
-68.0648 -778.795 -1525 193 193 194
-64.8633 -779.768 -1527 195 195 197
-61.533 -779.21 -1526 198 198 200
-58.322 -780.188 -1528 198 198 200
-55.1029 -781.167 -1530 197 197 199
-51.9096 -782.659 -1533 197 197 200
-48.6722 -783.643 -1535 194 194 196
-45.4266 -784.63 -1537 195 195 195
-42.118 -784.598 -1537 201 201 202
-38.8856 -786.099 -1540 202 202 203
-35.5944 -786.583 -1541 202 202 204
-32.362 -788.599 -1545 205 205 207
-29.0564 -789.087 -1546 205 205 206
-25.78 -790.598 -1549 205 205 206
-22.5054 -792.622 -1553 207 207 207
-19.1893 -793.627 -1555 209 209 210
-15.8646 -794.635 -1557 208 208 209
-12.5475 -796.666 -1561 203 203 203
-9.20753 -798.189 -1564 198 198 199
-5.85841 -800.225 -1568 201 201 203
-2.49689 -803.795 -1575 127 124 127
-362.544 -801.808 -1535 209 208 216
-358.588 -800.488 -1533 203 203 208
-354.644 -799.171 -1531 191 191 195
-350.025 -796.293 -1526 192 191 198
-345.432 -793.42 -1521 202 201 208
-341.315 -791.593 -1518 200 199 205
-336.992 -789.25 -1514 193 193 197
-333.351 -788.474 -1513 188 188 190
-329.5 -787.179 -1511 186 186 189
-326.094 -786.93 -1511 184 184 188
-322.049 -785.122 -1508 187 187 189
-318.233 -783.838 -1506 188 188 191
-314.219 -782.037 -1503 186 186 190
-310.636 -781.279 -1502 186 186 188
-306.856 -780.005 -1500 188 188 190
-303.088 -778.734 -1498 189 189 192
-300.132 -779.545 -1500 194 194 198
-296.181 -777.761 -1497 198 198 201
-292.832 -777.538 -1497 197 197 199
-289.487 -777.318 -1497 196 196 198
-286.909 -779.177 -1501 195 195 199
-283.372 -778.443 -1500 193 193 197
-280.775 -780.305 -1504 194 193 197
-277.61 -780.613 -1505 194 193 197
-275.172 -782.998 -1510 193 193 197
-271.814 -782.791 -1510 194 194 198
-268.992 -784.143 -1513 195 194 198
-265.809 -784.459 -1514 195 194 200
-262.796 -785.297 -1516 195 194 201
-259.778 -786.136 -1518 196 196 200
-256.753 -786.977 -1520 197 197 200
-253.722 -787.82 -1522 192 192 194
-250.684 -788.666 -1524 188 188 192
-247.478 -788.996 -1525 190 190 194
-244.27 -789.329 -1526 190 190 194
-240.743 -788.63 -1525 191 191 195
-237.691 -789.484 -1527 192 192 196
-234.785 -790.858 -1530 191 191 195
-231.718 -791.717 -1532 195 195 199
-228.643 -792.578 -1534 202 201 207
-226.15 -795.507 -1540 208 207 212
-223.343 -797.404 -1544 208 208 211
-220.662 -799.82 -1549 209 209 211
-218.103 -802.754 -1555 200 200 203
-215.519 -805.689 -1561 190 190 194
-212.639 -807.593 -1565 194 194 196
-210.278 -811.563 -1573 200 198 201
-207.884 -815.533 -1581 195 192 195
-204.94 -817.442 -1585 164 162 160
-202.235 -820.385 -1591 165 163 162
-199.38 -822.812 -1596 153 151 150
-195.4 -820.603 -1592 77 75 75
-191.32 -817.882 -1587 62 61 62
-187.263 -815.164 -1582 61 61 61
-179.79 -812.314 -1577 60 59 61
-177.806 -818.877 -1590 68 67 69
-174.889 -821.32 -1595 128 128 128
-171.201 -820.161 -1593 163 162 164
-166.996 -816.432 -1586 179 177 179
-162.823 -812.706 -1579 183 180 182
-158.581 -808.469 -1571 186 183 184
-154.573 -805.265 -1565 187 184 185
-150.785 -803.094 -1561 188 185 186
-147.3 -802.468 -1560 188 185 186
-143.821 -801.846 -1559 189 186 187
-140.437 -801.74 -1559 190 187 188
-136.879 -800.608 -1557 194 191 192
-133.245 -798.966 -1554 202 199 201
-129.541 -796.812 -1550 206 203 207
-126.019 -795.688 -1548 204 201 204
-122.349 -793.54 -1544 203 200 202
-118.774 -791.909 -1541 201 198 201
-115.213 -790.281 -1538 202 201 201
-111.593 -788.141 -1534 210 209 209
-108.204 -787.546 -1533 208 205 206
-104.819 -786.953 -1532 204 201 202
-101.507 -786.877 -1532 204 201 202
-98.1951 -786.803 -1532 204 201 202
-94.8842 -786.731 -1532 206 203 204
-91.7538 -788.202 -1535 206 204 205
-88.1502 -785.568 -1530 202 202 202
-84.9018 -786.018 -1531 204 204 204
-81.5433 -785.443 -1530 206 206 206
-78.1387 -784.357 -1528 201 201 201
-74.7435 -783.274 -1526 193 193 193
-71.4981 -783.733 -1527 191 191 191
-68.1597 -783.168 -1526 190 190 190
-64.8688 -783.119 -1526 191 191 193
-61.5785 -783.072 -1526 196 196 198
-58.3651 -784.054 -1528 203 203 205
-55.1797 -785.551 -1531 206 206 208
-52.0496 -788.077 -1536 201 201 205
-48.7398 -788.04 -1536 195 195 198
-45.4601 -788.518 -1537 199 199 199
-42.2039 -789.511 -1539 206 206 206
-38.9142 -789.995 -1540 204 204 204
-35.6437 -790.993 -1542 201 201 202
-32.4069 -793.019 -1546 201 201 203
-29.1342 -794.536 -1549 204 204 206
-25.849 -796.054 -1552 204 204 204
-22.551 -797.575 -1555 205 205 205
-19.2156 -798.073 -1556 207 207 208
-15.8966 -799.598 -1559 208 208 208
-12.5567 -800.613 -1561 201 201 201
-9.20825 -801.631 -1563 197 197 198
-5.85143 -802.652 -1565 197 197 199
-2.49238 -805.726 -1571 128 125 128
-362.113 -804.214 -1532 204 203 211
-358.628 -803.937 -1532 203 203 208
-354.452 -802.089 -1529 191 191 195
-350.293 -800.246 -1526 190 189 196
-344.787 -795.261 -1517 196 195 203
-341.35 -794.998 -1517 192 191 199
-336.804 -792.118 -1512 190 189 195
-332.944 -790.815 -1510 188 188 190
-328.879 -788.991 -1507 187 187 189
-325.91 -789.787 -1509 187 187 189
-321.653 -787.447 -1505 189 189 191
-318.052 -786.68 -1504 190 190 194
-314.249 -785.392 -1502 190 190 194
-310.665 -784.631 -1501 189 189 191
-307.089 -783.873 -1500 188 188 190
-303.318 -782.596 -1498 192 192 194
-299.959 -782.366 -1498 197 197 201
-296.207 -781.095 -1496 200 200 203
-293.25 -781.915 -1498 203 203 205
-289.513 -780.649 -1496 205 205 207
-286.935 -782.517 -1500 208 208 212
-283.965 -783.344 -1502 206 206 210
-280.988 -784.172 -1504 204 204 208
-277.82 -784.481 -1505 201 201 205
-275.38 -786.878 -1510 198 198 202
-272.38 -787.712 -1512 196 196 200
-269.018 -787.507 -1512 195 195 199
-265.834 -787.825 -1513 195 195 200
-262.821 -788.666 -1515 191 190 197
-259.46 -788.469 -1515 185 185 189
-256.609 -789.835 -1518 183 183 186
-253.58 -790.682 -1520 182 182 184
-250.379 -791.012 -1521 183 183 187
-247.34 -791.864 -1523 185 185 189
-244.293 -792.718 -1525 194 194 198
-240.925 -792.535 -1525 197 197 201
-238.026 -793.913 -1528 195 195 199
-234.808 -794.254 -1529 198 198 202
-231.741 -795.117 -1531 207 207 211
-228.666 -795.982 -1533 210 210 214
-225.732 -797.369 -1536 213 213 217
-223.221 -800.314 -1542 212 212 214
-220.543 -802.741 -1547 211 211 213
-217.986 -805.689 -1553 199 199 201
-215.266 -808.12 -1558 190 190 194
-212.934 -812.108 -1566 197 197 199
-210.168 -814.542 -1571 201 200 202
-207.777 -818.532 -1579 191 188 191
-205.352 -822.524 -1587 159 157 155
-202.386 -824.444 -1591 165 162 162
-199.279 -825.847 -1594 156 153 154
-195.424 -824.145 -1591 74 74 74
-191.463 -821.928 -1587 62 62 62
-187.995 -821.786 -1587 60 60 60
-178.162 -823.962 -1592 64 64 66
-175.02 -825.383 -1595 125 125 125
-171.328 -824.218 -1593 160 160 161
-167.331 -821.505 -1588 173 173 175
-163.357 -818.794 -1583 182 179 182
-158.901 -813.502 -1573 187 184 186
-154.688 -809.247 -1565 191 188 189
-150.801 -806.548 -1560 191 188 189
-147.315 -805.919 -1559 191 188 189
-143.835 -805.294 -1558 191 188 189
-140.271 -804.154 -1556 191 188 189
-136.805 -803.534 -1555 193 190 191
-133.172 -801.883 -1552 199 195 198
-129.638 -800.751 -1550 205 201 206
-125.787 -797.556 -1544 205 202 205
-122.519 -797.98 -1545 201 198 201
-118.785 -795.308 -1540 198 195 198
-115.148 -793.155 -1536 198 198 198
-111.603 -791.521 -1533 211 210 210
-108.072 -789.89 -1530 211 208 209
-104.623 -788.779 -1528 207 204 205
-101.317 -788.702 -1528 207 204 205
-98.2038 -790.176 -1531 207 204 205
-94.8928 -790.104 -1531 206 203 204
-91.7024 -791.066 -1533 206 204 205
-88.331 -790.483 -1532 204 204 204
-85.0204 -790.419 -1532 205 205 205
-81.4972 -788.293 -1528 209 209 209
-78.1456 -787.718 -1527 209 209 209
-74.75 -786.629 -1525 206 206 206
-71.5043 -787.09 -1526 205 205 205
-68.2549 -787.554 -1527 206 206 206
-64.9594 -787.505 -1527 205 205 207
-61.6645 -787.457 -1527 201 201 203
-58.4848 -788.96 -1530 201 201 203
-55.2927 -790.464 -1533 204 204 206
-52.0543 -791.456 -1535 199 199 202
-48.8395 -792.965 -1538 198 198 201
-45.4938 -792.414 -1537 203 203 203
-42.2627 -793.928 -1540 207 207 207
-38.9431 -793.898 -1540 205 205 205
-35.6932 -795.417 -1543 203 203 203
-32.4308 -796.938 -1546 203 203 204
-29.1746 -798.977 -1550 205 205 206
-25.9015 -801.019 -1554 205 205 205
-22.5967 -802.547 -1557 205 205 205
-19.2423 -802.531 -1557 203 203 203
-15.9083 -803.549 -1559 203 203 203
-12.566 -804.569 -1561 200 200 200
-9.2092 -805.077 -1562 196 196 197
-5.86315 -807.648 -1567 195 195 197
-2.49877 -811.253 -1574 130 127 130
-361.919 -807.141 -1530 199 198 206
-358.436 -806.863 -1530 203 202 209
-354.261 -805.006 -1527 195 194 200
-350.103 -803.153 -1524 191 190 197
-345.052 -799.197 -1517 192 191 199
-340.712 -796.826 -1513 190 189 197
-336.393 -794.459 -1509 191 190 197
-332.758 -793.675 -1508 195 195 199
-328.694 -791.842 -1505 196 196 199
-325.295 -791.591 -1505 196 196 198
-321.686 -790.817 -1504 194 194 196
-318.295 -790.571 -1504 195 195 198
-314.699 -789.803 -1503 197 197 201
-310.903 -788.512 -1501 202 202 204
-307.529 -788.275 -1501 205 205 207
-303.55 -786.466 -1498 212 212 214
-299.988 -785.71 -1497 212 212 216
-296.235 -784.432 -1495 212 212 215
-293.278 -785.256 -1497 212 212 214
-289.734 -784.509 -1496 212 212 215
-286.963 -785.862 -1499 210 210 214
-283.803 -786.168 -1500 204 204 208
-280.828 -787 -1502 200 200 204
-277.846 -787.835 -1504 196 196 200
-275.224 -789.719 -1508 192 192 196
-272.046 -790.034 -1509 188 188 192
-269.222 -791.398 -1512 185 185 189
-266.211 -792.241 -1514 182 181 186
-262.847 -792.04 -1514 178 177 184
-259.657 -792.364 -1515 180 180 184
-256.465 -792.691 -1516 183 183 186
-253.271 -793.02 -1517 193 193 195
-250.24 -793.874 -1519 205 205 209
-247.364 -795.252 -1522 210 210 214
-244.158 -795.588 -1523 211 211 215
-241.107 -796.449 -1525 202 202 206
-238.05 -797.311 -1527 200 200 204
-234.679 -797.132 -1527 209 209 213
-231.764 -798.521 -1530 213 213 217
-228.54 -798.868 -1531 216 216 219
-225.755 -800.783 -1535 216 216 219
-223.1 -803.222 -1540 215 215 217
-220.852 -807.225 -1548 209 209 212
-217.729 -808.102 -1550 193 193 196
-215.152 -811.066 -1556 194 194 198
-212.55 -814.032 -1562 200 200 202
-209.791 -816.478 -1567 201 200 202
-207.407 -820.488 -1575 186 184 187
-204.73 -823.458 -1581 158 156 154
-202.284 -827.47 -1589 167 165 164
-198.929 -827.84 -1590 152 149 150
-195.079 -826.129 -1587 72 72 72
-191.366 -824.943 -1585 63 63 63
-188.255 -826.361 -1588 61 61 61
-178.408 -828.547 -1593 60 60 62
-174.712 -827.374 -1591 119 119 119
-171.349 -827.764 -1592 157 157 159
-167.457 -825.556 -1588 169 169 171
-163.376 -822.313 -1582 179 176 179
-159.122 -818.034 -1574 186 183 184
-155.101 -814.797 -1568 193 190 191
-150.914 -810.525 -1560 193 190 191
-147.426 -809.894 -1559 195 192 193
-143.759 -808.226 -1556 195 192 193
-140.286 -807.6 -1555 194 191 192
-136.643 -805.938 -1552 193 190 191
-133.186 -805.317 -1551 196 193 195
-129.4 -802.623 -1546 204 200 205
-125.718 -800.45 -1542 207 204 208
-122.293 -799.838 -1541 201 198 201
-118.565 -797.153 -1536 200 197 200
-114.935 -794.989 -1532 198 198 198
-111.395 -793.348 -1529 210 209 209
-108.012 -792.747 -1528 212 212 212
-104.565 -791.629 -1526 210 209 209
-101.127 -790.515 -1524 210 210 210
-98.2131 -793.552 -1530 211 211 211
-94.9637 -793.998 -1531 207 207 207
-91.711 -794.447 -1532 206 206 206
-88.397 -794.379 -1532 207 207 207
-85.0284 -793.796 -1531 205 205 205
-81.558 -792.178 -1528 206 206 206
-78.2039 -791.6 -1527 208 208 208
-74.8549 -791.024 -1526 209 209 209
-71.5108 -790.451 -1525 211 211 211
-68.2165 -790.399 -1525 211 211 211
-65.0079 -791.386 -1527 213 213 213
-61.751 -791.856 -1528 214 214 216
-58.4902 -792.33 -1529 211 211 213
-55.334 -794.36 -1533 203 203 205
-52.0592 -794.838 -1534 200 200 202
-48.8441 -796.355 -1537 204 204 206
-45.5573 -796.837 -1538 209 209 209
-42.2667 -797.323 -1539 210 210 210
-38.9468 -797.292 -1539 208 208 208
-35.7199 -799.337 -1543 206 206 206
-32.434 -800.347 -1545 206 206 206
-29.1964 -802.914 -1550 206 206 206
-25.8874 -803.93 -1552 206 206 206
-22.5845 -805.466 -1555 205 205 205
-19.2442 -805.968 -1556 202 202 202
-15.91 -806.991 -1558 201 201 201
-12.5672 -808.016 -1560 200 200 201
-9.21606 -809.044 -1562 197 197 199
-5.85992 -810.592 -1565 193 193 195
-2.49744 -814.215 -1572 129 126 129
-361.489 -809.536 -1527 190 189 197
-358.244 -809.787 -1528 207 206 213
-353.606 -806.861 -1523 201 200 207
-350.143 -806.589 -1523 193 192 199
-345.091 -802.613 -1516 192 191 198
-340.524 -799.701 -1511 196 195 203
-335.983 -796.793 -1506 199 198 205
-333.015 -797.592 -1508 199 199 203
-328.947 -795.75 -1505 200 200 204
-325.329 -794.968 -1504 200 200 203
-321.933 -794.719 -1504 198 198 200
-318.54 -794.472 -1504 197 197 199
-315.151 -794.227 -1504 201 201 205
-311.764 -793.986 -1504 209 209 211
-307.765 -792.163 -1501 211 211 213
-304.188 -791.4 -1500 214 214 216
-300.619 -790.64 -1499 217 217 221
-296.661 -788.828 -1496 219 219 222
-293.307 -788.601 -1496 218 218 221
-290.15 -788.904 -1497 212 212 216
-287.183 -789.736 -1499 201 201 205
-283.831 -789.516 -1499 193 193 197
-281.043 -790.88 -1502 189 189 193
-277.874 -791.192 -1503 186 186 190
-275.069 -792.559 -1506 181 181 185
-271.893 -792.875 -1507 179 179 183
-269.249 -794.772 -1511 180 180 184
-265.711 -794.042 -1510 183 183 187
-262.874 -795.417 -1513 189 189 193
-259.684 -795.742 -1514 197 197 201
-256.491 -796.07 -1515 205 205 208
-253.297 -796.401 -1516 212 212 215
-250.266 -797.259 -1518 214 214 218
-247.39 -798.645 -1521 210 210 214
-244.344 -799.507 -1523 202 202 205
-240.974 -799.322 -1523 201 201 205
-238.075 -800.713 -1526 211 211 215
-234.857 -801.057 -1527 213 213 216
-231.789 -801.929 -1529 213 213 217
-228.415 -801.753 -1529 216 216 218
-225.779 -804.202 -1534 215 215 217
-223.269 -807.176 -1540 213 213 215
-220.591 -809.628 -1545 203 203 207
-217.753 -811.557 -1549 190 190 194
-215.177 -814.535 -1555 195 195 199
-212.303 -816.468 -1559 202 202 204
-209.95 -820.496 -1567 199 199 201
-207.3 -823.48 -1573 182 182 184
-204.626 -826.464 -1579 161 159 157
-201.927 -829.45 -1585 168 166 164
-198.954 -831.391 -1589 148 146 144
-195.35 -830.718 -1588 69 69 69
-191.39 -828.479 -1584 61 61 61
-188.16 -829.381 -1586 61 61 61
-177.422 -827.397 -1583 60 60 62
-173.965 -827.264 -1583 112 112 112
-170.94 -829.223 -1587 153 153 155
-167.161 -827.528 -1584 167 167 169
-163.5 -826.358 -1582 176 173 174
-159.14 -821.535 -1573 183 180 181
-155.119 -818.283 -1567 189 186 187
-150.931 -813.99 -1559 194 191 192
-147.253 -812.311 -1556 198 195 196
-143.682 -811.157 -1554 198 195 196
-140.211 -810.528 -1553 197 194 195
-136.746 -809.901 -1552 195 192 193
-133.115 -808.234 -1549 195 192 193
-129.581 -807.091 -1547 201 197 202
-125.813 -804.386 -1542 211 208 211
-122.227 -802.728 -1539 204 201 204
-118.809 -802.115 -1538 199 196 199
-115.171 -799.941 -1534 196 196 196
-111.479 -797.248 -1529 208 208 208
-108.022 -796.123 -1527 212 212 212
-104.643 -795.521 -1526 212 212 212
-101.27 -794.922 -1525 212 212 212
-98.2227 -796.932 -1529 210 210 210
-95.0351 -797.902 -1531 206 206 206
-91.7799 -798.352 -1532 202 202 202
-88.4634 -798.284 -1532 202 202 202
-85.0367 -797.177 -1530 203 203 203
-81.6193 -796.072 -1528 200 200 200
-78.2626 -795.491 -1527 199 199 199
-74.9111 -794.913 -1526 205 205 205
-71.6583 -795.378 -1527 208 208 208
-68.3125 -794.805 -1526 210 210 210
-65.0567 -795.275 -1527 211 211 211
-61.8377 -796.269 -1529 212 212 213
-58.6106 -797.266 -1531 209 209 211
-55.3755 -798.264 -1533 203 203 205
-52.1322 -799.265 -1535 203 203 205
-48.8807 -800.269 -1537 203 203 205
-45.473 -798.671 -1534 203 203 203
-42.2708 -800.721 -1538 206 206 206
-38.9506 -800.69 -1538 206 206 206
-35.7235 -802.744 -1542 206 206 206
-32.4373 -803.76 -1544 204 204 204
-29.2182 -806.86 -1550 205 205 205
-25.8901 -807.36 -1551 207 207 207
-22.616 -809.944 -1556 205 205 205
-19.2462 -809.408 -1555 204 204 204
-15.9218 -810.957 -1558 202 202 202
-12.5766 -811.987 -1560 202 202 204
-9.22886 -813.54 -1563 197 197 199
-5.86065 -814.055 -1564 192 192 194
-2.4977 -817.696 -1571 119 117 120
-362.481 -815.122 -1530 177 175 183
-358.288 -813.243 -1527 201 200 208
-353.184 -809.238 -1520 202 201 208
-349.725 -808.964 -1520 190 189 196
-344.903 -805.5 -1514 193 192 199
-340.337 -802.574 -1509 198 197 204
-336.021 -800.184 -1505 203 202 209
-332.61 -799.924 -1505 204 204 209
-328.765 -798.604 -1503 208 208 212
-325.581 -798.881 -1504 209 209 213
-321.968 -798.099 -1503 210 210 212
-318.575 -797.85 -1503 212 212 214
-315.185 -797.604 -1503 216 216 220
-311.382 -796.3 -1501 219 219 221
-307.798 -795.53 -1500 215 215 217
-303.814 -793.702 -1497 213 213 215
-300.249 -792.938 -1496 209 209 213
-296.89 -792.707 -1496 209 209 213
-293.533 -792.479 -1496 206 206 210
-290.179 -792.254 -1496 201 201 205
-287.02 -792.56 -1497 191 191 195
-283.86 -792.869 -1498 186 186 190
-280.884 -793.71 -1500 181 181 185
-277.903 -794.552 -1502 180 180 184
-275.098 -795.926 -1505 183 183 187
-272.102 -796.773 -1507 188 188 192
-269.456 -798.678 -1511 192 192 196
-265.915 -797.944 -1510 199 199 203
-263.076 -799.325 -1513 206 206 210
-259.883 -799.653 -1514 210 210 214
-256.519 -799.454 -1514 212 212 216
-253.324 -799.786 -1515 214 214 218
-249.962 -799.593 -1515 210 210 212
-246.929 -800.457 -1517 205 205 207
-244.049 -801.852 -1520 207 207 209
-240.842 -802.193 -1521 212 212 214
-237.789 -803.064 -1523 213 213 215
-234.883 -804.465 -1526 215 215 217
-231.662 -804.813 -1527 215 215 217
-228.59 -805.691 -1529 214 214 218
-226.394 -809.732 -1537 213 213 217
-223.294 -810.613 -1539 207 207 209
-220.76 -813.603 -1545 192 192 194
-218.06 -816.068 -1550 191 191 194
-215.202 -818.008 -1554 199 199 202
-212.192 -819.424 -1557 201 201 202
-209.708 -822.946 -1564 199 199 200
-207.326 -826.996 -1572 182 182 184
-204.652 -829.995 -1578 165 165 163
-201.571 -831.417 -1581 166 165 163
-198.73 -833.894 -1586 146 144 142
-195.129 -833.218 -1585 72 72 72
-191.414 -832.019 -1583 60 60 60
-187.829 -831.349 -1582 60 60 60
-173.987 -830.797 -1582 109 109 110
-170.854 -832.241 -1585 151 151 153
-167.077 -830.538 -1582 163 163 165
-163.52 -829.887 -1581 171 168 169
-159.362 -826.09 -1574 181 178 179
-155.435 -823.346 -1569 184 181 182
-151.24 -819.032 -1561 193 190 191
-147.46 -816.82 -1557 197 194 195
-143.791 -815.136 -1554 199 196 197
-140.498 -815.552 -1555 201 198 199
-136.585 -812.3 -1549 197 194 195
-133.043 -811.149 -1547 196 193 194
-129.344 -808.952 -1543 200 196 201
-125.827 -807.807 -1541 205 202 205
-122.24 -806.14 -1538 201 198 201
-118.899 -806.049 -1538 199 196 199
-115.108 -802.815 -1532 197 196 197
-111.709 -802.206 -1531 204 204 204
-108.104 -800.026 -1527 210 210 210
-104.654 -798.898 -1525 212 212 212
-101.346 -798.82 -1525 210 210 210
-98.2969 -800.839 -1529 205 205 205
-95.0448 -801.29 -1530 201 201 201
-91.7293 -801.219 -1530 199 199 199
-88.4725 -801.675 -1531 198 198 198
-85.1009 -801.085 -1530 199 199 199
-81.7344 -800.499 -1529 200 200 200
-78.373 -799.914 -1528 203 203 203
-75.0659 -799.856 -1528 206 206 206
-71.6654 -798.754 -1526 208 208 208
-68.4983 -800.271 -1529 210 210 210
-65.1485 -799.697 -1528 211 211 211
-61.8439 -799.649 -1528 208 208 208
-58.6931 -801.697 -1532 203 203 204
-55.4172 -802.177 -1533 201 201 203
-52.1375 -802.659 -1534 203 203 205
-48.8539 -803.145 -1535 202 202 203
-45.5072 -802.586 -1534 201 201 201
-42.2477 -803.599 -1536 202 202 202
-38.98 -804.615 -1538 204 204 204
-35.7504 -806.679 -1542 203 203 203
-32.4827 -808.223 -1545 205 205 205
-29.2214 -810.292 -1549 204 204 204
-25.8761 -810.271 -1549 207 207 207
-22.5893 -812.345 -1553 207 207 207
-19.2483 -812.852 -1554 203 203 203
-15.944 -815.455 -1559 200 200 200
-12.5941 -816.49 -1561 201 201 203
-9.26533 -820.143 -1568 195 195 197
-5.88368 -820.66 -1569 192 192 194
-2.50116 -822.227 -1572 109 109 111
-360.868 -814.843 -1522 154 153 161
-356.925 -813.491 -1520 194 193 202
-351.6 -808.932 -1512 196 195 203
-348.847 -810.263 -1515 193 192 199
-344.717 -808.387 -1512 190 189 197
-339.926 -804.911 -1506 193 192 200
-335.836 -803.044 -1503 203 202 209
-332.427 -802.783 -1503 211 210 216
-329.021 -802.524 -1503 212 212 216
-324.968 -800.667 -1500 213 213 216
-321.79 -800.948 -1501 215 215 217
-318.611 -801.232 -1502 217 217 219
-315.639 -802.052 -1504 214 214 218
-312.04 -801.274 -1503 207 207 209
-308.858 -801.565 -1504 205 205 207
-304.863 -799.727 -1501 208 208 210
-301.084 -798.426 -1499 210 210 212
-297.517 -797.661 -1498 207 207 209
-293.957 -796.898 -1497 201 201 205
-290.404 -796.139 -1496 193 193 197
-287.243 -796.447 -1497 184 184 188
-284.079 -796.757 -1498 182 182 186
-281.102 -797.602 -1500 185 185 189
-278.118 -798.448 -1502 192 192 196
-275.311 -799.828 -1505 201 201 205
-271.951 -799.616 -1505 206 206 210
-269.307 -801.531 -1509 209 209 213
-265.944 -801.324 -1509 211 211 215
-263.105 -802.712 -1512 213 213 217
-259.74 -802.51 -1512 215 215 219
-256.716 -803.372 -1514 215 215 219
-253.352 -803.175 -1514 209 209 213
-250.32 -804.041 -1516 205 205 207
-247.282 -804.91 -1518 205 205 207
-244.398 -806.31 -1521 207 207 209
-241.344 -807.183 -1523 208 208 210
-238.128 -807.528 -1524 210 210 212
-234.909 -807.876 -1525 211 211 213
-231.992 -809.285 -1528 212 212 214
-229.064 -810.696 -1531 212 212 215
-226.273 -812.639 -1535 212 212 215
-223.611 -815.112 -1540 200 200 202
-220.786 -817.058 -1544 193 193 195
-217.946 -819.006 -1548 198 198 200
-215.229 -821.484 -1553 202 202 204
-212.355 -823.436 -1557 203 203 203
-209.734 -826.447 -1563 197 197 197
-207.089 -829.459 -1569 182 182 183
-204.549 -833.001 -1576 168 168 166
-201.343 -833.902 -1578 166 165 163
-198.38 -835.862 -1582 145 143 141
-194.786 -835.183 -1581 72 71 71
-191.44 -835.563 -1582 60 60 60
-188.329 -837.002 -1585 60 60 60
-174.45 -836.446 -1585 103 103 105
-170.877 -835.786 -1584 150 150 151
-167.204 -834.602 -1582 161 161 161
-163.542 -833.42 -1580 168 165 166
-159.281 -829.077 -1572 177 174 175
-155.553 -827.375 -1569 185 182 183
-151.258 -822.512 -1560 194 191 192
-147.572 -820.816 -1557 200 197 198
-143.808 -818.596 -1553 201 198 199
-140.424 -818.487 -1553 203 200 201
-136.777 -816.801 -1550 201 198 199
-133.059 -814.59 -1546 199 196 197
-129.275 -811.855 -1541 199 195 200
-125.841 -811.231 -1540 202 199 202
-122.253 -809.556 -1537 200 197 200
-118.912 -809.464 -1537 198 195 198
-115.271 -807.268 -1533 197 197 197
-111.867 -806.655 -1532 201 201 201
-108.328 -804.992 -1529 205 205 205
-104.939 -804.384 -1528 209 209 209
-101.556 -803.779 -1527 210 210 210
-98.3073 -804.229 -1528 208 208 208
-95.0549 -804.682 -1529 206 206 206
-91.5591 -803.032 -1526 205 205 205
-88.3083 -803.49 -1527 203 203 203
-84.9428 -802.898 -1526 203 203 203
-81.6359 -802.834 -1526 205 205 205
-78.3812 -803.299 -1527 207 207 207
-75.1228 -803.767 -1528 209 209 209
-71.7668 -803.185 -1527 210 210 210
-68.4607 -803.132 -1527 210 210 210
-65.1978 -803.607 -1528 209 209 209
-61.9718 -804.61 -1530 207 207 207
-58.6611 -804.565 -1530 201 201 201
-55.3869 -805.047 -1531 198 198 200
-52.143 -806.058 -1533 201 201 202
-48.8592 -806.545 -1534 202 202 202
-45.4824 -805.458 -1532 201 201 201
-42.2522 -807.002 -1535 201 201 201
-38.9334 -806.971 -1535 202 202 202
-35.731 -809.571 -1540 203 203 203
-32.4863 -811.648 -1544 202 202 202
-29.2245 -813.727 -1548 204 204 204
-25.879 -813.706 -1548 206 206 206
-22.5773 -815.265 -1551 206 206 206
-19.2256 -815.249 -1551 203 203 203
-15.9458 -818.915 -1558 201 201 201
-12.6036 -820.481 -1561 197 197 199
-9.26639 -823.626 -1567 192 192 194
-5.88821 -824.672 -1569 189 189 191
-2.50143 -825.72 -1571 103 103 105
-356.736 -816.401 -1518 189 188 198
-351.643 -812.357 -1511 200 199 207
-349.121 -814.232 -1515 192 191 198
-345.9 -814.495 -1516 189 188 195
-340.87 -810.465 -1509 189 188 196
-336.77 -808.587 -1506 195 194 201
-333.573 -808.861 -1507 201 200 207
-329.279 -806.454 -1503 203 203 208
-325.873 -806.196 -1503 207 207 209
-322.686 -806.478 -1504 211 211 213
-319.284 -806.226 -1504 204 204 206
-315.676 -805.441 -1503 194 194 198
-312.076 -804.66 -1502 190 190 193
-308.483 -803.881 -1501 192 192 194
-305.101 -803.641 -1501 193 193 195
-301.319 -802.333 -1499 197 197 199
-297.749 -801.564 -1498 202 202 204
-294.186 -800.797 -1497 198 198 202
-290.63 -800.034 -1496 188 188 192
-287.658 -800.877 -1498 186 186 190
-284.3 -800.654 -1498 191 191 195
-281.508 -802.037 -1501 205 205 209
-278.519 -802.887 -1503 210 210 214
-275.525 -803.739 -1505 213 213 217
-272.343 -804.06 -1506 212 212 216
-269.517 -805.45 -1509 212 212 216
-266.15 -805.242 -1509 213 213 217
-263.309 -806.637 -1512 215 215 219
-259.941 -806.433 -1512 213 213 217
-256.746 -806.765 -1513 206 206 210
-253.548 -807.1 -1514 200 200 204
-250.349 -807.438 -1515 199 199 201
-247.31 -808.311 -1517 202 202 204
-244.265 -809.185 -1519 203 203 205
-241.214 -810.062 -1521 207 207 209
-237.686 -809.344 -1520 210 210 212
-234.783 -810.758 -1523 212 212 214
-232.02 -812.706 -1527 212 212 214
-229.241 -814.657 -1531 212 212 213
-226.595 -817.14 -1536 206 206 206
-223.929 -819.625 -1541 195 195 196
-221.243 -822.112 -1546 196 196 198
-218.255 -823.538 -1549 199 199 202
-215.395 -825.496 -1553 202 202 205
-212.519 -827.457 -1557 201 201 202
-209.896 -830.482 -1563 193 193 193
-207.249 -833.509 -1569 179 179 179
-204.707 -837.068 -1576 169 169 168
-201.625 -838.505 -1579 164 163 161
-198.658 -840.474 -1583 145 143 141
-194.936 -839.26 -1581 70 70 69
-191.587 -839.642 -1582 62 62 62
-187.641 -837.373 -1578 60 60 60
-174.254 -838.938 -1582 96 96 98
-170.684 -838.275 -1581 153 153 154
-167.121 -837.614 -1580 163 163 163
-163.667 -837.487 -1580 164 161 162
-159.708 -834.713 -1575 170 167 168
-155.871 -832.472 -1571 182 179 180
-151.762 -828.644 -1564 195 192 193
-148.159 -827.47 -1562 202 199 200
-144.196 -824.179 -1556 203 200 201
-140.713 -823.54 -1555 204 201 202
-136.882 -820.786 -1550 202 199 200
-133.161 -818.564 -1546 201 198 199
-129.458 -816.345 -1542 201 197 202
-125.937 -815.189 -1540 200 196 200
-122.267 -812.976 -1536 199 196 199
-119.08 -813.942 -1538 198 195 198
-115.509 -812.265 -1535 196 196 196
-112.026 -811.119 -1533 198 198 198
-108.481 -809.447 -1530 203 203 203
-105.226 -809.895 -1531 208 208 208
-101.701 -808.228 -1528 210 210 210
-98.3181 -807.623 -1527 209 209 209
-95.0031 -807.549 -1527 210 210 210
-91.5689 -806.42 -1525 212 212 212
-88.3179 -806.879 -1526 213 213 213
-85.0077 -806.813 -1526 210 210 210
-81.8054 -807.807 -1528 209 209 209
-78.441 -807.217 -1527 209 209 209
-75.1802 -807.687 -1528 210 210 210
-71.9156 -808.159 -1529 211 211 211
-68.6475 -808.634 -1530 210 210 210
-65.2903 -808.054 -1529 206 206 206
-62.1001 -809.591 -1532 203 203 203
-58.7824 -809.544 -1532 198 198 198
-55.4653 -809.501 -1532 197 197 199
-52.2169 -810.516 -1534 200 200 200
-48.9282 -811.006 -1535 201 201 201
-45.5764 -810.442 -1534 202 202 202
-42.2844 -810.937 -1535 202 202 202
-39.0647 -813.019 -1539 203 203 203
-35.7815 -814.047 -1541 204 204 204
-32.511 -815.605 -1544 201 201 200
-29.228 -817.166 -1547 201 201 200
-25.882 -817.145 -1547 202 202 202
-22.5362 -817.127 -1547 204 204 204
-19.2279 -818.696 -1550 204 204 204
-15.9477 -822.379 -1557 204 204 204
-12.5889 -822.897 -1558 197 195 197
-9.28522 -828.698 -1569 191 190 192
-5.8963 -829.221 -1570 188 188 190
-2.5049 -830.274 -1572 98 98 100
-352.62 -817.948 -1514 201 200 208
-349.858 -819.29 -1517 195 194 202
-346.401 -819.015 -1517 187 186 193
-341.591 -815.503 -1511 187 186 194
-337.931 -814.695 -1510 190 189 196
-334.279 -813.89 -1509 192 191 198
-330.415 -812.549 -1507 197 196 203
-326.564 -811.211 -1505 201 201 203
-323.369 -811.494 -1506 201 201 203
-319.748 -810.701 -1505 196 196 198
-316.345 -810.451 -1505 194 194 198
-312.737 -809.665 -1504 196 196 198
-309.342 -809.42 -1504 194 194 196
-305.747 -808.639 -1503 194 194 196
-302.159 -807.862 -1502 193 193 195
-298.38 -806.551 -1500 196 196 198
-294.613 -805.242 -1498 198 198 202
-291.441 -805.55 -1499 203 203 207
-288.076 -805.322 -1499 209 209 213
-284.903 -805.634 -1500 211 211 215
-281.54 -805.412 -1500 211 211 215
-278.552 -806.267 -1502 211 211 215
-275.19 -806.049 -1502 211 211 215
-271.832 -805.835 -1502 211 211 215
-269.191 -807.769 -1506 211 211 215
-265.828 -807.56 -1506 212 212 216
-263.166 -809.498 -1510 209 209 213
-259.972 -809.829 -1511 203 203 207
-256.946 -810.699 -1513 196 196 200
-253.913 -811.571 -1515 197 197 201
-250.874 -812.445 -1517 200 200 202
-247.992 -813.857 -1520 201 201 203
-244.777 -814.2 -1521 206 206 208
-241.401 -814.01 -1521 211 211 213
-238.184 -814.358 -1522 213 213 215
-235.274 -815.779 -1525 213 213 215
-232.2 -816.667 -1527 212 212 214
-229.569 -819.161 -1532 209 209 210
-226.919 -821.656 -1537 199 199 199
-224.103 -823.619 -1541 194 194 194
-221.128 -825.049 -1544 199 199 201
-218.424 -827.549 -1549 202 202 206
-215.284 -828.449 -1551 201 201 204
-212.41 -830.419 -1555 198 198 200
-209.79 -833.459 -1561 191 191 191
-207.145 -836.501 -1567 178 178 178
-204.345 -839.01 -1572 170 170 169
-201.27 -840.454 -1575 165 165 163
-198.309 -842.433 -1579 146 144 142
-194.839 -842.28 -1579 72 71 71
-191.493 -842.664 -1580 62 62 62
-187.548 -840.384 -1576 59 59 59
-174.278 -842.489 -1581 86 86 88
-170.384 -840.224 -1577 149 149 150
-167.038 -840.626 -1578 166 166 166
-163.482 -839.966 -1577 167 164 165
-159.425 -836.646 -1571 167 164 165
-156.09 -837.056 -1572 177 174 175
-151.879 -832.678 -1564 193 190 191
-148.273 -831.497 -1562 203 200 201
-144.4 -828.722 -1557 205 202 203
-140.912 -828.08 -1556 205 202 203
-136.988 -824.78 -1550 204 201 202
-133.435 -823.611 -1548 203 200 201
-129.725 -821.382 -1544 203 199 204
-126.116 -819.687 -1541 200 197 200
-122.6 -818.527 -1539 199 196 199
-119.327 -818.966 -1540 198 195 198
-115.674 -816.748 -1536 196 196 196
-112.185 -815.597 -1534 197 197 197
-108.636 -813.917 -1531 200 200 200
-105.238 -813.303 -1530 204 204 204
-101.845 -812.692 -1529 210 210 210
-98.3936 -811.552 -1527 212 212 212
-95.0138 -810.946 -1526 211 211 211
-91.6393 -810.342 -1525 212 212 212
-88.3278 -810.273 -1525 213 213 213
-85.0172 -810.206 -1525 212 212 212
-81.8146 -811.205 -1527 211 211 211
-78.3984 -810.081 -1525 211 211 211
-75.1887 -811.084 -1527 210 210 210
-71.8297 -810.496 -1526 208 208 208
-68.6553 -812.036 -1529 206 206 206
-65.2976 -811.453 -1528 204 204 204
-62.1071 -812.997 -1531 200 200 200
-58.7891 -812.95 -1531 196 196 196
-55.5079 -813.438 -1532 197 197 199
-52.2228 -813.927 -1533 200 200 201
-48.9339 -814.419 -1534 202 202 202
-45.5816 -813.852 -1533 202 202 202
-42.3444 -815.411 -1536 203 203 203
-39.0945 -816.972 -1539 204 204 204
-35.8321 -818.536 -1542 205 205 205
-32.557 -820.102 -1545 203 203 201
-29.2881 -822.202 -1549 201 201 200
-25.9519 -822.711 -1550 201 201 201
-22.5825 -822.162 -1549 203 203 203
-19.2798 -824.269 -1553 203 203 202
-15.9599 -826.378 -1557 200 200 199
-12.6066 -827.429 -1559 196 193 196
-9.29226 -832.728 -1569 195 194 196
-5.89711 -832.722 -1569 183 183 185
-2.50817 -834.842 -1573 88 88 90
-354.066 -824.649 -1519 194 193 201
-350.828 -824.911 -1520 194 193 200
-347.59 -825.176 -1521 189 188 195
-343.672 -823.816 -1519 186 185 192
-339.543 -821.917 -1516 187 186 193
-335.652 -820.565 -1514 188 187 194
-331.555 -818.674 -1511 195 194 201
-327.908 -817.871 -1510 200 200 204
-324.269 -817.07 -1509 198 198 201
-320.426 -815.732 -1507 196 196 198
-316.595 -814.397 -1505 196 196 200
-312.568 -812.525 -1502 198 198 201
-309.38 -812.819 -1503 197 197 199
-305.785 -812.036 -1502 194 194 196
-302.196 -811.255 -1501 193 193 195
-299.412 -812.638 -1504 191 191 193
-295.633 -811.322 -1502 196 196 200
-292.06 -810.55 -1501 207 207 211
-288.495 -809.781 -1500 209 209 213
-285.127 -809.555 -1500 208 208 212
-282.137 -810.41 -1502 208 208 212
-278.585 -809.65 -1501 208 208 212
-275.59 -810.51 -1503 209 209 213
-272.408 -810.834 -1504 209 209 213
-269.402 -811.698 -1506 209 209 213
-266.214 -812.027 -1507 206 206 210
-262.849 -811.819 -1507 202 202 206
-259.831 -812.69 -1509 201 201 205
-256.637 -813.026 -1510 206 206 210
-253.609 -813.902 -1512 207 207 211
-250.905 -815.857 -1516 209 209 211
-247.86 -816.738 -1518 215 215 217
-244.807 -817.62 -1520 214 214 216
-241.59 -817.967 -1521 214 214 216
-238.37 -818.317 -1522 213 213 215
-235.457 -819.744 -1525 212 212 214
-232.381 -820.636 -1527 210 210 212
-229.749 -823.142 -1532 205 205 207
-227.244 -826.187 -1538 196 196 197
-224.132 -827.084 -1540 199 199 199
-221.157 -828.521 -1543 203 203 205
-218.594 -831.57 -1549 202 202 206
-215.452 -832.474 -1551 200 200 202
-212.439 -833.917 -1554 196 196 197
-210.087 -838.045 -1562 190 190 189
-207.174 -840.028 -1566 179 179 179
-204.374 -842.549 -1571 173 173 173
-201.427 -844.536 -1575 168 168 168
-198.338 -845.989 -1578 148 146 144
-194.868 -845.835 -1578 74 74 73
-191.399 -845.685 -1578 60 60 60
-187.456 -843.394 -1574 60 60 60
-174.524 -847.115 -1582 82 82 84
-170.624 -844.839 -1578 144 144 146
-167.062 -844.172 -1577 168 168 168
-163.713 -844.579 -1578 170 167 168
-159.752 -841.777 -1573 168 165 166
-156.211 -841.119 -1572 172 169 170
-152.385 -838.86 -1568 188 185 186
-148.768 -837.673 -1566 200 197 198
-144.697 -833.815 -1559 203 200 201
-141.112 -832.634 -1557 204 201 202
-137.27 -829.852 -1552 205 202 203
-133.539 -827.608 -1548 205 202 203
-129.742 -824.833 -1543 204 200 205
-126.295 -824.2 -1542 202 198 202
-122.615 -821.965 -1538 201 198 201
-119.341 -822.406 -1539 199 196 199
-115.838 -821.246 -1537 196 196 196
-112.491 -821.157 -1537 197 197 197
-108.862 -818.935 -1533 198 198 198
-105.319 -817.249 -1530 199 199 199
-101.857 -816.101 -1528 208 208 208
-98.4051 -814.955 -1526 213 213 213
-95.1495 -815.414 -1527 213 213 213
-91.71 -814.274 -1525 212 212 212
-88.454 -814.738 -1526 210 210 210
-85.0828 -814.137 -1525 210 210 210
-81.7705 -814.073 -1525 210 210 210
-78.4589 -814.01 -1525 211 211 211
-75.1973 -814.485 -1526 209 209 209
-71.8379 -813.894 -1525 205 205 205
-68.6183 -814.907 -1527 202 202 202
-65.3052 -814.855 -1527 203 203 203
-62.1145 -816.407 -1530 200 200 200
-58.796 -816.36 -1530 194 194 194
-55.5506 -817.383 -1532 197 197 199
