ply
format ascii 1.0
comment Created by Open3D
element vertex 1346
property double x
property double y
property double z
property uchar red
property uchar green
property uchar blue
end_header
-110.917 -690.26 -1726 167 163 164
-106.988 -688.198 -1721 172 168 171
-103.262 -687.339 -1719 178 173 177
-99.6021 -686.882 -1718 177 171 176
-95.7801 -685.228 -1714 170 166 171
-91.7067 -681.578 -1705 183 179 183
-88.0853 -681.127 -1704 194 190 193
-84.4689 -680.679 -1703 191 188 193
-80.7149 -679.034 -1699 185 182 186
-76.8875 -676.591 -1693 182 178 181
-73.2593 -675.75 -1691 182 178 183
-69.4338 -672.912 -1684 185 181 186
-65.6774 -670.477 -1678 186 182 187
-62.0208 -668.843 -1674 185 181 186
-58.5212 -668.809 -1674 183 179 184
-54.9565 -667.978 -1672 186 180 186
-51.3391 -666.35 -1668 187 182 187
-47.7962 -665.523 -1666 191 187 192
-44.1822 -663.5 -1661 188 184 189
-40.6142 -661.878 -1657 193 190 194
-37.1528 -661.857 -1657 187 184 187
-33.651 -661.038 -1655 190 187 190
-30.1398 -659.822 -1652 207 204 207
-26.6897 -659.806 -1652 213 210 211
-23.2258 -659.392 -1651 209 205 208
-19.8143 -660.578 -1654 205 201 204
-16.3508 -660.169 -1653 203 199 202
-12.9229 -661.359 -1656 200 196 199
-9.45971 -660.953 -1655 195 191 194
-6.01148 -661.748 -1657 198 194 197
-2.55053 -661.346 -1656 206 202 205
0.908417 -662.543 -1659 211 207 210
4.37463 -662.944 -1660 207 203 206
7.86415 -664.945 -1665 202 198 202
11.3676 -666.548 -1669 202 198 201
14.8969 -668.552 -1674 203 199 202
18.491 -672.156 -1683 206 202 207
22.0707 -674.164 -1688 199 195 200
25.8683 -681.367 -1706 208 204 209
29.5518 -684.178 -1713 211 207 210
33.3034 -687.79 -1722 212 208 212
36.9645 -689.009 -1725 211 207 212
40.5677 -689.031 -1725 129 126 131
44.0433 -687.057 -1720 31 28 33
-325.435 -689.644 -1696 99 98 106
-322.33 -690.676 -1699 199 198 205
-318.465 -690.084 -1698 200 199 206
-312.568 -685.026 -1686 211 211 215
-306.359 -679.16 -1672 207 207 212
-299.671 -672.08 -1655 204 203 210
-293.774 -666.63 -1642 201 200 207
-288.466 -662.403 -1632 200 199 206
-284.601 -661.426 -1630 201 200 207
-280.574 -660.046 -1627 201 201 205
-277.074 -659.885 -1627 203 203 207
-273.409 -659.321 -1626 205 205 209
-269.916 -659.164 -1626 209 211 213
-266.098 -658.2 -1624 206 208 210
-262.452 -657.642 -1623 203 205 205
-258.813 -657.087 -1622 199 201 203
-255.181 -656.534 -1621 195 197 200
-251.711 -656.389 -1621 192 194 198
-248.243 -656.245 -1621 195 194 201
-244.626 -655.699 -1620 194 193 200
-241.314 -655.964 -1621 188 187 194
-238.586 -657.849 -1626 186 183 190
-235.551 -658.927 -1629 188 185 192
-232.219 -659.198 -1630 186 183 191
-228.885 -659.47 -1631 184 181 188
-225.135 -658.531 -1629 182 179 186
-221.259 -657.191 -1626 187 184 188
-217.933 -657.469 -1627 185 182 187
-215.001 -658.961 -1631 185 182 187
-212.183 -660.859 -1636 195 192 199
-209.091 -661.95 -1639 202 199 205
-205.988 -663.043 -1642 204 201 206
-202.997 -664.541 -1646 206 203 210
-199.992 -666.041 -1650 208 205 212
-196.852 -667.138 -1653 203 200 207
-194.169 -669.852 -1660 199 196 203
-191.113 -671.356 -1664 202 199 206
-188.043 -672.862 -1668 204 201 208
-185.178 -675.175 -1674 203 200 206
-181.747 -675.474 -1675 203 201 205
-179.058 -678.597 -1683 202 201 203
-176.233 -681.318 -1690 194 191 195
-173.175 -683.234 -1695 183 180 185
-170.198 -685.554 -1701 181 178 183
-167.197 -687.876 -1707 185 182 187
-163.693 -688.185 -1708 182 179 183
-160.281 -688.899 -1710 166 163 164
-156.952 -690.017 -1713 143 140 143
-153.702 -691.54 -1717 36 33 36
-149.737 -689.842 -1713 35 32 37
-125.253 -693.321 -1723 29 26 32
-121.564 -692.848 -1722 67 64 70
-118.018 -693.183 -1723 146 142 147
-114.468 -693.519 -1724 162 158 161
-110.723 -692.651 -1722 168 164 165
-107.049 -692.187 -1721 168 164 167
-103.621 -693.333 -1724 175 170 174
-99.6004 -690.461 -1717 176 172 175
-95.7223 -688.395 -1712 177 173 176
-92.0276 -687.537 -1710 172 168 172
-88.3936 -687.084 -1709 188 184 189
-84.6158 -685.427 -1705 192 188 193
-81.1883 -686.586 -1708 193 189 193
-77.0672 -681.718 -1696 190 186 189
-73.2573 -679.263 -1690 186 182 186
-69.473 -676.811 -1684 186 182 186
-65.832 -675.567 -1681 187 183 188
-62.1299 -673.522 -1676 187 183 188
-58.5893 -673.086 -1675 186 182 187
-54.9875 -671.848 -1672 192 185 192
-51.4912 -671.818 -1672 193 188 193
-47.9666 -671.388 -1671 195 191 196
-44.3136 -668.951 -1665 192 188 193
-40.7106 -666.919 -1660 194 190 195
-37.1737 -665.691 -1657 191 187 191
-33.7108 -665.671 -1657 191 188 191
-30.2116 -664.85 -1655 209 206 208
-26.721 -664.03 -1653 210 207 208
-23.253 -663.614 -1652 206 202 205
-19.8374 -664.807 -1655 202 198 201
-16.3798 -664.797 -1655 202 198 201
-12.9379 -665.592 -1657 202 198 201
-9.45912 -664.381 -1654 198 194 197
-6.01132 -665.18 -1656 198 194 197
-2.55501 -665.981 -1658 203 199 202
0.909102 -666.382 -1659 212 208 211
4.38509 -667.99 -1663 213 209 214
7.88277 -670.002 -1668 211 207 212
11.4082 -672.418 -1674 209 205 210
14.9321 -673.63 -1677 207 203 207
18.5564 -678.059 -1688 203 199 204
22.2531 -683.292 -1701 201 197 202
25.959 -687.323 -1711 208 204 209
29.6377 -689.749 -1717 211 207 210
33.361 -692.579 -1724 214 210 214
37.0497 -694.206 -1728 202 198 203
40.6848 -694.63 -1729 145 141 146
44.2475 -693.85 -1727 40 37 43
-326.968 -696.495 -1703 124 122 129
-323.467 -696.715 -1704 200 199 205
-319.213 -695.301 -1701 197 196 202
-313.121 -689.804 -1688 207 207 211
-306.537 -683.086 -1672 210 209 214
-300.207 -676.783 -1657 202 201 208
-293.765 -670.076 -1641 202 201 208
-288.456 -665.824 -1631 200 199 206
-285.115 -666.066 -1632 200 197 204
-281.082 -664.677 -1629 200 200 204
-277.575 -664.515 -1629 202 202 206
-273.735 -663.54 -1627 201 201 205
-270.072 -662.974 -1626 203 203 207
-266.415 -662.411 -1625 205 206 208
-262.604 -661.443 -1623 203 205 205
-259.282 -661.699 -1624 195 197 199
-255.486 -660.736 -1622 188 190 192
-251.856 -660.182 -1621 185 187 191
-248.539 -660.444 -1622 187 186 193
-244.918 -659.895 -1621 184 183 190
-241.9 -660.975 -1624 182 181 188
-238.871 -662.057 -1627 185 182 188
-235.831 -663.141 -1630 186 183 188
-232.638 -663.819 -1632 180 179 184
-229.157 -663.686 -1632 182 179 186
-225.264 -662.335 -1629 181 178 185
-221.25 -660.58 -1625 181 178 183
-218.192 -661.673 -1628 176 173 177
-214.992 -662.361 -1630 176 173 176
-212.175 -664.27 -1635 187 184 189
-209.466 -666.586 -1641 192 189 195
-206.357 -667.685 -1644 195 192 198
-203.114 -668.379 -1646 200 197 204
-200.106 -669.888 -1650 201 198 205
-196.845 -670.586 -1652 197 194 201
-194.163 -673.314 -1659 198 195 202
-191.223 -675.233 -1664 199 196 203
-188.263 -677.153 -1669 198 195 202
-185.505 -679.885 -1676 201 198 203
-182.394 -681.402 -1680 201 199 203
-179.374 -683.326 -1685 198 198 200
-176.438 -685.657 -1691 188 185 190
-173.683 -688.8 -1699 183 180 185
-170.296 -689.512 -1701 186 183 188
-167.293 -691.848 -1707 185 182 187
-163.979 -692.969 -1710 177 174 178
-160.466 -693.281 -1711 165 164 164
-157.042 -694.001 -1713 146 143 145
-154.148 -697.152 -1721 42 39 42
-150.26 -695.85 -1718 36 33 38
-125.469 -698.132 -1725 30 27 32
-121.916 -698.466 -1726 64 61 66
-118.222 -697.993 -1725 143 139 143
-114.733 -698.736 -1727 161 157 160
-110.979 -697.862 -1725 164 161 162
-107.297 -697.395 -1724 167 163 166
-103.439 -695.717 -1720 170 166 169
-99.6571 -694.446 -1717 173 169 172
-95.7769 -692.368 -1712 176 172 175
-92.0799 -691.505 -1710 174 170 173
-88.4957 -691.454 -1710 174 170 175
-84.7632 -690.191 -1707 184 180 185
-81.282 -690.953 -1709 197 193 198
-77.3384 -687.673 -1701 199 195 198
-73.5158 -685.205 -1695 196 192 196
-69.5124 -680.717 -1684 195 191 194
-65.9086 -679.87 -1682 194 190 195
-62.1652 -677.409 -1676 193 189 194
-58.5875 -676.566 -1674 194 190 195
-55.0845 -676.533 -1674 198 191 199
-51.5205 -675.695 -1672 200 195 201
-47.8502 -673.242 -1666 202 198 203
-44.2855 -672.003 -1663 197 193 198
-40.7828 -671.575 -1662 195 191 196
-37.2397 -670.341 -1659 187 183 188
-33.7502 -669.916 -1658 189 186 189
-30.2651 -669.494 -1657 203 200 202
-26.817 -669.882 -1658 206 203 204
-23.3366 -669.464 -1657 205 201 204
-19.8726 -669.452 -1657 204 200 203
-16.4188 -669.845 -1658 204 200 203
-12.953 -669.837 -1658 201 197 200
-9.47592 -669.022 -1656 202 198 201
-6.0255 -670.23 -1659 204 200 203
-2.55795 -670.228 -1659 207 203 207
0.910676 -671.035 -1661 211 207 211
4.39031 -672.249 -1664 214 210 215
7.89197 -674.272 -1669 214 210 215
11.4282 -677.106 -1676 211 207 212
14.9673 -678.729 -1680 206 202 207
18.644 -684.799 -1695 205 201 206
22.3182 -688.851 -1705 205 201 206
26.0648 -693.713 -1717 207 203 208
29.6719 -694.133 -1718 211 207 211
33.3995 -696.979 -1725 204 200 205
37.0494 -697.808 -1727 177 173 178
40.6373 -697.426 -1726 162 159 164
44.2985 -698.258 -1728 49 46 51
-324.035 -701.55 -1706 199 197 203
-319.775 -700.128 -1703 194 193 197
-314.417 -696.243 -1694 208 207 212
-307.633 -689.074 -1677 212 210 216
-301.107 -682.323 -1661 204 203 210
-294.474 -675.166 -1644 205 204 211
-288.978 -670.479 -1633 200 198 205
-285.281 -669.901 -1632 200 197 204
-281.245 -668.504 -1629 199 199 203
-277.566 -667.931 -1628 200 200 204
-274.062 -667.77 -1628 202 202 206
-270.893 -668.431 -1630 203 203 207
-266.57 -666.224 -1625 204 204 208
-263.08 -666.07 -1625 202 204 204
-259.752 -666.328 -1626 199 201 203
-255.792 -664.948 -1623 194 196 199
-252.469 -665.21 -1624 189 191 194
-248.99 -665.064 -1624 187 186 192
-245.665 -665.33 -1625 185 184 190
-242.338 -665.597 -1626 184 183 190
-239.303 -666.685 -1629 182 180 186
-235.822 -666.548 -1629 176 174 179
-232.915 -668.048 -1633 168 168 172
-229.29 -667.505 -1632 170 168 173
-225.533 -666.555 -1630 173 170 176
-222.059 -666.425 -1630 173 170 175
-218.721 -666.706 -1631 167 164 167
-215.644 -667.807 -1634 166 163 166
-212.298 -668.091 -1635 178 175 180
-209.715 -670.829 -1642 183 180 186
-206.727 -672.343 -1646 191 188 195
-203.601 -673.449 -1649 198 195 202
-200.222 -673.741 -1650 197 194 201
-197.078 -674.851 -1653 196 193 200
-194.392 -677.595 -1660 196 193 200
-191.448 -679.525 -1665 200 197 204
-188.484 -681.455 -1670 202 199 206
-185.391 -682.979 -1674 202 199 204
-182.716 -686.137 -1682 202 199 204
-180.009 -689.295 -1690 194 193 196
-177.166 -692.047 -1697 186 184 188
-173.988 -693.577 -1701 188 185 190
-170.894 -695.516 -1706 189 186 191
-167.487 -696.234 -1708 183 180 183
-164.265 -697.769 -1712 180 177 180
-160.746 -698.082 -1713 165 165 165
-157.591 -700.028 -1718 146 144 145
-154.416 -701.975 -1723 52 49 50
-150.609 -701.073 -1721 40 37 42
-125.396 -701.331 -1723 39 36 40
-121.986 -702.481 -1726 75 72 77
-118.221 -701.598 -1724 147 143 146
-114.732 -702.345 -1726 161 157 160
-111.107 -702.281 -1726 166 163 164
-107.233 -700.59 -1722 170 166 169
-103.498 -699.716 -1720 169 165 167
-99.8303 -699.251 -1719 169 165 168
-95.8317 -696.347 -1712 171 167 170
-92.0248 -694.667 -1708 175 171 175
-88.5981 -695.835 -1711 171 167 172
-84.9111 -694.972 -1709 172 168 173
-81.1857 -693.704 -1706 183 180 184
-77.2916 -690.812 -1699 196 193 196
-73.6012 -689.549 -1696 201 198 201
-69.5935 -685.036 -1685 203 199 202
-65.8286 -682.558 -1679 203 199 202
-62.1637 -680.895 -1675 203 199 203
-58.551 -679.641 -1672 202 198 203
-55.0831 -680.015 -1673 204 197 205
-51.4883 -678.765 -1670 202 197 203
-47.9926 -678.737 -1670 203 199 204
-44.3375 -676.272 -1664 202 198 203
-40.8307 -675.841 -1663 199 195 200
-37.2834 -674.599 -1660 188 184 189
-33.7694 -673.766 -1658 188 185 188
-30.2642 -672.935 -1656 196 193 195
-26.8646 -674.544 -1660 199 196 197
-23.364 -673.717 -1658 201 197 199
-19.908 -674.111 -1659 197 193 196
-16.4479 -674.507 -1660 196 192 195
-12.9761 -674.499 -1660 199 195 198
-9.49276 -673.68 -1658 198 194 197
-6.03264 -674.488 -1660 200 196 199
-2.55936 -674.079 -1659 203 199 204
0.911704 -675.298 -1662 202 198 203
4.39554 -676.518 -1665 206 202 207
7.89647 -678.147 -1669 209 205 210
11.4349 -680.997 -1676 207 203 208
15.0205 -684.662 -1685 204 200 205
18.6989 -690.36 -1699 203 199 204
22.3964 -694.841 -1710 204 200 205
26.0949 -698.106 -1718 209 205 210
29.7235 -698.935 -1720 209 205 210
33.438 -701.391 -1726 180 176 181
37.0922 -702.224 -1728 171 167 172
40.7312 -702.653 -1729 169 166 171
44.4778 -704.709 -1734 63 60 65
48.2177 -706.362 -1738 41 38 43
-329.274 -708.662 -1713 157 154 159
-325.366 -708.056 -1712 196 193 198
-320.902 -706.211 -1708 185 182 187
-315.344 -701.889 -1698 200 197 202
-308.731 -695.093 -1682 212 209 215
-302.372 -688.715 -1667 204 203 210
-295.363 -680.69 -1648 204 203 210
-290.033 -676.388 -1638 201 200 207
-286.148 -675.394 -1636 201 198 205
-281.928 -673.575 -1632 199 198 203
-278.07 -672.585 -1630 200 200 204
-274.391 -672.011 -1629 202 202 206
-270.719 -671.439 -1628 202 202 206
-267.054 -670.869 -1627 202 202 206
-263.882 -671.538 -1629 203 205 205
-260.383 -671.384 -1629 206 208 209
-256.414 -669.996 -1626 204 206 208
-252.771 -669.435 -1625 198 200 203
-249.442 -669.7 -1626 194 195 198
-245.96 -669.555 -1626 190 190 194
-242.479 -669.412 -1626 181 180 190
-239.736 -671.33 -1631 175 175 181
-236.25 -671.191 -1631 172 172 176
-232.908 -671.465 -1632 173 173 177
-229.283 -670.919 -1631 175 173 178
-225.802 -670.786 -1631 176 173 178
-222.051 -669.833 -1629 176 173 178
-218.848 -670.527 -1631 174 171 175
-215.506 -670.811 -1632 170 167 170
-212.811 -673.152 -1638 181 178 183
-209.964 -675.084 -1643 193 190 196
-206.973 -676.605 -1647 196 193 200
-203.967 -678.129 -1651 193 190 197
-200.581 -678.422 -1652 191 188 195
-197.192 -678.717 -1653 195 192 199
-194.388 -681.066 -1659 196 193 200
-191.214 -682.186 -1662 199 196 203
-188.368 -684.538 -1668 202 199 206
-185.498 -686.892 -1674 204 201 206
-182.713 -689.657 -1681 203 200 205
-180.22 -693.654 -1691 193 190 195
-177.477 -696.831 -1699 188 185 190
-174.293 -698.369 -1703 191 188 193
-170.893 -699.089 -1705 188 185 188
-167.878 -701.451 -1711 183 180 183
-164.456 -702.174 -1713 177 174 177
-161.308 -704.129 -1718 164 164 164
-158.049 -705.676 -1722 151 149 150
-154.684 -706.815 -1725 58 55 56
-151.221 -707.546 -1727 39 36 41
-125.687 -706.575 -1726 38 35 39
-122.198 -707.322 -1728 79 76 81
-118.564 -707.252 -1728 150 146 149
-115.064 -708.003 -1730 163 159 162
-111.171 -706.301 -1726 164 161 162
-107.358 -705.01 -1723 172 168 169
-103.618 -704.131 -1721 176 172 173
-99.8878 -703.254 -1719 176 172 175
-95.9428 -700.743 -1713 175 171 174
-92.2395 -699.871 -1711 174 170 173
-88.4937 -698.591 -1708 175 171 176
-84.7611 -697.314 -1705 171 168 171
-81.042 -696.04 -1702 167 164 167
-77.2451 -693.949 -1697 177 174 178
-73.5133 -692.27 -1693 197 193 196
-69.5509 -688.14 -1683 208 204 207
-65.9841 -687.692 -1682 206 202 205
-62.1994 -684.793 -1675 205 201 205
-58.7598 -685.576 -1677 207 203 208
-55.0489 -683.09 -1671 206 199 207
-51.487 -682.242 -1669 203 198 204
-47.9914 -682.213 -1669 201 197 202
-44.3096 -679.325 -1662 201 197 202
-40.8049 -678.892 -1661 200 196 201
-37.2599 -677.643 -1658 186 182 187
-33.7685 -677.214 -1657 185 182 185
-30.2998 -677.196 -1657 192 189 191
-26.8153 -676.771 -1656 197 194 195
-23.3633 -677.165 -1657 197 193 194
-19.9074 -677.561 -1658 191 187 189
-16.4474 -677.959 -1659 193 189 192
-12.9756 -677.951 -1659 193 189 192
-9.50964 -678.353 -1660 196 192 195
-6.0396 -678.757 -1661 200 196 199
-2.56386 -678.755 -1661 200 196 201
0.912949 -679.572 -1663 201 197 202
4.39814 -680.39 -1665 206 202 207
7.9012 -682.029 -1669 205 201 206
11.4552 -685.712 -1678 202 198 203
15.0737 -690.624 -1690 201 197 202
18.7315 -695.129 -1701 201 197 202
22.462 -700.453 -1714 203 199 204
26.1404 -702.919 -1720 199 195 200
29.7925 -704.161 -1723 178 174 179
33.4767 -705.815 -1727 167 163 167
37.135 -706.653 -1729 168 164 168
40.802 -707.492 -1731 180 176 181
44.5289 -709.152 -1735 78 74 79
48.1066 -708.361 -1733 43 40 45
-329.469 -712.711 -1713 165 162 167
-325.939 -712.933 -1714 197 194 199
-321.468 -711.077 -1710 172 169 174
-315.902 -706.731 -1700 176 173 178
-309.648 -700.726 -1686 205 202 207
-303.276 -694.311 -1671 205 204 209
-296.613 -687.071 -1654 203 202 209
-290.735 -681.498 -1641 206 204 211
-286.316 -679.251 -1636 205 202 209
-282.44 -678.253 -1634 201 200 205
-278.404 -676.842 -1631 200 200 204
-274.553 -675.849 -1629 201 201 205
-271.211 -676.103 -1630 200 200 204
-267.704 -675.943 -1630 201 201 205
-263.875 -674.957 -1628 202 204 204
-260.536 -675.217 -1629 206 208 209
-257.196 -675.479 -1630 205 207 209
-253.231 -674.086 -1627 199 201 205
-249.742 -673.938 -1627 196 197 201
-246.407 -674.206 -1628 193 193 197
-242.92 -674.062 -1628 188 187 195
-239.877 -675.162 -1631 185 185 190
-236.388 -675.022 -1631 186 186 190
-232.901 -674.884 -1631 186 186 190
-229.417 -674.748 -1631 185 184 188
-225.934 -674.615 -1631 187 184 189
-222.454 -674.483 -1631 193 190 195
-219.11 -674.767 -1632 185 182 186
-216.028 -675.88 -1635 183 180 183
-212.935 -676.994 -1638 194 191 198
-210.343 -679.762 -1645 201 198 204
-206.968 -680.054 -1646 195 192 199
-204.209 -682.412 -1652 189 186 193
-200.819 -682.706 -1653 188 185 192
-197.666 -683.829 -1656 194 191 198
-194.384 -684.54 -1658 197 194 201
-191.325 -686.078 -1662 199 196 203
-188.139 -687.205 -1665 203 200 207
-185.606 -690.81 -1674 205 202 207
-183.037 -694.416 -1683 200 197 202
-180.325 -697.611 -1691 193 190 195
-177.581 -700.806 -1699 190 187 192
-174.599 -703.178 -1705 190 187 192
-171.393 -704.727 -1709 187 184 187
-167.976 -705.452 -1711 185 182 185
-164.744 -707.004 -1715 179 176 179
-161.308 -707.734 -1717 164 164 164
-158.049 -709.289 -1721 153 151 152
-154.774 -710.847 -1725 71 68 69
-151.747 -713.642 -1732 48 45 50
-125.978 -711.84 -1729 43 40 44
-122.268 -711.356 -1728 88 85 89
-118.633 -711.286 -1728 148 145 148
-115.065 -711.629 -1729 163 160 163
-111.235 -710.329 -1726 165 162 163
-107.42 -709.03 -1723 174 170 171
-103.678 -708.146 -1721 182 178 179
-100.004 -707.676 -1720 183 179 182
-95.8863 -703.916 -1711 183 179 182
-92.347 -704.272 -1712 181 177 181
-88.4412 -701.752 -1706 178 174 179
-84.7108 -700.468 -1703 173 170 173
-80.946 -698.774 -1699 171 168 172
-77.2443 -697.494 -1696 167 164 169
-73.3821 -694.572 -1689 173 170 173
-69.5911 -692.063 -1683 196 192 195
-65.8653 -689.968 -1678 212 208 211
-62.2726 -689.108 -1676 211 207 211
-58.5835 -687.018 -1671 208 204 209
-55.1137 -687.396 -1672 208 201 209
-51.5168 -686.131 -1669 203 198 204
-47.9904 -685.691 -1668 199 195 200
-44.3085 -682.787 -1661 199 195 200
-40.8285 -682.763 -1661 199 195 200
-37.2589 -681.096 -1657 184 180 185
-33.7676 -680.664 -1656 177 174 177
-30.2807 -680.234 -1655 183 180 182
-26.8469 -681.04 -1657 187 184 185
-23.3768 -681.025 -1657 190 186 187
-19.9309 -681.835 -1659 186 182 184
-16.4569 -681.824 -1659 193 189 192
-12.9675 -680.994 -1657 197 193 196
-9.50363 -681.398 -1658 201 197 200
-6.0395 -682.216 -1660 207 203 206
-2.56374 -682.213 -1660 211 207 212
0.912886 -683.035 -1662 212 208 213
4.40075 -684.269 -1665 208 204 209
7.91521 -686.739 -1671 204 200 205
11.4756 -690.443 -1680 205 201 206
15.1002 -695.383 -1692 205 201 206
18.7755 -700.324 -1704 206 202 207
22.4619 -704.036 -1713 203 199 204
26.186 -707.749 -1722 177 173 178
29.827 -708.587 -1724 153 150 153
33.496 -709.838 -1727 149 146 149
37.178 -711.092 -1730 162 158 161
40.8729 -712.348 -1733 167 163 168
44.632 -714.428 -1738 85 81 86
48.3013 -714.866 -1739 48 45 50
-328.51 -714.257 -1707 158 155 160
-324.611 -713.644 -1706 200 197 201
-320.53 -712.615 -1704 169 167 172
-316.09 -710.753 -1700 153 151 156
-310.2 -705.55 -1688 193 192 197
-304.364 -700.352 -1676 204 204 208
-298.046 -693.905 -1661 203 202 209
-292.149 -688.299 -1648 206 205 212
-287.012 -684.368 -1639 208 205 212
-282.78 -682.529 -1635 204 204 208
-278.74 -681.11 -1632 202 202 206
-274.884 -680.111 -1630 201 201 205
-271.538 -680.366 -1631 199 199 203
-267.698 -679.371 -1629 197 197 201
-264.517 -680.047 -1631 196 198 196
-261.01 -679.891 -1631 199 201 202
-257.348 -679.321 -1630 199 201 203
-253.537 -678.336 -1628 198 200 204
-249.89 -677.77 -1627 200 201 205
-246.703 -678.457 -1629 204 204 208
-243.362 -678.728 -1630 203 202 209
-240.312 -679.834 -1633 200 200 206
-236.962 -680.109 -1634 200 200 204
-233.467 -679.97 -1634 195 194 200
-229.974 -679.833 -1634 193 191 197
-226.206 -678.866 -1632 195 192 197
-222.722 -678.733 -1632 193 190 195
-219.239 -678.603 -1632 189 186 191
-216.287 -680.137 -1636 195 192 197
-213.19 -681.258 -1639 203 200 207
-210.211 -682.796 -1643 200 197 204
-207.342 -684.75 -1648 192 189 194
-204.453 -686.706 -1653 186 183 190
-201.059 -687.002 -1654 191 188 195
-197.782 -687.715 -1656 195 192 199
-194.498 -688.43 -1658 199 196 203
-191.438 -689.977 -1662 201 198 205
-188.362 -691.526 -1666 203 200 207
-185.937 -695.566 -1676 205 202 208
-183.362 -699.193 -1685 195 192 197
-180.751 -702.82 -1694 188 186 191
-177.58 -704.374 -1698 187 184 189
-174.394 -705.929 -1702 188 185 190
-171.093 -707.072 -1705 190 187 191
-168.074 -709.461 -1711 188 185 189
-164.744 -710.607 -1714 180 177 180
-161.496 -712.169 -1718 163 163 163
-158.325 -714.148 -1723 153 153 153
-154.685 -714.056 -1723 86 85 85
-151.485 -716.038 -1728 62 59 64
-126.125 -716.297 -1730 56 53 56
-122.411 -715.81 -1729 103 100 103
-118.633 -714.912 -1727 151 148 151
-115.198 -716.085 -1730 161 158 160
-111.558 -716.019 -1730 164 161 162
-107.482 -713.058 -1723 168 165 166
-103.678 -711.754 -1720 177 173 174
-100.12 -712.109 -1721 181 178 180
-96.1666 -709.569 -1715 183 179 182
-92.4008 -708.272 -1712 183 179 183
-88.5447 -706.151 -1707 182 178 183
-84.7103 -704.032 -1702 179 176 181
-80.8501 -701.502 -1696 176 173 178
-77.1526 -700.215 -1693 176 173 178
-73.4247 -698.517 -1689 170 167 171
-69.5489 -695.166 -1681 174 171 174
-65.9823 -694.713 -1680 193 189 192
-62.346 -693.435 -1677 209 205 209
-58.793 -692.987 -1676 211 207 212
-55.1787 -691.713 -1673 212 205 213
-51.6394 -691.268 -1672 207 202 208
-48.0182 -689.586 -1668 202 198 203
-44.3343 -686.664 -1661 197 193 198
-40.8277 -686.226 -1660 198 194 199
-37.2581 -684.55 -1656 187 182 187
-33.7464 -683.703 -1654 178 175 177
-30.2617 -683.271 -1653 173 170 171
-26.8464 -684.494 -1656 172 169 169
-23.3904 -684.893 -1657 172 168 169
-19.9304 -685.293 -1658 178 175 177
-16.4764 -686.109 -1660 191 187 190
-12.9827 -685.274 -1658 198 195 198
-9.52058 -686.094 -1660 204 200 204
-6.03921 -685.677 -1659 210 206 210
-2.56672 -686.501 -1661 214 210 214
0.913586 -686.914 -1662 212 208 212
4.40338 -688.155 -1665 204 200 205
7.91999 -690.639 -1671 204 200 204
11.4686 -693.537 -1678 209 205 209
15.0914 -698.505 -1690 210 206 211
18.7865 -704.301 -1704 209 205 210
22.5274 -709.687 -1717 196 192 197
26.1557 -710.528 -1719 158 155 160
29.8617 -713.024 -1725 148 145 148
33.4768 -713.043 -1725 148 144 147
37.1781 -714.717 -1729 158 154 155
40.8023 -714.74 -1729 196 189 194
44.5294 -716.418 -1733 109 103 107
48.0237 -714.378 -1728 59 56 58
-329.092 -719.148 -1709 150 147 151
-325.376 -718.952 -1709 201 198 202
-321.287 -717.917 -1707 180 180 184
-316.837 -716.043 -1703 147 147 151
-311.672 -712.491 -1695 180 180 184
-305.818 -707.263 -1683 200 200 204
-299.48 -700.779 -1668 201 200 206
-293.21 -694.3 -1653 204 203 209
-287.708 -689.507 -1642 206 204 210
-282.949 -686.397 -1635 206 205 209
-278.735 -684.55 -1631 205 205 208
-275.048 -683.964 -1630 203 203 207
-271.533 -683.801 -1630 201 201 205
-267.857 -683.22 -1629 199 199 203
-264.837 -684.32 -1632 196 198 197
-261.486 -684.582 -1633 200 202 203
-257.659 -683.588 -1631 207 209 211
-253.843 -682.598 -1629 209 211 215
-250.499 -682.867 -1630 209 211 214
-246.85 -682.299 -1629 212 213 216
-243.656 -682.991 -1631 215 214 222
-240.455 -683.684 -1633 206 205 212
-237.248 -684.38 -1635 189 190 196
-233.463 -683.402 -1633 180 180 187
-230.111 -683.683 -1634 183 183 189
-226.202 -682.292 -1631 190 188 195
-222.99 -682.995 -1633 198 196 202
-219.369 -682.446 -1632 198 195 201
-216.68 -684.825 -1638 202 199 204
-213.707 -686.369 -1642 201 198 206
-210.847 -688.333 -1647 194 191 198
-207.842 -689.881 -1651 188 185 192
-204.945 -691.847 -1656 188 185 192
-201.543 -692.145 -1657 196 193 200
-198.018 -692.026 -1657 199 196 204
-194.847 -693.163 -1660 202 199 207
-191.781 -694.718 -1664 204 201 208
-188.813 -696.693 -1669 204 201 208
-186.491 -701.173 -1680 201 198 204
-183.906 -704.82 -1689 191 188 193
-180.964 -707.215 -1695 187 186 191
-177.894 -709.195 -1700 190 188 192
-174.702 -710.759 -1704 192 189 194
-171.595 -712.742 -1709 193 190 195
-168.37 -714.31 -1713 191 188 191
-165.129 -715.879 -1717 181 178 181
-161.874 -717.45 -1721 162 161 161
-158.326 -717.773 -1722 154 153 153
-154.776 -718.097 -1723 87 85 86
-151.487 -719.674 -1727 61 58 62
-126.126 -719.934 -1729 55 52 55
-122.624 -720.693 -1731 110 107 110
-118.978 -720.622 -1731 151 148 151
-115.266 -720.137 -1730 158 155 157
-111.495 -719.238 -1728 164 161 162
-107.795 -718.757 -1727 170 167 168
-103.86 -716.613 -1722 175 172 174
-100.179 -716.137 -1721 177 174 176
-96.1107 -712.751 -1713 181 177 180
-92.401 -711.863 -1711 183 179 183
-88.5447 -709.73 -1706 183 179 185
-84.8596 -708.847 -1704 183 178 184
-80.9929 -706.302 -1698 182 177 182
-77.2433 -704.592 -1694 181 178 183
-73.4243 -702.052 -1688 179 175 180
-69.7138 -700.347 -1684 174 170 175
-66.0602 -699.059 -1681 178 174 179
-62.4196 -697.774 -1678 194 190 195
-58.8625 -697.322 -1677 209 205 210
-55.343 -697.289 -1677 214 210 215
-51.7005 -695.594 -1673 212 208 213
-48.1328 -694.733 -1671 209 205 210
-44.4671 -692.211 -1665 202 198 203
-40.8762 -690.524 -1661 198 192 198
-37.3024 -688.838 -1657 181 174 180
-33.807 -688.401 -1656 165 161 162
-30.3161 -687.967 -1655 169 166 166
-26.8782 -688.781 -1657 177 175 173
-23.4181 -689.182 -1658 190 187 188
-19.9541 -689.585 -1659 202 198 200
-16.4761 -689.575 -1659 207 203 205
-12.9982 -689.566 -1659 210 207 212
-9.5146 -689.144 -1658 214 210 215
-6.0355 -688.724 -1657 213 209 214
-2.56197 -688.721 -1657 209 205 208
0.914078 -690.799 -1662 204 200 203
4.4058 -692.048 -1665 201 197 202
7.9151 -693.714 -1669 205 201 205
11.4891 -698.291 -1680 208 204 208
15.1269 -703.703 -1693 203 199 204
18.8196 -709.116 -1706 205 201 206
22.5145 -712.87 -1715 186 182 187
26.2167 -715.794 -1722 152 149 154
29.9313 -718.304 -1728 152 148 151
33.5741 -718.739 -1729 147 143 145
37.2431 -719.591 -1731 181 176 177
40.8971 -720.03 -1732 225 218 222
44.5814 -720.886 -1734 137 131 134
47.9963 -717.588 -1726 66 63 64
-327.941 -720.248 -1702 138 135 140
-324.81 -721.32 -1705 197 194 199
-321.292 -721.548 -1706 197 197 201
-316.842 -719.664 -1702 174 174 178
-312.228 -717.36 -1697 170 170 174
-307.093 -713.792 -1689 190 190 194
-300.918 -707.693 -1675 202 202 206
-294.274 -700.332 -1658 203 203 207
-288.758 -695.51 -1647 204 204 208
-283.812 -691.96 -1639 205 205 208
-279.587 -690.102 -1635 206 206 208
-275.55 -688.669 -1632 204 204 208
-272.363 -689.348 -1634 201 201 204
-268.84 -689.186 -1634 199 199 203
-264.996 -688.182 -1632 196 198 198
-261.482 -688.024 -1632 197 199 200
-257.655 -687.025 -1630 199 202 203
-253.839 -686.028 -1628 204 208 209
-250.188 -685.456 -1627 210 212 214
-246.846 -685.728 -1628 211 213 215
-243.203 -685.16 -1627 206 205 213
-240.304 -686.7 -1631 197 197 205
-237.245 -687.82 -1634 189 191 198
-233.173 -685.995 -1630 183 185 191
-229.966 -686.698 -1632 173 174 181
-226.198 -685.72 -1630 177 176 184
-222.986 -686.427 -1632 176 175 182
-219.634 -686.716 -1633 178 176 182
-216.809 -688.688 -1638 191 188 193
-213.834 -690.241 -1642 199 196 203
-211.101 -692.636 -1648 189 186 194
-208.217 -694.612 -1653 188 185 193
-205.067 -695.749 -1656 191 188 195
-201.906 -696.888 -1659 197 194 201
-198.255 -696.349 -1658 201 198 206
-195.316 -698.331 -1663 206 203 210
-192.472 -700.735 -1669 206 203 210
-189.604 -703.14 -1675 205 202 207
-187.046 -706.806 -1684 198 195 201
-184.233 -709.633 -1691 189 186 193
-181.178 -711.622 -1696 189 186 191
-177.79 -712.355 -1698 195 192 197
-174.395 -713.089 -1700 196 193 198
-171.194 -714.664 -1704 195 192 197
-168.175 -717.079 -1710 191 188 192
-165.227 -719.915 -1717 182 179 182
-161.875 -721.076 -1720 162 159 160
-158.604 -722.657 -1724 156 152 154
-155.228 -723.822 -1727 84 81 83
-152.279 -727.083 -1735 54 51 52
-126.638 -726.504 -1735 56 53 56
-123.051 -726.849 -1736 112 109 112
-119.392 -726.777 -1736 152 149 150
-115.667 -726.288 -1735 159 156 157
-111.56 -723.291 -1728 166 163 164
-107.859 -722.808 -1727 175 172 173
-103.861 -720.234 -1721 180 177 179
-100.122 -719.336 -1719 182 178 181
-96.3358 -718.023 -1716 182 178 181
-92.5635 -716.712 -1713 183 179 183
-88.7008 -714.566 -1708 185 181 188
-84.9096 -712.841 -1704 187 180 186
-81.2794 -712.374 -1703 185 178 184
-77.2433 -708.144 -1693 186 182 187
-73.6416 -707.681 -1692 188 184 189
-69.8379 -705.129 -1686 191 187 192
-66.2171 -704.253 -1684 186 182 187
-62.6053 -703.378 -1682 184 180 185
-59.0025 -702.506 -1680 190 186 191
-55.5408 -703.308 -1682 206 202 207
-51.8237 -700.768 -1676 211 207 212
-48.19 -699.066 -1672 210 206 211
-44.52 -696.53 -1666 204 200 205
-40.9249 -694.832 -1662 200 194 200
-37.3469 -693.137 -1658 192 185 191
-33.8473 -692.698 -1657 192 189 191
-30.3706 -692.679 -1657 205 203 204
-26.894 -692.662 -1657 207 204 205
-23.4178 -692.647 -1657 211 208 209
-19.9658 -693.471 -1659 213 210 211
-16.4957 -693.878 -1660 213 209 210
-13.0059 -693.451 -1659 214 210 213
-9.53756 -694.281 -1661 213 209 212
-6.05002 -693.858 -1660 209 205 208
-2.56672 -693.438 -1659 203 199 202
0.914571 -694.691 -1662 201 197 201
4.4164 -697.201 -1668 203 199 204
7.94364 -699.712 -1674 203 199 204
11.4959 -702.226 -1680 201 197 202
15.1628 -708.922 -1696 198 194 199
18.8418 -713.53 -1707 202 198 203
22.5539 -717.722 -1717 180 176 180
26.1865 -718.573 -1719 153 149 152
29.8797 -720.679 -1724 152 148 151
33.5163 -721.116 -1725 185 180 183
37.179 -721.973 -1727 224 218 220
40.8503 -722.832 -1729 232 225 229
44.5305 -723.694 -1731 163 157 160
47.9969 -721.213 -1725 67 64 65
-327.176 -722.172 -1697 131 128 134
-324.435 -724.101 -1702 195 192 197
-321.11 -724.756 -1704 197 197 201
-317.22 -724.137 -1703 202 202 206
-312.601 -721.82 -1698 190 190 194
-307.643 -718.656 -1691 188 188 192
-301.999 -713.797 -1680 197 197 201
-295.872 -707.669 -1666 199 199 203
-289.985 -701.97 -1653 201 201 205
-284.676 -697.549 -1643 202 202 206
-280.44 -695.68 -1639 203 203 207
-276.054 -693.39 -1634 202 202 206
-272.527 -693.224 -1634 200 200 203
-269.002 -693.061 -1634 197 197 199
-265.155 -692.051 -1632 196 198 198
-261.64 -691.892 -1632 194 196 197
-257.968 -691.311 -1631 193 195 197
-254.148 -690.309 -1629 202 204 206
-250.646 -690.156 -1629 209 211 213
-246.994 -689.583 -1628 204 206 208
-243.798 -690.282 -1630 196 198 205
-240.301 -690.136 -1630 200 201 209
-237.096 -690.839 -1632 203 205 212
-233.313 -689.851 -1630 207 206 213
-230.104 -690.558 -1632 200 200 207
-226.611 -690.42 -1632 196 195 203
-223.394 -691.131 -1634 204 201 208
-219.9 -690.997 -1634 202 199 206
-217.204 -693.403 -1640 196 192 199
-214.484 -695.81 -1646 194 191 199
-211.227 -696.528 -1648 191 188 196
-208.72 -699.782 -1656 191 190 197
-205.562 -700.926 -1659 197 194 201
-202.027 -700.803 -1659 201 198 205
-198.853 -701.95 -1662 204 201 209
-195.785 -703.521 -1666 207 204 212
-192.933 -705.938 -1672 209 206 213
-189.83 -707.512 -1676 204 201 207
-187.269 -711.198 -1685 193 190 197
-184.234 -713.197 -1690 187 184 191
-181.287 -715.619 -1696 191 188 193
-177.896 -716.355 -1698 198 195 200
-174.705 -717.937 -1702 200 197 202
-171.397 -719.099 -1705 198 195 200
-168.373 -721.528 -1711 193 190 193
-165.133 -723.115 -1715 180 177 179
-161.972 -725.125 -1720 162 159 160
-158.883 -727.559 -1726 156 152 154
-155.59 -729.151 -1730 85 81 84
-152.194 -730.323 -1733 54 51 53
-126.787 -731.004 -1736 60 57 60
-123.124 -730.93 -1736 112 109 112
-119.394 -730.436 -1735 151 148 149
-115.669 -729.945 -1734 158 155 156
-111.691 -727.772 -1729 164 161 162
-107.985 -727.286 -1728 174 171 172
-104.043 -725.119 -1723 179 176 177
-100.181 -723.374 -1719 184 180 183
-96.2807 -721.212 -1714 186 182 185
-92.5645 -720.314 -1712 185 181 184
-88.7534 -718.578 -1708 184 180 185
-85.1595 -718.526 -1708 186 179 185
-81.423 -717.214 -1705 188 182 187
-77.6086 -715.064 -1700 186 182 187
-73.7289 -712.074 -1693 188 184 189
-69.8378 -708.667 -1685 191 187 192
-66.3744 -709.468 -1687 198 194 199
-62.8287 -709.429 -1687 198 194 199
-59.2836 -709.393 -1687 194 190 195
-55.5737 -707.256 -1682 193 189 194
-51.9164 -705.542 -1678 203 199 204
-48.2474 -703.41 -1673 209 205 210
-44.5463 -700.44 -1666 208 204 209
-40.9491 -698.733 -1662 202 196 202
-37.4817 -699.13 -1663 193 186 192
-33.9491 -698.267 -1661 198 195 198
-30.4802 -698.669 -1662 205 202 204
-26.9749 -698.231 -1661 205 202 203
-23.4599 -697.376 -1659 208 205 206
-19.9897 -697.783 -1660 210 205 207
-16.5054 -697.772 -1660 212 206 209
-13.0291 -698.184 -1661 212 208 211
-9.53163 -697.336 -1659 209 205 208
-6.05342 -697.752 -1660 205 201 204
-2.56507 -696.489 -1657 203 199 202
0.914179 -697.75 -1660 203 199 203
4.40847 -699.432 -1664 203 199 204
7.95303 -704.06 -1675 201 197 202
11.537 -708.269 -1685 202 198 203
15.2164 -715.002 -1701 198 194 199
18.853 -717.535 -1707 199 195 200
22.5148 -720.069 -1713 167 163 167
26.2172 -723.026 -1720 156 152 155
29.8628 -723.884 -1722 191 187 190
33.5167 -724.743 -1724 229 224 227
37.2011 -726.026 -1727 234 227 231
40.851 -726.469 -1728 231 224 228
44.5312 -727.336 -1730 174 169 172
48.0533 -725.681 -1726 70 67 68
-325.014 -729.015 -1704 196 193 198
-321.117 -728.39 -1703 200 200 204
-317.413 -728.195 -1703 205 205 209
-312.607 -725.437 -1697 200 200 204
-308.194 -723.538 -1693 180 180 184
-302.722 -719.078 -1683 190 190 194
-296.23 -712.06 -1667 193 193 197
-290.512 -706.756 -1655 194 193 200
-285.022 -701.884 -1644 197 196 202
-280.781 -700.004 -1640 198 198 202
-276.56 -698.128 -1636 198 198 202
-273.026 -697.96 -1636 198 198 201
-269.33 -697.369 -1635 195 195 197
-265.804 -697.206 -1635 193 195 195
-261.798 -695.767 -1632 194 196 197
-257.966 -694.756 -1630 195 197 199
-254.458 -694.601 -1630 200 202 204
-250.49 -693.169 -1627 202 204 206
-247.144 -693.444 -1628 200 201 204
-243.497 -692.869 -1627 199 201 208
-240.151 -693.148 -1628 205 206 213
-236.804 -693.43 -1629 210 209 217
-233.454 -693.713 -1630 216 214 220
-230.102 -693.998 -1631 215 213 219
-226.748 -694.285 -1632 205 204 211
-223.528 -695 -1634 209 206 212
-220.572 -696.566 -1638 208 205 211
-217.732 -698.56 -1643 196 191 199
-214.874 -700.555 -1648 194 191 199
-211.611 -701.276 -1650 201 198 206
-208.341 -701.999 -1652 201 200 207
-205.561 -704.424 -1658 203 201 208
-202.148 -704.725 -1659 205 202 209
-199.092 -706.303 -1663 208 205 213
-196.138 -708.308 -1668 209 206 213
-193.395 -711.162 -1675 208 205 212
-190.511 -713.593 -1681 199 196 203
-187.937 -717.3 -1690 190 187 194
-184.454 -717.612 -1691 189 186 193
-181.502 -720.048 -1697 196 193 198
-177.898 -719.939 -1697 202 199 204
-174.604 -721.106 -1700 204 201 206
-171.098 -721.426 -1701 201 198 203
-167.982 -723.444 -1706 194 191 194
-165.136 -726.737 -1714 182 179 180
-162.163 -729.606 -1721 162 159 160
-159.07 -732.053 -1727 155 151 153
-156.043 -734.925 -1734 92 88 91
-152.812 -736.951 -1739 59 55 58
-126.789 -734.669 -1735 59 56 59
-123.411 -736.288 -1739 106 103 106
-119.672 -735.792 -1738 148 145 146
-115.939 -735.298 -1737 158 155 156
-111.887 -732.689 -1731 160 157 158
-108.113 -731.777 -1729 170 167 168
-104.105 -729.174 -1723 177 174 175
-100.066 -726.15 -1716 179 175 178
-96.3945 -725.668 -1715 177 173 176
-92.6197 -724.342 -1712 177 173 177
-88.9624 -723.865 -1711 178 174 179
-85.2104 -722.544 -1708 180 174 179
-81.4717 -721.225 -1705 181 174 180
-77.7464 -719.908 -1702 179 175 180
-73.9037 -717.325 -1696 181 177 182
-70.0454 -714.321 -1689 183 179 184
-66.4927 -714.28 -1689 186 182 187
-62.7916 -712.55 -1685 194 190 195
-59.3189 -713.359 -1687 202 198 203
-55.5407 -710.365 -1680 197 193 198
-51.9472 -709.487 -1678 195 191 196
-48.1895 -706.075 -1670 197 193 198
-44.5194 -703.51 -1664 201 197 202
-41.0228 -703.485 -1664 203 197 203
-37.504 -703.039 -1663 187 180 186
-34.0102 -703.017 -1663 192 189 192
-30.535 -703.421 -1664 204 201 203
-27.0235 -702.981 -1663 207 204 205
-23.5163 -702.543 -1662 203 199 201
-20.0136 -702.107 -1661 202 198 200
-16.5252 -702.097 -1661 201 196 199
-13.0526 -702.933 -1663 200 196 199
-9.55446 -702.504 -1662 198 194 198
-6.06434 -702.499 -1662 200 196 200
-2.57117 -701.651 -1660 201 197 200
0.918535 -704.609 -1667 201 196 200
4.42174 -705.034 -1668 203 197 202
7.97216 -709.264 -1678 204 198 204
11.5507 -712.652 -1686 204 198 204
15.2525 -720.268 -1704 198 194 199
18.8755 -721.969 -1708 195 191 196
22.5678 -725.364 -1716 169 165 170
26.1873 -725.8 -1717 196 193 198
29.8459 -727.086 -1720 220 216 219
33.4979 -727.95 -1722 223 218 221
37.2017 -729.662 -1726 223 216 220
40.8755 -730.531 -1728 224 217 221
44.532 -730.98 -1729 179 174 177
47.9706 -728.048 -1722 69 66 67
-331.823 -739.742 -1719 84 81 87
-326.74 -736.527 -1712 189 186 191
-322.446 -735.037 -1709 198 198 202
-318.354 -733.98 -1707 203 203 207
-313.72 -731.636 -1702 204 204 208
-309.476 -730.155 -1699 172 172 176
-303.987 -725.67 -1689 185 185 189
-297.656 -719.042 -1674 188 188 192
-291.919 -713.707 -1662 191 190 196
-286.411 -708.807 -1651 195 195 200
-281.638 -705.628 -1644 197 197 201
-277.575 -704.169 -1641 196 196 200
-273.694 -703.142 -1639 195 195 198
-269.659 -701.689 -1636 193 193 196
-265.966 -701.096 -1635 190 192 192
-262.279 -700.506 -1634 192 194 194
-258.282 -699.061 -1631 195 197 199
-254.613 -698.476 -1630 196 198 200
-250.796 -697.464 -1628 195 197 199
-247.446 -697.741 -1629 196 196 200
-243.795 -697.162 -1628 193 193 200
-240.592 -697.871 -1630 197 197 205
-237.238 -698.153 -1631 206 205 213
-233.739 -698.01 -1631 211 208 214
-230.242 -697.869 -1631 211 208 213
-227.303 -699.441 -1635 206 205 212
-224.348 -701.014 -1639 208 205 210
-221.11 -701.734 -1641 204 201 205
-218.13 -703.31 -1645 200 197 203
-215.135 -704.889 -1649 207 204 211
-211.739 -705.186 -1650 210 207 215
-208.594 -706.341 -1653 206 204 211
-205.562 -707.924 -1657 206 203 210
-202.393 -709.082 -1660 207 204 211
-199.452 -711.095 -1665 210 207 215
-196.492 -713.11 -1670 209 206 213
-193.743 -715.981 -1677 201 198 205
-190.626 -717.572 -1681 190 187 194
-187.828 -720.445 -1688 189 186 193
-184.238 -720.332 -1688 195 192 199
-181.398 -723.208 -1695 202 199 204
-177.901 -723.526 -1696 204 201 206
-174.607 -724.699 -1699 204 201 206
-171.201 -725.447 -1701 202 199 204
-168.281 -728.329 -1708 195 192 196
-164.85 -729.081 -1710 182 179 181
-162.261 -733.672 -1721 161 158 159
-159.258 -736.559 -1728 154 151 153
-156.227 -739.447 -1735 94 90 93
-152.992 -741.484 -1740 60 57 60
-127.085 -740.04 -1738 59 56 59
-123.556 -740.816 -1740 103 100 103
-119.951 -741.168 -1741 148 145 146
-116.142 -740.246 -1739 157 154 155
-112.149 -738.048 -1734 162 159 160
-108.24 -736.28 -1730 172 169 170
-104.349 -734.513 -1726 176 173 174
-100.243 -731.047 -1718 179 175 178
-96.3962 -729.286 -1714 178 174 177
-92.6213 -727.952 -1711 180 176 179
-88.9638 -727.472 -1710 180 176 181
-85.3614 -727.42 -1710 179 174 180
-81.664 -726.519 -1708 178 173 178
-77.8388 -724.344 -1703 180 176 181
-74.0353 -722.171 -1698 179 175 180
-70.2534 -720.002 -1693 179 175 180
-66.572 -718.685 -1690 181 177 182
-62.8666 -716.945 -1686 189 185 190
-59.2841 -716.483 -1685 196 192 197
-55.5741 -714.322 -1680 200 196 201
-51.9165 -712.589 -1676 201 197 202
-48.1607 -709.158 -1668 199 195 200
-44.6265 -708.705 -1667 194 190 195
-41.0475 -707.403 -1664 182 177 182
-37.5716 -707.805 -1665 147 140 146
-34.092 -708.209 -1666 151 147 148
-30.59 -708.189 -1666 175 171 172
-27.0721 -707.747 -1665 193 189 190
-23.5587 -707.306 -1664 193 189 192
-20.0376 -706.443 -1662 197 193 196
-16.535 -706.007 -1661 194 190 193
-13.0447 -705.998 -1661 190 186 189
-9.56603 -706.841 -1663 192 188 192
-6.07164 -706.837 -1663 192 188 193
-2.57729 -706.834 -1663 194 190 193
0.919253 -708.534 -1667 200 194 197
4.43261 -710.236 -1671 201 194 198
7.98636 -714.065 -1680 206 199 205
11.5851 -718.321 -1690 201 195 201
15.2348 -723.005 -1701 200 196 200
18.9088 -726.841 -1710 185 181 185
22.555 -728.553 -1714 194 191 195
26.2031 -729.844 -1717 207 204 208
29.8812 -731.561 -1721 210 204 209
33.5181 -732.005 -1722 218 211 216
37.2027 -733.301 -1725 223 216 220
40.8291 -733.325 -1725 228 221 225
44.5589 -735.051 -1729 183 177 181
48.1109 -733.804 -1726 70 66 69
-325.987 -738.461 -1707 163 160 165
-322.267 -738.26 -1707 200 200 204
-318.923 -738.927 -1709 200 200 204
-314.282 -736.57 -1704 203 203 207
-310.031 -735.08 -1701 170 170 174
-304.534 -730.57 -1691 180 180 184
-298.551 -724.768 -1678 190 190 194
-292.099 -717.675 -1662 189 189 193
-286.587 -712.748 -1651 193 193 197
-282.154 -710.414 -1646 196 196 200
-278.084 -708.947 -1643 195 195 199
-274.029 -707.482 -1640 194 194 198
-270.485 -707.315 -1640 194 194 198
-266.617 -706.287 -1638 189 191 191
-263.082 -706.124 -1638 194 196 196
-258.916 -704.24 -1634 195 197 199
-255.081 -703.22 -1632 193 195 197
-251.412 -702.633 -1631 191 192 195
-247.75 -702.049 -1630 191 191 195
-244.243 -701.898 -1630 191 189 195
-241.183 -703.041 -1633 199 197 204
-237.529 -702.463 -1632 209 208 215
-234.169 -702.749 -1633 212 210 215
-230.665 -702.607 -1633 209 207 212
-227.859 -704.617 -1638 207 206 212
-224.622 -705.339 -1640 209 207 211
-221.514 -706.492 -1643 207 204 207
-218.528 -708.078 -1647 199 196 201
-215.135 -708.375 -1648 204 201 207
-211.74 -708.674 -1649 207 204 210
-208.469 -709.405 -1651 207 204 211
-205.439 -710.997 -1655 209 206 213
-202.394 -712.591 -1659 209 206 213
-199.454 -714.615 -1664 212 209 217
-196.494 -716.642 -1669 207 204 212
-193.977 -720.387 -1678 193 190 197
-190.742 -721.557 -1681 184 181 188
-187.608 -723.159 -1685 191 188 195
-184.35 -724.332 -1688 200 197 204
-181.401 -726.795 -1694 207 204 209
-178.114 -727.973 -1697 206 203 208
-174.405 -727.436 -1696 204 201 206
-171.204 -729.046 -1700 202 199 204
-168.284 -731.945 -1707 198 195 199
-165.143 -733.987 -1712 183 180 183
-162.265 -737.317 -1720 162 159 160
-159.355 -740.648 -1728 153 150 151
-156.322 -743.552 -1735 89 86 89
-152.997 -745.172 -1739 57 54 57
-148.883 -742.938 -1734 52 49 52
-127.528 -746.289 -1743 58 55 58
-123.915 -746.641 -1744 102 99 102
-120.161 -746.138 -1743 150 147 148
-116.346 -745.211 -1741 158 155 156
-112.281 -742.573 -1735 166 163 164
-108.431 -741.222 -1732 176 173 174
-104.291 -737.734 -1724 178 175 176
-100.304 -735.105 -1718 180 176 179
-96.5108 -733.761 -1715 183 179 182
-92.7314 -732.421 -1712 185 181 184
-89.1218 -732.365 -1712 184 180 185
-85.363 -731.029 -1709 183 179 184
-81.7134 -730.551 -1708 182 178 183
-77.8858 -728.364 -1703 182 178 183
-74.0799 -726.179 -1698 182 178 183
-70.2959 -723.997 -1693 185 181 186
-66.6516 -723.101 -1691 185 181 186
-62.9045 -720.923 -1686 185 181 186
-59.3551 -720.886 -1686 191 187 192
-55.6076 -718.286 -1680 196 192 197
-51.8859 -715.688 -1674 199 195 200
-48.2187 -713.521 -1669 198 194 199
-44.5998 -711.782 -1665 162 158 163
-41.0475 -710.902 -1663 138 132 137
-37.5491 -710.878 -1663 129 122 126
-34.0716 -711.284 -1664 126 122 123
-30.5718 -711.264 -1664 130 126 127
-27.0722 -711.247 -1664 156 152 153
-23.5728 -711.231 -1664 183 179 182
-20.0738 -711.218 -1664 191 187 190
-16.5649 -710.78 -1663 189 185 188
-13.0368 -709.061 -1659 196 191 194
-9.55441 -709.482 -1660 194 189 193
-6.08626 -712.041 -1666 193 188 194
-2.58341 -712.039 -1666 197 190 194
0.92307 -715.03 -1673 195 188 193
4.44859 -716.314 -1676 201 194 198
8.01033 -719.737 -1684 200 193 199
11.5989 -722.735 -1691 202 197 201
15.262 -727.872 -1703 190 186 189
18.9204 -730.874 -1710 184 180 183
22.595 -733.451 -1716 207 203 206
26.2341 -734.321 -1718 210 206 209
29.9342 -736.475 -1723 221 214 220
33.5384 -736.067 -1722 228 221 226
37.2898 -738.653 -1728 230 223 227
40.8537 -737.395 -1725 232 225 229
44.5085 -737.848 -1726 186 180 184
48.1401 -737.876 -1726 73 69 72
51.9219 -740.044 -1731 55 52 53
-328.674 -748.209 -1720 145 142 147
-323.978 -745.831 -1715 196 195 199
-320.241 -745.63 -1715 197 197 201
-315.584 -743.259 -1710 197 197 201
-310.77 -740.457 -1704 176 176 180
-305.264 -735.92 -1694 165 165 169
-299.448 -730.52 -1682 189 189 193
-293.51 -724.691 -1669 192 192 196
-288.154 -720.169 -1659 191 191 195
-283.014 -716.085 -1650 193 193 197
-278.933 -714.609 -1647 190 190 194
-274.7 -712.702 -1643 190 190 194
-271.147 -712.533 -1643 187 187 191
-267.107 -711.066 -1640 184 186 187
-262.762 -708.734 -1635 191 193 194
-258.917 -707.706 -1633 194 196 198
-255.395 -707.547 -1633 194 194 196
-251.567 -706.524 -1631 192 192 194
-248.358 -707.236 -1633 193 193 197
-245.143 -707.949 -1635 193 191 196
-241.479 -707.366 -1634 193 191 196
-237.966 -707.218 -1634 198 197 204
-234.456 -707.072 -1634 202 202 207
-231.231 -707.794 -1636 200 199 203
-227.999 -708.518 -1638 199 196 201
-224.76 -709.243 -1640 194 191 196
-221.785 -710.835 -1644 169 166 171
-218.662 -711.997 -1647 153 150 153
-215.137 -711.863 -1647 184 181 186
-211.613 -711.732 -1647 203 200 205
-208.217 -712.035 -1648 206 203 210
-205.441 -714.5 -1654 209 206 213
-202.64 -716.966 -1660 211 208 215
-200.056 -720.297 -1668 210 207 215
-196.85 -721.471 -1671 200 197 205
-193.864 -723.509 -1676 188 185 192
-190.746 -725.118 -1680 188 185 192
-187.612 -726.728 -1684 196 193 200
-184.353 -727.909 -1687 205 202 209
-181.191 -729.522 -1691 208 205 210
-178.118 -731.569 -1696 206 203 208
-174.923 -733.186 -1700 205 202 207
-171.409 -733.511 -1701 202 199 204
-168.387 -735.994 -1707 199 196 200
-165.34 -738.479 -1713 187 184 187
-162.176 -740.534 -1718 160 157 158
-159.452 -744.745 -1728 153 150 152
-156.327 -747.234 -1734 90 87 90
-152.738 -747.571 -1735 57 54 57
-148.459 -744.463 -1728 53 50 53
-127.898 -752.138 -1747 57 54 57
-124.062 -751.2 -1745 100 97 100
-120.235 -750.265 -1743 149 146 147
-116.417 -749.332 -1741 158 155 156
-112.609 -748.401 -1739 168 165 166
-108.497 -745.321 -1732 179 176 177
-104.658 -743.965 -1729 183 180 181
-100.423 -739.6 -1719 184 181 184
-96.6821 -738.679 -1717 186 182 185
-92.7337 -736.04 -1711 187 183 187
-89.1759 -736.415 -1712 186 182 187
-85.5149 -735.931 -1711 185 181 186
-81.8109 -735.02 -1709 186 182 187
-77.9789 -732.821 -1704 186 182 187
-74.2996 -731.915 -1702 186 182 187
-70.5047 -729.721 -1697 187 183 188
-66.7316 -727.529 -1692 187 183 188
-63.0548 -726.199 -1689 188 184 189
-59.356 -724.442 -1685 187 183 188
-55.6082 -721.828 -1679 193 189 194
-51.9793 -720.505 -1676 196 192 197
-48.3346 -718.755 -1672 182 178 183
-44.7072 -717.007 -1668 133 129 132
-41.097 -715.262 -1664 125 119 123
-37.6171 -715.668 -1665 119 112 116
-34.0923 -715.216 -1664 113 109 112
-30.5903 -715.196 -1664 118 114 117
-27.0886 -715.179 -1664 121 117 119
-23.6014 -715.593 -1665 142 135 141
-20.086 -715.15 -1664 175 168 173
-16.5749 -714.709 -1663 199 193 196
-13.0761 -714.7 -1663 200 194 195
-9.5718 -714.264 -1662 199 192 196
-6.08973 -715.978 -1666 196 190 196
-2.58955 -717.265 -1669 196 189 195
0.924347 -719.413 -1674 195 188 194
4.4646 -722.423 -1681 196 189 195
8.02482 -724.575 -1686 203 196 202
11.6199 -727.59 -1693 199 193 199
15.2803 -732.326 -1704 175 171 176
18.9429 -735.345 -1711 197 193 196
22.5957 -737.076 -1715 218 214 217
26.2807 -739.24 -1720 221 217 220
29.9175 -739.687 -1721 225 218 224
33.5393 -739.707 -1721 228 221 226
37.1829 -740.158 -1722 229 222 226
40.8076 -740.182 -1722 230 223 227
44.4839 -741.068 -1724 188 183 186
48.0297 -739.806 -1721 74 70 73
51.7735 -741.556 -1725 55 52 53
-330.791 -756.714 -1730 137 134 140
-325.504 -753.009 -1722 200 200 204
-321.375 -751.933 -1720 198 198 202
-316.335 -748.673 -1713 193 193 197
-311.876 -746.729 -1709 185 185 189
-306.355 -742.167 -1699 156 156 160
-300.347 -736.299 -1686 176 176 180
-294.221 -730 -1672 192 192 198
-288.854 -725.453 -1662 191 190 196
-283.705 -721.346 -1653 188 188 192
-279.445 -719.425 -1649 184 184 188
-275.372 -717.944 -1646 186 186 190
-271.48 -716.901 -1644 186 186 190
-267.436 -715.425 -1641 181 183 185
-263.569 -714.388 -1639 186 188 189
-259.395 -712.482 -1635 191 192 194
-255.866 -712.322 -1635 191 191 193
