ply
format ascii 1.0
comment Created by Open3D
element vertex 1339
property double x
property double y
property double z
property uchar red
property uchar green
property uchar blue
end_header
-241.88 -467.442 -1529 202 201 211
-238.832 -467.646 -1530 209 208 218
-235.474 -467.239 -1529 212 211 221
-232.274 -467.14 -1529 209 208 218
-228.776 -466.431 -1527 204 203 213
-225.732 -466.639 -1528 202 201 211
-222.103 -465.628 -1525 205 204 214
-218.632 -464.924 -1523 201 200 208
-215.454 -464.832 -1523 195 194 201
-212.418 -465.046 -1524 196 195 202
-209.104 -464.651 -1523 191 190 197
-206.067 -464.868 -1524 195 194 201
-203.028 -465.087 -1525 200 199 206
-199.855 -465.001 -1525 201 200 207
-196.297 -464.003 -1522 203 202 210
-193.007 -463.615 -1521 204 204 208
-189.598 -462.925 -1519 205 205 209
-186.199 -462.236 -1517 205 205 209
-182.689 -461.244 -1514 204 204 208
-179.43 -460.862 -1513 201 201 204
-176.177 -460.483 -1512 201 198 201
-173.044 -460.409 -1512 200 197 200
-170.025 -460.641 -1513 198 195 198
-167.114 -461.178 -1515 194 193 195
-164.196 -461.717 -1517 194 192 194
-161.165 -461.953 -1518 194 191 194
-157.923 -461.581 -1517 198 195 198
-154.788 -461.515 -1517 194 191 194
-151.455 -460.842 -1515 194 191 194
-148.327 -460.779 -1515 200 196 199
-145.104 -460.413 -1514 196 192 195
-142.075 -460.656 -1515 194 190 193
-139.042 -460.901 -1516 197 193 196
-136.007 -461.147 -1517 200 196 199
-133.056 -461.699 -1519 205 201 204
-130.099 -462.251 -1521 206 202 205
-127.05 -462.501 -1522 206 202 205
-123.917 -462.448 -1522 203 199 202
-120.865 -462.7 -1523 202 199 202
-117.809 -462.954 -1524 205 202 207
-114.6 -462.601 -1523 209 206 211
-111.616 -463.161 -1525 210 207 212
-108.553 -463.418 -1526 212 208 213
-105.487 -463.677 -1527 215 211 216
-102.619 -464.848 -1531 215 211 216
-99.7999 -466.324 -1536 215 210 218
-96.8357 -467.193 -1539 211 206 214
-94.1034 -469.278 -1546 208 203 211
-91.0491 -469.846 -1548 209 203 212
-88.1009 -471.022 -1552 209 203 212
-85.0823 -471.896 -1555 211 206 214
-82.3682 -474.592 -1564 214 209 217
-79.213 -474.862 -1565 214 209 217
-76.3942 -477.257 -1573 213 210 215
-73.4503 -479.046 -1579 215 211 216
-70.3046 -479.622 -1581 146 142 148
-67.2361 -480.807 -1585 140 140 144
-64.0306 -481.082 -1586 209 208 213
-60.63 -479.843 -1582 195 192 199
-56.9561 -476.179 -1570 68 68 76
-282.645 -475.541 -1540 91 94 105
-280.84 -477.89 -1548 194 196 207
-278.287 -479.004 -1552 195 196 207
-274.301 -477.65 -1548 203 204 215
-271.21 -477.841 -1549 205 206 218
-267.599 -477.108 -1547 211 210 222
-263.998 -476.377 -1545 213 212 224
-260.408 -475.648 -1543 215 214 226
-256.662 -474.612 -1540 215 214 224
-252.766 -473.27 -1536 213 212 222
-249.214 -472.546 -1534 210 209 219
-245.352 -471.207 -1530 204 203 213
-241.826 -470.487 -1528 199 198 208
-238.934 -470.999 -1530 205 204 214
-235.729 -470.898 -1530 210 209 219
-232.677 -471.105 -1531 211 210 220
-229.024 -470.083 -1528 207 206 216
-225.828 -469.986 -1528 208 207 217
-222.198 -468.967 -1525 208 207 217
-218.869 -468.565 -1524 201 200 208
-215.546 -468.165 -1523 196 195 203
-212.648 -468.688 -1525 196 195 202
-209.331 -468.29 -1524 192 191 198
-206.155 -468.202 -1524 195 194 201
-202.981 -468.114 -1524 201 200 207
-199.809 -468.028 -1524 204 203 211
-196.251 -467.022 -1521 204 203 211
-193.089 -466.939 -1521 204 204 208
-189.803 -466.551 -1520 204 204 208
-186.401 -465.856 -1518 204 204 208
-183.129 -465.471 -1517 204 204 208
-179.862 -465.087 -1516 202 201 205
-176.485 -464.397 -1514 201 198 201
-173.347 -464.323 -1514 199 196 198
-170.21 -464.249 -1514 198 195 197
-167.185 -464.484 -1515 193 193 195
-164.049 -464.414 -1515 194 192 194
-161.021 -464.651 -1516 196 193 196
-157.781 -464.277 -1515 199 196 199
-154.649 -464.21 -1515 194 191 194
-151.319 -463.533 -1513 196 193 196
-148.39 -464.082 -1515 201 198 201
-145.166 -463.713 -1514 199 196 199
-142.041 -463.652 -1514 202 198 201
-139.009 -463.898 -1515 204 201 204
-135.975 -464.146 -1516 203 200 203
-133.113 -465.008 -1519 207 203 206
-130.154 -465.564 -1521 207 203 206
-127.187 -466.122 -1523 203 199 202
-124.133 -466.374 -1524 199 195 199
-121.075 -466.628 -1525 197 193 197
-118.014 -466.884 -1526 201 198 203
-114.799 -466.528 -1525 206 203 208
-111.809 -467.092 -1527 208 205 210
-108.741 -467.351 -1528 210 206 211
-105.67 -467.612 -1529 212 208 213
-102.729 -468.485 -1532 214 210 215
-99.7771 -469.359 -1535 213 208 216
-96.9395 -470.847 -1540 210 205 213
-94.2648 -473.252 -1548 208 203 211
-91.264 -474.13 -1551 208 202 211
-88.3084 -475.315 -1555 209 203 212
-85.2277 -475.889 -1557 210 205 213
-82.2449 -477.076 -1561 211 206 214
-79.1957 -477.959 -1564 211 206 214
-76.4264 -480.676 -1573 211 208 214
-73.3416 -481.561 -1576 213 210 215
-70.2897 -482.753 -1580 148 144 149
-67.137 -483.335 -1582 139 139 143
-63.896 -483.308 -1582 206 204 209
-60.5405 -482.365 -1579 183 180 186
-57.0163 -479.896 -1571 65 64 72
-281.115 -476.134 -1531 65 67 78
-280.236 -480.054 -1544 183 184 196
-277.869 -481.487 -1549 197 198 210
-274.42 -481.057 -1548 201 202 214
-270.977 -480.627 -1547 207 208 220
-267.541 -480.2 -1546 212 211 223
-264.112 -479.774 -1545 212 211 222
-260.52 -479.039 -1543 213 212 222
-256.772 -477.996 -1540 213 212 222
-252.875 -476.644 -1536 213 212 222
-249.322 -475.915 -1534 209 208 218
-245.779 -475.188 -1532 203 202 212
-242.088 -474.151 -1529 196 195 205
-239.194 -474.668 -1531 198 197 207
-235.83 -474.255 -1530 200 199 209
-232.929 -474.774 -1532 202 201 211
-229.122 -473.434 -1528 202 201 211
-225.777 -473.026 -1527 206 205 215
-222.293 -472.31 -1525 207 206 216
-218.963 -471.905 -1524 201 200 208
-215.497 -471.192 -1522 198 197 205
-212.599 -471.719 -1524 199 198 206
-209.42 -471.628 -1524 193 192 200
-206.243 -471.539 -1524 196 195 202
-202.802 -470.832 -1522 203 202 209
-199.501 -470.436 -1521 205 204 211
-196.077 -469.733 -1519 205 204 212
-192.918 -469.649 -1519 205 205 209
-189.51 -468.948 -1517 204 204 208
-186.235 -468.558 -1516 203 203 207
-182.965 -468.17 -1515 204 204 208
-179.939 -468.401 -1516 203 202 206
-176.677 -468.016 -1515 201 198 201
-173.65 -468.249 -1516 198 195 197
-170.508 -468.176 -1516 198 195 196
-167.477 -468.412 -1517 193 193 195
-164.227 -468.032 -1516 193 191 194
-161.089 -467.962 -1516 196 193 196
-157.849 -467.585 -1515 202 199 202
-154.613 -467.21 -1514 196 193 196
-151.383 -466.836 -1513 194 191 194
-148.355 -467.08 -1514 195 192 195
-145.324 -467.326 -1515 192 189 192
-142.196 -467.264 -1515 198 195 198
-139.161 -467.512 -1516 203 200 203
-136.212 -468.07 -1518 199 196 199
-133.082 -468.013 -1518 194 190 193
-130.209 -468.881 -1521 191 187 190
-127.074 -468.826 -1521 191 187 190
-124.267 -470.005 -1525 193 189 194
-121.047 -469.645 -1524 194 190 195
-118.064 -470.21 -1526 196 193 198
-114.848 -469.852 -1525 204 201 206
-111.93 -470.728 -1528 208 205 210
-108.574 -469.757 -1525 208 204 209
-105.715 -470.943 -1529 209 205 210
-102.639 -471.207 -1530 208 204 209
-99.6243 -471.779 -1532 208 203 211
-96.8548 -473.585 -1538 207 202 210
-94.0612 -475.392 -1544 207 202 210
-91.1851 -476.892 -1549 208 203 211
-88.2892 -478.393 -1554 209 204 212
-85.2091 -478.971 -1556 210 205 213
-82.2798 -480.475 -1561 209 204 212
-79.2799 -481.672 -1565 209 204 212
-76.4102 -483.793 -1572 210 205 213
-73.4658 -485.607 -1578 212 207 213
-70.3194 -486.192 -1580 147 142 147
-67.1655 -486.778 -1582 140 140 143
-64.0039 -487.366 -1584 202 201 205
-60.6812 -486.724 -1582 172 169 174
-57.2221 -484.853 -1576 57 56 64
-279.952 -477.318 -1524 61 63 73
-280.358 -483.458 -1544 146 147 158
-278.349 -485.527 -1551 200 201 213
-274.894 -485.093 -1550 199 200 212
-271.27 -484.348 -1548 204 205 217
-267.831 -483.917 -1547 210 209 221
-263.885 -482.55 -1543 211 210 221
-260.296 -481.81 -1541 211 210 220
-256.717 -481.072 -1539 209 208 218
-252.985 -480.023 -1536 208 207 217
-249.267 -478.976 -1533 204 203 213
-245.885 -478.556 -1532 197 196 206
-242.352 -477.825 -1530 193 192 202
-239.297 -478.032 -1531 193 192 202
-236.395 -478.553 -1533 192 191 201
-233.03 -478.139 -1532 194 193 203
-229.522 -477.414 -1530 197 196 206
-226.023 -476.691 -1528 202 201 211
-222.535 -475.969 -1526 207 206 216
-219.058 -475.25 -1524 202 201 209
-215.732 -474.843 -1523 196 195 203
-212.831 -475.374 -1525 195 194 202
-209.511 -474.971 -1524 192 191 199
-206.197 -474.569 -1523 198 197 204
-202.889 -474.169 -1522 203 202 209
-199.587 -473.77 -1521 205 204 211
-196.162 -473.061 -1519 206 205 213
-193.001 -472.977 -1519 205 205 209
-189.717 -472.583 -1518 203 203 207
-186.438 -472.19 -1517 203 203 207
-183.165 -471.799 -1516 203 203 207
-180.017 -471.72 -1516 201 201 205
-176.637 -471.021 -1514 200 197 200
-173.61 -471.256 -1515 198 195 197
-170.356 -470.871 -1514 197 194 195
-167.328 -471.109 -1515 193 193 195
-164.19 -471.037 -1515 194 193 195
-160.946 -470.656 -1514 196 193 196
-157.708 -470.276 -1513 201 198 201
-154.68 -470.52 -1514 193 190 193
-151.549 -470.454 -1514 194 191 194
-148.419 -470.389 -1514 196 193 196
-145.482 -470.947 -1516 188 185 188
-142.444 -471.195 -1517 189 186 189
-139.22 -470.824 -1516 193 190 193
-136.091 -470.765 -1516 195 192 195
-132.963 -470.707 -1516 199 195 198
-130.008 -471.271 -1518 203 199 202
-127.045 -471.837 -1520 203 199 202
-124.076 -472.403 -1522 201 197 202
-120.94 -472.351 -1522 200 197 202
-117.96 -472.92 -1524 200 197 202
-114.897 -473.18 -1525 204 201 206
-111.905 -473.752 -1527 207 204 209
-108.905 -474.325 -1529 209 205 210
-105.829 -474.589 -1530 209 205 210
-102.884 -475.474 -1533 206 202 207
-99.7971 -475.741 -1534 207 202 210
-96.9592 -477.249 -1539 209 204 212
-94.1625 -479.069 -1545 210 205 213
-91.3419 -480.89 -1551 211 206 214
-88.3837 -482.091 -1555 209 204 212
-85.3552 -482.984 -1558 207 202 210
-82.5258 -485.118 -1565 207 202 210
-79.4152 -485.703 -1567 210 205 213
-76.5401 -487.839 -1574 212 207 215
-73.4973 -489.046 -1578 215 208 215
-70.4385 -490.255 -1582 149 142 148
-67.2367 -490.536 -1583 137 137 139
-64.0312 -490.817 -1584 207 205 209
-60.6688 -489.861 -1581 166 163 168
-57.2828 -488.596 -1577 62 61 68
-282.661 -490.65 -1556 118 119 129
-279.369 -490.526 -1556 201 202 213
-275.015 -488.513 -1550 200 201 213
-271.39 -487.762 -1548 205 206 218
-267.429 -486.384 -1544 211 210 222
-263.487 -485.007 -1540 209 208 219
-260.072 -484.577 -1539 206 205 215
-256.663 -484.148 -1538 204 203 213
-252.766 -482.777 -1534 201 200 210
-249.376 -482.352 -1533 199 198 208
-246.154 -482.243 -1533 200 199 209
-242.616 -481.507 -1531 202 201 211
-239.245 -481.087 -1530 201 200 210
-236.344 -481.611 -1532 196 195 205
-233.132 -481.508 -1532 194 193 203
-229.321 -480.15 -1528 190 189 199
-226.122 -480.05 -1528 191 190 200
-222.778 -479.638 -1527 198 197 208
-219.153 -478.599 -1524 200 199 208
-215.968 -478.504 -1524 198 197 205
-212.924 -478.724 -1525 199 198 206
-209.465 -478.004 -1523 193 192 200
-206.016 -477.285 -1521 198 197 204
-202.844 -477.196 -1521 205 204 211
-199.28 -476.167 -1518 205 204 211
-195.86 -475.453 -1516 204 203 211
-192.704 -475.369 -1516 204 204 208
-189.674 -475.599 -1517 204 204 208
-186.396 -475.203 -1516 203 203 206
-183.245 -475.123 -1516 202 202 206
-180.333 -475.67 -1518 200 200 204
-176.947 -474.965 -1516 199 196 199
-173.8 -474.889 -1516 197 194 197
-170.542 -474.501 -1515 197 194 196
-167.401 -474.427 -1515 194 194 196
-164.261 -474.355 -1515 196 195 197
-161.122 -474.284 -1515 198 195 198
-157.985 -474.215 -1515 197 194 196
-154.747 -473.834 -1514 188 185 187
-151.714 -474.08 -1515 193 190 193
-148.581 -474.015 -1515 199 196 199
-145.641 -474.577 -1517 187 184 187
-142.506 -474.514 -1517 184 181 184
-139.28 -474.14 -1516 187 184 187
-136.24 -474.393 -1517 190 187 190
-133.021 -474.022 -1516 196 193 196
-130.15 -474.903 -1519 203 200 203
-127.1 -475.16 -1520 204 200 205
-124.129 -475.73 -1522 204 200 205
-120.992 -475.677 -1522 203 200 205
-118.088 -476.563 -1525 203 200 205
-114.796 -475.887 -1523 203 200 205
-111.88 -476.776 -1526 206 203 208
-108.881 -477.353 -1528 211 205 211
-105.875 -477.931 -1530 209 203 209
-102.861 -478.511 -1532 206 200 206
-99.8402 -479.091 -1534 208 203 211
-96.938 -480.298 -1538 211 206 214
-94.142 -482.13 -1544 211 206 215
-91.2634 -483.651 -1549 212 206 215
-88.3649 -485.174 -1554 210 204 213
-85.4467 -486.697 -1559 208 202 211
-82.5614 -488.534 -1565 209 204 212
-79.6015 -490.059 -1570 212 207 215
-76.6218 -491.586 -1575 215 210 218
-73.4823 -492.178 -1577 214 208 214
-70.4244 -493.395 -1581 142 135 140
-67.2232 -493.677 -1582 138 138 140
-63.9375 -493.337 -1581 208 206 210
-60.6565 -492.998 -1580 156 153 158
-57.3801 -492.661 -1579 61 60 67
-282.773 -488.499 -1538 64 66 77
-282.787 -494.09 -1556 101 102 112
-279.134 -493.33 -1554 199 200 210
-274.959 -491.62 -1549 203 204 215
-271.334 -490.864 -1547 204 205 217
-267.547 -489.793 -1544 206 205 217
-263.603 -488.406 -1540 203 202 213
-260.186 -487.973 -1539 202 201 211
-256.776 -487.541 -1538 203 202 212
-253.207 -486.795 -1536 202 201 211
-249.812 -486.366 -1535 202 201 211
-246.262 -485.623 -1533 204 203 213
-242.882 -485.198 -1532 205 204 214
-239.194 -484.142 -1529 207 206 216
-236.294 -484.67 -1531 205 204 214
-232.93 -484.25 -1530 204 203 213
-229.422 -483.514 -1528 199 198 207
-225.925 -482.781 -1526 194 193 203
-222.73 -482.682 -1526 198 197 209
-219.393 -482.268 -1525 198 197 206
-215.921 -481.54 -1523 195 194 202
-212.877 -481.762 -1524 195 194 202
-209.694 -481.669 -1524 194 193 200
-206.106 -480.629 -1521 198 197 204
-202.8 -480.223 -1520 203 202 209
-199.368 -479.503 -1518 204 203 210
-196.075 -479.1 -1517 204 203 211
-192.788 -478.698 -1516 205 204 209
-189.757 -478.93 -1517 204 204 208
-186.724 -479.163 -1518 203 203 205
-183.446 -478.766 -1517 201 201 205
-180.293 -478.686 -1517 200 199 203
-177.024 -478.292 -1516 198 196 199
-173.991 -478.531 -1517 197 194 197
-170.73 -478.14 -1516 197 194 197
-167.695 -478.381 -1517 196 196 198
-164.658 -478.623 -1518 194 193 195
-161.405 -478.237 -1517 196 194 196
-158.158 -477.851 -1516 196 194 195
-154.916 -477.468 -1515 188 186 187
-151.78 -477.4 -1515 192 189 192
-148.646 -477.335 -1515 197 194 197
-145.608 -477.585 -1516 185 182 185
-142.568 -477.837 -1517 183 180 183
-139.341 -477.461 -1516 182 178 182
-136.209 -477.4 -1516 177 174 177
-133.079 -477.342 -1516 175 172 175
-130.206 -478.229 -1519 180 177 181
-127.239 -478.802 -1521 188 184 189
-124.183 -479.062 -1522 195 191 196
-121.124 -479.323 -1523 200 197 202
-118.062 -479.585 -1524 199 196 201
-114.997 -479.849 -1525 201 198 203
-111.929 -480.114 -1526 206 203 208
-108.999 -481.01 -1529 213 206 212
-106.059 -481.907 -1532 212 206 211
-103.04 -482.49 -1534 211 204 210
-99.9487 -482.76 -1535 210 205 212
-97.1061 -484.29 -1540 210 205 213
-94.183 -485.506 -1544 211 206 215
-91.3619 -487.352 -1550 214 207 216
-88.5171 -489.199 -1556 213 206 215
-85.5387 -490.419 -1560 212 205 214
-82.6501 -492.268 -1566 212 207 215
-79.636 -493.49 -1570 213 208 216
-76.6063 -494.714 -1574 214 209 217
-73.654 -496.567 -1580 213 208 213
-70.4103 -496.535 -1580 139 134 138
-67.2523 -497.134 -1582 146 146 148
-64.0057 -497.105 -1582 203 202 205
-60.606 -495.821 -1578 139 136 140
-57.2959 -495.167 -1576 57 56 64
-284.004 -499.452 -1562 87 89 101
-279.797 -497.728 -1557 193 194 206
-275.614 -496.005 -1552 201 202 213
-271.63 -494.605 -1548 201 202 214
-267.493 -492.887 -1543 199 200 210
-263.378 -491.171 -1538 198 198 208
-259.795 -490.416 -1536 202 201 211
-256.556 -490.301 -1536 203 202 212
-252.99 -489.549 -1534 201 200 210
-249.76 -489.436 -1534 200 197 209
-246.371 -489.007 -1533 198 196 208
-242.989 -488.579 -1532 199 198 210
-239.301 -487.515 -1529 205 204 216
-236.553 -488.365 -1532 204 203 214
-233.186 -487.942 -1531 201 200 210
-229.674 -487.202 -1529 196 195 204
-226.173 -486.463 -1527 198 197 205
-223.121 -486.682 -1528 201 200 209
-219.49 -485.628 -1525 197 196 204
-216.158 -485.213 -1524 195 194 202
-212.972 -485.118 -1524 196 195 203
-210.062 -485.661 -1526 194 193 202
-206.469 -484.614 -1523 199 198 207
-203.156 -484.204 -1522 201 200 207
-199.718 -483.479 -1520 203 202 209
-196.291 -482.755 -1518 204 203 210
-192.873 -482.033 -1516 207 206 212
-189.59 -481.63 -1515 206 205 211
-186.437 -481.547 -1515 204 204 208
-183.406 -481.783 -1516 200 200 204
-180.253 -481.703 -1516 198 198 202
-177.102 -481.624 -1516 196 195 197
-174.067 -481.864 -1517 195 193 196
-170.805 -481.47 -1516 196 193 196
-167.99 -482.348 -1519 196 193 196
-164.948 -482.592 -1520 193 191 194
-161.796 -482.519 -1520 193 193 195
-158.541 -482.131 -1519 193 193 195
-155.292 -481.745 -1518 186 185 187
-151.947 -481.042 -1516 194 191 194
-148.809 -480.976 -1516 197 194 197
-145.769 -481.228 -1517 194 191 194
-142.725 -481.482 -1518 200 197 200
-139.494 -481.103 -1517 201 196 201
-136.359 -481.042 -1517 195 188 194
-133.225 -480.982 -1517 183 179 184
-130.349 -481.876 -1520 181 177 182
-127.295 -482.136 -1521 184 180 185
-124.238 -482.398 -1522 188 184 189
-121.098 -482.343 -1522 194 190 195
-118.191 -483.241 -1525 195 191 196
-114.972 -482.873 -1524 198 194 199
-111.978 -483.457 -1526 205 201 206
-109.047 -484.359 -1529 211 207 210
-106.036 -484.945 -1531 213 209 213
-103.018 -485.533 -1533 217 213 218
-100.058 -486.438 -1536 217 213 218
-97.0856 -487.345 -1539 215 211 217
-94.2242 -488.886 -1544 213 208 216
-91.402 -490.745 -1550 214 209 217
-88.4989 -492.289 -1555 214 209 217
-85.631 -494.15 -1561 214 209 217
-82.7391 -496.012 -1567 215 210 218
-79.7216 -497.242 -1571 214 209 217
-76.6398 -498.158 -1574 215 210 218
-73.5463 -499.074 -1577 213 209 216
-70.4857 -500.308 -1581 141 138 143
-67.3241 -500.911 -1583 155 155 157
-64.0741 -500.882 -1583 202 201 203
-60.8245 -500.855 -1583 129 126 129
-57.5392 -500.513 -1582 56 55 63
-286.523 -501.433 -1557 62 65 77
-285.223 -504.846 -1568 87 90 102
-280.282 -501.821 -1559 191 192 204
-275.738 -499.443 -1552 200 200 212
-271.752 -498.033 -1548 202 202 214
-267.613 -496.303 -1543 203 203 214
-263.668 -494.897 -1539 203 203 214
-259.911 -493.815 -1536 204 203 213
-256.838 -494.02 -1537 203 202 211
-253.103 -492.941 -1534 200 199 208
-250.035 -493.149 -1535 200 196 209
-246.482 -492.395 -1533 195 193 205
-243.257 -492.286 -1533 195 194 206
-239.721 -491.535 -1531 200 199 211
-236.813 -492.07 -1533 197 196 208
-233.29 -491.323 -1531 196 195 205
-229.927 -490.898 -1530 199 198 206
-226.274 -489.834 -1527 201 200 208
-223.074 -489.733 -1527 202 201 209
-219.156 -488.031 -1522 196 195 203
-216.254 -488.574 -1524 197 196 204
-213.206 -488.799 -1525 197 196 205
-210.018 -488.704 -1525 193 192 201
-206.425 -487.65 -1522 199 198 207
-203.38 -487.879 -1523 201 200 207
-199.807 -486.828 -1520 204 203 210
-196.249 -485.779 -1517 204 203 210
-193.086 -485.692 -1517 205 204 211
-189.8 -485.287 -1516 206 205 211
-186.52 -484.882 -1515 203 203 207
-183.366 -484.8 -1515 199 199 203
-180.214 -484.719 -1515 197 197 201
-176.947 -484.32 -1514 196 195 197
-174.03 -484.881 -1516 194 192 194
-170.881 -484.804 -1516 195 192 195
-168.065 -485.688 -1519 194 191 194
-165.021 -485.934 -1520 191 189 192
-161.867 -485.861 -1520 192 192 194
-158.507 -485.151 -1518 194 193 195
-155.258 -484.761 -1517 187 185 187
-151.814 -483.735 -1514 192 189 192
-148.777 -483.987 -1515 195 192 195
-145.641 -483.922 -1515 190 187 190
-142.6 -484.177 -1516 197 194 197
-139.464 -484.115 -1516 204 200 205
-136.509 -484.692 -1518 208 202 208
-133.372 -484.632 -1518 203 199 204
-130.493 -485.531 -1521 198 194 199
-127.351 -485.474 -1521 193 189 194
-124.374 -486.057 -1523 187 183 188
-121.231 -486.002 -1523 188 184 189
-118.166 -486.268 -1524 192 188 193
-114.947 -485.898 -1523 197 193 198
-111.954 -486.485 -1525 203 199 204
-109.024 -487.393 -1528 210 206 209
-106.014 -487.984 -1530 214 210 214
-103.131 -489.213 -1534 217 213 218
-100.232 -490.444 -1538 219 215 220
-97.1915 -491.038 -1540 219 215 221
-94.3879 -492.908 -1546 216 211 219
-91.4422 -494.142 -1550 214 209 217
-88.4809 -495.378 -1554 214 209 217
-85.6138 -497.252 -1560 214 209 217
-82.617 -498.49 -1564 214 209 217
-79.6552 -500.047 -1569 214 209 217
-76.5761 -500.969 -1572 214 209 217
-73.4854 -501.892 -1575 211 207 214
-70.606 -504.409 -1583 134 131 136
-67.3963 -504.697 -1584 154 154 156
-64.1023 -504.35 -1583 200 199 202
-60.8514 -504.322 -1583 128 125 129
-286.837 -505.214 -1558 63 66 78
-284.988 -507.678 -1566 100 103 114
-279.869 -504.308 -1556 195 196 208
-275.685 -502.562 -1551 198 199 211
-272.051 -501.789 -1549 203 202 214
-268.254 -500.695 -1546 205 204 216
-264.13 -498.955 -1541 206 205 217
-260.367 -497.865 -1538 203 202 212
-257.121 -497.748 -1538 200 199 208
-253.712 -497.309 -1537 199 198 206
-249.984 -496.224 -1534 200 196 209
-246.593 -495.788 -1533 198 195 208
-243.366 -495.678 -1533 196 195 207
-239.829 -494.922 -1531 198 197 209
-236.92 -495.461 -1533 199 198 209
-233.7 -495.355 -1533 199 198 208
-230.331 -494.927 -1532 200 199 206
-226.524 -493.531 -1528 199 198 205
-223.174 -493.107 -1527 201 200 207
-219.543 -492.039 -1524 202 201 208
-216.351 -491.94 -1524 206 205 213
-213.302 -492.166 -1525 203 202 212
-210.25 -492.394 -1526 194 193 202
-206.653 -491.332 -1523 200 199 207
-203.338 -490.917 -1522 205 204 211
-199.765 -489.859 -1519 206 205 212
-196.336 -489.125 -1517 207 206 213
-192.918 -488.393 -1515 206 205 212
-189.634 -487.984 -1514 204 203 209
-186.603 -488.222 -1515 200 200 204
-183.448 -488.139 -1515 197 197 201
-180.295 -488.058 -1515 195 195 199
-177.377 -488.622 -1517 196 193 196
-174.223 -488.543 -1517 194 191 194
-171.07 -488.465 -1517 192 189 192
-168.25 -489.355 -1520 190 187 190
-165.203 -489.602 -1521 190 188 191
-161.94 -489.207 -1520 191 191 193
-158.577 -488.492 -1518 195 192 195
-155.225 -487.778 -1516 189 186 189
-151.781 -486.744 -1513 193 189 192
-148.548 -486.355 -1512 192 189 192
-145.706 -487.254 -1515 189 186 189
-142.663 -487.511 -1516 202 199 202
-139.526 -487.448 -1516 211 207 211
-136.66 -488.351 -1519 213 209 214
-133.519 -488.291 -1519 213 209 214
-130.551 -488.874 -1521 212 208 213
-127.408 -488.817 -1521 207 203 208
-124.43 -489.403 -1523 202 198 203
-121.205 -489.027 -1522 198 194 199
-118.219 -489.616 -1524 196 192 197
-114.998 -489.243 -1523 198 194 199
-112.077 -490.156 -1526 202 198 203
-109.001 -490.428 -1527 209 205 208
-106.13 -491.665 -1531 212 208 213
-103.177 -492.581 -1534 214 210 215
-100.277 -493.82 -1538 217 213 218
-97.2346 -494.418 -1540 220 215 222
-94.3686 -495.981 -1545 216 211 219
-91.4238 -497.224 -1549 212 207 215
-88.5203 -498.788 -1554 211 206 214
-85.4871 -499.712 -1557 213 208 216
-82.6007 -501.6 -1563 216 211 219
-79.589 -502.848 -1567 218 213 221
-76.6589 -504.739 -1573 216 211 219
-73.4713 -505.026 -1574 213 209 215
-70.5034 -506.919 -1580 135 132 137
-67.3411 -507.53 -1582 163 163 165
-64.1713 -508.142 -1584 203 201 205
-60.9937 -508.756 -1586 126 123 128
-57.7356 -508.73 -1586 60 59 67
-287.336 -509.33 -1560 58 61 74
-284.753 -510.505 -1564 101 102 114
-279.817 -507.438 -1555 193 194 206
-275.455 -505.354 -1549 201 202 214
-272.175 -505.229 -1549 203 202 214
-268.376 -504.127 -1546 205 204 216
-264.593 -503.027 -1543 206 205 217
-260.824 -501.929 -1540 202 201 211
-257.573 -501.811 -1540 198 197 206
-253.828 -500.717 -1537 199 198 206
-250.424 -500.276 -1536 201 197 210
-246.865 -499.512 -1534 200 197 209
-243.635 -499.4 -1534 194 193 203
-240.251 -498.964 -1533 193 192 203
-237.336 -499.507 -1535 199 198 209
-234.263 -499.725 -1536 205 204 212
-230.586 -498.643 -1533 204 203 210
-226.775 -497.238 -1529 200 199 206
-223.422 -496.811 -1528 199 198 205
-219.786 -495.735 -1525 202 201 208
-216.591 -495.636 -1525 201 200 208
-213.258 -495.213 -1524 195 194 204
-210.345 -495.767 -1526 193 192 201
-206.611 -494.373 -1522 204 203 211
-203.296 -493.956 -1521 208 207 214
-199.724 -492.89 -1518 207 206 213
-196.425 -492.476 -1517 207 206 213
-193.005 -491.738 -1515 206 205 212
-189.97 -491.976 -1516 202 201 208
-186.687 -491.566 -1515 199 199 203
-183.531 -491.483 -1515 196 196 200
-180.257 -491.076 -1514 193 193 197
-177.106 -490.995 -1514 194 191 194
-174.071 -491.24 -1515 193 190 193
-171.259 -492.135 -1518 190 187 190
-168.326 -492.707 -1520 189 186 189
-165.386 -493.28 -1522 190 188 191
-162.119 -492.882 -1521 191 191 193
-158.753 -492.161 -1519 194 191 194
-155.295 -491.119 -1516 190 187 190
-151.95 -490.401 -1514 195 191 194
-148.714 -490.01 -1513 196 193 196
-145.771 -490.591 -1515 190 187 190
-142.822 -491.174 -1517 197 194 197
-139.865 -491.757 -1519 204 201 205
-136.811 -492.019 -1520 209 205 210
-133.667 -491.958 -1520 214 210 215
-130.609 -492.222 -1521 216 212 217
-127.381 -491.84 -1520 216 212 217
-124.322 -492.108 -1521 215 211 216
-121.1 -491.729 -1520 210 206 211
-118.116 -492.322 -1522 206 202 207
-114.974 -492.27 -1522 203 199 204
-112.053 -493.189 -1525 204 200 205
-108.979 -493.462 -1526 208 204 207
-106.247 -495.354 -1532 210 206 210
-103.223 -495.954 -1534 210 206 211
-100.321 -497.201 -1538 212 208 213
-97.4045 -498.45 -1542 213 209 215
-94.5331 -500.023 -1547 210 205 213
-91.5238 -500.951 -1550 210 205 213
-88.5599 -502.203 -1554 212 207 215
-85.5253 -503.134 -1557 218 213 221
-82.6377 -505.035 -1563 223 218 226
-79.5737 -505.968 -1566 224 219 227
-76.6444 -507.871 -1572 221 216 224
-73.5508 -508.807 -1575 214 210 216
-70.5349 -510.39 -1580 138 135 140
-67.3286 -510.682 -1581 172 172 174
-64.1594 -511.298 -1583 201 200 203
-60.9825 -511.916 -1585 122 118 123
-57.6886 -511.567 -1584 59 57 65
-285.431 -514.971 -1567 96 97 109
-280.125 -511.226 -1556 187 188 200
-276.115 -509.784 -1552 210 211 223
-272.475 -509.001 -1550 205 205 217
-268.499 -507.564 -1546 204 204 215
-264.714 -506.456 -1543 205 205 216
-261.282 -506.007 -1542 202 201 211
-257.69 -505.231 -1540 199 198 207
-253.944 -504.13 -1537 200 199 208
-250.375 -503.358 -1535 203 201 212
-246.978 -502.916 -1534 205 203 214
-243.588 -502.476 -1533 203 202 212
-240.517 -502.693 -1534 203 202 214
-237.445 -502.911 -1535 202 201 213
-234.37 -503.13 -1536 203 202 210
-230.841 -502.369 -1534 206 205 212
-227.175 -501.282 -1531 206 205 212
-223.816 -500.851 -1530 201 200 207
-220.175 -499.768 -1527 197 196 203
-216.832 -499.34 -1526 191 190 198
-213.635 -499.242 -1526 188 187 196
-210.441 -499.145 -1526 195 194 202
-206.976 -498.396 -1524 207 206 214
-203.522 -497.648 -1522 211 210 217
-199.946 -496.575 -1519 209 208 215
-196.385 -495.504 -1516 208 207 214
-193.22 -495.415 -1516 206 206 211
-190.057 -495.328 -1516 200 199 204
-186.649 -494.589 -1514 197 197 201
-183.735 -495.158 -1516 194 194 198
-180.339 -494.422 -1514 192 192 195
-177.186 -494.34 -1514 193 190 193
-174.15 -494.587 -1515 191 188 191
-171.337 -495.487 -1518 190 187 188
-168.292 -495.737 -1519 188 185 188
-165.461 -496.64 -1522 191 188 191
-162.192 -496.239 -1521 192 191 193
-158.93 -495.84 -1520 194 191 194
-155.365 -494.464 -1516 189 186 189
-152.019 -493.742 -1514 195 192 195
-148.879 -493.673 -1514 195 192 195
-145.933 -494.258 -1516 188 185 188
-142.886 -494.519 -1517 190 187 190
-140.02 -495.433 -1520 191 188 192
-136.873 -495.37 -1520 198 194 199
-133.727 -495.308 -1520 206 202 207
-130.582 -495.248 -1520 212 208 213
-127.439 -495.19 -1520 216 212 217
-124.378 -495.459 -1521 216 212 217
-121.155 -495.077 -1520 214 210 215
-118.092 -495.349 -1521 209 205 210
-115.026 -495.622 -1522 206 202 207
-112.104 -496.547 -1525 205 201 206
-108.956 -496.497 -1525 205 201 204
-106.156 -498.076 -1530 206 202 206
-103.337 -499.656 -1535 209 205 210
-100.301 -500.262 -1537 212 208 213
-97.322 -501.193 -1540 210 206 212
-94.5756 -503.428 -1547 210 205 213
-91.506 -504.037 -1549 213 208 216
-88.5997 -505.623 -1554 220 215 223
-85.6188 -506.885 -1558 224 219 227
-82.8336 -509.45 -1566 224 219 227
-79.6095 -509.413 -1566 221 216 224
-76.6788 -511.329 -1572 218 213 221
-73.5839 -512.271 -1575 208 205 211
-70.5219 -513.539 -1579 134 133 137
-67.3163 -513.834 -1580 171 171 173
-64.1071 -514.129 -1581 199 197 201
-61.0869 -516.052 -1587 123 119 124
-58.0425 -517.976 -1593 60 59 67
-283.923 -515.485 -1558 87 88 100
-279.534 -513.37 -1552 175 176 188
-275.886 -512.58 -1550 205 206 218
-272.249 -511.791 -1548 212 213 225
-268.449 -510.674 -1545 207 208 219
-265.179 -510.551 -1545 203 204 214
-261.064 -508.777 -1540 203 202 212
-258.479 -509.978 -1544 203 202 212
-254.391 -508.208 -1539 202 201 211
-250.817 -507.431 -1537 205 204 214
-247.092 -506.326 -1534 206 205 215
-243.859 -506.212 -1534 207 206 216
-240.628 -506.1 -1534 207 206 218
-237.399 -505.99 -1534 205 204 215
-234.325 -506.211 -1535 203 202 210
-230.646 -505.114 -1532 206 205 212
-227.428 -505.009 -1532 205 204 211
-223.919 -504.246 -1530 195 194 201
-220.42 -503.484 -1528 188 187 194
-217.074 -503.054 -1527 190 189 196
-213.593 -502.296 -1525 195 194 202
-210.399 -502.199 -1525 200 199 207
-206.664 -500.786 -1521 207 206 214
-203.348 -500.362 -1520 211 210 217
-199.774 -499.282 -1517 211 210 216
-196.734 -499.52 -1518 209 208 215
-193.563 -499.43 -1518 205 204 209
-190.52 -499.671 -1519 200 198 203
-187.227 -499.256 -1518 196 194 199
-184.062 -499.17 -1518 191 190 193
-180.779 -498.758 -1517 189 188 190
-177.501 -498.347 -1516 190 187 190
-174.345 -498.266 -1516 190 187 189
-171.641 -499.502 -1520 188 185 186
-168.59 -499.752 -1521 184 181 184
-165.536 -500.004 -1522 189 186 189
-162.266 -499.601 -1521 194 191 194
-158.793 -498.542 -1518 193 190 193
-155.333 -497.485 -1515 188 185 188
-151.988 -496.758 -1513 195 192 195
-148.75 -496.361 -1512 195 192 195
-145.807 -496.95 -1514 190 187 190
-142.857 -497.54 -1516 198 195 198
-139.9 -498.132 -1518 194 190 194
-136.935 -498.725 -1520 194 190 195
-133.964 -499.32 -1522 197 193 198
-130.728 -498.931 -1521 204 200 205
-127.497 -498.544 -1520 209 205 210
-124.516 -499.143 -1522 212 208 213
-121.21 -498.431 -1520 211 207 212
-118.068 -498.376 -1520 210 206 211
-115.078 -498.979 -1522 207 203 208
-112.155 -499.91 -1525 203 199 204
-109.077 -500.188 -1526 203 199 202
-106.204 -501.45 -1530 205 201 205
-103.316 -502.713 -1534 208 204 209
-100.282 -503.322 -1536 211 207 212
-97.2397 -503.932 -1538 214 209 215
-94.374 -505.527 -1543 217 212 220
-91.5474 -507.45 -1549 220 215 223
-88.4687 -508.064 -1551 224 219 227
-85.5476 -509.662 -1556 225 220 228
-82.5537 -510.934 -1560 225 220 228
-79.5947 -512.535 -1565 218 213 221
-76.8112 -515.447 -1574 215 210 218
-73.5238 -515.085 -1573 203 200 206
-70.4645 -516.362 -1577 130 130 134
-67.3468 -517.313 -1580 177 177 179
-64.1767 -517.938 -1582 206 204 207
-61.0375 -518.892 -1585 133 129 134
-58.0687 -521.484 -1593 63 62 69
-282.596 -516.297 -1550 83 84 96
-278.944 -515.5 -1548 168 169 181
-275.481 -515.038 -1547 194 195 207
-272.024 -514.577 -1546 208 209 221
-268.4 -513.785 -1544 218 219 230
-264.959 -513.328 -1543 216 217 227
-261.355 -512.54 -1541 208 207 217
-258.096 -512.419 -1541 204 203 213
-254.675 -511.967 -1540 207 206 216
-251.096 -511.185 -1538 203 202 212
-247.529 -510.404 -1536 205 204 214
-243.813 -509.293 -1533 206 205 215
-240.583 -509.18 -1533 205 204 216
-237.199 -508.737 -1532 206 205 217
-234.128 -508.96 -1533 205 207 214
-230.753 -508.52 -1532 198 198 205
-227.236 -507.75 -1530 191 190 197
-223.876 -507.313 -1529 186 185 192
-220.666 -507.21 -1529 187 186 193
-217.032 -506.113 -1526 194 193 200
-213.832 -506.014 -1526 200 199 206
-210.496 -505.584 -1525 203 202 209
-206.895 -504.492 -1522 208 207 214
-203.442 -503.735 -1520 212 212 216
-200.13 -503.31 -1519 210 210 214
-196.825 -502.887 -1518 208 207 214
-193.653 -502.796 -1518 205 202 208
-190.608 -503.039 -1519 199 196 201
-187.314 -502.62 -1518 197 194 199
-184.268 -502.865 -1519 193 190 194
-180.981 -502.45 -1518 189 186 189
-177.7 -502.036 -1517 187 184 187
-174.77 -502.617 -1519 187 184 186
-171.946 -503.529 -1522 188 185 186
-168.778 -503.451 -1522 189 186 189
-165.612 -503.374 -1522 192 189 192
-162.341 -502.967 -1521 194 191 194
-158.866 -501.901 -1518 193 190 193
-155.404 -500.837 -1515 189 186 189
-152.057 -500.105 -1513 196 193 196
-148.818 -499.705 -1512 193 190 193
-145.778 -499.968 -1513 183 180 183
-142.828 -500.562 -1515 190 187 190
-139.872 -501.158 -1517 192 189 192
-136.818 -501.425 -1518 190 187 192
-133.938 -502.353 -1521 188 184 189
-130.702 -501.962 -1520 191 187 192
-127.471 -501.573 -1519 194 190 195
-124.41 -501.845 -1520 201 197 202
-121.185 -501.458 -1519 206 202 207
-118.044 -501.403 -1519 207 203 208
-115.131 -502.34 -1522 204 200 205
-112.206 -503.278 -1525 201 197 202
-109.199 -503.887 -1527 197 193 196
-106.323 -505.158 -1531 200 196 200
-103.296 -505.769 -1533 204 200 205
-100.132 -505.723 -1533 209 205 210
-97.221 -506.997 -1537 215 211 217
-94.2947 -508.272 -1541 222 217 225
-91.4118 -509.879 -1546 224 219 227
-88.5092 -511.486 -1551 225 220 228
-85.5867 -513.096 -1556 222 217 225
-82.5913 -514.376 -1560 217 212 220
-79.7328 -516.647 -1567 209 204 212
-76.5045 -516.611 -1567 212 207 215
-73.5106 -518.225 -1572 195 193 199
-70.4967 -519.84 -1577 139 139 143
-67.4202 -521.127 -1581 183 183 185
-64.3684 -522.745 -1586 210 209 212
-61.1809 -523.375 -1588 155 151 156
-58.2046 -525.985 -1596 62 61 69
-54.7485 -524.311 -1591 56 55 63
-279.616 -519.964 -1551 162 163 175
-275.61 -518.493 -1547 197 198 210
-271.799 -517.359 -1544 207 206 218
-268.178 -516.562 -1542 213 213 224
-264.911 -516.437 -1542 214 214 225
-261.477 -515.978 -1541 216 215 225
-258.385 -516.191 -1542 215 214 223
-254.959 -515.736 -1541 212 211 219
-251.704 -515.617 -1541 209 208 216
-247.806 -514.162 -1537 203 202 210
-244.245 -513.377 -1535 198 197 207
-240.852 -512.929 -1534 200 199 210
-237.465 -512.483 -1533 201 200 211
-234.237 -512.373 -1533 193 195 201
-230.409 -510.927 -1529 189 189 195
-227.193 -510.82 -1529 187 187 192
-223.541 -509.713 -1526 189 189 194
-220.48 -509.943 -1527 191 190 196
-216.99 -509.173 -1525 193 192 199
-213.651 -508.739 -1524 198 197 205
-210.042 -507.638 -1521 206 205 212
-206.991 -507.875 -1522 210 209 216
-203.67 -507.445 -1521 212 212 216
-200.223 -506.684 -1519 209 209 213
-196.786 -505.925 -1517 206 203 209
-193.742 -506.167 -1518 202 199 203
-190.571 -506.078 -1518 196 193 197
-187.277 -505.656 -1517 195 192 197
-184.232 -505.903 -1518 191 188 192
-181.065 -505.818 -1518 188 185 188
-177.9 -505.735 -1518 187 184 187
-174.851 -505.986 -1519 186 183 186
-172.026 -506.904 -1522 187 184 185
-168.746 -506.492 -1521 190 187 190
-165.58 -506.414 -1521 191 188 191
-162.309 -506.005 -1520 193 190 193
-158.835 -504.932 -1517 193 190 193
-155.476 -504.194 -1515 191 187 190
-152.228 -503.79 -1514 197 194 197
-148.887 -503.054 -1512 198 195 198
-145.845 -503.319 -1513 195 192 195
-142.989 -504.249 -1516 194 194 196
-140.029 -504.849 -1518 187 185 188
-136.971 -505.117 -1519 187 184 189
-134.087 -506.052 -1522 187 184 189
-130.934 -505.991 -1522 188 184 189
-127.614 -505.266 -1520 190 186 191
-124.631 -505.873 -1522 196 192 197
-121.401 -505.483 -1521 203 199 204
-118.254 -505.428 -1521 206 202 207
-115.411 -506.703 -1525 204 200 205
-112.405 -507.315 -1527 201 197 202
-109.463 -508.26 -1530 196 192 195
-106.51 -509.207 -1533 196 192 195
-103.411 -509.49 -1534 199 195 200
-100.112 -508.779 -1532 204 200 205
-97.2025 -510.062 -1536 215 211 216
-94.2769 -511.346 -1540 222 217 225
-91.3948 -512.963 -1545 223 218 226
-88.4357 -514.249 -1549 221 216 224
-85.5159 -515.869 -1554 214 209 217
-82.4175 -516.494 -1556 205 200 208
-79.4132 -517.785 -1560 201 196 204
-76.3931 -519.076 -1564 208 203 211
-73.4508 -521.033 -1570 193 190 196
-70.3949 -522.327 -1574 148 148 152
-67.3658 -523.955 -1579 184 184 186
-64.2355 -524.92 -1582 213 212 215
-61.0549 -525.554 -1584 176 172 177
-58.0489 -527.85 -1591 59 57 65
-54.7736 -527.824 -1591 56 55 63
-279.206 -522.422 -1548 152 153 165
-276.275 -522.965 -1550 200 201 213
-272.456 -521.823 -1547 207 206 218
-268.652 -520.683 -1544 211 210 222
-265.208 -520.219 -1543 209 208 220
-261.6 -519.421 -1541 208 207 217
-258.171 -518.961 -1540 208 207 217
-254.914 -518.84 -1540 210 209 217
-251.495 -518.383 -1539 212 212 220
-247.922 -517.592 -1537 210 210 218
-244.201 -516.466 -1534 206 205 215
-240.808 -516.015 -1533 201 200 210
-237.421 -515.565 -1532 196 195 205
-234.041 -515.118 -1531 194 196 202
-230.366 -513.999 -1528 195 196 200
-227.151 -513.891 -1528 192 192 196
-223.646 -513.113 -1526 190 190 194
-220.295 -512.672 -1525 192 192 197
-216.95 -512.233 -1524 195 194 201
-213.751 -512.132 -1524 202 201 209
-210.417 -511.696 -1523 208 207 215
-207.088 -511.262 -1522 211 210 217
-203.631 -510.494 -1520 211 211 215
-200.185 -509.727 -1518 208 208 212
-196.878 -509.298 -1517 202 199 204
-193.705 -509.207 -1517 196 193 197
-190.408 -508.781 -1516 194 191 194
-187.241 -508.693 -1516 190 187 191
-184.196 -508.941 -1517 189 186 189
-181.269 -509.526 -1519 188 185 188
-178.1 -509.442 -1519 188 185 188
-175.048 -509.695 -1520 188 185 188
-172.106 -510.284 -1522 190 187 188
-169.046 -510.54 -1523 192 189 191
-165.657 -509.791 -1521 192 189 192
-162.385 -509.379 -1520 192 189 192
-158.909 -508.298 -1517 193 190 193
-155.549 -507.555 -1515 193 189 192
-152.299 -507.148 -1514 200 196 199
-149.055 -506.743 -1513 194 191 194
-145.816 -506.339 -1512 193 190 193
-142.866 -506.941 -1514 199 199 201
-139.817 -507.21 -1515 198 197 200
-136.855 -507.815 -1517 201 198 203
-133.973 -508.756 -1520 199 195 200
-130.823 -508.694 -1520 194 190 195
-127.673 -508.634 -1520 194 190 195
-124.607 -508.91 -1521 195 191 196
-121.457 -508.853 -1521 199 195 200
-118.387 -509.131 -1522 204 200 205
-115.616 -510.749 -1527 207 203 208
-112.605 -511.365 -1529 207 203 208
-109.586 -511.982 -1531 204 200 203
-106.56 -512.601 -1533 202 198 202
-103.459 -512.886 -1534 202 198 203
-100.224 -512.504 -1533 206 202 207
-97.2475 -513.461 -1536 214 210 216
-94.3205 -514.754 -1540 219 214 222
-91.4372 -516.382 -1545 218 213 221
-88.4196 -517.343 -1548 212 207 215
-85.5006 -518.973 -1553 206 201 209
-82.3497 -519.268 -1554 206 201 209
-79.2972 -520.233 -1557 212 207 215
-76.3796 -522.202 -1563 218 213 221
-73.3912 -523.837 -1568 198 195 201
-70.3828 -525.474 -1573 150 150 154
-67.4397 -527.78 -1580 181 181 183
-64.3464 -529.086 -1584 216 215 218
-61.1602 -529.725 -1586 189 185 190
-58.1488 -532.035 -1593 65 64 72
-280.963 -528.947 -1557 136 137 149
-277.297 -528.135 -1555 198 199 211
-272.762 -525.626 -1548 207 207 219
-268.954 -524.479 -1545 208 207 219
-265.334 -523.672 -1543 207 207 218
-262.064 -523.547 -1543 209 208 218
-258.461 -522.745 -1541 208 207 216
-255.035 -522.283 -1540 204 203 212
-251.615 -521.824 -1539 207 208 216
-248.04 -521.027 -1537 206 208 215
-244.475 -520.232 -1535 206 205 215
-241.393 -520.455 -1536 202 201 211
-237.844 -519.664 -1534 196 195 205
-234.611 -519.552 -1534 191 193 199
-231.078 -518.764 -1532 189 190 195
-227.705 -518.317 -1531 190 190 192
-224.044 -517.194 -1528 191 191 196
-220.688 -516.75 -1527 195 195 200
-217.195 -515.97 -1525 201 200 207
-213.852 -515.53 -1524 207 206 213
-210.378 -514.753 -1522 209 208 215
-207.049 -514.315 -1521 210 209 216
-203.593 -513.542 -1519 208 208 213
-200.279 -513.109 -1518 205 205 209
-196.971 -512.677 -1517 199 196 201
-193.669 -512.247 -1516 193 190 194
-190.372 -511.818 -1515 192 189 192
-187.329 -512.067 -1516 190 187 190
-184.283 -512.317 -1517 188 185 188
-181.354 -512.906 -1519 187 184 187
-178.184 -512.821 -1519 188 185 188
-175.015 -512.738 -1519 190 187 189
-172.074 -513.331 -1521 192 189 190
-168.793 -512.913 -1520 191 188 190
-165.517 -512.497 -1519 192 189 192
-162.354 -512.42 -1519 194 191 194
-158.983 -511.67 -1517 195 192 195
-155.622 -510.921 -1515 197 193 196
-152.371 -510.511 -1514 205 201 204
-149.125 -510.103 -1513 204 201 204
-145.885 -509.697 -1512 201 198 201
-143.028 -510.64 -1515 206 206 208
-139.975 -510.91 -1516 210 209 212
-136.919 -511.183 -1517 209 206 211
-134.036 -512.13 -1520 207 203 208
-130.884 -512.067 -1520 203 199 204
-127.733 -512.007 -1520 195 191 196
-124.583 -511.948 -1520 192 188 193
-121.434 -511.89 -1520 193 189 194
-118.364 -512.17 -1521 197 193 198
-115.594 -513.799 -1526 202 198 203
-112.657 -514.755 -1529 205 201 206
-109.565 -515.04 -1530 209 205 208
-106.54 -515.663 -1532 210 206 210
-103.507 -516.286 -1534 211 207 212
-100.14 -515.229 -1531 215 211 216
-97.2928 -516.866 -1536 219 214 220
-94.3646 -518.166 -1540 218 213 221
-91.4206 -519.469 -1544 213 208 216
-88.2894 -519.763 -1545 212 207 215
-85.3201 -521.068 -1549 215 210 218
-82.2821 -522.038 -1552 220 215 223
-79.2832 -523.346 -1556 224 219 227
-76.3174 -524.991 -1561 221 216 224
-73.3317 -526.637 -1566 197 194 201
-70.4155 -528.958 -1573 152 152 156
-67.4711 -531.279 -1580 182 182 184
-64.2952 -531.921 -1582 214 213 216
-61.1501 -532.9 -1585 184 180 185
-58.0298 -534.217 -1589 65 64 72
-54.8589 -535.199 -1592 54 53 61
-281.278 -532.782 -1558 117 118 130
-277.252 -531.28 -1554 196 197 209
-273.245 -529.781 -1550 204 204 216
-269.431 -528.625 -1547 204 205 217
-265.461 -527.131 -1543 205 205 216
-261.68 -525.979 -1540 207 206 216
-257.913 -524.83 -1537 207 206 216
-254.494 -524.366 -1536 202 201 210
-251.08 -523.904 -1535 199 200 208
-247.835 -523.784 -1535 196 198 205
-244.273 -522.984 -1533 196 195 205
-241.194 -523.209 -1534 193 192 202
-238.267 -523.776 -1536 189 188 198
-235.029 -523.663 -1536 185 187 193
-231.792 -523.552 -1536 186 187 192
-228.26 -522.76 -1534 189 189 192
-224.591 -521.63 -1531 191 190 197
-220.937 -520.502 -1528 197 196 203
-217.868 -520.738 -1529 206 205 212
-213.954 -518.932 -1524 211 210 217
-210.754 -518.831 -1524 214 213 220
-207.148 -517.71 -1521 210 210 214
-203.69 -516.931 -1519 206 206 210
-199.978 -515.474 -1515 201 201 205
-196.545 -514.699 -1513 198 195 200
-193.505 -514.947 -1514 192 189 193
-190.085 -514.175 -1512 190 187 190
-187.047 -514.426 -1513 191 188 191
-184.006 -514.678 -1514 189 186 189
-181.201 -515.611 -1517 189 186 189
-177.916 -515.185 -1516 189 186 189
-174.982 -515.781 -1518 189 186 189
-171.929 -516.039 -1519 191 188 189
-168.761 -515.958 -1519 192 189 192
-165.486 -515.539 -1518 194 191 194
-162.324 -515.461 -1518 195 192 195
-159.058 -515.045 -1517 195 192 195
-155.695 -514.292 -1515 194 190 193
-152.543 -514.219 -1515 200 197 200
-149.393 -514.147 -1515 201 198 201
-146.243 -514.077 -1515 203 200 203
-143.095 -514.009 -1515 211 211 213
-140.041 -514.281 -1516 210 210 212
-136.803 -513.876 -1515 206 203 208
-133.923 -514.83 -1518 204 200 205
-130.773 -514.767 -1518 200 196 201
-127.541 -514.367 -1517 197 193 198
-124.478 -514.646 -1518 194 190 195
-121.492 -515.266 -1520 193 189 194
-118.42 -515.548 -1521 193 189 194
-115.573 -516.849 -1525 193 189 194
-112.563 -517.473 -1527 196 192 197
-109.474 -517.759 -1528 202 198 201
-106.521 -518.725 -1531 209 205 209
-103.488 -519.353 -1533 214 210 215
-100.449 -519.982 -1535 218 214 219
-97.5287 -521.291 -1539 219 215 220
-94.5316 -522.261 -1542 216 211 219
-91.5821 -523.572 -1546 218 213 221
-88.4452 -523.868 -1547 217 213 220
-85.4153 -524.843 -1550 218 213 221
-82.4267 -526.158 -1554 222 217 225
-79.4224 -527.474 -1558 224 219 227
-76.5 -529.469 -1564 219 214 222
-73.5536 -531.464 -1570 197 195 201
-70.583 -533.462 -1576 154 154 158
-67.5882 -535.46 -1582 184 184 186
-64.4067 -536.106 -1584 208 207 210
-61.256 -537.092 -1587 166 162 167
-57.984 -537.064 -1587 55 54 62
-281.414 -536.283 -1558 88 89 102
-277.385 -534.771 -1554 192 193 205
-273.2 -532.917 -1549 202 203 215
-269.735 -532.442 -1548 204 205 217
-265.588 -530.593 -1543 205 205 218
-261.975 -529.778 -1541 204 203 214
-258.373 -528.965 -1539 204 203 212
-254.782 -528.154 -1537 201 200 209
-251.037 -527.001 -1534 198 197 207
-247.793 -526.881 -1534 197 197 207
-244.231 -526.076 -1532 196 195 205
-241.467 -526.989 -1535 193 192 202
-238.692 -527.903 -1538 192 191 201
-235.6 -528.132 -1539 191 191 199
-232.205 -527.676 -1538 191 191 197
-228.816 -527.223 -1537 193 193 197
-225.286 -526.427 -1535 195 194 201
-221.477 -524.948 -1531 199 198 205
-218.115 -524.5 -1530 207 206 213
-214.056 -522.339 -1524 213 212 220
-210.578 -521.552 -1522 214 213 220
-206.974 -520.424 -1519 209 208 214
-203.787 -520.326 -1519 203 202 206
-200.074 -518.859 -1515 198 196 200
-196.639 -518.079 -1513 196 193 195
-193.342 -517.643 -1512 191 188 190
-190.302 -517.893 -1513 189 186 189
-187.136 -517.803 -1513 187 184 187
-183.972 -517.714 -1513 188 185 188
-181.168 -518.653 -1516 188 185 188
-178.001 -518.567 -1516 188 185 188
-174.95 -518.825 -1517 190 187 189
-171.897 -519.084 -1518 192 189 191
-168.842 -519.345 -1519 194 191 194
-165.456 -518.581 -1517 196 193 196
-162.401 -518.844 -1518 197 194 196
-159.134 -518.426 -1517 197 194 196
-155.769 -517.667 -1515 189 186 189
-152.716 -517.936 -1516 184 181 184
-149.661 -518.205 -1517 188 185 188
-146.313 -517.451 -1515 194 191 193
-143.352 -518.065 -1517 201 199 203
-140.292 -518.339 -1518 206 204 208
-137.048 -517.932 -1517 209 206 211
-134.075 -518.55 -1519 206 203 207
-130.836 -518.145 -1518 205 202 206
-127.686 -518.084 -1518 204 201 206
-124.619 -518.365 -1519 203 199 204
-121.549 -518.648 -1520 203 199 204
-118.554 -519.273 -1522 197 193 198
-115.628 -520.241 -1525 191 187 192
-112.469 -520.186 -1525 193 189 192
-109.597 -521.498 -1529 199 192 199
-106.432 -521.447 -1529 204 198 205
-103.605 -523.102 -1534 208 204 209
-100.627 -524.076 -1537 212 208 213
-97.7017 -525.393 -1541 212 208 213
-94.5764 -525.688 -1542 214 210 215
-91.5661 -526.667 -1545 218 214 219
-88.4299 -526.965 -1546 219 215 221
-85.4558 -528.287 -1550 220 216 221
-82.5188 -529.951 -1555 224 220 227
-79.562 -531.617 -1560 222 217 225
-76.5851 -533.283 -1565 218 213 222
-73.6821 -535.633 -1572 201 198 204
-70.5268 -536.28 -1574 156 153 157
-67.5347 -538.291 -1580 185 183 185
-64.3151 -538.601 -1581 209 207 210
-61.1305 -539.253 -1583 178 175 180
-57.7189 -537.862 -1579 66 64 72
-54.3932 -537.154 -1577 54 54 62
-279.924 -536.67 -1549 71 72 87
-277.163 -537.574 -1552 184 185 197
-273.509 -536.747 -1550 203 204 216
-269.692 -535.576 -1547 204 204 216
-265.717 -534.061 -1543 204 203 217
-261.932 -532.895 -1540 203 202 213
-258.162 -531.73 -1537 201 200 210
-254.242 -530.222 -1533 201 200 209
-250.831 -529.754 -1532 200 199 209
-247.751 -529.978 -1533 198 197 209
-244.509 -529.859 -1533 197 196 206
-241.741 -530.778 -1536 197 196 206
-238.807 -531.352 -1538 196 195 205
-236.021 -532.274 -1541 195 194 202
-232.77 -532.16 -1541 194 194 201
-229.224 -531.358 -1539 195 195 200
-225.835 -530.902 -1538 197 196 203
-222.163 -529.758 -1535 202 201 208
-218.648 -528.962 -1533 209 208 215
-214.721 -527.132 -1528 213 212 219
-211.372 -526.684 -1527 212 211 219
-207.074 -523.824 -1519 208 207 214
-203.617 -523.035 -1517 203 200 205
-200.038 -521.903 -1514 199 196 199
-196.863 -521.808 -1514 196 193 194
-193.435 -521.024 -1512 191 188 191
-190.268 -520.931 -1512 189 186 190
-187.226 -521.185 -1513 189 186 189
-184.06 -521.096 -1513 188 185 188
-181.016 -521.352 -1514 189 186 189
-177.969 -521.61 -1515 191 188 191
-174.919 -521.869 -1516 192 189 192
-171.98 -522.474 -1518 196 193 196
-168.923 -522.736 -1519 199 196 199
-165.644 -522.312 -1518 200 197 200
-162.586 -522.577 -1519 199 196 197
-159.315 -522.156 -1518 197 194 196
-155.947 -521.392 -1516 190 187 190
-152.79 -521.318 -1516 180 177 180
-149.732 -521.589 -1517 178 175 177
-146.383 -520.83 -1515 183 181 181
-143.421 -521.448 -1517 194 191 195
-140.267 -521.38 -1517 202 199 204
-137.204 -521.657 -1518 206 203 207
-133.962 -521.248 -1517 207 204 208
-130.812 -521.185 -1517 209 206 210
-127.747 -521.466 -1518 212 209 214
-124.761 -522.093 -1520 212 208 213
-121.687 -522.377 -1521 211 207 212
-118.611 -522.663 -1522 208 204 209
-115.683 -523.637 -1525 203 199 203
-112.449 -523.239 -1524 200 196 199
-109.291 -523.186 -1524 203 196 204
-106.343 -524.164 -1527 206 200 207
-103.587 -526.174 -1533 205 201 206
-100.61 -527.154 -1536 205 201 206
-97.6848 -528.479 -1540 205 201 206
-94.7441 -529.806 -1544 205 201 206
-91.6691 -530.448 -1546 208 204 209
-88.5293 -530.748 -1547 214 210 216
-85.5516 -532.078 -1551 224 220 225
-82.6643 -534.097 -1557 226 222 227
-79.7019 -535.773 -1562 221 217 224
-76.7685 -537.793 -1568 220 215 224
-73.8579 -540.158 -1575 201 197 203
-70.6948 -540.809 -1577 155 152 155
-67.6096 -542.148 -1581 187 184 188
