ply
format ascii 1.0
comment Created by Open3D
element vertex 1337
property double x
property double y
property double z
property uchar red
property uchar green
property uchar blue
end_header
-178.13 -135.162 -1492 210 215 228
-174.533 -134.687 -1487 213 218 230
-171.766 -134.847 -1489 215 218 229
-168.651 -134.736 -1488 210 211 221
-165.877 -134.896 -1490 199 198 206
-163.095 -135.057 -1492 194 193 200
-160.307 -135.218 -1494 196 196 200
-157.09 -135.018 -1492 200 200 206
-153.884 -134.818 -1490 215 214 221
-150.686 -134.619 -1488 219 218 225
-147.498 -134.419 -1486 212 211 219
-144.027 -133.949 -1481 212 211 223
-140.768 -133.661 -1478 213 212 223
-137.615 -133.463 -1476 217 216 226
-134.654 -133.446 -1476 221 220 230
-131.605 -133.34 -1475 224 223 233
-128.735 -133.414 -1476 225 224 234
-125.692 -133.308 -1475 223 222 232
-122.82 -133.384 -1476 221 220 230
-119.945 -133.459 -1477 220 219 229
-116.989 -133.445 -1477 219 218 228
-114.11 -133.521 -1478 217 216 226
-111.153 -133.507 -1478 213 212 222
-108.27 -133.584 -1479 210 209 219
-105.313 -133.571 -1479 207 206 216
-102.425 -133.649 -1480 205 204 215
-99.4679 -133.637 -1480 202 201 213
-96.5763 -133.715 -1481 200 199 209
-93.5551 -133.613 -1480 201 200 209
-90.6611 -133.692 -1481 208 207 214
-87.823 -133.862 -1483 219 218 226
-85.0348 -134.123 -1486 233 232 240
-82.1801 -134.293 -1488 247 246 251
-79.4247 -134.644 -1492 253 252 255
-76.5514 -134.815 -1494 254 252 255
-73.6707 -134.987 -1496 253 250 255
-70.7827 -135.158 -1498 255 254 255
-67.9778 -135.511 -1502 253 253 255
-65.244 -136.044 -1508 253 253 255
-62.4456 -136.487 -1513 253 253 255
-59.7456 -137.202 -1521 253 253 255
-56.8649 -137.555 -1525 253 253 255
-53.9688 -137.909 -1529 253 253 255
-50.9907 -138.083 -1531 253 253 255
-48.0676 -138.438 -1535 253 253 255
-45.041 -138.523 -1536 253 253 255
-42.0654 -138.788 -1539 253 253 255
-39.1289 -139.234 -1544 252 252 253
-36.2195 -139.86 -1551 241 242 247
-33.2613 -140.397 -1557 229 231 237
-30.3956 -141.476 -1569 231 232 241
-27.4477 -142.374 -1579 217 218 228
-24.5063 -143.543 -1592 210 213 222
-21.4866 -144.532 -1603 212 214 223
-18.4119 -145.431 -1613 212 215 224
-15.2787 -146.15 -1621 86 86 97
-254.706 -146.151 -1572 82 81 92
-251.496 -146.119 -1572 155 154 169
-247.341 -145.53 -1566 185 183 204
-243.524 -145.127 -1562 220 218 239
-239.571 -144.632 -1557 212 212 232
-235.945 -144.324 -1554 211 213 233
-231.883 -143.737 -1548 213 217 237
-228.439 -143.522 -1546 214 220 239
-225.005 -143.308 -1544 215 221 240
-221.724 -143.188 -1543 216 222 241
-217.741 -142.603 -1537 214 222 239
-213.924 -142.112 -1532 212 221 237
-210.404 -141.807 -1529 213 218 235
-206.356 -141.132 -1522 213 217 235
-202.872 -140.828 -1519 214 216 234
-199.27 -140.432 -1515 213 217 234
-195.816 -140.129 -1512 212 217 234
-192.503 -139.92 -1510 210 215 232
-188.948 -139.525 -1506 210 214 232
-185.411 -139.131 -1502 209 213 233
-181.771 -138.645 -1497 206 211 225
-178.391 -138.345 -1494 208 213 226
-174.79 -137.86 -1489 211 216 229
-171.902 -137.931 -1490 215 218 229
-168.786 -137.817 -1489 211 212 222
-166.12 -138.073 -1492 201 200 208
-163.225 -138.145 -1493 193 192 200
-160.541 -138.403 -1496 196 196 200
-157.32 -138.198 -1494 200 200 205
-154.212 -138.086 -1493 213 212 219
-150.907 -137.79 -1490 221 220 227
-147.615 -137.494 -1487 220 219 227
-144.336 -137.198 -1484 215 214 224
-140.976 -136.81 -1480 213 212 222
-138.098 -136.885 -1481 211 210 220
-134.944 -136.684 -1479 212 211 221
-131.799 -136.482 -1477 215 214 224
-128.838 -136.466 -1477 217 216 226
-125.793 -136.358 -1476 218 217 227
-122.835 -136.342 -1476 220 219 229
-120.041 -136.512 -1478 219 218 228
-117.003 -136.405 -1477 218 217 227
-114.201 -136.575 -1479 216 215 225
-111.166 -136.469 -1478 214 213 223
-108.356 -136.64 -1480 209 208 218
-105.397 -136.626 -1480 208 207 217
-102.369 -136.521 -1479 207 206 217
-99.3457 -136.416 -1478 205 204 216
-96.5229 -136.589 -1480 203 202 212
-93.5665 -136.577 -1480 200 199 209
-90.611 -136.566 -1480 201 200 207
-87.8337 -136.831 -1483 207 206 214
-84.988 -137.005 -1485 218 217 225
-82.135 -137.179 -1487 232 231 238
-79.2747 -137.354 -1489 246 244 251
-76.3558 -137.436 -1490 254 252 255
-73.5321 -137.704 -1493 255 252 255
-70.6024 -137.787 -1494 255 253 255
-67.8051 -138.147 -1498 253 253 255
-65.0789 -138.692 -1504 253 253 255
-62.3707 -139.33 -1511 253 253 255
-59.5957 -139.876 -1517 253 253 255
-56.7973 -140.422 -1523 253 253 255
-53.8695 -140.692 -1526 253 253 255
-50.897 -140.869 -1528 253 253 255
-47.9795 -141.232 -1532 253 253 255
-45.0171 -141.503 -1535 253 253 255
-42.0432 -141.774 -1538 253 253 255
-39.0831 -142.138 -1542 253 253 254
-36.2007 -142.871 -1550 248 250 253
-33.2653 -143.511 -1557 245 247 252
-30.3606 -144.429 -1567 243 245 253
-27.5553 -146.085 -1585 224 226 234
-24.6632 -147.648 -1602 209 212 221
-21.7038 -149.212 -1619 208 210 219
-18.6653 -150.684 -1635 208 210 219
-15.4598 -151.143 -1640 121 122 132
-254.414 -149.134 -1570 75 74 85
-251.208 -149.101 -1570 147 146 160
-246.898 -148.404 -1563 158 156 175
-242.931 -147.898 -1558 218 216 237
-239.294 -147.582 -1555 213 214 234
-235.368 -147.077 -1550 212 214 234
-231.763 -146.763 -1547 212 216 236
-228.468 -146.638 -1546 213 219 238
-225.179 -146.514 -1545 215 221 240
-221.609 -146.201 -1542 216 222 241
-217.911 -145.794 -1538 214 222 239
-213.812 -145.103 -1531 212 220 237
-210.156 -144.696 -1527 213 218 235
-206.247 -144.101 -1521 213 218 235
-202.898 -143.885 -1519 215 217 235
-199.427 -143.575 -1516 213 217 235
-195.97 -143.266 -1513 212 217 234
-192.272 -142.768 -1508 211 216 233
-188.972 -142.554 -1506 209 213 231
-185.558 -142.246 -1503 207 211 231
-182.158 -141.939 -1500 206 210 225
-178.533 -141.443 -1495 206 211 225
-174.929 -140.947 -1490 210 215 228
-171.809 -140.83 -1489 214 217 230
-168.807 -140.808 -1489 212 213 224
-166.029 -140.976 -1491 200 199 209
-163.245 -141.144 -1493 191 190 198
-160.561 -141.407 -1496 198 196 200
-157.551 -141.387 -1496 204 202 208
-154.438 -141.273 -1495 209 208 215
-151.23 -141.064 -1493 203 202 209
-147.832 -140.667 -1489 197 196 204
-144.549 -140.365 -1486 204 203 213
-141.374 -140.158 -1484 215 214 224
-138.116 -139.857 -1481 208 207 217
-134.961 -139.651 -1479 199 198 208
-131.905 -139.539 -1478 197 196 206
-129.029 -139.617 -1479 201 200 210
-125.979 -139.507 -1478 206 205 214
-123.017 -139.491 -1478 210 209 218
-120.138 -139.57 -1479 212 211 221
-117.176 -139.554 -1479 212 211 221
-114.215 -139.54 -1479 213 212 222
-111.18 -139.431 -1478 211 210 221
-108.297 -139.512 -1479 209 208 219
-105.339 -139.498 -1479 209 208 217
-102.451 -139.579 -1480 209 208 218
-99.4253 -139.472 -1479 209 208 219
-96.6002 -139.648 -1481 208 207 217
-93.5783 -139.542 -1480 203 202 212
-90.6836 -139.624 -1481 200 199 207
-87.8447 -139.802 -1483 203 201 209
-85.1132 -140.168 -1487 208 206 214
-82.2558 -140.346 -1489 216 215 222
-79.3912 -140.524 -1491 230 228 235
-76.4166 -140.514 -1491 245 242 248
-73.5412 -140.693 -1493 251 249 254
-70.6112 -140.778 -1494 252 250 255
-67.6777 -140.864 -1495 253 253 255
-64.8706 -141.232 -1499 253 253 255
-62.172 -141.883 -1506 253 253 255
-59.4067 -142.441 -1512 253 253 255
-56.6552 -143.093 -1519 253 253 255
-53.8057 -143.557 -1524 253 253 255
-50.8367 -143.739 -1526 253 253 255
-47.8916 -144.015 -1529 252 252 255
-44.9348 -144.292 -1532 252 252 255
-42.0211 -144.757 -1537 253 253 255
-39.0372 -145.035 -1540 252 252 254
-36.1819 -145.878 -1549 250 251 254
-33.2909 -146.721 -1558 251 252 255
-30.5 -148.223 -1574 250 252 255
-27.5935 -149.444 -1587 234 236 244
-24.8973 -152.266 -1617 214 217 225
-22.0282 -154.711 -1643 207 208 218
-18.9074 -155.933 -1656 216 217 227
-15.6125 -155.93 -1656 165 166 176
-254.771 -152.498 -1572 64 64 74
-251.401 -152.368 -1571 137 138 152
-247.246 -151.753 -1565 136 135 153
-243.587 -151.43 -1562 218 216 236
-239.633 -150.913 -1557 213 214 234
-235.702 -150.397 -1552 213 215 235
-232.093 -150.076 -1549 213 217 237
-228.646 -149.852 -1547 213 219 238
-225.208 -149.629 -1545 213 219 238
-221.638 -149.309 -1542 215 221 240
-217.939 -148.893 -1538 214 221 239
-213.979 -148.283 -1532 212 219 237
-210.045 -147.675 -1526 213 218 235
-206.544 -147.358 -1523 214 219 236
-203.191 -147.137 -1521 215 217 235
-199.453 -146.627 -1516 214 218 235
-196.254 -146.505 -1515 212 217 234
-192.679 -146.092 -1511 212 217 234
-188.996 -145.584 -1506 209 214 232
-185.459 -145.173 -1502 207 211 231
-182.182 -144.956 -1500 206 211 227
-178.436 -144.352 -1494 206 211 226
-174.952 -143.943 -1490 208 213 226
-172.062 -144.017 -1491 213 216 229
-168.942 -143.898 -1490 212 213 225
-166.051 -143.973 -1491 203 203 213
-163.266 -144.144 -1493 194 193 202
-160.582 -144.413 -1496 199 196 199
-157.677 -144.489 -1497 202 200 205
-154.562 -144.372 -1496 203 202 209
-151.452 -144.255 -1495 192 191 198
-148.05 -143.85 -1491 190 189 197
-144.762 -143.541 -1488 207 206 216
-141.393 -143.137 -1484 211 210 220
-138.227 -142.926 -1482 198 197 207
-135.07 -142.715 -1480 191 190 200
-132.101 -142.698 -1480 191 190 200
-129.132 -142.681 -1480 192 192 202
-126.165 -142.664 -1480 195 194 203
-123.199 -142.648 -1480 197 196 204
-120.234 -142.632 -1480 201 200 210
-117.27 -142.617 -1480 205 204 214
-114.23 -142.506 -1479 209 208 218
-111.345 -142.587 -1480 210 209 221
-108.457 -142.669 -1481 209 208 220
-105.566 -142.752 -1482 210 209 217
-102.602 -142.738 -1482 210 209 218
-99.5726 -142.629 -1481 210 209 219
-96.7431 -142.809 -1483 209 208 218
-93.7799 -142.796 -1483 203 202 212
-90.8789 -142.881 -1484 201 200 208
-88.0337 -143.062 -1486 204 202 210
-85.2386 -143.339 -1489 207 204 212
-82.3769 -143.521 -1491 208 207 214
-79.5079 -143.703 -1493 215 214 221
-76.4777 -143.597 -1492 228 225 232
-73.6492 -143.876 -1495 240 239 245
-70.6203 -143.77 -1494 248 248 252
-67.7317 -143.954 -1496 253 253 255
-64.9656 -144.426 -1501 254 254 255
-62.2213 -144.995 -1507 253 253 255
-59.3357 -145.276 -1510 253 253 255
-56.4759 -145.653 -1514 253 253 255
-53.6007 -146.031 -1518 253 253 255
-50.6766 -146.313 -1521 252 252 255
-47.7724 -146.691 -1525 252 252 255
-44.8526 -147.07 -1529 254 254 255
-41.9445 -147.545 -1534 255 255 255
-39.0169 -148.021 -1539 254 254 255
-36.093 -148.593 -1545 254 254 255
-33.2096 -149.455 -1554 253 253 255
-30.4652 -151.181 -1572 252 254 255
-27.7014 -153.197 -1593 237 239 246
-25.1776 -157.233 -1635 214 217 224
-22.1115 -158.576 -1649 212 212 221
-19.0126 -160.112 -1665 227 227 237
-15.7276 -160.398 -1668 212 211 220
-255.129 -155.871 -1574 54 54 64
-251.114 -155.342 -1569 123 124 138
-247.121 -154.814 -1564 116 115 132
-243.463 -154.484 -1561 212 210 229
-239.357 -153.858 -1555 214 215 234
-235.733 -153.529 -1552 215 217 237
-232.423 -153.399 -1551 214 218 238
-228.972 -153.17 -1549 213 219 238
-225.238 -152.744 -1545 214 220 239
-221.954 -152.615 -1544 215 221 240
-217.826 -151.894 -1537 213 219 238
-213.868 -151.272 -1531 213 219 238
-210.073 -150.75 -1526 212 217 235
-206.572 -150.426 -1523 213 217 235
-202.951 -150.003 -1519 214 216 234
-199.479 -149.68 -1516 212 217 234
-196.151 -149.456 -1514 212 217 234
-192.705 -149.134 -1511 211 216 233
-189.021 -148.615 -1506 210 215 233
-185.607 -148.294 -1503 209 213 233
-182.327 -148.072 -1501 207 211 228
-178.58 -147.457 -1495 206 211 226
-174.975 -146.94 -1490 207 212 225
-171.738 -146.719 -1488 213 216 229
-168.624 -146.598 -1487 214 215 227
-165.627 -146.576 -1487 202 202 212
-162.96 -146.85 -1490 194 192 202
-160.281 -147.124 -1493 197 194 197
-157.487 -147.3 -1495 202 200 205
-154.582 -147.378 -1496 199 198 205
-151.573 -147.357 -1496 189 188 195
-148.268 -147.042 -1493 191 190 198
-144.976 -146.727 -1490 207 206 216
-141.506 -146.216 -1485 214 213 223
-138.338 -146 -1483 207 206 216
-135.179 -145.785 -1481 198 197 207
-132.029 -145.57 -1479 192 191 201
-129.237 -145.75 -1481 191 191 201
-126.267 -145.733 -1481 192 191 200
-123.216 -145.618 -1480 192 191 199
-120.25 -145.602 -1480 195 194 204
-117.286 -145.586 -1480 197 196 206
-114.322 -145.571 -1480 201 200 210
-111.435 -145.654 -1481 205 204 216
-108.545 -145.738 -1482 206 205 217
-105.722 -145.921 -1484 205 204 212
-102.824 -146.005 -1485 203 202 211
-99.8545 -145.992 -1485 203 202 212
-96.9515 -146.077 -1486 203 202 212
-93.982 -146.064 -1486 201 200 210
-91.0132 -146.052 -1486 201 200 208
-88.1045 -146.139 -1487 205 203 211
-85.307 -146.422 -1490 207 204 212
-82.4982 -146.706 -1493 206 205 212
-79.5715 -146.793 -1494 209 208 215
-76.6414 -146.881 -1495 214 213 220
-73.7573 -147.068 -1497 225 224 231
-70.7713 -147.058 -1497 235 234 241
-67.7858 -147.049 -1497 244 244 248
-64.9307 -147.335 -1500 252 252 254
-62.1056 -147.719 -1504 253 253 255
-59.1862 -147.908 -1506 253 253 255
-56.3714 -148.391 -1511 252 252 255
-53.4664 -148.679 -1514 253 253 255
-50.4833 -148.77 -1515 253 253 255
-47.622 -149.254 -1520 253 253 255
-44.6531 -149.445 -1522 253 253 255
-41.7586 -149.93 -1527 254 254 255
-38.8952 -150.612 -1534 253 253 254
-36.0043 -151.294 -1541 252 252 255
-33.0857 -151.977 -1548 251 251 255
-30.6242 -155.114 -1580 252 254 255
-27.8615 -157.27 -1602 238 240 246
-25.3657 -161.685 -1647 218 220 227
-22.2485 -162.859 -1659 222 222 231
-19.0722 -163.936 -1670 223 222 232
-15.7862 -164.327 -1674 233 231 239
-255.326 -159.153 -1575 47 47 56
-251.468 -158.714 -1571 108 109 121
-247.155 -157.973 -1564 108 107 123
-243.808 -157.838 -1563 209 207 224
-239.851 -157.3 -1558 215 216 234
-236.373 -157.066 -1556 213 216 235
-232.605 -156.63 -1552 213 217 238
-229.298 -156.497 -1551 214 220 239
-225.123 -155.76 -1544 215 221 240
-221.984 -155.729 -1544 216 220 240
-217.856 -154.993 -1537 214 219 239
-214.036 -154.46 -1532 213 219 238
-210.377 -154.028 -1528 213 217 237
-207.007 -153.797 -1526 213 217 236
-203.245 -153.266 -1521 214 216 234
-199.901 -153.037 -1519 212 216 233
-196.307 -152.607 -1515 211 216 233
-192.731 -152.177 -1511 211 216 233
-189.172 -151.748 -1507 210 215 233
-185.755 -151.421 -1504 208 212 232
-182.473 -151.194 -1502 207 211 228
-178.723 -150.566 -1496 206 211 226
-175.233 -150.139 -1492 205 211 225
-171.877 -149.814 -1489 211 215 228
-168.76 -149.69 -1488 216 218 229
-165.872 -149.768 -1489 205 204 215
-163.2 -150.047 -1492 195 194 203
-160.41 -150.226 -1494 198 195 198
-157.613 -150.406 -1496 200 198 202
-154.603 -150.385 -1496 197 196 202
-151.695 -150.465 -1497 190 189 196
-148.288 -150.042 -1493 192 191 199
-144.898 -149.62 -1489 205 204 214
-141.525 -149.199 -1485 219 218 228
-138.45 -149.08 -1484 230 229 239
-135.106 -148.659 -1480 217 217 227
-132.136 -148.641 -1480 205 205 215
-129.254 -148.724 -1481 197 198 208
-126.37 -148.807 -1482 194 193 202
-123.315 -148.69 -1481 193 192 201
-120.348 -148.673 -1481 194 193 203
-117.46 -148.758 -1482 194 193 203
-114.492 -148.742 -1482 194 193 203
-111.6 -148.827 -1483 197 196 207
-108.706 -148.912 -1484 197 196 207
-105.95 -149.199 -1487 198 197 206
-102.976 -149.185 -1487 197 196 206
-100.002 -149.171 -1487 198 197 208
-97.0949 -149.258 -1488 200 199 209
-94.2475 -149.446 -1490 201 200 210
-91.2705 -149.433 -1490 201 200 208
-88.3533 -149.521 -1491 202 200 208
-85.4901 -149.71 -1493 203 201 209
-82.675 -150 -1496 202 202 210
-79.7419 -150.089 -1497 202 202 210
-76.8055 -150.179 -1498 205 204 212
-73.915 -150.369 -1500 213 211 219
-70.9226 -150.359 -1500 220 218 225
-67.976 -150.45 -1501 227 227 231
-65.0693 -150.642 -1503 241 241 245
-62.1964 -150.934 -1506 250 250 253
-59.1941 -150.926 -1506 253 253 255
-56.267 -151.118 -1508 254 254 255
-53.2616 -151.111 -1508 253 253 255
-50.2901 -151.204 -1509 253 253 255
-47.3776 -151.498 -1512 253 253 255
-44.5123 -151.993 -1517 253 253 255
-41.6274 -152.488 -1522 254 254 255
-38.7229 -152.984 -1527 254 254 255
-35.8689 -153.78 -1535 253 253 255
-32.9619 -154.477 -1542 253 253 255
-30.163 -155.875 -1556 250 251 255
-27.6565 -159.277 -1590 243 245 250
-25.2305 -164.082 -1638 233 235 242
-22.1307 -165.281 -1650 236 235 245
-19.0633 -167.181 -1669 224 222 232
-15.7884 -167.68 -1674 240 237 246
-12.4936 -168.179 -1679 166 165 172
-252.784 -162.714 -1579 97 98 110
-248.137 -161.751 -1570 104 105 120
-244.778 -161.614 -1569 205 205 221
-241.116 -161.271 -1566 216 217 235
-237.013 -160.62 -1560 215 218 237
-233.236 -160.175 -1556 214 218 239
-229.773 -159.937 -1554 214 220 239
-225.737 -159.288 -1548 215 221 240
-221.871 -158.742 -1543 216 220 240
-218.027 -158.197 -1538 215 220 239
-214.625 -157.961 -1536 213 219 238
-210.681 -157.315 -1530 214 218 238
-207.171 -156.977 -1527 213 217 237
-203.407 -156.435 -1522 214 216 235
-199.797 -155.995 -1518 212 216 234
-196.075 -155.454 -1513 211 216 233
-192.757 -155.222 -1511 211 216 233
-189.198 -154.784 -1507 210 215 233
-186.151 -154.758 -1507 207 211 231
-182.62 -154.322 -1503 206 211 227
-179.226 -153.989 -1500 206 211 226
-175.492 -153.348 -1494 205 211 225
-171.9 -152.811 -1489 210 215 228
-168.67 -152.582 -1487 216 219 230
-165.672 -152.559 -1487 207 207 217
-163.113 -152.946 -1491 195 194 203
-160.325 -153.129 -1493 198 195 198
-157.635 -153.415 -1496 199 197 201
-154.727 -153.496 -1497 196 195 200
-151.817 -153.577 -1498 191 190 197
-148.308 -153.044 -1493 193 192 199
-144.821 -152.511 -1488 204 203 213
-141.449 -152.081 -1484 215 214 224
-138.282 -151.857 -1482 235 234 244
-135.033 -151.531 -1479 237 238 248
-132.064 -151.512 -1479 223 224 234
-129.184 -151.597 -1480 210 211 221
-126.301 -151.681 -1481 202 202 212
-123.332 -151.664 -1481 198 197 207
-120.445 -151.75 -1482 197 196 206
-117.476 -151.733 -1482 196 195 205
-114.585 -151.82 -1483 195 194 204
-111.691 -151.906 -1484 195 194 204
-108.867 -152.096 -1486 192 191 201
-106.036 -152.286 -1488 195 194 204
-103.128 -152.374 -1489 193 192 203
-100.218 -152.462 -1490 193 192 204
-97.304 -152.551 -1491 195 194 204
-94.3237 -152.537 -1491 195 194 203
-91.2829 -152.422 -1490 194 193 200
-88.4246 -152.615 -1492 192 191 199
-85.559 -152.807 -1494 192 191 199
-82.6309 -152.898 -1495 193 195 202
-79.806 -153.194 -1498 194 195 203
-76.9698 -153.49 -1501 197 196 204
-74.0237 -153.581 -1502 201 199 206
-71.0268 -153.571 -1502 205 202 209
-68.0758 -153.664 -1503 211 211 215
-65.1214 -153.757 -1504 221 221 225
-62.2048 -153.953 -1506 231 231 235
-59.2415 -154.047 -1507 243 243 247
-56.3119 -154.243 -1509 251 251 254
-53.2336 -154.031 -1507 254 254 255
-50.2636 -154.126 -1508 254 254 255
-47.2901 -154.222 -1509 253 253 255
-44.401 -154.624 -1513 253 253 255
-41.4689 -154.925 -1516 253 253 255
-38.6013 -155.533 -1522 253 253 255
-35.6633 -155.936 -1526 252 253 255
-32.8167 -156.851 -1535 252 254 255
-29.9344 -157.767 -1544 251 251 255
-27.2601 -160.113 -1567 244 243 250
-24.9104 -165.218 -1617 238 237 245
-22.1204 -168.485 -1649 243 241 250
-18.9288 -169.299 -1657 234 232 240
-15.6679 -169.705 -1661 241 239 247
-12.3986 -170.214 -1666 186 186 193
-252.98 -166.011 -1580 82 83 95
-248.172 -164.925 -1570 100 101 115
-245.124 -164.995 -1571 193 194 210
-241.15 -164.435 -1566 215 216 234
-237.806 -164.296 -1565 215 217 237
-233.869 -163.738 -1560 215 219 240
-230.102 -163.285 -1556 216 222 241
-225.769 -162.413 -1548 217 222 241
-222.334 -162.171 -1546 216 220 240
-218.2 -161.406 -1539 215 220 239
-214.655 -161.061 -1536 213 219 238
-211.124 -160.716 -1533 214 218 238
-207.743 -160.476 -1531 213 217 237
-203.703 -159.713 -1524 213 215 235
-200.22 -159.37 -1521 211 215 233
-196.491 -158.818 -1516 211 216 233
-192.912 -158.372 -1512 211 216 233
-189.351 -157.926 -1508 210 215 233
-186.178 -157.795 -1507 208 212 232
-183.01 -157.664 -1506 208 213 229
-179.37 -157.115 -1501 206 211 226
-175.752 -156.566 -1496 202 208 223
-172.04 -155.914 -1490 208 213 226
-168.807 -155.68 -1488 215 218 229
-165.695 -155.552 -1487 211 211 221
-163.136 -155.947 -1491 196 195 205
-160.347 -156.134 -1493 198 195 198
-157.657 -156.425 -1496 198 196 200
-154.749 -156.507 -1497 195 195 199
-151.737 -156.486 -1497 192 191 198
-148.13 -155.837 -1491 193 192 199
-144.743 -155.399 -1487 207 206 215
-141.374 -154.96 -1483 213 212 222
-138.208 -154.732 -1481 220 219 229
-135.052 -154.504 -1479 241 242 252
-132.172 -154.589 -1480 240 241 251
-129.202 -154.571 -1480 228 229 239
-126.404 -154.762 -1482 213 212 222
-123.433 -154.744 -1482 203 202 212
-120.543 -154.831 -1483 199 198 208
-117.572 -154.815 -1483 198 197 207
-114.756 -155.007 -1485 195 194 204
-111.932 -155.2 -1487 195 194 204
-108.955 -155.184 -1487 194 193 203
-106.193 -155.482 -1490 193 192 202
-103.351 -155.676 -1492 190 189 200
-100.434 -155.766 -1493 189 188 200
-97.448 -155.752 -1493 189 188 199
-94.4634 -155.739 -1493 189 188 198
-91.4181 -155.622 -1492 188 187 194
-88.5555 -155.817 -1494 187 186 194
-85.6282 -155.909 -1495 188 187 195
-82.6977 -156.002 -1496 186 188 195
-79.9236 -156.408 -1500 188 189 196
-77.0318 -156.605 -1502 190 189 197
-74.1325 -156.803 -1504 190 188 196
-71.1313 -156.793 -1504 191 189 196
-68.1759 -156.887 -1505 196 196 200
-65.2171 -156.982 -1506 202 202 206
-62.2548 -157.078 -1507 209 209 213
-59.2104 -156.965 -1506 219 219 223
-56.2824 -157.165 -1508 230 230 234
-53.1703 -156.845 -1505 240 240 243
-50.1706 -156.838 -1505 248 248 251
-47.2966 -157.248 -1509 252 252 254
-44.3484 -157.45 -1511 254 254 255
-41.4473 -157.86 -1515 253 253 255
-38.5559 -158.376 -1520 253 253 255
-35.6216 -158.787 -1524 253 254 255
-32.6716 -159.199 -1528 251 253 255
-29.8223 -160.237 -1538 252 251 255
-27.0377 -161.9 -1554 245 244 251
-24.3592 -164.709 -1581 237 236 244
-21.7745 -169.081 -1623 237 234 242
-18.7372 -170.85 -1640 246 244 251
-15.5285 -171.472 -1646 249 247 253
-12.2737 -171.783 -1649 201 201 206
-252.055 -168.565 -1574 67 68 80
-248.366 -168.207 -1571 92 93 107
-244.847 -167.957 -1569 187 188 202
-241.185 -167.601 -1566 216 217 235
-237.233 -167.031 -1561 216 218 237
-233.902 -166.89 -1560 215 219 240
-229.987 -166.321 -1555 217 223 242
-225.656 -165.433 -1547 217 223 242
-222.51 -165.4 -1547 216 220 240
-218.231 -164.513 -1539 214 220 239
-215.245 -164.589 -1540 214 220 239
-211.43 -164.024 -1535 214 218 238
-208.044 -163.779 -1533 213 217 237
-203.866 -162.895 -1525 213 215 235
-200.117 -162.332 -1520 211 215 233
-196.519 -161.876 -1516 210 215 232
-192.812 -161.314 -1511 211 216 233
-189.378 -160.966 -1508 211 216 234
-186.328 -160.939 -1508 210 214 234
-183.279 -160.912 -1508 208 213 229
-179.635 -160.353 -1503 205 210 225
-176.012 -159.793 -1498 202 208 223
-172.18 -159.022 -1491 207 212 226
-168.831 -158.677 -1488 214 217 228
-165.83 -158.653 -1488 215 215 225
-163.269 -159.056 -1492 197 196 206
-160.585 -159.352 -1495 196 193 196
-157.89 -159.649 -1498 196 194 198
-155.081 -159.84 -1500 194 194 198
-151.961 -159.711 -1499 193 192 199
-148.449 -159.157 -1494 193 192 199
-144.861 -158.497 -1488 206 205 213
-141.489 -158.05 -1484 215 214 224
-138.415 -157.923 -1483 213 212 222
-135.162 -157.584 -1480 229 230 240
-132.28 -157.672 -1481 239 240 250
-129.308 -157.653 -1481 240 242 251
-126.508 -157.847 -1483 229 229 238
-123.534 -157.829 -1483 213 212 222
-120.723 -158.025 -1485 201 200 210
-117.826 -158.114 -1486 198 197 207
-115.004 -158.31 -1488 196 195 205
-112.023 -158.294 -1488 195 194 204
-109.044 -158.278 -1488 193 192 203
-106.28 -158.582 -1491 193 192 201
-103.296 -158.567 -1491 190 189 199
-100.381 -158.658 -1492 188 187 199
-97.4618 -158.751 -1493 189 188 198
-94.4768 -158.737 -1493 189 188 198
-91.4923 -158.724 -1493 188 187 195
-88.568 -158.817 -1494 188 187 195
-85.6403 -158.911 -1495 188 187 195
-82.7095 -159.005 -1496 186 187 194
-79.8818 -159.312 -1499 187 188 195
-76.9401 -159.407 -1500 188 187 195
-74.0444 -159.609 -1502 188 187 194
-71.0941 -159.705 -1503 188 187 194
-68.0949 -159.695 -1503 192 191 196
-65.2263 -160.004 -1506 193 193 197
-62.3049 -160.208 -1508 195 195 199
-59.2975 -160.199 -1508 200 200 204
-56.3651 -160.403 -1510 208 208 212
-53.3545 -160.395 -1510 216 216 220
-50.3111 -160.282 -1509 229 229 232
-47.3033 -160.275 -1509 241 241 244
-44.3547 -160.481 -1511 249 249 251
-41.3984 -160.687 -1513 252 252 255
-38.4852 -161.106 -1517 253 253 254
-35.5565 -161.525 -1521 252 253 255
-32.6121 -161.945 -1525 252 253 255
-29.7101 -162.684 -1532 252 253 255
-26.7284 -163.105 -1536 249 249 253
-23.9311 -164.907 -1553 246 245 252
-21.1469 -167.345 -1576 238 236 244
-18.3284 -170.316 -1604 243 240 248
-15.3042 -172.225 -1622 254 251 255
-12.0596 -172.01 -1620 214 214 217
-252.733 -172.187 -1578 58 59 71
-248.245 -171.277 -1570 82 83 96
-244.883 -171.131 -1569 177 178 192
-241.066 -170.659 -1565 214 215 233
-237.419 -170.296 -1562 218 220 239
-233.787 -169.934 -1559 217 221 242
-230.168 -169.573 -1556 217 223 242
-226.272 -168.995 -1551 217 223 242
-222.83 -168.744 -1549 217 221 241
-218.405 -167.731 -1540 215 220 239
-215.276 -167.699 -1540 213 219 238
-211.461 -167.123 -1535 214 218 238
-208.074 -166.874 -1533 214 218 238
-203.896 -165.973 -1525 213 215 235
-200.409 -165.617 -1522 210 214 232
-196.678 -165.043 -1517 209 214 231
-193.095 -164.58 -1513 211 216 233
-189.782 -164.334 -1511 213 218 235
-186.602 -164.197 -1510 212 216 236
-183.428 -164.061 -1509 208 213 230
-179.78 -163.491 -1504 205 210 226
-176.273 -163.03 -1500 201 207 222
-172.551 -162.353 -1494 206 211 224
-169.083 -161.893 -1490 212 215 226
-165.966 -161.76 -1489 216 216 226
-163.511 -162.279 -1494 198 197 207
-160.716 -162.472 -1496 196 193 196
-157.913 -162.666 -1498 195 193 197
-155 -162.751 -1499 193 193 197
-151.983 -162.729 -1499 194 193 200
-148.57 -162.273 -1495 194 193 200
-145.077 -161.709 -1490 206 205 213
-141.701 -161.253 -1486 213 212 221
-138.341 -160.799 -1482 213 212 222
-135.09 -160.453 -1479 216 217 227
-132.121 -160.434 -1479 226 227 237
-129.24 -160.523 -1480 239 241 248
-126.441 -160.721 -1482 244 244 252
-123.551 -160.811 -1483 230 229 237
-120.741 -161.011 -1485 211 210 220
-117.923 -161.21 -1487 203 202 212
-115.098 -161.41 -1489 199 198 208
-112.115 -161.393 -1489 196 195 207
-109.133 -161.377 -1489 194 193 204
-106.295 -161.578 -1491 194 193 201
-103.242 -161.454 -1490 193 192 201
-100.395 -161.656 -1492 192 191 202
-97.476 -161.75 -1493 194 193 203
-94.4271 -161.628 -1492 196 195 205
-91.5055 -161.722 -1493 196 195 203
-88.6401 -161.926 -1495 196 194 202
-85.71 -162.021 -1496 196 193 201
-82.8319 -162.226 -1498 193 192 200
-79.9465 -162.431 -1500 193 193 201
-77.1051 -162.744 -1503 193 192 200
-74.1044 -162.733 -1503 193 192 199
-71.1516 -162.831 -1504 193 192 199
-68.1501 -162.82 -1504 192 191 198
-65.3223 -163.244 -1508 191 190 196
-62.3139 -163.235 -1508 191 191 195
-59.306 -163.226 -1508 194 194 198
-56.3358 -163.325 -1509 199 199 203
-53.3269 -163.317 -1509 201 201 205
-50.2849 -163.202 -1508 209 209 213
-47.3101 -163.303 -1509 222 222 226
-44.3611 -163.513 -1511 238 238 242
-41.4318 -163.831 -1514 250 250 253
-38.4654 -164.042 -1516 252 252 254
-35.5616 -164.577 -1521 252 252 255
-32.6168 -165.005 -1525 251 252 255
-29.6368 -165.325 -1528 250 252 254
-26.6974 -165.97 -1534 251 252 255
-23.7342 -166.616 -1540 250 249 255
-20.8548 -168.127 -1554 245 243 250
-18.0111 -170.505 -1576 240 237 245
-14.929 -171.151 -1582 247 245 250
-11.838 -172.015 -1590 226 226 228
-8.62786 -171.148 -1582 135 137 141
-248.44 -174.566 -1571 78 78 92
-244.764 -174.195 -1568 159 160 174
-240.948 -173.714 -1564 216 217 235
-237.455 -173.456 -1562 216 219 238
-233.222 -172.643 -1555 217 221 242
-230.055 -172.609 -1555 218 224 243
-226.014 -171.908 -1549 218 224 243
-222.719 -171.764 -1548 217 221 241
-218.721 -171.065 -1542 215 220 239
-215.448 -170.921 -1541 214 220 239
-211.354 -170.113 -1534 214 219 238
-207.698 -169.638 -1530 214 219 238
-203.792 -168.941 -1524 214 216 236
-200.307 -168.579 -1521 210 213 232
-196.966 -168.327 -1519 209 213 230
-193.124 -167.633 -1513 211 216 233
-189.81 -167.383 -1511 214 219 237
-186.63 -167.244 -1510 213 218 236
-183.333 -166.995 -1508 208 213 231
-179.688 -166.414 -1503 206 211 228
-176.181 -165.944 -1499 203 209 224
-172.577 -165.365 -1494 205 210 225
-169.221 -165.007 -1491 210 214 227
-166.102 -164.871 -1490 217 217 229
-163.426 -165.179 -1493 203 203 214
-160.847 -165.597 -1497 192 191 196
-158.042 -165.794 -1499 194 193 197
-155.127 -165.882 -1500 192 191 195
-152.107 -165.859 -1500 192 191 197
-148.791 -165.505 -1497 196 195 202
-145.196 -164.819 -1491 204 204 212
-141.721 -164.245 -1486 213 212 221
-138.455 -163.893 -1483 214 213 223
-135.11 -163.43 -1479 215 215 226
-132.051 -163.3 -1478 222 222 233
-129.084 -163.28 -1478 234 234 243
-126.289 -163.482 -1480 243 243 252
-123.486 -163.685 -1482 242 242 251
-120.677 -163.887 -1484 228 227 237
-117.94 -164.201 -1487 212 210 220
-114.96 -164.183 -1487 205 203 213
-111.981 -164.167 -1487 202 201 213
-109.149 -164.371 -1489 203 202 214
-106.168 -164.355 -1489 202 201 210
-103.257 -164.45 -1490 202 201 210
-100.41 -164.655 -1492 204 203 213
-97.5556 -164.861 -1494 202 201 211
-94.441 -164.626 -1492 202 201 211
-91.5191 -164.723 -1493 203 202 210
-88.5938 -164.82 -1494 204 203 212
-85.6654 -164.917 -1495 205 204 213
-82.7335 -165.015 -1496 204 204 213
-79.905 -165.334 -1499 204 204 213
-77.0139 -165.543 -1501 203 202 210
-74.0167 -165.531 -1501 202 201 208
-71.0675 -165.631 -1502 201 200 207
-68.1147 -165.731 -1503 197 196 203
-65.2886 -166.162 -1507 194 193 199
-62.3231 -166.263 -1508 191 192 195
-59.3934 -166.474 -1510 193 194 197
-56.4562 -166.686 -1512 196 196 199
-53.4407 -166.678 -1512 199 198 204
-50.3923 -166.56 -1511 204 203 209
-47.3798 -166.553 -1511 212 211 218
-44.3969 -166.656 -1512 223 223 228
-41.4105 -166.76 -1513 238 238 241
-38.4457 -166.975 -1515 246 246 249
-35.5435 -167.52 -1520 249 249 253
-32.5573 -167.736 -1522 242 242 246
-29.6217 -168.282 -1527 243 244 249
-26.6491 -168.719 -1531 250 250 254
-23.6453 -169.046 -1534 253 251 255
-20.6967 -169.924 -1542 253 251 255
-17.6937 -170.582 -1548 252 250 254
-14.6952 -171.572 -1557 249 248 254
-11.6535 -172.451 -1565 242 242 246
-8.50909 -171.899 -1560 165 167 171
-248.478 -177.747 -1571 77 76 89
-244.957 -177.483 -1569 146 146 160
-240.985 -176.88 -1564 217 218 236
-237.643 -176.73 -1563 218 220 239
-233.857 -176.242 -1559 217 221 242
-230.386 -175.98 -1557 218 223 243
-226.486 -175.38 -1552 218 223 243
-223.329 -175.346 -1552 216 220 240
-219.038 -174.408 -1544 216 220 240
-215.341 -173.923 -1540 214 220 240
-211.386 -173.213 -1534 213 219 239
-207.73 -172.729 -1530 214 219 239
-203.823 -172.02 -1524 214 216 236
-200.469 -171.764 -1522 211 213 232
-197.126 -171.508 -1520 210 212 230
-193.664 -171.139 -1517 210 215 232
-189.965 -170.546 -1512 213 218 236
-186.782 -170.404 -1511 213 218 235
-183.482 -170.151 -1509 209 214 231
-179.715 -169.447 -1503 206 211 228
-176.208 -168.969 -1499 203 209 224
-172.719 -168.491 -1495 203 209 224
-169.247 -168.014 -1491 209 214 229
-166.127 -167.876 -1490 215 217 231
-163.451 -168.189 -1493 205 206 220
-160.656 -168.389 -1495 192 194 201
-157.96 -168.703 -1498 192 192 197
-155.047 -168.792 -1499 193 190 193
-152.029 -168.768 -1499 193 193 197
-148.714 -168.408 -1496 199 199 203
-145.218 -167.823 -1491 206 208 214
-141.838 -167.351 -1487 212 212 221
-138.382 -166.767 -1482 212 211 221
-135.131 -166.408 -1479 213 212 224
-131.982 -166.163 -1477 219 218 229
-129.103 -166.256 -1478 227 226 236
-126.222 -166.349 -1479 235 235 245
-123.422 -166.555 -1481 239 239 249
-120.614 -166.761 -1483 237 236 246
-117.878 -167.081 -1486 227 226 236
-114.9 -167.063 -1486 222 219 229
-112.073 -167.27 -1488 215 213 225
-109.166 -167.366 -1489 211 210 222
-106.255 -167.462 -1490 210 209 219
-103.272 -167.446 -1490 209 208 218
-100.425 -167.656 -1492 210 209 219
-97.5702 -167.865 -1494 210 209 219
-94.4552 -167.626 -1492 210 209 219
-91.5328 -167.724 -1493 211 210 218
-88.6071 -167.823 -1494 210 210 219
-85.6782 -167.922 -1495 210 211 221
-82.7459 -168.022 -1496 212 213 223
-79.8636 -168.234 -1498 212 213 222
-76.974 -168.447 -1500 214 213 221
-74.0277 -168.548 -1501 215 214 222
-71.0781 -168.649 -1502 215 214 221
-68.125 -168.751 -1503 215 214 221
-65.2551 -169.078 -1506 209 209 215
-62.2911 -169.18 -1507 204 205 208
-59.2843 -169.171 -1507 202 202 205
-56.3526 -169.387 -1509 200 200 202
-53.378 -169.491 -1510 201 200 207
-50.3999 -169.595 -1511 204 203 209
-47.4182 -169.7 -1512 206 205 211
-44.4916 -170.03 -1515 211 211 216
-41.5262 -170.248 -1517 228 228 232
-38.5276 -170.354 -1518 243 243 247
-35.5488 -170.573 -1520 249 249 253
-32.5836 -170.904 -1523 243 242 247
-29.6262 -171.348 -1527 236 235 243
-26.6357 -171.681 -1530 237 235 244
-23.6333 -172.014 -1533 241 238 247
-20.6596 -172.684 -1539 243 241 251
-17.6621 -173.354 -1545 248 247 254
-14.6408 -174.025 -1551 248 250 254
-11.5882 -174.584 -1556 252 253 255
-8.49416 -174.695 -1557 217 216 222
-250.889 -182.658 -1586 70 69 81
-246.244 -181.582 -1577 139 138 152
-241.484 -180.393 -1567 219 218 237
-237.984 -180.125 -1565 219 220 239
-234.193 -179.628 -1561 217 220 241
-230.273 -179.016 -1556 217 221 242
-226.667 -178.636 -1553 218 222 243
-223.507 -178.601 -1553 216 220 240
-219.356 -177.761 -1546 215 220 240
-215.514 -177.152 -1541 214 220 240
-211.419 -176.314 -1534 212 218 238
-207.897 -175.937 -1531 212 218 238
-204.122 -175.33 -1526 214 216 236
-200.896 -175.184 -1525 212 214 233
-197.545 -174.923 -1523 210 212 230
-194.077 -174.548 -1520 209 214 231
-190.496 -174.059 -1516 210 215 232
-187.181 -173.8 -1514 210 215 232
-183.754 -173.427 -1511 208 213 230
-179.982 -172.71 -1505 207 212 229
-176.47 -172.223 -1501 204 210 225
-172.976 -171.737 -1497 204 209 224
-169.5 -171.252 -1493 207 212 227
-166.376 -171.111 -1492 214 216 231
-163.476 -171.2 -1493 211 212 227
-160.681 -171.404 -1495 194 196 204
-157.879 -171.609 -1497 191 191 197
-155.07 -171.814 -1499 194 193 195
-152.052 -171.79 -1499 194 194 197
-148.737 -171.423 -1496 199 199 202
-145.337 -170.942 -1492 208 210 216
-141.955 -170.462 -1488 214 214 223
-138.591 -169.982 -1484 214 213 223
-135.151 -169.388 -1479 215 214 226
-132.002 -169.138 -1477 219 218 230
-129.123 -169.232 -1478 225 224 234
-126.242 -169.327 -1479 232 231 241
-123.357 -169.423 -1480 238 238 248
-120.632 -169.747 -1483 242 241 251
-117.896 -170.072 -1486 240 238 248
-114.917 -170.054 -1486 236 234 244
-112.09 -170.265 -1488 229 228 239
-109.182 -170.363 -1489 223 222 234
-106.2 -170.346 -1489 220 219 229
-103.219 -170.33 -1489 216 215 225
-100.373 -170.543 -1491 215 214 224
-97.5198 -170.757 -1493 214 213 223
-94.5329 -170.742 -1493 215 214 223
-91.6081 -170.842 -1494 215 214 222
-88.6206 -170.828 -1494 214 215 224
-85.7486 -171.043 -1496 215 216 226
-82.7032 -170.916 -1495 220 219 228
-79.8225 -171.132 -1497 221 221 229
-76.8318 -171.12 -1497 223 222 230
-74.0391 -171.566 -1501 225 224 231
-71.0416 -171.554 -1501 225 224 231
-68.1354 -171.772 -1503 225 225 230
-65.265 -172.105 -1506 223 223 227
-62.3419 -172.323 -1508 221 222 225
-59.3326 -172.314 -1508 218 219 222
-56.3985 -172.534 -1510 211 211 215
-53.4568 -172.754 -1512 204 204 209
-50.4743 -172.86 -1513 201 200 205
-47.4568 -172.853 -1513 201 201 206
-44.4985 -173.074 -1515 205 205 209
-41.5051 -173.182 -1516 217 217 221
-38.4573 -173.061 -1515 236 236 240
-35.5074 -173.398 -1518 252 251 254
-32.5885 -173.964 -1523 247 246 252
-29.5919 -174.188 -1525 237 236 243
-26.6397 -174.755 -1530 229 228 236
-23.6678 -175.322 -1535 231 228 236
-20.6493 -175.661 -1538 231 228 238
-17.6304 -176.115 -1542 235 232 242
-14.6336 -177.026 -1550 236 238 245
-11.5825 -177.595 -1555 243 244 249
-8.48997 -177.708 -1556 241 242 247
-246.439 -184.895 -1578 128 127 141
-241.985 -183.919 -1570 219 217 236
-238.021 -183.295 -1565 219 218 238
-234.38 -182.906 -1562 218 220 240
-230.754 -182.518 -1559 217 221 242
-226.995 -182.014 -1555 217 221 242
-223.542 -181.744 -1553 216 220 240
-219.532 -181.007 -1547 216 221 241
-215.408 -180.153 -1540 214 220 240
-211.59 -179.534 -1535 211 217 237
-207.93 -179.033 -1531 211 217 237
-204.154 -178.416 -1526 214 216 236
-200.927 -178.267 -1525 212 214 233
-197.576 -178.002 -1523 210 212 230
-194.235 -177.737 -1521 208 213 230
-190.778 -177.356 -1518 207 212 229
-187.334 -176.976 -1515 206 211 228
-183.539 -176.246 -1509 208 213 230
-179.771 -175.516 -1503 208 213 230
-176.498 -175.254 -1501 205 211 226
-172.888 -174.643 -1496 203 208 223
-169.413 -174.149 -1492 205 210 225
-166.29 -174.006 -1491 211 213 228
-163.392 -174.096 -1492 214 215 231
-160.491 -174.188 -1493 198 199 209
-157.693 -174.396 -1495 190 191 198
-154.888 -174.605 -1497 195 195 197
-151.974 -174.697 -1498 196 196 198
-148.76 -174.44 -1496 200 200 203
-145.263 -173.834 -1491 211 213 219
-141.978 -173.462 -1488 214 215 223
-138.519 -172.857 -1483 213 212 222
-135.173 -172.369 -1479 214 213 225
-131.933 -171.998 -1476 220 219 230
-129.056 -172.094 -1477 225 224 234
-126.091 -172.074 -1477 234 233 243
-123.293 -172.288 -1479 241 240 250
-120.488 -172.501 -1481 244 243 253
-117.677 -172.716 -1483 243 242 252
-114.703 -172.697 -1483 242 241 251
-111.882 -172.912 -1485 240 239 251
-109.053 -173.128 -1487 237 236 248
-106.145 -173.227 -1488 231 230 240
-103.235 -173.327 -1489 225 224 234
-100.389 -173.544 -1491 222 221 231
-97.4697 -173.645 -1492 220 219 229
-94.4843 -173.63 -1492 219 218 228
-91.6223 -173.848 -1494 222 221 229
-88.6344 -173.834 -1494 222 222 231
-85.7046 -173.937 -1495 221 222 232
-82.7161 -173.924 -1495 225 224 232
-79.8349 -174.144 -1497 230 229 237
-76.8438 -174.131 -1497 234 233 241
-74.0013 -174.468 -1500 234 233 241
-71.0053 -174.457 -1500 233 232 239
-68.1459 -174.795 -1503 233 233 237
-65.1884 -174.901 -1504 233 233 237
-62.2276 -175.007 -1505 233 233 237
-59.2237 -174.998 -1505 230 229 235
-56.2952 -175.221 -1507 225 224 230
-53.3591 -175.445 -1509 217 217 221
-50.4154 -175.669 -1511 210 210 214
-47.4642 -175.894 -1513 205 205 209
-44.5347 -176.236 -1516 203 203 207
-41.5115 -176.229 -1516 207 207 211
-38.5141 -176.339 -1517 223 223 227
-35.5129 -176.45 -1518 244 243 248
-32.5936 -177.025 -1523 251 250 255
-29.5965 -177.253 -1525 240 239 246
-26.609 -177.597 -1528 228 226 233
-23.7023 -178.64 -1537 226 223 231
-20.7062 -179.217 -1542 222 219 229
-17.6789 -179.679 -1546 219 216 226
-14.6641 -180.49 -1553 216 218 225
-11.6066 -181.069 -1558 221 223 229
-8.49671 -180.951 -1557 229 231 237
-245.854 -187.618 -1574 115 114 128
-241.715 -186.863 -1568 216 214 233
-237.755 -186.229 -1563 219 218 237
-234.568 -186.191 -1563 218 220 240
-230.791 -185.677 -1559 217 221 242
-227.177 -185.282 -1556 217 221 242
-223.29 -184.65 -1551 217 221 241
-219.425 -184.02 -1546 217 222 242
-215.582 -183.389 -1541 214 220 240
-211.9 -182.879 -1537 211 217 237
-208.371 -182.488 -1534 211 216 236
-204.588 -181.86 -1529 214 216 236
-201.091 -181.471 -1526 213 215 234
-197.997 -181.438 -1526 211 213 231
-194.521 -181.05 -1523 207 212 229
-190.934 -180.544 -1519 205 210 227
-187.735 -180.394 -1518 205 210 227
-184.055 -179.77 -1513 206 211 228
-180.397 -179.147 -1508 207 212 229
-176.761 -178.524 -1503 205 210 225
-173.262 -178.021 -1499 203 208 223
-169.781 -177.518 -1495 204 209 224
-166.54 -177.254 -1493 210 212 228
-163.637 -177.346 -1494 215 216 232
-160.731 -177.439 -1495 202 203 213
-157.718 -177.413 -1495 190 190 198
-154.912 -177.626 -1497 193 193 197
-151.897 -177.601 -1497 196 196 200
-148.684 -177.34 -1495 202 202 206
-145.383 -176.96 -1492 214 216 222
-142 -176.463 -1488 213 213 222
-138.541 -175.847 -1483 212 211 221
-135.285 -175.47 -1480 213 212 224
-132.133 -175.211 -1478 218 217 229
-129.076 -175.072 -1477 225 224 234
-126.196 -175.17 -1478 232 231 241
-123.313 -175.268 -1479 239 238 248
-120.508 -175.486 -1481 244 243 253
-117.695 -175.704 -1483 245 244 254
-114.799 -175.804 -1484 244 243 253
-111.975 -176.023 -1486 242 241 252
-109.07 -176.123 -1487 240 239 251
-106.091 -176.106 -1487 235 234 244
-103.251 -176.326 -1489 232 231 241
-100.337 -176.429 -1490 232 231 241
-97.4851 -176.65 -1492 231 230 240
-94.4992 -176.634 -1492 232 231 241
-91.5755 -176.738 -1493 237 236 244
-88.5891 -176.723 -1493 238 238 247
-85.6608 -176.828 -1494 236 237 247
-82.6184 -176.696 -1493 240 239 247
-79.7409 -176.92 -1495 246 245 253
-76.8045 -177.026 -1496 249 248 255
-73.9142 -177.25 -1498 250 249 255
-70.9691 -177.357 -1499 249 248 255
-68.1113 -177.701 -1502 250 250 254
-65.1121 -177.69 -1502 248 248 252
-62.196 -177.917 -1504 245 245 249
-59.1938 -177.907 -1504 241 240 247
-56.2667 -178.134 -1506 238 237 244
-53.3322 -178.362 -1508 233 233 237
-50.39 -178.591 -1510 225 225 229
-47.4403 -178.819 -1512 213 213 217
-44.5124 -179.167 -1515 205 205 209
-41.4907 -179.16 -1515 204 204 208
-38.5201 -179.39 -1517 211 211 216
-35.4951 -179.384 -1517 227 227 233
-32.5131 -179.615 -1519 250 249 252
-29.5818 -180.201 -1524 244 243 250
-26.6306 -180.788 -1529 230 228 236
-23.6906 -181.612 -1536 221 218 226
-20.7363 -182.554 -1544 213 210 219
-17.7274 -183.261 -1550 205 202 212
-14.7042 -184.086 -1557 198 200 207
-11.6234 -184.438 -1560 204 206 213
-8.51439 -184.437 -1560 213 215 221
-246.207 -191.053 -1576 106 105 119
-242.063 -190.286 -1570 212 210 229
-238.251 -189.762 -1566 219 218 238
-234.756 -189.48 -1564 218 220 240
-230.532 -188.594 -1557 218 222 242
-226.922 -188.193 -1554 218 222 243
-223.039 -187.551 -1549 218 222 242
-219.603 -187.272 -1547 218 223 243
-215.618 -186.51 -1541 215 221 241
-212.072 -186.112 -1538 212 218 238
-208.541 -185.715 -1535 212 217 237
-204.621 -184.955 -1529 214 216 236
-201.124 -184.559 -1526 214 216 235
-197.77 -184.284 -1524 212 214 232
-194.297 -183.889 -1521 207 212 229
-190.965 -183.616 -1519 205 210 227
-187.766 -183.464 -1518 204 210 227
-184.329 -183.071 -1515 203 209 226
-180.427 -182.195 -1508 204 209 226
-176.907 -181.683 -1504 204 209 225
-173.29 -181.05 -1499 204 209 225
-169.808 -180.539 -1495 203 208 223
-166.567 -180.27 -1493 210 212 227
-163.554 -180.243 -1493 214 215 230
-160.65 -180.337 -1494 205 206 216
-157.638 -180.312 -1494 190 191 198
-154.937 -180.648 -1497 190 190 194
-151.922 -180.623 -1497 195 195 199
-148.808 -180.478 -1496 202 203 207
-145.504 -180.092 -1493 216 217 222
-142.309 -179.827 -1491 209 209 217
-138.75 -179.081 -1485 210 209 219
-135.49 -178.697 -1482 210 209 220
-132.333 -178.434 -1480 214 213 223
-129.359 -178.412 -1480 222 221 231
-126.302 -178.271 -1479 231 230 240
-123.499 -178.492 -1481 240 239 249
-120.608 -178.593 -1482 245 244 254
-117.635 -178.573 -1482 244 243 253
-114.817 -178.795 -1484 243 242 252
-111.993 -179.018 -1486 241 240 250
-109.161 -179.241 -1488 241 240 250
-106.179 -179.223 -1488 236 235 245
-103.407 -179.567 -1491 234 233 243
-100.353 -179.43 -1490 237 236 246
-97.5008 -179.655 -1492 237 236 246
-94.5144 -179.64 -1492 238 237 247
-91.5902 -179.745 -1493 243 242 251
-88.6034 -179.73 -1493 244 244 254
-85.6745 -179.837 -1494 243 243 254
-82.6318 -179.702 -1493 245 244 253
-79.7003 -179.81 -1494 248 247 255
-76.7655 -179.917 -1495 250 249 255
-73.8767 -180.146 -1497 250 249 255
-70.9806 -180.375 -1499 252 251 255
-68.077 -180.604 -1501 252 250 254
-65.1225 -180.714 -1502 254 252 255
-62.1233 -180.703 -1502 252 252 255
-59.1246 -180.693 -1502 252 251 255
-56.201 -180.925 -1504 250 248 254
-53.27 -181.157 -1506 243 242 248
-50.3647 -181.509 -1509 236 234 240
-47.4479 -181.862 -1512 227 225 231
-44.5195 -182.215 -1515 215 214 220
-41.5247 -182.329 -1516 206 205 211
-38.5263 -182.442 -1517 207 206 212
-35.5242 -182.557 -1518 214 213 219
-32.5183 -182.671 -1519 234 233 240
-29.5282 -182.907 -1521 246 245 253
-26.6175 -183.744 -1528 236 235 243
-23.6944 -184.702 -1536 224 221 229
-20.7799 -186.021 -1547 212 209 217
-17.7989 -187.1 -1556 201 198 207
-14.7443 -187.699 -1561 192 192 200
-11.67 -188.298 -1566 191 192 199
-8.5321 -187.936 -1563 196 198 204
-241.487 -192.978 -1566 209 209 227
-237.681 -192.445 -1562 219 219 238
-234.795 -192.652 -1564 219 221 241
-230.274 -191.505 -1555 219 222 243
-226.668 -191.097 -1552 219 223 244
-222.788 -190.444 -1547 218 222 242
-219.213 -190.038 -1544 218 222 243
-215.513 -189.509 -1540 216 221 242
-212.245 -189.351 -1539 214 220 239
-208.847 -189.069 -1537 212 218 237
-204.923 -188.297 -1531 213 215 235
-201.552 -188.017 -1529 214 216 235
-197.802 -187.369 -1524 213 215 233
-194.457 -187.091 -1522 207 212 229
-191.122 -186.813 -1520 205 210 227
-188.168 -186.904 -1521 204 210 227
-184.481 -186.258 -1516 203 208 225
-180.935 -185.737 -1512 203 208 225
-177.289 -185.093 -1507 204 209 226
-173.781 -184.572 -1503 204 209 225
-170.063 -183.807 -1497 203 208 223
-166.929 -183.656 -1496 207 209 223
-163.8 -183.506 -1495 212 213 227
-160.784 -183.479 -1495 208 209 219
-157.664 -183.33 -1494 191 192 200
-154.963 -183.672 -1497 189 189 193
-151.947 -183.647 -1497 196 196 200
-148.832 -183.499 -1496 205 204 209
-145.626 -183.229 -1494 212 212 216
-142.333 -182.837 -1491 203 203 210
-138.773 -182.078 -1485 208 207 217
-135.421 -181.565 -1481 210 209 219
-132.355 -181.421 -1480 210 209 219
-129.381 -181.399 -1480 214 213 223
-126.322 -181.255 -1479 222 221 231
-123.52 -181.48 -1481 232 231 241
-120.709 -181.705 -1483 241 240 250
-117.813 -181.807 -1484 243 242 252
-114.991 -182.033 -1486 243 242 252
-112.011 -182.014 -1486 242 241 251
-109.252 -182.363 -1489 242 241 251
-106.197 -182.223 -1488 238 237 247
-103.354 -182.451 -1490 236 235 246
-100.302 -182.311 -1489 237 236 246
-97.4514 -182.54 -1491 237 236 246
-94.4666 -182.524 -1491 237 236 246
-91.5439 -182.631 -1492 240 239 249
-88.5585 -182.616 -1492 244 243 253
-85.6312 -182.724 -1493 246 245 255
-82.6453 -182.711 -1493 246 245 255
-79.7134 -182.819 -1494 247 246 255
-76.8295 -183.051 -1496 249 248 255
-73.9382 -183.284 -1498 250 249 255
-71.0395 -183.516 -1500 251 250 255
-68.1335 -183.749 -1502 253 250 254
-65.1766 -183.861 -1503 253 251 255
-62.1748 -183.85 -1503 252 252 255
-59.213 -183.963 -1504 254 252 255
-56.2475 -184.075 -1505 255 252 255
-53.3141 -184.311 -1507 253 251 255
-50.3729 -184.547 -1509 249 247 252
-47.4557 -184.906 -1512 242 239 246
-44.5268 -185.265 -1515 229 227 234
-41.5315 -185.381 -1516 214 213 220
-38.5325 -185.496 -1517 210 209 216
-35.5066 -185.49 -1517 209 208 215
-32.5451 -185.851 -1520 217 216 223
-29.5525 -186.091 -1522 242 241 249
-26.6044 -186.698 -1527 241 239 247
-23.7291 -188.038 -1538 226 223 231
-20.8102 -189.379 -1549 215 212 220
-17.8475 -190.721 -1560 204 201 209
-14.7657 -191.085 -1563 194 193 200
-11.6719 -191.45 -1566 195 196 202
-8.53346 -191.081 -1563 196 198 204
-244.258 -195.823 -1563 95 96 111
-241.065 -195.782 -1563 203 204 222
-237.874 -195.741 -1563 219 220 239
-234.385 -195.451 -1561 219 221 242
-230.313 -194.66 -1555 218 221 242
-226.56 -194.12 -1551 219 223 244
-222.681 -193.456 -1546 219 223 243
-219.108 -193.043 -1543 218 222 242
-215.55 -192.631 -1540 216 220 241
-212.143 -192.345 -1538 212 218 237
-208.746 -192.059 -1536 211 217 236
-204.823 -191.274 -1530 213 215 235
-201.322 -190.864 -1527 212 214 234
-197.706 -190.331 -1523 213 215 235
-194.49 -190.172 -1522 211 216 233
-191.154 -189.89 -1520 208 213 230
-188.076 -189.858 -1520 204 210 228
-184.512 -189.327 -1516 203 209 226
-180.965 -188.796 -1512 204 209 226
-177.437 -188.267 -1508 204 209 226
-173.81 -187.613 -1503 203 208 224
-170.319 -187.084 -1499 202 207 222
-167.069 -186.806 -1497 206 208 223
-163.718 -186.404 -1494 211 212 226
-160.703 -186.377 -1494 210 211 223
-157.69 -186.35 -1494 193 193 202
-154.885 -186.573 -1496 189 188 195
-151.972 -186.672 -1497 196 195 201
-148.857 -186.522 -1496 206 205 211
-145.65 -186.247 -1494 210 210 214
-142.357 -185.849 -1491 208 208 215
-138.889 -185.202 -1486 211 210 220
-135.626 -184.805 -1483 210 209 219
-132.466 -184.534 -1481 207 205 215
-129.402 -184.387 -1480 210 207 217
-126.429 -184.365 -1480 216 214 224
-123.54 -184.469 -1481 225 224 234
-120.648 -184.573 -1482 235 234 244
-117.753 -184.677 -1483 240 239 249
-114.855 -184.782 -1484 243 242 252
-111.954 -184.888 -1485 244 243 253
-109.197 -185.243 -1488 241 240 250
-106.214 -185.225 -1488 240 239 251
-103.371 -185.456 -1490 239 238 249
-100.319 -185.314 -1489 239 238 248
-97.4676 -185.547 -1491 237 236 246
-94.4823 -185.531 -1491 236 235 245
-91.5591 -185.639 -1492 238 237 247
-88.5732 -185.624 -1492 241 240 251
-85.6455 -185.734 -1493 244 243 254
-82.6037 -185.596 -1492 245 244 254
-79.6733 -185.706 -1493 247 246 255
