ply
format ascii 1.0
comment Created by Open3D
element vertex 739
property double x
property double y
property double z
property double nx
property double ny
property double nz
property uchar red
property uchar green
property uchar blue
end_header
-266.757 -727.333 -2189.22 -0.86458 -0.0595308 -0.336115 51 56 119
-261.638 -731.077 -2185.07 -0.908716 -0.0445644 -0.382877 41 45 109
-259.027 -717.729 -2187.62 -0.834533 0.00311014 -0.450947 43 48 113
-274.142 -712.713 -2184.15 -0.848888 0.0106284 -0.539519 47 53 112
-271.703 -703.669 -2186.52 -0.852066 0.113048 -0.509404 46 51 113
-259.251 -709.679 -2185.05 -0.831107 0.0821252 -0.498818 42 47 113
-259.1 -704.115 -2181.8 -0.822502 0.0757034 -0.513144 41 47 115
-272.714 -695.36 -2180.61 -0.798182 0.252842 -0.525787 49 55 118
-258.949 -693.741 -2184.25 -0.840872 0.125908 -0.419804 39 45 112
-265.324 -687.492 -2187.35 -0.847915 0.240007 -0.417398 45 49 115
-260.111 -690.923 -2188.65 -0.859537 0.178706 -0.353777 40 44 109
-265.936 -677.797 -2184.84 -0.774403 0.113293 -0.612023 49 52 117
-259.098 -682.103 -2186.74 -0.787443 0.121818 -0.487603 40 47 119
-270.002 -669.962 -2180.73 -0.744253 -0.0806529 -0.584583 39 46 116
-247.724 -730.291 -2181.16 -0.288196 -0.209255 -0.894339 53 64 155
-240.276 -732.376 -2181.67 -0.149687 -0.267484 -0.965612 60 70 167
-249.851 -723.883 -2182.43 -0.503197 -0.0757922 -0.77133 46 56 137
-238.798 -724.021 -2183.81 -0.199693 -0.181876 -0.946028 55 64 158
-231.185 -732.689 -2181.99 -0.0789509 -0.194858 -0.974999 58 67 163
-224.522 -731.635 -2181.33 0.0278981 -0.105931 -0.975588 57 67 163
-221.766 -722.787 -2182.9 0.139579 -0.16151 -0.954462 57 67 163
-246.979 -708.986 -2181.8 -0.467742 0.125187 -0.852647 63 74 167
-247.931 -703.512 -2180.56 -0.490046 0.151678 -0.839205 65 77 171
-242.203 -707.054 -2184.83 -0.371542 0.116609 -0.896726 63 74 171
-232.829 -715.371 -2186.53 -0.0929927 -0.186421 -0.969624 60 71 166
-236.888 -708.065 -2187.68 -0.246306 0.0103695 -0.933467 61 72 168
-218.692 -721.487 -2182.32 0.203324 -0.191033 -0.937067 57 69 164
-266.731 -552.644 -2184.46 -0.920808 0.123716 -0.270781 40 47 95
-255.703 -551.654 -2183.98 -0.909839 0.0147775 -0.34231 34 41 83
-264.785 -536.641 -2186.79 -0.981654 0.0397376 -0.242118 28 35 65
-253.941 -595.053 -2183.74 -0.517756 0.064913 -0.690608 51 65 147
-246.408 -594.293 -2182.4 -0.26505 0.0737053 -0.916876 49 62 135
-254.718 -593.921 -2183.75 -0.546272 0.0946462 -0.65937 50 63 143
-242.598 -588.679 -2181.2 -0.209955 0.202241 -0.940058 42 46 102
-228.592 -597.091 -2187.58 -0.321585 0.186283 -0.908999 45 42 89
-230.552 -590.624 -2184.79 -0.232102 0.185354 -0.931708 44 44 92
-226.54 -593.315 -2186.65 -0.260163 0.237657 -0.915549 43 42 90
-241.452 -574.168 -2181.29 -0.294769 0.00460814 -0.944596 37 34 73
-233.953 -584.878 -2182.68 -0.174519 0.145342 -0.952998 41 42 87
-226.395 -579.905 -2184.76 -0.22515 0.0569039 -0.954939 37 33 71
-231.225 -570.671 -2183.97 -0.24362 -0.0416571 -0.968669 35 32 67
-212.51 -596.566 -2188.12 0.121945 0.0935521 -0.972876 35 29 67
-220.397 -587.396 -2186.47 -0.171261 0.16644 -0.945829 37 33 74
-206.196 -588.394 -2185.9 0.0831004 0.118829 -0.982786 34 29 65
-197.095 -598.918 -2184.66 0.226653 0.0137221 -0.948842 31 29 56
-205.31 -588.056 -2185.72 0.0955256 0.120365 -0.983302 34 29 65
-193.8 -586.639 -2180.77 0.346041 0.24747 -0.868494 32 29 57
-214.169 -577.995 -2185.98 -0.113782 0.0674597 -0.984477 36 32 71
-208.65 -581.103 -2185.2 0.0322584 0.105622 -0.968843 37 33 73
-215.235 -572.976 -2185.75 -0.133427 0.0322339 -0.98977 36 33 71
-200.845 -581.511 -2183.16 0.20769 0.134685 -0.937761 36 33 69
-200.828 -570.025 -2182.09 0.280579 0.0601461 -0.927806 44 45 93
-243.43 -563.701 -2181.32 -0.314395 -0.0411623 -0.953307 35 33 72
-249.675 -553.19 -2180.11 -0.475359 -0.0756933 -0.849351 40 37 82
-235.678 -560.616 -2183.77 -0.271557 -0.0477389 -0.961591 35 33 71
-227.489 -567.902 -2184.77 -0.226354 -0.0538682 -0.976977 34 32 67
-231.152 -553.653 -2185.29 -0.224082 -0.089976 -0.959195 40 39 82
-222.843 -557.333 -2185.47 -0.138944 -0.0482713 -0.989783 39 38 79
-243.16 -550.209 -2184.29 -0.429594 -0.126443 -0.89245 42 38 79
-247.669 -543.56 -2183.65 -0.532605 -0.158453 -0.829424 43 39 82
-253.748 -536.326 -2188.02 -0.768883 -0.0614974 -0.485817 35 38 73
-234.852 -548.473 -2186.57 -0.319472 -0.161948 -0.913635 44 41 84
-224.356 -547.234 -2186.36 -0.0640879 -0.143851 -0.978621 43 42 90
-221.031 -566.316 -2185.54 -0.18132 -0.0191769 -0.99065 36 33 70
-208.496 -563.935 -2184.55 0.0366067 0.0361563 -0.985215 39 37 80
-218.03 -560.375 -2185.29 -0.104517 -0.00518504 -0.99592 37 35 75
-204.48 -566.606 -2183.66 0.139761 0.0505519 -0.966468 41 40 85
-203.407 -560.731 -2183.34 0.167067 0.029132 -0.969372 41 40 87
-194.211 -553.368 -2180.65 0.305986 -0.0596488 -0.950191 40 39 87
-216.483 -549.534 -2185.58 -0.0139628 -0.0548222 -0.99587 41 40 86
-221.331 -540.881 -2187.08 0.0472346 -0.189941 -0.977847 41 40 87
-213.231 -537.935 -2187.02 0.070915 -0.21477 -0.972168 41 38 84
-202.168 -548.396 -2183.6 0.173704 -0.0470432 -0.974361 40 37 84
-192.349 -549.181 -2180.34 0.286755 -0.0766814 -0.956147 38 36 80
-190.25 -538.799 -2181.84 0.248832 -0.169916 -0.948463 36 32 74
-265.657 -528.9 -2181.14 -0.953145 0.0363296 -0.241663 28 34 64
-254.022 -531.765 -2184.21 -0.78523 0.0954811 -0.511321 38 40 83
-254.858 -521.79 -2182.45 -0.784391 0.150579 -0.484347 40 42 89
-263.277 -515.979 -2186.04 -0.986385 0.144324 -0.102856 36 43 83
-262.038 -509.403 -2188.18 -1.01543 0.157539 -0.0290608 42 48 93
-260.197 -510.175 -2185.72 -0.974977 0.161935 -0.0906272 40 45 88
-256.373 -486.353 -2182.63 -0.714455 -0.1572 -0.439593 35 38 78
-264.54 -474.781 -2186.53 -0.968646 -0.14878 -0.208132 32 39 86
-247.751 -534.948 -2184.67 -0.570597 -0.0804093 -0.810197 43 39 85
-253.827 -533.44 -2187.16 -0.777575 0.0250934 -0.492227 36 38 77
-248.402 -525.424 -2182.32 -0.614753 0.0893644 -0.783414 45 42 97
-241.733 -524.385 -2186.58 -0.561051 0.104577 -0.818515 42 39 89
-240.94 -518.11 -2184.66 -0.553545 0.186869 -0.806095 44 41 93
-253.396 -504.455 -2186.96 -0.759681 0.0795408 -0.44433 36 38 75
-239.124 -508.27 -2185.27 -0.581254 0.073542 -0.796041 42 38 77
-210.338 -534.651 -2187.86 0.0753615 -0.287424 -0.95416 42 39 84
-194.421 -531.304 -2186.13 0.270827 -0.310489 -0.896426 39 34 83
-190.214 -524.141 -2187.74 0.392992 -0.363208 -0.841167 42 39 92
-2.59791 -90.6677 -2183.58 0.720023 -0.0731586 -0.632233 35 36 65
-2.34143 -83.3425 -2183.52 0.800639 -0.145943 -0.559277 34 34 64
12.9214 -140.936 -2180.61 0.317145 -0.196898 -0.930352 41 44 78
17.2246 -128.871 -2180.84 0.226645 0.0215613 -0.95177 38 42 75
-260.045 -21.5048 -2182.05 -0.697469 -0.397759 -0.596002 27 31 59
-262.636 -15.8337 -2182.8 -0.715894 -0.396111 -0.576989 28 32 60
-238.863 -60.5924 -2184.1 -0.745152 -0.371761 -0.546597 25 29 56
-223.075 -67.8591 -2182.92 -0.71316 -0.228726 -0.575721 28 32 59
-228.754 -69.2769 -2188.04 -0.734536 -0.436811 -0.510131 21 25 53
-237.142 -62.5232 -2184.47 -0.746141 -0.363026 -0.55311 25 28 56
-238.163 -58.5166 -2187.32 -0.767066 -0.376154 -0.512039 26 30 57
-247.512 -43.5594 -2182.81 -0.688334 -0.292971 -0.66151 28 32 60
-228.473 -51.9091 -2182.22 -0.737423 -0.262992 -0.56643 30 34 62
-230.975 -45.9025 -2180.75 -0.663361 -0.200403 -0.631291 32 35 63
-220.5 -71.42 -2185.17 -0.706506 -0.160111 -0.601717 30 34 60
-249.958 -42.1037 -2180.95 -0.677021 -0.289969 -0.674258 28 32 60
-249.082 -33.4361 -2186.38 -0.659335 -0.274496 -0.70074 29 33 60
-238.094 -27.8632 -2184.82 -0.631496 -0.26185 -0.712513 31 35 61
-230.799 -39.6559 -2185.77 -0.658463 -0.188802 -0.670408 31 35 62
-237.102 -26.8766 -2186.62 -0.613363 -0.249999 -0.734536 31 35 62
-241.733 -22.6758 -2185.33 -0.570809 -0.223088 -0.765668 32 36 62
-245.167 -11.1512 -2186.02 -0.444528 -0.10633 -0.876915 37 41 67
23.6579 19.7905 -2186.58 0.294606 -0.00417662 -0.947951 34 38 66
40.8198 13.5433 -2184.33 0.522349 -0.0181968 -0.843844 33 34 60
39.433 20.0741 -2186.16 0.459014 -0.0287553 -0.877746 33 34 61
41.5423 -1.29014 -2183.27 0.571255 -0.105143 -0.809932 33 34 60
46.5998 19.3544 -2181.43 0.522205 -0.139726 -0.82909 32 33 60
9.40251 35.9263 -2181.29 0.702118 -0.0975673 -0.506186 28 31 53
39.1995 23.9697 -2187.17 0.415562 -0.045743 -0.899596 34 35 62
12.6248 42.4304 -2183.78 0.618197 -0.217896 -0.625815 29 32 54
19.3493 46.0729 -2181.28 0.560935 -0.352896 -0.718325 29 32 53
24.9316 47.719 -2187.61 0.511447 -0.229485 -0.778144 30 32 56
21.6344 55.6885 -2187.56 0.650127 -0.435166 -0.608183 28 29 48
47.3464 24.8491 -2182.91 0.46448 -0.189004 -0.853117 33 34 60
52.0793 29.7978 -2183.01 0.408032 -0.258188 -0.863778 34 35 62
43.2712 31.4672 -2187.33 0.342466 -0.13095 -0.926756 34 35 62
56.087 35.1632 -2183.35 0.383522 -0.273114 -0.869016 34 35 62
56.196 42.0413 -2184.97 0.344945 -0.185534 -0.902961 34 36 62
54.0115 47.2478 -2186.95 0.28666 -0.0955623 -0.944638 35 36 62
63.3368 40.2748 -2180.44 0.501458 -0.256506 -0.80514 33 35 61
62.8226 52.1371 -2182.26 0.441628 -0.0646652 -0.878161 33 36 61
42.6507 271.339 -2185.75 -0.176783 0.622463 -0.786047 64 71 133
55.2278 276.92 -2183.87 -0.0235221 0.68006 -0.724916 60 67 127
52.4095 278.921 -2182.09 -0.0244756 0.673737 -0.685205 60 67 127
63.9758 276.186 -2183.75 0.16242 0.584983 -0.815539 60 69 131
70.1031 275.603 -2182.8 0.233234 0.47459 -0.648818 58 67 126
70.8624 278.76 -2181.19 0.212675 0.498009 -0.606237 59 67 126
80.4166 90.9786 -2179.45 0.283338 -0.204938 0.0847272 33 37 63
80.4143 104.15 -2184.76 0.218386 -0.180069 0.139687 33 36 63
78.6078 108.463 -2186.95 0.254254 -0.158754 -0.046648 32 36 62
83.7427 107.934 -2184.82 0.0908169 -0.211075 0.63521 33 37 64
86.8649 115.73 -2187.6 0.0442153 -0.234599 0.841884 33 37 64
223.666 122.399 -2185.57 0.127098 -0.510119 0.716198 128 95 78
236.218 133.302 -2180.64 0.235358 -0.63844 0.596813 99 76 68
242.254 134.005 -2185.46 0.138688 -0.734523 0.56329 96 73 64
255.657 139.11 -2186.09 0.0682482 -0.852637 0.508112 89 67 57
257.467 139.258 -2186.78 0.064499 -0.856672 0.503101 89 67 57
266.484 141.288 -2186.83 0.0362276 -0.863621 0.492225 90 68 59
272.118 143.172 -2184.62 -0.00424873 -0.855016 0.500025 97 72 61
281.28 141.83 -2185.06 -0.0975746 -0.872183 0.467628 101 73 61
295.547 138.413 -2185.11 -0.138392 -0.89206 0.43148 98 71 60
309.159 135.517 -2188.41 -0.0301846 -0.879423 0.461044 100 73 60
307.629 138.959 -2182.21 -0.0437386 -0.887237 0.453724 98 71 60
328.701 141.264 -2181.26 0.0755982 -0.856823 0.508041 104 75 59
333.312 140.216 -2184.09 0.0866286 -0.850655 0.51339 104 75 60
77.9584 -1222.96 -2181.86 -0.0552194 0.955048 -0.149561 62 58 57
472.183 141.17 -2185.25 -0.0917009 -0.133948 0.908129 149 104 76
98.3318 250.03 -2194.9 0.16066 0.0371859 0.999603 40 45 76
96.3612 248.914 -2194.6 0.160362 0.0366091 1.00786 40 45 76
93.5327 262.737 -2187.84 0.148574 0.0203791 1.07966 39 43 73
98.4072 256.309 -2192.38 0.155492 0.0322291 1.02043 40 44 75
-154.308 -1138.34 -2141.33 0.85385 0.0742058 -0.563741 116 120 141
-122.974 -1142.52 -2144.77 -0.83198 -0.208614 -0.359825 78 78 94
-126.67 -1128.31 -2145.6 -0.727397 -0.160309 -0.199755 76 77 97
-119.664 -1164.64 -2140.65 -0.611455 0.108811 -0.296647 100 99 114
-119.855 -1153.86 -2143.5 -0.619735 -0.131717 -0.484545 104 104 118
-121.223 -1141.57 -2141.77 -0.616298 -0.279818 -0.472992 100 101 113
12.1204 -1194.73 -2145.39 0.679762 0.627639 -0.165752 138 132 135
30.7195 -1202.33 -2146.65 0.236037 0.892096 -0.383782 68 62 63
33.0044 -1201.61 -2144.3 0.210727 0.890422 -0.409087 67 61 62
45.7012 -1201.9 -2145.21 0.0643776 0.910213 -0.386334 71 66 66
54.0898 -1201.13 -2144.13 -0.0120755 0.916506 -0.38963 75 70 70
64.3017 -1199.96 -2142.07 -0.0381373 0.90651 -0.417005 77 72 72
70.0816 -1199.95 -2139.79 -0.0490768 0.916459 -0.400289 62 58 57
7.72778 -1130 -2143.06 0.909149 0.165772 -0.32024 174 180 201
12.416 -1187.49 -2140.39 0.753062 0.377909 -0.383951 175 168 170
10.1126 -1179.92 -2142.22 0.900141 0.0645162 -0.346679 205 198 198
11.798 -1166.88 -2143 0.901059 -0.0593704 -0.348083 203 196 192
16.3703 -996.329 -2141.31 0.923744 -0.141696 -0.0544921 135 143 176
19.4674 -986.938 -2146.81 0.943898 -0.235755 -0.183467 139 146 182
22.323 -976.031 -2141.68 0.946324 -0.0492481 -0.197362 150 157 195
17.3651 -955.922 -2145.82 0.969098 0.126581 -0.128746 110 120 151
18.3861 -949.215 -2146.25 0.978739 -0.00860916 -0.137166 75 83 115
20.2667 -939.155 -2143.49 0.989925 -0.14499 -0.102114 53 59 98
20.4428 -937.492 -2147.02 0.986715 -0.156112 -0.15486 46 51 95
22.1752 -924.995 -2139.03 0.981842 -0.151688 -0.0103624 46 51 96
23.4755 -909.82 -2143.76 0.99498 -0.0918484 -0.0436795 40 42 82
23.9631 -901.714 -2141.78 0.999756 -0.0927447 0.0195084 35 36 64
24.3347 -883.28 -2138.63 0.929319 -0.0156331 0.298006 31 32 55
26.4754 -882.669 -2142.87 0.94467 -0.0658268 0.212621 31 31 55
25.5333 -871.431 -2145.33 0.901839 0.217097 0.266197 37 37 73
-283.798 -860.637 -2139.52 -0.96334 -0.0402289 -0.150568 38 36 75
-283.006 -855.278 -2144.62 -0.96757 0.00913367 -0.165357 39 38 75
-282.358 -838.66 -2145.69 -0.99233 -0.0454441 -0.0192532 51 55 113
-283.195 -833.02 -2141.68 -0.985533 -0.126427 0.00414462 57 66 133
-127.828 -801.857 -2140.63 -0.61575 -0.0301929 -0.729408 41 53 119
-157.76 -793.097 -2145.5 0.607296 0.0523442 -0.791801 29 27 61
-156.884 -785.225 -2144.54 0.629266 0.0493175 -0.772297 26 24 56
-161.333 -767.813 -2144.12 0.700955 0.292982 -0.648995 27 23 58
-154.787 -794.014 -2142.75 0.608665 0.0311436 -0.792916 25 23 53
-123.894 -798.286 -2147.22 -0.867898 0.00776725 -0.526376 39 56 135
-126.911 -790.314 -2142.19 -0.653378 0.0131329 -0.641665 34 47 114
-154.994 -774.135 -2140.09 0.677613 0.302323 -0.667697 24 20 52
-125.328 -774.057 -2142.3 -0.728102 0.125258 -0.561853 36 49 119
-163.924 -764.492 -2145.93 0.717852 0.278382 -0.629776 28 24 59
-165.522 -753.397 -2145.54 0.72854 0.135476 -0.648204 29 24 60
-166.392 -749.838 -2146.86 0.718204 0.0619124 -0.670131 30 24 60
-156.728 -748.512 -2138.87 0.640705 -0.113948 -0.758289 24 20 52
-156.321 -735.603 -2141.51 0.592604 -0.00713616 -0.793783 23 21 54
-124.574 -756.436 -2141.05 -0.86954 0.053437 -0.51513 28 43 111
-154.04 -739.77 -2139.81 0.5761 -0.0927493 -0.806611 21 20 53
-123.323 -737.239 -2144.82 -0.890294 0.0145019 -0.457642 36 50 117
-122.038 -751.095 -2145.35 -0.87848 0.010285 -0.485256 28 43 110
20.9887 -856.879 -2142.64 0.897697 0.0538564 0.387715 37 37 71
18.9138 -853.315 -2138.9 0.865931 0.0560321 0.483923 36 35 70
20.4848 -849.253 -2141.88 0.885645 -0.0239527 0.440609 36 35 68
18.9061 -840.731 -2139.49 0.864132 -0.0353541 0.49308 34 34 68
-285.875 -530.603 -2141.77 -0.781905 -0.108777 -0.103813 52 59 124
-285.404 -523.549 -2140.81 -0.800172 -0.0656509 -0.0917126 50 56 119
-285.997 -506.102 -2141.6 -0.854865 -0.0510156 -0.339508 43 48 101
-287.636 -493.988 -2143.2 -0.902852 -0.0155826 -0.365201 40 44 88
-287.693 -486.59 -2140.92 -0.934374 0.116447 -0.238277 45 48 96
-284.976 -481.598 -2142.72 -0.883996 0.259549 -0.262129 43 46 95
-282.213 -473.089 -2139.88 -0.841778 0.378035 -0.272958 42 44 99
-277.881 -464.145 -2146.61 -0.870175 0.141526 -0.37666 42 45 99
-280.4 -450.756 -2144.86 -0.841416 -0.0660866 -0.520771 55 62 116
-282.856 -438.494 -2145.62 -0.833277 -0.171344 -0.491589 50 54 100
-287.11 -431.271 -2140.69 -0.911545 -0.161812 -0.285179 46 48 104
-286.197 -434.59 -2142.19 -0.900748 -0.202402 -0.312677 46 49 104
-284.584 -413.01 -2144.83 -0.892295 0.258083 -0.354305 59 63 100
-285.039 -406.39 -2143.05 -0.866596 0.175834 -0.421109 42 46 82
-288.052 -396.224 -2138.8 -0.899791 -0.103835 -0.368293 39 40 80
-288.388 -376.748 -2140.9 -0.874792 0.0296004 -0.435204 99 101 146
-285.849 -397.604 -2143.52 -0.871442 -0.0410281 -0.417015 50 52 89
-284.879 -374.863 -2146.95 -0.878009 0.0498113 -0.430162 130 135 180
27.0945 -300.943 -2142 0.891741 -0.031689 -0.45421 37 41 76
25.8752 -296.752 -2145.04 0.873505 -0.0423841 -0.493947 36 40 75
26.506 -287.303 -2144.69 0.862251 -0.031765 -0.439827 38 42 77
8.97034 -211.348 -2144.15 0.837584 0.418442 -0.341054 39 44 77
22.8675 -256.751 -2138.62 0.899251 0.18721 -0.3532 36 42 74
25.5106 -269.879 -2142.13 0.836654 0.238742 -0.478654 38 43 76
19.697 -243.505 -2145.37 0.918783 0.0426555 -0.375377 37 42 75
17.9593 -233.294 -2146.11 0.912272 0.183613 -0.362812 38 43 75
14.6725 -225.913 -2148.38 0.859206 0.316572 -0.383802 39 44 77
14.2782 -217.569 -2140.65 0.83426 0.391476 -0.372955 39 43 75
9.7295 -213.054 -2144.82 0.82718 0.430128 -0.353944 40 45 77
6.93599 -204.222 -2142.38 0.890203 0.307359 -0.302335 38 42 74
5.09144 -196.329 -2143.85 0.931959 0.164376 -0.2899 36 40 71
5.40666 -187.003 -2140.67 0.95918 0.0488656 -0.265629 33 37 67
2.50148 -167.413 -2142.62 0.850817 0.261777 -0.395445 35 37 66
0.80325 -162.272 -2144.5 0.8102 0.24558 -0.500211 35 36 66
-1.27971 -150.184 -2143.45 0.862687 0.131504 -0.481418 33 35 64
-1.88499 -143.082 -2138.29 0.899679 0.258584 -0.31674 49 50 78
35.8218 13.6171 -2143.5 0.847599 -0.430426 -0.135468 28 32 55
36.9919 19.6727 -2139.83 0.890855 -0.365641 0.0474412 28 32 55
41.6521 37.0684 -2143.82 0.960809 -0.142624 0.148355 29 32 56
41.0995 39.9642 -2141.75 0.950055 -0.118464 0.250888 29 32 56
42.728 53.9631 -2139.61 0.887759 -0.200112 0.395404 28 32 55
47.5877 58.3369 -2145.99 0.923073 -0.242231 0.131586 28 32 55
46.4855 64.1255 -2140.96 0.911672 -0.181229 0.310962 27 31 56
55.3514 77.0368 -2143.89 0.96489 -0.0428204 0.151356 25 30 54
59.6192 78.4434 -2141.61 0.965695 -0.0890083 0.143165 25 30 54
64.697 78.0738 -2146.94 0.940606 -0.142771 -0.0324883 26 30 52
-291.457 192.979 -2145.47 -0.529573 -0.268857 -0.741681 31 35 63
-299.63 196.483 -2142.38 -0.46727 -0.306468 -0.812621 31 36 63
-302.046 208.211 -2145.73 -0.441498 -0.154032 -0.873167 33 38 69
141.092 103.48 -2143.77 0.154223 -0.742605 0.608611 25 31 54
150.59 106.828 -2142 0.10129 -0.79699 0.578733 27 33 55
159.597 108.696 -2143.35 -0.0117788 -0.861603 0.469031 30 37 55
188.901 102.435 -2144.75 -0.247666 -0.81879 0.479173 42 47 64
190.439 102.268 -2143.7 -0.254747 -0.806679 0.492552 41 46 63
200.567 102.326 -2142.23 -0.200107 -0.665981 0.637254 36 41 61
183.315 105.625 -2142.41 -0.243809 -0.84345 0.452438 41 47 64
214.906 109.962 -2142.78 -0.0623666 -0.369993 0.933155 35 40 64
220.492 120.263 -2147.98 0.394789 -0.396516 0.711367 68 61 70
222.166 126.876 -2141.34 0.611367 -0.326482 0.587104 73 72 87
224.476 133.289 -2145.35 0.745429 -0.355086 0.510394 80 74 84
225.746 139.873 -2143.45 0.793487 -0.337476 0.475068 72 69 81
231.063 154.998 -2144.5 0.82159 -0.365584 0.436619 74 67 76
237.921 171.128 -2143.36 0.656847 -0.369829 0.616975 88 76 86
237.115 178.292 -2139.63 0.602157 -0.218411 0.739921 65 61 81
242.433 172.281 -2146.75 0.518944 -0.463316 0.67175 119 92 88
240.162 184.108 -2140.15 0.54164 -0.218843 0.798712 67 61 80
250.786 183.811 -2144.18 0.343119 -0.287835 0.870249 144 110 97
515.208 203.077 -2146.88 -0.216694 -0.261889 0.931042 163 152 140
518.785 207.551 -2142.93 -0.218837 -0.434863 0.857041 162 161 153
508.916 216.496 -2144.37 -0.35304 -0.283928 0.86865 169 157 144
514.696 216.699 -2139.11 -0.351637 -0.436348 0.80703 169 167 160
519.729 207.624 -2142.52 -0.191426 -0.462464 0.847317 164 160 152
529.57 208.29 -2141.25 -0.0524092 -0.672223 0.737784 186 163 138
470.698 232.99 -2145.76 -0.179572 -0.307702 0.873726 179 143 117
482.36 231.058 -2146.67 -0.201175 -0.302836 0.872319 177 143 117
491.208 229.608 -2146.91 -0.202298 -0.30119 0.872472 177 143 117
494.652 233.724 -2144.86 -0.203231 -0.302338 0.871733 177 143 117
506.096 227.323 -2141.39 -0.227468 -0.293028 0.876374 176 145 121
567.561 191.957 -2139.26 -0.583098 -0.587146 0.547155 138 90 61
561.988 193.014 -2145.75 -0.493726 -0.600917 0.607323 132 84 56
560.237 198.051 -2140.53 -0.460763 -0.694308 0.544844 161 104 67
535.604 205.147 -2145.76 0.0168864 -0.636188 0.773771 188 148 114
570.37 186.858 -2140.92 -0.60759 -0.519116 0.568043 119 80 57
633.694 194.924 -2141.24 0.354718 -0.8868 0.292218 136 93 74
635.32 193.835 -2146.49 0.347108 -0.89834 0.263152 133 91 73
643.439 196.963 -2144.68 0.273118 -0.926704 0.254002 147 98 78
653.678 200.005 -2142.31 0.266644 -0.928019 0.25643 139 89 70
668.157 207.515 -2139.05 0.428433 -0.833804 0.327848 152 95 74
668.535 207.244 -2140.28 0.419853 -0.840022 0.322283 150 93 72
676.49 213.405 -2139.75 0.524082 -0.749086 0.404212 170 111 90
31.76 -333.91 -2120.13 0.960893 -0.0853805 -0.237239 43 47 82
33.7893 -326.267 -2117.95 0.945677 -0.147631 -0.288264 44 48 83
35.6114 -317.613 -2114.69 0.957444 -0.0965001 -0.260683 44 49 84
34.3573 -311.675 -2120.21 0.952969 -0.0195305 -0.303491 42 48 82
29.7391 -289.25 -2114.67 0.962556 0.216644 0.0190093 39 44 79
29.235 -284.963 -2117.66 0.974662 0.193973 0.0292835 38 42 78
28.3722 -280.843 -2118.69 0.97817 0.1842 0.0648843 37 41 76
24.1028 -257.363 -2121.22 0.974639 0.165017 0.0205152 33 38 71
23.0268 -250.922 -2117.44 0.979634 0.0748544 0.0679255 33 38 71
21.6575 -241.253 -2114.42 0.966176 0.0312095 0.170746 34 39 72
20.9914 -234.58 -2114.76 0.935287 0.0559358 0.298034 34 39 72
24.627 -228.991 -2121.37 0.972211 -0.0372581 0.205199 33 38 70
19.5229 -219.397 -2120.96 0.911653 0.27615 0.0365817 37 42 73
15.3602 -209.855 -2116.58 0.907046 0.298626 0.0296409 38 42 74
8.45184 -187.528 -2115.33 0.925144 0.330995 -0.00525494 36 41 71
3.79401 -166.59 -2118.07 0.985939 0.164561 0.0678836 31 34 63
3.08348 -163.532 -2118.61 0.98322 0.17669 0.0662428 31 33 62
0.519706 -157.023 -2114.61 0.972141 0.219469 0.0783011 31 33 62
-1.0092 -144.818 -2114.89 0.960022 0.209174 0.117392 33 34 61
114.279 108.671 -2116.41 0.264314 -0.626386 0.721934 22 28 51
119.537 110.509 -2116.45 0.249657 -0.639911 0.718138 22 28 50
127.776 111.439 -2119.08 0.279735 -0.662099 0.689471 22 27 49
140.217 115.895 -2121.88 0.356353 -0.650163 0.672563 23 28 49
143.802 118.821 -2120.08 0.297557 -0.658757 0.686928 25 29 52
162.008 120.569 -2121.11 0.105394 -0.783017 0.62034 26 31 57
206.49 111.792 -2122.66 -0.239237 -0.362812 0.886691 31 36 59
201.467 116.686 -2120.61 -0.239665 -0.412831 0.867497 29 34 57
155.451 125.6 -2114.82 0.0586177 -0.688584 0.728733 28 33 61
159.194 125.621 -2114.89 0.0493523 -0.703334 0.719937 28 32 61
181.642 125.498 -2117.66 0.00819297 -0.666367 0.737602 26 31 57
188.766 121.629 -2120.52 -0.0789016 -0.622896 0.774768 26 29 52
182.651 130.107 -2114.4 0.0431638 -0.569526 0.817259 30 34 60
204.271 126.731 -2115.62 0.0210293 -0.325008 0.880892 34 38 67
195.066 130.616 -2114.05 -0.0338803 -0.397832 0.897292 35 38 66
180.246 150.248 -2115.81 0.173841 0.0895456 0.89985 36 41 71
193.343 153.257 -2114.95 -0.167964 0.324624 0.925651 39 42 73
153.722 163.674 -2114.76 0.210216 0.277814 0.935194 32 37 69
159.81 167.881 -2116.4 0.19569 0.279046 0.930315 33 38 69
171.749 167.633 -2118.75 0.153401 0.211897 0.920482 33 38 69
-324.718 126.874 -2125.76 -0.509336 -0.10471 -0.772158 33 38 67
-322.991 132.767 -2124.53 -0.531426 -0.0470111 -0.678184 32 36 64
-323.934 129.746 -2125.17 -0.519539 -0.0777759 -0.728071 32 37 65
-325.999 152.027 -2119.08 -0.539223 -0.0851254 -0.680173 32 37 65
-329.114 138.611 -2122.63 -0.487128 -0.11587 -0.753185 33 38 67
-330.922 169.855 -2121.4 -0.592798 -0.102956 -0.636438 33 39 69
-331.017 163.345 -2121.13 -0.564027 -0.124007 -0.673334 33 38 68
-323.923 164.581 -2115.48 -0.7134 -0.0925201 -0.519268 31 37 65
-328.342 182.925 -2127.14 -0.430996 -0.0554304 -0.685595 36 42 75
-325.087 176.305 -2119.12 -0.662517 -0.0941042 -0.523958 33 39 69
-334.365 175.648 -2126.61 -0.459325 -0.0585101 -0.749153 35 41 74
-317.778 77.2045 -2118.65 -0.608491 -0.0104889 -0.642119 32 37 65
-310.77 87.8416 -2126.9 -0.573709 -0.0111976 -0.764158 32 37 64
-311.058 77.9337 -2125.3 -0.60322 0.0494178 -0.824344 31 37 64
-308.487 73.4371 -2126.66 -0.625146 0.0614177 -0.800893 32 37 64
-314.429 92.1595 -2125.87 -0.555665 -0.0353393 -0.746815 32 37 65
-321.551 101.427 -2124.24 -0.520927 -0.0816853 -0.721264 32 37 66
-318.644 100.657 -2125.55 -0.537355 -0.0722902 -0.735315 32 37 65
-312.507 108.062 -2129.54 -0.588914 -0.0822735 -0.767119 32 37 65
-318.578 121.93 -2128.11 -0.553014 -0.0818155 -0.764935 32 37 66
-310.407 136.64 -2128.5 -0.630208 0.064996 -0.612143 30 34 60
-318.082 131.131 -2126.12 -0.568148 -0.00772335 -0.653279 31 35 62
-313.892 130.059 -2128.63 -0.596164 -0.00197949 -0.690294 31 35 63
-307.396 147.697 -2121.43 -0.725293 0.461571 0.140251 25 22 38
-306.748 147.391 -2121.8 -0.733895 0.485651 0.181542 25 21 37
-305.295 141.52 -2127.74 -0.701617 0.277746 -0.254315 27 28 49
-313.988 153.6 -2115.51 -0.629374 0.217441 -0.303583 28 29 51
-320.983 156.191 -2115.84 -0.60871 -0.00144585 -0.549877 31 35 61
-306.934 187.294 -2128.2 -0.58953 -0.261575 -0.40414 30 32 56
-309.591 182.558 -2115.72 -0.566138 -0.470016 0.0665166 27 24 39
-322.739 173.241 -2115.09 -0.772283 -0.148462 -0.385688 31 37 63
-300.426 -1190.05 -2109.87 -0.275402 0.852522 0.131023 68 64 63
-287.65 -1189.81 -2108.4 -0.150914 0.93594 0.000809172 79 76 77
-279.46 -1190.56 -2111.49 -0.130592 0.932071 -0.173858 105 101 103
-272.881 -1189.57 -2110.77 -0.25395 0.842764 -0.262496 134 130 134
-263.678 -1183.17 -2111.68 -0.781209 0.417154 -0.178426 159 156 166
-266.253 -1176.36 -2109.3 -0.851781 0.143704 -0.228373 150 149 164
-267.861 -1165.5 -2109.08 -0.960598 -0.0953599 -0.119154 139 142 165
-268.996 -1157.72 -2108.28 -0.974043 -0.105622 -0.0789968 132 136 163
-272.261 -1141.63 -2109.47 -1.01821 -0.17755 -0.0260735 123 128 159
-276.2 -1132.97 -2106.04 -0.977652 -0.219493 -0.0725696 137 144 184
-128.866 -1195.02 -2107.67 0.218049 0.0337127 -0.378094 42 36 40
-122.338 -1196.57 -2109.56 -0.00816891 0.0543856 -0.335068 70 64 70
-135.168 -1186.75 -2111.78 0.492682 0.179728 -0.18605 44 38 43
-134.517 -1177.77 -2110.19 0.606608 -0.0289759 -0.264289 49 44 48
-136.632 -1176.43 -2112.11 0.552 0.0822959 -0.187763 42 36 42
-127.224 -1171 -2107.36 0.599239 -0.318488 -0.72437 100 99 104
-124.567 -1164.6 -2108.26 0.537228 -0.250868 -0.859631 123 122 128
-222.457 -1042.23 -2110.48 0.646689 0.343292 -0.678156 111 118 142
-217.326 -1055.9 -2113.98 0.606778 0.227568 -0.861681 104 113 145
-213.356 -1058.41 -2111.76 0.604883 0.200655 -0.879168 89 96 130
-218.415 -1051.3 -2112.55 0.612023 0.321939 -0.758131 109 117 144
-192.303 -1056.49 -2113.27 0.21205 0.166508 -0.392806 101 108 144
-218.191 -1043.29 -2106.99 0.630936 0.368264 -0.683217 101 109 133
-187.187 -1030.32 -2113.19 0.360793 0.291846 -0.544777 76 81 109
-226.23 -1030.58 -2108.79 0.728251 0.275627 -0.622953 82 87 115
-227.631 -1021.16 -2108.88 0.706773 0.246458 -0.622357 49 53 83
-229.199 -996.587 -2107.59 0.767102 0.289816 -0.496067 28 27 54
-204.886 -1007.68 -2113.55 0.658233 0.357648 -0.534619 35 37 62
-220.71 -998.542 -2111.22 0.577787 0.259416 -0.515591 34 35 62
-212.169 -997.056 -2112.31 0.485392 0.273223 -0.493279 32 33 58
-269.417 -989.786 -2110.89 -0.829314 -0.0319993 -0.125829 108 115 151
-275.036 -972.615 -2110.2 -0.886703 -0.134498 -0.17599 75 81 121
-277.277 -965.93 -2108.67 -0.911932 -0.164519 -0.189242 65 67 107
-281.47 -949.226 -2106.6 -0.944797 -0.0772268 -0.197907 34 34 74
-283.017 -942.725 -2106.38 -0.945623 -0.0779306 -0.249298 32 32 73
-284.41 -932.853 -2106.95 -0.942304 -0.0654375 -0.301147 35 35 78
-226.188 -992.078 -2108.87 0.660819 0.280494 -0.488567 28 28 55
-221.393 -986.115 -2109.6 0.512885 0.271743 -0.497874 29 29 55
-224.333 -978.035 -2107.68 0.553435 0.31421 -0.561989 29 30 55
-100.8 -930.096 -2112.52 -0.306576 -0.337398 0.90766 33 33 69
-96.4484 -928.147 -2109.69 -0.335195 -0.338056 0.883898 33 32 69
-96.6648 -919.609 -2106.45 -0.312168 -0.370302 0.875681 33 32 70
-108.626 -911.509 -2106.15 -0.3595 -0.390133 0.858816 32 32 66
-89.5855 -926.824 -2106.3 -0.340118 -0.318161 0.879677 29 27 63
7.60581 -984.609 -2108.82 0.577697 0.266175 0.685903 94 98 133
7.88317 -977.881 -2111.75 0.604031 0.103381 0.689723 94 99 132
2.48953 -971.163 -2109.6 0.644421 -0.139312 0.660382 75 79 109
1.18725 -955.781 -2107.75 0.752081 0.0656648 0.643974 38 41 72
5.27253 -949.01 -2109.35 0.772704 -0.102651 0.565759 47 50 79
3.19439 -945.913 -2106.98 0.761229 -0.162622 0.59835 33 36 65
6.71651 -932.65 -2112.51 0.793101 0.0678352 0.587655 35 36 74
13.759 -995.047 -2113.2 0.762338 0.171462 0.398879 137 143 177
9.66317 -986.223 -2109.85 0.607602 0.261901 0.665341 97 102 137
6.07182 -926.502 -2113.05 0.774698 0.0646276 0.621875 35 36 77
4.52686 -915.863 -2111.24 0.779575 -0.0222997 0.622694 44 44 88
2.17224 -905.753 -2107.86 0.76621 -0.0173308 0.640414 37 37 76
4.16509 -901.053 -2109.04 0.735799 -0.0423912 0.669965 32 33 67
8.34739 -892.181 -2113.58 0.748355 0.00128559 0.658595 28 28 56
6.29378 -882.835 -2110.83 0.775606 0.0203991 0.615684 29 29 56
8.19781 -886.61 -2113.49 0.765946 0.0337648 0.629193 28 28 55
8.17931 -881.418 -2112.77 0.75899 0.0347116 0.634462 30 31 59
9.51936 -897.501 -2114.04 0.713319 -0.0653842 0.692766 30 31 64
-285.239 -855.809 -2109.24 -0.967945 0.00804814 -0.187388 51 59 135
8.1718 -786.019 -2109.06 0.932151 0.113174 0.310194 32 34 70
9.41852 -794.848 -2109.25 0.920409 0.19052 0.327159 35 36 80
9.3098 -777.168 -2108.17 0.942416 -0.147565 0.252999 29 32 61
12.5207 -773.429 -2115.35 0.908551 -0.140227 0.344691 30 34 62
13.204 -750.368 -2109.07 0.951879 0.109334 0.128825 45 53 124
12.7601 -748.15 -2107.9 0.954226 0.147767 0.120435 47 56 130
12.3741 -739.599 -2109.51 0.961828 0.106305 0.128435 44 54 129
-158.281 -728.705 -2106.17 -0.640538 -0.000822289 -0.213817 28 29 64
30.9793 -416.999 -2107.37 0.921733 -0.0901894 0.0108612 90 90 119
35.11 -398.041 -2111.23 0.964022 -0.074228 -0.0560028 113 114 145
35.2973 -391.47 -2111.17 0.978147 0.0597089 -0.121478 109 110 141
34.5809 -380.908 -2109.06 0.983047 0.0892374 -0.143006 149 150 178
33.7974 -374.516 -2113.28 0.99009 0.0397273 -0.108534 159 160 187
34.1372 -367.437 -2107.47 0.988159 0.0484736 -0.0975279 186 188 213
32.9223 -348.049 -2112.09 0.968757 0.070098 -0.215564 119 122 148
33.4653 -344.348 -2108.17 0.974723 0.0141253 -0.19017 99 102 126
-291.98 -334.139 -2113.52 -0.937857 0.210838 -0.236093 125 128 175
-293.678 -317.612 -2109.43 -0.931145 -0.139868 -0.230627 91 93 132
-295.345 -311.547 -2109.83 -0.915709 -0.258713 -0.268596 69 72 109
-299.626 -297.296 -2106.12 -0.93571 -0.128117 -0.278656 43 46 84
-297.664 -294.786 -2112.38 -0.926291 -0.0587634 -0.31539 45 48 87
-297.748 -284.603 -2109.85 -0.93641 0.0862147 -0.299022 40 43 83
-295.176 -270.223 -2107.54 -0.930225 0.188755 -0.244858 43 47 88
-291.848 -257.034 -2112.23 -0.962417 0.0385392 -0.171547 41 43 83
-292.036 -252.841 -2112.34 -0.969407 -0.0104723 -0.140381 40 43 82
-292.791 -240.372 -2108.8 -0.968221 0.0814734 -0.0180734 40 43 83
-295.198 150.248 -2111.69 -0.612278 0.707806 0.12341 26 21 36
-286.713 152.267 -2109.51 -0.583105 0.586738 0.0720809 26 22 36
-297.884 185.381 -2110.07 -0.469715 -0.786421 0.336231 21 14 20
-292.823 185.812 -2105.78 -0.416529 -0.877523 0.236 19 13 18
-273.223 162.528 -2112.12 -0.761476 0.345707 0.153963 24 21 33
-273.222 164.417 -2114.49 -0.752008 0.283986 0.281053 24 20 32
-272.271 175.113 -2106.93 -0.789949 -0.273552 0.0101714 21 16 27
-285.379 184.69 -2109.75 -0.507773 -0.76541 0.366172 21 13 20
8.80529 -71.3654 -2110.44 0.949852 -0.171375 0.255889 23 25 48
9.16045 -52.5929 -2113.33 0.942849 0.0143986 0.301876 26 28 50
9.32839 -51.2336 -2110.63 0.960532 -0.0333684 0.202638 25 27 49
11.5999 -44.9035 -2107.12 0.968007 -0.171359 0.0569493 24 27 48
16.6129 -30.8648 -2109.58 0.93864 -0.293878 -0.0416627 23 26 48
19.197 -20.0933 -2107.07 0.967313 -0.147156 0.00373418 23 27 49
19.3336 -18.7412 -2107.65 0.971438 -0.138783 0.00884131 23 27 49
20.6495 -8.53578 -2107.4 0.979836 -0.12927 0.0397431 23 27 49
21.3987 -1.32488 -2113.96 0.960517 -0.17522 0.110774 23 27 49
28.3331 21.9854 -2111.42 0.91695 -0.247482 0.0868648 24 28 52
642.029 209.594 -2111.41 0.0554455 -0.850276 0.511483 191 140 114
649.165 209.271 -2109.44 -0.00607372 -0.8505 0.535764 193 140 111
653.267 210.042 -2110.76 0.120468 -0.832221 0.510608 189 133 105
663.573 220.472 -2107.27 0.43776 -0.738805 0.506502 167 118 108
669.95 226.289 -2106.51 0.493279 -0.717649 0.490696 170 133 129
675.231 227.114 -2111.85 0.554808 -0.698773 0.453388 188 144 137
682.08 232.397 -2113.66 0.562728 -0.692516 0.445534 193 148 141
-291.874 -232.818 -2103.07 -0.960864 0.249241 0.0102939 41 45 84
-289.461 -223.589 -2105.53 -0.960308 0.28444 -0.0278969 42 46 85
-287.144 -210.932 -2098.94 -0.974003 0.212493 -0.0956909 44 47 86
-285.995 -206.147 -2099.04 -0.98033 0.18354 -0.0682474 43 46 85
-284.077 -194.123 -2101.51 -0.998438 0.113353 0.0102633 40 43 80
-283.634 -188.733 -2106.38 -0.986751 0.122588 0.00139414 39 42 80
-280.287 -174.303 -2104.87 -0.934802 0.258659 0.0322735 37 40 78
-275.717 -164.568 -2105.9 -0.862119 0.379883 0.0057815 33 37 75
-271.384 -156.544 -2105.17 -0.862351 0.41345 0.0923124 32 35 73
-268.402 -144.765 -2101.37 -0.955817 0.245661 0.0466265 35 38 73
-266.326 -135.64 -2101.64 -0.965595 0.22506 0.0890602 47 50 85
-263.695 -119.793 -2101.72 -0.895641 0.0332742 0.280897 52 54 88
-264.37 -113.528 -2097.8 -0.885183 -0.236527 0.254426 30 33 67
-273.063 -100.784 -2098.12 -0.839462 -0.473889 0.219911 30 34 67
-277.034 -96.1191 -2104.84 -0.858609 -0.4282 0.215246 31 34 67
-279.692 -91.6489 -2104.86 -0.865913 -0.433138 0.171357 32 35 68
-283.448 -79.8602 -2103.43 -0.910305 -0.304777 -0.0803568 31 34 66
-283.038 -67.2496 -2099.84 -0.88607 -0.0647059 0.165209 34 37 68
-284.191 -63.3949 -2103.53 -0.890497 -0.0554924 0.102791 33 37 67
-278.792 -53.1784 -2099.02 -0.682651 0.219829 0.524065 36 39 70
-277.137 -44.9574 -2098.56 -0.730304 0.110394 0.467748 33 37 66
-277.361 -35.5523 -2099.72 -0.819271 0.0089286 0.517589 32 36 64
-278.083 -30.5355 -2100.09 -0.847165 -0.0492602 0.501639 31 35 63
-278.091 -24.9786 -2099.07 -0.879062 -0.148762 0.437529 30 33 61
-285.421 -9.98607 -2104.18 -0.927232 -0.152518 0.276967 31 35 61
-294.199 22.1576 -2100.77 -0.889063 -0.397897 0.0473041 25 28 51
-285.972 -8.41118 -2105.84 -0.940391 -0.117558 0.27856 32 36 62
-286.242 7.69546 -2099.81 -0.955102 -0.137496 0.0240662 24 28 52
-294.958 25.6478 -2104.5 -0.905742 -0.356325 -0.0450474 25 28 50
-303.664 53.5432 -2101.33 -0.97152 -0.107968 -0.156004 34 38 63
-300.861 40.6387 -2098.23 -0.961275 -0.157433 -0.239 24 27 48
-390.365 120.172 -2102.72 -0.284758 -0.448954 0.636484 32 36 64
-417.038 128.005 -2101.06 -0.234164 -0.899269 0.354539 28 32 52
-395.478 122.097 -2102.3 -0.257192 -0.485327 0.662075 32 36 64
-314.09 64.0975 -2103.81 -0.912718 -0.129996 0.0684986 38 43 71
-316.81 64.7661 -2102.2 -0.901343 -0.125918 0.0455517 38 43 71
-76.3946 465.53 -2097.88 0.89266 0.223593 -0.234197 171 112 83
-71.4588 451.703 -2105.94 0.741715 0.130996 -0.584031 137 86 61
-75.2479 479.774 -2104.32 0.867614 -0.35537 0.0661144 166 107 77
-73.7928 486.438 -2097.66 0.888133 -0.356401 0.104888 174 109 79
-65.0216 498.674 -2098.43 0.618138 -0.676375 0.246989 98 59 45
-64.7939 498.605 -2099.01 0.614336 -0.673787 0.260808 97 58 45
-53.6129 506.43 -2097.75 0.450143 -0.741542 -0.0508077 69 48 43
-47.4787 514.162 -2098.29 0.356995 -0.775193 -0.1877 59 44 42
76.4753 102.631 -2102.08 0.631371 -0.376 0.655195 30 37 68
77.1676 106.53 -2100.13 0.597633 -0.428047 0.658751 30 37 67
86.6593 115.301 -2098.74 0.463025 -0.564722 0.679831 27 33 62
96.8003 116.542 -2104.37 0.376188 -0.556461 0.736323 26 32 58
102.972 119.792 -2104.91 0.309586 -0.532496 0.780608 29 34 61
640.26 218.783 -2098.4 0.0331286 -0.790301 0.599883 195 147 123
646.517 212.167 -2104.72 -0.0658132 -0.838228 0.573703 193 143 116
651.186 213.286 -2103.59 -0.0127001 -0.825905 0.578282 181 135 111
656.877 224.061 -2097.79 0.315439 -0.760424 0.553894 126 100 100
663.015 223.542 -2103.22 0.404181 -0.741952 0.523182 151 116 111
674.86 234.192 -2099.78 0.527191 -0.705393 0.475825 187 150 145
-279.777 -1186 -2097.85 -0.27032 0.863824 -0.278224 134 130 133
-278.896 -1185.36 -2097.08 -0.292822 0.844099 -0.302657 142 138 140
-276.16 -1172.06 -2088.73 -0.864754 0.29722 -0.250419 185 182 181
-273.73 -1162.59 -2090.97 -0.904524 0.26906 -0.182499 142 140 141
-271.239 -1156.66 -2096.67 -0.924247 0.224558 -0.112857 101 99 106
-270.591 -1146.53 -2090.86 -0.980831 0.136822 -0.13368 133 136 156
-272.291 -1133.75 -2094.55 -0.963927 -0.118367 0.0866658 155 162 198
-139.986 -1185.94 -2091.19 0.483285 0.752794 0.0492181 40 35 37
-137.92 -1186.06 -2096.72 0.527879 0.543602 -0.000565124 45 40 43
-134.737 -1179.51 -2093.35 0.326922 0.544226 0.0374798 54 48 50
-122.807 -1180.08 -2089.37 -0.614189 0.617085 0.133219 110 103 104
-130.535 -1177.86 -2091.8 0.0947731 0.497911 -0.00295141 70 64 66
-125.986 -1175.47 -2090.21 -0.279194 0.408564 0.0801203 116 109 111
-147.683 -1151.47 -2090.42 0.862959 0.180876 0.422509 101 102 125
-140.422 -1152.78 -2090.75 0.676369 0.0220442 0.0445084 109 111 133
-182.81 -1068.74 -2093.83 0.723564 0.16379 -0.355741 129 136 164
-148.724 -1090.55 -2094.62 0.882907 0.256102 0.383275 94 104 143
-150.806 -1084.11 -2093.86 0.902526 0.267161 0.376069 92 102 139
-152.786 -1074.07 -2095.61 0.915005 0.301502 0.349348 91 100 136
-154.428 -1069.86 -2091.42 0.883272 0.269834 0.350169 86 94 128
-115.562 -1120.44 -2093.8 0.0337443 -0.354314 -0.24213 138 140 159
-111.915 -1119.24 -2094.12 -0.0107796 -0.385773 -0.24371 139 142 161
-90.4272 -1123.75 -2093.24 -0.0561001 0.0692113 -0.0201996 145 136 148
-92.2475 -1120.33 -2093.49 -0.0202892 -0.200727 -0.115157 142 142 160
-87.1489 -1124.27 -2095.09 -0.0349544 0.0251732 -0.209196 146 137 146
-84.1928 -1067.44 -2095.88 -0.403287 -0.23502 0.812787 102 116 185
-75.8841 -1069.83 -2095.07 -0.112857 -0.416986 0.864555 77 96 171
-71.34 -1064.8 -2092.43 0.120164 -0.34868 0.905123 61 80 154
-177.58 -1063.18 -2089.6 0.393046 0.181472 -0.389299 134 141 169
-168.43 -1053.87 -2090.01 -0.974453 -0.0545534 -0.144249 131 136 175
-164.167 -1042.72 -2095.98 -1.05451 -0.0353723 -0.166919 135 141 179
-163.88 -1034.48 -2093.77 -0.999985 -0.00524444 -0.194103 126 131 168
-140.475 -1059.32 -2094.96 0.289843 0.126381 0.228463 85 91 125
-163.915 -1026.96 -2090.76 -1.01032 -0.00807518 -0.206388 123 129 166
-163.131 -1018.07 -2093.1 -0.979718 0.00340495 -0.255854 116 123 161
-163.062 -1007.68 -2090.71 -0.983022 -0.0122628 -0.239224 101 107 146
-163.071 -1000.24 -2090.58 -0.98234 -0.0222079 -0.23377 79 84 123
-89.4972 -1059.02 -2097.23 -0.650379 -0.0363746 0.711798 126 138 194
-85.729 -1052.74 -2094.52 -0.618356 0.0340767 0.738465 114 131 189
-80.6226 -1048.34 -2092.45 -0.4855 0.171413 0.743806 98 113 178
-277.185 -1170.69 -2060.7 -0.988665 0.121815 0.0169905 208 206 209
-274.347 -1156.2 -2062.42 -0.991019 0.127863 -0.045743 218 217 220
-273.74 -1152.73 -2061.4 -0.984423 0.125125 -0.0454462 223 222 225
-272.099 -1141.66 -2063.26 -0.89511 0.257821 -0.0407737 215 217 221
-267.721 -1132.99 -2061.88 -0.824298 0.379826 0.103906 176 183 195
-246.547 -1141.72 -2056.86 -0.374007 0.722246 0.553627 227 222 226
-241.222 -1136.65 -2064.93 -0.211664 0.629481 0.733297 228 224 226
-245.033 -1130.54 -2057.51 -0.255552 0.648441 0.70456 219 216 222
-236.745 -1143.09 -2059.77 -0.254373 0.707344 0.647545 216 210 215
-222.268 -1138.32 -2062.06 -0.140702 0.729396 0.667332 209 200 209
-212.678 -1136.86 -2058.59 -0.311671 0.737113 0.610838 223 216 225
-207.174 -1130.23 -2062.89 -0.37107 0.650427 0.658862 233 232 239
-194.591 -1132.4 -2057.39 0.0751798 0.613805 0.645368 228 224 234
-157.509 -1166.22 -2058.95 0.826499 0.46965 0.244955 150 136 135
-143.196 -1186.1 -2058.35 0.866868 0.554463 0.0612239 38 33 34
-144.915 -1184.57 -2057 0.878089 0.520412 0.0637708 43 38 39
-133.323 -1188.18 -2062.16 0.565602 0.586199 0.0911221 41 36 39
-155.489 -1170.39 -2063.69 0.895674 0.417848 0.171075 119 109 108
-288.842 -962.043 -2057.92 -0.333391 -0.136865 0.032588 50 52 99
-289.715 -952.148 -2060.09 -0.463464 -0.0270452 0.061417 44 45 89
-285.087 -940.035 -2058.21 -0.533865 0.134507 0.180608 40 42 86
-256.485 -944.353 -2057.04 -0.584798 0.0934369 0.217458 40 42 83
-260.378 -932.503 -2062.66 -0.456344 -0.0392986 0.0362803 39 41 81
-223.211 -972.595 -2063.24 0.717081 0.336731 -0.596966 37 36 62
-221.92 -971.826 -2061.01 0.702574 0.33276 -0.623208 38 38 63
-211.378 -991.687 -2061.7 0.655379 0.366083 -0.620779 27 28 53
-214.221 -984.085 -2058.46 0.674032 0.383268 -0.710361 25 26 52
-199.432 -994.547 -2057.21 0.343296 0.16164 -0.16769 33 33 54
-216.611 -978.304 -2057.67 0.675908 0.360953 -0.693608 29 29 55
-238.967 -950.465 -2059.22 0.340499 0.201334 -0.375996 29 28 52
-230.481 -959.235 -2062.88 0.704211 0.366849 -0.540147 31 31 56
-237.218 -952.452 -2061.94 0.519059 0.268243 -0.426786 27 27 51
-248.375 -946.004 -2061.81 -0.151943 -0.000877656 -0.0484977 32 32 59
-305.088 -904.609 -2058.95 -0.0970728 -0.0675701 -0.199004 44 44 83
-297.256 -910.355 -2060.65 0.297993 -0.0403234 -0.270741 42 42 86
-294.723 -912.756 -2058.13 -0.0414855 -0.04849 -0.16394 48 49 94
-301.644 -904.997 -2062.72 0.168769 -0.058634 -0.255218 44 43 82
-292.424 -903.724 -2064.43 0.60185 -0.0792292 -0.30552 40 38 82
-281.72 -924.696 -2063.45 -0.351413 -0.0240452 -0.193785 38 39 79
-281.109 -920.81 -2064.11 -0.517155 -0.105292 -0.177858 38 38 77
-266.472 -924.192 -2062.84 -0.0751589 -0.00606002 -0.241425 41 44 87
-268.076 -921.681 -2064.35 -0.123135 -0.0279964 -0.292219 41 43 85
-307.905 -890.689 -2058.26 -0.131517 -0.0910016 -0.225327 49 50 89
-290.918 -897.014 -2064.47 0.470768 -0.140688 -0.266874 41 40 83
-10.1072 -875.944 -2059.34 0.954273 -0.11942 0.28308 36 38 72
-10.5305 -871.604 -2056.93 0.926921 -0.122889 0.33344 37 38 72
-304.918 -861.186 -2063.68 0.181389 -0.0208394 -0.325142 45 53 118
-304.208 -849.758 -2065.38 0.290952 0.0538497 -0.317099 46 59 138
-309.37 -846.454 -2060.08 0.167552 -0.136276 -0.495101 47 56 133
-310.014 -838.577 -2058.43 0.234139 0.127861 -0.576 49 59 136
-287.762 -839.603 -2064.62 0.854717 0.203808 -0.396963 53 76 171
-282.32 -864.919 -2059.61 0.683922 0.0330895 -0.690902 39 39 86
-278.772 -855.221 -2056.88 0.653262 -0.0052168 -0.743273 36 40 93
-283.308 -845.585 -2062.44 0.767955 0.113672 -0.56799 47 62 142
-283.156 -838.626 -2059.38 0.661392 0.211742 -0.641157 42 55 134
-308.073 -824.968 -2056.37 0.526881 0.100416 -0.519601 59 71 160
-300.482 -815.795 -2061.8 -0.0807781 0.0765446 -0.320505 64 80 177
-299.345 -812.515 -2061.44 -0.341341 0.100399 -0.182559 65 83 180
-297.196 -800.807 -2057.97 -0.589728 0.135788 0.0660915 65 85 185
-282.605 -830.045 -2057.24 0.555412 0.183298 -0.766737 38 53 130
-280.745 -808.881 -2056.68 0.542277 0.0478573 -0.87003 52 74 169
-280.475 -805.316 -2057.63 0.580005 0.0622396 -0.857327 54 75 169
-297.373 -793.956 -2057.03 -0.415109 0.0937938 0.0134235 61 82 182
-297.122 -789.717 -2057.69 -0.306195 0.0408078 -0.033822 59 80 180
-303.935 -774.971 -2057.07 -0.492139 -0.0714484 -0.143094 59 79 172
-303.533 -776.341 -2056.97 -0.464584 -0.0774449 -0.143147 59 80 174
-279.201 -792.412 -2057.79 0.459723 0.0661473 -0.594071 61 82 182
-278.963 -797.65 -2058.52 0.560233 0.0553455 -0.769697 58 79 175
-276.465 -782.72 -2057.33 -0.0700834 0.144857 0.198685 59 81 180
-288.267 -648.169 -2063.68 -0.759513 0.0446562 0.60327 51 67 162
-280.57 -659.031 -2059.23 -0.649834 0.0958039 0.744215 51 70 166
-278.582 -663.735 -2057.73 -0.638973 0.0698565 0.761149 49 68 164
-278.485 -657.461 -2057.02 -0.685419 -0.0190776 0.722523 47 64 155
-283.08 -638.832 -2056.87 -0.77014 -0.0225663 0.614405 36 47 121
-288.5 -609.183 -2061.65 -0.898876 -0.26603 0.29915 32 40 94
-283.3 -632.459 -2055.72 -0.822733 -0.00519904 0.502849 33 41 105
-285.933 -624.139 -2060.31 -0.893449 0.0372166 0.280611 31 41 100
-286.394 -611.394 -2058.56 -0.894136 -0.216735 0.334257 27 33 79
-172.453 -856.505 -2064.25 -0.882583 -0.0171377 -0.467658 32 33 76
-175.762 -847.31 -2057.4 -0.859654 0.00849031 -0.504998 35 35 79
-172 -834.104 -2061.43 -0.843865 0.0582428 -0.531024 27 28 60
-174.655 -832.003 -2057.05 -0.832845 0.0621129 -0.548668 27 28 60
-171.521 -825.982 -2061.77 -0.850949 0.0367501 -0.519844 24 26 54
-172.972 -811.602 -2059.56 -0.857843 0.00331509 -0.509537 22 26 55
-171.156 -809.848 -2063.1 -0.87106 -0.00187241 -0.487922 24 28 58
-96.6899 -714.354 -2060.73 -0.555551 -0.149244 0.801725 39 43 101
-103.989 -703.44 -2063.73 -0.44777 -0.174039 0.869404 42 45 99
-96.2917 -707.109 -2059.6 -0.52046 -0.111223 0.830835 43 47 105
-106.716 -691.985 -2062.78 -0.445499 -0.193397 0.867248 37 40 96
-100.07 -699.1 -2061.26 -0.436005 -0.144275 0.880232 40 43 100
-97.5312 -694.982 -2059.49 -0.41156 -0.182812 0.886765 36 39 96
-105.552 -689.993 -2061.6 -0.438475 -0.210845 0.865593 37 39 95
-116.088 -678.084 -2062.72 -0.579102 -0.26049 0.72782 43 45 97
-111.536 -681.967 -2061.66 -0.527914 -0.248995 0.780579 42 44 98
-111.036 -673.54 -2058.42 -0.495953 -0.234079 0.778672 35 37 89
-157.921 -667.64 -2060.14 -0.691053 0.145352 -0.712374 21 25 54
-156.529 -658.404 -2061.04 -0.681327 0.0606083 -0.744916 19 23 52
-158.364 -644.388 -2058.63 -0.761082 0.0434924 -0.668186 24 28 64
-153.192 -659.637 -2063.9 -0.629669 0.0608454 -0.817727 18 22 48
-137.222 -661.034 -2058.87 -0.45932 -0.145854 0.55635 27 26 61
-124.499 -661.298 -2063.15 -0.484224 -0.17551 0.759327 33 32 77
-137.484 -659.49 -2058.1 -0.469101 -0.127162 0.507402 27 27 62
-126.184 -658.374 -2063.44 -0.460441 -0.167376 0.81049 33 32 75
-139.718 -646.004 -2057.29 -0.615571 0.0528444 -0.183872 24 26 59
-141.33 -639.726 -2064.41 -0.525132 0.083963 -0.394414 20 22 50
-135.947 -648.747 -2060.73 -0.558549 -0.0214021 0.193525 28 28 64
-125.594 -649.767 -2060.83 -0.483671 -0.104611 0.731333 35 34 83
-122.388 -635.644 -2058.75 -0.500662 -0.0606594 0.879284 42 40 95
-157.735 -632.803 -2056.11 -0.774399 0.165302 -0.617923 24 28 60
-144.975 -626.359 -2057.04 -0.635696 0.260714 -0.661278 21 24 51
-147.261 -618.786 -2058.53 -0.653194 0.293509 -0.721568 21 24 50
-130.562 -633.889 -2064.98 -0.557089 -0.0746176 0.812075 22 22 51
-123.309 -621.93 -2057.59 -0.515144 -0.143013 0.8256 32 29 81
-147.692 -615.243 -2058.04 -0.658412 0.235525 -0.689314 20 22 49
-144.014 -603.729 -2061.94 -0.103747 -0.155541 0.510765 16 17 42
-135.094 -609.32 -2059.34 -0.25731 -0.249383 0.748081 21 21 52
-129.169 -611.42 -2057.03 -0.460308 -0.283083 0.809298 25 24 64
-116.511 -662.05 -2059.05 -0.471126 -0.164136 0.766756 33 33 86
-115.632 -657.041 -2057.69 -0.438353 -0.14841 0.841247 36 35 92
94.4101 -1223.52 -2063.28 0.333143 0.475443 0.814982 16 16 16
-704.303 170.429 -2058.68 -0.103536 -0.928382 0.351648 100 78 69
-680.879 170.069 -2056.87 0.0025567 -0.896455 0.43666 116 79 65
-670.875 171.358 -2057.91 0.0372806 -0.914638 0.389737 116 80 66
-661.943 172.08 -2059.6 0.0246568 -0.913471 0.394732 116 80 66
-644.751 169.162 -2059.94 -0.0811786 -0.820421 0.537184 118 82 64
-634.652 164.947 -2062.21 -0.104244 -0.771924 0.605979 117 82 62
-630.153 162.811 -2064.99 -0.0880324 -0.798145 0.569145 114 81 62
-620.363 166.751 -2057.25 -0.0425221 -0.806727 0.552196 112 80 63
-610.666 167.199 -2057.85 0.0998099 -0.830199 0.459537 110 80 64
-604.809 166.935 -2063.17 0.157058 -0.885168 0.377979 107 77 64
-591.92 171.197 -2063.16 0.170949 -0.796479 0.498046 119 82 65
-588.567 173.243 -2061.13 0.190899 -0.765739 0.541986 125 84 65
-579.634 173.846 -2063.37 0.140616 -0.799648 0.554453 124 82 64
-577.804 180.252 -2057.91 0.260873 -0.622243 0.723151 152 99 68
-562.057 177.098 -2063.54 0.107835 -0.71952 0.682067 136 88 65
-559.888 184.104 -2057.26 0.0759628 -0.623786 0.776662 160 104 70
-547.643 178.215 -2064.52 0.0781951 -0.754558 0.650123 134 87 63
-546.604 184.058 -2057.85 0.0605465 -0.703655 0.71553 148 94 65
-538.015 179.357 -2064.39 0.0270042 -0.756131 0.650318 129 82 61
-531.595 186.832 -2056.91 0.0263629 -0.723268 0.693658 138 88 63
-532.865 182.798 -2061.04 0.0112696 -0.732568 0.67494 133 84 62
-493.16 135.766 -2058.88 -0.319601 -0.576509 0.629508 64 56 70
-492.404 134.511 -2063.43 -0.314899 -0.575221 0.632124 63 56 70
0.621341 -201.917 -2063.07 0.811045 0.222316 0.520219 37 44 81
-7.75423 -185.368 -2057.1 0.714659 0.192203 0.661416 37 44 80
-3.72532 -189.26 -2062.62 0.815785 0.219806 0.45948 34 40 75
-10.5413 -168.002 -2057.32 0.735965 0.116135 0.659114 36 41 76
-11.0472 -162.614 -2058.42 0.765016 0.142445 0.592911 35 39 74
-7.24003 -159.411 -2064.57 0.775167 0.438469 0.351948 29 34 66
-11.1024 -156.366 -2061.15 0.791814 0.264028 0.449229 31 36 68
