ply
format ascii 1.0
comment Created by Open3D
element vertex 1458
property double x
property double y
property double z
property uchar red
property uchar green
property uchar blue
end_header
-236.01 -360.967 -1552 41 43 42
-232.654 -360.659 -1551 40 42 42
-229.452 -360.586 -1551 39 43 41
-226.106 -360.28 -1550 37 41 39
-222.622 -359.744 -1548 38 40 40
-219.432 -359.673 -1548 40 42 43
-215.824 -358.906 -1545 41 43 45
-212.506 -358.606 -1544 42 44 44
-208.788 -357.61 -1540 42 44 44
-205.087 -356.615 -1536 44 46 46
-201.01 -354.925 -1529 46 47 46
-197.223 -353.701 -1524 47 47 45
-192.948 -351.55 -1515 44 47 44
-189.213 -350.329 -1510 43 46 43
-185.5 -349.11 -1505 47 50 47
-181.81 -347.891 -1500 49 49 47
-178.379 -347.138 -1497 46 46 44
-174.846 -346.155 -1493 50 50 48
-171.675 -345.868 -1492 51 51 49
-168.51 -345.582 -1491 52 52 50
-165.461 -345.529 -1491 53 53 51
-162.523 -345.708 -1492 51 51 49
-159.796 -346.352 -1495 50 50 48
-157.162 -347.229 -1499 49 49 46
-154.822 -348.8 -1506 50 50 46
-152.556 -350.604 -1514 50 50 46
-150.159 -352.177 -1521 52 52 48
-147.929 -354.214 -1530 52 52 48
-145.284 -355.325 -1535 49 49 45
-142.621 -356.436 -1540 45 45 41
-139.938 -357.549 -1545 44 44 42
-137.325 -358.893 -1551 43 43 41
-134.515 -359.776 -1555 40 40 38
-131.69 -360.659 -1559 40 40 37
-128.767 -361.312 -1562 40 40 37
-125.673 -361.503 -1563 38 38 36
-122.575 -361.695 -1564 36 36 34
-119.475 -361.888 -1565 38 38 36
-116.446 -362.313 -1567 38 38 36
-113.265 -362.277 -1567 40 40 38
-110.155 -362.472 -1568 41 41 39
-106.974 -362.438 -1568 42 42 40
-103.728 -362.174 -1567 42 42 40
-100.422 -361.679 -1565 41 41 39
-97.3737 -362.11 -1567 41 41 39
-94.138 -361.849 -1566 41 41 39
-91.0232 -362.051 -1567 41 41 39
-87.9611 -362.484 -1569 43 43 41
-84.7837 -362.457 -1569 44 44 42
-81.6068 -362.431 -1569 43 43 42
-78.5307 -362.868 -1571 43 43 43
-75.3513 -362.843 -1571 43 43 43
-72.3102 -363.513 -1574 45 45 45
-69.2577 -364.183 -1577 46 46 46
-66.1935 -364.855 -1580 47 47 47
-63.2773 -366.451 -1587 46 46 45
-60.371 -368.279 -1595 45 45 43
-58.2929 -375.648 -1627 43 43 41
-57.6749 -393.869 -1706 44 44 42
-55.4346 -402.624 -1744 49 49 47
-52.565 -407.686 -1766 53 53 51
-278.128 -378.465 -1609 57 57 57
-270.682 -372.732 -1585 51 52 54
-265.025 -369.353 -1571 47 49 51
-261.261 -368.562 -1568 46 48 48
-257.183 -367.303 -1563 46 48 49
-253.453 -366.516 -1560 45 47 49
-249.738 -365.729 -1557 44 46 46
-246.195 -365.179 -1555 43 45 45
-242.819 -364.865 -1554 43 45 45
-239.604 -364.787 -1554 42 44 44
-236.086 -364.241 -1552 39 41 41
-232.879 -364.165 -1552 40 42 42
-229.526 -363.856 -1551 38 41 39
-226.033 -363.313 -1549 36 40 37
-222.694 -363.006 -1548 38 40 40
-219.36 -362.701 -1547 40 42 43
-216.033 -362.396 -1546 42 44 46
-212.575 -361.858 -1544 42 44 45
-208.99 -361.087 -1541 41 43 43
-205.153 -359.849 -1536 43 45 45
-201.075 -358.144 -1529 46 47 46
-197.027 -356.44 -1522 48 48 46
-192.755 -354.27 -1513 45 48 45
-189.274 -353.506 -1510 45 48 45
-185.436 -352.041 -1504 47 50 47
-181.868 -351.046 -1500 48 49 46
-178.317 -350.052 -1496 47 47 45
-174.901 -349.294 -1493 50 50 48
-171.73 -349.004 -1492 50 50 48
-168.564 -348.715 -1491 51 51 49
-165.514 -348.662 -1491 53 53 51
-162.357 -348.376 -1490 52 52 50
-159.74 -349.259 -1494 51 51 49
-157.107 -350.143 -1498 49 49 46
-154.666 -351.496 -1504 50 50 46
-152.504 -353.55 -1513 50 50 46
-150.306 -355.604 -1522 49 49 45
-147.879 -357.192 -1529 50 50 46
-145.331 -358.546 -1535 49 49 45
-142.759 -359.902 -1541 47 47 44
-139.982 -360.791 -1545 45 45 43
-137.368 -362.147 -1551 43 43 41
-134.471 -362.804 -1554 42 42 40
-131.647 -363.696 -1558 41 41 37
-128.726 -364.354 -1561 40 40 37
-125.793 -365.014 -1564 39 39 37
-122.693 -365.208 -1565 39 39 37
-119.589 -365.402 -1566 39 39 37
-116.557 -365.831 -1568 38 38 36
-113.301 -365.561 -1567 39 39 37
-110.19 -365.759 -1568 40 40 38
-106.94 -365.491 -1567 42 42 40
-103.76 -365.457 -1567 42 42 40
-100.518 -365.191 -1566 40 40 38
-97.4668 -365.626 -1568 40 40 38
-94.2881 -365.596 -1568 42 42 40
-91.1682 -365.799 -1569 43 43 41
-88.0451 -366.004 -1570 42 42 40
-84.9186 -366.209 -1571 41 41 39
-81.7368 -366.183 -1571 41 41 41
-78.6056 -366.39 -1572 42 42 42
-75.519 -366.832 -1574 40 40 40
-72.4251 -367.274 -1576 41 41 41
-69.4553 -368.417 -1581 43 43 43
-66.2983 -368.628 -1582 44 44 44
-63.3771 -370.239 -1589 44 44 43
-60.3523 -371.384 -1594 44 44 42
-58.2397 -378.588 -1625 45 45 43
-57.4564 -395.809 -1699 44 44 42
-55.2296 -404.644 -1737 49 49 47
-278.564 -382.346 -1611 57 57 57
-270.77 -376.086 -1585 49 51 52
-264.943 -372.439 -1570 46 48 50
-261.18 -371.642 -1567 46 48 48
-257.102 -370.371 -1562 46 48 49
-253.373 -369.576 -1559 46 48 50
-249.819 -369.02 -1557 44 46 46
-246.275 -368.465 -1555 42 44 44
-242.898 -368.148 -1554 43 45 45
-239.682 -368.069 -1554 43 45 45
-236.315 -367.755 -1553 40 42 42
-232.805 -367.205 -1551 39 41 41
-229.748 -367.366 -1552 37 40 38
-226.398 -367.055 -1551 36 40 37
-223.053 -366.745 -1550 37 39 39
-219.715 -366.437 -1549 39 41 41
-216.243 -365.893 -1547 43 45 47
-213.057 -365.823 -1547 42 44 45
-209.465 -365.045 -1544 42 44 44
-205.62 -363.795 -1539 43 45 45
-201.534 -362.075 -1532 46 47 46
-197.609 -360.592 -1526 47 47 45
-193.072 -357.929 -1515 44 47 44
-189.21 -356.45 -1509 44 47 44
-185.496 -355.208 -1504 47 50 47
-181.927 -354.204 -1500 48 49 47
-178.255 -352.965 -1495 48 48 46
-174.841 -352.2 -1492 50 50 48
-171.785 -352.143 -1492 50 50 48
-168.505 -351.616 -1490 51 51 49
-165.345 -351.326 -1489 52 52 50
-162.409 -351.509 -1490 51 51 49
-159.577 -351.929 -1492 50 50 48
-156.948 -352.821 -1496 50 50 46
-154.51 -354.186 -1502 51 51 47
-152.553 -356.73 -1513 51 51 47
-150.354 -358.803 -1522 50 50 46
-148.024 -360.64 -1530 49 49 45
-145.567 -362.243 -1537 48 48 44
-142.805 -363.139 -1541 48 48 44
-140.118 -364.271 -1546 46 46 44
-137.412 -365.405 -1551 44 44 42
-134.514 -366.067 -1554 45 45 43
-131.69 -366.967 -1558 44 44 40
-128.767 -367.631 -1561 41 41 38
-125.753 -368.061 -1563 40 40 38
-122.732 -368.492 -1565 40 40 38
-119.704 -368.924 -1567 39 39 37
-116.52 -368.886 -1567 39 39 37
-113.409 -369.084 -1568 38 38 36
-110.296 -369.283 -1569 38 38 36
-107.042 -369.013 -1568 42 42 40
-103.926 -369.214 -1569 43 43 41
-100.679 -368.946 -1568 41 41 39
-97.5602 -369.149 -1569 40 40 38
-94.3784 -369.119 -1569 43 43 41
-91.3718 -369.794 -1572 42 42 40
-88.1855 -369.766 -1572 42 42 40
-85.0539 -369.973 -1573 39 39 37
-81.8671 -369.946 -1573 40 40 40
-78.6808 -369.92 -1573 43 43 43
-75.5912 -370.366 -1575 42 42 42
-72.4482 -370.577 -1576 41 41 41
-69.4775 -371.73 -1581 42 42 42
-66.3614 -372.178 -1583 42 42 42
-63.4372 -373.803 -1590 42 42 41
-60.4474 -375.194 -1596 44 44 42
-58.2225 -381.757 -1624 46 46 44
-57.6438 -400.544 -1704 46 46 44
-54.9292 -405.932 -1727 51 51 49
-278.137 -385.041 -1608 56 56 56
-271.201 -379.922 -1587 49 51 52
-265.03 -375.764 -1570 46 48 50
-261.099 -374.72 -1566 47 48 48
-256.693 -372.96 -1559 47 48 49
-253.457 -372.875 -1559 47 49 51
-250.222 -372.792 -1559 45 47 48
-246.515 -371.993 -1556 43 45 46
-242.978 -371.434 -1554 44 46 46
-239.915 -371.594 -1555 43 45 45
-236.393 -371.038 -1553 42 44 44
-232.881 -370.482 -1551 38 40 42
-229.675 -370.406 -1551 38 41 41
-226.18 -369.854 -1549 37 41 39
-222.983 -369.78 -1549 37 39 39
-219.645 -369.469 -1548 38 40 40
-216.454 -369.397 -1548 42 44 45
-212.988 -368.849 -1546 42 44 45
-209.262 -367.826 -1542 43 45 45
-205.42 -366.565 -1537 43 45 45
-201.732 -365.544 -1533 46 47 46
-197.285 -363.095 -1523 47 47 45
-193.135 -361.124 -1515 45 48 45
-189.397 -359.869 -1510 45 48 45
-185.68 -358.617 -1505 49 49 47
-182.107 -357.603 -1501 49 49 47
-178.552 -356.591 -1497 49 49 47
-175.132 -355.819 -1494 50 50 48
-171.841 -355.286 -1492 51 51 49
-168.56 -354.754 -1490 51 51 49
-165.399 -354.461 -1489 52 52 50
-162.353 -354.408 -1489 51 51 49
-159.522 -354.831 -1491 50 50 48
-156.789 -355.493 -1494 50 50 46
-154.56 -357.346 -1502 51 51 47
-152.401 -359.437 -1511 52 52 48
-150.205 -361.529 -1520 52 52 48
-148.072 -363.858 -1530 51 51 47
-145.614 -365.475 -1537 49 49 45
-142.944 -366.617 -1542 47 47 43
-140.254 -367.759 -1547 45 45 43
-137.457 -368.665 -1551 44 44 42
-134.558 -369.334 -1554 44 44 42
-131.648 -370.003 -1557 43 43 40
-128.809 -370.911 -1561 40 40 38
-125.794 -371.345 -1563 38 38 36
-122.694 -371.542 -1564 37 37 35
-119.59 -371.74 -1565 37 37 35
-116.483 -371.939 -1566 37 37 35
-113.301 -371.902 -1566 37 37 35
-110.261 -372.341 -1568 37 37 35
-107.009 -372.068 -1567 40 40 38
-103.894 -372.271 -1568 41 41 39
-100.711 -372.238 -1568 42 42 40
-97.5917 -372.443 -1569 41 41 39
-94.3487 -372.174 -1568 45 45 43
-91.285 -372.619 -1570 45 45 43
-88.1578 -372.827 -1571 44 44 42
-84.9732 -372.799 -1571 40 40 38
-81.8934 -373.247 -1573 41 41 41
-78.7062 -373.221 -1573 45 45 45
-75.6637 -373.907 -1576 44 44 44
-72.5636 -374.358 -1578 43 43 43
-69.5439 -375.284 -1582 43 43 43
-66.4247 -375.736 -1584 42 42 42
-63.5375 -377.613 -1592 42 42 42
-60.5427 -379.016 -1598 44 44 44
-58.313 -385.637 -1626 47 47 45
-58.1023 -407.2 -1717 48 48 46
-55.0105 -410.028 -1729 54 54 52
-279.095 -389.659 -1613 55 55 55
-270.949 -382.804 -1585 50 51 53
-265.455 -379.575 -1572 47 49 51
-261.019 -377.797 -1565 47 47 48
-256.943 -376.504 -1560 47 48 49
-253.703 -376.419 -1560 48 49 51
-250.305 -376.094 -1559 45 48 49
-246.913 -375.77 -1558 43 46 47
-243.371 -375.206 -1556 44 46 46
-240.148 -375.126 -1556 44 46 46
-236.471 -374.323 -1553 43 45 45
-233.108 -374.004 -1552 38 40 41
-229.899 -373.928 -1552 38 40 41
-226.401 -373.37 -1550 37 41 40
-223.2 -373.295 -1550 38 40 40
-219.718 -372.74 -1548 39 41 41
-216.525 -372.668 -1548 42 44 44
-212.921 -371.875 -1545 42 44 44
-209.602 -371.564 -1544 43 45 44
-205.889 -370.533 -1540 43 45 45
-201.798 -368.781 -1533 45 46 46
-197.738 -367.031 -1526 46 46 44
-193.454 -364.802 -1517 45 46 43
-189.459 -363.056 -1510 45 46 43
-185.741 -361.792 -1505 48 48 46
-182.046 -360.529 -1500 48 48 46
-178.611 -359.749 -1497 48 48 46
-175.307 -359.21 -1495 48 48 46
-172.013 -358.672 -1493 50 50 48
-168.615 -357.895 -1490 50 50 48
-165.453 -357.6 -1489 55 55 53
-162.297 -357.305 -1488 52 52 50
-159.467 -357.732 -1490 51 51 49
-156.841 -358.641 -1494 49 49 47
-154.405 -360.03 -1500 49 49 46
-152.451 -362.619 -1511 52 52 49
-150.452 -365.209 -1522 51 51 47
-148.217 -367.319 -1531 50 50 46
-145.851 -369.19 -1539 50 50 47
-143.176 -370.342 -1544 49 49 46
-140.572 -371.734 -1550 44 43 41
-137.679 -372.408 -1553 42 42 40
-134.688 -372.843 -1555 42 42 40
-131.775 -373.518 -1558 40 40 38
-128.769 -373.955 -1560 40 40 38
-125.916 -374.872 -1564 38 38 36
-122.734 -374.831 -1564 37 37 35
-119.629 -375.031 -1565 38 38 36
-116.522 -375.232 -1566 38 39 38
-113.338 -375.194 -1566 39 40 38
-110.156 -375.157 -1566 39 39 37
-107.044 -375.361 -1567 39 39 38
-103.994 -375.806 -1569 40 40 39
-100.744 -375.533 -1568 41 41 39
-97.748 -376.219 -1571 40 40 39
-94.5601 -376.187 -1571 44 44 42
-91.4893 -376.635 -1573 45 45 44
-88.2427 -376.367 -1572 44 44 43
-85.055 -376.338 -1572 40 40 39
-81.8681 -376.311 -1572 42 42 42
-78.782 -376.763 -1574 45 45 45
-75.6403 -376.978 -1575 44 44 44
-72.6332 -377.91 -1579 44 44 44
-69.5666 -378.605 -1582 43 43 43
-66.5302 -379.54 -1586 44 44 44
-63.5582 -380.955 -1592 42 42 42
-60.6381 -382.849 -1600 45 45 45
-58.87 -392.639 -1641 48 48 47
-58.0536 -410.326 -1715 50 50 49
-55.3785 -416.289 -1740 53 53 51
-279.188 -393.083 -1613 57 57 57
-270.869 -385.924 -1584 52 52 53
-265.544 -382.91 -1572 49 49 51
-261.273 -381.361 -1566 47 49 51
-257.193 -380.056 -1561 47 48 50
-253.951 -379.97 -1561 46 46 48
-250.549 -379.642 -1560 43 46 46
-247.154 -379.315 -1559 42 46 45
-243.765 -378.989 -1558 43 47 46
-240.383 -378.665 -1557 44 47 46
-236.702 -377.855 -1554 43 45 45
-233.336 -377.534 -1553 38 40 40
-229.976 -377.213 -1552 39 41 41
-226.768 -377.137 -1552 38 40 40
-223.275 -376.575 -1550 38 40 40
-219.791 -376.015 -1548 40 42 42
-216.597 -375.942 -1548 41 43 43
-212.992 -375.142 -1545 42 45 43
-209.265 -374.1 -1541 43 46 43
-205.288 -372.575 -1535 45 47 47
-201.47 -371.293 -1530 47 49 48
-197.286 -369.285 -1522 49 49 47
-193.135 -367.279 -1514 47 47 44
-189.522 -366.245 -1510 46 46 43
-185.679 -364.727 -1504 47 47 45
-181.985 -363.454 -1499 48 48 46
-178.551 -362.666 -1496 48 48 46
-175.248 -362.123 -1494 49 49 47
-172.07 -361.822 -1493 51 51 49
-168.784 -361.281 -1491 52 52 50
-165.619 -360.983 -1490 51 51 49
-162.569 -360.929 -1490 48 48 46
-159.841 -361.602 -1493 48 48 46
-157.208 -362.517 -1497 50 50 48
-154.868 -364.161 -1504 50 50 48
-152.602 -366.046 -1512 53 53 51
-150.502 -368.417 -1522 52 52 49
-148.363 -370.788 -1532 49 49 45
-145.9 -372.433 -1539 49 49 47
-143.223 -373.595 -1544 49 49 47
-140.528 -374.757 -1549 46 44 42
-137.636 -375.437 -1552 43 42 40
-134.82 -376.359 -1556 42 42 40
-131.988 -377.283 -1560 41 41 39
-128.894 -377.481 -1561 40 40 38
-125.877 -377.923 -1563 38 38 36
-122.853 -378.365 -1565 37 37 35
-119.516 -377.841 -1563 38 38 36
-116.411 -378.044 -1564 37 39 39
-113.303 -378.248 -1565 40 41 39
-110.193 -378.452 -1566 40 40 38
-106.942 -378.175 -1565 39 39 39
-104.028 -379.106 -1569 40 40 40
-100.841 -379.072 -1569 41 41 39
-97.718 -379.281 -1570 40 40 40
-94.5912 -379.491 -1571 41 41 41
-91.5194 -379.943 -1573 44 44 44
-88.2717 -379.672 -1572 44 44 44
-85.1372 -379.885 -1573 42 42 42
-81.8951 -379.616 -1572 42 42 42
-78.7578 -379.831 -1573 44 44 44
-75.6651 -380.288 -1575 43 43 43
-72.6571 -381.229 -1579 44 44 44
-69.5454 -381.689 -1581 43 43 43
-66.5521 -382.873 -1586 43 43 43
-63.6989 -385.024 -1595 43 43 43
-60.7718 -386.935 -1603 45 45 45
-58.4588 -393.191 -1629 47 47 47
-57.8694 -412.481 -1709 49 49 49
-55.1102 -417.772 -1731 53 54 54
-291.233 -408.655 -1662 90 92 97
-279.802 -397.248 -1616 57 57 57
-271.645 -390.273 -1588 53 53 54
-266.141 -386.987 -1575 51 51 53
-261.528 -384.932 -1567 50 51 53
-257.445 -383.616 -1562 49 49 51
-254.036 -383.283 -1561 47 47 49
-250.955 -383.443 -1562 44 46 46
-247.396 -382.868 -1560 44 47 46
-243.848 -382.294 -1558 44 47 46
-240.618 -382.212 -1558 43 46 45
-236.934 -381.395 -1555 41 43 43
-233.565 -381.07 -1554 39 41 41
-230.202 -380.747 -1553 39 41 41
-226.845 -380.425 -1552 39 41 41
-223.349 -379.858 -1550 39 41 41
-219.723 -379.048 -1547 41 43 43
-216.53 -378.975 -1547 42 44 44
-213.201 -378.657 -1546 43 46 44
-209.471 -377.607 -1542 45 48 45
-205.892 -376.802 -1539 46 48 48
-202.065 -375.509 -1534 48 50 49
-197.741 -373.239 -1525 50 50 48
-193.455 -370.97 -1516 49 49 45
-189.711 -369.682 -1511 48 48 44
-185.742 -367.907 -1504 47 47 45
-182.046 -366.622 -1499 48 48 46
-178.61 -365.828 -1496 48 48 46
-175.306 -365.279 -1494 50 50 48
-172.012 -364.732 -1492 51 51 49
-168.841 -364.43 -1491 53 53 51
-165.675 -364.13 -1490 48 48 46
-162.733 -364.319 -1491 46 46 44
-159.788 -364.509 -1492 48 48 46
-157.26 -365.677 -1497 50 50 48
-154.92 -367.335 -1504 50 50 48
-152.754 -369.481 -1513 51 51 49
-150.75 -372.116 -1524 52 52 49
-148.509 -374.264 -1533 50 50 46
-146.043 -375.923 -1540 48 48 46
-143.457 -377.339 -1546 49 48 46
-140.666 -378.268 -1550 47 45 43
-137.948 -379.441 -1555 44 43 41
-135.038 -380.127 -1558 42 42 40
-132.117 -380.815 -1561 42 42 40
-129.102 -381.259 -1563 41 41 39
-126.08 -381.704 -1565 37 37 35
-122.893 -381.662 -1565 38 38 36
-119.632 -381.378 -1564 39 39 37
-116.45 -381.339 -1564 38 39 39
-113.341 -381.544 -1565 39 40 38
-110.3 -381.994 -1567 39 39 37
-107.046 -381.714 -1566 39 39 39
-104.129 -382.654 -1570 40 40 39
-101.004 -382.863 -1571 41 41 39
-97.8127 -382.83 -1571 41 41 41
-94.6227 -382.798 -1571 42 42 42
-91.5498 -383.254 -1573 42 42 42
-88.3011 -382.981 -1572 42 42 42
-85.1655 -383.195 -1573 42 42 42
-81.9744 -383.167 -1573 43 43 43
-78.834 -383.384 -1574 43 43 43
-75.6903 -383.602 -1575 43 43 43
-72.6351 -384.308 -1578 42 42 42
-69.5245 -384.771 -1580 44 44 44
-66.6162 -386.453 -1587 43 43 43
-63.6002 -387.649 -1592 43 43 43
-60.8678 -390.794 -1605 44 44 44
-58.6935 -398.078 -1635 46 46 46
-57.9903 -416.806 -1712 48 49 49
-55.0966 -421.169 -1730 52 53 53
-291.507 -412.439 -1663 82 84 88
-280.59 -401.678 -1620 54 54 54
-272.593 -394.889 -1593 52 52 53
-266.401 -390.583 -1576 48 48 50
-261.45 -388.015 -1566 48 48 50
-257.863 -387.431 -1564 48 48 50
-254.123 -386.6 -1561 48 48 50
-251.201 -387.009 -1563 45 47 48
-247.48 -386.181 -1560 44 46 46
-243.931 -385.602 -1558 43 45 45
-240.7 -385.519 -1558 43 45 45
-237.015 -384.695 -1555 42 44 44
-233.644 -384.368 -1554 42 44 44
-230.28 -384.041 -1553 39 41 41
-226.922 -383.716 -1552 39 41 41
-223.57 -383.392 -1551 40 42 42
-220.081 -382.822 -1549 41 43 43
-216.603 -382.254 -1547 42 44 44
-213.273 -381.933 -1546 44 46 45
-209.542 -380.873 -1542 45 48 45
-205.694 -379.568 -1537 45 47 47
-201.738 -378.017 -1531 46 48 47
-197.678 -376.221 -1524 49 49 47
-193.521 -374.18 -1516 49 49 46
-189.775 -372.881 -1511 48 48 45
-185.681 -370.843 -1503 46 46 44
-182.229 -370.04 -1500 47 47 45
-178.79 -369.239 -1497 48 48 46
-175.483 -368.685 -1495 50 50 48
-172.185 -368.133 -1493 53 53 51
-168.898 -367.582 -1491 54 54 52
-165.731 -367.279 -1490 48 48 46
-162.678 -367.224 -1490 48 48 46
-159.949 -367.908 -1493 48 48 46
-157.313 -368.84 -1497 48 48 46
-155.075 -370.758 -1505 50 50 48
-153.007 -373.169 -1515 51 51 49
-150.999 -375.827 -1526 50 50 47
-148.753 -377.993 -1535 50 50 46
-146.187 -379.421 -1541 48 48 46
-143.505 -380.603 -1546 47 47 45
-140.894 -382.032 -1552 48 46 44
-138.083 -382.969 -1556 45 44 42
-135.257 -383.907 -1560 43 43 41
-132.246 -384.354 -1562 43 43 41
-129.31 -385.048 -1565 41 41 39
-126.122 -385.005 -1565 37 37 35
-123.013 -385.209 -1566 39 39 37
-119.672 -384.676 -1564 39 39 37
-116.563 -384.882 -1565 39 39 39
-113.379 -384.844 -1565 41 41 39
-110.266 -385.052 -1566 39 39 37
-107.15 -385.261 -1567 39 39 39
-104.23 -386.209 -1571 40 40 39
-101.102 -386.42 -1572 41 41 39
-97.9077 -386.387 -1572 42 42 42
-94.7146 -386.354 -1572 41 41 41
-91.5805 -386.568 -1573 42 42 42
-88.4431 -386.784 -1574 43 43 43
-85.194 -386.509 -1573 42 42 42
-82.0018 -386.481 -1573 41 41 41
-78.9105 -386.945 -1575 42 42 42
-75.6676 -386.673 -1574 43 43 43
-72.6134 -387.385 -1577 43 43 43
-69.5918 -388.344 -1581 44 44 44
-66.6805 -390.041 -1588 43 43 43
-63.7014 -391.493 -1594 44 44 44
-60.9641 -394.664 -1607 45 45 45
-59.0364 -403.731 -1644 46 46 46
-57.8741 -419.428 -1708 48 48 48
-55.2424 -425.793 -1734 51 51 51
-291.082 -415.231 -1660 80 81 85
-280.34 -404.628 -1618 56 56 56
-272.687 -398.281 -1593 51 51 52
-266.83 -394.438 -1578 46 46 48
-261.874 -391.847 -1568 47 47 49
-258.281 -391.258 -1566 47 47 49
-254.536 -390.419 -1563 48 48 50
-250.966 -389.833 -1561 46 48 50
-247.565 -389.497 -1560 45 47 49
-244.171 -389.163 -1559 43 45 45
-240.783 -388.83 -1558 43 45 45
-237.401 -388.498 -1557 43 45 45
-233.874 -387.918 -1555 42 44 44
-230.655 -387.838 -1555 39 41 41
-227.292 -387.51 -1554 38 40 40
-223.79 -386.933 -1552 39 41 41
-220.299 -386.358 -1550 40 42 42
-216.958 -386.034 -1549 42 44 44
-213.208 -384.963 -1545 43 46 44
-209.749 -384.393 -1543 44 47 44
-206.032 -383.325 -1539 44 46 46
-202.07 -381.76 -1533 45 46 46
-198.005 -379.949 -1526 48 48 46
-193.587 -377.392 -1516 48 48 46
-189.463 -375.335 -1508 48 48 46
-185.621 -373.778 -1502 48 48 46
-182.048 -372.719 -1498 47 47 45
-178.612 -371.911 -1495 47 47 45
-175.308 -371.353 -1493 49 49 47
-172.013 -370.796 -1491 50 50 48
-168.728 -370.241 -1489 51 51 49
-165.676 -370.184 -1489 50 50 48
-162.624 -370.127 -1489 51 51 49
-159.789 -370.569 -1491 50 50 48
-157.262 -371.758 -1496 47 47 45
-155.128 -373.941 -1505 49 49 47
-153.16 -376.621 -1516 52 52 50
-151.149 -379.302 -1527 50 50 47
-148.707 -380.989 -1534 49 49 45
-146.142 -382.429 -1540 49 49 47
-143.461 -383.621 -1545 47 47 45
-140.851 -385.063 -1551 47 45 43
-137.952 -385.76 -1554 46 45 43
-135.216 -386.954 -1559 43 43 41
-132.291 -387.653 -1562 44 44 42
-129.354 -388.353 -1565 42 42 40
-126.245 -388.558 -1566 39 39 37
-123.212 -389.012 -1568 38 38 36
-119.866 -388.474 -1566 38 38 36
-116.752 -388.682 -1567 39 39 39
-113.635 -388.891 -1568 39 39 38
-110.515 -389.101 -1569 39 39 37
-107.392 -389.312 -1570 40 40 40
-104.332 -389.772 -1572 40 40 39
-101.265 -390.232 -1574 40 40 38
-98.0032 -389.951 -1573 41 41 41
-94.8069 -389.918 -1573 43 43 43
-91.6697 -390.134 -1574 42 42 42
-88.5291 -390.351 -1575 43 43 43
-85.3312 -390.322 -1575 42 42 42
-82.1338 -390.293 -1575 42 42 42
-78.9372 -390.266 -1575 44 44 44
-75.7893 -390.488 -1576 44 44 44
-72.5919 -390.462 -1576 44 44 44
-69.5713 -391.429 -1580 44 44 44
-66.577 -392.645 -1585 44 44 44
-63.6829 -394.604 -1593 44 44 44
-61.0226 -398.299 -1608 45 45 45
-58.6612 -404.471 -1633 46 46 46
-57.7242 -421.789 -1703 48 48 48
-55.5479 -431.676 -1743 50 50 50
-290.306 -417.509 -1655 83 83 87
-280.438 -408.077 -1618 56 56 56
-272.953 -401.928 -1594 49 49 50
-266.923 -397.8 -1578 46 46 50
-261.965 -395.187 -1568 47 47 49
-258.371 -394.592 -1566 48 48 50
-254.461 -393.495 -1562 47 47 49
-251.053 -393.155 -1561 45 47 49
-247.81 -393.069 -1561 44 46 48
-244.569 -392.983 -1561 41 43 43
-241.175 -392.647 -1560 40 42 42
-237.788 -392.312 -1559 41 43 43
-234.407 -391.978 -1558 42 43 43
-230.883 -391.394 -1556 39 41 41
-227.517 -391.063 -1555 38 40 40
-224.156 -390.734 -1554 39 41 41
-220.517 -389.902 -1551 40 42 42
-217.172 -389.575 -1550 41 43 43
-213.558 -388.746 -1547 42 44 44
-209.822 -387.668 -1543 44 46 45
-206.103 -386.591 -1539 45 47 47
-202.272 -385.265 -1534 46 47 46
-198.073 -383.186 -1526 48 48 46
-193.653 -380.608 -1516 49 49 47
-189.654 -378.784 -1509 49 49 47
-185.684 -376.962 -1502 48 48 46
-182.11 -375.895 -1498 47 47 45
-178.554 -374.829 -1494 47 47 45
-175.133 -374.015 -1491 48 48 46
-171.842 -373.454 -1489 49 49 47
-168.673 -373.144 -1488 49 49 47
-165.621 -373.087 -1488 52 52 50
-162.571 -373.03 -1488 51 51 49
-159.951 -373.977 -1492 50 50 48
-157.316 -374.925 -1496 48 48 46
-155.181 -377.127 -1505 49 49 47
-153.112 -379.579 -1515 54 54 52
-151.003 -382.032 -1525 52 52 50
-148.757 -384.235 -1534 50 50 46
-146.192 -385.687 -1540 49 49 46
-143.417 -386.639 -1544 48 48 46
-140.627 -387.592 -1548 46 45 43
-138 -389.046 -1554 45 45 43
-135.262 -390.251 -1559 44 44 42
-132.251 -390.705 -1561 46 45 43
-129.316 -391.411 -1564 43 42 40
-126.127 -391.368 -1564 39 39 37
-123.097 -391.825 -1566 39 39 37
-119.907 -391.783 -1566 38 38 36
-116.792 -391.993 -1567 39 39 38
-113.674 -392.204 -1568 39 39 37
-110.623 -392.665 -1570 39 39 37
-107.565 -393.128 -1572 41 41 40
-104.434 -393.342 -1573 39 39 38
-101.235 -393.306 -1573 40 40 38
-98.0366 -393.272 -1573 41 41 41
-94.8393 -393.239 -1573 44 44 44
-91.7009 -393.457 -1574 44 44 44
-88.6156 -393.926 -1576 43 43 43
-85.4144 -393.897 -1576 42 42 42
-82.2661 -394.118 -1577 43 43 43
-78.9641 -393.59 -1575 44 44 44
-75.8151 -393.814 -1576 45 45 45
-72.7088 -394.288 -1578 46 46 46
-69.639 -395.013 -1581 45 45 45
-66.6837 -396.489 -1587 45 45 45
-63.8646 -398.965 -1597 45 45 45
-61.0054 -401.442 -1607 47 47 47
-59.2201 -411.663 -1648 47 47 47
-58.1168 -428.129 -1714 47 47 47
-55.5031 -434.854 -1741 49 49 49
-289.179 -419.261 -1648 81 81 85
-279.669 -410.258 -1613 55 55 55
-272.706 -404.82 -1592 46 46 48
-266.847 -400.911 -1577 44 44 48
-262.558 -399.293 -1571 45 45 48
-258.626 -398.185 -1567 45 45 47
-254.55 -396.824 -1562 46 46 48
-251.301 -396.736 -1562 44 45 47
-247.896 -396.394 -1561 42 44 46
-244.654 -396.308 -1561 40 42 42
-241.259 -395.969 -1560 39 41 41
-238.023 -395.884 -1560 40 42 42
-234.338 -395.041 -1557 42 42 42
-230.964 -394.705 -1556 41 41 41
-227.596 -394.372 -1555 40 41 41
-224.378 -394.292 -1555 40 41 41
-220.594 -393.2 -1551 40 42 42
-217.248 -392.87 -1550 42 44 44
-213.494 -391.781 -1546 44 46 46
-210.031 -391.201 -1544 45 47 47
-206.041 -389.608 -1538 46 48 48
-202.342 -388.523 -1534 46 47 47
-198.142 -386.427 -1526 45 45 43
-193.849 -384.08 -1517 44 44 42
-189.845 -382.241 -1510 46 46 44
-185.749 -380.151 -1502 48 48 46
-182.052 -378.821 -1497 48 48 46
-178.616 -377.999 -1494 47 47 45
-175.194 -377.179 -1491 49 49 47
-171.67 -376.106 -1487 48 48 46
-168.505 -375.794 -1486 49 49 47
-165.345 -375.483 -1485 49 49 47
-162.299 -375.426 -1485 50 50 48
-159.684 -376.382 -1489 49 49 47
-157.054 -377.338 -1493 48 48 46
-155.028 -379.811 -1503 48 48 46
-152.962 -382.284 -1513 54 54 52
-150.956 -385.01 -1524 51 51 49
-148.712 -387.232 -1533 49 49 45
-146.337 -389.201 -1541 47 47 45
-143.559 -390.161 -1545 46 46 44
-140.857 -391.374 -1550 45 45 43
-138.225 -392.841 -1556 45 45 43
-135.309 -393.551 -1559 44 44 42
-132.297 -394.009 -1561 43 41 38
-129.36 -394.721 -1564 43 41 39
-126.332 -395.181 -1566 41 41 39
-123.14 -395.138 -1566 39 39 37
-120.101 -395.601 -1568 38 38 36
-116.907 -395.56 -1568 40 40 38
-113.858 -396.024 -1570 40 40 38
-110.802 -396.49 -1572 40 40 38
-107.739 -396.956 -1574 40 40 38
-104.47 -396.667 -1573 40 40 38
-101.334 -396.884 -1574 39 39 37
-98.0704 -396.597 -1573 40 40 39
-94.8719 -396.564 -1573 42 42 41
-91.6159 -396.28 -1572 44 44 44
-88.5899 -397.005 -1575 43 43 43
-85.3896 -396.975 -1575 43 43 43
-82.2422 -397.198 -1576 42 42 42
-79.0915 -397.422 -1577 44 44 44
-75.9855 -397.899 -1579 44 44 44
-72.7799 -397.873 -1579 42 42 42
-69.7952 -399.109 -1584 42 42 42
-66.7486 -400.093 -1588 43 43 43
-63.8466 -402.086 -1596 45 45 45
-61.0643 -405.087 -1608 48 48 48
-58.9529 -413.128 -1640 47 47 47
-57.6619 -428.222 -1700 46 46 45
-286.649 -418.934 -1633 70 70 74
-278.38 -411.652 -1605 53 53 53
-272.288 -407.45 -1589 48 48 50
-267.111 -404.535 -1578 44 44 48
-262.651 -402.646 -1571 44 44 46
-258.552 -401.273 -1566 43 43 45
-254.64 -400.157 -1562 45 45 47
-251.39 -400.067 -1562 46 46 48
-247.984 -399.723 -1561 44 44 46
-244.74 -399.636 -1561 41 41 43
-241.344 -399.294 -1560 40 41 42
-238.107 -399.209 -1560 41 43 43
-234.421 -398.358 -1557 42 42 42
-230.897 -397.764 -1555 43 43 43
-227.822 -397.939 -1556 43 43 43
-224.457 -397.603 -1555 42 43 43
-221.098 -397.269 -1554 39 41 41
-217.605 -396.68 -1552 41 43 43
-213.707 -395.326 -1547 45 47 47
-210.104 -394.485 -1544 44 46 46
-206.113 -392.879 -1538 45 47 47
-202.149 -391.275 -1532 46 48 48
-198.081 -389.416 -1525 47 47 45
-193.661 -386.794 -1515 46 46 44
-189.535 -384.684 -1507 46 46 44
-185.814 -383.342 -1502 48 48 46
-182.116 -382.001 -1497 47 47 45
-178.439 -380.662 -1492 47 47 45
-175.138 -380.09 -1490 48 48 46
-171.615 -379.009 -1486 50 50 48
-168.45 -378.694 -1485 50 50 48
-165.402 -378.635 -1485 48 48 46
-162.247 -378.323 -1484 47 47 46
-159.633 -379.286 -1488 47 47 45
-157.109 -380.505 -1493 47 47 45
-154.773 -382.234 -1500 48 48 46
-152.712 -384.729 -1510 53 53 51
-150.711 -387.478 -1521 51 51 48
-148.667 -390.227 -1532 48 48 44
-146.293 -392.213 -1540 47 47 45
-143.795 -393.945 -1547 46 46 44
-140.997 -394.914 -1551 46 46 44
-138.273 -396.138 -1556 46 46 44
-135.356 -396.854 -1559 44 44 42
-132.428 -397.571 -1562 42 40 36
-129.405 -398.034 -1564 42 40 37
-126.295 -398.244 -1565 41 41 39
-123.104 -398.2 -1565 40 40 38
-120.143 -398.921 -1568 39 39 37
-117.022 -399.134 -1569 39 39 37
-113.97 -399.602 -1571 38 38 36
-110.841 -399.817 -1572 40 40 38
-107.777 -400.288 -1574 41 41 39
-104.44 -399.742 -1572 39 39 37
-101.305 -399.961 -1573 39 39 37
-98.1668 -400.18 -1574 42 42 40
-94.9652 -400.146 -1574 43 43 41
-91.7061 -399.86 -1573 43 43 43
-88.6769 -400.591 -1576 43 43 43
-85.4735 -400.56 -1576 43 43 43
-82.323 -400.785 -1577 44 44 44
-79.0688 -400.503 -1576 45 45 45
-76.0119 -401.238 -1579 42 42 42
-72.8051 -401.213 -1579 40 40 40
-69.8634 -402.712 -1585 41 41 41
-66.8139 -403.705 -1589 44 44 44
-63.9887 -406.222 -1599 45 45 45
-61.3134 -410.011 -1614 48 48 48
-59.6567 -421.421 -1659 47 47 47
-57.8516 -433.086 -1705 45 45 44
-55.5095 -441.956 -1740 50 50 48
-284.644 -419.323 -1621 61 61 64
-277.612 -413.791 -1600 57 57 57
-271.528 -409.555 -1584 49 49 50
-266.698 -407.132 -1575 47 47 51
-262.577 -405.745 -1570 45 45 46
-258.975 -405.135 -1568 46 46 47
-254.894 -403.751 -1563 45 45 47
-251.318 -403.144 -1561 45 45 47
-248.231 -403.313 -1562 43 43 45
-244.827 -402.967 -1561 42 42 44
-241.43 -402.622 -1560 42 42 43
-238.039 -402.279 -1559 41 42 42
-234.654 -401.936 -1558 42 42 42
-231.127 -401.337 -1556 42 42 42
-227.903 -401.256 -1556 42 42 42
-224.681 -401.175 -1556 42 44 44
-221.319 -400.838 -1555 41 43 43
-217.542 -399.729 -1551 41 43 43
-213.921 -398.879 -1548 44 46 46
-209.906 -397.258 -1542 44 46 46
-205.918 -395.638 -1536 45 47 47
-201.693 -393.505 -1528 47 48 48
-197.892 -392.147 -1523 49 49 47
-193.601 -389.76 -1514 49 49 47
-189.601 -387.891 -1507 47 47 45
-185.756 -386.28 -1501 48 48 46
-182.058 -384.928 -1496 48 48 46
-178.502 -383.835 -1492 48 48 46
-175.082 -383 -1489 49 49 47
-171.675 -382.167 -1486 51 51 49
-168.51 -381.85 -1485 49 49 47
-165.349 -381.534 -1484 47 47 46
-162.523 -381.99 -1486 46 46 46
-159.689 -382.447 -1488 45 45 43
-157.27 -383.933 -1494 46 46 44
-154.827 -385.42 -1500 48 48 46
-152.766 -387.934 -1510 52 52 50
-150.665 -390.45 -1520 52 51 49
-148.428 -392.709 -1529 49 47 43
-146.25 -395.225 -1539 48 48 45
-143.66 -396.714 -1545 46 46 44
-140.865 -397.691 -1549 46 46 44
-138.322 -399.439 -1556 47 47 45
-135.403 -400.161 -1559 46 46 44
-132.389 -400.627 -1561 43 41 37
-129.368 -401.094 -1563 43 41 38
-126.34 -401.562 -1565 40 40 38
-123.226 -401.775 -1566 39 39 37
-120.415 -403.014 -1571 39 39 37
-117.287 -403.229 -1572 39 39 37
-114.155 -403.445 -1573 39 39 36
-110.95 -403.405 -1573 39 39 35
-107.883 -403.88 -1575 41 41 39
-104.543 -403.329 -1573 39 39 37
-101.276 -403.037 -1572 39 39 37
-98.0764 -403.002 -1572 44 44 42
-94.8778 -402.968 -1572 44 44 42
-91.6799 -402.935 -1572 40 40 40
-88.5953 -403.416 -1574 41 41 41
-85.4491 -403.641 -1575 42 42 42
-82.3518 -404.124 -1577 42 42 42
-79.1467 -404.096 -1577 45 45 45
-76.0867 -404.838 -1580 45 45 45
-72.9228 -405.067 -1581 43 43 43
-69.8438 -405.811 -1584 42 42 42
-66.7952 -406.812 -1588 43 43 43
-63.931 -409.094 -1597 44 44 44
-61.1829 -412.402 -1610 48 48 48
-59.5336 -423.908 -1655 48 48 48
-57.8718 -436.694 -1705 47 47 46
-55.497 -445.382 -1739 50 50 48
-292.226 -428.898 -1644 80 78 81
-282.638 -419.664 -1609 60 60 62
-276.15 -414.869 -1591 50 50 50
-271.282 -412.423 -1582 49 49 50
-266.455 -409.981 -1573 45 45 49
-262.337 -408.582 -1568 46 46 47
-258.737 -407.967 -1566 49 49 49
-254.985 -407.093 -1563 46 46 48
-251.409 -406.481 -1561 44 44 46
-248.32 -406.651 -1562 43 43 45
-244.758 -406.042 -1560 43 42 44
-241.516 -405.954 -1560 42 42 43
-237.971 -405.348 -1558 41 41 41
-234.587 -405.003 -1557 41 41 41
-230.913 -404.139 -1554 41 41 41
-227.692 -404.056 -1554 41 41 41
-224.473 -403.975 -1554 42 43 43
-221.255 -403.895 -1554 41 43 43
-217.479 -402.777 -1550 41 43 43
-213.859 -401.92 -1547 43 45 45
-209.981 -400.545 -1542 44 46 46
-205.992 -398.912 -1536 44 46 46
-201.897 -397.021 -1529 46 48 48
-198.092 -395.651 -1524 49 49 47
-193.926 -393.505 -1516 50 50 48
-190.047 -391.879 -1510 51 51 49
-186.193 -390.254 -1504 51 51 49
-182.366 -388.632 -1498 50 50 48
-178.685 -387.27 -1493 49 49 47
-175.262 -386.429 -1490 49 49 47
-171.736 -385.329 -1486 50 50 48
-168.683 -385.269 -1486 48 48 46
-165.519 -384.95 -1485 46 46 46
-162.69 -385.409 -1487 47 47 47
-159.746 -385.611 -1488 46 46 44
-157.22 -386.85 -1493 44 44 42
-154.676 -388.09 -1498 48 48 46
-152.82 -391.144 -1510 52 52 50
-150.52 -393.162 -1518 53 53 50
-148.772 -396.734 -1532 52 50 46
-146.397 -398.753 -1540 49 48 46
-143.897 -400.514 -1547 47 47 45
-141.188 -401.758 -1552 47 47 45
-138.46 -403.002 -1557 45 45 43
-135.538 -403.73 -1560 45 45 43
-132.436 -403.941 -1561 45 43 39
-129.579 -404.929 -1565 43 41 38
-126.384 -404.884 -1565 38 38 36
-123.348 -405.357 -1567 38 38 36
-120.381 -406.089 -1570 39 39 37
-117.403 -406.823 -1573 38 38 36
-114.196 -406.782 -1573 39 39 36
-110.989 -406.742 -1573 38 38 34
-107.853 -406.962 -1574 39 39 37
-104.447 -406.148 -1571 41 41 39
-101.247 -406.112 -1571 40 40 38
-98.1111 -406.335 -1572 43 43 41
-94.9717 -406.559 -1573 43 43 41
-91.7123 -406.267 -1572 41 41 41
-88.5703 -406.494 -1573 41 41 41
-85.4794 -406.98 -1575 42 42 42
-82.3287 -407.209 -1576 42 42 42
-79.1746 -407.438 -1577 46 46 46
-76.0653 -407.928 -1579 47 47 47
-72.9486 -408.418 -1581 45 45 45
-69.9126 -409.426 -1585 43 43 43
-66.8608 -410.435 -1589 43 43 43
-64.0737 -413.253 -1600 44 44 44
-61.5086 -417.88 -1618 47 47 47
-59.9144 -429.996 -1665 49 49 49
-57.6545 -438.498 -1698 46 45 46
-55.3888 -448.032 -1735 50 47 48
-52.4053 -452.661 -1753 55 52 53
-289.132 -427.688 -1626 80 78 80
-280.984 -420.484 -1599 59 56 59
-275.555 -417.227 -1587 50 50 50
-270.523 -414.499 -1577 50 50 51
-266.552 -413.35 -1573 45 45 49
-262.599 -412.202 -1569 49 49 50
-258.666 -411.057 -1565 45 45 45
-255.077 -410.438 -1563 46 46 48
-251.5 -409.821 -1561 43 43 45
-248.092 -409.468 -1560 42 42 44
-244.219 -408.329 -1556 45 42 45
-241.294 -408.765 -1558 44 42 44
-237.599 -407.892 -1555 42 42 42
-234.22 -407.544 -1554 41 41 41
-230.847 -407.197 -1553 42 42 42
-227.774 -407.376 -1554 41 41 41
-224.264 -406.77 -1552 41 42 42
-221.05 -406.69 -1552 41 43 43
-217.557 -406.086 -1550 41 43 43
-213.798 -404.96 -1546 42 44 44
-209.512 -402.788 -1538 43 45 45
-205.797 -401.666 -1534 45 47 47
-201.837 -400.021 -1528 47 49 49
-198.163 -398.902 -1524 49 49 46
-193.74 -396.214 -1514 49 49 47
-189.863 -394.575 -1508 50 50 48
-186.136 -393.199 -1503 50 50 48
-182.31 -391.563 -1497 49 49 47
-178.63 -390.19 -1492 49 49 47
-175.442 -389.864 -1491 49 49 47
-172.029 -389.017 -1488 51 51 49
-168.857 -388.695 -1487 50 50 48
-165.69 -388.373 -1486 49 49 48
-162.748 -388.575 -1487 49 49 49
-159.803 -388.778 -1488 48 48 46
-157.277 -390.028 -1493 44 44 42
-154.731 -391.278 -1498 47 47 44
-152.774 -394.095 -1509 51 51 49
-150.674 -396.652 -1519 53 53 51
-148.631 -399.471 -1530 54 52 48
-146.449 -402.028 -1540 49 49 46
-143.855 -403.542 -1546 47 47 45
-141.238 -405.057 -1552 47 47 45
-138.598 -406.573 -1558 45 45 43
-135.674 -407.307 -1561 44 44 42
-132.568 -407.519 -1562 47 43 40
-129.543 -407.994 -1564 44 41 38
-126.51 -408.47 -1566 39 39 37
-123.392 -408.686 -1567 38 38 36
-120.424 -409.424 -1570 38 38 36
-117.445 -410.164 -1573 37 37 35
-114.236 -410.123 -1573 38 38 35
-111.029 -410.082 -1573 38 38 34
-107.891 -410.304 -1574 39 39 37
-104.617 -410.005 -1573 42 42 40
-101.348 -409.708 -1572 41 41 39
-98.2085 -409.933 -1573 42 42 40
-95.1263 -410.419 -1575 40 40 38
-91.8616 -410.125 -1574 40 40 40
-88.7145 -410.353 -1575 41 41 41
-85.5641 -410.583 -1576 43 43 43
-82.4102 -410.813 -1577 42 42 42
-79.2028 -410.784 -1577 43 43 43
-76.1406 -411.538 -1580 44 44 44
-72.9745 -411.772 -1581 43 43 43
-69.8933 -412.527 -1584 42 42 42
-66.8425 -413.545 -1588 43 43 43
-64.0163 -416.125 -1598 44 44 44
-61.3403 -420.009 -1613 49 49 49
-59.9717 -433.788 -1666 50 50 50
-57.8448 -443.4 -1703 47 46 46
-55.0572 -448.848 -1724 51 48 49
-52.1848 -454.296 -1745 61 58 60
-287.636 -428.792 -1617 81 78 81
-280.559 -423.12 -1596 63 60 63
-275.135 -419.837 -1584 52 52 52
-270.279 -417.351 -1575 49 49 49
-266.31 -416.193 -1571 46 46 50
-262.695 -415.566 -1569 48 47 48
-258.76 -414.411 -1565 43 42 42
-255.17 -413.787 -1563 45 45 47
-251.591 -413.165 -1561 42 42 44
-248.341 -413.074 -1561 42 42 44
-244.779 -412.454 -1559 45 42 45
-241.537 -412.365 -1559 44 42 44
-237.686 -411.219 -1555 42 42 42
-234.456 -411.133 -1555 41 41 41
-230.931 -410.519 -1553 42 42 42
-227.71 -410.435 -1553 40 40 40
-224.346 -410.089 -1552 41 41 41
-221.131 -410.007 -1552 42 42 42
-217.356 -408.871 -1548 41 43 43
-213.599 -407.736 -1544 43 45 45
-209.724 -406.338 -1539 44 46 46
-205.738 -404.678 -1533 45 47 47
-201.646 -402.756 -1526 46 48 47
-197.715 -401.1 -1520 48 48 45
-193.554 -398.918 -1512 48 48 45
-189.932 -397.793 -1508 48 48 46
-186.204 -396.406 -1503 47 47 45
-182.498 -395.02 -1498 48 48 46
-178.814 -393.636 -1493 47 47 45
-175.388 -392.781 -1490 49 49 47
-172.207 -392.454 -1489 53 53 51
-169.032 -392.128 -1488 54 54 52
-165.862 -391.804 -1487 52 52 51
-163.026 -392.271 -1489 49 49 49
-159.861 -391.949 -1488 50 50 48
-157.123 -392.682 -1491 45 45 43
-154.477 -393.679 -1495 46 46 42
-152.525 -396.52 -1506 51 51 48
-150.728 -399.887 -1519 52 52 50
-148.49 -402.202 -1528 52 50 46
-146.597 -405.57 -1541 49 48 45
-143.907 -406.834 -1546 48 48 46
-141.289 -408.361 -1552 47 47 45
-138.47 -409.362 -1556 47 47 45
-135.636 -410.365 -1560 46 46 44
-132.616 -410.843 -1562 46 42 39
-129.59 -411.321 -1564 44 41 38
-126.475 -411.538 -1565 40 40 38
-123.515 -412.282 -1568 38 38 36
-120.467 -412.763 -1570 37 37 35
-117.487 -413.509 -1573 38 37 35
-114.35 -413.73 -1574 38 38 35
-111.14 -413.689 -1574 38 38 34
-107.93 -413.65 -1574 39 39 37
-104.655 -413.348 -1573 41 41 39
-101.449 -413.311 -1573 41 41 39
-98.3687 -413.801 -1575 39 39 37
-95.2209 -414.028 -1576 38 38 36
-91.9531 -413.732 -1575 41 41 41
-88.8027 -413.962 -1576 40 40 40
-85.5948 -413.931 -1576 40 40 40
-82.4398 -414.163 -1577 40 40 40
-79.2815 -414.396 -1578 41 41 41
-76.1679 -414.894 -1580 42 42 42
-73.0007 -415.129 -1581 42 42 42
-69.8743 -415.629 -1583 44 44 44
-66.9508 -417.442 -1590 45 45 45
-64.0394 -419.518 -1598 45 45 45
-61.4004 -423.696 -1614 48 48 48
-59.345 -432.6 -1648 49 49 49
-57.8996 -447.278 -1704 48 48 47
-55.1728 -453.295 -1727 51 50 49
-52.1436 -457.475 -1743 59 56 58
-288.277 -433.069 -1620 82 79 81
-281.19 -427.35 -1599 59 57 59
-275.584 -423.773 -1586 50 50 51
-271.065 -421.802 -1579 50 50 50
-266.747 -420.1 -1573 48 48 52
-263.127 -419.468 -1571 47 45 48
-259.021 -418.036 -1566 47 45 46
-255.591 -417.674 -1565 46 46 48
-251.845 -416.779 -1562 44 44 46
-248.432 -416.42 -1561 43 43 46
-244.869 -415.796 -1559 43 42 44
-241.471 -415.439 -1558 42 40 42
-237.62 -414.284 -1554 42 42 42
-234.693 -414.73 -1556 42 42 42
-231.016 -413.845 -1553 42 42 42
-227.647 -413.494 -1552 41 41 41
-224.284 -413.145 -1551 41 41 41
-221.069 -413.062 -1551 43 43 43
-217.014 -411.384 -1545 43 44 44
-213.4 -410.506 -1542 44 46 46
-209.665 -409.363 -1538 45 46 46
-205.545 -407.424 -1531 45 46 46
-201.456 -405.487 -1524 47 49 49
-197.787 -404.349 -1520 48 48 45
-193.497 -401.883 -1511 47 47 45
-189.623 -400.218 -1505 48 48 46
-185.9 -398.819 -1500 47 47 45
-182.321 -397.688 -1496 45 45 43
-178.76 -396.559 -1492 46 46 44
-175.452 -395.962 -1490 47 47 44
-172.154 -395.367 -1488 49 49 46
-169.207 -395.57 -1489 51 51 48
-166.034 -395.243 -1488 50 50 48
-163.085 -395.448 -1489 49 49 48
-160.134 -395.655 -1490 48 48 46
-157.285 -396.128 -1492 45 45 43
-154.843 -397.664 -1498 47 47 44
-152.783 -400.262 -1508 51 51 48
-150.684 -402.86 -1518 53 52 50
-148.544 -405.459 -1528 50 49 46
-146.46 -408.324 -1539 49 49 46
-143.96 -410.128 -1546 48 48 46
-141.25 -411.402 -1551 48 48 45
-138.52 -412.678 -1556 47 47 44
-135.511 -413.158 -1558 44 44 42
-132.579 -413.904 -1561 45 42 39
-129.471 -414.122 -1562 44 41 39
-126.521 -414.87 -1565 39 39 37
-123.402 -415.09 -1566 37 38 35
-120.511 -416.106 -1570 37 37 35
-117.38 -416.327 -1571 37 36 34
-114.246 -416.55 -1572 38 37 34
-111.18 -417.039 -1574 39 39 36
-107.969 -416.999 -1574 39 39 36
-104.693 -416.695 -1573 40 40 38
-101.55 -416.923 -1574 40 40 38
-98.4044 -417.151 -1575 38 38 36
-95.2554 -417.381 -1576 37 37 35
-92.0447 -417.347 -1576 40 40 40
-88.835 -417.314 -1576 41 41 41
-85.6258 -417.282 -1576 42 42 42
-82.4697 -417.516 -1577 41 41 41
-79.3102 -417.752 -1578 41 41 41
-76.1955 -418.253 -1580 41 41 41
-73.0733 -418.755 -1582 44 44 44
-69.8995 -418.994 -1583 46 46 46
-66.8907 -420.292 -1588 46 46 46
-63.9823 -422.386 -1596 46 46 46
-61.3465 -426.597 -1612 49 48 48
-59.6907 -438.484 -1657 49 49 49
-57.7505 -449.576 -1699 47 47 46
-55.0649 -455.906 -1723 49 49 47
-52.3121 -462.502 -1748 62 59 60
-287.138 -434.668 -1613 81 78 80
-280.943 -430.25 -1597 58 57 58
-274.991 -426.106 -1582 48 48 50
-271.166 -425.196 -1579 48 48 50
-267.186 -424.018 -1575 47 47 51
-263.225 -422.843 -1571 45 45 48
-259.282 -421.669 -1567 47 47 48
-255.686 -421.034 -1565 46 46 48
-251.939 -420.133 -1562 44 44 46
-248.365 -419.502 -1560 43 43 47
-244.802 -418.872 -1558 42 42 43
-241.56 -418.782 -1558 41 41 41
-237.708 -417.618 -1554 41 41 41
-234.478 -417.53 -1554 41 41 41
-231.25 -417.443 -1554 41 41 41
-228.024 -417.358 -1554 41 41 41
-224.367 -416.468 -1551 41 41 41
-221.008 -416.117 -1550 43 43 43
-217.235 -414.962 -1546 45 45 45
-213.341 -413.54 -1541 45 45 45
-209.606 -412.388 -1537 47 47 47
-205.755 -410.97 -1532 48 48 48
-201.662 -409.017 -1525 49 49 49
-197.47 -406.797 -1517 48 48 46
-193.44 -404.848 -1510 47 47 45
-189.693 -403.437 -1505 46 46 44
-186.093 -402.295 -1501 46 46 44
-182.388 -400.887 -1496 47 47 45
-178.826 -399.748 -1492 48 48 46
-175.399 -398.879 -1489 49 49 46
-172.218 -398.547 -1488 50 50 46
-169.042 -398.216 -1487 51 51 47
-165.983 -398.154 -1487 51 51 48
-163.145 -398.629 -1489 50 50 48
-160.3 -399.105 -1491 48 48 46
-157.343 -399.314 -1492 47 47 45
-154.693 -400.327 -1496 49 49 47
-152.637 -402.946 -1506 50 50 47
-150.938 -406.635 -1520 51 51 47
-148.793 -409.255 -1530 49 49 47
-146.514 -411.608 -1539 49 49 47
-144.012 -413.426 -1546 49 49 47
-141.393 -414.978 -1552 48 48 44
-138.66 -416.263 -1557 46 46 43
-135.648 -416.748 -1559 43 43 41
-132.713 -417.5 -1562 45 43 41
-129.601 -417.719 -1563 44 43 41
-126.648 -418.474 -1566 39 39 37
-123.448 -418.428 -1566 37 39 35
-120.478 -419.185 -1569 37 40 35
-117.348 -419.408 -1570 35 35 33
-114.215 -419.633 -1571 36 36 34
-111.079 -419.858 -1572 39 39 37
-107.871 -419.818 -1572 38 38 36
-104.731 -420.046 -1573 37 37 35
-101.716 -420.809 -1576 38 38 36
-98.5654 -421.039 -1577 39 39 37
-95.4111 -421.271 -1578 38 38 36
-92.1952 -421.236 -1578 40 40 40
-88.9802 -421.203 -1578 41 41 41
-85.7658 -421.171 -1578 42 42 42
-82.6044 -421.407 -1579 41 41 41
-79.3895 -421.377 -1579 41 41 41
-76.2716 -421.882 -1581 42 42 42
-73.1925 -422.656 -1584 44 44 44
-70.0575 -423.163 -1586 44 44 44
-66.9993 -424.205 -1590 44 44 44
-64.126 -426.582 -1599 47 45 46
-61.4069 -430.294 -1613 51 48 49
-59.6404 -441.476 -1655 51 48 49
-58.1457 -456.125 -1710 47 46 46
-55.2449 -460.905 -1728 48 48 48
-52.2114 -465.153 -1744 64 61 63
-287.246 -438.142 -1613 79 77 79
-281.224 -433.961 -1598 58 58 58
-276.486 -431.683 -1590 48 48 49
-271.955 -429.68 -1583 48 48 50
-267.965 -428.492 -1579 47 47 50
-264.161 -427.578 -1576 45 45 47
-260.207 -426.395 -1572 46 46 48
-256.435 -425.484 -1569 45 45 47
-252.356 -424.033 -1564 44 44 46
-248.458 -422.854 -1560 43 43 47
-244.894 -422.219 -1558 43 43 44
-241.65 -422.128 -1558 42 42 42
-237.797 -420.954 -1554 41 41 41
-234.717 -421.137 -1555 40 40 40
-231.634 -421.32 -1556 41 41 41
-228.11 -420.692 -1554 42 42 42
-224.595 -420.066 -1552 42 42 42
-221.376 -419.983 -1552 43 43 43
-217.456 -418.548 -1547 43 43 43
-213.42 -416.844 -1541 44 44 44
-209.684 -415.683 -1537 45 45 45
-205.832 -414.253 -1532 49 49 49
-201.605 -412.014 -1524 49 49 49
-197.283 -409.507 -1515 49 49 47
-193.256 -407.542 -1508 49 49 47
-189.259 -405.579 -1501 46 46 44
-185.666 -404.428 -1497 46 46 44
-182.09 -403.279 -1493 48 48 46
-178.652 -402.401 -1490 49 49 47
-175.346 -401.795 -1488 51 51 49
-172.166 -401.46 -1487 52 52 50
-168.877 -400.857 -1485 51 51 47
-165.822 -400.795 -1485 52 52 49
-162.987 -401.273 -1487 52 52 50
-160.145 -401.753 -1489 50 50 48
-157.402 -402.503 -1492 49 49 47
-154.854 -403.794 -1497 49 49 47
-152.592 -405.894 -1505 49 49 46
-150.596 -408.804 -1516 50 50 46
-148.459 -411.445 -1526 50 50 48
-146.187 -413.817 -1535 49 49 47
-143.972 -416.459 -1545 49 49 47
-141.263 -417.753 -1550 49 49 45
-138.622 -419.318 -1556 46 46 43
-135.698 -420.076 -1559 43 43 41
-132.762 -420.835 -1562 41 41 39
-129.649 -421.055 -1563 43 43 41
-126.695 -421.816 -1566 41 41 39
-123.572 -422.039 -1567 39 39 37
-120.6 -422.801 -1570 38 38 36
-117.467 -423.026 -1571 36 36 34
-114.258 -422.984 -1571 36 36 34
-111.12 -423.211 -1572 36 36 34
-108.048 -423.709 -1574 37 37 35
-104.836 -423.669 -1574 37 37 35
-101.754 -424.169 -1576 38 38 36
-98.6017 -424.402 -1577 40 40 38
-95.4463 -424.635 -1578 40 40 38
-92.1123 -424.062 -1576 41 41 41
-89.0129 -424.566 -1578 40 40 40
-85.7973 -424.534 -1578 41 41 41
-82.6348 -424.772 -1579 40 40 40
-79.469 -425.011 -1580 42 42 42
-76.3962 -425.789 -1583 43 43 43
-73.2194 -426.03 -1584 43 43 43
-70.0391 -426.273 -1585 40 40 40
-66.9819 -427.323 -1589 42 42 42
-64.1095 -429.719 -1598 48 47 47
-61.5056 -434.267 -1615 54 51 52
-59.3379 -442.581 -1646 52 49 50
-57.7928 -456.81 -1699 47 45 46
-54.9453 -461.897 -1718 49 49 49
-52.1408 -468.061 -1741 64 62 64
-286.82 -440.798 -1610 79 77 79
-280.979 -436.858 -1596 60 60 60
-276.069 -434.289 -1587 49 49 51
-271.542 -432.269 -1580 48 48 50
-267.387 -430.799 -1575 46 46 48
-264.093 -430.699 -1575 43 43 45
-260.14 -429.505 -1571 43 43 45
-256.532 -428.861 -1569 44 44 46
-252.451 -427.398 -1564 43 43 46
-248.711 -426.483 -1561 43 43 47
-245.301 -426.116 -1560 43 43 44
-241.741 -425.478 -1558 42 42 42
-238.039 -424.568 -1555 41 41 41
-234.956 -424.752 -1556 40 40 40
-231.87 -424.936 -1557 41 41 41
-228.489 -424.577 -1556 42 42 42
-224.969 -423.945 -1554 43 43 43
-221.602 -423.588 -1553 43 43 43
-217.678 -422.142 -1548 43 43 43
-213.639 -420.424 -1542 43 43 43
-209.763 -418.981 -1537 45 45 45
-205.774 -417.267 -1531 49 49 49
-201.68 -415.283 -1524 48 48 48
-197.357 -412.756 -1515 48 48 46
-193.2 -410.503 -1507 49 49 47
-189.33 -408.796 -1501 47 47 45
-185.859 -407.909 -1498 47 47 45
-182.402 -407.023 -1495 48 48 46
-178.959 -406.138 -1492 49 49 47
-175.53 -405.255 -1489 51 51 49
-172.114 -404.373 -1486 51 51 49
-169.054 -404.309 -1486 51 51 49
-165.995 -404.246 -1486 53 53 51
-162.938 -404.184 -1486 54 54 52
-160.097 -404.668 -1488 51 51 49
-157.355 -405.424 -1491 47 47 45
-154.705 -406.453 -1495 48 48 46
-152.649 -409.114 -1505 49 49 46
-150.553 -411.775 -1515 49 49 45
-148.417 -414.437 -1525 51 51 49
-146.242 -417.099 -1535 50 50 48
-144.026 -419.762 -1545 50 50 48
-141.315 -421.067 -1550 48 48 45
-138.763 -422.916 -1557 45 45 42
-135.748 -423.408 -1559 42 42 40
-132.981 -424.716 -1564 42 42 40
-129.78 -424.666 -1564 44 44 42
-126.742 -425.161 -1566 41 41 39
-123.697 -425.658 -1568 40 40 38
-120.721 -426.426 -1571 39 39 37
-117.51 -426.382 -1571 37 37 35
-114.3 -426.338 -1571 37 37 35
-111.232 -426.839 -1573 35 35 33
-108.089 -427.069 -1574 37 37 35
-104.942 -427.301 -1575 38 38 36
-101.856 -427.805 -1577 38 38 36
-98.6384 -427.767 -1577 39 39 37
-95.4213 -427.731 -1577 40 40 38
-92.1466 -427.425 -1576 41 41 41
-88.9896 -427.662 -1577 41 41 41
-85.8292 -427.901 -1578 39 39 39
-82.7179 -428.412 -1580 39 39 39
-79.5488 -428.653 -1581 43 43 43
-76.4246 -429.166 -1583 44 44 44
-73.3391 -429.951 -1586 41 41 41
-70.1536 -430.196 -1587 41 41 41
-67.0489 -430.983 -1590 44 44 44
-64.1734 -433.398 -1599 49 47 48
-61.3761 -436.627 -1611 54 51 52
-59.6124 -447.988 -1653 52 49 50
-57.6781 -459.348 -1695 45 44 44
-54.9337 -465.289 -1717 49 49 49
-52.1901 -472.044 -1742 63 63 65
-286.751 -443.998 -1609 81 78 81
-280.558 -439.474 -1593 62 62 62
-275.826 -437.161 -1585 50 50 52
-271.646 -435.677 -1580 46 46 48
-268.168 -435.298 -1579 44 44 46
-264.362 -434.37 -1576 43 43 45
-260.239 -432.891 -1571 42 42 44
-256.466 -431.966 -1568 44 44 46
-252.547 -430.767 -1564 43 43 46
-248.646 -429.57 -1560 43 43 47
-245.237 -429.2 -1559 43 43 44
-241.678 -428.556 -1557 42 42 42
-238.13 -427.915 -1555 41 41 41
-234.894 -427.824 -1555 42 42 42
-231.809 -428.01 -1556 42 42 42
-228.429 -427.648 -1555 42 42 42
-224.909 -427.012 -1553 43 43 43
-221.543 -426.652 -1552 43 43 43
-217.901 -425.743 -1549 44 44 44
-213.72 -423.737 -1542 45 45 45
-209.978 -422.558 -1538 47 47 47
-206.121 -421.105 -1533 49 49 49
-202.154 -419.38 -1527 47 47 47
-197.822 -416.832 -1518 47 47 45
-193.273 -413.738 -1507 48 48 47
-189.528 -412.293 -1502 49 49 47
-185.929 -411.123 -1498 49 49 47
-182.593 -410.504 -1496 48 48 46
-179.147 -409.613 -1493 48 48 46
-175.714 -408.723 -1490 51 51 49
-172.295 -407.834 -1487 52 52 50
-169.004 -407.221 -1485 51 51 49
-165.946 -407.157 -1485 50 50 48
-162.89 -407.095 -1485 51 51 49
-160.157 -407.856 -1488 51 51 49
-157.414 -408.618 -1491 48 48 46
-154.763 -409.656 -1495 48 48 46
-152.808 -412.611 -1506 51 51 47
-150.411 -414.472 -1513 51 51 47
-148.376 -417.428 -1524 51 51 49
