ply
format ascii 1.0
comment Created by Open3D
element vertex 1467
property double x
property double y
property double z
property uchar red
property uchar green
property uchar blue
end_header
36.5218 -237.787 -1623 56 56 56
39.6682 -237.208 -1619 57 57 57
42.7989 -236.631 -1615 55 55 55
46.0279 -236.639 -1615 52 52 52
49.2268 -236.502 -1614 55 55 55
52.4549 -236.512 -1614 55 55 55
55.7176 -236.67 -1615 52 53 53
58.9847 -236.827 -1616 52 54 54
62.2178 -236.839 -1616 52 55 52
65.4517 -236.852 -1616 53 56 53
68.8133 -237.305 -1619 53 56 53
72.2322 -237.906 -1623 52 54 54
75.9932 -239.533 -1634 53 55 54
80.1868 -242.334 -1653 51 54 51
-335.007 -254.738 -1693 49 50 53
-329.924 -253.466 -1685 43 44 46
-325.845 -252.948 -1682 47 49 51
-321.973 -252.58 -1680 46 48 49
-318.302 -252.364 -1679 46 48 48
-314.825 -252.299 -1679 48 48 48
-311.166 -252.085 -1678 47 47 47
-307.513 -251.871 -1677 46 46 46
-303.504 -251.357 -1674 45 45 45
-299.331 -250.695 -1670 43 43 43
-295.709 -250.484 -1669 45 45 45
-291.918 -250.124 -1667 44 44 44
-287.445 -249.164 -1661 44 44 44
-282.658 -247.906 -1653 46 46 45
-277.399 -246.199 -1642 47 47 45
-270.686 -243.145 -1622 47 47 45
-265.541 -241.441 -1611 46 46 44
-261.094 -240.338 -1604 47 47 45
-257.321 -239.836 -1601 50 50 50
-253.245 -239.035 -1596 51 51 50
-249.819 -238.834 -1595 53 53 51
-246.398 -238.633 -1594 50 50 50
-242.831 -238.284 -1592 51 51 51
-239.576 -238.235 -1592 52 52 50
-236.619 -238.486 -1594 52 52 50
-233.803 -238.887 -1597 52 52 50
-231.12 -239.438 -1601 52 52 50
-228.423 -239.989 -1605 51 51 49
-225.852 -240.69 -1610 50 50 48
-223.124 -241.242 -1614 49 49 47
-220.518 -241.945 -1619 49 49 46
-217.76 -242.498 -1623 49 49 47
-215.251 -243.35 -1629 48 48 46
-212.199 -243.606 -1631 45 45 43
-209.653 -244.459 -1637 45 45 43
-206.706 -244.865 -1640 47 47 45
-203.873 -245.42 -1644 48 48 48
-200.537 -245.379 -1644 46 46 46
-197.683 -245.936 -1648 45 45 45
-194.578 -246.195 -1650 46 46 46
-191.467 -246.454 -1652 47 47 47
-188.236 -246.565 -1653 46 46 46
-185.337 -247.123 -1657 46 46 46
-182.094 -247.235 -1658 46 46 46
-178.957 -247.497 -1660 46 46 46
-175.601 -247.461 -1660 45 45 45
-172.662 -248.022 -1664 46 46 46
-169.301 -247.988 -1664 46 46 46
-165.942 -247.954 -1664 44 44 44
-162.779 -248.219 -1666 44 44 44
-159.514 -248.335 -1667 44 44 44
-156.153 -248.303 -1667 45 45 45
-152.793 -248.272 -1667 44 44 44
-149.523 -248.39 -1668 43 43 43
-146.251 -248.51 -1669 43 43 43
-143.148 -248.927 -1672 42 42 42
-139.95 -249.196 -1674 40 40 40
-136.908 -249.764 -1678 35 35 36
-133.612 -249.885 -1679 31 31 32
-130.391 -250.156 -1681 27 27 27
-127.087 -250.279 -1682 25 25 27
-123.781 -250.403 -1683 22 22 24
-120.328 -250.229 -1682 18 18 22
-116.811 -249.908 -1680 20 20 24
-113.033 -248.992 -1674 35 35 37
-109.214 -247.929 -1667 39 41 43
-105.298 -246.569 -1658 42 44 46
-101.356 -245.061 -1648 42 44 46
-97.5749 -243.851 -1640 39 41 43
-93.8839 -242.791 -1633 42 44 46
-90.3882 -242.178 -1629 46 48 50
-86.9094 -241.566 -1625 45 47 49
-83.6016 -241.4 -1624 45 47 47
-80.249 -241.086 -1622 45 47 47
-76.9052 -240.773 -1620 45 47 47
-73.5245 -240.312 -1617 45 47 47
-70.2433 -240.149 -1616 46 48 48
-66.9253 -239.838 -1614 47 49 49
-63.6947 -239.825 -1614 49 49 49
-60.5022 -239.961 -1615 50 50 50
-57.3415 -240.247 -1617 50 50 50
-54.1733 -240.533 -1619 50 50 50
-51.0291 -240.968 -1622 49 49 49
-47.8142 -241.106 -1623 49 49 49
-44.6233 -241.394 -1625 47 47 47
-41.4757 -241.98 -1629 44 44 44
-38.242 -242.12 -1630 46 46 46
-35.0046 -242.261 -1631 49 49 49
-31.7635 -242.403 -1632 47 47 47
-28.5186 -242.546 -1633 46 46 46
-25.239 -242.392 -1632 46 46 46
-21.9907 -242.536 -1633 48 48 48
-18.727 -242.532 -1633 49 49 49
-15.4635 -242.528 -1633 49 49 47
-12.1851 -242.228 -1631 47 47 45
-8.93676 -242.523 -1633 46 46 44
-5.67346 -242.522 -1633 47 47 45
-2.41021 -242.521 -1633 48 48 47
0.853869 -242.818 -1635 51 51 51
4.12363 -242.967 -1636 51 51 51
7.38386 -242.671 -1634 50 50 50
10.6427 -242.524 -1633 49 49 49
13.8974 -242.378 -1632 49 49 49
17.1484 -242.233 -1631 51 51 51
20.383 -241.94 -1629 50 50 50
23.6244 -241.796 -1628 49 49 49
26.8619 -241.652 -1627 52 52 52
30.0771 -241.361 -1625 53 53 53
33.2845 -241.07 -1623 53 53 53
36.4842 -240.78 -1621 56 56 56
39.6763 -240.491 -1619 57 57 57
42.8341 -240.053 -1616 54 54 54
46.0373 -239.914 -1615 53 53 53
49.2368 -239.775 -1614 55 55 55
52.4652 -239.785 -1614 54 54 54
55.7631 -240.093 -1616 52 53 53
59.0331 -240.253 -1617 50 52 52
62.2688 -240.265 -1617 51 54 52
65.5863 -240.575 -1619 53 56 54
68.8695 -240.737 -1620 52 55 52
72.2466 -241.198 -1623 52 54 54
76.0083 -242.847 -1634 52 55 54
80.397 -246.281 -1657 52 55 52
-334.681 -257.914 -1691 48 48 51
-329.796 -256.777 -1684 45 45 46
-325.525 -256.098 -1680 47 49 51
-321.848 -255.878 -1679 46 48 49
-318.178 -255.66 -1678 46 48 48
-314.703 -255.594 -1678 47 47 47
-311.044 -255.376 -1677 46 46 46
-307.576 -255.312 -1677 46 46 46
-303.929 -255.096 -1676 45 45 45
-299.931 -254.576 -1673 45 45 45
-295.947 -254.058 -1670 44 44 44
-292.153 -253.693 -1668 44 44 44
-288.024 -253.024 -1664 43 43 43
-282.887 -251.444 -1654 45 45 43
-277.794 -249.866 -1644 46 46 44
-271.576 -247.226 -1627 46 46 44
-265.925 -245.043 -1613 46 46 44
-261.473 -243.925 -1606 48 48 46
-257.374 -243.112 -1601 49 49 48
-253.456 -242.452 -1597 50 50 49
-249.87 -242.096 -1595 51 51 49
-246.449 -241.893 -1594 52 52 50
-243.034 -241.691 -1593 53 53 52
-239.625 -241.489 -1592 54 54 52
-236.668 -241.743 -1594 54 54 52
-233.85 -242.15 -1597 53 53 51
-231.167 -242.708 -1601 52 52 50
-228.47 -243.267 -1605 50 50 48
-226.039 -244.129 -1611 50 50 48
-223.308 -244.689 -1615 50 50 48
-220.564 -245.249 -1619 50 50 48
-217.67 -245.659 -1622 49 49 47
-215.03 -246.371 -1627 49 49 47
-212.112 -246.782 -1630 47 47 45
-209.568 -247.646 -1636 47 47 45
-206.874 -248.36 -1641 49 49 47
-203.791 -248.621 -1643 48 48 48
-200.7 -248.882 -1645 46 46 46
-197.843 -249.446 -1649 44 44 44
-194.618 -249.557 -1650 46 46 46
-191.622 -249.971 -1653 47 47 47
-188.274 -249.932 -1653 46 46 46
-185.375 -250.499 -1657 47 47 47
-182.131 -250.612 -1658 47 47 47
-178.778 -250.575 -1658 46 46 46
-175.637 -250.841 -1660 45 45 45
-172.697 -251.409 -1664 46 46 46
-169.336 -251.375 -1664 46 46 46
-165.976 -251.34 -1664 46 46 46
-162.91 -251.76 -1667 46 46 46
-159.451 -251.576 -1666 45 45 45
-156.091 -251.543 -1666 45 45 45
-152.64 -251.361 -1665 44 44 44
-149.375 -251.481 -1666 43 43 43
-146.018 -251.451 -1666 43 43 43
-143.091 -252.176 -1671 42 42 42
-139.894 -252.449 -1673 40 40 40
-136.935 -253.175 -1678 36 36 36
-133.719 -253.449 -1680 31 31 31
-130.573 -253.874 -1683 27 27 27
-127.189 -253.848 -1683 25 25 26
-123.88 -253.973 -1684 24 24 25
-120.424 -253.798 -1683 21 21 25
-116.835 -253.321 -1680 21 21 24
-113.056 -252.393 -1674 37 37 39
-109.171 -251.164 -1666 40 41 43
-105.382 -250.087 -1659 43 44 46
-101.438 -248.558 -1649 42 44 46
-97.6542 -247.332 -1641 39 41 43
-94.0179 -246.408 -1635 41 43 45
-90.462 -245.636 -1630 45 47 48
-87.0339 -245.166 -1627 45 47 48
-83.67 -244.847 -1625 44 46 46
-80.3147 -244.529 -1623 45 47 47
-76.9207 -244.061 -1620 44 46 46
-73.4938 -243.443 -1616 45 47 47
-70.2576 -243.429 -1616 45 47 47
-66.8973 -242.963 -1613 46 48 48
-63.6682 -242.95 -1613 47 48 48
-60.5143 -243.238 -1615 49 50 50
-57.353 -243.527 -1617 51 51 51
-54.1508 -243.667 -1618 49 49 49
-51.0079 -244.108 -1621 49 49 49
-47.8239 -244.399 -1623 49 49 49
-44.6049 -244.54 -1624 46 46 46
-41.4585 -245.134 -1628 43 43 43
-38.2497 -245.427 -1630 46 46 46
-35.0331 -245.72 -1632 48 48 48
-31.7894 -245.864 -1633 49 49 49
-28.5419 -246.009 -1634 49 49 49
-25.2597 -245.853 -1633 47 47 47
-22.0086 -245.998 -1634 47 47 47
-18.7307 -245.844 -1633 49 49 49
-15.4666 -245.84 -1633 49 49 49
-12.195 -245.687 -1632 47 47 46
-8.94398 -245.986 -1634 48 48 46
-5.68151 -246.135 -1635 49 49 47
-2.41362 -246.134 -1635 50 50 48
0.854572 -246.285 -1636 51 51 51
4.12445 -246.285 -1636 51 51 51
7.38532 -245.985 -1634 51 51 51
10.6383 -245.686 -1632 49 49 49
13.8918 -245.538 -1631 49 49 49
17.152 -245.541 -1631 51 51 51
20.4123 -245.545 -1631 49 49 49
23.6292 -245.098 -1628 48 48 48
26.8673 -244.952 -1627 51 51 51
30.0832 -244.657 -1625 52 52 52
33.2913 -244.362 -1623 52 52 52
36.4916 -244.068 -1621 55 55 55
39.6843 -243.775 -1619 56 56 56
42.8957 -243.633 -1618 55 55 55
46.1035 -243.491 -1617 53 53 53
49.2772 -243.2 -1615 54 54 54
52.5409 -243.361 -1616 54 54 54
55.8434 -243.673 -1618 52 53 53
59.1181 -243.835 -1619 50 52 52
62.2814 -243.547 -1617 50 52 52
65.559 -243.71 -1618 52 55 53
68.8836 -244.025 -1620 52 55 52
72.1276 -244.039 -1620 52 54 53
75.8375 -245.561 -1630 51 53 52
80.0249 -248.439 -1649 50 53 50
-334.751 -261.392 -1691 47 48 49
-329.866 -260.24 -1684 46 46 47
-325.594 -259.552 -1680 47 49 51
-321.916 -259.329 -1679 46 48 49
-318.245 -259.107 -1678 45 47 47
-314.769 -259.04 -1678 47 47 47
-311.11 -258.82 -1677 46 46 46
-307.641 -258.754 -1677 46 46 46
-303.812 -258.382 -1675 44 44 44
-300.173 -258.164 -1674 44 44 44
-296.186 -257.638 -1671 45 45 45
-292.389 -257.268 -1669 43 43 43
-288.084 -256.436 -1664 42 42 42
-283.459 -255.297 -1657 44 44 43
-277.514 -252.928 -1642 47 47 45
-271.466 -250.406 -1626 47 47 45
-266.145 -248.501 -1614 47 47 45
-261.528 -247.214 -1606 48 48 46
-257.749 -246.698 -1603 49 49 47
-253.668 -245.875 -1598 50 50 48
-250.236 -245.668 -1597 49 49 47
-246.655 -245.308 -1595 49 49 47
-243.237 -245.103 -1594 49 49 47
-239.675 -244.745 -1592 53 53 51
-236.717 -245.003 -1594 53 53 51
-233.753 -245.261 -1596 52 52 50
-231.071 -245.827 -1600 49 49 47
-228.517 -246.547 -1605 47 47 45
-226.086 -247.421 -1611 48 48 46
-223.216 -247.835 -1614 49 49 47
-220.609 -248.556 -1619 50 50 48
-217.581 -248.817 -1621 50 50 48
-214.943 -249.54 -1626 49 49 47
-212.156 -250.109 -1630 49 49 47
-209.483 -250.832 -1635 49 49 47
-206.539 -251.249 -1638 48 48 46
-203.709 -251.82 -1642 49 49 49
-200.62 -252.084 -1644 47 47 47
-197.764 -252.656 -1648 44 44 44
-194.54 -252.768 -1649 47 47 47
-191.546 -253.188 -1652 47 47 47
-188.313 -253.302 -1653 45 45 45
-185.301 -253.723 -1656 47 47 47
-182.059 -253.838 -1657 47 47 47
-178.815 -253.953 -1658 47 47 47
-175.568 -254.07 -1659 46 46 46
-172.525 -254.493 -1662 45 45 45
-169.167 -254.457 -1662 46 46 46
-165.91 -254.576 -1663 46 46 46
-162.748 -254.848 -1665 46 46 46
-159.388 -254.814 -1665 45 45 45
-156.029 -254.782 -1665 46 46 46
-152.764 -254.903 -1666 45 45 45
-149.585 -255.177 -1668 44 44 44
-146.311 -255.3 -1669 42 42 42
-143.206 -255.728 -1672 41 41 41
-140.09 -256.158 -1675 39 39 39
-137.045 -256.741 -1679 36 36 36
-133.826 -257.019 -1681 31 31 31
-130.522 -257.144 -1682 27 27 27
-127.291 -257.423 -1684 26 26 26
-123.979 -257.55 -1685 26 26 26
-120.521 -257.372 -1684 22 22 25
-116.998 -257.042 -1682 21 21 23
-113.079 -255.795 -1674 36 36 38
-109.39 -255.008 -1669 41 41 43
-105.34 -253.305 -1658 44 44 46
-101.459 -251.909 -1649 43 45 47
-97.6742 -250.666 -1641 41 42 44
-94.0948 -249.883 -1636 44 44 45
-90.536 -249.1 -1631 44 46 46
-87.1052 -248.624 -1628 45 47 47
-83.6871 -248.148 -1625 45 47 47
-80.2818 -247.673 -1622 45 47 47
-76.984 -247.504 -1621 45 47 47
-73.5544 -246.878 -1617 45 47 47
-70.2284 -246.558 -1615 46 48 48
-66.9525 -246.391 -1614 47 49 49
-63.7601 -246.53 -1615 47 49 49
-60.4892 -246.365 -1614 48 50 50
-57.3293 -246.658 -1616 50 51 51
-54.1953 -247.104 -1619 51 51 51
-51.0813 -247.704 -1623 50 50 50
-47.8631 -247.846 -1624 50 51 51
-44.669 -248.142 -1626 51 52 52
-41.4925 -248.591 -1629 49 49 49
-38.2576 -248.735 -1630 47 47 47
-35.0403 -249.033 -1632 47 47 47
-31.7764 -249.026 -1632 48 48 48
-28.5652 -249.478 -1635 48 48 48
-25.2648 -249.167 -1633 47 47 47
-22.013 -249.314 -1634 47 47 47
-18.746 -249.31 -1634 49 49 49
-15.4791 -249.307 -1634 48 48 48
-12.2049 -249.151 -1633 47 47 46
-8.94027 -249.149 -1633 47 47 46
-5.67915 -249.3 -1634 48 48 46
-2.41261 -249.3 -1634 49 49 47
0.854432 -249.452 -1635 50 50 50
4.12024 -249.3 -1634 51 51 51
7.37776 -248.996 -1632 51 51 51
10.6339 -248.845 -1631 50 50 50
13.8861 -248.695 -1630 49 49 49
17.1449 -248.698 -1630 51 51 51
20.3913 -248.55 -1629 50 50 50
23.6339 -248.402 -1628 49 49 49
26.8562 -248.102 -1626 51 51 51
30.0707 -247.802 -1624 51 51 51
33.2981 -247.656 -1623 51 51 51
36.4766 -247.206 -1620 53 53 53
39.6678 -246.908 -1618 55 55 55
42.8779 -246.764 -1617 54 54 54
46.1131 -246.774 -1617 52 52 52
49.3179 -246.631 -1616 52 52 52
52.6166 -246.947 -1618 53 53 53
55.8895 -247.11 -1619 51 53 53
59.1667 -247.275 -1620 50 52 52
62.3327 -246.982 -1618 51 53 53
65.613 -247.148 -1619 52 54 53
68.8552 -247.162 -1619 51 54 51
72.2316 -247.635 -1622 50 53 51
75.8532 -248.871 -1630 50 52 50
79.9929 -251.636 -1648 51 54 51
-334.427 -264.559 -1689 49 50 51
-329.74 -263.548 -1683 47 47 47
-325.663 -263.008 -1680 46 48 49
-321.793 -262.626 -1678 46 48 48
-317.933 -262.244 -1676 45 47 47
-314.273 -262.02 -1675 47 47 47
-310.805 -261.953 -1675 46 46 46
-307.523 -262.043 -1676 45 45 45
-303.695 -261.665 -1674 43 43 43
-300.236 -261.601 -1674 43 43 43
-296.249 -261.068 -1671 43 43 43
-292.451 -260.693 -1669 42 42 42
-288.318 -260.006 -1665 42 42 42
-284.033 -259.165 -1660 44 44 42
-278.418 -257.075 -1647 46 46 44
-272.358 -254.52 -1631 48 48 46
-266.367 -251.966 -1615 49 49 47
-261.746 -250.661 -1607 50 50 48
-257.643 -249.826 -1602 50 50 48
-253.562 -248.992 -1597 49 49 47
-249.975 -248.627 -1595 48 48 46
-246.552 -248.418 -1594 47 47 45
-243.288 -248.366 -1594 47 47 45
-239.575 -247.848 -1591 49 49 47
-236.767 -248.264 -1594 49 49 47
-233.802 -248.526 -1596 49 49 47
-231.409 -249.411 -1602 49 49 47
-228.708 -249.985 -1606 50 50 48
-226.274 -250.87 -1612 49 49 47
-223.54 -251.445 -1616 49 49 47
-220.519 -251.709 -1618 50 50 48
-217.627 -252.13 -1621 50 50 48
-214.856 -252.706 -1625 49 49 47
-212.201 -253.438 -1630 50 50 48
-209.527 -254.171 -1635 48 48 46
-206.835 -254.904 -1640 45 45 43
-203.875 -255.327 -1643 48 48 48
-200.662 -255.44 -1644 47 47 47
-197.686 -255.864 -1647 44 44 44
-194.463 -255.978 -1648 44 44 44
-191.354 -256.248 -1650 45 45 45
-188.124 -256.363 -1651 45 45 45
-185.116 -256.789 -1654 46 46 46
-181.987 -257.061 -1656 47 47 47
-178.744 -257.178 -1657 46 46 46
-175.604 -257.452 -1659 45 45 45
-172.562 -257.88 -1662 44 44 44
-169.406 -258.155 -1664 46 46 46
-166.045 -258.119 -1664 46 46 46
-162.88 -258.395 -1666 44 44 44
-159.517 -258.361 -1666 42 42 42
-156.249 -258.483 -1667 44 44 43
-152.979 -258.605 -1668 44 44 43
-149.795 -258.884 -1670 44 44 43
-146.605 -259.163 -1672 43 43 43
-143.408 -259.442 -1674 40 40 40
-140.371 -260.032 -1678 38 38 37
-137.237 -260.468 -1681 36 36 36
-134.013 -260.749 -1683 31 31 31
-130.704 -260.876 -1684 27 27 27
-127.393 -261.004 -1685 27 27 27
-124.078 -261.133 -1686 26 26 26
-120.546 -260.798 -1684 21 21 23
-117.022 -260.463 -1682 22 22 24
-113.238 -259.51 -1676 36 36 38
-109.413 -258.402 -1669 41 41 43
-105.299 -256.522 -1657 43 43 45
-101.542 -255.417 -1650 41 43 44
-97.754 -254.158 -1642 41 42 43
-94.1718 -253.364 -1637 45 45 46
-90.6659 -252.725 -1633 45 47 47
-87.2303 -252.242 -1630 46 48 48
-83.756 -251.606 -1626 46 48 48
-80.3974 -251.279 -1624 46 48 48
-76.9524 -250.644 -1620 46 48 48
-73.5697 -250.164 -1617 47 49 49
-70.243 -249.839 -1615 48 50 50
-66.9664 -249.67 -1614 47 49 49
-63.7733 -249.811 -1615 48 50 50
-60.5768 -249.953 -1616 48 50 50
-57.3767 -250.095 -1617 48 50 50
-54.2401 -250.548 -1620 50 51 51
-51.0604 -250.846 -1622 50 50 50
-47.8731 -251.145 -1624 47 49 49
-44.6508 -251.29 -1625 48 50 50
-41.4757 -251.745 -1628 47 49 49
-38.242 -251.891 -1629 45 46 46
-35.0475 -252.347 -1632 49 49 49
-31.8025 -252.495 -1633 47 47 47
-28.5885 -252.952 -1636 47 47 47
-25.301 -252.792 -1635 46 46 46
-22.0446 -252.942 -1636 46 46 46
-18.75 -252.628 -1634 48 48 48
-15.4918 -252.78 -1635 49 49 49
-12.2149 -252.622 -1634 48 48 48
-8.9532 -252.774 -1635 47 47 47
-5.68396 -252.773 -1635 48 48 46
-2.41456 -252.772 -1635 49 49 47
0.854617 -252.772 -1635 49 49 49
4.12128 -252.618 -1634 50 50 51
7.37946 -252.31 -1632 51 51 51
10.6297 -252.003 -1630 51 51 51
13.8891 -252.005 -1630 49 49 49
17.138 -251.854 -1629 51 51 51
20.3831 -251.703 -1628 50 50 50
23.6098 -251.398 -1626 50 50 50
26.8618 -251.404 -1626 51 51 51
30.0769 -251.1 -1624 50 50 50
33.305 -250.953 -1623 50 50 50
36.5292 -250.805 -1622 53 53 53
39.7496 -250.659 -1621 55 55 55
42.9135 -250.203 -1618 53 53 53
46.1226 -250.058 -1617 51 51 51
49.2977 -249.759 -1615 51 51 51
52.5626 -249.924 -1616 52 52 52
55.8321 -250.09 -1617 51 52 52
59.0693 -250.102 -1617 50 52 52
62.2686 -249.96 -1616 51 53 53
65.5455 -250.128 -1617 52 54 53
68.8269 -250.297 -1618 52 55 52
72.1574 -250.621 -1620 50 53 50
75.8223 -252.029 -1629 51 54 51
79.8639 -254.521 -1645 54 56 53
-334.697 -268.196 -1690 49 50 51
-330.007 -267.172 -1684 46 45 45
-325.733 -266.466 -1680 46 48 48
-322.246 -266.396 -1680 47 49 49
-318.381 -266.009 -1678 45 47 47
-314.34 -265.465 -1675 47 47 47
-310.686 -265.239 -1674 46 46 46
-307.222 -265.172 -1674 45 45 45
-303.397 -264.789 -1672 43 43 43
-300.122 -264.882 -1673 42 42 42
-295.958 -264.184 -1669 41 41 41
-292.689 -264.279 -1670 42 42 42
-288.553 -263.583 -1666 42 42 42
-283.923 -262.414 -1659 44 44 42
-278.647 -260.613 -1648 47 47 45
-272.25 -257.708 -1630 48 48 46
-266.919 -255.752 -1618 48 48 46
-261.476 -253.641 -1605 49 49 47
-257.698 -253.111 -1602 49 49 47
-253.617 -252.266 -1597 50 50 48
-250.185 -252.054 -1596 50 50 48
-246.605 -251.684 -1594 50 50 48
-243.188 -251.474 -1593 49 49 47
-239.927 -251.422 -1593 49 49 47
-236.817 -251.528 -1594 49 49 47
-233.998 -251.951 -1597 50 50 48
-231.313 -252.532 -1601 50 50 48
-228.614 -253.113 -1605 50 50 48
-226.322 -254.168 -1612 50 50 48
-223.588 -254.751 -1616 49 48 46
-220.703 -255.176 -1619 49 48 46
-217.807 -255.602 -1622 49 49 47
-215.034 -256.186 -1626 50 50 48
-212.116 -256.612 -1629 49 49 47
-209.315 -257.197 -1633 47 47 46
-206.626 -257.94 -1638 45 45 43
-203.671 -258.369 -1641 47 47 47
-200.582 -258.64 -1643 45 45 45
-197.487 -258.912 -1645 42 42 42
-194.504 -259.343 -1648 43 43 43
-191.511 -259.773 -1651 44 44 44
-188.164 -259.733 -1651 46 46 46
-185.043 -260.008 -1653 46 46 46
-181.916 -260.283 -1655 46 46 46
-178.674 -260.402 -1656 45 45 45
-175.536 -260.679 -1658 44 44 44
-172.598 -261.27 -1662 44 44 44
-169.442 -261.548 -1664 44 44 44
-166.18 -261.669 -1665 45 45 45
-163.012 -261.949 -1667 42 42 42
-159.647 -261.914 -1667 41 41 40
-156.283 -261.88 -1667 42 42 40
-153.103 -262.162 -1669 43 43 41
-149.917 -262.444 -1671 44 44 42
-146.723 -262.726 -1673 43 43 43
-143.523 -263.009 -1675 42 42 41
-140.4 -263.45 -1678 38 38 36
-137.184 -263.735 -1680 35 35 35
-133.962 -264.02 -1682 32 32 32
-130.732 -264.305 -1684 28 28 28
-127.42 -264.435 -1685 27 27 27
-124.031 -264.408 -1685 25 25 25
-120.571 -264.225 -1684 21 21 23
-117.047 -263.886 -1682 23 23 25
-113.194 -262.764 -1675 35 35 37
-109.37 -261.642 -1668 42 42 44
-105.448 -260.208 -1659 44 44 46
-101.625 -258.931 -1651 40 42 42
-97.7746 -257.498 -1642 42 43 43
-94.1917 -256.694 -1637 47 47 47
-90.685 -256.047 -1633 44 46 46
-87.2488 -255.558 -1630 46 48 48
-83.7221 -254.756 -1625 47 49 49
-80.3648 -254.425 -1623 46 48 48
-76.9687 -253.938 -1620 46 48 48
-73.5851 -253.452 -1617 46 48 48
-70.3013 -253.28 -1616 49 51 51
-67.022 -253.108 -1615 48 51 50
-63.7867 -253.095 -1615 47 49 49
-60.5896 -253.238 -1616 48 50 50
-57.4953 -253.852 -1620 48 50 50
-54.2849 -253.997 -1621 49 50 50
-51.1026 -254.3 -1623 49 49 49
-47.8832 -254.446 -1624 45 47 47
-44.6602 -254.592 -1625 45 47 47
-41.4844 -255.053 -1628 45 47 47
-38.2266 -255.045 -1628 44 45 45
-35.0549 -255.664 -1632 49 49 49
-31.8091 -255.813 -1633 47 47 47
-28.577 -256.12 -1635 47 47 47
-25.3063 -256.115 -1635 46 46 46
-22.0492 -256.266 -1636 46 46 46
-18.7883 -256.419 -1637 48 48 48
-15.5045 -256.258 -1636 49 49 49
-12.2325 -256.255 -1636 50 50 50
-8.96597 -256.41 -1637 49 49 49
-5.68858 -256.252 -1636 48 48 46
-2.41524 -256.094 -1635 48 48 47
0.854805 -256.094 -1635 48 48 48
4.12214 -255.938 -1634 50 50 51
7.37646 -255.469 -1631 51 51 52
10.6319 -255.315 -1630 51 51 51
13.8834 -255.161 -1629 51 51 51
17.131 -255.007 -1628 52 52 52
20.375 -254.855 -1627 50 50 50
23.6003 -254.546 -1625 50 50 50
26.851 -254.551 -1625 51 51 51
30.1018 -254.557 -1625 51 51 51
33.3325 -254.408 -1624 50 50 50
36.5368 -254.102 -1622 52 52 52
39.7581 -253.953 -1621 54 54 54
42.9225 -253.492 -1618 52 52 52
46.1324 -253.345 -1617 51 51 51
49.3079 -253.041 -1615 53 53 53
52.5737 -253.209 -1616 53 53 53
55.8093 -253.22 -1616 51 52 52
59.0819 -253.389 -1617 50 52 52
62.2819 -253.245 -1616 51 53 53
65.5593 -253.416 -1617 52 55 53
68.8415 -253.587 -1618 53 56 53
72.2618 -254.229 -1622 53 56 53
75.8849 -255.498 -1630 54 56 53
80.2691 -259.12 -1653 55 55 53
-340.089 -273.201 -1699 56 59 63
-334.572 -271.519 -1689 49 48 50
-329.883 -270.481 -1683 49 47 47
-325.61 -269.766 -1679 47 49 49
-322.124 -269.695 -1679 47 49 49
-318.261 -269.303 -1677 46 48 48
-314.409 -268.912 -1675 46 47 47
-310.568 -268.523 -1673 45 45 45
-307.289 -268.615 -1674 45 45 45
-303.463 -268.227 -1672 44 44 44
-299.828 -268.001 -1671 42 42 42
-296.2 -267.775 -1670 41 41 41
-292.578 -267.55 -1669 42 42 42
-288.27 -266.685 -1664 41 41 41
-284.327 -266.142 -1661 43 43 41
-279.384 -264.638 -1652 48 48 46
-273.144 -261.855 -1635 49 49 47
-266.812 -258.913 -1617 46 46 44
-261.696 -257.094 -1606 47 47 45
-257.432 -256.077 -1600 50 50 48
-253.354 -255.221 -1595 52 52 50
-249.769 -254.846 -1593 53 53 49
-246.349 -254.632 -1592 52 52 49
-243.24 -254.739 -1593 50 50 48
-239.829 -254.526 -1592 50 50 48
-236.869 -254.794 -1594 51 51 49
-234.049 -255.222 -1597 50 50 48
-231.219 -255.651 -1600 50 50 48
-228.664 -256.4 -1605 51 51 49
-226.23 -257.309 -1611 51 51 49
-223.498 -257.898 -1615 51 50 48
-220.75 -258.489 -1619 51 49 47
-217.72 -258.761 -1621 49 49 47
-214.948 -259.352 -1625 48 48 46
-212.161 -259.944 -1629 47 47 45
-209.36 -260.536 -1633 46 46 46
-206.545 -261.129 -1637 47 47 47
-203.59 -261.564 -1640 47 47 47
-200.503 -261.839 -1642 44 44 44
-197.53 -262.274 -1645 43 43 43
-194.428 -262.55 -1647 45 45 45
-191.436 -262.987 -1650 45 45 45
-188.319 -263.264 -1652 45 45 45
-185.083 -263.383 -1653 46 46 46
-181.955 -263.662 -1655 46 46 46
-178.821 -263.942 -1657 45 45 45
-175.573 -264.063 -1658 45 45 45
-172.531 -264.503 -1661 43 43 43
-169.377 -264.784 -1663 43 43 43
-166.116 -264.907 -1664 45 45 45
-162.95 -265.19 -1666 43 43 43
-159.681 -265.314 -1667 41 41 40
-156.316 -265.28 -1667 42 42 40
-153.136 -265.565 -1669 43 43 41
-149.949 -265.851 -1671 42 42 41
-146.843 -266.296 -1674 42 42 42
-143.64 -266.583 -1676 41 41 40
-140.514 -267.029 -1679 37 37 35
-137.295 -267.317 -1681 34 34 34
-134.07 -267.606 -1683 33 33 33
-130.76 -267.736 -1684 30 30 30
-127.522 -268.027 -1686 28 28 28
-124.131 -268 -1686 26 26 26
-120.669 -267.814 -1685 21 21 23
-117.072 -267.312 -1682 24 24 26
-113.286 -266.334 -1676 35 35 37
-109.394 -265.038 -1668 43 43 45
-105.534 -263.744 -1660 46 46 48
-101.646 -262.292 -1651 40 42 42
-97.9147 -261.159 -1644 43 44 44
-94.3268 -260.344 -1639 46 46 46
-90.7044 -259.371 -1633 44 46 46
-87.2674 -258.875 -1630 45 47 47
-83.74 -258.063 -1625 46 48 48
-80.3325 -257.569 -1622 46 48 48
-77.0326 -257.393 -1621 46 48 48
-73.6464 -256.9 -1618 47 49 49
-70.3163 -256.567 -1616 48 51 50
-67.0364 -256.394 -1615 47 51 50
-63.8004 -256.38 -1615 47 50 50
-60.565 -256.366 -1615 48 50 50
-57.4365 -256.83 -1618 46 48 48
-54.2965 -257.294 -1621 47 48 48
-51.1135 -257.6 -1623 49 49 49
-47.8934 -257.748 -1624 48 50 50
-44.6697 -257.897 -1625 47 49 49
-41.4677 -258.205 -1627 45 47 47
-38.2581 -258.514 -1629 46 47 47
-35.0194 -258.665 -1630 48 48 48
-31.7769 -258.817 -1631 47 47 47
-28.5656 -259.286 -1634 47 47 47
-25.3116 -259.439 -1635 47 47 47
-22.0404 -259.434 -1635 47 47 47
-18.7808 -259.588 -1636 48 48 48
-15.5078 -259.585 -1636 49 49 49
-12.235 -259.582 -1636 50 50 50
-8.96781 -259.738 -1637 49 49 49
-5.69322 -259.737 -1637 48 48 46
-2.4172 -259.577 -1636 49 49 47
0.855518 -259.577 -1636 50 50 50
4.123 -259.26 -1634 51 51 52
7.37799 -258.785 -1631 52 52 54
10.6406 -258.787 -1631 52 52 52
13.8865 -258.473 -1629 52 52 52
17.1242 -258.159 -1627 52 52 52
20.3666 -258.004 -1626 50 50 50
23.62 -258.009 -1626 51 51 51
26.8567 -257.856 -1625 51 51 51
30.0899 -257.703 -1624 51 51 51
33.3602 -257.869 -1625 51 51 51
36.5671 -257.559 -1623 52 52 52
39.7665 -257.249 -1621 53 53 53
42.9583 -256.941 -1619 52 52 52
46.1136 -256.474 -1616 52 52 52
49.288 -256.167 -1614 54 54 54
52.5199 -256.178 -1614 54 54 54
55.7522 -256.19 -1614 51 52 52
59.0214 -256.361 -1615 51 53 53
62.2952 -256.533 -1616 53 55 55
65.5328 -256.546 -1616 53 56 54
68.8136 -256.72 -1617 52 55 52
72.188 -257.211 -1620 52 55 52
75.9012 -258.815 -1630 54 56 53
80.0434 -261.69 -1648 55 55 53
-339.965 -276.543 -1698 50 54 57
-334.448 -274.839 -1688 47 47 48
-329.76 -273.788 -1682 50 48 47
-325.877 -273.389 -1680 48 50 50
-322.387 -273.317 -1680 46 48 48
-318.901 -273.246 -1680 46 48 48
-315.23 -273.012 -1679 48 48 48
-311.194 -272.455 -1676 46 46 46
-307.173 -271.898 -1673 45 45 45
-303.167 -271.343 -1670 44 44 44
-299.715 -271.276 -1670 42 42 42
-295.91 -270.885 -1668 42 42 42
-292.116 -270.495 -1666 43 43 43
-288.16 -269.943 -1663 41 41 41
-283.876 -269.069 -1658 43 43 41
-278.431 -267.059 -1646 47 47 45
-273.037 -265.051 -1634 48 48 46
-267.2 -262.558 -1619 46 46 44
-261.754 -260.392 -1606 46 46 44
-257.489 -259.362 -1600 49 49 47
-253.569 -258.657 -1596 51 51 48
-249.51 -257.791 -1591 51 51 47
-246.558 -258.06 -1593 50 50 47
-242.988 -257.682 -1591 50 50 48
-239.73 -257.629 -1591 50 50 48
-236.623 -257.738 -1592 50 50 48
-233.807 -258.172 -1595 50 50 48
-231.125 -258.768 -1599 50 50 48
-228.429 -259.365 -1603 51 51 49
-225.999 -260.285 -1609 49 49 47
-223.547 -261.206 -1615 50 49 47
-220.799 -261.804 -1619 51 49 47
-218.036 -262.403 -1623 49 49 47
-215.127 -262.84 -1626 48 48 46
-212.338 -263.439 -1630 46 46 44
-209.278 -263.716 -1632 46 46 45
-206.463 -264.317 -1636 48 47 47
-203.635 -264.918 -1640 46 46 46
-200.791 -265.52 -1644 45 45 45
-197.693 -265.799 -1646 45 45 45
-194.589 -266.079 -1648 47 47 47
-191.71 -266.682 -1652 45 45 45
-188.474 -266.802 -1653 45 45 45
-185.012 -266.6 -1652 46 46 46
-181.885 -266.882 -1654 46 46 46
-178.644 -267.004 -1655 45 45 45
-175.506 -267.288 -1657 44 44 44
-172.465 -267.734 -1660 45 45 45
-169.312 -268.019 -1662 44 44 44
-166.152 -268.304 -1664 44 44 44
-162.887 -268.43 -1665 43 43 43
-159.716 -268.717 -1667 42 42 41
-156.444 -268.843 -1668 44 44 42
-153.353 -269.293 -1671 43 43 41
-150.071 -269.421 -1672 42 42 40
-146.962 -269.872 -1675 42 42 42
-143.757 -270.162 -1677 40 40 39
-140.628 -270.615 -1680 36 36 34
-137.325 -270.745 -1681 33 33 33
-134.019 -270.877 -1682 33 33 33
-130.711 -271.009 -1683 31 31 31
-127.399 -271.142 -1684 28 28 28
-124.01 -271.114 -1684 26 26 26
-120.623 -271.088 -1684 22 22 24
-117.028 -270.579 -1681 25 25 27
-113.378 -269.91 -1677 36 36 38
-109.548 -268.759 -1670 42 42 44
-105.684 -267.448 -1662 45 45 47
-101.792 -265.977 -1653 41 43 43
-97.9359 -264.507 -1644 43 44 44
-94.2898 -263.521 -1638 46 46 46
-90.6684 -262.536 -1632 45 47 47
-87.2863 -262.195 -1630 46 48 48
-83.7581 -261.372 -1625 45 47 47
-80.4489 -261.193 -1624 46 48 48
-77.0018 -260.533 -1620 46 48 48
-73.7079 -260.355 -1619 49 51 51
-70.3315 -259.857 -1616 47 50 49
-67.0508 -259.682 -1615 45 49 48
-63.8141 -259.667 -1615 46 49 48
-60.6156 -259.815 -1616 47 49 49
-57.4844 -260.284 -1619 46 48 48
-54.3083 -260.593 -1621 47 48 48
-51.1245 -260.904 -1623 48 48 48
-47.9038 -261.053 -1624 47 49 49
-44.7068 -261.365 -1626 45 47 47
-41.4766 -261.516 -1627 44 46 46
-38.2899 -261.99 -1630 47 48 48
-35.0485 -262.143 -1631 47 47 47
-31.8227 -262.457 -1633 47 47 47
-28.5718 -262.611 -1634 47 47 47
-25.3171 -262.766 -1635 47 47 47
-22.0316 -262.6 -1634 47 47 47
-18.7733 -262.756 -1635 48 48 48
-15.5018 -262.752 -1635 50 50 50
-12.2302 -262.75 -1635 51 51 51
-8.96419 -262.908 -1636 51 51 51
-5.69092 -262.906 -1636 49 49 47
-2.41622 -262.745 -1635 50 50 49
0.855188 -262.745 -1635 51 51 51
4.1264 -262.745 -1635 50 50 52
7.38407 -262.264 -1632 50 50 52
10.6496 -262.266 -1632 53 53 53
13.9064 -262.108 -1631 52 52 52
17.1491 -261.79 -1629 52 52 52
20.3711 -261.312 -1626 50 50 50
23.6251 -261.317 -1626 50 50 50
26.8791 -261.323 -1626 50 50 50
30.0964 -261.007 -1624 52 51 51
33.3468 -261.014 -1624 52 52 52
36.5752 -260.861 -1623 52 52 52
39.7505 -260.387 -1620 53 53 53
42.9409 -260.075 -1618 53 53 53
46.1522 -259.924 -1617 53 53 53
49.2987 -259.452 -1614 53 53 53
52.4987 -259.302 -1613 52 52 52
55.7296 -259.314 -1613 50 52 52
58.961 -259.327 -1613 51 53 53
62.2315 -259.501 -1614 54 56 55
65.4658 -259.514 -1614 52 54 52
68.786 -259.851 -1616 51 53 51
72.2483 -260.67 -1621 52 55 53
75.9176 -262.133 -1630 52 54 52
80.1093 -265.206 -1649 56 57 55
-340.241 -280.213 -1699 50 54 57
-334.523 -278.322 -1688 48 48 48
-329.835 -277.258 -1682 49 47 45
-325.756 -276.69 -1679 48 50 50
-322.268 -276.616 -1679 47 49 49
-318.593 -276.379 -1678 47 49 49
-315.113 -276.308 -1678 48 48 48
-311.449 -276.073 -1677 46 46 46
-307.242 -275.344 -1673 46 46 46
-303.598 -275.111 -1672 46 46 46
-299.782 -274.714 -1670 43 43 43
-295.621 -273.989 -1666 44 44 44
-292.006 -273.759 -1665 43 43 43
-288.224 -273.365 -1663 42 42 42
-283.768 -272.314 -1657 43 43 42
-278.662 -270.608 -1647 46 46 44
-272.597 -267.917 -1631 46 46 44
-266.6 -265.229 -1615 45 45 43
-261.975 -263.856 -1607 46 46 44
-257.385 -262.484 -1599 48 48 46
-253.625 -261.935 -1596 49 49 47
-249.879 -261.386 -1593 49 49 45
-246.458 -261.166 -1592 49 49 47
-242.89 -260.783 -1590 49 49 47
-239.784 -260.893 -1591 49 49 47
-236.527 -260.84 -1591 50 50 48
-233.859 -261.443 -1595 50 50 48
-231.176 -262.047 -1599 49 49 47
-228.479 -262.651 -1603 49 49 47
-226.049 -263.583 -1609 47 47 45
-223.596 -264.516 -1615 48 47 45
-220.848 -265.121 -1619 50 49 47
-217.95 -265.564 -1622 49 48 46
-215.043 -266.007 -1625 48 48 46
-212.255 -266.614 -1629 47 47 45
-209.452 -267.221 -1633 47 46 45
-206.635 -267.83 -1637 48 45 46
-203.928 -268.602 -1642 45 45 45
-200.958 -269.048 -1645 45 45 45
-197.737 -269.167 -1646 44 44 44
-194.632 -269.45 -1648 46 46 46
-191.52 -269.734 -1650 46 46 46
-188.173 -269.692 -1650 46 46 46
-184.94 -269.814 -1651 47 47 47
-181.925 -270.263 -1654 47 47 47
-178.683 -270.387 -1655 46 46 46
-175.65 -270.838 -1658 45 45 45
-172.503 -271.126 -1660 44 44 44
-169.349 -271.414 -1662 44 44 44
-166.288 -271.867 -1665 44 44 44
-163.021 -271.994 -1666 44 44 44
-159.847 -272.285 -1668 44 44 43
-156.478 -272.249 -1668 45 45 43
-153.386 -272.705 -1671 44 44 42
-150.014 -272.671 -1671 43 43 41
-146.819 -272.965 -1673 40 40 40
-143.617 -273.259 -1675 38 38 37
-140.492 -273.717 -1678 37 37 35
-137.192 -273.849 -1679 34 34 34
-133.969 -274.145 -1681 33 33 33
-130.739 -274.442 -1683 31 31 31
-127.502 -274.74 -1685 29 29 29
-124.111 -274.712 -1685 26 26 26
-120.65 -274.522 -1684 22 22 24
-117.054 -274.007 -1681 26 26 28
-113.403 -273.329 -1677 37 37 39
-109.507 -272.001 -1669 42 42 44
-105.58 -270.51 -1660 44 44 46
-101.752 -269.184 -1652 41 43 43
-97.9573 -267.859 -1644 43 44 44
-94.2529 -266.697 -1637 45 45 45
-90.6884 -265.862 -1632 46 47 47
-87.2518 -265.353 -1629 45 47 47
-83.8281 -264.846 -1626 44 47 46
-80.417 -264.339 -1623 45 47 47
-77.1137 -264.159 -1622 46 48 48
-73.724 -263.654 -1619 49 51 51
-70.4339 -263.475 -1618 46 49 48
-67.1485 -263.297 -1617 45 48 47
-63.8677 -263.12 -1616 46 48 48
-60.7038 -263.432 -1618 46 48 48
-57.5326 -263.744 -1620 47 49 49
-54.3202 -263.895 -1621 49 50 50
-51.1357 -264.209 -1623 49 49 49
-47.9732 -264.686 -1626 45 48 47
-44.744 -264.839 -1627 43 46 45
-41.5112 -264.992 -1628 45 47 47
-38.2983 -265.309 -1630 47 48 48
-35.0776 -265.626 -1632 47 48 48
-31.8297 -265.782 -1633 47 48 48
-28.578 -265.938 -1634 47 48 48
-25.3227 -266.095 -1635 47 47 47
-22.05 -266.089 -1635 47 47 47
-18.7775 -266.085 -1635 48 48 48
-15.4957 -265.919 -1634 50 50 50
-12.2328 -266.078 -1635 51 51 51
-8.95531 -265.913 -1634 51 51 51
-5.68863 -266.074 -1635 50 50 48
-2.41671 -266.073 -1635 50 50 48
0.85486 -265.91 -1634 51 51 49
4.12224 -265.748 -1633 52 52 52
7.38132 -265.424 -1631 51 51 51
10.6453 -265.426 -1631 50 50 50
13.8925 -265.103 -1629 50 50 50
17.1422 -264.944 -1628 51 51 51
20.3882 -264.786 -1627 51 51 51
23.6446 -264.79 -1627 50 50 50
26.885 -264.633 -1626 50 50 50
30.1215 -264.477 -1625 52 50 51
33.3541 -264.321 -1624 54 52 53
36.5831 -264.166 -1623 54 54 54
39.8084 -264.012 -1622 53 53 53
42.9769 -263.532 -1619 53 53 53
46.1623 -263.217 -1617 54 54 54
49.3095 -262.739 -1614 53 53 53
52.4776 -262.425 -1612 52 52 52
55.6727 -262.274 -1611 50 52 52
58.8642 -262.123 -1610 50 52 52
62.2065 -262.625 -1613 52 55 53
65.5208 -262.965 -1615 51 52 50
68.8435 -263.305 -1617 52 52 50
72.2641 -263.972 -1621 53 55 55
75.8877 -265.292 -1629 53 55 54
80.0783 -268.403 -1648 57 59 56
-339.518 -283.054 -1695 48 49 52
-334.401 -281.641 -1687 47 47 49
-330.106 -280.897 -1683 49 49 49
-326.218 -280.489 -1681 47 49 49
-322.725 -280.414 -1681 51 53 53
-319.235 -280.341 -1681 50 52 53
-315.56 -280.102 -1680 48 49 49
-311.706 -279.697 -1678 46 47 47
-307.679 -279.126 -1675 45 47 47
-303.667 -278.556 -1672 44 45 45
-299.85 -278.154 -1670 44 44 44
-296.043 -277.753 -1668 47 47 47
-292.423 -277.52 -1667 45 45 44
-288.463 -276.954 -1664 45 45 43
-283.832 -275.724 -1657 43 43 41
-278.556 -273.83 -1646 43 43 41
-272.826 -271.439 -1632 46 46 46
-266.825 -268.716 -1616 47 47 46
-262.197 -267.326 -1608 48 48 46
-257.443 -265.771 -1599 48 48 46
-253.841 -265.381 -1597 48 48 46
-250.093 -264.825 -1594 48 48 46
-246.668 -264.603 -1593 49 49 47
-243.25 -264.381 -1592 48 48 46
-239.988 -264.326 -1592 51 51 49
-236.729 -264.272 -1592 52 52 50
-234.058 -264.883 -1596 51 51 49
-231.228 -265.328 -1599 49 49 47
-228.531 -265.94 -1603 48 48 46
-226.1 -266.884 -1609 47 47 45
-223.785 -267.994 -1616 47 47 45
-220.624 -268.109 -1617 48 47 45
-218.134 -269.055 -1623 49 48 46
-215.223 -269.503 -1626 49 48 46
-212.302 -269.952 -1629 47 47 45
-209.243 -270.236 -1631 47 47 45
-206.429 -270.852 -1635 46 46 44
-203.725 -271.634 -1640 45 45 45
-200.881 -272.251 -1644 44 44 44
-198.021 -272.868 -1648 45 45 45
-194.793 -272.989 -1649 46 46 46
-191.795 -273.442 -1652 47 47 47
-188.557 -273.565 -1653 46 46 46
-185.206 -273.523 -1653 45 45 45
-181.966 -273.647 -1654 44 44 44
-178.831 -273.937 -1656 43 43 43
-175.583 -274.063 -1657 43 43 43
-172.334 -274.189 -1658 45 45 45
-169.183 -274.482 -1660 46 46 46
-166.026 -274.775 -1662 45 45 45
-162.764 -274.903 -1663 43 43 43
-159.499 -275.032 -1664 44 44 44
-156.325 -275.327 -1666 45 45 43
-153.329 -275.954 -1670 44 44 42
-149.868 -275.754 -1669 42 42 40
-146.676 -276.052 -1671 41 41 41
-143.477 -276.35 -1673 41 40 39
-140.439 -276.978 -1677 40 39 37
-137.141 -277.113 -1678 36 36 35
-134.079 -277.743 -1682 32 32 33
-130.846 -278.043 -1684 30 30 31
-127.531 -278.179 -1685 27 27 27
-124.139 -278.151 -1685 25 25 25
-120.748 -278.124 -1685 22 22 24
-117.08 -277.437 -1681 25 25 27
-113.361 -276.586 -1676 36 36 38
-109.531 -275.406 -1669 38 38 40
-105.731 -274.227 -1662 41 41 43
-101.775 -272.554 -1652 38 40 40
-98.0983 -271.542 -1646 41 42 42
-94.3314 -270.2 -1638 45 45 45
-90.764 -269.355 -1633 45 47 47
-87.4319 -269.17 -1632 44 46 46
-83.8982 -268.326 -1627 43 47 46
-80.4843 -267.813 -1624 45 47 47
-77.1308 -267.466 -1622 46 48 48
-73.7858 -267.119 -1620 47 49 49
-70.4496 -266.773 -1618 46 48 48
-67.1634 -266.593 -1617 46 48 48
-63.9609 -266.743 -1618 47 49 49
-60.7173 -266.73 -1618 47 49 49
-57.5808 -267.211 -1621 46 48 48
-54.3322 -267.198 -1621 48 49 49
-51.1155 -267.351 -1622 49 49 49
-47.9248 -267.67 -1624 44 48 47
-44.699 -267.825 -1625 42 46 45
-41.495 -268.145 -1627 43 45 45
-38.3068 -268.63 -1630 45 47 47
-35.0639 -268.787 -1631 47 49 49
-31.8367 -269.109 -1633 45 47 47
-28.5844 -269.267 -1634 47 48 48
-25.3283 -269.426 -1635 47 47 47
-22.0414 -269.256 -1634 46 46 46
-18.7816 -269.416 -1635 47 47 47
-15.4991 -269.247 -1634 49 49 49
-12.2356 -269.409 -1635 50 50 50
-8.95721 -269.242 -1634 51 51 51
-5.67959 -268.911 -1632 50 50 48
-2.41426 -269.075 -1633 49 49 47
0.85401 -268.91 -1632 50 50 48
4.12061 -268.91 -1632 51 51 51
7.38292 -268.747 -1631 50 50 50
10.6478 -268.749 -1631 48 48 48
13.8955 -268.422 -1629 49 49 49
17.1461 -268.261 -1628 51 51 51
20.3802 -267.935 -1626 52 52 52
23.6499 -268.105 -1627 51 51 51
26.8579 -267.616 -1624 51 51 51
30.0911 -267.458 -1623 54 52 52
33.3411 -267.465 -1623 56 53 54
36.5462 -267.143 -1621 54 54 54
39.7437 -266.822 -1619 53 53 53
42.9598 -266.667 -1618 53 53 53
46.1726 -266.512 -1617 53 53 53
49.3205 -266.028 -1614 53 53 53
52.5218 -265.874 -1613 53 53 53
55.7542 -265.887 -1613 54 55 55
58.9504 -265.734 -1612 53 55 55
62.2975 -266.243 -1615 53 56 53
65.6164 -266.587 -1617 53 54 52
68.9014 -266.767 -1618 53 53 51
72.2802 -267.277 -1621 53 55 55
75.9045 -268.613 -1629 54 57 56
79.999 -271.433 -1646 56 59 56
84.7696 -276.234 -1675 55 59 60
-339.796 -286.727 -1696 50 50 52
-334.28 -284.958 -1686 47 47 49
-329.986 -284.205 -1682 45 45 47
-326.099 -283.791 -1680 46 48 48
-322.415 -283.547 -1679 49 51 51
-318.928 -283.473 -1679 47 49 51
-315.069 -283.062 -1677 44 46 47
-311.592 -282.99 -1677 45 47 47
-307.566 -282.412 -1674 45 47 47
-303.555 -281.835 -1671 44 45 45
-299.739 -281.428 -1669 45 45 45
-295.934 -281.022 -1667 44 44 44
-292.315 -280.786 -1666 42 42 42
-288.182 -280.045 -1662 42 42 40
-284.24 -279.474 -1659 43 43 41
-278.281 -276.882 -1644 44 44 42
-273.055 -274.966 -1633 46 46 46
-267.381 -272.547 -1619 47 47 45
-261.605 -269.961 -1604 47 47 45
-257.663 -269.229 -1600 48 48 46
-253.899 -268.665 -1597 49 49 47
-250.307 -268.271 -1595 49 49 47
-247.034 -268.214 -1595 50 50 48
-243.611 -267.989 -1594 52 52 50
-240.043 -267.597 -1592 52 52 50
-236.932 -267.711 -1593 51 51 49
-234.111 -268.161 -1596 50 50 48
-230.992 -268.276 -1597 49 49 47
-228.583 -269.231 -1603 48 48 46
-226.011 -270.018 -1608 48 48 46
-223.42 -270.807 -1613 48 48 46
-220.538 -271.259 -1616 47 47 45
-218.049 -272.216 -1622 49 47 45
-215.007 -272.503 -1624 50 48 46
-212.22 -273.125 -1628 47 47 45
-209.418 -273.748 -1632 46 46 44
-206.602 -274.371 -1636 44 44 42
-203.772 -274.995 -1640 46 46 45
-200.926 -275.619 -1644 45 45 45
-197.946 -276.077 -1647 45 45 45
-194.601 -276.032 -1647 46 46 46
-191.49 -276.323 -1649 46 46 46
-188.486 -276.783 -1652 45 45 45
-185.248 -276.908 -1653 43 43 43
-182.227 -277.368 -1656 43 43 43
-179.087 -277.662 -1658 44 44 44
-175.941 -277.957 -1660 43 43 43
-172.477 -277.75 -1659 45 45 45
-169.323 -278.045 -1661 46 46 46
-165.963 -278.007 -1661 45 45 45
-162.8 -278.305 -1663 43 43 43
-159.631 -278.603 -1665 44 44 43
-156.361 -278.734 -1666 44 44 42
-153.271 -279.201 -1669 43 43 41
-149.902 -279.166 -1669 41 41 39
-146.709 -279.467 -1671 40 40 40
-143.596 -279.936 -1674 40 39 39
-140.471 -280.405 -1677 37 35 34
-137.172 -280.541 -1678 34 33 33
-134.029 -281.012 -1681 31 31 32
-130.876 -281.483 -1684 28 28 30
-127.635 -281.788 -1686 27 27 27
-124.314 -281.927 -1687 25 25 25
-120.919 -281.899 -1687 24 24 26
-117.176 -281.037 -1682 26 26 28
-113.386 -280.008 -1676 36 36 38
-109.425 -278.479 -1667 39 39 41
-105.437 -276.785 -1657 42 42 44
-101.613 -275.425 -1649 39 41 41
-98.0011 -274.567 -1644 42 43 43
-94.295 -273.376 -1637 45 45 45
-90.8956 -273.021 -1635 45 47 47
-87.398 -272.333 -1631 44 46 46
-84.0202 -271.98 -1629 44 47 46
-80.6016 -271.461 -1626 45 47 47
-77.2433 -271.109 -1624 45 47 47
-73.8025 -270.424 -1620 46 48 48
-70.5525 -270.408 -1620 46 48 48
-67.22 -270.058 -1618 46 48 48
-64.0147 -270.21 -1619 46 48 48
-60.7684 -270.196 -1619 47 49 49
-57.5937 -270.517 -1621 47 49 49
-54.3779 -270.671 -1622 48 49 49
-51.1585 -270.826 -1623 48 48 48
-47.9356 -270.982 -1624 43 46 45
-44.7089 -271.138 -1625 43 46 45
-41.4787 -271.295 -1626 44 46 46
-38.2918 -271.787 -1629 45 47 47
-35.0717 -272.112 -1631 46 48 48
-31.8244 -272.271 -1632 45 47 47
-28.5733 -272.431 -1633 45 47 47
-25.3184 -272.592 -1634 45 45 45
-22.0463 -272.587 -1634 46 46 46
-18.7744 -272.582 -1634 49 49 49
-15.5025 -272.578 -1634 49 49 49
-12.2308 -272.575 -1634 49 49 49
-8.95365 -272.406 -1633 50 50 50
-5.68429 -272.404 -1633 48 48 46
-2.41181 -272.07 -1631 48 48 46
0.853163 -271.903 -1630 50 50 48
4.11899 -272.07 -1631 51 51 51
7.37548 -271.738 -1629 50 50 50
10.6436 -271.907 -1630 49 49 49
13.8987 -271.743 -1629 49 49 49
17.15 -271.579 -1628 52 52 52
20.3721 -271.083 -1625 52 52 52
23.6262 -271.088 -1625 53 53 53
26.8473 -270.76 -1623 54 54 54
30.0607 -270.433 -1621 56 53 54
33.3074 -270.44 -1621 57 54 55
36.5544 -270.448 -1621 53 53 53
39.7525 -270.123 -1619 52 52 52
42.9429 -269.799 -1617 52 52 52
46.1543 -269.642 -1616 53 53 53
49.301 -269.152 -1613 54 54 54
52.4685 -268.83 -1611 56 56 56
55.6975 -268.842 -1611 56 57 57
58.9637 -269.022 -1612 56 58 57
62.273 -269.37 -1614 55 58 55
65.6718 -270.052 -1618 54 55 53
68.9596 -270.234 -1619 54 54 52
72.3856 -270.918 -1623 52 54 53
75.9682 -272.103 -1630 51 54 52
79.9197 -274.458 -1644 54 57 54
-340.276 -290.577 -1698 51 51 53
-334.358 -288.445 -1686 48 48 50
-329.67 -287.34 -1680 44 44 46
-325.981 -287.093 -1679 47 49 49
-322.49 -287.017 -1679 47 49 49
-318.433 -286.429 -1676 44 46 48
-315.142 -286.525 -1677 43 45 46
-311.292 -286.11 -1675 45 47 47
-307.27 -285.526 -1672 45 47 47
-303.444 -285.113 -1670 45 46 46
-299.988 -285.042 -1670 44 44 44
-296.002 -284.46 -1667 42 42 42
-292.383 -284.221 -1666 42 42 42
-288.422 -283.642 -1663 42 42 40
-284.477 -283.063 -1660 42 42 40
-279.361 -281.292 -1650 43 43 41
-273.453 -278.671 -1635 46 46 44
-267.278 -275.711 -1618 46 46 44
-262.481 -274.116 -1609 47 47 45
-258.045 -272.863 -1602 49 49 47
-253.958 -271.952 -1597 49 49 47
-250.521 -271.723 -1596 49 49 47
-247.091 -271.495 -1595 50 50 48
-243.667 -271.267 -1594 53 53 51
-240.249 -271.041 -1593 52 52 50
-236.986 -270.985 -1593 51 51 49
-234.312 -271.611 -1597 50 50 48
-231.334 -271.897 -1599 50 50 48
-228.778 -272.694 -1604 50 50 48
-225.922 -273.151 -1607 49 49 47
-223.471 -274.119 -1613 49 49 47
-220.316 -274.238 -1614 48 48 46
-217.83 -275.206 -1620 50 48 46
-214.924 -275.666 -1623 50 48 46
-212.269 -276.465 -1628 49 49 47
-209.21 -276.756 -1630 47 47 45
-206.65 -277.727 -1636 45 45 43
-203.694 -278.189 -1639 45 45 43
-200.728 -278.651 -1642 46 46 44
-197.871 -279.284 -1646 45 45 45
-194.764 -279.578 -1648 46 46 46
-191.65 -279.872 -1650 46 46 46
-188.529 -280.168 -1652 44 44 44
-185.514 -280.633 -1655 44 44 44
-182.379 -280.93 -1657 44 44 44
-179.344 -281.397 -1660 44 44 44
-176.193 -281.695 -1662 43 43 43
-172.724 -281.485 -1661 45 45 45
-169.566 -281.785 -1663 45 45 45
-166.201 -281.746 -1663 43 43 43
-162.936 -281.878 -1664 43 43 43
-159.667 -282.01 -1665 43 43 42
-156.49 -282.312 -1667 43 43 41
-153.307 -282.616 -1669 41 41 39
-150.026 -282.75 -1670 40 40 38
-146.743 -282.885 -1671 41 41 41
-143.543 -283.19 -1673 40 39 39
-140.419 -283.666 -1676 36 33 34
-137.203 -283.972 -1678 32 32 32
-134.139 -284.618 -1682 32 32 33
-130.983 -285.095 -1685 28 28 30
-127.664 -285.235 -1686 27 27 27
-124.343 -285.375 -1687 26 26 26
-120.874 -285.177 -1686 25 25 27
-117.133 -284.305 -1681 26 26 28
-113.344 -283.263 -1675 37 37 39
-109.449 -281.885 -1667 40 40 42
-105.524 -280.339 -1658 43 43 45
-101.698 -278.962 -1650 41 43 43
-98.0831 -278.094 -1645 43 44 44
-94.4316 -277.058 -1639 45 45 45
-90.9163 -276.36 -1635 45 47 47
-87.5251 -276.002 -1633 45 47 47
-84.1425 -275.644 -1631 45 47 47
-80.6695 -274.949 -1627 45 47 47
-77.2132 -274.255 -1623 44 46 46
-73.7736 -273.562 -1619 46 48 48
-70.525 -273.546 -1619 46 48 48
-67.2353 -273.361 -1618 46 48 48
-64.0293 -273.515 -1619 45 47 47
-60.8573 -273.838 -1621 45 47 47
-57.7134 -274.332 -1624 47 49 49
-54.4238 -274.15 -1623 48 49 49
-51.1702 -274.138 -1623 48 48 48
-47.976 -274.464 -1625 44 46 46
-44.7191 -274.454 -1625 43 45 45
-41.5136 -274.782 -1627 44 46 46
-38.324 -275.279 -1630 45 47 47
-35.1012 -275.609 -1632 44 46 46
-31.8706 -275.939 -1634 45 47 47
-28.5798 -275.763 -1633 44 46 46
-25.3242 -275.926 -1634 45 46 46
-22.0513 -275.92 -1634 47 47 47
-18.7901 -276.084 -1635 48 48 48
-15.5155 -276.081 -1635 48 48 48
-12.2486 -276.246 -1636 49 49 49
-8.9558 -275.737 -1633 50 50 50
-5.67856 -275.398 -1631 49 49 47
-2.41085 -275.228 -1630 48 48 46
0.853364 -275.228 -1630 50 50 48
4.11758 -275.228 -1630 51 51 51
7.38183 -275.23 -1630 50 50 50
10.6525 -275.401 -1631 51 51 51
13.9018 -275.066 -1629 52 52 52
17.1643 -275.069 -1629 53 53 53
20.3893 -274.567 -1626 53 53 53
23.6316 -274.403 -1625 55 55 55
26.87 -274.24 -1624 56 56 56
30.0861 -273.909 -1622 56 53 54
33.2944 -273.579 -1620 56 54 55
36.5402 -273.587 -1620 53 53 53
39.7616 -273.427 -1619 51 51 51
42.9528 -273.098 -1617 51 51 51
46.1933 -273.108 -1617 54 54 54
49.3428 -272.613 -1614 54 54 54
52.513 -272.287 -1612 54 54 54
55.7103 -272.13 -1611 51 53 53
58.9771 -272.312 -1612 52 54 54
62.2485 -272.495 -1613 54 57 54
65.6868 -273.354 -1618 54 55 52
68.9753 -273.539 -1619 53 53 51
72.4021 -274.231 -1623 50 53 50
75.9854 -275.43 -1630 49 52 49
80.0839 -278.321 -1647 54 57 54
-340.357 -294.092 -1698 49 49 51
-334.635 -292.107 -1687 46 46 48
-329.944 -290.989 -1681 43 43 45
-326.058 -290.565 -1679 46 48 48
-322.374 -290.315 -1678 45 47 48
-318.318 -289.72 -1675 44 46 48
-314.652 -289.472 -1674 43 45 46
-310.994 -289.225 -1673 43 45 45
-307.158 -288.806 -1671 43 45 45
-303.334 -288.388 -1669 46 47 47
-300.059 -288.49 -1670 44 44 44
-296.25 -288.074 -1668 43 43 42
-292.451 -287.658 -1666 42 42 41
-288.316 -286.899 -1662 42 42 40
-284.372 -286.314 -1659 40 40 38
-279.257 -284.522 -1649 42 42 40
-274.353 -282.904 -1640 46 46 44
-267.837 -279.563 -1621 46 46 44
-262.379 -277.258 -1608 48 48 46
-257.944 -275.99 -1601 49 49 47
-254.017 -275.24 -1597 49 49 47
-250.58 -275.009 -1596 49 49 47
-246.994 -274.605 -1594 49 49 47
-243.724 -274.548 -1594 50 50 48
-240.456 -274.491 -1594 51 51 49
-237.19 -274.435 -1594 51 51 49
-234.367 -274.896 -1597 49 49 47
-231.533 -275.357 -1600 49 49 47
-228.831 -275.992 -1604 48 48 46
-226.115 -276.626 -1608 49 49 47
-223.662 -277.606 -1614 49 49 47
-220.504 -277.726 -1615 49 49 47
-217.881 -278.534 -1620 52 50 48
-214.974 -278.999 -1623 52 50 48
-212.449 -279.98 -1629 48 48 46
-209.515 -280.447 -1632 46 46 44
-206.698 -281.085 -1636 47 47 45
-203.741 -281.553 -1639 47 47 45
-200.897 -282.192 -1643 45 45 44
-197.797 -282.489 -1645 43 43 43
-194.573 -282.615 -1646 44 44 44
-191.578 -283.085 -1649 45 45 45
-188.687 -283.727 -1653 44 44 44
-185.557 -284.027 -1655 44 44 44
-182.531 -284.499 -1658 43 43 43
-179.602 -285.143 -1662 44 44 44
-176.234 -285.101 -1662 44 44 44
-172.868 -285.061 -1662 45 45 45
-169.605 -285.192 -1663 45 45 44
-166.14 -284.981 -1662 45 45 44
-162.973 -285.286 -1664 44 44 44
-159.8 -285.591 -1666 43 43 42
-156.714 -286.069 -1669 42 42 40
-153.342 -286.033 -1669 41 41 39
-150.241 -286.511 -1672 41 41 39
-146.952 -286.648 -1673 41 41 41
-143.747 -286.957 -1675 41 40 41
-140.619 -287.438 -1678 37 34 35
-137.317 -287.577 -1679 32 31 31
-134.17 -288.059 -1682 34 34 34
-130.936 -288.371 -1684 29 29 31
-127.618 -288.512 -1685 27 27 28
-124.445 -288.996 -1688 27 27 27
-120.974 -288.797 -1687 24 24 26
-117.229 -287.913 -1682 27 27 29
-113.303 -286.517 -1674 38 38 40
-109.409 -285.122 -1666 41 41 43
-105.421 -283.386 -1656 44 44 46
-101.66 -282.164 -1649 41 43 43
-97.9864 -281.114 -1643 43 44 44
-94.3958 -280.236 -1638 45 45 45
-90.8817 -279.53 -1634 44 46 46
-87.438 -278.996 -1631 45 47 47
-84.1103 -278.806 -1630 45 47 47
-80.5889 -277.931 -1625 44 46 46
-77.231 -277.571 -1623 45 47 47
-73.8362 -277.04 -1620 45 47 47
-70.5412 -276.853 -1619 45 47 47
-67.2924 -276.837 -1619 46 48 48
-64.0836 -276.993 -1620 44 46 46
-60.8714 -277.149 -1621 45 47 47
-57.6911 -277.477 -1623 47 49 49
-54.4364 -277.464 -1623 48 50 50
-51.1819 -277.452 -1623 48 48 48
-47.9574 -277.611 -1624 44 46 46
-44.7294 -277.772 -1625 42 44 44
-41.5232 -278.104 -1627 44 46 46
-38.3328 -278.607 -1630 47 49 49
-35.0662 -278.599 -1630 46 48 48
-31.8389 -278.933 -1632 45 47 47
-28.5514 -278.755 -1631 44 46 46
-25.3145 -279.091 -1633 45 47 47
-22.0699 -279.427 -1635 48 48 48
