ply
format ascii 1.0
comment Created by Open3D
element vertex 1411
property double x
property double y
property double z
property uchar red
property uchar green
property uchar blue
end_header
-382.519 587.747 -1660 157 113 92
-379.367 588.264 -1662 161 116 94
-375.531 587.721 -1661 161 117 94
-371.927 587.534 -1661 161 116 93
-368.77 588.056 -1663 163 117 94
-365.169 587.872 -1663 165 119 96
-360.701 586.277 -1659 161 122 95
-357.115 586.098 -1659 161 123 95
-353.105 585.214 -1657 161 124 96
-349.952 585.745 -1659 160 122 95
-346.375 585.571 -1659 160 123 96
-343.008 585.752 -1660 164 127 102
-339.436 585.582 -1660 165 129 108
-336.069 585.767 -1661 163 128 106
-332.1 584.895 -1659 162 129 105
-328.143 584.026 -1657 157 128 103
-324.589 583.864 -1657 155 128 102
-320.069 581.942 -1652 147 128 96
-315.957 580.727 -1649 179 161 123
-311.482 578.811 -1644 200 182 141
-307.593 577.953 -1642 195 183 135
-303.715 577.097 -1640 192 181 133
-300.397 577.3 -1641 187 176 130
-297.259 577.855 -1643 176 169 116
-294.294 578.764 -1646 177 171 117
-290.966 578.97 -1647 198 193 140
-287.635 579.179 -1648 192 189 134
-283.959 578.686 -1647 181 177 122
-279.608 576.79 -1642 190 185 128
-275.953 576.302 -1641 196 191 136
-272.305 575.815 -1640 196 191 136
-268.664 575.33 -1639 194 192 130
-265.353 575.55 -1640 200 198 136
-261.88 575.42 -1640 199 197 135
-258.41 575.291 -1640 193 191 131
-254.631 574.463 -1638 185 183 123
-251.323 574.689 -1639 187 185 127
-247.71 574.216 -1638 204 202 142
-244.253 574.095 -1638 206 204 144
-240.357 572.924 -1635 194 193 133
-236.766 572.457 -1634 189 188 128
-232.753 570.94 -1630 193 192 133
-228.899 569.776 -1627 205 204 148
-225.198 568.964 -1625 208 206 154
-221.645 568.504 -1624 209 207 159
-217.694 566.996 -1620 206 206 162
-213.895 565.84 -1617 206 206 163
-209.979 564.337 -1613 208 208 166
-206.211 563.185 -1610 214 215 173
-202.457 562.036 -1607 223 224 182
-198.717 560.888 -1604 230 231 189
-195.235 560.442 -1603 235 235 195
-191.759 559.997 -1602 237 237 197
-188.289 559.555 -1601 234 233 198
-184.825 559.114 -1600 228 227 190
-181.253 558.326 -1598 224 224 184
-177.913 558.238 -1598 225 225 185
-174.248 557.104 -1595 229 229 188
-170.918 557.019 -1595 230 230 188
-167.485 556.588 -1594 228 228 186
-164.057 556.157 -1593 226 226 184
-160.534 555.38 -1591 223 223 179
-157.218 555.302 -1591 220 220 174
-153.71 554.528 -1589 218 219 170
-150.212 553.756 -1587 218 218 172
-146.816 553.335 -1586 217 218 171
-143.335 552.566 -1584 217 218 170
-139.863 551.8 -1582 221 221 174
-136.574 551.732 -1582 228 228 181
-133.286 551.667 -1582 237 237 190
-129.999 551.602 -1582 238 238 193
-126.793 551.888 -1583 236 236 194
-123.351 551.13 -1581 234 234 191
-119.993 550.722 -1580 233 233 190
-116.641 550.316 -1579 235 235 192
-113.366 550.26 -1579 240 240 197
-110.161 550.554 -1580 246 246 203
-106.953 550.85 -1581 249 249 208
-103.742 551.147 -1582 251 252 212
-100.464 551.098 -1582 251 252 214
-97.1876 551.049 -1582 250 251 209
-93.9115 551.003 -1582 249 249 210
-90.579 550.61 -1581 249 248 213
-87.3066 550.567 -1581 250 250 212
-83.9818 550.177 -1580 252 252 214
-80.5087 548.744 -1576 251 251 213
-77.3469 549.402 -1578 251 250 219
-74.1305 549.713 -1579 253 252 224
-70.9106 550.026 -1580 254 253 235
-67.7728 551.037 -1583 255 254 240
-64.6233 552.049 -1586 255 253 240
-61.3846 552.367 -1587 255 254 238
-58.1787 553.033 -1589 255 254 241
-54.9306 553.354 -1590 255 253 244
-51.679 553.676 -1591 254 252 244
-48.3931 553.652 -1591 255 253 245
-45.136 553.977 -1592 255 253 246
-41.7964 553.26 -1590 255 253 242
-38.538 553.589 -1591 254 253 240
-35.2093 552.875 -1589 254 253 234
-31.9093 552.511 -1588 252 252 233
-28.6138 552.148 -1587 251 252 232
-25.3386 552.135 -1587 251 250 230
-22.0774 552.472 -1588 252 251 230
-18.7886 552.114 -1587 252 251 229
-15.5042 551.757 -1586 251 251 217
-12.2317 551.751 -1586 251 251 217
-8.95942 551.746 -1586 251 251 218
-5.68344 551.394 -1585 251 250 219
-2.4164 552.088 -1587 249 248 216
0.860699 553.827 -1592 245 244 210
4.14782 554.176 -1593 240 239 200
7.43464 554.179 -1593 236 235 194
10.7348 554.879 -1595 233 232 190
14.0434 555.581 -1597 232 232 186
17.3279 555.241 -1596 233 232 184
20.6471 555.946 -1598 235 236 184
23.9745 556.653 -1600 240 241 188
27.3277 557.709 -1603 243 244 190
30.6553 558.071 -1604 245 246 199
34.0084 558.783 -1606 246 246 201
37.3931 559.844 -1609 247 247 203
40.7655 560.559 -1611 250 248 204
44.1464 561.275 -1613 250 249 205
47.5948 562.69 -1617 251 251 209
51.0287 563.757 -1620 254 252 212
54.5088 565.175 -1624 254 251 212
57.9704 566.247 -1627 251 250 216
61.4451 567.32 -1630 243 243 205
64.8528 567.699 -1631 234 234 193
68.3491 568.775 -1634 231 231 187
71.6829 568.461 -1633 229 229 184
75.2427 569.889 -1637 226 226 178
78.8679 571.668 -1642 226 224 178
82.4645 573.1 -1646 224 222 178
86.026 574.185 -1649 219 219 178
89.6549 575.621 -1653 213 213 169
93.1323 576.014 -1654 207 206 161
96.7898 577.453 -1658 206 204 155
100.283 577.849 -1659 207 204 150
103.969 579.292 -1663 202 199 144
107.479 579.692 -1664 202 199 145
111.061 580.442 -1666 207 204 149
114.376 579.8 -1664 208 205 150
117.897 580.205 -1665 202 200 143
121.278 579.915 -1664 202 199 142
124.955 581.021 -1667 203 201 144
128.491 581.431 -1668 198 196 136
132.033 581.843 -1669 197 193 135
135.662 582.606 -1671 191 186 129
139.216 583.021 -1672 187 187 123
142.52 582.393 -1670 197 196 136
145.992 582.463 -1670 199 197 141
149.644 583.233 -1672 189 184 129
153.031 582.958 -1671 190 185 126
156.602 583.382 -1672 194 188 127
160.275 584.158 -1674 191 189 135
163.859 584.586 -1675 196 194 140
167.549 585.365 -1677 200 199 145
171.147 585.797 -1678 201 188 140
175.063 587.278 -1682 166 145 105
178.466 587.015 -1681 173 143 112
182.299 588.151 -1684 182 142 117
186.037 588.94 -1686 183 142 117
189.896 590.08 -1689 184 142 118
193.999 591.921 -1694 184 142 118
197.892 593.065 -1697 183 141 117
201.68 593.862 -1699 183 143 118
205.357 594.311 -1700 187 141 112
208.917 594.413 -1700 183 139 110
212.479 594.516 -1700 180 137 107
216.425 595.671 -1703 180 138 108
219.997 595.778 -1703 180 138 108
223.834 596.587 -1705 179 137 107
226.881 595.297 -1701 181 137 109
230.861 596.46 -1704 183 138 112
234.306 596.224 -1703 183 137 112
238.028 596.69 -1704 183 137 110
241.473 596.458 -1703 183 136 111
245.491 597.629 -1706 184 138 113
249.087 597.75 -1706 184 137 111
252.832 598.224 -1707 184 138 111
256.884 599.401 -1710 184 138 110
260.19 598.828 -1708 187 139 109
263.798 598.957 -1708 188 141 110
267.722 599.789 -1710 190 143 112
271.181 599.571 -1709 193 146 115
274.798 599.706 -1709 194 147 115
278.744 600.545 -1711 195 148 116
282.701 601.385 -1713 196 151 119
286.167 601.175 -1712 198 155 123
290.14 602.02 -1714 202 157 123
293.781 602.164 -1714 204 156 120
297.772 603.013 -1716 202 155 117
301.598 603.513 -1717 193 148 110
305.075 603.312 -1716 180 137 99
308.731 603.464 -1716 175 134 94
312.39 603.617 -1716 185 140 101
315.499 602.718 -1713 199 152 114
318.97 602.523 -1712 203 158 120
322.629 602.682 -1712 203 158 118
326.29 602.843 -1712 201 156 116
330.148 603.359 -1713 196 150 114
334.207 604.229 -1715 196 147 110
337.293 603.338 -1712 191 144 107
340.966 603.507 -1712 189 143 107
344.442 603.325 -1711 189 143 107
347.713 602.792 -1709 187 141 105
351.389 602.967 -1709 188 142 107
355.692 604.201 -1712 191 146 112
359.801 605.086 -1714 192 148 116
363.286 604.913 -1713 191 147 116
367.199 605.449 -1714 191 147 117
371.335 606.34 -1716 191 151 118
375.047 606.527 -1716 193 152 123
378.541 606.362 -1715 194 153 126
382.703 607.259 -1717 198 156 129
386.202 607.098 -1716 199 157 130
389.245 606.231 -1713 199 157 131
393.197 606.781 -1714 200 158 133
395.999 605.563 -1710 200 159 137
400.19 606.471 -1712 201 160 139
404.629 607.736 -1715 200 160 140
408.371 607.94 -1715 200 161 142
411.876 607.792 -1714 203 163 144
415.623 608 -1714 205 166 146
419.618 608.565 -1715 206 169 147
422.881 608.068 -1713 206 170 148
426.887 608.637 -1714 207 171 149
429.896 607.788 -1711 209 174 152
434.67 609.427 -1715 209 175 154
438.699 610.003 -1716 212 176 152
442.478 610.226 -1716 216 179 156
446.521 610.807 -1717 218 181 158
451.36 612.457 -1721 220 183 159
455.163 612.687 -1721 222 184 163
458.704 612.562 -1720 225 187 168
462.513 612.796 -1720 228 190 173
466.597 613.388 -1721 228 191 175
469.324 612.2 -1717 229 193 174
474.242 613.866 -1721 231 196 177
478.072 614.108 -1721 233 198 179
481.905 614.353 -1721 230 199 176
485.179 613.885 -1719 233 201 178
489.586 614.848 -1721 236 204 182
493.147 614.741 -1720 237 206 185
497.864 616.066 -1723 238 207 187
501.726 616.321 -1723 240 206 188
506.179 617.295 -1725 240 207 188
511.238 618.987 -1729 241 208 190
515.127 619.249 -1729 240 208 190
519.022 619.514 -1729 240 208 191
522.619 619.423 -1728 239 209 190
527.74 621.127 -1732 240 211 192
-792.418 610.012 -1641 96 69 90
-786.778 608.464 -1638 96 69 92
-781.163 606.921 -1635 96 70 93
-775.095 605.012 -1631 97 69 93
-767.639 601.995 -1624 96 71 95
-762.108 600.466 -1621 91 68 92
-758.003 600.053 -1621 88 65 88
-754.836 600.381 -1623 93 67 88
-752.593 601.451 -1627 97 68 91
-747.577 600.305 -1625 93 66 87
-743.495 599.9 -1625 90 64 84
-736.691 597.286 -1619 92 68 88
-731.283 595.782 -1616 92 69 88
-723.646 592.441 -1608 90 71 87
-720.981 593.156 -1611 87 71 83
-716.974 592.768 -1611 95 77 84
-712.974 592.383 -1611 101 81 88
-708.542 591.633 -1610 108 90 97
-706.748 593.09 -1615 133 119 128
-707.983 597.116 -1627 160 158 167
-707.869 600.038 -1636 171 172 181
-570.726 598.871 -1668 176 172 176
-566.875 598.577 -1668 172 164 166
-561.679 596.851 -1664 160 152 154
-557.514 596.204 -1663 143 135 138
-553.358 595.559 -1662 130 123 124
-549.543 595.275 -1662 123 115 117
-544.748 593.92 -1659 121 114 117
-539.32 591.852 -1654 120 112 112
-535.216 591.218 -1653 114 105 105
-531.443 590.945 -1653 107 96 96
-527.675 590.674 -1653 102 90 89
-524.863 591.476 -1656 100 88 87
-522.042 592.279 -1659 101 87 86
-517.339 590.943 -1656 111 90 81
-512.654 589.609 -1653 111 90 82
-509.219 589.705 -1654 113 91 82
-504.257 588.021 -1650 114 92 82
-500.834 588.121 -1651 116 91 81
-496.809 587.511 -1650 119 89 78
-493.691 587.971 -1652 117 89 75
-489.084 586.654 -1649 116 88 73
-485.968 587.117 -1651 114 86 70
-482.264 586.872 -1651 112 83 67
-479.143 587.339 -1653 110 80 64
-475.731 587.452 -1654 109 80 63
-472.604 587.922 -1656 112 75 60
-469.189 588.038 -1657 112 75 60
-466.056 588.511 -1659 115 81 66
-462.36 588.277 -1659 115 83 66
-458.669 588.044 -1659 115 83 66
-455.805 588.877 -1662 119 85 69
-451.572 587.939 -1660 121 86 68
-448.431 588.421 -1662 122 87 69
-445.286 588.903 -1664 123 89 71
-441.34 588.326 -1663 122 90 71
-437.139 587.398 -1661 119 89 70
-433.473 587.179 -1661 119 89 70
-429.294 586.256 -1659 124 90 74
-425.897 586.394 -1660 127 91 76
-421.736 585.475 -1658 126 90 73
-418.597 585.971 -1660 127 91 76
-415.453 586.468 -1662 129 93 79
-411.561 585.908 -1661 130 94 82
-408.414 586.408 -1663 132 95 84
-405.019 586.557 -1664 134 95 84
-402.105 587.413 -1667 135 96 85
-397.748 586.156 -1664 134 96 83
-394.118 585.959 -1664 134 97 82
-390.491 585.763 -1664 137 100 85
-386.404 584.865 -1662 136 98 83
-382.559 584.322 -1661 140 99 84
-380.547 586.594 -1668 143 102 87
-375.796 584.648 -1663 142 102 87
-373.309 586.219 -1668 143 102 86
-368.586 584.278 -1663 144 103 87
-365.645 585.149 -1666 145 104 88
-361.391 583.915 -1663 143 106 86
-357.797 583.737 -1663 142 107 86
-354.208 583.56 -1663 143 109 88
-350.621 583.385 -1663 144 109 89
-347.247 583.563 -1664 144 110 91
-344.077 584.093 -1666 147 113 94
-340.085 583.223 -1664 147 113 97
-336.307 582.705 -1663 147 114 97
-332.736 582.54 -1663 145 114 96
-328.772 581.676 -1661 143 115 96
-325.212 581.515 -1661 140 113 94
-320.879 579.955 -1657 126 105 80
-316.758 578.748 -1654 137 120 87
-312.085 576.494 -1648 189 173 138
-308.19 575.641 -1646 189 180 133
-304.12 574.441 -1643 184 175 131
-300.798 574.642 -1644 180 171 129
-297.293 574.495 -1644 172 165 110
-294.149 575.048 -1646 168 162 108
-291.352 576.302 -1650 184 179 126
-287.319 575.112 -1647 191 187 132
-283.991 575.321 -1648 170 165 110
-279.81 573.786 -1644 176 171 114
-275.817 572.603 -1641 181 176 121
-272.171 572.119 -1640 191 186 131
-268.859 572.335 -1641 190 188 129
-265.546 572.553 -1642 195 193 133
-261.911 572.075 -1641 198 196 136
-258.44 571.948 -1641 193 191 133
-254.817 571.474 -1640 184 182 125
-251.506 571.698 -1641 182 179 123
-248.042 571.576 -1641 191 188 132
-244.432 571.108 -1640 196 194 136
-240.827 570.641 -1639 194 193 133
-236.94 569.48 -1636 189 188 129
-232.782 567.625 -1631 192 191 132
-228.928 566.468 -1628 204 203 149
-225.088 565.313 -1625 205 204 154
-221.4 564.509 -1623 207 205 158
-217.722 563.706 -1621 205 205 163
-213.79 562.21 -1617 205 205 163
-210.007 561.064 -1614 206 206 164
-206.238 559.92 -1611 209 210 166
-202.484 558.778 -1608 216 218 174
-198.744 557.638 -1605 224 225 183
-195.14 556.847 -1603 232 232 192
-191.785 556.753 -1603 239 239 199
-188.197 555.966 -1601 235 235 198
-184.85 555.875 -1601 225 224 186
-181.278 555.092 -1599 216 216 176
-177.715 554.31 -1597 215 215 175
-174.272 553.878 -1596 221 221 181
-170.942 553.794 -1596 226 226 184
-167.613 553.712 -1596 225 225 183
-164.08 552.937 -1594 224 224 182
-160.758 552.859 -1594 224 224 180
-157.24 552.088 -1592 222 222 175
-153.635 550.972 -1589 219 220 170
-150.233 550.552 -1588 218 218 172
-146.744 549.787 -1586 218 218 172
-143.446 549.716 -1586 216 216 170
-139.795 548.261 -1582 216 217 169
-136.594 548.541 -1583 218 219 170
-133.221 548.129 -1582 226 227 178
-129.936 548.065 -1582 236 235 189
-126.652 548.003 -1582 237 235 192
-123.369 547.943 -1582 231 230 186
-120.011 547.538 -1581 228 227 182
-116.658 547.134 -1580 228 228 181
-113.382 547.079 -1580 231 231 183
-110.177 547.371 -1581 236 236 188
-106.969 547.664 -1582 238 238 192
-103.561 546.921 -1580 241 242 195
-100.352 547.218 -1581 243 244 198
-97.1405 547.517 -1582 244 245 197
-93.7473 546.778 -1580 241 242 196
-90.5923 547.426 -1582 241 241 198
-87.2643 547.037 -1581 242 242 201
-83.9412 546.65 -1580 243 243 202
-80.5208 545.572 -1577 246 246 203
-77.2114 545.188 -1576 247 247 210
-74.0008 545.498 -1577 251 250 216
-70.7866 545.808 -1578 253 251 226
-67.6545 546.813 -1581 255 253 232
-64.5106 547.818 -1584 255 254 235
-61.2775 548.134 -1585 255 254 236
-58.1507 549.488 -1589 255 254 239
-54.9386 550.153 -1591 255 255 243
-51.654 550.127 -1591 254 252 242
-48.3394 549.757 -1590 254 252 243
-45.0859 550.08 -1591 254 252 244
-41.6974 548.677 -1587 255 253 246
-38.4709 549.349 -1589 255 253 245
-35.1702 548.985 -1588 254 253 236
-31.914 549.315 -1589 253 253 232
-28.636 549.3 -1589 250 251 229
-25.3583 549.287 -1589 252 251 231
-22.0807 549.276 -1589 253 252 229
-18.7914 548.92 -1588 252 251 225
-15.5065 548.567 -1587 253 252 213
-12.2335 548.56 -1587 251 250 211
-8.96635 548.9 -1588 248 247 208
-5.69142 548.897 -1588 243 242 204
-2.41825 549.241 -1589 237 236 198
0.860303 550.277 -1592 233 232 194
4.14323 550.279 -1592 231 229 188
7.43105 550.627 -1593 232 230 186
10.7229 550.977 -1594 235 233 189
14.0279 551.674 -1596 236 234 188
17.3304 552.028 -1597 237 235 187
20.624 552.037 -1597 234 235 183
23.948 552.739 -1599 236 237 183
27.2974 553.788 -1602 242 243 187
30.6594 554.84 -1605 244 244 197
33.9919 555.201 -1606 245 245 199
37.3983 556.601 -1610 247 247 203
40.771 557.311 -1612 250 250 206
44.125 557.677 -1613 253 252 208
47.5129 558.391 -1615 254 253 211
50.9725 559.798 -1619 255 253 213
54.4824 561.552 -1624 255 252 213
57.8711 561.925 -1625 252 251 216
61.3774 563.337 -1629 245 244 206
64.7419 563.368 -1629 237 236 194
68.2742 564.783 -1633 233 232 188
71.648 564.817 -1633 230 229 184
75.2982 566.928 -1639 225 225 177
78.9257 568.695 -1644 224 222 180
82.5247 570.117 -1648 223 221 179
86.0365 570.85 -1650 218 218 178
89.7199 572.623 -1655 210 211 167
93.1997 573.013 -1656 203 203 158
96.6844 573.405 -1657 203 201 154
100.295 574.491 -1660 202 199 148
103.981 575.924 -1664 198 195 142
107.491 576.322 -1665 196 193 140
111.007 576.721 -1666 200 198 141
114.458 576.775 -1666 206 204 146
117.84 576.485 -1665 203 200 145
121.292 576.543 -1665 197 194 139
125.044 577.988 -1669 196 193 137
128.429 577.703 -1668 188 186 128
132.048 578.459 -1670 188 185 127
135.677 579.216 -1672 188 183 126
139.148 579.283 -1672 183 182 128
142.621 579.351 -1672 189 188 132
146.095 579.421 -1672 186 184 128
149.75 580.186 -1674 182 177 121
153.322 580.606 -1675 188 183 125
156.9 581.028 -1676 192 186 125
160.292 580.758 -1675 192 188 138
164.073 581.877 -1678 194 190 140
167.867 582.998 -1681 199 194 145
171.267 582.734 -1680 166 149 108
175.393 584.899 -1686 154 131 96
179.015 585.332 -1687 162 130 103
182.859 586.461 -1690 171 131 107
186.718 587.592 -1693 171 129 106
190.478 588.378 -1695 173 129 107
194.019 588.471 -1695 173 129 107
198.028 589.956 -1699 172 128 105
201.937 591.095 -1702 170 127 103
205.257 590.499 -1700 172 129 102
208.938 590.947 -1701 171 128 101
212.625 591.397 -1702 168 125 98
216.573 592.544 -1705 166 124 96
220.148 592.651 -1705 166 123 96
223.856 593.107 -1706 167 125 99
227.57 593.565 -1707 166 124 98
231.425 594.372 -1709 167 124 99
234.467 593.095 -1705 168 123 99
238.191 593.558 -1706 170 124 99
242.205 594.719 -1709 170 124 99
245.946 595.186 -1710 169 124 99
249.548 595.307 -1710 170 124 100
253.152 595.43 -1710 170 126 101
256.908 595.903 -1711 169 126 101
260.519 596.03 -1711 172 123 95
264.286 596.507 -1712 174 126 96
267.904 596.637 -1712 176 129 98
271.523 596.769 -1712 177 130 105
275.306 597.252 -1713 181 131 104
279.096 597.737 -1714 182 133 105
282.067 596.479 -1710 183 133 106
285.692 596.618 -1710 186 135 106
289.49 597.108 -1711 185 136 105
293.294 597.601 -1712 184 136 101
297.104 598.095 -1713 180 130 95
301.098 598.94 -1715 169 121 86
304.925 599.439 -1716 164 119 82
308.579 599.589 -1716 169 127 87
312.053 599.393 -1715 187 140 102
315.527 599.198 -1714 203 155 118
319.557 600.053 -1716 198 153 116
322.846 599.512 -1714 184 140 101
326.51 599.673 -1714 177 132 94
330.177 599.835 -1714 175 129 93
334.042 600.349 -1715 175 124 89
337.126 599.464 -1712 170 120 85
340.797 599.631 -1712 173 125 90
344.472 599.801 -1712 180 130 95
347.337 598.57 -1708 182 132 97
351.009 598.743 -1708 181 131 96
355.1 599.619 -1710 178 131 99
359.203 600.498 -1712 178 131 101
363.106 601.028 -1713 179 132 103
366.802 601.209 -1713 182 135 107
370.718 601.743 -1714 181 138 107
374.642 602.279 -1715 182 139 110
378.132 602.115 -1714 183 140 112
382.067 602.655 -1715 186 142 114
385.559 602.494 -1714 187 144 116
388.824 601.984 -1712 186 143 116
392.313 601.827 -1711 186 142 118
396.496 602.727 -1713 186 143 123
400.457 603.278 -1714 189 147 128
404.663 604.183 -1716 191 149 130
408.166 604.033 -1715 192 149 133
412.15 604.591 -1716 196 153 137
415.657 604.445 -1715 197 155 136
419.652 605.006 -1716 195 155 131
422.669 604.159 -1713 195 156 133
426.673 604.725 -1714 195 156 133
430.433 604.939 -1714 195 156 134
434.198 605.156 -1714 194 157 135
437.967 605.375 -1714 193 158 138
442.513 606.656 -1717 196 160 142
446.816 607.586 -1719 198 161 144
451.133 608.519 -1721 202 165 145
454.669 608.393 -1720 205 167 150
458.472 608.623 -1720 207 170 152
462.01 608.501 -1719 207 170 151
465.819 608.735 -1719 211 173 155
469.36 608.616 -1718 212 176 156
473.451 609.208 -1719 213 177 157
477.829 610.158 -1721 215 180 160
481.661 610.4 -1721 218 184 159
485.497 610.645 -1721 220 187 162
489.907 611.602 -1723 219 187 162
493.756 611.851 -1723 221 188 165
497.9 612.457 -1724 222 190 167
502.344 613.422 -1726 222 188 166
505.628 612.967 -1724 223 189 166
510.682 614.647 -1728 223 190 167
513.673 613.84 -1725 221 187 164
517.556 614.103 -1725 219 185 165
520.84 613.655 -1723 220 188 166
525.338 614.634 -1725 221 190 167
529.543 615.259 -1726 225 194 172
534.377 616.601 -1729 230 200 176
-782.748 607.341 -1648 136 119 141
-776.198 605.077 -1643 134 118 142
-769.682 602.817 -1638 131 117 141
-766.472 603.138 -1640 114 100 122
-762.33 602.725 -1640 94 79 100
-760.97 604.518 -1646 93 72 93
-754.99 602.641 -1642 96 78 96
-749.039 600.768 -1638 92 75 93
-741.751 597.801 -1631 91 75 93
-736.316 596.305 -1628 93 80 97
-728.205 592.617 -1619 93 84 98
-725.514 593.325 -1622 95 88 100
-722.817 594.034 -1625 104 95 103
-719.227 594.014 -1626 124 112 121
-716.52 594.726 -1629 152 144 153
-522.071 592.792 -1672 126 113 107
-516.733 590.756 -1667 121 108 102
-513.884 591.558 -1670 115 101 94
-507.972 588.82 -1663 116 100 92
-503.612 587.856 -1661 115 95 86
-500.47 588.31 -1663 111 87 78
-497.025 588.411 -1664 110 85 72
-492.098 586.747 -1660 109 84 71
-488.076 586.147 -1659 110 85 72
-483.771 585.195 -1657 110 84 71
-480.35 585.305 -1658 111 86 72
-476.353 584.712 -1657 112 87 72
-473.507 585.531 -1660 120 89 79
-470.085 585.647 -1661 122 91 80
-466.944 586.116 -1663 123 93 79
-464.356 587.292 -1667 120 90 75
-460.649 587.06 -1667 114 85 71
-457.495 587.534 -1669 113 85 72
-453.52 586.954 -1668 105 84 71
-450.903 588.135 -1672 106 85 73
-446.133 586.504 -1668 107 86 75
-444.036 588.39 -1674 104 85 73
-439.814 587.467 -1672 105 87 74
-435.082 585.843 -1668 105 88 76
-430.889 584.925 -1666 108 86 78
-426.453 583.658 -1663 108 87 79
-423.305 584.148 -1665 111 90 80
-419.901 584.289 -1666 114 92 85
-416.495 584.432 -1667 113 90 85
-412.594 583.875 -1666 115 90 86
-409.193 584.021 -1667 116 90 86
-405.304 583.469 -1666 117 90 86
-402.146 583.969 -1668 119 91 88
-398.028 583.07 -1666 120 93 88
-394.159 582.524 -1665 116 89 83
-391.001 583.029 -1667 119 92 85
-388.071 583.885 -1670 120 92 84
-383.52 582.296 -1666 123 92 84
-380.814 583.505 -1670 125 94 86
-377.417 583.667 -1671 125 94 86
-373.347 582.783 -1669 126 94 86
-369.512 582.251 -1668 127 96 87
-366.561 583.116 -1671 129 97 88
-362.298 581.89 -1668 130 95 85
-358.911 582.061 -1669 130 97 85
-354.884 581.188 -1667 131 98 86
-351.08 580.665 -1666 131 99 89
-348.327 581.887 -1670 130 99 88
-344.527 581.368 -1669 129 99 89
-341.143 581.548 -1670 135 103 93
-337.354 581.033 -1669 132 101 90
-333.172 579.824 -1666 128 99 87
-329.6 579.662 -1666 127 101 89
-325.834 579.153 -1665 127 103 90
-321.302 577.256 -1660 123 103 87
-317.177 576.056 -1657 104 92 66
-312.311 573.469 -1650 153 144 114
-308.225 572.274 -1647 185 179 136
-304.341 571.43 -1645 182 174 132
-301.016 571.629 -1646 182 173 132
-297.69 571.83 -1647 171 165 110
-294.362 572.032 -1648 169 163 109
-291.386 572.931 -1651 168 163 110
-287.353 571.748 -1648 184 179 124
-283.508 570.915 -1646 170 165 109
-279.844 570.431 -1645 161 155 98
-276.186 569.949 -1644 165 159 104
-272.37 569.122 -1642 176 171 116
-269.547 570.376 -1646 180 178 122
-266.386 570.939 -1648 185 183 126
-262.581 570.117 -1646 189 186 129
-258.944 569.644 -1645 191 189 133
-255.314 569.173 -1644 187 184 129
-251.69 568.704 -1643 181 178 124
-247.921 567.89 -1641 181 178 125
-244.61 568.117 -1642 186 183 128
-241.004 567.653 -1641 189 188 129
-237.114 566.499 -1638 184 183 126
-233.096 565.002 -1634 192 191 135
-229.238 563.853 -1631 200 200 147
-225.256 562.36 -1627 202 201 154
-221.429 561.215 -1624 205 204 160
-217.616 560.072 -1621 203 204 163
-213.951 559.276 -1619 202 203 162
-210.295 558.483 -1617 202 203 161
-206.394 557.001 -1613 204 206 160
-202.511 555.521 -1609 210 211 166
-198.771 554.388 -1606 216 217 174
-195.045 553.257 -1603 229 229 187
-191.573 552.819 -1602 238 238 197
-187.988 552.037 -1600 232 233 195
-184.645 551.947 -1600 221 221 182
-180.963 550.824 -1597 211 211 170
-177.518 550.393 -1596 208 208 168
-174.079 549.963 -1595 213 213 172
-170.538 549.19 -1593 218 218 176
-167.112 548.764 -1592 220 220 177
-163.795 548.684 -1592 221 221 178
-160.479 548.606 -1592 222 222 178
-157.065 548.185 -1591 222 222 174
-153.561 547.421 -1589 221 222 171
-150.161 547.004 -1588 219 219 172
-146.674 546.243 -1586 216 217 170
-143.196 545.485 -1584 215 215 169
-139.728 544.728 -1582 213 214 166
-136.442 544.662 -1582 213 214 165
-133.073 544.253 -1581 215 214 166
-129.873 544.534 -1582 223 221 174
-126.591 544.472 -1582 230 228 182
-123.309 544.412 -1582 232 230 183
-120.029 544.354 -1582 228 226 179
-116.676 543.953 -1581 223 222 174
-113.399 543.898 -1581 224 223 175
-110.124 543.844 -1581 225 224 176
-106.782 543.448 -1580 227 226 178
-103.445 543.053 -1579 229 230 181
-100.241 543.348 -1580 231 232 183
-97.0324 543.645 -1581 235 236 187
-93.8209 543.943 -1582 238 238 189
-90.5488 543.899 -1582 239 239 191
-87.2775 543.856 -1582 239 238 194
-83.9539 543.471 -1581 239 239 194
-80.4821 542.057 -1577 242 242 195
-77.1744 541.676 -1576 243 243 201
-73.8714 541.296 -1575 246 246 205
-70.663 541.605 -1576 251 250 216
-67.4937 542.259 -1578 253 252 224
-64.3574 543.258 -1581 254 253 228
-61.2095 544.259 -1584 254 253 232
-58.0495 545.261 -1587 255 254 236
-54.8433 545.921 -1589 255 254 239
-51.6292 546.583 -1591 255 254 242
-48.3161 546.216 -1590 255 253 242
-45.0926 546.88 -1592 255 253 243
-41.7036 545.485 -1588 255 253 246
-38.4526 545.81 -1589 255 253 246
-35.1312 545.105 -1587 255 254 238
-31.8586 545.089 -1587 254 254 232
-28.5863 545.075 -1587 252 252 226
-25.3142 545.062 -1587 252 251 231
-22.0562 545.394 -1588 252 251 226
-18.7825 545.384 -1588 251 250 220
-15.5088 545.376 -1588 252 250 206
-12.2354 545.369 -1588 248 246 202
-8.96765 545.708 -1589 243 241 197
-5.69243 545.704 -1589 235 233 190
-2.42011 546.389 -1591 231 229 186
0.859709 546.732 -1592 229 227 186
4.14906 547.764 -1595 229 226 185
7.43195 547.423 -1594 231 228 187
10.7312 548.114 -1596 234 232 188
14.0211 548.12 -1596 240 238 193
17.3218 548.471 -1597 243 241 194
20.627 548.824 -1598 238 239 191
23.9364 549.178 -1599 238 239 189
27.2843 550.221 -1602 240 241 187
30.6256 550.922 -1604 241 242 194
33.9967 551.968 -1607 244 245 198
37.4267 553.702 -1612 249 249 205
40.7767 554.064 -1613 251 251 207
44.1584 554.772 -1615 252 252 208
47.5488 555.481 -1617 254 251 210
51.0424 557.222 -1622 255 252 213
54.3891 557.247 -1622 253 250 212
57.772 557.618 -1623 248 247 210
61.1974 558.334 -1625 241 239 200
64.6313 559.051 -1627 237 234 193
68.1159 560.114 -1630 234 232 188
71.5698 560.834 -1632 229 227 183
75.216 562.932 -1638 225 223 178
78.9837 565.718 -1646 223 220 181
82.535 566.788 -1649 223 221 181
86.2556 568.891 -1655 218 218 178
89.8392 569.965 -1658 209 211 166
93.3236 570.352 -1659 200 201 156
96.8128 570.742 -1660 202 200 156
100.428 571.821 -1663 200 198 148
104.056 572.901 -1666 193 190 138
107.504 572.952 -1666 193 191 136
111.086 573.692 -1668 194 192 133
114.472 573.403 -1667 197 196 135
117.854 573.115 -1666 201 198 143
121.306 573.172 -1666 195 192 137
125.059 574.608 -1670 183 180 125
128.675 575.357 -1672 174 171 116
132.301 576.108 -1674 177 174 118
135.936 576.861 -1676 181 177 122
139.331 576.583 -1675 179 176 129
142.808 576.651 -1675 182 179 128
146.287 576.72 -1675 177 174 121
149.946 577.48 -1677 180 175 119
153.614 578.242 -1679 186 181 125
157.199 578.661 -1680 188 184 126
160.693 578.738 -1680 192 187 139
164.384 579.505 -1682 198 192 144
168.185 580.619 -1685 170 163 116
171.694 580.701 -1685 131 112 81
175.828 582.853 -1691 143 119 91
179.671 583.973 -1694 148 117 95
183.312 584.405 -1695 156 118 100
186.738 584.15 -1694 157 117 99
190.835 585.965 -1699 158 116 99
194.383 586.058 -1699 158 116 98
198.049 586.498 -1700 159 116 98
201.721 586.939 -1701 157 114 95
205.398 587.383 -1702 156 116 94
208.714 586.793 -1700 157 115 93
212.647 587.93 -1703 155 114 91
216.468 588.725 -1705 153 111 88
220.17 589.175 -1706 152 110 88
223.747 589.283 -1706 153 110 89
227.459 589.738 -1707 154 113 91
231.042 589.849 -1707 153 111 88
234.765 590.307 -1708 153 109 87
238.912 591.805 -1712 156 111 87
242.371 591.576 -1711 155 110 88
246.114 592.04 -1712 154 110 87
249.572 591.815 -1711 155 109 87
253.62 592.974 -1714 153 109 87
257.233 593.098 -1714 151 108 87
261.001 593.57 -1715 152 106 85
264.774 594.044 -1716 156 111 87
268.399 594.174 -1716 159 114 89
272.025 594.306 -1716 160 115 91
275.332 593.746 -1714 161 114 90
278.634 593.188 -1712 163 115 90
282.259 593.325 -1712 166 116 92
285.553 592.77 -1710 168 117 91
289.517 593.603 -1712 169 119 92
293.493 594.439 -1714 166 119 89
297.306 594.93 -1715 163 111 83
301.477 596.117 -1718 153 104 74
304.953 595.918 -1717 153 107 76
308.427 595.721 -1716 163 118 83
311.718 595.178 -1714 180 133 96
315.556 595.679 -1715 191 142 104
319.214 595.834 -1715 179 134 96
322.687 595.644 -1714 168 125 88
326.54 596.15 -1715 163 119 82
329.629 595.268 -1712 165 119 83
333.682 596.126 -1714 168 116 86
337.157 595.943 -1713 171 119 89
340.63 595.762 -1712 172 121 92
344.101 595.582 -1711 172 121 93
347.979 596.1 -1712 172 122 92
351.658 596.272 -1712 175 126 95
355.548 596.794 -1713 172 124 94
359.655 597.667 -1715 171 122 94
363.35 597.845 -1715 172 124 96
367.049 598.025 -1715 172 126 99
370.967 598.555 -1716 173 128 101
373.801 597.344 -1712 176 130 103
377.724 597.878 -1713 176 131 103
381.432 598.065 -1713 178 133 106
385.143 598.255 -1713 181 136 109
388.631 598.097 -1712 182 138 111
392.348 598.29 -1712 183 139 114
396.299 598.835 -1713 180 136 118
400.258 599.381 -1714 180 137 119
404.697 600.63 -1717 180 137 120
407.963 600.132 -1715 183 140 125
411.945 600.685 -1716 188 145 130
415.692 600.891 -1716 190 148 130
419.932 601.799 -1718 190 148 124
423.198 601.308 -1716 188 148 124
427.704 602.571 -1719 189 149 124
430.72 601.732 -1716 189 149 123
434.741 602.299 -1717 190 150 125
438.003 601.814 -1715 187 151 130
442.034 602.385 -1716 187 150 130
446.852 604.011 -1720 188 150 131
451.431 605.289 -1723 191 153 133
455.234 605.515 -1723 193 155 137
458.775 605.392 -1722 195 157 140
462.853 605.974 -1723 197 160 142
466.398 605.855 -1722 199 162 144
469.943 605.738 -1721 198 162 143
473.764 605.974 -1721 199 164 145
477.589 606.213 -1721 201 166 147
481.139 606.102 -1720 207 169 144
485.252 606.697 -1721 208 171 145
489.375 607.294 -1722 208 172 146
493.221 607.541 -1722 207 172 146
497.649 608.497 -1724 208 173 148
501.799 609.102 -1725 209 173 147
506.252 610.062 -1727 211 174 149
510.423 610.672 -1728 212 176 150
514.306 610.93 -1728 210 176 151
517.594 610.484 -1726 208 173 151
519.972 608.978 -1721 208 174 151
525.071 610.658 -1725 209 176 152
528.661 610.571 -1724 209 177 152
532.56 610.84 -1724 214 182 155
538.332 613.238 -1730 222 192 163
544.135 615.64 -1736 230 202 172
548.708 616.627 -1738 238 215 187
554.568 619.036 -1744 242 222 200
-752.718 602.999 -1656 124 115 132
-746.771 601.143 -1652 130 125 140
-738.156 597.11 -1642 139 137 152
-505.632 590.811 -1681 139 127 126
-501.551 590.207 -1680 120 107 105
-495.702 587.499 -1673 105 91 88
-491.359 586.549 -1671 92 78 73
-487.322 585.953 -1670 101 82 71
-483.584 585.71 -1670 109 89 77
-478.988 584.418 -1667 107 86 74
-476.12 585.231 -1670 108 88 80
-472.396 584.994 -1670 111 90 81
-469.237 585.459 -1672 115 93 83
-465.795 585.576 -1673 114 92 81
-462.629 586.045 -1675 112 93 83
-459.185 586.165 -1676 116 99 91
-456.284 586.987 -1679 119 111 106
-452.565 586.761 -1679 125 116 113
-449.653 587.585 -1682 129 119 118
-446.201 587.712 -1683 130 124 120
-443.013 588.189 -1685 136 130 126
-438.776 587.273 -1683 142 136 133
-434.811 586.708 -1682 148 139 137
-430.342 585.447 -1679 151 143 140
-426.907 585.584 -1680 153 144 141
-423.471 585.722 -1681 155 144 145
-420.285 586.21 -1683 152 141 143
-416.351 585.655 -1682 147 137 139
-413.161 586.147 -1684 146 133 135
-408.994 585.248 -1682 141 127 129
-405.08 584.7 -1681 136 120 124
-400.458 583.11 -1677 130 115 117
-396.094 581.871 -1674 121 108 109
-392.449 581.677 -1674 122 108 108
-389.738 582.875 -1678 121 106 105
-386.782 583.726 -1681 119 101 100
-384.273 585.272 -1686 112 95 93
-379.714 583.696 -1682 114 96 95
-376.294 583.858 -1683 115 97 96
-372.43 583.328 -1682 118 100 96
-368.135 582.106 -1679 119 101 97
-363.64 580.54 -1675 122 100 96
-360.454 581.056 -1677 118 96 92
-357.264 581.573 -1679 117 95 91
-353.646 581.4 -1679 118 96 95
-350.866 582.612 -1683 119 98 96
-346.628 581.404 -1680 118 97 95
-343.018 581.235 -1680 118 96 94
-338.805 580.031 -1677 118 98 93
-334.608 578.83 -1674 118 99 92
-330.625 577.976 -1672 116 99 94
-327.24 578.162 -1673 114 99 93
-322.693 576.276 -1668 110 98 91
-318.17 574.393 -1663 95 95 79
-313.672 572.512 -1658 109 110 91
-309.01 570.289 -1652 167 164 130
-305.302 569.795 -1651 184 175 133
-301.783 569.647 -1651 183 172 125
-298.448 569.847 -1652 174 167 118
-294.755 569.358 -1651 167 161 111
-291.597 569.905 -1653 164 159 106
-288.085 569.765 -1653 173 168 111
-284.059 568.592 -1650 176 171 114
-280.048 567.422 -1647 155 149 92
-276.556 567.287 -1647 151 144 91
-273.564 568.188 -1650 155 149 97
-270.071 568.056 -1650 162 159 108
-266.903 568.615 -1652 173 170 118
-263.091 567.798 -1650 180 177 125
-259.291 566.984 -1648 187 184 131
-255.501 566.172 -1646 184 181 128
-251.874 565.705 -1645 178 175 122
-248.104 564.897 -1643 178 175 124
-244.79 565.122 -1644 180 178 126
-241.034 564.317 -1642 183 182 127
-237.289 563.515 -1640 175 174 120
-233.554 562.715 -1638 191 190 137
-229.408 560.885 -1633 197 198 149
-225.285 559.059 -1628 200 200 155
-221.595 558.265 -1626 203 203 161
-217.78 557.129 -1623 201 202 162
-214.244 556.682 -1622 200 201 160
-210.454 555.55 -1619 200 201 159
-206.678 554.421 -1616 199 201 154
-202.665 552.607 -1611 203 205 158
-198.923 551.482 -1608 208 210 165
-195.194 550.359 -1605 222 223 180
-191.6 549.58 -1603 236 236 194
-188.133 549.146 -1602 236 237 199
-184.556 548.371 -1600 228 228 188
-181.103 547.941 -1599 217 217 175
-177.544 547.17 -1597 212 212 172
-173.995 546.4 -1595 212 212 171
-170.456 545.633 -1593 214 214 171
-167.242 545.894 -1594 215 215 172
-163.716 545.13 -1592 217 217 173
-160.301 544.71 -1591 220 220 176
-156.99 544.634 -1591 221 221 173
-153.487 543.876 -1589 223 224 172
-150.089 543.461 -1588 220 221 172
-146.788 543.39 -1588 215 216 167
-143.398 542.978 -1587 215 215 168
-139.838 541.884 -1584 214 215 166
-136.635 542.16 -1585 212 213 164
-133.177 541.412 -1583 217 215 168
-130.057 542.033 -1585 218 216 168
-126.77 541.972 -1585 223 221 173
-123.484 541.912 -1585 228 225 176
-120.047 541.17 -1583 231 228 180
-116.767 541.114 -1583 229 227 178
-113.417 540.717 -1582 226 224 178
-110.002 539.98 -1580 222 220 174
-106.664 539.587 -1579 224 222 174
-103.462 539.878 -1580 225 225 177
-100.193 539.83 -1580 227 227 178
-96.986 540.125 -1581 231 232 183
-93.8354 540.762 -1583 236 235 185
-90.5056 540.377 -1582 240 238 187
-87.2359 540.335 -1582 241 239 193
-83.8607 539.611 -1580 245 244 196
-80.3926 538.206 -1576 247 248 197
-77.0886 537.827 -1575 247 248 199
-73.8361 537.791 -1575 248 249 201
-70.5396 537.415 -1574 249 249 204
-67.3759 538.065 -1576 251 251 213
-64.2047 538.716 -1578 252 251 217
-61.0644 539.711 -1581 252 250 226
-57.9488 541.048 -1585 253 251 231
-54.7481 541.704 -1587 253 251 236
-51.5397 542.361 -1589 255 253 244
-48.2628 542.338 -1589 255 253 243
-45.0145 542.657 -1590 255 254 241
-41.6838 541.954 -1588 255 254 245
-38.41 541.935 -1588 255 254 245
-35.0924 541.235 -1586 255 254 238
-31.8635 541.901 -1588 255 255 231
-28.5726 541.546 -1587 254 254 226
-25.3021 541.533 -1587 253 252 230
-22.0457 541.863 -1588 253 251 224
-18.7735 541.853 -1588 252 251 217
-15.4917 541.504 -1587 250 249 204
-12.2295 541.839 -1588 244 243 198
-8.96916 542.516 -1590 237 235 191
-5.69326 542.513 -1590 230 228 184
-2.41912 542.852 -1591 230 227 184
0.859857 543.534 -1593 232 228 185
4.14189 543.535 -1593 233 229 187
7.42841 543.879 -1594 234 230 188
10.726 544.566 -1596 240 238 193
14.0144 544.572 -1596 246 244 199
17.3135 544.92 -1597 248 246 200
20.6042 544.929 -1597 246 245 201
23.925 545.623 -1599 243 243 197
27.2712 546.658 -1602 240 240 190
30.6302 547.696 -1605 239 240 191
33.9592 548.053 -1606 241 242 194
37.3857 549.776 -1611 247 247 203
40.7319 550.136 -1612 250 250 206
44.1646 551.521 -1616 250 250 206
47.5262 551.884 -1617 253 250 209
50.955 552.932 -1620 253 250 212
54.3297 553.298 -1621 249 246 209
57.7446 554.007 -1623 240 240 198
61.1681 554.718 -1625 234 233 191
64.6402 555.773 -1628 235 232 191
68.1252 556.828 -1631 233 231 187
71.6232 557.886 -1634 227 225 181
75.3178 560.311 -1641 223 223 179
78.994 562.397 -1647 222 219 180
82.4954 563.118 -1649 221 219 180
86.1622 564.866 -1654 215 215 175
89.6881 565.591 -1656 208 209 166
93.1664 565.976 -1657 196 197 154
96.5917 566.021 -1657 194 193 149
100.259 567.434 -1661 192 191 140
103.757 567.825 -1662 184 183 129
107.324 568.558 -1664 184 183 126
110.967 569.636 -1667 184 183 123
114.417 569.689 -1667 184 183 121
118.01 570.428 -1669 190 187 132
121.612 571.169 -1671 189 186 131
125.373 572.595 -1675 175 172 117
128.921 572.998 -1676 165 162 109
132.632 574.086 -1679 168 165 112
136.114 574.151 -1679 172 169 116
139.68 574.558 -1680 178 174 130
143.081 574.284 -1679 178 175 128
146.653 574.695 -1680 176 173 122
150.321 575.45 -1682 185 180 126
153.815 575.523 -1682 187 183 130
157.404 575.94 -1683 188 186 134
160.998 576.358 -1684 190 187 138
164.501 576.436 -1684 183 178 132
168.304 577.543 -1687 134 127 86
172.019 578.309 -1689 125 109 84
176.056 580.104 -1694 128 108 87
180.115 581.902 -1699 131 106 89
183.872 582.674 -1701 141 108 95
187.199 582.078 -1699 140 105 93
191.417 584.225 -1705 140 103 92
194.747 583.632 -1703 140 105 90
198.535 584.412 -1705 143 106 92
202.216 584.851 -1706 143 104 91
206.144 585.977 -1709 139 104 89
209.35 585.049 -1706 140 104 89
213.418 586.522 -1710 139 103 87
217.125 586.968 -1711 138 100 84
220.967 587.76 -1713 138 100 84
224.032 586.494 -1709 138 100 84
228.149 587.976 -1713 137 99 85
230.931 586.027 -1707 137 97 82
235.201 587.855 -1712 139 97 81
239.076 588.657 -1714 141 100 81
242.395 588.086 -1712 141 99 82
246.857 590.265 -1718 141 98 83
249.889 589.01 -1714 141 98 82
253.941 590.162 -1717 138 98 83
257.709 590.63 -1718 135 97 82
261.026 590.067 -1716 135 94 79
264.955 590.882 -1718 138 97 80
268.581 591.011 -1718 139 98 79
272.21 591.141 -1718 138 98 80
275.68 590.93 -1717 141 99 79
279.149 590.72 -1716 143 99 78
282.122 589.478 -1712 146 100 80
285.581 589.271 -1711 149 104 81
289.377 589.755 -1712 152 106 82
293.521 590.93 -1715 158 109 86
297.334 591.418 -1716 159 105 82
301.505 592.597 -1719 156 103 79
304.982 592.399 -1718 156 105 81
308.637 592.548 -1718 158 109 83
312.112 592.354 -1717 160 113 86
315.586 592.161 -1716 158 111 83
319.431 592.661 -1717 149 107 78
323.094 592.817 -1717 152 110 82
326.381 592.284 -1715 154 112 84
329.661 591.753 -1713 159 114 88
333.325 591.914 -1713 162 113 88
336.795 591.732 -1712 163 114 89
341.06 592.935 -1715 161 114 90
344.536 592.756 -1714 159 113 90
347.808 592.233 -1712 160 114 91
351.691 592.75 -1713 164 117 94
355.788 593.615 -1715 166 119 93
360.317 595.174 -1719 165 119 93
363.807 595.005 -1718 167 121 96
367.296 594.838 -1717 167 123 97
371.217 595.365 -1718 167 125 99
374.49 594.854 -1716 168 123 100
377.758 594.345 -1714 170 123 102
381.467 594.531 -1714 174 128 105
384.954 594.372 -1713 176 131 108
389.12 595.256 -1715 176 132 109
392.383 594.754 -1713 175 135 112
396.335 595.295 -1714 177 134 118
400.294 595.839 -1715 178 135 119
404.733 597.079 -1718 177 133 119
408 596.584 -1716 178 134 122
411.981 597.134 -1717 180 137 124
415.729 597.338 -1717 182 139 125
419.969 598.24 -1719 181 138 122
423.482 598.1 -1718 177 138 120
427.741 599.006 -1720 177 139 120
430.758 598.174 -1717 176 138 118
434.272 598.039 -1716 177 139 122
438.551 598.952 -1718 179 142 122
442.072 598.822 -1717 178 142 122
447.149 600.786 -1722 179 141 123
451.468 601.707 -1724 180 142 122
455.271 601.932 -1724 181 144 126
459.079 602.159 -1724 183 145 128
462.622 602.038 -1723 187 147 132
466.436 602.269 -1723 188 150 135
469.436 601.453 -1720 188 150 135
473.802 602.388 -1722 190 152 137
478.46 603.674 -1725 191 153 138
481.737 603.214 -1723 195 155 135
486.137 604.156 -1725 196 157 136
489.982 604.399 -1725 197 159 137
493.832 604.645 -1725 194 158 135
497.976 605.244 -1726 195 158 134
502.128 605.844 -1727 196 159 134
505.997 606.097 -1727 197 160 134
509.871 606.351 -1727 198 161 135
513.452 606.257 -1726 199 163 138
517.034 606.164 -1725 199 163 139
520.314 605.722 -1723 199 163 139
523.894 605.632 -1722 202 166 144
527.475 605.545 -1721 201 169 144
532.291 606.868 -1724 202 172 145
536.815 607.841 -1726 209 180 151
541.353 608.817 -1728 220 192 162
545.591 609.444 -1729 226 200 169
549.202 609.368 -1728 234 209 181
554.414 611.058 -1732 240 214 188
558.039 610.986 -1731 243 217 194
-497.58 590.389 -1693 174 169 170
-493.496 589.794 -1692 160 154 154
-488.263 587.808 -1687 153 146 147
-484.493 587.566 -1687 145 138 140
-481.013 587.675 -1688 145 138 142
-477.25 587.438 -1688 146 137 142
-474.333 588.246 -1691 151 141 146
-469.738 586.969 -1688 161 151 156
-466.816 587.78 -1691 166 160 165
-463.886 588.592 -1694 174 170 176
-366.934 582.264 -1691 175 164 165
-364.146 583.463 -1695 170 159 161
-360.918 583.975 -1697 168 157 159
-356.211 582.081 -1692 170 160 164
-353.196 582.941 -1695 168 157 161
-350.171 583.802 -1698 163 153 157
-345.3 581.57 -1692 169 158 161
-340.862 580.03 -1688 172 162 163
-337.243 579.865 -1688 170 161 160
-333.034 578.673 -1685 169 162 163
-328.841 577.483 -1682 170 164 165
-324.664 576.295 -1679 171 168 168
-319.737 573.737 -1672 168 175 170
-315.222 571.868 -1667 171 177 169
-310.17 568.973 -1659 178 180 159
-306.448 568.481 -1658 179 173 136
-302.368 567.306 -1655 179 170 127
-299.026 567.504 -1656 178 169 126
-295.504 567.361 -1656 170 162 114
-291.985 567.219 -1656 166 159 107
-287.946 566.052 -1653 158 153 96
-284.266 565.572 -1652 171 166 109
-280.423 564.752 -1650 162 156 99
-276.926 564.618 -1650 147 139 88
-273.929 565.512 -1653 142 134 84
-270.759 566.065 -1655 143 140 92
-267.42 566.278 -1656 152 149 100
-263.602 565.467 -1654 164 161 111
-259.952 564.999 -1653 176 173 124
-255.843 563.509 -1649 177 174 124
-251.906 562.362 -1646 174 171 121
-248.437 562.242 -1646 174 171 121
-244.672 561.441 -1644 178 176 126
-241.065 560.983 -1643 179 177 127
-237.464 560.527 -1642 170 168 118
-233.727 559.732 -1640 192 190 142
-229.72 558.256 -1636 197 198 150
-225.731 556.782 -1632 200 201 157
-221.761 555.311 -1628 203 203 161
-217.675 553.501 -1623 199 202 162
-214.009 552.716 -1621 199 201 160
-210.353 551.932 -1619 199 200 158
-206.707 551.151 -1617 197 199 152
-202.82 549.69 -1613 198 200 153
-198.828 547.891 -1608 203 205 158
-195.101 546.775 -1605 214 214 171
-191.508 546.001 -1603 234 234 192
-187.926 545.23 -1601 248 249 211
-184.238 544.12 -1598 245 246 206
-180.903 544.033 -1598 231 231 189
-177.348 543.267 -1596 215 215 175
-173.912 542.843 -1595 211 211 170
-170.482 542.421 -1594 211 211 168
-167.057 542 -1593 214 214 170
-163.638 541.581 -1592 216 216 172
-160.225 541.164 -1591 219 219 175
-157.014 541.429 -1592 222 222 173
-153.511 540.675 -1590 224 225 173
-150.112 540.263 -1589 224 225 175
-146.718 539.852 -1588 218 219 169
-143.33 539.444 -1587 215 216 167
-139.947 539.037 -1586 213 214 165
-136.656 538.971 -1586 210 211 162
-133.282 538.567 -1585 213 211 164
-129.995 538.505 -1585 218 216 167
-126.63 538.104 -1584 219 217 168
-123.347 538.045 -1584 219 216 167
-119.99 537.648 -1583 223 220 173
-116.712 537.592 -1583 227 225 178
-113.22 536.518 -1580 228 226 180
-109.88 536.126 -1579 223 221 175
-106.613 536.075 -1579 222 220 172
-103.282 535.686 -1578 222 221 173
-100.018 535.638 -1578 223 222 173
-96.8787 536.27 -1580 224 225 175
-93.6723 536.564 -1581 228 227 176
-90.3482 536.181 -1580 231 230 177
-87.0842 536.139 -1580 233 231 181
-83.7149 535.42 -1578 236 235 184
-80.4055 535.042 -1577 238 239 186
-77.101 534.666 -1576 240 241 190
-73.8949 534.969 -1577 245 246 195
-70.6405 534.935 -1577 247 248 198
-67.4295 535.242 -1578 249 250 206
-64.215 535.55 -1579 252 252 211
-60.9968 535.859 -1580 253 252 220
-57.8482 536.849 -1583 253 251 227
-54.5842 536.822 -1583 254 252 234
-51.4504 538.154 -1587 255 254 242
-48.1488 537.791 -1586 255 254 241
-44.9649 538.786 -1589 255 255 239
-41.6378 538.087 -1587 255 255 242
-38.416 538.747 -1589 255 255 242
-35.0979 538.052 -1587 255 254 237
-31.8284 538.036 -1587 255 254 231
-28.5592 538.022 -1587 253 252 225
-25.2901 538.009 -1587 253 252 224
-22.0214 537.998 -1587 251 251 218
-18.7646 538.327 -1588 249 248 210
-15.4941 538.319 -1588 243 243 197
-12.2239 538.313 -1588 237 236 191
-8.96486 538.986 -1590 235 233 189
-5.68714 538.643 -1589 232 229 186
-2.41947 539.658 -1592 232 229 186
0.860008 540.336 -1594 234 230 187
4.14493 540.676 -1595 238 234 191
7.4342 541.018 -1596 242 238 195
10.7142 540.683 -1595 245 243 197
14.0077 541.028 -1596 247 245 200
17.3053 541.374 -1597 248 246 202
20.6073 541.722 -1598 249 246 205
23.9136 542.072 -1599 247 244 202
27.2414 542.762 -1601 244 242 196
30.5965 543.793 -1604 242 243 194
33.9219 544.147 -1605 242 242 194
37.3447 545.859 -1610 247 247 201
40.7126 546.556 -1612 250 250 205
44.1711 548.271 -1617 251 251 207
47.5035 548.293 -1617 252 250 206
50.9623 549.672 -1621 248 246 206
54.304 549.697 -1621 241 238 201
57.7528 550.741 -1624 230 230 187
61.0262 550.091 -1622 228 227 184
64.6096 552.156 -1628 231 229 186
68.0512 552.865 -1630 231 229 184
71.6768 554.934 -1636 226 225 181
75.328 557.004 -1642 223 223 180
79.0044 559.076 -1648 221 220 180
82.5063 559.792 -1650 220 219 179
86.1213 561.189 -1654 215 215 176
89.6996 562.249 -1657 208 209 168
93.2346 562.971 -1659 195 196 154
96.6624 563.016 -1659 186 186 142
100.272 564.081 -1662 181 181 128
103.957 565.487 -1666 172 171 115
107.402 565.537 -1666 173 172 113
111.047 566.607 -1669 177 176 115
114.5 566.661 -1669 176 175 113
118.095 567.395 -1671 176 173 118
121.772 568.47 -1674 177 174 120
125.463 569.548 -1677 170 167 114
129.167 570.627 -1680 162 159 108
132.727 571.029 -1681 165 162 110
136.373 571.772 -1683 172 169 117
139.863 571.838 -1683 175 172 123
143.268 571.565 -1682 172 169 118
146.845 571.974 -1683 178 175 122
150.517 572.724 -1685 183 179 130
154.016 572.796 -1685 188 186 136
157.703 573.55 -1687 191 191 140
161.208 573.626 -1687 198 196 152
165.008 574.724 -1690 151 148 109
168.921 576.164 -1694 111 106 76
172.751 577.265 -1697 110 99 83
176.907 579.39 -1703 114 100 86
180.665 580.155 -1705 120 101 90
184.757 581.944 -1710 125 101 95
188.211 581.692 -1709 124 99 93
192.111 582.804 -1712 125 99 93
195.796 583.237 -1713 126 99 91
199.372 583.331 -1713 128 100 93
202.83 583.086 -1712 130 102 95
206.648 583.865 -1714 126 99 93
209.74 582.601 -1710 125 98 92
213.566 583.384 -1712 126 99 92
217.528 584.509 -1715 126 98 90
221.377 585.296 -1717 123 95 87
224.187 583.357 -1711 122 95 87
228.439 585.17 -1716 122 94 87
231.902 584.939 -1715 122 94 86
236.049 586.415 -1719 124 95 86
239.798 586.87 -1720 125 94 82
243.694 587.668 -1722 124 92 81
247.457 588.127 -1723 124 91 82
250.789 587.563 -1721 126 92 83
254.263 587.343 -1720 127 94 86
257.885 587.465 -1720 124 92 85
261.813 588.273 -1722 121 86 78
265.598 588.741 -1723 122 86 76
269.077 588.528 -1722 123 86 75
272.712 588.658 -1722 119 90 78
275.708 587.422 -1718 123 91 78
279.665 588.239 -1720 124 90 76
282.645 587.006 -1716 127 90 77
286.611 587.827 -1718 131 95 79
290.42 588.308 -1719 134 97 80
294.235 588.791 -1720 141 99 82
297.537 588.248 -1718 148 103 81
301.535 589.078 -1720 149 103 81
305.367 589.566 -1721 142 95 74
309.385 590.4 -1723 140 92 73
312.688 589.864 -1721 138 93 73
316.352 590.016 -1721 134 92 71
319.834 589.827 -1720 130 91 71
323.502 589.982 -1720 136 95 77
326.983 589.796 -1719 139 98 80
330.463 589.612 -1718 145 103 86
333.747 589.086 -1716 149 105 86
336.828 588.218 -1713 147 105 86
341.093 589.412 -1716 141 104 87
345.373 590.609 -1719 140 107 85
348.451 589.747 -1716 147 110 89
352.34 590.26 -1717 152 111 91
356.237 590.776 -1718 158 113 90
360.77 592.326 -1722 160 116 94
364.265 592.158 -1721 160 117 96
367.973 592.336 -1721 161 118 96
371.036 591.482 -1718 162 121 99
374.526 591.319 -1717 164 121 101
378.015 591.158 -1716 165 118 103
381.948 591.688 -1717 166 122 104
