ply
format ascii 1.0
comment Created by Open3D
element vertex 1379
property double x
property double y
property double z
property uchar red
property uchar green
property uchar blue
end_header
-102.168 523.085 -1511 214 209 153
-98.9071 522.345 -1509 216 211 156
-95.7822 522.298 -1509 218 213 158
-92.5966 521.906 -1508 220 215 158
-89.5346 522.208 -1509 219 216 158
-86.412 522.166 -1509 220 218 160
-83.3454 522.47 -1510 225 220 165
-80.2754 522.777 -1511 224 219 163
-77.1509 522.739 -1511 222 217 158
-74.0269 522.702 -1511 221 216 156
-70.9507 523.013 -1512 220 215 156
-67.8259 522.98 -1512 218 212 153
-64.7018 522.948 -1512 216 211 153
-61.7005 523.955 -1515 211 206 149
-58.5712 523.926 -1515 209 202 145
-55.4792 524.244 -1516 210 202 147
-52.4179 524.91 -1518 213 204 149
-49.284 524.885 -1518 215 206 150
-46.1808 525.208 -1519 217 208 153
-43.0456 525.187 -1519 221 212 158
-39.9895 526.204 -1522 222 215 159
-36.8246 525.84 -1521 220 214 158
-33.6642 525.477 -1520 219 214 157
-30.5282 525.462 -1520 218 215 157
-27.3926 525.448 -1520 219 217 157
-24.289 526.127 -1522 222 217 160
-21.1775 526.807 -1524 223 218 161
-18.0933 528.526 -1529 223 218 161
-14.9593 529.209 -1531 226 219 167
-11.8327 530.586 -1535 233 226 175
-8.67274 530.926 -1536 245 238 188
-5.5158 531.96 -1539 254 248 204
-2.34368 532.304 -1540 253 246 205
0.834364 533.686 -1544 253 247 212
4.03653 536.107 -1551 255 250 220
7.26778 538.529 -1558 255 251 222
10.548 541.99 -1568 255 253 227
13.9312 547.872 -1585 246 243 223
17.5474 558.941 -1617 140 135 122
-178.964 554.876 -1609 204 209 200
-172.223 544.101 -1578 205 210 198
-167.219 538.503 -1562 208 212 190
-163.123 535.666 -1554 211 214 186
-159.474 534.209 -1550 212 215 184
-155.842 532.755 -1546 212 215 181
-152.129 530.958 -1541 212 215 181
-148.536 529.507 -1537 210 213 178
-144.582 526.681 -1529 208 211 175
-141.125 525.578 -1526 207 210 174
-137.682 524.478 -1523 207 210 174
-134.517 524.413 -1523 207 211 167
-131.181 523.66 -1521 208 212 167
-128.023 523.598 -1521 208 215 169
-124.784 523.193 -1520 212 216 169
-121.55 522.79 -1519 214 216 168
-118.477 523.076 -1520 214 213 162
-115.325 523.02 -1520 214 212 160
-112.026 522.277 -1518 214 211 158
-108.809 521.88 -1517 216 211 153
-105.527 521.141 -1515 215 210 152
-102.254 520.403 -1513 215 211 156
-98.9905 519.667 -1511 220 216 162
-95.7995 519.276 -1510 223 218 165
-92.6748 519.231 -1510 222 217 161
-89.5509 519.187 -1510 220 216 159
-86.4277 519.145 -1510 220 218 159
-83.4157 519.792 -1512 224 219 164
-80.343 520.096 -1513 226 221 165
-77.2158 520.059 -1513 227 224 166
-74.1383 520.366 -1514 227 223 165
-70.9634 519.988 -1513 225 221 163
-67.7934 519.611 -1512 226 220 162
-64.6708 519.579 -1512 224 219 161
-61.6301 520.236 -1514 218 213 156
-58.5045 520.207 -1514 214 207 152
-55.4525 520.867 -1516 213 206 152
-52.3928 521.528 -1518 212 204 150
-49.2603 521.504 -1518 212 203 148
-46.1586 521.825 -1519 212 203 148
-43.0249 521.803 -1519 217 208 154
-39.9441 522.471 -1521 221 214 158
-36.807 522.452 -1521 221 215 158
-33.6702 522.435 -1521 220 215 158
-30.5136 522.077 -1520 219 216 157
-27.3974 522.406 -1521 218 216 156
-24.2774 522.737 -1522 221 216 159
-21.1812 523.757 -1525 221 216 159
-18.0728 524.778 -1528 221 216 159
-14.9522 525.8 -1531 222 217 164
-11.8039 526.137 -1532 223 218 164
-8.66854 527.506 -1536 228 221 167
-5.50257 527.503 -1536 239 233 183
-2.34101 528.531 -1539 251 246 198
0.832708 529.561 -1542 255 250 210
4.0268 531.623 -1548 254 247 216
7.24545 533.686 -1554 255 249 223
10.5227 537.468 -1565 254 250 225
13.8366 540.908 -1575 255 251 228
17.3218 548.471 -1597 229 223 205
-178.656 550.596 -1607 203 208 199
-172.032 540.234 -1577 205 210 197
-167.139 535.015 -1562 207 211 189
-163.36 533.223 -1557 210 213 184
-159.397 530.749 -1550 213 216 185
-155.565 528.619 -1544 214 217 182
-151.76 526.491 -1538 213 216 181
-148.175 525.051 -1534 212 215 180
-144.323 522.585 -1527 209 212 176
-140.965 521.832 -1525 207 210 174
-137.706 521.423 -1524 207 210 174
-134.452 521.016 -1523 208 212 168
-131.204 520.611 -1522 207 212 167
-128.13 520.891 -1523 204 210 166
-124.806 520.147 -1521 208 212 166
-121.571 519.746 -1520 212 214 167
-118.42 519.689 -1520 214 212 161
-115.194 519.291 -1519 214 212 161
-111.899 518.553 -1517 216 213 160
-108.685 518.159 -1516 217 212 153
-105.407 517.424 -1514 217 212 154
-102.138 516.691 -1512 217 214 159
-98.9433 516.301 -1511 222 217 164
-95.8806 516.597 -1512 224 219 166
-92.6919 516.21 -1511 224 219 165
-89.6267 516.508 -1512 222 219 162
-86.5009 516.466 -1512 220 218 159
-83.431 516.768 -1513 222 217 163
-80.3577 517.07 -1514 224 220 165
-77.23 517.033 -1514 224 222 165
-74.2008 517.679 -1516 225 223 165
-71.0233 517.303 -1515 225 223 165
-67.8059 516.588 -1513 226 220 163
-64.6826 516.556 -1513 225 220 163
-61.6007 516.867 -1514 222 218 162
-58.4766 516.839 -1514 221 214 160
-55.4261 517.495 -1516 220 213 159
-52.4023 518.493 -1519 219 212 159
-49.2044 517.786 -1517 220 211 157
-46.1063 518.105 -1518 216 207 153
-43.0044 518.425 -1519 212 203 149
-39.9251 519.088 -1521 211 204 148
-36.7894 519.07 -1521 217 211 154
-33.6763 519.394 -1522 220 215 158
-30.5793 520.061 -1524 219 216 157
-27.4564 520.389 -1525 218 216 156
-24.3137 520.377 -1525 220 215 158
-21.2128 521.389 -1528 220 215 158
-18.0997 522.404 -1531 221 216 159
-14.9646 523.078 -1533 223 218 163
-11.8137 523.413 -1534 222 217 162
-8.67019 524.432 -1537 225 218 162
-5.50707 524.77 -1538 227 222 166
-2.34158 525.45 -1540 237 232 177
0.831789 525.791 -1541 250 245 197
4.02488 528.181 -1548 255 249 213
7.22802 529.207 -1551 255 249 220
10.4706 531.6 -1558 255 249 226
13.751 534.335 -1566 255 250 227
17.1509 539.802 -1582 255 253 231
20.63 545.612 -1599 203 197 178
-178.015 545.309 -1602 202 207 198
-172.386 538.078 -1581 205 210 197
-167.059 531.531 -1562 206 210 188
-163.177 529.411 -1556 208 211 182
-159.424 527.633 -1551 213 216 185
-155.793 526.198 -1547 215 218 183
-151.984 524.084 -1541 214 217 182
-148.297 522.312 -1536 213 216 181
-144.349 519.523 -1528 211 214 178
-140.99 518.775 -1526 209 212 176
-137.731 518.369 -1525 209 212 176
-134.477 517.965 -1524 209 213 169
-131.228 517.562 -1523 208 212 167
-128.153 517.84 -1524 205 211 167
-124.746 516.761 -1521 207 210 165
-121.434 516.023 -1519 210 212 165
-118.364 516.306 -1520 213 211 160
-115.139 515.911 -1519 213 210 159
-111.699 514.499 -1515 214 211 160
-108.562 514.446 -1515 216 211 152
-105.357 514.056 -1514 219 215 157
-102.089 513.328 -1512 222 219 164
-98.9617 513.28 -1512 226 221 168
-95.8984 513.574 -1513 226 221 168
-92.7706 513.529 -1513 226 221 168
-89.6433 513.486 -1513 226 222 167
-86.4598 513.105 -1512 224 222 164
-83.3914 513.404 -1513 224 219 166
-80.3196 513.705 -1514 225 220 167
-77.1934 513.668 -1514 224 221 166
-74.1167 513.971 -1515 223 222 166
-70.9897 513.937 -1515 223 222 165
-67.8632 513.904 -1515 224 219 162
-64.7374 513.873 -1515 221 218 162
-61.6935 514.521 -1517 221 218 163
-58.5261 514.154 -1516 222 217 162
-55.3998 514.127 -1516 220 214 160
-52.3774 515.119 -1519 221 214 162
-49.2459 515.095 -1519 224 215 159
-46.1451 515.411 -1520 221 212 157
-43.0406 515.729 -1521 219 210 156
-39.9586 516.388 -1523 211 204 148
-36.7962 516.031 -1522 208 202 145
-33.7046 516.692 -1524 216 211 152
-30.585 517.016 -1525 219 216 156
-27.4614 517.341 -1526 219 217 155
-24.334 517.668 -1527 221 216 158
-21.2166 518.336 -1529 222 217 159
-18.0911 519.004 -1531 223 218 161
-14.9575 519.675 -1533 223 219 163
-11.8082 520.007 -1534 222 218 162
-8.66603 521.019 -1537 225 219 162
-5.50461 521.355 -1538 227 221 163
-2.34044 522.031 -1540 226 220 163
0.831413 522.37 -1541 234 229 175
4.02279 524.744 -1548 248 242 200
7.21993 525.425 -1550 255 250 215
10.4724 528.48 -1559 255 249 225
13.7181 529.841 -1563 255 250 226
17.0561 533.578 -1574 254 248 224
20.4396 537.315 -1585 253 249 228
-177.597 540.726 -1599 201 206 196
-171.977 533.542 -1578 205 210 196
-166.766 527.377 -1560 206 210 188
-163.414 526.961 -1559 206 209 179
-159.451 524.519 -1552 210 213 182
-155.518 522.079 -1545 214 217 183
-151.813 520.317 -1540 215 218 183
-148.034 518.219 -1534 215 218 182
-144.47 516.799 -1530 213 216 180
-141.016 515.718 -1527 211 214 178
-137.756 515.315 -1526 210 213 177
-134.413 514.575 -1524 209 213 170
-131.166 514.175 -1523 209 214 170
-128.008 514.114 -1523 208 215 169
-124.688 513.38 -1521 209 212 166
-121.376 512.647 -1519 208 210 163
-118.308 512.928 -1520 211 209 158
-115.085 512.535 -1519 211 209 158
-111.793 511.807 -1517 211 209 158
-108.582 511.418 -1516 218 213 155
-105.377 511.03 -1515 223 218 162
-102.109 510.307 -1513 225 222 169
-98.9805 510.26 -1513 228 223 170
-95.8532 510.214 -1513 229 224 171
-92.7881 510.507 -1514 230 225 171
-89.6011 510.127 -1513 230 227 171
-86.4763 510.086 -1513 228 226 170
-83.4072 510.383 -1514 226 222 169
-80.3348 510.681 -1515 224 221 167
-77.2079 510.644 -1515 224 221 166
-74.1307 510.946 -1516 223 220 165
-71.05 511.249 -1517 222 219 164
-67.9209 511.216 -1517 224 219 162
-64.7497 510.848 -1516 219 215 160
-61.6645 511.156 -1517 216 213 158
-58.5372 511.127 -1517 218 213 158
-55.4103 511.101 -1517 219 213 159
-52.3183 511.412 -1518 220 213 161
-49.2227 511.725 -1519 222 213 156
-46.1235 512.04 -1520 223 214 157
-43.0204 512.356 -1521 224 215 161
-39.9137 512.673 -1522 220 213 158
-36.8273 513.329 -1524 211 205 149
-33.7109 513.649 -1525 211 206 148
-30.6107 514.308 -1527 216 212 152
-27.5025 514.968 -1529 219 217 155
-24.3704 515.293 -1530 223 218 159
-21.2205 515.282 -1530 223 218 160
-18.0945 515.946 -1532 224 219 162
-14.9506 516.275 -1533 223 219 163
-11.8103 516.943 -1535 223 219 162
-8.66772 517.948 -1538 224 218 161
-5.50555 518.282 -1539 225 219 161
-2.34082 518.953 -1541 229 223 165
0.831578 519.29 -1542 230 225 168
4.0183 520.975 -1547 236 230 180
7.21186 521.651 -1549 247 242 196
10.4406 523.676 -1555 255 250 222
13.6853 525.365 -1560 255 250 224
16.9832 528.067 -1568 255 251 227
20.3528 531.78 -1579 255 251 229
-176.626 534.481 -1591 202 206 195
-171.352 528.353 -1573 207 211 195
-166.902 524.579 -1562 204 209 185
-163.128 522.823 -1557 204 207 177
-159.273 520.733 -1551 210 213 181
-155.747 519.652 -1548 213 216 182
-151.939 517.566 -1542 214 217 181
-148.254 515.817 -1537 214 217 181
-144.496 513.735 -1531 213 216 180
-141.042 512.662 -1528 212 215 178
-137.601 511.59 -1525 211 213 176
-134.35 511.191 -1524 211 214 169
-131.018 510.458 -1522 211 214 169
-127.864 510.398 -1522 211 214 169
-124.465 509.333 -1519 212 214 168
-121.24 508.94 -1518 210 212 165
-118.097 508.884 -1518 212 212 161
-114.955 508.83 -1518 214 213 162
-111.594 507.771 -1515 214 212 160
-108.46 507.72 -1515 220 216 161
-105.327 507.67 -1515 223 219 165
-102.128 507.286 -1514 226 223 170
-99.065 507.575 -1515 229 225 171
-95.9983 507.864 -1516 231 227 173
-92.8672 507.82 -1516 232 228 173
-89.7368 507.777 -1516 230 228 172
-86.6072 507.736 -1516 230 228 172
-83.4784 507.697 -1516 227 224 171
-80.2973 507.324 -1515 223 220 167
-77.1209 506.952 -1514 223 220 165
-74.096 507.586 -1516 223 220 165
-71.0168 507.887 -1517 223 219 164
-67.9787 508.525 -1519 225 220 165
-64.8476 508.494 -1519 225 221 166
-61.7576 508.799 -1520 222 219 163
-58.6255 508.771 -1520 220 216 161
-55.4574 508.41 -1519 220 214 161
-52.3284 508.385 -1519 219 212 160
-49.2322 508.696 -1520 220 212 155
-46.1626 509.342 -1522 222 214 157
-43.0286 509.322 -1522 223 214 160
-39.9474 509.972 -1524 223 215 161
-36.8342 510.289 -1525 222 215 161
-33.7173 510.607 -1526 214 209 152
-30.6365 511.596 -1529 210 208 147
-27.5077 511.917 -1530 214 214 150
-24.3749 512.239 -1531 221 216 157
-21.2245 512.229 -1531 223 218 160
-18.086 512.554 -1532 226 221 164
-14.9533 513.216 -1534 225 220 165
-11.7971 513.209 -1534 224 218 163
-8.65233 513.874 -1536 227 218 162
-5.49935 514.54 -1538 227 220 165
-2.33837 515.207 -1540 228 222 167
0.830474 515.541 -1541 231 226 169
4.00863 516.546 -1544 233 228 172
7.19916 517.552 -1547 239 234 178
10.4222 519.564 -1553 249 242 209
13.6613 521.242 -1558 255 248 220
16.9752 524.595 -1568 255 249 225
20.3174 527.615 -1577 255 251 228
23.8911 534.986 -1599 252 248 229
-183.813 542.712 -1626 197 203 202
-176.321 530.28 -1589 203 207 194
-170.945 523.859 -1570 208 213 195
-166.717 520.777 -1561 205 210 185
-163.052 519.366 -1557 205 208 178
-159.096 516.956 -1550 209 212 180
-155.473 515.549 -1546 212 215 179
-151.77 513.81 -1541 214 217 181
-148.185 512.407 -1537 215 218 182
-144.523 510.672 -1532 214 217 181
-141.161 509.939 -1530 213 215 178
-137.717 508.875 -1527 213 214 176
-134.376 508.145 -1525 212 214 167
-131.043 507.417 -1523 211 213 167
-127.889 507.357 -1523 212 214 168
-124.407 505.966 -1519 211 213 166
-121.263 505.909 -1519 210 212 165
-118.12 505.853 -1519 211 212 162
-114.826 505.133 -1517 215 214 163
-111.542 504.415 -1515 219 217 164
-108.481 504.697 -1516 221 218 165
-105.348 504.647 -1516 225 222 169
-102.216 504.599 -1516 228 225 172
-99.1496 504.885 -1517 229 226 172
-96.1436 505.505 -1519 230 227 172
-92.9465 505.129 -1518 231 228 173
-89.7543 504.754 -1517 230 227 172
-86.6241 504.713 -1517 230 227 172
-83.3846 504.008 -1515 229 226 173
-80.207 503.638 -1514 226 223 169
-77.0851 503.601 -1514 224 221 166
-74.0617 504.232 -1516 225 220 165
-71.0306 504.863 -1518 225 220 166
-67.9919 505.496 -1520 227 222 169
-64.8601 505.465 -1520 227 224 168
-61.7696 505.769 -1521 227 225 167
-58.5984 505.408 -1520 224 221 166
-55.4317 505.049 -1519 224 220 166
-52.4074 506.022 -1522 222 217 164
-49.2741 505.998 -1522 221 214 159
-46.1412 505.976 -1522 221 214 159
-43.0369 506.288 -1523 223 214 160
-39.929 506.601 -1524 224 216 162
-36.8172 506.916 -1525 226 218 164
-33.7016 507.232 -1526 222 215 160
-30.6423 508.547 -1530 214 210 152
-27.4949 508.534 -1530 213 209 150
-24.3637 508.854 -1531 215 212 152
-21.2286 509.176 -1532 219 216 157
-18.1012 509.832 -1534 224 220 162
-14.9562 510.156 -1535 225 222 164
-11.8071 510.482 -1536 227 223 165
-8.65969 511.142 -1538 227 221 163
-5.50408 511.804 -1540 226 220 163
-2.33876 512.134 -1541 228 222 166
0.830644 512.466 -1542 230 225 168
4.00677 513.132 -1544 233 228 171
7.1958 514.132 -1547 239 234 176
10.4039 515.465 -1551 244 238 195
13.6461 517.465 -1557 252 246 211
16.9239 519.799 -1564 255 249 223
20.3079 524.128 -1577 255 251 226
23.7756 529.124 -1592 255 251 230
-183.954 539.767 -1628 196 202 201
-176.35 527.086 -1590 204 207 196
-170.974 520.708 -1571 210 213 197
-166.426 516.653 -1559 208 213 188
-162.976 515.914 -1557 207 210 180
-159.125 513.851 -1551 209 212 180
-155.502 512.453 -1547 212 215 177
-151.7 510.395 -1541 214 217 181
-148.309 509.664 -1539 216 219 183
-144.551 507.609 -1533 215 218 182
-141.28 507.212 -1532 213 215 178
-137.924 506.486 -1530 212 213 175
-134.49 505.43 -1527 211 213 166
-131.069 504.376 -1524 212 214 167
-127.829 503.985 -1523 210 212 166
-124.432 502.934 -1520 209 211 164
-121.127 502.216 -1518 208 210 163
-117.987 502.161 -1518 212 213 163
-114.849 502.107 -1518 216 216 165
-111.416 500.732 -1514 221 219 168
-108.359 501.012 -1515 225 222 169
-105.23 500.963 -1515 228 225 172
-102.168 501.246 -1516 229 226 173
-99.0385 501.199 -1516 230 227 174
-96.036 501.816 -1518 231 228 174
-92.8424 501.442 -1517 231 228 175
-89.6538 501.069 -1516 232 229 175
-86.5271 501.029 -1516 231 228 174
-83.3461 500.659 -1515 229 226 173
-80.17 500.291 -1514 227 224 171
-77.1005 500.585 -1515 226 223 168
-73.9787 500.551 -1515 227 222 167
-70.951 501.178 -1517 227 222 167
-67.9605 502.137 -1520 227 222 169
-64.8303 502.107 -1520 226 223 168
-61.7817 502.739 -1522 227 224 168
-58.6484 502.711 -1522 227 224 169
-55.4791 502.354 -1521 225 221 167
-52.3833 502.66 -1522 224 219 166
-49.2838 502.967 -1523 225 218 164
-46.1806 503.275 -1524 223 216 162
-43.0736 503.585 -1525 223 214 160
-39.9891 504.226 -1527 225 216 162
-36.8727 504.539 -1528 226 217 163
-33.7524 504.853 -1529 223 216 162
-30.6483 505.498 -1531 220 214 158
-27.5182 505.815 -1532 215 210 153
-24.3684 505.803 -1532 211 209 149
-21.2326 506.123 -1533 214 212 152
-18.0929 506.444 -1534 218 216 156
-14.9494 506.767 -1535 221 219 158
-11.8094 507.421 -1537 224 221 161
-8.65561 507.747 -1538 227 222 163
-5.50148 508.404 -1540 228 223 165
-2.33765 508.732 -1541 230 225 168
0.830276 509.062 -1542 231 226 169
4.00491 509.723 -1544 233 228 172
7.1878 510.386 -1546 237 232 177
10.3991 512.041 -1551 242 239 185
13.6398 514.027 -1557 249 243 198
16.927 516.675 -1565 254 246 214
20.2342 518.995 -1572 255 248 221
23.6898 523.957 -1587 255 250 226
-184.095 536.819 -1630 195 201 200
-176.158 523.235 -1589 204 208 197
-171.222 518.216 -1574 209 213 196
-166.456 513.529 -1560 209 214 189
-162.692 511.808 -1555 209 212 181
-158.744 509.431 -1548 210 213 181
-155.229 508.371 -1545 210 213 176
-151.433 506.327 -1539 214 217 181
-147.952 505.271 -1536 215 218 183
-144.39 503.889 -1532 214 217 181
-141.123 503.494 -1531 213 215 178
-137.68 502.444 -1528 212 213 175
-134.34 501.724 -1526 211 213 166
-130.923 500.677 -1523 210 212 165
-127.771 500.618 -1523 208 210 163
-124.456 499.903 -1521 207 210 163
-121.311 499.847 -1521 207 210 163
-117.855 498.477 -1517 210 211 161
-114.72 498.424 -1517 216 216 165
-111.439 497.715 -1515 222 220 169
-108.31 497.665 -1515 228 225 172
-105.251 497.945 -1516 229 226 173
-102.189 498.226 -1517 230 227 174
-99.1237 498.508 -1518 232 229 176
-96.0552 498.792 -1519 232 229 176
-92.7999 498.092 -1517 232 229 176
-89.6127 497.722 -1516 233 230 177
-86.4304 497.354 -1515 233 230 177
-83.3079 497.315 -1515 231 228 175
-80.1863 497.278 -1515 229 226 172
-77.167 497.898 -1517 228 225 170
-74.0425 497.864 -1517 229 224 169
-71.0121 498.487 -1519 228 223 169
-67.9294 498.783 -1520 226 222 169
-64.8006 498.753 -1520 223 220 166
-61.7129 499.052 -1521 222 219 164
-58.6601 499.681 -1523 224 221 166
-55.5267 499.655 -1523 225 221 167
-52.4281 499.959 -1524 226 221 168
-49.3259 500.263 -1525 226 219 165
-46.1897 500.242 -1525 225 217 163
-43.054 500.221 -1525 223 215 161
-39.9708 500.859 -1527 223 214 160
-36.88 501.497 -1529 223 214 160
-33.7369 501.481 -1529 220 213 159
-30.6343 502.122 -1531 220 214 159
-27.5056 502.437 -1532 217 212 155
-24.3573 502.425 -1532 213 211 151
-21.2229 502.743 -1533 214 212 152
-18.0965 503.39 -1535 215 213 153
-14.9523 503.71 -1536 218 216 154
-11.8039 504.032 -1537 220 217 156
-8.65175 504.355 -1538 222 217 158
-5.49551 504.68 -1539 225 220 162
-2.33521 505.006 -1540 229 224 167
0.829374 505.334 -1541 230 225 168
3.99788 505.663 -1542 232 227 171
7.18447 506.977 -1546 236 231 176
10.3876 508.293 -1550 240 237 184
13.6073 509.61 -1554 248 242 198
16.8867 512.241 -1562 252 243 211
20.1864 514.545 -1569 255 247 220
23.5447 517.506 -1578 255 250 224
26.9574 520.797 -1588 255 251 229
-183.559 531.904 -1626 194 200 201
-176.299 520.373 -1591 202 207 196
-170.926 514.08 -1572 207 212 195
-166.38 510.08 -1560 208 212 190
-162.722 508.697 -1556 211 214 183
-158.672 506.008 -1548 211 214 182
-155.058 504.629 -1544 210 213 177
-151.364 502.926 -1539 210 213 178
-148.077 502.531 -1538 211 214 179
-144.513 501.157 -1534 213 216 180
-141.15 500.439 -1532 214 215 179
-137.798 499.722 -1530 212 213 176
-134.366 498.68 -1527 211 213 166
-131.035 497.967 -1525 211 213 166
-127.88 497.908 -1525 209 211 165
-124.4 496.545 -1521 206 210 163
-121.335 496.816 -1522 207 211 164
-117.957 495.782 -1519 213 214 164
-114.592 494.75 -1516 218 217 166
-111.315 494.046 -1514 222 220 169
-108.26 494.323 -1515 226 223 171
-105.064 493.948 -1514 229 226 174
-102.075 494.554 -1516 232 229 176
-98.9481 494.508 -1516 233 230 177
-95.9484 495.116 -1518 233 230 177
-92.6965 494.421 -1516 233 230 177
-89.572 494.38 -1516 233 230 177
-86.3911 494.014 -1515 234 231 178
-83.38 494.627 -1517 233 230 177
-80.2556 494.59 -1517 231 228 175
-77.2335 495.207 -1519 230 227 172
-74.204 495.824 -1521 231 226 171
-71.1201 496.117 -1522 229 225 170
-67.9432 495.76 -1521 227 224 171
-64.8138 495.73 -1521 226 223 168
-61.766 496.353 -1523 224 221 166
-58.6335 496.326 -1523 224 221 166
-55.5379 496.626 -1524 227 222 169
-52.4732 497.253 -1526 229 224 171
-49.3359 497.23 -1526 227 220 166
-46.199 497.209 -1526 225 218 164
-43.0908 497.514 -1527 223 216 162
-39.9789 497.821 -1528 221 214 160
-36.8632 498.13 -1529 221 213 159
-33.7437 498.439 -1530 220 213 159
-30.6403 499.076 -1532 221 215 161
-27.4932 499.063 -1532 221 216 160
-24.3463 499.052 -1532 220 215 158
-21.2272 499.693 -1534 217 213 155
-18.1119 500.661 -1537 216 214 154
-14.965 500.979 -1538 218 216 155
-11.8217 501.625 -1540 218 215 155
-8.65353 501.295 -1539 220 215 156
-5.49294 501.291 -1539 222 217 160
-2.33562 501.941 -1541 226 221 164
0.828818 501.941 -1541 228 223 166
3.99605 502.268 -1542 231 226 171
7.18116 503.573 -1546 236 231 176
10.3897 505.205 -1551 240 237 184
13.5923 505.863 -1553 248 243 198
16.8575 508.15 -1560 253 245 211
20.1257 509.787 -1565 255 247 218
23.4445 512.077 -1572 255 247 220
26.7584 513.717 -1577 255 250 225
30.3784 520.245 -1597 255 251 231
-183.927 529.611 -1630 192 198 199
-176.441 517.508 -1593 200 205 194
-170.957 510.933 -1573 205 209 192
-166.731 507.934 -1564 208 212 190
-162.335 504.287 -1553 212 215 184
-158.395 501.941 -1546 212 215 183
-154.787 500.572 -1542 211 214 179
-151.492 500.178 -1541 207 210 175
-148.01 499.137 -1538 209 212 177
-144.353 497.448 -1533 212 215 179
-141.086 497.059 -1532 213 215 179
-137.645 496.023 -1529 214 215 178
-134.306 495.313 -1527 212 214 168
-131.147 495.253 -1527 210 212 167
-128.074 495.519 -1528 210 212 167
-124.507 493.84 -1523 208 212 166
-121.121 492.812 -1520 212 215 170
-117.904 492.434 -1519 217 218 168
-114.616 491.734 -1517 219 219 167
-111.264 490.71 -1514 221 220 166
-108.211 490.985 -1515 224 221 170
-105.017 490.613 -1514 228 225 174
-101.962 490.89 -1515 233 230 179
-98.9034 491.169 -1516 233 230 177
-95.8418 491.449 -1517 233 230 177
-92.5324 490.435 -1514 234 231 178
-89.4725 490.718 -1515 235 232 179
-86.3522 490.678 -1515 234 231 178
-83.3424 491.288 -1517 234 231 178
-80.2194 491.251 -1517 233 230 176
-77.2495 492.187 -1520 231 228 173
-74.1705 492.477 -1521 231 227 172
-71.0879 492.768 -1522 230 227 172
-67.8679 492.089 -1520 228 225 170
-64.7419 492.059 -1520 228 225 170
-61.6571 492.355 -1521 228 225 170
-58.5686 492.651 -1522 225 222 168
-55.4764 492.949 -1523 226 222 168
-52.4839 494.22 -1527 228 223 170
-49.3459 494.197 -1527 230 223 170
-46.2086 494.175 -1527 228 221 168
-43.0996 494.479 -1528 227 220 167
-39.9871 494.784 -1529 224 217 163
-36.8466 494.767 -1529 221 214 160
-33.7285 495.074 -1530 220 213 159
-30.6465 496.031 -1533 222 216 161
-27.4808 495.694 -1532 223 218 162
-24.3671 496.33 -1534 222 217 160
-21.2453 496.967 -1536 219 214 157
-18.1155 497.605 -1538 218 214 156
-14.9777 498.244 -1540 218 215 156
-11.8241 498.562 -1541 219 215 156
-8.66657 498.881 -1542 221 216 157
-5.49772 498.554 -1541 221 216 159
-2.33604 498.876 -1542 224 219 162
0.828458 498.552 -1541 226 221 164
3.99941 499.524 -1544 230 225 169
7.18252 500.497 -1547 235 230 175
10.3849 501.795 -1551 240 237 184
13.595 502.771 -1554 243 239 192
16.839 504.396 -1559 248 241 205
20.0909 505.698 -1563 255 247 215
23.3743 507.326 -1568 255 248 217
26.6785 508.955 -1573 255 248 222
30.1554 513.174 -1586 255 249 226
-176.583 514.639 -1595 199 204 194
-170.989 507.786 -1574 209 214 197
-166.443 503.839 -1562 212 216 194
-162.157 500.54 -1552 211 215 185
-158.221 498.211 -1545 211 215 184
-154.818 497.495 -1543 210 213 179
-151.325 496.46 -1540 209 212 178
-147.847 495.425 -1537 210 213 179
-144.382 494.393 -1534 212 215 180
-141.115 494.007 -1533 214 216 180
-137.583 492.655 -1529 213 214 178
-134.333 492.272 -1528 212 214 169
-131.002 491.568 -1526 212 214 170
-127.849 491.51 -1526 211 214 171
-124.451 490.488 -1523 210 214 169
-121.067 489.466 -1520 214 217 172
-117.696 488.447 -1517 219 220 170
-114.489 488.073 -1516 221 220 169
-111.214 487.379 -1514 221 219 167
-108.092 487.33 -1514 223 221 170
-104.9 486.96 -1513 228 225 174
-101.849 487.236 -1514 234 231 180
-98.7286 487.191 -1514 232 229 176
-95.6725 487.469 -1515 231 228 175
-92.552 487.427 -1515 235 232 179
-89.4323 487.386 -1515 237 234 181
-86.3134 487.347 -1515 236 233 180
-83.36 488.274 -1518 235 232 179
-80.2892 488.56 -1519 234 231 177
-77.2657 489.168 -1521 231 228 174
-74.186 489.455 -1522 230 227 172
-71.0095 489.101 -1521 229 226 171
-67.8822 489.07 -1521 227 224 169
-64.713 488.719 -1520 227 224 169
-61.5889 488.691 -1520 229 226 171
-58.5424 489.307 -1522 228 225 172
-55.488 489.925 -1524 227 224 171
-52.426 490.544 -1526 227 223 170
-49.3239 490.842 -1527 230 223 171
-46.2483 491.464 -1529 229 222 170
-43.1086 491.444 -1529 230 223 171
-39.9954 491.747 -1530 227 220 167
-36.8783 492.051 -1531 223 216 162
-33.8016 493 -1534 221 215 160
-30.6528 492.985 -1534 221 216 160
-27.5224 493.294 -1535 222 217 160
-24.3879 493.603 -1536 222 217 160
-21.2358 493.593 -1536 221 216 159
-18.0957 493.906 -1537 220 215 158
-14.9516 494.22 -1538 219 214 157
-11.8111 494.857 -1540 220 215 158
-8.65133 494.852 -1540 221 216 157
-5.4918 494.849 -1540 221 216 159
-2.33514 495.49 -1542 221 216 159
0.828101 495.168 -1541 223 218 161
3.9976 496.133 -1544 225 220 164
7.18388 497.421 -1548 229 224 169
10.3868 498.711 -1552 233 230 175
13.5975 499.68 -1555 238 233 185
16.8422 501.293 -1560 244 238 198
20.069 501.944 -1562 252 243 209
23.334 503.239 -1566 255 248 215
26.6156 504.536 -1570 255 249 220
30.009 507.441 -1579 255 250 227
33.6289 513.24 -1597 255 249 228
-176.393 510.805 -1594 200 205 196
-170.695 503.678 -1572 210 214 198
-166.262 500.078 -1561 211 216 194
-161.98 496.802 -1551 211 216 187
-158.458 495.77 -1548 212 216 186
-154.748 494.098 -1543 211 214 181
-151.356 493.39 -1541 210 213 180
-147.877 492.363 -1538 210 213 180
-144.223 490.697 -1533 211 214 179
-140.868 489.994 -1531 212 214 178
-137.612 489.612 -1530 212 213 177
-134.361 489.231 -1529 213 215 170
-131.116 488.852 -1528 213 215 171
-127.875 488.475 -1527 211 215 171
-124.477 487.459 -1524 212 216 171
-121.013 486.125 -1520 215 219 173
-117.798 485.752 -1519 220 220 171
-114.514 485.061 -1517 222 221 171
-111.312 484.691 -1516 222 220 170
-108.115 484.323 -1515 223 221 170
-104.923 483.956 -1514 227 225 174
-101.803 483.91 -1514 231 229 178
-98.6847 483.865 -1514 233 230 177
-95.6299 484.142 -1515 232 229 177
-92.5719 484.42 -1516 236 233 180
-89.5105 484.699 -1517 238 235 182
-86.4459 484.979 -1518 238 235 182
-83.4875 485.9 -1521 237 234 181
-80.2535 485.225 -1519 235 232 179
-77.2314 485.829 -1521 233 230 177
-74.2018 486.434 -1523 232 229 174
-71.0712 486.402 -1523 231 228 174
-67.8074 485.413 -1520 227 224 169
-64.6842 485.384 -1520 225 222 167
-61.5616 485.355 -1520 226 223 168
-58.5164 485.968 -1522 224 221 168
-55.4635 486.581 -1524 223 220 167
-52.4027 487.196 -1526 223 220 167
-49.302 487.492 -1527 227 220 168
-46.2278 488.11 -1529 228 221 169
-43.0895 488.09 -1529 229 222 170
-39.9776 488.39 -1530 228 223 169
-36.8619 488.693 -1531 226 221 168
-33.7866 489.635 -1534 224 219 164
-30.6593 489.94 -1535 222 217 162
-27.4922 489.608 -1534 222 217 162
-24.3772 490.235 -1536 221 216 159
-21.2264 490.225 -1536 221 216 159
-18.0877 490.535 -1537 222 217 160
-14.9546 491.166 -1539 222 217 160
-11.7906 490.841 -1538 221 216 158
-8.64194 491.156 -1539 220 215 156
-5.48927 491.472 -1540 221 216 159
-2.33405 492.108 -1542 222 217 160
0.828283 492.108 -1542 223 218 161
3.99838 493.066 -1545 224 219 163
7.18546 494.346 -1549 227 222 167
10.3823 495.307 -1552 230 226 171
13.5915 496.27 -1555 236 231 181
16.8132 497.234 -1558 243 237 194
20.0344 497.88 -1560 248 241 203
23.2789 498.847 -1563 253 245 209
26.553 500.135 -1567 255 249 217
29.9575 503.339 -1577 255 250 228
33.4035 506.545 -1587 255 250 230
-176.204 506.979 -1593 200 205 197
-170.511 499.901 -1571 210 215 199
-165.975 496.009 -1559 212 218 196
-162.117 494.027 -1553 212 217 188
-158.694 493.32 -1551 211 215 185
-154.88 491.342 -1545 212 215 182
-151.485 490.639 -1543 211 214 181
-148.004 489.619 -1540 210 213 180
-144.348 487.964 -1535 209 212 177
-140.989 487.266 -1533 210 212 177
-137.551 486.251 -1530 212 213 177
-134.301 485.873 -1529 213 215 170
-130.972 485.179 -1527 213 216 171
-127.902 485.439 -1528 213 217 172
-124.422 484.113 -1524 215 219 174
-121.118 483.423 -1522 217 220 174
-117.824 482.735 -1520 222 220 172
-114.614 482.366 -1519 223 222 173
-111.336 481.682 -1517 224 222 173
-108.21 481.633 -1517 225 223 172
-105.015 481.269 -1516 227 225 174
-101.826 480.906 -1515 230 228 177
-98.7714 481.179 -1516 233 230 179
-95.6507 481.136 -1516 233 230 179
-92.531 481.095 -1516 235 232 181
-89.471 481.372 -1517 235 233 180
-86.5215 482.285 -1520 235 233 180
-83.3409 481.93 -1519 236 233 180
-80.2708 482.212 -1520 236 233 180
-77.1973 482.494 -1521 234 231 178
-74.0716 482.461 -1521 233 230 177
-70.8999 482.112 -1520 232 229 175
-67.7775 482.081 -1520 229 227 171
-64.6557 482.052 -1520 227 224 169
-61.6154 482.659 -1522 228 225 171
-58.4906 482.632 -1522 228 225 172
-55.4753 483.559 -1525 228 225 172
-52.4483 484.486 -1528 228 225 172
-49.3448 484.781 -1529 228 221 169
-46.2678 485.394 -1531 229 222 170
-43.1268 485.374 -1531 228 221 169
-40.0122 485.673 -1532 227 222 169
-36.8698 485.656 -1532 228 223 170
-33.7717 486.275 -1534 225 220 166
-30.6458 486.577 -1535 224 218 164
-27.516 486.881 -1536 224 218 164
-24.3665 486.87 -1536 223 218 161
-21.2448 487.494 -1538 221 216 159
-18.0915 487.485 -1538 221 216 160
-14.9481 487.795 -1539 220 216 159
-11.7931 487.789 -1539 221 216 159
-8.65502 488.736 -1542 222 217 158
-5.49407 488.733 -1542 222 217 160
-2.33618 489.365 -1544 223 218 161
0.82881 489.365 -1544 222 217 160
4.00176 490.317 -1547 223 218 162
7.18686 491.27 -1550 224 219 164
10.3776 491.908 -1552 227 222 167
13.5767 492.547 -1554 233 227 176
16.8058 493.821 -1558 240 234 188
20.0255 494.464 -1560 245 237 199
23.2686 495.424 -1563 249 242 204
26.5581 497.02 -1568 254 247 213
29.8684 498.617 -1573 254 248 224
33.2625 501.167 -1581 255 250 228
36.8975 506.571 -1598 253 251 228
-176.568 504.743 -1597 198 202 196
-170.652 497.082 -1573 208 213 197
-166.008 492.9 -1560 211 217 195
-162.045 490.616 -1553 212 217 188
-158.624 489.914 -1551 211 215 185
-154.912 488.266 -1546 213 216 183
-151.516 487.567 -1544 212 215 182
-147.842 485.923 -1539 211 214 180
-144.19 484.28 -1534 209 212 177
-140.743 483.27 -1531 210 212 176
-137.4 482.578 -1529 212 213 177
-134.242 482.519 -1529 214 215 173
-130.914 481.829 -1527 215 217 173
-127.679 481.457 -1526 215 219 174
-124.367 480.771 -1524 215 219 174
-120.985 479.771 -1521 217 220 174
-117.772 479.403 -1520 222 220 172
-114.639 479.352 -1520 223 222 173
-111.434 478.987 -1519 224 223 174
-108.162 478.309 -1517 225 223 172
-105.108 478.577 -1518 226 224 173
-101.848 477.902 -1516 228 226 175
-98.7931 478.173 -1517 233 230 179
-95.6088 477.815 -1516 235 232 181
-92.6124 478.404 -1518 236 233 182
-89.4318 478.049 -1517 236 234 181
-86.3129 478.011 -1517 235 234 180
-83.2496 478.289 -1518 236 233 181
-80.1301 478.253 -1518 236 233 181
-77.062 478.534 -1519 236 233 180
-73.9417 478.501 -1519 234 231 178
-70.8222 478.47 -1519 231 228 174
-67.7032 478.439 -1519 229 228 172
-64.6274 478.725 -1520 234 231 176
-61.5884 479.328 -1522 237 234 180
-58.5418 479.931 -1524 235 232 179
-55.5238 480.851 -1527 234 231 178
-52.4254 481.143 -1528 233 230 177
-49.3555 481.75 -1530 236 229 177
-46.1873 481.414 -1529 235 228 176
-43.1079 482.024 -1531 230 225 172
-39.9947 482.321 -1532 229 224 171
-36.8777 482.619 -1533 228 223 170
-33.779 483.234 -1535 226 221 168
-30.6722 483.849 -1537 225 219 166
-27.5218 483.836 -1537 225 218 166
-24.3717 483.825 -1537 224 217 163
-21.2492 484.445 -1539 222 216 162
-18.0954 484.436 -1539 221 216 161
-14.961 485.059 -1541 219 217 159
-11.7956 484.738 -1540 220 217 159
-8.65689 485.678 -1543 221 216 157
-5.49513 485.675 -1543 222 217 159
-2.3351 485.988 -1544 223 218 161
0.828996 486.302 -1545 221 216 159
4.00257 487.248 -1548 223 218 162
7.18827 488.195 -1551 224 219 164
10.3729 488.513 -1552 225 220 167
13.5795 489.463 -1555 230 224 173
16.7982 490.413 -1558 236 230 182
20.0295 491.366 -1561 241 234 192
23.2882 492.635 -1565 245 238 197
26.5465 493.59 -1568 250 244 205
29.7984 494.232 -1570 253 248 216
33.2269 497.394 -1580 252 247 217
36.8351 502.446 -1596 254 251 227
-176.933 502.494 -1601 196 200 195
-170.469 493.317 -1572 205 210 194
-165.936 489.478 -1560 208 214 192
-162.183 487.838 -1555 209 214 185
-158.453 486.199 -1550 209 213 183
-154.844 484.876 -1546 211 214 182
-151.45 484.182 -1544 212 215 182
-147.97 483.176 -1541 211 214 181
-144.221 481.232 -1535 210 213 178
-140.866 480.542 -1533 211 213 177
-137.52 479.855 -1531 214 215 179
-134.184 479.169 -1529 216 217 175
-130.771 478.171 -1526 215 218 175
-127.54 477.802 -1525 215 219 175
-124.231 477.12 -1523 216 220 175
-120.853 476.127 -1520 217 219 174
-117.643 475.762 -1519 222 220 172
-114.589 476.025 -1520 222 223 173
-111.385 475.663 -1519 223 224 173
-108.115 474.989 -1517 225 223 173
-105.062 475.256 -1518 226 224 173
-101.871 474.898 -1517 228 226 175
-98.7501 474.854 -1517 233 230 179
-95.5671 474.499 -1516 235 232 181
-92.5721 475.084 -1518 236 233 182
-89.3339 474.419 -1516 238 236 183
-86.3322 475.006 -1518 238 237 183
-83.2681 475.282 -1519 239 236 185
-80.2007 475.56 -1520 239 236 184
-77.0792 475.526 -1520 239 236 183
-74.007 475.806 -1521 239 236 183
-70.838 475.462 -1520 236 234 180
-67.8075 476.057 -1522 232 231 175
-64.7268 476.341 -1523 233 231 176
-61.7234 477.252 -1526 235 232 177
-58.6699 477.851 -1528 233 230 177
-55.6086 478.452 -1530 235 232 179
-52.4026 477.803 -1528 235 232 179
-49.3341 478.407 -1530 237 230 178
-46.2275 478.699 -1531 235 229 176
-43.1455 479.305 -1533 232 227 174
-40.0034 479.286 -1533 230 225 172
-36.9098 479.895 -1535 228 223 170
-33.8082 480.505 -1537 226 221 168
-30.659 480.491 -1537 227 221 169
-27.5278 480.791 -1538 227 220 168
-24.3611 480.467 -1537 224 217 163
-21.2676 481.708 -1541 223 217 162
-18.0992 481.387 -1540 223 216 162
-14.9739 482.317 -1543 221 217 160
-11.7981 481.686 -1541 221 217 159
-8.65878 482.62 -1544 220 215 156
-5.49994 482.929 -1545 221 216 158
-2.33574 482.928 -1545 222 217 160
0.829719 483.553 -1547 222 217 160
4.00337 484.179 -1549 224 219 163
7.18506 484.806 -1551 224 219 164
10.3685 485.123 -1552 225 220 167
13.5823 486.378 -1556 228 223 171
16.7803 486.698 -1557 231 227 177
20.0208 487.956 -1561 237 231 186
23.2482 488.59 -1563 242 236 192
26.501 489.539 -1566 247 241 199
29.7854 490.802 -1570 249 243 205
33.0652 491.753 -1573 249 244 207
36.5191 494.895 -1583 250 246 220
40.366 502.415 -1607 252 248 227
-177.408 500.544 -1606 196 200 195
-171.154 492.054 -1579 201 207 190
-165.863 486.06 -1560 205 211 189
-161.904 483.808 -1553 207 212 183
-158.69 483.739 -1553 209 213 183
-155.078 482.425 -1549 210 213 182
-151.581 481.424 -1546 211 214 181
-148.097 480.425 -1543 211 214 181
-144.346 478.494 -1537 211 214 179
-140.896 477.499 -1534 214 215 180
-137.55 476.816 -1532 216 217 181
-134.126 475.824 -1529 216 217 175
-130.715 474.833 -1526 214 217 174
-127.484 474.466 -1525 215 219 176
-124.178 473.79 -1523 217 221 178
-120.88 473.114 -1521 217 220 175
-117.747 473.063 -1521 221 219 171
-114.69 473.324 -1522 221 222 171
-111.41 472.653 -1520 222 223 171
-108.211 472.295 -1519 225 223 173
-105.016 471.938 -1518 226 224 174
-101.76 471.272 -1516 229 227 176
-98.6423 471.228 -1516 231 229 178
-95.4628 470.876 -1515 234 232 180
-92.4101 471.146 -1516 237 234 181
-89.2364 470.796 -1515 237 236 182
-86.2949 471.691 -1518 239 238 184
-83.1774 471.654 -1518 240 237 186
-80.1661 472.24 -1520 239 236 184
-77.0966 472.517 -1521 239 236 183
-74.0237 472.795 -1522 240 237 184
-70.854 472.453 -1521 239 236 183
-67.8227 473.045 -1523 233 232 176
-64.7413 473.327 -1524 230 227 173
-61.7373 474.231 -1527 234 231 177
-58.7213 475.137 -1530 239 236 185
-55.621 475.423 -1531 240 237 185
-52.4143 474.779 -1529 235 232 179
-49.3127 475.067 -1530 236 229 178
-46.2076 475.357 -1531 236 229 178
-43.0987 475.649 -1532 233 228 175
-39.9862 475.941 -1533 230 225 172
-36.9179 476.856 -1536 228 223 170
-33.8157 477.462 -1538 227 222 169
-30.6657 477.448 -1538 229 223 171
-27.5338 477.746 -1539 230 223 171
-24.3822 477.735 -1539 227 220 166
-21.2723 478.656 -1542 225 218 164
-18.1268 478.958 -1543 223 216 162
-14.9966 479.882 -1546 222 217 161
-11.8313 479.877 -1546 222 217 161
-8.6775 480.493 -1548 221 216 157
-5.50833 480.49 -1548 221 216 158
-2.33618 479.868 -1546 221 216 159
0.830444 480.799 -1549 222 217 160
4.00161 480.8 -1549 224 219 163
7.18206 481.423 -1551 225 220 165
10.3507 481.116 -1550 227 222 169
13.5677 482.673 -1555 228 224 171
16.7622 482.99 -1556 229 226 175
19.9866 483.929 -1559 235 229 182
23.2085 484.56 -1561 240 234 188
26.4726 485.812 -1565 242 236 193
29.7725 487.376 -1570 242 236 193
33.0508 488.321 -1573 245 239 197
36.5264 491.751 -1584 245 241 210
40.2984 498.287 -1605 247 243 219
-177.663 497.957 -1609 194 198 195
-171.189 488.908 -1580 198 204 188
-166.005 483.266 -1562 201 207 187
-162.147 481.339 -1556 207 212 183
-158.418 479.723 -1551 210 214 183
-154.911 478.728 -1548 210 213 181
-151.417 477.735 -1545 211 214 181
-147.842 476.434 -1541 213 216 183
-144.284 475.134 -1537 215 218 183
-140.836 474.146 -1534 217 220 184
-137.491 473.468 -1532 216 218 182
-134.156 472.792 -1530 212 215 174
-130.744 471.808 -1527 213 217 174
-127.429 471.135 -1525 216 220 175
-124.043 470.154 -1522 219 222 178
-120.828 469.793 -1521 219 221 176
-117.619 469.433 -1520 220 219 172
-114.565 469.692 -1521 220 220 171
-111.289 469.026 -1519 220 221 171
-108.235 469.288 -1520 222 220 171
-105.04 468.933 -1519 224 222 172
-101.85 468.58 -1518 226 224 174
-98.7301 468.538 -1518 230 228 177
-95.4848 467.879 -1516 234 232 180
-92.3705 467.838 -1516 236 233 180
-89.2569 467.8 -1516 238 236 182
-86.201 468.071 -1517 237 236 182
-83.0869 468.034 -1517 239 236 184
-80.1845 469.234 -1521 240 237 184
-77.0635 469.2 -1521 239 236 183
-73.9919 469.476 -1522 239 236 183
-70.8702 469.445 -1522 238 236 182
-67.8827 470.341 -1525 235 233 177
-64.7985 470.621 -1526 230 228 173
-61.7512 471.211 -1528 229 226 172
-58.6962 471.802 -1530 238 235 184
-55.5972 472.086 -1531 242 239 186
-52.3918 471.446 -1529 238 235 182
-49.3561 472.349 -1532 239 232 182
-46.2482 472.637 -1533 238 232 180
-43.1647 473.235 -1535 236 231 178
-40.0733 473.834 -1537 233 228 175
-36.9742 474.434 -1539 232 227 174
-33.8232 474.419 -1539 230 225 172
-30.6924 474.713 -1540 229 224 171
-27.5399 474.701 -1540 228 223 171
-24.4035 474.998 -1541 228 221 167
-21.2908 475.913 -1544 227 220 166
-18.1542 476.521 -1546 226 219 165
-15.0096 477.131 -1548 223 218 163
-11.8493 477.433 -1549 224 219 163
-8.68501 477.737 -1550 223 218 159
-5.51316 477.734 -1550 222 217 160
-2.33663 476.808 -1547 221 216 159
0.830099 477.424 -1549 222 217 160
3.99985 477.425 -1549 222 217 161
7.17889 478.044 -1551 222 217 162
10.3662 478.664 -1553 226 221 168
13.5792 479.902 -1557 227 223 170
16.7765 480.217 -1558 229 226 172
20.0035 481.149 -1561 233 227 180
23.2135 481.467 -1562 235 229 183
26.4444 482.094 -1564 237 231 186
29.6838 482.722 -1566 238 231 187
32.9948 484.277 -1571 240 233 189
36.4416 487.374 -1581 238 235 201
40.2058 493.865 -1602 240 237 210
-178.47 496.898 -1617 192 197 196
-171.982 487.912 -1588 194 199 186
-165.827 479.545 -1561 196 201 185
-162.078 477.939 -1556 202 207 178
-158.248 476.028 -1550 209 213 182
-154.744 475.04 -1547 214 217 184
-151.353 474.361 -1545 213 216 183
-147.779 473.069 -1541 215 218 185
-144.129 471.472 -1536 218 221 186
-140.868 471.104 -1535 219 222 186
-137.432 470.124 -1532 215 218 182
-134.011 469.146 -1529 212 216 175
-130.603 468.169 -1526 212 216 173
-127.208 467.194 -1523 212 216 171
-123.908 466.527 -1521 216 218 173
-120.697 466.169 -1520 217 218 173
-117.414 465.504 -1518 218 218 172
-114.441 466.069 -1520 219 220 171
-111.168 465.407 -1518 219 220 171
-108.047 465.361 -1518 222 220 171
-104.857 465.009 -1517 223 221 172
-101.74 464.965 -1517 224 222 173
-98.558 464.616 -1516 227 225 174
-95.3812 464.268 -1515 231 229 177
-92.2702 464.229 -1515 233 232 179
-89.1013 463.884 -1514 237 236 182
-86.0507 464.153 -1515 238 237 183
-82.9969 464.423 -1516 240 239 185
-80.0449 465.308 -1519 241 239 185
-76.9295 465.275 -1519 240 237 184
-73.9118 465.855 -1521 238 235 182
-70.8866 466.437 -1523 235 232 178
-67.8983 467.327 -1526 233 230 175
-64.8558 467.911 -1528 233 230 175
-61.725 467.884 -1528 226 223 168
-58.6712 468.471 -1530 228 225 172
-55.5373 468.447 -1530 235 232 179
-52.3695 468.118 -1529 239 236 183
-49.2707 468.402 -1530 240 235 182
-46.2285 469.3 -1533 237 233 180
-43.1182 469.588 -1534 235 232 179
-40.0303 470.182 -1536 234 231 178
-36.9825 471.39 -1540 233 229 176
-33.8528 471.682 -1541 230 225 172
-30.6993 471.668 -1541 229 223 172
-27.564 471.962 -1542 228 223 172
-24.409 471.951 -1542 228 222 169
-21.2679 472.247 -1543 228 222 168
-18.1348 472.851 -1545 228 222 167
-15.0033 473.762 -1548 224 219 164
-11.8519 474.368 -1550 224 219 163
-8.69254 474.976 -1552 224 218 160
-5.51781 474.973 -1552 223 217 159
-2.3418 474.665 -1551 222 216 159
0.831705 475.277 -1553 221 216 160
4.00585 474.972 -1552 220 216 160
7.18962 475.587 -1554 222 219 164
10.3752 475.896 -1555 226 221 167
13.5821 476.82 -1558 227 222 168
16.7693 476.826 -1558 227 224 170
19.9951 477.752 -1561 228 225 176
23.2034 478.067 -1562 229 226 177
26.3993 478.078 -1562 231 226 180
29.6711 479.314 -1566 233 227 182
32.9806 480.858 -1571 234 228 184
36.4031 483.627 -1580 232 229 193
40.0632 488.847 -1597 233 230 200
-171.8 484.141 -1587 192 197 185
-166.181 477.358 -1565 196 201 185
-162.113 474.849 -1557 200 205 177
-158.283 472.951 -1551 207 211 182
-154.679 471.665 -1547 216 219 188
-151.288 470.991 -1545 220 223 191
-147.62 469.404 -1540 220 223 191
-144.161 468.428 -1537 220 223 188
-140.808 467.758 -1535 219 222 186
-137.464 467.09 -1533 214 217 181
-134.129 466.423 -1531 211 215 174
-130.718 465.453 -1528 211 215 172
-127.405 464.789 -1526 211 215 170
-123.937 463.518 -1522 214 216 171
-120.646 462.857 -1520 217 218 173
-117.364 462.198 -1518 220 220 174
-114.242 462.149 -1518 220 221 172
-111.048 461.797 -1517 219 220 171
-108.001 462.056 -1518 220 218 169
-104.744 461.402 -1516 222 220 171
-101.764 461.967 -1518 224 222 173
-98.5813 461.621 -1517 226 224 173
-95.4039 461.275 -1516 229 227 176
-92.2313 460.932 -1515 233 231 180
-89.1224 460.893 -1515 237 236 183
-86.0711 461.161 -1516 239 238 184
-83.0165 461.429 -1517 240 239 185
-80.0111 462.003 -1519 241 239 186
-76.9476 462.274 -1520 241 238 185
-73.9291 462.851 -1522 238 235 182
-70.8567 463.125 -1523 235 232 179
-67.9142 464.312 -1527 234 231 176
-64.8285 464.588 -1528 236 233 180
-61.6988 464.561 -1528 229 226 173
-58.6082 464.84 -1529 224 221 168
-55.4776 464.816 -1529 232 229 176
-52.3132 464.489 -1528 236 233 180
-49.2499 465.076 -1530 240 235 182
-46.2392 466.272 -1534 240 235 183
-43.1282 466.557 -1535 237 234 182
-40.0655 467.451 -1538 235 232 179
-37.0389 468.955 -1543 234 231 178
-33.8605 468.636 -1542 234 229 175
-30.7262 468.926 -1543 230 225 173
-27.606 469.522 -1545 229 224 172
-24.4304 469.207 -1544 228 223 169
-21.2866 469.501 -1545 228 223 169
-18.1506 470.101 -1547 229 224 169
-14.9969 470.398 -1548 228 223 169
-11.8469 471 -1550 228 223 168
-8.68889 471.603 -1552 226 220 164
-5.51555 471.6 -1552 225 219 162
-2.34376 471.903 -1553 224 218 161
0.831898 472.206 -1554 223 218 163
4.00927 472.207 -1554 222 218 163
7.1913 472.513 -1555 222 219 164
10.3841 473.125 -1557 224 219 164
13.5851 473.738 -1559 224 220 166
16.7837 474.048 -1560 224 223 169
19.9993 474.663 -1562 226 224 172
23.1936 474.673 -1562 227 225 174
26.3881 474.683 -1562 228 225 177
29.6397 475.607 -1565 227 225 180
32.8827 476.228 -1567 228 226 182
36.2265 478.066 -1573 228 225 190
40.0212 485.072 -1596 226 225 196
44.1003 494.208 -1626 223 222 198
-171.944 481.287 -1589 192 197 185
-166.642 475.462 -1570 197 203 188
-162.044 471.456 -1557 201 206 180
-158.522 470.48 -1554 208 212 184
-154.913 469.203 -1550 217 220 190
-151.323 467.928 -1546 223 226 195
-147.749 466.655 -1542 226 229 197
-144.288 465.686 -1539 224 227 192
-140.84 464.718 -1536 220 223 187
-137.495 464.055 -1534 218 221 184
-133.985 462.788 -1530 214 218 177
-130.749 462.43 -1529 214 217 175
-127.184 460.864 -1524 212 215 171
-123.804 459.904 -1521 212 214 169
-120.596 459.551 -1520 214 216 171
-117.315 458.896 -1518 218 218 174
-114.119 458.545 -1517 220 221 173
-111.001 458.498 -1517 220 221 172
-108.027 459.057 -1519 223 221 172
-104.769 458.408 -1517 224 222 173
-101.721 458.667 -1518 225 223 174
-98.6049 458.625 -1518 226 224 173
-95.4896 458.584 -1518 229 227 176
-92.2535 457.941 -1516 233 231 180
-89.1439 457.903 -1516 235 234 180
-85.9783 457.564 -1515 237 236 182
-82.8723 457.529 -1515 240 239 185
-79.9249 458.401 -1518 241 239 185
-76.8647 458.67 -1519 241 238 185
-73.8982 459.545 -1522 242 239 186
-70.7805 459.514 -1522 241 238 185
-67.7968 460.391 -1525 236 233 178
-64.7589 460.967 -1527 237 234 181
-61.5923 460.639 -1526 234 231 178
-58.5836 461.519 -1529 228 225 172
-55.4544 461.496 -1529 231 228 175
-52.3255 461.473 -1529 234 231 178
-49.2937 462.357 -1532 238 234 181
-46.2199 462.941 -1534 238 234 182
-43.054 462.621 -1533 236 233 182
-39.9967 463.509 -1536 235 232 179
-36.9515 464.7 -1540 234 231 178
-33.8244 464.987 -1541 236 231 176
-30.6935 465.275 -1542 234 229 176
-27.5944 466.168 -1545 233 228 175
-24.4359 466.157 -1545 232 227 172
-21.2777 466.148 -1545 229 224 169
-18.1196 466.139 -1545 228 223 168
-15.0004 467.339 -1549 230 225 172
-11.842 467.636 -1550 229 224 171
-8.69085 468.536 -1553 226 221 166
-5.51686 468.533 -1553 225 219 163
-2.34442 468.833 -1554 224 218 161
0.832094 469.135 -1555 223 218 163
4.01012 469.136 -1555 222 219 165
7.1928 469.44 -1556 222 219 166
10.3796 469.746 -1557 224 219 166
13.5793 470.354 -1559 222 218 166
16.7767 470.662 -1560 221 219 168
19.9782 470.971 -1561 224 222 171
23.1839 471.282 -1562 225 223 172
26.394 471.594 -1563 225 222 173
29.6461 472.511 -1566 223 221 176
32.8899 473.128 -1568 225 223 179
36.2803 475.556 -1576 224 222 187
39.9042 480.4 -1592 222 221 192
43.9734 489.47 -1622 219 219 195
-172.629 479.932 -1596 191 198 186
-166.891 472.946 -1573 195 202 188
-162.289 468.969 -1560 203 207 183
-158.558 467.399 -1555 209 213 186
-154.849 465.831 -1550 216 219 190
-151.357 464.865 -1547 221 224 193
-147.592 463 -1541 224 227 194
-144.134 462.038 -1538 222 225 190
-140.69 461.078 -1535 222 225 189
-137.349 460.419 -1533 222 225 189
-134.017 459.762 -1531 217 221 180
-130.694 459.106 -1529 216 218 177
-127.214 457.852 -1525 214 215 173
-123.833 456.899 -1522 211 213 168
-120.704 456.848 -1522 212 213 168
-117.343 455.898 -1519 215 215 171
-114.222 455.85 -1519 218 219 171
-111.101 455.803 -1519 222 222 174
-107.982 455.758 -1519 224 222 173
-104.725 455.113 -1517 224 222 173
-101.746 455.671 -1519 224 222 173
-98.5638 455.329 -1518 226 224 173
-95.3869 454.989 -1517 229 227 176
-92.2151 454.65 -1516 234 232 181
-89.048 454.313 -1515 236 235 181
-85.8291 453.677 -1513 239 238 184
-82.8378 454.241 -1515 240 239 185
-79.8391 454.807 -1517 241 239 185
-76.8328 455.374 -1519 241 238 185
-73.8675 456.242 -1522 243 240 187
-70.7976 456.512 -1523 244 241 188
-67.8574 457.682 -1527 240 237 182
-64.732 457.655 -1527 238 235 181
-61.6475 457.928 -1528 235 232 179
-58.521 457.903 -1528 229 226 173
-55.5038 458.779 -1531 229 226 173
-52.3038 458.157 -1529 235 232 179
-49.2732 459.035 -1532 235 232 179
-46.2007 459.615 -1534 235 232 180
-43.0922 459.896 -1535 236 233 182
-40.0061 460.478 -1537 235 232 179
-36.9601 461.66 -1541 234 231 178
-33.8104 461.646 -1541 236 231 176
-30.6807 461.932 -1542 236 231 177
-27.5831 462.818 -1545 236 231 178
-24.4259 462.808 -1545 234 229 174
-21.2827 463.098 -1546 230 225 170
-18.1238 463.09 -1546 228 223 168
-15.0135 464.581 -1551 228 223 170
-11.8371 464.276 -1550 228 223 169
-8.69283 465.469 -1554 227 222 167
