ply
format ascii 1.0
comment Created by Open3D
element vertex 731
property double x
property double y
property double z
property double nx
property double ny
property double nz
property uchar red
property uchar green
property uchar blue
end_header
-86.5747 -440.385 -1711.76 -0.333172 0.249504 -0.90362 216 222 242
-88.0102 -433.471 -1710.88 -0.211088 0.0394099 -0.942974 221 228 248
-91.6963 -429.046 -1711.1 -0.0356744 -0.183154 -0.951258 226 234 252
-85.7077 -419.06 -1711.54 0.0806403 -0.019869 -0.961161 226 234 254
-4.44113 -392.13 -1710.38 0.305004 0.550219 -0.678535 192 198 215
-47.5379 -386.591 -1710.92 -0.0626576 0.371728 -0.909423 209 214 233
-43.9857 -380.229 -1709.6 -0.107683 0.306527 -0.915785 211 217 236
-35.6676 -377.534 -1710.06 -0.146072 0.366722 -0.888874 207 212 232
-54.6531 -374.762 -1707.06 -0.0351836 0.183542 -0.957909 220 227 243
-42.4457 -371.818 -1707.52 -0.089163 0.237254 -0.952487 213 218 236
-40.3227 -376.382 -1709.16 -0.153008 0.284692 -0.924046 211 216 235
-30.5659 -375.88 -1708.53 0.0403566 0.426695 -0.856667 204 209 228
-15.7268 -387.672 -1712.19 0.265389 0.588292 -0.762881 198 202 222
-27.4666 -378.659 -1709.82 0.0707707 0.483183 -0.834004 201 207 226
-12.1153 -389.068 -1711.29 0.314705 0.588474 -0.729959 200 204 224
6.01937 -413.434 -1708.83 0.464873 0.31859 -0.785525 200 209 224
7.1264 -404.214 -1709.04 0.392168 0.376359 -0.721831 197 206 221
8.10475 -405.695 -1708.97 0.409327 0.374072 -0.726619 199 207 223
13.1266 -406.389 -1708.55 0.372174 0.444909 -0.69098 199 207 223
0.0574581 -390.122 -1706.42 0.391225 0.484467 -0.617346 187 194 210
16.462 -396.8 -1705.48 0.205599 0.720479 -0.520316 205 211 229
24.9695 -398.896 -1710.77 0.307601 0.778729 -0.514455 191 196 215
40.1298 -409.166 -1711.52 0.635073 0.442451 -0.62749 190 195 212
47.9929 -414.954 -1705.6 0.758708 0.23158 -0.601116 191 195 215
31.4045 -399.867 -1709.99 0.425583 0.67932 -0.577665 179 184 203
31.4708 -396.186 -1705.62 0.353844 0.728822 -0.570193 187 193 211
55.6027 -450.891 -1705.97 0.807468 -0.0900729 -0.578781 213 216 237
-95.0399 155.91 -1709.01 0.366522 -0.114065 -0.912464 45 62 95
-92.5294 156.464 -1708.3 0.332673 -0.132894 -0.924223 44 62 95
-83.0828 155.565 -1705.81 0.188658 -0.100444 -0.973273 43 62 94
-86.6156 161.873 -1707.39 0.269249 -0.168376 -0.946221 43 62 94
-91.4465 166.452 -1709.94 0.326543 -0.162961 -0.927045 44 62 95
-91.666 175.558 -1711.38 0.242609 -0.0534217 -0.95002 44 63 96
-82.2902 176.887 -1710.17 0.185327 -0.210075 -0.954384 44 63 97
-79.0418 160.096 -1705.28 0.164744 -0.0728833 -0.979707 43 63 95
-57.0584 154.502 -1705.45 0.00826956 -0.0605585 -0.996081 40 57 94
-55.6149 163.002 -1706.14 -0.0589486 -0.0320622 -0.991959 40 58 94
-73.9336 172.897 -1706.43 0.231631 -0.25494 -0.939983 44 63 99
-72.8031 174.751 -1706.81 0.233415 -0.273874 -0.935781 45 64 99
-62.3728 177.69 -1706.57 0.0792945 -0.240423 -0.941868 47 65 101
-60.9792 179.758 -1707.59 0.0610342 -0.289028 -0.931754 48 66 102
-76.6307 182.79 -1710.51 0.239405 -0.225418 -0.945346 45 64 100
-76.7939 191.621 -1711.75 0.146324 -0.138284 -0.960082 45 64 100
-67.413 179.774 -1707.56 0.181233 -0.285471 -0.933856 47 65 102
-59.9717 184.206 -1709.91 -0.00524739 -0.347012 -0.922286 48 66 102
-54.3497 185.995 -1711.66 -0.118516 -0.379836 -0.918717 47 65 101
81.7773 -74.9406 -1711.34 -0.619768 -0.0184388 -0.774611 45 60 91
79.6205 -57.1171 -1705.38 -0.594606 0.223344 -0.774626 47 60 93
84.6647 -54.494 -1708.36 -0.624504 0.289552 -0.724172 46 60 93
87.7058 -50.2351 -1708.57 -0.615012 0.351932 -0.705684 46 60 93
92.5588 -38.4246 -1706.56 -0.527724 0.087881 -0.734995 54 67 99
99.7699 -609.24 -1697.84 0.105331 0.515064 -0.831738 235 234 253
90.7759 -602.064 -1696.51 0.361918 0.308054 -0.842023 238 236 255
88.88 -599.045 -1696.31 0.413442 0.24188 -0.847083 238 236 254
98.0322 -604.453 -1696.34 0.138249 0.346369 -0.883156 237 236 254
99.5024 -598.528 -1695.34 0.0690259 0.152399 -0.949082 237 237 253
83.954 -589.772 -1697.5 0.473356 0.118097 -0.86435 230 228 248
90.3795 -591.397 -1695.52 0.330617 0.076551 -0.906353 233 231 250
91.308 -579.654 -1695.54 0.297388 -0.0631625 -0.946583 218 216 237
97.2554 -588.433 -1695.01 0.107024 -0.0270369 -0.97422 229 228 246
96.3983 -580.277 -1694.81 0.194419 -0.0774009 -0.970106 219 218 238
112.428 -606.989 -1696.32 0.0182203 0.434591 -0.86352 233 233 251
121.325 -606.853 -1696.57 0.000677828 0.415244 -0.85977 232 231 250
148.793 -611.266 -1698.14 0.0683495 0.238784 -0.947662 225 225 244
119.082 -604.012 -1695.65 0.0206528 0.26961 -0.903173 232 232 249
114.092 -596.609 -1695.42 0.0188322 -0.00513633 -0.97295 230 230 247
125.398 -604.293 -1696.46 -0.0266197 0.310297 -0.899157 232 231 249
134.972 -603.722 -1698.14 0.0149224 0.281851 -0.9374 233 233 248
129.659 -593.068 -1696.6 -0.084124 -0.0597442 -0.983514 227 227 244
116.259 -589.536 -1695.94 0.00964351 -0.0769063 -0.987396 226 225 244
110.205 -584.313 -1695.56 -0.0126925 -0.00591464 -0.986859 223 223 243
122.906 -589.472 -1696.04 -0.0105983 -0.0699077 -0.987618 226 226 245
134.754 -588.429 -1697.69 -0.193519 -0.0818867 -0.974551 225 224 244
128.726 -580.954 -1696.71 -0.10096 0.0328046 -0.985252 224 223 245
144.568 -603.006 -1697.83 -0.0615948 0.0230619 -0.935512 230 231 247
139.583 -596.855 -1698.04 -0.11458 -0.0638936 -0.976985 224 225 240
135.07 -578.893 -1697.42 -0.22657 0.0864965 -0.952538 226 225 246
-63.6914 -115.071 -1698.14 0.415784 0.00165984 -0.894299 45 61 95
-64.077 -109.75 -1698.33 0.422218 -0.0601336 -0.910975 45 61 95
-62.2427 -102.774 -1697.85 0.430346 -0.0526881 -0.90269 46 62 96
-61.7524 -96.3499 -1697.75 0.413942 -0.0179542 -0.906664 47 62 98
-63.1502 -89.4588 -1698.17 0.404307 0.0169565 -0.909478 47 63 98
-60.7726 -81.7487 -1697.9 0.325704 -0.103104 -0.925068 53 70 106
-51.7187 -307.549 -1694.91 0.15625 -0.0620161 -0.973701 229 237 254
-41.7889 -304.164 -1692.69 0.333371 -0.0627184 -0.933732 229 236 252
-42.9554 -296.238 -1692.42 0.386644 0.0273011 -0.90329 231 237 253
-48.6718 -293.343 -1694.47 0.243781 -0.0180721 -0.93811 232 239 254
-52.2045 -284.966 -1694.73 0.290229 0.0654498 -0.927338 234 241 255
-50.782 -274.84 -1692.29 0.32965 0.145597 -0.926384 234 241 255
-53.7008 -272.695 -1693.43 0.375368 0.086452 -0.91107 233 240 254
-49.1317 -260.585 -1692.31 0.316129 -0.0440896 -0.945047 221 228 246
53.0118 -197.355 -1691.7 -0.276159 -0.149776 -0.932514 233 239 249
48.2456 -190.017 -1692.82 -0.239611 -0.248389 -0.926313 218 225 233
37.1533 -177.653 -1692.74 -0.261104 -0.09466 -0.947559 89 99 121
46.1912 -182.97 -1694.56 -0.264701 -0.188461 -0.928038 152 160 175
42.8782 -175.708 -1694.85 -0.308647 -0.0770123 -0.933912 81 92 115
40.5647 -171.897 -1694.19 -0.328972 -0.0294854 -0.936008 56 69 96
37.2411 -160.622 -1693.28 -0.297614 -0.0920993 -0.942012 48 61 92
48.5083 -168.834 -1697.37 -0.396362 -0.0295703 -0.912311 50 64 92
44.2235 -166.097 -1695.59 -0.363802 -0.0173192 -0.92631 47 61 90
37.3379 -156.232 -1693.94 -0.299161 -0.0828521 -0.933825 47 61 92
30.734 -147.273 -1691.89 -0.281185 0.175334 -0.914777 46 60 92
40.7402 -156.511 -1695.13 -0.325241 -0.0944944 -0.927749 48 60 92
45.3959 -146.816 -1698 -0.473764 0.0712679 -0.865001 46 61 93
60.5733 -249.704 -1695.68 -0.344229 -0.155651 -0.911296 233 238 249
59.393 -242.759 -1695.54 -0.348111 -0.0523005 -0.927395 231 236 248
69.9115 -252.793 -1697.66 -0.23007 -0.1638 -0.939894 235 241 252
59.421 -235.298 -1695.63 -0.318961 -0.0311807 -0.935885 233 238 248
54.3844 -228.928 -1693.92 -0.27284 -0.0244747 -0.948005 234 239 248
65.1473 -229.737 -1698.06 -0.318855 -0.0451479 -0.934365 233 238 248
61.1052 -223.752 -1696.82 -0.370832 -0.0133365 -0.922887 232 237 246
58.6678 -218.258 -1695.7 -0.364523 0.0414735 -0.926614 230 235 245
58.5301 -206.463 -1694.14 -0.374604 0.0790625 -0.911633 231 236 246
65.4988 -208.206 -1696.94 -0.354231 0.0700524 -0.920345 226 231 241
64.3347 -201.946 -1696.28 -0.450299 -0.101283 -0.852608 228 234 246
32.1507 16.853 -1692.5 -0.161461 0.0367071 -0.983633 48 63 96
39.2117 19.4763 -1693.38 -0.11829 0.0288992 -0.990287 47 62 96
36.9609 23.9243 -1692.91 -0.129541 0.0326783 -0.989109 47 62 96
50.5087 21.2993 -1695.27 -0.150425 -0.0876155 -0.969421 46 61 96
44.3035 27.5261 -1694.61 -0.17047 -0.0298692 -0.971661 47 62 96
29.5342 36.8335 -1693.45 -0.0643317 -0.187945 -0.974829 47 62 96
36.1906 30.5202 -1692.97 -0.0907101 -0.0460027 -0.986592 48 63 96
35.3113 40.4311 -1694.96 -0.0730611 -0.20551 -0.969393 48 63 96
45.9872 32.0929 -1695.77 -0.200342 -0.115438 -0.95673 48 63 96
41.7196 42.3383 -1696.67 -0.146432 -0.169196 -0.964945 49 64 98
6.02283 46.18 -1693 -0.194581 -0.166811 -0.968386 55 68 104
11.0926 46.5545 -1693.99 -0.191442 -0.180663 -0.966015 53 66 103
12.3978 56.6648 -1695.48 -0.170495 -0.0936305 -0.979717 53 66 103
21.4389 47.0328 -1695.33 -0.111603 -0.199428 -0.969432 49 63 99
14.2201 55.2158 -1695.61 -0.166334 -0.106193 -0.978097 52 65 102
22.5998 51.4552 -1696.21 -0.103862 -0.156888 -0.977422 49 63 99
12.4083 60.7835 -1695.56 -0.158698 -0.0647058 -0.982924 52 65 102
10.9495 70.5005 -1695.79 -0.150335 -0.05531 -0.983624 50 63 99
15.5249 59.0535 -1696.03 -0.154676 -0.0677262 -0.980783 51 65 102
16.5283 69.751 -1696.78 -0.166667 -0.0704475 -0.972898 49 63 99
26.7294 63.6459 -1697.49 -0.0681443 -0.0397058 -0.983751 47 62 98
39.0614 47.1208 -1696.86 -0.100721 -0.16012 -0.974627 48 64 97
33.7926 55.8355 -1697.01 -0.04464 -0.107183 -0.991003 47 62 97
44.7311 50.5903 -1697.49 -0.0879415 -0.0258687 -0.987909 48 63 97
45.9372 54.5232 -1697.52 -0.0645139 -0.00332225 -0.994364 48 63 97
27.5529 57.4142 -1696.98 -0.0668039 -0.0804622 -0.990723 48 62 98
37.2499 60.9584 -1697.41 -0.0274075 -0.0763337 -0.995464 47 62 97
34.7459 66.3728 -1697.75 0.0110752 -0.0844308 -0.989317 46 61 96
47.9375 60.5325 -1697.87 -0.0553344 -0.0308541 -0.997637 48 63 98
45.566 66.3355 -1698.25 -0.0578865 -0.0442225 -0.996683 48 62 98
56.701 -26.7952 -1696.97 -0.29058 0.0406129 -0.943322 53 66 96
56.2473 -18.1091 -1696.33 -0.246635 0.0483555 -0.944346 54 67 98
55.4425 -10.6001 -1695.91 -0.213011 0.0185161 -0.957082 53 67 98
61.5383 -15.9391 -1697.91 -0.216077 -0.0210237 -0.929839 61 71 101
62.3526 -3.99227 -1697.97 -0.270405 0.0183697 -0.929854 51 65 96
62.9578 2.34786 -1696.99 -0.267337 0.0432362 -0.927169 49 63 95
66.4439 9.05436 -1697.69 -0.335595 0.0572088 -0.941191 46 61 95
56.9305 13.9763 -1695.08 -0.140011 -0.0657258 -0.977732 48 63 96
67.8385 4.01158 -1698.42 -0.344357 0.0874803 -0.889178 49 63 94
66.5119 17.5188 -1697.86 -0.217295 -0.0991651 -0.949968 48 63 97
59.5952 24.3749 -1697.96 -0.183441 -0.327174 -0.919168 48 63 97
75.9303 23.8855 -1698.77 -0.155702 -0.170854 -0.900904 51 64 98
13.2924 346.988 -1697.78 -0.653399 0.59769 -0.250945 56 97 99
21.9496 354.057 -1694.6 -0.617637 0.680155 -0.26234 120 189 187
30.6714 362.474 -1697.17 -0.757794 0.571307 -0.256686 162 218 215
36.7422 373.875 -1695.64 -0.812312 0.517744 -0.30173 172 237 234
44.9345 382.128 -1696.92 -0.359822 0.838805 -0.245666 131 209 206
50.1728 382.796 -1697.83 -0.188066 0.846609 -0.277441 134 206 204
55.8943 384.336 -1698.22 -0.159947 0.734033 -0.356129 140 191 192
-50.9374 400.636 -1691.74 0.759019 0.218646 -0.600692 224 244 242
-53.8906 415.992 -1696.96 0.664379 -0.114069 -0.710178 197 239 235
-51.6603 421.576 -1696.95 0.723445 -0.190871 -0.654135 204 240 234
-50.8102 434.105 -1697.27 0.749611 0.0164982 -0.570343 208 232 227
-52.0889 439.181 -1693.59 0.774829 0.228476 -0.483309 215 224 220
-174.81 -1195.48 -1679.8 -0.186539 -0.98241 -0.0620128 18 18 17
-173.783 -1195.02 -1679.16 -0.194645 -0.982027 -0.0686266 14 14 13
-156.946 -1189.74 -1681.49 0.0402274 -0.957507 -0.0781781 48 46 44
-159.79 -1188.37 -1684.47 -0.0484335 -0.973168 0.0200584 30 29 28
-139.182 -1185.24 -1683.93 0.252351 -0.946497 -0.143634 196 192 194
-135.004 -1183.8 -1684.66 0.354251 -0.884233 -0.175791 228 225 227
-126.938 -1171.23 -1681.64 0.896318 -0.313151 -0.260066 252 252 252
-126.906 -1167.34 -1684.31 0.944107 -0.213835 -0.19017 252 252 252
-116.476 -1155.13 -1678.82 0.560186 -0.722739 -0.318967 250 250 250
-114.303 -1152.56 -1681.44 0.520311 -0.786489 -0.281322 251 251 251
59.3608 -345.66 -1683.88 -0.0167167 -0.0689877 -0.987118 233 238 253
56.9318 -337.013 -1683.48 -0.0994293 0.127619 -0.982318 228 234 250
65.9816 -339.922 -1684.35 0.00269353 -0.0563558 -0.990671 238 243 254
78.8997 -344.062 -1680.78 0.23626 -0.292169 -0.928505 242 247 254
76.2355 -338.002 -1683.9 0.143685 -0.276254 -0.947126 244 248 254
82.6173 -342.705 -1680.37 0.233158 -0.31723 -0.921988 243 248 254
86.7198 -340.927 -1680.27 0.193303 -0.340487 -0.886897 244 249 254
94.6342 -339.801 -1678.81 0.191742 -0.266817 -0.927643 247 251 253
61.2016 -331.059 -1683.14 -0.143318 0.124758 -0.981618 226 231 247
53.7173 -323.382 -1680.01 -0.150191 0.165363 -0.965574 216 220 239
62.6844 -323.01 -1682.19 -0.184117 0.117078 -0.973638 218 223 242
58.3507 -316.232 -1680.29 -0.104584 0.0734701 -0.981779 218 223 240
54.1987 -310.207 -1679.82 -0.0341104 0.016299 -0.987607 230 234 245
66.6175 -308.99 -1680.86 -0.136144 0.155788 -0.95137 218 223 237
79.8062 -315.951 -1684.79 -0.185796 0.169179 -0.856435 223 229 244
75.5376 -311.711 -1683.03 -0.239323 0.144289 -0.897695 217 222 238
91.6654 -329.525 -1683.66 0.085082 -0.375411 -0.659568 241 247 254
98.8609 -334.152 -1679.23 0.136741 -0.25405 -0.930864 246 251 255
103.618 -332.89 -1679.25 0.0387189 -0.229479 -0.958024 246 250 255
101.475 -326.576 -1681.73 0.105085 -0.245906 -0.930615 247 251 255
87.3494 -320.154 -1684.87 0.0659452 0.0700831 -0.889808 235 241 252
81.3173 -309.032 -1683.54 -0.193956 0.0599524 -0.922928 223 228 242
94.1715 -322.485 -1683.83 0.112744 -0.154839 -0.846574 242 247 254
105.758 -320.974 -1683.45 -0.0167132 -0.256628 -0.944271 247 251 255
118.35 -351.337 -1680.2 -0.190022 -0.30491 -0.908727 246 248 255
130.734 -359.009 -1683.31 -0.184135 -0.0973276 -0.843845 238 242 251
127.591 -355.564 -1682.59 -0.273585 -0.27152 -0.824953 245 249 253
118.954 -348.004 -1681.53 -0.245165 -0.283704 -0.899412 246 249 254
114.21 -339.474 -1681.24 -0.202874 -0.18377 -0.948537 245 248 254
119.487 -336.003 -1683.16 -0.332315 -0.114472 -0.918209 245 248 254
113.349 -331.687 -1682.13 -0.157405 -0.202979 -0.953059 246 249 254
112.702 -323.561 -1683.61 -0.145556 -0.301904 -0.934295 247 251 255
121.193 -325.928 -1684.63 -0.24781 -0.244066 -0.919303 246 250 255
53.3198 -306.16 -1680.13 -0.00131036 -0.0141048 -0.985973 238 242 250
66.7071 -307.751 -1680.86 -0.129385 0.141718 -0.952906 219 224 238
63.0685 -296.157 -1682.83 -0.0642428 -0.225933 -0.942206 237 241 250
76.1812 -301.909 -1682.53 -0.183364 -0.0577476 -0.924412 225 230 242
69.5068 -295.943 -1683.19 -0.0926193 -0.250139 -0.920945 234 239 248
58.617 -291.801 -1684.48 -0.0962374 -0.28582 -0.938298 237 242 253
68.8535 -291.744 -1684.69 -0.0113486 -0.391628 -0.924853 241 245 254
40.2833 -1180.52 -1675.89 -0.164709 -0.966043 -0.179179 192 192 195
-51.2239 -1169.66 -1673.9 -0.832669 -0.34786 -0.430237 254 253 252
60.0935 -1179.58 -1677.53 0.324162 -0.883193 -0.232441 252 252 253
65.7456 -1179.47 -1674.7 0.308145 -0.887553 -0.213838 228 229 230
69.0777 -1177.78 -1677.17 0.442903 -0.765638 -0.21926 217 217 217
-55.7746 380.553 -1676.69 0.480175 0.319556 -0.80309 163 240 243
-58.6397 383.351 -1676.94 0.512261 0.323696 -0.788015 162 240 242
-64.9482 393.347 -1675.31 0.530993 0.289241 -0.776887 166 240 241
-16.1708 -299.737 -1677.97 0.456591 -0.0327634 -0.811956 208 211 232
-10.6988 -307.476 -1675.8 0.461059 0.118532 -0.869541 207 211 230
-18.6936 -288.128 -1677.63 0.590586 -0.0183279 -0.661632 218 222 238
-15.439 -287.507 -1675.51 0.564419 0.00384761 -0.701967 218 223 239
-13.0591 -285.614 -1674.01 0.521747 0.00169757 -0.754364 221 226 243
-14.7311 -273.198 -1676.17 0.517784 -0.0810704 -0.785303 221 226 244
-11.495 -277.234 -1674.66 0.41702 -0.104045 -0.819652 228 232 248
-13.0759 -269.808 -1676.45 0.414359 -0.131668 -0.836016 225 229 247
-1.85635 -269.576 -1677.41 0.0517312 -0.318113 -0.915395 242 246 255
11.0484 -296.055 -1671.71 -0.331596 -0.205694 -0.91881 237 241 253
20.3168 -302.766 -1673.85 -0.288742 -0.168664 -0.943186 229 234 248
22.6876 -296.384 -1676.06 -0.289059 -0.212347 -0.937949 232 237 248
11.7457 -291.008 -1673.3 -0.333585 -0.260324 -0.911077 240 244 253
1.28716 -283 -1672.24 -0.158114 -0.291377 -0.932069 245 249 255
14.9523 -290.365 -1674.75 -0.33306 -0.26228 -0.915208 239 244 252
13.7635 -282.424 -1676.36 -0.297378 -0.286959 -0.914623 244 248 253
27.605 -308.385 -1674.76 -0.22473 -0.14821 -0.957788 225 231 245
30.9402 -300.967 -1677.42 -0.268968 -0.154343 -0.945045 229 234 248
27.2578 -292.982 -1677.64 -0.156061 -0.173651 -0.962588 235 240 250
36.814 -287.481 -1677.82 -0.182546 -0.222466 -0.896493 233 239 251
11.3942 -280.449 -1676.22 -0.278511 -0.310929 -0.913992 245 249 254
14.8533 -278.282 -1677.94 -0.261193 -0.303369 -0.91433 245 249 253
80.6472 -361.933 -1671.8 0.167815 -0.423273 -0.863844 247 250 254
-56.6287 -1173.1 -1661.32 -0.808873 -0.331878 -0.481395 249 248 247
-61.0309 -1163.99 -1660.69 -0.75591 -0.425404 -0.488145 254 253 252
-68.8697 -1148.93 -1664.17 -0.464164 -0.76787 -0.410244 227 227 226
-64.7599 -1157.75 -1661.15 -0.610441 -0.57755 -0.469082 236 235 234
-93.5531 -1147.31 -1659.27 -0.0648011 -0.924884 -0.276042 252 252 251
-86.5475 -1146.73 -1659.58 -0.0226268 -0.846854 -0.364372 250 250 250
-41.6469 -1203.57 -1662.14 -0.874975 -0.390048 -0.301384 107 103 104
-43.6068 -1200.95 -1662.54 -0.879951 -0.345044 -0.350311 127 123 124
-48.2684 -1191.7 -1663.78 -0.84619 -0.316603 -0.422221 214 212 214
-29.4375 -1192.55 -1661.87 0.0955599 -0.760871 0.0695752 107 106 110
-52.6949 -1186.78 -1658.89 -0.858621 -0.324281 -0.391635 233 232 233
-26.5503 -1191.65 -1663.58 0.0610855 -0.78329 0.0472859 105 105 108
-13.161 -1188.93 -1664.5 0.188452 -0.974078 -0.155037 105 105 104
-4.67539 -1185.37 -1658.96 0.278478 -0.941769 -0.0571881 107 106 106
5.81442 -1181.67 -1661.42 0.111805 -0.979284 -0.124108 103 103 102
24.8668 -1182.91 -1659.68 -0.135424 -0.949756 -0.255405 108 109 110
23.7654 -1181.11 -1664.17 -0.0635452 -0.953388 -0.252023 105 106 106
-147.822 -1202.72 -1649.63 0.4873 -0.671079 -0.103406 149 147 146
-139.858 -1193.85 -1649.65 0.588966 -0.539151 0.142237 73 71 69
-130.531 -1185.28 -1646.15 0.59702 -0.681058 0.0741476 145 142 142
-122.354 -1176.07 -1648.2 0.643982 -0.619862 -0.176354 217 216 217
-71.9668 -1209.93 -1646.36 -0.231025 -0.19226 -0.776686 111 108 115
-68.2034 -1209.98 -1645.46 -0.030632 -0.325941 -0.680838 100 97 103
-68.1047 -1196.03 -1644.54 -0.45751 0.147333 -0.784114 232 229 235
-58.4192 -1196.55 -1646.07 -0.357677 -0.270438 -0.562779 176 173 178
-59.9292 -1190.34 -1646.23 -0.489381 0.00195506 -0.750378 226 224 227
-61.3331 -1182.63 -1646.67 -0.698797 -0.179315 -0.6335 184 184 185
-62.6407 -1176.1 -1649.52 -0.747998 -0.405619 -0.526862 215 215 214
-122.11 -1174.35 -1649.43 0.671844 -0.60019 -0.209267 228 228 228
-115.898 -1161.1 -1647.67 0.752744 -0.32373 -0.382566 253 253 253
-75.75 -1171.66 -1635.19 -0.52791 -0.697653 -0.425919 173 173 172
-81.1711 -1167.54 -1634.88 -0.38829 -0.765956 -0.49307 215 215 214
-43.4635 -1205.98 -1635.43 -0.562169 -0.804216 -0.185517 94 91 91
-37.8633 -1208.23 -1636.53 -0.640674 -0.754492 -0.127817 50 48 48
-51.4058 -1201.92 -1634.26 -0.426509 -0.814509 -0.223071 108 104 106
-21.3672 -1188.83 -1631.57 0.12789 -0.845584 -0.393689 17 17 17
-14.6016 -1185.52 -1634.19 0.00475393 -0.873988 -0.200645 42 40 42
-13.8209 -1185.35 -1634.04 -0.00661659 -0.876684 -0.185404 44 42 43
25.9593 -1189.43 -1635.71 -0.256304 -0.957127 -0.0916464 105 102 104
11.9933 -1184.27 -1635.23 -0.186644 -0.973042 -0.0712593 103 100 103
21.4637 -1187.55 -1635.47 -0.255767 -0.958949 -0.0897378 104 101 104
29.6768 -1190.81 -1635.76 -0.254307 -0.957493 -0.103147 108 105 107
40.0415 -1193.33 -1635.2 -0.150155 -0.965759 -0.146438 111 109 111
52.135 -1193.51 -1631.39 0.0931677 -0.965703 -0.210439 108 107 110
67.273 -1193.73 -1628.81 0.122277 -0.967449 -0.205189 107 106 110
80.4146 -1196.04 -1630.95 0.220198 -0.962223 -0.143321 104 102 107
86.3318 -1191.61 -1628.88 0.65763 -0.611726 -0.223227 91 89 92
91.6098 -1186.94 -1623.94 0.799512 -0.364459 -0.417052 108 106 108
97.0843 -1176.35 -1625.71 0.836703 -0.395497 -0.349805 196 196 198
97.0748 -1174.65 -1629.32 0.85974 -0.400347 -0.302649 224 224 226
106.538 -1157.81 -1628.25 0.761181 -0.53093 -0.357604 253 253 253
113.927 -1152.08 -1625.36 0.623209 -0.685656 -0.365554 253 253 253
161.2 -1148.49 -1628.02 -0.335211 -0.824393 -0.192522 253 253 253
175.021 -1193.1 -1599.29 -0.217479 -0.743524 -0.265471 74 72 72
178.9 -1199.23 -1597.45 -0.298088 -0.685415 -0.354441 93 90 91
165.277 -1188.65 -1596.75 -0.132526 -0.828586 -0.18276 99 96 98
109.977 -1215.59 -1591.87 0.324766 -0.507508 -0.466128 149 146 150
113.761 -1202.35 -1596.43 0.383596 -0.335467 -0.588361 152 149 152
118.575 -1193.23 -1592.57 0.619761 -0.396011 -0.499777 88 85 88
127.492 -1184.34 -1593.91 0.117686 -0.570722 -0.63229 204 201 206
134.526 -1187.63 -1592.74 -0.0812609 -0.743378 -0.591726 186 182 191
141.752 -1189.77 -1591.94 -0.161695 -0.884847 -0.429399 141 136 146
148.266 -1190.55 -1591.18 -0.129761 -0.956385 -0.258628 136 129 138
138.915 -1186.56 -1595.29 -0.139775 -0.648382 -0.677031 200 196 204
141.504 -1172.24 -1596.91 -0.0631297 -0.105261 -0.999875 251 251 252
-49.0545 104.365 -1962.75 0.166489 0.113816 0.956013 47 68 106
-49.9154 106.629 -1962.63 0.162311 0.0480356 0.963977 47 68 107
19.2094 83.5783 -1963.25 0.0226611 0.0924139 0.976998 45 61 95
15.4925 86.2683 -1963.14 0.14483 -0.0197784 0.986706 47 64 100
24.1481 90.6436 -1963.18 -0.0385416 -0.0161847 0.984894 48 64 99
22.9982 92.9841 -1963.01 -0.0205842 -0.0606344 0.986182 49 65 101
33.4185 97.9405 -1962.8 -0.0498428 -0.111019 0.977047 49 66 103
-56.4177 90.9631 -1957.24 0.22362 0.299149 0.927718 43 63 99
-73.4418 103.634 -1956.39 0.419457 0.28536 0.849605 43 61 97
-70.396 111.384 -1958.53 0.297947 0.145817 0.929608 45 64 100
-56.4045 100.496 -1960.27 0.234916 0.2361 0.936132 45 65 101
-65.7876 108.758 -1959.07 0.25948 0.147891 0.928796 45 64 100
-79.1534 114.138 -1955.93 0.51521 0.189958 0.808644 42 61 99
-76.4082 124.901 -1957.43 0.291905 0.0821468 0.931189 43 63 100
-73.9762 122.859 -1957.98 0.265813 0.0602413 0.93913 44 64 101
-56.0133 116.265 -1960.06 0.0979746 -0.0773788 0.982905 47 68 105
-64.447 121.312 -1959.16 0.0946132 -0.0549643 0.992369 47 67 103
-115.643 177.375 -1956.25 0.209986 0.0730471 0.953557 48 72 114
-88.2809 137.921 -1956.18 0.242204 0.233321 0.942912 45 65 105
-94.9842 148.141 -1957.12 0.246168 0.190038 0.941006 46 68 107
-88.6671 142.239 -1957.37 0.217507 0.204231 0.954387 46 66 106
-81.2761 153.126 -1961.34 0.188643 0.0651193 0.974887 51 72 113
-81.1018 125.819 -1956.64 0.372578 0.16158 0.913411 41 62 99
-78.2222 135.8 -1957.87 0.168562 0.141613 0.959924 45 66 104
-74.121 135.896 -1958.34 0.0912603 0.0854764 0.976441 45 66 104
-56.6227 128.169 -1958.37 -0.012104 -0.107881 0.995941 46 67 105
-56.9272 137.808 -1958.99 0.0253436 0.0602875 0.986436 43 65 103
-81.8061 141.356 -1958.59 0.186022 0.172162 0.9606 47 67 107
-76.636 149.02 -1960.84 0.10773 0.141042 0.97193 50 71 111
-73.9765 150.947 -1961.37 0.0709269 0.135462 0.974406 50 71 111
-54.8206 138.888 -1959.37 0.0453677 0.0892409 0.983694 43 64 103
-64.3486 147.374 -1959.9 -0.0584278 0.157009 0.977416 45 67 105
-99.5568 156.353 -1956.58 0.322886 0.072037 0.940246 47 69 108
-100.95 163.411 -1956.42 0.200136 0.0725497 0.963585 46 69 110
53.6116 201.692 -1954.5 0.277258 -0.188608 0.919787 50 72 114
76.8221 198.649 -1953.76 -0.268552 -0.0953176 0.843261 51 71 109
78.5506 202.061 -1952.86 -0.218567 -0.0906005 0.88503 51 70 108
85.4433 184.392 -1954.89 -0.2351 0.0859889 0.959586 46 64 101
83.6285 186.717 -1955.54 -0.238044 0.0633085 0.950489 47 65 102
88.8844 189.059 -1953.96 -0.216756 0.0454386 0.948275 46 65 101
100.87 181.228 -1949.16 -0.368039 0.116797 0.9175 42 62 95
100.343 192.399 -1951.33 -0.284517 0.13095 0.940648 43 63 97
87.667 196.603 -1953.25 -0.170338 -0.0643582 0.923152 48 67 104
92.9462 204.806 -1951.86 -0.0225798 -0.142995 0.979399 46 65 101
97.8285 198.844 -1952.03 -0.158261 0.0104813 0.963889 45 63 99
96.9878 205.166 -1951.76 -0.0352565 -0.111982 0.97723 45 64 100
104.121 199.383 -1950.66 -0.284879 0.08695 0.930346 44 63 97
56.7206 214.748 -1954.9 0.324716 -0.0676327 0.933518 48 71 112
74.0061 211.514 -1952.96 -0.20913 -0.058756 0.953923 51 71 109
80.4878 207.321 -1951.6 -0.158512 -0.124612 0.946922 50 69 107
79.6741 218.055 -1950.23 -0.25539 -0.0821358 0.953955 52 72 110
58.281 222.069 -1953.2 0.336238 -0.242766 0.884858 49 71 113
59.0641 231.624 -1950.99 0.255155 -0.25735 0.90682 51 74 116
61.4937 231.996 -1951.54 0.180183 -0.26176 0.923614 51 73 116
72.1418 225.993 -1952.72 -0.0939272 -0.153201 0.953635 49 70 110
69.9695 229.523 -1952.5 -0.00893552 -0.201679 0.956349 48 71 111
83.6584 208.864 -1950.77 -0.111612 -0.163511 0.955898 49 69 106
93.6462 212.432 -1949.95 0.0347682 -0.281554 0.959508 47 66 103
101.403 207.627 -1950.91 -0.125637 -0.142551 0.944307 45 63 99
100.954 214.793 -1949.16 -0.0602779 -0.330172 0.919043 46 65 101
81.3003 233.2 -1950.9 -0.0889544 -0.064259 0.983121 48 68 108
-51.2035 -390.931 -1943.08 0.0871646 0.305977 0.947023 213 215 235
-38.8271 -398.351 -1942.79 0.157025 0.282906 0.943626 227 229 249
-37.7008 -392.55 -1944.24 0.138197 0.21755 0.965238 221 223 243
-21.8553 -396.923 -1942.92 -0.139306 0.232827 0.956196 219 223 243
-15.7098 -389.861 -1943.3 -0.122969 0.104063 0.985886 218 223 242
-46.4996 -388.597 -1944.21 0.103691 0.277491 0.953342 215 216 236
-40.787 -382.22 -1945.29 0.0545806 0.124918 0.977469 222 224 243
-38.4844 -387.576 -1945.04 0.0848384 0.189851 0.970917 218 221 240
-36.7704 -377.942 -1944.79 -0.0269295 -0.00534726 0.989102 228 230 248
-28.7456 -381.804 -1944.11 -0.0794603 -0.0335398 0.992276 225 228 246
-42.7433 -369.328 -1944.62 0.0127316 -0.0362721 0.996131 229 231 249
-54.5862 -365.998 -1944.3 0.113273 0.0446802 0.984975 221 223 242
-35.8776 -374.091 -1944.24 -0.0642049 -0.0362459 0.989063 231 233 251
-29.4292 -371.372 -1942.63 -0.133659 -0.0319458 0.981735 231 234 252
-32.0201 -367.289 -1943.54 -0.0958454 0.0513967 0.977442 226 228 247
-26.4208 -385.538 -1944.17 -0.0751265 0.0166739 0.991906 221 225 244
-26.3659 -381.916 -1943.74 -0.0904745 -0.0536023 0.993529 225 228 247
-13.1048 -386.059 -1943.11 -0.0857391 0.0540169 0.990932 222 227 245
-9.36494 -378.922 -1943.09 -0.0129867 0.0499308 0.986832 225 230 248
-3.15154 -378.321 -1942.9 -0.0536786 0.180352 0.955667 222 228 245
-19.7758 -366.296 -1942.62 -0.0135534 0.240823 0.948361 219 225 244
-1.46234 -375.4 -1943.06 -0.00261931 0.166434 0.966372 222 228 246
-13.9971 -365.956 -1943.09 0.0483326 0.281209 0.945185 216 222 241
-124.026 238.604 -1943.74 0.3581 -0.288486 0.88303 56 80 127
-117.042 234.02 -1947.1 0.218512 -0.266645 0.930464 57 80 127
-112.062 237.07 -1947.08 0.153681 -0.26949 0.942342 58 80 127
-109.516 243.938 -1944.8 0.0949489 -0.324418 0.933173 59 81 129
-102.257 238.903 -1947.31 0.00356835 -0.278972 0.946011 53 75 121
-99.7567 234.959 -1948.35 -0.0593715 -0.214239 0.964445 49 70 115
-107.634 241.621 -1945.9 0.0808223 -0.303677 0.9383 58 79 127
-90.9502 237.741 -1944.4 -0.283144 -0.257585 0.914112 47 69 114
-94.5873 241.78 -1944.68 -0.164802 -0.292055 0.92234 49 71 117
-92.5531 246.858 -1942.67 -0.154483 -0.281853 0.924434 51 73 119
-69.7465 235.934 -1943.26 0.167542 -0.170688 0.953287 49 75 119
-67.3237 237.551 -1943.87 0.195469 -0.121379 0.961639 49 75 119
-64.4858 242.866 -1943.87 0.181003 -0.0319882 0.97639 49 75 120
-61.7506 244.173 -1944.43 0.173007 -0.025878 0.978252 49 76 120
-73.3067 250.427 -1943.27 0.147029 0.11867 0.972672 49 75 120
-67.9573 256.782 -1944.49 0.100869 0.0998463 0.975608 49 75 121
-68.478 247.437 -1943.54 0.171242 0.078747 0.979491 49 76 120
-63.996 256.2 -1944.58 0.0947472 0.0703284 0.983257 50 76 121
-57.7732 257.143 -1944.77 0.0737933 0.00148448 0.990672 51 77 122
-80.6172 262.463 -1943.36 0.0402426 0.0538318 0.966116 50 74 120
-75.5297 269.761 -1943.44 0.0365976 -0.0273516 0.954543 50 74 120
-70.63 270.843 -1943.62 0.0310903 -0.0544982 0.954188 50 75 120
-56.2492 261.834 -1944.56 0.0389352 -0.0388883 0.981433 51 76 121
-66.2584 271.727 -1943.73 0.0260134 -0.0654933 0.953751 50 75 120
-50.9965 -357.01 -1945.61 0.00857393 0.140936 0.982509 205 209 228
-46.1146 -360.73 -1945.1 0.0402638 0.0631378 0.990339 213 216 235
-43.3118 -349.919 -1947.68 0.0528861 0.298774 0.938795 199 203 222
-29.0216 -360.12 -1945.78 -0.0176368 0.241536 0.951463 212 215 234
-38.4716 -352.204 -1947.94 0.0963337 0.270336 0.944474 201 204 223
-50.0731 -346.414 -1948.95 -0.0250343 0.374051 0.926574 205 208 227
-24.8918 -357.104 -1947.03 -0.00758532 0.335305 0.934328 204 208 227
-27.1219 -354.714 -1948.26 0.0260612 0.340954 0.935857 200 203 221
-13.885 -361.653 -1944.43 0.0187434 0.33073 0.934584 211 217 236
-9.0476 -351.205 -1947.78 -0.109324 0.261878 0.944275 203 209 225
-8.1351 -349.265 -1948.09 -0.130962 0.237421 0.947628 206 211 227
-53.8337 -316.898 -1948.84 0.0650379 -0.227568 0.959632 248 247 254
112.361 209.325 -1945.35 -0.379563 -0.136239 0.885934 43 61 97
109.478 216.863 -1945.35 -0.264719 -0.186015 0.913859 44 62 98
107.123 225.721 -1944.47 -0.155709 -0.0852354 0.93555 45 64 101
113.668 232.454 -1943.77 -0.0227987 -0.0224124 0.956125 45 64 100
117.173 230.609 -1943.79 -0.0391663 0.0405067 0.962779 45 63 99
125.358 232.423 -1943.02 -0.167381 0.0598828 0.966691 46 65 100
54.9677 242.191 -1946.82 0.37261 -0.25417 0.874043 52 74 118
55.8188 252.313 -1943.63 0.439155 -0.233156 0.851016 51 73 116
64.2054 248.06 -1947.18 0.201997 -0.305285 0.919295 51 74 117
65.0085 260.951 -1943.97 0.136793 -0.295756 0.921585 50 73 117
68.4376 250.919 -1947.18 0.153158 -0.287376 0.941155 50 74 117
71.0141 259.666 -1945.25 0.10087 -0.28087 0.93818 50 73 116
94.4797 239.252 -1947.96 -0.309904 -0.0623361 0.924381 47 67 107
100.682 235.604 -1945.27 -0.267773 -0.00643935 0.928987 47 67 106
102.967 239.787 -1943.35 -0.278792 -0.0580934 0.930642 49 68 108
104.124 243.741 -1942.2 -0.286901 -0.064217 0.937633 49 68 108
90.9393 249.568 -1947 -0.197994 -0.239498 0.944217 49 69 110
82.4366 258.305 -1946.2 -0.019242 -0.269118 0.949594 50 71 113
98.8775 249.799 -1943.96 -0.325221 -0.120509 0.936748 47 67 108
101.087 255.959 -1943.05 -0.266356 -0.0805398 0.951316 47 67 109
67.1788 266.271 -1943.62 0.00212165 -0.219127 0.937449 50 72 114
64.9116 270.766 -1942.75 -0.0708393 -0.178118 0.939628 49 71 112
77.7666 262.417 -1945.28 0.0162087 -0.248764 0.946312 50 72 114
80.7823 270.221 -1944.48 -0.0541033 -0.168325 0.953095 49 70 111
82.3098 263.219 -1945.28 -0.0184968 -0.241305 0.949333 49 71 113
86.6789 274.753 -1944.06 -0.0855574 -0.186605 0.927988 50 71 112
88.9059 271.597 -1944.22 -0.0731761 -0.193752 0.941285 49 70 112
108.011 264.765 -1942.47 -0.204579 0.0263345 0.890163 49 69 109
96.6932 270.331 -1943.68 -0.0847053 -0.173348 0.949619 49 70 111
111.884 237.883 -1942.81 0.0150999 -0.124144 0.949327 48 66 104
118.53 243.89 -1942.54 0.0369435 -0.17649 0.961981 46 65 101
125.202 238.913 -1942.66 -0.178528 -0.0524454 0.95516 46 64 100
-47.6002 276.007 -1942.61 -0.122478 -0.146264 0.940308 47 68 110
-43.8568 283.428 -1942.42 -0.115954 -0.148825 0.929724 48 69 111
63.9327 280.431 -1942.51 -0.0520507 -0.185161 0.918526 49 70 110
79.1465 280.895 -1943.57 -0.126073 -0.220083 0.886987 52 73 113
74.7856 278.181 -1943.53 -0.0963846 -0.198348 0.909844 50 71 112
-81.922 -416.53 -1936.73 0.130449 0.170856 0.947912 229 232 251
-65.5953 -417.167 -1936.38 -0.0578525 0.309152 0.951224 236 238 255
-21.058 -373.649 -1941.99 -0.0558455 -0.0409855 0.981434 229 233 251
-25.237 -369.43 -1941.97 -0.116248 0.0738537 0.969597 227 231 249
3.22721 -385.045 -1939.19 -0.260429 0.42728 0.834776 213 218 237
2.43471 -380.853 -1941.41 -0.171071 0.323804 0.902344 218 224 242
14.3085 -384.184 -1936.08 -0.24836 0.562855 0.782745 205 210 229
24.1965 -378.991 -1938.99 -0.0261335 0.54816 0.832839 204 207 228
14.258 -374.5 -1941.88 -0.0830789 0.421393 0.893401 217 223 241
30.5164 -376.559 -1941.57 0.0374705 0.406664 0.894826 208 212 233
35.1226 -381.489 -1937.46 0.000759625 0.637985 0.748597 201 205 226
44.2541 -381.174 -1938.43 0.0363225 0.59226 0.780837 202 206 227
47.6572 -377.952 -1942.43 0.0670797 0.349628 0.919982 210 216 236
-110.881 137.229 -1940.24 0.549015 0.371675 0.694738 43 64 102
-118.114 142.644 -1936.49 0.535821 0.313989 0.755042 43 64 102
-118.522 147.61 -1938.64 0.630306 0.359848 0.660867 42 64 103
-129.61 165.462 -1936.35 0.445237 0.362914 0.791785 42 62 102
-118.551 152.611 -1941.37 0.712787 0.401955 0.570745 43 65 104
-129.362 167.493 -1937.99 0.503192 0.379017 0.736862 43 63 103
-135.309 179.304 -1937.8 0.63497 0.2585 0.690935 49 70 111
-107.738 134.511 -1941.77 0.589253 0.393046 0.651798 43 64 102
-163.924 238.702 -1936.37 0.0990699 -0.138353 0.931601 52 78 121
-175.149 243.778 -1935.62 -0.0682699 -0.270999 0.93356 53 80 122
-142.738 192.127 -1935.48 0.51733 0.349691 0.744232 48 69 110
-149.994 207.066 -1938.79 0.582471 0.267751 0.736061 48 72 115
118.505 191.521 -1941.91 -0.446116 0.126276 0.88822 42 60 93
126.585 188.201 -1935.8 -0.583641 0.183488 0.796967 39 56 88
122.267 199.235 -1941.51 -0.41089 0.0791438 0.905533 44 61 95
121.716 206.179 -1941.35 -0.398094 0.0298434 0.829624 46 65 101
120.303 213.374 -1941.52 -0.303545 -0.0176534 0.906812 44 62 97
121.554 209.316 -1941.37 -0.352082 0.0221042 0.855259 45 65 100
127.783 216.943 -1939.73 -0.279512 0.101435 0.918031 44 63 97
131.625 215.951 -1937.29 -0.423774 0.103098 0.851201 44 62 95
132.917 221.97 -1938.47 -0.410559 0.170613 0.847343 44 63 96
128.404 231.198 -1942.33 -0.227227 0.0793738 0.965345 47 65 101
-0.457872 -1182.77 -1932.48 -0.847 -0.21421 0.4337 171 170 169
10.7796 -1215.89 -1934.28 -0.390316 -0.577755 0.62297 91 88 87
8.99973 -1214.17 -1934.17 -0.44813 -0.523514 0.670244 92 89 88
9.41175 -1208.82 -1931.72 -0.424928 -0.502612 0.752605 88 86 86
15.7258 -1212.34 -1930.23 -0.218268 -0.658371 0.584882 89 86 85
28.4804 -1210.09 -1930.24 0.435609 -0.828293 0.107566 89 86 84
29.1723 -1208.52 -1932.78 0.497317 -0.768226 0.142246 88 85 82
3.26173 -1194.86 -1928.4 -0.753303 -0.380734 0.47734 92 90 90
1.07664 -1186.17 -1930.2 -0.839365 -0.25572 0.41795 128 127 126
35.4707 -1196.87 -1929.83 0.696364 -0.5878 0.288745 103 101 100
41.5628 -1191.04 -1933.23 0.559149 -0.564423 0.557944 172 172 172
47.7251 -1185.92 -1934.27 0.494102 -0.48177 0.718313 248 248 250
49.5774 -1179.52 -1933.69 0.582892 -0.431936 0.664983 251 252 253
-5.759 -1168.08 -1935.2 -0.821704 -0.247715 0.525 234 231 229
-3.76977 -1161.24 -1929.64 -0.794677 -0.223277 0.519657 235 233 231
-8.25898 -1153.66 -1934.06 -0.839536 -0.206176 0.514594 245 242 238
-45.3279 -1135.75 -1930.05 0.285463 -0.928819 0.0996586 216 184 149
-39.6199 -1133.45 -1930.77 0.2729 -0.873619 0.155455 212 179 144
-30.5653 -1130.28 -1934.74 0.0190807 -0.840377 0.313906 205 170 138
-12.5749 -1140.04 -1933.43 -0.671881 -0.390145 0.532231 218 204 185
-25.9537 -1130.2 -1933.43 -0.0928013 -0.81595 0.380463 206 172 140
2.81176 -393.841 -1931.81 -0.364025 0.648883 0.656106 199 204 224
9.72204 -393.373 -1928.7 -0.325826 0.716981 0.610231 194 198 218
10.0597 -388.631 -1933.63 -0.332256 0.623139 0.698614 201 206 225
17.9203 -385.175 -1934.48 -0.182067 0.624846 0.755935 199 203 223
30.9481 -388.512 -1929.48 -0.0576314 0.742183 0.661587 192 195 215
33.7172 -386.393 -1932.08 -0.0254236 0.74993 0.664635 195 198 219
44.6332 -385.995 -1933.54 0.0717732 0.700807 0.705034 195 200 221
49.8584 -386.758 -1934.1 0.0543139 0.679485 0.727687 196 201 222
71.104 -390.041 -1929.18 -0.196574 0.557811 0.800311 194 200 220
-57.398 21.5696 -1930.53 0.309109 0.203469 0.908828 42 58 90
-60.1431 25.8593 -1930.74 0.37662 0.168688 0.892951 41 58 90
-73.3343 43.9272 -1931.41 0.452703 0.365939 0.806351 39 56 88
-63.076 36.9782 -1933.46 0.359873 0.367348 0.846312 38 57 89
-67.1867 39.1511 -1932.62 0.4056 0.375109 0.820567 39 56 88
-124.906 266.522 -1931.52 0.140051 -0.404907 0.859587 56 81 128
-128.885 272.719 -1929.58 0.121079 -0.391271 0.867194 55 80 126
-119.672 268.657 -1933.81 0.125029 -0.401569 0.864293 56 81 127
12.6657 -272.233 -1935.03 -0.00433938 -0.422057 0.891933 251 254 255
21.5432 -270.192 -1935.39 0.0303487 -0.308022 0.938294 250 254 255
11.5998 -264.924 -1933.2 0.0362301 -0.306995 0.944344 251 253 254
10.4653 -258.076 -1930.27 0.00444821 -0.3193 0.932972 242 245 250
13.4056 -262.404 -1932.36 0.0229935 -0.304537 0.941048 247 250 252
15.8713 -257.116 -1930.29 -0.0165192 -0.299386 0.929266 235 239 247
20.0037 -258.401 -1931.03 0.00979967 -0.426302 0.882976 245 249 251
34.5835 -269.139 -1934.16 -0.0861642 -0.320546 0.935217 249 254 255
49.7042 -269.216 -1933.5 -0.00815565 -0.357167 0.924137 246 253 255
38.75 -265.197 -1931.97 -0.0988468 -0.379079 0.910373 248 253 254
30.901 -257.157 -1929.17 -0.104321 -0.473431 0.857053 246 249 252
40.438 -263.928 -1931.12 -0.109595 -0.404495 0.899549 248 253 254
48.3533 -262.783 -1930.15 -0.0471673 -0.469371 0.870895 246 253 255
106.269 -361.917 -1930.7 -0.461048 0.0855429 0.865965 216 222 242
103.686 -355.261 -1931.86 -0.49092 -0.0327533 0.862505 222 228 248
102.218 -348.501 -1932.35 -0.537143 -0.0264362 0.843249 224 230 250
104.747 -338.919 -1931.57 -0.5393 0.125558 0.83062 217 223 243
102.623 -329.381 -1934.52 -0.41347 0.0940555 0.897389 217 223 243
102.708 -322.67 -1934.7 -0.355233 0.0174973 0.92161 220 228 247
99.8004 -311.876 -1934.7 -0.356434 -0.0929744 0.928081 229 240 254
105.55 -308.631 -1931.01 -0.412317 -0.149142 0.879826 234 243 254
11.6721 -22.4136 -1932.67 -0.00566609 0.283995 0.950326 42 55 83
6.25085 -11.7095 -1935.49 -0.0117282 0.170271 0.984315 41 54 82
13.9976 -18.01 -1933.25 -0.0647582 0.219731 0.962036 42 54 83
22.7901 -21.0258 -1930.99 -0.170376 0.227565 0.947639 41 52 82
24.2029 -16.6779 -1931.5 -0.181911 0.166938 0.963511 40 52 81
36.6976 -17.0674 -1928.97 -0.203904 0.263861 0.940277 37 50 78
35.5413 -12.507 -1930.51 -0.156252 0.261255 0.946044 37 50 79
18.9063 -4.62819 -1934.4 -0.170438 0.230877 0.940868 38 49 78
19.1927 -2.24458 -1935.26 -0.147019 0.301724 0.920328 37 49 77
27.6909 -10.0405 -1932.26 -0.148503 0.205929 0.955031 39 50 80
33.2401 -2.69228 -1934.64 -0.0210788 0.397664 0.914707 37 50 78
44.5976 -8.05405 -1929.65 -0.256335 0.281231 0.919953 39 53 80
40.9598 1.25462 -1934.04 -0.267896 0.323998 0.897814 38 53 80
43.7047 3.89162 -1933.08 -0.339148 0.261658 0.889779 39 53 80
45.3672 9.95241 -1932.91 -0.458054 0.195379 0.85496 40 54 81
51.6307 11.1338 -1929.05 -0.416928 0.144378 0.882381 40 54 80
-49.9959 24.4332 -1935.11 0.376303 0.301405 0.87405 42 57 89
125.595 260.041 -1935.36 -0.349007 -0.287646 0.690596 60 85 124
143.053 237.373 -1929.77 -0.736531 0.186181 0.599069 46 63 94
139.741 249.707 -1930.12 -0.482809 -0.193624 0.687028 59 83 123
128.356 261.199 -1932.96 -0.468392 -0.203695 0.653178 68 92 130
125.051 267.597 -1935.62 -0.60011 0.00425265 0.66061 76 99 134
134.252 272.693 -1930.14 -0.723178 0.252252 0.644756 79 101 135
131.682 274.225 -1932.3 -0.716239 0.22152 0.656277 79 101 135
126.906 283.039 -1932.22 -0.670547 0.119834 0.685028 72 95 130
182.104 85.5394 -1928.99 0.565791 -0.0531265 0.813818 45 62 94
129.937 -1231.89 -1934.24 -0.608523 -0.514934 0.405348 137 134 133
130.81 -1231.3 -1931.61 -0.592283 -0.499959 0.413141 141 137 135
-122.423 -1192.15 -1923.95 -0.0307009 -0.791464 -0.638331 68 67 66
-112.749 -1201.44 -1924.72 0.0856115 -0.745845 -0.414745 78 77 75
-121.802 -1191.86 -1923.97 -0.0318901 -0.792377 -0.637504 68 67 66
-102.266 -1204.11 -1927.95 0.572421 -0.52996 0.35279 103 100 98
-108.619 -1201.33 -1924.11 0.18957 -0.698671 -0.251612 81 80 78
-93.0112 -1195.3 -1928.33 0.8208 -0.36051 0.367315 81 78 76
-90.1617 -1182.96 -1925.62 0.825775 -0.260708 0.405176 136 134 133
-86.8638 -1175.19 -1926.05 0.734855 -0.378257 0.394941 174 174 173
-80.4892 -1168.36 -1927.68 0.622059 -0.571068 0.493336 171 172 171
-74.8703 -1161.01 -1928.27 0.823718 -0.437532 0.325863 250 249 248
-72.7605 -1154.52 -1927.39 0.823201 -0.416623 0.350704 246 244 241
-67.4443 -1143.15 -1922.48 0.660365 -0.649727 0.287398 193 178 165
-58.085 -1138.25 -1922.24 0.359212 -0.871416 0.236436 190 162 135
-19.5072 -849.158 -1923.25 -0.705456 0.0200796 0.681423 205 151 103
-23.9474 -835.3 -1925.41 -0.721896 -0.156115 0.660816 209 157 106
-23.8567 -828.934 -1923.81 -0.73486 -0.143415 0.653411 211 159 109
-36.2481 -810.107 -1928.74 -0.317699 -0.239238 0.917935 218 169 121
-34.4456 -803.237 -1927.05 -0.339615 -0.12441 0.925131 219 170 123
-33.7188 -805.733 -1927.05 -0.357055 -0.160074 0.913579 218 169 122
-32.5512 -800.541 -1926.08 -0.365075 -0.0701082 0.917919 219 171 123
-26.0068 -812.082 -1923.46 -0.565482 -0.132502 0.804804 215 165 115
-24.7934 -796.613 -1922.59 -0.521909 0.0299994 0.838058 219 170 120
62.6706 -400.81 -1922.32 0.0861891 0.699222 0.703042 181 187 207
63.4361 -393.218 -1928.52 -0.0570958 0.6349 0.76156 190 196 217
79.6299 -397.677 -1922.77 -0.118075 0.564187 0.813413 186 192 214
74.5149 -393.092 -1926.52 -0.171017 0.556705 0.807309 190 197 217
83.8073 -390.731 -1925.84 -0.141186 0.482759 0.859769 192 198 219
89.8849 -391.738 -1924.62 -0.0894401 0.443298 0.888841 195 201 222
97.1878 -394.783 -1923.68 -0.00374913 0.45819 0.88486 206 213 235
85.1588 -385.781 -1927.87 -0.133912 0.446019 0.880326 198 205 225
89.2011 -387.244 -1926.85 -0.111963 0.437257 0.888304 197 203 225
107.092 -389.044 -1923.73 -0.268503 0.220812 0.918311 216 222 243
104.719 -380.167 -1926.95 -0.287653 0.269672 0.902447 208 214 235
-92.6297 -141.161 -1922.37 -0.437617 -0.427528 0.796213 57 74 115
-118.705 -86.6504 -1923.74 0.833115 -0.0757852 0.562443 66 71 87
-118.858 -79.4817 -1922.34 0.824594 -0.138209 0.536982 65 71 88
-171.529 167.212 -1924.4 0.597812 0.0856429 0.701908 78 78 97
-172.679 172.907 -1925.31 0.583804 0.0757338 0.694743 92 86 99
-138.603 95.0463 -1921.97 0.142841 0.110515 0.971969 39 59 91
-123.197 78.3849 -1922.93 0.177469 0.117262 0.96716 41 60 93
-109.617 73.6758 -1924.59 0.164037 0.178301 0.957519 44 62 96
-122.379 77.4619 -1923.03 0.179383 0.11928 0.965717 41 60 93
-112.715 84.3887 -1925.08 0.177 0.0761431 0.96736 44 63 97
-123.971 90.1384 -1923.58 0.103964 0.111528 0.986554 42 62 96
-124.964 96.1014 -1924.17 0.102054 0.0963454 0.989472 43 62 96
-121.744 90.622 -1923.92 0.0918722 0.0946841 0.989876 43 62 96
-117.697 90.7659 -1924.46 0.108085 0.0670284 0.987331 44 63 97
-115.543 95.2617 -1925.18 0.12024 0.0607918 0.980383 45 63 97
-152.601 100.582 -1923.01 -0.0194725 0.173329 0.954963 41 60 92
-154.62 106.087 -1923.29 0.130393 0.0155983 0.959118 43 62 93
-140.986 99.5697 -1922.07 0.0243335 0.10825 0.973477 38 58 90
-137.151 109.302 -1924.27 0.0315458 0.146538 0.980447 39 59 92
-156.424 114.644 -1923.99 0.281951 0.0771578 0.910772 43 62 93
-160.045 122.309 -1924.14 0.444905 0.215159 0.803016 43 62 94
-154.631 122.871 -1925.77 0.208046 0.186195 0.91533 42 61 92
-139.651 114.839 -1925.16 0.0317761 0.171194 0.980864 39 59 91
-135.899 123.95 -1926.66 0.134679 0.161689 0.963774 41 61 96
-133.382 104.517 -1923.83 0.08527 0.102155 0.983426 40 60 93
-131.149 107.453 -1924.53 0.0960033 0.118662 0.982882 41 61 94
-127.547 109.651 -1925.32 0.115581 0.130637 0.981354 42 62 96
-109.009 103.78 -1928.23 0.411369 0.193202 0.871099 44 63 98
-117.147 105.453 -1926.3 0.162719 0.128837 0.960401 45 64 98
-134.517 114.089 -1925.36 0.0703071 0.174617 0.974689 40 60 94
-132.794 122.765 -1926.83 0.154857 0.167491 0.960821 42 62 97
-128.582 121.477 -1927.3 0.193661 0.18725 0.951961 43 63 99
-105.03 77.5718 -1927.27 0.333083 0.176979 0.910202 46 64 99
-105.102 80.5447 -1927.52 0.346416 0.169894 0.905753 45 64 99
-105.351 91.9604 -1928.29 0.425642 0.10083 0.88254 44 62 97
-161.643 127.535 -1924.91 0.510601 0.209961 0.764639 43 62 95
-157.608 133.106 -1927.74 0.208435 0.0835046 0.922993 41 60 93
-147.142 129.201 -1926.8 -0.0490101 0.118891 0.993399 40 59 90
-142.618 129.056 -1926.32 -0.0214183 0.118211 0.987291 40 59 91
-144.038 132.657 -1926.53 -0.0466177 0.0894088 0.990131 40 59 91
-161.481 146.411 -1925.89 0.341468 0.0294584 0.881237 40 58 93
-156.253 151.266 -1928.8 0.0811255 0.277866 0.944706 39 58 92
-151.81 150.191 -1928.6 0.0217596 0.241454 0.962748 40 58 91
99.3745 76.8002 -1925.88 -0.331455 0.166677 0.920002 38 56 86
100.836 74.7607 -1925.17 -0.32272 0.151195 0.929264 39 56 86
106.3 80.8192 -1924.48 -0.314973 0.176648 0.931762 41 58 89
106.636 87.7629 -1925.64 -0.372078 0.213359 0.895718 42 60 92
102.313 91.6434 -1928.13 -0.424741 0.273993 0.850956 43 62 96
111.835 83.4458 -1922.72 -0.387872 0.16188 0.90431 43 59 89
114.066 92.267 -1923.08 -0.474811 0.153579 0.860353 41 56 85
111.485 103.823 -1924.7 -0.593873 0.100879 0.78325 43 61 96
109.385 108.071 -1927.27 -0.67194 0.141913 0.719932 41 59 92
112.347 118.049 -1927.39 -0.610503 0.206078 0.708782 41 58 92
117.653 122.864 -1924.7 -0.504656 0.220953 0.752224 41 59 93
-71.7902 -533.358 -1915.22 0.0882262 -0.0177739 0.994957 231 239 254
-60.9434 -538.259 -1915.3 -0.07716 0.106283 0.98293 230 236 250
-57.5002 -529.811 -1915.56 -0.152835 0.0503917 0.966237 229 235 250
-64.4293 -521.099 -1915.77 -0.00559929 -0.0856343 0.976038 223 230 248
-64.9089 -516.343 -1915.41 -0.0708417 -0.113902 0.963222 221 227 246
-75.992 -502.649 -1915.85 0.148217 0.0865917 0.974416 220 227 241
-67.0588 -507.849 -1915.64 -0.104743 -0.0238708 0.975119 223 229 247
-73.4351 -493.108 -1915.67 0.116141 -0.131168 0.958286 235 242 252
-128.138 -373.366 -1918.59 0.506032 0.439075 0.658716 222 222 241
10.6987 -1202.83 -1917.21 -0.679816 -0.658926 0.238656 78 75 76
24.4011 -1211.96 -1917.1 -0.0402909 -0.882246 0.142151 83 81 80
28.8211 -1210 -1917.7 0.325935 -0.793078 0.124458 81 80 78
6.30571 -1196.71 -1921.21 -0.793009 -0.505455 0.322664 72 69 70
4.87375 -1191.9 -1918.21 -0.863956 -0.366725 0.286875 73 70 71
4.78278 -1187.5 -1914.79 -0.841867 -0.32539 0.258348 72 70 70
51.2199 -1148.85 -1916.72 0.542838 -0.285819 0.651852 182 174 166
52.6223 -1123.37 -1916.38 -0.0848054 -0.267951 0.921814 124 119 119
104.138 -1185.81 -1919.75 -0.719266 -0.53742 0.253344 229 225 226
133.428 -1226.66 -1917.07 -0.661797 -0.483706 0.382021 139 137 135
130.842 -1217.93 -1917.41 -0.747589 -0.555472 0.309723 111 111 111
130.13 -1215.9 -1917 -0.767009 -0.549936 0.289321 106 106 106
118.859 -1200.12 -1918.87 -0.746273 -0.54422 0.304729 201 201 202
108.33 -1189.72 -1914.71 -0.519436 -0.726317 0.146547 212 207 208
100.768 -1170.38 -1917.7 -0.868477 -0.0157905 0.368563 251 251 251
101.928 -1162.05 -1916.19 -0.872195 0.184316 0.29211 252 252 252
97.5175 -1149.35 -1921.43 -0.781439 -0.291815 0.449632 243 238 232
60.365 -1137.65 -1920.18 0.407573 -0.458905 0.63505 179 152 130
76.8846 -900.235 -1915.68 0.260098 0.292454 0.915488 194 138 94
77.5646 -892.844 -1917.69 0.224075 0.238173 0.932226 197 141 96
68.581 -887.797 -1916.14 0.42606 0.15662 0.877524 201 147 101
77.0741 -887.019 -1918.89 0.239527 0.187224 0.935883 199 143 99
76.2611 -879.174 -1919.93 0.276634 0.111459 0.940347 202 146 102
83.8725 -900.884 -1916.3 0.187967 0.188915 0.948979 193 134 90
88.8169 -891.626 -1918.41 0.0653642 0.154978 0.959638 196 137 93
87.2612 -897.14 -1917.52 0.1273 0.130714 0.961941 194 135 91
104.689 -897.479 -1918.44 0.150044 0.0075904 0.944663 189 133 90
98.7306 -896.908 -1918.33 0.192484 0.00685108 0.943473 192 135 90
88.0722 -886.75 -1919.74 0.0317676 0.212651 0.961267 198 139 94
92.4473 -885.815 -1919.72 0.0306075 0.213771 0.940071 198 139 94
97.9917 -889.125 -1919.07 0.154217 0.10537 0.916479 195 138 92
103.647 -887.404 -1919.94 0.147155 0.13628 0.915427 193 137 93
62.0367 -870.598 -1916.44 0.287926 0.288039 0.904094 208 156 109
64.6572 -866.955 -1918.37 0.243583 0.280817 0.915245 208 157 111
73.2566 -878.518 -1919.18 0.343957 0.0855823 0.927701 203 148 103
74.6389 -877.139 -1919.7 0.318908 0.0896863 0.934858 204 148 104
77.8748 -869.965 -1921.11 0.286012 0.086561 0.949055 208 152 108
60.3471 -861.178 -1919.62 0.276913 0.252152 0.827435 199 152 109
56.1587 -852.898 -1918.94 0.201548 0.13654 0.677279 172 134 100
81.0749 -876.024 -1921.58 0.188243 0.116772 0.963831 203 145 101
111.99 -895.793 -1917.64 -0.110246 0.0792448 0.936659 185 131 90
