ply
format ascii 1.0
comment Created by Open3D
element vertex 1425
property double x
property double y
property double z
property uchar red
property uchar green
property uchar blue
end_header
-191.893 -89.7787 -2019 31 37 70
-188.035 -89.8562 -2021 30 36 69
-184.263 -89.9786 -2024 31 36 68
-180.212 -89.9676 -2024 26 31 63
-176.424 -90.0905 -2027 21 25 58
-172.796 -90.3022 -2032 255 255 255
-169.315 -90.6029 -2039 255 255 255
-165.727 -90.8596 -2045 255 255 255
-162.274 -91.2054 -2053 255 255 255
-158.867 -91.5954 -2062 255 255 255
-154.9 -91.675 -2064 33 36 68
-150.927 -91.7546 -2066 26 29 62
-147.089 -91.9234 -2070 25 28 63
-143.029 -91.9593 -2071 28 32 65
-139.636 -92.4391 -2082 37 42 73
-136.006 -92.7861 -2090 38 43 76
-132.661 -93.3553 -2103 38 44 78
-129.203 -93.8802 -2115 33 40 74
-125.581 -94.3163 -2125 30 35 70
-122.319 -95.0635 -2142 37 41 75
-466.883 -98.3792 -2089 35 42 75
-459.648 -97.7374 -2076 24 31 64
-454.226 -97.4727 -2071 27 33 65
-447.959 -97.0202 -2062 32 37 68
-441.949 -96.6155 -2054 27 36 68
-436.402 -96.3051 -2048 22 31 63
-429.618 -95.7132 -2036 22 31 61
-423.723 -95.3099 -2028 27 34 66
-417.451 -94.8131 -2018 30 36 69
-412.862 -94.6926 -2016 30 37 75
-408.285 -94.5723 -2014 30 37 75
-403.921 -94.4996 -2013 29 36 74
-399.762 -94.4738 -2013 28 32 68
-396 -94.5423 -2015 27 31 66
-390.678 -94.2358 -2009 28 32 70
-386.153 -94.1172 -2007 27 32 68
-381.449 -93.9521 -2004 255 255 255
-376.949 -93.8343 -2002 255 255 255
-372.274 -93.6698 -1999 255 255 255
-368.167 -93.6463 -1999 255 255 255
-363.517 -93.4826 -1996 255 255 255
-358.702 -93.2724 -1992 30 35 65
-354.263 -93.1561 -1990 26 33 63
-349.835 -93.0401 -1988 26 33 62
-344.896 -92.7841 -1983 28 34 62
-339.98 -92.5284 -1978 30 36 65
-335.597 -92.4136 -1976 30 35 64
-331.561 -92.3925 -1976 29 34 63
-327.362 -92.3247 -1975 29 33 64
-323.988 -92.4911 -1979 31 33 68
-319.954 -92.4708 -1979 32 35 71
-316.082 -92.4974 -1980 31 34 70
-312.208 -92.5243 -1981 29 35 66
-308.178 -92.5048 -1981 29 35 64
-304.15 -92.4854 -1981 26 33 61
-299.822 -92.3729 -1979 25 30 57
-295.653 -92.3076 -1978 29 35 62
-291.639 -92.2892 -1978 31 34 64
-287.627 -92.2707 -1978 31 34 62
-283.33 -92.1595 -1976 29 33 59
-279.751 -92.2817 -1979 34 38 62
-275.466 -92.171 -1977 33 37 61
-271.74 -92.247 -1979 34 38 61
-268.008 -92.3233 -1981 34 38 63
-264.27 -92.3997 -1983 34 38 65
-260.395 -92.43 -1984 32 37 65
-256.518 -92.4602 -1985 31 36 64
-252.385 -92.3976 -1984 27 32 58
-248.258 -92.3354 -1983 25 29 61
-244.506 -92.413 -1985 30 34 68
-240.748 -92.4909 -1987 34 37 75
-237.223 -92.6622 -1991 30 34 72
-233.918 -92.9265 -1997 29 33 71
-230.13 -93.0051 -1999 30 34 73
-226.448 -93.1304 -2002 31 35 73
-222.313 -93.0699 -2001 34 33 69
-218.619 -93.1956 -2004 37 34 70
-214.38 -93.0891 -2002 40 35 72
-210.676 -93.2152 -2005 39 36 70
-206.755 -93.2486 -2006 38 37 70
-202.933 -93.3288 -2008 32 37 68
-199.501 -93.595 -2014 34 37 66
-195.756 -93.722 -2017 35 37 64
-191.904 -93.803 -2019 34 39 67
-188.233 -93.9769 -2023 33 37 66
-184.456 -94.1045 -2026 33 36 66
-180.312 -94.0469 -2025 27 30 61
-176.609 -94.2214 -2029 22 26 58
-172.892 -94.3964 -2033 255 255 255
-169.325 -94.6642 -2039 255 255 255
-165.818 -94.9788 -2046 255 255 255
-162.6 -95.4791 -2057 255 255 255
-158.645 -95.562 -2059 255 255 255
-155.06 -95.8769 -2066 32 35 67
-150.863 -95.8211 -2065 27 30 64
-147.169 -96.0901 -2071 29 32 69
-143.313 -96.2667 -2075 34 39 73
-139.913 -96.7683 -2086 39 44 77
-136.47 -97.2698 -2097 39 44 77
-132.984 -97.7717 -2108 41 47 81
-129.517 -98.3201 -2120 31 38 73
-126.357 -99.147 -2138 33 37 72
-469.372 -103.141 -2100 30 37 68
-462.335 -102.521 -2088 27 34 67
-454.475 -101.704 -2072 26 32 64
-449.292 -101.478 -2068 30 35 65
-442.624 -100.908 -2057 28 35 67
-436.857 -100.536 -2050 26 33 65
-430.279 -99.9675 -2039 26 33 66
-423.751 -99.3996 -2028 29 36 69
-417.892 -98.9796 -2020 29 36 69
-413.299 -98.8539 -2018 31 38 76
-408.515 -98.6796 -2015 30 37 75
-404.75 -98.7504 -2017 28 35 73
-400.186 -98.6258 -2015 30 34 70
-395.436 -98.4524 -2012 30 34 69
-390.509 -98.2307 -2008 28 32 69
-385.985 -98.1071 -2006 28 32 68
-381.474 -97.9838 -2004 255 255 255
-377.162 -97.9097 -2003 255 255 255
-372.671 -97.787 -2001 255 255 255
-368.191 -97.6649 -1999 255 255 255
-363.541 -97.4939 -1996 255 255 255
-359.446 -97.47 -1996 25 30 61
-354.998 -97.3488 -1994 25 33 60
-350.033 -97.0814 -1989 25 33 60
-345.266 -96.8632 -1985 27 34 61
-340.861 -96.7429 -1983 28 35 63
-336.298 -96.5741 -1980 29 35 64
-332.086 -96.5033 -1979 28 34 63
-327.88 -96.4327 -1978 28 33 64
-323.845 -96.4112 -1978 32 33 67
-319.974 -96.4388 -1979 32 34 67
-316.262 -96.5153 -1981 34 36 68
-311.913 -96.3972 -1979 50 53 78
-308.042 -96.4254 -1980 65 68 91
-304.016 -96.4053 -1980 69 72 94
-299.992 -96.3855 -1980 66 68 88
-295.523 -96.2198 -1977 59 60 81
-291.51 -96.2004 -1977 59 58 83
-287.5 -96.1815 -1977 89 89 111
-283.349 -96.1142 -1976 120 119 140
-279.628 -96.1928 -1978 107 106 125
-275.623 -96.1746 -1978 62 63 83
-272.169 -96.3511 -1982 36 40 66
-268.296 -96.382 -1983 33 37 64
-264.553 -96.4617 -1985 34 38 65
-260.805 -96.5419 -1987 33 38 63
-256.793 -96.5249 -1987 33 37 63
-252.655 -96.4595 -1986 31 35 61
-248.524 -96.3947 -1985 29 34 61
-244.645 -96.427 -1986 33 37 66
-241.006 -96.5566 -1989 34 37 72
-237.357 -96.6867 -1992 31 34 70
-233.815 -96.8656 -1996 31 35 71
-230.029 -96.9473 -1998 33 37 74
-226.237 -97.0295 -2000 31 35 73
-222.216 -97.0149 -2000 33 33 67
-218.415 -97.0975 -2002 33 34 68
-214.501 -97.1319 -2003 35 36 71
-210.689 -97.215 -2005 35 36 71
-206.974 -97.3468 -2008 34 35 70
-203.148 -97.4304 -2010 36 37 71
-199.613 -97.6596 -2015 34 38 71
-195.768 -97.7436 -2017 30 37 69
-192.297 -98.0216 -2023 34 40 73
-188.524 -98.1548 -2026 34 39 71
-184.923 -98.3848 -2031 37 35 69
-180.947 -98.4212 -2032 27 30 62
-177.056 -98.5066 -2034 24 29 60
-173.243 -98.6404 -2037 255 255 255
-169.751 -98.9683 -2044 255 255 255
-165.828 -99.0541 -2046 255 255 255
-162.452 -99.4793 -2055 255 255 255
-158.887 -99.8076 -2062 255 255 255
-154.995 -99.9427 -2065 29 33 66
-151.165 -100.126 -2069 27 31 66
-147.533 -100.455 -2076 33 37 75
-143.668 -100.639 -2080 40 45 79
-140.257 -101.162 -2091 38 43 77
-136.934 -101.782 -2104 38 43 76
-133.371 -102.257 -2114 38 43 76
-130.197 -103.071 -2131 27 33 67
-462.588 -106.791 -2089 29 36 69
-456.261 -106.299 -2080 27 33 64
-450.192 -105.859 -2072 30 34 63
-443.73 -105.317 -2062 30 36 67
-437.739 -104.878 -2054 30 36 68
-431.364 -104.337 -2044 31 37 70
-424.615 -103.695 -2032 28 35 68
-418.955 -103.308 -2025 28 35 69
-414.351 -103.177 -2023 29 36 72
-408.948 -102.843 -2017 29 36 72
-405.179 -102.916 -2019 29 36 73
-400.213 -102.685 -2015 31 36 70
-396.053 -102.657 -2015 31 36 69
-390.924 -102.375 -2010 31 36 70
-386.204 -102.196 -2007 32 36 69
-381.499 -102.016 -2004 34 39 70
-377.187 -101.939 -2003 255 255 255
-372.696 -101.811 -2001 255 255 255
-368.032 -101.633 -1998 255 255 255
-363.93 -101.608 -1998 255 255 255
-358.93 -101.329 -1993 27 32 61
-354.488 -101.202 -1991 27 32 59
-349.705 -100.975 -1987 29 35 62
-345.289 -100.849 -1985 29 34 61
-340.884 -100.724 -1983 26 32 60
-336.321 -100.548 -1980 29 34 63
-332.108 -100.475 -1979 30 36 65
-328.068 -100.452 -1979 27 30 61
-324.031 -100.43 -1979 50 49 82
-320.157 -100.458 -1980 116 116 144
-316.123 -100.437 -1980 169 168 195
-311.934 -100.364 -1979 173 172 192
-307.752 -100.292 -1978 170 170 188
-303.883 -100.322 -1979 165 165 181
-299.709 -100.251 -1978 166 167 183
-295.543 -100.18 -1977 195 195 213
-291.53 -100.159 -1977 192 190 212
-287.519 -100.14 -1977 203 201 220
-283.655 -100.171 -1978 224 222 239
-279.929 -100.253 -1980 213 212 226
-275.92 -100.234 -1980 182 182 198
-272.462 -100.418 -1984 136 139 160
-268.719 -100.5 -1986 79 82 104
-265.104 -100.634 -1989 36 39 62
-261.085 -100.616 -1989 34 36 64
-256.81 -100.497 -1987 31 33 64
-252.672 -100.429 -1986 31 33 69
-248.666 -100.412 -1986 29 31 70
-245.031 -100.547 -1989 27 29 69
-241.022 -100.53 -1989 28 29 71
-237.611 -100.767 -1994 24 26 66
-233.597 -100.751 -1994 20 24 60
-229.929 -100.886 -1997 25 30 62
-226.139 -100.972 -1999 21 26 57
-222.453 -101.108 -2002 23 24 57
-218.429 -101.093 -2002 27 23 57
-214.729 -101.23 -2005 34 27 61
-210.808 -101.266 -2006 41 25 60
-207.297 -101.504 -2011 38 22 56
-203.566 -101.642 -2014 44 25 58
-199.725 -101.729 -2016 43 29 61
-196.072 -101.917 -2020 40 30 63
-192.31 -102.055 -2023 34 35 67
-188.63 -102.244 -2027 34 34 67
-184.935 -102.434 -2031 31 32 64
-181.137 -102.572 -2034 25 28 60
-177.503 -102.812 -2039 255 255 255
-173.509 -102.851 -2040 255 255 255
-169.929 -103.142 -2046 255 255 255
-166.164 -103.332 -2050 255 255 255
-162.542 -103.623 -2056 255 255 255
-158.743 -103.814 -2060 35 39 73
-155.08 -104.106 -2066 30 35 68
-151.394 -104.398 -2072 29 33 68
-147.543 -104.589 -2076 34 38 77
-144.023 -105.033 -2085 42 46 82
-140.535 -105.527 -2095 34 38 73
-137.074 -106.071 -2106 37 42 75
-133.317 -106.415 -2113 33 38 71
-130.511 -107.564 -2136 27 32 65
-464.171 -111.385 -2096 28 35 68
-456.951 -110.661 -2083 27 33 64
-450.876 -110.203 -2075 29 34 61
-443.976 -109.534 -2063 31 36 67
-437.983 -109.077 -2055 36 41 73
-431.605 -108.515 -2045 31 36 69
-424.854 -107.847 -2033 28 34 67
-419.398 -107.498 -2027 29 36 70
-413.971 -107.15 -2021 30 37 70
-409.788 -107.12 -2021 29 36 69
-404.404 -106.773 -2015 28 35 69
-400.042 -106.691 -2014 29 34 67
-395.688 -106.61 -2013 31 36 69
-390.952 -106.422 -2010 32 37 68
-386.231 -106.236 -2007 32 37 67
-381.717 -106.102 -2005 33 38 67
-377.214 -105.969 -2003 255 255 255
-372.536 -105.784 -2000 255 255 255
-367.689 -105.546 -1996 255 255 255
-363.773 -105.572 -1997 255 255 255
-358.415 -105.176 -1990 255 255 255
-353.978 -105.045 -1988 34 38 65
-349.729 -104.967 -1987 33 37 64
-345.313 -104.836 -1985 31 34 61
-340.736 -104.654 -1982 36 40 68
-337.194 -104.788 -1985 35 38 67
-332.803 -104.658 -1983 31 34 64
-328.754 -104.634 -1983 57 58 87
-324.545 -104.558 -1982 164 161 190
-320.665 -104.588 -1983 170 165 189
-316.145 -104.407 -1980 100 95 118
-312.114 -104.385 -1980 72 68 81
-307.929 -104.31 -1979 67 63 76
-303.904 -104.288 -1979 82 78 91
-299.73 -104.214 -1978 162 163 177
-295.563 -104.14 -1977 212 213 228
-291.698 -104.172 -1978 163 161 182
-287.685 -104.151 -1978 132 130 148
-283.674 -104.131 -1978 136 135 150
-279.808 -104.164 -1979 141 140 152
-276.218 -104.302 -1982 176 176 188
-272.344 -104.335 -1983 217 220 231
-269.009 -104.579 -1988 212 214 230
-264.989 -104.56 -1988 181 183 201
-261.235 -104.646 -1990 176 177 208
-256.957 -104.523 -1988 179 179 217
-253.199 -104.61 -1990 174 173 225
-248.808 -104.434 -1987 170 171 227
-245.048 -104.522 -1989 177 178 236
-241.039 -104.505 -1989 172 171 225
-237.39 -104.645 -1992 161 162 209
-233.496 -104.681 -1993 150 153 190
-229.715 -104.77 -1995 140 145 170
-225.928 -104.859 -1997 137 143 165
-222.246 -105 -2000 140 139 172
-218.444 -105.09 -2002 136 124 157
-214.637 -105.179 -2004 133 109 143
-210.928 -105.322 -2007 146 100 134
-207.312 -105.517 -2011 145 98 130
-203.479 -105.607 -2013 141 91 119
-199.838 -105.803 -2017 130 83 113
-196.183 -105.999 -2021 121 77 108
-192.323 -106.09 -2023 89 76 104
-188.643 -106.286 -2027 81 73 101
-185.039 -106.536 -2032 63 70 97
-181.061 -106.575 -2033 53 58 89
-177.428 -106.824 -2038 255 255 255
-173.691 -107.022 -2042 255 255 255
-169.691 -107.062 -2043 255 255 255
-166.094 -107.365 -2049 255 255 255
-162.395 -107.615 -2054 255 255 255
-158.6 -107.813 -2058 26 29 63
-155.015 -108.169 -2065 25 30 63
-151.477 -108.577 -2073 31 36 70
-147.482 -108.672 -2075 36 40 78
-144.171 -109.29 -2087 40 44 79
-140.545 -109.699 -2095 36 40 75
-137.148 -110.317 -2107 37 41 76
-133.578 -110.831 -2117 32 37 69
-466.42 -116.174 -2106 26 33 66
-458.301 -115.201 -2089 27 33 64
-451.561 -114.561 -2078 26 32 60
-444.224 -113.755 -2064 35 40 71
-438.229 -113.281 -2056 41 46 78
-431.637 -112.643 -2045 37 40 73
-425.722 -112.17 -2037 31 36 69
-419.429 -111.588 -2027 45 51 83
-414.411 -111.336 -2023 62 69 101
-409.412 -111.085 -2019 67 74 107
-404.635 -110.89 -2016 72 79 113
-400.072 -110.75 -2014 77 84 117
-395.52 -110.61 -2012 82 89 122
-391.175 -110.526 -2011 84 89 120
-386.26 -110.277 -2007 85 90 119
-381.745 -110.138 -2005 81 86 112
-377.053 -109.945 -2002 255 255 255
-372.004 -109.643 -1997 255 255 255
-367.716 -109.56 -1996 255 255 255
-363.071 -109.369 -1993 255 255 255
-358.081 -109.067 -1988 255 255 255
-353.826 -108.986 -1987 89 88 119
-349.227 -108.795 -1984 94 93 124
-345.165 -108.769 -1984 95 95 125
-340.417 -108.525 -1980 99 98 129
-336.879 -108.664 -1983 100 99 130
-332.491 -108.529 -1981 112 109 142
-328.612 -108.56 -1982 155 152 181
-324.404 -108.481 -1981 188 183 208
-320.688 -108.566 -1983 143 137 159
-316.328 -108.433 -1981 136 131 152
-311.979 -108.301 -1979 143 139 152
-307.64 -108.168 -1977 173 169 184
-304.233 -108.365 -1981 198 195 211
-299.752 -108.178 -1978 151 155 172
-295.585 -108.101 -1977 113 117 135
-291.866 -108.189 -1979 110 111 133
-287.851 -108.168 -1979 100 103 123
-283.838 -108.146 -1979 90 93 113
-279.969 -108.18 -1980 96 98 115
-276.517 -108.378 -1984 114 116 133
-272.775 -108.467 -1986 205 206 222
-269.163 -108.611 -1989 217 218 234
-265.008 -108.537 -1988 131 132 149
-261.254 -108.627 -1990 79 81 103
-256.846 -108.444 -1987 69 70 97
-252.963 -108.48 -1988 70 70 107
-248.701 -108.352 -1986 67 69 109
-245.065 -108.498 -1989 75 78 120
-240.935 -108.425 -1988 81 83 125
-237.407 -108.626 -1992 84 86 126
-233.395 -108.608 -1992 86 89 124
-229.847 -108.81 -1996 93 98 126
-225.831 -108.793 -1996 109 114 141
-222.262 -108.994 -2000 119 122 156
-218.46 -109.087 -2002 126 125 160
-214.759 -109.235 -2005 132 124 160
-211.153 -109.437 -2009 144 127 163
-207.43 -109.585 -2012 154 136 172
-203.595 -109.679 -2014 157 140 176
-199.853 -109.828 -2017 159 141 177
-196.003 -109.922 -2019 158 139 176
-192.147 -110.017 -2021 147 143 177
-188.563 -110.275 -2026 155 154 187
-184.87 -110.479 -2030 155 160 190
-181.252 -110.738 -2035 157 163 194
-177.615 -110.997 -2040 255 255 255
-173.704 -111.092 -2042 255 255 255
-169.87 -111.243 -2045 255 255 255
-166.106 -111.449 -2049 255 255 255
-162.327 -111.654 -2053 255 255 255
-158.688 -111.969 -2059 165 168 202
-154.876 -112.175 -2063 127 131 164
-151.342 -112.599 -2071 84 88 122
-147.564 -112.859 -2076 43 47 82
-144.043 -113.338 -2085 31 36 69
-140.756 -114.034 -2098 41 46 80
-137.418 -114.731 -2111 39 44 77
-458.994 -119.596 -2092 30 37 67
-451.595 -118.76 -2078 29 36 65
-444.043 -117.868 -2063 35 40 73
-437.41 -117.205 -2052 62 67 100
-430.615 -116.486 -2040 88 91 123
-424.918 -116.053 -2033 112 116 147
-419.047 -115.564 -2025 124 129 160
-414.442 -115.417 -2023 124 131 163
-409.444 -115.157 -2019 118 125 158
-404.264 -114.84 -2014 113 120 155
-400.102 -114.809 -2014 117 124 157
-395.157 -114.55 -2010 117 124 157
-391.01 -114.52 -2010 118 123 155
-386.289 -114.319 -2007 117 122 152
-382.345 -114.346 -2008 117 122 150
-377.27 -114.032 -2003 255 255 255
-372.591 -113.832 -2000 255 255 255
-367.928 -113.633 -1997 255 255 255
-363.098 -113.377 -1993 255 255 255
-358.288 -113.122 -1989 255 255 255
-354.209 -113.094 -1989 112 111 144
-349.253 -112.783 -1984 114 114 147
-345.017 -112.699 -1983 114 114 147
-340.787 -112.616 -1982 110 109 142
-337.414 -112.817 -1986 104 103 136
-333.02 -112.678 -1984 102 99 132
-329.135 -112.709 -1985 140 137 167
-324.756 -112.571 -1983 176 171 195
-320.874 -112.602 -1984 107 102 124
-316.192 -112.351 -1980 70 66 87
-312.317 -112.384 -1981 114 111 127
-308.13 -112.303 -1980 161 159 177
-304.103 -112.28 -1980 119 118 138
-300.078 -112.257 -1980 43 49 69
-295.906 -112.177 -1979 33 39 60
-292.036 -112.211 -1980 35 40 64
-288.164 -112.246 -1981 38 43 68
-284.146 -112.224 -1981 42 48 73
-280.132 -112.202 -1981 44 48 70
-276.816 -112.464 -1986 89 93 114
-272.796 -112.443 -1986 220 220 238
-269.048 -112.535 -1988 219 220 234
-265.028 -112.515 -1988 190 191 206
-261.273 -112.608 -1990 124 126 141
-256.866 -112.419 -1987 57 59 76
-253.236 -112.569 -1990 45 47 72
-249.095 -112.493 -1989 40 43 72
-245.33 -112.588 -1991 37 41 71
-241.196 -112.512 -1990 47 49 84
-237.424 -112.607 -1992 47 50 84
-233.296 -112.533 -1991 46 49 83
-229.518 -112.628 -1993 46 49 81
-225.508 -112.611 -1993 44 48 79
-221.834 -112.763 -1996 38 46 82
-218.367 -113.029 -2001 39 45 82
-214.561 -113.126 -2003 41 44 83
-210.959 -113.335 -2007 40 43 82
-207.239 -113.489 -2010 37 40 80
-203.61 -113.699 -2014 32 41 82
-199.768 -113.796 -2016 33 40 81
-196.114 -114.007 -2020 32 36 76
-192.256 -114.105 -2022 32 37 75
-188.67 -114.373 -2027 32 37 74
-184.975 -114.585 -2031 25 29 63
-180.998 -114.627 -2032 17 24 56
-177.454 -114.952 -2038 255 255 255
-173.462 -114.995 -2039 255 255 255
-169.799 -115.264 -2044 255 255 255
-166.118 -115.533 -2049 255 255 255
-162.339 -115.746 -2053 255 255 255
-158.623 -116.016 -2058 53 56 90
-154.738 -116.173 -2061 95 98 130
-151.28 -116.669 -2070 133 136 168
-147.504 -116.94 -2075 133 136 170
-143.916 -117.379 -2083 83 88 121
-140.632 -118.101 -2096 38 43 76
-137.168 -118.711 -2107 38 43 74
-458.373 -123.648 -2089 32 39 66
-450.762 -122.723 -2074 42 47 76
-443.217 -121.8 -2059 86 91 123
-437.231 -121.291 -2051 97 102 135
-430.438 -120.547 -2039 84 87 119
-424.534 -120.039 -2031 66 70 102
-418.873 -119.592 -2024 51 56 87
-414.475 -119.499 -2023 46 53 86
-409.07 -119.112 -2017 39 46 81
-404.296 -118.902 -2014 35 42 78
-399.935 -118.811 -2013 35 42 76
-394.992 -118.543 -2009 34 41 75
-390.652 -118.452 -2008 35 40 74
-386.319 -118.362 -2007 37 41 76
-382.185 -118.331 -2007 38 42 77
-377.3 -118.065 -2003 255 255 255
-372.434 -117.799 -1999 255 255 255
-367.773 -117.593 -1996 255 255 255
-363.127 -117.387 -1993 255 255 255
-358.316 -117.123 -1989 255 255 255
-353.881 -116.976 -1987 34 40 73
-349.633 -116.889 -1986 38 43 76
-345.044 -116.685 -1983 39 45 78
-340.814 -116.599 -1982 41 45 79
-336.93 -116.631 -1983 39 42 77
-332.71 -116.545 -1982 40 43 76
-328.663 -116.519 -1982 61 63 94
-324.618 -116.493 -1982 137 136 164
-320.899 -116.585 -1984 162 161 186
-315.897 -116.207 -1978 159 158 183
-312.026 -116.241 -1979 156 155 178
-307.843 -116.157 -1978 96 97 122
-303.973 -116.192 -1979 46 47 75
-300.253 -116.285 -1981 34 41 66
-296.228 -116.261 -1981 41 48 74
-292.206 -116.238 -1981 36 42 70
-288.332 -116.274 -1982 38 45 74
-284.169 -116.192 -1981 39 46 76
-280.153 -116.17 -1981 42 47 73
-276.698 -116.383 -1985 94 97 122
-272.68 -116.361 -1985 226 224 244
-268.663 -116.34 -1985 155 155 171
-264.649 -116.318 -1985 154 155 170
-260.768 -116.356 -1986 213 216 226
-256.627 -116.277 -1985 145 148 160
-252.874 -116.374 -1987 53 55 73
-248.614 -116.237 -1985 42 46 69
-244.98 -116.394 -1988 33 37 63
-240.972 -116.374 -1988 43 45 79
-237.085 -116.414 -1989 46 48 82
-233.314 -116.512 -1991 43 46 81
-229.536 -116.611 -1993 40 43 77
-225.752 -116.71 -1995 41 44 79
-222.185 -116.927 -1999 35 46 88
-218.493 -117.085 -2002 40 47 89
-214.792 -117.243 -2005 44 45 88
-211.08 -117.402 -2008 47 45 86
-207.358 -117.561 -2011 47 45 86
-203.525 -117.661 -2013 41 49 88
-199.784 -117.821 -2016 40 50 85
-196.13 -118.039 -2020 38 50 81
-192.461 -118.258 -2024 41 49 82
-188.406 -118.243 -2024 40 48 81
-184.989 -118.637 -2031 36 40 74
-180.923 -118.623 -2031 28 34 68
-177.206 -118.842 -2035 255 255 255
-173.39 -119.003 -2038 255 255 255
-169.48 -119.107 -2040 255 255 255
-166.131 -119.619 -2049 255 255 255
-162.352 -119.84 -2053 41 45 78
-158.558 -120.06 -2057 29 32 65
-154.825 -120.34 -2062 27 30 62
-151 -120.562 -2066 32 35 67
-147.16 -120.783 -2070 66 69 101
-143.719 -121.355 -2080 111 115 146
-140.24 -121.928 -2090 99 104 134
-137.048 -122.792 -2105 36 41 69
-457.971 -127.75 -2087 30 37 61
-450.581 -126.855 -2073 67 72 100
-443.254 -125.961 -2059 83 88 119
-436.414 -125.191 -2047 49 54 86
-429.84 -124.482 -2036 43 46 79
-423.941 -123.958 -2028 33 37 70
-418.701 -123.617 -2023 32 37 69
-413.484 -123.277 -2018 34 41 77
-408.698 -123.059 -2015 34 41 78
-403.928 -122.842 -2012 32 39 77
-399.372 -122.687 -2010 29 36 72
-394.631 -122.471 -2007 29 36 70
-390.295 -122.377 -2006 33 37 73
-386.158 -122.345 -2006 36 40 77
-382.025 -122.313 -2006 37 40 77
-377.33 -122.099 -2003 255 255 255
-372.278 -121.763 -1998 255 255 255
-367.803 -121.61 -1996 255 255 255
-362.974 -121.337 -1992 255 255 255
-358.345 -121.124 -1989 255 255 255
-353.909 -120.973 -1987 31 37 70
-349.661 -120.883 -1986 30 36 69
-345.42 -120.794 -1985 33 39 72
-341.185 -120.704 -1984 35 40 75
-337.128 -120.676 -1984 41 45 81
-333.073 -120.649 -1984 41 45 79
-328.855 -120.561 -1983 44 47 81
-324.48 -120.412 -1981 46 49 82
-320.116 -120.264 -1979 68 70 102
-316.083 -120.238 -1979 76 78 109
-311.894 -120.151 -1978 50 51 80
-307.868 -120.126 -1978 40 42 73
-303.997 -120.161 -1979 38 41 75
-299.974 -120.137 -1979 34 39 70
-296.102 -120.173 -1980 41 46 76
-292.082 -120.149 -1980 37 43 73
-288.209 -120.186 -1981 38 44 75
-283.904 -120.041 -1979 42 48 81
-280.176 -120.139 -1981 47 52 79
-276.302 -120.177 -1982 104 108 134
-272.564 -120.276 -1984 210 209 232
-268.414 -120.193 -1983 95 95 116
-264.537 -120.232 -1984 43 44 64
-260.789 -120.332 -1986 114 115 131
-256.777 -120.31 -1986 182 184 201
-252.894 -120.35 -1987 136 137 157
-248.884 -120.33 -1987 58 61 83
-245.246 -120.491 -1990 29 32 55
-240.991 -120.35 -1988 44 45 77
-237.224 -120.452 -1990 47 49 82
-233.098 -120.372 -1989 44 47 81
-229.439 -120.535 -1992 42 45 79
-225.657 -120.637 -1994 42 46 80
-222.091 -120.861 -1998 34 44 85
-218.511 -121.085 -2002 40 46 87
-214.702 -121.188 -2004 44 44 86
-210.887 -121.292 -2006 46 44 83
-207.065 -121.396 -2008 48 47 86
-203.238 -121.5 -2010 39 47 83
-199.8 -121.846 -2016 37 45 79
-196.242 -122.132 -2021 39 48 80
-192.762 -122.479 -2027 42 49 82
-188.886 -122.584 -2029 40 47 81
-184.913 -122.63 -2030 36 41 76
-180.937 -122.675 -2031 255 255 255
-177.133 -122.842 -2034 255 255 255
-173.149 -122.888 -2035 255 255 255
-169.494 -123.176 -2040 255 255 255
-166.144 -123.706 -2049 255 255 255
-162.207 -123.813 -2051 41 45 78
-158.494 -124.102 -2056 30 33 66
-154.687 -124.331 -2060 27 32 63
-151.085 -124.741 -2067 30 35 66
-147.242 -124.97 -2071 38 42 74
-143.593 -125.381 -2078 47 52 81
-140.05 -125.912 -2087 88 93 121
-136.994 -126.927 -2104 50 55 81
-456.913 -131.656 -2082 60 67 90
-448.881 -130.542 -2065 55 59 86
-442.86 -129.998 -2057 40 45 75
-436.238 -129.265 -2046 46 51 82
-429.242 -128.406 -2033 36 41 74
-423.141 -127.801 -2024 26 31 64
-417.908 -127.449 -2019 29 34 67
-413.315 -127.287 -2017 37 43 84
-408.733 -127.126 -2015 34 40 81
-403.962 -126.902 -2012 31 37 78
-399.207 -126.678 -2009 31 38 76
-394.664 -126.518 -2007 33 40 76
-390.133 -126.358 -2005 35 39 78
-385.613 -126.199 -2003 35 38 76
-381.486 -126.166 -2003 37 40 77
-376.797 -125.945 -2000 35 39 76
-372.123 -125.724 -1997 255 255 255
-367.834 -125.629 -1996 255 255 255
-363.187 -125.409 -1993 255 255 255
-358.375 -125.127 -1989 255 255 255
-354.117 -125.033 -1988 255 255 255
-350.219 -125.066 -1989 35 39 74
-345.623 -124.848 -1986 35 39 74
-341.386 -124.756 -1985 34 38 74
-337.156 -124.664 -1984 35 39 76
-332.765 -124.51 -1982 38 42 78
-328.219 -124.293 -1979 38 43 80
-324.18 -124.266 -1979 37 44 80
-319.658 -124.05 -1976 40 44 79
-315.311 -123.897 -1974 38 42 77
-311.289 -123.871 -1974 39 42 76
-307.582 -123.97 -1976 40 43 79
-303.869 -124.069 -1978 38 42 81
-299.696 -123.981 -1977 36 40 73
-296.127 -124.144 -1980 36 39 72
-292.106 -124.119 -1980 38 41 73
-288.233 -124.157 -1981 43 47 81
-283.928 -124.008 -1979 44 48 83
-280.199 -124.109 -1981 44 48 74
-276.325 -124.148 -1982 149 152 177
-272.312 -124.125 -1982 180 180 204
-268.166 -124.04 -1981 69 69 95
-264.559 -124.205 -1984 47 47 73
-260.942 -124.37 -1987 41 41 65
-256.798 -124.286 -1986 60 60 85
-253.042 -124.389 -1988 173 173 197
-249.03 -124.368 -1988 179 181 203
-245.143 -124.41 -1989 77 79 100
-240.769 -124.202 -1986 28 29 58
-237.005 -124.307 -1988 40 42 72
-233 -124.287 -1988 43 46 78
-229.343 -124.455 -1991 42 45 77
-225.676 -124.624 -1994 40 43 75
-222.11 -124.855 -1998 40 47 85
-218.638 -125.148 -2003 42 47 84
-214.613 -125.13 -2003 43 46 83
-210.904 -125.3 -2006 41 44 79
-207.082 -125.407 -2008 42 45 80
-203.254 -125.515 -2010 40 48 82
-199.915 -125.935 -2017 42 46 81
-196.064 -126.043 -2019 45 46 81
-192.968 -126.651 -2029 42 45 82
-188.995 -126.697 -2030 39 43 80
-185.019 -126.744 -2031 34 41 79
-180.952 -126.729 -2031 255 255 255
-176.974 -126.776 -2032 255 255 255
-173.333 -127.073 -2037 255 255 255
-169.674 -127.371 -2042 255 255 255
-165.915 -127.606 -2046 255 255 255
-162.536 -128.154 -2055 39 42 76
-158.661 -128.327 -2058 31 34 68
-154.625 -128.377 -2059 27 32 63
-150.951 -128.738 -2065 27 32 63
-146.899 -128.788 -2066 30 35 66
-143.535 -129.461 -2077 44 49 77
-139.928 -129.948 -2085 43 48 75
-136.81 -130.934 -2101 100 106 129
-453.222 -134.759 -2065 128 135 157
-446.963 -134.132 -2056 38 43 70
-441.607 -133.766 -2051 28 35 67
-434.784 -132.944 -2039 40 47 81
-430.125 -132.776 -2037 38 45 80
-423.178 -131.89 -2024 23 29 63
-417.738 -131.462 -2018 28 33 67
-412.941 -131.23 -2015 34 41 80
-408.363 -131.063 -2013 34 41 80
-403.796 -130.897 -2011 35 42 81
-399.241 -130.731 -2009 36 42 80
-394.305 -130.436 -2005 35 40 78
-389.778 -130.271 -2003 35 39 78
-385.647 -130.237 -2003 35 38 76
-381.138 -130.073 -2001 33 36 73
-376.83 -129.974 -2000 33 36 73
-371.783 -129.617 -1995 255 255 255
-367.866 -129.649 -1996 255 255 255
-363.036 -129.357 -1992 255 255 255
-358.767 -129.26 -1991 255 255 255
-354.683 -129.229 -1991 255 255 255
-350.249 -129.068 -1989 32 36 72
-345.827 -128.907 -1987 34 38 74
-341.587 -128.812 -1986 35 39 75
-337.525 -128.783 -1986 34 38 74
-333.13 -128.623 -1984 35 38 74
-328.248 -128.27 -1979 37 41 76
-324.208 -128.242 -1979 38 43 78
-319.686 -128.019 -1976 37 41 76
-315.338 -127.862 -1974 36 40 75
-311.632 -127.964 -1976 36 41 74
-307.92 -128.066 -1978 37 43 77
-303.895 -128.039 -1978 37 42 80
-300.176 -128.142 -1980 37 42 72
-296.153 -128.116 -1980 38 42 72
-291.984 -128.026 -1979 38 42 77
-288.113 -128.065 -1980 43 46 80
-284.096 -128.04 -1980 41 43 77
-279.941 -127.951 -1979 75 75 93
-275.791 -127.862 -1978 219 219 234
-272.061 -127.967 -1980 172 173 188
-267.918 -127.879 -1979 59 60 82
-264.448 -128.114 -1983 44 44 70
-260.702 -128.22 -1985 38 40 66
-256.82 -128.263 -1986 34 36 63
-253.191 -128.434 -1989 92 94 121
-249.051 -128.348 -1988 193 194 215
-245.287 -128.455 -1990 196 197 216
-240.911 -128.24 -1987 94 95 121
-236.786 -128.155 -1986 39 41 68
-232.903 -128.199 -1987 40 43 75
-229.248 -128.372 -1990 44 47 80
-225.469 -128.482 -1992 44 47 80
-222.017 -128.785 -1997 41 46 82
-218.438 -129.024 -2001 41 45 81
-214.738 -129.198 -2004 41 44 81
-210.817 -129.244 -2005 40 44 80
-207.1 -129.42 -2008 42 46 83
-203.272 -129.531 -2010 41 48 85
-199.833 -129.9 -2016 40 46 83
-196.567 -130.398 -2024 40 44 81
-192.889 -130.639 -2028 40 44 81
-189.104 -130.815 -2031 40 44 81
-185.217 -130.928 -2033 35 40 76
-181.146 -130.912 -2033 255 255 255
-177.163 -130.961 -2034 255 255 255
-173.433 -131.203 -2038 255 255 255
-169.522 -131.317 -2040 255 255 255
-166.01 -131.754 -2047 255 255 255
-162.392 -132.125 -2053 37 41 75
-158.674 -132.433 -2058 31 35 69
-154.638 -132.484 -2059 27 33 65
-150.964 -132.857 -2065 26 32 65
-147.196 -133.166 -2070 24 29 62
-143.34 -133.41 -2074 36 41 71
-139.671 -133.849 -2081 33 38 67
-136.105 -134.415 -2090 119 124 150
-451.068 -138.266 -2055 76 83 106
-445.264 -137.753 -2048 22 27 54
-441.001 -137.713 -2048 31 38 72
-434.183 -136.866 -2036 41 49 85
-428.052 -136.221 -2027 32 40 76
-421.961 -135.578 -2018 22 28 64
-417.361 -135.405 -2016 28 32 67
-412.568 -135.165 -2013 36 43 81
-407.994 -134.994 -2011 35 42 80
-403.632 -134.89 -2010 35 42 80
-399.079 -134.719 -2008 36 41 79
-394.34 -134.481 -2005 34 38 77
-389.618 -134.244 -2002 34 38 77
-385.489 -134.209 -2002 35 38 77
-381.173 -134.107 -2001 32 35 72
-376.675 -133.938 -1999 33 37 74
-371.816 -133.637 -1995 255 255 255
-367.53 -133.536 -1994 255 255 255
-362.704 -133.235 -1990 255 255 255
-358.619 -133.202 -1990 255 255 255
-354.18 -133.036 -1988 255 255 255
-349.928 -132.937 -1987 32 36 72
-346.032 -132.972 -1988 34 38 75
-341.618 -132.807 -1986 35 39 75
-337.215 -132.643 -1984 35 39 74
-332.656 -132.412 -1981 34 38 73
-328.277 -132.248 -1979 34 38 73
-324.073 -132.152 -1978 35 39 75
-319.714 -131.989 -1976 35 39 75
-315.366 -131.827 -1974 34 38 73
-311.502 -131.865 -1975 32 39 72
-307.48 -131.837 -1975 35 42 76
-303.615 -131.877 -1976 36 43 79
-299.9 -131.983 -1978 39 45 74
-296.029 -132.023 -1979 37 42 71
-292.01 -131.996 -1979 38 43 77
-288.284 -132.103 -1981 44 47 81
-284.121 -132.011 -1980 46 47 80
-279.965 -131.919 -1979 163 163 180
-275.955 -131.894 -1979 238 238 250
-271.947 -131.869 -1979 155 156 167
-267.942 -131.845 -1979 46 48 68
-264.338 -132.021 -1982 39 41 66
-260.856 -132.263 -1986 36 40 67
-256.972 -132.307 -1987 36 40 67
-253.086 -132.35 -1988 48 51 78
-249.073 -132.328 -1988 131 132 154
-245.062 -132.306 -1988 186 187 206
-240.689 -132.084 -1985 181 183 206
-236.688 -132.063 -1985 66 69 95
-232.689 -132.042 -1985 37 40 72
-229.037 -132.221 -1988 44 47 81
-225.489 -132.466 -1992 46 49 83
-221.926 -132.712 -1996 41 45 80
-218.349 -132.958 -2000 41 45 81
-214.543 -133.072 -2002 41 44 81
-210.836 -133.252 -2005 40 44 81
-207.118 -133.433 -2008 42 46 83
-203.391 -133.614 -2011 41 48 86
-200.049 -134.061 -2018 40 47 85
-196.39 -134.309 -2022 40 47 85
-192.716 -134.557 -2026 42 46 84
-189.121 -134.872 -2031 40 44 81
-185.234 -134.988 -2033 36 40 75
-181.251 -135.038 -2034 255 255 255
-177.266 -135.089 -2035 255 255 255
-173.363 -135.206 -2037 255 255 255
-169.703 -135.522 -2042 255 255 255
-166.106 -135.906 -2048 255 255 255
-162.406 -136.223 -2053 39 43 78
-158.688 -136.54 -2058 33 37 72
-154.877 -136.791 -2062 28 35 68
-150.904 -136.91 -2064 28 35 68
-147.138 -137.229 -2069 24 28 63
-143.284 -137.481 -2073 29 34 66
-139.683 -137.999 -2081 37 42 74
-135.857 -138.318 -2086 74 79 108
-132.327 -138.97 -2096 172 177 202
-450.012 -142.079 -2050 32 40 63
-445.089 -141.829 -2047 27 32 60
-439.535 -141.371 -2041 35 42 77
-433.584 -140.776 -2033 40 48 84
-427.88 -140.251 -2026 30 38 74
-421.792 -139.588 -2017 22 28 63
-417.4 -139.479 -2016 28 32 67
-412.606 -139.233 -2013 37 44 81
-408.031 -139.056 -2011 35 42 80
-403.468 -138.879 -2009 33 41 79
-398.718 -138.634 -2006 35 40 79
-394.377 -138.528 -2005 34 38 77
-389.459 -138.214 -2001 34 38 77
-385.525 -138.247 -2002 34 38 76
-380.636 -137.935 -1998 33 36 73
-376.71 -137.968 -1999 34 37 74
-371.478 -137.519 -1993 255 255 255
-367.195 -137.416 -1992 255 255 255
-362.738 -137.244 -1990 255 255 255
-358.291 -137.072 -1988 255 255 255
-354.391 -137.107 -1989 255 255 255
-350.313 -137.074 -1989 34 38 75
-345.889 -136.904 -1987 35 39 76
-341.649 -136.803 -1986 35 39 74
-337.246 -136.634 -1984 33 37 72
-332.686 -136.396 -1981 35 39 74
-328.307 -136.227 -1979 36 40 75
-323.939 -136.059 -1977 34 38 75
-319.582 -135.891 -1975 36 40 75
-315.554 -135.862 -1975 34 38 73
-311.372 -135.764 -1974 31 38 71
-307.664 -135.873 -1976 33 40 73
-303.489 -135.776 -1975 35 42 76
-299.624 -135.816 -1976 39 44 75
-295.608 -135.788 -1976 37 42 73
-291.889 -135.899 -1978 41 46 77
-287.728 -135.803 -1977 47 51 81
-283.573 -135.708 -1976 111 115 144
-279.425 -135.613 -1975 222 223 243
-275.702 -135.725 -1977 206 207 226
-271.835 -135.768 -1978 135 137 150
-267.831 -135.743 -1978 37 41 61
-264.363 -135.993 -1982 36 40 65
-260.617 -136.106 -1984 35 39 66
-257.125 -136.356 -1988 37 40 68
-253.237 -136.401 -1989 41 42 70
-249.347 -136.446 -1990 64 66 90
-245.085 -136.286 -1988 163 164 187
-240.833 -136.127 -1986 170 171 196
-236.829 -136.105 -1986 101 103 131
-232.71 -136.014 -1985 36 39 71
-228.943 -136.13 -1987 46 49 83
-225.056 -136.178 -1988 44 47 81
-221.724 -136.568 -1994 43 47 82
-218.041 -136.753 -1997 40 44 80
-214.455 -137.007 -2001 41 44 81
-210.75 -137.193 -2004 39 43 80
-206.931 -137.31 -2006 40 44 82
-203.51 -137.702 -2012 41 48 86
-199.77 -137.889 -2015 40 47 85
-196.213 -138.213 -2020 40 47 85
-192.638 -138.537 -2025 42 46 84
-189.045 -138.862 -2030 40 44 81
-185.25 -139.05 -2033 255 255 255
-181.267 -139.101 -2034 255 255 255
-177.282 -139.153 -2035 255 255 255
-173.549 -139.41 -2039 255 255 255
-169.635 -139.531 -2041 255 255 255
-166.04 -139.926 -2047 42 46 81
-162.421 -140.321 -2053 40 44 79
-158.703 -140.648 -2058 34 38 73
-154.891 -140.907 -2062 31 38 71
-150.844 -140.961 -2063 35 41 74
-147.08 -141.289 -2068 31 35 70
-143.158 -141.481 -2071 27 32 65
-139.36 -141.81 -2076 40 45 78
-135.478 -142.07 -2080 55 60 91
-132.023 -142.809 -2091 135 141 166
-455.883 -146.774 -2057 35 44 67
-449.616 -146.088 -2048 32 40 65
-444.044 -145.616 -2042 28 33 63
-438.5 -145.146 -2036 38 45 80
-432.772 -144.604 -2029 43 51 87
-426.865 -143.993 -2021 30 38 74
-421.623 -143.595 -2016 21 28 63
-417.44 -143.555 -2016 26 32 67
-412.646 -143.301 -2013 35 43 80
-408.476 -143.261 -2013 34 42 80
-403.708 -143.008 -2010 33 41 79
-398.756 -142.685 -2006 33 39 77
-394.415 -142.575 -2005 34 38 77
-389.691 -142.324 -2002 34 38 77
-385.369 -142.215 -2001 34 38 76
-381.054 -142.107 -2000 33 37 74
-376.934 -142.071 -2000 34 38 75
-372.259 -141.821 -1997 255 255 255
-367.415 -141.502 -1993 255 255 255
-362.59 -141.182 -1989 255 255 255
-358.145 -141.006 -1987 255 255 255
-353.711 -140.83 -1985 255 255 255
-349.465 -140.725 -1984 33 37 74
-345.748 -140.833 -1986 34 38 75
-340.994 -140.517 -1982 33 37 72
-337.108 -140.555 -1983 32 36 71
-332.718 -140.381 -1981 33 37 72
-328.504 -140.278 -1980 35 39 75
-324.133 -140.105 -1978 36 40 77
-320.097 -140.074 -1978 36 40 76
-315.744 -139.902 -1976 36 40 76
-311.56 -139.801 -1975 33 40 73
-307.537 -139.772 -1975 33 40 73
-303.518 -139.742 -1975 34 41 75
-299.652 -139.784 -1976 35 40 73
-295.935 -139.897 -1978 41 46 79
-291.621 -139.728 -1976 44 49 80
-287.609 -139.7 -1976 104 109 139
-283.456 -139.602 -1975 215 219 235
-279.593 -139.646 -1976 213 215 235
-275.588 -139.619 -1976 194 195 216
-271.723 -139.664 -1977 122 124 140
-267.991 -139.779 -1979 34 38 59
-264.387 -139.966 -1982 37 41 67
-260.511 -140.011 -1983 33 37 64
-257.02 -140.269 -1987 39 43 70
-253.006 -140.245 -1987 42 43 71
-249.119 -140.292 -1988 30 32 57
-244.984 -140.198 -1987 82 84 108
-240.855 -140.104 -1986 145 148 173
-236.613 -139.94 -1984 70 73 100
-232.615 -139.918 -1984 32 35 66
-228.849 -140.037 -1986 42 45 78
-225.078 -140.156 -1988 48 51 85
-221.522 -140.417 -1992 43 47 82
-218.061 -140.748 -1997 38 42 78
-214.582 -141.08 -2002 42 45 82
-210.98 -141.342 -2006 44 48 85
-207.363 -141.604 -2010 42 46 83
-203.631 -141.796 -2013 37 44 82
-200.086 -142.129 -2018 36 43 81
-196.426 -142.392 -2022 39 46 84
-192.656 -142.585 -2025 43 47 84
-188.969 -142.848 -2029 39 43 79
-185.177 -143.042 -2032 255 255 255
-181.284 -143.165 -2034 255 255 255
-177.211 -143.148 -2034 255 255 255
-173.395 -143.343 -2037 255 255 255
-169.568 -143.537 -2040 255 255 255
-165.812 -143.803 -2044 42 46 81
-162.357 -144.35 -2052 39 43 78
-158.64 -144.687 -2057 32 36 71
-154.755 -144.883 -2060 31 38 71
-150.712 -144.939 -2061 36 42 76
-147.023 -145.347 -2067 34 38 73
-142.895 -145.333 -2067 27 32 65
-139.172 -145.742 -2073 34 39 72
-135.295 -146.01 -2077 49 54 86
-131.594 -146.489 -2084 97 103 129
-454.155 -150.355 -2049 38 47 71
-449.002 -150.016 -2045 26 34 60
-443.653 -149.605 -2040 30 35 66
-437.897 -149.047 -2033 42 49 84
-432.175 -148.491 -2026 43 52 88
-426.907 -148.082 -2021 29 37 74
-421.664 -147.673 -2016 24 32 68
-417.274 -147.558 -2015 28 35 71
-412.891 -147.443 -2014 33 41 79
-408.719 -147.402 -2014 33 41 80
-404.35 -147.288 -2013 31 39 77
-399.392 -146.956 -2009 32 37 76
-394.65 -146.697 -2006 34 38 77
-389.924 -146.438 -2003 35 39 78
-385.406 -146.254 -2001 35 40 78
-381.281 -146.216 -2001 35 39 76
-377.16 -146.178 -2001 35 40 77
-372.295 -145.849 -1997 39 43 80
-367.266 -145.447 -1992 255 255 255
-362.625 -145.191 -1989 255 255 255
-358.18 -145.01 -1987 255 255 255
-353.924 -144.902 -1986 255 255 255
-349.499 -144.721 -1984 255 255 255
-345.608 -144.759 -1985 36 41 78
-341.371 -144.653 -1984 36 40 76
-337.311 -144.619 -1984 35 39 75
-332.75 -144.367 -1981 35 39 74
-328.868 -144.407 -1982 35 39 75
-324.657 -144.302 -1981 36 40 77
-320.29 -144.125 -1979 36 40 77
-316.254 -144.093 -1979 37 41 78
-311.905 -143.917 -1977 34 41 75
-308.035 -143.959 -1978 33 40 74
-303.547 -143.71 -1975 33 40 74
-299.833 -143.826 -1977 34 39 74
-295.365 -143.579 -1974 36 41 75
-291.65 -143.695 -1976 38 43 74
-287.346 -143.521 -1974 68 72 103
-283.053 -143.348 -1972 166 170 198
-279.337 -143.466 -1974 173 175 199
-275.336 -143.439 -1974 211 213 236
-271.749 -143.63 -1977 110 112 131
-267.882 -143.676 -1978 31 35 58
-264.413 -143.94 -1982 36 40 67
-260.273 -143.842 -1981 41 45 72
-256.786 -144.107 -1985 37 40 68
-252.648 -144.009 -1984 41 42 70
-249.018 -144.203 -1987 41 42 69
-244.885 -144.106 -1986 37 38 64
-241 -144.155 -1987 34 38 63
-236.755 -143.986 -1985 27 31 57
-232.754 -143.963 -1985 31 35 64
-228.987 -144.086 -1987 37 40 73
-225.212 -144.208 -1989 44 47 81
-221.766 -144.549 -1994 44 48 83
-217.973 -144.673 -1996 39 43 78
-214.603 -145.086 -2002 40 43 80
-211 -145.355 -2006 41 45 82
-207.28 -145.552 -2009 41 45 82
-203.347 -145.605 -2010 38 45 83
-200.006 -146.092 -2017 36 43 80
-196.348 -146.362 -2021 38 45 82
-192.675 -146.633 -2025 41 46 83
-189.081 -146.977 -2030 38 43 79
-185.286 -147.176 -2033 255 255 255
-181.302 -147.23 -2034 255 255 255
-177.141 -147.14 -2033 255 255 255
-173.241 -147.268 -2035 255 255 255
-169.335 -147.396 -2037 255 255 255
-165.584 -147.669 -2041 40 44 79
-161.977 -148.087 -2047 38 42 77
-158.347 -148.506 -2053 32 36 71
-154.619 -148.852 -2058 31 38 71
-150.654 -148.982 -2060 37 43 77
-146.61 -149.04 -2061 34 38 73
-142.702 -149.243 -2064 28 32 66
-138.984 -149.663 -2070 33 37 72
-135.178 -150.011 -2075 41 46 79
-131.543 -150.576 -2083 59 65 92
-454.422 -154.584 -2050 31 40 65
-449.487 -154.311 -2047 26 34 61
-443.698 -153.737 -2040 27 33 66
-438.157 -153.24 -2034 38 46 82
-432.005 -152.517 -2025 40 49 87
-426.317 -151.946 -2018 32 40 77
-421.498 -151.677 -2015 27 35 73
-416.902 -151.483 -2013 28 35 73
-412.933 -151.516 -2014 31 38 78
-408.761 -151.474 -2014 32 39 79
-404.19 -151.281 -2012 32 40 79
-399.631 -151.09 -2010 32 38 77
-394.69 -150.749 -2006 32 38 77
-389.963 -150.483 -2003 35 41 79
-385.638 -150.369 -2002 36 41 80
-381.51 -150.329 -2002 36 40 78
-377.386 -150.29 -2002 34 40 77
-372.519 -149.952 -1998 39 45 82
-367.487 -149.539 -1993 255 255 255
-362.662 -149.202 -1989 255 255 255
-357.675 -148.79 -1984 255 255 255
-353.425 -148.679 -1983 255 255 255
-348.83 -148.418 -1980 255 255 255
-344.946 -148.458 -1981 35 41 78
-340.889 -148.423 -1981 37 42 78
-337.175 -148.538 -1983 38 42 79
-332.952 -148.43 -1982 35 39 76
-329.233 -148.546 -1984 33 37 74
-324.853 -148.363 -1982 33 37 74
-320.808 -148.33 -1982 35 39 76
-316.606 -148.223 -1981 36 40 77
-311.779 -147.817 -1976 33 40 76
-307.754 -147.785 -1976 33 40 76
-303.578 -147.68 -1975 34 41 76
-299.256 -147.5 -1973 34 41 73
-295.245 -147.47 -1973 37 43 75
-291.383 -147.515 -1974 36 42 76
-287.521 -147.56 -1975 41 46 80
-283.225 -147.382 -1973 63 66 100
-279.365 -147.428 -1974 116 118 142
-275.642 -147.55 -1976 219 221 240
-271.776 -147.597 -1977 97 99 119
-268.044 -147.719 -1979 31 34 58
-264.573 -147.99 -1983 36 40 67
-260.693 -148.038 -1984 41 45 72
-256.812 -148.087 -1985 38 42 69
-252.674 -147.987 -1984 39 42 71
-249.043 -148.185 -1987 40 42 70
-244.909 -148.086 -1986 39 40 67
-240.902 -148.061 -1986 33 35 62
-236.778 -147.963 -1985 31 33 62
-232.895 -148.014 -1986 32 35 67
-229.125 -148.14 -1988 32 36 70
-225.348 -148.266 -1990 40 44 78
-221.788 -148.541 -1994 42 46 81
-218.213 -148.817 -1998 41 45 80
-214.731 -149.168 -2003 39 43 79
-210.705 -149.146 -2003 37 43 79
-207.197 -149.498 -2008 39 45 82
-203.367 -149.626 -2010 39 46 82
-199.927 -150.053 -2016 35 42 78
-196.367 -150.405 -2021 34 41 78
-192.789 -150.757 -2026 38 44 80
-189.006 -150.961 -2029 36 41 78
-185.122 -151.092 -2031 255 255 255
-181.141 -151.148 -2032 255 255 255
-177.071 -151.13 -2032 255 255 255
-173.088 -151.186 -2033 255 255 255
-169.268 -151.392 -2036 255 255 255
-165.438 -151.599 -2039 41 45 80
-161.835 -152.029 -2045 42 46 81
-158.286 -152.533 -2052 35 39 74
-154.559 -152.889 -2057 30 37 71
-150.522 -152.948 -2058 36 43 76
-146.766 -153.305 -2063 35 41 75
-142.785 -153.439 -2065 29 34 68
-138.93 -153.722 -2069 28 33 66
-135.191 -154.154 -2075 40 45 78
-131.556 -154.735 -2083 36 41 70
-128.073 -155.539 -2094 106 110 135
-453.361 -158.353 -2045 30 39 66
-448.436 -158.073 -2042 26 35 64
-443.526 -157.793 -2039 28 35 68
-437.987 -157.283 -2033 35 44 81
-431.623 -156.463 -2023 40 50 88
-425.727 -155.799 -2015 33 41 80
-421.123 -155.6 -2013 29 37 76
-416.945 -155.556 -2013 29 35 75
-412.976 -155.589 -2014 30 37 77
-408.803 -155.546 -2014 32 38 79
-404.634 -155.503 -2014 31 39 79
-399.871 -155.229 -2011 32 39 79
-394.927 -154.879 -2007 32 39 78
-390.393 -154.683 -2005 33 40 78
-385.871 -154.488 -2003 36 42 81
-381.74 -154.448 -2003 35 39 78
-377.425 -154.331 -2002 34 40 78
-372.558 -153.984 -1998 38 45 82
-367.894 -153.714 -1995 255 255 255
-362.699 -153.213 -1989 255 255 255
-358.073 -152.945 -1986 255 255 255
-353.461 -152.676 -1983 255 255 255
-349.218 -152.563 -1982 255 255 255
-345.678 -152.757 -1985 35 42 78
-341.096 -152.491 -1982 36 41 78
-337.21 -152.532 -1983 35 40 77
-333.322 -152.574 -1984 36 40 77
-328.935 -152.386 -1982 29 33 70
-324.886 -152.351 -1982 29 33 70
-320.031 -151.934 -1977 33 37 74
-316.318 -152.054 -1979 36 40 77
-311.811 -151.791 -1976 34 41 77
-307.941 -151.836 -1977 33 40 76
-303.455 -151.573 -1974 33 40 77
-299.439 -151.542 -1974 32 40 73
-295.125 -151.358 -1972 34 42 73
-291.266 -151.404 -1973 34 41 76
-287.259 -151.374 -1973 41 46 82
-282.967 -151.191 -1971 41 45 81
-278.969 -151.162 -1971 138 139 166
-275.252 -151.286 -1973 224 225 240
-271.804 -151.565 -1977 78 80 103
-268.071 -151.69 -1979 30 33 59
-264.6 -151.969 -1983 36 40 67
-260.588 -151.942 -1983 37 41 68
-256.838 -152.068 -1985 39 43 70
-252.699 -151.965 -1984 36 41 71
-248.818 -152.016 -1985 36 39 68
-244.934 -152.067 -1986 35 36 65
-240.927 -152.042 -1986 32 33 62
-236.922 -152.017 -1986 32 34 64
-232.919 -151.993 -1986 31 34 67
-229.148 -152.122 -1988 32 36 69
-225.258 -152.175 -1989 37 41 75
-221.81 -152.535 -1994 40 44 79
-218.126 -152.742 -1997 40 44 79
-214.539 -153.025 -2001 41 45 80
-210.516 -153.003 -2001 38 45 80
-206.805 -153.211 -2004 37 44 80
-202.983 -153.343 -2006 36 43 79
-199.848 -154.01 -2015 35 42 78
-196.193 -154.295 -2019 36 43 79
-192.713 -154.734 -2025 38 45 81
-188.839 -154.867 -2027 34 41 77
-185.049 -155.077 -2030 255 255 255
-181.071 -155.135 -2031 255 255 255
-177.089 -155.193 -2032 255 255 255
-173.106 -155.251 -2033 255 255 255
-169.119 -155.31 -2034 40 44 80
-165.293 -155.522 -2037 41 45 80
-161.851 -156.116 -2045 42 46 81
-158.147 -156.481 -2050 35 39 74
-154.5 -156.923 -2056 31 38 72
-150.464 -156.983 -2057 34 41 75
-146.639 -157.274 -2061 32 39 74
-142.661 -157.411 -2063 32 37 71
-138.877 -157.778 -2068 25 30 63
-135.205 -158.298 -2075 40 44 79
-131.443 -158.743 -2081 35 39 72
-127.903 -159.492 -2091 58 62 90
-452.523 -162.182 -2041 31 40 69
-448.045 -162.054 -2040 29 38 69
-442.921 -161.688 -2036 34 41 75
-437.603 -161.243 -2031 39 48 86
-431.243 -160.402 -2021 41 51 91
-425.773 -159.88 -2015 35 43 83
-420.959 -159.596 -2012 29 37 77
-416.783 -159.551 -2012 30 36 77
-412.405 -159.427 -2011 31 37 78
-408.441 -159.462 -2012 32 38 79
-404.275 -159.418 -2012 32 40 80
-399.317 -159.057 -2008 32 39 80
-394.97 -158.936 -2007 33 39 80
-390.435 -158.735 -2005 32 39 77
-385.719 -158.455 -2002 35 42 80
-381.781 -158.493 -2003 36 40 79
-377.088 -158.215 -2000 35 41 80
-372.038 -157.779 -1995 39 46 84
-367.38 -157.502 -1992 255 255 255
-362.738 -157.226 -1989 255 255 255
-357.93 -156.871 -1985 255 255 255
-353.499 -156.675 -1983 255 255 255
-349.079 -156.479 -1981 255 255 255
-344.844 -156.363 -1980 35 42 78
-340.96 -156.405 -1981 35 42 78
-337.075 -156.448 -1982 33 40 76
-333.189 -156.491 -1983 36 40 77
-328.969 -156.377 -1982 30 34 71
-325.249 -156.499 -1984 30 34 71
-320.389 -156.07 -1979 35 39 76
-316.671 -156.194 -1981 36 40 77
-312.317 -156.003 -1979 31 38 74
-308.129 -155.891 -1978 31 38 74
-303.794 -155.701 -1976 33 40 78
-299.622 -155.59 -1975 29 38 71
-295.306 -155.401 -1973 36 45 77
-291.444 -155.448 -1974 34 41 77
-286.998 -155.181 -1971 39 45 82
-283.14 -155.229 -1972 50 54 93
-278.856 -155.042 -1970 182 183 212
-275.42 -155.327 -1974 208 209 236
-271.695 -155.455 -1976 58 59 87
-268.235 -155.741 -1980 29 31 59
-264.627 -155.949 -1983 33 37 64
-260.616 -155.921 -1983 37 41 68
-256.735 -155.972 -1984 37 41 69
-252.471 -155.788 -1982 36 41 72
-248.593 -155.84 -1983 37 39 70
-244.836 -155.971 -1985 35 36 66
-240.952 -156.024 -1986 34 35 65
-236.946 -155.999 -1986 34 36 67
-232.826 -155.895 -1985 31 34 68
-229.172 -156.106 -1988 31 36 69
-225.395 -156.239 -1990 35 40 73
-222.056 -156.687 -1996 40 44 79
-218.149 -156.742 -1997 41 45 80
-214.454 -156.954 -2000 43 47 82
-210.644 -157.089 -2002 40 47 83
-207.033 -157.38 -2006 38 45 81
-203.307 -157.594 -2009 37 44 80
-199.869 -158.043 -2015 38 45 81
-196.213 -158.336 -2019 40 47 83
-192.733 -158.786 -2025 40 47 83
-188.765 -158.844 -2026 255 255 255
-184.886 -158.982 -2028 255 255 255
-180.911 -159.041 -2029 255 255 255
-177.021 -159.179 -2031 255 255 255
-172.868 -159.082 -2030 255 255 255
-169.137 -159.377 -2034 36 40 77
-165.31 -159.595 -2037 40 44 79
-161.789 -160.126 -2044 43 47 82
-157.932 -160.344 -2047 36 40 75
-154.291 -160.797 -2053 32 39 73
-150.553 -161.173 -2058 33 40 75
-146.725 -161.471 -2062 33 40 76
-142.814 -161.69 -2065 34 39 73
-139.026 -162.067 -2070 29 34 67
-135.154 -162.366 -2074 36 40 75
-131.393 -162.821 -2080 37 41 74
-127.794 -163.512 -2089 31 35 66
-451.908 -166.079 -2038 30 38 71
-447.435 -165.947 -2037 31 39 72
-442.1 -165.491 -2032 37 45 79
-436.574 -164.953 -2026 43 53 91
-430.223 -164.091 -2016 40 50 92
-424.974 -163.636 -2011 36 44 84
-420.377 -163.427 -2009 31 39 79
-416.414 -163.462 -2010 31 39 79
-412.245 -163.416 -2010 29 37 77
-408.079 -163.37 -2010 31 39 79
-403.716 -163.244 -2009 29 38 78
-399.559 -163.2 -2009 31 38 79
-395.013 -162.993 -2007 33 39 80
-390.672 -162.869 -2006 33 39 79
-385.954 -162.582 -2003 34 40 80
-381.823 -162.54 -2003 37 41 81
-377.129 -162.255 -2000 37 43 82
-372.078 -161.808 -1995 39 46 84
-367.236 -161.442 -1991 255 255 255
-362.595 -161.159 -1988 255 255 255
-357.969 -160.876 -1985 255 255 255
-353.894 -160.837 -1985 255 255 255
-349.469 -160.636 -1983 255 255 255
-345.23 -160.517 -1982 38 45 82
-341.341 -160.56 -1983 36 43 80
-337.112 -160.442 -1982 33 40 76
-333.225 -160.486 -1983 35 40 77
-328.839 -160.288 -1981 32 37 74
-324.792 -160.252 -1981 33 37 75
-320.262 -159.974 -1978 34 39 77
-316.386 -160.02 -1979 34 39 77
-312.035 -159.824 -1977 31 38 75
-308.318 -159.952 -1979 30 37 74
-303.827 -159.676 -1976 31 39 76
-299.502 -159.481 -1974 31 39 74
-295.338 -159.368 -1973 30 38 72
-291.18 -159.255 -1972 32 39 73
-286.883 -159.062 -1970 36 42 78
-282.74 -158.95 -1969 42 46 83
-278.745 -158.919 -1969 124 126 160
-275.171 -159.131 -1972 147 150 182
-271.312 -159.182 -1973 43 45 78
-267.857 -159.475 -1977 28 32 62
-264.389 -159.769 -1981 28 33 61
-260.644 -159.902 -1983 38 42 70
-256.634 -159.874 -1983 36 40 69
-252.498 -159.765 -1982 36 41 70
-248.745 -159.899 -1984 37 40 71
-244.739 -159.872 -1984 36 38 71
-240.978 -160.007 -1986 36 38 70
-236.972 -159.981 -1986 34 36 69
-233.085 -160.036 -1987 32 35 69
-229.312 -160.172 -1989 32 36 70
-225.419 -160.228 -1990 34 39 72
-221.857 -160.526 -1994 39 43 78
-217.954 -160.582 -1995 41 45 80
-214.155 -160.72 -1997 42 46 81
-210.456 -160.938 -2000 39 45 81
-206.849 -161.237 -2004 38 45 81
-203.228 -161.537 -2008 40 47 83
-199.89 -162.078 -2015 40 47 83
-196.234 -162.378 -2019 40 47 83
-192.754 -162.84 -2025 39 46 82
-188.879 -162.98 -2027 255 255 255
-184.997 -163.12 -2029 255 255 255
-180.93 -163.101 -2029 255 255 255
