ply
format ascii 1.0
comment Created by Open3D
element vertex 734
property double x
property double y
property double z
property double nx
property double ny
property double nz
property uchar red
property uchar green
property uchar blue
end_header
-443.902 -1082.1 -2111.58 -0.678882 0.114532 0.430403 138 145 185
-446.032 -1092.19 -2110.09 -0.609232 0.127588 0.586461 137 145 186
-446.138 -1079.78 -2114.79 -0.661331 0.11749 0.474985 138 146 185
-449.277 -1069.31 -2120.96 -0.624413 0.126752 0.59379 140 147 187
-443.38 -1071.35 -2114.24 -0.695642 0.118629 0.417589 140 148 187
-448.183 -1066.06 -2120.71 -0.635054 0.126431 0.571409 140 148 188
-441.662 -1056.79 -2115.44 -0.628339 0.0846202 0.434868 127 134 173
-443.059 -1047.19 -2117.59 -0.475703 0.0381087 0.566367 107 114 152
-442.224 -1043.95 -2116.91 -0.448804 0.0145284 0.56899 100 106 143
-435.258 -1061.13 -2107.4 -0.795719 0.0873284 0.150022 135 142 180
-440.258 -1059.4 -2113.67 -0.674104 0.0909891 0.370274 130 138 177
-435.779 -1043.69 -2109.05 -0.666336 -0.00190238 0.261338 103 109 144
-127.962 -1079.13 -2108.36 0.633685 -0.0160589 0.568166 146 156 199
-121.328 -1078.07 -2117.84 0.758045 -0.0289876 0.485924 155 163 203
-123.827 -1069.81 -2112.52 0.652325 -0.0531031 0.574891 146 156 199
-126.823 -1065.22 -2108.12 0.64322 -0.0680534 0.609007 134 144 189
-116.591 -1062.01 -2120.03 0.797905 -0.0282877 0.455192 134 142 181
-116.036 -1058.29 -2120.32 0.826579 -0.031095 0.436153 125 133 171
-122.483 -1046.57 -2112.59 0.811728 -0.0390867 0.490381 133 142 181
-117.578 -1047.21 -2117.81 0.830763 -0.0335622 0.422984 133 141 178
-117.86 -1041.21 -2117.35 0.838401 -0.0443707 0.401488 140 148 184
-434.928 -1196.42 -2105.44 -0.288207 0.854597 -0.35563 74 70 72
-421.764 -1194.39 -2106.93 -0.314918 0.911888 -0.129779 119 114 117
-409.084 -1188.79 -2103.02 -0.466472 0.840663 0.00377599 178 172 172
-402.431 -1177.08 -2106.2 -0.868955 0.34863 -0.188308 177 177 182
-403.326 -1166.65 -2102.77 -0.918954 -0.0253706 -0.350802 175 180 202
-407.521 -1154.14 -2100.27 -0.889245 -0.188156 -0.412145 152 158 189
-335.805 -1175.75 -2101.63 0.914054 -0.255267 0.346184 134 141 173
-335.663 -1163.43 -2101.81 0.862837 -0.29911 0.364526 136 142 174
-331.616 -1154.56 -2106.28 0.465017 -0.287451 0.534559 126 132 165
-290.603 -1205.8 -2102.67 -0.0899786 0.556814 -0.505073 72 73 89
-272.266 -1201.03 -2104.21 -0.562125 0.467189 -0.26734 72 73 84
-270.738 -1180.26 -2106.07 -0.552975 -0.0382733 0.341464 115 118 143
-272.343 -1169.63 -2105.88 -0.471922 -0.063439 0.127408 94 96 118
-273.304 -1157.08 -2103.77 -0.249198 -0.071587 0.510728 74 76 99
-296.685 -600.38 -2100.48 -0.429088 -0.018075 0.31766 29 33 77
-289.141 -596.288 -2102.06 -0.409303 -0.00700886 0.259851 28 32 74
-282.595 -594.446 -2105.97 -0.325498 -0.0217766 0.27387 24 26 62
-415.311 -586.521 -2106.01 -0.858401 -0.0348846 -0.350535 52 54 108
-417.47 -578.121 -2105.91 -0.849748 -0.185575 -0.281405 49 51 99
-424.262 -560.725 -2102.15 -0.891082 -0.06713 -0.410823 41 39 70
-422.291 -557.023 -2103.35 -0.892803 0.0655664 -0.391806 39 38 68
-417.636 -545.575 -2104.36 -0.878514 0.220243 -0.155742 35 34 66
-418.446 -534.388 -2101.19 -0.909742 -0.192485 -0.131399 38 37 67
-420.843 -527.17 -2106.44 -0.951223 -0.26166 0.0164937 38 38 67
-426.293 -511.386 -2106.8 -0.932187 0.0387017 -0.18249 41 43 78
-421.871 -501.885 -2105.73 -0.842358 0.347374 -0.248576 41 43 81
-419.605 -490.64 -2102.8 -0.860263 -0.122624 -0.291905 55 55 95
-137.578 -1143.34 -2104.44 0.665707 -0.107729 0.231866 133 138 175
-150.323 -1135.42 -2102.4 0.914396 -0.374114 -0.238003 130 142 184
-138.588 -1134.96 -2103.96 0.570603 -0.0821842 0.399503 142 147 185
-123.246 -1146.47 -2101.26 0.60083 0.403164 0.630198 161 161 189
-123.538 -1138.59 -2103.53 0.628412 0.236387 0.689759 153 156 189
-126.385 -1133.56 -2101.42 0.522902 0.10771 0.824968 158 164 198
-124.205 -1125.39 -2102.64 0.606269 -0.0298154 0.766288 163 170 204
-142.977 -1121.98 -2103.77 0.929634 -0.284656 0.0435432 135 147 186
-140.958 -1110.95 -2100.24 0.944361 -0.0528659 0.221168 137 147 189
-144.14 -1098.33 -2100.59 0.9463 0.17813 0.333386 138 149 195
-131.493 -1107.5 -2106.27 0.964053 -0.0969622 0.109267 128 141 181
-131.383 -1101.07 -2105.27 0.916998 -0.0163494 0.177966 143 155 195
-126.885 -1118.63 -2100.36 0.677559 -0.0827231 0.675918 161 169 205
-123.353 -1115.7 -2102.83 0.689672 -0.106881 0.675002 161 169 206
-116.572 -1107.03 -2105.89 0.605964 -0.226296 0.718633 133 143 188
-111.71 -1103.78 -2107.09 0.545465 -0.302365 0.762167 110 124 173
-107.702 -1097.89 -2106.45 0.540949 -0.317151 0.776104 108 122 174
-143.581 -1093.78 -2104.43 0.946253 0.154205 0.317713 142 152 197
-132.329 -1084.83 -2103.05 0.526408 0.0284418 0.625285 141 151 195
-143.731 -1078.91 -2104.51 0.94004 0.0461113 0.355014 166 179 215
-130.158 -1080.7 -2105.48 0.589925 0.015745 0.582012 143 153 196
-112.4 -1093.4 -2101.28 0.553974 -0.296782 0.777128 111 124 180
-108.384 -1081.37 -2100.43 0.637973 -0.201006 0.733891 161 170 213
-128.277 -1071.04 -2106.72 0.574319 -0.0703647 0.644569 140 150 197
-106.729 -1072.08 -2102.52 0.777363 -0.0963596 0.588041 166 175 209
-147.022 -1057.87 -2100.27 0.919405 0.104816 0.354803 83 97 150
-132.639 -1062.98 -2101.01 0.605253 0.0261577 0.568973 120 130 176
-146.409 -1051.24 -2105.42 0.952168 0.0630611 0.310227 63 75 122
-130.508 -1044.97 -2103.93 0.777455 -0.0261496 0.557541 126 136 177
-127.864 -1053.19 -2107.05 0.786775 -0.0361224 0.558572 127 136 178
-103.687 -1052.76 -2106.65 0.860215 -0.0563271 0.466028 115 123 159
-444.157 -13.989 -2105.82 -0.934212 0.047584 -0.306928 36 41 73
-446.152 -4.52631 -2101.18 -0.967715 -0.0491575 -0.221685 34 39 70
-447.394 8.25184 -2102.76 -0.956878 -0.133439 -0.180485 33 38 69
-447.915 20.4269 -2107.35 -0.9604 0.0140024 -0.243004 33 38 68
-447.826 33.2306 -2102.39 -0.973623 0.133572 -0.167327 32 37 66
-445.871 46.3108 -2104.12 -0.947913 0.165704 -0.148605 33 38 67
-448.509 57.2533 -2101.65 -0.956271 0.150252 0.0587908 28 35 63
-95.2795 -18.9557 -2104.53 0.815384 -0.319166 -0.440095 24 30 55
-93.4686 -15.9498 -2104.04 0.797512 -0.385166 -0.425813 24 30 55
-83.7298 3.64484 -2100.99 0.910231 -0.096437 -0.320753 26 31 55
-83.4121 6.87637 -2100.94 0.928985 -0.0558035 -0.350093 25 31 55
-78.5717 24.1206 -2101.53 0.904376 -0.312513 -0.225828 27 33 56
-76.4391 40.4708 -2105.99 0.94004 -0.0448938 -0.371052 26 33 54
-75.7906 41.5865 -2104.26 0.932545 -0.0327928 -0.318162 26 34 55
-72.3115 57.8454 -2103.26 0.772465 -0.127999 0.360629 40 38 72
-67.8179 69.1492 -2102.15 0.769709 -0.243063 0.448636 84 31 113
-59.1798 77.5331 -2107.41 0.787046 -0.242962 0.377534 51 37 84
-137.446 129.229 -2102.4 -0.871747 -0.198686 -0.165487 15 17 26
-142.357 137.117 -2106.96 -0.778048 -0.271951 -0.250884 19 18 29
-125.412 138.479 -2106.76 -0.714878 -0.324198 -0.55484 17 19 27
-52.4436 92.7598 -2106.42 0.63298 -0.441677 0.609233 127 22 147
-45.9726 97.6634 -2108.05 0.575512 -0.486979 0.583835 140 19 158
-548.672 -1229.25 -2095.62 -0.891071 0.285951 0.0336836 87 83 86
-539.017 -1216.25 -2098.93 -0.91372 0.26937 0.0348703 87 83 86
-537.429 -1214.24 -2099.09 -0.920955 0.264386 0.0362927 87 83 86
-527.177 -1201.97 -2095.07 -0.847964 0.404024 0.0321123 87 83 85
-517.76 -1205.29 -2099.22 -0.19042 0.821451 -0.227183 83 78 81
-509.67 -1202.65 -2094.63 -0.0250562 0.935605 -0.320519 80 76 79
-502.155 -1207.42 -2098.68 -0.0338362 0.88367 -0.467965 83 78 81
-477.567 -1208.64 -2098.02 -0.127995 0.911095 -0.369089 78 73 78
-487.8 -1206.42 -2095.14 -0.0158061 0.928986 -0.374853 81 76 80
-466.287 -1207.02 -2099.14 -0.303688 0.855914 -0.40037 80 76 79
-458.654 -1199.77 -2096.4 -0.451998 0.785644 -0.412718 85 81 84
-442.21 -1195.41 -2099.66 -0.256192 0.863051 -0.341411 74 70 72
-420.745 -585.419 -2095.28 -0.767578 -0.0837549 -0.550845 49 55 121
-424.256 -574.566 -2096.26 -0.810276 -0.177005 -0.465413 43 46 98
-425.978 -562.809 -2099.6 -0.865493 -0.128803 -0.457854 41 41 78
-423.389 -551.117 -2096.22 -0.829018 0.296802 -0.395429 41 42 86
-421.02 -542.402 -2094.18 -0.801857 0.167783 -0.405877 39 42 87
-418.247 -536.476 -2099.72 -0.885332 -0.127585 -0.206428 37 37 69
-424.593 -524.575 -2097.87 -0.911009 -0.383358 -0.152969 47 53 104
-424.487 -507.857 -2095.22 -0.934725 0.134628 -0.103936 56 63 133
-422.547 -496.466 -2095.37 -0.908649 0.0848546 -0.19659 48 50 103
-264.217 -1149.9 -2096 -0.389134 -0.107749 -0.75011 52 54 76
-264.223 -1141.44 -2097.42 -0.36061 -0.110439 -0.649553 59 61 85
-266.042 -1130.83 -2099.44 -0.343376 -0.0227649 -0.201492 79 81 109
-265.691 -1128.23 -2098.99 -0.378921 -0.0272526 -0.183049 87 90 119
-267.496 -1121.33 -2099.52 -0.354486 -0.0205837 0.1773 114 118 149
-267.362 -1114.9 -2097.68 -0.330197 -0.0134911 0.441474 131 136 169
-244.714 -1102.63 -2098.2 -0.605468 0.157065 0.0352982 116 122 156
-241.538 -1095.54 -2097.42 -0.5807 0.117826 0.343642 118 124 159
-200.769 -1145.48 -2095.19 -0.701192 0.0585969 0.709862 156 160 184
-204.202 -1138.04 -2096.63 -0.707718 -0.0378095 0.699527 165 170 200
-205.477 -1134.15 -2097.53 -0.697588 -0.0505794 0.706368 164 169 198
-207.913 -1122.02 -2099.78 -0.560116 -0.0910444 0.800099 121 126 154
-210.849 -1113.37 -2100.32 -0.463786 -0.114984 0.876109 104 111 138
-199.17 -1114.64 -2094.42 -0.547836 0.0533 0.829397 117 123 155
-206.063 -1103.11 -2096.57 -0.402852 -0.0650198 0.901141 116 123 153
-201.181 -1100.56 -2094.99 -0.344146 -0.0290944 0.924509 128 135 166
-195.912 -1099.77 -2093.44 -0.325176 0.020816 0.931605 137 143 176
-136.761 -928.902 -2094.76 0.856485 -0.265648 0.415964 59 72 136
-122.173 -933.199 -2095.3 0.816892 -0.131892 0.534977 47 57 115
-119.483 -927.056 -2095.65 0.835705 -0.0978517 0.467889 43 50 100
-100.365 -974.743 -2096.72 0.746284 0.0546519 0.652486 129 138 172
-96.9032 -955.617 -2097.3 0.753585 -0.0879926 0.647928 51 59 90
-98.8845 -949.641 -2094.21 0.783447 -0.089933 0.611316 48 56 95
-95.2389 -942.922 -2099.12 0.820126 -0.0436927 0.567916 35 41 71
-95.2635 -927.462 -2096.65 0.817398 -0.156139 0.555022 38 43 74
-244.063 -920.409 -2094.62 -0.443758 -0.319103 0.834861 28 29 57
-252.178 -918.192 -2098.17 -0.541522 -0.261595 0.794094 27 27 55
-258.074 -898.642 -2099.22 -0.577476 -0.120691 0.809417 22 22 49
-247.194 -906.984 -2093.76 -0.458158 -0.083168 0.873925 23 24 50
-246.959 -899.535 -2094.51 -0.423104 0.00865441 0.896545 23 24 49
-257.956 -884.74 -2098.56 -0.484468 -0.064248 0.883723 22 23 48
-244.649 -895.804 -2094.31 -0.388033 0.021346 0.913584 24 24 50
-254.783 -884.107 -2096.83 -0.473055 -0.0657755 0.88243 23 23 48
-261.24 -869.198 -2097.3 -0.580005 -0.161152 0.799322 23 23 51
-257.547 -875.829 -2096.89 -0.528468 -0.117253 0.844827 22 23 48
-258.329 -867.757 -2094.22 -0.546019 -0.20255 0.800732 23 24 51
-268.209 -857.782 -2098.02 -0.376588 -0.278435 0.891183 29 29 64
-444.33 -15.2847 -2093.63 -0.933238 -0.0673215 0.162098 34 40 70
-445.903 -4.26563 -2097.5 -0.961991 -0.040032 -0.0712314 34 39 70
-448.026 11.3192 -2100.02 -0.961515 -0.12119 -0.058098 32 37 67
-448.4 22.1013 -2096.13 -0.957435 -0.0193545 0.102424 32 37 66
-447.907 34.713 -2100.78 -0.974094 0.12432 -0.118914 32 37 66
-446.951 45.4411 -2095.56 -0.959396 0.141115 0.155239 31 37 65
-452.873 61.1049 -2095.08 -0.938853 0.115333 0.111456 33 38 67
-88.3888 -12.8126 -2097.84 0.827903 -0.442912 -0.147448 26 32 57
-85.4258 -8.74975 -2094.53 0.865463 -0.408517 0.0193903 27 32 59
-82.9495 7.48673 -2099.34 0.941348 -0.0551167 -0.313796 25 31 55
-77.0503 25.6023 -2097.74 0.918682 -0.289464 -0.210908 27 33 57
-75.4723 29.2533 -2097.89 0.928312 -0.256524 -0.213787 28 33 57
-74.2527 40.001 -2099.86 0.95307 -0.0253081 -0.315253 27 34 56
-74.2589 60.4157 -2098.43 0.736987 -0.121889 0.530764 57 37 88
-74.0931 62.4468 -2097.59 0.739683 -0.131782 0.548607 78 33 106
-71.7325 72.4461 -2095.17 0.734445 -0.26326 0.555957 180 14 193
-65.0755 79.6765 -2099.01 0.78372 -0.266388 0.41118 44 39 80
-138.661 128.641 -2100.3 -0.912755 -0.168682 -0.151944 14 16 25
-135.688 126.159 -2097.51 -0.919098 -0.171641 -0.154603 13 16 24
-127.817 131.703 -2097.52 -0.760347 -0.386889 -0.373194 14 17 26
-62.0655 94.8455 -2095.55 0.706567 -0.347845 0.563107 73 35 103
-55.3082 102.194 -2099.51 0.551434 -0.549962 0.605877 65 30 95
-337.948 -613.22 -2105.98 -0.505604 -0.022355 -0.36213 38 41 87
-330.807 -595.834 -2105.8 -0.42929 -0.0611769 -0.187471 38 41 82
-324.176 -640.421 -2098.42 -0.238594 -0.0274277 0.31578 36 40 91
-316.652 -644.204 -2097.6 -0.282956 -0.0229569 0.415623 33 38 85
-322.082 -642.311 -2098.1 -0.240059 -0.0267717 0.355575 35 40 90
-310.51 -636.312 -2098.45 -0.390476 -0.0211444 0.344681 30 35 79
-298.912 -634.36 -2099.71 -0.443009 -0.0234894 0.30419 30 33 77
-319.474 -617.765 -2100.63 -0.453024 -0.0116661 0.08302 32 36 80
-319.326 -630.338 -2099.19 -0.38927 -0.0198363 0.226808 32 36 82
-308.368 -630.458 -2099 -0.418192 -0.0210205 0.30317 30 34 78
-302.886 -621.811 -2100.17 -0.425944 -0.004156 0.31387 29 33 76
-302.827 -624.505 -2099.87 -0.435052 -0.0132379 0.293185 30 34 77
-296.784 -624.107 -2101.96 -0.390218 0.0106177 0.396939 28 32 74
-291.926 -619.461 -2106.47 -0.298568 0.0679299 0.559095 24 28 67
-320.33 -608.051 -2101.71 -0.464499 -0.015753 -0.00593262 33 37 81
-312.394 -608.815 -2100.28 -0.452915 -0.0105899 0.171874 31 35 78
-311.517 -614.437 -2100.05 -0.445691 -0.00498582 0.217579 30 34 77
-306.519 -603.625 -2100.49 -0.442182 -0.0141097 0.227245 30 34 77
-318.399 -586.362 -2103.92 -0.403674 -0.0591774 0.13929 33 35 71
-315.292 -589.706 -2102.74 -0.428665 -0.0377501 0.169188 31 33 71
-313.637 -597.088 -2101.66 -0.441228 -0.0247291 0.159088 31 34 75
-311.974 -601.955 -2100.85 -0.44941 -0.0153834 0.164141 31 35 77
-301.919 -588.865 -2100.71 -0.41977 -0.0290555 0.301384 28 31 70
-295.467 -610.796 -2102.19 -0.370944 0.0310848 0.430224 27 31 73
-290.619 -604.948 -2103.06 -0.363284 0.0229556 0.37908 28 31 72
-322.368 -582.732 -2105.89 -0.396739 -0.0737305 0.162297 34 35 70
-312.24 -574.913 -2104.78 -0.48129 -0.0115422 0.463676 24 25 55
-303.929 -579.025 -2101.49 -0.400785 -0.0285394 0.400741 21 21 49
-308.734 -586.72 -2101.95 -0.417308 -0.0364231 0.260745 29 31 68
-312.69 -571.6 -2105.77 -0.523962 0.00524017 0.549038 24 24 53
-302.822 -565.629 -2104.48 -0.500542 0.0103003 0.546346 21 21 48
-299.935 -563.14 -2104.44 -0.480788 0.0142107 0.518104 21 21 48
-59.0014 84.5726 -2104.15 0.764652 -0.279689 0.436636 52 38 85
20.5082 260.814 -2103.36 0.301508 0.230556 0.899115 67 71 107
14.8594 265.179 -2103.54 0.378781 0.223542 0.886585 66 69 112
-455.46 -1037.7 -2086.59 -0.272839 0.14046 0.949045 95 107 151
-462.397 -1023.54 -2087.71 -0.065946 -0.0690836 0.985282 95 106 145
-463.269 -1021.35 -2087.14 -0.00496087 -0.0907635 0.98855 77 87 126
-462.109 -1017.25 -2086.99 0.0449247 -0.107514 0.989694 53 62 99
-449.666 -1011.07 -2086.55 -0.268645 -0.0651518 0.959206 30 35 73
-493.095 -999.76 -2087.72 0.269462 0.184044 0.913472 75 81 109
-495.775 -988.073 -2087.76 0.217691 0.165538 0.864082 75 81 109
-424.508 -1033.1 -2090.56 -0.922996 -0.0945749 -0.149102 83 87 116
-426.44 -1018.5 -2092.21 -0.9146 -0.0945114 -0.135446 84 87 117
-424.719 -1011.01 -2088.37 -0.940894 -0.0950934 -0.17617 84 86 116
-393.683 -1027.82 -2091.27 -0.955863 -0.062176 -0.218642 122 126 156
-394.633 -1020.86 -2090.72 -0.970744 -0.0899449 -0.220149 100 104 134
-426.292 -1006.08 -2089.29 -0.94574 -0.0945556 -0.182972 84 87 116
-429.93 -989.982 -2089.48 -0.91967 -0.0822944 -0.148185 78 80 110
-428.446 -983.64 -2086.11 -0.867675 -0.0423005 -0.136166 50 51 82
-400.366 -999.268 -2088.67 -0.941169 -0.135864 -0.374703 85 87 119
-401.012 -995.677 -2088 -0.948838 -0.133215 -0.385695 83 86 116
-494.023 -977.251 -2086.48 0.19561 0.0026098 0.901693 53 58 84
-476.764 -980.133 -2086.27 0.284114 0.201629 0.916482 53 58 82
-471.08 -970.158 -2086.66 -0.0202281 -0.0473063 0.943297 32 37 62
-493.096 -959.417 -2088.07 0.302686 -0.0191294 0.897341 31 36 58
-426.067 -521.235 -2091.25 -0.951307 -0.243645 -0.0772275 60 72 150
-425.005 -509.816 -2092.66 -0.95277 0.0982532 -0.0857932 58 67 146
-425.422 -500.998 -2086.3 -0.915946 0.00828696 -0.371541 59 66 135
-427.193 -482.367 -2087.81 -0.809371 -0.267938 -0.459584 45 50 111
-425.129 -482.153 -2092.48 -0.84233 -0.347966 -0.302655 51 53 106
-434.723 -464.509 -2089.82 -0.921426 -0.0693551 -0.327668 49 56 118
-431.687 -453.386 -2091.39 -0.880549 0.267358 -0.356991 59 69 148
-428.646 -443.933 -2090.33 -0.864692 0.30475 -0.334681 62 73 156
-425.452 -437.019 -2092.82 -0.920731 0.235204 -0.234156 57 65 136
-425.163 -432.155 -2091.65 -0.92045 0.188183 -0.265444 59 68 134
-246.459 -1051.79 -2088.31 -0.635896 0.0279379 -0.317131 90 97 135
-188.114 -1092.45 -2092.24 -0.308394 0.16428 0.921767 164 170 205
-181.864 -1091.97 -2087.45 -0.444808 0.307375 0.830732 153 161 199
-183.661 -1084.52 -2092.64 -0.308406 0.182785 0.919116 162 170 206
-179.322 -1074.28 -2089.86 -0.276494 -0.0399268 0.93986 140 149 188
-184.353 -1073.35 -2091.71 -0.196502 -0.126807 0.966233 151 157 192
-193.171 -1063.91 -2092.16 -0.337377 -0.104704 0.920171 146 153 187
-194.283 -1055.66 -2092.05 -0.473868 -0.0613605 0.862893 138 145 182
-194.109 -1045.57 -2091.27 -0.564479 -0.0428023 0.814168 125 134 175
-190.753 -1042.57 -2087.76 -0.598353 -0.0596813 0.793811 121 130 174
-185.176 -1062.42 -2088.89 -0.280253 -0.177155 0.936337 132 140 177
-151.451 -1140.34 -2089.53 0.973252 -0.171277 0.113183 173 180 206
-151.558 -1136.15 -2087.79 0.929974 -0.112424 0.21766 165 172 202
-149.998 -1129.68 -2090.92 0.860056 -0.199214 0.3127 155 163 201
-146.265 -1113.1 -2088.55 0.865207 -0.0833487 0.347503 158 166 200
-144.188 -1099.1 -2087.83 0.828493 0.244923 0.3745 136 147 187
-139.2 -1095.06 -2089.85 0.561504 -0.0752942 0.665923 107 123 178
-137.609 -925.287 -2090.22 0.816637 -0.199599 0.517954 61 74 136
-135.81 -913.372 -2091.87 0.852047 0.0120693 0.403168 42 47 90
-143.455 -903.385 -2088.06 0.799507 0.146845 0.510353 32 33 63
-141.324 -903.226 -2091.03 0.817046 0.228739 0.420281 34 35 65
-121.587 -925.398 -2092.74 0.850136 -0.0766248 0.411922 39 44 88
-125.061 -911.242 -2086.31 0.847694 -0.0264568 0.405065 35 38 73
-121.665 -902.079 -2087.33 0.866668 -0.0523301 0.331654 33 36 70
-145.126 -894.116 -2089.74 0.892414 0.0640955 0.231648 30 33 63
-140.143 -878.571 -2089.46 0.922278 -0.243669 0.142942 36 38 73
-119.143 -878.794 -2086.78 0.924885 0.0308633 0.133946 34 38 73
-114.735 -882.437 -2092.87 0.922626 0.0505056 0.122158 33 36 69
-98.0656 -911.092 -2085.49 0.744919 -0.217191 0.613212 33 36 68
-94.8629 -907.324 -2087.12 0.723422 -0.236657 0.644484 36 39 69
-92.1686 -903.298 -2090.43 0.726981 -0.229981 0.649343 39 42 71
-90.5826 -885.461 -2091.79 0.834166 -0.00320172 0.549373 43 46 72
-92.8344 -871.621 -2087.79 0.87143 0.0439912 0.494395 37 41 67
-137.324 -867.367 -2092.24 0.961567 -0.203352 0.113576 41 47 98
-430.113 -78.8216 -2086.72 -0.853737 -0.331835 0.321818 33 39 69
-434.685 -63.7544 -2086.28 -0.877364 -0.148649 0.350433 33 38 69
-437.188 -52.6811 -2089.67 -0.857637 -0.254333 0.326701 35 40 70
-438.804 -26.9509 -2086 -0.885444 0.0122873 0.453237 37 43 73
-442.643 -10.8622 -2088.9 -0.902701 -0.0792184 0.339371 34 40 69
-443.471 -3.31791 -2090.49 -0.916358 -0.0425454 0.262986 33 39 69
-443.496 6.94269 -2090.09 -0.89888 -0.0515072 0.364972 33 38 67
-446.319 18.5305 -2090.1 -0.899652 -0.108761 0.387206 33 38 67
-446.611 30.9194 -2090.3 -0.93627 0.0178065 0.322201 34 39 67
-444.319 37.0852 -2086.55 -0.929384 0.0515771 0.362322 32 38 66
-448.077 51.5513 -2091.65 -0.950331 0.123525 0.196406 31 38 64
-453.08 59.0124 -2086.79 -0.949348 0.112518 0.15916 30 38 64
-55.8883 111.434 -2091.7 0.514127 -0.630743 0.577663 71 27 100
-133.479 147.865 -2086.88 -0.969265 0.0693745 -0.155095 25 23 27
-140.677 167.116 -2089.52 -0.971497 0.167832 -0.094573 28 25 28
-135.38 166.804 -2092.33 -0.960381 0.188479 -0.0922189 30 26 30
-155.698 315.257 -2091.76 0.224951 0.783957 0.571929 69 53 113
-137.152 308.803 -2086.78 0.165361 0.813659 0.559408 3 2 249
-126.955 307.698 -2089.65 0.107601 0.864767 0.484683 0 0 255
-115.075 307.229 -2090.7 0.100062 0.918836 0.3805 9 11 242
-220.295 410.679 -2088.33 0.970608 -0.205933 0.104159 63 37 22
-221.642 419.717 -2092.32 0.887579 -0.148366 -0.35167 50 31 22
-214.825 431.443 -2091.5 0.766121 -0.450793 -0.362182 53 33 24
-210.714 434.634 -2087.21 0.765245 -0.422265 -0.412417 74 45 29
-205.202 444.472 -2087.88 0.759341 -0.539002 -0.295567 83 51 35
-192.255 455.028 -2090.02 0.640398 -0.593275 -0.385011 78 48 35
-184.072 463.362 -2092.14 0.644189 -0.636912 0.295078 59 36 29
-178.41 472.443 -2086.83 0.509818 -0.700213 0.496379 100 64 48
-348.826 -1108.04 -2081.71 0.85737 0.115058 0.47566 91 103 147
-346.353 -1098.36 -2086.22 0.818327 -0.137738 0.536866 74 84 122
-344.58 -1087.19 -2079.4 0.675529 -0.378728 0.622771 67 75 107
-336.092 -1079.05 -2079.61 0.685313 -0.402727 0.598462 132 138 172
-327.647 -1067.76 -2085.4 0.781309 -0.253156 0.505589 122 129 165
-327.954 -1054.48 -2083.91 0.883533 -0.0145592 0.473629 125 132 170
-330.141 -1051.88 -2079.4 0.887053 0.00950495 0.466785 134 141 178
-482.528 -1010.74 -2083.92 0.143902 -0.0400321 0.921059 86 92 122
-467.588 -1016.77 -2085.43 0.125201 -0.140276 0.987131 46 55 92
-328.175 -983.232 -2081.87 0.200857 0.0250301 0.647413 57 61 100
-325.537 -1007.32 -2082.76 0.876149 -0.102553 0.488052 129 137 174
-326.706 -994.345 -2082.17 0.138325 0.0670636 0.62036 82 87 128
-325.055 -976.91 -2086.57 0.40223 -0.100451 0.714494 42 44 81
-324.335 -963.286 -2083.7 0.553037 -0.147219 0.721091 31 33 70
-323.551 -948.369 -2080.52 0.792237 -0.0764683 0.580378 30 32 67
-320.849 -946.298 -2084.75 0.696317 -0.00978433 0.674223 29 29 63
-323.876 -926.601 -2080.79 0.821822 -0.0429026 0.539756 34 35 72
-415.055 -723.782 -2081.44 0.251537 -0.178437 0.268236 35 42 86
-411.231 -719.846 -2083.22 0.159028 -0.139808 0.246668 35 42 88
-421.539 -703.733 -2080.15 -0.796968 -0.285137 -0.310295 47 58 117
-407.977 -719.538 -2085.17 0.117106 -0.0878965 0.257413 32 40 87
-302.396 -812.665 -2085.77 0.764274 -0.132116 0.593371 60 61 82
-304.843 -797.093 -2082.41 0.786701 0.160489 0.549051 69 71 91
-305.168 -790.75 -2085.29 0.860325 0.226828 0.444085 58 60 83
-304.169 -772.097 -2083.58 0.751776 -0.197163 0.577433 93 95 116
-301.909 -757.762 -2081.25 0.38899 -0.138801 0.584235 57 61 92
-271.818 -765.873 -2080.41 -0.529468 -0.0433831 0.31057 26 30 59
-275.582 -761.986 -2082.73 -0.388962 0.222259 -0.0609372 29 32 58
-302.077 -744.032 -2085.5 -0.317275 0.010661 0.50131 29 35 80
-300.47 -740.698 -2079.37 -0.0509019 0.0118233 0.488749 27 34 85
-277.828 -752.849 -2081.97 -0.456939 -0.0725683 0.447401 32 36 63
-277.635 -744.596 -2081.31 -0.558065 -0.175028 0.723318 32 36 64
-277.747 -739.817 -2081.39 -0.508167 -0.167036 0.763754 33 37 65
-253.738 -1047.98 -2082.71 -0.38358 0.113725 -0.0679992 87 95 133
-254.859 -1045.04 -2085.34 -0.417155 0.107875 -0.103594 82 91 130
-171.753 -1088.34 -2081.68 -0.305418 0.481623 0.81152 142 152 193
-157.628 -1090 -2081.1 0.00842968 0.358589 0.825639 143 153 197
-164.548 -1082.63 -2082.42 -0.237458 0.393067 0.870788 139 150 194
-158.898 -1079.45 -2083 -0.196524 0.239036 0.915582 143 154 198
-167.705 -1069.22 -2083 -0.291141 -0.0595858 0.942312 123 136 181
-185.327 -1041.41 -2082.99 -0.537993 -0.0992742 0.832383 116 125 170
-178.989 -1056.11 -2084.83 -0.303005 -0.206959 0.928999 124 134 176
-167.704 -1063.45 -2081.93 -0.262972 -0.125397 0.943452 122 135 180
-166.083 -1059.39 -2081.26 -0.200477 -0.121145 0.946466 125 137 182
-181.731 -1047.21 -2082.88 -0.428418 -0.154897 0.883837 121 130 174
-177.139 -1048.37 -2081.82 -0.315203 -0.184961 0.926783 128 138 181
-172.048 -1040.23 -2080.2 -0.132812 -0.186475 0.951203 149 158 200
-160.717 -1046.5 -2081.91 0.230977 -0.0435957 0.864579 140 149 189
-170.561 -1044.32 -2080.94 -0.095956 -0.164353 0.943498 143 152 194
-152.308 -1148.03 -2079.88 1.01705 -0.0411886 -0.038597 178 182 198
-157.437 -1131.48 -2080.1 0.480727 0.520658 0.514586 108 103 133
-154.059 -1125.93 -2083.32 0.663683 -0.0338302 0.513399 140 146 184
-152.404 -1111.92 -2079.71 0.753095 -0.0839751 0.518436 157 166 202
-146.178 -1107.03 -2086.73 0.881125 0.115675 0.361065 150 158 193
-148.334 -1095.9 -2082.96 0.444766 0.259529 0.64098 138 149 192
-140.936 -850.379 -2085.29 0.893128 0.0203305 0.448049 48 55 120
-122.771 -868.248 -2080.83 0.937031 -0.04126 0.16446 39 43 89
-120.616 -858.518 -2082 0.944196 -0.0650852 0.161324 40 45 94
-118.399 -851.439 -2083.57 0.906864 -0.018245 0.259622 38 42 87
-118.135 -841.976 -2081.87 0.905439 -0.0212421 0.258608 38 42 87
-143.723 -836.071 -2085.22 0.909578 0.0870866 0.393516 49 55 119
-137.302 -813.4 -2080.37 0.911055 -0.225379 0.336683 36 40 92
-118.543 -838.499 -2080.76 0.897036 -0.0205277 0.278037 38 42 87
-113.246 -829.678 -2084.09 0.94058 -0.0603724 0.163761 39 44 92
-112.089 -821.179 -2083.54 0.950071 -0.0567021 0.135795 40 44 93
-110.178 -818.014 -2084.56 0.956286 -0.0511725 0.109277 39 44 93
-96.185 -866.055 -2081.4 0.884856 0.0614329 0.469852 37 40 69
-96.4839 -848.402 -2084.01 0.852222 -0.0202762 0.52464 48 51 78
-96.3998 -847.427 -2084.99 0.853057 -0.0241597 0.520459 49 52 79
-97.2432 -833.187 -2081 0.871459 -0.0872383 0.471171 54 56 85
-99.2513 -812.944 -2082 0.922651 0.0404747 0.299212 46 50 87
-264.541 -807.889 -2079.97 -0.618447 -0.194417 0.756964 30 31 74
-267.297 -798.058 -2082.44 -0.628398 0.0122891 0.757862 23 26 63
-266.284 -789.385 -2082.28 -0.700367 0.0469662 0.705447 25 29 67
-269.293 -777.49 -2084.68 -0.753669 -0.146086 0.628942 26 30 64
-113.425 -78.0393 -2081.94 0.869705 -0.395003 -0.119297 29 33 60
-105.667 -60.7092 -2085.83 0.891279 -0.37508 0.0149097 28 32 59
-107.076 -56.8909 -2080.7 0.918139 -0.199413 0.265275 27 31 59
-101.132 -44.1084 -2084.45 0.811859 -0.323697 0.478717 29 33 60
-98.1494 -31.9369 -2082.82 0.828687 -0.235015 0.308099 30 35 62
-97.4164 -29.4027 -2083.17 0.866743 -0.212556 0.27963 29 34 61
-92.8696 -9.59422 -2082.83 0.857184 -0.319029 0.343806 30 35 63
-93.7723 -7.20304 -2081.27 0.803239 -0.31994 0.386346 31 36 64
-86.103 2.8759 -2085.1 0.832753 -0.222261 0.405963 28 33 61
-85.143 6.79365 -2084.63 0.844382 -0.201166 0.314518 28 33 61
-221.962 401.964 -2083.59 0.858408 -0.25727 0.0636147 81 49 31
-219.847 409.653 -2085.38 0.958658 -0.250005 0.0387525 72 42 24
-209.625 427.082 -2082.4 0.709785 -0.34353 -0.627064 107 64 39
-207.218 428.905 -2080.9 0.704031 -0.325451 -0.643466 114 68 42
-205.439 440.783 -2083.02 0.770603 -0.40072 -0.446808 101 60 38
-197.819 448.829 -2085.32 0.626728 -0.734112 -0.290924 115 74 53
-188.673 461.136 -2085.72 0.759841 -0.545621 0.193606 113 69 49
-188.875 463.836 -2082.67 0.796334 -0.455667 0.365275 146 91 65
-174.045 476.604 -2081.13 0.359859 -0.821919 0.425266 99 63 47
-497.068 -983.171 -2092.68 0.130096 0.116054 0.795744 72 77 105
-496.964 -981.538 -2092.01 0.125357 0.0963697 0.79755 70 74 102
-123.192 -884.474 -2083.1 0.853895 -0.019396 0.244553 34 38 73
-120.981 -891.35 -2086.49 0.893958 -0.0172644 0.231633 33 36 70
-125.544 -883.091 -2080.56 0.831361 -0.0437645 0.286885 35 38 75
-113.563 303.739 -2079.34 0.109399 0.788204 0.497819 30 2 222
-112.042 307.067 -2090.47 0.122014 0.90157 0.386894 14 13 235
-79.132 299.838 -2083.12 0.350514 0.304689 0.846164 107 6 137
-72.5593 301.27 -2091.36 0.338599 0.310766 0.827401 90 6 154
-61.9357 294.714 -2089.7 0.376305 0.417938 0.777667 48 6 200
-60.5233 288.338 -2082.41 0.41106 0.481755 0.751793 28 1 225
-57.4041 290.736 -2087.75 0.398477 0.491507 0.746509 26 3 227
-329.818 -969.184 -2075.62 0.404593 -0.0787464 0.726078 36 39 76
-329.496 -967.001 -2075.41 0.421183 -0.0988931 0.726536 37 40 78
-326.323 -957.687 -2077.94 0.763082 -0.155955 0.563594 36 38 76
-325.055 -946.058 -2077.52 0.841436 -0.0780262 0.51876 30 31 66
-326.37 -930.529 -2075.51 0.891308 -0.000860454 0.439235 30 32 67
-456.485 -917.848 -2075.06 -0.493266 -0.149582 0.849313 31 35 73
-453.543 -917.228 -2072.82 -0.559858 -0.111662 0.819964 36 39 78
-455.575 -906.026 -2072.8 -0.570826 0.0708593 0.811811 44 47 90
-454.057 -897.304 -2074.29 -0.505247 0.138142 0.84268 34 38 83
-418.15 -804.456 -2072.71 -0.808835 0.245312 -0.53095 33 41 105
-417.446 -797.719 -2073.03 -0.862343 0.0889949 -0.459148 37 49 113
-420.8 -781.356 -2071.58 -0.821639 -0.0613361 -0.543644 53 66 137
-415.735 -776.69 -2078.86 -0.892033 0.0395246 -0.428075 51 63 132
-417.238 -760.034 -2076.21 -0.853635 -0.0955093 -0.497658 35 46 101
-461.918 -756.16 -2075.35 -0.619916 -0.145646 0.605918 42 61 141
-418.184 -754.853 -2076.93 -0.836258 -0.20011 -0.490945 36 47 104
-430.329 -732.171 -2072.01 -0.923709 -0.282119 -0.425644 30 39 105
-424.441 -737.308 -2077.2 -0.809224 -0.288048 -0.319806 38 47 108
-432.344 -721.602 -2073.33 -0.888967 -0.118843 -0.246863 40 50 118
-422.61 -721.561 -2076.85 -0.0840191 -0.202012 0.0809669 36 44 94
-426.789 -711.983 -2072.54 0.250631 -0.130177 0.371744 35 46 106
-422.172 -713.196 -2075.66 0.0284343 -0.196273 0.169308 39 48 102
-433.972 -413.56 -2072.9 -0.954046 -0.189568 -0.19792 89 95 144
-435.235 -405.962 -2074.99 -0.952297 -0.201641 -0.109393 121 125 168
-435.51 -391.768 -2077.49 -0.97183 0.062365 0.0259574 151 155 192
-433.822 -380.43 -2077.54 -0.97306 0.159508 0.00212227 182 179 213
-431.564 -366.788 -2078.51 -0.970341 0.13904 -0.0321163 191 153 185
-226.576 -1183.81 -2072.58 -0.358957 0.319906 0.0196461 120 115 121
-212.325 -1185.69 -2072.56 -0.56186 0.372181 0.189141 89 84 89
-204.965 -1174.6 -2074.49 -0.853602 0.411278 0.346202 98 98 102
-201.229 -1165.54 -2077.78 -0.789214 0.483881 0.39715 143 146 149
-192.076 -1157.01 -2076.4 -0.636729 0.603695 0.45574 139 132 136
-109.621 -1210 -2073.35 0.33136 0.91451 -0.0334062 78 74 73
-102.219 -1210.75 -2078.37 0.0808075 0.963747 -0.119597 74 70 69
-93.2483 -1209.91 -2072.24 -0.0997732 0.912116 -0.252915 42 40 39
-242.7 -861.5 -2076.98 -0.540855 -0.37125 0.746834 27 27 51
-248.157 -846.413 -2076.48 -0.69516 -0.00279414 0.725685 26 27 52
-239.942 -863.884 -2076.94 -0.486962 -0.41589 0.761173 28 27 55
-239.072 -861.55 -2074.66 -0.482797 -0.408901 0.769215 28 27 55
-241.896 -834.163 -2073.02 -0.480267 0.0967008 0.839221 36 38 82
-243.837 -828.237 -2074.42 -0.483229 -0.0774762 0.829908 34 35 76
-252.384 -824.138 -2077.29 -0.58043 -0.273774 0.758942 38 37 80
-253.042 -818.172 -2074.91 -0.542316 -0.338569 0.772522 40 40 85
-240.29 -827.625 -2073.37 -0.385941 0.0734263 0.865452 35 37 86
-144.697 -923.073 -2072.71 0.859363 -0.141181 0.164659 33 36 67
-143.204 -925.076 -2076.6 0.805733 -0.131237 0.386765 40 43 82
-138.591 -912.664 -2073.66 0.652075 -0.00769855 0.28835 36 37 70
-152.262 -909.105 -2078.08 0.905654 -0.0539452 0.418825 29 29 55
-137.017 -907.235 -2074.22 0.582838 0.00655479 0.316844 36 37 70
-133.717 -898.487 -2075.9 0.738933 0.041404 0.484906 33 35 67
-120.988 -602.33 -2077.55 0.971474 0.0768419 0.128997 46 50 109
-122.919 -590.156 -2077.89 0.968256 0.132736 0.155508 65 74 161
-123.417 -585.824 -2077.54 0.974374 0.0549506 0.145489 60 70 153
-121.095 -569.702 -2072.6 0.977617 -0.199781 -0.0339683 50 56 127
-118.061 -552.952 -2074.88 0.980643 -0.100688 0.112865 45 50 115
-118.155 -542.316 -2073.16 0.987499 -0.0559651 0.0919894 46 51 113
-115.417 -531.096 -2073.73 0.98114 -0.0878367 0.0565087 36 38 80
-116.479 -522.371 -2072.49 0.972805 0.191653 -0.00603612 37 37 72
-116.825 -505.108 -2073.61 0.952129 -0.132002 -0.182943 33 34 65
-115.27 -500.414 -2072.66 0.936924 -0.277827 -0.230218 34 34 66
-112.467 -487.481 -2078.32 0.918044 -0.253807 -0.269809 37 35 68
-110.93 -469.89 -2074.93 0.96434 0.0698773 -0.180999 41 43 79
-111.874 -465.982 -2077.15 0.965588 0.11657 -0.217778 44 47 85
-114.241 -448.095 -2077.39 0.985095 0.0607757 -0.0718932 35 34 61
-112.934 -433.339 -2077.91 0.983646 -0.154384 0.0193913 33 33 59
-286.955 409.233 -2077.61 -0.869945 -0.463041 -0.0600755 142 90 73
-293.515 420.094 -2076.96 -0.902015 -0.349674 -0.13251 136 81 63
-296.637 430.347 -2075.62 -0.940702 -0.209466 -0.17434 139 82 62
-296.867 445.474 -2073.04 -0.975439 -0.0679666 -0.0769173 170 111 91
-298.449 454.899 -2078.89 -0.965469 -0.192833 -0.0632262 153 98 82
-300.439 470.096 -2076.5 -0.970938 -0.155742 0.110062 154 102 83
-297.515 461.141 -2072.02 -0.961634 -0.158619 0.199214 181 119 93
-299.033 487.94 -2073.05 -0.91321 -0.0242057 -0.0419675 137 97 86
-107.457 -358.756 -2071.86 0.987905 0.0206298 -0.111954 165 169 214
-102.322 -341.09 -2073.1 0.920762 -0.385765 -0.0884843 120 123 165
-102.782 -327.825 -2077.43 0.962914 0.170467 -0.188514 37 44 82
-104.495 -314.142 -2074.64 0.994855 0.0646352 -0.117137 34 42 80
-104.357 -311.714 -2073.11 0.998749 0.0371108 -0.108841 33 42 79
-103.94 -299.009 -2078.68 0.97793 -0.0358711 -0.159886 33 41 79
-135.955 124.446 -2077.21 -0.914534 -0.257645 0.0706939 15 17 28
-132.904 133.325 -2076.59 -0.934963 -0.209516 0.0626261 14 16 27
-82.3243 90.9663 -2072.49 0.682998 -0.337521 0.644273 172 16 187
-78.593 100.184 -2072.43 0.694185 -0.282189 0.66011 180 14 193
-74.7781 106.789 -2074.83 0.720525 -0.22521 0.658185 181 14 194
-67.1187 113.768 -2078.66 0.6153 -0.419447 0.642744 205 9 213
-59.0911 123.906 -2075.78 0.444452 -0.5429 0.705825 126 20 148
-52.7632 131.865 -2074.27 0.438002 -0.491734 0.74984 53 30 88
-48.3151 137.472 -2073.24 0.432141 -0.492075 0.755329 29 33 69
-131.211 152.423 -2078.96 -0.926785 0.213431 0.182766 24 21 27
-138.026 167.831 -2073.7 -0.699254 0.214686 0.408997 33 28 40
-127.065 155.424 -2073.46 -0.820104 0.295562 0.443445 27 24 30
-128.13 164.761 -2078.78 -0.857128 0.352353 0.1431 46 38 42
-466.024 -1142.49 -2067.16 -0.779663 0.0836731 0.599306 165 172 213
-467.216 -1128.93 -2069.73 -0.786796 0.124369 0.570844 169 176 214
-462.579 -1119.54 -2066.81 -0.698963 0.295539 0.613787 165 175 220
-457.625 -1110.2 -2069.26 -0.591323 0.447653 0.664144 165 176 226
-450.097 -1106.29 -2066.74 -0.448087 0.540545 0.687886 154 166 222
-446.849 -1099.58 -2070.48 -0.271298 0.442387 0.827553 147 160 215
-416.369 -1147.57 -2066.81 -0.987165 0.0134925 -0.150034 150 158 191
-413.815 -1131.64 -2070.07 -0.975554 0.123009 -0.0537329 144 152 185
-412.153 -1124.05 -2070.79 -0.966331 0.175329 -0.14885 135 143 176
-435.524 -1115.25 -2072.91 -0.707047 0.327598 0.110634 157 167 212
-412.161 -1112.59 -2065.27 -0.93945 0.175973 -0.290558 169 177 212
-436.764 -1098.51 -2067.9 -0.383291 0.569521 0.729204 75 98 170
-410.011 -1118.83 -2072.17 -0.919148 0.229577 -0.274409 145 154 186
-411.185 -1103.32 -2065.7 -0.890908 0.0889354 -0.436334 165 172 207
-453.297 -765.676 -2072.05 -0.605248 -0.163736 0.781991 48 71 157
-425.934 -810.116 -2065.47 -0.825942 0.139903 -0.517356 60 71 143
-423.242 -804.832 -2066.84 -0.835595 0.0951843 -0.498684 48 60 131
-420.906 -792.549 -2068.77 -0.834135 -0.0194931 -0.506851 41 53 121
-424.949 -779.869 -2067.33 -0.870517 -0.0329831 -0.449737 55 67 139
-426.009 -772.612 -2066.53 -0.911071 -0.0586032 -0.379441 51 61 134
-421.943 -766.537 -2070.09 -0.826991 -0.0300804 -0.524135 41 51 112
-421.766 -758.639 -2071.14 -0.804038 -0.104526 -0.565774 34 44 100
-457.828 -754.927 -2072.52 -0.589577 -0.184096 0.723395 46 67 150
-457.27 -745.816 -2065.33 -0.621098 -0.201115 0.730793 40 62 145
-427.699 -747.177 -2068.1 -0.822676 -0.128666 -0.550169 50 61 127
-424.544 -747.361 -2071.43 -0.820511 -0.178558 -0.537384 40 51 111
-431.114 -732.933 -2069.35 -0.918086 -0.250499 -0.424305 33 43 110
-432.546 -727.1 -2072.1 -0.940968 -0.274187 -0.376367 30 39 106
-431.413 -712.492 -2068.09 -0.60856 -0.0442239 0.0883053 38 49 107
-430.34 -701.424 -2070.21 -0.347044 -0.134102 -0.075242 51 62 128
-229.059 -857.31 -2066.97 -0.466344 -0.377732 0.79153 31 29 64
-224.798 -867.666 -2070.41 -0.495256 -0.411612 0.757194 32 31 68
-237.425 -852.212 -2069.5 -0.511875 -0.247022 0.800371 28 28 57
-238.035 -840.326 -2069.54 -0.504802 0.0568117 0.834158 31 33 69
-233.803 -840.229 -2067.44 -0.426042 0.117455 0.866678 32 34 76
-235.628 -833.633 -2070.86 -0.331971 0.246009 0.881145 38 42 96
-236.156 -830.159 -2071.77 -0.298566 0.273659 0.895838 36 40 98
-223.024 -828.668 -2069.77 -0.211711 0.416427 0.850195 53 61 139
-218.301 -830.311 -2066.31 -0.413377 0.464138 0.762403 43 49 125
-237.114 -817.651 -2069.17 -0.257958 -0.16499 0.905186 43 48 107
-230.394 -814.22 -2066.9 -0.187628 -0.2383 0.921104 51 60 133
-219.451 -822.039 -2068.03 -0.333706 0.123318 0.841137 45 51 130
-226.962 -818.884 -2069.79 -0.118818 -0.0985318 0.943326 52 61 141
-150.103 -923.421 -2068.68 0.900641 -0.205778 0.0226864 31 34 64
-153.087 -912.958 -2066.94 0.925392 -0.140384 0.0424739 32 35 64
-142.209 -917.584 -2071.17 0.788018 -0.0970416 0.132385 32 34 64
-154.281 -900.98 -2070.22 0.937135 -0.0276993 0.303037 30 31 57
-140.172 -904.669 -2069.07 0.662983 0.0109307 0.176017 35 36 69
-112.996 -431.875 -2071.16 0.977221 -0.14636 -0.00412908 35 35 67
-111.242 -423.607 -2066.22 0.979236 -0.135044 -0.000484248 36 36 71
-112.117 -409.044 -2068.88 0.986559 0.0495361 0.116821 56 56 101
-112.275 -391.918 -2065.91 0.968705 -0.0909954 0.177414 54 57 115
-109.084 -382.237 -2067.32 0.966882 -0.178151 0.0832392 64 70 137
-107.796 -374.877 -2071.46 0.97713 -0.096882 -0.0123052 112 117 176
-440.375 -307.087 -2070.69 -0.927624 -0.253533 -0.132625 46 50 89
-434.827 -348.999 -2068.95 -0.970244 -0.141176 -0.0309083 132 136 185
-435.479 -335.299 -2064.47 -0.979249 -0.0529573 0.0977377 119 122 167
-436.076 -326.555 -2069.93 -0.972656 -0.00322759 -0.0321853 115 120 155
-438.184 -313.736 -2068.15 -0.940823 -0.235457 0.00725995 64 68 106
-441.935 -296.735 -2070.85 -0.931271 -0.117914 -0.289124 43 48 86
-442.357 -285.476 -2068.08 -0.948762 0.0272374 -0.258779 40 45 84
-771.628 179.079 -2067.63 0.0766097 -0.826306 0.506069 180 49 41
-770.881 178.805 -2069.99 0.0687621 -0.835743 0.478329 180 46 40
-757.646 179.008 -2069.92 0.0694808 -0.823244 0.50534 223 22 18
-738.625 179.229 -2069.22 0.0628147 -0.886481 0.408302 255 1 1
-734.508 180.08 -2066.98 0.0763061 -0.904571 0.384329 255 0 0
-620.203 136.69 -2067.53 -0.2024 -0.877484 0.335158 36 40 60
-712.832 181.101 -2071.59 0.163423 -0.868416 0.462585 252 1 1
-714.483 182.582 -2067.77 0.172692 -0.858024 0.473508 255 0 0
-700.258 184.005 -2069.83 0.0957465 -0.875976 0.460047 237 9 8
-680.193 182.917 -2068.41 -0.132472 -0.848066 0.498656 130 58 52
-665.741 174.909 -2068.41 -0.167632 -0.58955 0.692471 204 17 20
-654.244 163.157 -2067.43 -0.257456 -0.250586 0.872912 69 36 63
-659.934 168.516 -2069.87 -0.21064 -0.331884 0.836691 101 32 53
-607.613 136.251 -2066.33 -0.00226935 -0.936995 0.282847 50 57 77
-594.647 137.181 -2067.71 0.123091 -0.902919 0.334409 67 75 94
-577.399 137.631 -2065.98 0.0349096 -0.88376 0.444417 30 37 56
-566.932 137.099 -2065.77 -0.0487923 -0.872862 0.495785 25 32 51
-559.74 134.967 -2069.86 -0.0832076 -0.867824 0.494246 28 34 54
-527.28 127.215 -2068.13 -0.347386 -0.831281 0.400132 33 35 62
-191.064 300.549 -2065.38 0.159001 0.799725 0.589344 39 44 79
-200.201 312.551 -2067.98 0.305541 0.317475 0.849868 40 44 69
-190.946 306.476 -2070.96 0.285215 0.443284 0.794336 39 44 82
-185.32 299.949 -2065.17 0.211136 0.729641 0.630244 33 38 85
-169.657 293.047 -2067.77 0.238153 0.673886 0.6636 25 30 66
-163.391 292.448 -2071.75 0.0134278 0.530605 0.843215 23 29 61
-179.296 306.345 -2071.12 0.268118 0.46581 0.712871 33 31 145
-168.998 305.131 -2072.06 0.195629 0.540293 0.7422 51 44 96
-46.4868 213.685 -2067.5 0.37301 0.0944089 0.914773 80 1 169
-50.6714 219.685 -2065.91 0.451803 0.0137454 0.877615 17 7 211
-48.9045 233.293 -2065.98 0.56624 -0.0130968 0.81718 64 31 219
-47.5018 247.389 -2066.52 0.497325 0.085076 0.829255 44 6 207
-200.998 -1029.03 -2065.47 0.599589 -0.120496 0.436288 120 126 159
-871.237 188.279 -2069.39 -0.0374393 -0.929859 0.342374 117 82 69
-872.053 188.437 -2069.12 -0.0390368 -0.932726 0.33767 117 82 69
-851.83 184.19 -2072.37 -0.0415913 -0.862485 0.443353 124 83 67
-835.863 181.413 -2069.85 -0.0506572 -0.893887 0.373612 120 78 66
-846.616 184.156 -2066.55 -0.0541826 -0.869523 0.452797 121 82 65
-101.206 299.629 -2068.9 0.269948 0.322336 0.845226 130 4 116
-109.966 302.884 -2076.12 0.198636 0.605394 0.634416 66 3 183
-407.203 -1002.68 -2062.09 0.0144983 -0.122408 0.736141 147 157 196
-404.18 -1010.4 -2061.91 -0.0830476 -0.0702234 0.713999 148 157 194
-392.676 -1006.26 -2058.8 -0.296119 -0.070253 0.911193 86 91 115
-391.753 -997.781 -2058.3 -0.333278 -0.11139 0.946725 58 62 87
-442.713 -948.353 -2064.2 -0.458692 -0.102246 0.830894 33 35 77
-440.71 -931.878 -2064.46 -0.50873 0.092102 0.839686 40 41 85
-414.91 -973.426 -2064.61 0.116297 -0.222378 0.863725 78 85 142
-413.643 -955.432 -2058.19 -0.853015 -0.201569 -0.428449 36 36 79
-411.448 -974.516 -2061.92 0.0616405 -0.163757 0.858749 72 78 133
-437.734 -952.447 -2064.59 -0.190531 -0.225225 0.912017 35 38 83
-428.924 -945.465 -2063.24 -0.153872 -0.213841 0.79479 32 34 77
-415.481 -951.969 -2063.9 -0.709296 -0.167044 -0.235833 34 34 75
-417.925 -947.064 -2062.48 -0.457538 -0.157174 0.163892 31 32 73
-430.621 -937.951 -2060.95 -0.199372 -0.0874775 0.910378 34 35 80
-434.578 -926.362 -2063.46 -0.33144 0.159187 0.928944 39 42 92
-420.872 -939.476 -2060.45 -0.111888 -0.163597 0.713695 31 34 76
-423.308 -929.601 -2058.78 -0.184227 0.0914174 0.806529 35 37 83
-435.596 -692.051 -2059.69 -1.00923 -0.0642129 -0.221797 69 82 163
-437.315 -673.401 -2059.07 -0.986035 -0.0973142 -0.185566 45 57 119
-438.907 -665.232 -2058.11 -0.956002 -0.133265 -0.167197 50 61 131
-438.616 -657.226 -2062.46 -0.93746 -0.0503314 -0.240419 46 58 129
-435.372 -643.091 -2063.8 -0.93887 0.254371 -0.208864 47 61 139
-433.57 -631.084 -2062.62 -0.926584 0.119119 -0.255355 62 77 167
-434.479 -619.433 -2062.75 -0.916283 -0.163981 -0.185543 64 80 174
-438.854 -603.228 -2064.85 -0.85748 -0.241139 0.118302 61 73 163
-200.793 -1174.82 -2062.3 -0.782692 0.505609 0.34323 116 112 115
-193.306 -1164.9 -2062.23 -0.710823 0.602278 0.349188 158 154 151
-182.181 -1157.35 -2059.95 -0.531641 0.76378 0.380949 123 98 83
-109.046 -1208.82 -2062.69 0.346747 0.902779 -0.0394348 75 71 69
-59.4559 -1216.04 -2062.31 0.380726 0.672554 -0.0366678 128 120 118
-131.504 -1200.9 -2059.34 0.468826 0.837702 0.195703 113 106 108
-131.949 -1199.08 -2063.57 0.476983 0.823597 0.0476435 116 110 111
-146.359 -1180.72 -2060.54 0.985137 0.127636 -0.0561142 209 185 162
-120.895 -1205.08 -2061.31 0.457888 0.879307 0.141426 74 69 67
-105.36 -1207.26 -2058.36 0.111304 0.914708 -0.202263 76 72 70
-146.931 -1175.7 -2063.03 0.992123 0.14865 -0.0573349 210 184 162
-129.74 -1167.3 -2057.7 0.721915 0.456632 -0.0487322 196 172 156
-151.698 -1155.94 -2061.89 0.832027 0.381949 0.0418682 200 178 167
-134.991 -1157.45 -2062.05 0.407967 0.734583 0.0885278 173 132 111
-119.168 -1172.99 -2063.59 0.232629 0.886946 0.18857 173 152 139
-110.868 -1179.48 -2059.09 0.355177 0.856908 0.0704695 104 94 89
-125.783 -1153.99 -2061.12 0.306206 0.792131 0.118475 174 138 116
-115.562 -1152.71 -2059.91 0.0898167 0.956438 0.231457 174 145 126
-107.622 -793.05 -2058.56 0.820801 -0.210503 0.539253 34 44 101
-106.393 -791.194 -2059.34 0.818266 -0.201719 0.54045 34 44 98
-137.258 -777.575 -2064.45 0.940726 -0.263024 0.2303 33 37 77
-138.742 -757.033 -2058.67 0.899355 0.156182 0.404676 29 33 64
-123.685 -778.077 -2059.25 0.727971 -0.141049 0.572803 36 42 82
-119.145 -771.923 -2062.78 0.693066 -0.126568 0.626995 36 43 84
-122.36 -765.818 -2057.69 0.714911 -0.133442 0.618579 36 42 80
-121.141 -760.408 -2058.34 0.706517 -0.115949 0.627551 36 43 84
-99.7513 -774.2 -2064.37 0.777758 -0.185479 0.566866 39 44 80
-99.8195 -757.73 -2062.11 0.712853 -0.0689088 0.65212 42 48 92
-139.72 -742.812 -2060.66 0.899828 0.0492231 0.39645 28 31 66
-138.801 -737.386 -2065.03 0.917254 0.033691 0.337371 32 36 80
-118.333 -755.654 -2060.35 0.682508 -0.0764676 0.640015 38 45 93
-114.919 -754.041 -2063.02 0.660212 -0.0502896 0.651852 39 47 100
-109.064 -746.374 -2063.88 0.594693 -0.010692 0.709957 41 49 111
-110.717 -740.328 -2059.98 0.537176 -0.0662086 0.763482 39 47 108
-136.072 -725.498 -2061.69 0.961289 -0.25117 0.0740335 45 52 115
-132.556 -710.183 -2060.53 0.982288 -0.168004 0.0679223 54 64 144
-100.771 -754.541 -2062.84 0.670481 -0.0325526 0.679819 41 47 98
-410.272 320.618 -2059.67 0.124965 0.586103 0.78359 69 86 153
-397.056 318.401 -2065.51 0.158778 0.598353 0.792696 67 86 154
-362.509 321.53 -2060.56 -0.564772 0.435504 0.70271 52 70 137
-357.699 327.819 -2058.68 -0.569351 0.412892 0.712361 49 66 125
-350.043 336.834 -2060.08 -0.494403 0.373171 0.775271 48 60 106
-340.298 343.396 -2061.32 -0.533595 0.399872 0.690951 68 69 99
-332.243 346.859 -2064.15 -0.478244 0.359251 0.680399 84 75 101
-322.999 348.512 -2062.15 -0.340741 0.610065 0.495812 149 108 105
-307.518 347.386 -2061.89 -0.293877 0.768898 0.429813 184 125 105
-295.132 349.121 -2061.03 -0.486934 0.702118 0.471884 181 119 93
-289.929 354.405 -2064.18 -0.598806 0.638853 0.474444 183 119 90
-282.027 363.497 -2059.06 -0.742739 0.133223 0.571643 172 108 80
-288.298 375.757 -2065.15 -0.918748 -0.116477 0.139156 180 116 87
-171.826 286.043 -2059.36 0.305972 0.697466 0.626671 30 37 95
-163.856 284.818 -2064.43 0.0690407 0.727431 0.663059 27 32 61
-193.059 300.079 -2064.44 0.143781 0.808802 0.587302 40 45 76
-209.363 304.306 -2059.36 0.379382 0.656678 0.636376 53 50 71
-201.38 305.129 -2064.07 0.302424 0.531702 0.752187 36 41 68
-178.003 291.901 -2060.83 0.282654 0.663185 0.6651 26 30 121
-181.504 298.677 -2064.6 0.265753 0.729479 0.610144 29 33 92
-58.2256 206.082 -2058.84 0.588123 0.0145037 0.791784 92 2 157
-57.8693 213.276 -2060.17 0.63016 0.033006 0.764639 113 0 142
-52.1571 225.369 -2064.43 0.499674 -0.0424836 0.853304 35 22 190
-61.1366 236.316 -2059.2 0.4268 0.147726 0.887236 175 8 89
-54.6402 234.55 -2061.66 0.494285 0.0464104 0.858657 176 34 115
-53.6603 240.69 -2062.85 0.463234 0.0474815 0.870451 162 32 122
-66.8527 248.809 -2059.88 0.396677 0.165364 0.898393 114 0 140
-70.0892 254.538 -2059.37 0.429431 0.148189 0.888807 67 0 187
-56.0154 247.132 -2062.66 0.361685 0.116187 0.909434 170 10 80
-56.9287 252.244 -2062.93 0.343182 0.148033 0.91042 161 6 78
-447.144 -1159.1 -2052.28 -0.658886 0.351506 0.655692 140 148 195
-453.802 -1152.27 -2053.28 -0.712931 0.206438 0.641184 160 167 211
-436.652 -1203.47 -2052.6 -0.667921 0.585719 0.324298 70 66 67
-428.991 -1192.75 -2052.45 -0.591052 0.677957 0.135585 96 92 96
-418.1 -1189.95 -2051.94 -0.289841 0.926146 -0.0851138 162 158 170
-408.983 -1184.24 -2054.45 -0.702735 0.568729 -0.0916058 180 178 185
-416.189 -1162.02 -2053.88 -0.884644 -0.035546 -0.257558 160 168 201
-418.387 -1157.95 -2053.56 -0.975054 -0.000394454 -0.11261 143 151 187
-411.311 -1169.42 -2053.98 -0.829425 -0.0586985 -0.304249 178 184 207
-332.653 -1185.07 -2056.2 0.919323 0.363075 0.11462 62 58 59
-345.921 -1167.36 -2056.11 0.937774 0.257266 0.219544 118 118 129
-349.037 -1161.34 -2054.36 0.923358 0.246248 0.278961 140 141 160
-451.011 -766.169 -2053.9 -0.59485 -0.168323 0.776241 48 70 156
-452.442 -757.943 -2056.17 -0.613556 -0.160883 0.759665 46 68 152
-431.942 -805.015 -2055.9 -0.839436 -0.244754 -0.436927 66 81 169
-431.732 -789.037 -2056.56 -0.813116 0.0515189 -0.504264 60 73 152
-429.368 -775.833 -2056.47 -0.938109 0.0459008 -0.261271 46 56 123
-430.208 -763.677 -2058.19 -0.937539 -0.0734886 -0.248878 40 50 115
-456.288 -751.82 -2056.78 -0.627464 -0.152274 0.744072 40 62 143
-452.781 -756.016 -2056.45 -0.61358 -0.162225 0.757591 45 67 151
-461.803 -727.623 -2051.72 -0.586961 -0.21712 0.732437 54 74 165
-460.783 -718.912 -2054.75 -0.651083 -0.140793 0.611592 48 67 151
-453.237 -725.198 -2053.3 -0.600465 -0.211573 0.670333 48 68 152
-456.421 -707.307 -2053.93 -0.673061 -0.122187 0.553821 46 64 145
-453.999 -712.365 -2053.48 -0.67271 -0.123648 0.55598 46 64 145
-434.832 -748.069 -2053.98 -0.929184 -0.142682 -0.244124 65 78 156
-433.37 -734.283 -2052.49 -0.957947 0.102331 -0.0579465 53 64 140
-430.831 -717.893 -2053.15 -0.973581 -0.0526072 0.137658 52 67 132
-250.2 -736.826 -2056.22 -0.377568 -0.209144 0.881995 34 37 71
-251.952 -730.151 -2054.15 -0.490942 -0.268453 0.812091 32 34 65
-247.876 -731.132 -2052.61 -0.38277 -0.293138 0.859832 35 38 71
-235.459 -747.475 -2056.55 -0.253078 -0.150052 0.946206 38 52 115
-233.497 -743.924 -2054.93 -0.264662 -0.164706 0.937551 36 48 110
-228.956 -738.394 -2052.54 -0.254208 -0.205125 0.930901 32 44 106
-232.201 -733.67 -2051.73 -0.173234 -0.325191 0.927826 40 51 110
