ply
format ascii 1.0
comment Created by Open3D
element vertex 1350
property double x
property double y
property double z
property uchar red
property uchar green
property uchar blue
end_header
31.8183 -224.424 -1722 247 252 255
35.3162 -224.821 -1725 247 251 255
38.7815 -224.957 -1726 250 251 255
42.3246 -225.486 -1730 252 252 255
45.8309 -225.754 -1732 253 252 255
49.3456 -226.024 -1734 254 254 253
52.8688 -226.293 -1736 254 254 253
56.4651 -226.824 -1740 252 253 255
59.9059 -226.704 -1739 253 253 255
63.4157 -226.845 -1740 253 253 255
67.0072 -227.248 -1743 253 253 255
70.5706 -227.521 -1745 254 253 255
74.1427 -227.794 -1747 254 251 254
77.7678 -228.199 -1750 252 251 249
81.4055 -228.604 -1753 252 251 249
84.959 -228.749 -1754 253 252 253
88.6181 -229.156 -1757 252 252 254
92.2898 -229.563 -1760 252 253 255
95.9743 -229.971 -1763 254 252 255
99.8973 -230.901 -1770 254 253 254
104.142 -232.485 -1782 254 254 254
107.891 -232.895 -1785 254 252 252
112.589 -235.263 -1803 251 251 252
-226.399 -239.332 -1799 151 160 176
-222.258 -238.76 -1795 149 159 177
-218.012 -238.055 -1790 155 165 182
-213.43 -236.952 -1782 204 214 230
-209.705 -236.781 -1781 225 235 249
-205.408 -235.946 -1775 227 237 249
-201.592 -235.644 -1773 226 236 248
-197.674 -235.209 -1770 224 234 247
-193.44 -234.377 -1764 221 231 244
-189.34 -233.678 -1759 220 229 243
-185.367 -233.113 -1755 222 231 245
-181.516 -232.681 -1752 221 230 246
-177.678 -232.251 -1749 218 227 241
-173.954 -231.954 -1747 217 227 241
-170.043 -231.392 -1743 215 225 237
-166.055 -230.698 -1738 218 226 242
-162.182 -230.137 -1734 222 229 248
-158.326 -229.578 -1730 231 241 253
-154.666 -229.284 -1728 236 245 255
-151.016 -228.991 -1726 227 237 250
-147.546 -228.965 -1726 234 240 252
-144.077 -228.938 -1726 243 248 255
-140.528 -228.78 -1725 244 249 255
-136.905 -228.49 -1723 245 250 255
-133.368 -228.334 -1722 243 249 255
-129.686 -227.912 -1719 241 249 255
-126.09 -227.624 -1717 238 246 255
-122.503 -227.337 -1715 232 238 244
-118.994 -227.183 -1714 236 242 248
-115.491 -227.029 -1713 239 245 251
-112.058 -227.009 -1713 240 246 255
-108.435 -226.591 -1710 242 248 255
-104.887 -226.307 -1708 242 248 255
-101.288 -225.891 -1705 237 245 253
-97.7597 -225.609 -1703 232 241 250
-94.1847 -225.194 -1700 231 240 248
-90.8894 -225.442 -1702 229 238 246
-87.3298 -225.029 -1699 228 238 244
-84.03 -225.279 -1701 229 239 244
-80.5332 -224.999 -1699 230 240 245
-77.2267 -225.25 -1701 237 242 253
-73.6958 -224.839 -1698 236 242 253
-70.3431 -224.959 -1699 233 240 252
-66.79 -224.417 -1695 240 246 254
-63.3655 -224.273 -1694 247 253 255
-59.9811 -224.262 -1694 246 253 255
-56.5971 -224.251 -1694 246 254 255
-53.1821 -224.109 -1693 243 253 255
-49.8304 -224.232 -1694 243 253 255
-46.4203 -224.092 -1693 243 252 255
-43.0145 -223.951 -1692 238 245 251
-39.6365 -223.944 -1692 228 237 243
-36.3231 -224.334 -1695 222 232 238
-32.9786 -224.593 -1697 223 232 244
-29.609 -224.719 -1698 232 240 250
-26.2202 -224.714 -1698 235 242 251
-22.8583 -224.975 -1700 235 241 250
-19.4545 -224.839 -1699 239 245 252
-16.0737 -224.968 -1700 241 247 252
-12.6814 -224.965 -1700 243 247 253
-9.30577 -225.36 -1703 243 246 253
-5.90782 -225.359 -1703 240 246 252
-2.51286 -225.623 -1705 241 246 253
0.890054 -225.888 -1707 241 247 254
4.30096 -226.152 -1709 241 245 252
7.71107 -226.154 -1709 239 242 249
11.134 -226.42 -1711 241 244 250
14.5736 -226.819 -1714 240 244 250
17.9937 -226.822 -1714 240 244 251
21.439 -227.09 -1716 237 242 246
24.8779 -227.227 -1717 220 224 228
28.3211 -227.364 -1718 233 235 241
31.7686 -227.502 -1719 249 252 255
35.2611 -227.905 -1722 250 253 255
38.7434 -228.176 -1724 253 250 255
42.2832 -228.713 -1728 252 249 255
45.8126 -229.118 -1731 253 250 254
49.3543 -229.523 -1734 253 249 250
52.9086 -229.929 -1737 252 250 251
56.4751 -230.336 -1740 249 251 253
59.9165 -230.215 -1739 251 252 254
63.4634 -230.49 -1741 251 251 253
66.9806 -230.634 -1742 249 249 251
70.5428 -230.912 -1744 249 248 250
74.1135 -231.189 -1746 248 245 246
77.737 -231.6 -1749 248 251 246
81.3269 -231.879 -1751 250 253 249
84.9257 -232.159 -1753 251 253 253
88.4825 -232.307 -1754 251 253 254
92.1489 -232.72 -1757 252 254 255
95.8824 -233.267 -1761 255 252 255
99.6894 -233.947 -1766 254 252 254
103.809 -235.29 -1776 253 253 253
107.728 -236.104 -1782 255 254 252
111.922 -237.448 -1792 252 252 252
-224.427 -240.823 -1783 154 163 179
-220.688 -240.647 -1782 155 165 183
-216.956 -240.472 -1781 178 188 205
-213.109 -240.163 -1779 227 237 248
-209.272 -239.854 -1777 231 241 255
-205.098 -239.141 -1772 227 237 250
-201.287 -238.834 -1770 228 238 250
-197.263 -238.258 -1766 234 244 254
-193.146 -237.548 -1761 235 246 253
-189.159 -236.974 -1757 234 243 253
-185.19 -236.4 -1753 231 240 253
-181.342 -235.962 -1750 228 237 253
-177.406 -235.39 -1746 222 231 247
-173.786 -235.223 -1745 216 226 241
-170.074 -234.922 -1743 218 228 242
-166.085 -234.218 -1738 219 227 244
-162.117 -233.514 -1733 220 228 247
-158.354 -233.08 -1730 227 237 251
-154.515 -232.513 -1726 228 238 251
-150.956 -232.35 -1725 214 224 238
-147.487 -232.323 -1725 219 226 239
-143.936 -232.162 -1724 230 235 248
-140.391 -232.002 -1723 237 242 253
-136.85 -231.842 -1722 239 245 255
-133.237 -231.548 -1720 239 246 255
-129.483 -230.986 -1716 239 247 255
-125.966 -230.828 -1715 239 247 255
-122.453 -230.671 -1714 244 251 255
-119.016 -230.648 -1714 244 250 255
-115.512 -230.493 -1713 241 247 252
-112.012 -230.338 -1712 238 245 253
-108.518 -230.183 -1711 239 246 254
-104.967 -229.894 -1709 238 245 255
-101.366 -229.472 -1706 238 246 255
-97.8348 -229.185 -1704 239 247 255
-94.2571 -228.764 -1701 241 248 255
-90.9057 -228.882 -1702 242 250 255
-87.3455 -228.462 -1699 242 251 255
-83.9957 -228.581 -1700 242 251 255
-80.5477 -228.432 -1699 242 251 254
-77.1497 -228.418 -1699 242 247 255
-73.709 -228.27 -1698 235 241 253
-70.2729 -228.122 -1697 229 236 251
-66.7232 -227.572 -1693 234 240 253
-63.3021 -227.426 -1692 245 251 255
-59.9919 -227.683 -1694 245 252 255
-56.5738 -227.538 -1693 244 252 255
-53.1288 -227.26 -1691 244 253 255
-49.7805 -227.385 -1692 245 253 255
-46.4286 -227.51 -1693 241 249 252
-43.0477 -227.502 -1693 236 242 248
-39.6905 -227.629 -1694 233 240 246
-36.351 -227.891 -1696 236 244 249
-32.9846 -228.019 -1697 240 248 254
-29.6143 -228.148 -1698 244 250 255
-26.2094 -228.008 -1697 246 251 255
-22.849 -228.273 -1699 248 252 255
-19.4809 -228.537 -1701 249 252 255
-16.0859 -228.534 -1701 247 251 255
-12.706 -228.801 -1703 246 249 255
-9.32925 -229.336 -1707 246 249 255
-5.91926 -229.2 -1706 244 250 255
-2.51772 -229.468 -1708 243 249 255
0.890744 -229.468 -1708 240 247 254
4.30173 -229.603 -1709 242 247 254
7.71243 -229.604 -1709 245 249 255
11.1425 -230.009 -1712 246 248 254
14.5677 -230.145 -1713 245 247 253
17.9969 -230.283 -1714 244 247 253
21.4553 -230.689 -1717 249 252 255
24.897 -230.828 -1718 237 240 245
28.3262 -230.833 -1718 220 224 231
31.7927 -231.107 -1720 245 248 252
35.2675 -231.382 -1722 250 253 255
38.773 -231.791 -1725 244 245 251
42.2662 -232.068 -1727 242 242 247
45.8209 -232.613 -1731 245 243 247
49.3917 -233.159 -1735 238 239 241
52.9486 -233.572 -1738 236 236 239
56.5177 -233.985 -1741 236 238 242
60.0306 -234.13 -1742 243 244 248
63.5843 -234.41 -1744 246 247 251
67.0695 -234.422 -1744 246 249 251
70.6363 -234.703 -1746 249 251 251
74.2117 -234.985 -1748 251 253 250
77.7956 -235.268 -1750 246 254 248
81.2952 -235.282 -1750 247 254 249
84.8924 -235.566 -1752 249 254 252
88.448 -235.716 -1753 251 254 254
91.9557 -235.733 -1753 251 253 254
95.6819 -236.288 -1757 255 252 255
99.3686 -236.709 -1760 253 252 253
103.36 -237.804 -1768 253 253 253
107.264 -238.63 -1774 255 253 251
111.442 -239.995 -1784 254 253 252
116.242 -242.572 -1803 235 237 240
-226.678 -242.978 -1772 120 129 145
-223.838 -243.759 -1778 158 167 183
-220.109 -243.58 -1777 167 177 194
-216.63 -243.677 -1778 206 216 232
-213.029 -243.637 -1778 236 246 254
-209.075 -243.187 -1775 226 236 250
-204.905 -242.463 -1770 211 221 234
-201.097 -242.152 -1768 211 221 234
-196.852 -241.293 -1762 220 231 239
-192.743 -240.572 -1757 222 233 240
-188.871 -240.126 -1754 225 234 245
-185.013 -239.681 -1751 227 236 249
-181.168 -239.236 -1748 231 239 254
-177.337 -238.793 -1745 233 241 254
-173.419 -238.213 -1741 232 240 255
-169.813 -238.044 -1740 227 238 253
-166.115 -237.739 -1738 223 233 249
-162.334 -237.299 -1735 220 230 247
-158.292 -236.448 -1729 230 240 254
-154.633 -236.146 -1727 232 242 251
-150.984 -235.844 -1725 206 216 228
-147.6 -235.953 -1726 203 210 226
-143.963 -235.653 -1724 216 223 240
-140.498 -235.627 -1724 226 233 248
-136.796 -235.191 -1721 231 237 252
-133.107 -234.756 -1718 232 238 254
-129.431 -234.322 -1715 232 238 254
-125.989 -234.298 -1715 232 239 253
-122.333 -233.866 -1712 235 241 253
-118.968 -233.98 -1713 238 244 254
-115.533 -233.958 -1713 240 247 255
-111.967 -233.664 -1711 238 247 255
-108.601 -233.781 -1712 238 247 255
-105.109 -233.624 -1711 238 245 255
-101.444 -233.059 -1707 237 242 255
-97.9101 -232.768 -1705 236 239 255
-94.3852 -232.477 -1703 233 236 254
-90.869 -232.187 -1701 232 235 252
-87.3102 -231.761 -1698 231 236 252
-84.0111 -232.018 -1700 233 238 253
-80.5624 -231.866 -1699 235 239 255
-77.1185 -231.715 -1698 234 240 252
-73.5923 -231.292 -1695 229 236 250
-70.2029 -231.279 -1695 221 230 245
-66.696 -230.857 -1692 223 229 244
-63.2763 -230.709 -1691 241 247 255
-59.9319 -230.834 -1692 245 252 254
-56.5507 -230.823 -1692 246 252 255
-53.1385 -230.676 -1691 246 254 255
-49.7601 -230.667 -1691 248 254 255
-46.4371 -230.931 -1693 247 253 255
-43.0301 -230.786 -1692 250 253 255
-39.6743 -230.915 -1693 249 252 255
-36.3577 -231.317 -1696 247 251 254
-33.01 -231.584 -1698 247 253 255
-29.6196 -231.578 -1698 246 251 255
-26.2142 -231.436 -1697 249 251 255
-22.8397 -231.568 -1698 249 251 255
-19.4843 -231.974 -1701 246 249 254
-16.0889 -231.97 -1701 246 248 253
-12.7084 -232.241 -1703 246 249 254
-9.33091 -232.784 -1707 243 246 252
-5.9203 -232.646 -1706 236 242 248
-2.51815 -232.918 -1708 237 243 249
0.891958 -233.191 -1710 238 245 252
4.30272 -233.055 -1709 239 246 252
7.70931 -232.92 -1708 242 248 254
11.138 -233.331 -1711 242 245 251
14.5618 -233.469 -1712 239 242 248
18.0003 -233.745 -1714 237 240 246
21.4593 -234.158 -1717 235 238 244
24.916 -234.435 -1719 226 229 236
28.315 -234.167 -1717 208 213 222
31.7801 -234.445 -1719 239 243 249
35.2329 -234.588 -1720 246 251 255
38.7126 -234.867 -1722 239 242 246
42.2495 -235.421 -1726 237 239 243
45.8292 -236.111 -1731 242 244 247
49.3722 -236.529 -1734 242 245 248
52.9278 -236.947 -1737 242 245 249
56.5282 -237.503 -1741 246 247 252
60.007 -237.514 -1741 249 251 255
63.523 -237.662 -1742 250 252 255
67.0819 -237.946 -1744 249 253 254
70.6493 -238.232 -1746 249 253 252
74.013 -237.836 -1743 250 253 249
77.632 -238.259 -1746 247 254 250
81.2172 -238.547 -1748 247 254 250
84.7141 -238.562 -1748 249 254 251
88.2119 -238.578 -1748 251 254 253
91.92 -239.141 -1752 252 253 253
95.5362 -239.431 -1754 255 252 253
99.2738 -239.995 -1758 254 253 254
103.204 -240.969 -1765 253 254 254
107.102 -241.808 -1771 255 253 252
111.088 -242.784 -1778 254 254 253
115.877 -245.399 -1797 250 252 253
-226.848 -246.719 -1773 120 129 144
-223.754 -247.233 -1777 162 172 187
-220.027 -247.052 -1776 192 202 217
-216.305 -246.872 -1775 228 238 251
-212.829 -246.97 -1776 236 246 255
-208.997 -246.652 -1774 225 235 250
-204.943 -246.057 -1770 214 224 238
-200.68 -245.185 -1764 212 222 237
-196.554 -244.453 -1759 208 219 227
-192.669 -243.999 -1756 199 210 216
-188.906 -243.685 -1754 195 205 215
-185.047 -243.233 -1751 205 214 227
-181.202 -242.782 -1748 215 223 241
-177.573 -242.61 -1747 219 227 245
-173.751 -242.16 -1744 221 230 248
-169.942 -241.711 -1741 222 234 249
-166.146 -241.263 -1738 220 231 247
-162.271 -240.677 -1734 220 230 246
-158.413 -240.092 -1730 233 243 255
-154.841 -239.924 -1729 239 249 254
-151.187 -239.617 -1727 222 232 244
-147.627 -239.451 -1726 219 227 243
-144.073 -239.284 -1725 227 235 249
-140.524 -239.119 -1724 227 236 249
-136.662 -238.4 -1719 230 238 251
-133.132 -238.236 -1718 231 238 251
-129.531 -237.934 -1716 230 236 250
-125.939 -237.632 -1714 224 230 245
-122.427 -237.47 -1713 222 228 243
-119.06 -237.586 -1714 224 230 245
-115.554 -237.426 -1713 226 233 247
-111.988 -237.127 -1711 226 233 248
-108.558 -237.107 -1711 226 232 247
-105.129 -237.087 -1711 228 234 247
-101.582 -236.79 -1709 231 235 250
-98.0432 -236.494 -1707 229 232 249
-94.4581 -236.061 -1704 223 227 246
-90.9927 -235.905 -1703 220 225 243
-87.3778 -235.334 -1699 216 222 239
-84.0267 -235.457 -1700 213 219 236
-80.6248 -235.441 -1700 213 219 236
-77.1782 -235.288 -1699 214 222 235
-73.6493 -234.858 -1696 210 219 233
-70.216 -234.707 -1695 205 215 229
-66.7083 -234.278 -1692 207 215 229
-63.2131 -233.851 -1689 219 227 241
-59.8722 -233.978 -1690 239 246 254
-56.4609 -233.829 -1689 244 250 255
-53.117 -233.957 -1690 245 252 255
-49.7694 -234.086 -1691 245 252 255
-46.4182 -234.215 -1692 243 250 255
-43.0635 -234.345 -1693 245 249 255
-39.7285 -234.614 -1695 245 250 255
-36.3645 -234.746 -1696 243 248 255
-32.9773 -234.739 -1696 237 244 252
-29.5728 -234.595 -1695 238 245 253
-26.1726 -234.451 -1694 240 245 252
-22.817 -234.723 -1696 238 242 249
-19.465 -235.135 -1699 236 239 247
-16.0919 -235.408 -1701 235 239 247
-12.7257 -235.959 -1705 237 241 248
-9.33279 -236.234 -1707 238 241 248
-5.92483 -236.233 -1707 231 237 243
-2.52007 -236.509 -1709 228 235 241
0.892653 -236.785 -1711 228 235 242
4.30602 -236.647 -1710 229 236 242
7.71523 -236.51 -1709 231 237 243
11.14 -236.789 -1711 237 240 248
14.5646 -236.929 -1712 237 240 248
18.0141 -237.347 -1715 235 238 245
21.4632 -237.628 -1717 229 232 239
24.9352 -238.048 -1720 210 213 220
28.3367 -237.776 -1718 197 202 209
31.786 -237.92 -1719 235 239 245
35.2395 -238.065 -1720 247 251 255
38.7199 -238.348 -1722 246 248 253
42.2328 -238.771 -1725 247 248 253
45.8113 -239.471 -1730 251 251 254
49.3246 -239.757 -1732 251 252 255
52.9071 -240.32 -1736 252 252 255
56.4737 -240.746 -1739 252 252 255
59.9494 -240.757 -1739 251 253 255
63.5349 -241.184 -1742 251 253 255
67.0175 -241.196 -1742 253 253 255
70.5816 -241.486 -1744 252 253 254
73.9843 -241.222 -1742 253 253 253
77.5575 -241.513 -1744 254 252 253
81.0464 -241.528 -1744 254 253 253
84.6329 -241.821 -1746 253 253 253
88.1273 -241.837 -1746 253 253 253
91.8321 -242.408 -1750 253 253 253
95.4993 -242.841 -1753 253 253 253
99.1229 -243.136 -1755 252 252 254
103.106 -244.264 -1763 250 252 254
106.88 -244.837 -1767 253 253 253
110.796 -245.689 -1773 253 253 253
115.382 -247.928 -1789 254 254 254
-229.842 -249.662 -1768 0 0 0
-226.892 -250.325 -1773 122 129 142
-223.545 -250.564 -1775 179 187 200
-219.945 -250.521 -1775 216 226 239
-216.224 -250.338 -1774 234 244 255
-212.39 -250.015 -1772 235 244 255
-208.565 -249.693 -1770 225 235 250
-204.519 -249.089 -1766 228 238 253
-200.263 -248.204 -1760 222 234 249
-196.144 -247.461 -1755 217 229 241
-192.486 -247.283 -1754 185 197 209
-188.619 -246.824 -1751 135 145 157
-184.976 -246.647 -1750 168 177 189
-181.236 -246.33 -1748 214 221 235
-177.302 -245.732 -1744 217 226 239
-173.485 -245.276 -1741 212 221 234
-169.779 -244.962 -1739 209 220 236
-166.082 -244.648 -1737 211 221 237
-162.302 -244.194 -1734 215 225 241
-158.534 -243.741 -1731 229 238 250
-154.87 -243.43 -1729 233 242 254
-151.215 -243.119 -1727 221 230 245
-147.741 -243.09 -1727 223 231 244
-144.184 -242.922 -1726 237 244 254
-140.551 -242.613 -1724 238 246 254
-136.768 -242.024 -1720 241 248 255
-133.312 -241.998 -1720 240 247 253
-129.404 -241.129 -1714 239 246 254
-125.962 -241.105 -1714 234 241 251
-122.45 -240.941 -1713 235 240 253
-119.013 -240.918 -1713 235 240 254
-115.374 -240.473 -1710 233 238 254
-111.878 -240.311 -1709 227 232 248
-108.388 -240.15 -1708 220 225 241
-105.026 -240.27 -1709 217 222 236
-101.541 -240.11 -1708 217 222 236
-97.9467 -239.669 -1705 218 223 238
-94.4759 -239.51 -1704 218 224 240
-90.9564 -239.212 -1702 216 222 237
-87.4456 -238.914 -1700 208 215 229
-84.0425 -238.897 -1700 203 211 225
-80.5925 -238.741 -1699 205 214 227
-77.1927 -238.726 -1699 208 217 229
-73.6632 -238.29 -1696 205 214 227
-70.2291 -238.136 -1695 198 208 222
-66.7208 -237.702 -1692 191 200 215
-63.2625 -237.409 -1690 210 219 233
-59.9189 -237.537 -1691 237 244 255
-56.4381 -237.105 -1688 242 247 255
-53.0954 -237.235 -1689 242 247 255
-49.7199 -237.225 -1689 236 243 250
-46.3721 -237.357 -1690 230 236 246
-43.0207 -237.489 -1691 230 235 247
-39.6657 -237.621 -1692 232 239 250
-36.3069 -237.754 -1693 230 237 249
-32.9445 -237.888 -1694 223 232 242
-29.5783 -238.023 -1695 226 234 243
-26.1775 -237.877 -1694 229 236 244
-22.8213 -238.153 -1696 231 237 246
-19.4687 -238.571 -1699 230 234 243
-16.0854 -238.708 -1700 229 233 242
-12.728 -239.407 -1705 229 233 240
-9.33449 -239.686 -1707 229 233 240
-5.93285 -239.965 -1709 226 232 238
-2.522 -240.105 -1710 225 232 238
0.893351 -240.385 -1712 228 235 241
4.30683 -240.105 -1710 231 237 243
7.71665 -239.966 -1709 233 239 245
11.1423 -240.249 -1711 240 243 251
14.5588 -240.251 -1711 243 246 253
18.0069 -240.675 -1714 241 244 251
21.4674 -241.1 -1717 234 237 244
24.9253 -241.386 -1719 211 215 222
28.3421 -241.25 -1718 201 206 214
31.7734 -241.256 -1718 239 243 247
35.1847 -241.122 -1717 251 254 255
38.7272 -241.831 -1722 249 251 255
42.2408 -242.26 -1725 249 250 255
45.7404 -242.549 -1727 250 249 254
49.2769 -242.98 -1730 249 249 252
52.7951 -243.27 -1732 251 251 254
56.3219 -243.562 -1734 252 252 255
59.8227 -243.713 -1735 251 253 255
63.4008 -244.146 -1738 251 253 255
66.9146 -244.299 -1739 253 253 255
70.3519 -244.172 -1738 253 253 254
73.7857 -244.045 -1737 253 253 253
77.3943 -244.481 -1740 255 252 253
80.8758 -244.496 -1740 254 252 253
84.5034 -244.933 -1743 253 253 253
88.1944 -245.511 -1747 253 253 253
91.7971 -245.81 -1749 253 253 253
95.5173 -246.39 -1753 253 253 253
99.2545 -246.97 -1757 251 253 254
103.184 -247.974 -1764 251 253 255
106.9 -248.415 -1767 252 252 253
110.88 -249.42 -1774 252 252 253
115.275 -251.27 -1787 254 254 254
-232.554 -252.303 -1761 58 64 80
-229.886 -253.26 -1768 69 75 88
-226.807 -253.789 -1772 129 136 147
-223.588 -254.175 -1775 205 212 223
-219.739 -253.845 -1773 227 237 248
-216.022 -253.66 -1772 235 244 255
-212.311 -253.475 -1771 235 244 255
-208.252 -252.862 -1767 227 237 251
-204.326 -252.392 -1764 227 238 252
-200.073 -251.495 -1758 226 239 253
-195.958 -250.741 -1753 226 238 250
-192.194 -250.418 -1751 199 211 222
-188.547 -250.238 -1750 105 115 125
-184.906 -250.059 -1749 141 150 161
-181.167 -249.737 -1747 226 233 243
-177.539 -249.56 -1746 234 244 254
-173.418 -248.668 -1740 232 242 254
-169.616 -248.206 -1737 223 234 252
-165.923 -247.888 -1735 218 229 246
-162.146 -247.427 -1732 219 229 246
-158.382 -246.968 -1729 223 232 244
-154.9 -246.938 -1729 223 232 244
-151.244 -246.623 -1727 209 218 234
-147.683 -246.451 -1726 217 224 236
-144.044 -246.137 -1724 234 241 250
-140.496 -245.967 -1723 237 244 251
-136.794 -245.512 -1720 239 246 253
-133.26 -245.343 -1719 242 249 255
-129.504 -244.747 -1715 246 253 255
-125.986 -244.579 -1714 247 254 255
-122.474 -244.413 -1713 246 251 255
-118.966 -244.247 -1712 246 251 255
-115.396 -243.939 -1710 246 251 255
-111.769 -243.489 -1707 244 250 255
-108.409 -243.61 -1708 242 247 255
-105.046 -243.732 -1709 240 245 253
-101.442 -243.285 -1706 239 246 252
-98.023 -243.265 -1706 237 244 251
-94.4385 -242.819 -1703 235 242 250
-91.1342 -243.086 -1705 232 239 247
-87.5138 -242.499 -1701 227 234 242
-84.108 -242.482 -1701 222 229 238
-80.6079 -242.182 -1699 221 228 237
-77.2074 -242.166 -1699 216 225 237
-73.6338 -241.582 -1695 212 221 234
-70.2426 -241.568 -1695 209 218 232
-66.773 -241.27 -1693 201 210 226
-63.312 -240.972 -1691 207 216 232
-59.8949 -240.818 -1690 225 234 247
-56.4823 -240.664 -1689 231 238 250
-53.0742 -240.511 -1688 231 236 250
-49.7293 -240.644 -1689 228 235 245
-46.381 -240.777 -1690 229 235 245
-43.0289 -240.911 -1691 232 237 248
-39.6967 -241.188 -1693 234 241 250
-36.3567 -241.465 -1695 229 236 245
-32.9508 -241.316 -1694 226 235 245
-29.584 -241.453 -1695 222 230 240
-26.1825 -241.305 -1694 222 229 237
-22.8256 -241.585 -1696 228 234 243
-19.4839 -242.151 -1700 234 239 248
-16.1074 -242.432 -1702 238 241 250
-12.7379 -242.999 -1706 237 241 249
-9.35262 -243.567 -1710 237 243 249
-5.94109 -243.708 -1711 237 243 249
-2.52098 -243.422 -1709 240 246 252
0.892487 -243.564 -1710 242 248 254
4.30512 -243.423 -1709 242 248 254
7.7181 -243.424 -1709 243 249 255
11.1444 -243.711 -1711 242 245 252
14.57 -243.855 -1712 243 246 253
18.0105 -244.143 -1714 242 245 251
21.4589 -244.432 -1716 238 241 248
24.9156 -244.722 -1718 216 219 227
28.3476 -244.727 -1718 206 211 219
31.798 -244.875 -1719 236 240 248
35.2529 -245.024 -1720 246 249 254
38.6894 -245.031 -1720 248 250 255
42.1999 -245.466 -1723 250 251 255
45.6962 -245.76 -1725 252 252 255
49.2009 -246.054 -1727 252 252 254
52.7139 -246.348 -1729 252 252 254
56.2678 -246.786 -1732 253 253 255
59.7307 -246.797 -1732 252 253 255
63.3401 -247.379 -1736 251 253 255
66.7735 -247.249 -1735 253 253 255
70.2844 -247.405 -1736 253 253 254
73.7149 -247.276 -1735 253 253 253
77.3201 -247.719 -1738 255 252 253
80.9377 -248.161 -1741 254 252 253
84.4712 -248.32 -1742 253 253 253
88.2617 -249.192 -1748 253 253 253
91.8146 -249.352 -1749 253 253 253
95.6447 -250.225 -1755 253 253 253
99.3301 -250.672 -1758 252 253 254
103.204 -251.547 -1764 251 253 255
106.86 -251.853 -1766 252 252 254
110.963 -253.157 -1775 254 254 255
115.297 -254.891 -1787 253 253 253
-232.336 -255.599 -1759 61 67 82
-229.671 -256.57 -1766 69 74 87
-226.724 -257.252 -1771 162 169 178
-223.254 -257.352 -1772 228 235 244
-219.41 -257.018 -1770 230 240 251
-215.577 -256.685 -1768 236 245 254
-211.753 -256.353 -1766 236 245 255
-207.703 -255.731 -1762 233 243 255
-203.787 -255.255 -1759 235 246 255
-199.885 -254.78 -1756 232 245 255
-195.885 -254.161 -1752 228 239 247
-192.232 -253.977 -1751 225 236 243
-188.692 -253.94 -1751 164 173 181
-184.837 -253.468 -1748 158 167 175
-181.202 -253.287 -1747 207 214 224
-177.37 -252.817 -1744 221 230 247
-173.352 -252.058 -1739 229 239 253
-169.551 -251.589 -1736 230 242 254
-166.051 -251.556 -1736 224 235 251
-162.177 -250.945 -1732 228 238 253
-158.596 -250.768 -1731 229 238 247
-154.93 -250.448 -1729 223 232 243
-151.274 -250.128 -1727 215 224 240
-147.627 -249.809 -1725 230 238 248
-144.156 -249.781 -1725 244 251 255
-140.523 -249.463 -1723 244 251 255
-136.661 -248.712 -1718 244 251 255
-133.208 -248.685 -1718 244 251 255
-129.529 -248.226 -1715 245 252 255
-125.937 -247.911 -1713 245 252 255
-122.283 -247.453 -1710 245 252 255
-118.85 -247.429 -1710 245 251 255
-115.216 -246.972 -1707 245 252 255
-111.66 -246.661 -1705 245 252 255
-108.24 -246.639 -1705 245 252 255
-104.882 -246.763 -1706 245 252 255
-101.342 -246.453 -1704 246 252 255
-97.927 -246.434 -1704 245 252 255
-94.4569 -246.271 -1703 245 252 255
-91.0984 -246.397 -1704 246 253 255
-87.4793 -245.801 -1700 246 253 255
-84.1737 -246.074 -1702 244 251 254
-80.671 -245.768 -1700 240 247 254
-77.3588 -246.042 -1702 233 242 253
-73.8654 -245.738 -1700 229 237 250
-70.3806 -245.435 -1698 224 233 247
-66.8648 -244.988 -1695 217 224 241
-63.3992 -244.686 -1693 209 216 233
-59.9065 -244.241 -1690 219 228 242
-56.4598 -243.94 -1688 237 244 254
-53.053 -243.785 -1687 243 248 255
-49.7095 -243.92 -1688 245 252 255
-46.335 -243.91 -1688 247 253 255
-42.9863 -244.046 -1689 246 251 255
-39.6575 -244.327 -1691 246 252 255
-36.3423 -244.753 -1694 244 251 255
-32.9572 -244.746 -1694 243 251 255
-29.6072 -245.029 -1696 235 243 251
-26.2031 -244.879 -1695 232 239 247
-22.83 -245.019 -1696 237 243 251
-19.4647 -245.304 -1698 239 244 253
-16.0916 -245.589 -1700 239 242 251
-12.7479 -246.598 -1707 237 241 249
-9.34343 -246.74 -1708 237 243 249
-5.93872 -247.027 -1710 238 244 250
-2.52291 -247.027 -1710 238 244 250
0.892668 -247.026 -1710 238 244 250
4.30846 -247.027 -1710 239 243 250
7.7243 -247.028 -1710 242 246 253
11.1465 -247.175 -1711 245 248 254
14.5815 -247.466 -1713 244 247 254
18.0139 -247.614 -1714 243 246 252
21.4631 -247.906 -1716 239 242 248
24.906 -248.055 -1717 216 220 227
28.3364 -248.061 -1717 205 210 217
31.7672 -248.067 -1717 224 228 235
35.2188 -248.218 -1718 237 240 247
38.6519 -248.225 -1718 245 247 253
42.1346 -248.522 -1720 249 251 254
45.652 -248.964 -1723 251 253 255
49.1249 -249.117 -1724 253 253 255
52.6326 -249.416 -1726 253 253 255
56.1812 -249.861 -1729 253 253 255
59.6732 -250.016 -1730 252 253 255
63.2428 -250.462 -1733 251 253 255
66.7095 -250.475 -1733 253 253 255
70.1766 -250.488 -1733 253 253 254
73.6442 -250.502 -1733 253 253 253
77.1571 -250.661 -1734 255 252 253
80.8139 -251.255 -1738 254 252 253
84.4391 -251.705 -1741 253 253 253
88.2284 -252.589 -1747 253 253 253
91.7798 -252.751 -1748 253 253 253
95.5543 -253.493 -1753 253 253 253
99.2929 -254.09 -1757 251 252 254
103.165 -254.978 -1763 250 252 254
106.942 -255.577 -1767 253 253 253
111.048 -256.9 -1776 253 253 253
115.19 -258.224 -1785 253 253 253
119.77 -260.417 -1800 252 254 255
-232.874 -255.841 -1736 0 0 0
-231.853 -258.594 -1755 61 67 81
-229.196 -259.579 -1762 104 109 121
-226.257 -260.27 -1767 216 223 230
-222.794 -260.373 -1768 239 246 253
-218.958 -260.034 -1766 236 246 254
-215.376 -259.991 -1766 238 247 254
-211.315 -259.359 -1762 235 244 252
-207.508 -259.023 -1760 231 242 251
-203.712 -258.688 -1758 233 244 252
-199.811 -258.206 -1755 234 246 253
-196.035 -257.872 -1753 237 248 254
-192.16 -257.392 -1750 238 249 254
-188.514 -257.207 -1749 233 242 248
-184.768 -256.876 -1747 225 234 240
-181.031 -256.545 -1745 226 233 243
-177.202 -256.069 -1742 226 235 250
-173.287 -255.446 -1738 224 233 251
-169.585 -255.118 -1736 220 232 251
-165.988 -254.937 -1735 220 231 249
-162.209 -254.464 -1732 235 245 254
-158.719 -254.432 -1732 242 251 255
-155.05 -254.107 -1730 232 241 252
-151.391 -253.783 -1728 224 233 249
-147.827 -253.606 -1727 238 246 255
-144.101 -253.136 -1724 245 252 255
-140.388 -252.668 -1721 241 248 254
-136.688 -252.2 -1718 241 248 254
-133.157 -252.026 -1717 242 249 255
-129.404 -251.413 -1713 242 249 254
-125.889 -251.241 -1712 242 249 255
-122.236 -250.776 -1709 243 250 253
-118.665 -250.459 -1707 243 250 253
-115.171 -250.289 -1706 245 252 255
-111.682 -250.12 -1705 246 253 255
-108.134 -249.804 -1703 247 254 255
-104.779 -249.93 -1704 247 254 255
-101.184 -249.47 -1701 246 253 255
-97.7738 -249.45 -1701 245 252 255
-94.3644 -249.431 -1701 245 252 255
-91.1163 -249.852 -1704 244 251 255
-87.5995 -249.541 -1702 244 251 255
-84.3387 -249.964 -1705 244 251 255
-80.7818 -249.508 -1702 243 250 255
-77.374 -249.492 -1702 237 244 255
-73.9233 -249.331 -1701 233 241 253
-70.4358 -249.023 -1699 223 232 246
-66.9174 -248.57 -1696 222 228 245
-63.4865 -248.411 -1695 216 222 239
-59.9538 -247.812 -1691 222 231 243
-56.4709 -247.361 -1688 240 247 255
-53.0634 -247.204 -1687 243 248 255
-49.7193 -247.34 -1688 244 251 255
-46.3442 -247.331 -1688 245 252 255
-42.9948 -247.468 -1689 244 251 255
-39.6652 -247.753 -1691 244 250 254
-36.3066 -247.892 -1692 242 249 254
-32.9636 -248.178 -1694 236 243 251
-29.5956 -248.318 -1695 227 233 241
-26.2082 -248.313 -1695 223 228 237
-22.8346 -248.455 -1696 226 231 240
-19.4915 -249.036 -1700 230 235 244
-16.1137 -249.326 -1702 233 236 245
-12.7503 -250.056 -1707 233 238 245
-9.34541 -250.2 -1708 233 239 245
-5.9329 -250.198 -1708 232 237 244
-2.52043 -250.198 -1708 234 239 246
0.892329 -250.344 -1709 236 242 248
4.30426 -250.198 -1708 238 242 249
7.72127 -250.346 -1709 243 246 253
11.1486 -250.641 -1711 244 247 253
14.5758 -250.79 -1712 244 247 253
17.9965 -250.793 -1712 246 249 253
21.4422 -251.09 -1714 246 249 252
24.8963 -251.387 -1716 232 235 241
28.3421 -251.539 -1717 220 226 232
31.7735 -251.545 -1717 226 230 237
35.2257 -251.698 -1718 238 241 248
38.682 -251.852 -1719 249 251 254
42.1673 -252.153 -1721 252 254 255
45.6875 -252.601 -1724 252 254 255
49.1915 -252.904 -1726 253 253 255
52.6733 -253.06 -1727 254 254 255
56.1923 -253.364 -1729 253 253 255
59.6851 -253.522 -1730 251 253 255
63.1458 -253.534 -1730 251 253 255
66.684 -253.84 -1732 253 253 255
70.1094 -253.707 -1731 253 253 254
73.7012 -254.161 -1734 253 253 253
77.2613 -254.469 -1736 254 253 253
80.83 -254.778 -1738 254 253 253
84.4071 -255.088 -1740 253 253 253
88.1952 -255.985 -1746 253 253 253
91.7454 -256.149 -1747 253 253 253
95.573 -257.047 -1753 253 253 253
99.2557 -257.507 -1756 252 253 254
103.069 -258.26 -1761 251 253 254
106.721 -258.574 -1763 255 255 255
110.757 -259.769 -1771 252 252 252
114.826 -260.965 -1779 253 253 253
119.46 -263.336 -1795 249 251 255
-233.994 -260.577 -1744 59 65 79
-232.032 -262.322 -1756 71 77 89
-229.242 -263.172 -1762 163 168 178
-226.174 -263.723 -1766 238 244 250
-222.587 -263.677 -1766 243 251 255
-218.754 -263.334 -1764 242 251 255
-215.175 -263.29 -1764 240 250 254
-211.118 -262.65 -1760 238 248 252
-207.314 -262.309 -1758 235 246 252
-203.637 -262.118 -1757 228 239 246
-199.965 -261.928 -1756 226 237 245
-196.075 -261.441 -1753 231 242 249
-192.199 -260.954 -1750 240 251 255
-188.659 -260.915 -1750 243 252 255
-184.593 -260.132 -1745 244 253 255
-180.86 -259.797 -1743 242 249 255
-176.831 -259.016 -1738 239 247 255
-172.923 -258.385 -1734 238 247 255
-169.228 -258.052 -1732 227 238 253
-165.83 -258.167 -1733 217 228 245
-161.867 -257.389 -1728 214 224 239
-158.567 -257.655 -1730 222 231 241
-154.902 -257.325 -1728 217 226 238
-151.246 -256.997 -1726 212 221 236
-147.6 -256.669 -1724 228 236 247
-144.13 -256.639 -1724 234 241 250
-140.253 -255.866 -1719 231 238 246
-136.636 -255.541 -1717 230 237 246
-133.183 -255.514 -1717 234 241 250
-129.43 -254.892 -1713 239 246 254
-125.84 -254.569 -1711 243 250 255
-122.26 -254.246 -1709 244 252 252
-118.689 -253.924 -1707 246 253 254
-115.126 -253.603 -1705 247 254 255
-111.638 -253.432 -1704 247 254 255
-108.092 -253.112 -1702 247 254 255
-104.677 -253.091 -1702 246 253 255
-101.204 -252.922 -1701 246 253 255
-97.7359 -252.753 -1700 247 253 255
-94.3278 -252.733 -1700 247 253 255
-91.081 -253.161 -1703 246 253 255
-87.6169 -252.994 -1702 246 253 255
-84.2565 -253.126 -1703 244 251 255
-80.8454 -253.109 -1703 242 249 255
-77.4349 -253.093 -1703 233 242 254
-73.8946 -252.632 -1700 227 236 250
-70.4913 -252.618 -1700 222 231 246
-66.9702 -252.158 -1697 220 227 243
-63.4992 -251.848 -1695 214 220 237
-59.9657 -251.241 -1691 222 229 242
-56.4821 -250.784 -1688 242 248 255
-53.074 -250.624 -1687 245 250 255
-49.7292 -250.762 -1688 245 252 255
-46.3259 -250.604 -1687 244 251 255
-43.0033 -250.892 -1689 243 250 255
-39.6731 -251.181 -1691 242 249 254
-36.3352 -251.471 -1693 242 249 253
-33.0091 -251.909 -1696 239 246 252
-29.6014 -251.754 -1695 236 242 250
-26.2134 -251.749 -1695 235 240 249
-22.8391 -251.893 -1696 234 239 246
-19.4953 -252.482 -1700 234 239 246
-16.1074 -252.627 -1701 237 240 248
-12.7379 -253.218 -1705 239 242 249
-9.34173 -253.513 -1707 239 242 249
-5.93056 -253.512 -1707 238 241 247
-2.51795 -253.362 -1706 239 243 249
0.890949 -253.362 -1706 242 248 253
4.30007 -253.363 -1706 243 249 254
7.70922 -253.364 -1706 246 252 255
11.1315 -253.663 -1708 247 250 255
14.5616 -253.963 -1710 248 251 255
18 -254.263 -1712 248 251 255
21.4716 -254.861 -1716 248 251 255
24.9159 -255.014 -1717 247 251 254
28.3643 -255.168 -1718 244 250 253
31.8169 -255.323 -1719 246 250 254
35.2533 -255.329 -1719 250 253 255
38.69 -255.337 -1719 248 252 255
42.1759 -255.642 -1721 250 253 255
45.6968 -256.097 -1724 251 253 255
49.1729 -256.255 -1725 252 252 254
52.6535 -256.413 -1726 253 253 255
56.1709 -256.721 -1728 253 253 255
59.6623 -256.882 -1729 251 253 255
63.1584 -257.043 -1730 251 253 255
66.6588 -257.204 -1731 253 253 255
70.1639 -257.366 -1732 253 253 254
73.6734 -257.53 -1733 253 253 253
77.2321 -257.842 -1735 253 253 253
80.753 -258.007 -1736 253 253 253
84.3756 -258.469 -1739 253 253 253
88.1119 -259.23 -1744 253 253 253
91.6588 -259.396 -1745 253 253 253
95.374 -260.01 -1749 253 253 253
99.106 -260.624 -1753 251 253 253
102.796 -261.09 -1756 251 253 253
106.621 -261.855 -1761 254 254 254
110.529 -262.769 -1767 252 252 252
114.461 -263.684 -1773 254 254 254
118.952 -265.79 -1787 248 250 254
-234.579 -264.742 -1748 63 70 80
-232.08 -265.905 -1756 98 104 113
-229.029 -266.464 -1760 212 218 223
-225.964 -267.022 -1764 245 252 255
-222.381 -266.976 -1764 244 251 255
-218.675 -266.779 -1763 244 254 255
-215.097 -266.735 -1763 244 254 255
-211.041 -266.086 -1759 241 251 253
-207.121 -265.589 -1756 241 252 255
-203.214 -265.093 -1753 238 248 254
-199.664 -265.052 -1753 232 243 250
-195.891 -264.709 -1751 225 235 247
-191.908 -264.065 -1747 226 236 249
-188.267 -263.875 -1746 236 245 254
-184.313 -263.232 -1742 242 250 255
-180.689 -263.043 -1741 242 249 255
-176.663 -262.251 -1736 243 251 255
-172.958 -261.913 -1734 241 250 255
-169.165 -261.425 -1731 233 243 255
-165.576 -261.24 -1730 227 237 250
-161.806 -260.754 -1727 209 218 232
-158.141 -260.419 -1725 201 210 220
-154.575 -260.236 -1724 204 213 223
-150.926 -259.903 -1722 221 230 243
-147.373 -259.721 -1721 238 245 255
-143.824 -259.541 -1720 242 249 255
-140.118 -259.059 -1717 243 250 255
-136.505 -258.729 -1715 244 251 255
-133.055 -258.702 -1715 245 252 255
-129.305 -258.071 -1711 244 251 255
-125.866 -258.045 -1711 245 252 255
-122.285 -257.718 -1709 245 253 251
-118.782 -257.543 -1708 245 253 253
-115.15 -257.067 -1705 244 252 253
-111.661 -256.893 -1704 245 252 254
-108.177 -256.72 -1703 246 253 254
-104.76 -256.698 -1703 245 253 254
-101.106 -256.074 -1699 246 253 254
-97.6406 -255.903 -1698 247 253 255
-94.2914 -256.034 -1699 246 251 255
-90.9924 -256.317 -1701 246 252 255
-87.6347 -256.449 -1702 245 252 255
-84.1746 -256.281 -1701 244 251 255
-80.8142 -256.415 -1702 244 251 255
-77.2686 -255.947 -1699 239 247 255
-73.8661 -255.932 -1699 231 240 252
-70.4641 -255.917 -1699 225 234 250
-66.9838 -255.602 -1697 219 226 242
-63.5119 -255.287 -1695 214 220 237
-59.9777 -254.672 -1691 222 228 241
-56.4936 -254.208 -1688 242 248 255
-53.0218 -253.745 -1685 246 252 255
-49.6803 -253.886 -1686 245 252 255
-46.3627 -254.177 -1688 244 251 255
-43.0119 -254.319 -1689 244 251 255
-39.7046 -254.762 -1692 245 252 255
-36.3211 -254.754 -1692 244 251 255
-32.9963 -255.199 -1695 243 250 255
-29.6074 -255.192 -1695 237 243 250
-26.2496 -255.488 -1697 233 238 246
-22.8571 -255.483 -1697 236 242 248
-19.4992 -255.93 -1700 240 245 251
-16.1107 -256.077 -1701 242 245 252
-12.7331 -256.526 -1704 243 246 253
-9.33808 -256.825 -1706 243 246 252
-5.92476 -256.673 -1705 244 247 253
-2.51401 -256.371 -1703 245 249 254
0.88957 -256.371 -1703 247 252 255
4.2984 -256.672 -1705 247 253 255
7.71075 -256.824 -1706 247 253 255
11.1206 -256.826 -1706 249 252 255
14.5562 -257.28 -1709 248 251 255
18.0143 -257.886 -1713 250 253 255
21.4761 -258.341 -1716 250 253 255
24.921 -258.497 -1717 248 252 255
28.3866 -258.803 -1719 246 252 255
31.8234 -258.809 -1719 248 252 255
35.2604 -258.816 -1719 248 252 255
38.6753 -258.673 -1718 248 252 254
42.1599 -258.983 -1720 248 251 254
45.7059 -259.594 -1724 250 252 254
49.1828 -259.754 -1725 253 253 255
52.664 -259.915 -1726 252 252 254
56.1824 -260.227 -1728 252 252 255
59.6745 -260.39 -1729 251 253 254
63.1713 -260.553 -1730 251 253 254
66.6338 -260.566 -1730 253 253 254
70.1781 -260.881 -1732 253 253 253
73.731 -261.197 -1734 253 253 253
77.2477 -261.363 -1735 253 253 253
80.7228 -261.379 -1735 253 253 253
84.2955 -261.697 -1737 253 253 253
87.9274 -262.167 -1740 253 253 253
91.5723 -262.637 -1743 253 253 253
95.2297 -263.109 -1746 251 253 253
99.0695 -264.033 -1752 251 253 253
102.642 -264.204 -1753 250 252 252
106.34 -264.677 -1756 253 253 253
110.301 -265.755 -1763 253 253 253
114.42 -267.134 -1772 253 253 253
118.843 -269.118 -1785 252 254 255
-235.299 -269.079 -1753 62 68 79
-232.392 -269.797 -1758 140 146 155
-229.076 -270.056 -1760 237 243 245
-226.011 -270.622 -1764 244 251 255
-222.3 -270.422 -1763 246 253 255
-218.596 -270.223 -1762 244 253 254
-215.019 -270.178 -1762 245 254 255
-211.324 -269.98 -1761 243 253 254
-207.281 -269.323 -1757 243 253 255
-203.488 -268.974 -1755 242 253 255
-199.705 -268.626 -1753 239 250 254
-196.043 -268.431 -1752 235 246 254
-192.058 -267.778 -1748 228 238 251
-188.413 -267.585 -1747 226 235 245
-184.351 -266.781 -1742 235 243 252
-180.415 -266.13 -1738 242 249 254
-176.496 -265.481 -1734 241 249 255
-172.994 -265.445 -1734 241 250 255
-169.2 -264.95 -1731 237 247 255
-165.228 -264.15 -1726 236 246 254
-161.558 -263.81 -1724 232 241 250
-157.99 -263.624 -1723 226 235 241
-154.517 -263.591 -1723 226 236 242
-150.87 -263.254 -1721 234 243 252
-147.403 -263.223 -1721 239 247 255
-143.77 -262.887 -1719 240 247 255
-140.229 -262.704 -1718 239 246 254
-136.612 -262.37 -1716 239 246 254
-133.083 -262.189 -1715 239 246 253
-129.407 -261.703 -1712 241 248 255
-125.965 -261.677 -1712 244 251 255
-122.31 -261.193 -1709 244 251 253
-118.876 -261.168 -1709 243 250 253
-115.308 -260.838 -1707 242 249 255
-111.815 -260.662 -1706 243 250 255
-108.327 -260.486 -1705 244 251 255
-104.905 -260.464 -1705 244 251 255
-101.305 -259.984 -1702 246 252 255
-97.8332 -259.811 -1701 246 252 255
-94.4217 -259.791 -1701 245 251 255
-91.0111 -259.772 -1701 245 251 255
-87.5496 -259.601 -1700 243 250 254
-84.1424 -259.583 -1700 243 250 255
-80.6883 -259.414 -1699 243 250 255
-77.1935 -259.092 -1697 243 249 255
-73.7507 -258.924 -1696 236 243 255
-70.3955 -259.061 -1697 229 238 253
-66.958 -258.895 -1696 222 228 245
-63.4874 -258.576 -1694 218 224 241
-59.9546 -257.953 -1690 225 230 243
-56.4716 -257.483 -1687 244 250 255
-53.0326 -257.166 -1685 246 252 255
-49.661 -257.156 -1685 245 252 255
-46.3447 -257.451 -1687 245 252 255
-43.0463 -257.9 -1690 244 251 255
-39.7362 -258.349 -1693 242 249 254
-36.3714 -258.494 -1694 237 244 250
-33.0225 -258.792 -1696 237 244 250
-29.596 -258.48 -1694 238 245 250
-26.2395 -258.779 -1696 239 245 250
-22.8348 -258.622 -1695 243 249 254
-19.4917 -259.228 -1699 245 251 255
-16.0949 -259.224 -1699 248 251 255
-12.7281 -259.831 -1703 249 252 255
-9.33445 -260.134 -1705 248 252 255
-5.92592 -260.133 -1705 248 251 255
-2.51449 -259.827 -1703 248 251 255
0.889968 -259.827 -1703 249 252 255
4.29423 -259.827 -1703 248 253 255
7.69421 -259.676 -1702 248 253 255
11.1033 -259.83 -1703 250 253 255
14.5505 -260.596 -1708 249 252 255
17.9758 -260.752 -1709 249 252 255
21.4428 -261.366 -1713 247 251 255
24.8969 -261.676 -1715 245 250 255
28.3757 -262.139 -1718 245 250 255
31.8297 -262.298 -1719 246 250 254
35.2882 -262.458 -1720 245 249 252
38.7282 -262.465 -1720 245 249 252
42.2176 -262.779 -1722 248 250 253
45.7153 -263.093 -1724 249 251 253
49.1645 -263.103 -1724 251 251 253
52.6444 -263.266 -1725 251 251 253
56.1613 -263.583 -1727 252 252 254
59.6868 -263.9 -1729 251 253 253
63.2208 -264.218 -1731 251 253 253
66.6475 -264.079 -1730 253 253 253
70.233 -264.551 -1733 253 253 253
73.661 -264.413 -1732 253 253 253
77.1747 -264.581 -1733 253 253 253
80.6464 -264.598 -1733 253 253 253
84.2158 -264.92 -1735 252 253 253
87.8445 -265.396 -1738 253 253 253
91.5386 -266.025 -1742 253 253 253
95.1402 -266.35 -1744 251 253 253
98.8638 -266.981 -1748 252 254 254
102.487 -267.307 -1750 250 252 252
106.301 -268.093 -1755 252 252 252
110.198 -269.032 -1761 253 253 253
114.121 -269.972 -1767 253 253 253
118.667 -272.288 -1782 251 253 255
-235.348 -272.661 -1753 65 71 82
-232.441 -273.389 -1758 182 187 196
-228.994 -273.496 -1759 245 251 254
-225.802 -273.914 -1762 245 252 255
-222.221 -273.867 -1762 243 250 255
-218.766 -273.975 -1763 245 253 253
-215.064 -273.774 -1762 245 254 254
-211.249 -273.419 -1760 244 254 254
-207.207 -272.753 -1756 243 253 255
-203.183 -272.089 -1752 242 252 255
-199.291 -271.58 -1749 241 252 255
-195.637 -271.383 -1748 239 250 255
-191.768 -270.877 -1745 237 248 255
-188.021 -270.526 -1743 233 242 251
-184.072 -269.866 -1739 231 239 248
-180.349 -269.518 -1737 234 241 251
-176.431 -268.859 -1733 235 244 254
-172.731 -268.512 -1731 234 243 253
-169.137 -268.321 -1730 236 246 254
-165.358 -267.821 -1727 239 248 255
-161.592 -267.321 -1724 241 251 255
-157.84 -266.823 -1721 244 254 255
-154.28 -266.635 -1720 245 254 255
-150.638 -266.293 -1718 243 252 255
-147.263 -266.416 -1719 243 251 255
-143.633 -266.076 -1717 244 251 255
-140.258 -266.201 -1718 243 250 255
-136.561 -265.707 -1715 242 249 255
-133.033 -265.524 -1714 242 249 254
-129.434 -265.187 -1712 242 249 255
-125.918 -265.005 -1711 243 250 255
-122.264 -264.515 -1708 237 244 251
-118.971 -264.799 -1710 234 240 250
-115.4 -264.464 -1708 230 236 250
-111.904 -264.286 -1707 228 234 249
-108.413 -264.108 -1706 228 234 248
-105.05 -264.24 -1707 229 236 246
-101.386 -263.6 -1703 228 235 246
-97.9111 -263.424 -1702 229 235 247
-94.4413 -263.249 -1701 230 236 250
-91.03 -263.23 -1701 232 239 252
-87.5163 -262.901 -1699 235 242 254
-84.0608 -262.729 -1698 236 243 255
-80.6101 -262.557 -1697 235 241 255
-77.1185 -262.231 -1695 236 243 254
-73.6356 -261.906 -1693 231 237 252
-70.3272 -262.2 -1695 223 230 247
-66.9324 -262.186 -1695 216 222 239
-63.5006 -262.017 -1694 212 218 235
-59.9316 -261.231 -1689 221 227 241
-56.4834 -260.91 -1687 243 249 255
-53.0121 -260.434 -1684 247 252 255
-49.6418 -260.424 -1684 246 253 255
-46.3544 -260.878 -1687 245 252 255
-43.0552 -261.332 -1690 242 249 254
-39.7444 -261.787 -1693 239 246 252
-36.4004 -262.089 -1695 240 247 252
-33.0683 -262.545 -1698 243 250 254
-29.6195 -262.075 -1695 245 251 255
-26.2449 -262.224 -1696 245 251 255
-22.8531 -262.219 -1696 246 252 255
-19.4844 -262.523 -1698 247 253 255
-16.0793 -262.365 -1697 249 252 255
-12.7083 -262.826 -1700 248 252 255
-9.32557 -263.287 -1703 247 252 255
-5.91688 -263.131 -1702 248 251 255
-2.51351 -263.13 -1702 248 251 255
0.889116 -262.976 -1701 247 250 255
4.29027 -262.976 -1701 247 251 255
7.69146 -262.977 -1701 247 251 255
11.1058 -263.289 -1703 247 251 252
14.5367 -263.755 -1706 246 250 252
17.9691 -264.068 -1708 246 249 253
21.4348 -264.69 -1712 244 249 254
24.8876 -265.004 -1714 244 249 254
28.3486 -265.319 -1716 244 248 253
31.8178 -265.635 -1718 245 248 254
35.2545 -265.642 -1718 244 247 253
38.7137 -265.804 -1719 244 248 251
42.1772 -265.967 -1720 247 250 252
45.6718 -266.286 -1722 249 251 253
49.2031 -266.759 -1725 251 251 251
52.5944 -266.461 -1723 252 252 253
56.1405 -266.936 -1726 253 253 255
59.6302 -267.103 -1727 251 253 253
63.1607 -267.425 -1729 251 253 253
66.6613 -267.593 -1730 253 253 253
70.2476 -268.072 -1733 253 253 253
73.7188 -268.087 -1733 253 253 253
77.2352 -268.257 -1734 253 253 253
80.663 -268.119 -1733 252 253 253
84.1848 -268.291 -1734 251 253 253
87.7617 -268.619 -1736 253 253 253
91.5049 -269.411 -1741 253 253 253
95.0508 -269.586 -1742 251 253 253
98.8278 -270.38 -1747 251 253 253
102.45 -270.71 -1749 251 253 253
106.202 -271.351 -1753 253 253 253
109.908 -271.838 -1756 254 254 254
113.821 -272.791 -1762 253 253 253
118.159 -274.673 -1774 250 252 254
122.958 -277.485 -1792 237 240 243
-235.264 -276.088 -1752 74 80 92
-232.49 -276.983 -1758 210 216 226
-229.173 -277.248 -1760 245 251 254
-225.85 -277.515 -1762 245 251 255
-222.142 -277.309 -1761 243 250 254
-218.564 -277.262 -1761 245 252 255
-214.988 -277.216 -1761 244 253 255
-211.174 -276.855 -1759 243 253 255
-207.133 -276.181 -1755 243 253 255
-203.342 -275.822 -1753 244 254 255
-199.447 -275.307 -1750 244 254 255
-195.678 -274.95 -1748 243 254 255
-191.699 -274.28 -1744 242 253 255
-187.953 -273.925 -1742 242 251 255
-183.9 -273.099 -1737 239 248 254
-180.179 -272.746 -1735 235 242 251
-176.367 -272.236 -1732 230 238 251
-172.468 -271.57 -1728 230 239 253
-169.075 -271.691 -1729 230 240 252
-165.393 -271.341 -1727 234 244 254
-161.533 -270.678 -1723 237 247 255
-157.598 -269.858 -1718 241 251 255
-154.223 -269.982 -1719 243 253 255
-150.582 -269.636 -1717 246 253 255
-147.208 -269.761 -1718 246 253 255
-143.663 -269.573 -1717 246 253 255
-140.369 -269.857 -1719 245 252 255
-136.67 -269.357 -1716 245 252 255
-133.138 -269.171 -1715 245 252 255
-129.537 -268.829 -1713 244 251 255
-125.945 -268.488 -1711 243 250 255
-122.29 -267.991 -1708 239 246 255
-118.996 -268.279 -1710 234 241 254
-115.424 -267.941 -1708 231 237 255
-111.927 -267.76 -1707 227 233 254
-108.436 -267.579 -1706 223 229 251
-105.01 -267.557 -1706 221 227 246
-101.407 -267.064 -1703 220 226 245
-97.9892 -267.043 -1703 222 228 245
-94.5168 -266.866 -1702 222 228 247
-91.0492 -266.689 -1701 223 229 248
-87.4832 -266.2 -1698 225 231 250
-84.029 -266.025 -1697 226 232 252
-80.532 -265.694 -1695 227 233 252
-77.0892 -265.521 -1694 228 234 247
-73.6076 -265.191 -1692 227 234 248
-70.3419 -265.646 -1695 224 230 247
-66.8674 -265.318 -1693 218 224 241
-63.4391 -265.148 -1692 214 220 237
-59.9087 -264.508 -1688 219 225 241
-56.4952 -264.339 -1687 238 243 254
-52.9603 -263.544 -1682 241 246 255
-49.6228 -263.69 -1683 241 248 254
-46.3092 -263.993 -1685 242 249 255
-43.0643 -264.767 -1690 242 249 255
-39.7528 -265.228 -1693 242 249 254
-36.3867 -265.377 -1694 245 252 255
-33.0558 -265.839 -1697 245 252 255
-29.6257 -265.519 -1695 243 250 254
-26.266 -265.827 -1697 242 248 253
-22.8578 -265.665 -1696 245 251 255
-19.4884 -265.974 -1698 247 253 255
-16.0921 -265.97 -1698 249 252 255
-12.7185 -266.437 -1701 247 251 255
-9.32198 -266.591 -1702 245 251 255
-5.91807 -266.589 -1702 247 250 255
-2.51421 -266.589 -1702 247 250 255
0.889311 -266.432 -1701 247 249 255
4.29368 -266.589 -1702 245 248 254
7.70209 -266.747 -1703 246 249 255
11.1015 -266.592 -1702 244 247 248
14.5396 -267.222 -1706 244 248 250
17.9833 -267.695 -1709 243 247 250
21.4645 -268.482 -1714 241 247 252
24.8929 -268.487 -1714 242 247 253
28.3711 -268.963 -1717 246 249 255
31.806 -268.969 -1717 245 248 253
35.2824 -269.29 -1719 245 248 253
38.6993 -269.141 -1718 246 250 252
42.1372 -269.149 -1718 248 251 253
45.7079 -269.942 -1723 251 253 255
49.1565 -269.952 -1723 254 254 254
52.6053 -269.963 -1723 253 253 254
56.1523 -270.444 -1726 253 253 255
59.6773 -270.77 -1728 251 253 253
63.2107 -271.097 -1730 251 253 253
66.7141 -271.267 -1731 253 253 253
70.2218 -271.438 -1732 253 253 253
73.6919 -271.454 -1732 253 253 253
77.1179 -271.313 -1731 253 253 253
80.587 -271.33 -1731 252 253 253
84.1539 -271.661 -1733 251 253 253
87.6791 -271.836 -1734 253 253 253
91.4192 -272.639 -1739 253 253 253
95.0162 -272.972 -1741 251 253 253
98.6788 -273.463 -1744 250 252 252
102.296 -273.798 -1746 250 252 252
106.103 -274.604 -1751 253 253 253
109.869 -275.254 -1755 254 254 254
113.845 -276.376 -1762 254 254 254
118.118 -278.126 -1773 251 253 255
122.435 -279.877 -1784 243 246 248
-234.912 -279.193 -1749 106 112 126
-232.144 -280.1 -1755 231 237 248
-228.572 -280.05 -1755 246 252 255
-225.514 -280.639 -1759 246 252 255
-221.938 -280.591 -1759 241 247 253
-218.611 -280.862 -1761 244 251 254
-214.79 -280.496 -1759 245 253 255
-210.859 -279.971 -1756 244 253 255
-206.941 -279.448 -1753 242 252 255
-202.806 -278.606 -1748 242 252 255
-199.034 -278.244 -1746 244 254 255
-195.272 -277.883 -1744 243 253 255
-191.41 -277.363 -1741 241 251 254
-187.67 -277.003 -1739 241 251 255
-183.939 -276.645 -1737 244 253 255
-180.114 -276.127 -1734 240 247 254
-176.201 -275.452 -1730 231 239 252
-172.604 -275.255 -1729 227 236 250
-168.916 -274.9 -1727 225 235 249
-165.333 -274.705 -1726 228 238 252
-161.661 -274.351 -1724 232 242 254
-157.723 -273.521 -1719 236 245 254
-154.166 -273.328 -1718 237 246 254
-150.615 -273.136 -1717 239 246 254
-147.068 -272.945 -1716 241 248 255
-143.61 -272.914 -1716 242 249 255
-140.317 -273.201 -1718 243 250 255
-136.699 -272.853 -1716 244 251 255
-133.089 -272.506 -1714 244 251 255
-129.413 -272.001 -1711 243 250 255
-125.898 -271.815 -1710 242 249 255
-122.316 -271.47 -1708 239 246 255
-118.951 -271.603 -1709 234 240 254
-115.449 -271.419 -1708 232 238 254
-111.951 -271.235 -1707 232 238 255
-108.522 -271.212 -1707 232 238 255
-105.033 -271.03 -1706 233 239 254
