ply
format ascii 1.0
comment Created by Open3D
element vertex 1534
property double x
property double y
property double z
property uchar red
property uchar green
property uchar blue
end_header
-8.88927 105.973 -1634 47 63 99
-5.62277 105.583 -1628 51 68 105
-2.38014 105.194 -1622 51 68 106
0.839668 104.934 -1618 43 61 101
4.03608 104.481 -1611 35 53 92
7.2092 104.092 -1605 36 54 92
10.3456 103.574 -1597 39 56 94
13.4757 103.251 -1592 37 54 92
16.5964 102.992 -1588 41 56 90
19.7139 102.8 -1585 40 55 87
22.8054 102.542 -1581 37 51 82
25.9466 102.544 -1581 35 49 78
29.0696 102.482 -1580 34 48 76
32.1481 102.29 -1577 39 51 76
35.282 102.293 -1577 39 51 74
38.3919 102.231 -1576 39 51 74
41.4454 102.04 -1573 39 48 72
44.5156 101.914 -1571 37 46 69
47.6389 101.918 -1571 36 44 66
50.6981 101.792 -1569 38 46 68
53.7839 101.732 -1568 40 48 70
56.9388 101.802 -1569 40 48 70
60.0215 101.742 -1568 36 43 65
63.1814 101.812 -1569 36 42 64
66.2611 101.753 -1568 36 42 64
69.5143 101.954 -1571 34 40 63
72.6415 101.96 -1571 37 42 67
75.7691 101.966 -1571 37 45 69
78.9476 102.038 -1572 39 47 71
82.1308 102.11 -1573 36 47 75
85.3184 102.182 -1574 31 42 69
88.4548 102.19 -1574 31 43 68
91.708 102.328 -1576 32 46 75
94.9701 102.466 -1578 39 54 83
98.2409 102.604 -1580 40 57 88
101.392 102.613 -1580 39 56 85
104.676 102.752 -1582 36 53 81
107.901 102.826 -1583 33 47 76
110.991 102.77 -1582 31 43 68
114.294 102.91 -1584 30 40 62
117.383 102.855 -1583 28 37 61
120.546 102.866 -1583 25 34 58
123.631 102.812 -1582 26 35 61
126.793 102.822 -1582 35 46 73
129.793 102.704 -1580 40 51 79
132.869 102.65 -1579 39 50 80
135.943 102.597 -1578 43 55 86
139.013 102.544 -1577 44 57 90
142.261 102.621 -1578 44 62 96
145.422 102.634 -1578 43 61 96
148.867 102.842 -1581 44 62 98
152.324 103.05 -1584 44 62 102
156.286 103.584 -1592 50 68 108
160.582 104.314 -1603 52 72 112
165.23 105.24 -1617 54 75 119
171.186 106.947 -1643 56 77 122
176.504 108.199 -1662 57 79 122
181.251 109.061 -1675 54 77 121
185.72 109.728 -1685 56 80 124
190.456 110.526 -1697 61 81 126
195.242 111.325 -1709 62 84 129
199.496 111.798 -1716 62 86 132
203.426 112.077 -1720 52 79 127
207.253 112.29 -1723 48 75 122
210.36 112.113 -1720 50 78 123
212.834 111.61 -1712 58 81 121
-22.0055 103.353 -1644 68 81 109
-18.7396 103.351 -1644 57 72 103
-15.4458 103.161 -1641 48 63 97
-12.1564 102.909 -1637 47 62 97
-8.8722 102.531 -1631 48 63 99
-5.61884 102.279 -1627 47 63 100
-2.37848 101.901 -1621 50 67 103
0.839591 101.713 -1618 40 58 98
4.03823 101.336 -1612 35 53 92
7.21307 100.959 -1606 36 54 92
10.3512 100.457 -1598 40 57 95
13.483 100.143 -1593 38 55 93
16.6159 99.9561 -1590 42 57 91
19.7495 99.8319 -1588 41 55 88
22.8609 99.6451 -1585 35 49 80
25.9936 99.5843 -1584 34 48 77
29.1039 99.4608 -1582 35 49 77
32.1861 99.2748 -1579 36 48 73
35.3014 99.2148 -1578 39 51 75
38.4373 99.218 -1578 41 53 76
41.4945 99.0327 -1575 40 49 73
44.5968 98.9735 -1574 39 48 71
47.6955 98.9145 -1573 40 48 70
50.7582 98.7929 -1571 35 43 65
53.8136 98.6715 -1569 38 46 68
56.9339 98.6763 -1569 41 49 71
60.0546 98.6812 -1569 36 43 65
63.2161 98.7493 -1570 36 42 64
66.3399 98.7548 -1570 36 42 64
69.5527 98.8863 -1572 35 41 64
72.6814 98.8924 -1572 37 43 67
75.8591 98.9616 -1573 38 46 70
78.9911 98.9682 -1573 38 46 70
82.1758 99.0378 -1574 34 45 73
85.3654 99.1079 -1575 31 43 69
88.5032 99.1153 -1575 32 44 69
91.7584 99.2488 -1577 35 49 78
95.0822 99.4454 -1580 41 56 85
98.2945 99.5166 -1581 40 57 88
101.576 99.651 -1583 40 55 85
104.8 99.7227 -1584 37 52 81
108.028 99.7947 -1585 32 46 73
111.122 99.741 -1584 29 41 66
114.356 99.8136 -1585 30 39 63
117.447 99.7604 -1584 29 38 62
120.535 99.7075 -1583 23 32 57
123.542 99.5919 -1581 26 35 61
126.622 99.5395 -1580 35 46 74
129.617 99.4244 -1578 42 53 81
132.773 99.4355 -1578 41 52 82
135.845 99.3839 -1577 46 58 89
139.089 99.4586 -1578 47 61 92
142.249 99.4706 -1578 47 64 98
145.409 99.4828 -1578 46 64 98
148.76 99.6214 -1580 46 64 100
152.311 99.8864 -1584 47 65 105
156.175 100.341 -1591 53 71 111
160.468 101.048 -1602 55 75 115
165.114 101.945 -1616 55 76 119
171.067 103.6 -1642 54 75 120
176.595 104.94 -1663 53 75 118
181.019 105.586 -1673 52 75 118
185.594 106.296 -1684 55 78 122
190.552 107.196 -1698 58 78 122
195.454 108.033 -1711 60 82 127
199.712 108.492 -1718 60 84 130
203.645 108.762 -1722 53 80 127
207.355 108.906 -1724 50 76 123
210.708 108.86 -1723 49 75 121
212.692 108.12 -1711 58 80 120
-22.0036 100.08 -1644 60 72 101
-18.7381 100.079 -1644 48 63 94
-15.4257 99.7728 -1639 45 61 95
-12.1554 99.6499 -1637 50 65 100
-8.87691 99.3447 -1632 51 64 101
-5.62183 99.1006 -1628 44 59 96
-2.38122 98.796 -1623 51 67 103
0.838997 98.4307 -1617 40 59 98
4.03789 98.1265 -1612 37 56 94
7.21696 97.8226 -1607 40 58 94
10.3697 97.4581 -1601 40 58 95
13.5072 97.1547 -1596 39 57 93
16.6354 96.9124 -1592 41 57 90
19.7728 96.7922 -1590 39 54 86
22.8734 96.5505 -1586 34 49 80
26.0076 96.4915 -1585 34 48 77
29.1199 96.3721 -1583 36 50 78
32.2038 96.192 -1580 36 49 74
35.3208 96.1338 -1579 40 52 76
38.4341 96.076 -1578 41 53 76
41.5174 95.9575 -1576 41 50 74
44.6214 95.9002 -1575 42 51 74
47.7522 95.9039 -1575 42 50 72
50.7863 95.7252 -1572 34 42 63
53.8778 95.6687 -1571 37 45 66
57.038 95.7341 -1572 42 50 72
60.1262 95.678 -1571 37 44 66
63.2511 95.683 -1571 35 43 65
66.4188 95.7493 -1572 35 40 64
69.5911 95.8157 -1573 33 38 62
72.6754 95.7607 -1572 35 42 66
75.9009 95.8886 -1574 37 46 70
78.9845 95.8341 -1573 37 46 70
82.169 95.9016 -1574 32 45 74
85.3039 95.9084 -1574 32 45 71
88.4959 95.9765 -1575 34 46 71
91.7506 96.1057 -1577 37 51 80
95.1345 96.3572 -1581 42 57 86
98.4108 96.4871 -1583 40 57 88
101.631 96.5562 -1584 41 56 85
104.923 96.6867 -1586 38 53 81
108.088 96.6954 -1586 30 43 70
111.183 96.6434 -1585 26 37 63
114.347 96.6527 -1585 27 36 61
117.438 96.6012 -1584 27 36 60
120.525 96.55 -1583 26 35 60
123.532 96.4381 -1581 30 39 64
126.612 96.3873 -1580 36 46 74
129.606 96.2759 -1578 40 51 79
132.846 96.3476 -1579 45 56 88
135.919 96.2977 -1578 48 60 92
139.077 96.309 -1578 48 61 93
142.327 96.3816 -1579 48 65 99
145.489 96.3935 -1579 48 65 99
148.747 96.4667 -1580 48 66 101
152.299 96.7233 -1584 49 67 106
155.965 97.0413 -1589 54 73 112
159.954 97.5429 -1597 55 76 114
165.815 99.1445 -1623 56 77 121
171.261 100.441 -1644 55 76 121
176.368 101.494 -1661 50 72 115
181.328 102.426 -1676 51 72 117
186.13 103.235 -1689 56 77 121
190.648 103.862 -1699 60 80 124
194.98 104.367 -1707 62 83 128
199.462 104.934 -1716 60 84 130
203.273 105.134 -1719 54 80 126
206.736 105.151 -1719 52 78 124
210.446 105.291 -1721 48 74 120
213.047 104.88 -1714 48 69 109
213.474 103.429 -1690 43 62 99
-22.042 96.9848 -1647 55 67 96
-18.7252 96.7476 -1643 47 62 93
-15.4337 96.5697 -1640 42 59 93
-12.1544 96.3919 -1637 46 62 96
-8.88708 96.2144 -1634 50 63 100
-5.61793 95.8017 -1627 41 54 91
-2.38397 95.6836 -1625 48 62 99
0.839963 95.3303 -1619 37 58 95
4.03506 94.8594 -1611 37 57 93
7.21638 94.6243 -1607 42 60 96
10.3624 94.2128 -1600 41 59 95
13.5146 94.0372 -1597 39 57 92
16.655 93.8617 -1594 38 55 87
19.796 93.7454 -1592 37 53 85
22.9004 93.5115 -1588 36 51 82
26.0219 93.3956 -1586 35 49 78
29.1175 93.2211 -1583 33 47 76
32.1808 92.988 -1579 36 50 76
35.2732 92.8729 -1577 40 53 77
38.3823 92.817 -1576 40 52 76
41.4878 92.7612 -1575 40 49 73
44.5895 92.7058 -1574 43 52 75
47.6877 92.6505 -1573 43 51 74
50.75 92.5366 -1571 37 45 66
53.8733 92.5408 -1571 41 49 70
56.9972 92.5451 -1571 44 52 74
60.1214 92.5498 -1571 37 45 68
63.2863 92.6136 -1572 35 43 65
66.4134 92.6187 -1572 35 40 65
69.5411 92.6241 -1572 32 38 62
72.7158 92.6887 -1573 34 42 66
75.8466 92.6946 -1573 36 45 69
78.9278 92.6418 -1572 37 46 70
82.1624 92.766 -1574 32 46 75
85.2971 92.7727 -1574 32 45 72
88.6012 92.9565 -1577 36 48 73
91.8596 93.0814 -1579 37 50 79
95.3074 93.3837 -1584 43 57 87
98.527 93.4503 -1585 42 58 89
101.816 93.5762 -1587 42 57 85
104.981 93.5845 -1587 37 52 79
108.215 93.6519 -1588 30 41 69
111.314 93.6016 -1587 27 37 64
114.482 93.6105 -1587 26 35 61
117.502 93.5018 -1585 27 36 60
120.515 93.3933 -1583 31 40 64
123.444 93.226 -1580 36 45 69
126.441 93.1178 -1578 39 49 77
129.596 93.1281 -1578 41 52 80
132.752 93.1385 -1578 47 58 90
135.908 93.1492 -1578 47 59 91
139.154 93.2192 -1579 48 61 94
142.315 93.2303 -1579 48 65 98
145.478 93.2418 -1579 48 66 99
148.735 93.3126 -1580 50 69 102
152.286 93.5608 -1584 51 69 106
156.051 93.9275 -1590 55 73 111
160.041 94.4128 -1598 55 76 113
165.086 95.4893 -1616 56 77 120
170.934 96.9801 -1641 55 76 121
176.884 98.4714 -1666 50 71 116
181.205 99.0178 -1675 51 72 116
185.894 99.7419 -1687 55 76 120
190.633 100.466 -1699 60 80 124
195.307 101.132 -1710 61 83 128
199.562 101.562 -1717 59 83 128
203.729 101.933 -1723 53 79 125
207.2 101.95 -1723 51 77 122
210.307 101.789 -1720 51 77 121
213.029 101.451 -1714 57 78 116
214.467 100.521 -1698 57 76 112
-25.1732 93.1972 -1638 68 76 100
-22.027 93.6505 -1646 53 65 93
-18.7351 93.5352 -1644 46 61 92
-15.4514 93.4201 -1642 41 58 92
-12.1535 93.1346 -1637 47 62 97
-8.8864 92.9631 -1634 48 61 96
-5.62441 92.6781 -1629 42 56 92
-2.38672 92.564 -1627 42 56 93
0.84093 92.2226 -1621 37 58 95
4.03975 91.7676 -1613 37 57 93
7.20683 91.3129 -1605 41 59 95
10.3616 91.0291 -1600 42 60 94
13.4967 90.7456 -1595 41 59 93
16.6328 90.5761 -1592 38 55 87
19.7821 90.5206 -1591 37 53 84
22.8987 90.3516 -1588 38 53 84
26.0363 90.2965 -1587 37 51 80
29.1335 90.128 -1584 33 47 76
32.1987 89.9027 -1580 36 50 77
35.2929 89.7915 -1578 40 52 78
38.4037 89.7374 -1577 40 52 77
41.4846 89.6266 -1575 39 48 72
44.5861 89.5731 -1574 40 48 72
47.6537 89.4628 -1572 39 47 71
50.746 89.4096 -1571 38 46 68
53.8348 89.3567 -1570 42 50 72
56.92 89.304 -1569 42 50 74
60.0785 89.3654 -1570 36 44 67
63.2814 89.484 -1572 33 41 65
66.4506 89.5458 -1573 37 42 67
69.6242 89.608 -1574 34 40 65
72.8026 89.6704 -1575 35 43 67
75.9371 89.6761 -1575 36 45 69
79.0221 89.6251 -1574 37 46 70
82.2083 89.6883 -1575 32 46 75
85.3989 89.7516 -1576 34 47 74
88.6504 89.8722 -1578 39 51 76
91.9688 90.0499 -1581 38 52 81
95.2998 90.228 -1584 42 56 85
98.5194 90.2924 -1585 43 58 88
101.808 90.4141 -1587 43 57 84
105.039 90.4789 -1588 37 51 78
108.207 90.4871 -1588 31 42 70
111.375 90.4956 -1588 29 38 65
114.545 90.5042 -1588 27 35 61
117.493 90.3421 -1585 28 37 61
120.354 90.1233 -1581 32 40 64
123.356 90.0186 -1579 37 46 70
126.351 89.9142 -1577 40 49 76
129.504 89.924 -1577 43 52 80
132.741 89.9912 -1578 45 56 88
135.984 90.0585 -1579 46 58 90
139.144 90.0691 -1579 49 63 94
142.394 90.1369 -1580 47 64 96
145.466 90.091 -1579 47 65 97
148.723 90.1594 -1580 49 68 101
151.986 90.228 -1581 50 68 104
155.646 90.5252 -1586 53 71 108
160.229 91.3365 -1600 56 77 114
165.789 92.6621 -1623 57 78 121
171.963 94.2738 -1651 55 76 121
177.083 95.2581 -1668 49 70 114
181.515 95.8431 -1678 51 72 116
185.99 96.4285 -1688 54 76 119
190.393 96.9571 -1697 58 78 122
195.406 97.7719 -1711 59 80 124
199.547 98.1301 -1717 55 79 123
203.122 98.2028 -1718 49 75 121
207.305 98.5616 -1724 49 75 120
210.412 98.4063 -1721 51 77 121
213.51 98.251 -1718 59 80 117
214.324 97.0665 -1697 68 87 122
-25.2174 90.1032 -1641 63 71 95
-22.0655 90.5407 -1649 52 64 93
-18.7565 90.3745 -1646 48 62 93
-15.4785 90.3183 -1645 44 61 95
-12.16 89.933 -1638 48 64 98
-8.89662 89.8224 -1636 46 59 94
-5.62745 89.4924 -1630 46 61 97
-2.38361 89.2176 -1625 43 58 95
0.840344 88.9431 -1620 38 57 95
4.03444 88.4491 -1611 37 56 93
7.2018 88.0652 -1604 40 58 94
10.3414 87.6816 -1597 43 61 96
13.4787 87.4628 -1593 41 59 92
16.6316 87.409 -1592 35 52 84
19.7806 87.3555 -1591 33 49 81
22.9402 87.357 -1591 36 51 82
26.0508 87.1941 -1588 39 53 81
29.1497 87.0314 -1585 38 52 80
32.2165 86.814 -1581 39 53 80
35.3348 86.7616 -1580 40 52 78
38.4252 86.6546 -1578 37 49 74
41.5078 86.5477 -1576 38 47 72
44.6111 86.4959 -1575 38 47 71
47.7108 86.4444 -1574 38 46 70
50.7423 86.2833 -1571 38 47 70
53.8651 86.2871 -1571 41 50 73
56.952 86.2363 -1570 43 51 75
60.0738 86.2406 -1570 40 48 72
63.2767 86.3551 -1572 41 49 73
66.4878 86.4698 -1574 42 47 72
69.619 86.4748 -1574 36 42 66
72.7507 86.4801 -1574 36 44 68
75.9315 86.5405 -1575 36 45 69
79.0162 86.4913 -1574 36 45 69
82.2541 86.6072 -1576 32 46 75
85.5009 86.7232 -1578 32 45 72
88.8123 86.8946 -1581 38 51 76
92.1363 87.0662 -1584 43 55 85
95.413 87.183 -1586 44 57 86
98.6364 87.2452 -1587 45 59 88
101.928 87.3626 -1589 44 57 84
105.097 87.3702 -1589 36 49 75
108.267 87.3781 -1589 30 41 69
111.437 87.3863 -1589 30 40 66
114.608 87.3947 -1589 29 37 63
117.558 87.2383 -1586 29 37 61
120.421 87.0271 -1582 33 41 65
123.347 86.871 -1579 37 46 70
126.181 86.6602 -1575 39 48 76
129.412 86.7247 -1576 44 53 82
132.647 86.7895 -1577 44 55 86
135.887 86.8544 -1578 45 57 88
139.045 86.8647 -1578 47 59 91
142.294 86.9301 -1579 46 62 94
145.455 86.9408 -1579 47 64 97
148.618 86.9518 -1579 48 66 101
152.263 87.2383 -1584 49 67 104
155.732 87.4149 -1587 50 68 105
160.016 88.0327 -1598 54 74 111
165.163 89.0915 -1617 58 78 121
171.221 90.5917 -1644 60 80 125
177.069 91.9272 -1668 53 75 118
181.826 92.6571 -1681 51 73 116
186.196 93.1669 -1690 52 74 117
190.603 93.6771 -1699 57 77 121
194.934 94.1326 -1707 58 79 123
199.88 94.8643 -1720 54 78 122
203.816 95.0999 -1724 48 74 120
207.409 95.1705 -1725 49 75 121
210.763 95.1309 -1724 52 78 122
213.866 94.9811 -1721 60 79 116
214.433 93.7276 -1698 49 66 101
-25.231 86.8921 -1642 61 69 93
-22.0905 87.3667 -1651 50 62 90
-18.8121 87.3653 -1651 49 63 94
-15.4962 87.1524 -1647 48 63 97
-12.1962 86.9398 -1643 48 63 97
-8.90686 86.6744 -1638 45 59 94
-5.6305 86.3035 -1631 48 65 100
-2.38785 86.1445 -1628 42 59 95
0.839241 85.6153 -1618 39 57 95
4.03665 85.298 -1612 39 56 94
7.19679 84.8222 -1603 42 59 95
10.3342 84.4524 -1596 44 61 96
13.4693 84.2416 -1592 42 59 93
16.6199 84.1898 -1591 40 57 89
19.7543 84.0852 -1589 40 56 87
22.9241 84.1396 -1590 41 56 87
26.0489 84.0356 -1588 40 54 81
29.166 83.9317 -1586 38 52 79
32.2549 83.7751 -1583 39 53 80
35.3546 83.6716 -1581 40 52 78
38.4224 83.5155 -1578 38 50 75
41.5311 83.4654 -1577 40 49 75
44.6645 83.4684 -1577 40 48 74
47.7073 83.313 -1574 39 47 71
50.8355 83.3165 -1574 42 50 74
53.964 83.3202 -1574 42 51 75
57.0205 83.2184 -1572 44 52 76
60.1842 83.2755 -1573 43 51 75
63.4331 83.4387 -1576 43 51 75
66.5675 83.4433 -1576 44 49 74
69.6582 83.3952 -1575 38 44 69
72.7917 83.4003 -1575 37 45 69
75.974 83.4585 -1576 38 47 71
79.0607 83.4111 -1575 37 46 70
82.3004 83.5228 -1577 33 47 76
85.6029 83.6877 -1580 32 46 73
88.9744 83.9057 -1584 36 50 75
92.246 84.0182 -1586 46 57 86
95.5866 84.1838 -1589 46 57 87
98.7534 84.1907 -1589 44 58 87
102.049 84.3038 -1591 40 53 79
105.156 84.2582 -1590 33 45 70
108.327 84.2659 -1590 29 41 66
111.499 84.2737 -1590 29 39 64
114.528 84.1758 -1588 28 36 62
117.55 84.0781 -1586 26 34 58
120.412 83.8745 -1582 28 36 60
123.338 83.7242 -1579 33 42 66
126.252 83.574 -1576 37 46 75
129.402 83.5831 -1576 43 52 82
132.637 83.6455 -1577 42 53 83
135.878 83.7081 -1578 42 53 84
139.123 83.771 -1579 45 56 88
142.373 83.8341 -1580 46 61 93
145.445 83.7914 -1579 48 64 98
148.607 83.8019 -1579 49 67 103
152.156 84.0249 -1583 50 68 106
155.623 84.1952 -1586 49 67 105
159.905 84.7905 -1597 54 72 110
164.947 85.7579 -1615 59 79 121
171.729 87.5755 -1649 63 83 127
176.844 88.4909 -1666 55 77 119
181.921 89.3537 -1682 49 70 113
186.292 89.8451 -1691 49 70 114
191.038 90.4962 -1703 55 75 119
195.263 90.8821 -1710 59 81 125
199.401 91.2152 -1716 57 81 125
203.565 91.5486 -1722 53 79 124
207.514 91.7761 -1726 53 79 123
210.381 91.5252 -1721 53 78 121
213.602 91.434 -1719 58 77 114
214.165 90.2259 -1696 48 65 99
-25.2137 83.5759 -1641 64 72 96
-22.0756 84.0325 -1650 51 63 91
-18.7766 83.9295 -1648 50 64 95
-15.4857 83.8264 -1646 48 63 97
-12.188 83.6217 -1642 45 59 94
-8.9008 83.3664 -1637 42 55 90
-5.63011 83.0603 -1631 44 60 95
-2.38475 82.8054 -1626 38 55 90
0.839179 82.398 -1618 37 55 93
4.02885 81.9398 -1609 40 57 95
7.18281 81.4819 -1600 42 59 95
10.3205 81.1769 -1594 42 59 93
13.4599 81.0249 -1591 39 56 90
16.6188 81.026 -1591 39 56 88
19.7653 80.9763 -1590 40 56 88
22.9369 81.0288 -1591 39 54 85
26.0635 80.9285 -1589 38 52 79
29.2007 80.8796 -1588 37 51 78
32.2934 80.7288 -1585 37 51 78
35.3745 80.5783 -1582 37 50 76
38.4682 80.479 -1580 37 49 74
41.6072 80.4818 -1580 39 48 74
44.6897 80.3828 -1578 39 48 73
47.7949 80.335 -1577 40 48 72
50.8965 80.2875 -1576 40 49 73
53.9603 80.1892 -1574 40 49 73
57.0528 80.1421 -1573 44 52 76
60.18 80.1461 -1573 42 50 74
63.4285 80.3031 -1576 39 47 71
66.5207 80.2567 -1575 40 45 70
69.6976 80.3123 -1576 37 43 67
72.8329 80.3172 -1576 36 44 68
76.017 80.3733 -1577 36 45 69
79.055 80.2766 -1575 35 44 68
82.3469 80.4351 -1578 32 47 76
85.6511 80.5938 -1581 34 49 76
89.0244 80.8036 -1585 37 51 78
92.3559 80.9629 -1588 43 54 82
95.7001 81.1222 -1591 43 55 83
98.8708 81.1289 -1591 38 52 80
102.106 81.1869 -1592 32 44 70
105.281 81.1939 -1592 27 39 64
108.456 81.2013 -1592 26 38 63
111.631 81.2089 -1592 27 36 62
114.736 81.1657 -1591 30 35 62
117.616 80.9695 -1587 27 35 59
120.404 80.7226 -1582 29 37 61
123.329 80.5778 -1579 34 43 67
126.243 80.4333 -1576 40 49 77
129.393 80.4421 -1576 42 52 82
132.544 80.4512 -1576 42 54 84
135.868 80.5625 -1578 42 54 85
139.201 80.674 -1580 45 56 88
142.273 80.6327 -1579 45 60 92
145.527 80.6937 -1580 45 61 95
148.879 80.806 -1582 46 64 100
152.337 80.9696 -1585 50 68 105
155.808 81.1334 -1588 49 67 105
160.194 81.7575 -1600 54 72 110
165.242 82.6886 -1618 58 78 120
171.3 84.0801 -1645 61 81 125
176.619 85.0633 -1664 56 78 119
181.692 85.8936 -1680 50 71 113
186.059 86.3665 -1689 50 70 114
190.8 86.9932 -1701 56 76 120
195.021 87.3646 -1708 60 82 126
199.271 87.7362 -1715 57 81 125
203.314 88.0059 -1720 54 80 124
207.139 88.1736 -1723 53 79 122
210.488 88.1369 -1722 54 77 120
213.711 88.0493 -1720 64 82 118
-25.2582 80.4601 -1644 69 77 101
-22.1143 80.899 -1653 54 66 94
-18.8095 80.7998 -1651 51 65 96
-15.4941 80.603 -1647 50 65 99
-12.1946 80.4063 -1643 45 59 94
-8.90021 80.112 -1637 42 54 89
-5.63319 79.8668 -1632 42 57 91
-2.3846 79.5729 -1626 38 54 88
0.839118 79.1814 -1618 39 58 96
4.02607 78.6922 -1608 44 62 99
7.18682 78.35 -1601 43 61 97
10.3263 78.0569 -1595 39 56 90
13.4674 77.9109 -1592 36 53 87
16.6281 77.9119 -1592 35 53 84
19.7765 77.8641 -1591 37 54 85
22.9498 77.9145 -1592 37 52 83
26.111 77.9161 -1592 38 52 79
29.2355 77.8201 -1590 37 51 78
32.332 77.6752 -1587 33 47 74
35.4615 77.6285 -1586 35 48 74
38.5387 77.4842 -1583 38 50 75
41.6306 77.3889 -1581 39 48 74
44.7717 77.3917 -1581 39 47 73
47.8826 77.3458 -1580 39 47 71
51.0223 77.3491 -1580 39 48 71
54.0595 77.2056 -1577 37 46 70
57.1941 77.2093 -1577 40 48 72
60.329 77.2132 -1577 42 50 74
63.545 77.3152 -1579 40 48 72
66.6427 77.2705 -1578 39 44 70
69.8256 77.324 -1579 36 42 67
72.9204 77.2797 -1578 35 43 67
76.0601 77.2846 -1578 35 45 68
79.1501 77.2407 -1577 34 44 68
82.4457 77.3931 -1580 32 47 76
85.6996 77.4965 -1582 36 50 78
89.0744 77.6983 -1586 41 55 82
92.466 77.9002 -1590 41 54 81
95.7539 78.0045 -1592 41 54 81
98.9262 78.0109 -1592 36 50 77
102.164 78.0665 -1593 30 42 68
105.34 78.0733 -1593 27 38 64
108.448 78.0314 -1592 26 37 63
111.554 77.9897 -1591 28 35 62
114.729 77.997 -1591 30 35 62
117.608 77.8086 -1587 27 35 59
120.396 77.5714 -1582 31 39 63
123.321 77.4323 -1579 36 45 69
126.235 77.2934 -1576 43 52 81
129.22 77.2037 -1574 45 54 84
132.451 77.2614 -1575 43 57 87
135.773 77.3684 -1577 43 56 87
139.016 77.4266 -1578 46 57 89
142.354 77.534 -1580 46 61 93
145.517 77.5436 -1580 48 64 97
148.869 77.6515 -1582 48 66 101
152.327 77.8087 -1585 49 67 105
155.896 78.0153 -1589 49 67 105
160.283 78.615 -1601 52 70 108
164.924 79.3133 -1615 58 78 120
171.08 80.6996 -1643 60 80 124
176.289 81.5953 -1661 54 76 117
182.004 82.688 -1683 52 73 114
186.377 83.1423 -1692 53 73 115
191.124 83.7445 -1704 57 77 121
194.893 83.9049 -1707 56 79 123
199.257 84.3111 -1715 52 78 122
203.064 84.472 -1718 51 77 121
206.283 84.3873 -1716 52 77 120
209.863 84.4503 -1717 54 77 120
213.076 84.366 -1715 67 83 118
-25.2412 77.1453 -1643 70 78 102
-22.0995 77.5664 -1652 59 71 99
-18.7855 77.4242 -1649 55 69 100
-15.5025 77.3762 -1648 49 66 100
-12.1864 77.0936 -1642 43 58 92
-8.89421 76.8112 -1636 42 53 88
-5.62938 76.5761 -1631 39 54 88
-2.38298 76.2941 -1625 37 52 86
0.838023 75.8715 -1616 38 59 96
4.02831 75.543 -1609 45 64 101
7.19084 75.2147 -1602 43 61 97
10.3321 74.9336 -1596 40 58 91
13.4919 74.8874 -1595 36 55 87
16.6688 74.9353 -1596 34 53 83
19.8125 74.8425 -1594 35 52 83
23.006 74.9378 -1596 36 51 82
26.1585 74.8924 -1595 38 52 79
29.3072 74.8472 -1594 37 51 78
32.3707 74.6143 -1589 35 49 76
35.504 74.5695 -1588 37 49 75
38.5606 74.384 -1584 39 51 76
41.7069 74.3865 -1584 40 49 75
44.8254 74.3424 -1583 39 48 73
47.9402 74.2983 -1582 40 48 72
51.0836 74.3015 -1582 33 43 64
54.1589 74.2108 -1580 33 42 64
57.2629 74.1674 -1579 38 46 70
60.3634 74.1241 -1578 41 49 73
63.5812 74.222 -1580 39 47 71
66.6384 74.1322 -1578 35 43 69
69.821 74.1835 -1579 32 40 65
72.962 74.1879 -1579 34 42 66
76.0552 74.1457 -1578 32 43 66
79.1952 74.1506 -1578 33 45 68
82.4924 74.2966 -1581 33 48 77
85.7482 74.396 -1583 37 51 79
89.1248 74.5895 -1587 41 55 82
92.5181 74.7832 -1591 38 52 79
95.8079 74.8833 -1593 37 51 78
99.0441 74.9364 -1594 34 48 75
102.285 74.9898 -1595 32 43 69
105.465 74.9964 -1595 28 37 63
108.578 74.9561 -1594 26 35 61
111.687 74.9161 -1593 28 35 62
114.793 74.8763 -1592 28 33 62
117.674 74.6954 -1588 25 33 57
120.54 74.5148 -1584 29 37 61
123.391 74.3344 -1580 34 43 67
126.227 74.1541 -1576 44 53 81
129.294 74.1152 -1575 49 58 88
132.442 74.1234 -1575 48 62 93
135.764 74.2261 -1577 49 61 92
139.007 74.2818 -1578 49 60 92
142.254 74.3379 -1579 46 61 93
145.599 74.4412 -1581 48 65 97
148.953 74.5447 -1583 50 69 102
152.605 74.7898 -1588 47 65 101
156.18 74.9879 -1592 49 67 104
160.373 75.4691 -1602 50 68 106
165.016 76.139 -1616 58 77 119
171.173 77.469 -1644 60 80 124
176.914 78.5639 -1667 54 76 118
181.127 78.9524 -1675 50 71 113
186.365 79.7655 -1692 52 72 114
190.887 80.249 -1702 56 76 120
194.766 80.4498 -1706 55 78 122
198.663 80.651 -1710 49 75 119
202.696 80.8996 -1715 48 74 118
206.15 80.9127 -1715 52 77 121
209.483 80.8788 -1714 57 80 123
-25.2396 73.88 -1643 69 77 103
-22.058 74.1483 -1649 62 74 103
-18.7616 74.0572 -1647 58 72 103
-15.4827 74.0112 -1646 50 66 100
-12.1708 73.7406 -1640 40 55 89
-8.89367 73.5601 -1636 41 53 89
-5.63249 73.3798 -1632 39 54 89
-2.38137 73.0198 -1624 34 50 84
0.837968 72.6601 -1616 35 56 92
4.02305 72.2556 -1607 41 61 97
7.19489 72.0761 -1603 42 60 96
10.3444 71.8518 -1598 39 56 88
13.508 71.8076 -1597 38 55 86
16.6887 71.8534 -1598 33 52 82
19.8361 71.7646 -1596 34 51 81
23.019 71.8109 -1597 40 55 86
26.1733 71.7674 -1596 42 55 82
29.3054 71.6791 -1594 38 51 78
32.389 71.5011 -1590 37 50 77
35.5018 71.4132 -1588 38 50 76
38.5825 71.2806 -1585 37 49 74
41.7043 71.238 -1584 37 46 70
44.8791 71.2856 -1585 37 46 70
47.9673 71.1984 -1583 35 44 68
51.145 71.2465 -1584 35 44 67
54.2584 71.2047 -1583 31 40 63
57.3682 71.1631 -1582 40 49 73
60.4362 71.0767 -1580 42 51 75
63.6175 71.1254 -1581 40 49 73
66.8032 71.1744 -1582 38 46 72
69.9493 71.1785 -1582 32 40 66
73.0499 71.1378 -1581 36 44 68
76.1951 71.1423 -1581 33 45 70
79.2907 71.102 -1580 34 47 73
82.4873 71.1519 -1581 35 50 80
85.7428 71.247 -1583 35 50 78
89.1755 71.4773 -1588 36 50 77
92.5705 71.6629 -1592 39 53 79
95.9223 71.8037 -1595 39 53 79
99.1001 71.8096 -1595 35 49 78
102.343 71.8607 -1596 32 42 68
105.525 71.8671 -1596 30 39 64
108.639 71.8285 -1595 28 37 62
111.61 71.7 -1592 25 32 59
114.714 71.6619 -1591 26 32 60
117.667 71.5338 -1588 22 30 54
120.609 71.4059 -1585 29 37 62
123.383 71.188 -1580 34 42 68
126.379 71.1055 -1578 43 52 81
129.45 71.0682 -1577 48 58 88
132.602 71.0762 -1577 44 58 89
135.842 71.1294 -1578 45 59 90
139.174 71.2279 -1580 45 59 90
142.426 71.2815 -1581 44 59 92
145.59 71.2902 -1581 43 60 93
149.038 71.4346 -1584 47 66 99
152.5 71.579 -1587 49 67 103
156.17 71.8139 -1592 44 62 99
160.363 72.2747 -1602 46 65 104
165.107 72.9614 -1617 54 74 116
171.163 74.19 -1644 60 81 124
176.16 74.9226 -1660 54 76 119
181.548 75.7911 -1679 49 70 113
186.023 76.2537 -1689 51 71 113
190.651 76.7619 -1700 57 77 121
194.868 77.0898 -1707 56 79 123
198.883 77.3276 -1712 48 74 118
202.565 77.4302 -1714 43 69 113
205.896 77.3975 -1713 50 75 119
208.981 77.2746 -1710 56 80 123
-25.2689 70.7012 -1645 67 74 103
-22.0433 70.8288 -1648 66 78 109
-18.7491 70.7417 -1646 56 71 103
-15.4536 70.6117 -1643 51 64 99
-12.1552 70.396 -1638 43 57 92
-8.88227 70.2236 -1634 44 58 95
-5.62181 70.0083 -1629 43 59 94
-2.37977 69.7501 -1623 37 54 88
0.837915 69.4492 -1616 36 57 92
4.03032 69.1915 -1610 39 59 94
7.20343 68.977 -1605 42 59 95
10.3632 68.8056 -1601 41 57 88
13.5157 68.6774 -1598 39 55 86
16.6981 68.7212 -1599 35 53 85
19.8474 68.6364 -1597 36 53 84
23.0176 68.6376 -1597 40 55 86
26.1717 68.596 -1596 42 53 81
29.3036 68.5117 -1594 38 49 77
32.4075 68.3845 -1591 40 51 79
35.5221 68.3005 -1589 40 52 77
38.629 68.2167 -1587 37 49 73
41.7809 68.219 -1587 34 43 67
44.9614 68.2645 -1588 35 44 68
48.0251 68.1382 -1585 35 44 68
51.1743 68.141 -1585 34 43 67
54.2552 68.0581 -1583 31 40 64
57.3285 67.9754 -1581 38 47 71
60.4327 67.9358 -1580 39 48 72
63.5735 67.9394 -1580 36 45 70
66.7149 67.9431 -1580 36 44 70
69.901 67.9901 -1581 34 42 68
73.0454 67.9942 -1581 37 45 69
76.0942 67.9126 -1579 35 48 74
79.3362 68.0031 -1581 38 52 79
82.5347 68.0507 -1582 39 54 85
85.8461 68.1847 -1585 36 51 80
89.1141 68.2758 -1587 36 51 78
92.5651 68.4961 -1592 38 52 77
95.9164 68.6307 -1595 40 54 81
99.1564 68.6794 -1596 37 51 82
102.337 68.6853 -1596 33 43 69
105.651 68.7773 -1598 28 37 61
108.632 68.6544 -1595 27 36 60
111.743 68.6177 -1594 26 34 59
114.779 68.5382 -1592 26 34 60
117.586 68.3297 -1587 23 31 55
120.525 68.2074 -1584 33 41 66
123.454 68.0853 -1581 39 47 73
126.372 67.9634 -1578 43 52 81
129.36 67.8847 -1576 43 52 83
132.594 67.9353 -1577 43 56 88
135.748 67.9431 -1577 42 58 89
138.902 67.9511 -1577 41 58 90
142.237 68.0454 -1579 45 60 94
145.49 68.0969 -1580 47 64 97
148.841 68.1916 -1582 49 68 101
152.491 68.416 -1587 49 66 102
156.161 68.6405 -1592 49 66 103
160.353 69.0808 -1602 51 71 111
165.098 69.7372 -1617 55 76 117
171.048 70.8683 -1643 62 83 125
176.15 71.6118 -1660 54 76 119
181.429 72.3988 -1678 49 70 113
186.232 72.9705 -1691 50 70 114
190.528 73.3266 -1699 56 77 120
194.628 73.5968 -1705 58 81 124
198.871 73.9105 -1712 51 76 119
202.435 73.9653 -1713 48 73 116
205.644 73.8909 -1711 51 76 118
209.335 73.9894 -1713 55 79 120
-25.3443 67.638 -1650 67 76 104
-22.109 67.7597 -1653 65 79 110
-18.7595 67.5127 -1647 51 67 99
-15.4527 67.3476 -1643 47 60 95
-12.1546 67.142 -1638 46 59 95
-8.87634 66.9364 -1633 50 64 101
-5.6215 66.7722 -1629 44 60 95
-2.37671 66.4439 -1621 39 56 90
0.837864 66.239 -1616 39 60 95
4.0326 66.0341 -1611 40 59 94
7.20303 65.7886 -1605 42 59 95
10.3756 65.707 -1603 40 57 89
13.5318 65.5847 -1600 38 54 85
16.7181 65.6266 -1601 35 53 85
19.8711 65.5456 -1599 38 54 85
23.0163 65.4649 -1597 40 55 85
26.1538 65.3842 -1595 41 52 80
29.302 65.3447 -1594 38 49 77
32.426 65.2645 -1592 38 50 76
35.5424 65.1843 -1590 38 50 75
38.6511 65.1044 -1588 36 48 72
41.8312 65.1476 -1589 35 44 68
44.9872 65.15 -1589 35 44 69
48.083 65.0705 -1587 34 43 69
51.2035 65.0323 -1586 34 43 67
54.2864 64.9532 -1584 32 41 65
57.3253 64.8332 -1581 37 46 70
60.5057 64.8775 -1582 40 49 73
63.6504 64.881 -1582 36 45 71
66.7533 64.8435 -1581 34 42 68
69.9413 64.8883 -1582 35 43 68
73.1337 64.9333 -1583 35 44 68
76.1861 64.8553 -1581 36 48 75
79.4321 64.9417 -1583 39 53 80
82.6344 64.9872 -1584 40 55 86
86.0037 65.1559 -1588 38 52 81
89.3337 65.2839 -1591 39 53 80
92.7343 65.4531 -1595 39 53 78
96.0914 65.5814 -1598 41 55 81
99.3372 65.6278 -1599 36 50 81
102.459 65.5924 -1598 32 42 68
105.645 65.5981 -1598 27 36 60
108.694 65.5219 -1596 26 35 59
111.737 65.4459 -1594 25 33 58
114.701 65.329 -1591 25 33 59
117.653 65.2122 -1588 25 33 57
120.595 65.0957 -1585 31 39 64
123.603 65.0202 -1583 34 43 71
126.605 64.945 -1581 40 50 80
129.599 64.8699 -1579 42 53 83
132.755 64.8772 -1579 41 52 84
135.912 64.8847 -1579 42 55 87
139.07 64.8923 -1579 41 56 88
142.409 64.9823 -1581 45 60 94
145.758 65.0725 -1583 47 63 97
149.115 65.1628 -1585 47 66 99
152.578 65.2945 -1588 47 65 101
156.348 65.5498 -1594 49 67 104
160.444 65.9288 -1603 53 73 113
165.395 66.637 -1620 55 76 117
170.726 67.4691 -1640 62 83 125
176.352 68.3838 -1662 56 77 121
181.851 69.2168 -1682 51 71 115
186.552 69.7209 -1694 52 72 116
191.077 70.143 -1704 55 77 118
194.96 70.3184 -1708 57 80 122
199.209 70.6175 -1715 53 77 120
202.896 70.7111 -1717 53 77 120
206.353 70.7224 -1717 54 78 120
210.056 70.8164 -1719 56 79 118
213.024 70.6634 -1715 63 82 120
-25.3275 64.3215 -1649 70 82 110
-22.0677 64.3592 -1650 61 76 106
-18.7471 64.2021 -1646 49 66 98
-15.4331 64.0062 -1641 45 60 94
-12.1539 63.8885 -1638 44 59 94
-8.865 63.6149 -1631 46 60 97
-5.62465 63.5755 -1630 44 61 95
-2.37952 63.3023 -1623 42 59 93
0.838334 63.0682 -1617 41 62 97
4.03488 62.8733 -1612 40 60 95
7.21161 62.6786 -1607 41 58 94
10.388 62.6011 -1605 40 57 88
13.548 62.4847 -1602 36 53 84
16.7172 62.4465 -1601 35 52 83
19.87 62.3694 -1599 40 55 85
23.0295 62.3316 -1598 41 55 84
26.1688 62.2548 -1596 40 51 79
29.3004 62.1784 -1594 39 50 78
32.4447 62.141 -1593 37 49 74
35.5405 62.0257 -1590 36 48 71
38.649 61.9496 -1588 34 46 69
41.8552 62.0298 -1590 34 43 67
45.0131 62.0321 -1590 34 43 68
48.1107 61.9565 -1588 35 44 70
51.2008 61.881 -1586 35 44 69
54.3176 61.8448 -1585 31 40 64
57.3585 61.7306 -1582 35 44 68
60.4643 61.6947 -1581 43 52 77
63.6068 61.6979 -1581 41 50 76
66.7498 61.7013 -1581 34 43 69
69.8933 61.705 -1581 34 42 68
73.0836 61.7478 -1582 34 43 67
76.2303 61.7517 -1582 36 49 75
79.5282 61.8728 -1585 38 52 79
82.7343 61.9162 -1586 39 54 84
86.1074 62.0768 -1590 39 54 82
89.3849 62.1595 -1592 41 55 82
92.7875 62.3205 -1596 41 55 80
96.0863 62.4035 -1598 41 55 82
99.3938 62.4867 -1600 35 47 78
102.518 62.4531 -1599 29 39 65
105.705 62.4585 -1599 27 36 60
108.757 62.386 -1597 26 35 59
111.731 62.2746 -1594 26 35 60
114.622 62.1243 -1590 26 34 60
117.721 62.0913 -1589 25 33 58
120.512 61.9022 -1584 31 39 65
123.518 61.8304 -1582 36 45 73
126.678 61.837 -1582 41 51 81
129.756 61.8047 -1581 42 53 83
132.748 61.7335 -1579 41 52 84
135.905 61.7406 -1579 40 53 85
139.062 61.7477 -1579 41 56 88
142.401 61.8334 -1581 46 61 95
145.565 61.8409 -1581 46 62 96
149.013 61.9662 -1584 44 63 96
152.666 62.1697 -1589 46 64 100
156.438 62.4126 -1595 48 66 103
160.336 62.6949 -1602 51 71 111
164.875 63.2123 -1615 53 73 115
170.613 64.1606 -1639 59 79 121
176.767 65.2268 -1666 55 75 119
181.95 65.9019 -1683 51 71 115
186.542 66.3424 -1694 51 71 115
190.955 66.7048 -1703 53 75 116
195.178 66.9892 -1710 55 78 120
199.43 67.2739 -1717 53 77 120
203.24 67.4021 -1720 52 76 119
207.063 67.5307 -1723 53 77 118
210.656 67.5809 -1724 58 80 119
213.757 67.4745 -1721 64 83 121
-25.3877 61.1945 -1653 72 87 114
-22.1067 61.1933 -1653 59 75 106
-18.8031 61.1183 -1651 48 65 97
-15.4605 60.8583 -1644 43 59 93
-12.1459 60.5985 -1637 45 61 96
-8.86999 60.4129 -1632 45 59 96
-5.61401 60.2274 -1627 45 61 96
-2.38086 60.1162 -1624 45 62 96
0.838807 59.894 -1618 44 65 100
4.04218 59.7831 -1615 43 62 98
7.21124 59.4872 -1607 42 59 95
10.3874 59.4136 -1605 39 56 87
13.5473 59.3032 -1602 36 53 84
16.7059 59.2299 -1600 36 53 84
19.8442 59.1198 -1597 40 55 85
22.9995 59.0838 -1596 40 54 83
26.1511 59.048 -1595 38 49 77
29.2989 59.0124 -1594 37 48 75
32.443 58.9769 -1593 33 45 70
35.6057 58.9786 -1593 31 43 67
38.6957 58.8694 -1590 32 44 67
41.9058 58.9455 -1592 34 43 67
45.0391 58.9106 -1591 34 43 68
48.1386 58.8389 -1589 34 43 69
51.1982 58.7303 -1586 36 45 69
54.3491 58.7329 -1586 35 44 68
57.3916 58.6246 -1583 38 47 71
60.5377 58.6275 -1583 44 53 78
63.684 58.6306 -1583 39 48 74
66.7886 58.5968 -1582 35 44 70
69.8897 58.5632 -1581 38 47 72
73.0799 58.6038 -1582 39 48 72
76.2264 58.6075 -1582 39 52 79
79.524 58.7225 -1585 40 54 81
82.8344 58.8377 -1588 40 55 84
86.1572 58.9531 -1591 39 54 82
89.4926 59.0687 -1594 40 54 81
92.8407 59.1844 -1597 39 53 80
96.2017 59.3003 -1600 40 53 81
99.3888 59.3052 -1600 33 44 75
102.513 59.2731 -1599 28 37 62
105.7 59.2784 -1599 28 36 60
108.683 59.1725 -1596 28 36 60
111.655 59.0668 -1593 29 37 62
114.544 58.924 -1589 30 38 64
117.493 58.8186 -1586 30 38 64
120.43 58.7133 -1583 36 45 71
123.434 58.6452 -1581 43 52 80
126.431 58.5772 -1579 43 54 83
129.668 58.6207 -1580 40 51 81
132.909 58.6644 -1581 43 54 86
135.984 58.634 -1580 40 54 86
139.32 58.7152 -1582 41 56 88
142.574 58.7592 -1583 47 62 96
145.834 58.8036 -1584 48 64 98
149.193 58.8852 -1586 46 65 98
152.754 59.0414 -1590 46 64 100
156.43 59.2348 -1595 49 67 104
160.227 59.4656 -1601 53 73 113
164.969 60.0308 -1616 54 74 116
171.541 61.2281 -1648 58 78 120
176.652 61.8685 -1665 53 73 117
182.589 62.7693 -1689 50 70 113
187.303 63.2246 -1701 50 70 113
191.618 63.5316 -1709 52 73 115
195.51 63.6899 -1713 54 77 119
199.884 63.9973 -1721 54 78 121
203.82 64.1562 -1725 52 76 119
207.653 64.2781 -1728 53 76 118
211.011 64.2515 -1727 58 80 119
214.367 64.2249 -1726 64 83 120
-25.3711 57.877 -1652 75 92 118
-22.119 57.9459 -1654 58 76 106
-18.7794 57.7698 -1649 43 61 93
-15.4504 57.5588 -1643 40 57 91
-12.1305 57.2779 -1635 48 64 99
-8.86413 57.1373 -1631 45 59 96
-5.6172 57.0319 -1628 41 58 92
-2.37929 56.8565 -1623 47 64 98
0.838763 56.6813 -1618 47 68 102
4.04448 56.6114 -1616 43 63 97
7.22435 56.4014 -1610 38 55 90
10.3869 56.2267 -1605 37 54 85
13.5467 56.1222 -1602 37 54 85
16.705 56.0528 -1600 37 54 85
19.8556 55.9836 -1598 37 53 82
22.9984 55.9146 -1596 38 52 80
26.1334 55.8456 -1594 38 49 76
29.2975 55.8469 -1594 35 46 72
32.4618 55.8484 -1594 30 42 67
35.6264 55.85 -1594 27 39 63
38.7669 55.8167 -1593 28 40 64
41.93 55.8186 -1593 32 41 65
45.0652 55.7857 -1592 35 44 68
48.1362 55.6828 -1589 36 45 70
51.2602 55.6501 -1588 35 44 68
54.3807 55.6175 -1587 38 47 71
57.4614 55.55 -1585 40 49 73
60.5728 55.5178 -1584 41 50 75
63.7211 55.5207 -1584 36 45 71
66.8276 55.4887 -1583 38 47 73
69.9306 55.4569 -1582 41 49 75
73.1687 55.5304 -1584 41 50 74
76.3191 55.5339 -1584 39 52 78
79.6205 55.6428 -1587 39 53 80
82.8302 55.6817 -1588 40 55 84
86.2072 55.8259 -1592 38 53 81
89.4883 55.9001 -1594 37 51 78
92.7781 55.9747 -1596 36 50 77
96.0768 56.0492 -1598 37 50 77
99.3219 56.0889 -1599 32 43 72
102.572 56.1288 -1600 26 35 59
105.694 56.0986 -1599 27 35 58
108.746 56.0335 -1597 29 37 61
111.72 55.9335 -1594 29 37 62
114.611 55.7984 -1590 32 41 67
117.487 55.6636 -1586 37 46 72
120.348 55.5287 -1582 43 52 79
123.35 55.4643 -1580 44 55 84
126.265 55.3649 -1577 44 55 86
129.579 55.4412 -1579 43 54 86
132.735 55.4474 -1579 43 54 87
135.805 55.4187 -1578 42 56 88
139.048 55.4603 -1579 41 56 88
142.387 55.5371 -1581 46 61 95
145.643 55.5791 -1582 47 64 97
148.998 55.6563 -1584 46 65 98
152.65 55.8392 -1589 45 63 97
156.128 55.9519 -1592 50 68 104
160.42 56.3461 -1603 54 74 114
164.859 56.7757 -1615 55 75 116
171.325 57.8735 -1646 59 79 121
177.598 58.8663 -1674 52 72 116
182.904 59.5079 -1692 49 69 112
187.514 59.9036 -1703 50 70 112
191.608 60.1237 -1709 53 73 115
195.729 60.3439 -1715 56 78 120
199.758 60.5293 -1720 56 80 123
204.046 60.7853 -1727 54 78 121
208.124 60.9711 -1732 54 78 119
211.856 61.0515 -1734 58 80 119
215.102 60.9913 -1732 65 83 119
-25.3546 54.5639 -1651 74 93 119
-22.0912 54.5959 -1652 55 74 103
-18.7557 54.4298 -1647 44 62 94
-15.4403 54.2638 -1642 42 59 93
-12.1373 54.0649 -1636 50 66 101
-8.86916 53.9322 -1632 44 58 95
-5.61349 53.7667 -1627 38 55 89
-2.38065 53.6674 -1624 45 62 96
0.838722 53.469 -1618 44 65 98
4.04179 53.37 -1615 41 60 94
7.21953 53.172 -1609 39 56 90
10.3994 53.1063 -1607 35 52 83
13.5545 52.9746 -1603 36 52 83
16.7147 52.9092 -1601 35 52 83
19.8547 52.8109 -1598 35 51 79
23.0118 52.7788 -1597 37 51 78
26.1486 52.7138 -1595 40 52 77
29.3513 52.7811 -1597 36 47 72
32.4807 52.7164 -1595 29 40 65
35.6694 52.7509 -1596 27 39 64
38.7651 52.6534 -1593 29 41 66
41.9545 52.6883 -1594 33 42 66
45.0915 52.6572 -1593 34 43 67
48.1946 52.5931 -1591 35 44 68
51.2902 52.5292 -1589 34 43 67
54.4125 52.4986 -1588 36 45 69
57.5313 52.468 -1587 36 45 69
60.6465 52.4376 -1586 37 46 71
63.7987 52.4403 -1586 36 45 71
66.909 52.4102 -1585 40 49 76
69.9716 52.3471 -1583 40 49 75
73.1654 52.3833 -1584 40 48 72
76.3637 52.4197 -1585 36 48 75
79.6671 52.5225 -1588 37 51 78
82.9307 52.5922 -1590 40 55 84
86.3115 52.7283 -1594 38 53 81
89.5965 52.7983 -1596 36 51 78
92.832 52.8355 -1597 34 48 75
96.1323 52.9059 -1599 37 50 77
99.2552 52.8771 -1598 32 43 71
102.503 52.9147 -1599 24 33 56
105.624 52.8863 -1598 23 31 53
108.673 52.8248 -1596 28 36 60
111.645 52.7304 -1593 27 36 61
114.534 52.6031 -1589 32 41 67
117.482 52.5089 -1586 39 49 75
120.342 52.3818 -1582 43 53 80
123.344 52.321 -1580 43 54 84
126.499 52.3266 -1580 44 55 87
129.655 52.3323 -1580 45 56 88
132.897 52.3713 -1581 45 56 89
135.971 52.3442 -1580 44 57 89
139.306 52.4166 -1582 41 56 88
142.651 52.4891 -1584 45 60 94
145.913 52.5287 -1585 47 63 97
149.085 52.5353 -1585 42 61 94
152.836 52.7409 -1591 43 60 94
156.219 52.8142 -1593 51 68 103
160.212 53.0865 -1601 54 74 114
165.259 53.6906 -1619 53 73 114
171.317 54.5936 -1646 56 76 118
178.333 55.7625 -1681 52 72 114
183.112 56.2018 -1694 49 69 111
187.395 56.4755 -1702 50 70 112
191.824 56.7827 -1711 53 73 113
195.72 56.9241 -1715 55 76 117
200.214 57.2318 -1724 55 79 121
204.273 57.4068 -1729 55 79 120
208.234 57.5489 -1733 54 77 118
211.358 57.4587 -1730 59 81 120
214.968 57.5015 -1731 65 83 120
-25.3996 51.3795 -1654 68 87 113
-22.1304 51.4096 -1655 49 68 97
-18.7777 51.2223 -1649 41 60 91
-15.4584 51.0663 -1644 44 61 95
-12.1516 50.8794 -1638 51 67 102
-8.87422 50.7236 -1633 40 54 91
-5.61325 50.5369 -1627 39 54 89
-2.38055 50.4436 -1624 48 63 97
0.838165 50.2261 -1617 45 65 98
4.03911 50.1331 -1614 41 60 93
7.21473 49.9469 -1608 41 58 92
10.3925 49.8852 -1606 38 54 84
13.5624 49.8236 -1604 34 50 79
16.7349 49.7931 -1603 33 51 79
19.8539 49.6386 -1598 35 51 78
23.0396 49.6705 -1599 37 51 77
26.1803 49.6094 -1597 41 50 76
29.35 49.6106 -1597 37 46 72
32.4997 49.5808 -1596 35 44 70
35.6903 49.6133 -1597 30 42 67
38.7878 49.5217 -1594 28 40 65
41.9526 49.5233 -1594 31 40 66
45.1461 49.5562 -1595 33 42 67
48.2228 49.465 -1592 36 45 69
51.3525 49.436 -1591 33 42 66
54.4787 49.4071 -1590 32 41 65
57.6013 49.3785 -1589 34 43 69
60.6821 49.3188 -1587 37 46 72
63.836 49.3214 -1587 37 46 72
66.9483 49.293 -1586 42 51 78
70.0128 49.2337 -1584 41 49 77
73.2546 49.2989 -1586 40 48 74
76.3605 49.2709 -1585 36 49 75
79.6636 49.3674 -1588 39 53 80
82.9272 49.4331 -1590 42 56 85
86.3078 49.561 -1594 38 52 80
89.5926 49.6268 -1596 37 51 78
92.9443 49.7239 -1599 36 50 77
96.1883 49.7589 -1600 36 50 77
99.3131 49.732 -1599 31 43 68
102.563 49.7673 -1600 25 34 57
105.685 49.7405 -1599 23 31 53
108.736 49.6829 -1597 24 32 56
111.71 49.5941 -1594 26 34 60
114.673 49.5055 -1591 35 44 71
117.476 49.3548 -1586 38 49 76
120.261 49.2041 -1581 42 53 81
123.261 49.147 -1579 44 55 85
126.414 49.1522 -1579 43 56 87
129.65 49.1888 -1580 41 54 85
132.807 49.1943 -1580 45 56 89
136.051 49.231 -1581 45 59 91
139.212 49.2368 -1581 44 59 91
142.465 49.2739 -1582 45 60 94
145.814 49.3422 -1584 47 63 97
148.985 49.3484 -1584 42 61 94
152.637 49.5105 -1589 44 59 93
156.212 49.6417 -1593 51 67 102
160.105 49.8665 -1600 56 74 114
164.742 50.3097 -1614 59 78 120
172.038 51.5325 -1653 59 79 121
177.9 52.2881 -1677 54 74 116
182.888 52.7634 -1692 48 68 110
187.387 53.0831 -1702 49 69 111
191.591 53.3094 -1709 49 69 109
195.597 53.4735 -1714 49 70 111
199.857 53.7003 -1721 51 74 115
203.792 53.8336 -1725 53 77 118
207.504 53.9047 -1727 55 78 118
210.249 53.7263 -1721 59 81 119
214.089 53.8289 -1724 63 81 117
-25.4446 48.1836 -1657 65 83 109
-22.1696 48.2117 -1658 45 64 94
-18.7997 48.0074 -1651 45 63 95
-15.4578 47.8032 -1644 52 69 103
-12.1437 47.5991 -1637 49 65 99
-8.88473 47.5405 -1635 36 51 87
-5.61303 47.3076 -1627 37 52 87
-2.37752 47.1621 -1622 48 63 97
0.837092 46.9585 -1615 47 66 99
4.03645 46.9005 -1613 43 61 94
7.21444 46.7553 -1608 41 58 92
10.3985 46.7266 -1607 39 54 84
13.5534 46.6107 -1603 34 49 78
16.7342 46.6113 -1603 32 48 76
19.8655 46.4957 -1599 35 50 77
23.0531 46.5257 -1600 37 51 76
26.212 46.4976 -1599 39 48 73
29.4407 46.5859 -1602 35 44 69
32.5798 46.5289 -1600 35 44 70
35.7782 46.5593 -1601 31 42 68
38.8835 46.4736 -1598 28 40 65
42.0299 46.4461 -1597 28 37 63
45.1726 46.4187 -1596 29 38 64
48.3118 46.3914 -1595 32 41 66
51.415 46.3352 -1593 32 42 67
54.5107 46.2792 -1591 32 42 67
57.5989 46.2232 -1589 37 46 72
60.6797 46.1673 -1587 42 51 78
63.8334 46.1696 -1587 41 50 77
66.9456 46.1432 -1586 41 50 78
70.0541 46.1168 -1585 39 48 76
73.2517 46.1487 -1586 40 48 74
76.4056 46.1516 -1586 37 49 76
79.6604 46.2128 -1588 39 53 80
82.9238 46.2742 -1590 41 55 83
86.3042 46.394 -1594 38 52 80
89.6452 46.4848 -1597 40 54 81
92.9986 46.5757 -1600 44 58 86
96.3047 46.6376 -1602 35 48 75
99.3712 46.5832 -1600 29 40 64
102.687 46.6454 -1602 27 36 58
105.747 46.5912 -1600 24 31 53
108.8 46.5372 -1598 22 30 54
111.846 46.4833 -1596 26 35 61
114.74 46.3712 -1592 37 46 74
117.546 46.2301 -1587 36 47 75
120.408 46.1183 -1583 39 51 79
123.412 46.0648 -1581 42 54 85
126.409 46.0114 -1579 41 55 86
129.645 46.0456 -1580 40 54 85
132.886 46.0799 -1581 44 55 88
136.046 46.0851 -1581 46 60 92
139.295 46.1197 -1582 45 60 92
142.549 46.1545 -1583 45 60 94
145.808 46.1892 -1584 46 62 96
149.073 46.2242 -1585 44 63 96
152.439 46.2885 -1587 46 62 96
156.108 46.4404 -1592 51 67 102
159.999 46.6509 -1599 54 73 112
164.531 47.0365 -1612 58 78 119
171.406 48.0645 -1647 62 82 124
177.681 48.8886 -1675 59 79 121
182.989 49.4211 -1693 52 72 114
187.379 49.6911 -1702 52 72 114
191.696 49.9321 -1710 50 70 110
195.703 50.0858 -1715 50 71 111
200.313 50.3857 -1725 53 75 116
204.256 50.5105 -1729 55 79 120
207.856 50.5479 -1730 57 80 120
210.607 50.3808 -1724 59 80 117
214.329 50.4476 -1726 61 80 114
-25.459 44.9219 -1658 64 80 107
-22.1688 44.9211 -1658 50 67 98
-18.799 44.7307 -1651 51 69 102
-15.476 44.5946 -1646 54 70 104
-12.173 44.4586 -1641 46 62 96
-8.8844 44.2957 -1635 37 54 88
-5.61282 44.0787 -1627 40 55 89
-2.3789 43.9702 -1623 50 65 99
0.837576 43.7805 -1616 47 66 99
4.0388 43.7264 -1614 44 62 95
7.22314 43.6183 -1610 41 58 92
10.4175 43.6186 -1610 38 54 83
13.5782 43.5107 -1606 35 50 79
16.7753 43.5383 -1607 33 48 75
19.9268 43.4577 -1604 34 49 75
23.1098 43.4585 -1604 35 49 74
26.2766 43.4323 -1603 35 44 68
29.4948 43.4875 -1605 30 39 64
32.6193 43.4073 -1602 30 39 65
35.8439 43.4628 -1604 29 40 65
38.9794 43.4099 -1602 27 39 64
42.1599 43.4114 -1602 28 37 63
45.2841 43.3588 -1600 29 38 64
48.4008 43.3063 -1598 31 40 66
51.4776 43.2268 -1595 31 43 68
54.5772 43.1746 -1593 34 45 70
57.6693 43.1224 -1591 41 50 76
60.7156 43.0432 -1588 43 52 79
63.9114 43.0727 -1589 40 49 77
67.0273 43.048 -1588 39 48 76
70.1399 43.0234 -1587 39 48 76
73.3875 43.0802 -1589 40 49 75
76.499 43.0558 -1588 37 50 77
79.7076 43.0858 -1589 38 52 79
82.9729 43.1429 -1591 40 54 81
86.4092 43.2816 -1596 40 54 81
89.6418 43.3119 -1597 42 56 83
93.1114 43.451 -1602 42 56 85
96.3612 43.4815 -1603 29 42 69
99.4917 43.4579 -1602 25 35 56
102.747 43.4887 -1603 27 34 56
105.941 43.4926 -1603 24 30 52
108.932 43.4151 -1600 20 28 52
111.911 43.3377 -1597 27 35 61
114.808 43.2334 -1593 39 48 76
117.467 43.0476 -1586 37 48 76
120.252 42.9162 -1581 40 52 81
123.329 42.8936 -1580 43 57 88
126.404 42.8709 -1579 43 57 88
129.558 42.8757 -1579 44 58 89
132.796 42.9076 -1580 50 61 94
135.954 42.9125 -1580 47 60 93
139.025 42.8904 -1579 46 61 93
142.273 42.9227 -1580 46 61 95
145.618 42.9823 -1582 45 62 95
148.973 43.042 -1584 46 65 99
152.529 43.1563 -1588 48 63 97
156.298 43.325 -1594 52 68 102
160.393 43.5755 -1603 52 73 110
165.239 44.0164 -1619 54 75 115
171.608 44.8382 -1649 59 79 121
176.932 45.3613 -1668 60 79 121
182.658 45.9662 -1690 52 71 113
187.152 46.2451 -1700 52 72 112
191.688 46.5241 -1710 52 72 112
195.696 46.6673 -1715 50 71 111
200.538 47.0011 -1727 52 74 114
204.366 47.0902 -1730 56 80 121
207.968 47.125 -1731 58 81 121
210.843 46.9965 -1726 56 77 114
-25.4735 41.6567 -1659 60 74 101
-22.168 41.6308 -1658 52 67 99
-18.8325 41.5297 -1654 56 72 106
-15.5319 41.4789 -1652 54 68 102
-12.1948 41.2775 -1644 44 59 93
-8.90039 41.1265 -1638 39 56 90
-5.62298 40.9254 -1630 43 59 93
-2.38175 40.7998 -1625 49 64 98
0.837545 40.5738 -1616 45 64 97
4.03865 40.5236 -1614 43 61 94
7.22288 40.4234 -1610 37 54 88
10.4236 40.4488 -1611 34 49 79
13.5947 40.3739 -1608 34 49 78
16.7956 40.3995 -1609 34 49 76
19.951 40.3248 -1606 35 49 74
23.1378 40.3255 -1606 35 48 72
26.3085 40.3013 -1605 34 43 67
29.5305 40.3524 -1607 28 37 62
32.6589 40.2781 -1604 28 37 63
35.865 40.3044 -1605 27 38 64
39.0024 40.2554 -1603 29 41 66
42.1847 40.2568 -1603 32 43 68
45.2826 40.183 -1600 34 44 70
48.4294 40.1594 -1599 34 43 69
51.4758 40.0606 -1595 29 40 65
54.541 39.9871 -1592 34 46 71
57.631 39.9387 -1590 43 52 78
60.7135 39.8905 -1588 42 51 78
63.869 39.8926 -1588 39 48 76
67.0249 39.8949 -1588 39 48 76
70.1816 39.8972 -1588 39 48 76
73.3849 39.9248 -1589 41 50 76
76.4963 39.9021 -1588 38 51 78
79.7048 39.9299 -1589 38 52 79
83.0743 40.0332 -1593 40 54 81
86.4603 40.1366 -1597 41 55 82
89.807 40.2149 -1600 40 54 82
93.2244 40.3186 -1604 33 47 76
96.5381 40.3721 -1606 25 38 65
99.6122 40.3251 -1604 25 35 56
102.807 40.3285 -1604 27 34 55
105.805 40.2566 -1601 25 31 53
108.86 40.21 -1599 24 32 55
111.767 40.1131 -1595 31 39 64
114.588 39.9912 -1590 40 49 77
117.463 39.8945 -1586 38 49 77
120.323 39.798 -1582 42 53 82
123.403 39.7769 -1581 43 57 88
126.479 39.756 -1580 41 55 86
129.717 39.7855 -1581 40 54 85
132.96 39.8152 -1582 46 57 91
136.035 39.7945 -1581 46 59 92
139.108 39.774 -1580 49 64 96
142.448 39.8291 -1582 47 62 96
145.705 39.8593 -1583 42 58 93
149.156 39.9397 -1586 43 61 96
152.715 40.0456 -1590 49 64 97
156.292 40.1517 -1594 52 68 101
160.387 40.3838 -1603 51 72 109
165.131 40.7672 -1618 53 73 114
171.498 41.5288 -1648 55 75 117
177.244 42.1144 -1671 59 77 119
182.867 42.6498 -1692 53 72 113
187.366 42.9082 -1702 50 70 110
192.13 43.2172 -1714 49 69 108
196.259 43.3751 -1720 49 70 109
201.343 43.735 -1734 51 73 112
205.068 43.7924 -1736 51 75 116
208.201 43.7238 -1733 51 74 114
210.836 43.5543 -1726 54 74 112
-28.6782 38.2499 -1654 79 84 107
-25.5187 38.4341 -1662 64 73 103
-22.2208 38.4333 -1662 56 70 102
-18.8661 38.3171 -1657 60 75 109
-15.5032 38.1315 -1649 53 66 101
-12.1944 38.0155 -1644 40 55 89
-8.89467 37.8533 -1637 39 56 90
-5.6228 37.6912 -1630 46 61 95
-2.37874 37.5292 -1623 49 64 98
0.838552 37.4136 -1618 41 60 93
4.04853 37.4137 -1618 38 56 90
7.24508 37.3445 -1615 32 49 83
10.4427 37.3216 -1614 28 44 73
13.628 37.2758 -1612 32 47 76
16.8055 37.23 -1610 36 51 78
20 37.2306 -1610 36 49 74
23.1803 37.2081 -1609 35 47 70
26.3568 37.1857 -1608 34 43 67
29.5663 37.2097 -1609 29 38 63
32.6782 37.1182 -1605 27 36 62
35.8862 37.1424 -1606 25 36 62
39.0498 37.1204 -1605 27 38 64
42.236 37.1217 -1605 31 43 68
45.2811 37.0074 -1600 35 46 71
48.4581 37.0089 -1600 35 44 70
51.5387 36.941 -1597 30 42 67
54.5735 36.8502 -1593 35 46 71
57.6654 36.8056 -1591 43 53 79
60.788 36.7843 -1590 41 50 78
63.9071 36.7631 -1589 39 48 76
67.0228 36.742 -1588 38 47 75
70.1792 36.7442 -1588 39 48 76
73.3825 36.7696 -1589 41 50 76
76.5421 36.772 -1589 40 52 79
79.7524 36.7975 -1590 38 52 79
83.1237 36.8926 -1594 40 54 81
86.4575 36.9647 -1597 39 53 81
89.804 37.0369 -1600 37 51 80
93.2214 37.1323 -1604 31 45 74
96.535 37.1816 -1606 27 40 66
99.6711 37.1615 -1605 26 36 57
102.868 37.1647 -1605 27 34 56
105.868 37.0984 -1602 27 33 55
108.924 37.0555 -1600 26 34 56
111.764 36.9432 -1595 32 40 65
114.584 36.8309 -1590 40 49 77
117.459 36.7418 -1586 39 51 79
120.472 36.6992 -1584 43 55 84
123.321 36.6103 -1580 42 56 87
126.475 36.6142 -1580 38 53 84
129.713 36.6414 -1581 37 51 82
