ply
format ascii 1.0
comment Created by Open3D
element vertex 1358
property double x
property double y
property double z
property uchar red
property uchar green
property uchar blue
end_header
-88.2961 -968.266 -1613 200 148 102
-84.825 -969.39 -1615 203 152 101
-81.044 -966.916 -1611 204 152 103
-77.57 -968.046 -1613 204 152 104
-73.9963 -967.98 -1613 205 154 103
-70.4668 -968.516 -1614 208 157 106
-66.9338 -969.056 -1615 210 159 107
-63.5537 -971.998 -1620 211 160 106
-60.1522 -974.943 -1625 212 161 107
-56.7639 -978.492 -1631 211 160 106
-53.3497 -982.042 -1637 208 157 103
-50.3043 -993.395 -1656 208 154 104
-47.457 -1010.75 -1685 201 150 99
-44.5336 -1029.3 -1716 197 147 96
-41.3311 -1044.26 -1741 210 160 109
-124.529 -976.054 -1617 171 138 114
-120.856 -975.341 -1616 187 142 106
-117.333 -975.839 -1617 191 146 109
-113.737 -975.736 -1617 190 144 107
-110.074 -975.033 -1616 195 144 107
-106.416 -974.334 -1615 200 147 105
-102.828 -974.241 -1615 202 149 105
-99.3019 -974.755 -1616 199 147 105
-95.5948 -973.462 -1614 199 147 103
-92.1255 -974.585 -1616 198 146 102
-88.5386 -974.505 -1616 199 147 101
-85.0052 -975.031 -1617 201 150 99
-81.2667 -973.148 -1614 203 151 102
-77.8312 -974.886 -1617 205 153 105
-74.1535 -973.613 -1615 204 153 102
-70.6165 -974.152 -1616 206 155 104
-67.0759 -974.694 -1617 209 158 106
-63.6885 -977.649 -1622 212 161 107
-60.2425 -980.005 -1626 212 161 107
-56.8141 -982.967 -1631 210 159 105
-53.4295 -987.137 -1638 208 157 103
-50.4704 -1000.35 -1660 207 153 105
-47.5834 -1017.18 -1688 202 150 100
-44.6769 -1036.42 -1720 199 148 97
-41.4864 -1052.05 -1746 211 161 110
-121.188 -981.614 -1619 184 140 104
-117.438 -980.295 -1617 188 143 107
-114.05 -982.011 -1620 188 142 106
-110.377 -981.304 -1619 194 143 106
-106.709 -980.601 -1618 199 146 104
-103.047 -979.902 -1617 201 147 104
-99.4518 -979.811 -1617 198 146 105
-95.6799 -977.907 -1614 196 144 101
-92.0933 -977.823 -1614 197 145 101
-88.4529 -977.136 -1613 199 147 101
-85.0808 -979.482 -1617 199 148 97
-81.3894 -978.196 -1615 199 148 99
-77.8523 -978.731 -1616 201 149 101
-74.2195 -978.058 -1615 203 152 102
-70.7231 -979.204 -1617 204 153 102
-67.1355 -979.143 -1617 208 157 105
-63.7844 -982.718 -1623 211 160 104
-60.2959 -984.479 -1626 210 159 105
-56.8297 -986.848 -1630 211 160 106
-53.4769 -991.643 -1638 212 159 107
-50.5152 -1004.91 -1660 210 156 108
-47.5692 -1020.61 -1686 204 152 102
-44.6645 -1039.94 -1718 201 150 99
-41.4281 -1054.43 -1742 213 163 112
-37.8917 -1063.47 -1757 213 163 116
-122.42 -995.225 -1634 181 138 104
-118.415 -992.072 -1629 185 140 105
-114.434 -988.922 -1624 188 142 104
-110.612 -986.994 -1621 193 143 105
-106.739 -984.461 -1617 197 145 104
-103.012 -983.15 -1615 199 146 104
-99.3561 -982.45 -1614 198 145 106
-95.7061 -981.754 -1613 195 144 102
-92.1757 -982.278 -1614 197 146 103
-88.6966 -983.415 -1616 199 147 101
-85.2095 -984.553 -1618 197 146 95
-81.4621 -982.654 -1615 196 144 95
-77.97 -983.799 -1617 197 145 97
-74.3318 -983.122 -1616 203 149 99
-70.7862 -983.666 -1617 206 153 101
-67.1955 -983.604 -1617 209 157 104
-63.802 -986.587 -1622 210 159 104
-60.3127 -988.356 -1625 212 161 107
-56.8455 -990.736 -1629 212 160 108
-53.4919 -995.552 -1637 211 159 108
-50.5297 -1008.88 -1659 208 156 108
-47.5834 -1024.65 -1685 204 152 103
-44.6783 -1044.07 -1717 203 152 102
-41.4888 -1059.84 -1743 213 163 113
-37.9255 -1068.32 -1757 216 165 120
-122.156 -996.693 -1629 180 135 103
-118.304 -994.749 -1626 186 141 107
-114.255 -990.974 -1620 188 142 106
-110.507 -989.649 -1618 192 143 105
-106.769 -988.328 -1616 196 145 106
-103.104 -987.622 -1615 197 145 106
-99.4454 -986.919 -1614 198 143 104
-95.8515 -986.831 -1614 196 144 102
-92.4872 -989.192 -1618 197 145 102
-88.8313 -988.498 -1617 200 148 102
-85.1279 -987.197 -1615 198 147 96
-81.7374 -989.567 -1619 196 145 95
-78.0401 -988.273 -1617 199 147 99
-74.4906 -988.816 -1618 204 149 98
-70.8937 -988.75 -1618 205 151 100
-67.2973 -988.688 -1618 208 155 103
-63.8987 -991.684 -1623 209 158 104
-60.404 -993.461 -1626 209 158 104
-56.722 -992.186 -1624 210 159 106
-53.3764 -997.024 -1632 210 159 108
-50.3922 -1009.81 -1653 207 155 107
-47.4565 -1025.65 -1679 205 153 104
-44.5621 -1045.15 -1711 205 154 104
-41.3831 -1060.99 -1737 214 164 115
-37.8298 -1069.51 -1751 216 165 120
-34.0985 -1074.36 -1759 215 167 122
-119.43 -1007.87 -1640 184 140 108
-115.064 -1001.62 -1630 189 143 107
-111.085 -998.444 -1625 192 143 105
-107.262 -996.501 -1622 193 143 105
-103.453 -994.563 -1619 195 144 106
-99.7204 -993.242 -1617 197 142 103
-96.176 -993.768 -1618 195 145 100
-92.628 -994.296 -1619 197 146 101
-89.0215 -994.214 -1619 198 146 100
-85.5215 -995.363 -1621 199 148 98
-81.8111 -994.059 -1619 199 148 98
-78.3038 -995.215 -1621 200 148 100
-74.604 -993.918 -1619 205 150 99
-71.1331 -995.694 -1622 207 152 101
-67.6079 -996.858 -1624 208 153 102
-64.0351 -997.413 -1625 207 156 102
-60.4212 -997.356 -1625 206 155 101
-56.8081 -997.303 -1625 207 156 103
-53.3918 -1000.94 -1631 208 157 106
-50.3156 -1011.94 -1649 206 154 106
-47.4428 -1029.07 -1677 204 153 103
-44.472 -1046.83 -1706 207 156 105
-41.3251 -1063.36 -1733 216 166 116
-37.7342 -1070.68 -1745 218 169 121
-34.0515 -1076.79 -1755 216 169 121
-30.2561 -1080.44 -1761 210 166 119
-119.903 -1015.52 -1645 178 136 106
-115.522 -1009.24 -1635 185 140 104
-111.596 -1006.67 -1631 192 143 106
-107.69 -1004.1 -1627 194 143 106
-103.803 -1001.54 -1623 194 143 105
-100.181 -1001.45 -1623 195 143 103
-96.3823 -999.505 -1620 195 144 101
-92.7694 -999.418 -1620 196 146 101
-89.0473 -998.102 -1618 198 146 100
-85.3878 -997.406 -1617 199 147 99
-81.7337 -996.713 -1616 201 149 101
-78.2298 -997.874 -1618 202 150 102
-74.7178 -999.037 -1620 206 151 100
-71.1977 -1000.2 -1622 207 153 102
-67.7526 -1002.61 -1626 207 153 102
-64.0932 -1001.93 -1625 206 154 100
-60.5133 -1002.49 -1626 207 156 102
-56.9296 -1003.05 -1627 208 157 104
-53.5058 -1006.7 -1633 206 155 104
-50.3918 -1017.14 -1650 202 151 101
-47.5707 -1035.58 -1680 203 152 101
-44.5383 -1052.19 -1707 209 158 107
-41.267 -1065.71 -1729 219 169 118
-37.7034 -1073.68 -1742 219 172 122
-33.9852 -1078.58 -1750 219 172 123
-30.1804 -1081.63 -1755 219 172 124
-120.597 -1025.08 -1653 171 133 106
-115.91 -1016.29 -1639 183 138 105
-111.904 -1013.09 -1634 189 140 105
-107.921 -1009.88 -1629 191 141 104
-103.962 -1006.69 -1624 194 143 105
-100.335 -1006.59 -1624 197 145 103
-96.5299 -1004.65 -1621 195 144 102
-92.9687 -1005.18 -1622 195 144 102
-89.2388 -1003.86 -1620 198 146 102
-85.5187 -1002.54 -1618 200 148 100
-81.9601 -1003.08 -1619 201 149 101
-78.4464 -1004.24 -1621 203 151 103
-74.8783 -1004.79 -1622 207 153 102
-71.3504 -1005.97 -1624 209 154 104
-67.7727 -1006.52 -1625 209 154 103
-64.2306 -1007.7 -1627 208 155 101
-60.643 -1008.26 -1628 205 154 100
-57.0865 -1009.45 -1630 207 156 103
-53.6857 -1013.73 -1637 207 155 103
-50.56 -1024.21 -1654 203 152 101
-47.6707 -1041.5 -1682 203 152 101
-44.605 -1057.56 -1708 211 160 109
-41.2807 -1069.91 -1728 222 170 121
-37.6727 -1076.68 -1739 220 175 123
-33.9773 -1082.22 -1748 222 174 124
-30.1733 -1085.29 -1753 225 175 126
-26.3924 -1090.21 -1761 212 168 124
-116.229 -1022.75 -1642 182 137 107
-112.418 -1021.4 -1640 187 139 106
-108.352 -1017.56 -1634 189 141 105
-104.442 -1014.97 -1630 193 144 106
-100.674 -1013.63 -1628 194 142 98
-96.8569 -1011.67 -1625 193 141 97
-93.054 -1009.72 -1622 194 142 98
-89.3758 -1009.01 -1621 197 145 101
-85.597 -1007.06 -1618 199 147 99
-82.0859 -1008.23 -1620 201 148 100
-78.6152 -1010.02 -1623 202 148 100
-74.9931 -1009.95 -1623 205 151 100
-71.3279 -1009.26 -1622 208 153 102
-67.9182 -1012.31 -1627 208 153 102
-64.2104 -1011 -1625 208 155 101
-60.5867 -1010.95 -1625 207 156 102
-57.1388 -1014 -1630 209 157 104
-53.7021 -1017.69 -1636 210 156 105
-50.6369 -1029.46 -1655 205 154 103
-47.7427 -1046.83 -1683 205 154 103
-44.5935 -1061.09 -1706 214 163 112
-41.1989 -1071.62 -1723 222 171 120
-37.5988 -1078.43 -1734 224 176 123
-33.9306 -1084.62 -1744 227 178 127
-30.1664 -1088.94 -1751 228 178 129
-26.4015 -1094.51 -1760 222 174 126
-117.328 -1036.12 -1656 179 133 104
-113.071 -1031 -1648 185 138 105
-108.784 -1025.27 -1639 186 138 103
-104.666 -1020.79 -1632 190 141 103
-100.891 -1019.45 -1630 193 141 97
-97.0059 -1016.86 -1626 193 141 95
-93.1399 -1014.27 -1622 192 140 95
-89.5134 -1014.18 -1622 195 143 99
-85.782 -1012.85 -1620 198 146 100
-82.2631 -1014.02 -1622 199 147 100
-78.7846 -1015.82 -1625 200 146 98
-75.1085 -1015.13 -1624 204 149 98
-71.4817 -1015.06 -1624 206 150 99
-67.8973 -1015.62 -1625 205 150 99
-64.2696 -1015.56 -1625 207 154 100
-60.6798 -1016.13 -1626 207 156 102
-57.3669 -1021.7 -1635 210 158 105
-53.9486 -1026.02 -1642 211 157 106
-50.8672 -1037.84 -1661 206 155 104
-47.9286 -1054.67 -1688 205 154 103
-44.6608 -1066.5 -1707 212 161 109
-41.2607 -1077.08 -1724 225 174 123
-37.6333 -1083.29 -1734 230 178 127
-33.9034 -1087.63 -1741 234 182 132
-30.1424 -1091.97 -1748 230 180 131
-26.3356 -1095.69 -1754 229 179 129
-22.4767 -1098.17 -1758 214 176 135
-117.934 -1045.18 -1663 175 131 102
-113.382 -1037.53 -1651 182 135 103
-108.951 -1030.51 -1640 186 138 104
-105.02 -1027.9 -1636 188 139 102
-101.108 -1025.29 -1632 192 141 97
-97.1556 -1022.06 -1627 194 143 97
-93.3412 -1020.08 -1624 194 142 96
-89.7621 -1020.63 -1625 198 144 100
-85.9144 -1018.03 -1621 200 148 102
-82.3393 -1018.58 -1622 199 147 100
-78.809 -1019.76 -1624 200 146 98
-75.0855 -1018.44 -1622 203 148 97
-71.4597 -1018.37 -1622 205 148 98
-67.9601 -1020.19 -1625 206 149 98
-64.2894 -1019.5 -1624 207 154 100
-60.7733 -1021.32 -1627 207 156 102
-57.42 -1026.29 -1635 209 157 104
-54.1301 -1033.14 -1646 209 155 103
-50.9756 -1043.77 -1663 205 154 103
-47.9729 -1059.41 -1688 205 154 102
-44.7545 -1072.55 -1709 208 157 105
-41.2989 -1081.92 -1724 224 173 122
-37.6464 -1087.53 -1733 239 184 134
-33.8957 -1091.26 -1739 238 184 135
-30.1184 -1095 -1745 231 181 133
-26.2848 -1097.48 -1749 235 185 135
-22.4718 -1101.85 -1756 225 186 140
-113.762 -1044.71 -1655 184 137 107
-109.252 -1037.03 -1643 187 139 106
-105.054 -1031.89 -1635 188 139 102
-101.079 -1028.63 -1630 191 141 94
-97.1864 -1026.02 -1626 194 143 98
-93.4857 -1025.3 -1625 194 142 98
-89.8457 -1025.21 -1625 197 143 99
-86.1006 -1023.87 -1623 196 144 98
-82.5685 -1025.05 -1625 197 144 98
-79.1739 -1028.13 -1630 201 147 99
-75.2945 -1024.9 -1625 204 150 99
-71.6145 -1024.2 -1624 205 150 99
-67.9397 -1023.51 -1623 203 149 97
-64.4682 -1025.97 -1627 206 153 99
-60.7925 -1025.28 -1626 209 155 102
-57.4734 -1030.9 -1635 210 157 103
-54.1475 -1037.15 -1645 209 156 103
-50.9616 -1047.19 -1661 207 156 104
-47.9606 -1062.91 -1686 206 155 103
-44.7174 -1075.47 -1706 206 155 103
-41.2413 -1084.26 -1720 215 164 113
-37.6162 -1090.52 -1730 233 176 126
-33.8881 -1094.9 -1737 238 183 135
-30.0601 -1096.76 -1740 234 184 137
-26.249 -1099.89 -1745 236 186 137
-22.4543 -1104.91 -1753 228 187 139
-114.282 -1053.2 -1661 181 134 102
-109.754 -1045.49 -1649 185 137 104
-105.41 -1039.05 -1639 187 140 104
-101.359 -1035.15 -1633 193 140 97
-97.3971 -1031.88 -1628 194 141 95
-93.6308 -1030.53 -1626 195 142 95
-89.8192 -1028.54 -1623 194 142 98
-86.2343 -1029.09 -1624 193 141 97
-82.5949 -1029.01 -1624 196 143 97
-79.248 -1032.74 -1630 202 147 96
-75.4577 -1030.76 -1627 204 151 97
-71.8139 -1030.69 -1627 203 150 96
-68.1708 -1030.63 -1627 205 152 98
-64.5285 -1030.57 -1627 210 155 102
-60.9615 -1031.77 -1629 207 154 101
-57.5623 -1036.15 -1636 209 157 104
-54.1651 -1041.17 -1644 209 158 106
-50.9785 -1051.25 -1660 209 158 104
-47.977 -1067.04 -1685 209 158 106
-44.7853 -1080.92 -1707 211 160 109
-41.3038 -1089.75 -1721 215 164 112
-37.6512 -1095.41 -1730 221 171 120
-33.9003 -1099.18 -1736 231 181 130
-30.0882 -1101.68 -1740 237 186 135
-26.2584 -1104.18 -1744 235 185 136
-22.4239 -1107.33 -1749 232 186 137
-18.6097 -1113.01 -1758 230 187 139
-120.399 -1078.41 -1693 157 126 102
-114.183 -1056 -1658 177 131 98
-109.657 -1048.26 -1646 183 135 101
-105.187 -1040.51 -1634 187 138 103
-101.269 -1037.87 -1630 192 137 96
-97.4289 -1035.86 -1627 195 141 96
-93.7766 -1035.77 -1627 195 141 95
-89.9037 -1033.14 -1623 194 142 98
-86.3686 -1034.33 -1625 195 143 97
-82.6726 -1033.62 -1624 197 145 97
-79.2739 -1036.72 -1629 203 148 97
-75.5286 -1035.38 -1627 204 149 94
-71.9698 -1036.58 -1629 204 150 95
-68.3188 -1036.51 -1629 207 152 97
-64.7082 -1037.09 -1630 210 155 104
-61.0938 -1037.66 -1631 208 157 105
-57.6516 -1041.42 -1637 210 159 107
-54.2161 -1045.82 -1644 210 159 107
-50.9649 -1054.68 -1658 210 159 105
-47.908 -1069.26 -1681 212 161 109
-44.7224 -1083.21 -1703 221 170 119
-41.2465 -1092.08 -1717 224 173 121
-37.643 -1099.04 -1728 222 172 121
-33.8733 -1102.18 -1733 227 177 126
-30.0298 -1103.43 -1735 233 183 134
-26.1775 -1104.67 -1737 235 185 136
-22.3807 -1109.1 -1744 234 188 139
-18.5423 -1112.9 -1750 232 188 140
-14.6938 -1117.97 -1758 220 187 137
-120.3 -1081.31 -1690 150 123 102
-114.567 -1063.28 -1662 175 130 100
-109.961 -1054.86 -1649 180 132 100
-105.415 -1046.44 -1636 184 135 100
-101.427 -1043.14 -1631 189 134 93
-97.5211 -1040.49 -1627 192 138 95
-93.8077 -1039.76 -1626 194 140 95
-89.9333 -1037.12 -1622 193 141 97
-86.3971 -1038.31 -1624 196 144 99
-82.7507 -1038.23 -1624 198 146 100
-79.3488 -1041.35 -1629 202 147 97
-75.6465 -1040.64 -1628 204 149 96
-72.1263 -1042.49 -1631 206 151 97
-68.4674 -1042.42 -1631 209 154 99
-64.8886 -1043.64 -1633 211 156 105
-61.1515 -1042.3 -1631 209 157 105
-57.706 -1046.08 -1637 209 158 106
-54.2343 -1049.86 -1643 209 158 106
-50.89 -1056.84 -1654 210 159 105
-47.6965 -1068.29 -1672 211 160 108
-44.5806 -1083.58 -1696 224 173 122
-41.0931 -1091.84 -1709 232 181 130
-37.5477 -1100.11 -1722 225 174 123
-33.8271 -1104.55 -1729 221 170 120
-30.0062 -1106.44 -1732 225 175 126
-26.172 -1108.33 -1735 229 180 131
-22.4018 -1114.05 -1744 230 184 135
-18.5597 -1117.87 -1750 231 186 138
-14.6909 -1121.68 -1756 230 188 136
-121.198 -1093.2 -1701 141 117 98
-115.228 -1073.17 -1670 169 128 99
-110.199 -1060.85 -1651 176 130 98
-105.387 -1049.82 -1634 182 133 99
-101.585 -1048.44 -1632 189 136 96
-97.5538 -1044.49 -1626 192 138 96
-93.8391 -1043.76 -1625 192 138 94
-90.0744 -1042.38 -1623 192 140 96
-86.5857 -1044.23 -1626 193 141 97
-82.8804 -1043.5 -1625 197 144 99
-79.4243 -1046 -1629 202 147 99
-75.7649 -1045.92 -1629 201 147 96
-72.1948 -1047.14 -1631 207 153 100
-68.5324 -1047.07 -1631 210 155 102
-64.99 -1048.93 -1634 212 157 106
-61.2472 -1047.59 -1632 210 156 105
-57.7256 -1050.1 -1636 213 159 108
-54.1866 -1052.61 -1640 211 160 108
-50.7843 -1058.34 -1649 210 159 105
-47.599 -1069.84 -1667 211 160 107
-44.465 -1084.56 -1690 218 167 116
-41.0358 -1094.15 -1705 228 177 126
-37.5179 -1103.09 -1719 236 182 132
-33.8395 -1108.83 -1728 233 180 130
-30.0346 -1111.37 -1732 229 177 129
-26.1968 -1113.27 -1735 229 179 130
-22.3972 -1117.74 -1742 227 181 132
-18.5453 -1120.93 -1747 232 187 139
-14.6797 -1124.76 -1753 237 189 145
-10.7749 -1127.31 -1757 230 191 149
-6.84454 -1128.59 -1759 228 191 150
28.6735 -1129.97 -1761 223 216 206
-121.314 -1098.07 -1701 132 109 94
-115.476 -1079.24 -1672 168 128 102
-110.305 -1065.57 -1651 174 130 100
-105.488 -1054.5 -1634 179 132 99
-101.869 -1055.04 -1635 186 134 94
-97.8273 -1051.08 -1629 190 138 96
-93.9866 -1049.05 -1626 192 139 96
-90.2715 -1048.32 -1625 191 139 97
-86.8283 -1050.81 -1629 192 140 96
-83.0617 -1049.44 -1627 197 145 100
-79.5001 -1050.65 -1629 202 148 102
-75.8373 -1050.58 -1629 204 150 99
-72.2194 -1051.15 -1630 206 152 100
-68.5137 -1050.44 -1629 209 154 101
-65.052 -1053.6 -1634 210 152 102
-61.3807 -1053.54 -1634 208 154 103
-57.8513 -1056.06 -1638 210 156 105
-54.2383 -1057.3 -1640 209 158 107
-50.771 -1061.76 -1647 209 158 104
-47.4729 -1070.74 -1661 210 159 106
-44.3757 -1086.16 -1685 211 160 109
-41.099 -1099.66 -1706 220 169 118
-37.5755 -1108.65 -1720 231 180 129
-33.9306 -1115.7 -1731 235 184 134
-30.1152 -1118.25 -1735 229 177 129
-26.2368 -1118.87 -1736 225 173 125
-22.3929 -1121.42 -1740 225 177 129
-18.5311 -1123.98 -1744 232 187 140
-14.6433 -1125.9 -1747 234 188 150
-10.7482 -1128.46 -1751 232 192 153
-6.82359 -1129.1 -1752 235 195 156
-2.8995 -1131.67 -1756 242 201 163
1.04227 -1134.25 -1760 248 205 171
24.7493 -1134.97 -1761 242 230 217
28.6685 -1133.71 -1759 228 221 211
-115.172 -1080.14 -1666 159 124 101
-109.742 -1063.83 -1641 171 130 103
-105.266 -1055.94 -1629 178 133 100
-101.78 -1057.79 -1632 188 134 95
-97.9213 -1055.75 -1629 191 137 98
-94.1926 -1055.01 -1628 192 140 100
-90.5807 -1055.57 -1629 193 141 99
-86.9118 -1055.48 -1629 193 141 98
-83.2437 -1055.4 -1629 197 145 100
-79.5276 -1054.67 -1628 203 149 103
-75.7703 -1053.3 -1626 205 151 98
-72.1556 -1053.88 -1627 205 151 98
-68.5794 -1055.11 -1629 206 151 98
-65.0347 -1056.99 -1632 204 149 99
-61.4772 -1058.87 -1635 205 151 101
-57.9421 -1061.4 -1639 207 154 104
-54.3234 -1062.64 -1641 209 158 107
-50.758 -1065.18 -1645 211 160 108
-47.3181 -1070.96 -1654 210 159 108
-44.2073 -1085.81 -1677 207 156 105
-40.9213 -1098.72 -1697 205 154 103
-37.4802 -1109.69 -1714 214 163 112
-33.9042 -1118.72 -1728 225 173 124
-30.1092 -1121.92 -1733 221 169 123
-26.2165 -1121.9 -1733 220 168 122
-22.4014 -1125.76 -1739 227 177 130
-18.5275 -1127.68 -1742 236 188 142
-14.6152 -1127.67 -1742 234 192 152
-10.7399 -1131.54 -1748 234 197 157
-6.81455 -1131.53 -1748 239 202 164
-2.89399 -1133.47 -1751 245 206 171
1.04039 -1136.05 -1755 251 209 174
4.99581 -1139.29 -1760 254 211 175
28.6961 -1138.75 -1759 232 225 215
-115.907 -1090.8 -1675 150 119 99
-110.518 -1075.06 -1651 168 130 104
-105.95 -1066.49 -1638 176 131 99
-102.378 -1067.69 -1640 184 130 91
-98.3167 -1063.69 -1634 189 135 97
-94.4574 -1061.64 -1631 193 141 103
-90.8351 -1062.2 -1632 195 143 102
-87.0491 -1060.82 -1630 194 142 99
-83.324 -1060.08 -1629 196 144 99
-79.6043 -1059.35 -1628 202 148 102
-75.8899 -1058.63 -1627 205 150 98
-72.2697 -1059.21 -1628 205 150 98
-68.6877 -1060.44 -1630 204 149 96
-65.1373 -1062.33 -1633 204 147 98
-61.5364 -1063.57 -1635 205 150 100
-57.998 -1066.11 -1639 208 155 105
-54.3758 -1067.36 -1641 211 160 109
-50.7761 -1069.26 -1644 214 163 111
-47.3065 -1074.41 -1652 214 163 111
-44.118 -1087.38 -1672 205 154 103
-40.8642 -1100.99 -1693 194 143 92
-37.4506 -1112.66 -1711 197 146 95
-33.9172 -1123.03 -1727 208 157 107
-30.1382 -1126.9 -1733 212 160 114
-26.272 -1128.17 -1735 220 168 122
-22.41 -1130.1 -1738 229 179 133
-18.5454 -1132.68 -1742 237 190 143
-14.6209 -1132.02 -1741 237 197 154
-10.7441 -1135.91 -1747 238 202 160
-6.80917 -1134.6 -1745 244 206 167
-2.89508 -1137.84 -1750 248 209 173
1.03969 -1139.14 -1752 251 211 175
4.98938 -1141.75 -1756 254 212 179
8.94159 -1142.4 -1757 253 214 180
12.9133 -1144.37 -1760 244 214 172
16.8602 -1143.73 -1759 223 209 184
20.8146 -1143.75 -1759 222 211 190
24.7832 -1144.42 -1760 244 234 217
28.7076 -1143.15 -1758 229 221 209
32.7163 -1145.13 -1761 224 214 208
-116.019 -1095.63 -1675 149 120 102
-110.759 -1081.13 -1653 165 127 103
-106.312 -1073.83 -1642 174 127 96
-102.54 -1073.08 -1641 179 128 89
-98.5928 -1070.36 -1637 186 135 96
-94.7809 -1068.96 -1635 192 140 102
-91.0346 -1068.22 -1634 194 142 102
-87.2404 -1066.82 -1632 194 142 100
-83.456 -1065.43 -1630 196 143 99
-79.6326 -1063.39 -1627 201 147 103
-75.9169 -1062.66 -1626 205 150 99
-72.2953 -1063.25 -1627 204 149 98
-68.7121 -1064.48 -1629 204 149 98
-65.1206 -1065.73 -1631 208 150 101
-61.6337 -1068.93 -1636 208 153 103
-58.0541 -1070.83 -1639 209 156 105
-54.4284 -1072.09 -1641 210 159 108
-50.8561 -1074.65 -1645 212 161 109
-47.381 -1079.83 -1653 214 163 112
-44.0286 -1088.93 -1667 210 158 110
-40.807 -1103.26 -1689 196 145 94
-37.4431 -1116.28 -1709 194 140 90
-33.8911 -1126.05 -1724 205 150 101
-30.1325 -1130.59 -1731 216 162 114
-26.2974 -1133.17 -1735 224 174 127
-22.4445 -1135.76 -1739 229 180 134
-18.5526 -1137.05 -1741 239 191 147
-14.6265 -1136.38 -1740 240 198 157
-10.7484 -1140.28 -1746 244 204 162
-6.81185 -1138.97 -1744 251 208 168
-2.89287 -1140.92 -1747 255 211 173
1.03923 -1142.23 -1749 255 214 176
4.97726 -1142.89 -1750 255 214 182
8.91982 -1143.55 -1751 253 216 184
12.8892 -1146.17 -1755 243 215 176
16.8381 -1146.18 -1755 220 204 180
20.7874 -1146.2 -1755 227 214 193
24.7791 -1148.18 -1758 238 226 207
28.7191 -1147.56 -1757 222 214 205
32.748 -1150.2 -1761 214 208 203
-115.716 -1096.54 -1669 146 119 102
-111.001 -1087.23 -1655 162 124 101
-106.675 -1081.21 -1646 173 127 97
-102.765 -1079.14 -1643 181 130 94
-98.9302 -1077.73 -1641 187 136 98
-95.0474 -1075.66 -1638 191 139 100
-91.235 -1074.26 -1636 192 139 98
-87.3789 -1072.2 -1633 194 141 100
-83.5374 -1070.15 -1630 198 144 103
-79.7103 -1068.1 -1627 199 145 101
-76.0844 -1068.68 -1628 203 148 99
-72.4103 -1068.61 -1628 202 147 97
-68.8213 -1069.85 -1630 204 149 98
-65.2639 -1071.75 -1633 206 151 101
-61.6938 -1073.66 -1636 207 153 102
-58.0398 -1074.26 -1637 211 157 106
-54.4151 -1075.52 -1639 211 157 107
-50.8437 -1078.09 -1643 213 162 110
-47.2836 -1081.32 -1648 214 164 112
-43.8864 -1089.15 -1660 212 162 111
-40.5808 -1100.92 -1678 203 152 103
-37.304 -1115.97 -1701 204 151 103
-33.7665 -1125.78 -1716 211 158 109
-30.0747 -1132.31 -1726 220 168 118
-26.2774 -1136.22 -1732 225 175 128
-22.4146 -1138.16 -1735 231 182 135
-18.5173 -1138.8 -1736 238 190 144
-14.6154 -1139.44 -1737 239 197 155
-10.7401 -1143.36 -1743 249 203 165
-6.81845 -1144.01 -1744 252 207 170
-2.89564 -1145.97 -1747 255 212 176
1.04091 -1147.94 -1750 255 218 180
4.98505 -1148.6 -1751 255 218 187
8.93373 -1149.26 -1752 252 217 189
12.9166 -1152.55 -1757 234 209 183
16.8739 -1152.56 -1757 223 205 183
20.8315 -1152.58 -1757 236 220 200
24.7893 -1152.61 -1757 229 214 197
28.7309 -1151.98 -1756 213 206 199
32.6869 -1152.01 -1756 208 204 201
36.685 -1153.35 -1758 210 206 205
40.6925 -1154.7 -1760 211 208 209
-127.977 -1142.54 -1731 104 98 95
-120.973 -1114.04 -1688 113 102 95
-116.177 -1104.68 -1674 145 119 104
-111.58 -1096.65 -1662 162 125 103
-107.233 -1090.61 -1653 170 127 99
-103.241 -1087.86 -1649 178 128 94
-99.3289 -1085.79 -1646 182 131 95
-95.1987 -1081.07 -1639 186 134 95
-91.2686 -1078.34 -1635 188 135 94
-87.3575 -1075.62 -1631 194 140 100
-83.5679 -1074.21 -1629 200 145 105
-79.6903 -1071.5 -1625 199 145 101
-76.1121 -1072.74 -1627 199 145 97
-72.5702 -1074.64 -1630 200 145 96
-68.9309 -1075.23 -1631 200 145 94
-65.2079 -1074.51 -1630 203 149 98
-61.6409 -1076.42 -1633 205 151 101
-57.9901 -1077.02 -1634 211 157 107
-54.3021 -1076.97 -1634 214 160 109
-50.7386 -1079.55 -1638 216 165 113
-47.1862 -1082.8 -1643 218 169 117
-43.7177 -1088.69 -1652 214 167 115
-40.3299 -1097.87 -1666 207 155 107
-37.0771 -1112.99 -1689 200 148 100
-33.6026 -1124.16 -1706 207 155 107
-29.982 -1132.69 -1719 218 166 119
-26.2575 -1139.26 -1729 226 176 127
-22.4235 -1142.53 -1734 231 182 134
-18.5246 -1143.17 -1735 232 184 137
-14.6549 -1146.44 -1740 232 190 147
-10.7568 -1149.07 -1744 244 200 160
-6.829 -1149.72 -1745 251 208 170
-2.89817 -1151.03 -1747 255 214 178
1.04081 -1151.69 -1748 255 217 182
4.97862 -1151.03 -1747 252 217 185
8.91706 -1151.04 -1747 242 211 181
12.8852 -1153.69 -1751 226 203 178
16.8521 -1155.02 -1753 233 215 190
20.8165 -1155.7 -1754 238 222 203
24.7996 -1157.04 -1756 218 205 189
28.7592 -1157.06 -1756 208 201 195
32.7563 -1158.41 -1758 203 199 197
36.7629 -1159.76 -1760 206 202 202
40.7557 -1160.46 -1761 208 205 206
-120.877 -1116.96 -1685 113 102 93
-116.292 -1109.56 -1674 147 124 106
-111.892 -1103.48 -1665 164 131 106
-107.664 -1098.73 -1658 173 131 103
-103.656 -1095.98 -1654 178 128 94
-99.5476 -1091.9 -1648 180 129 93
-95.2925 -1085.84 -1639 186 134 96
-91.2468 -1081.77 -1633 188 136 96
-87.3899 -1079.7 -1630 190 138 97
-83.6503 -1078.95 -1629 194 141 99
-79.916 -1078.21 -1628 196 142 98
-76.4211 -1080.78 -1632 197 143 95
-72.7307 -1080.71 -1632 199 144 95
-69.168 -1082.62 -1635 199 144 93
-65.3521 -1080.57 -1632 201 147 96
-61.7772 -1082.49 -1635 204 150 100
-57.9761 -1080.45 -1632 211 157 107
-54.289 -1080.39 -1632 216 162 112
-50.7575 -1083.65 -1637 218 167 116
-47.1463 -1085.59 -1640 218 169 118
-43.6281 -1090.18 -1647 218 170 121
-40.2242 -1098.74 -1660 214 164 115
-36.8717 -1110.62 -1678 203 152 101
-33.3792 -1120.51 -1693 211 159 110
-29.8368 -1131.07 -1709 222 170 126
-26.1465 -1138.32 -1720 226 176 127
-22.355 -1142.93 -1727 226 179 131
-18.4999 -1145.56 -1731 226 181 134
-14.6355 -1148.85 -1736 225 183 143
-10.7488 -1152.15 -1741 227 191 153
-6.82391 -1152.8 -1742 235 198 162
-2.89598 -1154.12 -1744 241 203 169
1.04012 -1154.78 -1745 239 204 171
4.97219 -1153.46 -1743 233 204 171
8.90548 -1153.47 -1743 228 202 171
12.8612 -1155.46 -1746 227 207 182
16.8495 -1158.79 -1751 235 218 195
20.8014 -1158.8 -1751 226 212 195
24.7959 -1160.81 -1754 212 201 188
28.7385 -1160.18 -1753 207 199 193
32.6954 -1160.21 -1753 204 200 198
36.6529 -1160.24 -1753 205 202 201
40.657 -1161.6 -1755 206 203 204
44.6195 -1161.65 -1755 206 204 204
48.638 -1163.02 -1757 206 204 204
56.7038 -1165.77 -1761 210 207 208
-126.231 -1134.66 -1704 104 98 95
-120.638 -1118.56 -1680 111 98 89
-116.129 -1111.78 -1670 148 126 109
-111.935 -1107.67 -1664 167 135 110
-107.77 -1103.57 -1658 176 135 106
-103.822 -1101.47 -1655 180 132 98
-99.6462 -1096.71 -1648 182 132 95
-95.3287 -1089.96 -1638 188 136 97
-91.2253 -1085.21 -1631 190 138 98
-87.4228 -1083.79 -1629 190 138 97
-83.7331 -1083.7 -1629 191 139 98
-80.0442 -1083.62 -1629 193 140 97
-76.5436 -1086.2 -1633 196 142 96
-72.8027 -1085.47 -1632 198 143 95
-69.1094 -1085.4 -1632 199 144 94
-65.3365 -1084 -1630 200 148 98
-61.6869 -1084.6 -1631 204 152 101
-57.9623 -1083.88 -1630 208 156 105
-54.3427 -1085.15 -1632 214 163 112
-50.7766 -1087.76 -1636 220 170 120
-47.1642 -1089.7 -1639 223 173 124
-43.5652 -1092.32 -1643 222 174 125
-40.0699 -1098.26 -1652 225 175 128
-36.6222 -1106.86 -1665 216 166 117
-33.1161 -1115.47 -1678 219 169 120
-29.639 -1127.41 -1696 224 172 126
-26.0201 -1136.69 -1710 225 175 126
-22.2993 -1143.97 -1721 223 176 129
-18.4968 -1149.27 -1729 222 177 132
-14.6415 -1153.24 -1735 227 185 141
-10.7532 -1156.55 -1740 226 191 149
-6.82642 -1157.21 -1741 229 195 155
-2.89545 -1157.87 -1742 230 195 158
1.04063 -1159.2 -1744 223 196 162
4.97432 -1157.87 -1742 223 197 165
8.89902 -1156.55 -1740 226 202 173
12.8445 -1157.89 -1742 231 214 192
16.8277 -1161.23 -1747 226 212 195
20.7864 -1161.91 -1748 213 201 188
24.7639 -1163.26 -1750 210 199 190
28.7341 -1163.96 -1751 210 200 195
32.6905 -1163.99 -1751 206 202 200
36.6474 -1164.02 -1751 203 200 199
40.6277 -1164.72 -1752 204 201 202
44.6131 -1165.43 -1753 205 202 205
48.6587 -1167.47 -1756 204 201 202
52.7783 -1170.85 -1761 206 203 204
56.7277 -1170.24 -1760 209 206 207
-125.986 -1136.3 -1699 103 97 94
-120.542 -1121.47 -1677 111 95 87
-115.827 -1112.66 -1664 153 132 116
-111.71 -1109.2 -1659 170 143 116
-107.487 -1104.41 -1652 175 137 106
-103.611 -1102.97 -1650 179 133 97
-99.5033 -1098.86 -1644 183 133 96
-95.307 -1093.41 -1636 187 135 96
-91.2601 -1089.31 -1630 191 139 99
-87.4024 -1087.22 -1627 194 142 102
-83.7649 -1087.8 -1628 195 143 103
-80.173 -1089.05 -1630 195 143 101
-76.7605 -1092.98 -1636 195 142 96
-72.9644 -1091.57 -1634 199 145 97
-69.3052 -1092.17 -1635 203 148 98
-65.4015 -1088.76 -1630 202 151 100
-61.7103 -1088.7 -1630 205 154 104
-57.9843 -1087.97 -1629 212 160 112
-54.2633 -1087.25 -1628 216 166 116
-50.6095 -1087.86 -1629 220 172 123
-47.0094 -1089.82 -1632 224 177 129
-43.4226 -1092.45 -1636 224 179 131
-39.8668 -1096.41 -1642 227 177 132
-36.3723 -1103.05 -1652 224 174 129
-32.8922 -1111.7 -1665 216 166 120
-29.4061 -1122.35 -1681 211 161 112
-25.8631 -1133.67 -1698 217 167 120
-22.1657 -1140.99 -1709 222 175 130
-18.4401 -1149.65 -1722 227 183 140
-14.6222 -1155.64 -1731 233 188 149
-10.7514 -1160.3 -1738 234 195 158
-6.82527 -1160.96 -1739 235 197 162
-2.89991 -1163.63 -1743 235 197 166
1.04173 -1164.29 -1744 226 198 170
4.97932 -1162.96 -1742 225 202 175
8.90815 -1161.63 -1740 229 209 186
12.8351 -1160.98 -1739 224 210 193
16.8254 -1165 -1745 210 199 191
20.7714 -1165.02 -1745 205 194 186
24.7885 -1168.38 -1750 209 198 191
28.7627 -1169.07 -1751 211 201 197
32.7233 -1169.1 -1751 205 201 200
36.6421 -1167.8 -1749 201 197 197
40.6451 -1169.18 -1751 201 198 199
44.5555 -1167.88 -1749 202 198 200
48.5686 -1169.26 -1751 201 198 199
52.711 -1173.32 -1757 204 201 202
56.6875 -1173.38 -1757 204 201 202
-133.115 -1168.97 -1740 97 95 91
-126.26 -1142.64 -1701 106 100 97
-121.095 -1130.42 -1683 116 102 91
-116.152 -1119.56 -1667 161 143 125
-111.822 -1114.07 -1659 173 149 120
-107.53 -1108.59 -1651 177 142 110
-103.715 -1107.81 -1650 181 136 100
-99.4212 -1101.67 -1641 184 135 97
-95.2858 -1096.87 -1634 189 138 101
-91.2953 -1093.42 -1629 193 142 102
-87.436 -1091.32 -1626 196 144 104
-83.8487 -1092.57 -1628 199 147 106
-80.204 -1093.16 -1629 199 147 105
-76.7434 -1096.44 -1634 199 147 101
-73.0373 -1096.37 -1634 199 146 99
-69.2896 -1095.62 -1633 203 149 99
-65.4267 -1092.87 -1629 204 153 102
-61.8099 -1094.15 -1631 209 158 109
-58.0065 -1092.08 -1628 214 162 114
-54.2841 -1091.35 -1627 219 169 121
-50.66 -1092.64 -1629 223 175 127
-47.0274 -1093.93 -1631 226 180 133
-43.3597 -1094.56 -1632 226 182 136
-39.8094 -1098.54 -1638 230 182 137
-36.2763 -1103.87 -1646 226 178 136
-32.7075 -1109.2 -1654 214 166 123
-29.1901 -1117.88 -1667 210 160 113
-25.6449 -1127.92 -1682 217 169 124
-22.019 -1137.28 -1696 227 181 137
-18.362 -1148.66 -1713 234 190 146
-14.5774 -1156.02 -1724 242 198 158
-10.7434 -1163.38 -1735 245 202 166
-6.82807 -1165.39 -1738 244 201 167
-2.90106 -1168.06 -1742 241 199 168
1.04045 -1166.72 -1740 231 201 175
4.97315 -1165.38 -1738 227 207 189
8.90684 -1165.39 -1738 226 210 196
12.8111 -1162.72 -1734 213 202 195
16.8037 -1167.43 -1741 204 194 191
20.7804 -1169.46 -1744 204 194 189
24.8844 -1176.86 -1755 207 196 191
28.841 -1176.21 -1754 208 198 195
32.8871 -1178.93 -1758 200 196 195
36.7416 -1174.94 -1752 197 193 193
40.7556 -1176.32 -1754 195 192 193
44.5492 -1171.67 -1747 196 192 194
48.5618 -1173.06 -1749 195 192 195
52.6737 -1176.46 -1754 197 194 196
56.7443 -1178.53 -1757 196 193 194
96.6983 -1180.64 -1759 171 166 175
100.806 -1182.08 -1761 130 125 134
104.806 -1182.18 -1761 97 92 101
112.679 -1181.06 -1759 78 75 84
-131.641 -1159.93 -1719 99 97 95
-125.199 -1136.85 -1685 103 99 96
-120.28 -1126.61 -1670 116 106 93
-115.571 -1117.72 -1657 167 152 132
-111.395 -1113.56 -1651 180 157 127
-107.377 -1110.75 -1647 181 149 116
-103.631 -1110.65 -1647 183 141 104
-99.4604 -1105.82 -1640 188 140 101
-95.4984 -1103.03 -1636 191 140 103
-91.5553 -1100.24 -1632 195 144 104
-87.6315 -1097.45 -1628 198 147 106
-83.8298 -1096.02 -1626 202 151 109
-80.1859 -1096.61 -1627 203 151 109
-76.6324 -1098.55 -1630 203 151 106
-72.9764 -1099.15 -1631 202 149 103
-69.3592 -1100.43 -1633 206 152 102
-65.5325 -1098.34 -1630 207 156 105
-61.834 -1098.27 -1630 213 162 112
-57.9934 -1095.52 -1626 220 168 120
-54.3386 -1096.13 -1627 224 174 127
-50.7109 -1097.43 -1629 228 180 133
-47.0746 -1098.73 -1631 230 184 137
-43.4564 -1100.7 -1634 232 188 142
-39.8006 -1102.01 -1636 233 187 144
-36.2245 -1106.01 -1642 232 184 143
-32.562 -1108 -1645 227 179 137
-28.9916 -1114.03 -1654 225 175 131
-25.3959 -1120.74 -1664 225 177 130
-21.807 -1130.14 -1678 230 185 140
-18.1765 -1140.9 -1694 238 195 153
-14.4482 -1149.64 -1707 242 202 159
-10.6611 -1158.38 -1720 242 202 164
-6.79548 -1163.76 -1728 237 200 164
-2.89221 -1168.47 -1735 233 200 167
1.03916 -1169.14 -1736 227 202 179
4.97245 -1169.14 -1736 218 201 192
8.92093 -1171.17 -1739 208 194 190
12.8168 -1167.14 -1733 198 188 189
16.7724 -1169.18 -1736 197 187 185
20.7297 -1170.54 -1738 197 188 184
24.8386 -1178.65 -1750 198 189 185
28.7713 -1177.33 -1748 200 189 186
32.8266 -1180.73 -1753 192 188 187
36.7158 -1178.07 -1749 191 187 187
40.7966 -1181.47 -1754 191 188 189
44.5432 -1175.46 -1745 191 188 191
48.6106 -1178.2 -1749 190 187 191
52.817 -1183.64 -1757 188 185 189
96.4105 -1181.1 -1752 91 84 93
100.507 -1182.54 -1754 86 79 88
104.792 -1186.02 -1759 88 83 92
108.73 -1185.45 -1758 89 86 93
-131.008 -1158.23 -1709 97 95 93
-124.953 -1138.45 -1680 96 92 89
-120.258 -1130.19 -1668 113 104 90
-115.549 -1121.26 -1655 169 155 135
-111.237 -1115.73 -1647 191 166 136
-107.355 -1114.26 -1645 189 161 126
-103.546 -1113.48 -1644 193 154 115
-99.3788 -1108.63 -1637 191 145 104
-95.5948 -1107.86 -1636 195 144 107
-91.7602 -1106.41 -1634 201 150 110
-87.8278 -1103.61 -1630 204 153 113
-84.0177 -1102.17 -1628 206 155 113
-80.3656 -1102.76 -1629 208 156 116
-76.6627 -1102.68 -1629 209 156 113
-72.9158 -1101.93 -1628 209 156 111
-69.2591 -1102.53 -1629 212 158 108
-65.4779 -1101.11 -1627 214 163 112
-61.8205 -1101.73 -1628 219 168 118
-58.1234 -1101.66 -1628 224 174 125
-54.4603 -1102.28 -1629 229 181 134
-50.8243 -1103.58 -1631 233 186 141
-47.2087 -1105.57 -1634 236 191 146
-43.5534 -1106.87 -1636 239 195 149
-39.8408 -1106.83 -1636 240 192 149
-36.1726 -1108.15 -1638 235 189 144
-32.4957 -1109.46 -1640 231 185 140
-28.898 -1114.17 -1647 231 181 139
-25.2838 -1119.55 -1655 225 179 132
-21.6599 -1126.29 -1665 223 179 135
-18.0122 -1134.39 -1677 227 185 145
-14.2678 -1139.11 -1684 222 189 164
-10.5601 -1151.27 -1702 222 189 169
-6.74341 -1158.7 -1713 220 192 176
-2.88002 -1167.49 -1726 216 194 182
1.03812 -1171.55 -1732 203 190 184
4.97464 -1173.58 -1735 195 183 180
8.91478 -1174.27 -1736 190 180 179
12.8001 -1169.54 -1729 188 179 182
16.7119 -1168.88 -1728 189 181 183
20.6314 -1168.9 -1728 186 180 183
24.7498 -1178.39 -1742 187 182 186
28.6687 -1177.07 -1740 184 175 177
32.7098 -1180.48 -1745 178 172 177
36.6689 -1180.52 -1745 179 173 178
40.8843 -1188 -1756 180 175 180
44.7158 -1183.98 -1750 176 172 177
96.5632 -1186.94 -1753 99 92 97
104.898 -1191.21 -1759 110 106 108
-136.546 -1176.36 -1728 100 98 97
-130.681 -1159.21 -1703 97 95 93
-125.006 -1142.74 -1679 98 93 90
-120.164 -1133.09 -1665 115 106 93
-115.596 -1125.48 -1654 171 158 138
-111.283 -1119.93 -1646 194 169 139
-107.334 -1117.77 -1643 196 170 133
-103.462 -1116.31 -1641 200 165 124
-99.4798 -1113.48 -1637 196 155 111
-95.692 -1112.7 -1636 196 149 107
-91.9659 -1112.61 -1636 204 156 114
-87.9709 -1109.11 -1631 206 159 116
-84.1546 -1107.67 -1629 211 165 121
-80.3484 -1106.22 -1627 216 165 122
-76.552 -1104.78 -1625 216 166 123
-72.9001 -1105.39 -1626 214 165 121
-69.2868 -1106.67 -1628 215 166 121
-65.5444 -1105.93 -1627 217 170 123
-61.8071 -1105.18 -1626 222 176 129
-58.1108 -1105.12 -1626 226 181 135
-54.5155 -1107.1 -1629 233 187 141
-50.8447 -1107.73 -1630 238 192 147
-47.2855 -1111.08 -1635 240 195 149
-43.6242 -1112.39 -1637 240 196 150
-39.9054 -1112.35 -1637 238 192 151
-36.2092 -1112.99 -1638 234 189 146
-32.489 -1112.95 -1638 231 187 144
-28.8393 -1115.64 -1642 228 185 145
-25.1718 -1118.33 -1646 216 178 133
-21.5124 -1122.38 -1652 201 165 126
-17.826 -1126.44 -1658 199 165 130
-14.087 -1128.46 -1661 192 175 157
-10.3967 -1137.28 -1674 196 178 172
-6.63583 -1144.07 -1684 188 171 170
-2.83106 -1151.53 -1695 177 163 167
1.02363 -1159.01 -1706 174 168 172
4.93379 -1167.84 -1719 177 172 175
8.8724 -1172.6 -1726 178 173 177
12.791 -1172.62 -1726 172 169 174
16.7484 -1175.35 -1730 166 163 171
20.7361 -1178.77 -1735 157 154 163
24.8748 -1188.3 -1749 146 142 151
36.7484 -1187.04 -1747 119 115 121
48.765 -1189.88 -1751 68 67 75
52.8338 -1191.97 -1754 63 61 69
56.9169 -1194.07 -1757 69 66 74
60.9447 -1194.81 -1758 74 71 78
92.7232 -1192.72 -1754 102 94 96
96.5513 -1190.77 -1751 107 101 99
100.596 -1191.55 -1752 113 108 104
104.647 -1192.34 -1753 113 110 104
-135.42 -1170.56 -1712 102 99 101
-129.893 -1156.07 -1691 99 97 95
-124.836 -1145 -1675 102 96 91
-120.142 -1136.67 -1663 124 111 98
-115.784 -1131.08 -1655 183 165 146
-111.464 -1125.5 -1647 196 171 139
-107.574 -1124.02 -1645 198 172 133
-103.694 -1122.55 -1643 199 168 124
-99.703 -1119.71 -1639 198 163 115
-95.9068 -1118.93 -1638 198 156 110
-92.2285 -1119.51 -1639 207 161 118
-88.1686 -1115.32 -1633 211 166 122
-84.1888 -1111.82 -1628 214 170 126
-80.3809 -1110.37 -1626 221 172 128
-76.6772 -1110.29 -1626 221 174 131
-72.75 -1106.8 -1621 221 174 131
-69.1871 -1108.77 -1624 221 173 130
-65.4499 -1108.02 -1623 221 175 130
-61.8701 -1110.01 -1626 226 181 135
-58.2058 -1110.63 -1627 231 187 141
-54.6046 -1112.62 -1630 236 190 145
-51.0213 -1115.29 -1634 240 194 149
-47.3626 -1116.61 -1636 241 196 151
-43.6953 -1117.93 -1638 240 196 152
-39.9461 -1117.2 -1637 237 191 150
-36.2461 -1117.85 -1638 234 187 145
-32.5021 -1117.13 -1637 234 188 145
-28.8335 -1119.14 -1640 233 189 147
-25.1209 -1119.8 -1641 229 188 143
-21.4169 -1121.14 -1643 210 174 135
-17.7257 -1123.85 -1647 176 144 110
-13.9995 -1125.2 -1649 158 137 127
-10.2892 -1129.28 -1655 150 134 140
-6.55962 -1134.73 -1663 142 127 135
-2.79372 -1140.18 -1671 140 126 136
1.00912 -1146.32 -1680 129 119 126
4.87874 -1158.61 -1698 108 104 112
8.79418 -1166.12 -1709 83 81 90
12.7226 -1170.23 -1715 62 62 73
16.6978 -1175.7 -1723 59 58 68
20.7094 -1181.18 -1731 61 60 68
24.7863 -1188.03 -1741 64 62 68
28.7108 -1186.69 -1739 61 58 60
36.6807 -1188.8 -1742 60 59 62
56.7481 -1194.5 -1750 78 74 79
60.6252 -1192.52 -1747 88 83 87
64.8595 -1197.36 -1754 96 89 92
68.7725 -1196.06 -1752 95 88 90
72.6775 -1194.77 -1750 97 89 90
104.515 -1194.81 -1749 113 107 102
-134.134 -1163.3 -1694 102 98 100
-128.719 -1149.44 -1674 107 103 102
-124.292 -1143.81 -1666 108 102 97
-119.831 -1137.51 -1657 140 125 109
-115.623 -1133.27 -1651 195 174 152
-111.579 -1130.41 -1647 202 175 141
-107.815 -1130.29 -1647 203 175 133
-103.801 -1127.44 -1643 206 174 130
-99.8662 -1125.28 -1640 205 168 122
-96.0051 -1123.8 -1638 203 161 116
-92.2668 -1123.71 -1638 211 166 122
-88.151 -1118.81 -1631 213 169 125
-84.3268 -1117.35 -1629 215 171 127
-80.3644 -1113.84 -1624 222 174 131
-76.567 -1112.39 -1622 223 176 133
-72.7348 -1110.25 -1619 222 176 133
-69.0874 -1110.86 -1620 224 176 133
-65.4765 -1112.17 -1622 224 178 133
-61.8193 -1112.79 -1623 228 183 138
-58.1579 -1113.41 -1624 233 189 143
-54.6269 -1116.78 -1629 235 189 144
-51.011 -1118.78 -1632 237 191 146
-47.3531 -1120.1 -1634 237 192 148
-43.7132 -1122.11 -1637 235 191 147
-39.9625 -1121.39 -1636 234 188 147
-36.2167 -1120.66 -1635 234 187 146
-32.4757 -1119.94 -1634 236 189 148
-28.7749 -1120.59 -1635 232 191 149
-25.0086 -1118.51 -1632 235 191 147
-21.3344 -1120.54 -1635 220 183 142
-17.636 -1121.89 -1637 179 147 109
-13.9117 -1121.88 -1637 100 72 56
-10.2 -1123.24 -1639 68 54 52
-6.503 -1128.71 -1647 66 54 52
-2.76635 -1132.82 -1653 65 54 54
0.998188 -1137.61 -1660 64 53 57
4.81759 -1147.9 -1675 63 56 60
8.67437 -1154.07 -1684 64 59 64
12.5724 -1160.25 -1693 64 62 69
16.5112 -1166.43 -1702 65 64 71
20.5034 -1173.31 -1712 68 66 71
24.5269 -1179.5 -1721 74 71 75
28.4924 -1181.58 -1724 77 72 73
32.453 -1182.98 -1726 73 70 73
36.4654 -1185.76 -1730 73 69 71
44.4945 -1189.96 -1736 81 78 79
48.5302 -1192.06 -1739 81 77 76
52.5799 -1194.17 -1742 85 80 79
56.4817 -1192.85 -1740 93 86 85
60.2707 -1189.49 -1735 97 90 89
64.2968 -1190.92 -1737 101 92 91
68.2147 -1190.3 -1736 102 93 92
72.0869 -1189 -1734 105 96 94
99.4793 -1186.19 -1729 114 106 106
103.486 -1186.98 -1730 113 107 106
107.312 -1185.72 -1728 106 104 101
110.614 -1178.97 -1718 103 97 99
-134.034 -1166.3 -1691 101 97 94
-128.852 -1154.44 -1674 107 103 102
-124.495 -1149.48 -1667 109 103 100
-120.1 -1143.84 -1659 156 140 123
-115.812 -1138.89 -1652 203 181 156
-111.761 -1136.02 -1648 207 181 147
-107.796 -1133.84 -1645 211 180 136
-103.718 -1130.28 -1640 215 180 134
-99.6645 -1126.73 -1635 213 174 125
-95.8694 -1125.94 -1634 204 163 119
-92.0235 -1124.47 -1632 208 164 120
-88.0255 -1120.93 -1627 212 168 124
-84.3102 -1120.84 -1627 216 172 128
-80.4471 -1118.69 -1624 221 173 130
-76.5514 -1115.85 -1620 225 179 136
-72.7646 -1114.4 -1618 227 181 138
-69.1586 -1115.7 -1620 229 181 138
-65.5036 -1116.32 -1621 224 178 133
-61.8447 -1116.94 -1622 225 180 134
-58.2536 -1118.95 -1625 226 182 136
-54.7503 -1123.02 -1631 231 185 140
-51.0635 -1123.65 -1632 232 186 141
-47.3728 -1124.29 -1633 232 186 142
-43.678 -1124.93 -1634 231 187 143
-39.9547 -1124.89 -1634 232 186 145
-36.2096 -1124.16 -1633 235 189 149
-32.5091 -1124.81 -1634 236 191 152
-28.7869 -1124.78 -1634 234 196 153
-25.0189 -1122.69 -1631 237 193 150
-21.3302 -1124.04 -1633 233 194 151
-17.6002 -1123.33 -1632 225 191 148
-13.9005 -1124.7 -1634 181 148 117
-10.1856 -1125.37 -1635 94 73 50
-6.48582 -1129.49 -1641 76 60 40
-2.75401 -1131.55 -1644 76 66 48
0.992049 -1134.3 -1648 74 66 61
4.76808 -1139.81 -1656 79 69 65
8.57519 -1144.64 -1663 84 74 72
12.3996 -1148.09 -1668 86 77 76
16.2855 -1154.3 -1677 86 78 80
20.2008 -1159.83 -1685 86 79 80
24.1527 -1165.36 -1693 92 85 85
28.0587 -1167.45 -1696 100 89 90
32.0348 -1171.61 -1702 100 90 92
36.0387 -1175.78 -1708 97 87 88
59.7765 -1183.65 -1719 103 94 91
63.6962 -1183.71 -1719 104 94 92
98.8334 -1182.4 -1716 113 105 109
102.455 -1179.06 -1711 113 105 109
109.826 -1174.46 -1704 109 103 104
-132.904 -1160.29 -1675 103 99 95
-128.138 -1151.84 -1663 106 103 102
-124.101 -1149.64 -1660 109 103 97
-119.862 -1145.35 -1654 172 156 138
-115.792 -1142.46 -1650 209 187 160
-111.877 -1140.96 -1648 213 188 155
-107.776 -1137.38 -1643 221 187 142
-103.699 -1133.81 -1638 221 185 137
-99.7067 -1130.94 -1634 219 179 129
-95.8513 -1129.45 -1632 207 167 122
-92.006 -1127.97 -1630 205 162 118
-88.0083 -1124.42 -1625 212 168 124
-84.1899 -1122.94 -1623 218 174 130
-80.4313 -1122.17 -1622 223 175 132
-76.5833 -1120.01 -1619 227 180 137
-72.795 -1118.55 -1617 230 184 141
-69.1874 -1119.86 -1619 229 183 140
-65.4905 -1119.79 -1619 223 178 132
-61.8705 -1121.11 -1621 222 178 132
-58.278 -1123.12 -1624 223 179 133
-54.6388 -1124.44 -1626 227 181 136
-50.9597 -1125.08 -1627 226 180 137
-47.2765 -1125.72 -1628 224 180 136
-43.5894 -1126.36 -1629 224 182 138
-39.8735 -1126.32 -1629 229 185 143
-36.2025 -1127.66 -1631 235 187 148
-32.4431 -1126.25 -1629 240 192 152
-28.7637 -1127.6 -1631 237 198 155
-25.0141 -1126.19 -1629 241 197 156
-21.3261 -1127.55 -1631 238 199 157
-17.5859 -1126.14 -1629 238 203 159
-13.8977 -1128.2 -1632 234 197 157
-10.1711 -1127.5 -1631 195 167 127
-6.47279 -1130.95 -1636 130 108 71
-2.74668 -1132.32 -1638 100 85 53
0.989141 -1134.4 -1641 93 84 68
4.73553 -1135.78 -1643 98 86 79
8.50163 -1138.55 -1647 101 88 83
12.2786 -1140.64 -1650 99 85 83
16.1082 -1145.49 -1657 104 89 88
19.9339 -1148.28 -1661 104 90 91
23.7922 -1151.76 -1666 105 91 92
27.74 -1158 -1675 107 93 90
31.729 -1164.26 -1684 102 91 89
35.696 -1168.44 -1690 101 90 88
39.8079 -1176.09 -1701 107 96 94
43.9445 -1183.04 -1711 107 95 96
47.8757 -1183.78 -1712 101 94 92
55.5579 -1181.12 -1708 111 102 100
59.5254 -1182.57 -1710 108 98 94
63.3913 -1181.94 -1709 106 93 92
71.1115 -1180.7 -1707 102 92 93
98.3594 -1180.62 -1706 110 102 105
102.022 -1177.96 -1702 112 104 107
105.978 -1178.76 -1703 110 106 106
112.773 -1168.6 -1688 108 103 104
-137.87 -1173.82 -1687 105 101 101
-132.487 -1160.46 -1668 103 100 99
-128.04 -1154.76 -1660 105 103 100
-124.081 -1153.24 -1658 136 130 116
-119.842 -1148.94 -1652 198 184 161
-115.562 -1143.95 -1645 214 194 164
-111.722 -1143.13 -1644 219 194 159
-107.626 -1139.54 -1639 224 192 151
-103.617 -1136.65 -1635 222 187 144
-99.6273 -1133.76 -1631 219 181 134
-95.8923 -1133.66 -1631 209 169 124
-92.0453 -1132.17 -1629 202 159 115
-88.1542 -1129.99 -1626 210 166 122
-84.3295 -1128.51 -1624 220 176 132
-80.4157 -1125.65 -1620 224 177 134
-76.6157 -1124.18 -1618 229 183 140
-72.7805 -1122.02 -1615 230 184 141
-69.1738 -1123.33 -1617 228 182 139
-65.5585 -1124.65 -1619 225 180 135
-61.9349 -1125.97 -1621 222 178 132
-58.2668 -1126.61 -1622 221 177 131
-54.662 -1128.63 -1625 222 176 131
-50.9186 -1127.88 -1624 219 175 131
-47.2385 -1128.52 -1625 219 176 132
-43.4739 -1127.09 -1623 220 178 136
-39.8415 -1129.13 -1626 226 182 140
-36.1734 -1130.48 -1628 234 185 144
-32.4569 -1130.44 -1628 240 191 149
-28.7935 -1132.49 -1631 240 198 154
-25.04 -1131.08 -1629 242 200 160
-21.335 -1131.75 -1630 243 206 163
-17.6041 -1131.03 -1629 244 210 166
-13.8865 -1131.01 -1629 241 206 161
-10.1752 -1131.7 -1630 235 204 157
-6.46348 -1133.08 -1632 214 186 140
-2.74269 -1134.46 -1634 164 139 95
0.986601 -1135.15 -1635 114 96 66
4.72047 -1135.85 -1636 104 90 72
8.45894 -1136.55 -1637 104 92 78
12.2095 -1137.95 -1639 104 93 83
15.9595 -1138.66 -1640 106 92 89
19.7265 -1140.07 -1642 109 95 93
23.5168 -1142.17 -1645 107 94 92
27.371 -1146.37 -1651 106 95 90
31.2341 -1149.87 -1656 101 91 87
35.1412 -1154.07 -1662 102 93 89
39.1699 -1161.05 -1672 109 99 96
43.1934 -1166.65 -1680 106 98 95
47.0298 -1166.7 -1680 101 92 92
51.0482 -1170.92 -1686 106 96 95
54.9647 -1172.36 -1688 109 98 96
62.9004 -1176.65 -1694 105 93 93
97.7118 -1176.71 -1693 111 103 103
101.828 -1179.6 -1697 115 107 107
105.84 -1181.1 -1699 111 106 105
112.756 -1172.29 -1686 109 104 105
-132.228 -1162 -1663 105 101 103
-127.788 -1156.28 -1655 117 115 110
-123.762 -1154.05 -1652 183 175 155
-119.677 -1151.13 -1648 214 202 177
-115.472 -1146.81 -1642 217 201 170
-111.703 -1146.69 -1642 224 201 164
-107.673 -1143.79 -1638 226 198 160
-103.599 -1140.18 -1633 223 193 154
-99.7928 -1139.38 -1632 219 185 144
-95.9927 -1138.58 -1631 213 174 130
-92.1416 -1137.08 -1629 206 163 119
-88.2464 -1134.89 -1626 210 166 122
-84.3658 -1132.71 -1623 222 178 134
-80.5495 -1131.23 -1621 228 182 139
-76.7432 -1129.75 -1619 231 185 142
-72.9469 -1128.28 -1617 232 186 143
-69.2889 -1128.9 -1618 231 185 142
-65.6676 -1130.22 -1620 229 185 139
-61.9231 -1129.46 -1619 227 183 137
-58.1838 -1128.7 -1618 223 179 133
-54.5507 -1130.03 -1620 222 176 131
-50.8777 -1130.68 -1621 220 175 131
-47.1714 -1130.63 -1621 219 176 132
-43.4656 -1130.58 -1621 221 179 137
-39.8094 -1131.93 -1623 229 185 143
-36.1445 -1133.29 -1625 236 189 149
-32.4708 -1134.64 -1627 239 192 152
-28.7705 -1135.31 -1628 242 197 153
-25.0352 -1134.58 -1627 247 205 164
-21.331 -1135.26 -1628 249 213 168
-17.6008 -1134.54 -1627 248 216 167
-13.8667 -1133.13 -1625 244 213 160
-10.167 -1134.51 -1627 240 209 157
-6.4544 -1135.2 -1628 231 199 147
-2.73703 -1135.89 -1629 227 193 140
0.985872 -1137.98 -1632 200 172 126
4.71382 -1137.99 -1632 155 142 107
8.43686 -1137.3 -1631 131 121 91
12.1626 -1137.31 -1631 118 110 87
15.879 -1136.62 -1630 107 100 90
19.6029 -1136.64 -1630 106 99 92
23.3556 -1138.06 -1632 107 99 94
27.1674 -1141.57 -1637 107 97 93
30.9648 -1143.7 -1640 102 94 89
34.7337 -1144.43 -1641 102 95 90
38.6482 -1149.35 -1648 109 102 97
42.5695 -1153.58 -1654 106 100 95
46.4064 -1155.02 -1656 107 96 95
50.2531 -1156.46 -1658 109 98 96
54.3703 -1163.49 -1668 108 96 95
58.2895 -1165.65 -1671 106 94 93
62.3346 -1169.89 -1677 103 90 91
70.4254 -1177.01 -1687 98 90 92
74.2421 -1176.39 -1686 98 88 90
78.1939 -1177.86 -1688 91 83 83
89.3647 -1172.55 -1680 102 94 94
93.5463 -1176.83 -1686 104 97 99
97.2367 -1174.84 -1683 108 101 101
101.395 -1178.43 -1688 113 105 105
105.39 -1179.94 -1690 112 106 105
-137.833 -1181.22 -1683 103 99 101
-132.288 -1166.34 -1662 107 103 105
-127.691 -1159.18 -1652 147 144 137
-123.592 -1156.24 -1648 212 204 185
-119.44 -1152.61 -1643 222 213 190
-115.241 -1148.27 -1637 221 210 183
-111.548 -1148.86 -1638 228 206 170
-107.457 -1145.23 -1633 228 203 167
-103.517 -1143.02 -1630 224 197 160
-99.7754 -1142.91 -1630 222 190 151
-96.1526 -1144.21 -1632 215 177 134
-92.465 -1144.81 -1633 207 165 121
-88.6108 -1143.32 -1631 208 164 120
-84.7147 -1141.12 -1628 218 174 130
-80.8331 -1138.93 -1625 225 179 137
-76.9188 -1136.04 -1621 229 183 141
-73.0235 -1133.16 -1617 229 183 140
-69.3617 -1133.79 -1618 230 184 141
-65.6149 -1133.02 -1617 230 186 140
-61.9116 -1132.95 -1617 227 183 137
-58.1729 -1132.19 -1616 226 182 136
-54.5068 -1132.83 -1617 226 178 133
-50.7425 -1131.37 -1615 224 179 135
-47.0752 -1132.02 -1616 225 181 138
-43.4576 -1134.07 -1619 225 183 141
-39.7529 -1134.03 -1619 232 188 146
-36.0933 -1135.39 -1621 237 195 155
-32.4648 -1138.16 -1625 239 198 158
-28.783 -1139.52 -1627 245 203 161
-25.0769 -1140.2 -1628 249 211 171
