ply
format ascii 1.0
comment Created by Open3D
element vertex 1366
property double x
property double y
property double z
property uchar red
property uchar green
property uchar blue
end_header
113.26 -615.805 -1585 238 240 255
116.43 -615.091 -1583 237 239 255
119.442 -613.601 -1579 236 238 254
122.827 -614.056 -1580 235 237 255
126.137 -614.124 -1580 235 237 255
129.53 -614.583 -1581 231 233 254
132.761 -614.266 -1580 230 232 251
136.333 -615.506 -1583 228 230 249
139.478 -614.804 -1581 228 230 250
143.067 -616.048 -1584 229 231 250
146.3 -615.739 -1583 230 232 248
149.815 -616.598 -1585 233 235 250
153.145 -616.681 -1585 234 236 252
157.07 -619.101 -1591 238 241 254
160.415 -619.188 -1591 242 245 255
163.866 -619.666 -1592 240 243 253
167.427 -620.536 -1594 237 240 254
171.212 -622.186 -1598 235 238 252
174.469 -621.892 -1597 236 239 252
178.058 -622.767 -1599 235 238 252
181.884 -624.424 -1603 233 235 249
185.728 -626.084 -1607 232 235 248
189.473 -627.356 -1610 234 236 254
193.113 -628.24 -1612 235 238 254
196.641 -628.738 -1613 236 240 253
-77.1701 -635.639 -1628 174 176 192
-73.9526 -637.159 -1632 217 223 240
-70.3733 -635.558 -1628 217 223 242
-66.9759 -635.52 -1628 221 228 247
-63.579 -635.484 -1628 227 234 254
-60.0347 -633.889 -1624 228 235 255
-56.438 -631.515 -1618 228 235 254
-52.8997 -629.534 -1613 234 240 254
-49.3519 -627.164 -1607 230 238 254
-45.8296 -624.797 -1601 218 228 244
-42.4122 -623.602 -1598 218 230 252
-39.0323 -622.799 -1596 226 233 254
-35.7505 -623.559 -1598 231 235 255
-32.3187 -621.589 -1593 228 234 253
-28.9443 -620.402 -1590 223 230 251
-25.5828 -619.216 -1587 217 225 248
-22.2621 -618.813 -1586 215 224 245
-18.9218 -617.631 -1583 218 227 247
-15.6238 -617.622 -1583 219 228 248
-12.3026 -616.444 -1580 218 227 250
-9.03389 -617.999 -1584 221 229 252
-5.72687 -617.214 -1582 222 230 251
-2.43129 -617.212 -1582 224 231 252
0.865909 -618.382 -1585 230 236 254
4.16773 -618.384 -1585 237 243 255
7.45052 -616.826 -1581 241 244 255
10.7441 -616.831 -1581 244 247 255
14.0289 -616.448 -1580 245 248 255
17.3096 -616.066 -1579 243 246 255
20.6386 -617.247 -1582 240 243 254
23.9953 -618.82 -1586 236 239 251
27.369 -620.395 -1590 228 234 247
30.7401 -621.582 -1593 229 236 250
34.1241 -622.77 -1596 233 241 255
37.4505 -622.79 -1596 236 244 254
40.8282 -623.592 -1598 237 246 254
44.2148 -624.396 -1600 240 246 253
47.6101 -625.202 -1602 240 245 255
50.9823 -625.619 -1603 239 244 255
54.4268 -626.818 -1606 240 243 253
57.8844 -628.021 -1609 236 240 253
61.3933 -629.615 -1613 225 229 243
64.8388 -630.43 -1615 187 194 206
68.3778 -632.028 -1619 163 169 183
71.6239 -630.895 -1616 190 196 211
74.7653 -628.983 -1611 208 217 231
77.8864 -627.073 -1606 229 234 245
81.0379 -625.555 -1602 231 234 246
84.1733 -624.039 -1598 227 232 247
87.3477 -622.914 -1595 229 234 250
90.4535 -621.401 -1591 230 234 250
93.779 -621.452 -1591 230 235 251
97.1052 -621.504 -1591 231 235 251
100.433 -621.559 -1591 232 236 251
103.63 -620.833 -1589 233 235 252
106.955 -620.891 -1589 235 237 254
110.073 -619.779 -1586 237 239 255
113.25 -619.059 -1584 239 241 255
116.494 -618.731 -1583 239 241 255
119.735 -618.405 -1582 238 240 255
123.05 -618.472 -1582 236 238 255
126.366 -618.541 -1582 233 234 255
129.848 -619.394 -1584 229 230 254
133.086 -619.075 -1583 226 227 253
136.494 -619.541 -1584 227 229 252
139.643 -618.835 -1582 230 232 254
143.146 -619.695 -1584 233 235 255
146.196 -618.601 -1581 238 240 253
149.803 -619.857 -1584 241 243 255
153.23 -620.332 -1585 241 243 255
156.761 -621.2 -1587 239 241 255
160.403 -622.462 -1590 238 241 254
163.956 -623.335 -1592 235 238 250
167.624 -624.601 -1595 228 230 245
171.199 -625.478 -1597 227 229 243
174.566 -625.574 -1597 231 234 246
178.156 -626.455 -1599 231 233 248
181.871 -627.73 -1602 231 233 249
185.599 -629.007 -1605 232 234 251
189.107 -629.503 -1606 235 236 253
192.74 -630.392 -1608 236 238 253
196.383 -631.284 -1610 230 231 245
-73.404 -635.808 -1619 175 178 196
-69.9362 -634.983 -1617 209 215 233
-66.8892 -638.087 -1625 219 225 245
-63.4576 -637.658 -1624 227 233 254
-59.9199 -636.054 -1620 225 233 254
-56.3644 -634.058 -1615 225 233 254
-52.9288 -633.243 -1613 222 231 251
-49.3483 -630.467 -1606 229 239 254
-45.9407 -629.655 -1604 230 240 254
-42.5152 -628.453 -1601 224 232 249
-39.0782 -626.861 -1597 222 229 247
-35.7701 -627.233 -1598 232 239 254
-32.3567 -625.644 -1594 236 245 255
-28.9603 -624.057 -1590 235 243 255
-25.613 -623.257 -1588 230 239 254
-22.2743 -622.459 -1586 230 234 253
-18.9561 -622.055 -1585 228 233 253
-15.6323 -621.26 -1583 227 231 252
-12.3171 -620.468 -1581 227 235 255
-9.02749 -620.854 -1582 228 236 255
-5.72268 -620.066 -1580 232 238 255
-2.42952 -620.063 -1580 234 240 255
0.864712 -620.848 -1582 228 234 253
4.16729 -621.634 -1584 225 231 250
7.45466 -620.46 -1581 225 229 249
10.757 -620.858 -1582 225 229 248
14.0545 -620.865 -1582 225 229 244
17.3411 -620.481 -1581 224 229 244
20.663 -621.276 -1583 225 230 246
24.0389 -623.251 -1588 228 233 248
27.3669 -623.658 -1589 231 239 251
30.7184 -624.459 -1591 235 243 254
34.1002 -625.654 -1594 240 246 255
37.4476 -626.066 -1595 242 250 255
40.8509 -627.266 -1598 242 250 255
44.2116 -627.682 -1599 239 246 253
47.6661 -629.277 -1603 239 242 254
51.0103 -629.305 -1603 239 240 253
54.4908 -630.904 -1607 237 238 249
57.9523 -632.113 -1610 235 238 252
61.5794 -634.895 -1617 226 230 246
64.9951 -635.322 -1618 185 193 210
68.4155 -635.752 -1619 160 167 183
71.619 -634.22 -1615 189 197 213
74.8064 -632.69 -1611 211 221 236
77.8322 -629.983 -1604 231 236 248
81.0319 -628.848 -1601 233 236 247
84.1671 -627.323 -1597 237 241 252
87.2314 -625.406 -1592 239 241 255
90.4464 -624.67 -1590 236 238 252
93.8308 -625.114 -1591 231 236 249
97.0979 -624.774 -1590 231 236 249
100.235 -623.649 -1587 232 236 250
103.557 -623.706 -1587 233 235 250
106.879 -623.764 -1587 233 235 252
110.064 -623.038 -1585 234 236 252
113.241 -622.314 -1583 235 237 253
116.558 -622.377 -1583 238 241 254
119.876 -622.443 -1583 237 240 253
123.04 -621.724 -1581 235 237 254
126.436 -622.187 -1582 233 235 254
129.837 -622.651 -1583 233 235 254
133.076 -622.33 -1582 235 237 255
136.484 -622.799 -1583 240 242 255
139.72 -622.482 -1582 241 244 255
143.135 -622.954 -1583 242 245 255
146.37 -622.641 -1582 244 245 255
149.886 -623.51 -1584 243 245 255
153.411 -624.382 -1586 239 240 255
157.045 -625.649 -1589 232 234 253
160.492 -626.131 -1590 228 230 249
164.047 -627.009 -1592 226 228 246
167.507 -627.495 -1593 224 226 240
170.972 -627.984 -1594 226 228 242
174.772 -629.656 -1598 232 234 248
178.144 -629.754 -1598 234 236 252
182.312 -632.613 -1605 240 243 254
185.702 -632.716 -1605 244 246 255
189.094 -632.82 -1605 246 247 255
192.487 -632.926 -1605 241 241 254
196.37 -634.612 -1609 192 191 206
-69.2394 -631.994 -1600 84 87 107
-66.5144 -637.881 -1615 189 193 213
-63.2974 -639.424 -1619 222 228 246
-59.8051 -638.206 -1616 225 232 252
-56.3956 -637.778 -1615 226 234 254
-52.8595 -635.773 -1610 220 231 252
-49.3756 -634.166 -1606 225 235 252
-45.9947 -633.744 -1605 230 240 255
-42.6716 -634.114 -1606 226 233 250
-39.2222 -632.512 -1602 220 228 247
-35.8571 -632.097 -1601 227 235 254
-32.4152 -630.104 -1596 229 240 255
-29.0127 -628.507 -1592 230 241 255
-25.6111 -626.518 -1587 233 243 255
-22.3006 -626.505 -1587 238 243 255
-18.9546 -625.309 -1584 233 239 255
-15.6509 -625.3 -1584 229 235 253
-12.3395 -624.897 -1583 224 232 253
-9.03803 -624.891 -1583 223 230 251
-5.7332 -624.493 -1582 226 232 252
-2.43699 -625.28 -1584 228 234 254
0.865703 -624.885 -1583 226 232 252
4.1697 -625.281 -1584 229 235 252
7.46846 -624.89 -1583 234 239 251
10.7561 -624.105 -1581 237 241 252
14.0623 -624.507 -1582 241 244 254
17.3729 -624.91 -1583 241 246 255
20.7006 -625.71 -1585 241 246 255
24.0521 -626.907 -1588 246 249 255
27.4338 -628.501 -1592 244 250 255
30.7935 -629.306 -1594 244 250 254
34.1192 -629.325 -1594 244 248 255
37.4919 -630.134 -1596 242 249 255
40.8223 -630.156 -1596 240 248 254
44.2362 -631.364 -1599 236 244 253
47.7223 -633.364 -1604 236 238 252
51.1661 -634.576 -1607 239 240 253
54.5889 -635.395 -1609 238 241 253
58.0927 -637.006 -1613 234 239 255
61.6898 -639.409 -1619 226 232 250
65.0713 -639.445 -1619 181 187 205
68.5381 -640.272 -1621 153 161 176
71.7032 -638.336 -1616 191 200 214
74.8945 -636.797 -1612 212 223 241
77.8755 -633.679 -1604 226 233 246
81.0263 -632.143 -1600 229 234 246
84.1085 -630.213 -1595 237 238 248
87.3348 -629.471 -1593 241 243 253
90.4399 -627.94 -1589 244 247 255
93.824 -628.386 -1590 244 249 255
96.9685 -627.254 -1587 245 248 255
100.228 -626.914 -1586 246 249 255
103.419 -626.18 -1584 243 246 254
106.804 -626.634 -1585 240 242 253
109.917 -625.508 -1582 240 241 252
113.233 -625.57 -1582 239 241 252
116.623 -626.03 -1583 239 242 252
119.867 -625.7 -1582 236 239 250
123.186 -625.768 -1582 232 234 250
126.666 -626.629 -1584 232 234 252
129.91 -626.305 -1583 235 237 255
133.234 -626.378 -1583 238 240 255
136.56 -626.454 -1583 237 239 255
139.798 -626.135 -1582 236 238 254
143.124 -626.214 -1582 236 237 252
146.544 -626.691 -1583 233 234 248
149.874 -626.774 -1583 230 231 247
153.303 -627.255 -1584 229 230 248
156.836 -628.134 -1586 227 229 247
160.581 -629.807 -1590 228 230 248
163.829 -629.501 -1589 233 235 253
167.705 -631.575 -1594 236 238 255
171.068 -631.67 -1594 239 241 255
174.65 -632.559 -1596 241 243 255
178.132 -633.054 -1597 241 244 255
182.187 -635.534 -1603 243 246 255
185.69 -636.034 -1604 241 244 254
189.082 -636.139 -1604 237 241 253
192.115 -635.056 -1601 204 202 219
-66.2218 -638.429 -1607 153 155 173
-63.0979 -640.777 -1613 215 219 239
-59.6532 -639.948 -1611 219 225 245
-56.2524 -639.518 -1610 223 229 249
-52.8562 -639.091 -1609 227 229 247
-49.4031 -637.87 -1606 223 229 249
-45.9917 -637.049 -1604 222 230 250
-42.6954 -637.819 -1606 220 228 253
-39.2931 -637.002 -1604 220 228 253
-35.8995 -636.187 -1602 226 234 255
-32.4332 -633.785 -1596 224 237 255
-29.0289 -632.179 -1592 224 236 255
-25.6253 -630.179 -1587 228 238 255
-22.3131 -630.165 -1587 237 242 255
-18.9651 -628.962 -1584 240 245 255
-15.6299 -627.762 -1581 243 249 255
-12.3307 -627.754 -1581 242 250 255
-9.03166 -627.748 -1581 244 251 255
-5.73266 -627.744 -1581 244 250 255
-2.43369 -627.742 -1581 244 250 255
0.866352 -628.535 -1583 244 250 255
4.16948 -628.537 -1583 245 251 254
7.47264 -628.54 -1583 241 250 255
10.7759 -628.545 -1583 242 250 255
14.0792 -628.552 -1583 242 250 255
17.4155 -629.752 -1586 240 248 255
20.7384 -630.16 -1587 239 246 254
24.0959 -631.364 -1590 241 247 253
27.4146 -631.378 -1590 245 248 255
30.7721 -632.189 -1592 243 244 254
34.0954 -632.207 -1592 241 243 252
37.466 -633.021 -1594 239 244 251
40.8707 -634.235 -1597 238 245 251
44.2886 -635.45 -1600 236 245 253
47.749 -637.064 -1604 239 242 255
51.2265 -638.681 -1608 240 243 255
54.6872 -639.902 -1611 235 241 255
58.161 -641.125 -1614 229 236 254
61.7243 -643.145 -1619 217 223 242
65.188 -643.975 -1621 153 156 169
68.5765 -644.013 -1621 144 148 158
71.7432 -642.066 -1616 195 199 209
74.9363 -640.517 -1612 214 224 239
77.9676 -637.779 -1605 228 235 249
81.0717 -635.836 -1600 230 236 249
84.2083 -634.293 -1596 235 238 249
87.4934 -633.944 -1595 236 239 251
90.6042 -632.404 -1591 240 243 255
93.8173 -631.661 -1589 239 243 255
97.084 -631.317 -1588 241 243 252
100.221 -630.179 -1585 246 248 254
103.411 -629.441 -1583 247 250 255
106.797 -629.898 -1584 247 249 255
110.048 -629.561 -1583 247 249 255
113.296 -629.226 -1582 247 249 255
116.615 -629.291 -1582 246 249 255
119.934 -629.357 -1582 245 248 255
123.255 -629.425 -1582 244 246 255
126.577 -629.495 -1582 240 242 255
129.736 -628.771 -1580 241 243 255
133.056 -628.845 -1580 241 244 255
136.291 -628.523 -1579 240 242 254
139.611 -628.601 -1579 239 240 253
143.023 -629.078 -1580 238 239 251
146.441 -629.558 -1581 231 232 245
149.864 -630.039 -1582 230 231 245
153.389 -630.921 -1584 231 232 247
157.023 -632.204 -1587 236 237 250
160.672 -633.488 -1590 241 243 254
164.127 -633.978 -1591 245 246 255
167.8 -635.267 -1594 245 248 255
171.164 -635.363 -1594 245 248 255
174.968 -637.055 -1598 243 246 255
178.455 -637.553 -1599 238 240 255
182.176 -638.851 -1602 235 237 255
185.563 -638.955 -1602 232 235 254
189.188 -639.858 -1604 230 235 248
191.262 -635.577 -1593 155 152 168
-62.7419 -640.509 -1603 181 183 202
-59.2792 -639.276 -1600 223 227 246
-56.0741 -640.842 -1604 221 226 245
-52.6886 -640.412 -1603 221 226 251
-49.4001 -641.182 -1605 221 226 249
-46.0462 -641.155 -1605 220 225 247
-42.7725 -642.329 -1608 222 225 247
-39.2906 -640.308 -1603 219 226 250
-36.0092 -641.486 -1606 222 231 255
-32.4717 -637.871 -1597 222 234 255
-29.0634 -636.256 -1593 219 228 253
-25.6234 -633.446 -1586 218 226 251
-22.3114 -633.432 -1586 226 230 250
-18.9638 -632.222 -1583 231 235 254
-15.6485 -631.813 -1582 233 238 254
-12.3376 -631.406 -1581 230 238 254
-9.04245 -631.799 -1582 229 236 252
-5.73938 -631.795 -1582 228 234 250
-2.43502 -631.394 -1581 227 233 247
0.866802 -632.192 -1583 233 239 252
4.17434 -632.593 -1584 235 240 250
7.47685 -632.197 -1583 232 241 255
10.775 -631.803 -1582 234 243 255
14.1138 -633.407 -1586 237 243 255
17.4143 -633.017 -1585 236 242 255
20.7632 -634.225 -1588 232 238 251
24.1094 -635.037 -1590 233 238 249
27.4299 -635.052 -1590 237 240 254
30.7892 -635.867 -1592 239 243 255
34.0931 -635.486 -1591 236 239 253
37.4869 -636.704 -1594 235 241 255
40.8937 -637.924 -1597 238 244 255
44.4519 -641.144 -1605 235 244 254
47.8948 -642.369 -1608 238 241 254
51.3828 -643.995 -1612 236 238 251
54.8879 -645.623 -1616 234 236 247
58.374 -646.853 -1619 227 225 237
61.7971 -647.287 -1620 188 184 194
65.265 -648.122 -1622 111 102 106
68.5726 -647.36 -1620 129 120 120
71.8724 -646.601 -1618 198 190 191
74.9784 -644.244 -1612 216 218 227
78.06 -641.889 -1606 224 228 241
81.2186 -640.336 -1602 230 234 248
84.414 -639.183 -1599 235 241 254
87.7071 -638.832 -1598 236 239 253
90.7123 -636.484 -1592 238 240 254
93.9881 -636.136 -1591 238 240 255
97.0774 -634.59 -1587 240 242 253
100.151 -633.046 -1583 243 244 255
103.535 -633.504 -1584 242 243 252
106.924 -633.963 -1585 240 242 252
110.179 -633.625 -1584 242 244 254
113.36 -632.888 -1582 244 246 254
116.754 -633.353 -1583 246 248 255
120.078 -633.42 -1583 246 248 255
123.403 -633.488 -1583 243 245 254
126.729 -633.559 -1583 243 246 254
129.891 -632.831 -1581 243 246 254
133.131 -632.505 -1580 245 248 255
136.368 -632.181 -1579 247 249 255
139.778 -632.66 -1580 247 249 255
143.194 -633.14 -1581 247 249 255
146.709 -634.023 -1583 246 249 255
150.043 -634.107 -1583 243 246 255
153.573 -634.994 -1585 242 245 255
157.112 -635.884 -1587 245 246 255
160.762 -637.176 -1590 245 247 254
164.323 -638.07 -1592 244 246 253
168 -639.366 -1595 243 246 255
171.368 -639.463 -1595 241 244 255
175.286 -641.566 -1600 242 245 255
178.556 -641.265 -1599 238 240 254
182.392 -642.972 -1603 230 232 247
185.784 -643.076 -1603 230 233 248
189.413 -643.985 -1605 215 220 235
-58.9048 -638.56 -1589 180 182 201
-52.6525 -643.319 -1601 221 229 255
-49.3971 -644.495 -1604 220 227 250
-46.1295 -645.674 -1607 219 225 247
-42.8764 -647.256 -1611 220 224 243
-39.3863 -645.224 -1606 219 226 246
-36.0295 -645.202 -1606 216 225 246
-32.5104 -641.969 -1598 222 228 246
-29.1163 -640.746 -1595 222 227 247
-25.6864 -638.321 -1589 221 226 248
-22.3381 -637.504 -1587 224 227 247
-18.9744 -635.885 -1583 226 229 250
-15.6573 -635.474 -1582 230 232 254
-12.3523 -635.466 -1582 228 236 255
-9.04164 -635.058 -1581 228 235 255
-5.7427 -635.456 -1582 229 235 255
-2.43789 -635.453 -1582 226 230 251
0.867456 -635.855 -1583 229 234 253
4.17942 -636.659 -1585 231 236 254
7.49997 -637.466 -1587 228 233 254
10.8085 -637.07 -1586 231 236 255
14.1485 -638.282 -1589 234 238 255
17.479 -638.693 -1590 233 237 255
20.814 -639.105 -1591 232 235 253
24.1081 -638.315 -1589 234 236 253
27.4628 -639.133 -1591 235 240 255
30.8067 -639.551 -1592 234 240 254
34.1766 -640.373 -1594 229 234 250
37.5552 -641.197 -1596 229 234 251
40.9681 -642.424 -1599 234 239 254
44.4494 -644.457 -1604 236 240 252
47.9519 -646.492 -1609 239 237 246
51.412 -647.726 -1612 237 232 239
54.817 -648.158 -1613 228 218 218
58.4793 -651.405 -1621 209 192 188
61.9084 -651.841 -1622 176 157 150
65.2618 -651.475 -1621 117 94 84
68.6962 -651.915 -1622 119 93 78
71.9575 -650.749 -1619 186 161 148
75.0209 -647.977 -1612 219 207 204
78.2014 -646.413 -1608 225 222 229
81.4167 -645.252 -1605 232 232 241
84.7259 -644.897 -1604 230 239 253
87.8118 -642.936 -1599 235 238 253
90.9915 -641.78 -1596 233 235 251
94.1006 -640.224 -1592 236 238 254
97.3161 -639.474 -1590 240 241 255
100.397 -637.922 -1586 241 242 255
103.724 -637.98 -1586 239 240 254
107.052 -638.04 -1586 238 240 254
110.311 -637.699 -1585 239 241 255
113.496 -636.958 -1583 244 245 255
116.968 -637.828 -1585 246 247 255
120.222 -637.493 -1584 245 246 255
123.473 -637.16 -1583 242 243 254
126.801 -637.231 -1583 238 241 254
129.965 -636.499 -1581 239 241 255
133.122 -635.769 -1579 240 242 255
136.445 -635.846 -1579 241 242 255
139.858 -636.327 -1580 242 243 255
143.276 -636.81 -1581 245 246 255
146.885 -638.102 -1584 244 247 254
150.413 -638.992 -1586 238 241 252
153.854 -639.481 -1587 237 240 253
157.498 -640.779 -1590 242 243 254
161.056 -641.676 -1592 242 244 253
164.623 -642.575 -1594 242 244 253
168.412 -644.283 -1598 240 243 255
171.895 -644.783 -1599 237 240 253
175.714 -646.495 -1603 238 241 253
179.44 -647.807 -1606 236 238 253
182.952 -648.313 -1607 225 228 241
185.774 -646.402 -1602 228 231 244
189.639 -648.123 -1606 185 187 203
-55.7876 -644.233 -1594 135 137 155
-52.5508 -645.415 -1597 204 208 228
-49.4559 -648.619 -1605 221 226 247
-46.1557 -649.4 -1607 214 219 240
-42.954 -651.799 -1613 213 219 238
-39.4332 -649.351 -1607 215 223 241
-36.0725 -649.329 -1607 214 224 242
-32.5899 -646.885 -1601 217 223 240
-29.1875 -645.656 -1598 220 226 245
-25.7333 -642.812 -1591 219 226 248
-22.3789 -641.99 -1589 220 224 247
-19.0091 -640.363 -1585 220 225 250
-15.7058 -640.757 -1586 224 230 255
-12.3827 -640.345 -1585 225 229 252
-9.05821 -639.531 -1583 225 230 252
-5.7531 -639.93 -1584 227 233 253
-2.44539 -640.736 -1586 226 232 251
0.869556 -640.735 -1586 227 232 251
4.18715 -641.141 -1587 231 235 254
7.52314 -642.76 -1591 233 236 255
10.8486 -642.766 -1591 234 236 255
14.1833 -643.177 -1592 234 235 255
17.4781 -641.974 -1589 230 232 252
20.8128 -642.389 -1590 231 233 252
24.1673 -643.21 -1592 233 235 254
27.4785 -642.82 -1591 229 237 253
30.8244 -643.241 -1592 232 238 253
34.2176 -644.472 -1595 233 236 249
37.6001 -645.3 -1597 235 234 248
40.9915 -646.131 -1599 235 232 244
44.5024 -648.58 -1605 235 229 235
48.009 -650.627 -1610 232 219 217
51.5687 -653.08 -1616 224 208 203
54.9842 -653.515 -1617 218 193 181
58.4764 -654.76 -1620 214 182 164
61.9436 -655.602 -1622 198 165 145
65.3391 -655.639 -1622 136 102 79
68.6082 -654.465 -1619 137 97 71
71.9541 -654.1 -1618 175 138 114
75.0171 -651.312 -1611 205 178 162
78.2947 -650.547 -1609 223 209 203
81.5646 -649.785 -1607 235 224 222
84.8798 -649.428 -1606 233 233 242
88.0267 -647.86 -1602 231 234 241
91.0435 -645.484 -1596 229 232 241
94.2134 -644.324 -1593 233 236 247
97.4327 -643.57 -1591 237 238 254
100.644 -642.817 -1589 237 238 254
103.914 -642.471 -1588 238 239 255
107.316 -642.936 -1589 239 241 255
110.583 -642.594 -1588 238 239 255
113.632 -641.039 -1584 238 239 255
117.035 -641.51 -1585 240 241 254
120.29 -641.173 -1584 241 242 255
123.777 -642.053 -1586 241 242 255
126.953 -641.314 -1584 237 239 255
130.121 -640.578 -1582 236 238 255
133.367 -640.249 -1581 237 239 255
136.696 -640.326 -1581 237 238 254
140.115 -640.81 -1582 237 238 254
143.539 -641.297 -1583 239 240 254
147.247 -643.001 -1587 241 242 252
150.689 -643.491 -1588 238 239 253
154.233 -644.389 -1590 237 238 254
157.687 -644.884 -1591 239 240 255
161.148 -645.381 -1592 240 242 255
164.924 -647.096 -1596 239 241 255
168.613 -648.408 -1599 236 239 252
172.317 -649.723 -1602 233 236 249
176.034 -651.04 -1605 234 236 250
179.766 -652.359 -1608 237 239 252
182.487 -650.029 -1602 236 239 250
184.836 -646.482 -1593 217 217 227
-55.8196 -647.936 -1594 50 51 67
-52.6138 -649.53 -1598 103 95 104
-49.6692 -654.785 -1611 189 186 201
-46.297 -654.758 -1611 216 215 234
-42.9253 -654.732 -1611 215 220 237
-39.4557 -653.083 -1607 215 222 239
-36.1155 -653.467 -1608 213 222 240
-32.5881 -650.197 -1600 218 223 240
-29.1677 -648.554 -1596 218 224 243
-25.7965 -647.725 -1594 216 223 244
-22.4199 -646.492 -1591 219 225 245
-19.032 -644.449 -1586 219 226 248
-15.7048 -644.033 -1585 218 227 250
-12.382 -643.618 -1584 221 225 249
-9.06908 -643.612 -1584 221 226 249
-5.76372 -644.42 -1586 224 230 250
-2.44674 -644.418 -1586 226 232 251
0.870563 -644.824 -1587 227 232 252
4.19754 -646.045 -1590 234 238 255
7.53689 -647.267 -1593 235 237 255
10.8754 -647.678 -1594 230 232 250
14.2182 -648.092 -1595 228 229 247
17.5212 -646.882 -1592 228 230 247
20.8641 -647.299 -1593 229 231 247
24.181 -646.906 -1592 232 234 249
27.5461 -647.734 -1594 238 236 251
30.9195 -648.563 -1596 236 232 245
34.2802 -648.989 -1597 232 223 228
37.6452 -649.416 -1598 223 209 207
41.0663 -650.657 -1601 214 197 192
44.6111 -653.527 -1608 219 198 186
48.0067 -653.96 -1609 223 196 181
51.5344 -656.021 -1614 226 197 179
54.9817 -656.864 -1616 228 195 170
58.5101 -658.523 -1620 223 181 154
62.0174 -659.777 -1623 205 163 135
65.4169 -659.814 -1623 151 109 78
68.7322 -659.039 -1621 151 104 71
71.9062 -657.047 -1616 184 140 108
75.1997 -656.276 -1614 208 168 142
78.3396 -654.287 -1609 212 184 167
81.6623 -653.926 -1608 225 202 191
84.9284 -653.161 -1606 228 219 220
88.1321 -651.99 -1603 227 228 227
91.1528 -649.601 -1597 231 233 232
94.4449 -649.248 -1596 230 233 237
97.6111 -648.082 -1593 229 231 243
100.766 -646.919 -1590 230 232 247
104.039 -646.571 -1589 233 233 253
107.445 -647.039 -1590 234 235 253
110.647 -646.288 -1588 235 236 254
113.841 -645.538 -1586 233 234 252
117.25 -646.012 -1587 232 233 251
120.588 -646.08 -1587 232 234 252
123.926 -646.151 -1587 233 236 254
127.186 -645.816 -1586 234 236 253
130.443 -645.483 -1585 235 236 254
133.612 -644.744 -1583 235 237 254
136.774 -644.008 -1581 234 235 251
140.195 -644.495 -1582 232 233 250
143.622 -644.984 -1583 234 235 252
147.332 -646.698 -1587 237 239 252
151.06 -648.414 -1591 234 236 252
154.807 -650.133 -1595 232 235 252
158.373 -651.038 -1597 234 235 253
161.646 -650.723 -1596 233 235 252
165.433 -652.448 -1600 233 235 251
169.238 -654.176 -1604 231 232 251
172.847 -655.091 -1606 229 228 244
176.355 -655.6 -1607 231 230 246
180.317 -657.743 -1612 231 232 246
182.934 -654.991 -1605 221 222 229
185.291 -651.425 -1596 169 161 162
-55.8166 -651.236 -1593 52 53 67
-52.7428 -654.475 -1601 82 71 78
-49.7594 -659.351 -1613 153 140 148
-46.4674 -660.549 -1616 195 180 188
-43.0299 -659.706 -1614 206 191 192
-39.5275 -657.638 -1609 214 207 212
-36.1812 -658.025 -1610 217 217 225
-32.668 -655.145 -1603 217 218 230
-29.2758 -654.309 -1601 220 221 234
-25.8923 -653.476 -1599 219 220 235
-22.5455 -653.462 -1599 219 223 236
-19.139 -651.407 -1594 219 225 239
-15.7832 -650.579 -1592 219 227 244
-12.4281 -649.345 -1589 220 225 248
-9.09145 -648.522 -1587 223 228 249
-5.77052 -648.518 -1587 223 229 247
-2.4481 -648.107 -1586 227 231 248
0.871775 -648.923 -1588 226 231 247
4.20002 -649.742 -1590 228 232 247
7.54614 -651.38 -1594 235 229 238
10.8954 -652.203 -1596 233 226 235
14.2264 -651.802 -1595 235 228 234
17.5643 -651.811 -1595 236 228 234
20.9025 -651.822 -1595 227 218 223
24.2103 -651.018 -1593 219 209 210
27.5447 -651.033 -1593 214 200 203
30.9374 -652.276 -1596 209 192 191
34.3214 -653.112 -1598 212 189 178
37.667 -653.133 -1598 225 196 177
41.0898 -654.382 -1601 229 198 177
44.5812 -656.45 -1606 232 198 175
48.0939 -658.521 -1611 236 199 173
51.5962 -660.185 -1615 234 197 170
55.1156 -661.851 -1619 230 194 164
58.6883 -663.928 -1624 224 185 156
62.0912 -663.963 -1624 211 170 139
65.4948 -663.999 -1624 158 114 78
68.7719 -662.812 -1621 154 107 72
71.9923 -661.217 -1617 194 148 112
75.1965 -659.624 -1613 219 174 139
78.3847 -658.032 -1609 223 183 156
81.7094 -657.67 -1608 222 188 166
84.9244 -656.491 -1605 219 198 184
88.1279 -655.314 -1602 219 208 195
91.2053 -653.32 -1597 228 216 205
94.4401 -652.556 -1595 236 226 219
97.6062 -651.384 -1592 238 231 229
100.887 -651.032 -1591 233 227 228
104.165 -650.682 -1590 231 228 233
107.575 -651.153 -1591 232 230 240
110.78 -650.397 -1589 234 233 244
113.907 -649.235 -1586 230 231 244
117.391 -650.12 -1588 227 231 245
120.657 -649.78 -1587 226 231 246
123.998 -649.85 -1587 226 232 248
127.42 -650.333 -1588 230 231 249
130.766 -650.408 -1588 231 233 250
134.027 -650.075 -1587 232 234 251
137.286 -649.744 -1586 231 233 248
140.631 -649.825 -1586 229 232 247
143.977 -649.907 -1586 231 233 249
147.881 -652.451 -1592 233 235 248
151.433 -653.357 -1594 231 235 249
154.993 -654.266 -1596 232 236 249
158.763 -655.997 -1600 233 236 248
162.145 -656.09 -1600 234 237 246
165.632 -656.595 -1601 237 238 247
169.125 -657.103 -1602 235 234 242
172.947 -658.843 -1606 232 224 228
176.238 -658.534 -1605 219 208 210
180.086 -660.279 -1609 208 190 191
182.812 -657.923 -1603 200 175 172
-52.8063 -658.617 -1602 92 79 81
-49.7574 -662.698 -1612 158 139 140
-46.4367 -663.493 -1614 187 165 165
-43.0014 -662.645 -1612 199 170 153
-39.5504 -661.388 -1609 204 176 157
-36.1346 -660.544 -1607 205 178 156
-32.6869 -658.88 -1603 199 185 176
-29.3476 -659.273 -1604 204 191 185
-26.0044 -659.668 -1605 209 195 192
-22.5867 -658.009 -1601 211 203 204
-19.15 -655.12 -1594 214 211 214
-15.7824 -653.877 -1591 215 218 226
-12.451 -653.869 -1591 223 229 246
-9.1024 -652.63 -1588 231 237 251
-5.77755 -652.626 -1588 229 234 243
-2.45409 -653.034 -1589 227 230 237
0.873338 -653.445 -1590 222 222 228
4.20516 -653.857 -1591 218 216 219
7.55048 -655.094 -1594 230 209 202
10.9018 -655.921 -1596 222 199 192
14.2524 -656.34 -1597 217 193 183
17.5745 -655.527 -1595 215 190 181
20.9146 -655.538 -1595 212 186 175
24.2852 -656.373 -1597 210 184 169
27.6125 -655.977 -1596 215 187 171
31.0134 -657.227 -1599 221 191 173
34.4273 -658.48 -1602 229 195 171
37.8068 -658.912 -1603 236 199 171
41.1908 -659.346 -1604 237 199 170
44.6349 -660.604 -1607 241 199 169
48.0324 -661.042 -1608 239 198 171
51.5942 -663.537 -1614 236 196 167
55.0112 -663.98 -1615 232 194 162
58.5777 -666.068 -1620 227 187 156
62.0509 -666.926 -1622 213 170 138
65.3715 -666.14 -1620 165 119 85
68.7692 -666.179 -1620 162 111 75
72.0341 -664.987 -1617 201 150 114
75.2869 -663.796 -1614 223 173 137
78.3815 -661.373 -1608 226 185 151
81.7567 -661.419 -1608 229 189 154
84.9208 -659.822 -1604 234 195 160
88.1241 -658.639 -1601 232 196 172
91.2582 -657.045 -1597 230 196 174
94.5543 -656.688 -1596 226 196 179
97.7242 -655.51 -1593 220 199 182
101.073 -655.568 -1593 221 202 187
104.357 -655.216 -1592 218 202 190
107.637 -654.866 -1591 214 203 200
110.845 -654.106 -1589 221 210 209
114.189 -654.172 -1589 229 218 219
117.312 -653.004 -1586 229 222 224
120.803 -653.897 -1588 231 225 228
124.148 -653.969 -1588 234 228 232
127.575 -654.454 -1589 232 230 238
130.759 -653.705 -1587 233 234 240
134.359 -655.018 -1590 235 237 243
137.366 -653.45 -1586 232 235 242
140.713 -653.531 -1586 232 235 244
144.152 -654.026 -1587 234 237 246
148.06 -656.584 -1593 237 238 244
151.711 -657.908 -1596 237 238 243
155.375 -659.235 -1599 235 236 240
159.252 -661.388 -1604 233 233 235
162.544 -661.07 -1603 226 223 224
166.039 -661.578 -1604 216 210 208
169.435 -661.677 -1604 205 192 184
173.047 -662.602 -1606 197 176 163
176.231 -661.879 -1604 198 173 159
179.855 -662.808 -1606 207 176 161
182.12 -658.787 -1596 204 172 157
-52.5732 -659.05 -1594 94 80 77
-49.5701 -663.568 -1605 156 134 126
-46.3485 -665.607 -1610 194 167 155
-42.973 -665.581 -1610 208 170 142
-39.5979 -665.557 -1610 213 173 142
-36.2006 -665.121 -1609 213 172 138
-32.8079 -664.688 -1608 203 175 150
-29.4745 -665.497 -1610 201 173 149
-26.052 -664.24 -1607 202 171 149
-22.6705 -663.813 -1606 202 173 155
-19.2453 -661.734 -1601 203 175 158
-15.8312 -659.244 -1595 206 179 162
-12.4737 -658.409 -1593 211 184 172
-9.11337 -656.749 -1589 216 189 178
-5.78439 -656.745 -1589 217 191 182
-2.45391 -656.329 -1588 218 190 181
0.872909 -656.329 -1588 219 188 177
4.20503 -657.157 -1590 224 190 174
7.54556 -657.987 -1592 231 191 167
10.9014 -659.232 -1595 231 190 166
14.252 -659.653 -1596 233 191 166
17.5958 -659.662 -1596 232 192 166
20.9267 -659.261 -1595 229 189 163
24.269 -659.274 -1595 227 187 161
27.6112 -659.289 -1595 231 188 154
30.9733 -659.72 -1596 234 191 158
34.4258 -661.805 -1601 237 195 165
37.8053 -662.24 -1602 238 199 168
41.2148 -663.09 -1604 239 199 167
44.6332 -663.942 -1606 241 198 164
48.0902 -665.209 -1609 241 199 172
51.5923 -666.892 -1613 239 198 169
55.1114 -668.577 -1617 234 195 162
58.5757 -669.437 -1619 229 188 155
62.0104 -669.886 -1620 215 171 138
65.4903 -670.751 -1622 172 125 92
68.767 -669.549 -1619 168 115 79
72.1207 -669.177 -1618 205 152 116
75.4241 -668.393 -1616 225 174 137
78.5247 -665.956 -1610 227 185 150
81.7027 -664.349 -1606 230 190 155
84.9705 -663.57 -1604 236 197 164
88.1203 -661.966 -1600 238 200 170
91.1972 -659.95 -1595 237 199 171
94.491 -659.59 -1594 236 200 173
97.7812 -659.233 -1593 233 200 172
100.941 -658.05 -1590 230 197 171
104.286 -658.11 -1590 225 191 168
107.7 -658.586 -1591 216 189 171
110.909 -657.822 -1589 215 188 172
114.255 -657.888 -1589 211 184 170
117.454 -657.128 -1587 206 183 170
120.874 -657.612 -1588 206 184 174
124.143 -657.269 -1587 204 183 173
127.73 -658.586 -1590 201 189 184
130.918 -657.833 -1588 207 195 190
134.353 -658.325 -1589 214 202 196
137.707 -658.405 -1589 216 205 199
141.061 -658.487 -1589 217 205 201
144.418 -658.571 -1589 216 203 199
148.24 -660.73 -1594 222 205 197
151.895 -662.061 -1597 218 203 195
155.564 -663.395 -1600 213 198 189
159.544 -665.976 -1606 209 194 183
162.842 -665.656 -1605 202 183 170
166.137 -665.338 -1604 199 174 157
169.64 -665.851 -1605 207 173 151
173.149 -666.367 -1606 215 177 150
176.114 -664.81 -1602 217 179 151
179.4 -664.5 -1601 216 179 152
181.085 -658.38 -1586 201 168 149
-52.6039 -662.778 -1594 92 78 74
-49.5682 -666.906 -1604 152 128 111
-46.3469 -668.956 -1609 198 166 141
-43.0249 -669.761 -1611 212 169 139
-39.6457 -669.737 -1611 215 172 138
-36.2218 -668.884 -1609 216 173 137
-32.8475 -668.863 -1609 214 175 142
-29.4185 -667.598 -1606 215 175 141
-26.0996 -668.829 -1609 217 176 141
-22.6272 -665.905 -1602 219 177 147
-19.2083 -663.814 -1597 221 180 151
-15.8306 -662.557 -1594 222 183 154
-12.4811 -662.133 -1593 225 186 158
-9.11864 -660.464 -1589 226 188 164
-5.79146 -660.875 -1590 226 191 170
-2.45683 -660.457 -1589 231 194 174
0.873929 -660.457 -1589 233 195 173
4.20999 -661.29 -1591 237 196 171
7.54519 -661.293 -1591 238 196 171
10.901 -662.546 -1594 237 195 169
14.2602 -663.385 -1596 238 196 168
17.6062 -663.394 -1596 238 197 169
20.926 -662.574 -1594 236 194 166
24.268 -662.587 -1594 233 192 162
27.6102 -662.602 -1594 235 192 156
31.0497 -664.698 -1599 236 193 159
34.4246 -665.133 -1600 238 196 166
37.8511 -666.402 -1603 237 198 167
41.3162 -668.088 -1607 238 198 166
44.6871 -668.113 -1607 241 198 164
48.0886 -668.556 -1608 239 197 167
51.5905 -670.249 -1612 239 198 166
55.0756 -671.528 -1615 235 196 163
58.5738 -672.808 -1618 232 189 157
62.0468 -673.676 -1620 216 172 139
65.5289 -674.545 -1622 171 124 91
68.8073 -673.337 -1619 169 116 80
72.0291 -671.715 -1615 208 155 119
75.4216 -671.758 -1615 227 176 138
78.6197 -670.14 -1611 227 184 150
81.9034 -669.355 -1609 233 191 157
85.1264 -668.156 -1606 237 197 163
88.3926 -667.375 -1604 236 201 172
91.4797 -665.348 -1599 234 201 171
94.7243 -664.57 -1597 234 202 171
97.9616 -663.795 -1595 236 202 172
101.128 -662.605 -1592 236 198 170
104.348 -661.833 -1590 234 192 165
107.696 -661.896 -1590 233 193 161
110.975 -661.544 -1589 234 192 163
114.251 -661.194 -1588 230 188 161
117.597 -661.262 -1588 224 187 160
121.021 -661.749 -1589 222 187 162
124.216 -660.989 -1587 223 189 165
127.805 -662.312 -1590 220 191 173
130.83 -660.723 -1586 221 194 175
134.263 -661.217 -1587 222 194 175
137.528 -660.881 -1586 223 194 175
141.145 -662.214 -1589 223 194 176
144.594 -662.715 -1590 226 195 176
148.514 -665.302 -1596 229 195 174
152.27 -667.059 -1600 229 196 175
155.947 -668.401 -1603 228 195 173
159.639 -669.745 -1606 228 194 171
163.04 -669.84 -1606 224 188 163
166.442 -669.938 -1606 216 178 150
169.846 -670.038 -1606 214 176 143
173.251 -670.139 -1606 221 178 143
176.438 -669.408 -1604 218 178 145
179.506 -668.261 -1601 218 179 150
181.535 -663.359 -1589 195 162 144
-52.4368 -664.003 -1588 89 78 71
-49.35 -667.318 -1596 142 118 102
-46.2301 -670.635 -1604 196 164 141
-42.9701 -672.281 -1608 212 169 137
-39.5952 -672.257 -1608 214 171 136
-36.2431 -672.652 -1609 216 173 137
-32.8873 -673.05 -1610 214 175 140
-29.4908 -672.614 -1609 215 175 140
-26.0987 -672.179 -1608 216 175 140
-22.6405 -669.657 -1602 219 177 147
-19.2317 -667.972 -1598 222 182 152
-15.8497 -666.708 -1595 225 186 157
-12.4806 -665.446 -1592 227 187 153
-9.13562 -665.021 -1591 229 191 159
-5.7949 -664.599 -1590 230 193 165
-2.45842 -664.179 -1589 235 196 167
0.874401 -664.178 -1589 237 197 167
4.20723 -664.18 -1589 238 195 165
7.54029 -664.183 -1589 240 198 172
10.8937 -665.443 -1592 239 197 170
14.242 -665.868 -1593 241 199 169
17.5835 -665.878 -1593 242 200 170
20.912 -665.471 -1592 240 199 167
24.2518 -665.484 -1592 237 196 162
27.5919 -665.5 -1592 236 193 157
30.9905 -666.771 -1595 235 193 159
34.3588 -667.209 -1596 238 196 164
37.8025 -668.902 -1600 237 198 167
41.3149 -671.434 -1606 238 198 166
44.6858 -671.459 -1606 241 198 164
48.1169 -672.323 -1608 238 197 164
51.5891 -673.607 -1611 238 197 164
55.0742 -674.893 -1614 234 195 160
58.536 -675.763 -1616 232 189 157
62.0453 -677.054 -1619 218 172 139
65.4868 -677.509 -1620 171 122 87
68.8054 -676.713 -1618 171 118 82
72.1609 -676.336 -1617 210 158 121
75.3728 -674.707 -1613 228 176 138
78.6173 -673.498 -1610 228 185 151
81.85 -672.29 -1607 234 192 157
85.0706 -671.085 -1604 238 197 162
88.2795 -669.881 -1601 233 200 170
91.4764 -668.679 -1598 234 201 168
94.7804 -668.316 -1597 234 202 166
97.9579 -667.117 -1594 237 201 169
101.315 -667.176 -1594 239 200 168
104.606 -666.819 -1593 238 196 164
107.827 -666.045 -1591 238 196 162
111.11 -665.691 -1590 238 194 163
114.462 -665.758 -1590 236 192 161
117.667 -664.989 -1588 235 192 159
120.94 -664.641 -1587 234 192 160
124.368 -665.133 -1588 238 195 163
127.72 -665.208 -1588 243 199 171
130.99 -664.866 -1587 243 200 171
134.512 -665.783 -1589 243 201 172
137.869 -665.863 -1589 245 202 173
141.228 -665.947 -1589 245 202 172
144.861 -667.289 -1592 245 203 172
148.695 -669.472 -1597 246 202 171
152.265 -670.4 -1599 245 202 171
155.845 -671.33 -1601 244 201 169
159.534 -672.682 -1604 242 198 166
162.933 -672.778 -1604 235 191 159
166.333 -672.876 -1604 223 183 148
169.735 -672.976 -1604 216 182 143
172.922 -672.239 -1602 219 181 143
176.103 -671.504 -1600 217 179 148
178.94 -669.511 -1595 214 177 150
180.5 -662.902 -1579 187 153 137
-52.3688 -666.469 -1585 87 76 69
-49.3484 -670.644 -1595 136 114 99
-46.2287 -673.979 -1603 193 163 142
-42.9955 -676.055 -1608 209 168 135
-39.6186 -676.03 -1608 212 171 135
-36.2646 -676.428 -1609 216 174 135
-32.9067 -676.828 -1610 215 175 140
-29.4532 -675.128 -1606 217 176 141
-26.0492 -674.27 -1604 219 177 143
-22.6398 -672.995 -1601 220 179 147
-19.231 -671.301 -1597 224 184 153
-15.8293 -669.189 -1592 227 188 159
-12.4565 -667.499 -1588 232 190 151
-9.15244 -669.594 -1593 235 194 158
-5.79815 -668.329 -1590 234 194 161
-2.46136 -668.327 -1590 237 196 161
0.875079 -667.906 -1589 241 198 164
4.21242 -668.328 -1590 244 198 165
7.54469 -667.911 -1589 240 198 169
10.8934 -668.757 -1591 241 199 169
14.2324 -668.765 -1591 243 201 170
17.5828 -669.195 -1592 245 203 170
20.9113 -668.786 -1591 242 201 167
24.2814 -669.64 -1593 238 197 162
27.6257 -669.655 -1593 236 192 157
30.9894 -670.093 -1594 234 191 157
34.4223 -671.794 -1598 235 193 162
37.825 -672.657 -1600 239 199 167
41.2879 -674.362 -1604 240 199 165
44.7124 -675.228 -1606 242 199 164
48.1754 -676.517 -1609 239 197 167
51.6518 -677.809 -1612 238 197 165
55.1409 -679.102 -1615 237 197 162
58.5708 -679.556 -1616 234 190 156
62.082 -680.854 -1619 219 172 138
65.5257 -681.313 -1620 169 120 84
68.6761 -678.829 -1614 172 119 83
72.0253 -678.45 -1613 210 158 121
75.3241 -677.653 -1611 228 176 138
78.6152 -676.858 -1609 229 186 152
82.0005 -676.906 -1609 234 192 157
85.1743 -675.273 -1605 236 195 160
88.5527 -675.324 -1605 235 200 166
91.7028 -673.695 -1601 237 202 167
94.9554 -672.909 -1599 237 202 165
98.1393 -671.704 -1596 239 203 169
101.438 -671.343 -1595 238 200 165
104.734 -670.983 -1594 234 194 158
108.163 -671.468 -1595 238 195 161
111.386 -670.692 -1593 237 193 161
114.746 -670.759 -1593 236 192 160
117.96 -669.986 -1591 234 191 157
121.165 -669.215 -1589 234 191 157
124.598 -669.71 -1590 238 194 161
127.796 -668.943 -1588 245 199 163
131.068 -668.599 -1587 246 201 165
134.423 -668.678 -1587 249 203 168
137.865 -669.181 -1588 252 206 170
141.313 -669.686 -1589 250 205 169
144.948 -671.036 -1592 250 206 170
148.69 -672.81 -1596 249 204 169
152.451 -674.587 -1600 249 204 169
156.035 -675.522 -1602 247 201 166
159.63 -676.46 -1604 243 197 162
162.929 -676.135 -1603 236 191 156
166.433 -676.656 -1604 225 184 147
169.731 -676.334 -1603 221 182 144
172.81 -675.171 -1600 221 180 142
176.208 -675.276 -1600 215 177 145
179.159 -673.694 -1596 214 177 149
180.608 -666.625 -1579 170 143 123
-52.3339 -669.35 -1583 86 78 72
-49.3777 -674.393 -1595 132 112 99
-46.1696 -676.479 -1600 190 161 144
-42.9142 -678.143 -1604 209 168 135
-39.6176 -679.387 -1607 212 170 134
-36.2862 -680.21 -1609 216 173 134
-32.865 -679.344 -1607 217 176 140
-29.5441 -680.593 -1610 219 177 141
-26.0485 -677.618 -1603 220 177 142
-22.6673 -677.181 -1602 220 179 146
-19.1822 -672.941 -1592 224 183 151
-15.8487 -673.353 -1593 227 186 156
-12.4718 -671.654 -1589 237 191 155
-9.14629 -672.493 -1591 239 194 160
-5.80527 -672.488 -1591 239 194 164
-2.4643 -672.486 -1591 240 198 165
0.875557 -671.64 -1589 244 200 168
4.21762 -672.487 -1591 248 201 169
7.54932 -671.645 -1589 248 203 171
10.8862 -671.651 -1589 248 203 171
14.2321 -672.081 -1590 247 204 170
17.5825 -672.513 -1591 246 203 168
20.937 -672.948 -1592 243 201 165
24.2503 -672.116 -1590 239 198 161
27.6248 -672.977 -1592 236 191 157
30.9496 -672.572 -1591 233 189 156
34.3566 -673.86 -1594 233 191 160
37.7294 -674.304 -1595 238 197 164
41.2095 -676.441 -1600 240 198 164
44.7113 -678.581 -1605 242 199 163
48.2343 -680.723 -1610 240 198 169
51.7147 -682.021 -1613 239 198 165
55.2081 -683.322 -1616 237 196 160
58.642 -683.779 -1617 234 188 153
62.1575 -685.084 -1620 220 173 137
65.5649 -685.122 -1620 167 118 81
68.845 -683.894 -1617 174 120 84
72.0237 -681.821 -1612 211 158 121
75.3225 -681.02 -1610 228 176 138
78.5644 -679.797 -1607 229 184 150
81.9986 -680.268 -1608 232 190 155
85.1722 -678.626 -1604 235 194 159
88.6057 -679.101 -1605 237 198 165
91.7002 -677.039 -1600 237 201 167
94.953 -676.249 -1598 236 201 167
98.198 -675.461 -1596 237 202 168
101.499 -675.097 -1595 235 199 163
104.797 -674.736 -1594 231 195 157
108.227 -675.223 -1595 235 191 156
111.593 -675.289 -1595 235 192 157
114.887 -674.934 -1594 235 192 159
118.179 -674.581 -1593 236 193 158
121.39 -673.806 -1591 239 195 160
124.673 -673.456 -1590 242 197 162
127.953 -673.108 -1589 245 199 161
131.23 -672.763 -1588 248 201 167
134.503 -672.419 -1587 252 205 172
138.034 -673.349 -1589 253 206 174
141.486 -673.856 -1590 248 205 174
144.853 -673.942 -1590 249 206 174
148.5 -675.302 -1593 250 205 173
152.257 -677.089 -1597 251 206 174
156.032 -678.878 -1601 249 203 170
159.327 -678.548 -1600 246 199 166
162.823 -679.07 -1601 236 191 157
166.533 -680.442 -1604 229 184 149
169.832 -680.119 -1603 228 184 148
172.914 -678.949 -1600 227 181 143
176.534 -679.903 -1602 218 178 146
179.492 -678.313 -1598 215 178 149
-52.7623 -678.181 -1595 86 79 75
-49.5623 -680.276 -1600 131 111 101
-46.1684 -679.822 -1599 189 161 146
-42.9132 -681.496 -1603 208 168 135
-39.4934 -680.621 -1601 212 169 133
-36.2177 -682.298 -1605 218 173 134
-32.8028 -681.428 -1603 219 178 140
-29.4332 -681.409 -1603 220 178 140
-25.999 -679.692 -1599 220 178 140
-22.6102 -678.827 -1597 221 180 146
-19.1816 -676.264 -1591 224 183 150
-15.8581 -677.104 -1593 230 188 157
-12.4635 -674.545 -1587 241 193 159
-9.13461 -674.963 -1588 241 194 162
-5.80511 -675.809 -1590 243 197 168
-2.46415 -675.807 -1590 246 201 170
0.875689 -674.956 -1588 250 203 173
4.2204 -676.233 -1591 251 204 173
7.55377 -675.387 -1589 250 205 172
10.8996 -675.817 -1590 250 205 171
14.2496 -676.25 -1591 250 205 169
17.6151 -677.11 -1593 246 203 168
20.9496 -676.696 -1592 243 200 164
24.2955 -676.71 -1592 239 196 160
27.6761 -677.576 -1594 237 192 158
31.0267 -677.593 -1594 235 191 158
34.399 -678.038 -1595 235 192 160
37.7758 -678.485 -1596 237 196 163
41.2601 -680.634 -1601 241 199 165
44.6824 -681.511 -1603 242 199 164
48.2333 -684.09 -1609 240 198 170
51.7136 -685.395 -1612 239 196 164
55.2755 -687.554 -1617 236 193 156
58.8588 -689.714 -1622 232 186 148
62.2334 -689.326 -1621 216 169 131
65.6043 -688.939 -1620 164 115 78
68.8011 -686.853 -1615 177 122 86
72.067 -685.62 -1612 213 158 122
75.2741 -683.963 -1608 230 176 139
78.6607 -684.009 -1608 231 186 152
82.0989 -684.483 -1609 234 191 156
85.436 -684.108 -1608 235 194 159
88.7694 -683.735 -1607 233 196 167
91.9276 -682.088 -1603 236 200 170
95.1291 -680.868 -1600 236 201 170
98.2572 -679.224 -1596 234 199 167
101.624 -679.284 -1596 233 198 162
104.926 -678.921 -1595 230 194 156
108.225 -678.56 -1594 234 189 150
111.73 -679.478 -1596 232 189 152
114.956 -678.695 -1594 233 190 154
118.176 -677.914 -1592 234 190 154
121.387 -677.134 -1590 239 195 158
124.513 -675.931 -1587 244 198 161
127.869 -676.007 -1587 248 202 164
131.143 -675.66 -1586 252 205 171
134.5 -675.74 -1586 253 206 173
138.118 -677.101 -1589 254 207 176
141.483 -677.185 -1589 252 208 176
144.94 -677.698 -1590 253 207 176
148.776 -679.919 -1595 254 207 176
152.444 -681.289 -1598 254 208 177
155.833 -681.382 -1598 251 204 172
159.324 -681.904 -1599 246 199 166
162.718 -682.002 -1599 239 192 159
166.01 -681.675 -1598 231 187 153
169.299 -681.35 -1597 229 186 152
172.478 -680.6 -1595 231 184 147
175.869 -680.706 -1595 221 181 148
178.926 -679.533 -1592 213 175 146
-52.9596 -684.082 -1600 87 81 78
-49.6852 -685.334 -1603 128 110 101
-46.3408 -685.732 -1604 187 160 146
-42.9658 -685.705 -1604 207 168 137
-39.5665 -685.253 -1603 213 170 135
-36.1944 -685.23 -1603 218 173 134
-32.8226 -685.209 -1603 219 177 138
-29.4878 -686.045 -1605 221 179 140
-26.0146 -683.464 -1599 221 179 140
-22.6237 -682.594 -1597 223 182 147
-19.2294 -681.299 -1594 225 184 150
-15.8178 -678.724 -1588 231 189 156
-12.4553 -677.433 -1585 241 193 158
-9.14576 -679.136 -1589 242 195 162
-5.79766 -678.277 -1587 245 200 168
-2.45936 -677.847 -1586 250 203 172
0.87562 -678.274 -1587 252 204 173
4.21767 -679.131 -1589 255 207 173
7.54892 -678.279 -1587 254 209 176
10.8993 -679.14 -1589 253 208 174
14.2583 -680.002 -1591 253 208 173
17.5927 -679.585 -1590 249 204 168
20.9491 -680.024 -1591 246 201 165
24.3101 -680.465 -1592 241 197 159
27.693 -681.336 -1594 235 190 155
31.0454 -681.353 -1594 235 191 156
34.4412 -682.228 -1596 236 193 160
37.7512 -681.395 -1594 240 197 163
41.2335 -683.557 -1599 242 199 165
44.7095 -685.293 -1603 243 200 166
48.2025 -687.031 -1607 239 197 167
51.7128 -688.771 -1611 237 195 160
55.2406 -690.514 -1615 233 191 151
58.7491 -691.832 -1618 231 185 146
62.2327 -692.723 -1620 215 167 129
65.5224 -691.479 -1617 163 113 76
68.7577 -689.81 -1613 177 122 85
72.1106 -689.425 -1612 213 158 121
75.3665 -688.186 -1609 229 174 137
78.6593 -687.378 -1607 231 185 150
82.0465 -687.426 -1607 234 191 156
85.3282 -686.622 -1605 234 193 158
88.547 -685.391 -1602 235 193 163
91.6964 -683.735 -1598 236 196 163
94.9488 -682.935 -1596 237 197 162
98.3167 -682.994 -1596 236 196 163
101.622 -682.627 -1595 237 195 157
105.055 -683.118 -1596 236 192 153
108.494 -683.611 -1597 233 191 152
111.728 -682.821 -1595 232 189 152
114.954 -682.034 -1593 232 189 153
118.173 -681.249 -1591 234 189 151
121.308 -680.037 -1588 238 193 155
124.667 -680.112 -1588 244 198 160
128.027 -680.189 -1588 252 204 167
131.306 -679.839 -1587 253 207 173
134.666 -679.92 -1587 254 208 173
138.115 -680.431 -1588 255 210 176
141.569 -680.945 -1589 254 211 176
144.937 -681.032 -1589 255 212 177
148.586 -682.408 -1592 255 212 177
152.25 -683.786 -1595 255 211 176
155.733 -684.308 -1596 251 207 170
159.121 -684.404 -1596 247 202 165
162.512 -684.502 -1596 240 196 159
166.111 -685.46 -1598 234 189 157
169.614 -685.992 -1599 234 188 158
172.691 -684.809 -1596 233 185 149
176.087 -684.915 -1596 221 181 149
179.372 -684.595 -1595 206 170 143
-53.2567 -691.304 -1608 85 81 79
-49.9324 -692.132 -1610 128 112 103
-46.4556 -690.813 -1607 185 161 146
-43.0187 -689.926 -1605 206 167 137
-39.6893 -690.761 -1607 212 170 135
-36.2615 -689.878 -1605 218 173 134
-32.74 -686.848 -1598 220 178 138
-29.4322 -688.119 -1601 222 178 140
-26.0142 -686.812 -1598 223 178 140
-22.595 -685.078 -1594 225 182 148
-19.229 -684.636 -1593 229 186 152
-15.8175 -682.047 -1587 235 192 158
-12.4549 -680.749 -1584 242 196 158
-9.12258 -680.742 -1584 243 198 162
-5.79365 -681.167 -1585 246 201 167
-2.45922 -681.165 -1585 252 206 171
0.876308 -682.024 -1587 254 207 172
4.22557 -683.745 -1591 255 207 172
7.57265 -683.748 -1591 255 209 178
10.9335 -684.614 -1593 254 208 176
14.276 -684.191 -1592 253 207 174
17.6254 -684.201 -1592 249 203 168
20.9752 -684.213 -1592 247 201 165
24.3249 -684.227 -1592 240 194 157
27.6924 -684.673 -1593 234 189 153
31.1033 -685.98 -1596 232 188 153
34.5702 -688.149 -1601 235 192 158
37.9402 -688.171 -1601 239 196 162
41.336 -688.625 -1602 239 196 161
44.7645 -689.511 -1604 241 197 161
48.2919 -691.689 -1609 238 197 165
51.8085 -693.439 -1613 236 194 158
55.2743 -694.332 -1615 231 189 149
58.8213 -696.086 -1619 230 182 143
62.1937 -695.693 -1618 215 165 127
65.5218 -694.873 -1616 162 111 74
68.7568 -693.194 -1612 174 119 82
72.1098 -692.807 -1611 212 157 120
75.4592 -692.421 -1610 227 172 135
78.8543 -692.469 -1610 228 182 146
82.1477 -691.658 -1608 232 189 154
85.4865 -691.279 -1607 233 192 157
88.6561 -689.611 -1603 235 192 159
91.9244 -688.806 -1601 235 194 157
95.0066 -686.712 -1596 234 194 156
98.315 -686.341 -1595 234 195 165
101.62 -685.971 -1594 235 193 161
104.988 -686.034 -1594 235 192 159
108.424 -686.53 -1595 230 192 158
111.726 -686.167 -1594 230 191 156
114.88 -684.945 -1591 231 190 155
118.394 -685.877 -1593 235 192 153
121.382 -683.798 -1588 241 197 159
124.664 -683.442 -1587 247 203 164
128.025 -683.52 -1587 251 209 167
131.386 -683.599 -1587 253 211 172
134.663 -683.25 -1586 254 211 173
138.112 -683.764 -1587 254 212 174
141.477 -683.85 -1587 254 213 174
145.208 -685.662 -1591 255 214 175
148.491 -685.321 -1590 255 213 175
152.057 -686.275 -1592 255 213 176
155.438 -686.369 -1592 252 209 172
158.82 -686.465 -1592 249 205 167
162.305 -686.995 -1593 242 200 161
166.005 -688.39 -1596 237 192 157
169.824 -690.218 -1600 236 190 155
173.554 -691.618 -1603 231 185 149
176.857 -691.294 -1602 217 181 150
180.382 -691.835 -1603 192 161 135
-53.3556 -695.976 -1610 83 80 81
-49.9319 -695.512 -1609 126 112 104
-46.484 -694.618 -1607 184 161 146
-43.0182 -693.294 -1604 204 166 138
-39.7383 -694.998 -1608 213 171 137
-36.2384 -692.813 -1603 219 173 134
-32.8625 -692.792 -1603 222 178 138
-29.4317 -691.477 -1600 225 180 141
-26.0952 -692.324 -1602 226 181 143
-22.6087 -688.852 -1594 228 185 150
-19.2286 -687.975 -1592 233 190 155
-15.8471 -686.668 -1589 237 194 160
-12.4783 -685.363 -1586 244 199 161
-9.128 -684.492 -1584 245 201 164
-5.80083 -685.352 -1586 246 203 167
-2.46239 -685.349 -1586 251 206 168
0.876795 -685.781 -1587 253 208 171
4.22285 -686.647 -1589 254 208 172
