ply
format ascii 1.0
comment Created by Open3D
element vertex 1376
property double x
property double y
property double z
property uchar red
property uchar green
property uchar blue
end_header
-166.816 159.989 -1094 158 146 163
-164.579 159.956 -1094 140 128 147
-162.938 160.508 -1098 128 117 132
-160.55 160.33 -1097 119 110 120
-158.311 160.298 -1097 116 108 111
-155.505 159.682 -1093 119 111 114
-152.997 159.359 -1091 117 109 116
-150.498 159.037 -1089 118 110 116
-148.144 158.861 -1088 119 111 117
-145.796 158.686 -1087 120 112 118
-143.454 158.512 -1086 121 113 119
-141.116 158.337 -1085 123 115 121
-138.784 158.164 -1084 125 117 124
-136.709 158.282 -1085 127 119 127
-134.631 158.401 -1086 129 125 142
-132.551 158.521 -1087 134 129 146
-130.946 159.224 -1092 139 131 149
-128.851 159.344 -1093 137 131 153
-126.754 159.464 -1094 138 133 156
-124.653 159.585 -1095 138 134 159
-122.996 160.289 -1100 135 132 157
-120.991 160.556 -1102 132 132 156
-119.841 161.99 -1112 133 133 158
-118.122 162.694 -1117 136 136 161
-116.177 163.108 -1120 136 134 158
-114.526 163.959 -1126 133 132 156
-112.553 164.373 -1129 135 134 158
-110.959 165.37 -1136 135 135 161
-108.859 165.64 -1138 134 134 160
-106.94 166.201 -1142 135 135 159
-104.914 166.616 -1145 134 134 160
-103.145 167.469 -1151 132 133 160
-101.353 168.322 -1157 130 134 161
-99.6233 169.32 -1164 130 134 161
-97.7826 170.174 -1170 129 133 158
-95.837 170.882 -1175 128 132 158
-93.5539 171.008 -1176 124 128 155
-91.3451 171.281 -1178 121 125 150
-89.2044 171.699 -1181 121 125 150
-87.0525 172.118 -1184 122 126 151
-84.8892 172.537 -1187 123 127 152
-82.7841 173.102 -1191 122 126 151
-80.7311 173.813 -1196 124 128 152
-78.5932 174.378 -1200 124 128 152
-76.5034 175.09 -1205 123 127 150
-74.7015 176.528 -1215 121 125 148
-73.0386 178.402 -1228 116 120 143
-71.2092 179.986 -1239 110 114 135
-69.2809 181.425 -1249 111 114 134
-67.3664 183.009 -1260 115 117 137
-65.5629 185.029 -1274 113 114 132
-298.683 177.222 -1214 226 222 226
-292.45 174.973 -1199 227 223 226
-288.218 173.894 -1192 227 223 226
-284.498 173.107 -1187 228 224 227
-280.563 172.175 -1181 231 227 230
-277.128 171.536 -1177 229 225 229
-273.478 170.752 -1172 227 223 226
-270.545 170.406 -1170 227 223 227
-267.165 169.77 -1166 225 221 224
-263.577 168.989 -1161 225 221 224
-260.463 168.5 -1158 225 221 224
-257.14 167.866 -1154 225 221 224
-254.277 167.524 -1152 225 221 224
-250.989 166.892 -1148 224 221 224
-247.935 166.406 -1145 225 222 225
-244.896 165.921 -1142 227 223 226
-241.872 165.437 -1139 225 222 225
-239.073 165.098 -1137 222 219 222
-236.076 164.615 -1134 223 216 220
-233.299 164.278 -1132 221 213 217
-229.921 163.507 -1127 210 202 204
-226.566 162.736 -1122 181 172 173
-222.434 161.386 -1113 143 133 133
-217.748 159.603 -1101 122 110 110
-214.092 158.545 -1094 120 107 105
-210.661 157.634 -1088 124 108 103
-208.406 157.592 -1088 129 109 102
-206.342 157.696 -1089 133 112 104
-205.025 158.379 -1094 134 117 108
-203.874 159.207 -1100 134 116 105
-203.434 160.614 -1110 113 92 79
-202.954 162.021 -1120 85 62 50
-203.509 164.295 -1136 72 48 35
-204.177 166.713 -1153 72 48 35
-202.327 167.106 -1156 73 47 35
-201.158 168.078 -1163 75 48 36
-198.765 168.039 -1163 72 47 37
-196.036 167.711 -1161 74 49 41
-192.149 166.373 -1152 77 53 48
-186.819 163.736 -1134 113 93 98
-179.936 159.658 -1106 181 165 174
-175.902 158.035 -1095 162 150 165
-172.706 157.135 -1089 151 141 156
-170.633 157.245 -1090 157 148 162
-168.557 157.356 -1091 160 148 165
-166.935 157.9 -1095 150 138 155
-164.998 158.156 -1097 133 123 138
-163.202 158.556 -1100 122 112 125
-160.81 158.38 -1099 119 110 120
-158.568 158.349 -1099 118 110 113
-156.043 158.03 -1097 118 110 113
-153.387 157.567 -1094 116 108 113
-150.883 157.249 -1092 116 108 115
-148.388 156.932 -1090 115 107 115
-146.036 156.759 -1089 119 111 117
-143.69 156.587 -1088 124 116 122
-141.349 156.415 -1087 126 118 124
-139.013 156.244 -1086 127 119 125
-136.808 156.217 -1086 129 121 127
-134.977 156.622 -1089 127 122 139
-133.012 156.883 -1091 132 127 144
-131.16 157.289 -1094 138 129 147
-129.062 157.407 -1095 138 132 153
-127.192 157.814 -1098 139 134 157
-124.97 157.789 -1098 137 134 157
-123.196 158.339 -1102 135 133 156
-121.296 158.747 -1105 134 133 157
-119.602 159.441 -1110 135 135 159
-117.782 159.993 -1114 134 134 158
-116.155 160.832 -1120 137 135 159
-114.402 161.527 -1125 137 135 159
-112.63 162.223 -1130 136 134 158
-111.035 163.206 -1137 134 134 160
-109.029 163.615 -1140 134 134 159
-107.013 164.025 -1143 135 135 159
-104.985 164.435 -1146 133 134 159
-103.125 165.132 -1151 132 133 159
-101.421 166.116 -1158 131 135 162
-99.6894 167.101 -1165 130 134 160
-97.9306 168.085 -1172 130 134 159
-95.9814 168.784 -1177 131 135 161
-93.6947 168.909 -1178 126 130 157
-91.4823 169.177 -1180 119 123 148
-89.338 169.59 -1183 117 121 146
-87.109 169.859 -1185 117 121 146
-84.9441 170.273 -1188 121 125 150
-82.8374 170.83 -1192 119 123 148
-80.7153 171.387 -1196 120 124 148
-78.5124 171.802 -1199 124 128 151
-76.6154 172.933 -1207 123 127 150
-74.687 174.064 -1215 119 123 146
-73.0244 175.912 -1228 117 121 144
-71.2528 177.617 -1240 112 116 137
-69.3228 179.036 -1250 113 116 136
-67.2999 180.312 -1259 116 118 138
-65.4986 182.304 -1273 113 114 132
-308.89 179.237 -1245 223 219 224
-297.147 173.851 -1208 224 220 224
-292.88 172.785 -1201 226 222 225
-287.677 171.145 -1190 228 224 227
-283.483 170.082 -1183 229 225 228
-280.032 169.451 -1179 230 226 229
-275.895 168.39 -1172 228 224 227
-272.724 167.905 -1169 225 221 224
-269.567 167.421 -1166 226 221 224
-266.883 167.224 -1165 225 221 224
-263.525 166.598 -1161 223 219 222
-260.411 166.115 -1158 222 218 221
-257.312 165.634 -1155 222 218 221
-254.006 165.01 -1151 222 218 221
-250.72 164.387 -1147 223 219 222
-247.886 164.051 -1145 222 219 222
-244.848 163.573 -1142 224 220 223
-242.037 163.239 -1140 222 218 221
-239.026 162.762 -1137 220 217 220
-236.029 162.286 -1134 220 214 218
-233.459 162.097 -1133 219 212 215
-230.488 161.622 -1130 216 209 212
-227.531 161.148 -1127 204 196 198
-223.989 160.246 -1121 177 169 171
-220.078 159.059 -1113 148 138 138
-215.224 157.159 -1100 140 128 127
-211.2 155.832 -1091 139 124 120
-208.365 155.362 -1088 134 116 111
-205.922 155.179 -1087 131 113 107
-204.048 155.425 -1089 137 122 115
-202.537 155.956 -1093 142 127 118
-201.195 156.63 -1098 140 125 114
-200.378 157.732 -1106 128 109 102
-198.992 158.406 -1111 97 77 69
-199.357 160.505 -1126 77 55 44
-199.487 162.462 -1140 75 52 42
-197.832 162.993 -1144 77 54 44
-196.163 163.525 -1148 74 54 49
-191.946 161.92 -1137 74 55 53
-186.775 159.463 -1120 103 85 88
-182.17 157.434 -1106 168 157 168
-177.949 155.691 -1094 156 147 160
-174.743 154.803 -1088 149 140 155
-172.514 154.769 -1088 157 148 162
-170.756 155.163 -1091 157 148 161
-168.987 155.556 -1094 150 139 155
-167.208 155.95 -1097 145 134 150
-165.417 156.345 -1100 130 121 133
-163.467 156.597 -1102 121 112 122
-160.925 156.282 -1100 119 110 119
-158.537 156.109 -1099 118 110 115
-156.155 155.936 -1098 118 110 114
-153.778 155.764 -1097 116 108 113
-151.129 155.309 -1094 115 107 113
-148.767 155.138 -1093 113 105 112
-146.41 154.967 -1092 114 106 112
-144.058 154.798 -1091 118 110 116
-141.841 154.77 -1091 121 113 119
-139.498 154.601 -1090 125 117 123
-137.286 154.574 -1090 130 122 128
-135.446 154.973 -1093 129 123 140
-133.474 155.231 -1095 134 127 144
-131.495 155.489 -1097 139 130 147
-129.273 155.464 -1097 138 132 154
-127.515 156.006 -1101 138 133 156
-125.173 155.84 -1100 135 132 154
-123.283 156.241 -1103 134 132 155
-121.273 156.501 -1105 137 135 159
-119.686 157.328 -1111 136 136 160
-117.865 157.871 -1115 134 134 158
-116.028 158.415 -1119 139 137 161
-114.278 159.101 -1124 139 137 160
-112.708 160.07 -1131 135 133 155
-110.916 160.756 -1136 132 132 158
-109.008 161.301 -1140 133 133 159
-106.992 161.705 -1143 135 135 159
-105.056 162.25 -1147 134 134 160
-103.195 162.937 -1152 132 133 159
-101.401 163.766 -1158 131 135 162
-99.5846 164.596 -1164 129 133 160
-97.9117 165.708 -1172 128 132 157
-96.0444 166.538 -1178 129 133 160
-93.8356 166.802 -1180 127 131 158
-91.6971 167.208 -1183 116 120 145
-89.5473 167.615 -1186 111 115 140
-87.3127 167.881 -1188 113 117 142
-85.1423 168.288 -1191 119 123 148
-83.0299 168.837 -1195 120 124 149
-80.9023 169.387 -1199 119 123 146
-78.6937 169.795 -1202 120 124 146
-76.7276 170.769 -1209 121 125 147
-74.5497 171.32 -1213 120 124 146
-72.8319 173 -1225 117 121 144
-71.0667 174.681 -1237 111 115 136
-69.1986 176.221 -1248 112 114 135
-67.18 177.479 -1257 113 115 135
-65.3832 179.443 -1271 112 114 132
-64.3713 183.807 -1302 129 130 147
-303.62 173.685 -1224 225 221 225
-295.613 170.505 -1202 226 222 226
-292.578 170.164 -1200 228 224 227
-287.379 168.548 -1189 230 226 229
-284.146 168.067 -1186 229 225 228
-280.215 167.162 -1180 228 224 227
-276.312 166.258 -1174 227 223 226
-272.903 165.638 -1170 225 221 224
-269.514 165.019 -1166 228 221 225
-266.602 164.684 -1164 226 221 225
-263.246 164.066 -1160 223 219 222
-260.36 163.732 -1158 222 218 221
-257.038 163.117 -1154 222 218 221
-253.957 162.643 -1151 223 219 222
-250.671 162.029 -1147 222 219 222
-248.054 161.839 -1146 221 218 221
-245.229 161.509 -1144 222 218 221
-242.414 161.18 -1142 221 217 220
-239.61 160.851 -1140 219 215 218
-236.607 160.381 -1137 218 211 215
-233.826 160.054 -1135 214 207 211
-231.055 159.727 -1133 211 205 210
-228.092 159.26 -1130 210 203 206
-224.544 158.371 -1124 207 199 201
-221.419 157.764 -1120 186 177 177
-217.138 156.313 -1110 172 162 161
-212.708 154.723 -1099 167 154 150
-209.282 153.838 -1093 158 144 141
-206.072 153.094 -1088 150 137 134
-203.821 153.055 -1088 137 126 121
-201.942 153.297 -1090 136 125 118
-199.874 153.399 -1091 143 131 123
-198.165 153.782 -1094 146 131 127
-196.625 154.307 -1098 140 125 120
-195.247 154.972 -1103 114 98 92
-193.15 155.075 -1104 101 85 79
-191.397 155.459 -1107 126 110 105
-188.949 155.283 -1106 166 154 154
-186.508 155.106 -1105 184 172 175
-182.404 153.527 -1094 175 164 173
-179.994 153.352 -1093 156 147 157
-177.265 152.897 -1090 150 143 153
-175.191 153.003 -1091 151 144 157
-173.115 153.11 -1092 156 149 161
-171.506 153.638 -1096 150 142 154
-169.881 154.166 -1100 141 132 147
-167.937 154.414 -1102 135 127 141
-165.686 154.383 -1102 124 115 123
-163.584 154.491 -1103 118 109 117
-161.187 154.32 -1102 116 108 115
-158.795 154.15 -1101 115 107 113
-156.267 153.84 -1099 115 107 113
-154.028 153.81 -1099 115 107 112
-151.377 153.361 -1096 113 105 112
-149.011 153.193 -1095 114 106 112
-146.65 153.025 -1094 115 107 113
-144.426 152.997 -1094 116 108 114
-142.074 152.83 -1093 119 111 117
-139.983 152.943 -1094 125 117 123
-137.889 153.056 -1095 130 122 128
-135.792 153.17 -1096 134 127 143
-133.692 153.284 -1097 137 129 145
-131.589 153.399 -1098 139 130 147
-129.484 153.514 -1099 137 132 153
-127.491 153.769 -1101 137 132 155
-125.377 153.885 -1102 135 131 154
-123.372 154.14 -1104 135 132 155
-121.36 154.396 -1106 136 134 158
-119.556 154.932 -1110 135 135 159
-117.631 155.328 -1113 135 134 158
-115.903 156.004 -1118 140 138 162
-114.257 156.819 -1124 140 138 161
-112.886 158.053 -1133 136 134 156
-110.992 158.59 -1137 133 133 159
-109.179 159.267 -1142 132 132 158
-107.252 159.804 -1146 134 134 158
-105.311 160.342 -1150 132 133 158
-103.264 160.74 -1153 132 133 159
-101.557 161.697 -1160 131 135 162
-99.6512 162.375 -1165 129 133 159
-97.8931 163.332 -1172 123 127 152
-96.1077 164.289 -1179 119 123 150
-93.9769 164.689 -1182 121 125 152
-91.8347 165.089 -1185 114 118 143
-89.6814 165.49 -1188 112 116 141
-87.5166 165.891 -1191 113 117 142
-85.269 166.154 -1193 115 119 144
-83.0837 166.556 -1196 120 124 149
-80.9544 167.097 -1200 119 123 146
-78.8097 167.639 -1204 117 121 143
-76.6496 168.181 -1208 118 122 143
-74.6585 169.142 -1215 118 122 144
-72.9965 170.937 -1228 117 121 142
-71.1682 172.455 -1239 111 115 136
-69.2409 173.834 -1249 110 113 133
-67.3276 175.352 -1260 112 114 134
-65.4222 177.009 -1272 111 113 131
-63.4199 178.528 -1283 120 121 139
-318.666 178.212 -1274 224 220 225
-302.073 170.32 -1218 227 223 226
-295.31 167.885 -1201 229 225 228
-290.815 166.711 -1193 229 225 228
-287.082 165.956 -1188 230 226 229
-283.611 165.343 -1184 230 226 229
-279.923 164.591 -1179 229 225 228
-275.553 163.421 -1171 229 225 228
-271.918 162.67 -1166 227 222 225
-268.769 162.2 -1163 227 220 224
-266.092 162.009 -1162 225 220 224
-262.969 161.54 -1159 224 220 223
-260.085 161.211 -1157 223 219 222
-257.212 160.883 -1155 223 219 222
-254.128 160.417 -1152 223 219 222
-250.841 159.811 -1148 221 218 223
-248.006 159.485 -1146 222 219 223
-245.182 159.16 -1144 224 220 223
-242.58 158.974 -1143 224 220 223
-239.774 158.65 -1141 222 218 221
-236.77 158.188 -1138 218 211 215
-233.987 157.865 -1136 212 206 210
-231.214 157.543 -1134 208 204 209
-228.452 157.221 -1132 208 202 204
-225.101 156.484 -1127 205 199 200
-222.365 156.163 -1125 201 193 193
-218.857 155.289 -1119 193 184 183
-214.796 153.999 -1110 191 180 176
-210.773 152.71 -1101 185 175 174
-207.358 151.838 -1095 176 166 166
-204.718 151.522 -1093 164 155 153
-202.459 151.483 -1093 146 137 132
-200.019 151.306 -1092 144 133 127
-197.765 151.269 -1092 155 142 139
-195.513 151.232 -1092 153 140 137
-192.909 150.918 -1090 164 153 151
-190.665 150.882 -1090 194 183 182
-188.595 150.984 -1091 215 203 203
-186.01 150.672 -1089 213 205 209
-184.278 151.052 -1092 190 182 188
-182.37 151.294 -1094 155 148 158
-180.125 151.26 -1094 141 133 140
-177.719 151.088 -1093 148 140 146
-175.8 151.331 -1095 149 144 153
-173.875 151.575 -1097 143 138 147
-171.943 151.818 -1099 132 127 137
-170.158 152.201 -1102 130 124 136
-168.058 152.307 -1103 122 115 126
-165.955 152.414 -1104 120 112 116
-163.553 152.245 -1103 117 109 114
-161.303 152.214 -1103 117 109 114
-159.054 152.184 -1103 115 107 113
-156.664 152.016 -1102 117 109 115
-154.28 151.849 -1101 118 110 116
-152.039 151.821 -1101 118 110 116
-149.527 151.517 -1099 117 109 115
-146.89 151.075 -1096 115 107 113
-144.795 151.186 -1097 118 110 116
-142.567 151.159 -1097 123 115 121
-140.34 151.132 -1097 128 120 127
-138.241 151.244 -1098 132 124 130
-136.138 151.356 -1099 136 129 145
-134.033 151.469 -1100 137 129 145
-131.684 151.306 -1099 139 130 147
-129.577 151.419 -1100 138 132 154
-127.467 151.533 -1101 140 135 158
-125.353 151.647 -1102 139 134 157
-123.349 151.899 -1104 136 133 156
-121.227 152.014 -1105 136 134 157
-119.533 152.679 -1110 135 135 158
-117.609 153.069 -1113 134 134 158
-115.881 153.735 -1118 138 136 160
-114.134 154.401 -1123 139 137 160
-112.566 155.343 -1130 137 135 157
-110.874 156.147 -1136 134 134 160
-109.063 156.813 -1141 132 132 158
-107.232 157.48 -1146 132 132 156
-105.291 158.01 -1150 130 131 156
-103.335 158.54 -1154 132 133 159
-101.538 159.346 -1160 132 136 163
-99.718 160.151 -1166 130 134 161
-97.7913 160.819 -1171 124 128 153
-96.0897 161.9 -1179 118 122 148
-94.1182 162.569 -1184 119 123 150
-92.05 163.101 -1188 116 120 145
-89.8155 163.358 -1190 114 118 143
-87.7206 163.891 -1194 114 118 142
-85.4675 164.149 -1196 115 119 144
-83.207 164.408 -1198 119 123 148
-81.0067 164.805 -1201 118 122 145
-78.795 165.202 -1204 117 121 143
-76.6353 165.736 -1208 118 122 143
-74.5831 166.545 -1214 118 122 143
-72.8045 168.04 -1225 115 119 140
-71.1549 169.947 -1239 110 114 135
-69.3942 171.717 -1252 108 111 131
-67.315 172.802 -1260 112 114 134
-65.4614 174.573 -1273 111 113 131
-63.9517 177.44 -1294 115 116 134
-310.603 171.172 -1242 224 220 225
-299.784 166.567 -1209 227 223 226
-293.778 164.582 -1195 228 224 227
-290.028 163.838 -1190 228 224 227
-286.785 163.371 -1187 229 225 228
-283.318 162.766 -1183 228 224 227
-280.107 162.3 -1180 228 224 227
-276.441 161.56 -1175 229 225 228
-272.099 160.408 -1167 228 224 227
-268.717 159.807 -1163 230 223 227
-265.813 159.482 -1161 228 223 226
-262.692 159.02 -1158 226 221 224
-260.035 158.833 -1157 224 220 223
-256.94 158.373 -1154 224 220 222
-254.08 158.05 -1152 223 219 221
-251.012 157.591 -1149 221 218 223
-247.959 157.133 -1146 223 220 225
-245.564 157.086 -1146 226 222 225
-242.746 156.766 -1144 226 222 225
-239.938 156.447 -1142 223 219 222
-236.933 155.991 -1139 219 212 217
-234.149 155.673 -1137 212 206 212
-231.171 155.219 -1134 209 206 212
-228.409 154.902 -1132 207 203 206
-225.657 154.586 -1130 204 199 200
-222.718 154.133 -1127 205 197 197
-219.598 153.545 -1123 205 196 195
-216.303 152.821 -1118 205 194 191
-212.839 151.961 -1112 197 189 191
-209.401 151.101 -1106 191 184 187
-206.178 150.379 -1101 186 179 178
-203.532 150.068 -1099 181 172 169
-201.446 150.167 -1100 177 167 162
-198.815 149.857 -1098 178 167 163
-195.835 149.274 -1094 189 179 177
-192.873 148.692 -1090 213 206 210
-190.104 148.247 -1087 219 211 215
-187.868 148.212 -1087 205 197 201
-185.804 148.313 -1088 175 168 176
-184.581 149.097 -1094 148 141 150
-182.669 149.335 -1096 136 131 142
-180.585 149.438 -1097 140 131 134
-178.498 149.541 -1098 142 133 133
-176.409 149.644 -1099 136 131 139
-174.318 149.748 -1100 121 117 125
-172.38 149.988 -1102 116 113 121
-170.435 150.228 -1104 118 113 122
-168.179 150.197 -1104 117 111 119
-166.075 150.302 -1105 118 110 110
-163.819 150.271 -1105 117 109 111
-161.419 150.105 -1104 115 107 111
-159.168 150.075 -1104 114 106 112
-156.919 150.046 -1104 119 111 117
-154.811 150.153 -1105 120 113 121
-152.286 149.853 -1103 120 112 119
-149.907 149.689 -1102 116 108 114
-147.265 149.255 -1099 114 106 110
-145.164 149.363 -1100 120 112 116
-142.801 149.201 -1099 124 116 122
-140.698 149.311 -1100 127 119 126
-138.593 149.421 -1101 130 122 130
-136.237 149.26 -1100 135 130 145
-134.129 149.37 -1101 137 130 146
-131.78 149.21 -1100 141 132 150
-129.553 149.186 -1100 141 135 157
-127.559 149.434 -1102 143 137 160
-125.557 149.682 -1104 141 136 159
-123.437 149.794 -1105 137 134 156
-121.424 150.043 -1107 135 133 155
-119.619 150.563 -1111 134 134 158
-117.587 150.812 -1113 135 135 159
-115.963 151.604 -1119 138 136 160
-114.214 152.26 -1124 139 136 159
-112.844 153.458 -1133 138 134 157
-111.244 154.386 -1140 134 134 160
-109.329 154.907 -1144 132 132 157
-107.306 155.293 -1147 131 131 155
-105.363 155.815 -1151 129 130 155
-103.405 156.338 -1155 132 133 159
-101.519 156.996 -1160 132 136 163
-99.6997 157.789 -1166 130 134 161
-98.0237 158.854 -1174 126 130 155
-96.2349 159.783 -1181 122 126 153
-94.1804 160.307 -1185 121 125 152
-92.033 160.696 -1188 115 119 144
-89.9499 161.22 -1192 113 117 141
-87.778 161.609 -1195 114 118 141
-85.5232 161.864 -1197 116 120 144
-83.2612 162.119 -1199 118 122 147
-81.0592 162.51 -1202 119 123 146
-78.8459 162.901 -1205 118 122 144
-76.748 163.562 -1210 119 123 144
-74.6308 164.224 -1215 118 122 143
-72.8506 165.698 -1226 116 120 141
-71.2566 167.712 -1241 111 115 136
-69.3261 169.05 -1251 109 112 132
-67.3561 170.389 -1261 113 115 135
-65.3466 171.728 -1271 111 113 132
-63.4952 173.608 -1285 114 116 135
-307.044 166.71 -1228 227 223 227
-298.24 163.26 -1203 228 224 227
-293.969 162.255 -1196 227 223 226
-290.217 161.522 -1191 226 222 225
-286.731 160.926 -1187 226 222 225
-283.504 160.466 -1184 226 222 225
-279.817 159.736 -1179 227 223 226
-276.154 159.006 -1174 228 224 227
-272.281 158.143 -1168 229 225 228
-269.129 157.686 -1165 231 224 228
-265.534 156.96 -1160 230 223 227
-262.643 156.64 -1158 227 220 224
-259.987 156.456 -1157 225 221 224
-257.115 156.138 -1155 226 222 225
-254.033 155.685 -1152 226 222 223
-251.184 155.368 -1150 222 218 223
-248.129 154.916 -1147 224 221 225
-245.518 154.736 -1146 226 221 224
-242.7 154.42 -1144 223 219 222
-239.894 154.106 -1142 220 216 219
-236.681 153.522 -1138 217 210 216
-233.899 153.209 -1136 213 207 212
-231.331 153.031 -1135 210 206 212
-228.568 152.719 -1133 207 203 205
-225.815 152.407 -1131 204 199 200
-223.27 152.231 -1130 205 197 197
-220.535 151.921 -1128 208 200 200
-217.423 151.342 -1124 211 201 201
-214.139 150.629 -1119 203 197 200
-211.066 150.052 -1115 202 197 199
-207.825 149.34 -1110 199 194 195
-205.161 149.033 -1108 198 191 190
-202.691 148.861 -1107 202 194 192
-199.864 148.421 -1104 211 202 202
-197.051 147.981 -1101 212 204 205
-193.899 147.273 -1096 206 199 203
-191.118 146.835 -1093 180 172 176
-189.216 147.069 -1095 158 150 154
-187.307 147.303 -1097 145 138 145
-185.559 147.672 -1100 140 133 141
-183.802 148.04 -1103 138 132 141
-181.704 148.141 -1104 137 129 133
-179.278 147.974 -1103 128 120 123
-177.019 147.941 -1103 119 113 120
-174.761 147.909 -1103 109 103 110
-172.661 148.012 -1104 115 109 116
-170.558 148.114 -1105 118 111 119
-168.3 148.084 -1105 115 107 114
-166.194 148.187 -1106 118 107 111
-163.789 148.023 -1105 117 107 112
-161.536 147.993 -1105 112 103 108
-159.283 147.964 -1105 111 103 109
-157.032 147.935 -1105 116 108 114
-154.923 148.041 -1106 117 109 116
-152.535 147.879 -1105 116 108 115
-150.152 147.718 -1104 115 107 113
-147.774 147.557 -1103 116 108 114
-145.665 147.664 -1104 121 113 119
-143.294 147.504 -1103 124 116 122
-141.056 147.478 -1103 125 117 124
-139.071 147.72 -1105 130 122 130
-136.707 147.561 -1104 132 124 138
-134.349 147.403 -1103 134 126 141
-131.995 147.245 -1102 137 128 145
-129.765 147.222 -1102 137 132 154
-127.535 147.198 -1102 139 134 157
-125.534 147.442 -1104 141 136 159
-123.638 147.821 -1107 141 136 158
-121.621 148.065 -1109 139 136 157
-119.705 148.444 -1112 138 136 160
-117.777 148.823 -1115 139 137 161
-115.838 149.202 -1118 139 137 161
-114.193 149.982 -1124 141 138 161
-112.724 151.029 -1132 138 135 157
-111.223 152.076 -1140 135 135 160
-109.309 152.59 -1144 131 130 155
-107.474 153.237 -1149 129 129 154
-105.436 153.618 -1152 130 131 156
-103.386 153.999 -1155 132 133 159
-101.501 154.647 -1160 132 136 163
-99.5105 155.162 -1164 129 133 160
-97.7554 156.078 -1171 127 131 156
-96.2174 157.393 -1181 123 127 154
-94.2428 158.042 -1186 121 125 152
-92.2487 158.691 -1191 118 122 147
-90.0844 159.075 -1194 116 120 144
-88.0558 159.725 -1199 116 120 143
-85.722 159.842 -1200 118 122 147
-83.4544 160.093 -1202 117 121 146
-81.2468 160.478 -1205 119 123 146
-78.897 160.597 -1206 120 124 146
-76.7976 161.249 -1211 120 124 145
-74.5558 161.635 -1214 119 123 144
-72.8374 163.219 -1226 117 121 142
-71.1289 164.937 -1239 114 118 139
-69.2581 166.388 -1250 114 116 137
-67.3972 167.973 -1262 113 115 136
-65.3862 169.292 -1272 112 114 134
-63.4837 171.011 -1285 114 115 135
-303.737 162.44 -1215 225 221 226
-297.441 160.38 -1200 228 224 227
-293.177 159.39 -1193 226 222 225
-289.189 158.535 -1187 224 220 223
-285.954 158.082 -1184 223 219 222
-282.973 157.762 -1182 224 220 223
-279.528 157.177 -1178 226 222 225
-275.868 156.459 -1173 228 224 227
-272.231 155.742 -1168 229 225 228
-268.848 155.159 -1164 229 224 227
-265.485 154.577 -1160 226 221 224
-262.821 154.395 -1159 226 221 224
-259.714 153.948 -1156 225 221 224
-257.29 153.9 -1156 225 221 224
-254.206 153.454 -1153 224 220 223
-251.356 153.142 -1151 221 218 221
-248.3 152.697 -1148 222 218 222
-245.687 152.519 -1147 225 219 223
-242.868 152.209 -1145 222 217 220
-240.06 151.899 -1143 217 213 216
-236.846 151.324 -1139 217 210 215
-234.062 151.016 -1137 213 207 210
-231.289 150.708 -1135 211 206 208
-228.526 150.4 -1133 209 204 205
-225.774 150.094 -1131 203 198 199
-223.426 150.053 -1131 205 198 199
-220.885 149.88 -1130 208 201 203
-217.964 149.442 -1127 209 202 205
-215.056 149.005 -1124 203 199 202
-212.163 148.569 -1121 204 200 203
-209.284 148.133 -1118 203 199 202
-206.42 147.698 -1115 201 196 199
-203.752 147.396 -1113 200 193 197
-201.095 147.094 -1111 199 192 196
-198.268 146.661 -1108 193 186 190
-195.279 146.096 -1104 173 166 170
-192.832 145.929 -1103 148 141 145
-190.736 146.027 -1104 142 135 139
-188.468 145.992 -1104 136 129 135
-186.875 146.487 -1108 132 125 131
-184.934 146.718 -1110 128 121 127
-182.658 146.685 -1110 121 114 120
-180.058 146.388 -1108 114 107 113
-177.628 146.224 -1107 111 104 110
-175.204 146.06 -1106 107 99 104
-173.099 146.161 -1107 116 108 112
-170.836 146.13 -1107 118 110 116
-168.422 145.968 -1106 115 106 112
-166.164 145.938 -1106 115 103 110
-163.76 145.776 -1105 114 103 110
-161.506 145.747 -1105 112 102 109
-159.399 145.85 -1106 110 102 108
-157.146 145.822 -1106 112 104 110
-155.035 145.925 -1107 112 104 110
-152.783 145.898 -1107 113 105 111
-150.261 145.607 -1105 114 106 112
-148.015 145.58 -1105 119 111 119
-145.903 145.686 -1106 124 116 123
-143.658 145.66 -1106 125 117 123
-141.414 145.634 -1106 127 119 126
-139.423 145.873 -1108 130 122 130
-137.178 145.848 -1108 132 123 135
-134.69 145.56 -1106 132 123 137
-132.331 145.405 -1105 132 124 140
-129.977 145.25 -1104 133 128 150
-127.744 145.227 -1104 134 129 152
-125.739 145.468 -1106 137 132 155
-123.728 145.708 -1108 141 136 158
-121.709 145.949 -1110 142 138 159
-119.791 146.322 -1113 141 136 161
-117.862 146.696 -1116 142 137 162
-116.025 147.2 -1120 141 139 163
-114.477 148.1 -1127 140 138 161
-113.102 149.262 -1136 139 137 159
-111.301 149.899 -1141 137 135 160
-109.481 150.536 -1146 131 129 154
-107.454 150.911 -1149 128 128 153
-105.234 151.024 -1150 130 130 156
-103.189 151.399 -1153 132 133 159
-101.395 152.169 -1159 132 134 160
-99.6637 153.07 -1166 130 133 159
-97.8214 153.84 -1172 126 130 155
-96.2002 155.004 -1181 121 125 150
-94.3054 155.774 -1187 120 124 150
-92.2322 156.283 -1191 121 125 149
-90.0684 156.66 -1194 118 122 146
-87.9666 157.169 -1198 117 121 144
-85.7781 157.547 -1201 118 122 146
-83.4395 157.664 -1202 119 123 148
-81.2323 158.042 -1205 120 124 147
-78.9483 158.291 -1207 121 125 147
-76.8472 158.932 -1212 121 125 146
-74.7267 159.575 -1217 119 122 143
-72.8244 160.742 -1226 118 121 142
-71.1162 162.433 -1239 115 118 139
-69.5228 164.518 -1255 115 118 139
-67.3852 165.424 -1262 113 115 136
-65.3745 166.723 -1272 114 116 136
-63.423 168.284 -1284 114 115 135
-303.431 159.805 -1214 227 221 226
-297.387 157.908 -1200 226 222 225
-293.615 157.197 -1195 226 222 225
-289.867 156.487 -1190 225 221 224
-285.901 155.645 -1184 224 220 223
-282.921 155.331 -1182 224 220 223
-279.003 154.492 -1176 227 223 226
-275.582 153.917 -1172 228 224 227
-271.948 153.21 -1167 227 223 226
-268.799 152.768 -1164 228 224 227
-265.437 152.195 -1160 226 222 225
-262.773 152.016 -1159 224 220 223
-259.892 151.707 -1157 224 220 223
-257.243 151.529 -1156 224 220 223
-254.16 151.09 -1153 223 219 222
-251.529 150.913 -1152 222 218 221
-248.255 150.345 -1148 221 216 220
-245.428 150.038 -1146 223 216 220
-242.4 149.602 -1143 220 215 218
-239.596 149.297 -1141 216 212 215
-236.803 148.992 -1139 215 208 212
-234.226 148.819 -1138 212 206 209
-231.451 148.516 -1136 215 209 210
-228.687 148.214 -1134 212 206 207
-226.132 148.042 -1133 204 198 199
-223.979 148.133 -1134 203 197 198
-221.432 147.962 -1133 209 202 205
-218.698 147.662 -1131 215 208 212
-215.783 147.231 -1128 206 202 205
-213.071 146.932 -1126 204 199 202
-209.996 146.373 -1122 206 200 204
-207.308 146.075 -1120 205 199 203
-204.631 145.777 -1118 203 196 200
-201.963 145.48 -1116 200 193 197
-199.306 145.184 -1114 194 187 191
-196.835 145.018 -1113 174 167 172
-194.371 144.853 -1112 146 139 144
-192.257 144.949 -1113 141 134 139
-190.141 145.045 -1114 136 129 135
-188.191 145.272 -1116 129 122 128
-185.734 145.109 -1115 124 117 123
-183.284 144.946 -1114 119 112 118
-180.513 144.523 -1111 115 108 114
-177.918 144.231 -1109 111 104 110
-175.332 143.94 -1107 108 101 106
-173.068 143.909 -1107 115 107 111
-170.805 143.879 -1107 116 108 114
-168.544 143.849 -1107 113 105 111
-166.135 143.689 -1106 115 103 110
-163.879 143.66 -1106 113 103 110
-161.624 143.631 -1106 112 103 109
-159.226 143.473 -1105 113 105 111
-157.118 143.575 -1106 115 107 113
-155.008 143.677 -1107 113 105 111
-152.894 143.78 -1108 112 104 110
-150.642 143.753 -1108 113 105 111
-148.391 143.727 -1108 119 111 119
-146.141 143.701 -1108 124 116 123
-143.892 143.675 -1108 126 118 124
-141.645 143.65 -1108 130 122 130
-139.65 143.885 -1110 134 126 134
-137.277 143.731 -1109 134 125 137
-134.788 143.448 -1107 131 122 136
-132.427 143.295 -1106 130 122 138
-130.072 143.142 -1105 133 128 150
-127.953 143.249 -1106 134 129 152
-125.944 143.486 -1108 134 129 152
-124.041 143.852 -1111 139 135 157
-122.016 144.09 -1113 143 139 160
-120.092 144.457 -1116 144 139 162
-118.052 144.695 -1118 143 139 162
-116.211 145.192 -1122 141 139 162
-114.66 146.077 -1129 139 137 160
-112.983 146.834 -1135 138 136 158
-111.379 147.719 -1142 132 131 155
-109.462 148.218 -1146 131 130 154
-107.435 148.587 -1149 128 128 154
-105.215 148.697 -1150 129 129 155
-103.26 149.196 -1154 133 134 160
-101.29 149.695 -1158 132 133 159
-99.3898 150.324 -1163 131 133 159
-97.6373 151.212 -1170 126 130 155
-96.1833 152.616 -1181 120 124 149
-94.2093 153.246 -1186 119 123 148
-92.216 153.875 -1191 120 124 149
-90.0525 154.247 -1194 118 122 146
-88.0246 154.877 -1199 116 120 143
-85.8345 155.25 -1202 114 118 141
-83.7024 155.752 -1206 117 121 144
-81.4202 155.996 -1208 118 122 145
-79.196 156.369 -1211 118 121 144
-76.9605 156.743 -1214 118 120 143
-74.775 157.246 -1218 117 119 140
-72.8116 158.266 -1226 119 121 142
-70.9889 159.673 -1237 118 120 140
-69.2336 161.339 -1250 115 118 138
-67.32 162.747 -1261 115 117 137
-65.2602 163.897 -1270 114 116 136
-63.2143 165.176 -1280 114 115 135
-310.239 159.564 -1231 226 219 225
-300.128 155.621 -1201 226 220 225
-296.094 154.791 -1195 225 222 225
-292.334 154.091 -1190 226 222 225
-288.841 153.521 -1186 226 222 225
-285.609 153.081 -1183 225 221 224
-282.152 152.513 -1179 226 222 225
-278.716 151.946 -1175 228 224 227
-275.063 151.25 -1170 228 224 227
-271.434 150.555 -1165 226 222 225
-268.52 150.249 -1163 227 223 226
-265.389 149.814 -1160 225 221 224
-262.726 149.638 -1159 223 219 222
-259.845 149.334 -1157 223 219 222
-257.197 149.159 -1156 222 218 221
-254.115 148.727 -1153 221 217 220
-251.484 148.553 -1152 222 218 221
-248.211 147.993 -1148 220 216 219
-245.17 147.563 -1145 222 215 219
-242.569 147.391 -1144 221 216 219
-239.554 146.962 -1141 218 214 217
-236.553 146.533 -1138 215 208 212
-233.978 146.363 -1137 209 203 206
-231.206 146.065 -1135 210 204 205
-228.646 145.896 -1134 208 202 203
-226.292 145.855 -1134 201 195 196
-224.136 145.944 -1135 199 193 194
-221.393 145.648 -1133 203 197 200
-218.853 145.481 -1132 211 204 208
-216.127 145.186 -1130 213 209 212
-213.223 144.763 -1127 207 203 206
-210.333 144.34 -1124 208 201 205
-207.827 144.175 -1123 205 198 202
-205.327 144.01 -1122 202 195 199
-203.013 143.975 -1122 203 197 201
-200.165 143.554 -1119 204 197 202
-197.685 143.391 -1118 190 183 188
-195.385 143.357 -1118 156 149 154
-192.914 143.195 -1117 140 133 138
-190.449 143.033 -1116 138 131 136
-188.495 143.256 -1118 135 128 133
-185.868 142.967 -1116 130 123 129
-183.251 142.679 -1114 125 118 124
-180.482 142.263 -1111 122 115 121
-178.047 142.104 -1110 117 110 116
-175.459 141.817 -1108 110 103 108
-173.194 141.787 -1108 114 106 111
-170.93 141.757 -1108 115 107 113
-168.667 141.727 -1108 113 105 111
-166.406 141.698 -1108 114 104 111
-164.146 141.669 -1108 114 105 111
-161.595 141.385 -1106 113 105 111
-159.342 141.357 -1106 116 108 114
-157.233 141.458 -1107 120 112 118
-155.12 141.558 -1108 121 113 119
-153.143 141.787 -1110 119 112 118
-150.887 141.761 -1110 117 110 116
-148.766 141.862 -1111 121 113 121
-146.511 141.837 -1111 125 117 125
-144.257 141.812 -1111 128 120 126
-142.003 141.787 -1111 132 124 132
-139.877 141.89 -1112 136 128 136
-137.501 141.738 -1111 135 126 138
-135.129 141.587 -1110 132 123 137
-132.883 141.564 -1110 131 123 139
-130.402 141.286 -1108 135 130 151
-128.277 141.391 -1109 136 131 153
-126.15 141.497 -1110 136 131 153
-124.242 141.858 -1113 138 134 155
-122.105 141.964 -1114 142 138 159
-120.072 142.198 -1116 145 140 163
-118.137 142.559 -1119 143 138 161
-116.398 143.176 -1124 139 137 159
-114.844 144.048 -1131 138 136 158
-113.261 144.92 -1138 136 134 156
-111.652 145.792 -1145 133 133 157
-109.634 146.154 -1148 134 134 159
-107.604 146.518 -1151 131 131 157
-105.288 146.499 -1151 129 130 156
-103.242 146.863 -1154 133 134 160
-101.185 147.227 -1157 135 136 162
-99.3725 147.974 -1163 135 138 163
-97.7873 149.102 -1172 127 132 157
-96.2481 150.357 -1182 121 125 150
-94.3518 151.104 -1188 121 125 150
-92.3549 151.724 -1193 120 124 149
-90.1877 152.09 -1196 116 120 144
-88.0827 152.583 -1200 115 119 142
-85.891 152.949 -1203 113 117 140
-83.6879 153.316 -1206 115 119 142
-81.4735 153.683 -1209 116 120 143
-79.2477 154.051 -1212 117 120 143
-77.074 154.546 -1216 117 119 142
-74.9462 155.168 -1221 116 118 139
-72.9772 156.172 -1229 118 120 141
-71.1488 157.558 -1240 119 121 141
-69.3324 159.07 -1252 116 118 138
-67.3084 160.202 -1261 114 116 136
-65.1975 161.207 -1269 112 114 134
-63.1047 162.339 -1278 113 115 134
-60.9763 163.472 -1287 116 117 135
-307.916 155.881 -1222 226 219 225
-300.575 153.404 -1203 225 220 225
-296.042 152.332 -1195 225 222 225
-292.528 151.771 -1191 226 222 225
-289.52 151.465 -1189 226 222 225
-285.558 150.65 -1183 228 224 227
-282.103 150.091 -1179 228 224 227
-278.429 149.406 -1174 227 223 226
-274.544 148.594 -1168 226 222 225
-271.153 148.037 -1164 225 221 224
-268.242 147.736 -1162 224 220 223
-264.885 147.181 -1158 223 219 222
-262.227 147.008 -1157 223 219 222
-259.35 146.708 -1155 224 220 223
-256.707 146.536 -1154 222 218 221
-253.85 146.238 -1152 223 219 222
-251.222 146.067 -1151 221 217 220
-248.167 145.643 -1148 221 216 219
-245.128 145.219 -1145 222 217 220
-242.314 144.923 -1143 221 217 220
-239.512 144.628 -1141 220 216 219
-236.512 144.206 -1138 217 210 214
-233.937 144.039 -1137 210 203 206
-231.573 143.998 -1137 206 200 201
-228.606 143.579 -1134 201 195 196
-226.252 143.539 -1134 195 189 190
-224.097 143.627 -1135 195 188 191
-221.55 143.462 -1134 200 193 197
-219.008 143.297 -1133 209 202 206
-216.472 143.133 -1132 211 207 210
-213.753 142.843 -1130 207 202 205
-210.67 142.301 -1126 207 200 204
-208.161 142.138 -1125 202 195 199
-205.474 141.85 -1123 198 191 195
-203.159 141.815 -1123 202 195 199
-200.488 141.527 -1121 204 197 201
-198.004 141.367 -1120 201 194 198
-195.526 141.207 -1119 180 173 177
-193.398 141.299 -1120 153 146 150
-190.927 141.14 -1119 138 131 136
-188.631 141.108 -1119 133 126 130
-186.169 140.949 -1118 132 125 130
-183.549 140.666 -1116 131 124 130
-180.613 140.13 -1112 129 122 128
-178.176 139.973 -1111 122 115 121
-175.587 139.691 -1109 114 107 113
-173.476 139.787 -1110 117 109 115
-171.209 139.758 -1110 119 111 117
-168.942 139.728 -1110 116 108 114
-166.678 139.7 -1110 115 107 113
-164.414 139.671 -1110 116 108 114
-161.86 139.392 -1108 117 109 115
-159.603 139.364 -1108 119 111 117
-157.49 139.463 -1109 123 115 121
-155.374 139.562 -1110 125 117 123
-153.255 139.661 -1111 123 115 121
-151.133 139.761 -1112 121 114 120
-148.875 139.736 -1112 123 115 123
-146.618 139.71 -1112 126 118 125
-144.491 139.811 -1113 126 118 124
-142.235 139.787 -1113 127 119 126
-139.979 139.763 -1113 129 121 129
-137.725 139.739 -1113 130 121 133
-135.35 139.59 -1112 134 125 139
-132.98 139.442 -1111 135 127 143
-130.615 139.294 -1110 136 130 151
-128.602 139.523 -1112 135 129 151
-126.469 139.627 -1113 135 131 152
-124.444 139.856 -1115 137 133 154
-122.303 139.961 -1116 141 137 158
-120.266 140.191 -1118 144 139 162
-118.328 140.547 -1121 141 136 159
-116.378 140.903 -1124 138 136 158
-115.027 142.011 -1133 138 136 158
-113.342 142.744 -1139 137 135 157
-111.633 143.477 -1145 136 136 160
-109.806 144.085 -1150 135 135 160
-107.772 144.442 -1153 130 130 156
-105.545 144.549 -1154 126 127 153
-103.493 144.907 -1157 129 130 156
-101.43 145.266 -1160 134 135 161
-99.5264 145.875 -1165 135 137 163
-97.7706 146.734 -1172 129 134 159
-96.1502 147.845 -1181 123 127 152
-94.3357 148.705 -1188 122 126 151
-92.4165 149.44 -1194 120 124 149
-90.2477 149.8 -1197 116 120 144
-88.2879 150.536 -1203 115 119 142
-86.0191 150.771 -1205 115 118 141
-83.7431 151.007 -1207 115 119 142
-81.4596 151.243 -1209 114 118 141
-79.2996 151.73 -1213 116 118 141
-77.1242 152.217 -1217 117 119 142
-74.9948 152.83 -1222 116 118 139
-72.9648 153.693 -1229 117 119 140
-71.1941 155.181 -1241 117 119 139
-69.2099 156.295 -1250 117 119 139
-67.1902 157.409 -1259 115 117 137
-65.0324 158.273 -1266 113 115 135
-63.0445 159.637 -1277 113 115 134
-60.8712 160.626 -1285 114 115 133
-306.351 152.614 -1216 227 220 226
-299.023 150.177 -1197 227 221 226
-294.999 149.373 -1191 224 221 224
-292.231 149.197 -1190 226 222 225
-288.983 148.771 -1187 228 224 227
-285.026 147.969 -1181 229 225 228
-281.575 147.42 -1177 228 224 227
-278.144 146.87 -1173 226 222 225
-274.497 146.197 -1168 223 219 222
-271.106 145.649 -1164 223 219 222
-267.965 145.228 -1161 221 217 220
-264.839 144.807 -1158 221 217 220
-262.181 144.636 -1157 223 219 222
-259.53 144.467 -1156 224 220 223
-256.885 144.297 -1155 223 219 222
-254.026 144.004 -1153 224 220 223
-251.396 143.836 -1152 223 219 222
-248.341 143.418 -1149 223 219 222
-245.299 143.002 -1146 223 219 222
-242.485 142.71 -1144 221 217 220
-239.68 142.42 -1142 221 217 220
-236.679 142.005 -1139 216 209 213
-234.103 141.84 -1138 210 203 206
-231.533 141.676 -1137 207 201 202
-228.768 141.387 -1135 202 196 197
-226.413 141.349 -1135 198 192 193
-224.256 141.435 -1136 199 192 196
-221.707 141.272 -1135 202 195 199
-219.164 141.11 -1134 210 203 207
-216.435 140.825 -1132 209 205 208
-213.906 140.664 -1131 209 203 207
-210.821 140.13 -1127 209 202 206
-208.31 139.97 -1126 205 198 202
-205.805 139.811 -1125 202 195 199
-203.305 139.652 -1124 202 195 199
-200.633 139.369 -1122 202 195 199
-198.147 139.211 -1121 202 195 199
-195.667 139.054 -1120 186 179 183
-193.365 139.021 -1120 164 157 161
-191.065 138.988 -1120 141 134 138
-188.599 138.832 -1119 133 126 131
-186.304 138.8 -1119 134 127 132
-183.682 138.521 -1117 134 127 132
-180.907 138.118 -1114 130 123 129
-178.306 137.84 -1112 125 118 124
-175.874 137.686 -1111 116 109 115
-173.603 137.657 -1111 118 110 116
-171.488 137.751 -1112 120 112 118
-169.37 137.847 -1113 117 108 114
-166.949 137.694 -1112 119 109 116
-164.682 137.667 -1112 120 111 118
-162.271 137.515 -1111 122 114 120
-159.864 137.364 -1110 123 115 121
-157.605 137.338 -1110 123 115 121
-155.487 137.435 -1111 123 115 121
-153.367 137.533 -1112 122 114 120
-151.108 137.507 -1112 122 115 121
-148.85 137.482 -1112 124 116 124
-146.593 137.457 -1112 125 117 124
-144.467 137.556 -1113 124 116 122
-142.211 137.533 -1113 123 115 123
-139.955 137.509 -1113 126 118 126
-137.701 137.486 -1113 131 122 134
-135.448 137.463 -1113 134 125 139
-133.077 137.317 -1112 135 126 142
-130.711 137.171 -1111 134 128 150
-128.696 137.396 -1113 137 132 154
-126.561 137.498 -1114 137 133 154
-124.423 137.601 -1115 139 134 156
-122.282 137.704 -1116 141 136 158
-120.461 138.177 -1120 142 137 160
-118.413 138.404 -1122 141 136 159
-116.669 139.001 -1127 139 137 159
-115.109 139.845 -1134 140 137 159
-113.422 140.566 -1140 138 136 158
-111.712 141.287 -1146 134 134 158
-109.787 141.761 -1150 132 132 157
-107.661 141.99 -1152 127 128 154
-105.527 142.218 -1154 124 125 151
-103.476 142.571 -1157 124 125 151
-101.588 143.17 -1162 129 130 156
-99.766 143.892 -1168 129 132 158
-98.0044 144.738 -1175 126 131 156
-96.4597 145.953 -1185 124 128 153
-94.5581 146.676 -1191 125 129 154
-92.4784 147.153 -1195 122 126 151
-90.308 147.508 -1198 119 122 146
-88.2731 148.108 -1203 117 119 142
-86.0761 148.463 -1206 118 120 143
-83.7984 148.695 -1208 117 119 142
-81.5133 148.928 -1210 112 116 139
-79.417 149.53 -1215 114 116 139
-77.238 150.009 -1219 117 119 142
-75.2277 150.858 -1226 116 118 139
-73.1306 151.584 -1232 117 119 140
-71.2969 152.925 -1243 117 119 139
-69.2536 153.898 -1251 118 119 138
-67.179 154.87 -1259 118 119 138
-64.9702 155.597 -1265 116 118 138
-62.8859 156.694 -1274 115 116 136
-60.6715 157.545 -1281 115 116 134
-314.977 153.129 -1240 227 220 228
-303.527 148.755 -1205 230 223 229
-297.973 147.223 -1193 229 224 229
-294.949 146.925 -1191 226 223 226
-291.69 146.506 -1188 228 224 227
-288.447 146.086 -1185 229 225 228
-284.977 145.545 -1181 229 225 228
-281.527 145.004 -1177 227 223 226
-278.096 144.464 -1173 225 221 224
-274.685 143.924 -1169 223 219 222
-271.06 143.263 -1164 222 218 221
-268.381 143.094 -1163 223 219 222
-265.251 142.68 -1160 223 219 222
-262.137 142.266 -1157 224 220 223
-259.262 141.977 -1155 224 220 223
-256.619 141.81 -1154 222 218 221
-253.763 141.521 -1152 222 218 221
-250.917 141.233 -1150 223 219 222
-248.082 140.946 -1148 222 218 221
-244.83 140.413 -1144 222 218 221
-242.232 140.249 -1143 221 217 220
-239.43 139.964 -1141 219 215 218
-236.639 139.678 -1139 216 209 213
-234.063 139.516 -1138 211 204 207
-231.698 139.477 -1138 207 201 202
-228.931 139.193 -1136 200 194 195
-226.574 139.155 -1136 198 191 193
-224.218 139.118 -1136 200 193 197
-221.67 138.958 -1135 203 196 200
-219.32 138.921 -1135 208 201 205
-216.781 138.762 -1134 211 204 208
-214.059 138.481 -1132 210 204 207
-211.16 138.079 -1129 207 200 204
-208.645 137.922 -1128 203 196 200
-205.953 137.642 -1126 202 195 199
-203.452 137.486 -1125 202 195 199
-200.778 137.208 -1123 200 193 197
-198.467 137.175 -1123 198 191 195
-195.983 137.02 -1122 196 189 193
-193.506 136.865 -1121 191 184 188
-191.033 136.711 -1120 161 154 158
-188.735 136.68 -1120 143 136 141
-186.273 136.526 -1119 139 132 138
-183.651 136.252 -1117 137 130 135
-180.877 135.855 -1114 133 126 130
-178.437 135.704 -1113 129 122 128
-176.161 135.674 -1113 121 114 120
-173.887 135.645 -1113 121 114 120
-171.768 135.738 -1114 125 117 123
-169.646 135.832 -1115 122 113 119
-167.522 135.926 -1116 123 112 119
-165.099 135.777 -1115 125 116 122
-162.536 135.506 -1113 128 120 126
-160.125 135.358 -1112 128 120 126
-157.863 135.331 -1112 127 119 125
-155.601 135.305 -1112 126 118 124
-153.341 135.28 -1112 126 118 124
-151.218 135.376 -1113 127 120 126
-148.825 135.23 -1112 129 121 129
-146.568 135.206 -1112 127 119 127
-144.443 135.303 -1113 125 117 123
-142.187 135.28 -1113 127 119 126
-139.932 135.256 -1113 130 122 131
-137.555 135.112 -1112 132 123 135
-135.426 135.211 -1113 133 124 137
-133.055 135.067 -1112 133 124 139
-130.689 134.924 -1111 135 129 151
-128.675 135.146 -1113 142 136 158
-126.654 135.367 -1115 140 136 157
-124.514 135.468 -1116 139 134 156
-122.372 135.569 -1117 140 134 156
-120.441 135.913 -1120 140 135 158
-118.394 136.136 -1122 142 137 159
-116.65 136.724 -1127 144 139 162
-115.09 137.554 -1134 143 140 162
-113.602 138.506 -1142 139 137 159
-111.791 139.093 -1147 132 132 158
-109.96 139.682 -1152 128 128 154
-107.83 139.906 -1154 127 128 154
-105.692 140.131 -1156 127 128 154
-103.727 140.599 -1160 127 128 154
-101.746 141.067 -1164 128 129 155
-99.8349 141.656 -1169 128 131 156
-98.0716 142.488 -1176 126 130 155
-96.5252 143.684 -1186 125 128 152
-94.5425 144.274 -1191 121 124 148
-92.6179 144.985 -1197 119 123 148
-90.5192 145.455 -1201 119 122 146
-88.4053 145.925 -1205 118 121 144
-86.1333 146.152 -1207 119 121 144
-83.8539 146.381 -1209 117 120 142
-81.6347 146.73 -1212 113 117 139
-79.4694 147.202 -1216 116 119 141
-77.162 147.431 -1218 119 121 143
-75.0312 148.024 -1223 119 121 142
-72.9405 148.738 -1229 118 120 141
-70.9984 149.815 -1238 118 120 140
-68.9102 150.651 -1245 118 119 138
-67.0079 151.971 -1256 118 119 137
-64.9081 152.928 -1264 116 118 138
-62.9249 154.248 -1275 115 117 136
-60.9457 155.69 -1287 116 117 135
-308.829 147.665 -1216 226 220 228
-302.217 145.671 -1200 231 224 230
-297.673 144.65 -1192 230 224 229
-294.156 144.115 -1188 228 224 227
-291.15 143.824 -1186 229 225 228
-287.911 143.411 -1183 228 224 227
-284.206 142.758 -1178 227 223 226
-281.002 142.347 -1175 226 222 225
-277.576 141.816 -1171 224 220 223
-274.639 141.528 -1169 222 218 221
-271.247 140.998 -1165 222 218 221
-268.336 140.712 -1163 224 220 223
-264.978 140.183 -1159 225 221 224
-262.093 139.898 -1157 225 221 224
-258.994 139.492 -1154 224 220 223
-256.132 139.207 -1152 222 218 221
-253.5 139.044 -1151 221 217 220
-250.876 138.882 -1150 218 215 218
-248.041 138.599 -1148 219 216 219
-245.217 138.317 -1146 220 216 219
-242.615 138.156 -1145 220 216 219
-239.81 137.875 -1143 217 213 216
-236.807 137.473 -1140 212 207 210
-234.23 137.314 -1139 208 202 205
-231.659 137.155 -1138 209 202 204
-228.893 136.876 -1136 201 195 196
-226.337 136.718 -1135 197 191 192
-223.984 136.681 -1135 202 195 199
-221.633 136.644 -1135 203 196 200
-219.283 136.608 -1135 209 202 206
-216.936 136.572 -1135 210 203 207
-214.212 136.296 -1133 210 203 207
-211.312 135.9 -1130 211 204 208
-208.61 135.625 -1128 208 201 205
-205.919 135.351 -1126 205 198 202
-203.237 135.077 -1124 204 197 201
-200.923 135.044 -1124 203 196 200
-198.434 134.891 -1123 200 193 197
-196.126 134.859 -1123 197 190 194
-193.646 134.707 -1122 196 189 193
-191.002 134.435 -1120 182 175 179
-188.536 134.284 -1119 157 150 155
-186.075 134.133 -1118 144 137 143
-183.456 133.863 -1116 140 133 137
-180.685 133.474 -1113 134 127 132
-178.408 133.445 -1113 134 127 133
-176.132 133.416 -1113 126 119 125
-173.858 133.387 -1113 124 117 123
-172.048 133.718 -1116 130 122 128
-169.923 133.81 -1117 128 119 126
-167.795 133.903 -1118 128 117 124
-165.368 133.756 -1117 127 118 124
-162.801 133.49 -1115 126 118 124
-160.387 133.344 -1114 127 119 125
-158.263 133.437 -1115 130 122 128
-155.996 133.412 -1115 129 122 128
-153.73 133.387 -1115 129 122 128
-151.465 133.362 -1115 130 123 129
-148.934 133.098 -1113 132 124 132
-146.544 132.955 -1112 131 123 130
-144.29 132.931 -1112 129 121 127
-142.164 133.028 -1113 129 121 129
-140.035 133.124 -1114 132 124 133
-137.656 132.982 -1113 134 125 137
-135.526 133.08 -1114 132 123 136
-133.153 132.938 -1113 131 122 137
-130.785 132.798 -1112 133 127 147
-128.77 133.015 -1114 140 134 155
-126.633 133.114 -1115 141 135 157
-124.494 133.213 -1116 141 135 157
-122.352 133.313 -1117 141 135 157
-120.529 133.77 -1121 141 136 158
-118.48 133.99 -1123 144 139 160
-116.735 134.567 -1128 146 141 163
-115.173 135.383 -1135 144 141 163
-113.683 136.319 -1143 140 137 159
-111.87 136.897 -1148 134 134 160
-110.038 137.476 -1153 131 132 157
-107.906 137.697 -1155 128 130 154
-105.858 138.037 -1158 127 129 153
-103.889 138.497 -1162 128 130 154
-101.904 138.957 -1166 127 130 154
-99.9895 139.537 -1171 127 130 155
-98.3892 140.593 -1180 126 130 155
-96.5909 141.411 -1187 126 128 152
-94.924 142.468 -1196 120 122 145
-92.8349 142.929 -1200 117 121 146
-90.7306 143.391 -1204 117 121 145
-88.611 143.853 -1208 114 118 141
-86.3334 144.077 -1210 116 118 141
-84.0483 144.301 -1212 116 118 141
-81.7561 144.526 -1214 114 118 139
-79.5218 144.87 -1217 116 119 140
-77.2762 145.215 -1220 117 119 141
-75.2031 145.917 -1226 116 118 139
-72.988 146.381 -1230 117 119 140
-70.9869 147.321 -1238 119 121 141
-68.9544 148.262 -1246 118 119 138
-67.1571 149.798 -1259 116 117 135
-65.103 150.858 -1268 115 117 136
-63.0134 151.919 -1277 115 117 135
-60.7938 152.741 -1284 114 115 133
-59.7257 156.657 -1317 117 115 134
-308.778 145.165 -1216 225 220 228
-301.663 142.967 -1198 230 223 228
-297.374 142.082 -1191 231 225 229
-294.108 141.676 -1188 229 225 228
-290.611 141.151 -1184 227 223 226
-287.864 140.984 -1183 226 222 225
-284.159 140.342 -1178 225 221 224
-280.955 139.938 -1175 224 220 223
-277.767 139.535 -1172 223 219 222
-274.828 139.252 -1170 222 218 221
-271.435 138.731 -1166 222 218 221
-268.522 138.449 -1164 223 219 222
-265.163 137.93 -1160 225 221 224
-262.05 137.53 -1157 225 221 224
-258.951 137.131 -1154 224 220 223
-256.09 136.851 -1152 222 218 221
-253.459 136.691 -1151 221 217 220
-250.616 136.413 -1149 219 216 219
-247.784 136.135 -1147 218 215 218
-244.963 135.857 -1145 219 215 218
-242.363 135.699 -1144 219 215 218
-239.77 135.541 -1143 218 214 217
-236.976 135.265 -1141 212 208 211
-234.397 135.109 -1140 208 203 206
-231.825 134.952 -1139 209 202 206
-228.856 134.56 -1136 202 196 197
-226.3 134.404 -1135 196 190 192
-223.947 134.368 -1135 201 194 198
-221.597 134.332 -1135 204 197 201
-219.248 134.296 -1135 208 201 205
