ply
format ascii 1.0
comment Created by Open3D
element vertex 1468
property double x
property double y
property double z
property uchar red
property uchar green
property uchar blue
end_header
-317.528 -347.943 -1268 24 23 30
-313.05 -345.902 -1261 21 20 27
-309.344 -344.685 -1257 23 22 29
-305.414 -343.196 -1252 20 19 25
-301.991 -342.257 -1249 17 17 21
-298.585 -341.32 -1246 20 20 23
-295.669 -340.933 -1245 20 20 23
-292.76 -340.546 -1244 20 20 24
-290.091 -340.435 -1244 19 19 23
-287.424 -340.324 -1244 22 22 26
-284.76 -340.215 -1244 24 23 30
-282.099 -340.107 -1244 27 27 32
-279.216 -339.726 -1243 22 22 26
-276.117 -339.074 -1241 21 21 25
-272.808 -338.149 -1238 22 22 26
-269.078 -336.681 -1233 22 22 26
-265.805 -335.76 -1230 24 24 28
-262.76 -335.113 -1228 25 25 29
-259.726 -334.468 -1226 27 27 31
-256.913 -334.097 -1225 26 26 30
-254.106 -333.728 -1224 25 25 29
-251.306 -333.359 -1223 25 25 29
-248.308 -332.719 -1221 25 25 29
-245.523 -332.353 -1220 25 25 29
-242.744 -331.988 -1219 23 22 29
-240.563 -332.441 -1221 20 19 26
-237.985 -332.351 -1221 18 17 25
-235.602 -332.533 -1222 18 17 27
-233.599 -333.261 -1225 17 17 26
-230.831 -332.901 -1224 14 15 24
-228.068 -332.542 -1223 21 20 28
-225.312 -332.185 -1222 20 19 27
-222.745 -332.1 -1222 13 15 22
-219.819 -331.473 -1220 13 15 22
-217.616 -331.934 -1222 13 15 22
-215.23 -332.124 -1223 16 18 25
-212.668 -332.043 -1223 17 19 26
-210.28 -332.235 -1224 17 20 27
-207.889 -332.428 -1225 16 18 25
-205.664 -332.893 -1227 18 20 27
-202.935 -332.544 -1226 19 21 28
-200.539 -332.74 -1227 16 18 24
-197.98 -332.665 -1227 15 17 23
-195.581 -332.862 -1228 14 16 22
-193.023 -332.789 -1228 15 17 23
-190.777 -333.259 -1230 18 20 26
-188.371 -333.459 -1231 18 20 26
-185.66 -333.118 -1230 17 19 25
-182.807 -332.507 -1228 16 18 25
-180.11 -332.168 -1227 17 19 26
-177.274 -331.56 -1225 19 21 28
-174.59 -331.224 -1224 20 22 28
-171.772 -330.618 -1222 20 22 28
-169.24 -330.554 -1222 20 22 28
-166.437 -329.95 -1220 19 22 28
-164.047 -330.159 -1221 18 21 27
-161.39 -329.827 -1220 20 22 28
-158.868 -329.768 -1220 22 24 30
-156.219 -329.439 -1219 21 23 29
-153.828 -329.651 -1220 21 23 29
-151.187 -329.324 -1219 22 22 28
-148.794 -329.538 -1220 22 22 29
-146.159 -329.213 -1219 20 22 28
-143.647 -329.159 -1219 19 21 27
-141.021 -328.836 -1218 19 21 27
-138.513 -328.784 -1218 22 21 28
-135.784 -328.193 -1216 21 20 27
-133.502 -328.683 -1218 23 22 29
-130.998 -328.633 -1218 23 23 30
-128.495 -328.585 -1218 19 20 26
-125.994 -328.537 -1218 17 19 25
-123.594 -328.761 -1219 16 18 24
-120.993 -328.446 -1218 15 17 23
-118.689 -328.94 -1220 13 15 21
-116.283 -329.166 -1221 12 13 19
-113.78 -329.124 -1221 13 12 18
-111.187 -328.812 -1220 11 13 20
-108.689 -328.772 -1220 12 14 21
-106.017 -328.193 -1218 15 14 22
-103.524 -328.154 -1218 16 15 23
-100.949 -327.847 -1217 14 13 21
-98.5406 -328.079 -1218 14 13 20
-96.1291 -328.312 -1219 14 13 20
-93.7144 -328.546 -1220 12 13 19
-91.4459 -329.32 -1223 12 14 20
-89.0206 -329.556 -1224 13 15 21
-86.6625 -330.062 -1226 12 14 20
-84.2283 -330.299 -1227 12 14 20
-81.7908 -330.537 -1228 12 14 20
-79.3499 -330.777 -1229 13 12 19
-76.9681 -331.286 -1231 13 12 19
-74.4578 -331.258 -1231 15 14 21
-72.065 -331.769 -1233 16 15 22
-69.5519 -331.743 -1233 14 13 20
-67.0394 -331.718 -1233 13 12 19
-64.5274 -331.693 -1233 12 11 18
-62.0663 -331.939 -1234 12 11 18
-59.5533 -331.917 -1234 12 11 18
-57.0871 -332.164 -1235 13 12 18
-54.6172 -332.412 -1236 14 13 19
-52.1438 -332.661 -1237 14 13 20
-49.7069 -333.18 -1239 13 12 19
-47.2622 -333.7 -1241 12 11 19
-44.8099 -334.221 -1243 12 11 19
-42.4177 -335.28 -1247 13 12 20
-39.9137 -335.534 -1248 15 13 21
-37.4359 -336.058 -1250 11 11 21
-34.9504 -336.582 -1252 9 10 20
-32.4569 -337.107 -1254 12 11 19
-29.8602 -336.558 -1252 13 13 21
-27.381 -337.354 -1255 12 12 20
-24.8106 -337.075 -1254 11 12 22
-22.2623 -337.067 -1254 11 13 22
-19.6985 -336.79 -1253 12 14 21
-17.1799 -337.321 -1255 12 14 21
-14.6301 -337.315 -1255 12 14 21
-12.0996 -337.848 -1257 13 14 22
-9.56104 -338.381 -1259 13 15 22
-7.0145 -338.916 -1261 14 16 23
-4.45282 -338.914 -1261 16 15 24
-1.88967 -338.644 -1260 14 13 21
0.669928 -338.644 -1260 14 13 20
3.2321 -338.913 -1261 15 14 21
5.80754 -339.721 -1264 15 14 21
8.38859 -340.261 -1266 13 12 19
10.9952 -341.34 -1270 11 10 17
13.5967 -341.882 -1272 11 10 17
16.2064 -342.425 -1274 11 10 17
18.7949 -342.432 -1274 12 11 19
21.4171 -342.977 -1276 11 10 18
24.0102 -342.985 -1276 12 11 19
26.6658 -343.801 -1279 13 12 20
29.2882 -344.08 -1280 12 11 19
31.9647 -344.898 -1283 14 13 21
34.5997 -345.179 -1284 16 15 23
37.2681 -345.73 -1286 14 13 21
39.9139 -346.013 -1287 16 15 23
42.5971 -346.566 -1289 15 14 22
45.3942 -347.927 -1294 11 10 18
48.249 -349.557 -1300 10 9 16
51.1287 -351.189 -1306 11 10 17
53.992 -352.553 -1311 12 11 18
56.8328 -353.649 -1315 13 13 22
59.6905 -354.747 -1319 11 12 22
62.6122 -356.114 -1324 13 12 20
65.6041 -357.752 -1330 13 12 20
69.3402 -363.157 -1350 15 14 21
-323.932 -354.705 -1282 38 37 44
-317.4 -350.431 -1267 23 22 29
-313.419 -348.926 -1262 21 20 27
-309.709 -347.7 -1258 21 20 27
-305.775 -346.199 -1253 19 19 24
-302.108 -344.976 -1249 17 17 21
-298.7 -344.032 -1246 20 20 24
-295.782 -343.641 -1245 20 20 24
-292.872 -343.251 -1244 21 21 25
-290.202 -343.139 -1244 21 21 25
-287.534 -343.027 -1244 23 23 27
-284.87 -342.917 -1244 24 23 30
-282.207 -342.808 -1244 26 25 30
-279.323 -342.424 -1243 22 22 26
-276.445 -342.042 -1242 21 21 25
-273.133 -341.11 -1239 22 22 26
-269.4 -339.63 -1234 21 21 25
-265.906 -338.426 -1230 24 24 28
-262.86 -337.775 -1228 25 25 29
-259.825 -337.124 -1226 26 26 30
-257.011 -336.75 -1225 26 26 30
-254.203 -336.378 -1224 25 25 29
-251.401 -336.006 -1223 24 24 28
-248.403 -335.361 -1221 25 25 29
-245.818 -335.267 -1221 25 25 29
-242.837 -334.624 -1219 23 22 29
-240.457 -334.806 -1220 20 19 26
-238.076 -334.989 -1221 18 17 25
-235.692 -335.173 -1222 18 17 27
-233.497 -335.632 -1224 16 15 24
-230.918 -335.543 -1224 14 13 21
-228.155 -335.182 -1223 21 20 28
-225.582 -335.095 -1223 20 20 28
-223.012 -335.01 -1223 12 14 21
-220.082 -334.378 -1221 13 15 22
-217.698 -334.569 -1222 14 17 24
-215.311 -334.76 -1223 14 16 23
-212.748 -334.679 -1223 16 18 25
-210.187 -334.598 -1223 18 21 28
-207.968 -335.066 -1225 18 20 27
-205.574 -335.261 -1226 19 21 28
-202.846 -334.91 -1225 19 21 28
-200.451 -335.107 -1226 14 16 22
-198.054 -335.305 -1227 12 14 20
-195.655 -335.504 -1228 12 14 20
-193.096 -335.43 -1228 14 16 22
-190.848 -335.904 -1230 19 21 27
-188.288 -335.832 -1230 19 21 27
-185.579 -335.488 -1229 16 18 24
-182.875 -335.146 -1228 17 19 26
-180.177 -334.804 -1227 18 20 26
-177.485 -334.464 -1226 18 20 26
-174.941 -334.397 -1226 17 19 25
-172.118 -333.786 -1224 19 21 27
-169.443 -333.449 -1223 20 22 28
-166.773 -333.113 -1222 19 22 28
-164.378 -333.323 -1223 17 20 26
-161.583 -332.717 -1221 20 22 28
-159.058 -332.656 -1221 25 27 33
-156.278 -332.052 -1219 24 26 32
-153.76 -331.994 -1219 25 27 33
-151.119 -331.664 -1218 23 25 31
-148.728 -331.88 -1219 22 24 30
-146.214 -331.825 -1219 20 22 28
-143.819 -332.042 -1220 18 20 26
-141.189 -331.717 -1219 18 20 26
-138.679 -331.664 -1219 20 19 26
-136.058 -331.34 -1218 20 19 26
-133.662 -331.562 -1219 20 19 26
-131.047 -331.24 -1218 20 22 28
-128.543 -331.192 -1218 19 21 27
-125.937 -330.872 -1217 18 20 26
-123.438 -330.825 -1217 17 19 25
-120.939 -330.779 -1217 17 19 25
-118.734 -331.55 -1220 15 17 23
-116.231 -331.506 -1220 13 14 20
-113.823 -331.734 -1221 13 12 19
-111.229 -331.421 -1220 13 15 22
-108.64 -331.108 -1219 14 16 23
-106.056 -330.796 -1218 16 15 23
-103.562 -330.757 -1218 18 17 25
-100.986 -330.447 -1217 16 15 23
-98.5773 -330.681 -1218 13 12 19
-96.165 -330.916 -1219 12 13 19
-93.7493 -331.152 -1220 12 14 20
-91.4052 -331.66 -1222 12 14 20
-89.0537 -332.169 -1224 13 15 21
-86.6947 -332.679 -1226 12 14 20
-84.2596 -332.919 -1227 13 15 21
-81.8212 -333.159 -1228 12 14 20
-79.3794 -333.4 -1229 13 12 19
-76.9342 -333.642 -1230 14 13 20
-74.425 -333.614 -1230 15 14 21
-72.0334 -334.129 -1232 14 13 20
-69.5213 -334.103 -1232 13 12 19
-67.0643 -334.348 -1233 13 12 19
-64.499 -334.053 -1232 13 12 19
-62.039 -334.3 -1233 13 12 19
-59.5272 -334.278 -1233 12 11 18
-57.1083 -334.798 -1235 13 12 19
-54.6376 -335.048 -1236 14 13 20
-52.1632 -335.299 -1237 13 12 19
-49.7655 -336.094 -1240 13 12 19
-47.2798 -336.347 -1241 12 11 19
-44.7904 -336.601 -1242 11 11 19
-42.3994 -337.668 -1246 11 10 18
-39.8966 -337.924 -1247 13 12 20
-37.4498 -338.723 -1250 11 12 21
-34.9633 -339.251 -1252 10 11 20
-32.4689 -339.78 -1254 12 11 19
-29.8951 -339.498 -1253 13 13 20
-27.413 -340.3 -1256 10 12 19
-24.8396 -340.019 -1255 10 11 20
-22.2884 -340.011 -1255 11 13 22
-19.7215 -339.732 -1254 11 13 20
-17.1726 -339.725 -1254 11 13 20
-14.6122 -339.448 -1253 12 14 21
-12.0752 -339.714 -1254 13 15 22
-9.54179 -340.252 -1256 14 16 23
-6.99492 -340.52 -1257 13 15 22
-4.4474 -341.059 -1259 16 15 23
-1.88745 -340.787 -1258 16 15 22
0.669642 -341.058 -1259 13 12 19
3.23065 -341.33 -1260 13 12 19
5.80509 -342.144 -1263 15 14 21
8.38499 -342.689 -1265 13 12 19
10.9906 -343.776 -1269 10 9 16
13.5909 -344.322 -1271 9 8 15
16.187 -344.599 -1272 11 10 17
18.7872 -344.876 -1273 11 10 18
21.4084 -345.425 -1275 12 11 19
24.019 -345.705 -1276 13 12 20
26.6549 -346.256 -1278 13 12 20
29.2533 -346.267 -1278 13 12 20
31.9267 -347.091 -1281 14 13 21
34.5855 -347.645 -1283 14 13 21
37.2239 -347.93 -1284 15 14 22
39.8977 -348.486 -1286 14 13 21
42.5469 -348.772 -1287 14 13 20
45.3409 -350.144 -1292 11 10 18
48.1184 -351.245 -1296 9 8 15
51.0301 -353.161 -1303 11 10 17
53.8884 -354.536 -1308 12 11 18
56.7674 -355.912 -1313 12 12 21
59.6222 -357.018 -1317 11 12 22
62.5409 -358.396 -1322 14 13 21
65.5792 -360.318 -1329 14 13 20
69.0063 -364.139 -1343 13 12 19
73.7731 -374.469 -1381 25 24 31
-324.058 -357.504 -1282 33 32 39
-317.523 -353.197 -1267 25 24 31
-313.044 -351.122 -1260 25 24 31
-309.583 -350.165 -1257 26 25 32
-305.65 -348.652 -1252 22 21 27
-301.983 -347.42 -1248 18 18 20
-298.816 -346.746 -1246 19 19 23
-295.897 -346.352 -1245 20 20 24
-293.221 -346.238 -1245 20 20 24
-290.314 -345.846 -1244 21 21 25
-287.877 -346.012 -1245 21 21 25
-285.209 -345.9 -1245 22 21 28
-282.543 -345.79 -1245 23 23 28
-279.655 -345.403 -1244 22 22 26
-276.774 -345.018 -1243 22 22 26
-273.238 -343.801 -1239 22 22 26
-269.504 -342.309 -1234 22 22 26
-266.225 -341.373 -1231 23 23 27
-263.176 -340.716 -1229 23 23 27
-260.349 -340.338 -1228 24 24 28
-257.529 -339.961 -1227 25 25 29
-254.508 -339.308 -1225 25 25 29
-251.498 -338.656 -1223 24 24 28
-248.498 -338.006 -1221 25 25 29
-245.711 -337.634 -1220 25 25 29
-242.93 -337.263 -1219 22 21 28
-240.549 -337.446 -1220 20 19 26
-238.167 -337.631 -1221 20 19 27
-235.782 -337.816 -1222 17 16 26
-233.396 -338.002 -1223 16 15 24
-230.818 -337.913 -1223 17 16 24
-228.056 -337.549 -1222 20 19 27
-225.3 -337.185 -1221 21 20 28
-222.55 -336.823 -1220 14 16 23
-219.806 -336.462 -1219 12 15 22
-217.425 -336.655 -1220 13 16 23
-215.041 -336.847 -1221 15 17 24
-212.656 -337.042 -1222 15 17 24
-210.267 -337.236 -1223 17 19 26
-208.217 -337.983 -1226 19 21 28
-205.652 -337.904 -1226 19 21 28
-203.255 -338.102 -1227 18 20 27
-200.691 -338.024 -1227 16 18 24
-198.291 -338.224 -1228 14 16 22
-195.729 -338.148 -1228 14 16 22
-193.326 -338.35 -1229 14 16 22
-190.921 -338.551 -1230 15 17 23
-188.36 -338.479 -1230 16 18 24
-185.801 -338.408 -1230 14 16 23
-183.094 -338.062 -1229 16 18 25
-180.393 -337.718 -1228 18 20 26
-177.697 -337.375 -1227 15 17 23
-175.15 -337.308 -1227 14 16 22
-172.464 -336.967 -1226 17 19 25
-169.784 -336.627 -1225 19 21 27
-167.246 -336.563 -1225 19 22 28
-164.44 -335.95 -1223 18 21 27
-161.644 -335.339 -1221 20 22 28
-158.988 -335.003 -1220 20 22 28
-156.209 -334.395 -1218 21 23 29
-153.692 -334.336 -1218 22 24 30
-151.176 -334.278 -1218 22 24 30
-148.784 -334.495 -1219 21 23 29
-146.269 -334.44 -1219 22 24 30
-143.873 -334.659 -1220 21 22 28
-141.243 -334.33 -1219 20 20 26
-138.731 -334.277 -1219 21 20 27
-136.221 -334.225 -1219 20 20 27
-133.712 -334.174 -1219 19 20 26
-131.097 -333.85 -1218 19 21 27
-128.486 -333.527 -1217 19 21 27
-125.881 -333.205 -1216 19 21 27
-123.484 -333.432 -1217 18 20 26
-120.985 -333.385 -1217 17 19 25
-118.681 -333.888 -1219 13 15 21
-116.275 -334.117 -1220 13 13 20
-113.865 -334.348 -1221 14 13 20
-111.362 -334.305 -1221 14 15 22
-108.77 -333.99 -1220 14 16 23
-106.183 -333.676 -1219 16 15 23
-103.686 -333.636 -1219 17 16 24
-101.107 -333.324 -1218 16 15 23
-98.6143 -333.286 -1218 13 12 19
-96.28 -333.797 -1220 12 12 18
-93.7845 -333.761 -1220 11 13 19
-91.3647 -334 -1221 12 14 20
-89.0143 -334.513 -1223 13 15 21
-86.6565 -335.027 -1225 12 14 20
-84.1539 -334.994 -1225 11 13 19
-81.7852 -335.51 -1227 11 13 19
-79.4092 -336.027 -1229 11 13 19
-77.0256 -336.544 -1231 13 13 20
-74.5134 -336.515 -1231 14 13 20
-72.0019 -336.488 -1231 14 13 20
-69.4909 -336.461 -1231 14 13 20
-66.9806 -336.435 -1231 13 12 19
-64.4708 -336.411 -1231 13 12 19
-61.9615 -336.387 -1231 13 12 19
-59.5011 -336.637 -1232 13 12 19
-57.0372 -336.889 -1233 13 12 19
-54.6138 -337.414 -1235 14 13 20
-52.0984 -337.394 -1235 14 13 20
-49.7038 -338.195 -1238 14 13 20
-47.2593 -338.723 -1240 12 11 19
-44.7711 -338.979 -1241 9 10 17
-42.3812 -340.055 -1245 8 10 17
-39.8794 -340.313 -1246 11 10 18
-37.4338 -341.117 -1249 11 12 20
-34.9484 -341.65 -1251 11 13 20
-32.4552 -342.184 -1253 12 11 19
-29.9063 -342.172 -1253 12 12 19
-27.4232 -342.98 -1256 10 12 19
-24.8489 -342.697 -1255 11 13 20
-22.2967 -342.689 -1255 11 13 20
-19.7131 -342.135 -1253 10 13 20
-17.1653 -342.128 -1253 12 14 21
-14.6176 -342.122 -1253 13 15 22
-12.0796 -342.39 -1254 13 15 22
-9.53775 -342.659 -1255 13 15 22
-6.99188 -342.929 -1256 13 15 22
-4.442 -343.2 -1257 16 15 23
-1.88658 -343.199 -1257 15 14 22
0.668826 -343.198 -1257 13 12 19
3.22937 -343.745 -1259 12 11 18
5.80266 -344.566 -1262 12 11 18
8.3882 -345.388 -1265 12 11 18
10.9947 -346.484 -1269 11 10 17
13.6068 -347.307 -1272 10 9 16
16.193 -347.313 -1272 11 10 17
18.7943 -347.593 -1273 11 10 17
21.3996 -347.873 -1274 11 10 17
24.0092 -348.155 -1275 12 11 18
26.644 -348.711 -1277 12 11 19
29.2643 -348.994 -1278 12 11 19
31.9386 -349.825 -1281 12 11 19
34.5715 -350.11 -1282 13 12 20
37.2378 -350.67 -1284 13 12 20
39.9127 -351.231 -1286 13 12 19
42.662 -352.339 -1290 13 12 19
45.3579 -352.902 -1292 12 11 18
48.2108 -354.558 -1298 10 9 16
51.1277 -356.489 -1305 10 9 16
53.9498 -357.602 -1309 12 11 18
56.8321 -358.988 -1314 13 13 22
59.6444 -359.83 -1317 13 14 24
62.5643 -361.219 -1322 14 13 21
65.5051 -362.609 -1327 14 13 20
69.0321 -367.007 -1343 13 12 19
73.3732 -375.233 -1373 21 20 27
-324.185 -360.307 -1282 28 27 34
-317.648 -355.965 -1267 24 23 30
-313.416 -354.156 -1261 24 23 30
-309.705 -352.91 -1257 26 25 32
-306.014 -351.666 -1253 23 22 28
-302.343 -350.424 -1249 17 17 19
-299.172 -349.745 -1247 18 18 21
-296.25 -349.347 -1246 18 18 22
-293.1 -348.671 -1244 18 18 22
-290.428 -348.557 -1244 21 21 25
-287.989 -348.723 -1245 20 20 24
-285.32 -348.611 -1245 21 20 26
-282.426 -348.22 -1244 25 25 30
-279.539 -347.83 -1243 26 26 30
-276.659 -347.442 -1242 25 25 29
-273.124 -346.215 -1238 24 24 28
-269.827 -345.271 -1235 22 22 26
-266.545 -344.327 -1232 22 22 26
-263.492 -343.665 -1230 22 22 26
-260.45 -343.004 -1228 23 22 28
-257.839 -342.903 -1228 25 24 30
-254.607 -341.966 -1225 26 25 31
-251.39 -341.03 -1222 23 23 27
-248.391 -340.375 -1220 22 22 26
-245.605 -340 -1219 24 24 28
-242.625 -339.347 -1217 20 19 26
-240.248 -339.532 -1218 18 17 24
-237.869 -339.718 -1219 20 19 27
-235.68 -340.184 -1221 18 17 27
-233.295 -340.371 -1222 17 17 26
-230.529 -340.003 -1221 17 17 26
-228.144 -340.192 -1222 20 19 28
-225.386 -339.826 -1221 20 19 27
-222.635 -339.461 -1220 13 15 22
-219.891 -339.098 -1219 13 15 22
-217.33 -339.013 -1219 15 17 24
-214.948 -339.208 -1220 16 18 25
-212.737 -339.681 -1222 14 16 23
-210.176 -339.599 -1222 16 18 25
-207.957 -340.074 -1224 21 21 29
-205.395 -339.995 -1224 19 20 28
-203.001 -340.194 -1225 17 19 26
-200.441 -340.116 -1225 16 18 24
-198.044 -340.317 -1226 16 18 23
-195.645 -340.519 -1227 15 17 23
-193.401 -340.999 -1229 14 16 22
-190.994 -341.202 -1230 14 16 22
-188.432 -341.129 -1230 15 17 23
-185.721 -340.78 -1229 16 18 24
-183.164 -340.709 -1229 17 19 25
-180.315 -340.085 -1227 18 20 26
-177.91 -340.293 -1228 16 18 24
-175.36 -340.226 -1228 15 17 23
-172.671 -339.882 -1227 17 19 25
-169.987 -339.539 -1226 18 20 26
-167.309 -339.197 -1225 18 21 27
-164.503 -338.58 -1223 19 21 27
-161.705 -337.964 -1221 19 21 27
-159.048 -337.626 -1220 17 19 25
-156.268 -337.012 -1218 17 19 25
-153.624 -336.676 -1217 19 21 27
-151.234 -336.894 -1218 19 21 27
-148.719 -336.837 -1218 20 22 28
-146.205 -336.781 -1218 21 23 29
-143.81 -337.002 -1219 23 24 30
-141.296 -336.947 -1219 24 23 30
-138.67 -336.617 -1218 22 22 29
-136.161 -336.565 -1218 21 22 28
-133.653 -336.514 -1218 20 22 28
-131.039 -336.187 -1217 20 22 28
-128.429 -335.861 -1216 19 21 27
-125.929 -335.813 -1216 19 21 27
-123.43 -335.765 -1216 19 21 27
-120.931 -335.718 -1216 18 20 26
-118.726 -336.501 -1219 15 17 23
-116.224 -336.456 -1219 13 14 20
-113.909 -336.964 -1221 15 14 21
-111.313 -336.646 -1220 14 16 23
-108.811 -336.604 -1220 15 17 24
-106.136 -336.011 -1218 17 16 24
-103.726 -336.247 -1219 17 16 24
-101.146 -335.932 -1218 16 15 23
-98.5706 -335.618 -1217 14 13 20
-96.2375 -336.133 -1219 12 12 19
-93.82 -336.373 -1220 12 14 21
-91.3992 -336.613 -1221 13 15 21
-88.9752 -336.855 -1222 12 14 20
-86.6185 -337.372 -1224 12 14 20
-84.1857 -337.616 -1225 11 13 19
-81.8828 -338.411 -1228 11 13 19
-79.4392 -338.656 -1229 10 12 18
-77.0547 -339.177 -1231 12 13 19
-74.5416 -339.148 -1231 14 13 20
-71.9705 -338.845 -1230 13 12 19
-69.4607 -338.818 -1230 13 12 19
-66.9514 -338.793 -1230 14 13 20
-64.3904 -338.492 -1229 14 13 20
-61.8842 -338.468 -1229 13 12 19
-59.427 -338.721 -1230 14 13 20
-56.9662 -338.974 -1231 14 13 20
-54.5459 -339.504 -1233 14 13 20
-52.0758 -339.759 -1234 14 13 20
-49.7225 -340.841 -1238 13 13 20
-47.3153 -341.648 -1241 11 12 18
-44.8602 -342.181 -1243 8 10 18
-42.4313 -342.991 -1246 8 10 18
-39.9265 -343.25 -1247 11 10 18
-37.4779 -344.062 -1250 10 11 19
-34.9616 -344.323 -1251 11 13 20
-32.4673 -344.861 -1253 13 12 20
-29.9415 -345.124 -1254 12 12 20
-27.4335 -345.664 -1256 10 12 19
-24.8582 -345.379 -1255 12 14 21
-22.2873 -345.095 -1254 12 14 21
-19.7205 -344.811 -1253 11 14 21
-17.1717 -344.804 -1253 12 14 21
-14.6114 -344.523 -1252 13 15 22
-12.0745 -344.793 -1253 13 15 22
-9.53373 -345.065 -1254 12 14 21
-6.98902 -345.337 -1255 12 14 21
-4.44013 -345.61 -1256 14 13 21
-1.88421 -345.333 -1255 15 14 22
0.668543 -345.608 -1256 14 13 20
3.22552 -345.884 -1257 11 11 16
5.80024 -346.987 -1261 12 12 17
8.37816 -347.54 -1263 13 12 19
10.9815 -348.644 -1267 11 10 17
13.5906 -349.474 -1270 9 8 15
16.1865 -349.755 -1271 11 10 17
18.7717 -349.762 -1271 11 10 17
21.4076 -350.595 -1274 12 11 18
24.0183 -350.879 -1275 11 10 17
26.654 -351.439 -1277 11 10 18
29.2754 -351.725 -1278 12 11 19
31.9258 -352.287 -1280 12 11 19
34.6116 -353.125 -1283 12 11 19
37.2519 -353.414 -1284 12 11 19
39.9277 -353.979 -1286 12 11 18
42.6451 -354.82 -1289 13 12 19
45.4101 -355.938 -1293 12 11 18
48.2289 -357.332 -1298 11 10 17
51.1469 -359.278 -1305 11 10 17
53.929 -360.124 -1308 13 13 17
56.8102 -361.522 -1313 14 15 22
59.6217 -362.37 -1316 13 14 24
62.588 -364.045 -1322 13 12 20
65.3817 -364.621 -1324 12 11 19
68.7497 -368.226 -1337 11 10 17
-323.049 -361.697 -1277 28 27 34
-317.021 -357.888 -1264 22 21 28
-313.291 -356.63 -1260 23 22 29
-309.334 -355.092 -1255 24 23 30
-305.646 -353.838 -1251 22 21 28
-302.463 -353.152 -1249 18 18 20
-299.29 -352.468 -1247 17 17 20
-296.129 -351.785 -1245 17 17 21
-293.451 -351.668 -1245 18 18 22
-290.776 -351.553 -1245 20 20 24
-288.103 -351.438 -1245 21 21 25
-285.203 -351.043 -1244 22 22 26
-282.537 -350.931 -1244 23 23 27
-279.424 -350.256 -1242 22 22 26
-276.322 -349.582 -1240 20 20 24
-273.231 -348.91 -1238 21 21 25
-269.933 -347.958 -1235 23 23 27
-266.649 -347.007 -1232 23 23 27
-263.381 -346.058 -1229 23 23 28
-260.552 -345.674 -1228 24 23 30
-257.94 -345.572 -1228 25 24 31
-254.915 -344.909 -1226 24 23 30
-251.694 -343.965 -1223 25 25 29
-248.488 -343.024 -1220 26 26 30
-245.7 -342.646 -1219 26 26 30
-242.72 -341.988 -1217 21 20 27
-240.144 -341.893 -1217 19 18 25
-237.766 -342.081 -1218 20 19 27
-235.579 -342.55 -1220 18 17 27
-233.004 -342.458 -1220 17 17 27
-230.619 -342.648 -1221 16 18 27
-228.045 -342.559 -1221 21 21 29
-225.105 -341.909 -1219 19 18 26
-222.357 -341.541 -1218 11 13 20
-219.796 -341.455 -1218 14 16 23
-217.236 -341.37 -1218 16 18 24
-214.855 -341.566 -1219 17 19 26
-212.472 -341.763 -1220 15 17 24
-210.086 -341.961 -1221 15 17 24
-207.868 -342.44 -1223 18 18 26
-205.475 -342.639 -1224 19 19 27
-203.08 -342.84 -1225 17 19 26
-200.519 -342.762 -1225 15 17 22
-198.282 -343.244 -1227 17 19 23
-195.88 -343.447 -1228 17 19 25
-193.475 -343.651 -1229 15 17 23
-191.068 -343.856 -1230 15 17 23
-188.505 -343.782 -1230 15 17 23
-185.792 -343.43 -1229 18 20 26
-183.234 -343.359 -1229 18 20 26
-180.384 -342.73 -1227 16 18 24
-177.834 -342.66 -1227 14 16 22
-175.285 -342.592 -1227 15 17 23
-172.597 -342.246 -1226 17 19 25
-170.053 -342.18 -1226 18 20 26
-167.51 -342.114 -1226 16 19 25
-164.566 -341.213 -1223 17 19 25
-161.9 -340.871 -1222 18 20 26
-159.109 -340.251 -1220 16 18 24
-156.328 -339.633 -1218 16 18 24
-153.557 -339.015 -1216 17 19 25
-151.044 -338.956 -1216 20 22 28
-148.654 -339.177 -1217 21 23 29
-146.141 -339.121 -1217 20 22 28
-143.747 -339.343 -1218 23 23 30
-141.119 -339.01 -1217 25 24 31
-138.609 -338.956 -1217 21 23 29
-136.101 -338.903 -1217 20 22 28
-133.594 -338.851 -1217 21 23 29
-130.981 -338.522 -1216 19 21 27
-128.373 -338.194 -1215 18 20 26
-125.977 -338.423 -1216 18 20 26
-123.477 -338.375 -1216 19 21 27
-121.077 -338.607 -1217 18 20 26
-118.771 -339.117 -1219 15 18 24
-116.268 -339.072 -1219 13 15 21
-113.859 -339.306 -1220 15 14 21
-111.355 -339.263 -1220 13 15 22
-108.853 -339.22 -1220 15 17 24
-106.264 -338.901 -1219 18 20 27
-103.765 -338.861 -1219 17 18 25
-101.184 -338.544 -1218 16 15 23
-98.6893 -338.505 -1218 15 14 21
-96.2742 -338.746 -1219 13 13 20
-93.7789 -338.709 -1219 12 14 21
-91.3592 -338.952 -1220 13 15 21
-88.9363 -339.195 -1221 13 15 21
-86.6515 -339.995 -1224 12 14 20
-84.149 -339.962 -1224 12 14 20
-81.8473 -340.764 -1227 11 13 19
-79.4694 -341.288 -1229 11 13 20
-77.0214 -341.536 -1230 12 13 19
-74.5093 -341.507 -1230 14 13 20
-71.9979 -341.479 -1230 12 11 18
-69.4306 -341.174 -1229 12 11 18
-66.9225 -341.148 -1229 13 12 19
-64.4148 -341.123 -1229 14 13 20
-61.9078 -341.099 -1229 14 13 20
-59.4496 -341.353 -1230 14 13 20
-57.0341 -341.886 -1232 14 13 20
-54.6109 -342.42 -1234 13 12 19
-52.1378 -342.677 -1235 14 13 20
-49.8218 -344.045 -1240 13 13 20
-47.3714 -344.581 -1242 10 12 18
-44.8772 -344.841 -1243 9 11 20
-42.4473 -345.656 -1246 8 9 19
-39.9737 -346.196 -1248 10 10 18
-37.4622 -346.458 -1249 10 11 19
-34.9749 -346.999 -1251 10 12 19
-32.4538 -347.264 -1252 12 11 19
-29.9528 -347.806 -1254 11 12 19
-27.4221 -348.073 -1255 11 13 20
-24.8676 -348.063 -1255 12 14 21
-22.2957 -347.777 -1254 12 14 21
-19.728 -347.491 -1253 12 15 22
-17.1783 -347.484 -1253 13 15 23
-14.6053 -346.924 -1251 13 15 23
-12.0695 -347.196 -1252 13 15 22
-9.52973 -347.469 -1253 12 14 21
-6.98044 -347.466 -1253 11 13 20
-4.43474 -347.741 -1254 13 12 20
-1.8835 -347.74 -1254 15 14 21
0.668262 -348.017 -1255 15 14 19
3.2241 -348.295 -1256 12 12 16
5.79783 -349.406 -1260 12 12 17
8.36797 -349.686 -1261 12 11 18
10.9597 -350.522 -1264 10 9 16
13.5744 -351.636 -1268 9 8 15
16.1799 -352.196 -1270 10 9 16
18.7937 -352.757 -1272 10 9 16
21.3991 -353.042 -1273 14 13 20
24.0274 -353.606 -1275 12 11 18
26.6642 -354.17 -1277 11 10 18
29.2865 -354.458 -1278 11 10 18
31.913 -354.747 -1279 11 10 18
34.5709 -355.315 -1281 11 10 18
37.2372 -355.883 -1283 12 11 19
39.9118 -356.453 -1285 12 11 18
42.6613 -357.578 -1289 12 11 18
45.568 -359.814 -1297 12 11 18
48.3959 -361.219 -1302 12 11 18
51.2841 -362.903 -1308 13 12 18
54.032 -363.478 -1310 13 13 17
56.8752 -364.609 -1314 13 14 21
59.5992 -364.909 -1315 12 13 23
62.4698 -366.042 -1319 12 11 21
65.3079 -366.899 -1322 12 11 19
68.5702 -369.978 -1333 10 9 16
72.199 -374.723 -1350 13 12 20
-322.418 -363.639 -1274 29 28 35
-316.646 -360.086 -1262 23 22 29
-312.918 -358.819 -1258 24 23 30
-309.211 -357.554 -1254 26 25 32
-305.768 -356.575 -1251 23 22 28
-302.341 -355.599 -1248 18 18 20
-299.169 -354.909 -1246 17 17 21
-296.485 -354.79 -1246 19 19 23
-293.803 -354.673 -1246 17 17 21
-291.125 -354.556 -1246 19 19 23
-288.217 -354.156 -1245 21 21 25
-285.316 -353.758 -1244 23 23 27
-282.422 -353.36 -1243 22 22 26
-279.535 -352.964 -1242 22 22 26
-276.431 -352.286 -1240 22 22 26
-273.118 -351.324 -1237 23 23 27
-269.821 -350.365 -1234 23 23 27
-266.538 -349.407 -1231 24 24 28
-263.485 -348.734 -1229 23 23 28
-260.655 -348.346 -1228 25 24 31
-257.832 -347.96 -1227 25 24 31
-254.807 -347.292 -1225 23 22 29
-251.587 -346.341 -1222 25 25 29
-248.382 -345.392 -1219 28 28 32
-245.394 -344.728 -1217 27 27 31
-242.416 -344.065 -1215 24 23 30
-239.844 -343.97 -1215 21 20 27
-237.469 -344.159 -1216 20 19 27
-235.285 -344.632 -1218 17 16 26
-232.904 -344.822 -1219 18 17 27
-230.52 -345.014 -1220 17 19 27
-228.135 -345.207 -1221 22 22 29
-225.378 -344.835 -1220 19 18 25
-222.626 -344.464 -1219 12 14 20
-219.882 -344.094 -1218 15 17 23
-217.321 -344.009 -1218 15 17 23
-214.763 -343.924 -1218 17 19 26
-212.38 -344.122 -1219 16 18 25
-209.996 -344.322 -1220 14 16 23
-207.779 -344.804 -1222 16 16 23
-205.387 -345.005 -1223 19 18 25
-202.993 -345.207 -1224 18 20 27
-200.597 -345.41 -1225 18 20 25
-198.198 -345.614 -1226 17 19 23
-195.797 -345.819 -1227 16 18 24
-193.551 -346.306 -1229 16 18 24
-190.987 -346.231 -1229 15 17 23
-188.578 -346.439 -1230 14 16 22
-185.713 -345.802 -1228 16 18 24
-183.306 -346.012 -1229 17 19 25
-180.454 -345.378 -1227 16 18 24
-178.048 -345.589 -1228 14 16 22
-175.496 -345.52 -1228 12 14 20
-172.945 -345.452 -1228 14 16 22
-170.119 -344.823 -1226 16 18 24
-167.575 -344.757 -1226 14 17 23
-164.764 -344.13 -1224 15 17 23
-161.83 -343.223 -1221 18 20 26
-159.041 -342.599 -1219 18 20 26
-156.26 -341.975 -1217 18 20 26
-153.364 -341.072 -1214 18 20 26
-150.978 -341.294 -1215 20 22 28
-148.589 -341.517 -1216 21 23 29
-146.197 -341.74 -1217 20 22 28
-143.685 -341.684 -1217 22 22 29
-141.173 -341.629 -1217 24 23 30
-138.663 -341.574 -1217 21 23 29
-136.154 -341.521 -1217 20 22 28
-133.646 -341.469 -1217 20 22 28
-131.032 -341.137 -1216 19 21 27
-128.528 -341.086 -1216 19 21 27
-125.922 -340.757 -1215 18 20 26
-123.423 -340.708 -1215 16 18 24
-121.124 -341.222 -1217 16 18 24
-118.817 -341.736 -1219 16 19 25
-116.313 -341.691 -1219 14 15 22
-113.903 -341.926 -1220 15 14 21
-111.398 -341.883 -1220 13 14 21
-108.895 -341.84 -1220 16 18 25
-106.305 -341.518 -1219 17 19 26
-103.805 -341.478 -1219 17 17 24
-101.223 -341.158 -1218 17 14 22
-98.7272 -341.119 -1218 14 13 20
-96.3112 -341.362 -1219 14 14 21
-93.8149 -341.325 -1219 12 14 21
-91.3943 -341.569 -1220 13 15 21
-88.9705 -341.814 -1221 15 17 23
-86.614 -342.34 -1223 13 15 21
-84.1813 -342.587 -1224 12 15 21
-81.8788 -343.395 -1227 12 15 21
-79.4353 -343.644 -1228 13 15 22
-77.051 -344.173 -1230 13 13 20
-74.4167 -343.584 -1228 14 13 20
-71.9084 -343.556 -1228 14 13 20
-69.3443 -343.249 -1227 12 11 18
-66.8392 -343.223 -1227 12 11 18
-64.3872 -343.477 -1228 13 12 19
-61.9316 -343.733 -1229 13 12 19
-59.5207 -344.269 -1231 13 12 19
-57.0559 -344.526 -1232 13 12 19
-54.5876 -344.784 -1233 14 13 20
-52.1578 -345.323 -1235 15 14 21
-49.7605 -346.142 -1238 12 12 19
-47.3133 -346.682 -1240 9 11 17
-44.8944 -347.503 -1243 9 10 20
-42.4296 -348.046 -1245 8 9 19
-39.9569 -348.589 -1247 10 12 19
-37.4765 -349.133 -1249 9 11 18
-34.9603 -349.399 -1250 10 12 19
-32.4662 -349.945 -1252 12 11 18
-29.9642 -350.492 -1254 11 11 18
-27.4326 -350.76 -1255 11 13 20
-24.8772 -350.75 -1255 10 13 20
-22.322 -350.741 -1255 11 14 21
-19.7356 -350.174 -1253 13 16 23
-17.1711 -349.888 -1252 13 14 24
-14.6225 -349.881 -1252 11 12 22
-12.0645 -349.597 -1251 11 13 20
-9.52575 -349.872 -1252 12 14 21
-6.9776 -349.869 -1252 11 13 20
-4.43289 -350.146 -1253 14 13 21
-1.88414 -350.425 -1254 15 14 21
0.669048 -350.983 -1256 14 14 18
3.2254 -350.984 -1256 13 13 18
5.79558 -351.824 -1259 13 13 18
8.36459 -352.106 -1260 12 11 18
10.9552 -352.948 -1263 10 9 16
13.5475 -353.512 -1265 9 8 15
16.1605 -354.356 -1268 10 9 16
18.7713 -354.922 -1270 10 9 16
21.3904 -355.488 -1272 12 11 18
24.0178 -356.056 -1274 14 13 20
26.6536 -356.625 -1276 12 11 18
29.2748 -356.915 -1277 10 9 17
31.9002 -357.207 -1278 10 9 17
34.5841 -358.058 -1281 11 10 18
37.2224 -358.351 -1282 13 12 20
39.9273 -359.205 -1285 12 11 17
42.7108 -360.618 -1290 11 10 17
45.5854 -362.592 -1297 12 11 18
48.4518 -364.288 -1303 14 13 20
51.3429 -365.984 -1309 14 13 20
54.1352 -366.844 -1312 13 13 17
56.9404 -367.704 -1315 11 12 20
59.6673 -368.006 -1316 10 11 22
62.5411 -369.148 -1320 11 10 20
65.3823 -370.012 -1323 11 10 19
68.4422 -371.996 -1330 11 10 17
71.9056 -375.939 -1344 14 13 21
-330.421 -372.319 -1294 43 42 49
-322.042 -365.858 -1272 27 26 33
-316.271 -362.279 -1260 23 22 29
-312.795 -361.289 -1257 23 22 29
-309.088 -360.014 -1253 23 22 28
-305.402 -358.741 -1249 22 21 26
-301.977 -357.758 -1246 18 18 20
-299.049 -357.35 -1245 18 18 21
-296.366 -357.23 -1245 19 19 23
-293.921 -357.398 -1246 18 18 22
-291.241 -357.281 -1246 19 19 23
-288.564 -357.164 -1246 21 21 25
-285.43 -356.476 -1244 24 24 28
-282.535 -356.075 -1243 23 23 27
-279.646 -355.676 -1242 21 21 25
-276.542 -354.992 -1240 21 21 25
-273.227 -354.024 -1237 22 22 25
-269.928 -353.056 -1234 23 23 26
-266.644 -352.091 -1231 24 24 28
-263.59 -351.413 -1229 22 22 26
-260.759 -351.022 -1228 21 20 27
-257.934 -350.633 -1227 23 22 29
-255.116 -350.245 -1226 22 21 28
-251.687 -349.001 -1222 24 24 28
-248.277 -347.76 -1218 26 26 30
-245.289 -347.09 -1216 26 26 30
-242.512 -346.708 -1215 23 22 29
-239.544 -346.041 -1213 22 21 28
-237.172 -346.232 -1214 20 19 27
-234.992 -346.708 -1216 18 17 27
-232.805 -347.186 -1218 18 17 27
-230.234 -347.094 -1218 18 18 26
-227.851 -347.288 -1219 21 20 28
-225.282 -347.198 -1219 20 19 26
-222.349 -346.54 -1217 13 15 21
-219.788 -346.452 -1217 13 15 21
-217.228 -346.365 -1217 16 18 24
-214.671 -346.28 -1217 18 20 27
-212.29 -346.48 -1218 18 20 27
-209.906 -346.681 -1219 16 18 25
-207.52 -346.883 -1220 16 15 22
-205.468 -347.654 -1223 18 17 24
-203.073 -347.857 -1224 18 20 27
-200.512 -347.778 -1224 18 20 26
-198.114 -347.983 -1225 16 18 22
-195.554 -347.906 -1225 14 16 22
-193.154 -348.113 -1226 15 17 23
-190.751 -348.321 -1227 15 17 24
-188.192 -348.247 -1227 15 17 23
-185.786 -348.457 -1228 15 17 23
-183.228 -348.384 -1228 16 18 24
-180.378 -347.745 -1226 16 18 24
-177.973 -347.958 -1227 15 17 23
-175.564 -348.172 -1228 13 15 21
-172.872 -347.82 -1227 13 15 20
-170.324 -347.753 -1227 13 15 21
-167.914 -347.97 -1228 13 16 22
-165.098 -347.338 -1226 14 17 23
-162.026 -346.141 -1222 18 20 26
-159.233 -345.511 -1220 18 20 26
-156.321 -344.6 -1217 16 18 24
-153.424 -343.69 -1214 17 19 25
-150.912 -343.63 -1214 18 20 26
-148.525 -343.854 -1215 20 22 28
-146.014 -343.797 -1215 21 23 29
-143.504 -343.74 -1215 21 21 28
-140.996 -343.684 -1215 21 20 27
-138.375 -343.347 -1214 21 23 29
-135.983 -343.576 -1215 21 23 29
-133.478 -343.523 -1215 20 22 28
-130.975 -343.472 -1215 20 22 28
-128.472 -343.421 -1215 20 22 28
-126.075 -343.654 -1216 19 21 27
-123.572 -343.605 -1216 17 19 25
-121.171 -343.84 -1217 15 17 23
-118.766 -344.076 -1218 13 16 22
-116.358 -344.312 -1219 13 15 21
-113.947 -344.55 -1220 14 15 21
-111.35 -344.223 -1219 14 16 23
-108.937 -344.463 -1220 16 18 26
-106.346 -344.138 -1219 16 18 25
-103.845 -344.098 -1219 17 16 24
-101.262 -343.775 -1218 18 15 23
-98.7655 -343.736 -1218 15 14 21
-96.3486 -343.981 -1219 14 14 21
-93.9283 -344.226 -1220 12 14 21
-91.5047 -344.472 -1221 13 15 21
-89.0778 -344.719 -1222 15 17 23
-86.7184 -345.249 -1224 15 17 23
-84.2828 -345.498 -1225 13 15 22
-81.9773 -346.311 -1228 13 16 23
-79.466 -346.28 -1228 14 16 23
-77.0181 -346.531 -1229 13 14 21
-74.3849 -345.938 -1227 14 13 20
-71.8777 -345.91 -1227 15 14 21
-69.3711 -345.882 -1227 12 11 18
-66.8651 -345.856 -1227 11 10 17
-64.3596 -345.83 -1227 11 10 17
-61.9555 -346.369 -1229 11 10 17
-59.4953 -346.628 -1230 11 10 17
-57.0316 -346.887 -1231 12 11 18
-54.5644 -347.147 -1232 13 12 20
-52.1357 -347.69 -1234 14 13 20
-49.7396 -348.515 -1237 12 12 19
-47.3315 -349.342 -1240 10 12 18
-44.9117 -350.169 -1243 9 11 18
-42.48 -350.997 -1246 9 11 19
-40.0044 -351.544 -1248 10 12 19
-37.491 -351.811 -1249 8 10 17
-34.9738 -352.079 -1250 9 11 18
-32.4787 -352.629 -1252 13 12 19
-29.9519 -352.899 -1253 12 12 19
-27.4213 -353.169 -1254 10 12 19
-24.8669 -353.159 -1254 9 12 19
-22.3129 -353.15 -1254 11 14 21
-19.7432 -352.86 -1253 12 15 22
-17.1915 -352.853 -1253 12 14 23
-14.6282 -352.565 -1252 10 11 21
-12.0691 -352.278 -1251 10 12 19
-9.52939 -352.556 -1252 12 14 21
-6.98019 -352.553 -1252 12 14 21
-4.43458 -352.832 -1253 15 14 22
-1.88343 -352.831 -1253 15 14 20
0.668237 -353.112 -1254 15 15 19
3.22414 -353.395 -1255 16 15 22
5.78859 -353.96 -1257 14 13 20
8.36123 -354.526 -1259 12 11 18
10.9508 -355.374 -1262 10 9 16
13.5527 -356.224 -1265 9 8 15
16.1669 -357.074 -1268 10 9 16
18.7786 -357.644 -1270 10 9 16
21.3819 -357.934 -1271 13 12 19
24.0272 -358.787 -1274 12 11 18
26.6429 -359.079 -1275 12 11 18
29.2861 -359.653 -1277 12 11 19
31.9126 -359.947 -1278 11 10 18
34.5974 -360.804 -1281 12 11 19
37.2368 -361.1 -1282 12 11 19
39.9426 -361.96 -1285 12 12 17
42.7273 -363.385 -1290 11 11 16
45.7085 -366.219 -1300 12 11 18
48.5821 -367.927 -1306 14 13 20
51.4807 -369.637 -1312 14 13 20
54.2388 -370.221 -1314 13 13 17
57.0057 -370.806 -1316 11 11 20
59.6905 -370.829 -1316 10 10 22
62.5655 -371.98 -1320 11 10 19
65.3582 -372.568 -1322 10 9 18
68.4172 -374.567 -1329 12 11 18
71.9871 -379.104 -1345 15 14 22
-321.159 -367.493 -1268 26 25 33
-316.399 -365.045 -1260 23 22 30
-313.171 -364.338 -1258 24 23 30
-309.46 -363.053 -1254 23 22 28
-305.525 -361.481 -1249 21 20 26
-302.099 -360.489 -1246 18 18 21
-299.17 -360.078 -1245 18 18 21
-296.247 -359.668 -1244 18 18 22
-293.568 -359.549 -1244 19 19 23
-291.125 -359.719 -1245 20 20 24
-288.448 -359.602 -1245 21 21 25
-285.086 -358.62 -1242 23 23 27
-282.194 -358.216 -1241 22 22 26
-279.308 -357.814 -1240 22 21 26
-276.207 -357.125 -1238 22 22 27
-273.116 -356.437 -1236 23 23 27
-270.036 -355.751 -1234 23 23 26
-266.968 -355.067 -1232 24 24 27
-263.695 -354.095 -1229 21 21 25
-260.863 -353.702 -1228 19 18 25
-258.037 -353.309 -1227 21 20 27
-255.01 -352.63 -1225 22 21 28
-251.788 -351.665 -1222 23 23 28
-248.376 -350.414 -1218 24 24 29
-245.186 -349.451 -1215 23 24 28
-242.409 -349.066 -1214 23 22 29
-239.442 -348.394 -1212 22 21 28
-237.071 -348.586 -1213 20 19 27
-234.892 -349.067 -1215 19 18 27
-232.515 -349.26 -1216 19 18 27
-229.947 -349.168 -1216 21 20 28
-227.568 -349.363 -1217 21 20 27
-224.817 -348.986 -1216 20 19 26
-222.255 -348.896 -1216 14 16 22
-219.875 -349.095 -1217 13 15 21
-217.315 -349.008 -1217 15 18 24
-214.933 -349.208 -1218 18 20 27
-212.374 -349.123 -1218 18 19 26
-209.817 -349.039 -1218 15 17 23
-207.432 -349.242 -1219 16 16 23
-205.213 -349.733 -1221 18 17 24
-202.822 -349.938 -1222 19 21 28
-200.427 -350.144 -1223 19 21 27
-198.031 -350.351 -1224 16 18 23
-195.472 -350.273 -1224 14 16 22
-193.073 -350.482 -1225 14 16 22
-190.515 -350.406 -1225 15 17 24
-188.266 -350.903 -1227 14 16 22
-185.708 -350.828 -1227 13 15 21
-183.151 -350.755 -1227 17 19 25
-180.449 -350.397 -1226 18 20 26
-178.043 -350.612 -1227 16 18 24
-175.491 -350.542 -1227 14 16 22
-172.799 -350.187 -1226 14 16 21
-170.391 -350.405 -1227 15 17 21
-167.844 -350.338 -1227 13 16 22
-165.163 -349.987 -1226 15 18 24
-162.09 -348.78 -1222 18 20 26
-159.426 -348.431 -1221 16 18 24
-156.512 -347.513 -1218 14 16 22
-153.484 -346.31 -1214 15 17 23
-150.847 -345.965 -1213 15 17 23
-148.461 -346.191 -1214 17 19 25
-145.951 -346.133 -1214 20 22 28
-143.443 -346.076 -1214 19 20 26
-141.051 -346.305 -1215 20 20 27
-138.429 -345.965 -1214 23 24 31
-136.036 -346.195 -1215 24 26 32
-133.531 -346.142 -1215 22 24 30
-131.026 -346.09 -1215 21 23 29
-128.523 -346.039 -1215 20 22 28
-126.124 -346.274 -1216 20 22 28
-123.621 -346.225 -1216 18 20 26
-121.218 -346.461 -1217 16 19 25
-118.812 -346.699 -1218 14 17 23
-116.404 -346.937 -1219 13 16 22
-113.898 -346.892 -1219 13 15 21
-111.394 -346.847 -1219 14 15 24
-108.98 -347.089 -1220 15 16 25
-106.388 -346.762 -1219 16 18 25
-103.801 -346.436 -1218 17 17 24
-101.302 -346.396 -1218 18 15 23
-98.8042 -346.357 -1218 15 15 21
-96.3072 -346.318 -1218 15 15 22
-93.888 -346.565 -1219 14 15 23
-91.4655 -346.813 -1220 15 17 23
-89.0397 -347.062 -1221 17 19 25
-86.6814 -347.596 -1223 16 18 24
-84.2469 -347.847 -1224 14 17 23
-81.8757 -348.382 -1226 14 17 24
-79.3676 -348.351 -1226 15 17 25
-76.9228 -348.604 -1227 15 17 24
-74.3533 -348.291 -1226 16 16 23
-71.8471 -348.262 -1226 16 16 22
-69.3416 -348.234 -1226 12 13 19
-66.8367 -348.208 -1226 10 10 17
-64.3847 -348.466 -1227 10 10 17
-61.9796 -349.009 -1229 11 11 17
-59.567 -349.553 -1231 11 11 17
-57.1003 -349.815 -1232 12 11 19
-54.6299 -350.077 -1233 12 11 19
-52.156 -350.34 -1234 11 12 18
-49.7992 -351.455 -1238 11 12 18
-47.3881 -352.288 -1241 9 11 17
-44.9654 -353.121 -1244 8 10 17
-42.5306 -353.956 -1247 9 11 18
-40.0842 -354.791 -1250 10 12 19
-37.5356 -354.776 -1250 10 11 19
-35.0154 -355.046 -1251 11 12 20
-32.5174 -355.6 -1253 14 13 21
-29.9635 -355.588 -1253 13 13 21
-27.41 -355.577 -1253 10 11 19
-24.8766 -355.85 -1254 10 12 19
-22.3215 -355.841 -1254 10 12 19
-19.7508 -355.549 -1253 11 13 20
-17.1981 -355.542 -1253 12 12 21
-14.6455 -355.536 -1253 11 11 20
-12.0738 -354.963 -1251 10 12 19
-9.53306 -355.243 -1252 12 12 20
-6.97738 -354.956 -1251 12 12 20
-4.43275 -355.237 -1252 13 13 21
-1.88258 -355.236 -1252 13 14 20
0.668649 -355.803 -1254 14 15 20
3.22273 -355.804 -1254 14 13 20
5.78621 -356.373 -1256 14 13 20
8.36452 -357.227 -1259 13 12 20
10.9464 -357.799 -1261 10 11 17
13.5473 -358.655 -1264 8 9 15
16.1733 -359.795 -1268 9 8 14
18.7861 -360.37 -1270 11 10 16
21.4071 -360.945 -1272 13 11 18
24.0365 -361.522 -1274 12 11 18
26.6534 -361.815 -1275 12 11 18
29.2517 -361.826 -1275 14 13 21
31.9 -362.406 -1277 14 13 21
34.5569 -362.986 -1279 13 12 20
37.1932 -363.284 -1280 13 12 20
39.896 -364.151 -1283 13 12 19
42.6778 -365.586 -1288 13 12 18
45.656 -368.442 -1298 13 12 19
48.4895 -369.88 -1303 13 12 19
51.3829 -371.603 -1309 13 12 19
54.2187 -372.759 -1313 13 12 19
57.028 -373.632 -1316 12 11 19
59.7591 -373.939 -1317 12 11 20
62.5898 -374.815 -1320 11 10 18
65.4333 -375.692 -1323 11 10 18
68.3924 -377.138 -1328 13 12 20
71.9081 -381.426 -1343 12 11 19
-327.368 -374.212 -1281 29 29 33
-321.544 -370.574 -1269 24 23 30
-317.031 -368.399 -1262 22 21 29
-313.548 -367.394 -1259 26 23 31
-309.586 -365.808 -1254 24 22 30
-305.894 -364.515 -1250 21 20 27
-302.222 -363.224 -1246 19 19 23
-299.291 -362.81 -1245 18 18 22
-296.368 -362.397 -1244 16 16 20
-293.687 -362.276 -1244 17 17 21
-291.243 -362.448 -1245 20 20 23
-288.565 -362.33 -1245 22 22 24
-285.431 -361.631 -1243 21 21 25
-282.536 -361.224 -1242 22 22 26
-279.647 -360.819 -1241 21 20 27
-276.319 -359.834 -1238 21 21 26
-273.227 -359.141 -1236 21 21 26
-270.146 -358.449 -1234 22 22 28
-267.076 -357.76 -1232 23 23 28
-263.802 -356.781 -1229 21 21 25
-260.969 -356.384 -1228 19 18 25
-258.142 -355.989 -1227 22 21 28
-255.321 -355.594 -1226 24 23 30
-251.889 -354.331 -1222 23 22 29
-248.68 -353.36 -1219 24 24 30
-245.486 -352.391 -1216 22 24 31
-242.507 -351.713 -1214 24 23 32
-239.538 -351.036 -1212 23 22 31
-236.971 -350.94 -1212 19 18 26
-234.793 -351.423 -1214 20 19 26
-232.226 -351.329 -1214 23 22 30
-229.661 -351.236 -1214 23 22 30
-227.285 -351.433 -1215 22 21 28
-224.722 -351.342 -1215 19 18 25
-222.161 -351.252 -1215 14 16 22
-219.783 -351.452 -1216 13 15 21
-217.402 -351.653 -1217 16 18 24
-215.019 -351.855 -1218 18 18 25
-212.285 -351.481 -1217 18 18 25
-209.901 -351.684 -1218 15 17 23
-207.345 -351.601 -1218 15 18 24
-205.127 -352.095 -1220 16 19 25
-202.737 -352.302 -1221 17 19 26
-200.344 -352.509 -1222 17 19 26
-197.948 -352.718 -1223 18 20 26
-195.39 -352.639 -1223 16 18 24
-192.834 -352.562 -1223 15 17 24
-190.436 -352.773 -1224 15 17 24
-188.034 -352.986 -1225 14 16 23
-185.631 -353.199 -1226 14 16 22
-183.224 -353.413 -1227 17 19 25
-180.815 -353.628 -1228 19 21 27
-178.114 -353.269 -1227 17 19 25
-175.561 -353.198 -1227 15 17 23
-172.868 -352.841 -1226 16 18 24
-170.32 -352.772 -1226 15 18 23
-167.91 -352.992 -1227 15 17 23
-165.363 -352.926 -1227 16 18 24
-162.42 -351.998 -1224 16 18 24
-159.62 -351.358 -1222 15 17 23
-156.702 -350.433 -1219 16 18 24
-153.798 -349.509 -1216 18 20 26
-151.031 -348.873 -1214 17 19 25
-148.52 -348.814 -1214 17 19 25
-146.009 -348.755 -1214 19 21 27
-143.499 -348.698 -1214 18 20 26
-140.991 -348.641 -1214 18 20 26
-138.484 -348.585 -1214 21 23 29
-136.09 -348.818 -1215 24 26 32
-133.694 -349.051 -1216 23 25 31
-131.186 -348.999 -1216 21 23 29
-128.679 -348.947 -1216 19 21 27
-126.174 -348.897 -1216 20 22 28
-123.67 -348.847 -1216 18 20 26
-121.266 -349.086 -1217 18 20 26
-118.859 -349.325 -1218 17 19 25
-116.45 -349.565 -1219 15 17 23
-113.85 -349.232 -1218 15 17 23
-111.346 -349.188 -1218 15 17 23
-108.754 -348.858 -1217 16 18 24
-106.255 -348.815 -1217 18 20 27
-103.671 -348.487 -1216 19 19 27
-101.259 -348.733 -1217 18 16 24
-98.8431 -348.98 -1218 14 16 22
-96.3451 -348.941 -1218 16 17 23
-93.9249 -349.19 -1219 17 16 23
-91.5765 -349.726 -1221 17 18 24
-89.0747 -349.69 -1221 21 23 28
-86.7155 -350.228 -1223 20 22 26
-84.28 -350.481 -1224 18 20 26
-81.8411 -350.734 -1225 17 19 26
-79.334 -350.703 -1225 16 17 27
-76.8904 -350.958 -1226 16 17 25
-74.3219 -350.642 -1225 16 18 24
-71.8754 -350.899 -1226 14 16 21
-69.3123 -350.585 -1225 12 14 18
-66.8084 -350.558 -1225 11 13 19
-64.41 -351.105 -1227 10 12 18
-61.9535 -351.366 -1228 9 11 17
-59.5904 -352.2 -1231 10 12 18
-57.1227 -352.464 -1232 10 12 18
-54.74 -353.3 -1235 10 12 18
-52.2188 -353.279 -1235 11 13 19
-49.7785 -353.831 -1237 12 14 20
-47.3686 -354.67 -1240 10 12 18
-44.983 -355.795 -1244 9 11 17
-42.5473 -356.636 -1247 10 12 18
-40.0998 -357.478 -1250 9 10 20
-37.5804 -357.749 -1251 10 10 20
-35.0571 -358.02 -1252 13 12 22
-32.5561 -358.579 -1254 15 14 22
-29.9992 -358.566 -1254 13 12 20
-27.4427 -358.555 -1254 12 11 19
-24.9062 -358.831 -1255 12 11 19
-22.3302 -358.536 -1254 11 11 19
-19.7586 -358.241 -1253 10 12 19
-17.2048 -358.234 -1253 12 12 20
-14.6513 -358.228 -1253 12 11 19
-12.0882 -357.937 -1252 11 13 20
-9.53683 -357.933 -1252 12 12 20
-6.98559 -357.929 -1252 13 12 20
-4.43447 -357.927 -1252 12 14 21
-1.88338 -357.926 -1252 12 14 21
0.668907 -358.497 -1254 13 15 21
3.22406 -358.498 -1254 14 15 21
5.78384 -358.786 -1255 14 14 21
8.3612 -359.646 -1258 14 13 21
10.9507 -360.508 -1261 10 11 18
13.5526 -361.37 -1264 7 9 15
16.1668 -362.234 -1267 9 9 13
18.7934 -363.098 -1270 12 10 16
21.3987 -363.392 -1271 14 12 19
24.0082 -363.687 -1272 14 13 20
26.622 -363.983 -1273 14 13 21
29.2401 -364.28 -1274 15 14 22
31.8627 -364.578 -1275 14 13 21
34.5165 -365.163 -1277 12 11 19
37.2079 -366.035 -1280 12 11 19
39.9428 -367.194 -1284 13 12 19
42.8271 -369.499 -1292 13 12 19
45.7091 -371.518 -1299 13 12 19
48.583 -373.253 -1305 13 12 19
51.4031 -374.417 -1309 13 12 19
54.24 -375.581 -1313 13 12 19
57.007 -376.176 -1315 12 11 18
59.7374 -376.485 -1316 12 11 19
62.567 -377.367 -1319 12 11 19
65.4589 -378.537 -1323 11 10 18
68.3679 -379.708 -1327 13 12 20
71.9899 -384.6 -1344 12 11 19
-327.503 -377.034 -1281 26 26 30
-321.93 -373.662 -1270 22 21 27
-317.413 -371.471 -1263 23 22 30
-313.926 -370.458 -1260 27 26 34
-310.208 -369.154 -1256 25 24 31
-306.02 -367.263 -1250 20 19 26
-302.589 -366.256 -1247 18 18 22
-299.655 -365.839 -1246 17 17 21
-296.728 -365.422 -1245 17 17 21
-293.807 -365.007 -1244 17 17 21
-291.362 -365.18 -1245 18 18 22
-288.684 -365.061 -1245 21 21 24
-285.778 -364.65 -1244 22 22 26
-282.879 -364.24 -1243 22 22 26
-280.212 -364.124 -1243 22 21 28
-276.655 -362.839 -1239 20 19 24
-273.78 -362.433 -1238 19 19 23
-270.475 -361.443 -1235 20 19 26
-267.618 -361.041 -1234 22 21 26
-264.339 -360.054 -1231 21 21 25
-261.075 -359.069 -1228 20 19 26
-258.036 -358.379 -1226 22 21 28
-255.425 -358.274 -1226 23 22 29
-252.198 -357.294 -1223 22 21 28
-248.781 -356.023 -1219 24 23 30
-245.788 -355.338 -1217 23 25 32
-243.005 -354.947 -1216 24 24 33
-240.031 -354.264 -1214 23 22 32
-237.263 -353.875 -1213 21 20 28
-234.888 -354.071 -1214 21 20 28
-232.32 -353.976 -1214 26 25 32
-229.565 -353.591 -1213 26 25 33
-227.19 -353.789 -1214 24 23 30
-224.813 -353.989 -1215 20 19 26
-222.251 -353.898 -1215 14 16 22
-219.871 -354.1 -1216 12 14 20
-217.49 -354.302 -1217 15 17 23
-215.106 -354.506 -1218 19 18 25
-212.545 -354.419 -1218 18 17 24
-209.986 -354.333 -1218 15 18 24
-207.429 -354.249 -1218 14 17 23
-205.042 -354.456 -1219 16 19 25
-202.486 -354.374 -1219 17 19 25
-200.096 -354.583 -1220 17 19 25
-197.866 -355.084 -1222 17 19 26
-195.309 -355.004 -1222 17 19 25
-192.754 -354.926 -1222 16 19 25
-190.357 -355.139 -1223 15 18 24
-187.956 -355.353 -1224 15 17 23
-185.705 -355.858 -1226 14 16 22
-183.298 -356.074 -1227 15 17 23
-180.741 -356.001 -1227 15 17 23
-178.185 -355.929 -1227 15 17 23
-175.631 -355.858 -1227 15 17 23
-172.937 -355.497 -1226 15 17 23
-170.388 -355.428 -1226 15 18 24
-167.978 -355.65 -1227 16 18 23
-165.43 -355.583 -1227 17 19 25
-162.75 -355.227 -1226 16 18 24
-159.815 -354.293 -1223 17 19 24
-156.893 -353.361 -1220 18 20 26
-153.986 -352.43 -1217 18 20 26
-151.216 -351.789 -1215 17 19 25
-148.701 -351.729 -1215 18 20 26
-146.187 -351.67 -1215 18 20 26
-143.675 -351.612 -1215 17 19 25
-141.164 -351.555 -1215 18 20 26
-138.539 -351.209 -1214 21 23 29
-136.145 -351.444 -1215 23 25 31
-133.637 -351.39 -1215 22 24 30
-131.13 -351.337 -1215 20 22 28
-128.731 -351.574 -1216 19 21 27
-126.121 -351.234 -1215 20 22 28
-123.617 -351.184 -1215 18 20 26
-121.115 -351.135 -1215 18 20 26
-118.711 -351.376 -1216 19 21 28
-116.4 -351.907 -1218 18 20 27
-113.895 -351.861 -1218 17 19 25
-111.391 -351.816 -1218 17 19 25
-108.798 -351.483 -1217 20 22 28
-106.297 -351.44 -1217 20 22 29
-103.712 -351.109 -1216 20 20 27
-101.216 -351.069 -1216 18 17 24
-98.8012 -351.317 -1217 16 18 24
-96.3042 -351.278 -1217 16 18 24
-93.8852 -351.529 -1218 15 16 22
-91.5379 -352.069 -1220 17 19 25
-89.1101 -352.322 -1221 23 25 31
-86.679 -352.575 -1222 21 23 27
-84.2445 -352.83 -1223 19 21 27
-81.6731 -352.509 -1222 17 19 26
-79.2359 -352.765 -1223 15 16 26
-76.7954 -353.022 -1224 15 16 25
-74.2907 -352.992 -1224 15 17 23
-71.8453 -353.252 -1225 15 17 21
-69.2831 -352.935 -1224 13 15 19
-66.7803 -352.908 -1224 12 14 20
-64.3305 -353.17 -1225 13 15 21
-61.8772 -353.433 -1226 11 13 19
-59.4687 -353.986 -1228 11 13 19
-57.0989 -354.827 -1231 11 13 19
-54.673 -355.382 -1233 11 13 19
-52.1971 -355.649 -1234 12 14 20
-49.7579 -356.205 -1236 12 14 20
-47.3109 -356.762 -1238 12 14 20
-44.9646 -358.184 -1243 11 13 19
-42.5301 -359.031 -1246 11 13 19
-40.0836 -359.88 -1249 10 12 20
-37.5952 -360.44 -1251 11 11 19
-35.071 -360.714 -1252 13 12 20
-32.5689 -361.277 -1254 13 12 20
-30.0111 -361.264 -1254 12 11 19
-27.4754 -361.541 -1255 12 11 19
-24.8962 -361.243 -1254 13 12 20
-22.339 -361.233 -1254 12 12 19
-19.7506 -360.649 -1252 10 12 19
-17.1979 -360.642 -1252 10 11 18
-14.6454 -360.635 -1252 10 11 18
-12.0833 -360.342 -1251 12 14 21
-9.53301 -360.338 -1251 12 12 20
-6.9828 -360.334 -1251 13 12 20
-4.43265 -360.332 -1251 12 14 21
-1.88404 -360.619 -1252 13 15 22
0.668634 -360.907 -1253 12 14 20
3.22282 -360.907 -1253 13 15 21
5.78164 -361.197 -1254 14 15 21
8.35788 -362.064 -1257 12 11 18
10.9464 -362.932 -1260 11 12 18
