ply
format ascii 1.0
comment Created by Open3D
element vertex 1391
property double x
property double y
property double z
property uchar red
property uchar green
property uchar blue
end_header
-233.532 230.628 -1299 187 180 188
-231.022 230.749 -1300 192 185 194
-228.509 230.871 -1301 199 192 200
-225.994 230.993 -1302 214 207 213
-223.305 230.938 -1302 221 214 219
-220.11 230.353 -1299 217 210 214
-216.93 229.767 -1296 217 210 214
-213.102 228.474 -1289 220 213 217
-209.957 227.891 -1286 218 211 215
-206.505 226.955 -1281 214 209 214
-203.393 226.374 -1278 207 203 209
-200.766 226.325 -1278 195 189 197
-198.297 226.454 -1279 177 171 180
-195.518 226.229 -1278 158 152 161
-193.501 226.89 -1282 152 145 156
-191.617 227.728 -1287 145 138 149
-189.421 228.213 -1290 134 127 138
-187.069 228.521 -1292 131 124 137
-184.853 229.007 -1295 136 128 142
-182.205 228.962 -1295 145 137 153
-179.697 229.095 -1296 151 145 159
-177.049 229.052 -1296 155 150 163
-174.672 229.363 -1298 157 152 163
-172.156 229.498 -1299 157 152 164
-169.768 229.81 -1301 162 157 170
-167.116 229.77 -1301 174 169 182
-164.466 229.73 -1301 200 195 207
-161.692 229.514 -1300 217 210 219
-159.046 229.475 -1300 217 210 219
-156.282 229.261 -1299 215 208 217
-153.522 229.047 -1298 211 204 213
-151.001 229.187 -1299 206 199 208
-148.362 229.151 -1299 207 200 209
-145.725 229.116 -1299 205 198 207
-142.979 228.905 -1298 206 199 208
-140.454 229.047 -1299 210 203 214
-137.714 228.837 -1298 213 206 217
-135.188 228.981 -1299 209 204 215
-132.352 228.596 -1297 208 202 213
-129.926 228.917 -1299 204 197 208
-127.198 228.71 -1298 194 188 198
-124.764 229.032 -1300 186 181 191
-122.229 229.179 -1301 189 184 195
-119.966 229.855 -1305 198 193 204
-117.329 229.826 -1305 203 198 209
-114.78 229.974 -1306 205 200 211
-112.143 229.947 -1306 207 202 213
-109.339 229.569 -1304 208 205 215
-106.625 229.367 -1303 207 202 213
-104.156 229.694 -1305 197 192 203
-101.524 229.669 -1305 184 179 190
-98.969 229.821 -1306 172 168 179
-96.4842 230.15 -1308 165 161 174
-93.9204 230.303 -1309 162 158 171
-91.4231 230.632 -1311 162 157 170
-88.9863 231.139 -1314 163 158 171
-86.6037 231.821 -1318 162 157 170
-84.2059 232.504 -1322 161 156 169
-81.7309 233.012 -1325 160 155 168
-79.1252 233.169 -1326 160 155 168
-76.6313 233.678 -1329 157 152 165
-74.0148 233.836 -1330 155 150 163
-71.3949 233.994 -1331 153 148 161
-68.8232 234.329 -1333 160 155 166
-66.2439 234.664 -1335 191 186 196
-63.5619 234.649 -1335 212 207 216
-60.7893 234.283 -1333 219 212 218
-58.0688 234.093 -1332 220 212 216
-55.1448 233.025 -1326 223 215 223
-52.3642 232.485 -1323 219 212 220
-49.5584 231.77 -1319 211 204 212
-46.8758 231.582 -1318 205 198 207
-44.2311 231.572 -1318 197 190 199
-41.6183 231.737 -1319 189 183 192
-39.0315 232.079 -1321 187 180 190
-36.4369 232.421 -1323 185 178 189
-33.8346 232.764 -1325 176 171 184
-31.2717 233.459 -1329 159 155 168
-28.6498 233.803 -1331 147 143 156
-26.0397 234.324 -1334 140 136 149
-23.3828 234.494 -1335 137 133 146
-20.753 235.015 -1338 139 136 146
-18.0709 235.011 -1338 150 147 157
-15.4119 235.358 -1340 174 171 181
-12.7261 235.355 -1340 186 183 193
-10.0403 235.352 -1340 185 182 192
-7.3601 235.526 -1341 185 182 191
-4.67255 235.524 -1341 182 179 188
-1.98487 235.523 -1341 179 176 184
0.702636 235.523 -1341 182 179 187
3.38762 235.348 -1340 182 179 187
6.07331 235.349 -1340 179 177 187
8.76543 235.527 -1341 182 179 189
11.4616 235.705 -1342 183 180 190
14.1621 235.883 -1343 184 181 191
16.8665 236.063 -1344 187 184 194
19.5752 236.243 -1345 186 183 193
22.2548 236.072 -1344 182 179 189
24.9679 236.253 -1345 184 181 191
27.685 236.435 -1346 186 183 193
30.3839 236.442 -1346 184 181 191
33.0585 236.274 -1345 185 182 192
35.7293 236.107 -1344 189 186 196
38.4248 236.116 -1344 190 187 197
41.0902 235.949 -1343 187 184 194
43.7519 235.784 -1342 183 179 191
46.4447 235.795 -1342 178 174 186
49.2475 236.333 -1345 170 167 176
51.8697 235.994 -1343 167 164 174
54.6468 236.358 -1345 167 164 174
57.3472 236.371 -1345 170 167 176
60.048 236.385 -1345 176 173 183
62.7492 236.4 -1345 181 178 188
65.4997 236.591 -1346 185 182 192
68.2547 236.783 -1347 188 185 195
71.0144 236.975 -1348 190 187 197
73.7786 237.168 -1349 191 188 198
76.4339 237.01 -1348 192 189 199
79.1447 237.029 -1348 193 190 200
81.7954 236.872 -1347 190 186 198
84.5054 236.892 -1347 180 176 189
87.1514 236.737 -1346 175 171 184
89.8609 236.758 -1346 184 180 192
92.6399 236.956 -1347 194 191 201
95.3529 236.978 -1347 197 193 204
98.0664 237.001 -1347 184 179 190
101.006 237.553 -1350 166 163 174
103.881 237.93 -1352 164 162 173
106.686 238.131 -1353 178 177 189
109.496 238.333 -1354 181 180 193
112.477 238.887 -1357 181 178 192
115.471 239.443 -1360 182 174 188
118.477 239.999 -1363 133 120 118
121.23 240.028 -1363 125 109 106
124.076 240.233 -1364 151 130 125
126.926 240.44 -1365 164 137 125
129.876 240.823 -1367 165 136 122
132.641 240.854 -1367 167 136 125
135.606 241.239 -1369 168 137 124
138.378 241.272 -1369 167 137 122
141.15 241.305 -1369 167 137 122
143.819 241.163 -1368 166 135 121
146.914 241.727 -1371 166 135 121
149.803 241.939 -1372 161 136 117
152.698 242.152 -1373 159 135 114
155.599 242.365 -1374 158 135 108
158.619 242.756 -1376 159 133 103
161.415 242.794 -1376 158 131 102
164.451 243.186 -1378 159 129 100
167.496 243.579 -1380 153 124 97
170.304 243.62 -1380 156 127 101
172.988 243.485 -1379 159 128 104
176.179 244.057 -1382 154 123 99
179.643 244.983 -1387 152 122 98
182.603 245.203 -1388 155 123 98
185.701 245.601 -1390 155 121 97
188.403 245.469 -1389 154 119 96
191.102 245.338 -1388 154 119 97
193.938 245.385 -1388 154 119 96
196.918 245.609 -1389 149 115 91
199.903 245.834 -1390 152 114 88
203.04 246.236 -1392 153 112 85
206.039 246.462 -1393 148 106 78
209.044 246.69 -1394 142 105 79
211.751 246.564 -1393 141 104 78
214.61 246.615 -1393 140 102 78
217.47 246.667 -1393 144 102 79
220.49 246.898 -1394 143 101 81
223.036 246.597 -1392 144 104 86
226.224 247.006 -1394 147 107 87
229.587 247.593 -1397 152 114 94
232.465 247.649 -1397 154 120 102
235.513 247.883 -1398 154 125 106
238.397 247.941 -1398 163 131 115
240.938 247.644 -1396 166 131 119
243.996 247.881 -1397 164 130 117
246.531 247.586 -1395 165 131 119
249.417 247.646 -1395 169 134 124
252.667 248.062 -1397 167 137 124
255.378 247.947 -1396 167 137 121
258.273 248.009 -1396 167 138 119
261.544 248.428 -1398 168 139 124
264.636 248.67 -1399 169 141 124
267.352 248.557 -1398 168 141 123
270.647 248.979 -1400 166 140 116
273.17 248.689 -1398 165 140 111
276.28 248.934 -1399 163 138 105
279.197 249.002 -1399 164 140 103
282.721 249.605 -1402 165 140 107
285.853 249.853 -1403 168 142 111
288.991 250.102 -1404 164 141 111
292.136 250.351 -1405 161 138 111
294.657 250.067 -1403 159 136 112
297.597 250.139 -1403 163 139 121
300.112 249.856 -1401 158 137 117
303.485 250.287 -1403 159 138 118
306.433 250.362 -1403 157 137 115
309.384 250.438 -1403 154 134 114
312.337 250.514 -1403 156 136 119
316.192 251.306 -1407 156 135 121
319.385 251.563 -1408 157 134 123
322.815 252 -1410 159 135 124
326.025 252.259 -1411 161 136 126
329.709 252.876 -1414 158 133 125
332.938 253.137 -1415 158 135 123
335.936 253.22 -1415 155 133 121
339.416 253.661 -1417 155 134 124
342.183 253.567 -1416 157 133 124
345.436 253.831 -1417 156 130 122
348.697 254.096 -1418 159 131 124
352.956 255.079 -1423 161 133 119
356.24 255.347 -1424 153 128 111
359.027 255.256 -1423 147 123 105
362.321 255.525 -1424 151 128 109
365.623 255.795 -1425 155 130 113
369.191 256.246 -1427 154 129 113
372.51 256.518 -1428 149 126 111
376.625 257.33 -1432 150 126 112
379.17 257.065 -1430 150 126 112
382.512 257.34 -1431 149 125 111
385.054 257.076 -1429 144 124 109
389.22 257.893 -1433 147 127 110
392.585 258.17 -1434 148 127 110
396.234 258.629 -1436 149 128 111
399.895 259.089 -1438 149 129 112
403.288 259.37 -1439 147 123 114
405.56 258.931 -1436 146 123 114
408.391 258.853 -1435 144 125 114
412.082 259.317 -1437 147 127 111
416.075 259.963 -1440 146 126 111
418.919 259.887 -1439 149 127 114
423.817 261.077 -1445 150 127 115
427.858 261.727 -1448 145 122 110
431.618 262.197 -1450 145 122 108
434.191 261.944 -1448 144 121 106
438.27 262.597 -1451 143 120 105
441.15 262.528 -1450 138 120 104
444.028 262.459 -1449 135 117 101
448.45 263.296 -1453 135 118 101
451.339 263.229 -1452 134 117 103
456.42 264.432 -1458 131 115 100
460.27 264.912 -1460 130 114 99
463.18 264.847 -1459 130 113 99
466.091 264.784 -1458 134 115 99
469.001 264.722 -1457 128 108 92
470.615 263.933 -1452 131 112 97
474.169 264.235 -1453 137 117 105
479.047 265.266 -1458 140 116 105
482.627 265.571 -1459 139 115 104
487.549 266.605 -1464 134 110 98
491.493 267.095 -1466 132 109 96
492.749 266.127 -1460 137 114 101
495.003 265.707 -1457 124 110 97
-803.197 255.147 -1314 211 193 173
-794.66 253.364 -1306 217 197 180
-789.206 252.555 -1303 222 201 183
-783.175 251.554 -1299 226 203 184
-777.776 250.749 -1296 229 205 185
-774.195 250.527 -1296 231 207 187
-768.84 249.726 -1293 235 210 189
-765.286 249.507 -1293 237 212 191
-761.152 249.097 -1292 239 213 193
-757.033 248.688 -1291 241 213 193
-753.511 248.473 -1291 241 212 192
-751.741 248.837 -1294 241 212 192
-748.808 248.816 -1295 242 212 192
-746.453 248.988 -1297 241 211 191
-743.523 248.97 -1298 240 211 191
-740.027 248.76 -1298 241 212 192
-735.972 248.361 -1297 244 213 195
-731.366 247.771 -1295 244 214 196
-727.903 247.566 -1295 242 212 194
-725.008 247.553 -1296 241 211 193
-722.673 247.732 -1298 240 209 189
-719.228 247.53 -1298 240 209 187
-716.342 247.52 -1299 237 205 183
-713.459 247.511 -1300 236 202 180
-710.032 247.312 -1300 230 200 178
-707.157 247.305 -1301 230 200 177
-703.745 247.109 -1301 230 200 177
-701.955 247.484 -1304 228 196 173
-699.085 247.479 -1305 226 194 169
-696.752 247.665 -1307 228 192 165
-693.885 247.662 -1308 221 185 157
-691.021 247.66 -1309 217 182 152
-688.16 247.659 -1310 218 184 154
-684.778 247.47 -1310 221 184 157
-681.404 247.282 -1310 221 185 158
-678.555 247.283 -1311 224 188 161
-676.224 247.475 -1313 226 190 164
-672.865 247.29 -1313 228 192 166
-669.513 247.106 -1313 230 195 169
-665.661 246.735 -1312 229 195 167
-662.326 246.554 -1312 231 195 169
-659.501 246.562 -1313 234 197 172
-656.178 246.382 -1313 234 198 172
-653.359 246.392 -1314 235 198 171
-649.553 246.027 -1313 236 200 174
-645.267 245.477 -1311 237 202 176
-640.998 244.928 -1309 238 204 177
-637.233 244.568 -1308 237 201 175
-633.48 244.21 -1307 238 201 175
-630.703 244.226 -1308 239 202 176
-628.887 244.616 -1311 237 201 175
-625.632 244.447 -1311 239 201 175
-622.382 244.279 -1311 238 200 175
-620.084 244.484 -1313 237 200 175
-615.904 243.946 -1311 238 204 178
-611.74 243.41 -1309 239 203 177
-609.451 243.618 -1311 237 201 174
-605.31 243.084 -1309 236 199 172
-601.645 242.737 -1308 235 199 173
-598.906 242.762 -1309 236 200 173
-595.713 242.603 -1309 239 203 175
-590.715 241.704 -1305 239 204 174
-587.545 241.548 -1305 241 205 179
-584.38 241.392 -1305 242 206 178
-580.776 241.052 -1304 241 206 176
-576.74 240.529 -1302 241 207 186
-573.16 240.192 -1301 248 220 204
-569.59 239.857 -1300 255 233 220
-564.724 238.969 -1296 251 234 226
-561.183 238.636 -1295 248 233 229
-557.222 238.12 -1293 245 231 228
-553.705 237.79 -1292 239 225 222
-550.197 237.461 -1291 230 224 225
-547.548 237.501 -1292 230 225 226
-544.478 237.357 -1292 231 227 228
-541.833 237.398 -1293 232 226 227
-538.771 237.257 -1293 232 227 228
-536.13 237.3 -1294 231 226 227
-533.489 237.343 -1295 229 221 223
-530.439 237.204 -1295 224 219 221
-527.394 237.066 -1295 221 217 220
-524.355 236.93 -1295 224 218 219
-520.918 236.611 -1294 224 219 221
-517.491 236.293 -1293 224 219 222
-514.87 236.341 -1294 224 220 225
-511.853 236.208 -1294 226 222 226
-509.235 236.258 -1295 230 226 230
-505.836 235.945 -1294 230 226 231
-503.223 235.996 -1295 230 226 231
-499.451 235.502 -1293 230 226 231
-496.462 235.374 -1293 225 221 226
-493.478 235.246 -1293 224 220 227
-491.257 235.483 -1295 223 218 225
-487.9 235.175 -1294 221 217 220
-486.052 235.595 -1297 220 216 219
-483.45 235.652 -1298 218 214 218
-481.218 235.891 -1300 218 214 219
-478.246 235.768 -1300 220 216 221
-475.278 235.646 -1300 221 217 222
-472.315 235.525 -1300 224 220 225
-469.718 235.586 -1301 219 215 220
-466.044 235.104 -1299 221 217 222
-463.81 235.347 -1301 221 217 222
-460.863 235.23 -1301 220 216 219
-457.92 235.113 -1301 221 217 220
-454.281 234.635 -1299 221 217 220
-451.699 234.7 -1300 216 212 215
-448.426 234.406 -1299 217 213 216
-444.819 233.931 -1297 217 213 216
-441.566 233.639 -1296 219 215 218
-438.66 233.527 -1296 220 216 219
-435.758 233.417 -1296 219 215 218
-432.86 233.307 -1296 220 216 219
-430.298 233.378 -1297 224 220 223
-428.065 233.629 -1299 226 222 225
-425.499 233.701 -1300 225 221 226
-422.284 233.415 -1299 224 220 225
-418.108 232.59 -1295 217 213 216
-414.594 232.126 -1293 198 195 199
-411.412 231.843 -1292 186 183 188
-408.555 231.74 -1292 203 199 204
-405.701 231.638 -1292 217 213 217
-403.475 231.895 -1294 235 231 234
-400.934 231.973 -1295 234 230 233
-397.777 231.694 -1294 230 226 229
-394.323 231.237 -1292 228 224 227
-390.276 230.423 -1288 217 213 216
-386.851 229.969 -1286 208 205 208
-383.14 229.336 -1283 202 199 202
-380.928 229.598 -1285 202 198 201
-378.122 229.504 -1285 207 203 206
-375.612 229.588 -1286 212 208 211
-372.811 229.495 -1286 219 215 218
-370.301 229.581 -1287 226 222 225
-367.504 229.49 -1287 232 228 231
-364.711 229.399 -1287 235 231 234
-361.358 228.952 -1285 232 228 231
-357.739 228.329 -1282 227 223 228
-354.689 228.063 -1281 220 216 221
-351.372 227.619 -1279 207 203 208
-348.885 227.711 -1280 197 193 198
-346.397 227.803 -1281 197 193 198
-344.444 228.251 -1284 212 208 213
-341.682 228.166 -1284 222 217 224
-339.188 228.26 -1285 230 225 233
-336.43 228.176 -1285 231 226 234
-333.676 228.094 -1285 228 223 231
-330.667 227.835 -1284 225 220 228
-327.41 227.399 -1282 223 218 226
-324.164 226.964 -1280 222 217 225
-320.93 226.531 -1278 222 217 225
-317.209 225.743 -1274 225 220 229
-314.249 225.489 -1273 225 220 229
-311.051 225.058 -1271 226 221 229
-308.349 224.982 -1271 226 221 229
-304.929 224.376 -1268 224 219 227
-302.477 224.479 -1269 221 218 225
-299.552 224.228 -1268 218 215 222
-297.335 224.509 -1270 215 212 219
-294.881 224.613 -1271 213 208 217
-292.655 224.895 -1273 212 207 216
-290.879 225.531 -1277 209 204 213
-288.637 225.813 -1279 210 205 214
-286.165 225.92 -1280 212 207 216
-283.914 226.203 -1282 212 209 217
-281.217 226.135 -1282 216 213 221
-278.306 225.89 -1281 218 215 223
-275.401 225.647 -1280 221 218 226
-272.929 225.756 -1281 225 222 230
-269.823 225.338 -1279 225 222 232
-266.936 225.097 -1278 223 220 230
-264.469 225.208 -1279 222 219 229
-261.591 224.969 -1278 223 220 228
-258.516 224.554 -1276 224 221 229
-256.054 224.667 -1277 226 221 230
-253.391 224.606 -1277 225 220 228
-250.731 224.545 -1277 220 215 223
-248.655 225.012 -1280 211 206 214
-246.953 225.831 -1285 195 190 198
-244.853 226.299 -1288 174 169 177
-243.118 227.118 -1293 159 152 160
-241.179 227.763 -1297 160 153 162
-238.489 227.705 -1297 174 167 176
-235.984 227.823 -1298 184 177 186
-233.476 227.942 -1299 187 180 188
-230.966 228.062 -1300 191 184 193
-228.454 228.182 -1301 201 194 202
-225.766 228.127 -1301 214 207 213
-223.252 228.249 -1302 219 212 217
-220.057 227.67 -1299 218 211 215
-216.877 227.092 -1296 219 212 216
-213.05 225.814 -1289 218 211 215
-210.07 225.412 -1287 217 210 214
-206.616 224.487 -1282 213 209 214
-203.503 223.913 -1279 206 202 207
-200.718 223.689 -1278 192 185 193
-198.249 223.816 -1279 169 162 171
-195.624 223.769 -1279 153 146 155
-193.605 224.422 -1283 154 147 158
-191.72 225.251 -1288 144 137 148
-189.522 225.73 -1291 132 125 136
-187.169 226.035 -1293 130 122 136
-184.809 226.34 -1295 140 132 146
-182.02 226.121 -1294 151 143 159
-179.653 226.428 -1296 156 149 163
-177.007 226.385 -1296 159 154 165
-174.63 226.693 -1298 160 155 166
-171.982 226.651 -1298 161 156 167
-169.597 226.96 -1300 168 163 176
-166.948 226.92 -1300 184 179 191
-164.3 226.88 -1300 208 203 214
-161.529 226.667 -1299 219 212 221
-158.886 226.629 -1299 218 211 220
-156.244 226.591 -1299 218 211 220
-153.604 226.555 -1299 214 207 216
-151.081 226.693 -1300 210 203 212
-148.441 226.657 -1300 208 201 210
-145.69 226.448 -1299 203 196 205
-142.945 226.239 -1298 203 196 205
-140.42 226.38 -1299 208 201 212
-137.681 226.173 -1298 211 204 215
-135.155 226.315 -1299 206 201 212
-132.525 226.283 -1299 206 200 211
-129.995 226.426 -1300 203 196 207
-127.266 226.221 -1299 195 190 199
-124.734 226.366 -1300 189 184 193
-122.2 226.51 -1301 191 186 197
-119.754 226.83 -1303 199 194 205
-117.211 226.976 -1304 203 198 209
-114.577 226.949 -1304 204 199 210
-112.03 227.096 -1305 203 198 209
-109.229 226.722 -1303 202 197 208
-106.6 226.696 -1303 198 194 205
-104.052 226.845 -1304 191 186 197
-101.5 226.995 -1305 179 174 185
-98.9454 227.145 -1306 167 162 174
-96.4613 227.47 -1308 159 155 168
-93.9699 227.795 -1310 158 154 167
-91.4014 227.947 -1311 160 155 168
-88.9652 228.448 -1314 161 156 169
-86.5175 228.948 -1317 160 155 168
-84.1222 229.624 -1321 159 154 167
-81.6498 230.125 -1324 158 153 166
-79.1661 230.628 -1327 156 151 164
-76.6132 230.957 -1329 156 151 164
-73.9973 231.113 -1330 156 151 163
-71.3779 231.27 -1331 156 151 163
-68.7552 231.427 -1332 172 167 178
-66.129 231.585 -1333 204 199 209
-63.4993 231.743 -1334 218 212 221
-60.7293 231.381 -1332 220 213 218
-57.9678 231.02 -1330 223 215 219
-55.1318 230.312 -1326 225 217 225
-52.3122 229.604 -1322 220 212 220
-49.5091 228.898 -1318 211 204 212
-46.9002 229.06 -1319 203 196 205
-44.2206 228.876 -1318 193 186 195
-41.6086 229.039 -1319 187 180 190
-39.0223 229.377 -1321 186 179 190
-36.4559 229.889 -1324 185 178 189
-33.8266 230.054 -1325 177 171 184
-31.2407 230.568 -1328 162 157 170
-28.6 230.734 -1329 151 147 160
-26.014 231.422 -1333 145 141 154
-23.3597 231.59 -1334 139 135 148
-20.7326 232.106 -1337 137 134 144
-18.0531 232.101 -1337 145 142 152
-15.3853 232.271 -1338 169 166 176
-12.7231 232.615 -1340 184 181 191
-10.0305 232.438 -1339 184 181 191
-7.35844 232.784 -1341 184 181 191
-4.6715 232.782 -1341 182 179 188
-1.98739 233.129 -1343 177 174 182
0.702987 232.955 -1342 181 178 186
3.38936 232.782 -1341 181 178 186
6.07175 232.609 -1340 180 177 187
8.76996 232.958 -1342 182 179 189
11.4675 233.134 -1343 182 179 189
14.1692 233.311 -1344 184 181 191
16.875 233.488 -1345 185 182 192
19.5851 233.666 -1346 184 181 191
22.2496 233.324 -1344 185 182 192
24.9433 233.329 -1344 186 183 193
27.6579 233.509 -1345 186 183 193
30.3541 233.516 -1345 183 180 190
33.0752 233.697 -1346 183 180 190
35.774 233.705 -1346 187 184 194
38.4443 233.54 -1345 186 183 193
41.1111 233.376 -1344 182 179 189
43.8068 233.386 -1344 177 173 186
46.4682 233.223 -1343 175 171 183
49.2358 233.582 -1345 171 168 178
51.9346 233.594 -1345 172 169 179
54.7151 233.954 -1347 174 171 181
57.3762 233.793 -1346 176 173 181
60.0783 233.807 -1346 180 177 186
62.7344 233.648 -1345 183 180 190
65.4843 233.837 -1346 187 184 194
68.1879 233.852 -1346 187 184 194
70.9448 234.043 -1347 190 187 197
73.7064 234.233 -1348 195 192 202
76.4159 234.251 -1348 195 192 202
79.1259 234.269 -1348 187 184 194
81.8367 234.288 -1348 177 173 185
84.5481 234.308 -1348 172 168 181
87.1955 234.155 -1347 174 170 183
89.9062 234.175 -1347 185 181 193
92.5491 234.023 -1346 194 191 201
95.3301 234.219 -1347 191 188 200
98.0432 234.242 -1347 177 173 186
100.981 234.787 -1350 165 161 173
103.702 234.812 -1350 169 165 177
106.582 235.184 -1352 181 178 190
109.47 235.558 -1354 178 177 190
112.45 236.106 -1357 179 176 188
115.358 236.481 -1359 169 160 171
118.362 237.031 -1362 121 106 106
121.291 237.407 -1364 133 116 114
124.137 237.61 -1365 154 133 127
126.896 237.64 -1365 163 137 124
129.75 237.845 -1366 163 135 120
132.513 237.876 -1366 164 134 123
135.574 238.43 -1369 164 135 122
138.345 238.462 -1369 165 136 122
141.22 238.67 -1370 168 137 124
143.89 238.529 -1369 166 135 122
146.879 238.912 -1371 166 135 122
149.658 238.948 -1371 162 133 117
152.551 239.158 -1372 162 134 116
155.108 238.846 -1370 159 134 110
158.12 239.232 -1372 159 132 104
161.142 239.618 -1374 162 134 106
164.173 240.006 -1376 162 133 104
167.092 240.22 -1377 156 128 100
170.14 240.609 -1379 158 130 103
172.946 240.649 -1379 160 130 105
175.754 240.691 -1379 158 128 102
178.694 240.908 -1380 157 127 99
181.77 241.3 -1382 155 125 100
184.722 241.518 -1383 153 122 99
187.408 241.388 -1382 153 121 100
190.505 241.782 -1384 153 123 100
193.333 241.828 -1384 152 122 98
196.304 242.049 -1385 146 116 91
199.711 242.796 -1389 149 113 86
202.846 243.194 -1391 154 116 87
205.694 243.243 -1391 154 112 82
208.694 243.467 -1392 145 106 80
211.396 243.342 -1391 143 104 78
213.942 243.043 -1389 141 102 77
216.793 243.095 -1389 143 101 78
219.804 243.322 -1390 144 102 80
222.501 243.2 -1389 143 103 82
226.007 243.954 -1393 146 108 88
228.874 244.009 -1393 156 118 99
232.409 244.765 -1397 157 122 103
235.288 244.821 -1397 158 127 107
237.828 244.527 -1395 164 132 114
240.88 244.76 -1396 171 137 122
243.239 244.292 -1393 173 139 126
246.118 244.351 -1393 171 138 124
248.821 244.235 -1392 170 137 123
252.244 244.822 -1395 168 137 124
254.768 244.532 -1393 163 133 117
258.025 244.945 -1395 167 137 117
260.545 244.656 -1393 169 140 123
263.815 245.071 -1395 168 140 122
266.331 244.783 -1393 168 140 122
269.421 245.024 -1394 167 140 117
272.322 245.089 -1394 167 141 115
275.226 245.155 -1394 165 140 111
278.73 245.75 -1397 165 140 110
281.846 245.994 -1398 168 142 113
284.968 246.238 -1399 168 141 114
287.891 246.308 -1399 165 141 112
290.817 246.378 -1399 161 137 114
293.536 246.273 -1398 158 133 113
296.677 246.521 -1399 161 136 120
299.61 246.593 -1399 156 132 111
302.979 247.019 -1401 158 134 112
305.921 247.093 -1401 154 131 109
308.867 247.167 -1401 156 134 111
311.815 247.243 -1401 159 137 117
315.44 247.849 -1404 157 135 120
318.854 248.279 -1406 158 132 120
322.049 248.534 -1407 160 135 123
325.715 249.143 -1410 160 136 123
329.395 249.753 -1413 159 133 125
331.915 249.48 -1411 159 135 123
335.616 250.093 -1414 160 137 124
338.854 250.352 -1415 157 133 123
341.615 250.258 -1414 157 131 121
344.62 250.342 -1414 157 131 124
348.119 250.781 -1416 158 133 128
351.629 251.221 -1418 159 135 122
355.152 251.663 -1420 155 132 116
358.433 251.927 -1421 150 129 111
361.723 252.193 -1422 153 132 113
365.019 252.46 -1423 156 132 115
368.582 252.905 -1425 154 130 114
371.113 252.641 -1423 151 128 113
375.217 253.443 -1427 151 128 114
378.546 253.714 -1428 153 130 117
381.349 253.63 -1427 151 128 115
384.419 253.725 -1427 151 129 120
388.308 254.354 -1430 149 128 117
392.487 255.162 -1434 148 126 115
395.859 255.437 -1435 153 130 119
398.683 255.358 -1434 153 132 122
402.347 255.813 -1436 148 125 116
405.176 255.735 -1435 147 125 115
408.005 255.658 -1434 146 127 117
411.406 255.938 -1435 149 129 115
415.682 256.754 -1439 148 128 114
419.106 257.037 -1440 150 130 116
423.124 257.677 -1443 152 129 114
425.978 257.604 -1442 148 125 110
429.427 257.89 -1443 149 126 111
432.284 257.818 -1442 152 129 114
435.443 257.927 -1442 149 125 110
438.909 258.215 -1443 148 125 110
443.304 259.041 -1447 148 125 110
446.486 259.153 -1447 150 128 111
450.293 259.623 -1449 147 125 111
454.74 260.454 -1453 146 124 110
457.947 260.568 -1453 150 128 115
461.476 260.863 -1454 146 125 112
465.014 261.159 -1455 150 127 111
468.239 261.276 -1455 149 126 110
470.496 260.856 -1452 154 131 116
474.049 261.154 -1453 153 130 116
479.254 262.353 -1459 163 136 124
482.836 262.654 -1460 163 136 124
487.093 263.317 -1463 160 133 121
489.356 262.9 -1460 161 133 121
491.274 262.304 -1456 163 136 124
494.197 262.249 -1455 156 135 120
497.805 262.555 -1456 151 130 116
499.7 261.96 -1452 143 122 109
503.661 262.448 -1454 136 115 102
507.984 263.118 -1457 132 113 101
-806.594 250.515 -1302 224 203 186
-804.164 250.669 -1304 228 205 185
-802.346 251.016 -1307 228 205 183
-795.022 249.636 -1301 230 206 183
-787.741 248.26 -1295 234 209 190
-782.925 247.654 -1293 237 210 192
-778.13 247.049 -1291 235 210 190
-772.755 246.256 -1288 234 210 188
-769.795 246.228 -1289 236 212 191
-767.433 246.393 -1291 238 214 192
-763.886 246.177 -1291 238 214 192
-760.936 246.153 -1292 239 214 193
-757.405 245.939 -1292 241 215 194
-753.882 245.727 -1292 242 215 193
-750.949 245.706 -1293 243 215 193
-748.597 245.876 -1295 243 213 192
-745.668 245.856 -1296 241 211 192
-743.315 246.028 -1298 242 212 193
-738.68 245.442 -1296 242 212 193
-734.064 244.858 -1294 243 210 194
-730.032 244.466 -1293 243 212 195
-727.138 244.452 -1294 243 213 195
-723.688 244.251 -1294 239 210 192
-721.359 244.428 -1296 239 209 189
-718.474 244.417 -1297 237 206 184
-715.04 244.219 -1297 234 203 181
-712.164 244.211 -1298 230 199 178
-709.836 244.391 -1300 228 198 177
-707.505 244.572 -1302 227 197 177
-704.091 244.378 -1302 227 197 178
-702.299 244.748 -1305 224 194 175
-698.893 244.556 -1305 223 193 168
-696.027 244.552 -1306 222 190 160
-692.634 244.363 -1306 216 183 152
-689.776 244.361 -1307 214 180 149
-687.446 244.547 -1309 213 180 150
-684.068 244.36 -1309 217 180 153
-680.698 244.175 -1309 214 180 153
-678.37 244.363 -1311 215 183 156
-676.039 244.552 -1313 219 183 156
-672.169 244.183 -1312 221 185 158
-668.311 243.816 -1311 223 188 159
-664.973 243.636 -1311 223 188 156
-660.632 243.086 -1309 225 192 161
-658.318 243.279 -1311 227 194 164
-655.001 243.103 -1311 229 196 166
-652.686 243.298 -1313 230 197 169
-648.884 242.938 -1312 233 200 173
-644.601 242.394 -1310 233 200 174
-639.847 241.667 -1307 233 199 174
-637.062 241.681 -1308 235 199 173
-632.825 241.142 -1306 237 200 174
-630.534 241.343 -1308 237 201 175
-627.76 241.36 -1309 237 201 175
-624.987 241.377 -1310 240 201 173
-622.216 241.396 -1311 237 200 174
-619.447 241.415 -1312 235 199 172
-615.27 240.883 -1310 236 201 175
-611.577 240.537 -1309 237 201 175
-608.36 240.375 -1309 236 200 173
-604.225 239.848 -1307 236 199 172
-601.025 239.689 -1307 233 197 171
-597.832 239.531 -1307 233 197 171
-594.645 239.374 -1307 234 198 171
-590.559 238.852 -1305 235 199 172
-587.39 238.697 -1305 233 200 172
-584.226 238.543 -1305 233 198 170
-580.623 238.208 -1304 235 200 170
-576.588 237.691 -1302 236 202 181
-573.449 237.541 -1302 242 213 196
-569.441 237.027 -1300 254 230 216
-565.012 236.332 -1297 247 228 218
-561.036 235.821 -1295 244 229 224
-557.507 235.493 -1294 242 228 224
-553.56 234.985 -1292 238 224 221
-550.054 234.659 -1291 229 223 224
-547.405 234.699 -1292 227 222 223
-544.336 234.557 -1292 227 223 224
-541.692 234.598 -1293 231 225 226
-538.215 234.277 -1292 228 222 223
-535.576 234.319 -1293 225 219 220
-532.527 234.181 -1293 226 218 220
-529.892 234.226 -1294 222 216 219
-526.85 234.089 -1294 220 216 219
-524.219 234.135 -1295 224 218 219
-520.784 233.82 -1294 223 219 221
-517.758 233.686 -1294 222 218 221
-514.737 233.554 -1294 223 219 224
-511.722 233.422 -1294 228 224 228
-509.104 233.472 -1295 231 227 231
-505.706 233.162 -1294 229 225 230
-502.705 233.033 -1294 229 225 230
-498.937 232.545 -1292 227 223 228
-496.335 232.598 -1293 223 219 224
-492.97 232.292 -1292 224 219 227
-490.752 232.527 -1294 224 219 225
-487.776 232.402 -1294 221 217 221
-485.553 232.638 -1296 219 215 219
-482.954 232.694 -1297 218 214 218
-480.725 232.931 -1299 217 213 218
-478.124 232.988 -1300 219 215 219
-475.888 233.226 -1302 221 217 221
-472.559 232.927 -1301 224 220 224
-469.96 232.987 -1302 219 215 219
-466.285 232.511 -1300 220 216 220
-463.692 232.573 -1301 222 218 222
-460.392 232.278 -1300 219 215 218
-457.452 232.162 -1300 219 215 218
-454.167 231.869 -1299 220 216 219
-450.89 231.577 -1298 215 211 214
-447.968 231.464 -1298 216 212 215
-444.364 230.996 -1296 217 213 216
-440.773 230.528 -1294 219 215 218
-438.211 230.596 -1295 218 214 217
-435.984 230.843 -1297 218 214 217
-433.085 230.735 -1297 220 216 219
-430.853 230.982 -1299 224 220 223
-428.616 231.231 -1301 226 222 225
-425.393 230.947 -1300 226 222 225
-421.853 230.486 -1298 224 220 224
-418.003 229.849 -1295 215 211 214
-414.491 229.39 -1293 198 194 199
-410.991 228.933 -1291 189 186 191
-408.453 229.009 -1292 209 205 210
-405.6 228.908 -1292 224 220 224
-403.374 229.162 -1294 240 236 239
-400.834 229.239 -1295 235 231 234
-397.678 228.964 -1294 229 225 228
-393.92 228.335 -1291 226 222 225
-389.876 227.531 -1287 219 215 218
-386.755 227.258 -1286 210 206 209
-383.045 226.634 -1283 201 198 201
-380.538 226.716 -1284 202 198 201
-377.735 226.623 -1284 205 201 204
-375.227 226.707 -1285 212 208 211
-372.719 226.791 -1286 222 218 221
-370.209 226.876 -1287 230 226 229
-367.413 226.786 -1287 236 232 235
-364.904 226.872 -1288 236 232 235
-362.113 226.783 -1288 231 227 230
-358.209 225.991 -1284 228 224 229
-354.879 225.551 -1282 222 218 223
-351.561 225.113 -1280 213 209 214
-348.799 225.028 -1280 201 197 202
-346.312 225.119 -1281 197 193 198
-344.091 225.386 -1283 209 205 210
-341.598 225.478 -1284 219 214 222
-339.105 225.571 -1285 227 222 230
-336.086 225.313 -1284 229 224 232
-333.335 225.231 -1284 229 224 232
-330.071 224.8 -1282 227 222 230
-327.33 224.72 -1282 222 217 225
-324.085 224.29 -1280 220 215 223
-321.103 224.037 -1279 221 216 224
-317.132 223.084 -1274 223 218 227
-314.419 223.007 -1274 224 219 227
-310.975 222.407 -1271 224 219 227
-308.032 222.157 -1270 225 220 228
-304.855 221.733 -1268 223 218 226
-302.404 221.834 -1269 220 217 224
-299.243 221.412 -1267 216 213 220
-297.029 221.69 -1269 214 211 218
-294.81 221.968 -1271 215 209 218
-292.354 222.071 -1272 213 208 217
-290.353 222.525 -1275 209 204 213
-288.567 223.153 -1279 209 205 213
-286.096 223.259 -1280 211 208 216
-283.623 223.365 -1281 212 209 217
-281.149 223.471 -1282 215 212 220
-278.239 223.23 -1281 217 214 222
-275.335 222.989 -1280 220 217 225
-272.651 222.923 -1280 223 220 229
-269.547 222.51 -1278 225 222 232
-266.663 222.272 -1277 224 221 231
-264.198 222.382 -1278 224 221 231
-261.528 222.319 -1278 225 222 230
-258.859 222.257 -1278 227 224 232
-256.393 222.369 -1279 228 223 233
-253.727 222.308 -1279 226 221 230
-251.063 222.248 -1279 221 216 224
-248.595 222.362 -1280 213 208 216
-246.318 222.651 -1282 201 196 205
-244.224 223.113 -1285 188 183 192
-242.684 224.097 -1291 169 163 171
-240.749 224.733 -1295 157 150 159
-238.432 225.023 -1297 164 157 166
-235.927 225.14 -1298 178 171 180
-233.6 225.431 -1300 187 180 188
-230.911 225.376 -1300 191 184 193
-228.224 225.322 -1300 200 193 201
-225.712 225.441 -1301 213 206 212
-223.198 225.561 -1302 220 213 218
-220.174 225.162 -1300 222 215 219
-216.993 224.591 -1297 219 212 216
-213.495 223.674 -1292 217 210 214
-210.183 222.931 -1288 217 210 214
-206.567 221.844 -1282 212 208 213
-203.614 221.449 -1280 200 195 201
-200.67 221.055 -1278 186 179 187
-198.202 221.181 -1279 166 159 168
-195.884 221.48 -1281 156 149 158
-193.71 221.953 -1284 149 142 153
-191.674 222.599 -1288 142 135 146
-189.477 223.072 -1291 137 130 141
-186.835 223.028 -1291 139 131 145
-184.622 223.502 -1294 148 140 154
-181.977 223.459 -1294 156 150 164
-179.611 223.762 -1296 162 156 169
-177.101 223.892 -1297 166 161 173
-174.723 224.196 -1299 159 154 166
-172.074 224.155 -1299 163 158 170
-169.687 224.46 -1301 181 176 188
-166.908 224.248 -1300 200 195 205
-164.387 224.382 -1301 216 210 220
-161.367 223.826 -1298 219 212 221
-158.726 223.788 -1298 216 209 218
-155.967 223.579 -1297 214 207 216
-153.331 223.543 -1297 209 202 211
-150.813 223.679 -1298 207 200 209
-148.292 223.816 -1299 205 198 207
-145.656 223.782 -1299 199 192 201
-142.911 223.576 -1298 197 190 199
-140.279 223.543 -1298 202 195 206
-137.543 223.338 -1297 206 199 210
-134.811 223.134 -1296 209 203 214
-132.289 223.275 -1297 210 203 214
-129.764 223.416 -1298 205 198 209
-127.334 223.73 -1300 199 193 202
-124.801 223.873 -1301 197 191 200
-122.265 224.016 -1302 199 194 205
-119.818 224.332 -1304 202 197 208
-117.184 224.304 -1304 206 201 212
-114.55 224.277 -1304 206 201 212
-111.918 224.251 -1304 201 196 207
-109.203 224.053 -1303 197 192 203
-106.493 223.856 -1302 190 185 196
-103.947 224.003 -1303 180 175 186
-101.476 224.323 -1305 171 166 178
-98.9979 224.643 -1307 162 157 169
-96.5123 224.964 -1309 158 154 167
-94.0196 225.286 -1311 159 154 167
-91.5194 225.608 -1313 161 156 169
-89.012 225.93 -1315 162 157 170
-86.5629 226.425 -1318 159 154 167
-84.1662 227.092 -1322 157 152 165
-81.6923 227.588 -1325 155 150 163
-79.1475 227.913 -1327 153 148 161
-76.5376 228.067 -1328 154 149 162
-73.9799 228.393 -1330 154 148 160
-71.3076 228.376 -1330 158 152 163
-68.7391 228.703 -1332 185 180 191
-66.0639 228.687 -1332 211 206 216
-63.4368 228.844 -1333 219 212 221
-60.7151 228.658 -1332 220 213 218
-57.9979 228.472 -1331 223 215 219
-55.0773 227.429 -1325 224 216 224
-52.2604 226.73 -1321 218 211 219
-49.4975 226.203 -1318 210 203 211
-46.8893 226.364 -1319 200 193 202
-44.1767 226.01 -1317 188 181 190
-41.5673 226.172 -1318 185 178 189
-38.9836 226.505 -1320 184 178 189
-36.4197 227.011 -1323 185 179 190
-33.8187 227.346 -1325 180 175 188
-31.257 228.025 -1329 169 164 177
-28.5933 228.018 -1329 157 153 166
-25.9689 228.355 -1331 149 145 158
-23.3368 228.692 -1333 142 138 151
-20.7122 229.202 -1336 138 135 145
-18.0354 229.198 -1336 145 142 152
-15.3817 229.537 -1338 165 162 173
-12.7201 229.877 -1340 182 179 189
-10.0281 229.702 -1339 184 181 191
-7.35114 229.872 -1340 186 183 193
-4.66681 229.871 -1340 182 179 188
-1.98399 230.041 -1341 177 174 182
0.701769 229.87 -1340 177 174 182
3.38606 229.87 -1340 178 175 184
6.06584 229.7 -1339 180 177 187
8.76127 230.045 -1341 181 178 188
11.4477 230.047 -1341 181 178 188
14.1553 230.393 -1343 183 180 190
16.871 230.74 -1345 184 181 191
19.5805 230.916 -1346 184 181 191
22.2775 230.92 -1346 185 182 192
24.9746 230.926 -1346 186 183 193
27.6719 230.932 -1346 186 183 193
30.3696 230.939 -1346 182 179 189
33.0428 230.775 -1345 182 179 189
35.739 230.783 -1345 184 181 191
38.4067 230.62 -1344 181 178 188
41.1015 230.629 -1344 179 176 186
43.7966 230.639 -1344 177 174 184
46.5264 230.821 -1345 176 173 184
49.2608 231.004 -1346 175 172 182
51.9996 231.187 -1347 177 174 183
54.7022 231.2 -1347 181 178 186
57.4053 231.213 -1347 182 179 187
60.1089 231.226 -1347 184 181 190
62.8129 231.241 -1347 187 184 194
65.5662 231.427 -1348 190 187 197
68.2731 231.443 -1348 193 190 200
70.9808 231.459 -1348 195 192 202
73.689 231.476 -1348 195 192 202
76.3411 231.322 -1347 187 184 194
79.0487 231.34 -1347 174 171 181
81.8174 231.531 -1348 168 164 176
84.591 231.722 -1349 170 166 179
87.2397 231.57 -1348 177 173 185
90.0187 231.763 -1349 186 182 194
92.5961 231.44 -1347 194 191 201
95.2369 231.29 -1346 187 184 196
97.9474 231.313 -1346 172 168 181
100.958 232.023 -1350 165 160 173
103.678 232.047 -1350 171 166 179
106.635 232.588 -1353 179 175 188
109.525 232.957 -1355 172 171 182
112.423 233.327 -1357 173 169 179
115.416 233.869 -1360 150 142 150
118.508 234.584 -1364 119 104 105
121.351 234.784 -1365 140 122 121
124.108 234.813 -1365 155 134 127
127.051 235.187 -1367 163 137 125
129.814 235.217 -1367 164 137 123
132.579 235.247 -1367 164 135 123
135.443 235.451 -1368 165 136 123
138.211 235.483 -1368 166 137 123
141.083 235.688 -1369 169 139 126
143.856 235.721 -1369 168 137 124
146.951 236.272 -1372 166 135 122
149.732 236.307 -1372 164 134 117
152.403 236.17 -1371 163 134 115
155.298 236.378 -1372 160 132 108
158.198 236.587 -1373 159 131 104
160.869 236.453 -1372 164 136 108
163.896 236.835 -1374 163 134 106
166.567 236.702 -1373 159 130 103
169.483 236.914 -1374 159 129 104
172.279 236.954 -1374 160 128 105
175.458 237.512 -1377 160 129 103
178.263 237.554 -1377 161 129 102
181.332 237.941 -1379 157 125 100
184.411 238.33 -1381 156 123 101
186.957 238.028 -1379 157 123 103
189.772 238.073 -1379 156 124 101
193.008 238.636 -1382 153 121 97
195.832 238.681 -1382 148 116 90
199.233 239.419 -1386 149 113 85
202.506 239.985 -1389 154 116 87
205.497 240.206 -1390 157 115 86
208.345 240.255 -1390 151 111 85
210.89 239.958 -1388 150 110 84
213.737 240.009 -1388 149 109 84
216.585 240.059 -1388 148 107 84
219.594 240.284 -1389 150 109 86
222.448 240.336 -1389 151 110 87
225.467 240.562 -1390 152 114 95
228.491 240.789 -1391 159 121 102
231.355 240.844 -1391 161 123 104
234.727 241.419 -1394 161 128 108
237.43 241.301 -1393 165 132 113
240.132 241.185 -1392 172 139 121
243.006 241.242 -1392 176 143 129
245.706 241.127 -1391 176 143 129
248.225 240.839 -1389 172 139 125
251.28 241.072 -1390 173 142 128
254.158 241.132 -1390 175 144 127
257.224 241.366 -1391 175 143 123
260.109 241.428 -1391 174 144 125
262.807 241.317 -1390 174 144 125
266.077 241.727 -1392 173 144 125
268.97 241.791 -1392 173 145 123
271.866 241.855 -1392 171 144 118
274.765 241.921 -1392 166 141 111
277.865 242.16 -1393 165 140 108
280.77 242.227 -1393 170 143 112
284.289 242.817 -1396 170 141 111
287.411 243.059 -1397 167 140 111
290.539 243.302 -1398 162 136 111
293.675 243.546 -1399 160 134 111
296.817 243.791 -1400 160 133 114
299.752 243.863 -1400 155 130 108
302.905 244.109 -1401 156 131 109
305.847 244.182 -1401 155 132 106
308.792 244.256 -1401 155 131 113
311.74 244.331 -1401 157 133 117
315.139 244.755 -1403 157 133 119
318.55 245.18 -1405 158 130 116
321.743 245.432 -1406 158 130 116
325.405 246.034 -1409 161 134 120
328.616 246.287 -1410 162 136 127
331.599 246.367 -1410 161 137 125
334.585 246.447 -1410 159 135 122
338.292 247.053 -1413 156 132 119
341.049 246.96 -1412 156 130 118
344.292 247.218 -1413 155 129 120
347.788 247.652 -1415 154 129 123
351.544 248.262 -1418 155 132 118
355.065 248.698 -1420 155 133 116
358.346 248.96 -1421 152 132 113
361.634 249.222 -1422 154 133 112
364.417 249.135 -1421 157 133 115
368.233 249.75 -1424 157 133 116
371.023 249.665 -1423 155 131 116
374.074 249.756 -1423 153 129 114
377.128 249.847 -1423 155 131 116
379.919 249.764 -1422 155 131 116
383.248 250.032 -1423 154 128 119
387.127 250.654 -1426 153 128 114
391.57 251.628 -1431 152 127 114
394.935 251.9 -1432 154 129 117
398.029 251.997 -1432 154 131 121
401.688 252.447 -1434 152 130 121
404.512 252.37 -1433 151 129 120
407.904 252.645 -1434 148 130 121
411.018 252.746 -1434 150 130 118
415.29 253.552 -1438 151 132 119
419.293 254.184 -1441 148 130 117
422.433 254.288 -1441 151 128 113
425.577 254.392 -1441 149 127 112
428.725 254.497 -1441 149 126 111
431.277 254.25 -1439 150 128 113
434.127 254.18 -1438 149 127 111
439.409 255.525 -1445 150 127 111
442.275 255.458 -1444 152 128 112
446.066 255.921 -1446 157 133 117
450.181 256.563 -1449 158 134 119
454 257.03 -1451 154 130 115
457.203 257.143 -1451 155 131 117
461.044 257.611 -1453 156 133 120
464.579 257.903 -1454 158 134 118
467.157 257.664 -1452 162 138 122
469.73 257.426 -1450 163 139 123
473.604 257.898 -1452 162 138 124
477.492 258.372 -1454 166 139 126
481.061 258.67 -1455 171 143 129
485.306 259.324 -1458 169 140 127
487.893 259.089 -1456 163 134 121
490.813 259.034 -1455 167 138 125
493.394 258.801 -1453 165 137 123
496.654 258.925 -1453 167 139 126
499.574 258.872 -1452 166 139 126
504.573 259.889 -1457 165 139 126
508.204 260.195 -1458 158 133 122
512.196 260.68 -1460 143 125 111
516.555 261.345 -1463 137 122 107
519.511 261.297 -1462 125 112 97
522.11 261.071 -1460 118 107 93
-837.494 252.497 -1322 210 187 171
-823.634 249.206 -1306 223 199 182
-816.782 248.019 -1301 228 204 186
-811.843 247.407 -1299 228 204 188
-808.17 247.177 -1299 233 209 193
-800.79 245.809 -1293 234 210 193
-799.62 246.343 -1297 235 211 191
-795.982 246.118 -1297 235 210 188
-791.132 245.515 -1295 237 212 189
-786.302 244.914 -1293 239 214 194
-779.678 243.747 -1288 239 213 194
-776.706 243.718 -1289 237 214 190
-772.538 243.312 -1288 238 215 191
-769.579 243.285 -1289 239 216 193
-766.623 243.26 -1290 241 219 197
-763.08 243.047 -1290 242 218 198
-760.135 243.023 -1291 243 219 199
-756.021 242.624 -1290 243 219 198
-753.671 242.79 -1292 241 216 194
-750.739 242.77 -1293 243 216 194
-748.389 242.938 -1295 242 215 195
-744.886 242.731 -1295 241 213 194
-741.964 242.714 -1296 241 212 195
-737.905 242.322 -1295 243 213 194
-734.428 242.12 -1295 244 211 193
-729.266 241.358 -1292 241 211 192
-727.499 241.718 -1295 241 211 192
-724.606 241.706 -1296 239 210 191
-722.273 241.881 -1298 236 208 186
-719.384 241.87 -1299 236 206 183
-714.844 241.302 -1297 234 204 183
-711.968 241.294 -1298 229 200 181
-709.096 241.286 -1299 228 198 180
-706.769 241.465 -1301 227 197 179
-704.44 241.645 -1303 224 195 177
-702.108 241.825 -1305 220 191 173
-698.703 241.635 -1305 220 190 165
-694.773 241.262 -1304 218 186 156
-691.386 241.075 -1304 212 179 149
-688.007 240.889 -1304 212 179 148
-685.685 241.073 -1306 212 179 150
-682.839 241.074 -1307 214 180 153
-679.994 241.075 -1308 213 179 151
-677.67 241.261 -1310 211 178 149
-675.343 241.448 -1312 217 180 150
-670.964 240.9 -1310 217 181 150
-667.112 240.538 -1309 218 182 149
-664.287 240.544 -1310 216 181 147
-660.96 240.367 -1310 219 184 151
-658.142 240.375 -1311 223 188 157
-654.327 240.017 -1310 226 191 161
-652.014 240.21 -1312 230 195 167
-647.227 239.489 -1309 229 196 169
-644.43 239.5 -1310 230 195 169
-640.166 238.965 -1308 231 195 170
-636.406 238.614 -1307 233 197 171
-632.658 238.264 -1306 233 196 170
-630.367 238.462 -1308 235 198 172
-627.594 238.479 -1309 236 200 174
-624.345 238.314 -1309 237 200 173
-621.577 238.333 -1310 235 199 173
-618.34 238.17 -1310 234 198 172
-614.169 237.645 -1308 234 198 172
-611.416 237.666 -1309 232 196 170
-607.736 237.326 -1308 232 196 169
-604.528 237.167 -1308 233 196 169
-600.868 236.829 -1307 230 194 168
-597.675 236.673 -1307 228 192 166
-594.035 236.337 -1306 228 192 165
-590.857 236.183 -1306 228 192 165
-587.686 236.03 -1306 227 194 165
-584.521 235.878 -1306 228 194 165
-581.362 235.727 -1306 230 196 167
-577.766 235.396 -1305 230 196 172
-574.621 235.247 -1305 233 204 187
-570.607 234.739 -1303 251 224 210
-565.736 233.872 -1299 246 225 215
-561.757 233.367 -1297 240 226 222
-557.363 232.684 -1294 238 224 220
-553.845 232.361 -1293 235 221 218
-549.912 231.86 -1291 225 219 220
-547.688 232.078 -1293 223 218 219
-544.196 231.759 -1292 224 220 221
-541.552 231.8 -1293 228 222 223
-538.076 231.482 -1292 225 219 220
-535.439 231.524 -1293 224 218 219
-532.39 231.388 -1293 226 218 220
-529.756 231.432 -1294 223 218 220
-526.716 231.297 -1294 222 218 220
-524.49 231.521 -1296 223 217 218
-521.455 231.388 -1296 221 217 220
-518.026 231.078 -1295 221 217 220
-515.401 231.125 -1296 222 218 223
-512.382 230.995 -1296 228 224 227
-509.368 230.866 -1296 229 225 229
-506.359 230.738 -1296 227 223 228
-502.966 230.432 -1295 226 222 227
-499.583 230.128 -1294 224 220 225
-496.977 230.18 -1295 221 217 222
-493.989 230.055 -1295 220 215 223
-491.765 230.287 -1297 222 217 224
-488.406 229.986 -1296 221 217 222
-486.18 230.219 -1298 220 216 221
-483.205 230.097 -1298 219 215 220
-480.974 230.331 -1300 219 215 220
-478.004 230.211 -1300 219 215 218
-475.403 230.269 -1301 221 217 220
-472.077 229.973 -1300 223 219 222
-469.12 229.856 -1300 220 216 219
-466.168 229.739 -1300 221 217 220
-463.22 229.623 -1300 223 219 222
-460.631 229.685 -1301 222 218 221
-457.689 229.571 -1301 218 214 217
-454.403 229.281 -1300 219 215 218
-450.778 228.816 -1298 216 212 215
-447.856 228.705 -1298 215 211 214
-444.596 228.418 -1297 215 211 214
-441.345 228.132 -1296 217 213 216
-438.44 228.024 -1296 216 212 215
-435.54 227.916 -1296 217 213 216
-432.977 227.984 -1297 221 217 219
-430.415 228.054 -1298 225 221 224
-428.181 228.299 -1300 227 223 226
-424.96 228.018 -1299 225 221 224
-421.749 227.739 -1298 223 219 222
-417.9 227.109 -1295 211 207 210
-414.388 226.657 -1293 199 195 200
-410.89 226.205 -1291 198 194 199
-408.036 226.104 -1291 219 215 220
-405.5 226.18 -1292 234 230 234
-402.963 226.256 -1293 242 238 241
-400.426 226.333 -1294 234 230 233
-396.966 225.885 -1292 232 228 231
-393.213 225.265 -1289 228 224 227
-389.478 224.645 -1286 220 216 219
-386.36 224.376 -1285 211 208 211
-382.952 223.933 -1283 203 200 203
-380.741 224.189 -1285 204 200 203
-378.23 224.271 -1286 207 203 206
-375.427 224.18 -1286 213 209 212
-372.917 224.263 -1287 223 219 222
-370.119 224.173 -1287 234 230 233
-367.324 224.083 -1287 240 236 239
-364.532 223.995 -1287 237 233 236
-362.025 224.081 -1288 230 226 229
-358.122 223.298 -1284 227 223 228
-355.346 223.212 -1284 224 220 225
-351.75 222.605 -1281 217 213 218
-348.715 222.347 -1280 205 201 206
-345.687 222.089 -1279 199 195 200
-343.471 222.353 -1281 206 202 207
-340.984 222.444 -1282 216 211 219
-338.495 222.536 -1283 226 221 229
-335.743 222.455 -1283 229 224 232
-333.254 222.548 -1284 230 225 233
-329.734 221.949 -1281 228 223 231
-326.741 221.697 -1280 222 217 225
-323.754 221.445 -1279 218 213 221
-321.026 221.368 -1279 220 215 223
-317.553 220.773 -1276 222 217 226
-314.59 220.524 -1275 223 218 227
-311.145 219.93 -1272 224 219 227
-307.715 219.338 -1269 226 221 229
-304.541 218.919 -1267 225 220 228
-301.616 218.674 -1266 222 219 226
-298.699 218.43 -1265 219 216 223
-296.49 218.704 -1267 216 213 220
-293.811 218.634 -1267 216 209 217
-291.825 219.081 -1270 213 206 215
-289.6 219.357 -1272 208 203 212
-287.821 219.978 -1276 206 202 211
-285.357 220.083 -1277 208 205 213
-283.334 220.532 -1280 211 208 216
-280.644 220.465 -1280 213 210 218
-278.172 220.571 -1281 217 214 222
-275.054 220.161 -1279 221 218 226
-272.586 220.268 -1280 224 221 229
-269.694 220.032 -1279 225 222 232
-266.808 219.796 -1278 222 219 229
-264.342 219.906 -1279 222 219 229
-261.465 219.672 -1278 225 222 230
-258.798 219.61 -1278 226 223 232
-256.332 219.721 -1279 226 221 231
-253.667 219.661 -1279 224 219 227
-250.807 219.43 -1278 220 215 223
-248.342 219.542 -1279 215 210 218
-246.067 219.827 -1281 205 201 209
-244.166 220.456 -1285 193 189 198
-242.251 221.085 -1289 172 167 175
-240.692 222.057 -1295 156 150 158
-238.56 222.515 -1298 158 151 160
-236.053 222.631 -1299 172 165 173
-233.545 222.747 -1300 184 177 185
-230.856 222.693 -1300 191 184 193
-228.17 222.639 -1300 200 193 200
-225.659 222.757 -1301 214 207 213
-222.974 222.704 -1301 222 215 220
-220.122 222.481 -1300 224 217 221
-217.109 222.087 -1298 219 212 216
-213.61 221.182 -1293 216 209 213
-210.134 220.277 -1288 217 210 214
-206.68 219.373 -1283 211 206 212
-203.407 218.641 -1279 196 191 197
-200.623 218.423 -1278 181 174 182
-198.31 218.718 -1280 163 156 164
-195.838 218.843 -1281 155 148 157
-193.664 219.31 -1284 147 140 151
-191.778 220.119 -1289 140 133 144
-189.579 220.587 -1292 141 134 145
-186.936 220.543 -1292 146 139 152
-184.722 221.012 -1295 152 144 158
-182.075 220.969 -1295 158 153 166
-179.569 221.098 -1296 160 155 168
-176.923 221.056 -1296 160 155 168
-174.683 221.527 -1299 163 158 169
-171.901 221.316 -1298 181 176 187
-169.387 221.447 -1299 203 198 209
-166.741 221.408 -1299 215 208 218
-164.096 221.369 -1299 217 210 219
-161.205 220.991 -1297 217 210 219
-158.445 220.783 -1296 214 207 216
-155.81 220.747 -1296 212 205 214
-153.177 220.711 -1296 210 203 212
-150.662 220.846 -1297 208 201 210
-148.143 220.982 -1298 204 197 206
-145.622 221.118 -1299 198 191 200
-142.878 220.914 -1298 199 192 201
-140.247 220.882 -1298 203 196 207
-137.617 220.849 -1298 207 200 211
-134.988 220.818 -1298 210 203 214
-132.36 220.787 -1298 211 204 215
-129.734 220.757 -1298 206 199 210
-127.304 221.067 -1300 201 194 204
-124.676 221.038 -1300 200 193 203
-122.143 221.179 -1301 198 193 204
-119.606 221.321 -1302 198 193 204
-116.977 221.294 -1302 202 197 208
-114.26 221.097 -1301 204 199 210
-111.806 221.411 -1303 198 193 204
-109.094 221.216 -1302 195 190 201
-106.468 221.191 -1302 187 182 193
-104.003 221.506 -1304 176 171 183
-101.608 221.992 -1307 170 165 178
-99.0507 222.139 -1308 161 156 169
-96.6374 222.626 -1311 158 154 167
-94.1411 222.943 -1313 159 154 167
-91.6376 223.262 -1315 163 158 171
-89.1267 223.58 -1317 164 159 172
-86.6085 223.9 -1319 159 154 167
