ply
format ascii 1.0
comment Created by Open3D
element vertex 1337
property double x
property double y
property double z
property uchar red
property uchar green
property uchar blue
end_header
-16.8588 -25.8642 -1261 136 138 159
-14.3795 -25.9048 -1263 135 137 158
-11.8831 -25.925 -1264 136 138 159
-9.38278 -25.9452 -1265 140 142 163
-6.88942 -26.0065 -1268 140 142 163
-4.38423 -26.0679 -1271 139 140 161
-1.86569 -26.1088 -1273 139 139 161
0.660759 -26.1498 -1275 138 140 160
3.20266 -26.2524 -1280 132 134 154
5.76891 -26.3756 -1286 130 131 151
8.36548 -26.5194 -1293 127 128 146
-219.698 -27.4514 -1207 214 210 218
-215.784 -27.2627 -1199 214 209 218
-212.26 -27.1197 -1193 217 212 220
-209.466 -27.0677 -1191 217 212 220
-206.16 -26.9478 -1186 218 213 221
-202.877 -26.8279 -1181 216 211 219
-199.785 -26.7308 -1177 213 209 216
-196.711 -26.634 -1173 209 205 212
-193.656 -26.5371 -1169 205 200 207
-191.109 -26.5086 -1168 202 198 203
-188.406 -26.4573 -1166 203 199 204
-185.873 -26.4289 -1165 201 197 202
-183.502 -26.4233 -1165 197 193 198
-181.289 -26.4404 -1166 192 188 193
-178.766 -26.4121 -1165 189 185 190
-176.703 -26.4521 -1167 188 184 188
-174.335 -26.4467 -1167 184 180 183
-171.967 -26.4414 -1167 186 181 189
-169.747 -26.4589 -1168 187 181 189
-167.381 -26.4537 -1168 186 179 188
-165.016 -26.4486 -1168 184 179 188
-162.792 -26.4663 -1169 185 180 189
-160.565 -26.484 -1170 186 179 188
-158.335 -26.5017 -1171 180 173 184
-156.102 -26.5197 -1172 175 167 181
-153.998 -26.5602 -1174 171 163 177
-151.758 -26.5781 -1175 165 157 171
-149.643 -26.6187 -1177 163 154 166
-147.645 -26.6821 -1180 163 154 165
-145.514 -26.7228 -1182 157 150 158
-143.375 -26.7636 -1184 147 140 149
-141.349 -26.8272 -1187 144 137 146
-139.078 -26.8455 -1188 150 142 150
-136.689 -26.8413 -1188 155 148 157
-134.414 -26.8598 -1189 157 150 161
-132.025 -26.8558 -1189 164 156 163
-129.419 -26.8066 -1187 168 160 166
-126.929 -26.7802 -1186 171 164 172
-124.34 -26.7311 -1184 195 188 196
-121.759 -26.6823 -1182 225 218 226
-119.288 -26.6561 -1181 226 221 229
-116.624 -26.5847 -1178 230 225 233
-113.974 -26.5136 -1175 231 224 233
-111.241 -26.42 -1171 223 216 225
-108.618 -26.3489 -1168 212 205 214
-106.099 -26.3005 -1166 197 194 204
-103.856 -26.32 -1167 185 181 193
-101.522 -26.3169 -1167 177 172 188
-99.2745 -26.3363 -1168 166 162 181
-97.1068 -26.3785 -1170 159 155 176
-94.8509 -26.3981 -1171 155 151 172
-92.7497 -26.4629 -1174 157 153 174
-90.5602 -26.5053 -1176 159 155 176
-88.4386 -26.5702 -1179 157 155 176
-86.1595 -26.59 -1180 158 156 178
-84.0193 -26.655 -1183 159 157 178
-81.7297 -26.6751 -1184 159 156 178
-79.4368 -26.6952 -1185 160 155 178
-77.1406 -26.7154 -1186 163 160 184
-74.7779 -26.7131 -1186 178 176 200
-72.3548 -26.6884 -1185 188 184 203
-69.9952 -26.6862 -1185 190 185 204
-67.6934 -26.7067 -1186 188 180 200
-65.3331 -26.7047 -1186 178 173 191
-63.0793 -26.7477 -1188 170 166 184
-60.8182 -26.7908 -1190 164 162 183
-58.5988 -26.8566 -1193 153 152 173
-56.4149 -26.9449 -1197 149 149 171
-54.1705 -27.0108 -1200 147 149 172
-51.8715 -27.0542 -1202 148 150 173
-49.6061 -27.1202 -1205 145 147 168
-47.4467 -27.2538 -1211 140 142 163
-45.3009 -27.4099 -1218 137 139 160
-43.1982 -27.6111 -1227 135 137 160
-40.9937 -27.7674 -1234 132 134 156
-38.6679 -27.8562 -1238 129 131 152
-36.2973 -27.9226 -1241 130 132 154
-33.8879 -27.9665 -1243 131 133 156
-31.4707 -28.0105 -1245 128 130 153
-29.0692 -28.0771 -1248 130 132 155
-26.6773 -28.1663 -1252 134 136 159
-24.2311 -28.2105 -1254 137 139 161
-21.8118 -28.2998 -1258 139 141 162
-19.3461 -28.3442 -1260 140 142 163
-16.8593 -28.3661 -1261 138 140 161
-14.38 -28.4106 -1263 137 139 160
-11.9022 -28.4777 -1266 137 139 160
-9.39788 -28.4999 -1267 136 138 159
-6.89506 -28.5447 -1269 137 139 160
-4.3878 -28.612 -1272 139 141 161
-1.86575 -28.6344 -1273 140 142 162
0.660261 -28.6568 -1274 139 141 161
3.20025 -28.7694 -1279 135 137 157
5.76459 -28.9045 -1285 133 134 154
8.37867 -29.1296 -1295 131 132 150
-220.615 -29.9966 -1212 212 208 216
-216.51 -29.7665 -1203 212 207 216
-212.8 -29.5862 -1196 217 212 220
-209.824 -29.5049 -1193 217 212 220
-205.993 -29.3001 -1185 218 213 221
-202.883 -29.1943 -1181 218 213 220
-199.622 -29.0641 -1176 213 209 214
-196.55 -28.9586 -1172 207 203 208
-193.496 -28.8532 -1168 206 202 207
-191.115 -28.8469 -1168 207 203 208
-188.574 -28.8158 -1167 206 202 207
-186.038 -28.7849 -1166 204 200 205
-183.666 -28.7787 -1166 200 196 201
-181.45 -28.7973 -1167 193 189 194
-178.925 -28.7667 -1166 189 185 190
-176.709 -28.7854 -1167 187 183 186
-174.49 -28.8042 -1168 182 178 181
-172.12 -28.7985 -1168 185 178 186
-169.753 -28.7928 -1168 184 177 185
-167.386 -28.7872 -1168 184 177 186
-165.021 -28.7817 -1168 183 177 186
-162.797 -28.8009 -1169 185 180 189
-160.432 -28.7955 -1169 186 179 188
-158.34 -28.8395 -1171 179 172 183
-156.107 -28.8589 -1172 174 166 180
-154.003 -28.903 -1174 171 163 177
-151.763 -28.9225 -1175 166 158 172
-149.647 -28.9669 -1177 166 157 169
-147.65 -29.0357 -1180 166 158 168
-145.641 -29.1046 -1183 158 151 160
-143.501 -29.149 -1185 148 141 150
-141.354 -29.1936 -1187 146 139 148
-138.966 -29.1889 -1187 154 146 154
-136.693 -29.209 -1188 158 151 159
-134.418 -29.2291 -1189 158 151 161
-132.14 -29.2493 -1190 164 156 162
-129.532 -29.1958 -1188 168 160 166
-127.148 -29.1916 -1188 176 169 177
-124.449 -29.1137 -1185 206 199 207
-121.866 -29.0605 -1183 226 219 227
-119.191 -28.9828 -1180 225 220 228
-116.529 -28.9053 -1177 229 224 232
-113.783 -28.8033 -1173 231 224 233
-111.149 -28.7258 -1170 223 216 225
-108.528 -28.6486 -1167 212 205 214
-106.102 -28.6206 -1166 195 192 202
-103.859 -28.6416 -1167 184 180 191
-101.699 -28.6873 -1169 178 173 188
-99.4477 -28.7086 -1170 166 162 181
-97.2759 -28.7544 -1172 160 156 177
-95.0969 -28.8002 -1174 154 150 171
-92.9106 -28.8462 -1176 153 149 170
-90.563 -28.8432 -1176 156 152 173
-88.4413 -28.9139 -1179 160 158 180
-86.1623 -28.9356 -1180 163 161 183
-83.9509 -28.9817 -1182 165 163 184
-81.6633 -29.0035 -1183 162 159 181
-79.4393 -29.0499 -1185 160 155 178
-77.078 -29.0474 -1185 163 160 184
-74.6542 -29.0204 -1184 179 177 201
-72.2349 -28.9935 -1183 189 185 204
-69.9384 -29.0157 -1184 190 184 203
-67.6385 -29.0379 -1185 186 178 198
-65.3351 -29.0603 -1186 177 173 190
-63.0813 -29.1072 -1188 171 167 185
-60.8713 -29.1785 -1191 166 164 185
-58.6006 -29.2255 -1193 155 154 175
-56.3696 -29.2971 -1196 148 148 170
-54.1271 -29.3688 -1199 147 149 172
-51.83 -29.4161 -1201 148 150 172
-49.6076 -29.5124 -1205 143 145 166
-47.4482 -29.6578 -1211 137 139 160
-45.3024 -29.8277 -1218 133 135 156
-43.1644 -30.0221 -1226 130 132 155
-40.9949 -30.2167 -1234 128 131 153
-38.6379 -30.2888 -1237 127 130 152
-36.2692 -30.3611 -1240 128 131 154
-33.8889 -30.4334 -1243 129 131 155
-31.4717 -30.4813 -1245 129 131 154
-29.0701 -30.5537 -1248 133 134 157
-26.6781 -30.6507 -1252 136 137 160
-24.2125 -30.6744 -1253 138 139 161
-21.7951 -30.7716 -1257 137 139 160
-19.3467 -30.8443 -1260 138 140 161
-16.8464 -30.8437 -1260 139 141 162
-14.3804 -30.9167 -1263 140 142 163
-11.8932 -30.9652 -1265 140 142 163
-9.39817 -31.0138 -1267 139 141 162
-6.89527 -31.0625 -1269 138 141 162
-4.38449 -31.1113 -1271 140 142 163
-1.8658 -31.1601 -1273 140 142 162
0.660284 -31.1846 -1274 138 140 160
3.19535 -31.2581 -1277 137 139 159
5.7558 -31.4051 -1283 135 136 156
8.37246 -31.6746 -1294 132 133 151
-220.441 -32.4015 -1211 211 208 216
-216.518 -32.1796 -1203 211 206 215
-212.986 -32.0114 -1197 214 209 218
-210.007 -31.9236 -1194 213 208 217
-206.348 -31.7289 -1187 216 211 219
-203.062 -31.5879 -1182 218 213 220
-199.629 -31.4202 -1176 214 210 215
-196.557 -31.3062 -1172 211 207 212
-193.503 -31.1923 -1168 208 204 209
-191.122 -31.1855 -1168 204 200 205
-188.419 -31.1252 -1166 200 196 201
-186.045 -31.1184 -1166 197 193 198
-183.672 -31.1118 -1166 194 190 194
-181.457 -31.1318 -1167 194 190 195
-179.085 -31.1254 -1167 192 188 193
-176.866 -31.1457 -1168 186 182 186
-174.645 -31.166 -1169 182 178 182
-172.274 -31.1598 -1169 181 175 183
-169.904 -31.1536 -1169 181 175 184
-167.535 -31.1476 -1169 183 177 186
-165.168 -31.1415 -1169 182 177 186
-162.802 -31.1356 -1169 182 177 186
-160.438 -31.1298 -1169 180 173 184
-158.345 -31.1774 -1171 175 167 180
-156.246 -31.225 -1173 169 161 176
-154.14 -31.2726 -1175 167 159 173
-152.027 -31.3205 -1177 167 159 173
-149.78 -31.3417 -1178 167 158 169
-147.655 -31.3895 -1180 165 157 167
-145.646 -31.4641 -1183 159 152 161
-143.385 -31.4854 -1184 152 145 154
-141.359 -31.5602 -1187 149 142 151
-139.087 -31.5817 -1188 156 148 156
-136.813 -31.6033 -1189 162 155 163
-134.536 -31.6252 -1190 163 155 164
-132.256 -31.6469 -1191 167 159 165
-129.537 -31.5626 -1188 168 160 167
-127.152 -31.558 -1188 178 171 178
-124.453 -31.4739 -1185 210 203 210
-121.87 -31.4163 -1183 226 219 226
-119.094 -31.3058 -1179 227 221 229
-116.533 -31.2484 -1177 229 223 231
-113.787 -31.1382 -1173 230 223 232
-111.153 -31.0546 -1170 223 217 226
-108.625 -30.9975 -1168 210 204 213
-106.197 -30.9672 -1167 195 191 203
-103.862 -30.9635 -1167 186 182 195
-101.703 -31.0128 -1169 175 170 188
-99.4511 -31.0358 -1170 165 160 181
-97.2792 -31.0854 -1172 156 151 173
-95.1001 -31.135 -1174 152 148 169
-92.9138 -31.1846 -1176 153 149 170
-90.6432 -31.2079 -1177 158 154 175
-88.4443 -31.2578 -1179 159 156 178
-86.1652 -31.2812 -1180 160 158 180
-84.0249 -31.3577 -1183 161 159 180
-81.7351 -31.3812 -1184 161 158 180
-79.5761 -31.4578 -1187 159 154 176
-77.1456 -31.4286 -1186 171 169 190
-74.7828 -31.4259 -1186 189 187 208
-72.3595 -31.3968 -1185 197 193 211
-69.9999 -31.3943 -1185 196 191 210
-67.6407 -31.3919 -1185 187 181 201
-65.3373 -31.416 -1186 179 174 192
-63.0835 -31.4667 -1188 176 172 189
-60.8222 -31.5175 -1190 169 167 187
-58.5535 -31.5684 -1192 158 157 178
-56.2772 -31.6192 -1194 152 152 174
-54.0386 -31.6967 -1197 147 147 170
-51.7886 -31.7742 -1200 147 148 170
-49.5681 -31.8784 -1204 142 144 165
-47.4106 -32.0355 -1210 135 138 159
-45.2668 -32.2192 -1217 132 134 156
-43.0954 -32.403 -1224 129 131 154
-40.9299 -32.6133 -1232 129 131 154
-38.608 -32.7177 -1236 129 132 155
-36.2412 -32.7958 -1239 129 131 156
-33.8628 -32.874 -1242 130 131 156
-31.4728 -32.9522 -1245 129 131 154
-29.0711 -33.0306 -1248 133 135 157
-26.6364 -33.0825 -1250 137 137 159
-24.2133 -33.161 -1253 135 137 158
-21.7785 -33.2396 -1256 136 138 159
-19.332 -33.3183 -1259 140 142 163
-16.8604 -33.3706 -1261 142 144 165
-14.4037 -33.4759 -1265 141 143 164
-11.903 -33.5019 -1266 140 142 163
-9.39849 -33.528 -1267 140 143 164
-6.8955 -33.5806 -1269 137 141 162
-4.38119 -33.6069 -1270 139 142 163
-1.86147 -33.6067 -1270 141 143 163
0.659789 -33.6861 -1273 139 141 161
3.19296 -33.7656 -1276 139 140 160
5.75151 -33.9245 -1282 136 137 157
8.38569 -34.2952 -1296 132 133 152
11.1262 -34.8248 -1316 126 127 145
-233.059 -36.4226 -1266 211 209 217
-221.359 -34.9755 -1216 210 207 215
-216.706 -34.6218 -1204 209 204 213
-212.816 -34.3834 -1196 212 207 216
-209.839 -34.289 -1193 211 206 215
-206.182 -34.0798 -1186 216 211 219
-202.726 -33.8993 -1180 219 214 221
-199.466 -33.7479 -1175 216 212 217
-196.564 -33.654 -1172 211 207 212
-193.676 -33.5605 -1169 206 202 207
-191.129 -33.5243 -1168 199 195 200
-188.749 -33.5169 -1168 199 195 200
-186.211 -33.4809 -1167 199 195 200
-183.994 -33.5025 -1168 195 191 194
-181.463 -33.4667 -1167 189 185 189
-179.245 -33.4883 -1168 186 182 187
-177.024 -33.5102 -1169 185 181 185
-174.801 -33.5319 -1170 182 178 183
-172.28 -33.4966 -1169 179 174 182
-170.055 -33.5187 -1170 180 175 183
-167.685 -33.5121 -1170 183 178 187
-165.316 -33.5057 -1170 183 178 187
-162.809 -33.4707 -1169 182 177 186
-160.581 -33.4931 -1170 180 172 186
-158.486 -33.5442 -1172 176 168 182
-156.252 -33.5668 -1173 170 162 178
-154.277 -33.6467 -1176 165 157 172
-152.161 -33.698 -1178 164 156 170
-150.039 -33.7493 -1180 163 156 166
-147.786 -33.7722 -1181 160 153 162
-145.775 -33.8523 -1184 155 148 157
-143.511 -33.8753 -1185 151 144 153
-141.364 -33.9271 -1187 150 143 151
-138.975 -33.9217 -1187 157 149 157
-136.818 -33.9735 -1189 162 153 162
-134.541 -33.9969 -1190 164 155 165
-132.261 -34.0203 -1191 168 161 167
-129.651 -33.9581 -1189 170 163 169
-127.371 -33.9818 -1190 182 175 181
-124.458 -33.8342 -1185 215 208 214
-121.875 -33.7724 -1183 224 217 223
-119.098 -33.6535 -1179 229 222 230
-116.438 -33.5634 -1176 230 223 231
-113.694 -33.4448 -1172 228 221 229
-111.252 -33.412 -1171 221 216 224
-108.629 -33.3223 -1168 209 204 213
-106.201 -33.2895 -1167 195 190 203
-103.955 -33.3141 -1168 184 179 194
-101.794 -33.3672 -1170 173 167 187
-99.5398 -33.3918 -1171 162 156 178
-97.3658 -33.4451 -1173 155 150 173
-95.1036 -33.47 -1174 154 150 171
-92.9172 -33.5234 -1176 156 152 173
-90.6465 -33.5483 -1177 161 157 178
-88.3725 -33.5734 -1178 160 157 179
-86.1684 -33.6271 -1180 159 157 179
-84.0279 -33.7094 -1183 158 156 178
-81.7381 -33.7347 -1184 161 158 180
-79.512 -33.7885 -1186 164 160 181
-77.2135 -33.814 -1187 179 176 195
-74.8487 -33.8112 -1187 192 190 209
-72.3622 -33.7514 -1185 196 191 208
-69.9434 -33.7202 -1184 192 187 205
-67.6433 -33.7461 -1185 184 180 199
-65.2846 -33.7436 -1185 178 174 191
-63.0327 -33.7981 -1187 172 168 185
-60.7733 -33.8527 -1189 165 163 182
-58.6048 -33.9643 -1193 158 157 177
-56.3265 -34.0191 -1195 156 156 178
-54.0858 -34.1022 -1198 147 147 169
-51.7905 -34.1571 -1200 146 147 169
-49.6111 -34.2975 -1205 142 144 165
-47.3732 -34.4095 -1209 136 139 161
-45.3056 -34.6639 -1218 131 135 158
-43.0971 -34.833 -1224 130 132 155
-40.9646 -35.0875 -1233 130 132 155
-38.6094 -35.1714 -1236 131 134 157
-36.2425 -35.2553 -1239 131 133 156
-33.8641 -35.3394 -1242 128 130 154
-31.4992 -35.4519 -1246 125 127 150
-29.0722 -35.5077 -1248 127 129 151
-26.6161 -35.5351 -1249 135 137 158
-24.1949 -35.6195 -1252 136 138 159
-21.7447 -35.6755 -1254 138 140 161
-19.2867 -35.7316 -1256 139 141 162
-16.8342 -35.8163 -1259 139 141 162
-14.3814 -35.9295 -1263 141 143 164
-11.9035 -36.0143 -1266 141 143 164
-9.40625 -36.0708 -1268 140 142 163
-6.90119 -36.1274 -1270 139 142 163
-4.38134 -36.1272 -1270 140 142 162
-1.863 -36.1555 -1271 141 142 162
0.659815 -36.2124 -1273 142 143 163
3.19057 -36.2694 -1275 138 139 159
5.74724 -36.4402 -1281 135 136 156
8.37306 -36.8103 -1294 132 133 153
11.1858 -37.6356 -1323 126 127 146
-220.458 -37.2619 -1211 209 206 214
-215.995 -36.9145 -1200 207 202 211
-212.646 -36.7517 -1195 209 204 212
-209.672 -36.6507 -1192 211 206 215
-206.364 -36.4883 -1187 217 212 220
-203.078 -36.3261 -1182 220 215 222
-199.814 -36.1641 -1177 218 214 219
-196.74 -36.033 -1173 214 210 215
-194.015 -35.9635 -1171 209 205 210
-191.3 -35.894 -1169 203 199 204
-188.918 -35.8862 -1169 198 194 199
-186.378 -35.8477 -1168 196 192 197
-184.001 -35.8399 -1168 192 188 192
-181.626 -35.8323 -1168 185 181 185
-179.252 -35.8249 -1168 182 178 183
-177.183 -35.8789 -1170 184 180 185
-174.808 -35.8716 -1170 185 181 186
-172.582 -35.895 -1171 185 180 188
-170.208 -35.888 -1171 185 180 188
-167.978 -35.9116 -1172 185 180 189
-165.322 -35.8435 -1170 185 179 188
-162.954 -35.8367 -1170 184 177 186
-160.725 -35.8607 -1171 180 172 184
-158.493 -35.8846 -1172 176 168 181
-156.258 -35.9088 -1173 171 163 178
-154.152 -35.9636 -1175 165 157 171
-152.168 -36.0491 -1178 162 154 168
-150.045 -36.1041 -1180 161 155 165
-147.791 -36.1285 -1181 157 151 160
-145.781 -36.2142 -1184 153 146 155
-143.759 -36.3002 -1187 150 143 151
-141.608 -36.3554 -1189 150 143 151
-139.215 -36.3496 -1189 157 149 157
-137.054 -36.405 -1191 159 150 159
-134.546 -36.3688 -1190 162 153 163
-132.155 -36.3635 -1190 165 158 164
-129.547 -36.2969 -1188 169 162 168
-127.162 -36.2917 -1188 189 182 188
-124.357 -36.1643 -1184 220 213 219
-121.776 -36.0981 -1182 224 217 223
-119.002 -35.9711 -1178 228 221 229
-116.344 -35.8747 -1175 229 222 230
-113.602 -35.7478 -1171 226 219 227
-111.162 -35.7128 -1170 219 213 222
-108.54 -35.6166 -1167 208 203 212
-106.205 -35.6123 -1167 196 191 204
-103.959 -35.6384 -1168 184 179 194
-101.798 -35.6953 -1170 170 164 184
-99.5438 -35.7217 -1171 157 152 174
-97.3697 -35.7786 -1173 152 147 170
-95.1074 -35.8052 -1174 152 148 169
-92.8419 -35.8319 -1175 158 154 175
-90.5731 -35.8586 -1176 163 159 180
-88.3761 -35.9159 -1178 162 159 181
-86.1717 -35.9733 -1180 159 157 179
-83.9602 -36.0308 -1182 159 157 181
-81.6723 -36.0579 -1183 161 159 181
-79.381 -36.0852 -1184 167 163 184
-77.0865 -36.1125 -1185 180 178 196
-74.7255 -36.1092 -1185 189 187 204
-72.304 -36.0758 -1184 191 185 204
-70.0052 -36.1034 -1185 188 183 202
-67.703 -36.131 -1186 184 179 199
-65.3974 -36.1588 -1187 181 177 194
-63.1414 -36.2171 -1189 177 173 190
-60.8779 -36.2755 -1191 173 171 190
-58.6071 -36.334 -1193 161 159 180
-56.3287 -36.3926 -1195 153 153 175
-54.1331 -36.5122 -1199 148 148 170
-51.7924 -36.5403 -1200 147 148 169
-49.6131 -36.6905 -1205 143 145 166
-47.4142 -36.8408 -1210 139 142 164
-45.3074 -37.0825 -1218 133 137 160
-43.0988 -37.2633 -1224 130 132 155
-40.9994 -37.5661 -1234 130 132 155
-38.6421 -37.6558 -1237 130 132 155
-36.3025 -37.776 -1241 128 130 153
-33.9472 -37.8963 -1245 126 128 151
-31.5257 -37.9559 -1247 124 126 149
-29.1199 -38.046 -1250 125 127 150
-26.6598 -38.0753 -1251 132 134 155
-24.2152 -38.1351 -1253 133 135 156
-21.7455 -38.1646 -1254 135 137 158
-19.3028 -38.2551 -1257 138 140 161
-16.8215 -38.2848 -1258 139 141 162
-14.3706 -38.4059 -1262 140 142 163
-11.8851 -38.4662 -1264 141 143 164
-9.3992 -38.5571 -1267 142 144 165
-6.89602 -38.6176 -1269 141 143 164
-4.37806 -38.6174 -1269 141 142 163
-1.86161 -38.6477 -1270 143 144 164
0.659843 -38.739 -1273 143 144 164
3.1932 -38.8303 -1276 137 138 158
5.74747 -38.9827 -1281 134 135 155
8.36692 -39.3481 -1293 132 132 153
11.0848 -39.8963 -1311 127 127 149
-220.649 -39.7254 -1212 208 205 213
-215.824 -39.2896 -1199 207 202 210
-212.833 -39.1818 -1196 207 202 211
-209.857 -39.0742 -1193 209 204 213
-206.373 -38.8684 -1187 214 209 217
-203.258 -38.7284 -1183 218 214 221
-199.992 -38.5558 -1178 220 216 221
-196.916 -38.4161 -1174 217 213 218
-194.355 -38.3748 -1173 209 205 210
-191.472 -38.2681 -1170 202 198 203
-189.088 -38.2597 -1170 195 191 196
-186.705 -38.2514 -1170 193 189 194
-184.324 -38.2432 -1170 188 184 189
-181.789 -38.2024 -1169 181 177 183
-179.72 -38.2598 -1171 181 177 182
-177.342 -38.252 -1171 188 184 189
-174.965 -38.2442 -1171 190 186 192
-172.589 -38.2365 -1171 187 182 190
-170.36 -38.2616 -1172 185 180 188
-167.985 -38.2541 -1172 185 179 188
-165.471 -38.2142 -1171 185 179 188
-163.24 -38.2396 -1172 185 178 187
-160.869 -38.2324 -1172 181 173 185
-158.635 -38.258 -1173 176 168 180
-156.398 -38.2837 -1174 173 165 179
-154.158 -38.3096 -1175 167 159 173
-152.174 -38.4007 -1178 163 155 168
-150.179 -38.4918 -1181 159 154 164
-147.798 -38.4851 -1181 156 150 160
-145.91 -38.6092 -1185 155 147 156
-143.765 -38.668 -1187 149 142 150
-141.614 -38.7268 -1189 150 142 150
-139.338 -38.7532 -1190 156 148 156
-137.06 -38.7797 -1191 157 149 158
-134.552 -38.7412 -1190 161 152 162
-132.161 -38.7354 -1190 163 156 162
-129.552 -38.6646 -1188 166 159 165
-127.06 -38.6264 -1187 197 190 196
-124.258 -38.4908 -1183 223 216 222
-121.678 -38.4203 -1181 227 220 226
-118.906 -38.285 -1177 226 219 227
-116.25 -38.1822 -1174 229 222 230
-113.51 -38.0472 -1170 227 219 227
-111.166 -38.0422 -1170 218 212 221
-108.638 -37.9725 -1168 209 204 213
-106.3 -37.9677 -1168 199 194 207
-104.053 -37.9956 -1169 186 180 196
-101.889 -38.0561 -1171 170 164 184
-99.6329 -38.0842 -1172 156 150 172
-97.4568 -38.1449 -1174 151 146 169
-95.1924 -38.1733 -1175 153 149 170
-92.9248 -38.2016 -1176 159 155 176
-90.5769 -38.1976 -1176 161 157 178
-88.3798 -38.2587 -1178 161 158 180
-86.1024 -38.2873 -1179 162 160 182
-83.9638 -38.381 -1182 162 160 184
-81.6758 -38.4099 -1183 162 159 182
-79.3844 -38.4389 -1184 171 167 188
-77.0897 -38.468 -1185 184 181 199
-74.6655 -38.4323 -1184 189 186 202
-72.307 -38.4289 -1184 188 182 202
-70.0082 -38.4583 -1185 188 182 202
-67.763 -38.5202 -1187 185 179 199
-65.4001 -38.5174 -1187 182 178 195
-63.1441 -38.5795 -1189 178 174 191
-60.8806 -38.6417 -1191 173 171 190
-58.5604 -38.6716 -1192 160 159 179
-56.331 -38.7664 -1195 149 149 171
-54.1354 -38.8938 -1199 147 147 169
-51.7947 -38.9238 -1200 145 146 167
-49.574 -39.0513 -1204 142 144 165
-47.377 -39.2114 -1209 141 144 166
-45.3093 -39.5013 -1218 137 141 164
-43.0301 -39.6291 -1222 133 135 158
-41.0012 -40.0164 -1234 132 134 157
-38.6437 -40.112 -1237 130 132 155
-36.304 -40.2401 -1241 128 130 153
-33.9759 -40.4007 -1246 128 130 153
-31.5776 -40.4965 -1249 126 128 151
-29.1211 -40.5276 -1250 127 129 152
-26.6609 -40.5588 -1251 133 135 156
-24.2162 -40.6226 -1253 135 137 158
-21.7638 -40.6864 -1255 136 138 159
-19.2882 -40.718 -1256 137 139 160
-16.8356 -40.8144 -1259 137 139 160
-14.3712 -40.911 -1262 138 140 161
-11.8762 -40.9429 -1263 141 143 164
-9.38475 -41.0072 -1265 143 145 166
-6.88544 -41.0717 -1267 142 144 165
-4.3748 -41.1039 -1268 141 143 163
-1.86022 -41.1362 -1269 142 143 163
0.659355 -41.2334 -1272 140 141 161
3.19334 -41.3632 -1276 133 134 154
5.74322 -41.493 -1280 131 132 152
8.35433 -41.8499 -1291 131 132 152
11.0092 -42.2069 -1302 129 129 150
-228.302 -43.143 -1240 210 207 215
-221.024 -42.228 -1214 206 203 211
-216.194 -41.7654 -1201 206 201 209
-213.021 -41.6163 -1197 206 201 209
-210.042 -41.502 -1194 208 203 212
-207.251 -41.4227 -1192 213 208 216
-203.955 -41.2393 -1187 218 213 220
-200.68 -41.0561 -1182 221 217 222
-197.261 -40.8384 -1176 218 214 219
-194.198 -40.6902 -1172 209 205 210
-191.317 -40.5771 -1169 201 197 202
-188.773 -40.5335 -1168 195 191 196
-186.395 -40.5247 -1168 193 189 194
-184.175 -40.5507 -1169 189 185 190
-181.798 -40.5421 -1169 186 182 187
-179.575 -40.5683 -1170 189 185 190
-177.501 -40.6293 -1172 190 186 192
-175.122 -40.621 -1172 190 185 192
-172.744 -40.613 -1172 186 181 189
-170.513 -40.6395 -1173 182 177 185
-168.28 -40.6662 -1174 183 176 185
-165.619 -40.5892 -1172 183 176 185
-163.247 -40.5814 -1172 182 175 184
-161.014 -40.6085 -1173 181 172 184
-158.777 -40.6358 -1174 175 166 179
-156.538 -40.6629 -1175 172 164 178
-154.428 -40.7249 -1177 169 161 173
-152.439 -40.8216 -1180 163 156 167
-150.313 -40.8837 -1182 157 152 161
-147.93 -40.8768 -1182 154 148 157
-146.163 -41.0428 -1187 155 146 156
-143.893 -41.0707 -1188 149 142 149
-141.62 -41.0986 -1189 151 144 150
-139.344 -41.1266 -1190 157 149 157
-137.066 -41.1547 -1191 159 151 159
-134.445 -41.0793 -1189 162 154 163
-132.167 -41.1077 -1190 166 159 165
-129.558 -41.0325 -1188 171 164 170
-127.066 -40.992 -1187 209 202 208
-124.263 -40.848 -1183 227 220 226
-121.684 -40.7733 -1181 229 222 228
-118.911 -40.6296 -1177 224 217 225
-116.255 -40.5207 -1174 230 223 231
-113.612 -40.4117 -1171 226 219 227
-111.171 -40.3721 -1170 216 210 219
-108.643 -40.2979 -1168 208 203 212
-106.305 -40.293 -1168 198 193 208
-103.968 -40.288 -1168 184 179 195
-101.719 -40.3178 -1169 170 164 184
-99.5524 -40.3822 -1171 159 154 175
-97.3781 -40.4465 -1173 156 152 173
-95.1156 -40.4766 -1174 157 153 174
-92.8499 -40.5068 -1175 161 157 178
-90.504 -40.5024 -1175 161 157 178
-88.2337 -40.5328 -1176 162 158 180
-86.1063 -40.6322 -1179 165 160 183
-83.9675 -40.7315 -1182 163 161 185
-81.6794 -40.7622 -1183 163 160 182
-79.388 -40.793 -1184 174 170 190
-77.1582 -40.8583 -1186 186 182 198
-74.795 -40.8548 -1186 188 184 200
-72.4324 -40.8514 -1186 188 182 202
-70.0704 -40.848 -1186 188 182 202
-67.8231 -40.9137 -1188 187 181 201
-65.5133 -40.9451 -1189 184 180 197
-63.1469 -40.9422 -1189 176 173 190
-60.8833 -41.0082 -1191 168 166 185
-58.6121 -41.0743 -1193 157 156 176
-56.3336 -41.1405 -1195 149 149 171
-54.0926 -41.2413 -1198 143 143 165
-51.797 -41.3077 -1200 143 143 165
-49.6174 -41.4775 -1205 142 144 165
-47.3791 -41.6128 -1209 142 144 166
-45.2741 -41.886 -1217 138 141 164
-43.1025 -42.1249 -1224 132 134 157
-40.9698 -42.4327 -1233 129 131 154
-38.708 -42.6373 -1239 129 131 154
-36.3349 -42.7389 -1242 129 131 154
-34.0047 -42.9093 -1247 129 131 154
-31.6043 -43.011 -1250 127 129 152
-29.1457 -43.044 -1251 129 131 153
-26.6834 -43.0772 -1252 133 135 156
-24.2366 -43.1448 -1254 134 136 157
-21.7994 -43.247 -1257 135 137 158
-19.3198 -43.2804 -1258 136 138 159
-16.8631 -43.3828 -1261 133 135 156
-14.3946 -43.4853 -1264 132 134 155
-11.8861 -43.4847 -1264 136 138 159
-9.38517 -43.5186 -1265 139 141 162
-6.88031 -43.5526 -1266 140 142 163
-4.37154 -43.5868 -1267 140 142 162
-1.8603 -43.6554 -1269 139 140 160
0.658868 -43.7242 -1271 139 140 160
3.18848 -43.8275 -1274 136 137 157
5.74797 -44.0685 -1281 133 134 154
8.33529 -44.3097 -1288 131 132 152
10.9927 -44.723 -1300 130 131 151
-226.84 -45.3388 -1232 209 206 214
-221.399 -44.7387 -1216 205 201 209
-216.384 -44.2128 -1202 204 199 208
-213.387 -44.0918 -1199 205 200 209
-210.052 -43.8974 -1194 209 204 213
-207.088 -43.7767 -1191 214 209 217
-203.793 -43.5828 -1186 216 212 218
-200.69 -43.4258 -1182 218 214 219
-197.27 -43.1954 -1176 215 211 216
-194.373 -43.0756 -1173 206 202 207
-191.654 -42.9925 -1171 200 196 201
-189.106 -42.9463 -1170 196 192 197
-186.723 -42.9371 -1170 196 192 197
-184.499 -42.9646 -1171 195 191 196
-182.117 -42.9555 -1171 192 188 193
-179.737 -42.9464 -1171 190 186 191
-177.661 -43.011 -1173 188 183 190
-175.429 -43.0389 -1174 187 181 189
-172.9 -42.9936 -1173 184 179 187
-170.812 -43.0584 -1175 180 174 183
-168.431 -43.05 -1175 181 174 183
-165.91 -43.0051 -1174 182 175 184
-163.534 -42.9969 -1174 183 176 185
-161.159 -42.989 -1174 178 169 181
-158.92 -43.0176 -1175 172 164 176
-156.546 -43.0099 -1175 168 160 174
-154.435 -43.0755 -1177 166 158 170
-152.317 -43.141 -1179 162 155 166
-150.32 -43.2433 -1182 157 151 160
-148.062 -43.2726 -1183 155 148 157
-146.293 -43.4482 -1188 155 146 156
-144.021 -43.4777 -1189 151 144 150
-141.746 -43.5072 -1190 155 148 154
-139.468 -43.5368 -1191 160 152 159
-137.072 -43.53 -1191 161 153 161
-134.565 -43.4868 -1190 164 156 164
-132.173 -43.4802 -1190 166 159 165
-129.564 -43.4008 -1188 178 171 177
-126.965 -43.3214 -1186 219 212 218
-124.164 -43.1691 -1182 232 225 231
-121.484 -43.0536 -1179 227 220 226
-118.715 -42.9016 -1175 224 217 225
-116.063 -42.7863 -1172 229 222 230
-113.423 -42.6712 -1169 226 219 227
-111.082 -42.6656 -1169 217 211 220
-108.648 -42.6238 -1168 206 201 210
-106.219 -42.582 -1167 193 188 203
-103.973 -42.6134 -1168 178 173 189
-101.724 -42.6448 -1169 165 159 179
-99.5572 -42.7128 -1171 160 154 176
-97.4658 -42.8175 -1174 157 152 174
-95.2012 -42.8492 -1175 153 149 170
-93.0124 -42.9175 -1177 157 153 174
-90.6623 -42.9131 -1177 158 154 175
-88.3129 -42.9086 -1177 159 155 177
-86.1103 -42.9773 -1179 161 156 179
-83.9715 -43.0825 -1182 160 156 181
-81.7524 -43.1514 -1184 168 164 187
-79.3917 -43.1473 -1184 183 179 198
-77.1619 -43.2164 -1186 189 185 202
-74.7985 -43.2127 -1186 189 185 201
-72.4359 -43.2092 -1186 188 182 201
-70.1328 -43.2422 -1187 188 183 201
-67.8834 -43.3115 -1189 186 182 200
-65.5164 -43.3083 -1189 186 182 198
-63.1498 -43.3052 -1189 178 174 190
-60.9373 -43.4114 -1192 168 166 185
-58.6149 -43.4449 -1193 158 157 177
-56.3834 -43.5514 -1196 150 149 171
-54.1403 -43.6579 -1199 142 142 164
-51.929 -43.801 -1203 143 143 165
-49.7433 -43.9806 -1208 143 144 165
-47.4989 -44.1238 -1212 142 144 166
-45.3879 -44.4127 -1220 137 139 162
-43.2102 -44.6654 -1227 129 131 154
-40.9718 -44.8817 -1233 126 128 151
-38.7099 -45.0982 -1239 128 130 153
-36.3658 -45.242 -1243 128 130 153
-34.0063 -45.3858 -1247 127 129 152
-31.5805 -45.457 -1249 127 129 152
-29.1471 -45.5283 -1251 127 129 151
-26.6846 -45.5634 -1252 130 132 153
-24.2377 -45.6349 -1254 134 136 157
-21.8004 -45.743 -1257 136 138 160
-19.3361 -45.8148 -1259 137 139 160
-16.8773 -45.9231 -1262 136 138 159
-14.3839 -45.9587 -1263 135 137 158
-11.8867 -45.9944 -1264 136 138 159
-9.38561 -46.0303 -1265 138 140 161
-6.88064 -46.0663 -1266 140 142 163
-4.37174 -46.1024 -1267 142 143 164
-1.86185 -46.2114 -1270 142 143 163
0.65942 -46.2842 -1272 143 144 164
3.18863 -46.3571 -1274 141 142 162
5.73927 -46.5392 -1279 138 139 159
8.32274 -46.7943 -1286 134 135 155
10.9425 -47.0858 -1294 130 131 151
-227.588 -47.9684 -1236 209 206 214
-222.138 -47.3357 -1220 203 200 208
-217.296 -46.8198 -1207 204 199 208
-214.11 -46.6534 -1203 208 203 212
-210.591 -46.4094 -1197 213 208 216
-207.62 -46.2822 -1194 216 211 219
-204.319 -46.0776 -1189 216 211 218
-201.21 -45.912 -1185 216 212 217
-197.448 -45.5916 -1177 212 208 213
-194.549 -45.4651 -1174 203 199 204
-191.663 -45.3389 -1171 198 194 199
-189.115 -45.2902 -1170 195 191 196
-186.892 -45.3191 -1171 192 188 193
-184.509 -45.3094 -1171 190 186 191
-182.127 -45.2997 -1171 188 184 189
-179.746 -45.2903 -1171 185 181 186
-177.822 -45.397 -1174 184 178 185
-175.438 -45.3877 -1174 184 177 185
-173.204 -45.4173 -1175 181 176 184
-170.966 -45.4469 -1176 182 177 185
-168.583 -45.4382 -1176 185 178 187
-165.918 -45.3522 -1174 184 177 186
-163.542 -45.3435 -1174 180 173 182
-161.304 -45.3738 -1175 177 170 181
-159.063 -45.404 -1176 170 163 175
-156.82 -45.4344 -1177 165 157 170
-154.705 -45.5034 -1179 162 154 166
-152.454 -45.5341 -1180 160 153 164
-150.455 -45.642 -1183 158 151 159
-148.194 -45.6729 -1184 157 149 158
-146.301 -45.8194 -1188 156 147 157
-144.028 -45.8504 -1189 155 148 154
-141.872 -45.9201 -1191 160 153 159
-139.592 -45.9514 -1192 160 152 158
-137.079 -45.9057 -1191 159 151 158
-134.571 -45.8601 -1190 165 157 165
-132.069 -45.8146 -1189 161 154 160
-129.462 -45.7309 -1187 181 174 180
-126.757 -45.6087 -1184 224 217 223
-123.96 -45.4481 -1180 235 228 234
-121.284 -45.3261 -1177 225 218 224
-118.62 -45.2045 -1174 225 218 226
-115.87 -45.0444 -1170 229 222 230
-113.429 -44.9999 -1169 225 218 226
-110.992 -44.9557 -1168 216 211 219
-108.56 -44.9114 -1167 205 200 209
-106.043 -44.829 -1165 188 183 198
-103.89 -44.9005 -1167 173 168 184
-101.642 -44.9337 -1168 160 155 175
-99.5622 -45.0438 -1171 160 154 176
-97.4707 -45.1542 -1174 158 152 174
-95.287 -45.2262 -1176 150 146 167
-93.0961 -45.2981 -1178 154 150 171
-90.8209 -45.3319 -1179 156 152 173
-88.3924 -45.2889 -1178 158 153 175
-86.1877 -45.3612 -1180 158 153 176
-84.0467 -45.4721 -1183 159 154 179
-81.7564 -45.5063 -1184 169 164 187
-79.3957 -45.5022 -1184 184 180 200
-77.1007 -45.5365 -1185 189 185 202
-74.8023 -45.571 -1186 189 185 202
-72.4395 -45.5673 -1186 189 184 201
-70.1363 -45.602 -1187 188 184 201
-67.8868 -45.6754 -1189 184 180 197
-65.5196 -45.6718 -1189 182 178 194
-63.1531 -45.6685 -1189 173 169 184
-60.8892 -45.7421 -1191 165 163 182
-58.5688 -45.7775 -1192 160 158 179
-56.2919 -45.8514 -1194 151 149 171
-54.0527 -45.9637 -1197 144 144 166
-51.8021 -46.0762 -1200 144 144 166
-49.6223 -46.2656 -1205 143 143 165
-47.4229 -46.4551 -1210 142 144 166
-45.3157 -46.7598 -1218 138 140 163
-43.1419 -47.0263 -1225 132 134 157
-40.9738 -47.3311 -1233 131 133 156
-38.7118 -47.5594 -1239 128 130 153
-36.3677 -47.711 -1243 126 128 151
-34.008 -47.8627 -1247 126 128 151
-31.6074 -47.9762 -1250 126 128 151
-29.1718 -48.0514 -1252 127 129 151
-26.7073 -48.0884 -1253 131 133 156
-24.2583 -48.1638 -1255 136 138 161
-21.8189 -48.2778 -1258 138 140 162
-19.3831 -48.4302 -1262 138 140 161
-16.9048 -48.506 -1264 138 140 161
-14.396 -48.5052 -1264 138 140 161
-11.8967 -48.5429 -1265 139 141 162
-9.37866 -48.504 -1264 142 144 165
-6.87011 -48.5036 -1264 141 143 164
-4.36851 -48.5801 -1266 143 144 165
-1.86047 -48.695 -1269 145 146 166
0.658418 -48.7334 -1270 146 147 167
3.18379 -48.8102 -1272 142 143 163
5.7261 -48.9639 -1276 138 139 159
8.2908 -49.1562 -1281 136 136 157
10.9431 -49.6555 -1294 130 130 151
-226.864 -50.288 -1232 207 204 212
-222.15 -49.7858 -1220 204 200 208
-217.848 -49.3657 -1210 203 198 207
-214.656 -49.1904 -1206 206 201 210
-211.13 -48.934 -1200 210 205 213
-208.153 -48.8002 -1197 213 208 216
-204.33 -48.4627 -1189 216 211 219
-200.881 -48.207 -1183 214 210 217
-197.458 -47.9515 -1177 211 207 212
-194.559 -47.8185 -1174 205 201 206
-191.674 -47.6856 -1171 200 195 202
-189.287 -47.6752 -1171 196 191 198
-187.062 -47.7055 -1172 188 184 191
-184.834 -47.736 -1173 186 181 188
-182.448 -47.7258 -1173 184 179 186
-180.063 -47.7159 -1173 180 173 181
-177.983 -47.7874 -1175 177 170 178
-175.597 -47.7777 -1175 177 170 178
-173.36 -47.8088 -1176 177 172 180
-171.121 -47.84 -1177 180 174 183
-168.592 -47.79 -1176 180 173 182
-166.069 -47.7402 -1175 180 173 183
-163.69 -47.7311 -1175 181 174 184
-161.45 -47.7629 -1176 177 170 180
-159.342 -47.8353 -1178 169 161 172
-157.228 -47.9079 -1180 164 157 169
-155.107 -47.9805 -1182 163 156 166
-152.721 -47.9721 -1182 159 152 162
-150.717 -48.0855 -1185 155 148 155
-148.453 -48.1179 -1186 155 147 155
-146.431 -48.2316 -1189 157 148 158
-144.036 -48.2237 -1189 155 147 153
-141.88 -48.2969 -1191 155 148 153
-139.6 -48.3298 -1192 161 153 157
-136.971 -48.2411 -1190 166 158 163
-134.579 -48.2337 -1190 168 160 167
-132.187 -48.2265 -1190 165 158 164
-129.36 -48.0574 -1186 199 192 198
-126.657 -47.9288 -1183 232 225 231
-123.967 -47.8004 -1180 236 229 235
-121.084 -47.5912 -1175 226 219 225
-118.424 -47.4631 -1172 228 221 229
-115.778 -47.3354 -1169 229 222 230
-113.241 -47.2481 -1167 221 214 222
-110.808 -47.2015 -1166 214 209 218
-108.473 -47.1956 -1166 205 200 210
-106.048 -47.1492 -1165 190 185 200
-103.806 -47.1841 -1166 176 172 188
-101.561 -47.2189 -1167 163 159 180
-99.5674 -47.3753 -1171 160 155 176
-97.4759 -47.4912 -1174 157 151 173
-95.4541 -47.6479 -1178 150 146 167
-93.1801 -47.6832 -1179 154 150 171
-90.9027 -47.7186 -1180 158 154 175
-88.4721 -47.6733 -1179 161 156 178
-86.2653 -47.7495 -1181 161 156 178
-84.0512 -47.8257 -1183 161 156 180
-81.7608 -47.8616 -1184 169 164 187
-79.467 -47.8977 -1185 187 181 203
-77.1698 -47.9339 -1186 189 185 203
-74.8063 -47.9297 -1186 191 187 204
-72.5043 -47.9661 -1187 192 187 204
-70.1991 -48.0027 -1188 191 187 204
-67.8333 -47.999 -1188 186 182 199
-65.4129 -47.955 -1187 184 180 195
-63.1033 -47.9919 -1188 175 171 187
-60.7901 -48.0289 -1189 165 163 182
-58.5227 -48.1065 -1191 160 158 178
-56.2478 -48.1841 -1193 150 148 170
-54.0104 -48.3023 -1196 144 144 166
-51.848 -48.5014 -1201 143 143 165
-49.5837 -48.6198 -1204 142 142 164
-47.4254 -48.8595 -1210 140 142 164
-45.2437 -49.0993 -1216 133 135 158
-43.0737 -49.3796 -1223 133 135 158
-40.8763 -49.6599 -1230 134 136 160
-38.6513 -49.9402 -1237 128 130 154
-36.3111 -50.0997 -1241 127 129 152
-33.9826 -50.2997 -1246 125 127 150
-31.5838 -50.419 -1249 124 126 149
-29.1734 -50.5385 -1252 126 128 151
-26.666 -50.4966 -1251 131 133 156
-24.2209 -50.5759 -1253 135 137 160
-21.7853 -50.6958 -1256 138 140 163
-19.338 -50.8158 -1259 139 141 163
-16.8656 -50.8955 -1261 138 140 161
-14.3854 -50.9754 -1263 138 140 161
-11.8879 -51.0151 -1264 141 143 164
-9.37915 -51.0145 -1264 142 144 165
-6.8759 -51.0544 -1265 141 143 164
-4.37564 -51.1752 -1268 142 144 164
-1.8635 -51.2961 -1271 145 146 166
0.658974 -51.2961 -1271 147 148 168
3.18646 -51.3769 -1273 141 142 162
5.7264 -51.4982 -1276 137 138 158
8.28476 -51.66 -1280 137 138 159
10.9267 -52.1449 -1292 131 131 153
14.0028 -54.1232 -1341 127 125 146
-227.061 -52.806 -1233 205 202 210
-222.345 -52.2791 -1221 202 198 206
-217.86 -51.7954 -1210 202 197 206
-215.024 -51.6973 -1208 204 199 208
-211.67 -51.4709 -1203 208 203 211
-208.512 -51.2876 -1199 212 207 215
-204.513 -50.8908 -1190 216 211 219
-201.062 -50.6225 -1184 215 210 218
-197.302 -50.269 -1176 212 208 213
-194.57 -50.1722 -1174 204 200 205
-191.685 -50.0328 -1171 199 194 202
-189.459 -50.0645 -1172 194 189 197
-187.232 -50.0962 -1173 186 181 189
-185.002 -50.1283 -1174 182 176 184
-182.613 -50.1176 -1174 180 174 182
-180.227 -50.1072 -1174 179 172 180
-177.841 -50.0969 -1174 175 168 176
-175.607 -50.1293 -1175 173 166 174
-173.223 -50.1193 -1175 174 168 176
-170.985 -50.152 -1176 177 171 179
-168.458 -50.0996 -1175 180 173 182
-166.078 -50.09 -1175 180 172 183
-163.838 -50.1231 -1176 182 174 186
-161.734 -50.1991 -1178 178 170 179
-159.622 -50.275 -1180 170 162 172
-157.503 -50.351 -1182 165 157 169
-155.378 -50.4273 -1184 163 156 165
-153.117 -50.461 -1185 159 152 161
-150.98 -50.5375 -1187 155 148 154
-148.711 -50.5714 -1188 154 147 154
-146.686 -50.6906 -1191 155 147 155
-144.286 -50.6823 -1191 154 147 152
-142.007 -50.7167 -1192 158 151 155
-139.608 -50.7087 -1192 162 154 158
-137.094 -50.6582 -1191 165 157 162
-134.699 -50.6503 -1191 168 160 166
-132.083 -50.5576 -1189 174 167 173
-129.367 -50.4227 -1186 215 208 214
-126.664 -50.2879 -1183 236 229 235
-123.974 -50.1532 -1180 232 225 231
-121.091 -49.9336 -1175 222 215 221
-118.532 -49.8418 -1173 227 220 227
-115.883 -49.7076 -1170 226 219 226
-113.344 -49.6162 -1168 220 213 221
-110.719 -49.4823 -1165 214 208 218
-108.386 -49.476 -1165 202 197 208
-105.963 -49.4275 -1164 185 180 196
-103.723 -49.4639 -1165 172 167 184
-101.479 -49.5006 -1166 160 156 177
-99.573 -49.707 -1171 156 151 172
-97.4813 -49.8288 -1174 155 149 171
-95.3784 -49.9506 -1177 152 148 169
-93.1853 -50.0301 -1179 154 150 171
-90.9078 -50.0674 -1180 158 154 175
-88.5521 -50.0622 -1180 162 158 179
-86.3432 -50.1421 -1182 162 158 179
-84.0559 -50.1797 -1183 165 160 182
-81.7653 -50.2173 -1184 174 168 191
-79.4714 -50.2552 -1185 189 183 205
-77.1742 -50.2932 -1186 191 185 203
-74.8104 -50.2889 -1186 192 187 204
-72.5084 -50.327 -1187 192 187 204
-70.1439 -50.3229 -1187 191 186 203
-67.78 -50.319 -1187 187 182 199
-65.4165 -50.3153 -1187 185 181 196
-63.0536 -50.3117 -1187 178 174 189
-60.7424 -50.3506 -1188 167 165 184
-58.4768 -50.4318 -1190 159 157 178
-56.2037 -50.5133 -1192 151 150 172
-53.9682 -50.6373 -1195 147 147 169
-51.7213 -50.7615 -1198 148 148 170
-49.5452 -50.9705 -1203 144 144 166
-47.3104 -51.1372 -1207 141 142 165
-45.2834 -51.5583 -1217 134 135 159
-43.1113 -51.8523 -1224 130 132 155
-40.9118 -52.1465 -1231 129 131 154
-38.6847 -52.4407 -1238 128 129 155
-36.3424 -52.6081 -1242 129 131 155
-33.9299 -52.6908 -1244 126 128 151
-31.5603 -52.8582 -1248 122 124 147
-29.1517 -52.9836 -1251 124 126 149
-26.6462 -52.9396 -1250 131 133 156
-24.2416 -53.1076 -1254 134 136 159
-21.7865 -53.191 -1256 139 141 164
-19.3545 -53.3592 -1260 140 142 165
-16.8799 -53.4429 -1262 139 141 163
-14.3862 -53.4844 -1263 138 140 161
-11.8886 -53.526 -1264 142 144 165
-9.38709 -53.5677 -1265 142 144 165
-6.88171 -53.6096 -1266 142 144 165
-4.37588 -53.694 -1268 143 144 165
-1.8636 -53.8208 -1271 146 147 167
0.659013 -53.8208 -1271 147 148 168
3.18414 -53.8633 -1272 141 142 162
5.72223 -53.9906 -1275 137 138 158
8.28523 -54.2027 -1280 136 136 157
10.902 -54.5844 -1289 129 129 151
-248.043 -59.7376 -1332 211 208 218
-226.522 -55.1493 -1230 205 202 210
-222.358 -54.732 -1221 202 198 206
-218.233 -54.3154 -1212 203 198 207
-215.571 -54.2574 -1211 204 199 207
-212.034 -53.9756 -1205 207 202 210
-209.046 -53.8285 -1202 212 207 215
-204.697 -53.3233 -1191 215 210 218
-201.244 -53.0424 -1185 215 210 218
-197.649 -52.7171 -1178 212 208 213
-194.913 -52.6156 -1176 202 198 203
-192.351 -52.5591 -1175 197 192 200
-189.794 -52.5028 -1174 191 186 194
-187.562 -52.5363 -1175 185 180 188
-185.328 -52.5697 -1176 181 174 182
-182.935 -52.5585 -1176 178 171 179
-180.544 -52.5476 -1176 173 166 174
-178.306 -52.5815 -1177 170 163 171
-175.916 -52.5707 -1177 168 161 169
-173.38 -52.5155 -1176 167 160 166
-171.286 -52.5945 -1178 173 166 173
-168.755 -52.5396 -1177 178 171 180
-166.37 -52.5295 -1177 178 169 180
-164.127 -52.5642 -1178 175 166 178
-161.88 -52.599 -1179 173 165 173
-159.767 -52.6785 -1181 168 159 169
-157.646 -52.7581 -1183 165 156 168
-155.387 -52.7934 -1184 165 158 167
-153.255 -52.8732 -1186 162 155 164
-151.243 -52.9979 -1189 156 149 155
-149.096 -53.0779 -1191 154 147 154
-146.818 -53.1136 -1192 156 148 156
-144.416 -53.1048 -1192 156 149 153
-142.134 -53.1408 -1193 161 154 158
-139.616 -53.0878 -1192 164 156 160
-137.217 -53.0796 -1192 166 158 163
-134.707 -53.0269 -1191 171 163 169
-131.98 -52.8853 -1188 183 176 182
-129.156 -52.6995 -1184 226 219 225
-126.35 -52.5138 -1180 229 222 228
-123.666 -52.3728 -1177 224 217 223
-120.892 -52.1875 -1173 217 210 218
-118.438 -52.1358 -1172 226 219 225
-115.791 -51.9953 -1169 223 216 223
-113.351 -51.9441 -1168 218 211 219
-110.726 -51.804 -1165 210 205 214
-108.392 -51.7974 -1165 199 194 205
-105.969 -51.7466 -1164 184 179 196
-103.818 -51.8292 -1166 172 167 185
-101.572 -51.8676 -1167 162 158 179
-99.5788 -52.0393 -1171 156 151 171
-97.4039 -52.1222 -1173 155 149 169
-95.3029 -52.2498 -1176 156 152 173
-93.1117 -52.3331 -1178 157 153 174
-90.9901 -52.4608 -1181 158 154 175
-88.5572 -52.4111 -1180 161 157 178
-86.3481 -52.4946 -1182 163 159 180
-84.0608 -52.534 -1183 164 160 181
-81.701 -52.5291 -1183 175 170 191
-79.4089 -52.5686 -1184 189 183 205
-77.1135 -52.6084 -1185 191 186 204
-74.8148 -52.6483 -1186 190 185 202
-72.5126 -52.6883 -1187 186 181 198
-70.207 -52.7284 -1188 185 180 197
-67.841 -52.7243 -1188 187 182 199
-65.4754 -52.7203 -1188 186 181 196
-63.0573 -52.6722 -1187 180 175 191
-60.7459 -52.7129 -1188 169 167 186
-58.4802 -52.7981 -1190 159 158 178
-56.207 -52.8833 -1192 153 153 175
-53.9714 -53.0131 -1195 150 150 172
-51.7244 -53.1431 -1198 151 151 173
-49.5069 -53.3175 -1202 144 144 166
-47.3132 -53.5365 -1207 139 139 163
-45.1744 -53.8442 -1214 135 135 159
-43.0434 -54.1964 -1222 131 133 156
-40.9141 -54.5931 -1231 129 131 155
-38.6869 -54.9012 -1238 127 128 154
-36.3445 -55.0763 -1242 128 130 154
-33.9318 -55.1629 -1244 126 128 151
-31.5368 -55.294 -1247 125 127 150
-29.1301 -55.4252 -1250 126 128 151
-26.6477 -55.4236 -1250 130 132 155
-24.2236 -55.555 -1253 135 137 160
-21.7704 -55.6423 -1255 139 141 164
-19.3402 -55.8184 -1259 142 144 167
-16.8675 -55.906 -1261 142 144 166
-14.3756 -55.9494 -1262 138 140 161
-11.8987 -56.0816 -1265 139 141 162
-9.40247 -56.1697 -1267 141 143 164
-6.89298 -56.2135 -1268 142 144 165
-4.38303 -56.3019 -1270 143 145 165
-1.86664 -56.4347 -1273 146 147 167
0.659573 -56.3903 -1272 146 147 167
3.19183 -56.5234 -1275 143 144 164
5.72256 -56.5237 -1275 138 139 159
8.27923 -56.7014 -1279 135 135 156
10.9111 -57.1897 -1290 128 128 149
13.9208 -59.0968 -1333 126 124 146
-227.641 -57.9024 -1236 207 202 211
-222.736 -57.2792 -1223 203 198 207
-218.787 -56.8905 -1215 204 199 207
-215.94 -56.7831 -1213 206 201 209
-212.4 -56.4887 -1207 208 203 211
-209.581 -56.3817 -1205 213 208 217
-205.741 -55.9942 -1197 215 210 219
-201.596 -55.5136 -1187 215 210 218
-197.997 -55.1737 -1180 210 206 211
-195.257 -55.0676 -1178 199 195 200
-192.363 -54.9151 -1175 197 192 200
-189.967 -54.9031 -1175 189 184 192
-187.733 -54.9379 -1176 183 178 186
-185.497 -54.9728 -1177 179 172 180
-183.102 -54.9612 -1177 173 166 174
-180.863 -54.9964 -1178 166 159 167
-178.317 -54.9383 -1177 160 153 161
-176.077 -54.9739 -1178 161 154 162
-173.391 -54.8696 -1176 164 157 163
-171.151 -54.9053 -1177 171 164 171
-168.622 -54.848 -1176 180 172 181
-166.522 -54.9307 -1178 181 172 183
-164.276 -54.9669 -1179 177 168 180
-161.753 -54.9101 -1178 166 158 165
-159.776 -55.0398 -1181 165 156 165
-157.656 -55.123 -1183 165 156 167
-155.528 -55.2064 -1185 166 158 168
-153.523 -55.3364 -1188 163 156 165
-151.634 -55.5131 -1192 156 149 155
-149.355 -55.5503 -1193 154 147 153
-147.073 -55.5874 -1194 156 148 156
-144.546 -55.5318 -1193 159 151 155
-142.143 -55.5229 -1193 162 154 157
-139.624 -55.4674 -1192 164 156 160
-137.226 -55.4588 -1192 167 159 163
-134.715 -55.4037 -1191 173 165 171
-131.988 -55.2559 -1188 200 193 199
-129.164 -55.0617 -1184 232 225 231
-126.358 -54.8677 -1180 226 219 225
-123.778 -54.7669 -1178 224 217 224
-120.899 -54.5268 -1173 218 211 219
-118.445 -54.4728 -1172 227 220 226
-115.798 -54.326 -1169 225 218 224
-113.358 -54.2723 -1168 218 211 219
-110.732 -54.1261 -1165 207 201 211
-108.399 -54.1192 -1165 196 191 202
-106.067 -54.1124 -1165 183 178 195
-103.824 -54.1524 -1166 170 166 183
-101.666 -54.2388 -1168 159 155 176
-99.6699 -54.4184 -1172 156 150 171
-97.4929 -54.505 -1174 154 148 168
-95.3087 -54.5919 -1176 155 151 172
-93.1173 -54.6788 -1178 156 152 173
-90.9186 -54.766 -1180 155 151 172
-88.5626 -54.7603 -1180 158 154 175
-86.2804 -54.8013 -1181 162 158 179
-83.9948 -54.8423 -1182 169 164 186
-81.6369 -54.8372 -1182 181 176 197
-79.3467 -54.8787 -1183 191 185 206
-77.0532 -54.9201 -1184 190 184 202
-74.7563 -54.9618 -1185 189 184 201
-72.456 -55.0036 -1186 187 182 199
-70.1522 -55.0456 -1187 187 181 199
-67.788 -55.0412 -1187 188 181 199
-65.4243 -55.0371 -1187 186 181 196
-63.0611 -55.0331 -1187 182 177 192
-60.6985 -55.0293 -1187 171 169 187
-58.4346 -55.1183 -1189 160 159 179
-56.1632 -55.2075 -1191 153 153 175
-53.8843 -55.2968 -1193 153 153 175
-51.6411 -55.4325 -1196 151 151 173
-49.4275 -55.6147 -1200 140 140 162
-47.1593 -55.7508 -1203 137 137 160
-45.14 -56.2113 -1213 136 136 160
-43.0813 -56.672 -1223 134 136 159
-40.9166 -57.0401 -1231 131 132 156
-38.6893 -57.362 -1238 127 128 154
-36.3759 -57.5913 -1243 125 127 151
-33.9339 -57.6355 -1244 127 129 152
-31.5387 -57.7725 -1247 128 130 153
-29.1319 -57.9096 -1250 129 131 154
-26.6707 -57.9542 -1251 129 131 154
-24.2638 -58.1378 -1255 134 136 159
-21.7891 -58.1827 -1256 138 140 163
-19.3414 -58.3204 -1259 142 144 167
-16.8552 -58.3656 -1260 142 144 166
-14.3765 -58.4573 -1262 139 141 162
-11.89 -58.5491 -1264 139 141 162
-9.39561 -58.6411 -1266 141 143 164
-6.8934 -58.7332 -1268 144 146 167
-4.38329 -58.8255 -1270 145 147 167
-1.86675 -58.9643 -1273 147 148 168
0.659616 -58.9179 -1272 146 147 167
3.19203 -59.057 -1275 143 144 164
5.72291 -59.0573 -1275 141 142 162
8.27974 -59.243 -1279 139 140 160
10.8863 -59.6142 -1287 130 131 151
13.6084 -60.356 -1303 127 128 148
-227.288 -60.2894 -1234 208 203 211
-222.933 -59.7859 -1224 203 198 206
-219.161 -59.4294 -1217 205 200 208
-216.488 -59.3662 -1216 208 203 211
-213.469 -59.2055 -1213 210 205 213
-210.116 -58.9475 -1208 215 210 219
-206.27 -58.5433 -1200 216 211 220
-202.289 -58.0908 -1191 216 211 219
-198.681 -57.7362 -1184 209 205 211
-195.601 -57.5281 -1180 198 194 199
-192.703 -57.3691 -1177 195 190 198
-190.303 -57.3565 -1177 188 183 191
-187.905 -57.344 -1177 180 175 183
-185.824 -57.4291 -1179 170 163 171
-183.425 -57.417 -1179 163 157 165
-181.335 -57.5023 -1181 163 156 164
-178.632 -57.3932 -1179 161 154 162
-176.536 -57.4788 -1181 162 155 163
-173.844 -57.3699 -1179 166 159 165
-171.453 -57.3586 -1179 172 164 171
-169.063 -57.3475 -1179 177 168 178
-166.815 -57.385 -1180 177 168 180
-164.565 -57.4227 -1181 172 163 175
-162.175 -57.412 -1181 165 157 163
-159.922 -57.4501 -1182 164 156 163
-157.799 -57.5369 -1184 164 155 165
-155.669 -57.6239 -1186 164 156 165
-153.662 -57.7595 -1189 161 154 163
-151.771 -57.9437 -1193 156 149 155
-149.49 -57.9825 -1194 152 145 152
-147.206 -58.0213 -1195 153 145 153
-144.676 -57.9631 -1194 157 149 153
-142.271 -57.9538 -1194 159 151 153
-139.633 -57.8476 -1192 164 156 158
-137.235 -57.8384 -1192 167 159 163
-134.724 -57.7811 -1191 178 170 176
-131.996 -57.6268 -1188 211 204 210
-129.172 -57.4243 -1184 232 225 231
-126.366 -57.222 -1180 229 222 228
-123.681 -57.0684 -1177 227 220 227
-120.907 -56.8665 -1173 218 211 219
-118.453 -56.8102 -1172 225 218 224
-115.805 -56.6571 -1169 225 218 224
-113.462 -56.6496 -1169 218 211 219
-110.93 -56.5454 -1167 207 201 211
-108.592 -56.5383 -1167 196 191 202
-106.165 -56.4828 -1166 183 178 195
-104.009 -56.5728 -1168 171 166 184
-101.759 -56.6147 -1169 160 156 177
-99.6763 -56.7533 -1172 158 152 173
-97.4991 -56.8438 -1174 156 150 170
-95.3148 -56.9343 -1176 155 151 172
-93.1233 -57.0251 -1178 156 152 173
-90.9244 -57.1159 -1180 158 154 175
-88.5683 -57.1101 -1180 160 156 177
-86.2859 -57.1527 -1181 163 159 180
-84.0002 -57.1956 -1182 169 164 187
-81.6421 -57.1902 -1182 184 179 201
-79.3518 -57.2334 -1183 193 187 207
-77.058 -57.2767 -1184 191 186 203
-74.8241 -57.3686 -1186 190 184 201
-72.5216 -57.4121 -1187 187 181 198
-70.2158 -57.4558 -1188 186 180 198
-67.7923 -57.403 -1187 187 179 197
-65.4285 -57.3987 -1187 185 180 195
-63.0651 -57.3945 -1187 183 179 194
-60.8046 -57.4872 -1189 171 169 186
-58.4874 -57.5317 -1190 161 159 179
