ply
format ascii 1.0
comment Created by Open3D
element vertex 1471
property double x
property double y
property double z
property uchar red
property uchar green
property uchar blue
end_header
15.09 -765.641 -1670 38 41 38
18.6525 -766.569 -1672 38 41 38
22.2106 -767.041 -1673 37 40 37
25.7422 -766.598 -1672 37 40 37
29.3401 -767.992 -1675 37 40 37
32.8722 -767.554 -1674 37 40 36
36.5528 -770.328 -1680 38 41 36
40.2352 -772.646 -1685 37 40 37
44.0172 -776.342 -1693 38 39 37
47.7774 -779.123 -1699 37 37 35
51.5029 -780.99 -1703 33 36 33
55.1487 -781.483 -1704 33 36 33
58.7993 -781.98 -1705 34 37 34
62.6743 -785.23 -1712 36 39 36
66.541 -788.024 -1718 37 40 37
70.4337 -790.821 -1724 36 38 36
74.3523 -793.621 -1730 37 37 37
78.3877 -797.341 -1738 36 39 36
82.3157 -799.688 -1743 36 39 36
86.266 -802.037 -1748 36 39 36
90.3412 -805.307 -1755 39 39 39
94.2859 -807.203 -1759 38 38 38
98.4161 -810.479 -1766 36 38 37
102.866 -816.052 -1778 36 39 35
-295.725 -826.561 -1777 52 55 57
-289.059 -818.46 -1760 39 41 41
-283.119 -812.224 -1747 36 39 36
-278.357 -809.247 -1741 38 41 38
-274.096 -807.668 -1738 38 41 38
-270.318 -807.487 -1738 36 39 36
-265.929 -805.45 -1734 33 37 35
-262.316 -805.738 -1735 32 36 35
-257.807 -803.243 -1730 32 36 35
-253.175 -800.287 -1724 30 34 33
-248.282 -796.407 -1716 28 32 31
-243.141 -791.603 -1706 29 33 32
-237.344 -784.483 -1691 31 35 34
-232.443 -780.153 -1682 35 39 38
-227.991 -777.217 -1676 35 39 40
-223.836 -775.212 -1672 37 41 40
-220.094 -774.601 -1671 40 44 43
-216.229 -773.529 -1669 41 45 44
-212.121 -771.533 -1665 41 44 44
-207.906 -769.077 -1660 44 46 46
-204.453 -769.403 -1661 45 48 45
-200.393 -767.416 -1657 45 48 45
-196.827 -767.284 -1657 44 47 44
-193.497 -768.081 -1659 43 46 43
-190.159 -768.88 -1661 41 43 42
-186.478 -768.292 -1660 40 42 42
-183.353 -770.021 -1664 39 42 39
-179.782 -769.901 -1664 39 41 40
-176.211 -769.783 -1664 38 40 40
-172.539 -769.205 -1663 38 40 40
-168.974 -769.092 -1663 38 40 39
-165.211 -768.057 -1661 36 39 36
-161.751 -768.411 -1662 35 38 35
-158.002 -767.38 -1660 36 38 35
-154.543 -767.739 -1661 36 36 34
-150.899 -767.176 -1660 33 36 33
-147.349 -767.077 -1660 33 37 34
-144.234 -769.291 -1665 32 36 33
-140.591 -768.736 -1664 32 36 33
-137.202 -769.568 -1666 35 39 36
-134.126 -772.25 -1672 37 41 38
-130.947 -774.471 -1677 35 38 35
-127.976 -778.08 -1685 33 35 32
-125.342 -783.999 -1698 31 31 29
-122.581 -789.458 -1710 29 32 29
-119.701 -794.456 -1721 27 29 27
-116.437 -797.148 -1727 25 25 25
-113.411 -801.688 -1737 25 25 25
-110.027 -803.922 -1742 26 26 26
-107.05 -809.388 -1754 24 24 24
-103.61 -811.625 -1759 23 23 23
-100.491 -816.634 -1770 16 16 16
-96.8892 -817.953 -1773 12 12 12
-93.1699 -818.352 -1774 13 13 13
-89.2963 -817.369 -1772 12 12 12
-85.3354 -815.467 -1768 14 14 14
-81.2999 -812.644 -1762 17 17 17
-77.0707 -807.519 -1751 21 21 21
-72.7632 -801.013 -1737 23 23 23
-68.5556 -794.972 -1724 24 24 24
-64.5546 -790.778 -1715 25 25 25
-60.7698 -788.893 -1711 28 28 28
-56.9692 -786.549 -1706 28 28 28
-53.3155 -786.052 -1705 27 27 27
-49.5791 -784.174 -1701 27 27 27
-45.8601 -782.298 -1697 28 30 30
-42.1336 -779.965 -1692 31 33 33
-38.5198 -779.477 -1691 31 33 33
-34.8693 -778.07 -1688 32 34 34
-31.1762 -775.283 -1682 32 35 34
-27.5746 -774.342 -1680 33 37 36
-23.9817 -773.403 -1678 36 40 39
-20.3609 -771.084 -1673 37 40 40
-16.8017 -770.611 -1672 35 37 37
-13.247 -770.14 -1671 37 39 41
-9.685 -768.75 -1668 38 40 40
-6.14328 -768.284 -1667 36 38 38
-2.60564 -767.821 -1666 37 39 39
0.927534 -767.359 -1665 38 40 40
4.46183 -767.822 -1666 38 40 40
8.00061 -768.287 -1667 39 40 40
11.5366 -768.293 -1667 39 40 39
15.0909 -769.224 -1669 37 39 37
18.665 -770.618 -1672 37 40 36
22.2252 -771.092 -1673 37 40 37
25.7746 -771.108 -1673 37 40 37
29.3594 -772.048 -1675 40 43 40
32.9331 -772.53 -1676 38 41 38
36.5769 -774.396 -1680 39 42 38
40.2615 -776.726 -1685 38 41 38
43.9681 -779.059 -1690 37 38 36
47.7242 -781.855 -1696 35 37 35
51.5366 -785.115 -1703 35 38 35
55.1848 -785.611 -1704 34 37 32
58.9414 -787.493 -1708 33 36 32
62.7154 -789.377 -1712 34 37 33
66.5847 -792.187 -1718 36 39 36
70.3572 -793.615 -1721 36 39 36
74.4874 -798.735 -1732 36 38 36
78.394 -801.092 -1737 37 40 37
82.37 -803.912 -1743 38 41 38
86.2733 -805.813 -1747 37 40 37
90.349 -809.1 -1754 35 38 35
94.1872 -810.083 -1756 37 38 36
98.2577 -812.915 -1762 39 39 37
102.818 -819.44 -1776 36 40 37
-295.923 -830.921 -1777 52 54 57
-288.924 -821.842 -1758 39 41 41
-283.146 -816.04 -1746 35 38 35
-278.383 -813.048 -1740 38 41 38
-274.595 -812.862 -1740 38 41 38
-270.344 -811.278 -1737 37 40 37
-266.261 -810.164 -1735 36 39 37
-262.189 -809.053 -1733 35 39 38
-257.83 -807.012 -1729 32 36 35
-253.197 -804.04 -1723 31 35 34
-248.593 -801.072 -1717 30 34 33
-243.589 -796.709 -1708 29 33 32
-237.924 -790.018 -1694 31 35 34
-232.875 -785.198 -1684 35 39 38
-228.416 -782.246 -1678 34 38 39
-224.253 -780.23 -1674 34 38 38
-220.241 -778.683 -1671 38 42 41
-216.244 -777.14 -1668 39 43 42
-212.389 -776.065 -1666 41 44 43
-208.295 -774.061 -1662 43 45 45
-204.343 -772.526 -1659 46 46 44
-200.768 -772.391 -1659 45 46 44
-197.196 -772.259 -1659 44 47 44
-193.625 -772.128 -1659 42 45 42
-190.4 -773.396 -1662 41 43 41
-186.714 -772.805 -1661 38 40 40
-183.365 -773.613 -1663 37 40 37
-179.901 -773.957 -1664 38 40 39
-176.434 -774.303 -1665 38 40 40
-172.653 -773.257 -1663 37 39 39
-168.984 -772.678 -1662 34 37 35
-165.42 -772.567 -1662 33 36 33
-161.761 -771.993 -1661 33 36 33
-158.202 -771.887 -1661 36 38 35
-154.738 -772.248 -1662 38 38 36
-151.18 -772.146 -1662 34 37 34
-147.447 -771.118 -1660 33 36 33
-144.069 -771.95 -1662 33 37 34
-140.684 -772.784 -1664 33 37 34
-137.293 -773.621 -1666 33 37 34
-134.134 -775.852 -1671 35 39 36
-131.19 -779.478 -1679 35 38 35
-127.909 -781.25 -1683 34 36 33
-125.351 -787.664 -1697 32 32 30
-122.447 -792.223 -1707 28 31 28
-119.501 -796.783 -1717 27 28 27
-116.447 -800.881 -1726 27 27 27
-113.486 -805.909 -1737 26 26 26
-110.352 -810.01 -1746 27 27 27
-107.304 -815.041 -1757 27 27 27
-103.974 -818.218 -1764 25 25 25
-100.614 -821.397 -1771 17 17 17
-96.9531 -822.259 -1773 13 13 13
-93.2315 -822.66 -1774 12 12 12
-89.3552 -821.672 -1772 14 14 14
-85.4399 -820.223 -1769 14 14 14
-81.3997 -817.386 -1763 18 18 18
-77.2096 -812.698 -1753 21 21 21
-72.8951 -806.158 -1739 23 23 23
-68.6407 -799.621 -1725 26 26 26
-64.6724 -795.869 -1717 27 27 27
-60.9521 -794.9 -1715 28 28 28
-57.0068 -790.69 -1706 28 28 28
-53.3194 -789.726 -1704 27 27 27
-49.5243 -786.912 -1698 25 26 26
-45.8362 -785.49 -1695 26 28 28
-42.1115 -783.144 -1690 28 31 30
-38.4768 -782.19 -1688 30 33 32
-34.8509 -781.239 -1686 29 33 32
-31.2153 -779.828 -1683 29 34 33
-27.5599 -777.491 -1678 29 35 34
-23.9545 -776.084 -1675 36 40 39
-20.3499 -774.217 -1671 38 42 41
-16.7927 -773.741 -1670 38 41 40
-13.2319 -772.804 -1668 39 41 42
-9.67965 -771.87 -1666 39 41 41
-6.13614 -770.939 -1664 38 40 40
-2.6043 -770.936 -1664 37 39 39
0.927183 -770.472 -1663 38 40 40
4.45957 -770.937 -1664 37 39 39
8.00104 -771.868 -1666 39 41 41
11.5374 -771.874 -1666 39 41 41
15.0918 -772.81 -1668 37 39 39
18.6438 -773.284 -1669 37 40 35
22.2135 -774.224 -1671 37 40 37
25.8226 -776.094 -1675 38 41 38
29.3788 -776.112 -1675 37 40 37
32.9352 -776.133 -1675 37 40 37
36.5575 -777.546 -1678 37 40 37
40.1927 -778.961 -1681 37 40 37
43.9712 -782.697 -1689 38 41 38
47.6995 -785.044 -1694 37 40 37
51.5101 -788.321 -1701 35 38 35
55.1889 -789.283 -1703 33 36 32
59.0149 -792.102 -1709 31 35 30
62.7203 -793.069 -1711 33 37 32
66.6287 -796.357 -1718 35 38 35
70.5674 -799.647 -1725 35 38 35
74.6658 -804.331 -1735 34 37 34
78.5362 -806.236 -1739 37 40 37
82.4245 -808.144 -1743 39 42 39
86.3304 -810.055 -1747 37 40 37
90.3057 -812.432 -1752 36 39 36
94.1959 -813.885 -1755 37 38 36
98.4344 -818.122 -1764 37 37 35
102.944 -824.219 -1777 36 40 37
108.23 -835.885 -1802 37 41 39
-289.448 -827.102 -1760 39 41 41
-283.986 -822.21 -1750 35 37 36
-279.531 -820.14 -1746 37 39 37
-275.412 -819.013 -1744 38 41 37
-271.148 -817.42 -1741 37 40 37
-267.054 -816.3 -1739 37 40 38
-262.668 -814.244 -1735 36 40 38
-258.302 -812.191 -1731 34 36 37
-253.956 -810.142 -1727 33 35 35
-249.195 -806.689 -1720 33 36 34
-244.181 -802.302 -1711 31 35 34
-238.646 -796.045 -1698 31 35 35
-233.031 -789.323 -1684 31 36 36
-228.297 -785.419 -1676 32 36 36
-223.733 -781.986 -1669 36 40 40
-219.993 -781.369 -1668 36 41 40
-216.129 -780.285 -1666 38 42 41
-212.149 -778.737 -1663 41 44 44
-208.434 -778.127 -1662 43 45 45
-204.726 -777.521 -1661 45 46 44
-201.024 -776.916 -1660 44 47 44
-197.447 -776.782 -1660 45 48 45
-193.755 -776.183 -1659 44 47 44
-190.527 -777.458 -1662 42 44 42
-186.951 -777.331 -1662 40 42 40
-183.708 -778.61 -1665 36 39 36
-180.021 -778.021 -1664 38 40 38
-176.446 -777.902 -1664 37 39 38
-172.665 -776.85 -1662 38 39 37
-169.097 -776.736 -1662 36 38 36
-165.531 -776.623 -1662 35 38 35
-161.966 -776.514 -1662 32 35 32
-158.403 -776.407 -1662 34 36 34
-155.028 -777.236 -1664 36 38 35
-151.463 -777.134 -1664 33 39 35
-147.634 -775.633 -1661 32 37 33
-144.252 -776.469 -1663 31 35 32
-140.778 -776.841 -1664 30 34 31
-137.466 -778.148 -1667 32 36 33
-134.143 -779.458 -1670 34 38 35
-131.199 -783.103 -1678 33 36 33
-127.918 -784.883 -1682 34 37 34
-125.212 -790.398 -1694 33 35 32
-122.528 -796.381 -1707 27 30 27
-119.72 -801.898 -1719 28 30 27
-116.727 -806.484 -1729 28 28 27
-113.823 -812.004 -1741 27 27 27
-110.426 -814.262 -1746 26 26 26
-107.375 -819.319 -1757 26 26 26
-104.161 -823.445 -1766 24 22 23
-100.681 -825.708 -1771 17 15 16
-96.9081 -825.642 -1771 14 12 13
-93.2935 -826.977 -1774 15 13 13
-89.5155 -826.916 -1774 16 14 15
-85.545 -824.994 -1770 16 14 15
-81.5462 -822.608 -1765 17 17 17
-77.3931 -818.36 -1756 22 22 22
-73.1951 -813.184 -1745 25 25 25
-68.8853 -806.147 -1730 27 27 27
-64.7908 -800.977 -1719 27 27 28
-60.9925 -799.071 -1715 29 29 31
-57.2118 -797.168 -1711 29 29 29
-53.4486 -795.268 -1707 27 27 27
-49.703 -793.37 -1703 24 26 26
-46.0019 -791.941 -1700 25 27 27
-42.1892 -788.185 -1692 27 30 30
-38.5251 -786.76 -1689 28 32 31
-34.874 -785.338 -1686 27 33 32
-31.2174 -783.453 -1682 28 34 33
-27.5945 -782.037 -1679 31 36 35
-23.999 -781.088 -1677 36 40 39
-20.3878 -779.21 -1673 37 41 40
-16.824 -778.732 -1672 39 43 42
-13.2406 -776.859 -1668 41 43 43
-9.68034 -775.454 -1665 40 42 42
-6.14376 -775.449 -1665 39 41 41
-2.60588 -774.98 -1664 38 40 40
0.928292 -774.98 -1664 38 40 40
4.46247 -774.982 -1664 39 41 41
8.00171 -775.452 -1665 39 41 41
11.545 -775.924 -1666 40 42 42
15.0748 -775.467 -1665 40 42 42
18.6226 -775.944 -1666 38 41 36
22.2016 -777.355 -1669 39 42 38
25.7935 -778.768 -1672 38 41 38
29.3807 -779.718 -1674 37 40 37
32.9964 -781.136 -1677 37 40 37
36.5817 -781.625 -1678 36 39 36
40.2672 -783.98 -1683 35 38 35
43.9482 -785.872 -1687 36 39 36
47.675 -788.232 -1692 36 39 36
51.4837 -791.526 -1699 35 38 35
55.1933 -792.959 -1702 33 36 33
59.0196 -795.792 -1708 32 35 32
62.8722 -798.629 -1714 33 37 32
66.7118 -801.002 -1719 34 37 34
70.6143 -803.843 -1725 34 37 34
74.6292 -807.62 -1733 35 38 35
78.5432 -810.001 -1738 36 39 36
82.5265 -812.851 -1744 37 40 37
86.5361 -815.704 -1750 36 39 36
90.4689 -817.628 -1754 36 39 36
94.4733 -820.02 -1759 36 38 35
98.5556 -822.882 -1765 38 38 36
103.244 -830.409 -1781 36 40 37
108.242 -839.805 -1801 37 41 40
-296.323 -839.667 -1777 43 46 49
-289.808 -831.909 -1761 39 41 43
-284.178 -826.518 -1750 37 39 40
-279.72 -824.437 -1746 36 38 37
-275.914 -824.249 -1746 36 39 34
-271.644 -822.647 -1743 37 40 37
-267.542 -821.52 -1741 36 40 36
-263.149 -819.453 -1737 35 39 36
-259.223 -818.804 -1736 34 35 37
-254.716 -816.271 -1731 31 32 33
-249.943 -812.8 -1724 31 34 31
-244.631 -807.447 -1713 30 34 33
-238.385 -798.8 -1695 29 34 34
-232.634 -791.572 -1680 30 35 36
-228.178 -788.589 -1674 34 38 37
-223.749 -785.611 -1668 35 40 39
-220.009 -784.99 -1667 36 42 41
-216.015 -783.43 -1664 38 42 41
-212.419 -783.285 -1664 40 43 43
-208.7 -782.672 -1663 43 45 45
-204.987 -782.062 -1662 43 46 43
-201.038 -780.513 -1659 43 46 43
-197.58 -780.849 -1660 42 45 42
-194.002 -780.717 -1660 43 46 43
-190.656 -781.528 -1662 41 44 41
-187.19 -781.871 -1663 39 42 39
-183.721 -782.216 -1664 40 43 40
-180.142 -782.093 -1664 39 42 39
-176.564 -781.973 -1664 38 41 38
-172.884 -781.385 -1663 37 38 36
-169.414 -781.74 -1664 36 38 36
-165.941 -782.097 -1665 34 37 34
-162.27 -781.517 -1664 32 35 32
-158.891 -782.348 -1666 32 35 32
-155.132 -781.303 -1664 34 37 34
-151.656 -781.67 -1665 31 38 34
-147.733 -779.692 -1661 31 36 33
-144.435 -781.002 -1664 30 34 31
-140.957 -781.375 -1665 31 35 32
-137.558 -782.22 -1667 32 36 33
-134.313 -784.005 -1671 33 37 34
-131.209 -786.731 -1677 34 37 34
-128.156 -789.928 -1684 35 38 35
-125 -792.657 -1690 34 37 34
-122.107 -797.265 -1700 29 32 29
-119.591 -804.687 -1716 28 30 27
-116.4 -807.89 -1723 28 28 26
-113.637 -814.377 -1737 25 25 25
-110.563 -818.99 -1747 25 25 25
-107.569 -824.542 -1759 25 25 25
-104.171 -827.284 -1765 23 20 21
-100.692 -829.558 -1770 18 15 16
-96.9727 -829.961 -1771 16 13 14
-93.2505 -830.366 -1772 15 12 13
-89.3733 -829.368 -1770 17 14 15
-85.5054 -828.372 -1768 18 15 16
-81.5544 -826.442 -1764 17 17 17
-77.4006 -822.172 -1755 20 20 20
-73.2439 -817.437 -1745 24 24 24
-69.0507 -811.768 -1733 26 26 26
-64.9471 -806.571 -1722 28 28 29
-61.1399 -804.655 -1718 29 29 31
-57.3838 -803.211 -1715 29 29 29
-53.5469 -800.363 -1709 30 30 30
-49.7069 -797.051 -1702 31 31 31
-45.9513 -794.677 -1697 28 30 30
-42.1425 -790.902 -1689 30 33 32
-38.5051 -789.938 -1687 30 34 33
-34.8972 -789.445 -1686 27 33 32
-31.2754 -788.487 -1684 29 34 33
-27.6458 -787.063 -1681 30 34 33
-24.0292 -785.641 -1678 34 38 37
-20.4135 -783.753 -1674 37 41 40
-16.835 -782.804 -1672 37 41 40
-13.2414 -780.453 -1667 40 42 42
-9.69247 -779.978 -1666 39 41 41
-6.14054 -778.568 -1663 39 41 41
-2.60612 -778.565 -1663 39 41 41
0.927386 -777.628 -1661 39 41 41
4.4656 -779.035 -1664 39 41 41
8.00217 -779.039 -1664 39 41 41
11.539 -779.045 -1664 39 41 41
15.0939 -779.991 -1666 38 40 40
18.6575 -780.938 -1668 38 41 38
22.2165 -781.42 -1669 39 42 39
25.7797 -781.905 -1670 40 43 40
29.4181 -784.264 -1675 39 42 39
32.9989 -784.754 -1676 39 42 39
36.6499 -786.65 -1680 38 41 38
40.2462 -787.144 -1681 35 38 35
43.9517 -789.513 -1686 34 37 34
47.6785 -791.886 -1691 36 39 36
51.5486 -796.134 -1700 35 39 36
55.2626 -797.574 -1703 34 38 35
59.1283 -800.891 -1710 33 36 33
62.9508 -803.274 -1715 33 37 34
66.7953 -805.659 -1720 34 38 35
70.6206 -807.579 -1724 35 38 35
74.593 -810.907 -1731 35 38 35
78.5053 -813.301 -1736 35 38 35
82.4397 -815.697 -1741 35 38 35
86.2971 -817.159 -1744 36 39 36
90.323 -820.03 -1750 37 40 37
94.2678 -821.967 -1754 39 40 38
98.6774 -827.655 -1766 40 40 38
103.255 -834.284 -1780 35 39 36
108.255 -843.73 -1800 39 43 41
-295.858 -842.154 -1773 39 41 44
-290.006 -836.254 -1761 41 43 43
-284.21 -830.36 -1749 37 39 41
-279.911 -828.743 -1746 37 39 39
-275.786 -827.604 -1744 37 40 35
-272.296 -828.366 -1746 36 39 34
-267.57 -825.335 -1740 36 39 35
-263.783 -825.154 -1740 36 40 37
-259.4 -823.079 -1736 33 35 37
-255.036 -821.008 -1732 30 33 34
-250.258 -817.518 -1725 28 32 31
-245.083 -812.61 -1715 29 33 32
-239.391 -805.812 -1701 29 33 32
-233.208 -797.125 -1683 31 35 36
-228.605 -793.653 -1676 34 38 37
-223.901 -789.711 -1668 35 40 39
-220.158 -789.087 -1667 36 42 41
-216.421 -788.465 -1666 40 44 43
-212.819 -788.319 -1666 41 44 44
-208.842 -786.757 -1663 42 44 44
-205.002 -785.67 -1661 42 45 42
-201.174 -784.586 -1659 41 44 41
-197.475 -783.978 -1658 41 44 41
-194.016 -784.318 -1659 42 45 42
-190.899 -786.078 -1663 41 44 41
-187.429 -786.423 -1664 39 42 39
-184.066 -787.242 -1666 40 43 40
-180.48 -787.119 -1666 38 41 38
-176.896 -786.998 -1666 38 41 38
-173.209 -786.407 -1665 36 39 36
-169.427 -785.346 -1663 34 37 34
-166.153 -786.649 -1666 31 34 31
-162.379 -785.594 -1664 29 32 29
-158.903 -785.957 -1665 29 32 29
-155.33 -785.851 -1665 30 33 30
-151.758 -785.747 -1665 31 36 33
-148.01 -784.702 -1663 33 38 34
-144.619 -785.547 -1665 32 36 33
-141.052 -785.45 -1665 32 36 33
-137.816 -787.243 -1669 31 35 32
-134.404 -788.094 -1671 32 36 33
-131.141 -789.891 -1675 34 37 34
-127.938 -792.161 -1680 35 38 35
-125.084 -796.791 -1690 34 37 34
-122.19 -801.422 -1700 30 33 30
-119.672 -808.883 -1716 28 30 28
-116.816 -814.459 -1728 28 28 26
-113.845 -819.566 -1739 24 24 24
-110.764 -824.203 -1749 24 24 24
-107.764 -829.784 -1761 22 22 22
-104.359 -832.539 -1767 21 18 19
-100.816 -834.355 -1771 18 15 16
-97.0379 -834.288 -1771 17 14 15
-93.2604 -834.224 -1771 15 12 13
-89.3827 -833.22 -1769 17 14 15
-85.6112 -833.162 -1769 20 17 18
-81.6554 -831.221 -1765 18 18 18
-77.5408 -827.4 -1757 20 20 20
-73.4191 -823.111 -1748 24 24 24
-69.137 -816.471 -1734 25 25 25
-65.2549 -814.072 -1729 29 29 30
-61.2878 -810.263 -1721 30 30 32
-57.4223 -807.398 -1715 32 32 32
-53.6142 -805.007 -1710 32 32 32
-49.8864 -803.56 -1707 32 32 32
-46.0363 -799.761 -1699 29 31 31
-42.1958 -795.495 -1690 30 33 32
-38.5766 -794.997 -1689 29 33 32
-34.962 -794.502 -1688 27 33 32
-31.3334 -793.539 -1686 29 34 33
-27.7137 -792.577 -1684 29 33 32
-24.074 -790.677 -1680 33 37 36
-20.4638 -789.251 -1677 36 40 39
-16.8464 -786.885 -1672 38 42 41
-13.2662 -785.463 -1669 38 40 40
-9.69903 -784.043 -1666 37 39 39
-6.1519 -783.568 -1665 38 40 40
-2.60928 -783.094 -1664 38 40 40
0.92906 -782.623 -1663 39 41 41
4.47143 -783.566 -1665 39 41 41
8.01731 -784.041 -1666 39 41 41
11.5536 -783.577 -1665 37 39 39
15.1132 -784.527 -1667 37 39 39
18.67 -785.009 -1668 38 41 38
22.2314 -785.494 -1669 38 41 38
25.8435 -787.393 -1673 39 42 39
29.4377 -788.353 -1675 38 41 38
33.0409 -789.315 -1677 38 41 38
36.7617 -792.633 -1684 38 41 38
40.3931 -793.601 -1686 38 41 38
44.0332 -794.571 -1688 37 40 37
47.6824 -795.543 -1690 37 40 37
51.5833 -800.284 -1700 36 40 37
55.3322 -802.203 -1704 37 40 37
59.2372 -806.008 -1712 34 37 34
63.1401 -809.345 -1719 33 37 34
67.0734 -812.685 -1726 35 39 36
70.7911 -813.202 -1727 35 39 36
74.7725 -816.547 -1734 35 38 35
78.6938 -818.954 -1739 35 38 35
82.5899 -820.892 -1743 35 38 35
86.5534 -823.304 -1748 35 38 35
90.6421 -826.661 -1755 36 39 36
94.6003 -828.608 -1759 39 40 38
98.7998 -832.441 -1767 39 40 38
103.441 -839.577 -1782 36 39 36
108.448 -849.071 -1802 38 42 40
-295.393 -844.629 -1769 38 40 43
-288.887 -836.79 -1753 41 43 43
-284.079 -833.729 -1747 38 40 42
-279.942 -832.581 -1745 39 41 42
-275.975 -831.913 -1744 37 40 37
-272.483 -832.678 -1746 35 38 35
-268.215 -831.062 -1743 35 39 35
-264.266 -830.403 -1742 34 38 35
-260.325 -829.746 -1741 34 36 37
-255.8 -827.187 -1736 31 34 35
-250.864 -823.202 -1728 29 33 32
-245.536 -817.792 -1717 30 34 33
-240.118 -811.911 -1705 32 36 35
-233.783 -802.702 -1686 33 37 38
-229.308 -799.687 -1680 35 39 38
-224.591 -795.724 -1672 35 39 38
-221.101 -796.048 -1673 35 41 40
-217.089 -794.47 -1670 40 44 43
-213.475 -794.323 -1670 41 45 44
-208.984 -790.85 -1663 41 43 43
-205.142 -789.757 -1661 40 43 40
-201.19 -788.192 -1658 41 44 41
-197.371 -787.106 -1656 41 44 41
-194.031 -787.922 -1658 41 44 41
-190.914 -789.692 -1662 41 44 41
-187.444 -790.038 -1663 41 44 41
-184.081 -790.862 -1665 40 43 40
-180.495 -790.737 -1665 38 41 38
-176.804 -790.141 -1664 38 41 38
-173.223 -790.022 -1664 37 40 37
-169.745 -790.38 -1665 35 38 35
-166.465 -791.689 -1668 32 35 32
-162.88 -791.577 -1668 28 31 28
-159.297 -791.467 -1668 28 31 28
-155.528 -790.411 -1666 29 32 29
-152.135 -791.256 -1668 31 35 32
-148.2 -789.256 -1664 33 37 34
-144.978 -791.054 -1668 32 36 33
-141.402 -790.956 -1668 31 35 32
-137.91 -791.336 -1669 29 33 30
-134.656 -793.139 -1673 31 35 32
-131.229 -793.997 -1675 33 36 33
-128.1 -796.753 -1681 34 37 34
-124.799 -798.563 -1685 34 37 34
-122.128 -804.64 -1698 32 35 32
-119.264 -809.771 -1709 29 31 28
-116.421 -815.376 -1721 27 27 25
-113.659 -821.931 -1735 22 22 22
-110.585 -826.592 -1745 22 22 22
-107.531 -831.728 -1756 21 21 21
-104.253 -835.446 -1764 20 17 18
-100.828 -838.218 -1770 16 14 15
-97.0487 -838.15 -1770 16 13 14
-93.3234 -838.56 -1771 15 12 13
-89.4937 -838.024 -1770 18 15 16
-85.5237 -836.071 -1766 21 18 19
-81.5716 -834.121 -1762 19 19 19
-77.5491 -831.227 -1756 20 20 20
-73.4267 -826.916 -1747 20 20 20
-69.2635 -821.661 -1736 25 25 25
-65.2234 -817.356 -1727 30 30 31
-61.3648 -814.946 -1722 32 32 34
-57.4611 -811.593 -1715 32 32 32
-53.619 -808.717 -1709 32 33 33
-49.8031 -805.842 -1703 31 32 32
-45.9318 -801.551 -1694 32 34 34
-42.2242 -799.629 -1690 31 34 34
-38.6026 -799.128 -1689 30 34 33
-35.027 -799.577 -1690 28 33 32
-31.3732 -798.135 -1687 29 34 33
-27.7652 -797.642 -1686 29 33 32
-24.1332 -796.205 -1683 33 37 36
-20.4775 -793.352 -1677 36 40 39
-16.8476 -790.501 -1671 37 41 40
-13.2592 -788.598 -1667 40 42 42
-9.7054 -788.117 -1666 39 41 41
-6.14871 -786.693 -1663 38 40 40
-2.61267 -787.636 -1665 37 39 39
0.929835 -786.69 -1663 36 38 38
4.47437 -787.637 -1665 36 38 38
8.02285 -788.115 -1666 37 39 39
11.5893 -789.541 -1669 37 39 39
15.1417 -789.55 -1669 38 40 40
18.7163 -790.507 -1671 39 42 39
22.2998 -791.468 -1673 38 41 38
25.9074 -792.903 -1676 36 39 36
29.5104 -793.868 -1678 37 40 37
33.1027 -794.363 -1679 38 41 38
36.8084 -797.225 -1685 37 40 37
40.3485 -796.305 -1683 37 40 37
44.1154 -799.646 -1690 37 40 37
47.7429 -800.15 -1691 38 41 38
51.6485 -804.916 -1701 36 40 37
55.4023 -806.845 -1705 34 37 34
59.3813 -811.616 -1715 35 38 35
63.2564 -814.497 -1721 33 37 34
67.1188 -816.908 -1726 32 36 33
70.798 -816.955 -1726 33 36 33
74.78 -820.317 -1733 35 38 35
78.7018 -822.736 -1738 36 39 36
82.7881 -826.578 -1746 35 38 35
86.6615 -828.056 -1749 35 38 35
90.8585 -832.377 -1758 36 39 36
94.9872 -835.755 -1765 38 41 38
99.0904 -838.662 -1771 38 41 38
103.221 -841.572 -1777 38 41 38
108.341 -852.063 -1799 38 40 40
-295.597 -849.013 -1769 39 41 44
-289.745 -843.052 -1757 42 44 44
-283.949 -837.097 -1745 39 41 41
-279.653 -835.463 -1742 39 41 41
-275.848 -835.271 -1742 37 40 36
-272.358 -836.041 -1744 35 38 34
-268.4 -835.375 -1743 34 37 34
-264.448 -834.712 -1742 34 38 35
-260.503 -834.051 -1741 35 37 37
-256.271 -832.436 -1738 33 34 34
-251.327 -828.43 -1730 31 34 33
-246.278 -823.949 -1721 29 33 33
-240.847 -818.037 -1709 29 33 34
-234.221 -807.823 -1688 32 38 39
-229.328 -803.356 -1679 35 39 38
-224.611 -799.373 -1671 35 39 38
-220.988 -799.22 -1671 37 42 41
-217.108 -798.112 -1669 42 45 44
-213.494 -797.964 -1669 42 44 44
-209.756 -797.341 -1668 41 43 43
-205.777 -795.764 -1665 40 43 40
-201.449 -792.757 -1659 40 43 40
-197.625 -791.665 -1657 42 45 42
-194.047 -791.53 -1657 41 44 41
-190.93 -793.309 -1661 41 44 41
-187.346 -793.179 -1661 42 45 42
-184.096 -794.484 -1664 41 44 41
-180.51 -794.36 -1664 39 42 39
-176.818 -793.76 -1663 39 42 39
-173.237 -793.64 -1663 41 44 41
-169.657 -793.522 -1663 38 41 38
-166.179 -793.884 -1664 35 38 35
-162.6 -793.772 -1664 33 36 33
-159.31 -795.093 -1667 31 34 31
-155.635 -794.508 -1666 30 33 30
-152.33 -795.834 -1669 29 33 30
-148.657 -795.254 -1668 31 35 32
-145.164 -795.63 -1669 30 34 31
-141.668 -796.009 -1670 29 33 30
-138.334 -797.343 -1673 28 32 29
-134.667 -796.773 -1672 31 35 32
-131.319 -798.112 -1675 32 35 32
-127.959 -799.452 -1678 33 36 33
-124.884 -802.701 -1685 33 36 33
-122.355 -809.762 -1700 33 36 33
-119.555 -815.395 -1712 30 32 29
-116.636 -820.553 -1723 27 27 25
-113.933 -827.618 -1738 23 23 23
-110.787 -831.827 -1747 21 21 21
-107.665 -836.513 -1757 19 19 19
-104.383 -840.25 -1765 19 19 19
-100.953 -843.036 -1771 15 15 15
-97.1695 -842.969 -1771 14 14 14
-93.3868 -842.904 -1771 15 12 13
-89.4533 -841.414 -1768 19 16 17
-85.5818 -840.402 -1766 22 19 20
-81.627 -838.442 -1762 20 20 20
-77.7343 -836.96 -1759 19 19 19
-73.5186 -831.675 -1748 18 18 18
-69.4302 -827.344 -1739 22 22 22
-65.3432 -822.541 -1729 28 28 29
-61.3351 -818.216 -1720 33 33 35
-57.4665 -815.322 -1714 34 34 34
-53.6239 -812.43 -1708 33 34 34
-49.8076 -809.541 -1702 33 35 35
-46.0443 -807.13 -1697 35 37 37
-42.2778 -804.246 -1691 33 36 36
-38.6516 -803.743 -1690 31 35 34
-35.03 -803.243 -1689 29 33 32
-31.3758 -801.794 -1686 31 35 34
-27.7676 -801.298 -1685 31 35 34
-24.1065 -798.903 -1680 32 36 35
-20.4792 -796.985 -1676 34 38 37
-16.8791 -795.546 -1673 36 40 39
-13.292 -794.109 -1670 40 42 42
-9.72367 -793.15 -1668 40 42 42
-6.1675 -792.67 -1667 40 42 42
-2.61743 -792.667 -1667 38 40 40
0.932076 -792.191 -1666 37 39 39
4.48292 -792.668 -1667 37 39 39
8.04266 -793.623 -1669 39 41 41
11.6181 -795.057 -1672 37 39 39
15.17 -794.59 -1671 36 38 39
18.7627 -796.029 -1674 37 39 37
22.3417 -796.518 -1675 37 40 37
25.925 -797.01 -1676 37 40 37
29.5657 -798.931 -1680 37 40 37
33.1646 -799.428 -1681 38 41 38
36.8555 -801.83 -1686 36 39 36
40.3761 -800.43 -1683 35 38 35
44.1715 -804.263 -1691 36 39 36
47.8037 -804.77 -1692 35 38 35
51.6533 -808.609 -1700 33 37 34
55.4398 -811.024 -1705 34 37 34
59.4216 -815.82 -1715 35 39 36
63.2627 -818.241 -1720 33 37 34
67.0865 -820.188 -1724 33 37 34
70.9283 -822.138 -1728 35 39 36
74.8309 -824.567 -1733 35 38 35
78.6647 -826.047 -1736 35 38 35
82.7968 -830.384 -1745 35 38 35
86.7204 -832.346 -1749 36 39 36
90.8687 -836.214 -1757 37 40 37
94.998 -839.609 -1764 37 40 37
99.1579 -843.007 -1771 36 39 36
103.291 -845.932 -1777 38 41 38
108.294 -855.526 -1797 39 41 41
-295.969 -853.889 -1770 38 40 42
-289.781 -846.932 -1756 44 46 46
-283.821 -840.463 -1743 39 41 41
-279.687 -839.303 -1741 37 39 39
-275.881 -839.11 -1741 36 39 34
-272.39 -839.884 -1743 35 38 35
-268.585 -839.696 -1743 35 38 35
-264.631 -839.029 -1742 35 39 36
-260.833 -838.847 -1742 36 37 37
-256.595 -837.223 -1739 34 34 34
-252.228 -835.121 -1735 29 31 31
-247.164 -830.617 -1726 27 31 32
-241.718 -824.673 -1714 28 32 33
-235.355 -815.367 -1695 30 36 37
-230.443 -810.877 -1686 34 38 38
-225.438 -805.91 -1676 36 40 39
-221.405 -804.313 -1673 38 42 41
-217.518 -803.2 -1671 41 43 43
-213.897 -803.051 -1671 42 44 44
-209.523 -800.022 -1665 40 42 42
-205.795 -799.398 -1664 42 45 42
-201.587 -796.855 -1659 41 44 41
-198.12 -797.198 -1660 40 43 40
-194.298 -796.102 -1658 41 44 41
-190.946 -796.929 -1660 40 43 40
-187.475 -797.279 -1661 39 42 39
-184.001 -797.631 -1662 40 43 40
-180.308 -797.025 -1661 39 42 39
-176.727 -796.902 -1661 39 42 39
-173.252 -797.261 -1662 41 44 41
-169.672 -797.143 -1662 40 43 40
-166.393 -798.466 -1665 36 39 36
-163.005 -799.312 -1667 33 36 33
-159.515 -799.681 -1668 31 34 31
-156.022 -800.051 -1669 30 33 30
-152.526 -800.424 -1670 30 33 30
-149.116 -801.28 -1672 30 34 31
-145.438 -800.699 -1671 32 36 33
-142.02 -801.558 -1673 31 35 32
-138.595 -802.42 -1675 30 34 31
-134.84 -801.368 -1673 33 37 34
-131.33 -801.756 -1674 34 37 34
-128.046 -803.582 -1678 34 37 34
-124.895 -806.369 -1684 33 36 33
-121.791 -809.636 -1691 32 34 34
-119.147 -816.256 -1705 32 34 33
-116.445 -822.877 -1719 30 30 28
-113.618 -829.021 -1732 22 23 23
-110.609 -834.209 -1743 20 21 21
-107.555 -839.399 -1754 20 20 20
-104.277 -843.154 -1762 19 19 19
-100.908 -846.433 -1769 17 17 17
-97.2908 -847.801 -1772 14 14 14
-93.5562 -848.214 -1773 14 14 14
-89.6157 -846.716 -1770 19 17 17
-85.6888 -845.221 -1767 22 19 20
-81.6828 -842.772 -1762 19 19 19
-77.6989 -840.326 -1757 20 20 20
-73.6109 -836.448 -1749 17 17 17
-69.5176 -832.095 -1740 20 20 20
-65.4635 -827.745 -1731 27 27 27
-61.5196 -824.354 -1724 31 31 33
-57.4722 -819.054 -1713 33 33 33
-53.6605 -816.625 -1708 33 33 33
-49.8416 -813.721 -1702 33 35 35
-46.0758 -811.298 -1697 34 36 36
-42.3566 -809.355 -1693 33 36 36
-38.7009 -808.372 -1691 32 36 35
-35.0954 -808.347 -1691 32 36 35
-31.453 -807.368 -1689 33 37 36
-27.8194 -806.391 -1687 34 38 37
-24.1373 -803.506 -1681 33 37 36
-20.5053 -801.579 -1677 35 39 38
-16.8805 -799.176 -1672 36 40 39
-13.293 -797.732 -1669 38 40 40
-9.73033 -797.246 -1668 40 42 42
-6.17175 -796.763 -1667 41 43 43
-2.62083 -797.238 -1668 42 44 44
0.932299 -795.803 -1665 40 42 42
4.48589 -796.761 -1667 40 42 42
8.04344 -797.243 -1668 38 40 40
11.6192 -798.684 -1671 36 38 39
15.1895 -799.171 -1672 34 36 38
18.7868 -800.617 -1675 34 36 36
22.3836 -801.587 -1677 36 39 37
25.9737 -802.081 -1678 38 41 38
29.5861 -803.057 -1680 37 40 37
33.1872 -803.556 -1681 38 41 38
36.9025 -806.448 -1687 37 40 37
40.4276 -805.041 -1684 35 38 35
44.1756 -807.938 -1690 35 38 35
47.8365 -808.926 -1692 34 38 35
51.7799 -814.219 -1703 32 37 34
55.5103 -815.69 -1706 34 37 34
59.4275 -819.555 -1714 33 36 34
63.2691 -821.988 -1719 32 36 34
67.0547 -823.467 -1722 33 37 34
70.8946 -825.427 -1726 37 40 37
74.8387 -828.347 -1732 36 39 36
78.7639 -830.791 -1737 34 37 34
82.7111 -833.238 -1742 34 37 34
86.7797 -836.644 -1749 36 39 36
90.9826 -841.011 -1758 38 41 38
95.1169 -844.423 -1765 38 41 38
99.1139 -846.404 -1769 38 41 38
103.245 -849.344 -1775 39 42 39
108.187 -858.509 -1794 38 40 40
-296.343 -858.779 -1771 43 45 47
-289.984 -851.301 -1756 42 44 44
-284.344 -845.768 -1745 38 40 40
-279.881 -843.632 -1741 37 39 40
-275.756 -842.469 -1739 36 39 34
-272.424 -843.731 -1742 35 38 34
-268.464 -843.058 -1741 36 39 36
-264.663 -842.871 -1741 36 40 38
-261.015 -843.172 -1742 35 37 37
-256.479 -840.572 -1737 34 34 34
-252.112 -838.459 -1733 30 32 32
-247.049 -833.931 -1724 28 31 32
-241.886 -828.924 -1714 28 32 33
-236.074 -821.505 -1699 30 35 36
-231.287 -817.474 -1691 35 39 39
-226.268 -812.481 -1681 36 40 39
-221.956 -809.909 -1676 38 42 41
-217.669 -807.34 -1671 40 42 42
-214.045 -807.19 -1671 41 43 43
-209.668 -804.145 -1665 41 43 43
-206.061 -804 -1665 39 42 40
-201.97 -801.927 -1661 40 43 40
-198.376 -801.788 -1661 42 45 42
-194.432 -800.204 -1658 43 46 43
-190.963 -800.553 -1659 42 45 42
-187.379 -800.422 -1659 41 44 41
-184.018 -801.258 -1661 39 42 39
-180.324 -800.649 -1660 41 44 41
-176.849 -801.008 -1661 40 43 40
-173.163 -800.404 -1660 40 43 40
-169.585 -800.286 -1660 42 45 42
-166.108 -800.651 -1661 41 44 41
-163.02 -802.947 -1666 36 39 36
-159.529 -803.318 -1667 34 37 34
-156.036 -803.69 -1668 34 35 33
-152.814 -805.511 -1672 32 35 32
-149.219 -805.406 -1672 32 35 32
-145.712 -805.786 -1673 30 34 31
-142.203 -806.168 -1674 31 34 31
-138.607 -806.071 -1674 30 34 31
-134.933 -805.495 -1673 33 37 34
-131.499 -806.366 -1675 34 37 34
-128.135 -807.72 -1678 33 36 33
-125.278 -812.446 -1688 34 34 32
-121.947 -814.286 -1692 31 33 33
-119.439 -821.902 -1708 31 33 33
-116.457 -826.633 -1718 31 32 30
-113.696 -833.289 -1732 23 25 25
-110.876 -839.948 -1746 22 23 23
-107.813 -845.163 -1757 22 22 22
-104.585 -849.419 -1766 19 19 19
-101.149 -852.234 -1772 17 17 17
-97.4127 -852.647 -1773 14 14 14
-93.6733 -853.062 -1774 14 14 14
-89.728 -851.556 -1771 18 18 18
-85.7477 -849.572 -1767 20 19 19
-81.7853 -847.591 -1763 18 18 18
-77.885 -846.094 -1760 18 18 18
-73.8299 -842.677 -1753 16 16 16
-69.8052 -839.263 -1746 18 18 18
-65.7354 -834.89 -1737 24 24 25
-61.5976 -829.079 -1725 29 29 31
-57.5788 -824.231 -1715 32 32 32
-53.6974 -820.829 -1708 33 33 33
-49.9344 -818.871 -1704 35 35 35
-46.1617 -816.435 -1699 34 36 36
-42.4358 -814.483 -1695 35 37 37
-38.796 -813.974 -1694 33 37 36
-35.1402 -812.988 -1692 36 40 39
-31.4745 -811.524 -1689 36 40 39
-27.8055 -809.581 -1685 36 40 39
-24.1395 -807.161 -1680 36 40 39
-20.4949 -804.743 -1675 36 40 39
-16.8819 -802.809 -1671 36 39 38
-13.3101 -802.318 -1670 37 39 39
-9.74262 -801.83 -1669 40 42 42
-6.17971 -801.344 -1668 41 43 43
-2.62089 -800.861 -1667 41 43 43
0.932524 -799.419 -1664 40 42 42
4.4864 -800.382 -1666 40 42 42
8.04423 -800.866 -1667 38 40 40
11.6342 -803.275 -1672 38 40 41
15.1818 -802.324 -1670 34 36 38
18.7885 -804.257 -1674 33 35 35
22.3723 -804.752 -1675 35 37 35
25.9763 -805.73 -1677 36 39 36
29.624 -807.671 -1681 37 40 37
33.1904 -807.212 -1680 37 40 37
36.8842 -809.638 -1685 36 39 36
40.4554 -809.185 -1684 35 38 35
44.1537 -811.136 -1688 37 40 37
47.8977 -813.571 -1693 36 41 37
51.6633 -816.008 -1698 33 40 36
55.4509 -818.447 -1703 35 39 37
59.4338 -823.293 -1713 33 37 35
63.3495 -826.7 -1720 32 36 35
67.2177 -829.148 -1725 33 37 34
71.19 -832.561 -1732 35 39 36
75.0201 -834.053 -1735 35 38 35
78.9542 -836.51 -1740 34 37 34
82.9582 -839.451 -1746 34 37 34
87.0878 -843.356 -1754 36 39 36
91.2524 -847.264 -1762 36 39 36
95.452 -851.175 -1770 36 39 35
99.4064 -852.685 -1773 37 40 37
103.491 -855.16 -1778 37 40 37
108.262 -862.929 -1794 39 41 40
-297.388 -865.632 -1776 46 48 50
-290.352 -856.166 -1757 41 43 43
-285.033 -851.578 -1748 38 40 41
-280.56 -849.431 -1744 38 40 42
-276.584 -848.748 -1743 37 40 37
-272.927 -849.042 -1744 36 39 36
-268.961 -848.365 -1743 36 39 36
-265.761 -850.124 -1747 35 39 36
-261.647 -848.966 -1745 33 36 35
-257.101 -846.352 -1740 31 33 33
-252.579 -843.741 -1735 30 34 33
-247.508 -839.19 -1726 28 32 32
-241.914 -832.699 -1713 28 32 33
-236.795 -827.671 -1703 31 35 36
-231.722 -822.647 -1693 33 37 37
-226.695 -817.628 -1683 33 37 36
-222.774 -816.499 -1681 34 38 37
-217.82 -811.488 -1671 37 40 39
-213.681 -809.395 -1667 40 42 42
-209.562 -807.305 -1663 39 41 41
-206.081 -807.646 -1664 37 40 38
-202.233 -806.532 -1662 39 42 39
-198.634 -806.393 -1662 42 45 42
-195.037 -806.255 -1662 43 46 43
-191.442 -806.12 -1662 43 46 43
-187.622 -805.018 -1660 43 46 43
-184.035 -804.888 -1660 42 45 42
-180.449 -804.761 -1660 42 45 42
-176.759 -804.152 -1659 40 44 41
-173.387 -805 -1661 41 45 42
-169.907 -805.365 -1662 43 46 43
-166.524 -806.216 -1664 41 44 41
-163.329 -808.039 -1668 38 41 38
-160.023 -809.38 -1671 38 40 37
-156.519 -809.754 -1672 35 35 33
-153.285 -811.584 -1676 32 35 32
-149.59 -810.994 -1675 32 35 32
-145.9 -810.407 -1674 30 34 31
-142.216 -809.823 -1673 31 34 31
-138.62 -809.726 -1673 32 35 32
-134.946 -809.147 -1672 32 36 33
-131.59 -810.506 -1675 32 35 32
-128.223 -811.867 -1678 32 35 32
-125.068 -814.682 -1684 34 34 32
-122.103 -818.95 -1693 30 32 32
-119.382 -825.154 -1706 31 34 33
-116.266 -828.942 -1714 32 35 32
-113.775 -837.567 -1732 24 27 26
-110.635 -841.841 -1741 23 24 24
-107.642 -847.568 -1753 24 24 24
-104.42 -851.845 -1762 22 22 22
-101.047 -855.158 -1769 16 16 16
-97.425 -856.539 -1772 12 12 12
-93.6852 -856.957 -1773 14 14 14
-89.8407 -856.41 -1772 16 16 16
-85.8069 -853.933 -1767 18 18 18
-81.7954 -851.458 -1762 20 20 20
-77.806 -848.987 -1757 20 20 20
-73.7965 -846.035 -1751 18 18 18
-69.8134 -843.086 -1745 19 19 19
-65.8187 -839.658 -1738 24 24 25
-61.6759 -833.816 -1726 29 29 31
-57.7192 -829.91 -1718 32 32 32
-53.7974 -826.007 -1710 33 33 33
-49.9982 -823.556 -1705 33 33 33
-46.1935 -820.625 -1699 33 35 35
-42.4901 -819.145 -1696 35 38 37
-38.7999 -817.668 -1693 35 39 38
-35.1852 -817.643 -1693 36 40 39
-31.4776 -815.205 -1688 37 41 40
-27.8412 -814.218 -1686 38 42 41
-24.1704 -811.786 -1681 38 42 41
-20.5213 -809.356 -1676 37 40 40
-16.9137 -807.894 -1673 37 39 39
-13.3272 -806.918 -1671 38 40 40
-9.76102 -806.91 -1671 37 39 39
-6.18748 -805.939 -1669 38 40 40
-2.62432 -805.453 -1668 38 40 40
0.933096 -803.521 -1664 38 40 40
4.48692 -804.006 -1665 38 40 40
8.04021 -804.01 -1665 38 40 40
11.6075 -804.983 -1667 38 40 42
15.1834 -805.958 -1669 36 38 40
18.7792 -807.418 -1672 35 37 37
22.3746 -808.399 -1674 36 38 36
25.9786 -809.381 -1676 36 39 36
29.5916 -810.366 -1678 36 39 36
33.2727 -812.803 -1683 36 39 36
36.8659 -812.827 -1683 36 39 36
40.5074 -813.82 -1685 38 41 38
44.1842 -815.298 -1688 39 42 39
47.9024 -817.262 -1692 38 43 40
51.7296 -820.678 -1699 35 42 38
55.4894 -822.647 -1703 37 41 40
59.475 -827.518 -1713 35 39 38
63.3197 -829.976 -1718 32 36 35
67.1472 -831.954 -1722 32 36 33
71.116 -835.384 -1729 34 37 35
74.9421 -836.884 -1732 35 37 35
78.9181 -839.837 -1738 35 38 35
82.9205 -842.792 -1744 35 38 35
87.0487 -846.718 -1752 36 39 36
91.2637 -851.129 -1761 37 40 36
95.3561 -854.094 -1767 37 40 36
99.4192 -856.578 -1772 38 41 38
103.621 -860.033 -1779 38 41 38
108.337 -867.358 -1794 39 42 38
-298.101 -871.54 -1779 44 46 48
-290.888 -861.535 -1759 41 41 41
-285.397 -856.434 -1749 39 40 41
-280.758 -853.785 -1744 37 39 41
-276.938 -853.589 -1744 35 38 35
-272.806 -852.416 -1742 35 38 35
-269.304 -853.203 -1744 35 38 35
-265.492 -853.014 -1744 34 38 35
-261.681 -852.828 -1744 33 36 34
-257.43 -851.178 -1741 31 33 33
-252.903 -848.554 -1736 29 33 32
-247.826 -843.979 -1727 28 32 32
-242.083 -836.965 -1713 29 33 34
-236.961 -831.911 -1703 31 35 36
-231.748 -826.373 -1692 32 36 36
-227.258 -823.282 -1686 32 36 35
-222.4 -818.729 -1677 33 37 36
-218.234 -816.621 -1673 36 39 38
-214.088 -814.517 -1669 39 41 41
-209.835 -811.928 -1664 37 39 39
-206.473 -812.758 -1666 37 39 37
-202.496 -811.151 -1663 39 42 39
-199.012 -811.498 -1664 41 44 41
-195.408 -811.359 -1664 42 45 42
-191.691 -810.736 -1663 43 46 43
-187.753 -809.14 -1660 42 45 42
-184.053 -808.522 -1659 42 45 42
-180.467 -808.395 -1659 42 45 42
-176.989 -808.757 -1660 40 44 41
-173.404 -808.634 -1660 41 45 42
-170.026 -809.488 -1662 41 45 42
-166.64 -810.344 -1664 40 43 40
-163.345 -811.689 -1667 38 41 38
-160.039 -813.037 -1670 37 39 37
-156.534 -813.413 -1671 36 36 34
-153.209 -814.765 -1674 32 35 32
-149.516 -814.173 -1673 32 35 32
-146.002 -814.556 -1674 31 35 32
-142.23 -813.482 -1672 30 34 31
-138.8 -814.357 -1674 32 35 32
-135.12 -813.775 -1673 33 37 34
-131.682 -814.654 -1675 31 34 31
-128.466 -816.995 -1680 32 34 31
-125.229 -819.338 -1685 33 33 31
-122.044 -822.169 -1691 30 31 31
-119.045 -826.46 -1700 30 32 31
-116.415 -833.67 -1715 30 33 30
-113.591 -839.909 -1728 26 29 26
-110.775 -846.635 -1742 24 26 24
-107.778 -852.391 -1754 26 26 26
-104.552 -856.69 -1763 22 22 22
-101.117 -859.534 -1769 16 16 16
-97.4377 -860.436 -1771 13 13 13
-93.6446 -860.37 -1771 15 15 15
-89.7508 -859.334 -1769 15 15 15
-85.818 -857.816 -1766 17 17 17
-81.8522 -855.814 -1762 21 21 21
-77.9487 -854.302 -1759 22 22 22
-74.0586 -852.792 -1756 20 20 20
-70.1422 -850.799 -1752 20 20 20
-66.1296 -847.353 -1745 23 23 24
-61.9332 -840.995 -1732 27 27 29
-57.9274 -836.584 -1723 30 30 30
-53.9292 -831.69 -1713 32 32 32
-50.0915 -828.74 -1707 32 33 33
-46.1983 -824.338 -1698 32 34 34
-42.4945 -822.85 -1695 35 38 38
-38.8039 -821.366 -1692 36 40 39
-35.1472 -820.369 -1690 35 39 38
-31.4808 -818.89 -1687 36 40 39
-27.844 -817.898 -1685 37 41 40
-24.1727 -815.453 -1680 37 41 40
-20.5354 -813.496 -1676 38 41 40
-16.9558 -813.483 -1676 39 41 41
-13.3524 -812.017 -1673 38 40 40
-9.77361 -811.523 -1672 38 40 40
-6.19178 -810.062 -1669 38 40 40
-2.62439 -809.088 -1667 38 40 40
0.93501 -808.602 -1666 36 38 38
4.48744 -807.633 -1664 34 36 36
8.0507 -808.609 -1666 36 38 37
11.6156 -809.101 -1667 37 39 39
15.1757 -809.11 -1667 34 36 37
18.7697 -810.578 -1670 35 37 37
22.3501 -811.078 -1671 36 39 36
25.9658 -812.551 -1674 37 40 37
29.5946 -814.027 -1677 37 40 36
33.2563 -815.99 -1681 37 40 37
36.8915 -816.986 -1683 37 41 38
40.5117 -817.498 -1684 38 41 38
44.1888 -818.984 -1687 38 41 38
47.9358 -821.444 -1692 35 39 37
51.6437 -822.935 -1695 34 40 38
55.528 -826.856 -1703 37 41 40
59.412 -830.295 -1710 34 38 37
63.3267 -833.737 -1717 32 36 35
67.194 -836.21 -1722 33 37 36
71.042 -838.201 -1726 34 37 37
75.0375 -841.652 -1733 36 38 38
78.9277 -843.648 -1737 38 41 38
83.0733 -848.076 -1746 36 39 36
87.3082 -852.993 -1756 36 39 36
91.4828 -856.942 -1764 37 40 35
95.5847 -859.922 -1770 37 39 39
99.6006 -861.933 -1774 36 39 38
103.81 -865.406 -1781 36 39 36
108.594 -873.255 -1797 37 40 35
-299.151 -878.457 -1784 48 50 52
-291.26 -866.431 -1760 43 43 43
-285.763 -861.303 -1750 40 41 41
-281.118 -858.641 -1745 36 38 39
-277.134 -857.951 -1744 35 38 35
-273 -856.772 -1742 34 37 34
-269.495 -857.563 -1744 33 36 33
-265.984 -858.356 -1746 32 36 34
-261.866 -857.185 -1744 32 35 34
-257.76 -856.018 -1742 33 33 33
-253.373 -853.872 -1738 30 32 33
-248.288 -849.273 -1729 28 31 32
-242.82 -843.205 -1717 28 32 35
-237.825 -838.616 -1708 29 35 36
-233.008 -834.521 -1700 31 36 36
-227.824 -828.959 -1689 32 36 35
-223.22 -825.364 -1682 35 39 38
-218.388 -820.792 -1673 39 41 40
-213.854 -817.205 -1666 42 42 42
-210.109 -816.565 -1665 39 41 41
-206.123 -814.947 -1662 38 41 39
-202.517 -814.803 -1662 39 42 39
-199.152 -815.641 -1664 40 43 40
-195.663 -815.992 -1665 40 43 40
-191.826 -814.875 -1663 41 44 41
-188.338 -815.231 -1664 41 44 41
-184.404 -813.63 -1661 42 45 42
-180.702 -813.012 -1660 44 47 44
-177.22 -813.375 -1661 43 47 44
-173.84 -814.231 -1663 41 45 42
-170.247 -814.109 -1663 40 44 41
-166.857 -814.97 -1665 37 40 37
-163.558 -816.322 -1668 36 39 36
-160.055 -816.697 -1669 35 38 35
-156.644 -817.565 -1671 36 36 34
-153.408 -819.412 -1675 32 34 32
-149.71 -818.817 -1674 32 35 32
-146.017 -818.224 -1673 30 34 31
-142.415 -818.122 -1673 31 35 32
-138.814 -818.023 -1673 31 34 31
-135.215 -817.927 -1673 32 36 33
-131.774 -818.811 -1675 31 35 32
-128.403 -820.186 -1678 31 34 31
-125.019 -821.563 -1681 33 33 31
-122.202 -826.852 -1692 29 31 31
-119.058 -830.188 -1699 29 31 31
-116.361 -836.946 -1713 29 32 29
-113.539 -843.217 -1726 26 29 26
-110.662 -849.489 -1739 25 27 25
-107.607 -854.785 -1750 26 26 26
-104.329 -858.618 -1758 21 22 22
-100.902 -861.477 -1764 15 16 16
-97.4508 -864.337 -1770 12 12 12
-93.71 -864.759 -1771 13 13 13
-89.8644 -864.206 -1770 15 15 15
-85.7807 -861.215 -1764 18 18 18
-81.9558 -860.668 -1763 21 21 21
-77.9144 -857.683 -1757 21 21 21
-73.9416 -855.189 -1752 19 19 19
-70.0308 -853.187 -1748 19 19 19
-66.1 -850.699 -1743 22 22 23
-62.1553 -847.725 -1737 26 26 27
-58.0687 -842.315 -1726 28 28 29
-54.0297 -836.908 -1715 30 31 31
-50.1558 -833.455 -1708 31 33 34
-46.285 -829.518 -1700 33 35 36
-42.5994 -828.511 -1698 37 39 39
-38.831 -825.555 -1692 38 40 40
-35.2341 -826.017 -1693 36 40 39
-31.5401 -824.042 -1689 37 41 40
-27.8965 -823.046 -1687 37 41 40
-24.204 -820.1 -1681 36 40 39
-20.611 -820.085 -1681 37 40 39
-16.9574 -817.144 -1675 38 40 40
-13.3696 -816.646 -1674 39 41 41
-9.77454 -815.174 -1671 37 39 39
-6.19981 -814.681 -1670 37 39 39
-2.62625 -813.214 -1667 38 40 40
0.934465 -811.751 -1664 38 40 40
4.48777 -811.265 -1663 37 39 39
8.04188 -811.269 -1663 36 39 36
11.6098 -812.252 -1665 36 38 38
15.1772 -812.749 -1666 34 36 36
18.7492 -813.249 -1667 36 38 38
22.3522 -814.727 -1670 38 40 38
25.9529 -815.719 -1672 38 41 37
29.5977 -817.691 -1676 39 42 37
33.2399 -819.176 -1679 36 39 36
36.9175 -821.153 -1683 34 37 34
40.492 -820.692 -1682 36 39 36
44.1412 -821.697 -1684 36 39 36
47.8843 -824.169 -1689 34 38 36
51.6189 -826.156 -1693 33 39 38
55.4688 -829.61 -1700 36 40 39
59.5232 -835.506 -1712 34 38 37
63.3711 -837.989 -1717 32 36 35
67.241 -840.476 -1722 32 36 35
71.1328 -842.965 -1727 35 38 38
75.0902 -845.945 -1733 36 38 38
79.0737 -848.928 -1739 35 38 35
83.2743 -853.867 -1749 37 40 37
87.5185 -858.809 -1759 39 42 38
91.7544 -863.266 -1768 37 40 35
95.6514 -864.308 -1770 33 35 35
99.6703 -866.33 -1774 33 36 35
103.824 -869.332 -1780 35 38 35
108.609 -877.221 -1796 37 40 35
114.278 -891.465 -1825 37 41 38
-299.532 -883.429 -1785 48 49 51
-291.302 -870.351 -1759 40 41 41
-285.803 -865.197 -1749 39 40 41
-280.835 -861.532 -1742 34 36 37
-277.331 -862.322 -1744 35 38 35
-272.724 -859.654 -1739 35 38 35
-269.532 -861.437 -1743 35 38 34
-266.173 -862.729 -1746 34 38 36
-262.053 -861.552 -1744 33 36 34
-257.499 -858.897 -1739 33 33 32
-253.407 -857.727 -1737 30 32 35
-248.608 -854.092 -1730 26 29 32
-243.134 -847.993 -1718 24 29 32
-238.272 -843.873 -1710 29 33 33
-233.311 -839.265 -1701 32 36 35
-228.12 -833.674 -1690 34 38 37
-223.644 -830.553 -1684 35 39 38
-219.065 -826.944 -1677 37 39 38
-214.647 -823.831 -1671 41 41 41
-210.384 -821.216 -1666 42 41 40
-206.517 -820.082 -1664 41 41 39
-203.148 -820.922 -1666 41 42 40
-199.293 -819.793 -1664 39 42 39
-195.684 -819.653 -1664 40 43 40
-191.961 -819.023 -1663 40 43 40
-188.358 -818.888 -1663 42 45 42
-184.534 -817.771 -1661 43 46 43
-180.83 -817.15 -1660 43 46 43
-177.345 -817.515 -1661 43 46 43
-173.962 -818.375 -1663 42 45 42
-170.47 -818.745 -1664 41 44 41
-167.176 -820.101 -1667 36 39 36
-163.87 -821.46 -1670 35 38 35
-160.264 -821.345 -1670 36 39 36
-156.848 -822.216 -1672 35 37 34
-153.333 -822.598 -1673 34 37 34
-149.636 -822 -1672 33 36 33
-146.12 -822.387 -1673 33 36 33
-142.515 -822.285 -1673 31 35 32
-138.995 -822.677 -1674 30 34 31
-135.391 -822.58 -1674 32 35 32
-131.946 -823.468 -1676 32 35 32
-128.646 -825.341 -1680 31 34 30
-125.107 -825.743 -1681 29 33 28
-122.071 -829.585 -1689 29 33 29
-119.352 -835.885 -1702 31 35 32
-116.375 -840.712 -1712 31 34 31
-113.224 -844.56 -1720 29 31 30
-110.485 -851.846 -1735 26 28 27
-107.375 -856.679 -1745 23 25 25
-104.343 -862.495 -1757 22 23 23
-100.859 -864.877 -1762 17 18 18
-97.4091 -867.752 -1768 15 15 15
-93.5641 -867.194 -1767 14 14 14
-89.8768 -868.111 -1769 16 16 16
-85.8409 -865.595 -1764 18 18 18
-81.9669 -864.555 -1762 19 19 19
-77.9691 -862.045 -1757 20 20 20
-74.1202 -861.01 -1755 19 19 19
-70.2404 -859.488 -1752 19 19 19
-66.2603 -856.496 -1746 22 22 22
-62.2349 -852.527 -1738 25 25 25
-58.2105 -848.07 -1729 27 27 29
-54.1938 -843.125 -1719 28 29 31
-50.3085 -839.656 -1712 32 34 36
-46.3174 -833.736 -1700 33 35 37
-42.6041 -832.234 -1697 35 37 38
-38.8352 -829.263 -1691 36 38 38
-35.2381 -829.727 -1692 35 39 38
-31.5434 -827.742 -1688 37 41 40
-27.8829 -826.25 -1685 36 40 39
-24.221 -824.271 -1681 37 40 39
-20.5886 -822.784 -1678 39 41 41
-16.9591 -820.809 -1674 38 40 40
-13.363 -819.818 -1672 38 40 40
-9.78134 -819.319 -1671 38 40 40
-6.19672 -817.843 -1668 38 40 40
-2.62476 -816.369 -1665 37 39 39
0.934701 -815.388 -1663 38 40 40
4.49371 -815.88 -1664 39 41 41
8.05726 -816.375 -1665 35 38 35
11.604 -815.401 -1663 36 38 37
15.1972 -817.372 -1667 35 37 37
18.7623 -817.384 -1667 35 37 37
22.368 -818.87 -1670 37 40 37
26.0023 -820.848 -1674 37 39 36
29.6361 -822.339 -1677 38 38 34
33.2635 -823.342 -1679 35 38 34
36.8996 -824.347 -1681 34 37 34
40.448 -823.394 -1679 36 39 36
44.0935 -824.404 -1681 35 39 36
47.8046 -826.399 -1685 34 39 37
51.5637 -828.886 -1690 32 38 37
55.4426 -832.847 -1698 34 38 37
59.4259 -837.793 -1708 33 37 36
63.3789 -841.76 -1716 32 36 35
67.2493 -844.259 -1721 32 36 35
71.1829 -847.252 -1727 35 38 37
75.1864 -850.738 -1734 36 38 38
79.2661 -854.717 -1742 35 38 35
83.4283 -859.191 -1751 36 39 36
87.4806 -862.195 -1757 36 39 36
91.7672 -867.166 -1767 37 40 35
95.6107 -867.723 -1768 34 36 36
99.6282 -869.755 -1772 33 36 35
103.722 -872.281 -1777 34 37 34
108.504 -880.21 -1793 37 40 35
113.982 -893.053 -1819 39 43 40
-299.747 -887.918 -1785 47 47 49
-292.174 -876.763 -1763 39 41 41
-286.008 -869.593 -1749 37 39 39
-281.198 -866.407 -1743 34 36 38
-277.53 -866.703 -1744 34 38 35
-273.547 -866.008 -1743 34 38 35
-269.57 -865.316 -1742 35 38 33
-265.754 -865.124 -1742 35 38 35
-262.24 -865.928 -1744 34 36 34
-257.683 -863.259 -1739 33 33 31
-253.588 -862.083 -1737 27 31 34
-249.217 -859.918 -1733 25 30 33
-243.874 -854.284 -1722 23 29 32
-238.861 -849.646 -1713 29 31 31
-233.614 -844.022 -1702 32 34 34
-228.013 -836.915 -1688 32 36 35
-223.272 -832.787 -1680 33 37 36
-218.829 -829.655 -1674 37 39 39
-214.672 -827.518 -1670 41 41 41
-210.534 -825.384 -1666 45 43 41
-206.664 -824.244 -1664 44 43 41
-202.926 -823.603 -1663 41 41 39
-199.195 -822.964 -1662 40 43 40
-195.823 -823.813 -1664 42 45 42
-192.098 -823.18 -1663 42 45 42
-188.605 -823.539 -1664 42 45 42
-184.777 -822.416 -1662 41 44 41
-181.177 -822.285 -1662 41 45 42
-177.578 -822.158 -1662 42 45 42
-174.086 -822.527 -1663 42 45 42
-170.694 -823.394 -1665 42 45 42
-167.395 -824.757 -1668 39 42 39
-163.986 -825.627 -1670 38 41 38
-160.474 -826.006 -1671 39 42 39
-156.96 -826.388 -1672 36 39 36
-153.442 -826.772 -1673 36 39 36
-149.832 -826.664 -1673 33 36 33
-146.224 -826.559 -1673 31 34 31
-142.702 -826.95 -1674 30 33 30
-139.094 -826.85 -1674 31 35 32
-135.406 -826.258 -1673 33 36 33
-131.882 -826.657 -1674 32 35 32
-128.814 -830.021 -1681 32 35 32
-125.27 -830.425 -1682 30 34 29
-122.23 -834.286 -1690 29 33 29
-119.296 -839.137 -1700 30 34 30
-116.457 -844.976 -1712 31 34 31
-113.501 -850.323 -1723 30 32 32
-110.436 -855.179 -1733 28 30 30
-107.205 -859.049 -1741 24 26 26
-104.06 -863.908 -1751 23 25 25
-100.643 -866.796 -1757 17 18 18
-97.2574 -870.179 -1764 15 15 15
-93.4713 -870.112 -1764 14 14 14
-89.7876 -871.033 -1766 15 15 15
-85.8529 -869.491 -1763 17 17 17
