ply
format ascii 1.0
comment Created by Open3D
element vertex 1470
property double x
property double y
property double z
property uchar red
property uchar green
property uchar blue
end_header
-227.151 -865.647 -1703 35 39 38
-222.772 -862.94 -1698 34 38 37
-218.676 -861.253 -1695 33 35 35
-214.469 -859.062 -1691 35 38 35
-209.782 -854.842 -1683 36 39 36
-205.377 -851.643 -1677 35 38 35
-201.481 -850.478 -1675 36 39 36
-197.242 -847.793 -1670 36 39 36
-192.91 -844.604 -1664 38 41 38
-188.833 -842.434 -1660 41 44 41
-184.776 -840.267 -1656 41 44 41
-180.738 -838.104 -1652 40 43 40
-177.041 -837.465 -1651 42 45 42
-173.35 -836.83 -1650 40 43 40
-169.973 -837.718 -1652 36 39 36
-166.489 -838.102 -1653 38 41 38
-163.298 -840.009 -1657 38 41 38
-160.669 -844.96 -1667 38 41 38
-157.338 -846.364 -1670 37 40 37
-154.365 -849.798 -1677 37 40 37
-151.092 -851.713 -1681 36 39 36
-147.892 -854.137 -1686 34 37 34
-144.586 -856.056 -1690 34 37 34
-141.43 -858.991 -1696 32 35 32
-137.925 -859.902 -1698 32 35 32
-134.571 -861.828 -1702 33 36 33
-130.97 -862.237 -1703 33 36 33
-127.665 -864.674 -1708 34 35 33
-123.904 -864.076 -1707 34 34 32
-120.571 -866.517 -1712 32 32 30
-117.15 -868.455 -1716 31 31 31
-113.58 -869.383 -1718 33 33 33
-109.938 -869.808 -1719 33 33 33
-106.541 -872.259 -1724 29 29 29
-103.003 -873.7 -1727 29 29 29
-99.4536 -875.144 -1730 29 29 29
-95.9475 -877.096 -1734 30 30 30
-92.5314 -880.062 -1740 30 30 30
-88.9372 -881.514 -1743 26 26 26
-85.3309 -882.967 -1746 25 25 25
-81.8527 -885.94 -1752 26 26 26
-78.1711 -886.893 -1754 26 26 26
-74.4392 -887.343 -1755 21 21 21
-70.5427 -885.774 -1752 19 19 19
-66.6216 -883.702 -1748 23 23 23
-62.6464 -880.622 -1742 28 28 28
-58.7652 -878.555 -1738 31 31 31
-54.9335 -876.997 -1735 31 32 32
-51.1446 -875.948 -1733 32 34 34
-47.2828 -873.385 -1728 36 36 36
-43.4932 -871.836 -1725 36 36 36
-39.717 -870.289 -1722 35 35 35
-35.9541 -868.746 -1719 35 35 35
-32.2419 -868.215 -1718 33 33 33
-28.5676 -868.699 -1719 33 33 33
-24.8603 -868.174 -1718 35 35 35
-21.1698 -868.157 -1718 35 35 34
-17.4694 -867.638 -1717 35 35 33
-13.7894 -868.132 -1718 34 34 32
-10.076 -866.102 -1714 33 33 31
-6.39449 -866.096 -1714 35 35 33
-2.71328 -866.093 -1714 36 36 34
0.966225 -864.576 -1711 34 36 33
4.6437 -865.084 -1712 34 37 34
8.32064 -865.089 -1712 37 40 37
11.9626 -862.569 -1707 38 41 38
15.62 -862.074 -1706 37 40 38
19.2618 -861.077 -1704 35 37 37
22.8818 -859.576 -1701 36 39 36
26.4889 -858.078 -1698 39 42 39
30.0483 -855.572 -1693 39 42 39
33.606 -853.573 -1689 39 42 39
37.1248 -851.072 -1684 40 43 40
40.6468 -849.079 -1680 41 44 41
44.1783 -847.594 -1677 41 44 41
47.6974 -846.111 -1674 42 43 40
51.3265 -846.653 -1675 44 44 42
54.8947 -846.186 -1674 42 45 42
58.599 -847.744 -1677 40 43 40
62.2057 -847.788 -1677 38 41 38
66.0089 -850.363 -1682 38 41 38
69.6273 -850.412 -1682 38 40 40
73.4205 -852.487 -1686 38 40 40
77.1403 -853.553 -1688 39 42 39
80.9172 -855.127 -1691 39 42 39
84.9078 -858.728 -1698 37 40 37
89.1902 -864.861 -1710 35 38 35
93.4164 -869.985 -1720 36 39 34
97.7432 -875.619 -1731 38 39 34
101.825 -878.727 -1737 38 38 34
105.873 -881.332 -1742 39 39 35
109.817 -882.929 -1745 38 38 34
113.971 -886.047 -1751 37 38 34
118.757 -893.723 -1766 38 38 35
124.858 -910.513 -1799 43 41 39
-292.521 -912.564 -1781 66 66 68
-285.512 -902.615 -1762 44 44 44
-278.909 -893.697 -1745 42 42 42
-273.959 -889.908 -1738 42 42 42
-269.51 -887.658 -1734 42 42 42
-264.927 -884.901 -1729 42 42 42
-260.37 -882.147 -1724 40 40 40
-255.985 -879.909 -1720 39 40 40
-252.207 -879.721 -1720 37 40 39
-247.853 -877.49 -1716 36 40 37
-243.946 -876.796 -1715 36 40 37
-239.486 -874.061 -1710 34 38 36
-235.739 -873.885 -1710 33 37 36
-231.588 -872.18 -1707 35 39 38
-227.985 -872.521 -1708 36 40 39
-223.593 -869.8 -1703 35 39 38
-219.612 -868.614 -1701 33 35 35
-215.134 -865.39 -1695 35 37 35
-209.936 -859.107 -1683 36 39 36
-205.283 -854.871 -1675 35 38 35
-201.268 -853.19 -1672 36 39 36
-197.032 -850.492 -1667 36 39 36
-192.704 -847.287 -1661 37 40 37
-188.631 -845.106 -1657 40 43 40
-184.912 -844.458 -1656 40 43 40
-180.981 -842.794 -1653 38 41 38
-177.171 -841.642 -1651 41 44 41
-173.688 -842.023 -1652 40 43 40
-170.098 -841.896 -1652 37 40 37
-166.914 -843.811 -1656 38 41 38
-163.615 -845.217 -1659 37 40 37
-160.594 -848.155 -1665 38 41 38
-157.548 -851.094 -1671 37 40 37
-154.386 -853.526 -1676 38 41 38
-151.023 -854.941 -1679 38 41 38
-148.088 -858.904 -1687 35 38 35
-144.692 -860.324 -1690 35 38 35
-141.45 -862.764 -1695 32 36 33
-137.945 -863.679 -1697 32 35 32
-134.749 -866.633 -1703 33 36 33
-131.297 -868.062 -1706 33 36 33
-128.133 -871.528 -1713 34 34 32
-124.358 -870.927 -1712 32 32 30
-120.801 -871.854 -1714 33 33 31
-117.031 -871.258 -1713 32 32 32
-113.398 -871.682 -1714 33 33 33
-110.019 -874.143 -1719 32 32 32
-106.557 -876.098 -1723 30 30 30
-102.959 -877.038 -1725 30 30 30
-99.5839 -880.014 -1731 32 32 32
-96.073 -881.976 -1735 31 31 31
-92.6522 -884.956 -1741 27 27 27
-89.0021 -885.906 -1743 24 24 24
-85.4911 -888.384 -1748 27 27 27
-82.0527 -891.88 -1755 27 27 27
-78.4066 -893.346 -1758 27 27 27
-74.621 -893.29 -1758 20 20 20
-70.6747 -891.204 -1754 18 18 18
-66.7465 -889.121 -1750 25 25 25
-62.5841 -883.485 -1739 28 28 28
-58.7404 -881.917 -1736 29 29 29
-54.9102 -880.351 -1733 31 32 32
-51.1524 -879.805 -1732 32 34 34
-47.3447 -878.245 -1729 35 35 35
-43.5754 -877.196 -1727 36 36 36
-39.8383 -876.657 -1726 35 35 35
-36.0849 -875.614 -1724 34 34 34
-32.303 -873.557 -1720 32 32 32
-28.6051 -873.535 -1720 31 31 31
-24.8639 -871.992 -1717 33 33 33
-21.1729 -871.975 -1717 34 34 33
-17.4617 -870.945 -1715 34 34 32
-13.7754 -870.934 -1715 34 34 32
-10.0714 -869.402 -1712 33 33 31
-6.3993 -870.412 -1714 34 34 32
-2.70892 -868.377 -1710 35 35 33
0.96628 -868.376 -1710 34 36 34
4.64443 -868.886 -1711 36 39 36
8.32182 -868.891 -1711 36 39 36
11.9785 -867.375 -1708 37 39 38
15.6131 -865.354 -1704 36 38 38
19.2647 -864.859 -1703 35 37 37
22.8582 -862.335 -1698 37 40 37
26.4772 -861.337 -1696 39 42 39
30.0346 -858.819 -1691 38 41 38
33.6306 -857.827 -1689 37 40 37
37.1521 -855.313 -1684 40 43 40
40.725 -854.326 -1682 42 45 42
44.2371 -852.325 -1678 41 44 41
47.7894 -851.343 -1676 41 43 40
51.364 -850.871 -1675 41 42 39
54.9022 -849.894 -1673 39 42 39
58.5021 -849.936 -1673 39 42 39
62.214 -851.504 -1676 39 42 39
65.9785 -853.584 -1680 38 41 38
69.6782 -854.65 -1682 38 40 40
73.4743 -856.735 -1686 38 41 40
77.2425 -858.315 -1689 39 42 39
81.0723 -860.406 -1693 40 43 40
85.0201 -863.516 -1699 39 42 39
89.3599 -870.187 -1712 37 40 37
93.4848 -874.321 -1720 34 38 33
97.8148 -879.983 -1731 36 37 33
102.017 -884.123 -1739 38 38 34
106.011 -886.234 -1743 40 40 36
110.087 -888.855 -1748 38 40 35
114.381 -893.006 -1756 36 39 35
119.181 -900.72 -1771 37 40 37
125.089 -916.068 -1801 41 41 39
-291.753 -914.019 -1775 61 61 61
-285.076 -905.05 -1758 44 44 44
-278.796 -897.118 -1743 42 42 42
-273.69 -892.795 -1735 42 42 42
-269.555 -891.563 -1733 43 43 43
-265.124 -889.306 -1729 42 42 42
-260.563 -886.538 -1724 40 40 40
-256.175 -884.289 -1720 39 39 39
-252.394 -884.099 -1720 39 41 39
-247.748 -880.83 -1714 36 40 37
-243.701 -879.619 -1712 36 40 37
-239.384 -877.384 -1708 34 38 37
-235.638 -877.207 -1708 34 38 37
-231.76 -876.52 -1707 36 40 39
-228.155 -876.862 -1708 36 40 39
-223.628 -873.614 -1702 35 39 38
-219.517 -871.91 -1699 34 36 36
-215.04 -868.67 -1693 33 36 34
-209.967 -862.869 -1682 34 37 34
-205.312 -858.61 -1674 33 36 33
-201.417 -857.434 -1672 35 38 35
-196.823 -853.184 -1664 36 39 36
-192.73 -850.989 -1660 37 40 37
-188.884 -849.822 -1658 40 43 40
-185.049 -848.658 -1656 41 44 41
-181.224 -847.498 -1654 39 42 39
-177.41 -846.34 -1652 39 42 39
-173.921 -846.722 -1653 38 41 38
-170.327 -846.595 -1653 37 40 37
-166.936 -847.494 -1655 38 41 38
-163.637 -848.908 -1658 37 40 37
-160.615 -851.86 -1664 35 38 35
-157.57 -854.814 -1670 34 37 34
-154.592 -858.281 -1677 36 39 36
-151.495 -861.239 -1683 37 40 37
-147.934 -861.64 -1684 36 39 36
-144.884 -865.113 -1691 34 37 34
-141.722 -868.076 -1697 32 36 33
-138.128 -868.484 -1698 32 35 32
-135.165 -872.987 -1707 33 36 33
-131.548 -873.4 -1708 33 36 33
-128.002 -874.326 -1710 33 34 32
-124.45 -875.256 -1712 33 33 31
-121.031 -877.21 -1716 33 33 31
-117.117 -875.589 -1713 33 33 33
-113.813 -878.57 -1719 32 32 32
-110.292 -880.021 -1722 32 32 32
-106.697 -880.963 -1724 31 31 31
-103.274 -883.441 -1729 33 33 33
-99.8298 -885.92 -1734 34 34 34
-96.1436 -886.359 -1735 30 30 30
-92.7203 -889.354 -1741 27 27 27
-89.1698 -891.331 -1745 25 25 25
-85.6517 -893.82 -1750 30 28 28
-82.0194 -895.291 -1753 28 28 28
-78.4196 -897.274 -1757 27 27 27
-74.5907 -896.707 -1756 19 19 19
-70.6863 -895.122 -1753 18 18 18
-66.7573 -893.029 -1749 25 25 25
-62.7021 -888.896 -1741 28 28 28
-58.8174 -886.81 -1737 28 28 28
-54.9821 -885.236 -1734 30 30 30
-51.249 -885.197 -1734 31 33 33
-47.4341 -883.63 -1731 33 33 33
-43.7337 -884.107 -1732 34 34 34
-39.9599 -883.055 -1730 36 36 36
-36.1952 -882.006 -1728 33 33 33
-32.4019 -879.939 -1724 33 33 33
-28.7092 -880.427 -1725 30 30 31
-24.9255 -877.856 -1720 30 30 30
-21.2254 -877.839 -1720 33 33 32
-17.505 -876.804 -1718 34 34 32
-13.8015 -876.282 -1717 35 35 33
-10.0906 -874.742 -1714 34 34 32
-6.40017 -874.226 -1713 34 34 32
-2.71566 -874.222 -1713 34 34 32
0.968258 -873.712 -1712 34 35 33
4.6506 -873.714 -1712 35 37 34
8.32811 -873.208 -1711 36 39 36
11.9944 -872.195 -1709 37 39 38
15.6246 -869.653 -1704 37 39 38
19.2334 -867.115 -1699 36 38 38
22.8481 -865.599 -1696 38 41 38
26.4654 -864.596 -1694 38 42 39
30.0034 -861.555 -1688 38 41 38
33.6154 -861.068 -1687 39 42 39
37.1133 -858.032 -1681 43 46 43
40.7065 -857.55 -1680 43 46 43
44.2431 -856.05 -1677 41 44 41
47.853 -856.084 -1677 40 43 39
51.4326 -855.61 -1676 38 41 36
54.9098 -853.607 -1672 39 42 39
58.5803 -854.67 -1674 39 42 39
62.2227 -855.225 -1675 39 42 39
66.0273 -857.825 -1680 38 41 38
69.7295 -858.897 -1682 39 41 41
73.4848 -860.482 -1685 38 40 39
77.2992 -862.58 -1689 38 41 38
81.1799 -865.192 -1694 39 42 39
85.0825 -867.807 -1699 39 42 39
89.2167 -872.469 -1708 37 40 37
93.4992 -878.155 -1719 33 37 32
97.7735 -883.334 -1729 36 38 33
101.975 -887.496 -1737 40 40 36
106.028 -890.127 -1742 41 41 37
109.979 -891.74 -1745 39 40 36
114.269 -895.911 -1753 39 40 36
119.067 -903.664 -1768 39 39 36
124.694 -917.044 -1794 41 41 37
-291.643 -917.523 -1773 58 58 58
-284.64 -907.475 -1754 43 43 43
-278.365 -899.504 -1739 42 42 42
-273.737 -896.711 -1734 42 42 42
-269.445 -894.956 -1731 42 42 42
-265.323 -893.721 -1729 42 42 42
-260.607 -890.423 -1723 40 40 40
-256.516 -889.196 -1721 40 40 40
-252.583 -888.488 -1720 40 41 40
-247.933 -885.202 -1714 37 41 38
-244.025 -884.501 -1713 35 39 36
-239.562 -881.739 -1708 35 39 37
-235.814 -881.561 -1708 35 39 38
-231.797 -880.354 -1706 37 41 40
-228.191 -880.698 -1707 36 40 39
-223.926 -878.465 -1703 35 39 38
-219.68 -876.236 -1699 33 35 35
-214.819 -871.433 -1690 30 33 31
-209.998 -866.634 -1681 31 34 31
-204.974 -860.809 -1670 34 37 34
-200.964 -859.111 -1667 35 38 35
-196.969 -857.416 -1664 36 39 36
-192.641 -854.18 -1658 37 40 37
-189.025 -854.037 -1658 39 41 38
-185.075 -852.353 -1655 41 44 41
-181.359 -851.702 -1654 41 44 41
-177.326 -849.508 -1650 39 42 39
-173.945 -850.407 -1652 38 41 38
-170.35 -850.279 -1652 38 41 38
-167.06 -851.697 -1655 38 41 38
-163.857 -853.632 -1659 38 41 38
-160.928 -857.113 -1666 35 38 34
-157.876 -860.081 -1672 33 36 33
-154.245 -859.965 -1672 35 38 35
-151.337 -863.966 -1680 36 39 36
-148.043 -865.912 -1684 36 39 36
-144.82 -868.374 -1689 34 37 34
-141.492 -870.324 -1693 33 36 32
-138.149 -872.276 -1697 32 35 32
-135.027 -875.773 -1704 33 36 33
-131.876 -879.271 -1711 33 36 33
-128.547 -881.744 -1716 31 34 31
-124.906 -882.163 -1717 32 33 31
-121.05 -881.044 -1715 33 33 31
-117.272 -880.442 -1714 32 32 32
-113.831 -882.411 -1718 31 31 31
-110.053 -881.815 -1717 31 31 31
-106.776 -885.329 -1724 33 33 33
-103.47 -888.846 -1731 33 33 33
-99.9035 -890.311 -1734 33 33 33
-96.2701 -891.265 -1736 31 31 31
-92.8954 -894.789 -1743 29 29 29
-89.1845 -895.235 -1744 28 27 27
-85.7151 -898.25 -1750 29 28 28
-82.1268 -900.24 -1754 28 28 28
-78.4774 -901.721 -1757 26 26 26
-74.5608 -900.125 -1754 19 19 19
-70.7386 -899.558 -1753 13 13 13
-66.8448 -897.967 -1750 25 25 25
-62.7124 -892.788 -1740 28 28 28
-58.8608 -891.204 -1737 30 30 30
-55.0544 -890.136 -1735 31 31 31
-51.2868 -889.584 -1734 32 32 32
-47.4965 -888.521 -1732 31 31 31
-43.8417 -890.026 -1735 32 32 32
-40.0587 -888.969 -1733 35 35 35
-36.2638 -887.402 -1730 36 34 34
-32.4633 -885.325 -1726 35 34 35
-28.7304 -884.79 -1725 33 33 35
-24.9439 -882.205 -1720 32 32 32
-21.2162 -881.162 -1718 34 34 33
-17.4873 -879.609 -1715 34 34 32
-13.8036 -880.111 -1716 35 35 33
-10.0861 -878.051 -1712 35 35 33
-6.40479 -878.557 -1713 35 35 33
-2.71607 -878.041 -1712 34 35 33
0.968543 -877.528 -1711 34 34 32
4.64864 -877.017 -1710 35 36 33
8.32955 -877.022 -1710 34 37 34
11.9892 -875.491 -1707 35 38 35
15.6271 -873.449 -1703 36 39 37
19.2704 -872.436 -1701 37 39 39
22.8515 -869.375 -1695 37 41 38
26.4694 -868.367 -1693 37 41 38
30.0434 -866.337 -1689 38 41 38
33.6205 -864.822 -1686 40 43 40
37.1849 -863.309 -1683 42 45 42
40.761 -862.312 -1681 43 46 43
44.2759 -860.292 -1677 42 45 42
47.8884 -860.326 -1677 40 43 39
51.3784 -858.311 -1673 39 42 37
55.0161 -858.863 -1674 40 43 40
58.5184 -857.366 -1671 40 43 40
62.1571 -857.924 -1672 39 42 39
65.8793 -859.511 -1675 39 42 39
69.6981 -862.127 -1680 39 41 41
73.4517 -863.719 -1683 39 41 40
77.2193 -865.315 -1686 38 41 38
81.144 -868.453 -1692 37 40 37
85.0455 -871.081 -1697 37 40 37
89.1783 -875.766 -1706 38 41 38
93.5142 -881.994 -1718 34 37 32
97.7328 -886.686 -1727 37 38 34
101.933 -890.867 -1735 40 40 36
106.046 -894.025 -1741 40 40 36
110.06 -896.16 -1745 40 40 36
114.289 -899.838 -1752 40 40 36
119.155 -908.143 -1768 39 39 35
124.439 -919.021 -1789 41 41 37
-291.533 -921.027 -1771 56 57 58
-284.692 -911.449 -1753 45 44 44
-278.414 -903.439 -1738 43 41 41
-273.469 -899.592 -1731 40 40 40
-269.648 -899.387 -1731 41 41 41
-265.522 -898.146 -1729 41 41 41
-261.408 -896.909 -1727 39 39 38
-257.156 -895.155 -1724 39 40 42
-252.479 -891.848 -1718 39 41 42
-248.409 -890.622 -1716 38 40 39
-243.78 -887.323 -1710 35 37 37
-239.882 -886.622 -1709 35 38 37
-235.991 -885.924 -1708 34 38 37
-232.378 -886.266 -1709 36 39 37
-228.362 -885.056 -1707 35 37 36
-224.357 -883.849 -1705 34 37 36
-220.104 -881.609 -1701 33 35 35
-215.234 -876.781 -1692 32 35 33
-210.406 -871.958 -1683 34 37 34
-205.373 -866.103 -1672 35 38 35
-201.477 -864.915 -1670 33 37 34
-197.354 -862.694 -1666 35 39 36
-192.436 -856.852 -1655 39 42 39
-188.824 -856.709 -1655 41 42 40
-184.989 -855.534 -1653 42 42 40
-181.275 -854.879 -1652 43 46 43
-177.351 -853.192 -1649 40 43 40
-173.864 -853.578 -1650 38 41 38
-170.271 -853.45 -1650 38 41 38
-166.983 -854.875 -1653 38 41 38
-163.782 -856.82 -1657 37 40 37
-160.661 -859.284 -1662 37 40 35
-157.615 -862.267 -1668 35 38 35
-154.637 -865.768 -1675 36 39 36
-151.63 -869.272 -1682 36 39 36
-148.154 -870.193 -1684 34 37 34
-144.842 -872.151 -1688 34 37 33
-141.598 -874.627 -1693 33 36 31
-138.578 -878.655 -1701 31 34 31
-135.366 -881.652 -1707 32 35 32
-131.975 -883.618 -1711 33 36 33
-128.867 -887.652 -1719 32 35 32
-124.999 -886.524 -1717 31 32 31
-121.352 -886.949 -1718 32 32 32
-117.907 -888.925 -1722 32 32 32
-114.247 -889.354 -1723 32 32 32
-110.584 -889.786 -1724 34 34 34
-106.979 -890.737 -1726 35 35 35
-103.487 -892.723 -1730 33 33 33
-99.9778 -894.711 -1734 31 31 31
-96.3416 -895.67 -1736 30 30 30
-92.8578 -898.179 -1741 28 28 28
-89.302 -900.175 -1745 28 28 28
-85.7787 -902.689 -1750 28 28 28
-82.0941 -903.658 -1752 29 29 29
-78.5803 -906.693 -1758 26 26 26
-74.5736 -904.057 -1753 26 26 26
-70.8314 -904.519 -1754 22 22 22
-66.8179 -901.374 -1748 23 23 23
-62.9031 -899.263 -1744 28 28 28
-58.9723 -896.639 -1739 32 32 32
-55.2223 -896.597 -1739 32 32 32
-51.4136 -895.526 -1737 32 32 32
-47.6141 -894.458 -1735 33 33 33
-43.8995 -894.94 -1736 34 34 34
-40.1347 -894.393 -1735 35 35 35
-36.3535 -893.334 -1733 33 32 32
-32.5438 -891.246 -1729 34 34 35
-28.8016 -890.708 -1728 35 35 37
-25.0059 -888.111 -1723 34 34 34
-21.2815 -887.578 -1722 37 37 36
-17.5308 -885.502 -1718 37 37 35
-13.8218 -884.975 -1717 38 38 36
-10.1112 -883.935 -1715 38 36 34
-6.42439 -884.96 -1717 37 36 34
-2.71785 -882.379 -1712 31 34 31
0.969739 -882.379 -1712 32 35 32
4.65484 -881.866 -1711 33 36 33
8.34054 -881.871 -1711 34 37 34
11.9982 -879.817 -1707 34 37 34
15.6387 -877.765 -1703 36 38 36
19.2621 -875.717 -1699 37 39 39
22.8551 -873.155 -1694 37 40 37
26.4735 -872.143 -1692 38 41 38
30.0303 -869.586 -1687 37 40 37
33.6455 -869.095 -1686 39 42 39
37.1904 -867.059 -1682 42 45 42
40.7913 -866.573 -1681 42 45 42
44.309 -864.543 -1677 41 44 41
47.8955 -864.061 -1676 38 41 37
51.4475 -863.068 -1674 39 42 37
55.0899 -863.623 -1675 41 44 41
58.5621 -861.603 -1671 40 43 40
62.3151 -863.71 -1675 40 43 40
65.9677 -864.274 -1676 39 42 39
69.7085 -865.871 -1679 39 41 41
73.4629 -867.472 -1682 39 41 40
77.3224 -870.107 -1687 38 41 38
81.1083 -871.713 -1690 37 40 37
85.1086 -875.386 -1697 37 40 37
89.2969 -880.61 -1707 36 39 36
93.5836 -886.353 -1718 35 38 33
97.8055 -891.068 -1727 39 39 35
101.95 -894.754 -1734 41 41 37
105.942 -896.896 -1738 39 39 35
109.953 -899.041 -1742 36 36 32
114.178 -902.738 -1749 36 37 33
118.906 -910.051 -1763 38 39 36
-290.93 -922.963 -1766 53 54 55
-284.258 -913.861 -1749 45 44 44
-278.465 -907.378 -1737 42 39 40
-273.676 -904.034 -1731 38 38 38
-269.852 -903.828 -1731 39 39 38
-265.723 -902.581 -1729 40 40 39
-261 -899.25 -1723 39 39 37
-257.052 -898.531 -1722 36 38 40
-252.816 -896.773 -1719 37 39 41
-248.307 -893.975 -1714 36 38 38
-244.107 -892.224 -1711 35 37 37
-240.485 -892.562 -1712 35 37 37
-236.169 -890.297 -1708 35 39 38
-232.554 -890.641 -1709 36 39 36
-228.802 -890.466 -1709 36 38 36
-224.921 -889.774 -1708 34 36 36
-220.658 -887.522 -1704 33 35 35
-215.778 -882.67 -1695 32 34 33
-211.064 -878.343 -1687 33 36 33
-205.651 -870.898 -1673 34 37 34
-201.99 -870.744 -1673 35 38 35
-197.147 -865.389 -1663 35 39 36
-193.163 -863.681 -1660 37 40 37
-189.194 -861.976 -1657 41 42 39
-185.24 -860.274 -1654 44 44 42
-181.411 -859.096 -1652 41 44 41
-177.592 -857.921 -1650 39 42 39
-174.206 -858.828 -1652 37 40 37
-170.709 -859.218 -1653 37 40 37
-167.411 -860.65 -1656 37 40 37
-164.3 -863.124 -1661 36 39 36
-160.975 -864.56 -1664 38 41 36
-158.017 -868.077 -1671 37 40 37
-154.661 -869.518 -1674 35 38 35
-151.563 -872.52 -1680 35 38 35
-148.177 -873.965 -1683 33 36 33
-144.865 -875.932 -1687 36 39 36
-141.62 -878.42 -1692 34 37 32
-138.437 -881.43 -1698 33 36 33
-135.308 -884.96 -1705 33 36 33
-132.073 -887.974 -1711 32 35 32
-128.889 -891.509 -1718 32 32 30
-125.383 -892.97 -1721 31 31 30
-121.513 -891.84 -1719 30 30 30
-117.858 -892.269 -1720 32 32 32
-114.266 -893.219 -1722 34 34 34
-110.731 -894.691 -1725 34 34 34
-107.121 -895.647 -1727 32 32 32
-103.564 -897.124 -1730 29 29 29
-100.053 -899.121 -1734 28 28 28
-96.3026 -899.048 -1734 29 29 29
-92.7669 -901.051 -1738 29 29 29
-89.1637 -902.538 -1741 29 29 29
-85.7937 -906.619 -1749 29 29 29
-82.1085 -907.594 -1751 29 29 29
-78.5496 -910.125 -1756 27 27 27
-74.6293 -908.513 -1753 35 32 33
-70.9247 -909.495 -1755 32 32 32
-66.8678 -905.816 -1748 21 21 21
-63.0945 -905.767 -1748 27 27 27
-59.0841 -902.094 -1741 30 30 30
-55.2635 -901.015 -1739 33 33 33
-51.5408 -901.494 -1740 34 34 34
-47.7045 -899.902 -1737 36 36 36
-43.9575 -899.868 -1737 35 35 35
-40.1646 -898.8 -1735 34 34 34
-36.3807 -897.736 -1733 33 33 33
-32.5869 -896.156 -1730 35 35 35
-28.8064 -894.579 -1727 36 36 37
-25.039 -893.005 -1724 34 34 34
-21.2972 -891.952 -1722 36 36 35
-17.5745 -891.419 -1721 39 39 37
-13.8561 -890.889 -1720 36 36 34
-10.1129 -887.773 -1714 36 36 34
-6.41782 -887.767 -1714 37 37 35
-2.71668 -885.692 -1710 33 36 33
0.97003 -886.209 -1711 34 37 34
4.64745 -884.14 -1707 35 38 35
8.32251 -883.627 -1706 35 38 35
11.9861 -882.598 -1704 35 38 35
15.6321 -881.055 -1701 37 39 37
19.2652 -879.514 -1698 37 39 39
22.8721 -877.458 -1694 36 39 36
26.4776 -875.922 -1691 36 39 36
30.0526 -873.872 -1687 36 39 36
33.6507 -872.859 -1685 38 41 38
37.2183 -871.332 -1682 41 44 41
40.7976 -870.325 -1680 42 45 42
44.2627 -867.249 -1674 40 43 40
47.9027 -867.802 -1675 38 41 37
51.4551 -866.802 -1673 39 42 37
55.0982 -867.361 -1674 41 44 41
58.5707 -865.331 -1670 41 44 41
62.3244 -867.449 -1674 41 44 41
65.8989 -866.978 -1673 39 42 39
69.7191 -869.621 -1678 38 40 40
73.474 -871.229 -1681 39 41 40
77.3802 -874.395 -1687 38 41 38
81.3132 -877.565 -1693 37 40 37
85.2726 -880.737 -1699 37 40 36
89.4685 -885.987 -1709 36 39 35
93.7084 -891.24 -1719 36 39 34
97.8221 -894.942 -1726 39 40 36
101.967 -898.646 -1733 41 41 37
106.021 -901.317 -1738 37 37 33
109.909 -902.435 -1740 36 36 32
114.394 -908.225 -1751 37 38 35
118.928 -914.018 -1762 39 40 38
124.207 -925.004 -1783 37 37 33
-292.141 -930.661 -1772 46 46 46
-284.962 -919.938 -1752 45 43 44
-279.319 -913.947 -1741 43 40 41
-274.517 -910.586 -1735 40 40 40
-270.525 -909.854 -1734 41 41 40
-266.233 -908.075 -1731 41 41 39
-261.198 -903.678 -1723 39 39 37
-257.546 -904.004 -1724 38 40 41
-252.714 -900.14 -1717 39 41 43
-248.35 -897.852 -1713 38 40 40
-244.007 -895.569 -1709 34 36 36
-240.386 -895.908 -1710 32 34 34
-236.21 -894.156 -1707 31 35 34
-232.866 -895.548 -1710 34 37 34
-228.707 -893.802 -1707 35 38 36
-224.696 -892.583 -1705 34 37 36
-220.436 -890.32 -1701 33 36 34
-215.686 -885.967 -1693 32 35 33
-211.475 -883.712 -1689 33 36 33
-206.421 -877.799 -1678 35 38 35
-202.143 -875.028 -1673 37 40 37
-198.245 -873.831 -1671 35 39 36
-194.008 -871.067 -1666 37 40 37
-189.223 -865.694 -1656 41 43 40
-185.156 -863.461 -1652 43 43 41
-181.548 -863.322 -1652 40 43 40
-177.726 -862.141 -1650 38 41 38
-174.232 -862.531 -1651 37 40 37
-170.837 -863.445 -1653 36 39 36
-167.436 -864.361 -1655 36 39 36
-164.028 -865.28 -1657 36 39 36
-161.097 -868.813 -1664 37 40 35
-158.326 -873.391 -1673 36 39 36
-154.87 -874.316 -1675 35 38 35
-151.767 -877.332 -1681 36 39 36
-148.553 -879.828 -1686 36 39 36
-145.317 -882.326 -1691 38 41 38
-141.811 -883.261 -1693 35 39 34
-138.704 -886.807 -1700 34 37 34
-135.569 -890.355 -1707 33 36 33
-132.25 -892.862 -1712 32 35 32
-128.836 -894.849 -1716 32 32 30
-125.478 -897.361 -1721 31 31 30
-121.958 -898.831 -1724 30 30 30
-118.221 -898.741 -1724 31 31 31
-114.684 -900.217 -1727 32 32 32
-111.006 -900.653 -1728 28 28 28
-107.326 -901.092 -1729 26 26 26
-103.762 -902.576 -1732 27 27 27
-100.07 -903.02 -1733 29 29 29
-96.3749 -903.467 -1734 29 29 29
-92.89 -906.001 -1739 30 30 30
-89.2307 -906.975 -1741 29 29 29
-85.7109 -909.513 -1746 29 29 29
-82.0762 -911.013 -1749 28 28 28
-78.5638 -914.078 -1755 25 24 24
-74.813 -914.541 -1756 38 35 36
-70.9779 -913.965 -1755 39 38 39
-66.9563 -910.789 -1749 24 24 24
-63.0695 -909.177 -1746 28 28 28
-59.1964 -907.569 -1743 30 30 30
-55.3685 -906.485 -1741 32 32 32
-51.5203 -904.883 -1738 33 33 33
-47.6853 -903.284 -1735 35 35 35
-43.9651 -903.77 -1736 36 36 36
-40.1484 -902.176 -1733 35 35 35
-36.429 -902.668 -1734 35 35 35
-32.6489 -901.601 -1732 35 35 35
-28.878 -900.537 -1730 36 36 36
-25.1305 -899.996 -1729 34 34 34
-21.3751 -898.938 -1727 35 35 34
-17.6284 -897.882 -1725 36 37 35
-13.8907 -896.829 -1723 34 36 34
-10.1441 -894.218 -1718 34 35 33
-6.43022 -893.171 -1716 35 35 33
-2.72188 -891.085 -1712 34 37 34
0.972026 -891.605 -1713 37 38 35
4.65663 -889.525 -1709 39 39 37
8.34819 -890.051 -1710 37 40 37
12.0162 -888.497 -1707 38 41 38
15.6622 -886.426 -1703 39 42 39
19.2799 -883.836 -1698 36 39 36
22.8759 -881.249 -1693 35 38 35
26.5132 -880.748 -1692 36 39 36
30.0753 -878.166 -1687 36 39 36
33.656 -876.629 -1684 37 40 37
37.224 -875.094 -1681 39 42 39
40.7796 -873.561 -1678 40 43 40
44.2696 -870.99 -1673 40 43 40
47.91 -871.546 -1674 42 45 41
51.463 -870.542 -1672 42 45 41
55.1396 -871.623 -1674 41 44 41
58.7902 -872.187 -1675 40 43 39
62.4084 -872.233 -1675 39 42 38
66.0273 -872.281 -1675 37 40 37
69.813 -874.416 -1679 36 38 36
73.5292 -875.511 -1681 38 41 38
77.3467 -877.652 -1685 41 44 41
81.3262 -881.357 -1692 40 43 40
85.387 -885.588 -1700 37 40 35
89.5358 -890.342 -1709 34 37 32
93.8332 -896.142 -1720 35 38 33
98.0092 -900.383 -1728 38 39 35
102.103 -903.585 -1734 39 39 35
106.101 -905.748 -1738 36 36 32
109.992 -906.872 -1740 36 36 32
114.219 -910.605 -1747 39 39 35
118.747 -916.427 -1758 41 41 38
123.882 -926.423 -1777 39 39 34
-292.035 -934.178 -1770 41 41 42
-285.018 -923.929 -1751 41 40 41
-279.372 -917.909 -1740 42 39 40
-274.728 -915.059 -1735 41 41 41
-270.42 -913.268 -1732 42 42 41
-266.129 -911.481 -1729 41 41 39
-261.246 -907.589 -1722 39 39 37
-257.294 -906.863 -1721 38 40 40
-252.76 -904.033 -1716 39 41 42
-248.685 -902.788 -1714 39 41 41
-244.622 -901.546 -1712 35 38 37
-240.57 -900.307 -1710 32 35 34
-236.806 -900.124 -1710 31 35 34
-233.044 -899.945 -1710 33 37 35
-229.15 -899.242 -1709 34 38 35
-224.867 -896.964 -1705 33 37 36
-220.734 -895.216 -1702 32 36 33
-216.233 -891.893 -1696 32 36 33
-211.761 -888.575 -1690 31 35 32
-206.702 -882.632 -1679 34 37 34
-202.418 -879.848 -1674 37 40 37
-198.158 -877.068 -1669 35 39 36
-193.922 -874.291 -1664 36 39 36
-189.366 -869.942 -1656 40 43 40
-185.633 -869.274 -1655 42 43 41
-181.576 -867.033 -1651 40 43 40
-177.753 -865.846 -1649 39 42 39
-174.469 -867.287 -1652 37 40 37
-171.174 -868.731 -1655 36 39 36
-167.766 -869.651 -1657 37 40 37
-164.152 -869.525 -1657 37 40 37
-161.122 -872.55 -1663 38 41 36
-157.972 -875.052 -1668 37 40 37
-154.802 -877.556 -1673 36 39 36
-151.792 -881.111 -1680 37 40 37
-148.489 -883.095 -1684 36 39 36
-145.428 -886.654 -1691 36 39 35
-142.002 -888.117 -1694 35 38 33
-138.891 -891.68 -1701 34 37 34
-135.354 -892.625 -1703 33 36 33
-132.35 -897.24 -1712 32 35 32
-129.083 -900.285 -1718 32 33 31
-125.646 -902.285 -1722 31 32 31
-121.838 -901.667 -1721 31 31 31
-118.31 -903.148 -1724 31 31 31
-114.837 -905.155 -1728 30 30 30
-111.09 -905.069 -1728 27 27 27
-107.531 -906.558 -1731 26 26 26
-103.78 -906.477 -1731 29 29 29
-100.146 -907.448 -1733 30 30 30
-96.3921 -907.373 -1733 31 31 31
-92.7999 -908.872 -1736 32 32 32
-89.1955 -910.374 -1739 30 30 30
-85.8247 -914.496 -1747 28 28 28
-82.1382 -915.479 -1749 28 28 28
-78.7574 -920.129 -1758 23 22 22
-74.9975 -920.594 -1759 44 42 40
-71.1934 -920.539 -1759 47 46 46
-67.2749 -918.916 -1756 27 27 27
-63.1171 -913.634 -1746 30 30 30
-59.275 -912.541 -1744 30 30 30
-55.3784 -910.405 -1740 32 32 32
-51.5887 -909.841 -1739 33 33 33
-47.7762 -908.758 -1737 33 33 33
-43.9983 -908.2 -1736 35 35 35
-40.1786 -906.599 -1733 35 35 35
-36.4143 -906.046 -1732 36 36 36
-32.6359 -904.974 -1730 36 36 36
-28.8663 -903.905 -1728 36 36 36
-25.1494 -904.407 -1729 35 36 35
-21.4159 -904.39 -1729 35 37 35
-17.6621 -903.329 -1727 35 38 35
-13.9011 -901.225 -1723 35 38 35
-10.1576 -899.124 -1719 34 35 32
-6.43493 -897.548 -1716 35 35 33
-2.72231 -894.93 -1711 34 37 34
0.971756 -894.929 -1711 35 37 35
4.66015 -893.885 -1709 37 39 37
8.34972 -893.89 -1709 37 40 37
12.0044 -891.283 -1704 39 42 39
15.6741 -890.77 -1703 38 41 38
19.3057 -888.691 -1699 36 39 36
22.9203 -886.615 -1695 36 39 36
26.5491 -885.588 -1693 37 40 37
30.1337 -883.517 -1689 36 39 36
33.7416 -882.495 -1687 37 40 37
37.2745 -879.906 -1682 40 43 40
40.8348 -878.366 -1679 42 45 42
44.3295 -875.783 -1674 43 46 43
47.9177 -875.294 -1673 41 44 41
51.4711 -874.286 -1671 41 44 41
55.1483 -875.373 -1673 41 44 41
58.7292 -874.893 -1672 41 44 39
62.3811 -875.462 -1673 39 42 38
65.9984 -875.51 -1673 37 40 37
69.6579 -876.085 -1674 35 38 35
73.4536 -878.233 -1678 38 41 38
77.3133 -880.907 -1683 41 44 41
81.2916 -884.631 -1690 41 44 41
85.2507 -887.835 -1696 38 41 37
89.4986 -893.66 -1707 36 39 34
93.7951 -899.489 -1718 35 35 31
98.0266 -904.274 -1727 37 37 33
102.121 -907.491 -1733 38 38 34
106.243 -910.713 -1739 36 36 32
110.138 -911.842 -1741 36 36 32
114.305 -915.07 -1747 40 40 36
118.77 -920.397 -1757 42 42 38
123.767 -929.394 -1774 39 37 31
-292.26 -938.755 -1770 43 45 47
-285.563 -929.517 -1753 39 40 41
-279.748 -922.936 -1741 39 39 39
-274.622 -918.482 -1733 41 41 41
-270.316 -916.682 -1730 41 41 40
-266.179 -915.416 -1728 39 39 37
-261.295 -911.505 -1721 38 39 37
-257.492 -911.305 -1721 39 40 40
-252.806 -907.932 -1715 38 40 40
-249.021 -907.739 -1715 38 40 40
-244.524 -904.902 -1710 36 39 38
-241.036 -905.774 -1712 34 38 37
-236.848 -904.003 -1709 33 37 36
-233.495 -905.409 -1712 33 37 35
-229.594 -904.702 -1711 33 37 34
-225.567 -903.47 -1709 32 36 35
-221.552 -902.242 -1707 32 36 33
-217.292 -899.959 -1703 32 36 33
-212.425 -895.038 -1694 32 36 33
-207.599 -890.123 -1685 35 39 36
-203.057 -886.267 -1678 35 39 36
-198.428 -881.888 -1670 35 39 36
-193.72 -876.986 -1661 37 40 37
-189.855 -875.783 -1659 40 43 40
-185.438 -871.944 -1652 41 44 41
-181.825 -871.804 -1652 40 43 40
-177.997 -870.611 -1650 39 42 39
-174.814 -872.586 -1654 36 39 36
-171.201 -872.454 -1654 37 40 37
-167.894 -873.906 -1657 37 40 37
-164.377 -874.307 -1658 38 41 38
-161.245 -876.819 -1663 37 40 35
-158.187 -879.86 -1669 38 41 37
-155.012 -882.376 -1674 38 41 38
-152.179 -887.002 -1683 37 40 37
-149.043 -890.049 -1689 36 39 36
-145.796 -892.571 -1694 35 38 34
-142.11 -892.461 -1694 33 36 32
-139.078 -896.569 -1702 33 36 33
-135.377 -896.464 -1702 33 36 33
-132.219 -900.049 -1709 34 37 34
-129.181 -904.688 -1718 32 34 33
-125.595 -905.644 -1720 31 32 31
-122.001 -906.603 -1722 32 32 32
-118.469 -908.091 -1725 33 33 33
-114.924 -909.581 -1728 32 32 32
-111.175 -909.495 -1728 29 29 29
-107.488 -909.938 -1729 29 29 29
-103.799 -910.384 -1730 30 30 30
-100.164 -911.358 -1732 31 31 31
-96.4095 -911.284 -1732 33 33 33
-92.9237 -913.842 -1737 32 32 32
-89.3659 -915.877 -1741 29 29 29
-85.939 -919.493 -1748 28 28 28
-82.3415 -921.533 -1752 26 26 26
-78.9517 -926.205 -1761 23 23 23
-75.225 -927.198 -1763 49 47 45
-71.2473 -925.039 -1759 56 56 56
-67.326 -923.409 -1756 22 22 22
-63.3096 -920.204 -1750 28 28 28
-59.3199 -917.002 -1744 31 31 31
-55.3567 -913.804 -1738 31 31 31
-51.5684 -913.238 -1737 31 31 31
-47.7849 -912.674 -1736 32 32 32
-44.0062 -912.114 -1735 32 32 32
-40.2322 -911.556 -1734 33 33 33
-36.4629 -911.001 -1733 33 33 33
-32.6605 -909.398 -1730 34 34 35
-28.9049 -908.849 -1729 34 34 34
-25.1683 -908.828 -1729 33 36 33
-21.432 -908.811 -1729 34 37 34
-17.655 -906.694 -1725 36 39 36
-13.9116 -905.63 -1723 36 38 35
-10.1652 -903.519 -1719 35 35 33
-6.44738 -902.987 -1718 34 35 32
-2.73072 -901.407 -1715 34 37 34
0.974671 -901.406 -1715 34 37 34
4.6828 -901.934 -1716 36 39 36
8.36594 -899.311 -1711 38 39 37
12.0346 -897.216 -1707 37 40 36
15.686 -895.124 -1703 37 40 37
19.2862 -891.458 -1696 37 40 37
22.9106 -889.898 -1693 37 40 37
26.5223 -888.34 -1690 37 40 37
30.1209 -886.784 -1687 38 41 38
33.747 -886.283 -1686 39 42 39
37.2806 -883.682 -1681 41 44 41
40.8416 -882.134 -1678 42 45 42
44.3368 -879.538 -1673 42 45 42
47.9254 -879.048 -1672 41 44 41
51.4487 -877.508 -1669 41 44 41
55.0912 -878.075 -1670 40 43 40
58.7036 -878.118 -1670 40 43 38
62.4286 -879.742 -1673 39 42 38
66.0091 -879.265 -1672 39 42 39
69.7941 -881.42 -1676 39 42 39
73.5532 -883.053 -1679 41 44 41
77.3721 -885.214 -1683 41 44 40
81.3535 -888.957 -1690 41 44 41
85.4162 -893.228 -1698 40 43 38
89.7767 -900.134 -1711 37 39 34
94.0849 -905.991 -1722 35 35 31
98.3284 -910.8 -1731 35 35 31
102.376 -913.508 -1736 37 37 33
106.446 -916.218 -1741 37 37 33
110.222 -916.301 -1741 38 38 34
114.327 -919.018 -1746 39 39 35
118.522 -922.265 -1752 41 41 37
123.582 -931.834 -1770 39 37 31
129.801 -949.305 -1803 61 60 59
-292.321 -942.81 -1769 39 41 43
-285.784 -934.06 -1753 38 39 41
-279.803 -926.914 -1740 39 39 39
-274.676 -922.438 -1732 41 41 39
-270.212 -920.096 -1728 41 41 39
-265.768 -917.759 -1724 39 39 37
-261.345 -915.426 -1720 37 40 37
-257.691 -915.757 -1721 39 41 40
-253.444 -913.963 -1718 39 41 41
-249.068 -911.641 -1714 37 41 40
-245.142 -910.918 -1713 35 39 38
-241.222 -910.198 -1712 36 40 39
-237.308 -909.481 -1711 35 39 36
-233.812 -910.362 -1713 32 36 33
-229.905 -909.652 -1712 32 36 33
-226.137 -909.476 -1712 32 36 35
-221.852 -907.178 -1708 31 35 32
-217.459 -904.353 -1703 32 36 33
-212.839 -900.47 -1696 32 36 33
-208.252 -896.591 -1689 34 38 35
-203.455 -891.655 -1680 34 38 35
-198.819 -887.255 -1672 35 39 36
-194.336 -883.389 -1665 37 40 37
-190.115 -880.588 -1660 40 43 40
-186.142 -878.852 -1657 42 45 42
-182.405 -878.18 -1656 41 44 41
-178.673 -877.511 -1655 40 43 40
-175.265 -878.435 -1657 37 40 37
-171.436 -877.241 -1655 38 41 38
-168.124 -878.701 -1658 38 41 38
-164.304 -877.513 -1656 40 43 40
-161.174 -880.037 -1661 39 42 37
-158.024 -882.564 -1666 37 40 36
-154.946 -885.622 -1672 37 40 37
-151.934 -889.211 -1679 37 40 37
-148.804 -892.273 -1685 35 38 35
-145.736 -895.867 -1692 35 38 35
-142.051 -895.756 -1692 34 37 34
-139.103 -900.413 -1701 34 37 34
-135.56 -901.366 -1703 35 38 35
-132.397 -904.968 -1710 35 38 35
-128.904 -906.456 -1713 34 35 35
-125.764 -910.591 -1721 32 33 33
-122.095 -911.025 -1722 32 32 32
-118.491 -911.991 -1724 33 33 33
-114.879 -912.959 -1726 32 32 32
-111.26 -913.93 -1728 31 31 31
-107.571 -914.376 -1729 30 30 30
-103.818 -914.295 -1729 32 32 32
-100.298 -916.332 -1733 33 33 33
-96.4832 -915.728 -1732 34 34 34
-93.0482 -918.827 -1738 33 33 33
-89.434 -920.343 -1741 28 28 28
-86.1029 -925.034 -1750 27 27 27
-82.5924 -928.141 -1756 27 27 27
-79.1466 -932.307 -1764 22 21 21
-75.3251 -932.248 -1764 51 49 47
-71.4638 -931.663 -1763 67 66 66
-67.454 -928.968 -1758 24 24 24
-63.4303 -925.748 -1752 27 27 27
-59.3652 -921.473 -1744 30 30 30
-55.4945 -919.845 -1741 29 29 29
-51.6077 -917.691 -1737 31 31 31
-47.8488 -917.653 -1737 33 33 33
-44.0905 -917.618 -1737 34 34 34
-40.2164 -914.944 -1732 35 35 35
-36.4485 -914.386 -1731 32 34 36
-32.6665 -913.304 -1729 34 36 37
-28.9269 -913.28 -1729 34 36 36
-25.1729 -912.731 -1728 32 35 32
-21.436 -912.714 -1728 34 37 34
-17.6582 -910.586 -1724 34 37 34
-13.9059 -908.989 -1721 38 38 36
-10.167 -907.396 -1718 35 35 33
-6.44837 -906.861 -1717 36 36 34
-2.73595 -906.858 -1717 36 39 36
0.975545 -905.801 -1715 33 36 33
4.6809 -905.275 -1714 35 38 35
8.36263 -902.639 -1709 36 36 34
12.0298 -900.534 -1705 35 38 33
15.6704 -897.904 -1700 37 40 36
19.3011 -895.805 -1696 38 41 38
22.9146 -893.708 -1692 37 40 37
26.5581 -893.199 -1691 37 40 37
30.1619 -891.636 -1688 37 40 37
33.7731 -890.604 -1686 40 43 40
37.3314 -888.518 -1682 42 45 42
40.8484 -885.907 -1677 44 47 44
44.3442 -883.298 -1672 43 46 43
47.8761 -881.749 -1669 41 44 41
51.4571 -881.259 -1668 40 43 40
55.0344 -880.771 -1667 39 42 39
58.7487 -882.4 -1670 39 42 37
62.439 -883.503 -1672 39 42 38
66.178 -885.137 -1675 41 44 41
69.8474 -885.718 -1676 42 45 42
73.6534 -887.887 -1680 42 45 40
77.5694 -891.116 -1686 40 43 38
81.5602 -894.877 -1693 40 43 40
85.6324 -899.17 -1701 38 41 36
90.0028 -906.109 -1714 34 36 31
94.5397 -914.11 -1729 35 35 31
98.6877 -917.885 -1736 35 35 31
102.631 -919.549 -1739 37 37 33
106.711 -922.273 -1744 37 37 33
110.56 -922.885 -1745 41 39 35
114.545 -924.559 -1748 40 40 37
118.613 -926.764 -1752 40 40 37
123.397 -934.263 -1766 37 37 32
128.964 -947.057 -1790 55 55 54
-292.549 -947.406 -1769 40 41 42
-286.17 -939.148 -1754 40 40 40
-279.86 -930.896 -1739 40 40 38
-275.048 -927.469 -1733 40 40 38
-269.952 -922.975 -1725 42 42 40
-265.821 -921.696 -1723 41 41 39
-261.396 -919.352 -1719 38 41 38
-257.741 -919.684 -1720 38 41 39
-253.346 -917.347 -1716 39 41 41
-249.407 -916.617 -1715 38 42 41
-245.188 -914.821 -1712 37 41 40
-241.691 -915.7 -1714 36 40 39
-237.77 -914.98 -1713 33 37 34
-234.266 -915.865 -1715 33 37 34
-230.352 -915.15 -1714 34 38 35
-226.312 -913.905 -1712 32 36 34
-222.154 -912.13 -1709 32 36 33
-218.011 -910.358 -1706 32 36 33
-213.632 -907.523 -1701 32 36 33
-209.03 -903.624 -1694 34 38 35
-203.976 -897.597 -1683 35 39 36
-199.21 -892.641 -1674 35 39 36
-194.369 -887.157 -1664 37 40 37
-190.376 -885.409 -1661 39 42 39
-186.174 -882.598 -1656 41 44 41
-182.876 -884.054 -1659 42 45 42
-178.811 -881.782 -1655 41 44 41
-175.295 -882.178 -1656 37 40 37
-171.568 -881.511 -1655 40 43 40
-168.152 -882.445 -1657 40 43 40
-164.63 -882.849 -1658 40 43 40
-161.687 -886.45 -1665 38 41 38
-158.525 -888.988 -1670 37 40 37
-155.344 -891.528 -1675 37 40 37
-152.322 -895.135 -1682 36 39 36
-149.007 -897.148 -1686 35 38 35
-145.934 -900.758 -1693 34 37 34
-142.496 -902.243 -1696 33 37 34
-139.128 -904.262 -1700 34 37 34
-135.585 -905.22 -1702 34 37 34
-132.422 -908.839 -1709 34 37 34
-128.853 -909.802 -1711 34 34 34
-125.642 -913.426 -1718 33 33 33
-122.118 -914.925 -1721 33 33 33
-118.582 -916.428 -1724 33 33 33
-114.901 -916.869 -1725 33 33 33
-111.216 -917.314 -1726 32 32 32
-107.653 -918.824 -1729 31 31 31
-103.958 -919.274 -1730 33 33 33
-100.375 -920.789 -1733 34 34 34
-96.836 -922.838 -1737 34 34 34
-93.2804 -924.89 -1741 33 33 33
-89.6055 -925.882 -1743 31 31 31
-86.366 -931.658 -1754 28 28 28
-82.8442 -934.779 -1760 26 24 25
-79.2522 -937.373 -1765 27 24 25
-75.4255 -937.313 -1765 47 45 43
-71.478 -935.664 -1762 67 67 66
-67.3905 -931.893 -1755 22 22 22
-63.2978 -927.595 -1747 29 29 29
-59.4447 -926.486 -1745 28 28 27
-55.5371 -924.318 -1741 29 29 28
-51.6473 -922.153 -1737 31 31 30
-47.8579 -921.584 -1736 33 33 32
-44.0734 -921.018 -1735 35 35 34
-40.224 -918.862 -1731 35 35 33
-36.4764 -918.833 -1731 31 33 35
-32.7104 -918.276 -1730 32 34 35
-28.949 -917.721 -1729 33 35 35
-25.163 -916.108 -1726 32 35 32
-21.4399 -916.621 -1727 33 36 33
-17.6615 -914.483 -1723 34 37 34
-13.9247 -913.94 -1722 38 38 36
-10.1865 -912.87 -1720 37 37 35
-6.4684 -913.394 -1721 35 35 33
-2.74256 -912.86 -1720 35 38 35
0.979269 -912.859 -1720 33 36 33
4.69838 -912.331 -1719 35 37 34
8.37891 -908.09 -1711 36 36 34
12.0673 -907.036 -1709 36 38 33
15.7009 -903.332 -1702 38 40 36
19.316 -900.161 -1696 37 40 36
22.9595 -899.116 -1694 37 40 37
26.5628 -897.012 -1690 36 39 36
30.2029 -896.503 -1689 37 40 37
33.799 -894.935 -1686 39 42 39
37.3155 -891.778 -1680 42 45 42
40.904 -890.746 -1678 43 46 43
44.4048 -888.125 -1673 41 44 41
48.0276 -888.16 -1673 39 42 39
51.4968 -885.544 -1668 39 42 39
55.1097 -885.585 -1668 41 43 41
58.8289 -887.222 -1671 40 43 38
62.487 -887.8 -1672 39 42 38
66.2289 -889.442 -1675 40 43 40
69.9012 -890.026 -1676 41 44 41
73.7099 -892.206 -1680 41 44 40
77.5828 -894.919 -1685 39 42 38
81.6228 -899.23 -1693 38 41 38
85.7991 -904.606 -1703 35 38 33
90.1771 -911.579 -1716 34 37 32
94.5577 -918.025 -1728 34 35 31
98.7069 -921.819 -1735 37 37 33
102.592 -922.959 -1737 37 37 33
106.732 -926.228 -1743 37 37 33
110.455 -925.78 -1742 39 38 34
114.371 -926.93 -1744 39 39 36
118.636 -930.741 -1751 39 39 35
123.212 -936.681 -1762 38 38 34
128.342 -946.348 -1780 47 45 43
-298.225 -957.089 -1778 91 91 91
-291.454 -947.708 -1761 43 43 43
-285.741 -941.562 -1750 40 40 40
-279.918 -934.884 -1738 39 40 38
-274.946 -930.902 -1731 40 40 38
-270.164 -927.462 -1725 41 41 39
-265.874 -925.639 -1722 42 42 40
-261.752 -924.357 -1720 38 41 38
-257.492 -922.542 -1717 36 39 36
-253.543 -921.805 -1716 38 40 38
-249.602 -921.071 -1715 38 42 41
-245.666 -920.34 -1714 38 42 41
-241.456 -918.539 -1711 36 40 39
-238.094 -919.962 -1714 33 37 34
-234.312 -919.778 -1714 34 38 35
-230.397 -919.06 -1713 35 39 36
-226.489 -918.345 -1712 33 37 34
-222.327 -916.561 -1709 33 37 33
-218.308 -915.316 -1707 33 37 33
-214.049 -913.003 -1703 32 36 33
-209.069 -907.477 -1693 32 36 33
-204.498 -903.564 -1686 33 37 34
-199.484 -897.512 -1675 35 39 36
-194.403 -890.929 -1663 38 41 38
-190.524 -889.708 -1661 39 42 39
-186.318 -886.883 -1656 40 43 40
-182.687 -886.74 -1656 41 44 41
-178.734 -884.993 -1653 42 45 42
-175.431 -886.461 -1656 36 39 36
-171.598 -885.256 -1654 37 40 37
-168.282 -886.729 -1657 41 44 41
-164.757 -887.135 -1658 41 44 41
-161.618 -889.683 -1663 40 43 40
-158.458 -892.234 -1668 38 41 38
-155.278 -894.786 -1673 36 39 36
-152.168 -897.876 -1679 34 37 34
-149.034 -900.967 -1685 34 36 35
-145.53 -901.922 -1687 34 36 36
-142.27 -904.483 -1692 31 35 32
-139.318 -909.185 -1701 33 35 35
-135.849 -910.682 -1704 32 34 34
-132.446 -912.715 -1708 31 34 31
-129.027 -914.752 -1712 33 33 33
-125.592 -916.79 -1716 32 32 32
-122.07 -918.297 -1719 34 34 34
-118.673 -920.875 -1724 34 34 34
-114.856 -920.25 -1723 34 34 34
-111.431 -922.832 -1728 33 33 33
-107.861 -924.35 -1731 33 33 33
-104.279 -925.869 -1734 32 32 32
-100.684 -927.392 -1737 33 33 33
-96.8549 -926.782 -1736 33 33 33
-93.5669 -931.513 -1745 33 33 33
-89.6232 -929.84 -1742 32 32 32
-86.3833 -935.643 -1753 28 28 28
-82.9551 -939.848 -1761 26 24 25
-79.3133 -941.92 -1765 26 23 24
-75.5265 -942.393 -1766 47 45 43
-71.5738 -940.736 -1763 69 69 68
-67.4809 -936.947 -1756 25 25 25
-63.5278 -934.762 -1752 28 28 28
-59.5586 -932.047 -1747 30 30 28
-55.6756 -930.402 -1744 31 31 29
-51.806 -928.76 -1741 31 31 29
-47.8948 -926.054 -1736 32 32 30
-44.0819 -924.952 -1734 33 33 31
-40.2781 -923.853 -1732 34 34 32
-36.5257 -923.823 -1732 32 34 36
-32.7355 -922.73 -1730 32 34 35
-28.9545 -921.639 -1728 31 33 33
-25.1678 -920.018 -1725 33 36 33
-21.4315 -920 -1725 34 37 34
-17.6545 -917.852 -1721 35 38 35
-13.9192 -917.307 -1720 35 38 35
-10.1884 -916.764 -1719 36 39 36
-6.46567 -916.757 -1719 36 39 36
-2.74623 -917.82 -1721 34 37 34
0.980495 -917.82 -1721 33 36 33
4.69651 -915.689 -1717 34 36 34
8.39034 -913.028 -1712 35 35 33
12.0555 -909.835 -1706 37 37 34
15.6855 -906.113 -1699 38 39 36
19.331 -904.527 -1696 38 41 36
22.9907 -904.01 -1695 39 42 39
26.6464 -903.496 -1694 38 41 38
30.2263 -900.851 -1689 37 40 37
33.825 -899.276 -1686 38 41 38
37.3668 -896.636 -1681 40 43 40
40.8869 -894 -1676 42 45 42
44.4125 -891.899 -1672 41 44 41
47.95 -890.335 -1669 41 44 41
51.5673 -890.373 -1669 40 43 40
55.2186 -890.948 -1670 40 41 39
58.8743 -891.526 -1671 38 41 38
62.4979 -891.573 -1671 38 41 38
66.2406 -893.223 -1674 39 42 39
69.9969 -894.877 -1677 39 42 39
73.8108 -897.067 -1681 40 43 40
77.735 -900.328 -1687 39 42 38
81.7824 -904.659 -1695 36 39 34
85.9159 -909.528 -1704 35 38 33
90.3519 -917.069 -1718 33 36 31
94.7951 -924.081 -1731 33 36 31
98.7263 -925.757 -1734 36 36 32
102.671 -927.437 -1737 36 36 32
106.63 -929.12 -1740 35 35 31
110.35 -928.67 -1739 38 38 34
114.46 -931.428 -1744 40 40 36
118.728 -935.257 -1751 41 41 37
123.378 -941.761 -1763 40 40 36
128.658 -952.543 -1783 45 44 41
134.993 -970.276 -1816 53 52 50
-297.117 -957.404 -1770 82 82 82
-291.021 -950.141 -1757 43 43 43
-285.312 -943.965 -1746 42 42 42
-279.493 -937.256 -1734 38 41 38
-274.367 -932.714 -1726 39 39 37
-269.906 -930.338 -1722 39 39 37
-265.774 -929.047 -1720 40 40 38
-261.349 -926.679 -1716 37 40 37
-257.544 -926.475 -1716 37 40 37
-253.299 -924.654 -1713 39 42 39
-249.652 -924.996 -1714 39 43 42
-245.429 -923.182 -1711 37 42 41
-242.069 -924.609 -1714 33 38 37
-238.559 -925.499 -1716 34 38 35
-234.222 -923.157 -1712 35 39 36
-230.443 -922.974 -1712 35 39 36
-226.798 -923.334 -1713 34 38 35
-222.501 -921.002 -1709 33 37 33
-218.351 -919.212 -1706 33 37 32
-214.468 -918.504 -1705 32 36 33
-209.356 -912.412 -1694 32 36 33
-204.78 -908.48 -1687 33 37 34
-199.998 -903.475 -1678 34 38 35
-194.906 -896.86 -1666 37 41 38
-190.903 -895.094 -1663 39 42 39
-186.689 -892.255 -1658 39 42 39
-182.83 -891.035 -1656 40 43 40
-178.765 -888.741 -1652 40 43 40
-175.462 -890.216 -1655 36 39 36
-171.628 -889.005 -1653 38 41 38
-168.414 -891.023 -1657 40 43 40
-164.886 -891.431 -1658 41 44 41
-161.938 -895.066 -1665 40 43 40
-158.772 -897.629 -1670 39 41 39
-155.585 -900.193 -1675 37 39 38
-152.378 -902.76 -1680 34 37 34
-149.15 -905.329 -1685 33 35 34
-145.988 -908.437 -1691 33 35 35
-142.717 -911.011 -1696 34 37 34
-139.344 -913.049 -1700 34 36 35
-135.875 -914.553 -1703 33 35 35
-132.55 -917.133 -1708 32 35 32
-128.977 -918.105 -1710 31 33 33
-125.543 -920.154 -1714 32 33 33
-122.023 -921.668 -1717 34 34 34
-118.628 -924.258 -1722 34 34 34
-114.945 -924.704 -1723 34 34 34
-111.518 -927.299 -1728 34 34 34
-107.882 -928.287 -1730 33 33 33
-104.179 -928.74 -1731 31 31 31
-100.647 -930.807 -1735 29 29 29
-97.0417 -932.339 -1738 31 31 31
-93.4249 -933.875 -1741 32 32 32
-89.8472 -935.949 -1745 31 31 31
-86.4009 -939.635 -1752 30 30 30
-82.878 -942.787 -1758 30 28 28
-79.1949 -944.332 -1761 23 20 21
-75.3711 -944.272 -1761 33 31 29
-71.4261 -942.607 -1758 44 43 42
-67.4178 -939.872 -1753 27 27 26
-63.432 -937.141 -1748 30 30 28
-59.5024 -934.948 -1744 31 31 29
-55.6868 -934.367 -1743 32 32 30
-51.7271 -931.11 -1737 31 31 29
-47.849 -928.927 -1733 32 31 29
-44.0907 -928.891 -1733 34 33 31
-40.2861 -927.786 -1731 36 36 34
-36.5116 -927.22 -1730 35 37 38
-32.7609 -927.194 -1730 35 37 37
-28.9769 -926.098 -1728 34 36 35
-25.2018 -925.005 -1726 35 38 35
-21.4356 -923.915 -1724 35 38 35
-17.6784 -922.828 -1722 34 37 34
-13.946 -922.816 -1722 33 36 33
-10.2139 -922.806 -1722 33 35 34
-6.48953 -923.872 -1724 32 34 34
-2.7499 -922.797 -1722 33 35 34
0.981953 -922.796 -1722 35 38 35
4.70583 -921.191 -1719 35 37 35
8.39689 -917.445 -1712 34 36 36
12.0721 -914.773 -1707 34 36 36
15.7162 -911.569 -1701 36 38 37
19.3574 -909.439 -1697 37 40 37
22.995 -907.847 -1694 39 42 39
26.6356 -906.795 -1692 39 42 39
30.196 -903.601 -1686 39 42 39
33.8313 -903.091 -1685 38 41 38
37.3067 -898.831 -1677 39 42 39
40.9431 -898.861 -1677 43 46 43
44.4205 -895.678 -1671 42 45 42
48.0159 -895.178 -1670 40 43 40
51.6694 -895.753 -1671 40 42 39
55.2944 -895.795 -1671 41 41 39
58.8849 -895.303 -1670 39 42 39
62.5464 -895.887 -1671 38 41 38
66.2919 -897.545 -1674 39 42 39
70.0096 -898.671 -1676 40 43 40
73.7802 -900.336 -1679 38 41 38
77.8416 -905.221 -1688 37 40 37
81.9909 -910.646 -1698 34 37 32
86.134 -915.538 -1707 34 37 32
90.5276 -922.58 -1720 33 36 31
94.8688 -928.552 -1731 33 36 31
98.9169 -931.31 -1736 35 35 31
102.692 -931.389 -1736 35 35 31
106.713 -933.617 -1740 35 35 31
110.436 -933.165 -1739 37 37 33
114.548 -935.936 -1744 38 38 34
118.752 -939.247 -1750 41 41 37
123.123 -943.635 -1758 40 40 36
127.747 -949.638 -1769 44 43 41
133.61 -964.235 -1796 53 52 50
-302.664 -966.623 -1778 96 96 97
-296.345 -958.775 -1764 61 61 61
-291.085 -954.194 -1756 42 42 42
-285.374 -947.989 -1745 41 41 41
-280.037 -942.876 -1736 38 40 38
-275.538 -940.483 -1732 39 39 37
-270.59 -936.466 -1725 40 40 38
-265.984 -933.54 -1720 40 40 38
-261.707 -931.703 -1717 38 41 38
-257.597 -930.412 -1715 38 41 38
-253.499 -929.125 -1713 39 42 40
-249.703 -928.926 -1713 39 43 43
-245.909 -928.73 -1713 38 43 42
-242.401 -929.622 -1715 35 40 40
-238.747 -929.973 -1716 35 39 37
-234.406 -927.619 -1712 35 39 37
-231.163 -929.602 -1716 35 39 36
-226.844 -927.255 -1712 34 38 35
-222.546 -924.911 -1708 34 38 34
-218.523 -923.654 -1706 34 38 34
-214.637 -922.942 -1705 33 37 34
-209.273 -915.739 -1692 32 36 33
-204.698 -911.788 -1685 31 35 32
-200.155 -907.841 -1678 33 37 34
-195.293 -902.275 -1668 35 38 35
-191.052 -899.419 -1663 36 40 37
-186.723 -896.025 -1657 39 42 39
-182.752 -894.258 -1654 39 42 39
-179.122 -894.116 -1654 39 42 39
-175.599 -894.517 -1655 39 42 39
-171.866 -893.84 -1654 38 41 38
-168.546 -895.327 -1657 38 41 38
-165.114 -896.277 -1659 37 40 37
-161.87 -898.309 -1663 40 41 39
-158.706 -900.884 -1668 39 41 39
-155.521 -903.461 -1673 37 39 38
-152.315 -906.04 -1678 33 36 33
-149.089 -908.621 -1683 33 37 34
-146.102 -912.824 -1691 33 37 34
-142.913 -915.95 -1697 35 38 35
-139.617 -918.537 -1702 34 37 35
-136.221 -920.588 -1706 33 35 33
-132.808 -922.641 -1710 31 34 31
-129.153 -923.078 -1711 32 33 33
-125.715 -925.136 -1715 32 33 33
-122.26 -927.196 -1719 32 33 33
-118.789 -929.259 -1723 34 34 34
-115.102 -929.707 -1724 34 34 34
-111.669 -932.315 -1729 35 35 37
-108.154 -934.385 -1733 35 35 35
-104.441 -934.841 -1734 33 33 33
-100.841 -936.378 -1737 31 31 31
-97.2851 -938.457 -1741 30 30 30
-93.3366 -936.765 -1738 31 31 31
-90.0718 -942.083 -1748 31 31 31
-86.3203 -942.553 -1749 29 29 29
-82.9426 -947.337 -1758 28 26 28
-79.1216 -947.274 -1758 25 21 24
-75.3441 -947.752 -1759 29 26 27
