ply
format ascii 1.0
comment Created by Open3D
element vertex 1459
property double x
property double y
property double z
property uchar red
property uchar green
property uchar blue
end_header
-230.131 -896.783 -1623 55 52 53
-224.157 -887.207 -1606 46 45 45
-220.458 -886.476 -1605 43 43 43
-216.631 -885.195 -1603 42 42 42
-212.548 -882.813 -1599 41 42 42
-208.617 -880.987 -1596 41 42 42
-204.7 -879.165 -1593 41 43 43
-200.925 -877.898 -1591 41 43 43
-196.788 -874.979 -1586 40 42 41
-192.92 -873.167 -1583 38 41 38
-188.827 -870.256 -1578 38 41 38
-185.11 -869.003 -1576 38 41 38
-181.404 -867.753 -1574 39 42 39
-177.595 -865.954 -1571 39 42 39
-174.023 -865.262 -1570 38 41 38
-170.458 -864.573 -1569 38 41 38
-166.578 -862.233 -1565 38 41 38
-162.614 -859.347 -1560 38 41 38
-158.878 -857.565 -1557 39 42 39
-154.956 -854.685 -1552 38 41 38
-151.254 -852.911 -1549 38 42 39
-147.852 -852.791 -1549 38 42 39
-144.638 -853.775 -1551 40 44 39
-141.144 -853.109 -1550 40 43 40
-137.744 -852.998 -1550 39 42 39
-133.999 -850.688 -1546 40 43 40
-130.357 -848.931 -1543 41 41 39
-126.565 -846.077 -1538 39 40 38
-123.356 -847.077 -1540 38 41 38
-119.985 -846.98 -1540 38 41 38
-116.539 -846.336 -1539 38 41 38
-113.392 -847.893 -1542 36 39 36
-110.233 -849.453 -1545 36 39 34
-107.132 -851.565 -1549 39 42 37
-103.679 -850.931 -1548 39 42 37
-100.814 -855.247 -1556 38 41 36
-97.7282 -857.915 -1561 36 39 34
-94.742 -861.686 -1568 37 40 35
-91.7842 -866.007 -1576 34 37 34
-88.6243 -868.682 -1581 34 37 34
-85.3894 -870.81 -1585 32 35 32
-81.9312 -870.744 -1585 30 33 30
-78.5233 -871.229 -1586 31 34 31
-75.2064 -872.815 -1589 34 36 35
-71.7869 -873.306 -1590 33 35 35
-68.4067 -874.349 -1592 31 34 31
-64.9775 -874.845 -1593 33 36 33
-61.5833 -875.892 -1595 34 37 34
-58.0716 -875.296 -1594 36 39 36
-54.6333 -875.8 -1595 36 39 36
-51.2233 -876.856 -1597 37 40 37
-47.7752 -877.365 -1598 39 42 39
-44.3509 -878.427 -1600 39 42 39
-40.8928 -878.942 -1601 38 41 38
-37.454 -880.008 -1603 35 38 35
-33.9434 -879.431 -1602 35 38 35
-30.4944 -880.503 -1604 35 38 35
-27.0538 -882.127 -1607 36 39 36
-23.5858 -883.205 -1609 36 39 36
-20.1094 -884.285 -1611 35 38 35
-16.6552 -887.015 -1616 35 38 35
-13.1552 -888.101 -1618 38 39 37
-9.66451 -890.837 -1623 42 45 41
-6.21234 -902.357 -1644 52 55 52
-231.169 -904.397 -1629 56 53 54
-224.757 -893.109 -1609 45 44 44
-220.362 -889.599 -1603 42 42 42
-216.535 -888.312 -1601 41 41 41
-212.454 -885.919 -1597 39 41 41
-208.785 -885.193 -1596 39 41 41
-204.865 -883.362 -1593 39 41 41
-200.834 -880.98 -1589 40 42 42
-197.071 -879.71 -1587 41 43 42
-192.831 -876.227 -1581 39 42 39
-188.979 -874.41 -1578 38 41 38
-185.259 -873.15 -1576 39 42 39
-181.896 -873.556 -1577 39 42 39
-177.625 -869.533 -1570 38 41 38
-174.053 -868.837 -1569 37 40 37
-170.595 -868.698 -1569 35 38 35
-166.606 -865.794 -1564 34 37 34
-162.954 -864.554 -1562 36 39 36
-159.108 -862.21 -1558 38 41 38
-155.081 -858.763 -1552 38 42 39
-151.668 -858.64 -1552 39 43 40
-147.971 -856.859 -1549 40 44 41
-144.754 -857.847 -1551 40 43 38
-141.166 -856.626 -1549 38 41 38
-137.765 -856.514 -1549 38 40 38
-134.106 -854.745 -1546 38 39 37
-130.461 -852.98 -1543 40 41 38
-126.913 -851.771 -1541 39 41 38
-123.536 -851.67 -1541 37 40 37
-120.081 -851.019 -1540 38 39 37
-116.632 -850.372 -1539 38 39 36
-113.409 -851.384 -1541 37 38 35
-110.25 -852.952 -1544 37 40 33
-106.941 -853.417 -1545 37 40 35
-103.762 -854.989 -1548 37 40 35
-100.766 -858.22 -1554 37 40 35
-97.6812 -860.902 -1559 34 37 33
-94.697 -864.69 -1566 34 37 33
-91.8578 -870.137 -1576 33 36 33
-88.6391 -872.272 -1580 34 37 34
-85.4579 -874.963 -1585 32 35 32
-82.0486 -875.447 -1586 30 33 30
-78.5862 -875.383 -1586 31 34 31
-75.2194 -876.425 -1588 33 35 33
-71.8895 -878.022 -1591 33 35 35
-68.5475 -879.621 -1594 33 36 33
-65.0295 -879.016 -1593 31 34 31
-61.6326 -880.068 -1595 31 34 31
-58.1181 -879.469 -1594 35 38 35
-54.7114 -880.526 -1596 35 38 35
-51.2644 -881.036 -1597 36 39 36
-47.8433 -882.099 -1599 36 39 36
-44.4141 -883.166 -1601 36 39 36
-40.9254 -883.132 -1601 36 39 36
-37.4839 -884.203 -1603 34 37 34
-33.9705 -883.623 -1602 34 37 34
-30.4997 -884.149 -1603 35 38 35
-27.0418 -885.229 -1605 36 39 36
-23.5606 -885.76 -1606 35 38 35
-20.1004 -887.397 -1609 34 37 34
-16.6376 -889.589 -1613 34 37 34
-13.1574 -891.783 -1617 39 39 37
-9.66011 -893.98 -1621 43 45 41
-6.22484 -907.761 -1646 51 54 49
-226.338 -902.942 -1619 47 46 46
-221.229 -896.625 -1608 43 43 43
-217.117 -894.216 -1604 44 44 44
-213.159 -892.368 -1601 40 42 42
-209.086 -889.967 -1597 38 40 40
-205.032 -887.57 -1593 37 39 39
-201.124 -885.733 -1590 39 41 41
-197.107 -883.343 -1586 40 42 41
-193.232 -881.513 -1583 38 42 39
-189.732 -881.358 -1583 37 40 37
-185.998 -880.091 -1581 38 41 38
-182.275 -878.829 -1579 40 43 40
-178.562 -877.569 -1577 39 42 39
-174.749 -875.756 -1574 38 41 38
-170.624 -872.278 -1568 36 39 36
-166.848 -870.472 -1565 32 36 33
-162.668 -866.445 -1558 35 38 35
-159.032 -865.202 -1556 39 42 39
-155.106 -862.295 -1551 40 44 41
-151.791 -862.727 -1552 39 43 40
-148.186 -861.493 -1550 39 42 39
-144.871 -861.93 -1551 40 43 38
-141.189 -860.147 -1548 40 43 40
-137.699 -859.479 -1547 38 40 38
-134.128 -858.257 -1545 37 37 35
-130.567 -857.039 -1543 36 39 34
-127.181 -856.935 -1543 38 41 37
-123.635 -855.723 -1541 38 41 38
-120.412 -856.734 -1543 39 39 37
-116.954 -856.083 -1542 38 38 35
-113.575 -855.99 -1542 38 38 34
-110.339 -857.01 -1544 34 37 30
-107.166 -858.587 -1547 35 38 32
-103.779 -858.502 -1547 35 38 33
-100.717 -861.193 -1552 37 40 35
-97.6346 -863.888 -1557 34 37 33
-94.5917 -867.139 -1563 32 35 31
-91.6984 -872.056 -1572 33 36 33
-88.7106 -876.421 -1580 32 35 32
-85.5267 -879.124 -1585 31 34 30
-82.1146 -879.611 -1586 30 33 29
-78.699 -880.101 -1587 31 34 31
-75.3747 -881.703 -1590 33 36 34
-71.9022 -881.643 -1590 35 38 37
-68.5596 -883.25 -1593 34 37 34
-65.0818 -883.196 -1593 33 36 33
-61.7209 -884.808 -1596 33 36 33
-58.2013 -884.205 -1595 36 39 36
-54.7896 -885.268 -1597 36 39 36
-51.3056 -885.226 -1597 35 38 35
-47.8819 -886.294 -1599 35 38 35
-44.4498 -887.366 -1601 36 39 36
-40.9583 -887.331 -1601 35 38 35
-37.4673 -887.3 -1601 33 36 33
-33.9765 -887.271 -1601 34 37 34
-30.5052 -887.799 -1602 36 39 36
-27.0466 -888.884 -1604 36 39 36
-23.6089 -891.081 -1608 35 38 35
-20.1666 -893.834 -1613 35 38 35
-16.6819 -895.481 -1616 35 38 35
-13.1925 -897.686 -1620 39 39 37
-9.69172 -900.447 -1625 42 44 40
-6.22601 -911.523 -1645 48 51 46
-227.363 -910.595 -1625 47 45 46
-221.96 -903.127 -1612 43 43 43
-217.972 -901.267 -1609 44 44 44
-214 -899.409 -1606 45 46 46
-209.78 -896.436 -1601 40 42 42
-205.457 -892.907 -1595 36 38 38
-201.668 -891.62 -1593 36 38 38
-197.268 -887.54 -1586 37 39 38
-193.39 -885.701 -1583 39 43 40
-189.766 -884.985 -1582 40 43 40
-186.149 -884.272 -1581 38 41 38
-182.539 -883.562 -1580 38 41 38
-178.481 -880.619 -1575 39 42 39
-174.669 -878.798 -1572 39 42 39
-170.545 -875.303 -1566 37 40 37
-166.45 -871.812 -1560 34 38 35
-162.487 -868.884 -1555 35 38 35
-159.059 -868.752 -1555 38 41 38
-155.633 -868.624 -1555 38 42 39
-151.915 -866.823 -1552 38 42 39
-148.211 -865.025 -1549 38 42 39
-144.802 -864.906 -1549 41 44 39
-141.303 -864.231 -1548 42 45 42
-137.632 -862.443 -1545 39 42 39
-134.15 -861.774 -1544 39 39 36
-130.673 -861.108 -1543 38 40 35
-127.201 -860.445 -1542 38 40 36
-123.816 -860.343 -1542 38 41 38
-120.666 -861.917 -1545 38 38 36
-117.124 -860.705 -1543 37 37 34
-113.814 -861.169 -1544 38 38 34
-110.572 -862.193 -1546 40 43 36
-107.114 -861.546 -1545 39 42 36
-103.863 -862.576 -1547 40 43 38
-100.734 -864.723 -1551 40 43 38
-97.7765 -868.545 -1558 35 38 33
-94.7895 -872.369 -1565 33 36 31
-91.7727 -876.195 -1572 33 36 33
-88.7263 -880.023 -1579 31 34 31
-85.5419 -882.739 -1584 30 33 30
-82.233 -884.343 -1587 31 34 29
-78.7132 -883.72 -1586 31 34 31
-75.4357 -885.887 -1590 32 35 33
-72.0056 -886.383 -1591 35 39 38
-68.572 -886.884 -1592 35 38 35
-65.1345 -887.387 -1593 32 35 32
-61.732 -888.449 -1595 32 35 32
-58.2119 -887.843 -1594 34 37 34
-54.7309 -887.798 -1594 35 38 35
-51.2827 -888.312 -1595 35 38 35
-47.8906 -889.942 -1598 35 38 35
-44.4301 -890.462 -1599 34 37 34
-40.9402 -890.427 -1599 35 38 35
-37.4975 -891.509 -1601 34 37 34
-34.0039 -891.48 -1601 36 39 36
-30.5107 -891.454 -1601 37 40 37
-27.1358 -895.328 -1608 37 40 37
-23.6279 -895.308 -1608 36 39 36
-20.2203 -899.745 -1616 35 38 35
-16.7056 -900.286 -1617 34 37 34
-13.2356 -904.171 -1624 37 40 37
-9.72341 -906.946 -1629 38 42 37
-6.24235 -917.518 -1648 46 50 45
-233.871 -925.802 -1644 57 54 55
-227.83 -916.04 -1627 48 46 47
-222.556 -909.098 -1615 43 43 43
-218.423 -906.665 -1611 42 42 42
-214.442 -904.799 -1608 41 42 42
-210.215 -901.811 -1603 39 41 41
-205.754 -897.702 -1596 38 41 40
-201.833 -895.847 -1593 38 41 40
-197.679 -892.871 -1588 38 40 40
-193.548 -889.899 -1583 39 43 40
-189.802 -888.618 -1581 39 43 40
-186.302 -888.463 -1581 38 41 38
-183.035 -889.435 -1583 38 41 38
-178.854 -885.916 -1577 38 41 38
-175.034 -884.085 -1574 38 41 38
-170.794 -880.012 -1567 36 39 36
-166.373 -874.82 -1558 34 38 35
-162.62 -873 -1555 36 39 36
-158.985 -871.746 -1553 36 39 36
-155.36 -870.494 -1551 34 38 35
-152.039 -870.929 -1552 35 39 36
-148.428 -869.684 -1550 37 41 38
-144.92 -869.003 -1549 41 44 39
-141.236 -867.203 -1546 42 45 41
-137.745 -866.528 -1545 41 44 40
-134.259 -865.856 -1544 41 42 37
-130.61 -864.065 -1541 39 40 36
-127.305 -864.52 -1542 38 39 35
-123.997 -864.978 -1543 37 40 37
-120.764 -865.999 -1545 39 39 37
-117.22 -864.781 -1543 37 37 34
-114.054 -866.367 -1546 37 37 33
-110.59 -865.715 -1545 38 41 35
-107.34 -866.747 -1547 38 41 35
-104.015 -867.221 -1548 38 41 36
-100.946 -869.938 -1553 39 42 37
-97.6677 -870.977 -1555 34 37 32
-94.8667 -876.499 -1565 34 37 32
-91.8475 -880.343 -1572 33 36 33
-88.7985 -884.19 -1579 32 34 32
-85.6116 -886.918 -1584 32 33 31
-82.3 -888.529 -1587 32 34 30
-78.7772 -887.904 -1586 32 34 33
-75.4021 -888.961 -1588 32 35 34
-71.9736 -889.46 -1589 33 37 35
-68.6277 -891.082 -1592 35 38 35
-65.1466 -891.028 -1592 32 35 32
-61.7822 -892.655 -1595 31 34 31
-58.2592 -892.046 -1594 34 37 34
-54.7755 -892 -1594 35 38 35
-51.3244 -892.517 -1595 34 37 34
-47.8995 -893.595 -1597 34 37 34
-44.4107 -893.558 -1597 36 39 36
-40.9478 -894.082 -1598 35 38 35
-37.4577 -894.05 -1598 34 37 34
-33.989 -894.581 -1599 33 36 33
-30.5164 -895.114 -1600 34 37 34
-27.1072 -897.888 -1605 35 38 35
-23.6765 -900.664 -1610 36 39 36
-20.2242 -903.444 -1615 36 39 36
-16.7295 -905.107 -1618 35 38 35
-13.2463 -908.451 -1624 35 37 37
-9.76711 -914.595 -1635 39 41 39
-6.27769 -926.336 -1656 47 49 46
-227.598 -918.676 -1624 48 46 47
-222.188 -911.137 -1611 42 42 42
-218.332 -909.823 -1609 41 41 41
-214.486 -908.513 -1607 37 38 38
-210.388 -906.076 -1603 37 39 39
-206.053 -902.513 -1597 39 41 41
-201.873 -899.519 -1592 38 40 39
-197.717 -896.529 -1587 38 40 39
-193.953 -895.237 -1585 39 42 39
-189.838 -892.255 -1580 41 43 41
-186.102 -890.97 -1578 40 42 39
-182.607 -890.818 -1578 39 42 39
-178.888 -889.54 -1576 39 42 39
-175.178 -888.265 -1574 38 41 38
-170.935 -884.172 -1567 37 40 37
-166.937 -881.212 -1562 36 40 37
-162.963 -878.255 -1557 39 42 39
-159.525 -878.122 -1557 38 42 39
-155.688 -875.736 -1553 37 41 38
-152.164 -875.046 -1552 36 40 37
-148.837 -875.486 -1553 37 41 38
-144.946 -872.546 -1548 40 43 38
-141.261 -870.738 -1545 41 44 39
-137.858 -870.623 -1545 41 44 39
-134.369 -869.947 -1544 39 42 37
-130.802 -868.711 -1542 38 41 36
-127.41 -868.605 -1542 36 39 34
-124.099 -869.065 -1543 36 39 34
-120.942 -870.654 -1546 40 40 38
-117.544 -870.556 -1546 39 39 37
-114.296 -871.587 -1548 36 36 34
-110.824 -870.931 -1547 36 39 34
-107.497 -871.404 -1548 39 42 37
-104.234 -872.443 -1550 38 41 36
-101.094 -874.61 -1554 38 41 36
-97.9362 -876.78 -1558 35 39 34
-95.0656 -881.765 -1567 34 38 33
-92.0396 -885.627 -1574 36 39 34
-88.7586 -887.241 -1577 35 36 34
-85.4653 -888.857 -1580 34 34 32
-82.2635 -891.601 -1585 34 34 32
-78.7919 -891.535 -1585 32 34 34
-75.4638 -893.159 -1588 31 34 33
-72.0325 -893.661 -1589 33 37 34
-68.6838 -895.29 -1592 34 37 34
-65.1998 -895.236 -1592 32 35 32
-61.7552 -895.746 -1593 33 36 33
-58.2703 -895.697 -1593 34 37 34
-54.7858 -895.651 -1593 35 38 35
-51.3019 -895.607 -1593 36 39 36
-47.8485 -896.129 -1594 37 40 37
-44.419 -897.215 -1596 35 39 36
-40.9043 -896.618 -1595 35 39 36
-37.4648 -897.71 -1597 35 38 35
-34.038 -899.367 -1600 35 38 35
-30.5413 -899.341 -1600 35 38 35
-27.1294 -902.128 -1605 35 38 35
-23.6664 -903.793 -1608 34 37 34
-20.2282 -907.148 -1614 34 37 34
-16.712 -907.695 -1615 33 36 33
-13.2489 -912.179 -1623 34 36 36
-9.76307 -917.79 -1633 42 45 42
-6.27515 -929.586 -1654 51 53 51
-227.647 -922.444 -1623 48 45 46
-222.373 -915.437 -1611 41 41 41
-218.649 -914.686 -1610 40 40 40
-214.664 -912.801 -1607 37 38 38
-210.694 -910.92 -1604 36 38 38
-206.353 -907.34 -1598 37 39 39
-202.421 -905.466 -1595 37 40 38
-197.881 -900.759 -1587 36 39 36
-193.991 -898.894 -1584 38 41 38
-190.356 -898.167 -1583 40 42 39
-186.374 -895.741 -1579 40 41 39
-182.758 -895.02 -1578 39 42 39
-178.808 -892.602 -1574 39 42 39
-175.323 -892.455 -1574 38 41 38
-170.967 -887.775 -1566 37 39 38
-167.182 -885.935 -1563 36 40 38
-162.888 -881.264 -1555 38 42 40
-159.349 -880.564 -1554 39 43 40
-155.716 -879.3 -1552 37 41 38
-152.191 -878.606 -1551 37 41 38
-148.576 -877.348 -1549 37 41 38
-145.253 -877.793 -1550 39 42 37
-141.469 -875.409 -1546 40 43 38
-137.882 -874.161 -1544 40 43 38
-134.393 -873.483 -1543 40 43 38
-130.91 -872.807 -1542 39 42 37
-127.515 -872.7 -1542 39 42 37
-124.201 -873.162 -1543 38 41 36
-121.041 -874.758 -1546 39 39 37
-117.565 -874.094 -1545 38 38 36
-114.242 -874.564 -1546 37 37 35
-110.844 -874.471 -1546 37 40 35
-107.516 -874.946 -1547 39 42 37
-104.185 -875.424 -1548 39 42 37
-101.112 -878.167 -1553 38 41 36
-98.0169 -880.912 -1558 37 40 35
-94.9618 -884.225 -1564 36 40 35
-92.1153 -889.801 -1574 37 40 35
-88.9443 -892.552 -1579 36 39 36
-85.698 -894.742 -1583 33 36 33
-82.3311 -895.803 -1585 34 34 32
-78.8069 -895.171 -1584 32 34 34
-75.4782 -896.803 -1587 32 35 34
-72.0464 -897.307 -1588 32 36 33
-68.6539 -898.379 -1590 33 36 33
-65.2125 -898.889 -1591 32 35 32
-61.7671 -899.402 -1592 33 36 33
-58.2815 -899.352 -1592 34 37 34
-54.7276 -898.176 -1590 35 38 35
-51.3441 -899.827 -1593 35 38 35
-47.8878 -900.351 -1594 37 40 37
-44.4556 -901.443 -1596 38 41 38
-41.0149 -902.537 -1598 37 40 37
-37.5424 -903.069 -1599 36 39 36
-34.066 -903.604 -1600 36 39 36
-30.6237 -905.272 -1603 36 39 36
-27.1855 -907.508 -1607 34 37 34
-23.7447 -910.31 -1612 32 35 32
-20.2697 -912.551 -1616 33 36 33
-16.7775 -914.794 -1620 34 37 34
-13.276 -917.606 -1625 37 39 38
-9.78298 -923.243 -1635 44 47 44
-6.27642 -933.401 -1653 54 56 54
-232.173 -929.837 -1628 54 51 52
-227.275 -924.505 -1619 49 46 47
-222.42 -919.178 -1610 42 42 42
-218.695 -918.422 -1609 41 41 41
-214.843 -917.1 -1607 39 40 40
-210.739 -914.639 -1603 38 40 40
-206.396 -911.041 -1597 39 41 41
-202.463 -909.159 -1594 39 41 40
-198.171 -905.57 -1588 39 42 39
-194.275 -903.695 -1585 39 42 39
-190.033 -900.114 -1579 37 40 37
-186.293 -898.817 -1577 37 40 37
-182.331 -896.384 -1573 38 41 38
-178.73 -895.663 -1572 39 42 39
-174.912 -893.806 -1569 38 41 38
-171.109 -891.953 -1566 36 38 38
-167.535 -891.243 -1565 35 39 38
-163.443 -887.688 -1559 37 41 39
-159.687 -885.846 -1556 39 43 40
-156.046 -884.576 -1554 38 42 39
-152.514 -883.878 -1553 37 41 38
-148.796 -882.045 -1550 38 42 39
-145.092 -880.216 -1547 40 43 38
-141.403 -878.39 -1544 41 44 39
-137.818 -877.136 -1542 41 44 39
-134.418 -877.023 -1542 39 42 37
-130.933 -876.344 -1541 38 41 36
-127.703 -877.374 -1543 39 42 37
-124.385 -877.837 -1544 40 43 38
-121.142 -878.872 -1546 41 41 39
-117.662 -878.205 -1545 38 38 36
-114.337 -878.677 -1546 38 38 36
-110.936 -878.583 -1546 38 41 36
-107.605 -879.061 -1547 40 43 38
-104.272 -879.541 -1548 38 41 36
-101.13 -881.728 -1552 38 41 36
-98.4128 -887.895 -1563 36 40 35
-95.4049 -891.791 -1570 34 38 33
-92.4258 -896.256 -1578 35 38 33
-89.187 -898.453 -1582 36 39 35
-85.8231 -899.516 -1584 35 38 35
-82.4512 -900.582 -1586 32 35 32
-78.9718 -900.515 -1586 31 33 33
-75.5883 -901.587 -1588 33 35 34
-72.0605 -900.958 -1587 32 36 33
-68.6675 -902.035 -1589 32 35 32
-65.1432 -901.412 -1588 32 35 32
-61.7405 -902.495 -1590 34 37 34
-58.2197 -901.877 -1589 35 38 35
-54.7727 -902.398 -1590 36 39 36
-51.3542 -903.489 -1592 36 38 36
-47.9274 -904.583 -1594 37 39 36
-44.4922 -905.68 -1596 37 40 37
-41.0488 -906.779 -1598 36 39 36
-37.644 -909.017 -1602 36 39 36
-34.1367 -908.987 -1602 36 39 36
-30.6298 -908.96 -1602 37 40 37
-27.1909 -911.206 -1606 34 37 34
-23.72 -912.887 -1609 33 36 33
-20.2614 -915.706 -1614 36 39 36
-16.7706 -917.96 -1618 36 39 36
-13.2789 -921.351 -1624 36 39 36
-9.77899 -926.448 -1633 42 45 42
-6.2929 -939.49 -1656 50 53 50
-227.185 -927.702 -1617 49 47 48
-222.331 -922.35 -1608 42 43 43
-218.607 -921.59 -1607 41 41 41
-214.756 -920.261 -1605 41 42 42
-210.652 -917.789 -1601 40 42 42
-206.44 -914.748 -1596 39 41 41
-202.505 -912.857 -1593 39 41 40
-198.337 -909.824 -1588 38 41 38
-194.683 -909.086 -1587 38 41 38
-190.554 -906.06 -1582 37 40 37
-186.567 -903.611 -1578 37 40 37
-182.6 -901.166 -1574 37 40 37
-178.879 -899.869 -1572 38 41 38
-174.947 -897.431 -1568 38 41 38
-171.143 -895.57 -1565 38 40 39
-167.568 -894.855 -1564 38 42 40
-163.789 -893 -1561 37 41 39
-160.129 -891.72 -1559 36 40 37
-155.976 -887.585 -1552 35 39 36
-152.543 -887.456 -1552 35 39 36
-149.112 -887.329 -1552 36 40 37
-145.119 -883.776 -1546 40 43 38
-141.521 -882.513 -1544 43 46 41
-138.201 -882.968 -1545 41 44 39
-134.704 -882.282 -1544 38 41 36
-131.213 -881.599 -1543 39 42 37
-127.975 -882.633 -1545 40 43 38
-124.569 -882.528 -1545 40 43 38
-121.164 -882.426 -1545 40 40 38
-117.684 -881.755 -1544 39 39 37
-114.358 -882.229 -1545 37 37 35
-110.884 -881.564 -1544 39 42 37
-107.486 -881.473 -1544 41 44 39
-104.089 -881.384 -1544 38 41 36
-101.149 -885.295 -1551 39 42 37
-98.2426 -889.777 -1559 35 38 33
-95.3019 -894.262 -1567 31 34 29
-92.5028 -900.461 -1578 32 35 30
-89.2612 -902.668 -1582 34 37 32
-85.9486 -904.307 -1585 34 37 33
-82.5718 -905.377 -1587 34 37 34
-79.0872 -905.31 -1587 32 35 33
-75.6034 -905.246 -1587 31 34 31
-72.1204 -905.184 -1587 31 35 32
-68.7245 -906.266 -1589 32 35 32
-65.2795 -906.781 -1590 33 36 33
-61.8696 -907.869 -1592 34 37 34
-58.3414 -907.248 -1591 35 38 35
-54.8527 -907.201 -1591 35 38 35
-51.4614 -908.867 -1594 36 38 35
-48.0273 -909.967 -1596 36 36 34
-44.6128 -911.638 -1599 35 38 35
-41.16 -912.743 -1601 36 39 36
-37.6986 -913.85 -1603 36 39 36
-34.1863 -913.82 -1603 36 39 36
-30.6743 -913.793 -1603 35 38 35
-27.2303 -916.05 -1607 34 37 34
-23.7692 -918.309 -1611 34 37 34
-20.2655 -919.43 -1613 36 39 36
-16.7948 -922.835 -1619 35 38 35
-13.2653 -923.962 -1621 37 40 37
-9.77501 -929.653 -1631 42 45 42
-6.27161 -939.906 -1649 46 48 45
-234.135 -944.929 -1639 54 51 52
-227.658 -933.204 -1619 50 47 48
-223.072 -928.979 -1612 41 43 43
-219.2 -927.64 -1610 40 41 41
-214.937 -924.576 -1605 40 41 41
-211.093 -923.243 -1603 38 40 40
-207.002 -920.763 -1599 38 41 38
-203.058 -918.863 -1596 38 41 38
-198.879 -915.815 -1591 39 42 39
-195.215 -915.073 -1590 38 42 39
-191.076 -912.032 -1585 37 40 37
-187.197 -910.147 -1582 37 40 37
-182.869 -905.964 -1575 36 40 37
-179.485 -906.386 -1576 37 41 38
-175.205 -902.211 -1569 39 42 39
-171.724 -902.065 -1569 39 42 39
-167.709 -899.048 -1564 38 42 39
-164.032 -897.758 -1562 37 41 38
-160.263 -895.898 -1559 35 39 36
-156.609 -894.615 -1557 37 41 38
-152.671 -891.612 -1552 37 41 38
-149.141 -890.911 -1551 39 43 40
-145.147 -887.341 -1545 41 44 39
-141.456 -885.498 -1542 41 44 39
-138.138 -885.954 -1543 41 44 39
-134.73 -885.84 -1543 39 42 37
-131.238 -885.154 -1542 40 43 38
-128 -886.193 -1544 40 43 38
-124.674 -886.661 -1545 39 42 35
-121.501 -888.279 -1548 40 40 37
-117.935 -887.031 -1546 39 39 36
-114.528 -886.933 -1546 36 36 34
-111.193 -887.412 -1547 39 40 35
-107.646 -886.173 -1545 40 42 37
-104.378 -887.231 -1547 39 42 37
-101.234 -889.439 -1551 39 42 37
-98.514 -895.663 -1562 34 37 32
-95.6859 -901.316 -1572 32 35 30
-92.7561 -906.396 -1581 32 35 30
-89.5616 -909.187 -1586 33 36 31
-86.129 -909.686 -1587 33 36 31
-82.6928 -910.189 -1588 33 36 33
-79.3528 -911.84 -1591 33 36 33
-75.905 -912.348 -1592 32 35 32
-72.317 -911.14 -1590 33 37 34
-68.8685 -911.654 -1591 35 38 35
-65.4162 -912.171 -1592 33 36 33
-61.9212 -912.117 -1592 33 36 33
-58.4269 -912.067 -1592 34 37 34
-54.9675 -912.593 -1593 36 39 36
-51.5366 -913.694 -1595 34 37 34
-48.0975 -914.798 -1597 36 36 34
-44.6501 -915.905 -1599 35 38 35
-41.22 -917.587 -1602 36 39 36
-37.7536 -918.7 -1604 34 37 34
-34.2148 -918.097 -1603 34 37 34
-30.719 -918.642 -1604 34 37 34
-27.236 -919.764 -1606 36 39 36
-23.7594 -921.46 -1609 35 38 35
-20.295 -924.305 -1614 35 38 35
-16.8296 -928.299 -1621 33 36 33
-13.3008 -930.004 -1624 36 39 36
-9.78904 -934.576 -1632 41 44 41
-6.28434 -945.45 -1651 43 45 42
-233.762 -947.033 -1635 55 52 53
-227.288 -935.254 -1615 51 48 49
-223.122 -932.746 -1611 40 43 40
-219.385 -931.979 -1610 40 43 42
-215.521 -930.637 -1608 39 41 41
-211.668 -929.298 -1606 38 41 38
-207.825 -927.962 -1604 40 43 40
-203.739 -925.474 -1600 39 43 40
-199.673 -922.989 -1596 37 41 38
-196.118 -922.821 -1596 39 43 40
-191.72 -918.61 -1589 39 42 39
-187.711 -916.136 -1585 39 42 39
-183.837 -914.245 -1582 36 40 37
-179.523 -910.046 -1575 36 40 37
-175.242 -905.852 -1568 37 41 38
-171.76 -905.704 -1568 37 41 38
-167.528 -901.518 -1561 37 41 38
-164.065 -901.377 -1561 36 40 36
-160.501 -900.663 -1560 36 40 36
-156.842 -899.374 -1558 36 40 37
-152.898 -896.357 -1553 37 41 37
-148.978 -893.343 -1548 37 41 38
-145.363 -892.065 -1546 40 43 38
-141.943 -891.943 -1546 41 44 39
-138.434 -891.248 -1545 40 43 38
-135.106 -891.709 -1546 40 43 38
-131.604 -891.02 -1545 39 42 37
-128.19 -890.91 -1545 41 44 39
-124.778 -890.803 -1545 40 43 36
-121.604 -892.429 -1548 41 41 37
-118.111 -891.751 -1547 39 39 35
-114.55 -890.5 -1545 38 38 36
-111.215 -890.982 -1546 41 41 37
-107.736 -890.313 -1545 41 42 38
-104.534 -891.952 -1548 39 42 37
-101.254 -893.018 -1550 37 40 35
-98.5337 -899.271 -1561 35 38 33
-95.5227 -903.222 -1568 33 36 31
-92.5991 -908.326 -1577 32 35 30
-89.5804 -912.857 -1585 33 36 31
-86.1471 -913.359 -1586 33 36 31
-82.7624 -914.44 -1588 32 35 32
-79.3695 -915.523 -1590 32 35 32
-75.9687 -916.609 -1592 33 36 33
-72.4688 -916.547 -1592 34 37 34
-68.9696 -916.487 -1592 34 37 34
-65.5533 -917.582 -1594 33 36 33
-62.012 -916.952 -1593 33 36 33
-58.5126 -916.902 -1593 34 37 34
-55.0827 -918.005 -1595 35 38 35
-51.6446 -919.111 -1597 35 38 35
-48.1981 -920.221 -1599 38 38 36
-44.7713 -921.908 -1602 36 39 36
-41.2802 -922.447 -1603 35 38 35
-37.7853 -922.989 -1604 34 37 34
-34.2435 -922.383 -1603 33 36 33
-30.8213 -925.233 -1608 34 37 34
-27.3268 -926.36 -1610 36 39 36
-23.8828 -929.79 -1616 36 39 36
-20.3622 -930.923 -1618 34 37 34
-16.8852 -934.935 -1625 34 37 34
-13.3365 -936.073 -1627 37 40 36
-9.82134 -941.241 -1636 41 44 41
-6.28948 -949.864 -1651 44 46 44
-227.764 -940.783 -1617 50 48 47
-223.313 -937.1 -1611 41 44 41
-219.709 -936.911 -1611 40 42 41
-215.839 -935.562 -1609 39 41 41
-211.848 -933.635 -1606 38 41 38
-208.132 -932.874 -1605 37 40 37
-204.295 -931.536 -1603 38 41 38
-200.218 -929.039 -1599 38 42 39
-195.916 -925.384 -1593 40 44 41
-191.883 -922.896 -1589 39 43 40
-187.87 -920.411 -1585 36 40 37
-183.528 -916.188 -1578 33 37 34
-179.79 -914.872 -1576 34 38 35
-175.391 -910.077 -1568 37 41 37
-172.125 -911.09 -1570 36 40 37
-167.885 -906.883 -1563 35 39 36
-164.52 -907.322 -1564 34 38 35
-160.843 -906.024 -1562 36 40 35
-156.975 -903.568 -1558 34 41 35
-153.127 -901.117 -1554 35 41 35
-149.201 -898.089 -1549 36 40 35
-145.675 -897.384 -1548 39 42 37
-141.879 -894.943 -1544 40 43 38
-138.551 -895.404 -1545 39 42 37
-135.132 -895.287 -1545 40 43 38
-131.715 -895.174 -1545 39 42 37
-128.299 -895.064 -1545 41 44 39
-124.965 -895.536 -1546 39 42 35
-121.628 -896.01 -1547 41 42 37
-118.134 -895.33 -1546 39 39 35
-114.721 -895.231 -1546 38 38 36
-111.381 -895.714 -1547 42 42 38
-107.967 -895.621 -1547 41 42 38
-104.757 -897.267 -1550 39 42 37
-101.731 -900.653 -1556 36 39 34
-98.9961 -906.935 -1567 36 39 34
-95.8473 -909.746 -1572 33 36 31
-92.9125 -914.874 -1581 33 36 31
-89.6561 -917.111 -1585 31 34 29
-86.2742 -918.194 -1587 31 34 29
-82.8844 -919.28 -1589 32 35 32
-79.4366 -919.79 -1590 32 35 32
-76.0806 -921.459 -1593 31 34 31
-72.5755 -921.396 -1593 31 34 31
-69.1578 -922.493 -1595 32 35 32
-65.6498 -922.436 -1595 33 36 33
-62.1424 -922.382 -1595 35 38 35
-58.6722 -922.909 -1596 37 38 36
-55.1637 -922.861 -1596 36 38 36
-51.7528 -924.55 -1599 36 39 36
-48.2689 -925.087 -1600 38 38 36
-44.7811 -925.625 -1601 37 37 35
-41.2893 -926.167 -1602 36 36 34
-37.8406 -927.868 -1605 34 37 34
-34.2937 -927.26 -1604 33 36 33
-30.7898 -927.81 -1605 34 37 34
-27.3328 -930.098 -1609 37 40 37
-23.888 -933.545 -1615 36 39 36
-20.4046 -936.416 -1620 33 36 33
-16.8785 -938.134 -1623 33 36 33
-13.4051 -944.48 -1634 38 41 36
-9.83547 -946.204 -1637 41 44 41
-6.29464 -954.29 -1651 49 51 48
-227.959 -945.166 -1617 48 46 44
-223.643 -942.05 -1612 39 42 39
-219.761 -940.691 -1610 38 40 39
-216.024 -939.919 -1609 35 37 37
-212.161 -938.567 -1607 34 38 35
-208.57 -938.387 -1607 36 39 36
-204.725 -937.042 -1605 39 42 39
-200.515 -933.949 -1600 40 44 41
-196.453 -931.444 -1596 40 44 40
-192.289 -928.36 -1591 39 43 38
-188.031 -924.696 -1585 36 40 35
-184.151 -922.787 -1582 35 39 34
-180.057 -919.714 -1577 36 40 35
-175.316 -913.147 -1566 36 40 35
-172.052 -914.165 -1568 35 39 36
-168.029 -911.104 -1563 34 38 35
-164.345 -909.797 -1561 35 39 36
-160.774 -909.075 -1560 36 40 35
-156.908 -906.608 -1556 35 42 36
-153.06 -904.145 -1552 37 43 37
-149.424 -902.851 -1550 38 42 37
-145.705 -900.977 -1547 40 43 38
-142 -899.108 -1544 39 42 37
-138.669 -899.57 -1545 40 43 38
-135.248 -899.453 -1545 40 43 36
-131.742 -898.757 -1544 38 41 35
-128.408 -899.228 -1545 38 41 36
-125.071 -899.702 -1546 38 41 34
-121.574 -899.015 -1545 40 41 36
-118.082 -898.331 -1544 38 38 34
-114.596 -897.65 -1543 38 38 36
-111.331 -898.717 -1545 42 42 39
-107.989 -899.205 -1546 42 42 38
-104.711 -900.278 -1548 37 40 35
-101.752 -904.261 -1555 38 41 36
-98.764 -908.245 -1562 36 39 34
-95.6846 -911.651 -1568 31 34 29
-92.7561 -916.804 -1577 31 34 29
-89.6756 -920.795 -1584 32 35 30
-86.2386 -921.302 -1585 32 35 30
-82.9548 -923.555 -1589 30 34 31
-79.604 -925.229 -1592 30 33 30
-76.1929 -926.325 -1594 30 33 30
-72.6827 -926.262 -1594 31 34 31
-69.2599 -927.364 -1596 32 33 31
-65.7466 -927.306 -1596 34 36 33
-62.234 -927.252 -1596 34 37 34
-58.7587 -927.781 -1597 36 36 34
-55.245 -927.733 -1597 36 38 35
-51.7642 -928.268 -1598 36 39 36
-48.2797 -928.807 -1599 37 37 35
-44.7631 -928.767 -1599 35 35 33
-41.2985 -929.892 -1601 35 35 33
-37.7547 -929.278 -1600 33 36 33
-34.3441 -932.151 -1605 35 38 35
-30.931 -935.608 -1611 34 37 34
-27.4579 -937.906 -1615 36 39 36
-23.9823 -940.788 -1620 35 38 35
-20.4723 -943.092 -1624 33 36 33
-16.9449 -945.399 -1628 33 36 33
-13.4083 -948.29 -1633 37 40 35
-9.84986 -951.184 -1638 40 43 40
-6.30767 -959.888 -1653 50 52 50
-234.794 -962.093 -1638 50 47 47
-228.015 -948.973 -1616 46 44 42
-223.697 -945.841 -1611 38 41 38
-219.54 -943.302 -1607 37 40 38
-215.538 -941.354 -1604 38 40 40
-211.948 -941.169 -1604 37 41 38
-208.1 -939.814 -1602 38 41 38
-204.007 -937.29 -1598 40 43 39
-200.562 -937.702 -1599 40 44 41
-196.621 -935.772 -1596 40 44 39
-192.091 -930.914 -1588 37 41 36
-187.836 -927.234 -1582 35 39 34
-184.192 -926.487 -1581 37 41 36
-179.983 -922.815 -1575 39 43 38
-176.027 -920.318 -1571 37 41 36
-172.42 -919.582 -1570 36 40 35
-168.603 -917.679 -1567 35 39 34
-164.591 -914.607 -1562 37 41 36
-160.809 -912.711 -1559 36 40 35
-157.042 -910.818 -1556 37 43 37
-152.994 -907.173 -1550 38 45 39
-149.166 -904.702 -1546 41 45 40
-145.641 -903.991 -1545 40 43 38
-142.03 -902.697 -1543 40 43 38
-138.518 -901.992 -1542 41 44 39
-134.925 -900.705 -1540 39 42 35
-131.769 -902.345 -1543 38 40 35
-128.352 -902.233 -1543 38 41 36
-124.854 -901.54 -1542 39 41 35
-121.52 -902.019 -1543 39 41 36
-118.106 -901.916 -1543 37 37 34
-114.545 -900.647 -1541 37 37 35
-111.282 -901.719 -1543 40 40 36
-108.081 -903.379 -1546 41 41 37
-104.868 -905.04 -1549 38 41 36
-101.839 -908.457 -1555 36 39 34
-98.6586 -910.708 -1559 35 38 33
-95.8885 -917.05 -1570 32 35 30
-93.0119 -922.81 -1580 31 34 29
-89.8654 -926.236 -1586 32 35 30
-86.53 -927.913 -1589 32 36 31
-83.13 -929.008 -1591 30 33 30
-79.772 -930.69 -1594 30 33 30
-76.3058 -931.207 -1595 29 32 29
-72.7904 -931.144 -1595 31 33 32
-69.2756 -931.083 -1595 33 34 32
-65.844 -932.193 -1597 33 34 32
-62.209 -930.387 -1594 34 37 34
-58.772 -931.502 -1596 35 36 34
-55.2921 -932.037 -1597 36 38 35
-51.8084 -932.575 -1598 34 37 33
-48.2905 -932.532 -1598 36 36 34
-44.8572 -934.243 -1601 36 36 34
-41.3853 -935.373 -1603 36 36 34
-37.8813 -935.923 -1604 35 37 37
-34.459 -938.81 -1609 36 38 34
-30.9189 -938.782 -1609 33 36 33
-27.4983 -942.841 -1616 33 35 35
-23.9878 -944.569 -1619 34 37 34
-20.5275 -949.218 -1627 35 38 35
-16.9801 -950.952 -1630 35 38 35
-13.4196 -952.689 -1633 36 39 36
-9.84602 -954.43 -1636 39 42 39
-6.32052 -965.507 -1655 49 52 49
-228.354 -953.965 -1617 46 45 43
-223.891 -950.229 -1611 39 42 39
-220.004 -948.857 -1609 38 40 38
-215.993 -946.899 -1606 39 41 41
-212.131 -945.534 -1604 38 41 38
-208.15 -943.583 -1601 38 41 38
-204.439 -942.815 -1600 40 43 39
-200.484 -940.872 -1597 38 42 38
-196.298 -937.755 -1592 39 43 38
-192.136 -934.641 -1587 39 43 38
-188.118 -932.121 -1583 37 41 36
-184.002 -929.016 -1578 37 41 36
-179.91 -925.915 -1573 38 42 37
-175.955 -923.407 -1569 36 40 35
-172.349 -922.668 -1568 37 41 36
-168.426 -920.167 -1564 37 41 36
-164.628 -918.258 -1561 38 42 37
-160.845 -916.353 -1558 38 42 37
-156.975 -913.863 -1554 38 42 37
-152.928 -910.201 -1548 38 42 37
-149.198 -908.307 -1545 39 43 38
-145.578 -907.004 -1543 38 41 36
-142.06 -906.292 -1542 39 42 37
-138.548 -905.583 -1541 41 44 39
-135.129 -905.465 -1541 40 43 38
-131.797 -905.937 -1542 40 42 38
-128.379 -905.825 -1542 42 42 40
-124.962 -905.716 -1542 42 42 40
-121.546 -905.61 -1542 39 40 39
-118.131 -905.507 -1542 34 36 36
-114.569 -904.232 -1540 36 36 34
-111.233 -904.722 -1541 39 39 36
-107.964 -905.802 -1543 40 40 36
-104.755 -907.471 -1546 38 41 36
-101.665 -910.317 -1551 36 39 34
-98.8066 -915.513 -1560 35 38 33
-95.9097 -920.71 -1569 32 35 30
-92.974 -925.91 -1578 33 36 29
-89.7157 -928.179 -1582 32 35 31
-86.4408 -930.45 -1586 33 36 33
-83.0967 -932.137 -1589 29 32 29
-79.7402 -933.826 -1592 30 33 30
-76.2276 -933.76 -1592 30 33 31
-72.7157 -933.695 -1592 34 36 36
-69.2045 -933.634 -1592 35 38 35
-65.7765 -934.749 -1594 32 35 32
-62.3013 -935.281 -1595 32 35 32
-58.8592 -936.401 -1597 33 34 32
-55.3741 -936.939 -1598 36 37 34
-51.9176 -938.065 -1600 37 39 34
-48.3621 -937.436 -1599 37 37 35
-44.8956 -938.568 -1601 37 37 35
-41.4206 -939.704 -1603 37 37 35
-37.961 -941.428 -1606 35 37 37
-34.5099 -943.742 -1610 34 37 32
-31.0415 -946.059 -1614 34 36 33
-27.5729 -948.964 -1619 33 35 35
-24.0677 -951.287 -1623 33 36 33
-20.5324 -953.026 -1626 33 36 33
-16.9842 -954.768 -1629 34 37 34
-13.431 -957.1 -1633 36 39 36
-9.86048 -959.434 -1637 37 40 37
-6.32215 -969.391 -1654 49 51 48
-228.977 -960.159 -1620 45 45 43
-224.364 -955.813 -1613 40 43 40
-220.058 -952.656 -1608 39 42 39
-216.047 -950.689 -1605 39 41 40
-212.183 -949.318 -1603 39 42 39
-207.94 -946.173 -1598 38 41 38
-203.978 -944.218 -1595 38 41 38
-200.156 -942.858 -1593 36 40 36
-196.222 -940.91 -1590 35 39 35
-192.424 -939.557 -1588 37 41 36
-188.162 -935.842 -1582 37 41 36
-184.395 -934.497 -1580 37 41 36
-179.952 -929.607 -1572 35 39 34
-176.22 -928.27 -1570 35 39 34
-172.608 -927.527 -1569 35 39 34
-169.003 -926.787 -1568 36 40 35
-164.77 -922.505 -1561 36 40 35
-160.881 -920 -1557 37 41 36
-156.808 -916.317 -1551 38 42 37
-152.863 -913.229 -1546 38 42 37
-149.134 -911.326 -1543 37 41 36
-145.421 -909.426 -1540 40 43 38
-141.722 -907.53 -1537 42 45 40
-138.488 -908.59 -1539 40 43 38
-135.158 -909.061 -1540 40 43 38
-131.655 -908.355 -1539 40 42 38
-128.24 -908.242 -1539 41 41 39
-124.908 -908.723 -1540 40 40 38
-121.651 -909.796 -1542 37 38 38
-118.157 -909.102 -1541 35 37 37
-114.742 -909.001 -1541 38 38 36
-111.329 -908.904 -1541 40 40 36
-107.917 -908.809 -1541 41 41 37
-104.778 -911.076 -1545 40 42 37
-101.818 -915.114 -1552 37 40 35
-98.8918 -919.744 -1560 35 38 33
-95.9924 -924.965 -1569 33 36 31
-93.231 -931.958 -1581 33 36 29
-89.9067 -933.647 -1584 31 34 30
-86.679 -936.517 -1589 31 34 31
-83.273 -937.623 -1591 30 33 30
-79.9593 -939.909 -1595 30 33 30
-76.3891 -939.253 -1594 30 33 31
-73.0069 -940.956 -1597 35 37 37
-69.3947 -939.716 -1595 35 38 35
-65.9158 -940.246 -1596 34 37 34
-62.4332 -940.78 -1597 33 36 33
-58.9837 -941.906 -1599 35 35 33
-55.4911 -942.446 -1600 38 38 35
-52.0273 -943.577 -1602 38 38 34
-48.5248 -944.123 -1603 36 36 34
-45.0746 -945.849 -1606 37 38 36
-41.5598 -946.401 -1607 37 38 36
-38.0882 -948.133 -1610 35 37 37
-34.5825 -949.28 -1612 34 37 32
-31.126 -952.196 -1617 34 36 33
-27.5795 -952.759 -1618 34 36 35
-24.0438 -953.915 -1620 33 36 33
-20.5121 -955.662 -1623 33 36 33
-16.9674 -957.412 -1626 33 36 33
-13.426 -960.344 -1631 34 37 34
-9.8569 -962.689 -1635 38 41 38
-6.33889 -975.636 -1657 49 52 49
-228.753 -962.808 -1617 46 46 44
-224.421 -959.633 -1612 40 42 39
-220.114 -956.461 -1607 37 40 37
-215.966 -953.89 -1603 35 38 35
-212.104 -952.512 -1601 36 39 36
-207.992 -949.948 -1597 38 41 38
-204.284 -949.173 -1596 39 42 39
-200.457 -947.806 -1594 38 42 39
-196.517 -945.849 -1591 36 40 36
-192.592 -943.895 -1588 36 40 35
-188.326 -940.163 -1582 36 40 35
-184.556 -938.811 -1580 34 38 33
-180.452 -935.681 -1575 34 38 33
-176.373 -932.555 -1570 34 38 33
-172.759 -931.808 -1569 35 39 34
-169.042 -930.471 -1567 35 39 34
-165.02 -927.357 -1562 35 39 34
-160.917 -923.653 -1556 36 40 35
-157.147 -921.733 -1553 37 41 36
-152.996 -917.443 -1546 37 41 36
-149.071 -914.344 -1541 35 39 34
-145.453 -913.029 -1539 39 42 37
-141.845 -911.718 -1537 41 44 39
-138.428 -911.595 -1537 41 44 39
-135.012 -911.476 -1537 40 43 38
-131.683 -911.953 -1538 39 41 36
-128.435 -913.025 -1540 40 40 37
-125.097 -913.508 -1541 39 39 37
-121.757 -913.993 -1542 38 39 38
-118.336 -913.889 -1542 35 37 37
-114.917 -913.787 -1542 36 36 34
-111.426 -913.096 -1541 39 39 36
-107.941 -912.408 -1540 41 41 37
-104.733 -914.093 -1543 43 43 39
-101.644 -916.965 -1548 39 41 36
-98.9142 -923.393 -1559 35 38 33
-96.0144 -928.639 -1568 34 37 32
-93.1348 -934.479 -1578 33 36 29
-89.9278 -937.36 -1583 32 35 30
-86.645 -939.652 -1587 31 34 31
-83.3452 -941.946 -1591 30 33 30
-79.9785 -943.651 -1594 31 34 31
-76.5033 -944.175 -1595 29 32 30
-73.0244 -944.702 -1596 31 33 33
-69.5419 -945.233 -1597 32 35 33
-66.0143 -945.174 -1597 33 36 33
-62.5656 -946.301 -1599 34 37 34
-59.0717 -946.84 -1600 36 36 34
-55.6434 -948.566 -1603 38 38 35
-52.1048 -948.519 -1603 37 37 33
-48.5971 -949.067 -1604 37 37 34
-45.1136 -950.21 -1606 35 37 34
-41.5698 -950.172 -1606 33 36 34
-38.0975 -951.913 -1609 34 36 35
-34.6124 -953.656 -1612 35 38 33
-31.1529 -956.585 -1617 36 39 35
-27.5863 -956.56 -1617 35 38 35
-24.0497 -957.721 -1619 34 37 34
-20.4918 -958.293 -1620 33 36 33
-16.9507 -960.052 -1623 33 36 33
-13.3881 -961.221 -1625 37 40 35
-9.85334 -965.944 -1633 39 42 39
-6.32908 -977.767 -1653 49 51 49
-228.671 -966.051 -1615 46 46 44
-224.758 -964.655 -1613 40 42 39
-220.582 -962.066 -1609 37 39 36
-216.291 -958.884 -1604 35 38 35
-212.29 -956.902 -1601 37 40 37
-207.914 -953.131 -1595 38 41 38
-204.079 -951.755 -1593 39 42 38
-200.381 -950.979 -1592 39 43 39
-196.318 -948.416 -1588 38 42 38
-192.519 -947.05 -1586 37 41 36
-188.61 -945.092 -1583 36 40 35
-184.484 -941.943 -1578 34 38 33
-180.381 -938.798 -1573 35 39 34
-176.415 -936.254 -1569 36 40 35
-172.579 -934.311 -1566 34 38 33
-168.866 -932.968 -1564 35 39 34
-165.164 -931.628 -1562 35 39 34
-161.369 -929.696 -1559 37 41 36
-157.285 -925.978 -1553 39 43 38
-153.229 -922.264 -1547 38 42 37
-149.201 -918.555 -1541 35 39 34
-145.58 -917.233 -1539 39 42 37
-142.062 -916.512 -1538 40 43 38
-138.639 -916.389 -1538 41 44 39
-135.306 -916.865 -1539 40 43 38
-131.884 -916.747 -1539 39 42 37
-128.547 -917.229 -1540 39 42 37
-125.207 -917.713 -1541 39 39 37
-121.942 -918.796 -1543 38 38 37
-118.516 -918.691 -1543 36 37 37
-115.166 -919.184 -1544 37 37 33
-111.74 -919.085 -1544 40 40 36
-108.175 -917.798 -1542 42 42 38
-104.96 -919.49 -1545 44 44 40
-101.798 -921.781 -1549 40 42 37
-98.81 -925.858 -1556 35 38 33
-96.0982 -932.913 -1568 34 37 32
-93.2751 -939.375 -1579 34 37 31
-90.0631 -942.269 -1584 31 34 30
-86.8297 -945.166 -1589 32 35 32
-83.4179 -946.281 -1591 29 32 29
-80.0983 -948.589 -1595 30 33 30
-76.8099 -951.494 -1600 32 35 32
-73.2254 -950.834 -1599 32 34 34
-69.7332 -951.366 -1600 31 34 31
-66.1959 -951.307 -1600 32 35 32
-62.6592 -951.25 -1600 33 36 33
-59.0861 -950.603 -1599 34 37 33
-55.6918 -952.93 -1603 37 38 34
-52.2152 -954.072 -1605 36 36 32
-48.6697 -954.029 -1605 36 36 32
-45.1528 -954.582 -1606 34 36 33
-41.6319 -955.139 -1607 34 37 34
-38.1543 -956.887 -1610 33 36 33
-34.664 -958.638 -1613 34 37 32
-31.18 -960.987 -1617 35 38 34
-27.6102 -960.961 -1617 36 39 36
-24.0557 -961.533 -1618 35 38 34
-20.4969 -962.108 -1619 33 36 33
-16.934 -962.686 -1620 34 37 34
-13.3915 -965.05 -1624 35 38 33
-9.84957 -969.199 -1631 38 41 38
-6.31521 -979.294 -1648 49 51 48
-228.165 -967.491 -1610 47 47 45
-224.538 -967.291 -1610 41 41 39
-220.64 -965.892 -1608 39 39 37
-216.752 -964.497 -1606 38 41 38
-212.61 -961.904 -1602 36 40 37
-208.358 -958.716 -1597 36 40 37
-204.387 -956.733 -1594 39 42 37
-200.432 -954.753 -1591 39 43 38
-196.492 -952.778 -1588 40 44 38
-192.445 -950.206 -1584 40 44 38
-188.658 -948.838 -1582 37 41 36
-184.412 -945.074 -1576 36 40 35
-180.426 -942.515 -1572 35 39 34
-176.121 -938.161 -1565 35 39 34
-172.401 -936.808 -1563 34 38 33
-168.583 -934.859 -1560 34 38 33
-164.992 -934.113 -1559 34 38 33
-161.2 -932.172 -1556 34 38 33
-157.322 -929.635 -1552 37 41 36
-153.264 -925.904 -1546 37 41 36
-149.526 -923.974 -1543 37 41 36
-145.708 -921.449 -1539 38 42 37
-142.094 -920.125 -1537 42 45 40
-138.761 -920.6 -1538 42 45 40
-135.513 -921.676 -1540 39 42 37
-132.086 -921.558 -1540 38 41 36
-128.743 -922.042 -1541 39 42 37
-125.398 -922.528 -1542 41 41 37
-122.049 -923.018 -1543 39 39 37
-118.774 -924.108 -1545 35 35 33
-115.193 -922.809 -1543 36 36 32
-111.911 -923.905 -1545 40 41 35
-108.411 -923.21 -1544 41 42 36
-105.12 -924.312 -1546 42 43 37
-101.887 -926.015 -1549 41 42 37
-98.8966 -930.111 -1556 37 38 34
-96.2437 -937.796 -1569 34 37 32
-93.2977 -943.092 -1578 34 37 32
-90.085 -945.999 -1583 33 36 31
-86.7964 -948.312 -1587 32 35 30
-83.5434 -951.225 -1592 31 34 29
-80.2188 -953.543 -1596 31 34 30
-76.8772 -955.863 -1600 32 35 32
-73.3353 -955.798 -1600 34 36 34
-69.7943 -955.735 -1600 32 35 32
-66.2952 -956.272 -1601 32 35 32
-62.714 -955.619 -1600 33 36 33
-59.2118 -956.162 -1601 34 37 32
-55.7405 -957.306 -1603 35 37 32
-52.1958 -957.259 -1603 36 36 32
-48.7123 -958.409 -1605 36 36 32
-45.1923 -958.965 -1606 36 38 35
-41.6683 -959.524 -1607 35 38 35
-38.1877 -961.28 -1610 34 37 34
-34.7373 -964.234 -1615 35 38 35
-31.2264 -965.996 -1618 34 37 34
-27.6685 -966.567 -1619 35 38 35
-24.1064 -967.142 -1620 36 39 34
-20.5021 -965.928 -1618 34 37 34
-16.9383 -966.509 -1619 34 37 34
-13.395 -968.884 -1623 32 35 30
-9.8702 -974.843 -1633 35 38 35
-228.226 -971.33 -1609 47 47 45
-224.598 -971.129 -1609 42 42 40
-220.424 -968.516 -1605 39 39 37
-216.675 -967.718 -1604 39 42 39
-212.534 -965.114 -1600 37 41 37
-208.544 -963.117 -1597 36 40 36
-204.44 -960.521 -1593 38 42 37
-200.61 -959.135 -1591 39 43 38
-196.79 -957.753 -1589 40 44 38
-192.859 -955.772 -1586 39 43 36
-188.944 -953.794 -1583 37 41 34
-184.927 -951.219 -1579 36 40 34
-180.93 -948.647 -1575 37 41 36
-176.84 -945.476 -1570 37 41 36
-172.553 -941.106 -1563 36 40 35
-168.84 -939.751 -1561 34 38 33
-164.926 -937.195 -1557 35 39 34
-161.135 -935.244 -1554 34 38 33
-157.156 -932.094 -1549 36 40 35
-153.301 -929.55 -1545 39 43 38
-149.561 -927.611 -1542 38 42 37
-145.837 -925.676 -1539 40 43 38
-142.497 -926.149 -1540 40 43 38
-139.064 -926.024 -1540 40 43 38
-135.633 -925.903 -1540 38 41 36
-132.202 -925.784 -1540 37 39 34
-128.69 -925.068 -1539 38 40 35
-125.427 -926.157 -1541 39 39 35
-121.999 -926.048 -1541 39 39 36
-118.725 -927.143 -1543 36 36 34
-115.369 -927.641 -1544 34 36 31
-111.937 -927.54 -1544 39 41 34
-108.577 -928.043 -1545 41 42 35
-105.145 -927.949 -1545 42 43 36
-102.043 -930.86 -1550 41 42 37
-99.1109 -935.576 -1558 38 39 35
-96.1444 -940.293 -1566 34 37 32
-93.3799 -947.414 -1578 34 37 32
-90.3352 -952.136 -1586 33 36 31
-87.0371 -954.46 -1590 32 35 30
-83.8796 -958.586 -1597 30 33 28
-80.4403 -959.714 -1599 30 33 29
-76.8967 -959.644 -1599 32 35 32
-73.5834 -962.579 -1604 32 35 32
-69.9429 -961.315 -1602 32 35 32
-66.3535 -960.655 -1601 31 35 32
-62.8083 -960.598 -1601 33 36 33
-59.3378 -961.744 -1603 34 37 32
-55.7546 -961.094 -1602 35 37 32
-52.3068 -962.845 -1605 34 34 30
-48.7854 -963.401 -1606 35 35 31
-45.2601 -963.96 -1607 36 38 35
-41.7308 -964.521 -1608 37 40 37
-38.2687 -966.885 -1612 36 39 36
-34.8107 -969.852 -1617 34 37 34
-31.2731 -971.022 -1619 34 37 34
-27.7099 -971.596 -1620 33 36 33
-24.1723 -973.373 -1623 34 37 32
-20.5581 -972.153 -1621 33 36 32
-16.9636 -971.537 -1620 31 34 31
-13.4149 -973.923 -1624 31 34 29
-9.84855 -976.312 -1628 34 36 35
-228.572 -976.388 -1610 47 47 45
-224.659 -974.972 -1608 43 43 41
-220.621 -972.954 -1605 40 40 38
-216.868 -972.152 -1604 38 41 36
-212.723 -969.536 -1600 38 42 37
-208.86 -968.136 -1598 38 42 37
-204.88 -966.133 -1595 38 42 37
-200.915 -964.135 -1592 39 43 38
-196.965 -962.14 -1589 39 43 37
-193.275 -961.36 -1588 36 40 33
-189.351 -959.374 -1585 35 39 32
-184.975 -954.97 -1578 37 41 35
-180.976 -952.386 -1574 38 42 37
-176.997 -949.806 -1570 38 42 37
-172.707 -945.415 -1563 37 41 36
-168.666 -942.239 -1558 36 40 35
-164.967 -940.881 -1556 37 41 36
-161.071 -938.317 -1552 36 40 35
-157.195 -935.757 -1548 37 41 36
-153.238 -932.597 -1543 38 42 37
-149.694 -931.857 -1542 37 41 36
-146.061 -930.517 -1540 38 41 36
-142.716 -930.993 -1541 39 42 37
-139.188 -930.263 -1540 39 42 37
-135.841 -930.745 -1541 39 42 37
-132.32 -930.021 -1540 38 41 36
-128.888 -929.905 -1540 39 41 35
-125.457 -929.792 -1540 39 39 35
-122.107 -930.286 -1541 39 39 36
-118.676 -930.179 -1541 37 37 35
-115.247 -930.075 -1541 34 37 32
-111.964 -931.181 -1543 39 41 35
-108.532 -931.083 -1543 42 43 36
-105.238 -932.195 -1545 42 43 36
-102.199 -935.723 -1551 42 42 37
-99.1987 -939.856 -1558 41 41 37
-96.3524 -945.802 -1568 36 39 34
-93.4034 -951.146 -1577 34 37 32
-90.4722 -957.095 -1587 33 36 31
-87.1141 -958.826 -1590 31 34 29
-83.7435 -960.559 -1593 30 33 28
-80.4108 -962.898 -1597 30 33 29
-77.013 -964.637 -1600 31 34 31
-73.4648 -964.57 -1600 31 35 32
-69.8737 -963.904 -1599 31 35 31
-66.3707 -964.446 -1600 30 34 30
-62.9032 -965.594 -1602 33 36 33
-59.3903 -966.143 -1603 34 37 32
-55.8388 -966.092 -1603 34 36 31
-52.3204 -966.647 -1604 34 34 30
-48.7678 -966.602 -1604 34 34 30
-45.2719 -967.766 -1606 34 36 33
-41.7417 -968.329 -1607 36 39 36
-38.2549 -970.102 -1610 34 37 34
-34.82 -973.685 -1616 32 35 32
-31.3008 -975.463 -1619 34 37 34
-27.7344 -976.04 -1620 34 37 34
-24.2085 -978.426 -1624 33 36 31
-20.6017 -977.804 -1623 33 36 32
-17.01 -977.788 -1623 32 35 32
-13.468 -981.389 -1629 31 34 29
-9.88159 -983.186 -1632 36 38 37
-229.345 -983.291 -1614 49 47 45
-225.001 -980.041 -1609 43 42 40
-220.956 -978.013 -1606 41 41 39
-217.333 -977.816 -1606 40 43 38
-212.914 -973.969 -1600 39 42 37
-209.309 -973.78 -1600 37 41 36
-205.449 -972.376 -1598 37 41 36
-201.474 -970.368 -1595 39 43 38
-197.142 -966.539 -1589 38 42 36
-193.57 -966.363 -1589 36 40 33
-189.282 -962.543 -1583 36 40 33
-185.492 -961.159 -1581 37 41 35
-181.253 -957.347 -1575 37 41 36
-177.269 -954.755 -1571 37 41 36
-172.751 -949.129 -1562 37 41 36
-168.925 -947.153 -1559 37 41 36
-164.584 -942.143 -1551 38 42 37
-160.695 -939.568 -1547 37 41 36
-157.03 -938.211 -1545 38 42 37
-153.176 -935.643 -1541 38 42 37
-149.731 -935.507 -1541 37 41 36
-146.286 -935.375 -1541 38 42 37
-142.936 -935.853 -1542 40 43 38
-139.312 -934.513 -1540 41 44 39
-136.051 -935.603 -1542 41 44 39
-132.438 -934.269 -1540 37 40 35
-128.919 -933.546 -1539 37 40 33
-125.406 -932.826 -1538 39 39 35
-122.216 -934.535 -1541 39 39 36
-118.705 -933.82 -1540 38 38 36
-115.35 -934.322 -1541 37 39 34
-111.918 -934.221 -1541 41 43 37
-108.629 -935.335 -1543 42 43 36
-105.195 -935.239 -1543 40 41 34
-102.092 -938.177 -1548 39 39 33
-99.1595 -942.936 -1556 39 39 34
-96.5611 -951.332 -1570 36 39 34
-93.4865 -955.489 -1577 35 38 33
-90.4386 -960.253 -1585 33 36 31
-87.1368 -962.597 -1589 30 33 28
-83.9758 -966.761 -1596 30 33 28
-80.5831 -968.505 -1599 30 33 29
-77.1296 -969.646 -1601 29 32 29
-73.5301 -968.974 -1600 31 34 31
-69.9358 -968.304 -1599 32 35 30
-66.4712 -969.454 -1601 32 35 30
-62.9198 -969.397 -1601 33 36 33
-59.3689 -969.342 -1601 34 37 32
-55.9233 -971.107 -1604 35 36 32
-52.3669 -971.059 -1604 34 34 30
-48.8415 -971.619 -1605 33 33 29
-45.3403 -972.788 -1607 32 34 31
-41.8047 -973.355 -1608 31 34 31
-38.384 -976.951 -1614 34 37 34
-34.8509 -978.129 -1616 35 38 35
-31.3285 -979.915 -1619 36 39 36
-27.7761 -981.1 -1621 36 39 36
-24.2448 -983.497 -1625 35 38 33
-20.6326 -982.872 -1624 34 37 33
-17.0565 -984.066 -1626 33 36 33
-13.4881 -986.473 -1630 33 36 31
-9.87207 -985.858 -1629 39 42 39
-229.837 -989.005 -1616 49 47 45
-225.064 -983.903 -1608 43 42 40
-221.018 -981.866 -1605 42 42 40
-217.53 -982.279 -1606 40 43 38
-213.106 -978.415 -1600 38 41 36
-209.498 -978.224 -1600 38 42 37
-205.506 -976.202 -1597 38 42 35
-201.529 -974.185 -1594 37 41 34
-197.319 -970.949 -1589 36 40 33
-193.378 -968.94 -1586 37 41 34
-189.093 -965.102 -1580 38 42 35
-185.424 -964.322 -1579 38 42 35
-181.532 -962.324 -1576 36 40 33
-177.541 -959.72 -1572 36 40 35
-173.238 -955.289 -1565 38 42 37
-168.968 -950.862 -1558 37 41 36
-164.732 -946.44 -1551 38 42 37
-160.736 -943.243 -1546 38 42 37
-157.171 -942.49 -1545 36 40 35
-153.413 -940.52 -1542 37 41 36
-149.865 -939.773 -1541 39 42 37
-146.418 -939.64 -1541 40 43 38
-143.157 -940.729 -1543 40 43 38
-139.437 -938.773 -1540 42 45 40
-136.084 -939.259 -1541 41 43 39
-132.557 -938.529 -1540 39 40 37
-129.034 -937.802 -1539 41 43 37
-125.355 -935.86 -1536 41 41 37
-122.166 -937.576 -1539 39 39 36
-118.734 -937.468 -1539 37 37 34
-115.303 -937.363 -1539 37 37 33
-111.8 -936.652 -1538 40 41 36
-108.515 -937.771 -1540 40 41 34
-105.085 -937.675 -1540 39 40 33
-101.986 -940.626 -1545 39 40 33
-99.1845 -946.624 -1555 37 38 31
-96.4628 -953.841 -1567 36 38 32
-93.5107 -959.234 -1576 35 38 33
-90.5195 -964.629 -1585 33 36 31
-87.2146 -966.984 -1589 31 34 30
-83.9983 -970.558 -1595 30 33 28
-80.5038 -971.093 -1596 29 32 28
-76.9574 -971.022 -1596 28 31 28
-73.4578 -971.563 -1597 30 33 30
-69.9983 -972.716 -1599 32 35 33
-66.4475 -972.655 -1599 31 34 32
-63.0153 -974.422 -1602 33 34 32
-59.4591 -974.367 -1602 32 35 30
-55.9731 -975.531 -1604 34 36 31
-52.4463 -976.091 -1605 34 34 30
-48.9764 -977.87 -1608 33 35 32
-45.3525 -976.612 -1606 33 37 34
-41.894 -979.005 -1610 33 37 34
-38.3944 -980.793 -1613 33 37 34
-34.8603 -981.977 -1615 34 38 35
-31.3564 -984.379 -1619 34 38 34
-27.8008 -985.569 -1621 35 38 33
-24.2664 -987.978 -1625 36 36 32
-20.6636 -987.958 -1625 34 36 31
-17.1031 -990.373 -1629 33 36 31
-13.5167 -992.183 -1632 32 35 30
-9.89289 -991.565 -1631 38 41 38
-229.049 -989.207 -1609 51 49 47
-224.988 -987.157 -1606 47 45 42
-221.356 -986.954 -1606 43 42 38
-217.456 -985.525 -1604 39 42 37
-213.433 -983.486 -1601 38 42 37
-210.081 -984.522 -1603 39 43 38
-205.95 -981.877 -1599 39 43 36
-201.838 -979.236 -1595 38 42 35
