ply
format ascii 1.0
comment Created by Open3D
element vertex 1347
property double x
property double y
property double z
property uchar red
property uchar green
property uchar blue
end_header
-15.6102 -310.701 -1641 211 207 150
-12.3158 -310.697 -1641 213 209 153
-9.02682 -310.884 -1642 218 213 158
-5.73762 -311.261 -1644 217 214 159
-2.44172 -311.828 -1647 219 216 161
0.864958 -312.017 -1648 218 215 162
4.18345 -312.775 -1652 218 215 163
7.52238 -313.723 -1657 213 210 159
10.8555 -313.915 -1658 211 210 156
14.1924 -314.107 -1659 216 214 162
17.5654 -314.869 -1663 222 219 168
20.9293 -315.252 -1665 221 218 169
24.2578 -315.069 -1664 218 215 167
27.6654 -315.833 -1668 219 217 168
31.0705 -316.408 -1671 218 215 167
34.4675 -316.796 -1673 214 211 163
37.918 -317.562 -1677 212 209 160
41.4587 -318.898 -1684 208 208 159
44.948 -319.667 -1688 205 206 157
48.6828 -321.952 -1700 204 204 161
52.5582 -324.805 -1715 202 201 163
-140.771 -329.357 -1717 180 183 166
-135.061 -323.95 -1689 175 178 158
-130.869 -321.998 -1679 188 191 162
-126.339 -319.088 -1664 203 205 171
-122.609 -318.096 -1659 199 199 161
-118.828 -316.914 -1653 193 190 149
-115.283 -316.309 -1650 203 200 158
-111.886 -316.087 -1649 214 210 167
-108.428 -315.676 -1647 215 211 168
-104.915 -315.073 -1644 214 210 167
-101.477 -314.663 -1642 210 207 159
-98.0485 -314.253 -1640 205 203 154
-94.6284 -313.845 -1638 203 201 150
-91.2728 -313.629 -1637 205 200 151
-87.8683 -313.223 -1635 206 200 152
-84.5243 -313.009 -1634 210 204 154
-81.1851 -312.796 -1633 213 208 156
-77.8028 -312.392 -1631 215 210 157
-74.4748 -312.181 -1630 221 217 164
-71.1515 -311.97 -1629 221 217 164
-67.7912 -311.569 -1627 219 214 161
-64.3602 -310.786 -1623 215 212 159
-61.0587 -310.578 -1622 217 214 161
-57.6905 -309.988 -1619 217 216 160
-54.3684 -309.591 -1617 218 216 159
-51.1181 -309.577 -1617 218 216 157
-47.8681 -309.564 -1617 220 218 160
-44.6185 -309.552 -1617 223 221 163
-41.3693 -309.541 -1617 224 222 164
-38.1441 -309.722 -1618 222 219 163
-34.9151 -309.904 -1619 219 216 161
-31.7215 -310.47 -1622 220 217 163
-28.5161 -311.036 -1625 217 214 160
-25.3144 -311.795 -1629 215 212 157
-22.0969 -312.554 -1633 213 211 153
-18.8635 -313.314 -1637 213 211 153
-15.6046 -313.884 -1640 213 208 151
-12.3263 -314.263 -1642 213 208 152
-9.02923 -314.261 -1642 215 210 155
-5.74251 -314.833 -1645 217 214 159
-2.43934 -314.832 -1645 221 218 164
0.864138 -315.023 -1646 221 218 165
4.17944 -315.789 -1650 220 217 166
7.51538 -316.748 -1655 216 214 162
10.8516 -317.133 -1657 210 209 155
14.1876 -317.327 -1658 208 206 154
17.57 -318.289 -1663 215 212 161
20.9223 -318.485 -1664 223 220 171
24.2931 -318.874 -1666 223 220 171
27.689 -319.455 -1669 221 218 169
31.1158 -320.228 -1673 219 216 168
34.5382 -320.811 -1676 217 214 166
38.0182 -321.777 -1681 215 212 164
41.5186 -322.745 -1686 210 208 160
45.0661 -323.905 -1692 206 205 157
48.7241 -325.64 -1701 205 205 161
52.7864 -329.673 -1722 202 202 163
-140.562 -332.317 -1714 183 185 167
-135.097 -327.434 -1689 177 179 158
-130.903 -325.46 -1679 183 186 157
-126.296 -322.325 -1663 203 204 171
-122.567 -321.323 -1658 214 214 176
-118.859 -320.322 -1653 206 203 162
-115.313 -319.71 -1650 200 196 154
-111.915 -319.487 -1649 205 201 158
-108.456 -319.07 -1647 209 205 162
-105.007 -318.654 -1645 209 205 162
-101.566 -318.24 -1643 210 207 159
-98.1937 -318.02 -1642 210 207 158
-94.7109 -317.414 -1639 210 208 157
-91.3525 -317.195 -1638 212 207 158
-87.8913 -316.591 -1635 211 205 157
-84.5464 -316.375 -1634 210 204 154
-81.2063 -316.159 -1633 212 206 155
-77.8231 -315.751 -1631 215 210 157
-74.4486 -315.344 -1629 220 215 162
-71.1701 -315.325 -1629 223 218 165
-67.7256 -314.532 -1625 221 216 163
-64.377 -314.128 -1623 218 214 161
-60.9993 -313.531 -1620 217 214 161
-57.7055 -313.321 -1619 218 217 161
-54.3826 -312.92 -1617 220 219 161
-51.1314 -312.906 -1617 219 217 157
-47.8806 -312.893 -1617 220 218 160
-44.6578 -313.074 -1618 221 219 161
-41.3801 -312.869 -1617 222 220 162
-38.1776 -313.246 -1619 222 219 163
-34.9027 -313.043 -1618 217 214 159
-31.7298 -313.808 -1622 212 209 156
-28.506 -314.187 -1624 209 206 153
-25.321 -315.147 -1629 210 207 152
-22.1027 -315.915 -1633 211 209 151
-18.8684 -316.683 -1637 214 211 153
-15.5992 -317.066 -1639 215 210 153
-12.3295 -317.642 -1642 214 209 153
-9.03696 -317.833 -1643 215 210 155
-5.74043 -318.025 -1644 216 213 158
-2.44161 -318.411 -1646 220 217 163
0.864896 -318.604 -1647 223 220 167
4.18303 -319.378 -1651 224 221 169
7.52181 -320.347 -1656 219 217 165
10.8676 -320.93 -1659 213 211 158
14.1999 -320.933 -1659 207 205 153
17.5746 -321.711 -1663 205 202 151
20.9151 -321.716 -1663 213 210 161
24.2996 -322.302 -1666 222 219 170
27.6798 -322.696 -1668 224 221 172
31.1054 -323.478 -1672 218 215 167
34.5267 -324.067 -1675 215 212 164
37.9829 -324.85 -1679 214 211 163
41.4557 -325.635 -1683 211 208 160
44.9448 -326.42 -1687 208 206 158
48.6796 -328.754 -1699 204 204 160
52.7695 -333.025 -1721 203 202 163
-140.845 -336.444 -1717 182 184 165
-135.693 -332.292 -1696 180 182 161
-130.86 -328.73 -1678 183 186 157
-126.633 -326.541 -1667 194 196 163
-122.747 -325.136 -1660 219 219 181
-119.035 -324.125 -1655 219 215 175
-115.413 -323.31 -1651 201 197 156
-112.013 -323.084 -1650 199 195 153
-108.485 -322.467 -1647 206 202 159
-104.907 -321.656 -1643 207 203 160
-101.531 -321.433 -1642 209 206 158
-98.1599 -321.21 -1641 210 207 158
-94.6782 -320.597 -1638 211 209 158
-91.3208 -320.377 -1637 215 210 161
-87.8608 -319.766 -1634 215 209 161
-84.517 -319.547 -1633 214 208 158
-81.1283 -319.134 -1631 214 208 157
-77.796 -318.917 -1630 215 210 158
-74.4226 -318.506 -1628 219 214 161
-71.189 -318.682 -1629 222 217 164
-67.7435 -317.881 -1625 222 217 164
-64.4337 -317.668 -1624 219 216 163
-61.0155 -316.869 -1620 217 214 161
-57.7565 -316.853 -1620 218 215 160
-54.4306 -316.447 -1618 220 217 160
-51.2082 -316.628 -1619 219 217 157
-47.8932 -316.224 -1617 218 216 158
-44.6972 -316.603 -1619 219 217 159
-41.391 -316.2 -1617 222 220 162
-38.1877 -316.581 -1619 223 220 164
-34.9118 -316.376 -1618 218 215 160
-31.7186 -316.953 -1621 207 204 151
-28.496 -317.337 -1623 206 203 149
-25.2966 -318.112 -1627 207 204 149
-22.0679 -318.692 -1630 209 207 149
-18.8387 -319.469 -1634 211 209 151
-15.5938 -320.246 -1638 212 207 150
-12.3253 -320.829 -1641 211 206 151
-9.03392 -321.021 -1642 212 207 152
-5.74206 -321.411 -1644 215 211 156
-2.44221 -321.801 -1646 219 215 160
0.865131 -321.996 -1647 224 221 166
4.18157 -322.583 -1650 224 221 170
7.51484 -323.367 -1654 221 218 167
10.8706 -324.346 -1659 219 216 165
14.1951 -324.154 -1658 216 213 162
17.5792 -325.136 -1663 210 207 156
20.9206 -325.141 -1663 207 204 155
24.3206 -325.929 -1667 213 210 161
27.7038 -326.327 -1669 223 220 171
31.1694 -327.508 -1675 226 223 175
34.577 -327.908 -1677 220 217 169
38.0384 -328.7 -1681 216 213 165
41.4912 -329.297 -1684 210 208 160
44.9834 -330.091 -1688 207 205 157
48.7496 -332.646 -1701 204 204 160
52.8755 -337.157 -1724 203 202 164
-140.391 -338.803 -1711 187 189 169
-135.729 -335.796 -1696 180 182 160
-130.895 -332.196 -1678 182 185 156
-126.819 -330.38 -1669 185 186 153
-122.928 -328.961 -1662 203 203 165
-119.139 -327.74 -1656 223 220 181
-115.514 -326.917 -1652 216 212 173
-112.111 -326.689 -1651 205 201 160
-108.514 -325.867 -1647 202 200 157
-105.063 -325.443 -1645 206 204 160
-101.62 -325.02 -1643 210 207 159
-98.246 -324.795 -1642 208 206 157
-94.7612 -324.175 -1639 210 208 157
-91.3452 -323.755 -1637 216 211 162
-87.8843 -323.138 -1634 218 212 163
-84.4879 -322.719 -1632 215 209 159
-81.15 -322.499 -1631 214 208 158
-77.8167 -322.28 -1630 214 209 158
-74.3967 -321.666 -1627 216 211 158
-71.1206 -321.646 -1627 219 214 161
-67.7199 -321.035 -1624 221 216 163
-64.3715 -320.622 -1622 219 216 163
-60.9564 -319.814 -1618 217 214 161
-57.7005 -319.798 -1618 218 215 160
-54.4115 -319.586 -1617 219 215 159
-51.2218 -319.967 -1619 220 217 158
-47.906 -319.558 -1617 219 217 159
-44.6816 -319.743 -1618 219 217 159
-41.4021 -319.534 -1617 222 220 162
-38.1507 -319.524 -1617 223 220 164
-34.8996 -319.514 -1617 220 217 162
-31.6879 -319.9 -1619 219 216 162
-28.486 -320.485 -1622 217 214 159
-25.2879 -321.268 -1626 214 211 156
-22.1009 -322.447 -1632 214 212 154
-18.8669 -323.232 -1636 213 211 153
-15.6074 -323.82 -1639 212 207 150
-12.3285 -324.211 -1641 210 205 150
-9.0362 -324.406 -1642 208 203 148
-5.74001 -324.602 -1643 209 204 149
-2.44133 -324.996 -1645 212 208 153
0.864842 -325.193 -1646 218 215 160
4.18792 -326.379 -1652 219 216 164
7.52586 -327.171 -1656 218 215 164
10.8799 -327.964 -1660 220 217 166
14.2161 -327.967 -1660 218 215 164
17.5945 -328.762 -1664 217 214 163
20.9388 -328.767 -1664 212 209 160
24.3564 -329.761 -1669 211 208 159
27.7442 -330.163 -1671 216 213 164
31.1592 -330.764 -1674 227 224 176
34.6069 -331.563 -1678 225 222 174
38.0485 -332.165 -1681 222 219 171
41.5271 -332.967 -1685 214 212 165
45.0221 -333.769 -1689 208 206 159
48.7629 -336.153 -1701 205 205 162
52.7364 -339.724 -1719 204 203 165
-140.757 -343.141 -1715 194 196 176
-135.926 -339.702 -1698 181 183 160
-131.165 -336.265 -1681 181 183 152
-126.853 -333.83 -1669 183 184 150
-123.036 -332.596 -1663 188 188 150
-119.243 -331.363 -1657 215 213 174
-115.476 -330.131 -1651 228 225 185
-112.073 -329.9 -1650 222 218 177
-108.478 -329.07 -1646 214 211 169
-104.963 -328.441 -1643 210 208 164
-101.585 -328.213 -1642 209 206 158
-98.1529 -327.787 -1640 210 208 159
-94.7291 -327.361 -1638 210 208 159
-91.3141 -326.936 -1636 216 210 162
-87.908 -326.512 -1634 216 210 162
-84.459 -325.889 -1631 215 209 159
-81.1719 -325.866 -1631 215 209 158
-77.8378 -325.645 -1630 214 209 156
-74.4168 -325.025 -1627 214 209 156
-71.0961 -324.805 -1626 215 210 157
-67.6965 -324.187 -1623 218 213 160
-64.3492 -323.77 -1621 218 215 162
-60.9728 -323.154 -1618 218 215 162
-57.7874 -323.537 -1620 218 215 160
-54.4598 -323.122 -1618 218 215 159
-51.2673 -323.507 -1620 220 215 158
-47.9486 -323.095 -1618 219 217 159
-44.666 -322.882 -1617 220 218 160
-41.362 -322.471 -1615 223 221 163
-38.1137 -322.461 -1615 223 220 165
-34.8659 -322.451 -1615 222 219 164
-31.6964 -323.24 -1619 224 221 166
-28.4936 -323.831 -1622 224 221 166
-25.3257 -325.022 -1628 219 216 161
-22.1068 -325.814 -1632 216 214 156
-18.8834 -326.806 -1637 215 213 155
-15.6116 -327.201 -1639 216 211 154
-12.3469 -327.996 -1643 216 211 155
-9.04972 -328.192 -1644 214 209 154
-5.74846 -328.39 -1645 216 211 156
-2.44343 -328.589 -1646 217 213 158
0.866134 -328.988 -1648 218 215 160
4.18901 -329.787 -1652 215 212 160
7.52326 -330.387 -1655 214 211 160
10.8764 -331.189 -1659 214 211 160
14.2114 -331.192 -1659 213 210 159
17.5992 -332.194 -1664 213 210 159
20.9571 -332.399 -1665 214 211 162
24.3774 -333.404 -1670 216 213 164
27.785 -334.01 -1673 216 213 164
31.2235 -334.816 -1677 215 212 164
34.6783 -335.624 -1681 218 215 166
38.1492 -336.433 -1685 217 214 166
41.6121 -337.042 -1688 213 211 165
45.1143 -337.853 -1692 210 208 162
48.8621 -340.262 -1704 205 205 163
52.7813 -343.47 -1720 203 203 165
-140.221 -345.276 -1708 198 201 181
-135.403 -341.801 -1691 184 186 162
-131.045 -339.339 -1679 184 184 151
-127.04 -337.687 -1671 186 186 150
-123.069 -336.036 -1663 186 186 148
-119.276 -334.79 -1657 196 194 155
-115.507 -333.545 -1651 221 219 180
-112.104 -333.312 -1650 233 229 188
-108.573 -332.676 -1647 228 226 183
-105.12 -332.242 -1645 219 217 173
-101.737 -332.012 -1644 213 210 162
-98.2396 -331.379 -1641 210 208 159
-94.755 -330.746 -1638 209 207 158
-91.2832 -330.115 -1635 213 207 159
-87.8782 -329.687 -1633 214 208 160
-84.4819 -329.259 -1631 215 209 159
-81.1941 -329.236 -1631 214 209 157
-77.8113 -328.811 -1629 213 208 155
-74.4372 -328.386 -1627 214 209 157
-71.0717 -327.963 -1625 214 209 157
-67.6732 -327.338 -1622 218 213 160
-64.3668 -327.118 -1621 219 215 162
-61.0272 -326.697 -1619 218 215 162
-57.8032 -326.883 -1620 219 216 162
-54.4747 -326.464 -1618 219 215 159
-51.2813 -326.853 -1620 219 214 157
-47.9321 -326.234 -1617 218 216 158
-44.6505 -326.02 -1616 220 218 160
-41.3733 -325.806 -1615 220 218 160
-38.1006 -325.594 -1614 221 218 162
-34.8537 -325.584 -1614 225 222 167
-31.6659 -326.18 -1617 225 222 167
-28.5014 -327.18 -1622 223 220 165
-25.317 -328.181 -1627 219 216 161
-22.1129 -329.183 -1632 217 213 157
-18.8886 -330.186 -1637 217 212 156
-15.6444 -331.19 -1642 217 212 155
-12.3652 -331.791 -1645 216 211 155
-9.05225 -331.587 -1644 217 212 157
-5.74664 -331.585 -1644 217 212 156
-2.44404 -331.987 -1646 218 214 158
0.866578 -332.39 -1648 220 218 161
4.19012 -333.197 -1652 221 219 166
7.52998 -334.006 -1656 222 219 166
10.8991 -335.219 -1662 217 214 163
14.2408 -335.222 -1662 212 209 158
17.6358 -336.235 -1667 210 207 156
21.0006 -336.442 -1668 212 209 160
24.3988 -337.053 -1671 215 212 163
27.8092 -337.666 -1674 217 214 165
31.232 -338.279 -1677 217 214 166
34.6464 -338.691 -1679 216 213 165
38.1145 -339.508 -1683 212 209 161
41.6236 -340.528 -1688 208 206 160
45.1266 -341.347 -1692 208 206 160
48.818 -343.377 -1702 206 206 164
52.7956 -347.023 -1720 204 204 166
-140.424 -349.221 -1710 200 203 181
-135.6 -345.711 -1693 187 190 162
-131.081 -342.816 -1679 187 188 152
-127.227 -341.555 -1673 187 187 150
-123.251 -339.887 -1665 186 186 148
-119.525 -338.832 -1660 183 183 143
-115.819 -337.779 -1655 196 195 155
-112.338 -337.339 -1653 222 219 178
-108.669 -336.288 -1648 228 225 183
-105.277 -336.054 -1647 224 222 178
-101.765 -335.414 -1644 217 214 166
-98.2068 -334.57 -1640 211 208 160
-94.7233 -333.931 -1637 210 208 159
-91.3085 -333.497 -1635 212 207 159
-87.9025 -333.064 -1633 214 208 160
-84.5571 -332.836 -1632 214 208 158
-81.2164 -332.61 -1631 215 209 158
-77.8327 -332.18 -1629 216 211 158
-74.412 -331.547 -1626 216 210 160
-71.0476 -331.119 -1624 215 209 158
-67.6919 -330.692 -1622 217 212 159
-64.3845 -330.47 -1621 219 215 162
-61.0441 -330.045 -1619 219 216 163
-57.7835 -330.028 -1619 219 216 163
-54.4897 -329.809 -1618 219 215 160
-51.2321 -329.794 -1618 219 214 156
-47.9155 -329.373 -1616 217 214 156
-44.6351 -329.156 -1615 217 214 156
-41.3847 -329.144 -1615 218 215 158
-38.1347 -329.133 -1615 220 216 160
-34.8849 -329.123 -1615 225 221 166
-31.6942 -329.725 -1618 224 221 166
-28.5092 -330.532 -1622 224 221 166
-25.3396 -331.747 -1628 222 219 165
-22.1189 -332.555 -1632 221 217 162
-18.9285 -334.18 -1640 219 214 159
-15.6487 -334.583 -1642 215 210 153
-12.3762 -335.394 -1646 213 208 152
-9.06562 -335.391 -1646 212 207 152
-5.75862 -335.593 -1647 214 209 152
-2.44615 -335.592 -1647 217 212 155
0.866823 -335.795 -1648 219 216 158
4.19144 -336.611 -1652 223 220 167
7.52762 -337.224 -1655 226 223 170
10.8889 -338.245 -1660 224 221 171
14.2448 -338.656 -1662 218 215 164
17.6514 -339.883 -1668 213 210 159
21.0065 -339.889 -1668 214 211 162
24.4494 -341.118 -1674 217 214 165
27.8502 -341.532 -1676 219 216 167
31.2592 -341.948 -1678 216 212 166
34.6766 -342.365 -1680 217 213 167
38.1704 -343.394 -1685 211 208 160
41.6351 -344.016 -1688 208 206 160
45.1657 -345.048 -1693 208 206 160
48.8601 -347.099 -1703 206 205 162
52.841 -350.782 -1721 204 203 166
-140.464 -352.766 -1710 199 202 179
-135.558 -349.014 -1692 197 199 168
-131.118 -346.295 -1679 191 192 154
-127.263 -345.022 -1673 188 188 151
-123.434 -343.749 -1667 187 186 150
-119.774 -342.89 -1663 186 184 146
-115.851 -341.208 -1655 185 183 144
-112.506 -341.176 -1655 205 201 160
-108.897 -340.32 -1651 224 222 178
-105.37 -339.671 -1648 228 226 181
-101.856 -339.024 -1645 225 223 175
-98.3541 -338.378 -1642 217 215 166
-94.8076 -337.526 -1638 213 211 162
-91.334 -336.882 -1635 213 208 160
-87.927 -336.445 -1633 213 207 159
-84.5807 -336.215 -1632 214 208 158
-81.2391 -335.985 -1631 215 209 159
-77.8544 -335.551 -1629 215 210 159
-74.4327 -334.912 -1626 219 212 162
-71.0674 -334.48 -1624 217 211 160
-67.7108 -334.048 -1622 216 211 158
-64.4025 -333.824 -1621 218 214 161
-61.0988 -333.6 -1620 220 217 164
-57.8353 -333.583 -1620 218 215 162
-54.5386 -333.362 -1619 217 213 158
-51.2146 -332.935 -1617 219 214 155
-47.9289 -332.715 -1616 214 212 154
-44.62 -332.291 -1614 214 212 154
-41.3706 -332.279 -1614 218 213 156
-38.1453 -332.473 -1615 219 214 158
-34.8946 -332.463 -1615 223 218 163
-31.7226 -333.277 -1619 224 221 166
-28.4996 -333.681 -1621 225 222 168
-25.3311 -334.908 -1627 225 222 169
-22.1522 -336.342 -1634 223 218 163
-18.9568 -337.983 -1642 219 214 159
-15.6722 -338.39 -1644 216 211 154
-12.3872 -339.004 -1647 213 208 152
-9.07922 -339.207 -1648 211 206 151
-5.76382 -339.205 -1648 213 208 151
-2.44678 -338.998 -1647 215 210 153
0.867596 -339.409 -1649 218 213 156
4.1951 -340.233 -1653 221 218 164
7.52963 -340.646 -1655 224 221 169
10.8985 -341.884 -1661 223 220 171
14.2659 -342.505 -1664 219 216 166
17.6774 -343.744 -1670 215 212 161
21.0501 -343.956 -1671 215 212 163
24.4561 -344.58 -1674 216 213 164
27.858 -344.999 -1676 220 217 168
31.2679 -345.419 -1678 220 216 171
34.707 -346.046 -1681 219 215 169
38.1356 -346.468 -1683 211 208 160
41.6467 -347.508 -1688 208 206 159
45.1783 -348.55 -1693 207 205 159
48.8165 -350.21 -1701 205 203 159
52.8558 -354.342 -1721 203 202 164
-140.75 -356.939 -1713 200 201 178
-135.677 -352.733 -1693 202 202 170
-131.155 -349.778 -1679 197 198 158
-127.223 -348.283 -1672 193 194 156
-123.321 -346.789 -1665 192 191 156
-119.736 -346.13 -1662 193 190 153
-116.094 -345.264 -1658 190 187 149
-112.606 -344.815 -1656 193 189 148
-108.994 -343.95 -1652 207 204 160
-105.528 -343.504 -1650 221 219 173
-101.884 -342.433 -1645 223 221 173
-98.3218 -341.572 -1641 221 219 171
-94.8343 -340.92 -1638 216 214 165
-91.4155 -340.478 -1636 215 210 162
-88.0057 -340.036 -1634 215 209 161
-84.6046 -339.596 -1632 214 208 158
-81.2121 -339.156 -1630 215 209 159
-77.8286 -338.717 -1628 217 211 161
-74.4078 -338.072 -1625 219 212 162
-71.0437 -337.635 -1623 220 213 163
-67.7716 -337.615 -1623 215 210 156
-64.4604 -337.389 -1622 214 210 156
-61.2291 -337.579 -1623 219 216 162
-57.8873 -337.146 -1621 218 215 162
-54.6213 -337.13 -1621 217 213 157
-51.2924 -336.699 -1619 218 213 154
-47.9721 -336.269 -1617 213 211 153
-44.6601 -335.84 -1615 213 210 152
-41.4079 -335.828 -1615 216 211 154
-38.1796 -336.025 -1616 217 212 157
-34.9045 -335.806 -1615 220 215 160
-31.7315 -336.629 -1619 222 219 164
-28.5077 -337.036 -1621 225 221 167
-25.3537 -338.484 -1628 228 223 170
-22.1177 -339.101 -1631 227 222 167
-18.939 -340.966 -1640 221 216 161
-15.667 -341.585 -1643 217 212 155
-12.3906 -342.413 -1647 213 208 153
-9.08182 -342.617 -1648 211 206 151
-5.76884 -342.823 -1649 212 207 150
-2.45059 -342.822 -1649 213 208 151
0.868372 -343.03 -1650 216 211 154
4.19116 -343.239 -1651 218 215 162
7.52276 -343.656 -1653 222 219 167
10.8951 -345.114 -1660 225 220 171
14.2616 -345.741 -1663 222 218 168
17.693 -347.409 -1671 216 213 162
21.0939 -348.038 -1674 212 209 160
24.4923 -348.461 -1676 213 210 161
27.8658 -348.468 -1676 217 214 166
31.3142 -349.308 -1680 221 217 172
34.6961 -349.317 -1680 219 216 170
38.1237 -349.743 -1682 213 210 162
41.6832 -351.21 -1689 209 207 160
45.191 -352.055 -1693 206 204 158
48.8589 -353.939 -1702 203 201 157
52.9013 -358.113 -1722 202 201 163
-141.283 -361.759 -1719 203 205 181
-135.635 -356.037 -1692 204 205 171
-131.192 -353.263 -1679 199 200 160
-127.259 -351.754 -1672 197 197 159
-123.43 -350.456 -1666 195 194 159
-119.842 -349.79 -1663 196 194 157
-116.197 -348.915 -1659 193 189 152
-112.57 -348.04 -1655 192 188 147
-109.091 -347.588 -1653 192 189 146
-105.558 -346.926 -1650 206 204 158
-101.851 -345.635 -1644 222 220 174
-98.2899 -344.766 -1640 220 218 172
-94.8613 -344.318 -1638 218 216 167
-91.4416 -343.871 -1636 217 212 164
-87.9769 -343.214 -1633 215 209 161
-84.5767 -342.769 -1631 214 208 158
-81.1854 -342.325 -1629 216 210 160
-77.7551 -341.672 -1626 218 212 162
-74.3832 -341.23 -1624 220 213 163
-71.0201 -340.789 -1622 220 213 162
-67.7491 -340.769 -1622 215 210 155
-64.4787 -340.75 -1622 211 208 153
-61.2088 -340.732 -1622 214 211 156
-57.868 -340.295 -1620 217 214 161
-54.6032 -340.279 -1620 218 214 158
-51.2753 -339.844 -1618 218 213 155
-47.9857 -339.62 -1617 213 211 153
-44.6728 -339.186 -1615 212 209 151
-41.4197 -339.174 -1615 215 210 153
-38.1905 -339.373 -1616 216 211 156
-34.9143 -339.152 -1615 219 214 159
-31.7209 -339.773 -1618 219 216 161
-28.4981 -340.184 -1620 223 219 165
-25.3142 -341.226 -1625 229 224 171
-22.0832 -341.85 -1628 229 224 169
-18.9097 -343.734 -1637 223 218 162
-15.6524 -344.569 -1641 217 212 156
-12.3791 -345.405 -1645 214 209 154
-9.07874 -345.821 -1647 212 207 152
-5.77057 -346.239 -1649 211 206 149
-2.45272 -346.448 -1650 212 207 149
0.868625 -346.448 -1650 214 209 152
4.19231 -346.658 -1651 218 214 161
7.52936 -347.29 -1654 223 218 167
10.8917 -348.343 -1659 225 219 171
14.2828 -349.606 -1665 221 217 167
17.7086 -351.08 -1672 215 212 161
21.1124 -351.716 -1675 211 208 159
24.5139 -352.142 -1677 212 208 160
27.8904 -352.15 -1677 213 208 161
31.3044 -352.579 -1679 219 215 169
34.6854 -352.588 -1679 219 214 168
38.1573 -353.438 -1683 215 210 163
41.6456 -354.29 -1687 209 206 160
45.2305 -355.772 -1694 206 204 158
48.9016 -357.676 -1703 204 202 159
-136.156 -360.828 -1698 219 220 185
-131.308 -356.965 -1680 206 206 166
-127.296 -355.227 -1672 202 201 163
-123.466 -353.916 -1666 200 199 163
-119.877 -353.244 -1663 198 196 160
-116.231 -352.36 -1659 198 196 159
-112.67 -351.69 -1656 199 195 154
-109.123 -351.021 -1653 195 192 148
-105.524 -350.14 -1649 194 192 146
-101.943 -349.261 -1645 210 206 161
-98.3183 -348.17 -1640 217 214 168
-94.8887 -347.718 -1638 218 216 168
-91.4679 -347.266 -1636 219 214 166
-88.0021 -346.604 -1633 218 212 164
-84.6012 -346.154 -1631 217 211 161
-81.159 -345.493 -1628 216 210 160
-77.7296 -344.834 -1625 217 211 161
-74.4504 -344.812 -1625 218 211 161
-71.0843 -344.366 -1623 218 211 160
-67.8521 -344.558 -1624 216 211 156
-64.5767 -344.539 -1624 213 209 154
-61.3019 -344.521 -1624 211 208 153
-57.9203 -343.867 -1621 213 210 157
-54.6525 -343.851 -1621 217 213 158
-51.29 -343.2 -1618 218 213 156
-47.9698 -342.761 -1616 214 212 154
-44.6856 -342.536 -1615 212 210 152
-41.4059 -342.311 -1614 214 209 152
-38.2014 -342.724 -1616 216 211 155
-34.946 -342.713 -1616 218 213 158
-31.7497 -343.34 -1619 219 216 161
-28.5063 -343.543 -1620 220 216 162
-25.2903 -344.172 -1623 227 222 169
-22.076 -345.013 -1627 230 225 170
-18.8805 -346.492 -1634 225 220 165
-15.6283 -347.335 -1638 219 214 159
-12.3676 -348.391 -1643 216 211 156
-9.0869 -349.448 -1648 212 207 152
-5.77913 -350.082 -1651 210 205 146
-2.45336 -349.869 -1650 211 206 147
0.868879 -349.869 -1650 213 208 149
4.19367 -350.081 -1651 219 214 160
7.52252 -350.295 -1652 225 220 168
10.8817 -351.358 -1657 226 220 173
14.2783 -352.846 -1664 223 219 169
17.7138 -354.547 -1672 217 214 163
21.106 -354.977 -1674 212 209 160
24.521 -355.62 -1677 212 207 159
27.9151 -355.839 -1678 211 205 158
31.332 -356.272 -1680 211 208 161
34.7366 -356.494 -1681 218 214 167
38.2363 -357.564 -1686 219 214 167
41.707 -358.212 -1689 211 209 163
45.2971 -359.71 -1696 206 204 158
48.973 -361.632 -1705 205 202 161
52.9009 -365.041 -1721 202 201 164
-136.276 -364.574 -1699 241 242 207
-131.425 -360.673 -1681 217 218 178
-127.181 -358.275 -1670 211 211 172
-123.353 -356.951 -1664 208 208 170
-119.695 -356.058 -1660 205 205 167
-116.054 -355.165 -1656 204 203 165
-112.363 -354.059 -1651 204 202 160
-108.89 -353.598 -1649 201 199 155
-105.427 -353.138 -1647 194 192 147
-101.91 -352.464 -1644 194 190 145
-98.3469 -351.578 -1640 207 204 158
-94.9742 -351.335 -1639 214 211 162
-91.4946 -350.665 -1636 219 214 167
-88.0816 -350.21 -1634 218 213 165
-84.6257 -349.542 -1631 215 211 161
-81.2324 -349.089 -1629 216 211 161
-77.7522 -348.208 -1625 216 210 160
-74.4721 -348.186 -1625 217 210 160
-71.105 -347.736 -1623 218 211 160
-67.8719 -347.93 -1624 217 212 158
-64.5955 -347.911 -1624 215 211 157
-61.3197 -347.893 -1624 214 210 156
-57.9729 -347.447 -1622 211 207 153
-54.6684 -347.216 -1621 212 207 152
-51.305 -346.558 -1618 216 210 155
-47.9837 -346.115 -1616 216 212 154
-44.6986 -345.888 -1615 214 210 152
-41.4179 -345.661 -1614 213 208 150
-38.1653 -345.649 -1614 214 210 154
-34.9128 -345.639 -1614 217 214 159
-31.7196 -346.272 -1617 218 214 159
-28.4793 -346.477 -1618 218 214 160
-25.2664 -347.112 -1621 221 216 163
-22.0417 -347.747 -1624 225 220 166
-18.8282 -348.812 -1629 226 221 167
-15.6041 -350.091 -1635 220 215 160
-12.3561 -351.372 -1641 215 210 155
-9.08406 -352.654 -1647 213 208 153
-5.77719 -353.294 -1650 210 205 146
-2.4555 -353.507 -1651 210 204 144
0.869663 -353.507 -1651 212 206 145
4.19738 -353.721 -1652 216 211 154
7.52916 -353.937 -1653 222 217 162
10.8849 -354.796 -1657 226 220 173
14.2653 -355.871 -1662 224 220 169
17.7083 -357.803 -1671 218 215 163
21.1372 -358.879 -1676 213 211 165
24.5428 -359.314 -1678 212 209 162
27.9231 -359.322 -1678 212 208 161
31.3785 -360.187 -1682 212 208 163
34.7674 -360.197 -1682 217 213 167
38.2248 -360.85 -1685 219 214 169
41.8181 -362.575 -1693 212 209 163
45.3102 -363.23 -1696 207 203 158
49.016 -365.385 -1706 204 201 160
52.947 -368.827 -1722 202 200 164
-136.957 -369.844 -1707 245 249 224
-131.776 -365.038 -1685 240 241 206
-127.218 -361.751 -1670 226 227 191
-123.389 -360.414 -1664 214 214 175
-119.658 -359.295 -1659 211 211 171
-116.089 -358.611 -1656 209 209 169
-112.328 -357.278 -1650 210 209 166
-108.79 -356.595 -1647 208 207 163
-105.266 -355.914 -1644 202 200 156
-101.816 -355.451 -1642 194 192 146
-98.3158 -354.772 -1639 200 198 150
-95.0601 -354.959 -1640 206 203 152
-91.5774 -354.283 -1637 216 213 164
-88.1075 -353.607 -1634 217 214 166
-84.5986 -352.716 -1630 213 210 162
-81.2562 -352.475 -1629 214 210 161
-77.7272 -351.37 -1624 216 210 160
-74.448 -351.347 -1624 216 210 160
-71.082 -350.893 -1622 218 212 162
-67.8917 -351.305 -1624 216 210 160
-64.6144 -351.286 -1624 215 210 157
-61.3377 -351.267 -1624 214 209 156
-57.9899 -350.817 -1622 212 207 152
-54.6845 -350.584 -1621 210 204 151
-51.32 -349.92 -1618 212 205 153
-47.9681 -349.256 -1615 215 210 152
-44.684 -349.026 -1614 215 210 152
-41.43 -349.014 -1614 213 208 149
-38.1764 -349.002 -1614 212 208 152
-34.9447 -349.208 -1615 215 211 156
-31.7092 -349.414 -1616 219 214 160
-28.4877 -349.838 -1618 220 215 161
-25.2582 -350.262 -1620 221 216 163
-22.0074 -350.471 -1621 224 219 166
-18.7874 -351.33 -1625 224 219 165
-15.5705 -352.622 -1631 221 216 161
-12.3447 -354.348 -1639 217 212 157
-9.07001 -355.426 -1644 212 207 152
-5.77897 -356.721 -1650 209 204 145
-2.45765 -357.152 -1652 209 203 142
0.87045 -357.152 -1652 209 203 140
4.19856 -357.152 -1652 213 208 148
7.53146 -357.37 -1653 221 216 159
10.888 -358.238 -1657 226 220 172
14.278 -359.539 -1663 226 222 170
17.7028 -361.057 -1670 221 218 165
21.1309 -362.144 -1675 216 213 168
24.5354 -362.583 -1677 214 211 164
27.9313 -362.807 -1678 212 209 161
31.369 -363.464 -1681 212 208 162
34.7983 -363.906 -1683 215 211 165
38.2587 -364.566 -1686 216 212 166
41.8056 -365.875 -1692 212 208 163
45.3503 -366.969 -1697 208 204 159
48.9442 -368.281 -1703 205 202 162
53.055 -373.053 -1725 204 201 166
-137.4 -374.495 -1712 221 226 209
-131.972 -368.986 -1687 251 251 222
-127.256 -365.229 -1670 249 249 216
-123.352 -363.661 -1663 238 238 198
-119.694 -362.75 -1659 224 224 183
-115.913 -361.403 -1653 217 216 175
-112.225 -360.276 -1648 213 213 168
-108.624 -359.368 -1644 213 213 167
-105.169 -358.899 -1642 211 210 165
-101.722 -358.431 -1640 204 201 155
-98.285 -357.964 -1638 200 197 150
-94.9723 -357.936 -1638 200 197 148
-91.5486 -357.471 -1636 209 206 157
-88.0798 -356.788 -1633 215 212 163
-84.6237 -356.107 -1630 213 210 162
-81.2804 -355.864 -1629 214 210 161
-77.7501 -354.748 -1624 215 209 159
-74.4702 -354.726 -1624 215 209 159
-71.1468 -354.485 -1623 217 211 160
-67.87 -354.465 -1623 216 211 158
-64.6336 -354.664 -1624 214 209 156
-61.3558 -354.645 -1624 215 210 157
-58.0071 -354.19 -1622 213 208 155
-54.6669 -353.737 -1620 211 205 152
-51.3352 -353.284 -1618 211 205 152
-48.012 -352.833 -1616 212 207 150
-44.6972 -352.382 -1614 213 208 151
-41.4423 -352.37 -1614 213 208 149
-38.1877 -352.358 -1614 211 207 149
-34.9767 -352.783 -1616 211 207 150
-31.7383 -352.992 -1617 218 213 160
-28.5137 -353.42 -1619 220 215 161
-25.2658 -353.63 -1620 222 217 162
-22.0139 -353.841 -1621 223 218 163
-18.7929 -354.708 -1625 222 217 162
-15.556 -355.576 -1629 222 217 162
-12.3257 -357.1 -1636 220 215 161
-9.07272 -358.843 -1644 211 206 153
-5.78407 -360.369 -1651 207 202 143
-2.4615 -361.022 -1654 207 202 140
0.872821 -361.459 -1656 207 201 137
4.21012 -361.459 -1656 211 206 145
7.54746 -361.461 -1656 219 213 155
10.9044 -362.119 -1659 226 220 170
14.2908 -363.214 -1664 227 224 171
17.6976 -364.31 -1669 220 217 164
21.1246 -365.407 -1674 214 210 165
24.5427 -366.069 -1677 212 209 162
27.973 -366.732 -1680 212 209 160
31.3597 -366.741 -1680 214 211 163
34.8294 -367.624 -1684 215 212 164
38.27 -368.071 -1686 213 210 162
41.8179 -369.393 -1692 211 207 162
45.3905 -370.716 -1698 209 205 161
49.045 -372.477 -1706 206 203 164
52.9784 -375.985 -1722 205 202 168
-132.559 -374.049 -1694 225 225 199
-127.828 -370.256 -1677 251 251 221
-123.463 -367.348 -1664 253 253 213
-119.73 -366.208 -1659 254 251 211
-115.947 -364.848 -1653 250 247 206
-112.258 -363.71 -1648 241 241 194
-108.657 -362.794 -1644 232 233 186
-105.136 -362.1 -1641 223 224 176
-101.753 -361.848 -1640 217 213 168
-98.3744 -361.597 -1639 211 207 161
-94.9428 -361.127 -1637 204 201 152
-91.52 -360.658 -1635 205 202 153
-88.0521 -359.969 -1632 210 207 158
-84.5452 -359.061 -1628 211 208 159
-81.2049 -358.815 -1627 213 209 159
-77.7735 -358.13 -1624 216 210 160
-74.4465 -357.886 -1623 217 211 161
-71.1681 -357.865 -1623 216 210 160
-67.8485 -357.623 -1622 216 211 159
-64.6131 -357.824 -1623 215 210 157
-61.3742 -358.025 -1624 214 209 156
-57.9886 -357.346 -1621 214 209 156
-54.717 -357.329 -1621 213 208 155
-51.3823 -356.872 -1619 213 208 155
-47.9966 -355.976 -1615 213 208 151
-44.7383 -355.962 -1615 213 208 151
-41.4804 -355.949 -1615 213 208 149
-38.1991 -355.716 -1614 211 206 148
-34.9871 -356.146 -1616 208 203 146
-31.7674 -356.577 -1618 211 206 153
-28.5223 -356.788 -1619 218 213 159
-25.2733 -357.001 -1620 222 217 162
-22.0341 -357.434 -1622 223 218 162
-18.7869 -357.869 -1624 223 218 162
-15.532 -358.304 -1626 223 218 163
-12.3067 -359.843 -1633 224 219 166
-9.06442 -361.823 -1642 216 211 159
-5.77887 -363.363 -1649 207 202 143
-2.46068 -364.243 -1653 205 200 138
0.872559 -364.684 -1655 206 201 136
4.20879 -364.685 -1655 211 206 146
7.54961 -364.907 -1656 215 210 152
10.9011 -365.35 -1658 223 218 164
14.2779 -366.235 -1662 228 225 173
17.6922 -367.562 -1668 223 220 169
21.1184 -368.67 -1673 216 212 166
24.55 -369.559 -1677 215 212 164
27.948 -369.787 -1678 216 213 164
31.369 -370.236 -1680 216 213 165
34.8191 -370.907 -1683 215 212 164
38.3042 -371.8 -1687 213 210 162
41.7811 -372.473 -1690 212 209 163
45.3239 -373.588 -1695 209 206 161
49.0596 -376.027 -1706 205 202 163
53.0249 -379.79 -1723 205 200 167
-133.069 -378.922 -1700 190 191 166
-127.943 -373.979 -1678 214 215 186
-123.797 -371.712 -1668 240 240 200
-119.91 -370.115 -1661 252 249 209
-116.053 -368.519 -1654 255 252 211
-112.361 -367.37 -1649 251 252 204
-108.69 -366.223 -1644 249 250 201
-105.168 -365.522 -1641 243 244 195
-101.784 -365.268 -1640 236 233 185
-98.3441 -364.792 -1638 226 222 174
-94.9135 -364.318 -1636 214 211 162
-91.5477 -364.067 -1635 207 204 155
-88.0787 -363.371 -1632 207 204 155
-84.5708 -362.454 -1628 210 207 156
-81.2294 -362.207 -1627 214 210 160
-77.7969 -361.514 -1624 217 211 163
-74.4232 -361.046 -1622 217 211 161
-71.1458 -361.024 -1622 217 211 161
-67.7853 -360.558 -1620 217 211 161
-64.5132 -360.538 -1620 216 211 159
-61.2793 -360.741 -1621 215 210 157
-58.0062 -360.723 -1621 216 211 158
-54.7335 -360.706 -1621 217 212 159
-51.3978 -360.245 -1619 217 211 158
-48.0706 -359.785 -1617 215 210 153
-44.7795 -359.548 -1616 215 210 152
-41.5186 -359.535 -1616 215 210 151
-38.2106 -359.078 -1614 212 207 150
-34.9977 -359.512 -1616 207 202 145
-31.7573 -359.724 -1617 208 203 150
-28.5132 -359.938 -1618 215 210 155
-25.2809 -360.374 -1620 220 215 160
-22.0271 -360.59 -1621 223 218 161
-18.7811 -361.028 -1623 223 218 162
-15.5367 -361.691 -1626 224 219 164
-12.3029 -363.021 -1632 229 223 171
-9.04509 -364.352 -1638 225 220 168
-5.76998 -366.13 -1646 214 209 151
-2.46136 -367.685 -1653 206 201 140
0.873354 -368.353 -1656 205 201 136
4.21529 -368.576 -1657 208 203 144
7.55654 -368.578 -1657 211 206 148
10.9044 -368.803 -1658 219 214 158
14.291 -369.919 -1663 228 225 172
17.687 -370.813 -1667 230 227 175
21.1246 -372.154 -1673 222 219 171
24.5428 -372.828 -1676 218 215 166
27.9566 -373.281 -1678 218 215 166
31.3785 -373.735 -1680 217 213 166
34.8504 -374.635 -1684 218 214 167
38.3386 -375.536 -1688 217 213 167
41.8431 -376.438 -1692 213 209 164
45.391 -377.564 -1697 209 205 161
49.1322 -380.026 -1708 205 201 162
53.1027 -383.824 -1725 204 200 166
-134.128 -385.398 -1713 191 193 168
-128.592 -379.283 -1686 193 195 166
-124.281 -376.545 -1674 203 203 164
-120.236 -374.483 -1665 228 226 186
-116.299 -372.648 -1657 247 244 204
-112.531 -371.263 -1651 251 252 203
-108.921 -370.33 -1647 248 249 199
-105.264 -369.173 -1642 244 243 192
-101.877 -368.916 -1641 244 241 192
-98.3141 -367.986 -1637 240 237 187
-94.8844 -367.507 -1635 226 223 174
-91.4636 -367.029 -1633 216 213 163
-87.9977 -366.327 -1630 208 205 155
-84.5446 -365.626 -1627 209 206 155
-81.2042 -365.376 -1626 215 210 160
-77.8207 -364.902 -1624 218 212 163
-74.4459 -364.43 -1622 217 211 162
-71.0798 -363.958 -1620 218 212 162
-67.7642 -363.712 -1619 218 212 162
-64.493 -363.692 -1619 217 212 160
-61.298 -364.122 -1621 217 212 159
-57.9881 -363.879 -1620 217 212 159
-54.7502 -364.086 -1621 218 213 159
-51.4135 -363.621 -1619 218 212 158
-48.0852 -363.156 -1617 217 211 154
-44.7932 -362.917 -1616 217 211 154
-41.5055 -362.68 -1615 217 212 155
-38.2696 -362.892 -1616 215 210 154
-35.0083 -362.881 -1616 210 205 150
-31.8063 -363.544 -1619 209 204 149
-28.5571 -363.76 -1620 211 206 151
-25.3041 -363.976 -1621 215 210 155
-22.0338 -363.969 -1621 219 214 157
-18.7868 -364.411 -1623 223 218 161
-15.5223 -364.631 -1624 229 224 167
-12.2764 -365.525 -1628 233 228 174
-9.03129 -367.093 -1635 233 228 175
-5.75779 -368.662 -1642 223 218 161
-2.45758 -370.457 -1650 210 206 145
0.873097 -371.58 -1655 204 200 137
4.21907 -372.254 -1658 202 197 138
7.56349 -372.256 -1658 205 200 141
10.9275 -372.932 -1661 215 210 151
14.3039 -373.61 -1664 225 221 167
17.6925 -374.288 -1667 233 230 177
21.1058 -375.192 -1671 224 221 172
24.5503 -376.322 -1676 216 213 164
27.9484 -376.555 -1677 217 214 165
31.3695 -377.013 -1679 220 214 169
34.8403 -377.921 -1683 221 216 171
38.3048 -378.606 -1686 219 215 170
41.8559 -379.966 -1692 214 210 165
45.4318 -381.327 -1698 208 204 159
49.1759 -383.811 -1709 205 201 160
53.2111 -388.094 -1728 203 200 165
-134.561 -390.115 -1718 191 193 167
-129.09 -384.171 -1692 191 192 163
-124.468 -380.498 -1676 193 194 156
-120.417 -378.417 -1667 188 186 147
-116.616 -377.018 -1661 211 208 169
-112.839 -375.621 -1655 232 232 184
-109.153 -374.452 -1650 246 245 196
-105.425 -373.057 -1644 247 245 194
-101.97 -372.571 -1642 243 240 189
-98.4045 -371.632 -1638 238 235 184
-94.8557 -370.695 -1634 231 228 178
-91.3798 -369.986 -1631 224 221 170
-87.9708 -369.504 -1629 215 212 161
-84.5707 -369.024 -1627 209 206 155
-81.1793 -368.545 -1625 210 206 155
-77.8446 -368.293 -1624 216 210 160
-74.4688 -367.816 -1622 219 213 163
-71.1017 -367.34 -1620 220 214 164
-67.7431 -366.865 -1618 220 214 164
-64.473 -366.845 -1618 220 215 163
-61.2413 -367.052 -1619 220 215 162
-57.9701 -367.033 -1619 218 213 160
-54.7333 -367.243 -1620 219 213 160
-51.4293 -366.999 -1619 219 212 158
-48.0703 -366.304 -1616 218 212 155
-44.8069 -366.29 -1616 220 214 157
-41.544 -366.276 -1616 219 214 157
-38.2814 -366.264 -1616 216 211 155
-35.0408 -366.479 -1617 212 207 152
-31.8161 -366.922 -1619 210 205 149
-28.5307 -366.686 -1618 207 202 146
-25.2963 -367.131 -1620 208 203 148
-22.027 -367.124 -1620 213 208 152
-18.781 -367.571 -1622 222 217 161
-15.5079 -367.566 -1622 231 226 169
-12.2651 -368.468 -1626 234 228 173
-9.01731 -369.824 -1632 234 228 174
-5.7454 -371.182 -1638 230 225 169
-2.45231 -372.993 -1646 220 215 157
0.871786 -374.353 -1652 207 202 141
4.21776 -375.486 -1657 202 197 138
7.57026 -375.942 -1659 202 198 138
10.9375 -376.624 -1662 209 204 142
14.3169 -377.308 -1665 221 217 161
17.7085 -377.993 -1668 232 228 174
21.1123 -378.679 -1671 224 221 170
24.5431 -379.592 -1675 216 213 163
27.9905 -380.507 -1679 214 211 162
31.3979 -380.743 -1680 217 211 166
34.8717 -381.659 -1684 217 212 167
38.3849 -382.804 -1689 216 212 167
41.8936 -383.723 -1693 215 211 167
45.5261 -385.55 -1701 207 203 160
49.2773 -388.058 -1712 203 199 158
53.2584 -391.927 -1729 203 199 165
-129.893 -390.002 -1702 191 194 167
-124.952 -385.38 -1682 194 195 158
-120.672 -382.592 -1670 192 192 154
-116.863 -381.18 -1664 189 188 150
-113.078 -379.77 -1658 196 194 148
-109.386 -378.59 -1653 225 223 175
-105.65 -377.182 -1647 243 240 191
-102.189 -376.692 -1645 242 241 188
-98.6755 -375.973 -1642 241 239 186
-95.0594 -374.798 -1637 235 232 181
-91.5203 -373.853 -1633 228 225 174
-88.1062 -373.367 -1631 224 221 170
-84.597 -372.425 -1627 216 213 162
-81.2046 -371.941 -1625 211 207 156
-77.8689 -371.687 -1624 215 209 159
-74.492 -371.205 -1622 219 213 165
-71.1238 -370.725 -1620 220 214 166
-67.8061 -370.475 -1619 221 215 165
-64.4931 -370.225 -1618 223 217 165
-61.2603 -370.434 -1619 224 219 167
-58.0239 -370.644 -1620 225 220 167
-54.7502 -370.627 -1620 225 220 166
-51.4453 -370.382 -1619 224 217 163
-48.1149 -369.908 -1617 221 215 159
-44.8486 -369.894 -1617 220 214 157
-41.5826 -369.88 -1617 219 214 157
-38.3169 -369.868 -1617 217 212 156
-35.0517 -369.857 -1617 215 210 155
-31.8259 -370.304 -1619 211 206 149
-28.5395 -370.065 -1618 209 204 148
-25.2886 -370.286 -1619 208 203 148
-22.0202 -370.278 -1619 208 203 148
-18.7636 -370.501 -1620 212 207 152
-15.5032 -370.724 -1621 222 217 160
-12.2538 -371.406 -1624 230 223 168
-9.00906 -372.775 -1630 228 221 167
-5.73673 -373.916 -1635 234 229 174
-2.44874 -375.744 -1643 227 222 166
0.871736 -377.574 -1651 217 212 154
4.22176 -379.175 -1658 205 200 140
7.57725 -379.635 -1660 202 196 136
10.9475 -380.323 -1663 204 200 137
14.3301 -381.014 -1666 213 208 151
17.7141 -381.476 -1668 226 222 166
21.1063 -381.939 -1670 225 221 170
24.5509 -383.09 -1675 217 213 163
27.9824 -383.785 -1678 212 209 160
31.4077 -384.251 -1680 214 208 162
34.8618 -384.948 -1683 214 209 163
38.3512 -385.874 -1687 214 210 165
41.8571 -386.802 -1691 213 209 166
45.4866 -388.645 -1699 207 203 160
49.3215 -391.863 -1713 203 199 159
53.2134 -395.082 -1727 204 199 165
-125.289 -389.827 -1686 197 198 163
-120.999 -387.014 -1674 195 195 159
-116.97 -384.896 -1665 197 197 161
-113.182 -383.472 -1659 190 188 143
-109.487 -382.281 -1654 186 184 138
-105.812 -381.092 -1649 211 208 160
-102.345 -380.597 -1647 230 228 176
-98.8268 -379.872 -1644 238 236 184
-95.3216 -379.148 -1641 234 231 180
-91.7734 -378.194 -1637 231 228 177
-88.3501 -377.704 -1635 228 225 174
-84.8836 -376.984 -1632 223 220 169
-81.43 -376.264 -1629 220 217 165
-78.0372 -375.777 -1627 220 215 163
-74.6072 -375.06 -1624 220 214 164
-71.19 -374.344 -1621 221 215 166
-67.9111 -374.323 -1621 223 217 167
-64.6329 -374.302 -1621 225 219 168
-61.3552 -374.282 -1621 226 221 169
-58.1138 -374.494 -1622 227 222 169
-54.8013 -374.245 -1621 225 220 167
-51.4931 -373.997 -1620 224 218 165
-48.13 -373.289 -1617 222 216 159
-44.8626 -373.275 -1617 221 215 158
-41.5956 -373.261 -1617 222 217 160
-38.3764 -373.71 -1619 220 215 158
-35.0843 -373.468 -1618 218 213 156
-31.8753 -374.15 -1621 217 212 155
-28.6014 -374.14 -1621 214 209 153
-25.3277 -374.132 -1621 210 205 150
-22.068 -374.355 -1622 206 201 146
-18.8042 -374.579 -1623 206 201 146
-15.5271 -374.574 -1623 212 207 150
-12.2727 -375.262 -1626 222 215 160
-9.01742 -376.413 -1631 221 214 160
-5.7386 -377.333 -1635 232 227 172
-2.44795 -378.948 -1642 232 227 171
0.871484 -380.794 -1650 225 220 163
4.22048 -382.41 -1657 213 207 146
7.58427 -383.335 -1661 204 198 136
10.9575 -384.03 -1664 203 199 134
14.3345 -384.496 -1666 208 204 144
17.7197 -384.962 -1668 221 216 158
21.1129 -385.43 -1670 227 221 171
24.5586 -386.591 -1675 218 214 164
28.0079 -387.523 -1679 211 208 159
31.455 -388.225 -1682 214 208 161
34.9143 -388.928 -1685 213 208 162
38.4089 -389.863 -1689 212 208 163
41.9693 -391.26 -1695 209 205 162
45.5812 -392.89 -1702 204 200 158
49.3659 -395.675 -1714 204 200 161
53.4458 -400.308 -1734 204 199 165
-125.998 -395.462 -1695 202 202 169
-121.327 -391.456 -1678 200 199 166
-117.007 -388.385 -1665 189 188 154
-113.218 -386.949 -1659 199 196 156
-109.587 -385.981 -1655 194 191 148
-105.91 -384.78 -1650 185 181 136
-102.44 -384.281 -1648 186 184 134
-99.0386 -384.015 -1647 213 211 160
-95.4681 -383.052 -1643 226 223 172
-91.9707 -382.322 -1640 229 226 175
-88.5402 -381.827 -1638 224 221 170
-85.0666 -381.1 -1635 222 219 168
-81.6058 -380.375 -1632 223 219 167
-78.1099 -379.417 -1628 223 218 165
-74.7228 -378.927 -1626 222 216 166
-71.3883 -378.67 -1625 221 215 165
-68.0165 -378.182 -1623 222 216 166
-64.773 -378.394 -1624 224 218 168
-61.4882 -378.374 -1624 225 219 169
-58.2038 -378.355 -1624 227 222 169
-54.8862 -378.104 -1623 226 221 168
-51.5731 -377.854 -1622 225 219 167
-48.2346 -377.372 -1620 224 218 161
-44.9601 -377.357 -1620 222 216 159
-41.686 -377.344 -1620 222 216 159
-38.4597 -377.797 -1622 221 215 158
-35.1822 -377.785 -1622 221 215 158
-31.964 -378.473 -1625 218 213 156
-28.681 -378.463 -1625 218 213 157
-25.4139 -378.688 -1626 214 209 153
-22.1429 -378.913 -1627 209 204 148
-18.8681 -379.139 -1628 205 200 144
-15.5894 -379.367 -1629 206 201 144
-12.3144 -379.828 -1631 212 205 150
-9.03134 -380.29 -1633 216 209 155
-5.75082 -381.453 -1638 223 218 164
-2.45014 -382.616 -1643 231 226 170
0.872292 -384.478 -1651 225 220 163
4.2245 -386.109 -1658 220 214 153
7.59111 -387.043 -1662 205 200 137
10.9676 -387.744 -1665 200 196 131
14.339 -387.981 -1666 204 199 137
17.7252 -388.452 -1668 216 211 151
21.1323 -389.157 -1671 226 220 170
24.5663 -390.096 -1675 219 215 166
28.0336 -391.269 -1680 209 206 157
31.4836 -391.977 -1683 212 206 160
34.9461 -392.686 -1686 211 206 161
38.4211 -393.397 -1689 211 207 162
41.9826 -394.807 -1695 210 206 163
45.5422 -395.986 -1700 205 201 159
49.3528 -399.029 -1713 204 200 161
53.3703 -403.238 -1731 206 200 166
-126.335 -399.96 -1699 203 203 179
-121.365 -394.977 -1678 206 205 177
-117.115 -392.114 -1666 199 198 168
-113.255 -390.429 -1659 200 197 159
-109.623 -389.452 -1655 204 200 159
-106.2 -389.182 -1654 201 197 152
-102.659 -388.442 -1651 190 187 138
-99.1905 -387.939 -1649 184 181 132
-95.7312 -387.437 -1647 190 187 136
-92.1684 -386.466 -1643 202 199 148
-88.7307 -385.967 -1641 214 211 160
-85.25 -385.233 -1638 217 214 161
-81.782 -384.501 -1635 218 214 161
-78.3749 -384.005 -1633 222 217 164
-74.9306 -383.275 -1630 221 215 165
-71.5869 -383.016 -1629 221 215 165
-68.2478 -382.758 -1628 222 216 166
-64.9134 -382.502 -1627 222 216 166
-61.6215 -382.482 -1627 220 214 164
-58.3301 -382.462 -1627 220 215 162
-54.9714 -381.974 -1625 221 215 163
-51.6532 -381.722 -1624 223 216 163
-48.3393 -381.471 -1623 223 217 160
-45.0855 -381.691 -1624 223 217 160
-41.7766 -381.442 -1623 223 217 160
-38.5194 -381.664 -1624 224 218 161
-35.2802 -382.122 -1626 222 216 159
-32.0136 -382.346 -1627 218 213 156
-28.7431 -382.572 -1628 217 212 155
-25.4846 -383.033 -1630 214 209 152
-22.1909 -383.025 -1630 211 206 149
-18.9437 -383.959 -1634 206 201 144
-15.6614 -384.423 -1636 200 195 138
-12.3711 -384.889 -1638 204 197 143
-9.07294 -385.355 -1640 212 205 151
-5.77027 -386.058 -1643 216 211 158
-2.45235 -386.291 -1644 222 217 162
0.872574 -387.936 -1651 223 218 161
4.22323 -389.346 -1657 224 218 157
7.5799 -389.818 -1659 208 203 141
10.9515 -390.526 -1662 198 194 129
14.3351 -391.235 -1665 202 198 133
17.7415 -392.18 -1669 213 208 146
21.1266 -392.421 -1670 223 217 167
24.5889 -393.839 -1676 219 215 165
28.076 -395.257 -1682 209 206 157
31.5498 -396.207 -1686 209 203 158
34.9988 -396.688 -1688 211 206 161
38.5244 -397.874 -1693 212 208 163
42.0704 -399.063 -1698 213 209 166
45.6907 -400.722 -1705 208 204 162
49.4549 -403.322 -1716 205 201 162
53.48 -407.57 -1734 205 199 165
57.7426 -412.994 -1757 195 189 159
-126.302 -403.291 -1698 157 157 142
-121.405 -398.5 -1678 190 188 166
-117.082 -395.375 -1665 206 204 179
-113.291 -393.912 -1659 205 202 166
-109.923 -393.876 -1659 204 201 161
-106.363 -393.129 -1656 209 206 161
-102.879 -392.62 -1654 206 203 156
-99.4031 -392.112 -1652 199 196 148
-95.9365 -391.606 -1650 184 181 131
-92.3665 -390.626 -1646 171 168 117
-88.8135 -389.647 -1642 172 169 117
-85.4336 -389.382 -1641 184 181 127
-82.0085 -388.88 -1639 198 194 141
-78.5923 -388.38 -1637 207 202 151
-75.1388 -387.643 -1634 215 209 160
-71.7859 -387.382 -1633 218 212 163
-68.4376 -387.122 -1632 219 213 163
-65.094 -386.863 -1631 218 212 162
-61.7929 -386.842 -1631 214 208 158
-58.4565 -386.586 -1630 212 207 154
-55.1244 -386.33 -1629 212 206 153
-51.8289 -386.313 -1629 211 204 151
-48.5337 -386.297 -1629 213 207 150
-45.2112 -386.044 -1628 213 208 151
-41.9445 -386.267 -1629 214 209 152
-38.6504 -386.254 -1629 216 210 153
-35.3567 -386.242 -1629 214 208 151
-32.0829 -386.469 -1630 208 203 148
-28.7877 -386.459 -1630 203 198 142
-25.524 -386.924 -1632 200 195 138
-22.266 -387.628 -1635 199 194 135
-19.0194 -388.806 -1640 196 191 133
-15.7238 -389.275 -1642 191 186 129
-12.4356 -390.219 -1646 190 183 129
-9.10906 -390.215 -1646 196 189 135
-5.78956 -390.687 -1648 200 195 140
-2.46073 -390.923 -1649 203 198 142
0.874444 -392.108 -1654 216 211 154
4.22708 -393.057 -1658 221 215 156
7.58698 -393.533 -1660 213 207 146
10.955 -394.01 -1662 202 198 133
14.3396 -394.725 -1665 202 198 131
17.7261 -395.205 -1667 212 208 143
21.1334 -395.922 -1670 224 218 168
24.597 -397.352 -1676 221 217 168
28.0849 -398.783 -1682 211 208 159
31.56 -399.741 -1686 211 205 160
35.0307 -400.463 -1689 212 207 162
38.5369 -401.424 -1693 211 207 162
42.0593 -402.385 -1697 213 209 166
45.6787 -404.06 -1704 209 205 163
49.3846 -406.209 -1713 206 202 163
53.2504 -409.309 -1726 201 196 164
57.3996 -414.069 -1746 162 157 128
-126.641 -407.819 -1702 85 85 79
-121.517 -402.268 -1679 97 94 78
-117.191 -399.114 -1666 169 165 145
-113.533 -398.118 -1662 191 188 155
-110.092 -397.842 -1661 198 196 159
-106.462 -396.848 -1657 203 202 160
-103.037 -396.574 -1656 206 203 158
-99.4958 -395.823 -1653 206 204 158
-95.9678 -395.072 -1650 205 203 156
-92.3405 -393.844 -1645 196 193 144
-88.8966 -393.336 -1643 180 178 127
-85.5137 -393.068 -1642 169 166 114
-82.1354 -392.801 -1641 166 163 113
-78.7139 -392.296 -1639 166 162 114
-75.3472 -392.031 -1638 173 166 122
-71.9851 -391.768 -1637 177 170 127
-68.5857 -391.266 -1635 183 177 133
-65.1951 -390.766 -1633 186 180 136
-61.8888 -390.745 -1633 190 184 140
-58.5472 -390.486 -1632 195 188 142
-55.244 -390.467 -1632 193 186 140
-51.9412 -390.45 -1632 195 188 141
-48.6091 -390.194 -1631 198 191 140
-45.3092 -390.179 -1631 200 193 141
-42.0354 -390.404 -1632 197 191 136
-38.7342 -390.39 -1632 185 179 123
-35.4551 -390.618 -1633 167 161 104
-32.1721 -390.846 -1634 160 153 98
-28.8677 -390.836 -1634 155 148 92
-25.5949 -391.305 -1636 157 151 92
-22.3278 -392.015 -1639 162 155 95
-19.0487 -392.726 -1642 155 149 89
-15.7386 -392.959 -1643 157 151 93
-12.4472 -393.911 -1647 160 152 97
-9.11755 -393.908 -1647 154 146 92
-5.79853 -394.623 -1650 149 143 88
-2.46295 -394.622 -1650 151 145 90
0.874731 -395.578 -1654 182 176 122
4.22349 -396.057 -1656 212 206 149
7.58951 -397.016 -1660 215 209 150
10.952 -397.258 -1661 202 198 133
14.3272 -397.741 -1663 198 193 127
17.7212 -398.463 -1666 207 202 138
21.1402 -399.427 -1670 218 213 160
24.6196 -401.108 -1677 225 220 171
