ply
format ascii 1.0
comment Created by Open3D
element vertex 733
property double x
property double y
property double z
property double nx
property double ny
property double nz
property uchar red
property uchar green
property uchar blue
end_header
-205.755 -408.553 -1301.39 0.435401 0.0158942 0.893112 148 137 145
-214.162 -401.292 -1297.69 0.161045 -0.0329799 0.975663 154 143 152
-215.673 -395.681 -1296.36 0.0853635 -0.0798813 0.982385 157 146 155
-211.304 -406.197 -1299.08 0.277202 0.00423154 0.947398 151 140 149
-212.647 -400.377 -1298.09 0.204855 -0.0408606 0.962102 154 143 152
-208.284 -387.905 -1297.82 0.388396 -0.144457 0.886618 156 145 154
-204.581 -391.882 -1301.13 0.530303 -0.0838981 0.823376 153 142 151
-203.236 -385.399 -1301.44 0.63126 -0.10697 0.747897 151 140 149
-204.056 -373.812 -1298.3 0.594792 -0.107059 0.718756 143 132 141
-201.578 -366.757 -1301.74 0.832646 -0.00045734 0.51039 117 110 121
-172.567 -370.743 -1301.4 -0.691547 -0.127956 0.721832 142 135 143
-166.682 -386.19 -1301.43 -0.442451 -0.38412 0.769077 152 145 154
-150.984 -391.386 -1302.53 -0.111025 -0.44742 0.842158 147 140 149
-155.025 -380.643 -1298.52 -0.0386555 -0.26159 0.91816 147 140 149
-148.218 -386.695 -1300.34 0.00501358 -0.377489 0.906132 146 139 148
-158.771 -374.805 -1297.68 -0.122447 -0.150342 0.909394 146 138 148
-166.601 -367.276 -1297.75 -0.411349 -0.0700808 0.847268 140 133 142
-154.139 -379.724 -1298.3 -0.0147476 -0.233958 0.93072 147 140 149
-146.326 -380.102 -1298.46 0.0608264 -0.182509 0.96791 147 140 149
-142.066 -366.534 -1297.01 0.0577357 0.00506766 1.02086 145 137 146
-130.832 -388.983 -1302.37 0.273904 -0.506199 0.7966 141 135 143
-129.771 -387.294 -1301.84 0.317944 -0.459948 0.807825 143 136 144
-865.21 186.073 -1302.67 0.186652 -0.869963 0.27476 238 220 221
-860.359 190.788 -1301.01 0.102044 -0.969173 0.197688 248 229 231
-843.942 192.24 -1301.09 0.17912 -0.856227 0.381711 216 186 183
-840.094 192.615 -1300.01 0.215296 -0.793654 0.480894 200 166 161
-831.141 191.102 -1301.75 0.292033 -0.658579 0.656715 182 143 135
-816.931 188.921 -1299.33 -0.00240715 -0.719313 0.636583 211 185 179
-807.056 188.665 -1295.67 0.124765 -0.824247 0.456403 214 199 193
-799.476 193.406 -1297.96 0.548262 -0.622056 0.500692 183 150 143
-795.663 198.772 -1296.57 0.515162 -0.5413 0.577516 185 139 123
-795.939 251.747 -1297.06 0.00203391 0.304247 0.893936 254 251 245
-219.424 537.941 -1295.26 -0.41233 -0.533401 0.615867 80 62 63
-207.906 536.547 -1302.9 0.487235 0.171214 0.78741 216 159 142
-206.628 548.128 -1301.94 0.814666 -0.403508 0.402487 111 72 68
-202.059 559.312 -1297.83 0.598323 -0.690795 0.115355 93 61 58
-226.525 571.273 -1299.75 0.538454 -0.509571 0.3085 97 72 71
-218.054 575.896 -1298.66 0.576529 -0.525902 0.321892 103 76 75
-193.826 569.459 -1300.48 0.367494 -0.838544 0.1221 64 37 36
-192.404 574.083 -1300.02 0.257153 -0.883992 0.0757971 61 35 35
-61.434 -296.84 -1298.9 0.474052 0.210811 0.856759 54 52 81
-59.801 -289.105 -1300.56 0.510231 0.0599835 0.842762 51 49 77
-60.7127 -282.955 -1298.73 0.52533 -0.0889695 0.836746 54 52 80
-218.237 -365.034 -1294.57 -0.149377 -0.0367705 0.989003 149 138 148
-222.954 -357.717 -1295.09 -0.209855 -0.0979731 0.98902 147 136 146
-208.29 -363.117 -1294.34 0.261676 0.0253681 0.838389 138 129 138
-207.774 -356.189 -1295.14 0.437471 0.0759161 0.796654 130 123 132
-216.727 -351.13 -1293.77 -0.0640345 -0.0678746 0.944365 133 126 136
-225.866 -341.509 -1291.8 -0.221827 -0.244204 0.957373 116 113 126
-207.803 -349.929 -1295.68 0.53209 0.0350628 0.792871 118 114 125
-210.71 -344.12 -1294.69 0.304656 -0.0973891 0.861664 111 108 120
-207.405 -333.832 -1291.5 0.466338 -0.300593 0.808022 95 93 109
-206.798 -334.735 -1292.61 0.528613 -0.257647 0.794343 95 93 108
-196.864 -330.736 -1292.73 0.307828 -0.655806 0.630354 68 66 88
-178.886 -331.222 -1292.85 -0.155606 -0.755817 0.634772 59 57 84
-185.554 -328.97 -1290.47 -0.0135144 -0.851033 0.544104 56 53 82
-158.367 -343.778 -1294.79 -0.232093 -0.0803183 0.948416 111 108 120
-152.952 -351.434 -1295.9 0.0171531 -0.150594 0.979642 123 119 130
-152.876 -343.594 -1294.09 -0.0950271 -0.173031 0.964337 112 109 121
-138.202 -340.559 -1294.67 0.190654 -0.236894 0.9366 106 103 119
-170.586 -335.108 -1295.22 -0.283021 -0.477896 0.789255 76 75 93
-160.106 -336.313 -1292.79 -0.274095 -0.315593 0.857991 86 85 101
-154.933 -333.694 -1289.94 -0.15993 -0.476667 0.818315 73 74 94
-140.949 -333.115 -1288.79 0.0353155 -0.558219 0.787841 74 75 96
-181.547 437.986 -1289.07 -0.176233 0.0178677 0.857285 65 56 58
-174.6 449.068 -1293.78 0.0918977 0.451331 0.752449 77 74 77
-205.815 451.6 -1294.13 -0.574165 0.350171 0.745413 197 156 153
-197.17 457.019 -1294.39 -0.296351 0.49444 0.771193 189 150 146
-182.824 452.009 -1293.32 0.149765 0.380061 0.76138 105 95 98
-145.977 435.065 -1292.58 0.033906 0.231015 0.502369 61 55 59
-167.521 448.812 -1293.88 -0.0011714 0.588473 0.76427 70 65 68
-158.875 445.297 -1291.22 -0.0542455 0.50509 0.851461 75 65 70
-149.219 442.144 -1293.68 0.375779 0.44889 0.747775 70 62 66
-140.773 428.539 -1289.15 -0.260767 -0.117727 0.453664 65 58 62
-131.416 423.298 -1293.76 -0.118117 -0.139615 0.673 71 63 68
-158.415 454.767 -1295.66 -0.0630963 0.397346 0.85296 80 65 70
-109.383 -23.1386 -1289.11 0.335335 0.179553 0.897005 61 61 89
-110.055 -18.8638 -1289.46 0.359249 0.121343 0.896658 61 61 90
-94.8588 -25.4361 -1292.83 0.253471 0.192101 0.935925 63 63 92
-95.9634 -14.9944 -1294.28 0.268372 0.0513718 0.945089 63 63 92
-92.5624 -15.2515 -1295.41 0.255378 0.0918569 0.947048 64 64 93
-107.305 -10.053 -1290.48 0.290929 -0.0300617 0.934579 62 62 91
-102.09 -5.4837 -1292.52 0.299255 -0.0137331 0.93463 62 62 92
-97.4995 -9.72675 -1294.02 0.292549 0.0123598 0.940856 63 63 92
-58.9675 -28.2247 -1290.29 0.630577 -0.0831973 0.745422 64 64 92
-110.225 4.35165 -1291.2 0.157799 0.129352 0.937569 64 64 94
-109.527 8.74444 -1292.86 0.171575 0.204712 0.927691 64 63 94
-108.154 10.3072 -1293.96 0.191062 0.23267 0.923698 63 63 93
-58.2818 -22.6312 -1289.93 0.627979 -0.0846076 0.732815 63 63 92
-54.8577 -14.0175 -1293.5 0.663448 -0.0789138 0.687316 63 63 92
-57.8626 -10.9681 -1290.99 0.604999 -0.0428572 0.755892 62 62 91
-49.7784 -11.7907 -1289.49 0.785858 -0.159001 0.48263 64 65 93
-45.3904 -0.818227 -1292.81 0.813789 -0.1729 0.368995 70 70 99
11.0358 -1201.72 -1291.32 0.000375639 0.761454 0.317478 33 31 32
14.8334 -1198.97 -1301.52 0.00627189 0.78982 0.17512 25 23 24
-240.165 -169.004 -1285.21 -0.558892 0.33626 0.697582 82 77 108
-230.306 -163.876 -1282.77 -0.370532 0.390832 0.836117 103 92 116
-232.23 -161.926 -1284.55 -0.416842 0.377097 0.81007 117 107 130
-233.756 -154.886 -1287.71 -0.352624 0.316694 0.871366 205 196 205
-228.755 -136.072 -1286.32 -0.398829 -0.0916262 0.889534 89 86 112
-233.511 -130.863 -1287.91 -0.521927 -0.0635698 0.84115 55 54 84
-234.915 -125.214 -1288.1 -0.551326 -0.0770023 0.834014 54 51 82
-230.991 -114.818 -1284.45 -0.423539 -0.105441 0.893722 57 54 84
-238.786 -108.66 -1288.48 -0.565124 -0.0980255 0.683594 64 63 94
-237.238 -103.201 -1287.36 -0.502591 -0.0642131 0.715939 70 69 100
-232.306 -98.7796 -1285.52 -0.377002 0.0573102 0.841119 75 75 107
-241.503 -94.4257 -1288.87 -0.581117 -0.0756493 0.631947 76 76 107
-227.524 -86.2712 -1286.23 -0.383446 0.0715094 0.902959 67 68 99
-227.4 -154.178 -1285.35 -0.32995 0.311723 0.880296 197 184 194
-216.979 -148.507 -1283.5 -0.281841 0.222319 0.90971 220 204 211
-219.444 -141.646 -1284.48 -0.254875 -0.0432036 0.927255 135 128 147
-158.736 356.655 -1282.99 0.205553 -0.086391 -0.633432 56 50 55
-164.414 360.475 -1287.32 0.146475 -0.0439387 -0.359752 55 49 54
-148.333 355.318 -1283.8 0.28276 -0.138593 -0.843805 60 53 58
-139.889 360.026 -1283.9 0.142113 -0.233151 -0.636298 58 51 56
-184.695 407.87 -1287.61 -0.588854 0.168319 0.690137 51 46 48
-187.415 411.338 -1288.22 -0.599155 0.0946857 0.710407 50 45 46
-182.18 422.121 -1283.41 -0.536655 0.389275 0.731965 44 38 40
-162.108 377.243 -1282.73 -0.772197 0.0182583 -0.376774 55 51 57
-159.915 380.625 -1283.83 -0.838535 0.0751555 -0.352882 55 51 57
-153.543 393.75 -1283.26 -0.83806 0.0269671 -0.0442754 55 51 57
-129.943 377.089 -1284.02 -0.590612 -0.0746677 0.061195 58 54 59
-154.316 401.522 -1283.81 -0.74239 -0.268907 0.284586 58 55 60
-167.215 407.955 -1284.4 -0.665217 -0.302099 0.331972 57 53 57
-160.616 410.746 -1281.99 -0.61476 -0.268912 0.242399 60 56 61
-37.9133 44.5994 -1288.7 0.87164 -0.379602 -0.112138 83 81 111
-192.053 -1205.31 -1279.47 0.558535 0.618272 0.534956 97 56 45
-193.579 -1204.14 -1277.78 0.606755 0.586558 0.507657 90 53 43
-173.852 -1204.86 -1277.65 0.226981 0.890225 0.207939 120 73 58
-204.978 -1181.36 -1279.15 0.774158 0.270249 0.564214 232 215 195
-205.37 -1171.6 -1278.39 0.800471 0.113511 0.578684 244 237 222
-202.747 -1167.63 -1281.69 0.799134 0.263572 0.467853 250 246 234
-186.664 -1164.75 -1279.98 0.813096 0.328621 0.32204 226 212 196
-170.789 -1204.8 -1279.44 0.153415 0.940639 0.0736112 129 76 60
-159.857 -1201.7 -1276.17 0.00694075 0.978962 -0.101086 101 53 42
-147.65 -1203.14 -1278.1 -0.000736148 0.998475 -0.121542 66 30 22
-139.237 -1203.31 -1280.94 -0.0717021 0.998245 -0.0746752 70 32 24
-131.35 -1201.79 -1277.41 -0.111983 0.999417 -0.0263432 41 20 15
-115.925 -1198.17 -1278.45 -0.498324 0.750109 0.314941 32 22 18
-141.186 -1175.08 -1278.15 0.0190933 0.637018 0.310174 208 176 163
-128.963 -1165.94 -1275.41 0.317914 0.735616 0.281741 173 118 106
-133.904 -1160.88 -1279.45 0.360691 0.760673 0.241828 189 145 132
-224.97 -1143.42 -1280.3 -0.204603 0.749828 0.243715 253 253 252
-212.959 -1138.88 -1282.15 -0.100134 0.956653 0.182772 255 255 255
-204.643 -1135.89 -1280.33 -0.176749 0.973962 0.0643966 252 251 250
-189.366 -1129.28 -1280.27 -0.074347 0.892717 0.0763678 206 181 169
-180.789 -1128.7 -1275.55 -0.0729099 0.908807 0.268535 226 211 195
-97.2374 -279.745 -1277.29 0.382262 -0.187701 0.898948 55 55 81
-96.8209 -268.232 -1276.74 0.370421 0.0269447 0.906762 53 53 79
-91.0742 -267.651 -1278.98 0.390366 0.0230604 0.906062 53 53 79
-98.0496 -265.284 -1276.56 0.367056 0.100758 0.906124 52 52 78
-87.7823 -261.4 -1280.59 0.394889 0.102845 0.901388 52 53 78
-93.473 -255.364 -1279.41 0.357429 0.117245 0.91629 51 52 78
-84.1469 -264.221 -1281.86 0.433103 0.0224092 0.89385 54 54 80
-68.0153 -256.755 -1275.34 0.611232 0.0394073 0.70188 61 59 86
-57.8794 -255.337 -1276.77 0.709994 0.129175 0.666568 68 65 92
-105.962 -242.467 -1275.05 0.273675 0.0404235 0.949662 54 54 80
-88.0243 -250.575 -1281.86 0.299921 0.089348 0.946946 52 51 78
-99.3897 -243.764 -1276.8 0.320488 -0.0461744 0.936951 53 53 79
-105.982 -237.121 -1275.22 0.206823 0.0834873 0.965447 54 54 80
-104.689 -231.87 -1275.7 0.158855 0.0814242 0.976522 53 53 79
-99.4671 -236.13 -1276.17 0.232323 -0.00936241 0.954724 54 54 80
-99.3769 -231.494 -1276.25 0.179197 0.0443608 0.962583 54 54 80
-93.9932 -225.945 -1277.78 0.300275 0.0897716 0.891631 59 57 85
-67.3353 -246.815 -1280.7 0.696273 -0.0542387 0.684859 56 53 82
-69.6924 -239.563 -1278.78 0.710572 0.0918703 0.581853 64 61 89
-67.3333 -238.187 -1279.21 0.714073 0.12111 0.621864 65 62 90
-63.862 -234.487 -1280.88 0.728165 0.256924 0.615008 72 68 97
-104.071 -218.72 -1276.08 0.192602 -0.039255 0.960548 53 53 79
-107.52 -213.986 -1274.87 0.244466 -0.173193 0.949945 52 52 79
-89.9009 -220.414 -1280.7 0.540244 0.226603 0.744857 66 64 92
-97.8649 -215.197 -1277.92 0.351881 0.0874173 0.859192 58 57 84
-104.575 -210.116 -1275.49 0.302325 -0.0788248 0.919069 54 54 81
-97.7637 -206.962 -1280.63 0.579395 0.147297 0.730899 63 60 88
-904.9 251.531 -1279.98 0.487188 -0.107776 0.707811 228 203 186
-900.123 164.166 -1287.6 0.59398 -0.482171 0.480001 160 146 141
-898.207 163.004 -1282.44 0.619921 -0.366474 0.539752 158 137 131
-882.621 167.551 -1276.85 0.651157 -0.245341 0.603224 157 128 121
-885.107 167.794 -1286.78 0.648365 -0.252033 0.600413 156 128 121
-884.116 254.966 -1284.49 0.424047 -0.170763 0.755124 224 190 169
-864.984 259.152 -1288.29 0.335469 -0.00626196 0.753644 221 196 182
-851.546 256.911 -1284.64 0.310498 0.0579928 0.795742 231 212 200
-858.6 256.518 -1284.32 0.291603 0.0699676 0.77984 228 207 196
-839.991 258.529 -1289.21 0.354372 -0.00869524 0.815294 231 214 201
-829.167 255.105 -1288.26 0.27824 0.0623053 0.890749 245 236 225
-150.549 -1138.49 -1268.73 0.745356 0.631521 0.0871246 255 255 250
-141.48 -1153.94 -1268.93 0.786606 0.505422 0.168123 237 223 215
-252.834 -313.641 -1274.05 -0.281091 -0.503849 0.715221 72 68 100
-234.793 -317.531 -1270.5 -0.20981 -0.593249 0.707221 77 71 102
-237.448 -313.925 -1268.12 -0.204059 -0.352886 0.80777 74 69 101
-178.662 -52.0292 -1274.44 -0.191476 0.177894 0.952937 82 84 118
-175.621 -51.9836 -1273.52 -0.202418 0.164774 0.956777 76 78 110
-173.038 -36.6579 -1274.37 -0.130349 0.0223697 0.977306 65 66 95
-176.887 -30.8783 -1274.52 -0.0875696 -0.0327429 0.977609 67 68 97
-160.36 -81.7775 -1269.03 -0.148727 -0.0618679 0.959273 64 65 95
-162.371 -75.4547 -1269.2 -0.199333 -0.0374331 0.965923 66 66 97
-155.662 -83.1087 -1268.74 -0.0819976 -0.0876163 0.950883 63 63 93
-154.014 -70.4462 -1270.05 0.0517361 0.0613481 0.960336 62 63 92
-149.165 -70.5839 -1271.02 0.181438 0.0883441 0.955317 59 59 88
-158.409 -67.0599 -1269.85 -0.0466714 0.054019 0.967625 64 65 94
-167.85 -62.9586 -1270.82 -0.176204 0.0505655 0.968337 64 65 95
-156.109 -64.6383 -1270.28 0.038479 0.0828538 0.967543 64 64 93
-150.132 -58.4257 -1272.29 0.171029 0.0705512 0.962437 62 63 91
-148.703 -59.6472 -1272.45 0.187496 0.0794178 0.961778 61 61 90
-134.501 -78.5901 -1274.15 0.242999 0.0424652 0.969266 58 58 87
-130.738 -75.7809 -1274.56 0.216357 0.0102168 0.970577 59 59 88
-137.927 -65.8634 -1273.47 0.200352 0.106575 0.963538 59 59 87
-134.697 -67.474 -1273.83 0.193478 0.0755117 0.969357 59 59 88
-132.131 -63.269 -1274.11 0.156274 0.0895331 0.971692 60 60 89
-170.713 -54.73 -1271.84 -0.220944 0.133761 0.960483 69 71 101
-168.963 -45.2118 -1272.74 -0.213207 0.121651 0.96635 72 73 103
-152.125 -49.7157 -1272.8 0.14654 0.0691216 0.953794 66 66 95
-149.939 -49.5448 -1273.5 0.190586 0.0718724 0.953768 63 63 92
-149.802 -42.8564 -1274.89 0.277066 0.168393 0.933815 59 59 88
-162.037 -39.5237 -1273.03 -0.0818232 0.13263 0.967911 69 69 98
-160.046 -34.2265 -1274.07 0.0157513 0.150901 0.974879 66 66 94
-157.832 -35.5042 -1273.99 0.050632 0.158017 0.97008 66 66 95
-177.585 -24.6 -1274.69 -0.132724 0.0703279 0.970636 69 71 100
-65.7644 -253.648 -1265.74 0.865369 0.154714 0.431876 78 72 96
-68.2243 -250.902 -1266.35 0.827477 0.190426 0.393345 78 73 97
-72.1021 -241.79 -1266.01 0.798147 0.254396 0.263078 78 74 97
-75.4022 -228.751 -1261.33 0.792049 0.272083 0.173303 76 72 96
-70.8542 -225.672 -1264.36 0.847971 0.286349 0.136992 75 72 97
-80.3544 -222.026 -1264.6 0.792701 0.367319 0.130329 74 71 96
-72.6563 -217.984 -1263 0.818484 0.490609 0.1291 71 69 96
-74.9823 -214.953 -1263.3 0.826532 0.48774 0.126112 70 69 96
-71.3744 -223.671 -1264.39 0.841896 0.325767 0.124557 74 71 97
-87.2071 -196.672 -1262.01 0.692161 0.404752 0.378668 68 65 93
-206.272 -283.428 -1260.16 -0.115155 -0.164382 0.94863 68 60 87
-199.286 -283.73 -1259.6 -0.0680157 -0.217225 0.946818 64 60 87
-183.146 -290.099 -1260.1 -0.0836928 -0.304267 0.930738 55 55 80
-180.7 -287.942 -1259.24 -0.0737479 -0.321466 0.9288 52 52 76
-209.216 -280.708 -1260.07 -0.170169 -0.0463394 0.955488 73 64 91
-209.151 -271.514 -1260.44 -0.251226 0.118528 0.953808 70 62 88
-198.864 -261.675 -1258.37 -0.239057 0.0436016 0.939826 70 65 91
-204.872 -258.347 -1260.8 -0.361274 0.103065 0.910301 70 62 91
-191.651 -277.044 -1257.74 -0.0562676 -0.109159 0.972641 65 64 89
-187.95 -272.387 -1256.87 -0.061219 -0.0698096 0.979812 57 57 81
-182.359 -277.815 -1257.27 -0.0597182 -0.13031 0.972163 53 54 78
-185.599 -268.329 -1256.34 -0.0677221 -0.0587716 0.979821 54 54 78
-195.525 -262.228 -1257.51 -0.197254 0.0143666 0.945934 67 63 88
-190.002 -266.14 -1256.52 -0.101091 -0.0339524 0.968154 59 58 82
-187.19 -257.997 -1255.77 -0.180095 -0.035352 0.949183 63 62 86
-185.624 -266.883 -1256.21 -0.0751002 -0.0564061 0.978172 54 54 78
-179.284 -259.062 -1255.54 -0.0839816 -0.0583788 0.982213 52 52 77
-175.173 -259.707 -1255.84 -0.0257223 -0.0485237 0.985778 51 51 76
-167.476 -280.962 -1258.66 0.0993811 -0.208937 0.955128 50 50 76
-162.711 -281.326 -1259.95 0.184029 -0.203663 0.954947 50 50 76
-159.104 -271.556 -1259.23 0.209702 -0.133888 0.956667 50 50 76
-154.984 -273.015 -1260.38 0.22194 -0.144213 0.959049 50 50 76
-158.354 -266.667 -1258.9 0.185359 -0.0653762 0.964606 51 51 77
-167.286 -255.759 -1256.92 0.128608 0.00901485 0.983047 52 52 78
-151.633 -263.587 -1259.82 0.161876 -0.0278808 0.969659 51 51 77
-150.627 -264.13 -1259.96 0.154027 -0.0464473 0.971703 51 51 77
-148.19 -260.324 -1260.15 0.130563 0.0337916 0.97216 52 52 78
-200.807 -240.343 -1259.58 -0.385689 -0.0819245 0.873581 89 82 107
-238.591 -1201.17 -1625.68 0.211339 0.918673 -0.254297 10 6 6
-236.204 -1194.54 -1620.21 0.235421 0.957501 -0.258398 0 0 0
-225.645 -1195.67 -1625.08 0.212286 0.944371 -0.229087 13 6 5
-214.857 -1194.13 -1621.35 0.164214 0.967735 -0.151432 23 11 9
-203.202 -1196.23 -1622.31 0.238226 0.955869 -0.140883 68 32 23
-192.14 -1199.44 -1621.46 0.255698 0.956984 -0.139204 92 39 28
-181.061 -1199.28 -1621.53 -0.0807137 0.985664 -0.00673839 84 35 23
-171.928 -1195.34 -1623.43 -0.337081 0.980191 0.0375519 93 42 29
-167.399 -1193.74 -1625.75 -0.250403 0.98592 -0.0247394 90 43 30
-151.497 -1192.48 -1620.54 0.306719 0.814896 -0.424078 115 60 45
-139.327 -1205.69 -1626.63 0.480405 0.76937 -0.412515 28 12 7
-141.985 -1202.38 -1625.1 0.503752 0.762749 -0.426662 52 25 18
663.645 110.139 -1625.53 -0.00362923 -1.00089 0.21981 255 255 255
669.921 107.806 -1624.26 0.00850605 -1.01142 0.225759 255 255 255
678.327 108.277 -1621.66 0.0865148 -0.99371 0.211965 254 245 246
691.513 111.478 -1625.76 0.341747 -0.924879 0.154248 249 225 230
667.669 128.655 -1613.43 0.0677514 -0.967513 0.206719 253 248 247
680.45 129.451 -1608.96 0.263392 -0.939631 0.168891 247 226 230
689.449 129.131 -1611.73 0.295464 -0.93208 0.16289 246 222 227
19.8446 256.035 -1564.12 -0.482165 -0.262645 -0.80637 55 55 81
21.3388 265.556 -1567.29 -0.511652 -0.272397 -0.813406 53 54 81
11.0853 276.828 -1566.2 -0.500896 -0.254183 -0.827981 55 55 82
15.8217 271.385 -1566.99 -0.509714 -0.268023 -0.818174 54 55 82
12.6723 277.423 -1566.89 -0.501111 -0.254415 -0.827834 55 56 82
25.5698 279.705 -1569.67 -0.512132 -0.27103 -0.811405 53 54 81
9.7338 283.056 -1566.35 -0.507126 -0.258104 -0.820796 55 55 82
10.336 294.77 -1565.66 -0.518186 -0.278421 -0.787404 52 53 79
-148.154 -235.129 -1559.65 -0.275435 0.202374 -0.932835 59 56 87
-146.531 -229.085 -1558.69 -0.249238 0.221175 -0.936858 68 65 96
-137.177 -233.778 -1561.56 -0.196274 0.203837 -0.949532 60 58 89
-132.555 -234.301 -1562.3 -0.17586 0.240326 -0.935482 62 59 90
-131.181 -229.641 -1561.09 -0.0948693 0.218301 -0.96442 64 62 92
-117.769 -233.845 -1563.6 -0.277452 0.448219 -0.792095 67 63 94
-117.539 -228.628 -1561.69 -0.212268 0.363888 -0.854034 66 62 93
-140.333 -221.752 -1557.83 -0.195084 0.296675 -0.916567 78 75 106
-131.114 -217.889 -1558.1 -0.122124 0.261037 -0.943259 69 66 96
-125.219 -221.966 -1559.38 -0.0666926 0.225191 -0.964798 66 63 94
-126.39 -216.06 -1557.86 -0.0932435 0.24497 -0.952716 65 63 94
-117.068 -212.984 -1557.16 -0.0817376 0.266318 -0.951082 62 60 91
-48.3048 144.721 -1557.79 -0.448464 0.0593431 -0.896535 51 52 81
-40.1517 142.542 -1560.26 -0.310157 0.048591 -0.899701 54 55 84
-32.4109 146.408 -1557.6 0.279046 0.0728008 -0.852785 62 64 94
-33.0255 149.595 -1558 0.185003 0.0778863 -0.86667 61 63 93
-52.5825 169.056 -1558.09 -0.425595 -0.260338 -0.883984 52 53 81
-39.1193 156.244 -1560.13 -0.285282 0.0106652 -0.910431 55 57 86
-41.114 164.821 -1559.96 -0.230333 -0.104147 -0.908049 54 56 86
-36.9774 163.029 -1559.78 -0.0888474 -0.0501543 -0.921013 57 59 90
-48.6562 175.272 -1560.69 -0.31968 -0.17287 -0.900919 52 54 82
-45.7794 178.418 -1561.73 -0.232273 -0.121316 -0.900578 53 54 83
-42.4603 169.962 -1560.53 -0.191612 -0.149084 -0.9002 54 56 85
-38.4467 179.781 -1559.87 0.287533 0.00656343 -0.861242 54 56 87
-55.3565 186.066 -1558.55 -0.305174 -0.0299049 -0.919781 51 52 81
-53.8121 190.262 -1558.87 -0.423022 0.033732 -0.878221 50 51 80
-47.7976 195.547 -1560.53 -0.344009 0.0251828 -0.874773 53 54 83
-43.7381 192.076 -1560.73 -0.101305 0.0389638 -0.869011 53 55 85
-108.97 209.956 -1556.76 -0.247631 -0.0513869 -0.943829 55 56 84
-88.7302 204.568 -1557.35 -0.075062 -0.0483794 -0.987435 53 55 83
-90.1004 207.204 -1557.68 -0.0593544 -0.0792422 -0.986938 54 56 83
-102.776 215.851 -1557.5 -0.18359 0.00439279 -0.962588 55 56 84
-93.1381 217.822 -1558.72 -0.0822397 -0.0617478 -0.987329 56 57 85
-100.046 224.993 -1557.33 -0.253962 0.102085 -0.961333 59 59 87
-89.5395 219.264 -1559.05 -0.0605629 -0.0806033 -0.991446 56 57 85
-85.7799 209.838 -1558.2 -0.0383653 -0.10438 -0.991514 55 56 84
-78.3227 204.953 -1557.26 0.0456517 -0.101006 -0.991174 53 54 82
22.4575 237.933 -1558.62 -0.501094 -0.186297 -0.773085 52 50 75
32.2212 235.09 -1559.32 -0.488519 -0.193322 -0.774612 53 51 76
33.7502 240.69 -1561.8 -0.421362 -0.212146 -0.784289 58 54 78
-18.8919 296.244 -1556.69 -0.0333538 -0.0521042 -0.937229 55 56 81
-13.3189 309.174 -1556.75 -0.0300827 -0.0393378 -0.934581 55 56 81
-11.9686 311.49 -1556.73 -0.0316369 -0.035764 -0.932689 55 56 82
-4.65833 312.426 -1558.09 -0.110974 -0.0582845 -0.89789 55 56 82
31.4049 256.286 -1566.68 -0.427773 -0.238676 -0.796393 58 55 79
31.006 267.809 -1569.2 -0.492621 -0.264267 -0.806306 54 54 80
15.5548 282.253 -1567.86 -0.510552 -0.262204 -0.819607 54 55 82
0.861853 296.172 -1563.19 -0.343229 -0.196515 -0.836554 53 53 80
4.61249 298.515 -1563.64 -0.433065 -0.234934 -0.806559 52 53 79
25.8225 283.484 -1569.3 -0.518196 -0.276432 -0.801906 53 54 80
-102.897 -879.777 -1550.86 -0.329289 -0.18748 -0.882313 133 130 134
-100.055 -881.647 -1551.08 -0.211387 -0.209773 -0.906414 132 130 134
-91.8874 -875.002 -1550.93 0.113748 -0.139063 -0.950945 133 130 134
-100.81 -867.745 -1552.74 -0.247507 -0.113403 -0.934676 134 131 135
-103.987 -862.457 -1552.84 -0.285077 -0.167485 -0.917047 136 133 137
-97.7727 -866.902 -1552.72 -0.136059 -0.101942 -0.951296 135 132 136
-99.5001 -858.389 -1553.68 -0.117586 -0.14411 -0.9505 137 134 138
-89.9467 -864.988 -1551.81 0.0673446 -0.0683821 -0.97488 137 134 137
-107.032 -855.661 -1554.26 -0.282196 -0.253286 -0.905621 138 136 139
-104.513 -848.459 -1556.42 -0.101839 -0.231848 -0.937821 141 139 141
-92.2207 -852.687 -1553.03 0.118989 -0.10192 -0.970504 140 137 140
-96.5602 -851.572 -1554.37 0.0644198 -0.151441 -0.962151 140 138 141
-82.7445 -868.937 -1550.14 0.133931 -0.122407 -0.971886 138 135 137
-81.3932 -866.197 -1550.23 0.118543 -0.0814737 -0.978248 139 136 137
-256.989 122.86 -1550.87 -0.712609 0.198691 -0.607688 110 110 132
-241.992 146.073 -1556.42 -0.74179 0.0278674 -0.56672 100 97 116
-241.555 141.766 -1555.92 -0.692561 0.174939 -0.683859 102 99 117
-243.916 156.473 -1555.62 -0.850843 -0.150654 0.0020906 90 87 109
-243.663 164.859 -1551.06 -0.8937 0.0329611 -0.000633259 83 81 105
-238.817 167.332 -1553.38 -0.779214 0.0114335 -0.243607 89 87 109
-243.852 174.177 -1551.78 -0.864295 0.145196 -0.0755421 83 81 104
-243.961 181.636 -1557.34 -0.781678 0.174464 0.00795455 92 90 110
-237.178 181.175 -1549.33 -0.779088 -0.0301374 -0.586974 82 80 107
-249.758 187.96 -1552.54 -0.738984 -0.231499 -0.531071 88 87 112
-250.492 193.349 -1552.83 -0.795952 -0.103622 -0.295016 91 90 114
-236.495 194.163 -1553.21 -0.699861 -0.0392925 -0.561509 95 93 116
-248.349 203.573 -1552.82 -0.903359 0.235926 0.206705 93 92 113
-237.873 204.643 -1556.3 -0.780636 0.164377 0.00241147 99 97 116
-238.717 208.633 -1552.97 -0.807844 0.24767 0.00190568 94 92 114
-235.886 220.423 -1554.02 -0.879296 0.235292 -0.373796 93 89 112
-234.218 219.498 -1552.12 -0.864559 0.230887 -0.373905 93 89 113
-25.5249 53.0248 -1553.23 0.581224 0.0796016 -0.757615 88 92 123
-49.5855 57.1443 -1554.37 -0.785403 0.0619469 -0.654842 50 54 84
-50.4289 65.6948 -1554.44 -0.726268 -0.0562347 -0.704297 50 54 84
-50.5255 73.9242 -1555.05 -0.641923 -0.0676933 -0.777808 52 55 85
-55.4617 82.89 -1551.49 -0.587095 -0.0789744 -0.795743 66 70 100
-26.4487 58.0517 -1554.16 0.576849 0.0959532 -0.742167 81 85 117
-24.944 66.8107 -1551.95 0.539287 0.0146539 -0.775902 117 121 152
-28.006 72.5621 -1554.51 0.40125 0.0646831 -0.753729 97 102 133
-59.0575 91.9668 -1550.77 -0.491167 -0.21792 -0.832933 103 108 137
-111.498 115.967 -1549.81 -0.180674 -0.209894 -0.932658 56 60 88
-106.719 119.01 -1550.39 -0.0138959 -0.194368 -0.957497 76 80 108
-114.317 130.029 -1550.12 -0.316213 0.0998526 -0.90907 60 63 93
-104.822 132.365 -1550.51 0.046562 -0.00389335 -0.967937 61 63 92
-102.297 138.925 -1550.83 0.00499903 -0.0680567 -0.972849 70 73 101
-98.3521 134.341 -1550.08 0.136766 -0.0530107 -0.980099 79 82 111
-67.3209 123.174 -1550.12 -0.259678 -0.151953 -0.938237 53 57 84
-61.7464 123.427 -1552.02 -0.265923 -0.187676 -0.933225 52 55 82
-61.9378 130.741 -1552.41 -0.334574 -0.0720001 -0.925699 51 53 81
-59.8816 137.883 -1553.15 -0.323227 -0.0247669 -0.935122 51 52 80
-48.9582 85.3547 -1556.54 -0.64519 -0.0955318 -0.772691 57 61 91
-53.8806 93.6541 -1553.9 -0.539048 -0.151808 -0.816955 81 86 115
-51.8449 104.824 -1554.62 -0.444553 0.0130215 -0.882414 57 61 90
-53.5895 110.896 -1553.29 -0.344325 -0.0415361 -0.912158 53 56 84
-29.6922 87.3771 -1554.58 0.57144 0.0905607 -0.748735 105 111 142
-29.6908 96.1173 -1555.22 0.686315 0.0318394 -0.679431 77 81 114
-44.9959 -373.438 -1544.35 0.208791 -0.30854 -0.964758 147 139 153
-50.8185 -372.627 -1546.31 0.174123 -0.274704 -0.948616 141 133 147
-38.9176 -367.379 -1543.63 0.345541 -0.307909 -0.885885 147 139 153
-108.774 -365.772 -1546.58 -0.329839 -0.556701 -0.735094 139 129 140
-42.8273 -363.322 -1546.41 0.330519 -0.275346 -0.890687 149 141 155
-38.5376 -354.601 -1543 0.60104 0.00265843 -0.614023 155 147 160
-42.8909 -345.589 -1546.34 0.66795 0.236173 -0.512851 166 158 168
-40.781 -338.476 -1544.58 0.5434 0.213925 -0.531848 167 158 169
-41.454 -336.801 -1547.41 0.467653 0.148811 -0.630013 168 159 170
-37.531 -326.102 -1544.81 0.377378 -0.0291527 -0.893664 159 151 164
-125.276 113.144 -1545.51 -0.435526 -0.0188972 -0.894464 53 55 84
-127.092 121.895 -1543.94 -0.48264 0.0552643 -0.872262 56 58 86
-123.844 129.599 -1545 -0.485141 0.0924096 -0.867038 55 58 87
-120.14 132.738 -1547.09 -0.42848 0.0894497 -0.887697 55 58 88
-117.995 139.718 -1547.95 -0.392815 0.0190475 -0.904232 54 56 86
-242.592 157.338 -1549.06 -0.850043 -0.0580047 -0.268108 83 81 107
-242.169 180.632 -1546.51 -0.802693 -0.0195214 -0.53394 77 76 104
-241.155 177.505 -1547.62 -0.808863 0.0149178 -0.521846 79 77 105
-243.986 185.405 -1545.13 -0.778521 -0.0688405 -0.556046 77 76 105
-246.825 195.445 -1543.78 -0.827087 0.0815153 -0.421317 77 76 105
-240.168 185.931 -1546.53 -0.794186 -0.032111 -0.543473 79 77 106
-248.647 198.159 -1545.79 -0.880978 0.183124 -0.230976 78 77 105
-242.527 211.052 -1549.29 -0.870527 0.324029 0.0227749 87 86 111
-234.858 223.955 -1548.48 -0.858369 0.302386 -0.292423 88 86 110
-15.9053 -56.3475 -1549.58 0.839217 -0.0205427 -0.568508 51 56 83
-14.8806 -38.3258 -1549.03 0.77326 -0.0238315 -0.634603 54 59 86
-15.0256 -30.048 -1547.9 0.737348 0.0809963 -0.655789 59 63 91
-64.0709 -21.9556 -1546.77 -0.478576 0.0654765 -0.87443 47 51 75
-70.2986 -17.4055 -1542.89 -0.499213 0.0554963 -0.861816 48 52 75
-70.2269 -12.0361 -1542.75 -0.47564 0.0296647 -0.876919 48 52 75
-61.371 -13.0552 -1547.62 -0.485848 0.0401854 -0.871091 47 51 75
-59.2635 -3.22161 -1549.52 -0.496802 -0.047364 -0.865491 48 52 76
-62.6791 1.03715 -1547.47 -0.482373 0.00599705 -0.874777 48 52 76
-64.0226 13.1751 -1545.06 -0.521378 0.0999128 -0.839688 48 52 76
-59.1661 17.9523 -1547.61 -0.57618 0.100412 -0.793413 48 52 77
-63.5194 21.7629 -1544.26 -0.489074 0.032416 -0.854017 48 52 78
-14.8994 -23.5966 -1545.65 0.760846 0.124961 -0.618794 61 66 92
-16.8267 -13.2655 -1546.31 0.781547 0.109466 -0.609298 58 63 88
-15.0285 -1.47681 -1542.81 0.674487 0.075331 -0.722488 67 72 100
-18.9984 6.43306 -1548.65 0.712425 -0.0291169 -0.585993 77 83 112
-15.6265 6.44975 -1544.04 0.703997 -0.0836697 -0.56075 90 95 125
-16.7935 13.6522 -1545.38 0.794549 -0.209513 -0.175166 131 138 168
-257.926 436.466 -1544.93 0.345676 0.260488 0.813183 49 42 44
-243.431 432.1 -1544.52 0.327686 0.309037 0.835311 49 42 44
-248.732 434.087 -1546.94 0.331359 0.310367 0.842413 49 42 44
-231.513 433.502 -1543.47 0.345249 0.283168 0.830751 50 42 44
-236.883 435.499 -1554.13 0.332922 0.284339 0.828971 50 42 44
-240.708 435.374 -1553.34 0.33422 0.286099 0.830417 50 42 44
-238.021 436.627 -1557.75 0.333318 0.281107 0.829409 50 42 44
-218.496 437.959 -1542.59 0.438063 0.224643 0.850538 50 43 45
-224.399 437.296 -1556.8 0.349598 0.268788 0.830591 50 42 44
-201.909 450.407 -1542.63 0.436113 0.223405 0.85193 49 43 45
-200.571 449.95 -1555.91 0.434351 0.2334 0.851249 48 42 44
-212.937 442.049 -1548.23 0.416801 0.238406 0.845947 50 43 45
-119.583 -883.761 -1538.61 -0.560953 -0.198061 -0.80217 137 132 133
-117.182 -879.301 -1541.42 -0.57818 -0.214984 -0.784068 138 132 133
-128.724 -867.351 -1536.74 -0.671288 -0.174036 -0.712554 146 138 138
-127.962 -861.168 -1539.72 -0.665277 -0.223262 -0.705262 147 140 140
-129.97 -853.022 -1540.91 -0.679738 -0.238708 -0.687929 149 141 142
-128.618 -857.893 -1540.36 -0.672782 -0.232771 -0.696627 148 141 141
-55.0879 -719.751 -1537.79 0.440714 0.0975231 -0.891012 154 150 153
-58.7736 -712.649 -1538.98 0.521468 0.0732118 -0.847294 156 151 154
-112.389 -698.492 -1541 -0.534602 0.230169 -0.805985 156 152 155
-114.034 -696.754 -1539.2 -0.574918 0.219863 -0.779981 157 152 155
-112.772 -677.437 -1537.7 -0.507052 0.214725 -0.80026 156 152 155
-99.4483 -677.483 -1541.8 -0.180248 0.405909 -0.884153 154 150 153
-60.9077 -698.102 -1539.17 0.499776 0.14074 -0.836523 158 154 157
-64.474 -695.673 -1541.18 0.394711 0.268842 -0.848663 159 155 158
-78.5473 -684.534 -1541.08 0.130618 0.317913 -0.922779 160 156 159
-79.78 -675.764 -1539.93 0.0724066 0.166749 -0.965379 160 156 159
-73.1332 -686.805 -1541.13 0.0536557 0.429927 -0.892803 160 156 159
-60.7608 -685.595 -1537.64 0.289972 0.120905 -0.914538 160 156 159
-63.9653 -677.215 -1538.27 0.143373 0.101523 -0.959837 162 158 161
-103.136 -670.986 -1538.52 -0.260973 0.383086 -0.867909 156 152 155
-102.433 -664.615 -1537.76 -0.252934 0.225178 -0.905289 157 152 155
-91.3499 -672.969 -1540.39 -0.0479316 0.283475 -0.931073 157 153 156
-95.0868 -661.755 -1539.31 -0.198034 0.0703799 -0.959601 158 153 156
-110.623 -655.535 -1535.51 -0.432497 0.0319857 -0.864603 156 151 154
-107.929 -655.209 -1536.86 -0.379483 0.00210512 -0.892617 156 151 154
-94.9304 -660.232 -1539.43 -0.200666 0.0323995 -0.966036 158 153 156
-97.5156 -651.81 -1539.49 -0.198743 -0.0178326 -0.972833 156 151 155
-92.138 -649.242 -1540.11 -0.134408 0.0261217 -0.990422 156 151 156
-76.4768 -669.373 -1539.72 0.0462448 0.0500351 -0.986365 160 156 158
-79.565 -663.561 -1540.05 0.000849009 0.0372289 -0.991318 159 155 157
-63.1991 -670.349 -1537.25 0.208866 0.0789329 -0.944081 161 157 160
-68.1385 -669.991 -1538.47 0.122043 0.0566082 -0.967732 161 157 159
-84.5044 -655.676 -1540.38 -0.0875019 0.0311606 -0.990234 157 153 157
-73.2363 -661.298 -1538.81 0.114741 0.0821228 -0.965154 159 154 157
-79.6578 -653.265 -1540.05 -0.009447 0.0535588 -0.984297 157 153 157
-66.9759 -661.745 -1536.83 0.261559 0.193433 -0.910628 159 155 157
-57.284 -697.249 -1536.34 0.51675 0.0716723 -0.848593 158 153 156
-56.5943 -675.922 -1535.72 0.334807 0.0675493 -0.921954 161 157 160
-179.98 357.321 -1536.3 -0.527543 0.504913 -0.679366 143 138 146
-175.158 358.354 -1536.88 -0.533065 0.488772 -0.719057 136 132 140
-169.747 359.318 -1537.12 -0.508465 0.406465 -0.76034 118 114 129
-246.331 431.844 -1542.29 0.327231 0.318498 0.841826 49 42 44
-240.131 431.355 -1542.17 0.328452 0.303843 0.831465 50 42 44
-226.719 434.94 -1540.57 0.378443 0.2611 0.837881 50 43 45
-218.676 439.276 -1540.21 0.430259 0.236681 0.849594 49 43 45
-207.313 447.495 -1540.31 0.43642 0.21176 0.849795 50 43 45
-206.343 450.155 -1538.83 0.4482 0.183377 0.850844 49 43 45
-200.08 459.542 -1540.03 0.474783 0.137211 0.855913 47 41 42
-199.218 470.9 -1540.89 0.432084 0.246505 0.860229 47 41 42
-205.716 474.418 -1538.65 0.449782 0.202939 0.852035 49 43 45
-196.797 469.821 -1543.03 0.443299 0.231689 0.858977 46 40 41
-229.712 510.175 -1537.2 0.614082 0.102518 0.767606 54 48 49
-81.9565 6.7961 -1535.84 -0.489955 0.00862738 -0.872185 49 53 79
-79.4051 10.705 -1537.22 -0.461528 0.00634554 -0.885229 49 53 79
-70.8605 4.32632 -1542 -0.497145 0.0370404 -0.866462 48 52 76
-77.0086 19.8754 -1538.4 -0.402432 -0.0126455 -0.91254 49 53 79
-77.7148 22.1576 -1538.2 -0.378122 -0.020699 -0.921124 49 53 79
-69.5981 16.8303 -1541.44 -0.461449 0.0355121 -0.880029 48 52 77
-11.1394 -26.0576 -1541.55 0.722065 0.0659935 -0.662446 76 81 107
-6.35665 -17.3971 -1536.58 0.650366 0.00225759 -0.753026 74 78 107
-10.2423 -9.89907 -1539.02 0.676954 0.108832 -0.726623 72 77 105
-12.2783 -4.31753 -1540.35 0.684432 0.0944422 -0.724722 69 74 102
-7.70235 5.75378 -1536.25 0.675899 -0.00522992 -0.709387 74 77 111
-7.47482 10.3258 -1535.74 0.692531 0.0137148 -0.658996 78 80 114
-9.5466 14.8709 -1537.15 0.730871 0.013493 -0.561454 87 90 123
2.04362 -80.7378 -1536.12 0.57207 0.049308 -0.653637 67 70 95
409.305 238.505 -1539.8 0.390304 -0.431103 0.814364 226 197 195
408.555 242.932 -1537.25 0.405101 -0.403397 0.820498 230 199 195
412.979 252.09 -1536 0.437554 -0.311986 0.841195 241 209 201
413.443 250.748 -1536.71 0.427222 -0.319727 0.842769 239 207 200
431.858 252.782 -1542.18 0.164776 -0.160651 0.966986 239 206 198
369.918 302.938 -1536.83 0.237676 0.699548 0.686047 255 253 252
368.203 303.4 -1536.47 0.236547 0.687934 0.692522 255 253 252
383.918 297.755 -1535.78 0.213513 0.706574 0.680811 254 253 251
389.581 299.431 -1539.48 0.206337 0.684263 0.699094 254 253 250
418.905 266.56 -1535.79 0.518614 -0.208435 0.828506 251 222 211
419.806 253.78 -1538.86 0.38686 -0.264223 0.873107 241 207 199
425.888 262.083 -1539.37 0.345919 -0.189488 0.904732 248 214 204
435.903 255.112 -1542.44 0.117373 -0.14171 0.982013 243 210 200
423.422 273.937 -1536.27 0.429995 -0.123151 0.872775 253 240 228
427.039 269.294 -1538.54 0.355251 -0.148139 0.906026 251 227 216
434.53 281.794 -1540.18 0.207312 0.0355385 0.905191 254 249 241
437.888 269.265 -1540.96 0.156227 -0.124328 0.967446 252 226 214
436.809 277.629 -1540.56 0.178064 -0.0452006 0.93124 254 241 231
-136.884 -772.115 -1532.47 -0.773368 -0.0430328 -0.606333 162 152 151
-140.704 -762.831 -1528.2 -0.780986 -0.0438609 -0.57468 160 150 150
-135.206 -754.597 -1535.34 -0.603592 0.00419262 -0.761416 165 155 154
-140.224 -746.454 -1528.35 -0.706997 0.0150705 -0.638617 167 154 155
-137.476 -735.947 -1531.52 -0.68908 0.0929446 -0.674726 169 157 158
-138.466 -726.636 -1528.95 -0.654245 0.160879 -0.676332 164 153 153
-138.633 -721.847 -1528.32 -0.596645 0.178061 -0.73104 163 152 153
-137.288 -717.289 -1528.61 -0.541184 0.208008 -0.790236 161 151 153
-129.748 -710.461 -1531.12 -0.572901 0.213605 -0.783489 157 149 152
-125.715 -709.416 -1533.59 -0.606299 0.238163 -0.752996 156 149 152
-49.4268 -720.374 -1534.69 0.455118 0.095978 -0.881868 153 148 151
-44.3151 -719.702 -1530.51 0.565889 0.0857982 -0.811097 150 144 147
-46.113 -717.156 -1531.66 0.539215 0.101805 -0.827599 151 145 148
-43.9832 -714.175 -1529.68 0.576083 0.10381 -0.804686 150 143 147
-111.252 -665.653 -1534.82 -0.35752 0.300325 -0.86088 156 152 155
-112.508 -652.206 -1534.8 -0.5054 -0.0149221 -0.840652 155 150 153
-58.9829 -661.446 -1532.35 0.413542 0.246879 -0.85859 159 154 157
-52.7952 -698.917 -1533.55 0.514105 0.0469969 -0.857948 156 151 154
-46.4329 -698.212 -1529.79 0.512472 0.02813 -0.857144 154 147 151
-45.945 -697.01 -1529.54 0.505782 0.00592598 -0.862891 154 147 151
-48.7823 -686.729 -1531.95 0.487149 -0.0261737 -0.875703 157 151 155
-49.223 -681.127 -1532.21 0.464646 0.0171058 -0.883404 158 153 156
-55.8813 -673.278 -1534.81 0.364294 0.0996748 -0.907602 160 156 159
-51.3052 -669.692 -1530.98 0.417498 0.215024 -0.870644 158 154 157
-50.6953 -666.038 -1529.13 0.397275 0.302092 -0.861625 158 154 157
-56.4221 -654.16 -1528.66 0.446978 0.152534 -0.856187 159 155 158
-137.366 -113.477 -1529.06 -0.395915 0.817606 -0.416047 52 52 83
-128.195 -108.055 -1531.78 -0.456458 0.688333 -0.503143 52 52 83
-121.811 -103.039 -1530.84 -0.406795 0.616444 -0.586638 52 53 82
-116.446 -93.1966 -1529.39 -0.462718 0.257591 -0.817118 53 56 84
-266.915 152.664 -1532.63 -0.593118 0.0197899 -0.780098 69 71 103
-278.418 161.431 -1529.28 -0.790366 -0.112714 -0.590302 61 63 97
-279.37 163.675 -1528.84 -0.789428 -0.120756 -0.584539 61 63 97
-268.015 159.979 -1529.51 -0.681519 -0.0371263 -0.721438 66 68 102
-277.545 177.676 -1529.92 -0.664459 -0.0834324 -0.732865 65 66 99
-278.288 184.513 -1529.58 -0.623696 -0.0572527 -0.770727 66 67 100
-283.601 202.529 -1528.55 -0.53178 -0.0252378 -0.844548 66 66 97
-14.1809 -240.064 -1533.32 0.462147 0.527148 -0.670435 82 76 110
-7.5395 -243.561 -1530.06 0.537065 0.529543 -0.623574 74 70 102
-10.0087 -234.222 -1530.82 0.508183 0.316864 -0.764425 84 78 112
-1.85808 -228.575 -1533.75 0.546524 0.322766 -0.737523 79 74 107
-44.5988 -199.098 -1530.65 0.381241 0.542204 -0.739489 91 83 115
-35.5993 -208.789 -1528.32 0.492286 0.520899 -0.683127 84 78 112
-41.3643 -202.166 -1535.18 0.427749 0.527556 -0.719617 95 88 120
-26.1624 -212.739 -1535.52 0.426276 0.596013 -0.66041 89 83 117
-19.8288 -215.982 -1529.74 0.458091 0.650877 -0.578358 82 77 110
-5.9079 -223.915 -1530.42 0.527766 0.448125 -0.672113 77 73 105
-24.5083 -208.551 -1535.99 0.463656 0.609632 -0.630835 81 76 109
-23.4994 -207.744 -1535.89 0.4799 0.611118 -0.620493 75 71 103
-14.9651 -204.163 -1530.65 0.473169 0.568292 -0.658754 60 58 88
-5.03609 -206.361 -1532.95 0.391077 0.551011 -0.73361 58 58 87
0.425556 -277.678 -1528.65 0.573675 -0.498085 -0.600024 71 68 93
6.0765 -267.78 -1533.89 0.463251 -0.553349 -0.639888 62 59 87
5.06948 -262.949 -1534.89 0.537622 -0.0165533 -0.742981 68 64 95
3.03049 -257.209 -1532.47 0.568794 0.457204 -0.673915 71 66 98
-285.041 452.492 -1530.58 0.0430563 0.0902755 0.53532 86 69 68
-256.583 434.96 -1529.13 0.391551 0.0137097 0.669851 52 45 48
-269.299 443.093 -1535.62 0.335534 0.0202366 0.63039 57 49 51
-276.71 446.724 -1529.45 0.225071 0.000931398 0.556502 69 58 59
-278.332 449.697 -1540.32 0.155092 0.13087 0.619199 73 60 59
-263.096 438.613 -1537.98 0.364016 0.0934228 0.693234 52 45 47
-268.064 442.054 -1531.98 0.376307 -0.0691978 0.5817 55 48 51
-214.687 -1124.01 -1527.45 -0.821144 0.228919 -0.503283 137 127 125
-211.295 -1113.44 -1526.22 -0.771836 0.309157 -0.498948 78 64 68
-206.815 -1104.76 -1524.76 -0.677408 0.532615 -0.444835 105 85 88
-171.463 -1122.53 -1520.7 0.711973 0.269572 -0.657726 136 126 126
-174.586 -1117.28 -1523.9 0.724301 0.0955872 -0.690461 164 154 155
-173.087 -1105.75 -1522.89 0.636175 0.147599 -0.761505 68 54 57
-177.009 -1100.23 -1526.28 0.636794 0.230262 -0.685847 107 90 90
-162.92 -1134.26 -1526.46 0.088877 0.515208 -0.677774 179 168 160
-164.12 -1132.07 -1523.85 0.284681 0.566907 -0.651025 136 126 119
-155.245 -1128.94 -1522.75 -0.293165 0.614259 -0.534876 137 126 121
-171.032 -1124.65 -1521.24 0.674581 0.378319 -0.641606 118 108 107
-146.751 -1114.63 -1526.25 -0.8858 0.252092 -0.254453 83 69 69
-145.639 -1108.87 -1528.34 -0.99058 0.178067 -0.200319 104 86 83
-194.869 -1097.46 -1525.04 -0.329834 0.774494 -0.486017 153 134 132
-186.928 -1092.79 -1524.47 -0.305957 0.62831 -0.597314 176 155 149
-176.096 -1097.55 -1523.5 0.620734 0.305792 -0.646423 126 106 103
-45.6 -641.568 -1522.28 0.657371 -0.0360352 -0.737259 155 151 154
-45.0337 -640.053 -1522 0.669866 -0.018451 -0.73272 155 150 153
-44.8409 -633.013 -1522.27 0.655758 -0.0104403 -0.748631 155 151 154
-45.7708 -613.535 -1522.89 0.609639 -0.00583625 -0.790503 157 153 156
-51.0804 -607.634 -1527.78 0.513893 0.00567858 -0.85035 156 151 155
-44.5378 -605.062 -1522.31 0.590543 -0.0331637 -0.807847 153 149 152
-47.5375 -594.405 -1524.56 0.553297 0.0223575 -0.814831 155 151 155
-273.15 -247.378 -1522.78 -0.569511 0.159531 -0.788674 76 72 103
-267.949 -250.123 -1526.78 -0.567048 0.164305 -0.796179 78 74 106
-270.045 -232.319 -1522.43 -0.570249 0.207578 -0.783949 79 74 105
-261.444 -232.212 -1526.35 -0.461167 0.28322 -0.82636 77 73 104
-260.451 -229.497 -1525.89 -0.43484 0.307161 -0.831228 77 72 104
-262.879 -223.434 -1521.84 -0.390652 0.325924 -0.844604 78 73 104
-255.022 -224.766 -1527.76 -0.464063 0.290899 -0.817624 75 70 100
-248.396 -216.005 -1528.4 -0.422067 0.35389 -0.817323 74 69 98
-247.385 -205.243 -1523.36 -0.375275 0.367118 -0.846408 76 71 101
-241.101 -206.2 -1526.71 -0.388054 0.414302 -0.811767 71 67 97
-230.848 -196.845 -1528.04 -0.434206 0.553031 -0.713201 55 51 80
-219.566 185.275 -1524.48 -0.20836 0.10658 -0.963039 56 57 88
-222.149 196.224 -1523.04 -0.143125 0.0648074 -0.988094 54 55 86
-210.3 189.02 -1526.27 -0.329608 0.149924 -0.893155 64 62 93
-207.91 191.706 -1526.68 -0.38077 0.150314 -0.866569 66 64 95
-226.055 197.552 -1522.46 -0.1377 0.0334454 -0.989311 54 55 86
-227.116 205.677 -1522.15 -0.132141 -0.0156414 -0.992191 55 56 86
-215.09 209.973 -1523.96 -0.109093 -0.0395517 -1.00521 56 56 86
-202.938 201.095 -1528.2 -0.572434 0.13132 -0.769168 69 66 97
-204.664 208.527 -1526.47 -0.388851 0.0755387 -0.848596 64 62 93
-220.409 214.678 -1523.68 -0.130715 -0.0651771 -0.998276 54 56 86
-220.69 225.246 -1524.37 -0.101501 -0.0762105 -0.99556 55 56 85
-209.676 213.308 -1524.9 -0.144424 -0.00475793 -0.967979 58 57 87
-212.455 224.39 -1524.52 -0.00201873 -0.04395 -1.01601 54 54 84
-202.81 222.808 -1526.12 -0.350563 0.0238545 -0.840821 58 57 88
-223.4 229.746 -1524.36 -0.10563 -0.0588115 -0.990197 55 56 86
-222.747 233.666 -1524.4 -0.0995418 -0.014898 -0.990643 56 57 86
-209.841 227.065 -1524.69 -0.0259697 -0.0163588 -0.998256 54 54 84
-199.734 232.064 -1526.9 -0.515426 0.0386939 -0.774185 56 55 86
-203.008 232.677 -1525.94 -0.312895 0.0222741 -0.869534 55 54 84
-221.934 243.503 -1523.71 -0.071915 0.0857891 -0.990525 59 59 88
-226.495 247.107 -1523.08 -0.129248 0.123513 -0.975875 61 61 90
-213.861 248.065 -1523.39 -0.00948973 0.119351 -0.996928 60 60 88
-204.139 240.088 -1525.5 -0.314142 0.036566 -0.886591 55 55 84
-210.758 252.239 -1522.83 -0.046528 0.167304 -0.971005 61 60 89
-198.539 234.383 -1527.67 -0.584764 0.051454 -0.743419 57 55 86
-101.136 -53.0259 -1526.41 -0.396109 0.0323302 -0.911253 49 51 78
-108.125 -49.7131 -1523.54 -0.285039 0.012528 -0.954763 48 49 77
-100.638 -43.7932 -1526.59 -0.368977 0.00463436 -0.92767 50 51 79
-109.472 -39.4402 -1523.63 -0.222567 -0.0606033 -0.963989 47 49 77
-114.815 -33.4745 -1523 -0.114989 -0.136771 -0.980112 46 50 77
-100.339 -37.7568 -1526.63 -0.348573 -0.00239282 -0.932185 50 52 80
-97.06 -31.4732 -1527.59 -0.391988 0.0575143 -0.908877 52 54 81
-105.716 -20.9731 -1525.5 -0.136075 -0.0841713 -0.977726 50 53 81
-102.737 -19.4945 -1525.98 -0.164823 -0.0459899 -0.965693 51 53 82
-97.5717 -24.1701 -1527.3 -0.328517 0.044974 -0.919641 52 54 82
-114.257 -8.07829 -1526.75 -0.0156715 -0.177902 -0.977066 46 50 78
-101.871 -11.5498 -1525.97 -0.0876508 -0.0585957 -0.966997 51 52 81
-107.569 -0.3902 -1527.72 0.175421 -0.203114 -0.966105 45 48 77
-92.1016 -10.8569 -1528.33 -0.450361 0.0436423 -0.863219 52 54 81
-107.191 1.60151 -1528.19 0.140614 -0.206818 -0.965919 45 48 77
6.26939 -70.6812 -1526.21 0.740562 0.1677 -0.516099 67 70 97
6.17908 -65.7011 -1525.84 0.747233 0.0840088 -0.576754 70 74 100
7.18362 -60.2238 -1523.93 0.705079 0.0762199 -0.584702 67 70 96
-145.199 -753.147 -1517.31 -0.87367 0.03576 -0.468568 153 143 145
-146.454 -741.007 -1517.04 -0.873928 -0.0657358 -0.475474 150 140 143
-148.351 -730.342 -1515.6 -0.856125 -0.0941596 -0.498361 149 140 142
-147.179 -720.639 -1519.6 -0.737008 -0.0346555 -0.593704 155 144 147
-146.444 -713.723 -1520.85 -0.64925 0.0502428 -0.688304 156 145 148
-143.715 -705.785 -1520.93 -0.47987 0.115062 -0.848606 154 144 147
-91.927 -1148.2 -1519.71 0.778749 0.234942 -0.530486 207 197 188
-89.9878 -1148.09 -1518.65 0.77765 0.245517 -0.515459 204 192 183
-115.171 -1139.62 -1519.07 0.552938 0.187048 -0.73804 228 214 202
-113.317 -1131.33 -1517.41 0.59986 0.234837 -0.672928 217 201 192
-103.913 -1127.35 -1515.48 0.754125 0.27316 -0.568087 202 191 182
-100.586 -1131.02 -1515.71 0.763326 0.321687 -0.52718 190 179 171
-80.3043 -1153.79 -1520.21 0.831244 0.205599 -0.469202 209 188 176
-79.1453 -1143.71 -1520.94 0.868357 0.116203 -0.480456 200 179 167
-81.141 -1126.97 -1519.68 0.842527 0.293866 -0.426976 164 146 135
-112.315 -1124.57 -1515.97 0.563927 0.258654 -0.681406 196 172 164
-91.4737 -1103.49 -1520.85 0.442706 0.55048 -0.693958 165 120 110
-80.8963 -1124.37 -1516.77 0.839488 0.296098 -0.435612 158 135 125
-86.8945 -1106.92 -1519.07 0.596041 0.403538 -0.645085 166 118 110
-100.641 -1091.06 -1519.54 0.445159 0.245358 -0.832576 131 126 120
-94.1532 -1097.75 -1518.88 0.402626 0.520413 -0.736739 147 120 112
-96.4311 -1087 -1517.06 0.439123 0.147266 -0.830898 130 124 120
-94.0249 -1080.89 -1516.79 0.472438 -0.0108946 -0.813945 131 124 121
-95.4148 -1073.79 -1520.3 0.478227 -0.173854 -0.857872 130 124 120
-89.3382 -1064.82 -1517.65 0.603068 -0.208009 -0.751555 128 121 119
-90.459 -1063.27 -1519.21 0.570142 -0.208298 -0.797794 126 119 117
-88.4176 -1047.24 -1520.24 0.605593 -0.140928 -0.784013 131 124 125
-227.634 -129.359 -1515.95 -0.362202 0.402671 -0.823805 58 55 86
-219.869 -128.069 -1518.67 -0.308464 0.345253 -0.848853 59 56 88
-221.612 -121.903 -1517.47 -0.340545 0.130786 -0.902048 60 57 90
-225.812 -119.434 -1515.54 -0.418109 0.0328657 -0.885645 62 59 92
-214.736 -113.525 -1517.95 -0.164472 0.108518 -0.978295 63 60 92
-208.144 -117.89 -1519.58 -0.14422 0.148968 -0.981238 60 57 90
-205.946 -114.406 -1518.79 -0.0958751 0.189247 -0.980303 62 59 92
-196.88 -118.067 -1519.66 0.0100858 0.235549 -0.973877 61 57 91
-189.921 -112.733 -1517.92 0.0842297 0.182347 -0.987903 64 61 94
-172.32 -120.641 -1520.56 -0.132739 0.498952 -0.762284 68 68 98
-177.376 -116.295 -1518.22 -0.00362417 0.263726 -0.932826 64 63 94
-224.753 -107.403 -1515.81 -0.277543 0.0945192 -0.930279 68 65 97
-220.062 -102.805 -1514.82 -0.117039 0.273285 -0.933511 70 67 98
-205.803 -107.117 -1516.59 -0.0527491 0.257277 -0.965025 67 64 97
-203.253 -102.902 -1514.94 -0.0564755 0.350297 -0.925943 70 67 100
-190.322 -111.81 -1517.77 0.07743 0.176341 -0.989708 64 62 94
-193.829 -103.397 -1515.91 -0.0417093 0.278859 -0.94571 66 64 96
-182.22 -108.488 -1516.81 0.0597238 0.164529 -0.986251 62 61 92
-182.506 -99.1382 -1514.93 0.0167481 0.332172 -0.926838 62 62 92
-173.366 -105.201 -1516.05 -0.0394247 0.239747 -0.958942 58 58 87
-166.495 -113.14 -1519.1 -0.142604 0.298459 -0.918341 60 61 90
-5.25699 -227.97 -1518.85 0.572903 0.601195 -0.47677 87 80 114
-33.1745 -200.557 -1519.19 0.612434 0.452716 -0.640201 68 61 93
-22.2545 -212.476 -1515.71 0.622699 0.634837 -0.414236 73 66 100
-9.88166 -225.142 -1519.13 0.595841 0.720085 -0.328954 87 80 114
-29.6668 -208.92 -1520.86 0.649041 0.569419 -0.485423 66 59 92
-3.08666 -198.8 -1521.08 0.380612 0.662181 -0.624398 61 60 90
-0.693223 -283.246 -1519.54 0.652618 -0.454034 -0.445314 73 70 91
5.06024 -279.228 -1517.33 0.659822 -0.483079 -0.389749 69 67 90
11.3535 -263.671 -1516.23 0.855659 -0.0288347 0.155739 58 56 86
12.7748 -264.767 -1522.17 0.704515 -0.0808058 -0.224308 63 60 89
11.0704 -251.457 -1514.64 0.779793 0.129556 -0.168879 62 60 90
6.78694 -246.794 -1520.47 0.614273 0.22754 -0.6665 70 66 97
9.3405 -236.63 -1514.7 0.517246 0.350107 -0.646095 80 75 107
-134.817 -1096.09 -1509.3 -0.678636 0.61733 -0.12901 137 99 90
-131.961 -1091.69 -1510.37 -0.703279 0.57547 -0.149672 135 97 87
-128.829 -1081.51 -1508.92 -0.755565 0.148169 -0.400112 133 115 111
-131.21 -1066.66 -1509.49 -0.876876 -0.0785782 -0.48178 137 127 124
-132.61 -1058.88 -1509.64 -0.833442 -0.116647 -0.540256 142 131 130
-133.757 -1045.05 -1507.69 -0.863035 0.133266 -0.442768 133 124 125
