ply
format ascii 1.0
comment Created by Open3D
element vertex 1457
property double x
property double y
property double z
property uchar red
property uchar green
property uchar blue
end_header
-75.5463 -259.221 -1463 50 50 48
-72.6558 -259.38 -1464 51 51 49
-69.7619 -259.541 -1465 51 51 49
-67.0469 -260.41 -1470 51 52 50
-64.2689 -261.103 -1474 52 54 51
-61.4337 -261.619 -1477 54 56 51
-58.7057 -262.667 -1483 55 55 52
-55.8038 -263.008 -1485 54 54 51
-53.0365 -264.057 -1491 54 54 50
-50.145 -264.576 -1494 56 56 51
-47.3365 -265.627 -1500 57 57 52
-44.3861 -265.97 -1502 54 54 50
-41.5382 -267.023 -1508 52 52 48
-38.59 -267.544 -1511 54 54 50
-35.7006 -268.598 -1517 56 56 52
-32.7444 -269.298 -1521 53 53 49
-29.792 -270.175 -1526 33 33 29
-26.7846 -270.7 -1529 27 27 23
-23.8121 -271.756 -1535 38 38 36
-20.8292 -272.99 -1542 93 95 95
-211.393 -274.676 -1524 52 56 57
-205.545 -271.02 -1504 55 58 55
-200.723 -268.628 -1491 52 55 50
-196.619 -267.138 -1483 51 54 49
-192.549 -265.649 -1475 49 52 49
-189.027 -264.882 -1471 48 50 47
-185.524 -264.116 -1467 47 47 43
-182.162 -263.53 -1464 48 48 46
-178.814 -262.946 -1461 49 49 47
-175.36 -262.183 -1457 48 48 46
-172.278 -261.96 -1456 47 47 45
-169.085 -261.559 -1454 47 47 45
-166.016 -261.338 -1453 48 48 46
-162.953 -261.118 -1452 49 49 47
-160.005 -261.078 -1452 47 47 45
-156.842 -260.68 -1450 44 46 44
-153.795 -260.462 -1449 43 46 43
-150.857 -260.425 -1449 44 44 42
-147.717 -260.029 -1447 45 45 43
-144.785 -259.993 -1447 44 44 42
-141.757 -259.778 -1446 45 45 43
-138.639 -259.385 -1444 44 44 42
-135.623 -259.172 -1443 45 45 43
-132.796 -259.319 -1444 44 44 42
-129.877 -259.286 -1444 44 44 42
-126.959 -259.255 -1444 46 46 44
-124.041 -259.225 -1444 45 45 43
-121.209 -259.374 -1445 44 44 42
-118.21 -259.165 -1444 44 44 42
-115.375 -259.316 -1445 45 45 43
-112.538 -259.468 -1446 46 46 44
-109.545 -259.262 -1445 48 48 46
-106.705 -259.415 -1446 49 49 47
-103.863 -259.568 -1447 49 49 47
-101.016 -259.723 -1448 48 48 46
-98.0994 -259.699 -1448 47 47 43
-95.3145 -260.034 -1450 47 47 44
-92.5225 -260.37 -1452 47 47 45
-89.7232 -260.706 -1454 48 48 46
-86.9164 -261.043 -1456 50 50 47
-84.1601 -261.56 -1459 52 52 48
-81.2811 -261.719 -1460 53 53 50
-78.3987 -261.879 -1461 52 52 50
-75.5646 -262.219 -1463 51 51 49
-72.723 -262.559 -1465 51 51 49
-69.8264 -262.721 -1466 51 51 49
-67.0632 -263.421 -1470 52 52 50
-64.2844 -264.122 -1474 53 53 51
-61.4069 -264.465 -1476 54 54 50
-58.6406 -265.346 -1481 55 55 52
-55.742 -265.691 -1483 55 55 53
-52.9426 -266.573 -1488 55 55 51
-50.0899 -267.278 -1492 55 55 51
-47.3164 -268.52 -1499 55 55 51
-44.3672 -268.867 -1501 53 53 49
-41.5207 -269.931 -1507 51 51 47
-38.5993 -270.638 -1511 48 48 44
-35.6622 -271.345 -1515 46 46 42
-32.7093 -272.053 -1519 49 49 45
-29.7406 -272.762 -1523 36 36 32
-26.7385 -273.293 -1526 31 31 27
-23.7403 -274.003 -1530 36 36 34
-20.7666 -275.251 -1537 101 103 102
-17.9147 -278.828 -1557 185 187 187
-211.168 -277.454 -1522 50 53 55
-205.596 -274.122 -1504 52 55 52
-200.773 -271.702 -1491 49 52 48
-196.535 -270.012 -1482 46 49 44
-192.727 -268.871 -1476 46 49 46
-188.946 -267.731 -1470 48 50 46
-185.569 -267.138 -1467 52 52 48
-181.834 -266 -1461 49 49 47
-178.613 -265.591 -1459 48 48 46
-175.282 -265.001 -1456 48 48 46
-172.083 -264.594 -1454 49 49 47
-168.894 -264.188 -1452 48 48 46
-165.943 -264.146 -1452 46 46 44
-162.881 -263.923 -1451 47 47 45
-159.824 -263.702 -1450 46 48 45
-156.773 -263.481 -1449 44 46 43
-153.727 -263.26 -1448 42 45 42
-150.79 -263.223 -1448 45 45 43
-147.753 -263.004 -1447 45 45 43
-144.721 -262.786 -1446 44 44 42
-141.792 -262.751 -1446 45 45 43
-138.769 -262.534 -1445 44 44 42
-135.75 -262.319 -1444 44 44 42
-132.921 -262.467 -1445 44 44 42
-129.999 -262.435 -1445 45 45 43
-127.078 -262.403 -1445 46 46 44
-124.158 -262.372 -1445 46 46 44
-121.322 -262.523 -1446 46 46 44
-118.32 -262.312 -1445 47 47 45
-115.483 -262.465 -1446 47 47 45
-112.643 -262.618 -1447 47 47 45
-109.724 -262.591 -1447 48 48 46
-106.805 -262.564 -1447 49 49 47
-103.888 -262.538 -1447 48 48 46
-101.111 -262.876 -1449 48 48 46
-98.1912 -262.851 -1449 47 47 45
-95.3379 -263.009 -1450 48 48 46
-92.6089 -263.53 -1453 48 48 46
-89.7451 -263.689 -1454 48 48 46
-86.878 -263.848 -1455 49 49 47
-84.0653 -264.19 -1457 50 50 46
-81.2453 -264.532 -1459 51 51 49
-78.2568 -264.331 -1458 52 52 50
-75.4281 -264.675 -1460 51 51 49
-72.6415 -265.2 -1463 51 51 49
-69.7957 -265.545 -1465 52 52 51
-67.0339 -266.254 -1469 51 51 49
-64.3001 -267.144 -1474 54 54 52
-61.3803 -267.309 -1475 55 55 51
-58.5362 -267.839 -1478 54 54 51
-55.7556 -268.73 -1483 53 53 51
-52.9199 -269.442 -1487 54 54 50
-50.1022 -270.335 -1492 54 54 50
-47.3595 -271.773 -1500 53 53 49
-44.4963 -272.667 -1505 52 52 48
-41.5859 -273.381 -1509 50 50 46
-38.6598 -274.096 -1513 48 48 44
-35.7414 -274.993 -1518 45 45 42
-32.7818 -275.709 -1522 45 45 42
-29.8064 -276.426 -1526 52 52 48
-26.7626 -276.6 -1527 53 53 49
-23.746 -277.138 -1530 42 42 40
-20.7446 -278.038 -1535 65 67 67
-17.827 -280.569 -1549 177 179 179
-211.221 -280.596 -1522 54 58 59
-204.827 -276.119 -1498 59 62 57
-200.015 -273.672 -1485 57 60 55
-196.054 -272.332 -1478 50 53 48
-192.253 -271.178 -1472 41 44 41
-188.736 -270.394 -1468 40 42 39
-185.363 -269.794 -1465 44 44 40
-181.879 -269.011 -1461 46 46 44
-178.535 -268.414 -1458 46 46 44
-175.447 -268.185 -1457 49 49 47
-172.126 -267.589 -1454 51 51 49
-168.936 -267.179 -1452 51 51 49
-165.984 -267.137 -1452 49 49 47
-162.921 -266.911 -1451 49 50 48
-159.754 -266.503 -1449 44 47 44
-156.704 -266.28 -1448 42 45 42
-153.553 -265.873 -1446 41 44 41
-150.515 -265.651 -1445 45 45 43
-147.688 -265.798 -1446 45 45 43
-144.657 -265.577 -1445 46 46 44
-141.729 -265.541 -1445 44 44 42
-138.707 -265.323 -1444 44 44 42
-135.784 -265.288 -1444 44 44 42
-132.77 -265.071 -1443 44 44 42
-129.941 -265.222 -1444 46 46 44
-127.021 -265.19 -1444 46 46 44
-124.017 -264.975 -1443 46 46 44
-121.185 -265.128 -1444 47 47 45
-118.268 -265.098 -1444 46 46 44
-115.512 -265.436 -1446 45 45 43
-112.671 -265.591 -1447 45 45 43
-109.751 -265.563 -1447 44 44 42
-106.832 -265.536 -1447 44 44 42
-103.914 -265.51 -1447 46 46 44
-101.066 -265.668 -1448 48 48 46
-98.1477 -265.643 -1448 47 47 45
-95.3615 -265.986 -1450 48 48 46
-92.568 -266.329 -1452 49 49 47
-89.7673 -266.673 -1454 48 48 46
-86.8996 -266.835 -1455 50 50 48
-84.0284 -266.997 -1456 50 50 47
-81.2097 -267.343 -1458 51 51 49
-78.2762 -267.323 -1458 51 51 49
-75.4467 -267.671 -1460 51 51 49
-72.6594 -268.202 -1463 51 51 49
-69.8131 -268.551 -1465 51 51 51
-67.0505 -269.267 -1469 52 53 50
-64.2724 -269.984 -1473 53 54 50
-61.3955 -270.335 -1475 53 54 50
-58.6299 -271.237 -1480 54 55 52
-55.7318 -271.589 -1482 55 55 53
-52.8974 -272.309 -1486 54 54 50
-50.1482 -273.578 -1493 53 53 49
-47.3395 -274.666 -1499 51 51 47
-44.5369 -275.937 -1506 53 53 49
-41.6237 -276.659 -1510 51 51 48
-38.7204 -277.565 -1515 51 51 47
-35.7267 -277.922 -1517 50 50 48
-32.8115 -279.013 -1523 50 50 48
-29.7746 -279.189 -1524 38 38 34
-26.7517 -279.548 -1526 43 43 39
-23.7209 -279.908 -1528 42 42 40
-20.7228 -280.819 -1533 44 46 46
-17.7508 -282.462 -1542 148 150 151
-14.9139 -287.404 -1569 180 184 185
-210.442 -282.621 -1516 60 62 63
-204.195 -278.281 -1493 60 63 58
-199.931 -276.552 -1484 62 64 59
-195.838 -275.011 -1476 58 59 55
-192.171 -274.03 -1471 49 49 47
-188.398 -272.864 -1465 46 47 44
-185.283 -272.63 -1464 44 44 40
-181.676 -271.653 -1459 43 43 41
-178.581 -271.421 -1458 42 42 40
-175.13 -270.631 -1454 43 43 41
-172.17 -270.587 -1454 45 45 43
-168.979 -270.172 -1452 47 47 45
-165.912 -269.943 -1451 47 47 45
-162.85 -269.716 -1450 47 48 45
-159.794 -269.489 -1449 42 45 42
-156.635 -269.077 -1447 41 44 41
-153.485 -268.666 -1445 42 45 42
-150.553 -268.627 -1445 47 47 45
-147.623 -268.589 -1445 46 46 44
-144.593 -268.366 -1444 46 46 44
-141.667 -268.33 -1444 44 44 42
-138.646 -268.109 -1443 45 45 43
-135.724 -268.074 -1443 44 44 42
-132.711 -267.855 -1442 44 44 42
-129.884 -268.007 -1443 46 46 44
-126.965 -267.975 -1443 46 46 44
-124.048 -267.943 -1443 46 46 44
-121.215 -268.098 -1444 47 47 45
-118.298 -268.067 -1444 47 47 45
-115.461 -268.224 -1445 46 46 44
-112.543 -268.195 -1445 45 45 43
-109.703 -268.352 -1446 44 44 42
-106.785 -268.325 -1446 45 45 43
-103.868 -268.299 -1446 47 47 45
-101.091 -268.644 -1448 49 49 47
-98.2401 -268.804 -1449 47 47 45
-95.3854 -268.965 -1450 47 47 45
-92.5913 -269.313 -1452 49 49 47
-89.728 -269.475 -1453 48 48 46
-86.8018 -269.453 -1453 50 50 48
-83.9918 -269.802 -1455 50 50 48
-81.2301 -270.338 -1458 52 52 50
-78.2421 -270.132 -1457 51 51 49
-75.4655 -270.669 -1460 51 51 49
-72.6279 -271.021 -1462 52 52 50
-69.8305 -271.559 -1465 52 52 50
-67.0672 -272.284 -1469 52 55 50
-64.2448 -272.823 -1472 51 54 49
-61.3692 -273.178 -1474 52 55 50
-58.5256 -273.719 -1477 54 55 52
-55.6329 -274.075 -1479 54 54 52
-52.8395 -274.988 -1484 54 54 50
-50.1271 -276.457 -1492 54 54 50
-47.2882 -277.372 -1497 53 53 49
-44.4297 -278.287 -1502 55 55 52
-41.6341 -279.758 -1510 52 52 49
-38.7046 -280.489 -1514 51 51 47
-35.7357 -281.035 -1517 52 52 49
-32.8197 -282.138 -1523 49 49 47
-29.8408 -282.871 -1527 44 44 40
-26.7759 -282.864 -1527 40 40 37
-23.7422 -283.228 -1529 41 41 39
-20.7144 -283.779 -1532 44 46 47
-17.6862 -284.515 -1536 83 86 87
-14.8226 -288.771 -1559 177 181 182
-216.276 -289.391 -1535 80 83 84
-209.523 -284.435 -1509 61 63 62
-203.7 -280.613 -1489 52 55 50
-199.443 -278.865 -1480 54 56 52
-195.357 -277.307 -1472 53 54 49
-191.828 -276.504 -1468 50 50 47
-188.317 -275.701 -1464 51 51 49
-184.95 -275.088 -1461 52 52 49
-181.598 -274.476 -1458 50 50 48
-178.136 -273.677 -1454 49 49 47
-175.054 -273.444 -1453 48 48 46
-171.858 -273.023 -1451 43 43 41
-168.906 -272.979 -1451 38 38 36
-165.84 -272.748 -1450 37 37 35
-162.892 -272.706 -1450 38 38 36
-159.724 -272.288 -1448 39 40 38
-156.567 -271.872 -1446 39 42 39
-153.524 -271.644 -1445 42 45 42
-150.383 -271.229 -1443 47 47 45
-147.456 -271.191 -1443 47 47 45
-144.43 -270.966 -1442 45 45 43
-141.507 -270.929 -1442 46 46 44
-138.489 -270.706 -1441 46 46 44
-135.664 -270.859 -1442 46 45 43
-132.653 -270.636 -1441 45 45 42
-129.827 -270.791 -1442 45 45 42
-126.909 -270.758 -1442 46 46 43
-123.993 -270.726 -1442 48 48 45
-121.162 -270.882 -1443 48 48 46
-118.328 -271.039 -1444 49 49 47
-115.41 -271.009 -1444 49 49 47
-112.572 -271.168 -1445 48 48 46
-109.73 -271.327 -1446 48 48 46
-106.812 -271.3 -1446 50 50 48
-103.894 -271.273 -1446 50 50 48
-101.047 -271.434 -1447 49 49 47
-98.1293 -271.409 -1447 49 49 47
-95.2121 -271.384 -1447 49 49 47
-92.4234 -271.735 -1449 49 49 47
-89.5654 -271.9 -1450 49 49 47
-86.7043 -272.065 -1451 49 49 47
-83.8975 -272.418 -1453 50 50 48
-81.1392 -272.96 -1456 52 52 50
-78.2619 -273.127 -1457 53 53 51
-75.4846 -273.669 -1460 55 55 53
-72.6463 -274.025 -1462 57 57 55
-69.8005 -274.382 -1464 57 57 55
-66.9472 -274.74 -1466 55 56 53
-64.2174 -275.66 -1471 53 53 51
-61.3847 -276.206 -1474 56 56 54
-58.5405 -276.753 -1477 55 55 53
-55.6846 -277.301 -1480 56 56 54
-52.8884 -278.224 -1485 56 56 53
-50.0053 -278.773 -1488 54 54 51
-47.237 -280.072 -1495 54 54 51
-44.4113 -281.184 -1501 54 54 52
-41.5619 -282.297 -1507 54 54 52
-38.6887 -283.411 -1513 54 54 50
-35.7682 -284.338 -1518 53 53 50
-32.828 -285.266 -1523 52 52 50
-29.8287 -285.82 -1526 45 45 41
-26.8177 -286.375 -1529 41 41 37
-23.7483 -286.368 -1529 41 41 39
-20.7061 -286.737 -1531 47 47 48
-17.7021 -287.856 -1537 54 55 56
-14.7503 -290.474 -1551 157 161 163
-214.922 -290.662 -1525 73 76 72
-208.744 -286.414 -1503 61 65 59
-203.616 -283.502 -1488 51 54 49
-199.495 -281.925 -1480 50 53 48
-195.408 -280.35 -1472 50 53 48
-191.747 -279.348 -1467 54 54 50
-188.237 -278.537 -1463 56 56 53
-185.125 -278.298 -1462 56 56 54
-181.52 -277.298 -1457 55 55 53
-178.305 -276.871 -1455 55 55 53
-175.219 -276.635 -1454 55 55 53
-171.903 -276.019 -1451 52 52 50
-168.833 -275.785 -1450 49 49 47
-165.768 -275.551 -1449 49 49 47
-162.709 -275.318 -1448 48 48 46
-159.435 -274.706 -1445 46 46 44
-156.39 -274.475 -1444 38 40 37
-153.351 -274.245 -1443 34 37 34
-150.214 -273.826 -1441 39 39 37
-147.392 -273.977 -1442 41 41 39
-144.367 -273.749 -1441 41 41 39
-141.347 -273.522 -1440 43 43 41
-138.525 -273.676 -1441 44 44 42
-135.699 -273.831 -1442 46 44 42
-132.595 -273.416 -1440 45 44 41
-129.77 -273.572 -1441 45 45 41
-126.942 -273.729 -1442 48 48 44
-123.939 -273.507 -1441 49 49 45
-121.025 -273.475 -1441 49 49 47
-118.194 -273.634 -1442 50 50 48
-115.28 -273.604 -1442 50 50 48
-112.523 -273.954 -1444 48 48 46
-109.607 -273.925 -1444 48 48 46
-106.692 -273.897 -1444 49 49 47
-103.921 -274.249 -1446 50 50 48
-101.073 -274.413 -1447 48 48 46
-98.2223 -274.577 -1448 48 48 46
-95.3024 -274.552 -1448 49 49 47
-92.5108 -274.907 -1450 50 50 48
-89.5884 -274.883 -1450 51 51 49
-86.7265 -275.05 -1451 51 51 49
-83.8613 -275.218 -1452 51 51 49
-81.1042 -275.765 -1455 52 52 50
-78.2282 -275.934 -1456 54 54 52
-75.4523 -276.483 -1459 56 56 54
-72.6649 -277.032 -1462 57 57 55
-69.8184 -277.393 -1464 58 58 56
-66.9644 -277.754 -1466 61 61 59
-64.1465 -278.306 -1469 61 61 59
-61.2754 -278.668 -1471 65 65 63
-58.4761 -279.411 -1475 64 64 62
-55.6236 -279.964 -1478 65 65 63
-52.8663 -281.087 -1484 63 63 61
-49.9845 -281.642 -1487 60 60 58
-47.1543 -282.576 -1492 58 58 56
-44.3043 -283.512 -1497 57 57 55
-41.4898 -284.826 -1504 56 56 54
-38.5451 -285.384 -1507 56 56 52
-35.7066 -286.889 -1515 56 56 53
-32.7932 -288.017 -1521 57 57 55
-29.8559 -289.145 -1527 51 51 47
-26.8596 -289.895 -1531 35 35 32
-23.8009 -290.078 -1532 34 34 32
-20.7384 -290.262 -1533 38 38 38
-17.7182 -291.204 -1538 48 48 49
-14.716 -292.903 -1547 121 125 128
-213.569 -291.893 -1515 63 67 62
-208.382 -288.948 -1500 56 60 54
-203.259 -286.004 -1485 52 55 50
-199.142 -284.411 -1477 50 53 48
-195.193 -283.011 -1470 49 52 47
-191.536 -281.997 -1465 49 49 45
-188.158 -281.37 -1462 48 48 44
-185.047 -281.129 -1461 49 49 47
-181.817 -280.696 -1459 50 50 48
-178.351 -279.879 -1455 53 53 51
-175.265 -279.64 -1454 55 55 53
-171.948 -279.018 -1451 54 54 52
-168.993 -278.973 -1451 51 51 49
-165.926 -278.737 -1450 51 51 49
-162.864 -278.502 -1449 50 50 48
-159.586 -277.883 -1446 49 49 47
-156.539 -277.649 -1445 47 49 46
-153.285 -277.032 -1442 45 48 45
-150.148 -276.608 -1440 45 45 43
-147.328 -276.761 -1441 45 45 43
-144.304 -276.531 -1440 47 47 45
-141.285 -276.302 -1439 47 47 45
-138.368 -276.265 -1439 45 45 43
-135.452 -276.229 -1439 44 42 40
-132.537 -276.194 -1439 41 40 37
-129.714 -276.352 -1440 41 41 37
-126.799 -276.318 -1440 43 43 39
-123.885 -276.286 -1440 43 43 39
-120.973 -276.254 -1440 43 43 41
-118.143 -276.414 -1441 45 45 43
-115.23 -276.384 -1441 45 45 43
-112.396 -276.546 -1442 46 46 44
-109.483 -276.517 -1442 46 46 44
-106.645 -276.681 -1443 46 46 44
-103.876 -277.037 -1445 48 48 46
-100.96 -277.01 -1445 49 49 47
-98.0443 -276.984 -1445 50 50 48
-95.1296 -276.959 -1445 50 50 48
-92.471 -277.701 -1449 51 51 49
-89.488 -277.486 -1448 52 52 50
-86.6294 -277.654 -1449 52 52 50
-83.8252 -278.015 -1451 51 51 49
-81.1252 -278.76 -1455 52 52 50
-78.2485 -278.931 -1456 55 55 53
-75.4201 -279.294 -1458 56 56 54
-72.634 -279.85 -1461 57 57 55
-69.7888 -280.214 -1463 58 58 56
-66.8903 -280.388 -1464 63 63 61
-64.0757 -280.945 -1467 64 64 62
-61.2496 -281.504 -1470 68 68 66
-58.4912 -282.446 -1475 67 67 65
-55.6379 -283.005 -1478 66 66 64
-52.8443 -283.948 -1483 66 66 64
-49.9302 -284.318 -1485 65 65 63
-47.1348 -285.454 -1491 65 65 63
-44.2861 -286.4 -1496 66 66 64
-41.4453 -287.537 -1502 64 64 62
-38.5039 -288.101 -1505 61 61 57
-35.6216 -289.24 -1511 61 61 58
-32.737 -290.571 -1518 63 63 61
-29.8049 -291.711 -1524 56 56 52
-26.8139 -292.47 -1528 27 27 24
-23.8226 -293.42 -1533 21 21 19
-20.7708 -293.797 -1535 34 34 33
-17.7458 -294.749 -1540 42 43 43
-14.7197 -296.084 -1547 84 88 91
-219.449 -298.791 -1534 77 83 82
-212.92 -294.059 -1510 64 68 63
-208.021 -291.471 -1497 57 60 55
-203.176 -288.886 -1484 54 57 52
-199.06 -287.275 -1476 51 54 49
-194.979 -285.666 -1468 48 51 46
-191.456 -284.836 -1464 47 47 43
-187.95 -284.007 -1460 47 47 43
-184.842 -283.763 -1459 48 48 46
-181.74 -283.52 -1458 47 47 45
-178.398 -282.889 -1455 47 47 45
-175.311 -282.648 -1454 48 48 46
-171.993 -282.019 -1451 49 49 47
-168.921 -281.779 -1450 49 49 47
-165.855 -281.54 -1449 49 49 47
-162.794 -281.303 -1448 49 49 47
-159.518 -280.677 -1445 51 52 50
-156.472 -280.441 -1444 51 53 50
-153.325 -280.011 -1442 47 50 47
-150.188 -279.583 -1440 48 48 46
-147.264 -279.544 -1440 50 50 48
-144.342 -279.505 -1440 51 51 49
-141.224 -279.079 -1438 49 49 47
-138.405 -279.236 -1439 49 49 47
-135.488 -279.2 -1439 52 50 48
-132.572 -279.165 -1439 49 48 45
-129.658 -279.13 -1439 45 45 41
-126.832 -279.29 -1440 44 46 41
-123.918 -279.257 -1440 44 46 42
-121.004 -279.225 -1440 40 40 38
-118.092 -279.193 -1440 38 38 36
-115.1 -278.968 -1439 38 38 36
-112.192 -278.938 -1439 39 39 37
-109.284 -278.909 -1439 41 41 39
-106.452 -279.075 -1440 41 41 39
-103.687 -279.434 -1442 44 44 42
-100.846 -279.601 -1443 48 48 46
-98.0699 -279.962 -1445 50 50 48
-95.2203 -280.131 -1446 49 49 47
-92.4952 -280.687 -1449 48 48 46
-89.4496 -280.276 -1447 50 50 48
-86.5324 -280.253 -1447 51 51 49
-83.7316 -280.618 -1449 51 51 49
-80.9233 -280.983 -1451 53 53 51
-78.1076 -281.35 -1453 56 56 54
-75.3881 -282.104 -1457 55 55 53
-72.6033 -282.665 -1460 55 55 53
-69.8069 -283.227 -1463 57 57 55
-66.9535 -283.597 -1465 59 59 57
-64.1361 -284.16 -1468 60 60 58
-61.3073 -284.724 -1471 65 65 63
-58.4272 -285.096 -1473 64 64 62
-55.5395 -285.468 -1475 64 64 62
-52.8225 -286.808 -1482 63 63 61
-49.9096 -287.182 -1484 61 61 59
-47.0522 -287.943 -1488 60 60 58
-44.2385 -289.092 -1494 59 59 57
-41.3457 -289.855 -1498 59 59 57
-38.4116 -290.425 -1501 59 59 55
-35.5601 -291.77 -1508 57 57 55
-32.6592 -292.921 -1514 55 55 53
-29.7736 -294.461 -1522 56 56 52
-26.8384 -295.808 -1529 31 31 28
-23.891 -297.349 -1537 21 21 19
-20.8304 -297.73 -1539 24 25 25
-17.808 -298.886 -1545 36 37 37
-14.7807 -300.429 -1553 64 68 71
-218.22 -300.201 -1525 69 73 71
-212.695 -296.797 -1508 65 68 63
-207.242 -293.395 -1491 59 62 57
-202.682 -291.176 -1480 58 61 56
-198.844 -289.941 -1474 52 55 50
-195.031 -288.708 -1468 48 51 46
-191.376 -287.673 -1463 51 51 47
-188.129 -287.229 -1461 53 53 49
-184.891 -286.785 -1459 52 52 50
-181.664 -286.343 -1457 51 51 49
-178.323 -285.705 -1454 49 49 47
-175.238 -285.461 -1453 48 48 46
-171.92 -284.825 -1450 50 50 48
-168.85 -284.583 -1449 50 50 48
-165.785 -284.342 -1448 50 50 48
-162.613 -283.905 -1446 51 51 49
-159.45 -283.47 -1444 49 52 49
-156.297 -283.035 -1442 47 50 47
-153.153 -282.601 -1440 44 47 44
-150.124 -282.364 -1439 46 46 44
-147.201 -282.324 -1439 49 49 47
-144.38 -282.481 -1440 49 49 47
-141.164 -281.855 -1437 50 50 48
-138.441 -282.21 -1439 51 51 49
-135.524 -282.173 -1439 53 52 50
-132.7 -282.333 -1440 51 50 47
-129.692 -282.102 -1439 49 49 45
-126.866 -282.264 -1440 48 51 46
-123.864 -282.034 -1439 50 53 48
-120.868 -281.806 -1438 51 51 49
-117.877 -281.578 -1437 50 50 48
-115.051 -281.743 -1438 50 50 48
-112.222 -281.908 -1439 50 50 48
-109.313 -281.879 -1439 47 47 45
-106.48 -282.046 -1440 43 43 41
-103.787 -282.606 -1443 40 40 38
-100.803 -282.382 -1442 44 44 42
-98.028 -282.748 -1444 45 45 43
-95.1138 -282.722 -1444 42 42 40
-92.2643 -282.893 -1445 42 42 40
-89.2878 -282.673 -1444 43 43 41
-86.4357 -282.845 -1445 43 43 41
-83.6382 -283.214 -1447 45 45 43
-80.8889 -283.779 -1450 48 48 46
-78.0746 -284.15 -1452 52 52 50
-75.3563 -284.912 -1456 52 52 50
-72.5728 -285.479 -1459 51 51 49
-69.73 -285.852 -1461 54 54 52
-66.8798 -286.225 -1463 57 57 55
-64.1094 -286.99 -1467 57 57 55
-61.2401 -287.364 -1469 62 62 60
-58.4427 -288.131 -1473 62 62 60
-55.5919 -288.703 -1476 63 63 61
-52.8008 -289.666 -1481 62 62 60
-49.9564 -290.435 -1485 62 62 60
-47.0647 -291.009 -1488 63 63 61
-44.1909 -291.779 -1492 62 62 60
-41.3291 -292.745 -1497 61 61 58
-38.4217 -293.517 -1501 59 59 56
-35.5459 -294.68 -1507 58 58 56
-32.6462 -295.845 -1513 57 57 55
-29.7228 -297.009 -1519 56 56 52
-26.8631 -299.153 -1530 39 39 36
-23.9284 -300.906 -1539 27 27 25
-20.9442 -302.464 -1547 20 21 21
-17.9279 -304.023 -1555 33 35 36
-14.8702 -305.387 -1562 54 58 61
-224.748 -308.004 -1548 104 109 112
-218.136 -303.169 -1524 68 72 69
-211.906 -298.734 -1502 66 69 64
-207.02 -296.092 -1489 62 65 59
-202.6 -294.048 -1479 60 63 58
-198.763 -292.8 -1473 54 57 52
-195.084 -291.753 -1468 51 54 49
-191.297 -290.508 -1462 53 53 49
-188.051 -290.059 -1460 52 52 48
-184.815 -289.611 -1458 52 52 50
-181.713 -289.363 -1457 53 53 51
-178.617 -289.115 -1456 51 51 49
-175.526 -288.869 -1455 51 51 49
-172.204 -288.226 -1452 51 51 49
-169.012 -287.783 -1450 50 50 48
-165.715 -287.142 -1447 49 49 47
-162.544 -286.701 -1445 48 49 47
-159.383 -286.26 -1443 47 50 47
-156.339 -286.019 -1442 46 49 46
-153.088 -285.383 -1439 45 48 45
-150.164 -285.341 -1439 47 47 45
-147.138 -285.103 -1438 49 49 47
-144.319 -285.262 -1439 49 49 47
-141.202 -284.827 -1437 48 48 46
-138.382 -284.987 -1438 50 50 48
-135.372 -284.752 -1437 50 50 48
-132.643 -285.112 -1439 49 49 46
-129.637 -284.879 -1438 49 49 45
-126.724 -284.844 -1438 48 51 46
-123.726 -284.612 -1437 51 53 49
-120.817 -284.579 -1437 51 51 49
-117.745 -284.151 -1435 51 51 49
-114.922 -284.317 -1436 50 50 48
-112.096 -284.485 -1437 52 52 50
-109.191 -284.455 -1437 53 53 51
-106.36 -284.624 -1438 50 50 48
-103.671 -285.19 -1441 46 46 44
-100.76 -285.162 -1441 47 47 45
-97.9863 -285.531 -1443 48 48 46
-95.1393 -285.703 -1444 46 46 44
-92.2251 -285.678 -1444 46 46 44
-89.3117 -285.653 -1444 47 47 45
-86.399 -285.63 -1444 46 46 44
-83.6605 -286.2 -1447 48 48 46
-80.8547 -286.574 -1449 48 48 46
-78.0954 -287.145 -1452 49 49 47
-75.3247 -287.718 -1455 47 47 45
-72.5922 -288.489 -1459 43 43 41
-69.8441 -289.261 -1463 44 44 42
-66.9434 -289.44 -1464 47 47 45
-64.1265 -290.016 -1467 50 50 48
-61.2147 -290.196 -1468 53 53 51
-58.3789 -290.773 -1471 45 45 43
-55.5314 -291.351 -1474 44 44 42
-52.6722 -291.93 -1477 54 54 52
-49.8688 -292.904 -1482 60 60 58
-47.0456 -293.879 -1487 61 61 59
-44.1434 -294.46 -1490 61 61 59
-41.202 -294.844 -1492 61 61 59
-38.304 -295.623 -1496 61 61 58
-35.461 -296.997 -1503 57 57 55
-32.5902 -298.371 -1510 55 55 53
-29.7111 -299.943 -1518 53 53 50
-26.8703 -302.307 -1530 42 43 40
-24.0281 -305.264 -1545 31 33 31
-21.1258 -308.221 -1560 34 36 36
-18.1173 -310.389 -1571 31 33 33
-15.0837 -312.953 -1584 51 55 58
-223.212 -309.009 -1537 72 75 79
-217.193 -304.928 -1517 65 69 66
-211.4 -301.05 -1498 62 65 60
-206.243 -297.979 -1483 58 61 55
-202.382 -296.717 -1477 59 62 57
-198.547 -295.457 -1471 54 57 52
-195.004 -294.599 -1467 55 58 53
-191.349 -293.542 -1462 56 56 52
-188.102 -293.089 -1460 53 53 49
-184.738 -292.435 -1457 54 54 52
-181.513 -291.984 -1455 54 54 52
-178.42 -291.734 -1454 52 52 50
-175.212 -291.284 -1452 51 51 49
-172.014 -290.835 -1450 51 51 49
-168.941 -290.588 -1449 51 51 49
-165.645 -289.941 -1446 50 50 48
-162.476 -289.495 -1444 48 49 47
-159.426 -289.25 -1443 48 51 48
-156.49 -289.207 -1443 48 51 48
-153.236 -288.563 -1440 46 49 46
-150.205 -288.322 -1439 45 46 44
-147.281 -288.281 -1439 47 48 46
-144.258 -288.041 -1438 49 49 47
-141.142 -287.601 -1436 48 48 46
-138.227 -287.563 -1436 47 47 45
-135.409 -287.726 -1437 48 48 46
-132.587 -287.889 -1438 49 49 46
-129.672 -287.854 -1438 48 50 45
-126.758 -287.819 -1438 48 51 46
-123.759 -287.584 -1437 50 53 48
-120.681 -287.151 -1435 52 52 50
-117.694 -286.918 -1434 50 50 48
-114.873 -287.087 -1435 50 50 48
-111.97 -287.056 -1435 52 52 50
-109.144 -287.226 -1436 53 53 51
-106.315 -287.396 -1437 50 50 48
-103.627 -287.968 -1440 49 50 48
-100.648 -287.74 -1439 49 50 48
-97.8092 -287.913 -1440 50 51 49
-94.9015 -287.887 -1440 50 50 48
-92.1223 -288.261 -1442 50 50 48
-89.2121 -288.236 -1442 49 49 47
-86.4224 -288.612 -1444 48 48 46
-83.6832 -289.189 -1447 51 51 49
-80.8766 -289.566 -1449 51 51 49
-78.1166 -290.144 -1452 50 50 48
-75.345 -290.722 -1455 50 50 48
-72.562 -291.302 -1458 48 48 46
-69.7675 -291.882 -1461 42 42 40
-66.9614 -292.462 -1464 33 33 31
-64.0564 -292.644 -1465 51 51 49
-61.1062 -292.627 -1465 61 61 59
-58.2755 -293.21 -1468 56 56 54
-55.3956 -293.594 -1470 56 56 54
-52.6508 -294.778 -1476 50 50 48
-49.7813 -295.363 -1479 44 44 42
-46.9317 -296.149 -1483 42 42 40
-44.1257 -297.335 -1489 46 46 44
-41.1855 -297.723 -1491 45 45 43
-38.3399 -298.91 -1497 43 43 41
-35.4942 -300.298 -1504 46 46 44
-32.599 -301.486 -1510 49 49 47
-29.6995 -302.875 -1517 54 54 52
-26.8423 -305.064 -1528 50 51 48
-24.019 -308.251 -1544 37 40 37
-21.2264 -312.837 -1567 42 44 44
-18.2721 -316.226 -1584 23 26 26
-228.494 -315.113 -1551 104 108 111
-222.838 -311.597 -1534 65 69 70
-215.964 -306.255 -1508 64 67 62
-211.035 -303.556 -1495 56 59 54
-206.16 -300.859 -1482 55 58 53
-202.301 -299.584 -1476 54 57 52
-198.467 -298.311 -1470 52 55 50
-194.792 -297.241 -1465 54 57 52
-191.14 -296.173 -1460 55 55 51
-187.767 -295.512 -1457 53 53 49
-184.536 -295.055 -1455 54 54 52
-181.189 -294.396 -1452 55 55 53
-178.101 -294.144 -1451 53 53 51
-175.019 -293.892 -1450 53 53 51
-171.942 -293.641 -1449 54 54 52
-168.755 -293.189 -1447 54 54 52
-165.462 -292.535 -1444 52 52 50
-162.183 -291.882 -1441 51 51 49
-159.138 -291.635 -1440 47 50 47
-156.208 -291.591 -1440 46 49 46
-153.066 -291.143 -1438 45 48 45
-150.142 -291.102 -1438 45 48 45
-147.116 -290.858 -1437 47 49 46
-143.996 -290.413 -1435 50 50 48
-141.082 -290.374 -1435 50 50 48
-138.169 -290.335 -1435 48 48 46
-135.257 -290.297 -1435 48 48 46
-132.439 -290.463 -1436 49 50 47
-129.437 -290.224 -1435 47 50 45
-126.528 -290.189 -1435 46 49 44
-123.621 -290.155 -1435 48 50 46
-120.546 -289.717 -1433 48 48 46
-117.562 -289.482 -1432 49 49 47
-114.824 -289.854 -1434 50 50 48
-111.845 -289.62 -1433 51 51 49
-109.022 -289.792 -1434 50 50 48
-106.27 -290.167 -1436 48 48 46
-103.583 -290.744 -1439 46 49 46
-100.675 -290.716 -1439 47 50 47
-97.7679 -290.688 -1439 47 50 47
-94.9274 -290.864 -1440 47 48 46
-92.0837 -291.04 -1441 47 47 45
-89.1747 -291.015 -1441 48 48 46
-86.446 -291.597 -1444 49 49 47
-83.706 -292.179 -1447 51 51 49
-80.7871 -292.157 -1447 51 51 49
-78.0303 -292.741 -1450 50 50 48
-75.3655 -293.729 -1455 50 50 48
-72.5321 -294.113 -1457 49 49 47
-69.7388 -294.699 -1460 45 45 43
-66.934 -295.285 -1463 32 32 30
-64.0302 -295.469 -1464 52 52 50
-61.1229 -295.654 -1465 67 67 65
-58.2517 -296.041 -1467 63 63 61
-55.3354 -296.227 -1468 63 63 61
-52.5581 -297.221 -1473 65 65 63
-49.6939 -297.813 -1476 67 67 65
-46.7863 -298.203 -1478 65 65 63
-43.96 -299.199 -1483 65 65 63
-41.1415 -300.398 -1489 65 65 63
-38.2991 -301.598 -1495 64 64 62
-35.4567 -303 -1502 61 61 59
-32.651 -305.008 -1512 58 58 56
-29.7663 -306.613 -1520 60 60 58
-27.0254 -310.236 -1538 56 57 55
-24.2434 -314.263 -1558 44 47 44
-21.3541 -317.888 -1576 36 38 38
-18.3463 -320.706 -1590 20 23 23
-228.115 -317.727 -1548 60 64 64
-221.883 -313.354 -1527 70 73 72
-215.452 -308.573 -1504 63 66 61
-210.529 -305.846 -1491 53 56 52
-205.662 -303.122 -1478 53 56 52
-201.672 -301.629 -1471 51 54 49
-197.982 -300.548 -1466 51 54 49
-194.714 -300.082 -1464 53 56 51
-191.062 -299.003 -1459 57 57 53
-187.82 -298.541 -1457 56 56 53
-184.333 -297.669 -1453 56 56 54
-180.99 -297.003 -1450 57 57 55
-177.905 -296.748 -1449 57 57 55
-174.826 -296.494 -1448 55 55 53
-171.634 -296.036 -1446 54 54 52
-168.452 -295.579 -1444 53 53 51
-165.164 -294.918 -1441 51 51 49
-162.003 -294.463 -1439 53 53 51
-158.962 -294.214 -1438 48 51 48
-155.926 -293.965 -1437 46 49 46
-153.002 -293.922 -1437 45 48 45
-150.183 -294.084 -1438 47 50 47
-147.055 -293.634 -1436 48 51 48
-144.036 -293.389 -1435 50 52 50
-141.023 -293.144 -1434 51 51 49
-138.111 -293.106 -1434 49 49 47
-135.2 -293.067 -1434 47 47 45
-132.383 -293.234 -1435 49 50 47
-129.473 -293.198 -1435 47 50 45
-126.475 -292.958 -1434 45 48 43
-123.569 -292.923 -1434 46 49 44
-120.579 -292.685 -1433 45 45 43
-117.595 -292.447 -1432 46 46 44
-114.696 -292.415 -1432 49 49 47
-111.875 -292.588 -1433 51 51 49
-109.128 -292.965 -1435 49 49 47
-106.374 -293.344 -1437 47 47 45
-103.612 -293.723 -1439 43 45 43
-100.633 -293.49 -1438 43 46 43
-97.727 -293.463 -1438 45 48 45
-94.8218 -293.436 -1438 46 47 45
-92.0451 -293.818 -1440 46 46 44
-89.1993 -293.997 -1441 48 48 46
-86.4699 -294.585 -1444 50 50 48
-83.7292 -295.173 -1447 52 52 50
-80.8652 -295.354 -1448 50 50 48
-78.1057 -295.944 -1451 50 50 48
-75.2828 -296.33 -1453 52 52 50
-72.552 -297.126 -1457 55 55 53
-69.758 -297.718 -1460 53 53 51
-66.9067 -298.107 -1462 39 39 37
-63.9603 -298.088 -1462 49 49 47
-61.0562 -298.275 -1463 65 65 63
-58.1486 -298.462 -1464 63 63 61
-55.3129 -299.058 -1467 63 63 61
-52.4299 -299.451 -1469 63 63 61
-49.5729 -300.048 -1472 63 63 61
-46.7675 -301.054 -1477 63 63 61
-43.9127 -301.857 -1481 63 63 61
-41.1528 -303.476 -1489 64 64 62
-38.3097 -304.687 -1495 62 62 60
-35.49 -306.308 -1503 63 63 61
-32.6384 -307.929 -1511 63 63 61
-29.7942 -309.958 -1521 58 58 56
-27.0152 -313.211 -1537 57 58 56
-24.2345 -317.279 -1557 52 55 52
-21.3464 -320.94 -1575 37 39 39
-18.3976 -324.807 -1594 18 21 21
-233.307 -323.714 -1561 104 107 111
-227.001 -319.294 -1540 69 73 69
-221.219 -315.499 -1522 66 69 64
-215.369 -311.499 -1503 62 65 60
-210.165 -308.33 -1488 58 61 58
-205.302 -305.577 -1475 53 56 53
-201.728 -304.691 -1471 48 51 46
-197.903 -303.392 -1465 48 51 46
-194.37 -302.508 -1461 49 52 47
-190.854 -301.625 -1457 53 53 49
-187.615 -301.157 -1455 52 52 49
-184.131 -300.277 -1451 52 52 50
-180.791 -299.604 -1448 54 54 52
-177.832 -299.554 -1448 56 56 54
-174.634 -299.09 -1446 56 56 54
-171.445 -298.628 -1444 56 56 54
-168.266 -298.166 -1442 55 55 53
-165.096 -297.705 -1440 53 53 51
-161.936 -297.246 -1438 53 53 51
-158.896 -296.994 -1437 50 53 50
-156.078 -297.156 -1438 50 53 50
-153.151 -297.112 -1438 48 51 48
-150.121 -296.863 -1437 48 51 48
-147.096 -296.614 -1436 48 51 48
-143.976 -296.16 -1434 48 51 48
-140.964 -295.914 -1433 51 52 49
-137.957 -295.668 -1432 51 51 49
-135.05 -295.629 -1432 49 49 47
-132.143 -295.592 -1432 49 50 47
-129.238 -295.555 -1432 48 51 46
-126.246 -295.313 -1431 46 49 44
-123.431 -295.484 -1432 45 48 43
-120.445 -295.243 -1431 48 49 47
-117.464 -295.003 -1430 49 50 48
-114.568 -294.971 -1430 51 52 50
-111.829 -295.351 -1432 50 51 49
-108.931 -295.32 -1432 47 47 45
-106.181 -295.703 -1434 45 46 44
-103.425 -296.085 -1436 42 45 42
-100.521 -296.057 -1436 43 46 43
-97.6864 -296.235 -1437 44 47 44
-94.7823 -296.208 -1437 46 48 45
-92.0069 -296.594 -1439 47 47 45
-89.2242 -296.981 -1441 48 48 46
-86.4941 -297.574 -1444 49 49 47
-83.6367 -297.757 -1445 51 51 49
-80.832 -298.146 -1447 51 51 49
-78.0736 -298.742 -1450 50 50 48
-75.252 -299.132 -1452 51 51 49
-72.4727 -299.729 -1455 56 56 54
-69.6818 -300.327 -1458 57 57 55
-66.8338 -300.72 -1460 51 51 48
-63.8907 -300.702 -1460 50 50 47
-61.0315 -301.096 -1462 65 65 62
-58.1251 -301.286 -1463 66 66 63
-55.2906 -301.888 -1466 63 63 60
-52.4087 -302.284 -1468 59 59 56
-49.5193 -302.682 -1470 59 59 56
-46.7171 -303.698 -1475 61 61 58
-43.8953 -304.715 -1480 61 61 59
-41.0813 -305.938 -1486 59 59 57
-38.2947 -307.574 -1494 55 55 53
-35.4763 -309.211 -1502 56 56 54
-32.6475 -311.054 -1511 58 58 56
-29.8612 -313.721 -1524 54 54 52
-27.0931 -317.213 -1541 58 59 57
-24.3503 -321.94 -1564 58 61 58
-21.4472 -325.639 -1582 42 45 44
-18.4372 -328.721 -1597 16 19 19
-232.028 -325.086 -1552 73 77 79
-226.034 -321.04 -1533 66 69 64
-220.7 -317.835 -1518 64 67 61
-215.288 -314.423 -1502 63 66 59
-210.084 -311.222 -1487 61 64 59
-205.221 -308.442 -1474 54 57 54
-201.374 -307.128 -1468 47 50 45
-197.554 -305.816 -1462 47 50 45
-194.292 -305.342 -1460 48 51 46
-190.647 -304.241 -1455 51 51 47
-187.539 -303.978 -1454 49 49 45
-184.184 -303.297 -1451 49 49 47
-180.842 -302.618 -1448 48 48 46
-177.514 -301.94 -1445 49 49 47
-174.321 -301.472 -1443 51 51 49
-171.256 -301.214 -1442 51 51 49
-168.197 -300.956 -1441 52 52 50
-165.028 -300.491 -1439 51 51 49
-161.869 -300.027 -1437 51 51 49
-158.83 -299.772 -1436 50 53 50
-156.014 -299.936 -1437 50 53 50
-152.875 -299.474 -1435 48 52 49
-150.059 -299.64 -1436 48 51 48
-146.933 -299.18 -1434 48 51 48
-144.017 -299.139 -1434 48 51 48
-141.004 -298.89 -1433 50 51 48
-137.9 -298.433 -1431 51 51 49
-134.994 -298.394 -1431 51 51 49
-131.996 -298.148 -1430 49 50 47
-129.185 -298.319 -1431 49 52 47
-126.193 -298.074 -1430 49 52 47
-123.38 -298.247 -1431 48 51 46
-120.311 -297.796 -1429 50 53 50
-117.415 -297.762 -1429 50 53 50
-114.6 -297.937 -1430 51 54 51
-111.782 -298.113 -1431 49 52 49
-108.885 -298.082 -1431 46 49 46
-106.137 -298.468 -1433 44 47 44
-103.454 -299.063 -1436 46 49 46
-100.48 -298.826 -1435 46 49 46
-97.646 -299.006 -1436 45 48 45
-94.809 -299.187 -1437 47 48 46
-91.9689 -299.369 -1438 48 49 47
-89.1874 -299.759 -1440 50 50 48
-86.4585 -300.359 -1443 51 51 49
-83.6024 -300.543 -1444 52 52 50
-80.7988 -300.936 -1446 54 54 52
-77.9879 -301.33 -1448 54 54 52
-75.1695 -301.724 -1450 56 56 54
-72.3436 -302.119 -1452 60 60 58
-69.5581 -302.723 -1455 62 62 60
-66.7152 -303.12 -1457 53 53 49
-63.8211 -303.31 -1458 50 50 46
-60.9652 -303.708 -1460 65 65 61
-58.1018 -304.107 -1462 65 65 61
-55.193 -304.299 -1463 63 63 59
-52.3878 -305.116 -1467 62 62 58
-49.5669 -305.933 -1471 63 63 59
-46.7303 -306.752 -1475 61 61 57
-43.878 -307.571 -1479 60 60 58
-41.1205 -309.222 -1487 60 60 58
-38.2798 -310.459 -1493 56 56 54
-35.4862 -312.32 -1502 55 55 53
-32.6567 -314.182 -1511 55 55 53
-29.8304 -316.46 -1522 54 54 52
-27.048 -319.779 -1538 59 60 58
-24.2947 -324.346 -1560 64 67 64
-21.4668 -329.121 -1583 46 49 48
-18.4309 -331.818 -1596 15 18 18
-236.504 -330.087 -1560 108 112 118
-230.6 -326.211 -1542 68 72 73
-225.066 -322.76 -1526 67 70 64
-219.892 -319.735 -1512 62 65 58
-214.346 -316.077 -1495 58 60 53
-209.579 -313.479 -1483 58 61 56
-205.42 -311.728 -1475 50 53 49
-201.158 -309.767 -1466 47 50 45
-197.205 -308.231 -1459 47 50 45
-194.215 -308.174 -1459 49 52 47
-190.439 -306.851 -1453 50 50 46
-187.206 -306.374 -1451 50 50 46
-184.11 -306.109 -1450 50 50 48
-180.769 -305.423 -1447 50 50 48
-177.688 -305.161 -1446 50 50 48
-174.492 -304.687 -1444 48 48 46
-171.305 -304.216 -1442 46 46 44
-168.128 -303.745 -1440 45 45 43
-164.961 -303.275 -1438 48 48 46
-161.803 -302.806 -1436 51 51 49
-158.765 -302.549 -1435 47 50 47
-155.841 -302.504 -1435 46 49 46
-152.812 -302.248 -1434 45 49 46
-149.893 -302.205 -1434 45 48 45
-146.873 -301.951 -1433 45 48 45
-143.857 -301.699 -1432 47 50 47
-140.848 -301.447 -1431 48 50 47
-137.747 -300.986 -1429 50 50 48
-134.749 -300.736 -1428 52 52 50
-131.757 -300.487 -1427 51 52 49
-128.951 -300.66 -1428 50 53 48
-125.965 -300.413 -1427 51 54 49
-123.156 -300.588 -1428 50 53 49
-120.261 -300.553 -1428 49 52 49
-117.366 -300.519 -1428 49 52 49
-114.553 -300.696 -1429 51 54 51
-111.658 -300.663 -1429 51 54 51
-108.916 -301.052 -1431 46 49 46
-106.093 -301.232 -1432 46 49 46
-103.339 -301.623 -1434 50 53 50
-100.438 -301.593 -1434 48 51 48
-97.6738 -301.985 -1436 46 49 46
-94.7701 -301.958 -1436 48 51 48
-91.9312 -302.141 -1437 49 51 49
-89.089 -302.326 -1438 51 51 49
-86.3033 -302.721 -1440 51 51 49
-83.4525 -302.907 -1441 52 52 50
-80.7101 -303.514 -1444 55 55 53
-77.9562 -304.122 -1447 55 55 53
-75.1908 -304.73 -1450 55 55 53
-72.3144 -304.92 -1451 54 54 52
-69.5301 -305.53 -1454 54 54 52
-66.6884 -305.93 -1456 50 50 47
-63.7517 -305.912 -1456 50 50 46
-60.899 -306.314 -1458 65 65 61
-58.0388 -306.717 -1460 62 62 58
-55.2464 -307.541 -1464 62 62 58
-52.367 -307.946 -1466 60 60 56
-49.6148 -309.192 -1472 60 60 56
-46.7119 -309.598 -1474 61 61 57
-43.8904 -310.635 -1479 61 61 59
-41.0492 -311.674 -1484 61 61 59
-38.2395 -313.132 -1491 57 57 55
-35.4254 -314.802 -1499 55 55 53
-32.6227 -316.892 -1509 53 53 51
-29.8193 -319.403 -1521 53 53 53
-27.1436 -324.015 -1543 57 58 57
-24.473 -329.887 -1571 62 65 62
-21.5678 -333.87 -1590 43 47 46
-18.5054 -336.384 -1602 14 18 18
-234.45 -330.356 -1546 74 79 84
-229.171 -327.297 -1532 66 70 73
-223.657 -323.812 -1516 67 70 64
-219.374 -322.039 -1508 64 67 59
-213.835 -318.345 -1491 55 56 49
-209.64 -316.575 -1483 53 55 50
-204.922 -313.953 -1471 48 51 47
-201.354 -313.04 -1467 46 49 44
-197.398 -311.488 -1460 48 51 46
-194.005 -310.791 -1457 48 51 47
-190.626 -310.095 -1454 49 50 46
-187.39 -309.613 -1452 50 50 46
-184.036 -308.92 -1449 50 50 48
-180.947 -308.653 -1448 51 51 49
-177.617 -307.961 -1445 53 52 50
-174.422 -307.484 -1443 51 51 49
-171.236 -307.007 -1441 51 51 49
-168.06 -306.532 -1439 51 51 49
-165.009 -306.27 -1438 51 51 49
-161.85 -305.797 -1436 49 49 47
-158.7 -305.324 -1434 46 49 46
-155.778 -305.278 -1434 45 48 45
-152.856 -305.234 -1434 44 48 45
-149.832 -304.977 -1433 44 47 44
-146.813 -304.721 -1432 43 46 43
-143.899 -304.678 -1432 45 48 45
-140.888 -304.424 -1431 47 48 46
-137.786 -303.958 -1429 48 48 46
-134.883 -303.919 -1429 49 50 48
-131.887 -303.667 -1428 50 52 49
-128.988 -303.629 -1428 49 52 48
-126.001 -303.38 -1427 49 52 48
-123.106 -303.344 -1427 49 51 47
-120.211 -303.308 -1427 48 50 48
-117.318 -303.274 -1427 50 51 49
-114.505 -303.453 -1428 52 53 51
-111.69 -303.632 -1429 52 53 51
-108.948 -304.025 -1431 47 49 46
-106.124 -304.207 -1432 48 49 47
-103.297 -304.389 -1433 50 53 49
-100.467 -304.572 -1434 50 53 49
-97.6339 -304.755 -1435 50 53 50
-94.7314 -304.727 -1435 49 52 49
-91.8296 -304.7 -1435 48 51 48
-89.0527 -305.099 -1437 51 51 49
-86.2683 -305.498 -1439 51 51 49
-83.5345 -306.11 -1442 53 53 50
-80.7333 -306.511 -1444 55 55 52
-77.9247 -306.913 -1446 54 54 52
-75.1607 -307.527 -1449 54 53 51
-72.3352 -307.931 -1451 51 50 48
-69.4544 -308.122 -1452 47 47 45
-66.5701 -308.315 -1453 40 40 37
-63.6825 -308.508 -1454 38 38 35
-60.7494 -308.49 -1454 63 63 59
-57.8964 -308.897 -1456 62 62 59
-55.1113 -309.73 -1460 59 59 56
-52.3105 -310.563 -1464 59 61 56
-49.5278 -311.609 -1469 60 61 57
-46.7253 -312.655 -1474 61 61 58
-43.9031 -313.703 -1479 62 62 60
-41.0056 -314.327 -1482 61 61 59
-38.1734 -315.588 -1488 58 58 56
-35.341 -317.062 -1495 56 56 54
-32.524 -318.961 -1504 55 55 53
-29.769 -321.921 -1518 54 54 53
-27.0633 -326.154 -1538 59 60 59
-24.3398 -331.236 -1562 64 66 64
-21.5469 -336.743 -1588 40 44 43
-18.5685 -340.766 -1607 14 17 18
-233.154 -331.648 -1537 67 71 74
-228.341 -329.207 -1526 68 71 71
-223.28 -326.335 -1513 68 71 64
-218.129 -323.251 -1499 68 70 63
-213.18 -320.384 -1486 57 60 53
-209.277 -319.028 -1480 51 53 48
-205.261 -317.458 -1473 43 46 43
-201.688 -316.536 -1469 44 47 44
-197.591 -314.753 -1461 48 51 47
-194.328 -314.265 -1459 49 52 48
-190.682 -313.131 -1454 50 50 48
-187.445 -312.644 -1452 50 50 48
-183.963 -311.728 -1448 50 50 48
-180.875 -311.459 -1447 52 51 49
-177.546 -310.761 -1444 54 52 50
-174.231 -310.064 -1441 52 52 50
-171.167 -309.797 -1440 52 52 50
-167.993 -309.317 -1438 51 51 49
-164.942 -309.053 -1437 50 50 48
-161.784 -308.575 -1435 50 50 48
-158.747 -308.313 -1434 46 49 46
-155.823 -308.266 -1434 46 49 46
-152.794 -308.006 -1433 45 48 45
-149.771 -307.747 -1432 45 48 45
-146.753 -307.488 -1431 44 47 44
-143.841 -307.446 -1431 43 47 46
-140.831 -307.189 -1430 44 47 45
-137.827 -306.933 -1429 44 47 44
-134.828 -306.679 -1428 46 49 46
-131.834 -306.425 -1427 48 51 48
-128.935 -306.386 -1427 48 51 48
-125.949 -306.134 -1426 48 51 48
-123.055 -306.098 -1426 49 52 49
-120.162 -306.062 -1426 51 51 49
-117.187 -305.813 -1425 53 53 51
-114.378 -305.993 -1426 53 53 51
-111.488 -305.96 -1426 50 50 48
-108.751 -306.357 -1428 47 47 45
-106.007 -306.755 -1430 49 49 47
-103.183 -306.939 -1431 50 52 48
-100.356 -307.123 -1432 50 53 48
-97.5942 -307.523 -1434 49 52 49
-94.7589 -307.71 -1435 47 50 47
-91.8563 -307.682 -1435 46 49 46
-89.0785 -308.085 -1437 50 50 48
-86.2334 -308.274 -1438 51 51 48
-83.4428 -308.677 -1440 50 50 46
-80.7009 -309.297 -1443 51 51 48
-77.8935 -309.702 -1445 50 50 48
-75.1306 -310.323 -1448 52 50 48
-72.3063 -310.73 -1450 53 52 50
-69.3789 -310.709 -1450 49 49 47
-66.4978 -310.904 -1451 44 44 42
-63.6133 -311.099 -1452 42 42 40
-60.6835 -311.081 -1452 63 63 59
-57.7541 -311.063 -1452 61 61 59
-55.0141 -312.118 -1457 60 60 58
-52.2185 -312.959 -1461 58 61 56
-49.4747 -314.23 -1467 58 60 56
-46.6438 -315.072 -1471 60 60 58
-43.797 -315.916 -1475 60 60 58
-40.9069 -316.546 -1478 60 60 58
-38.1332 -318.248 -1486 58 58 56
-35.2568 -319.308 -1491 56 56 54
-32.5118 -321.868 -1503 55 55 53
-29.7187 -324.429 -1515 54 54 52
-27.0008 -328.489 -1534 60 60 58
-24.4092 -335.334 -1566 65 65 63
-21.6073 -340.895 -1592 41 42 43
-18.6201 -344.957 -1611 18 20 22
-237.316 -336.244 -1543 69 73 74
-231.858 -332.906 -1528 72 76 75
-226.912 -330.223 -1516 68 71 68
-221.575 -326.889 -1501 65 68 61
-217.466 -325.299 -1494 65 68 60
-212.239 -321.969 -1479 58 61 54
-208.632 -321.035 -1475 48 51 46
-204.904 -319.886 -1470 36 39 36
-201.61 -319.39 -1468 40 43 40
-197.92 -318.242 -1463 47 50 47
-194.519 -317.531 -1460 48 51 48
-190.738 -316.169 -1454 50 51 49
-187.371 -315.461 -1451 51 51 49
-183.891 -314.536 -1447 50 50 48
-180.678 -314.047 -1445 52 51 49
-177.476 -313.559 -1443 52 51 49
-174.283 -313.072 -1441 51 51 49
-171.099 -312.586 -1439 52 52 50
-167.925 -312.101 -1437 50 50 48
-164.876 -311.834 -1436 49 49 47
-161.719 -311.352 -1434 50 50 48
-158.683 -311.087 -1433 47 49 48
-155.543 -310.606 -1431 45 48 46
-152.52 -310.343 -1430 45 48 45
-149.501 -310.081 -1429 46 49 46
-146.489 -309.821 -1428 45 48 45
-143.581 -309.778 -1428 45 49 46
-140.774 -309.952 -1429 45 48 45
-137.674 -309.477 -1427 46 49 46
-134.773 -309.437 -1427 46 49 46
-131.78 -309.181 -1426 47 50 47
-128.883 -309.142 -1426 47 50 47
-125.987 -309.104 -1426 47 50 47
-123.091 -309.067 -1426 48 51 48
-120.197 -309.031 -1426 51 51 49
-117.304 -308.996 -1426 53 53 51
-114.412 -308.962 -1426 54 54 52
-111.443 -308.712 -1425 49 49 47
-108.707 -309.113 -1427 47 47 45
-105.964 -309.514 -1429 48 48 46
-103.069 -309.483 -1429 46 48 44
-100.386 -310.103 -1432 46 49 44
-97.5548 -310.29 -1433 45 48 45
-94.7868 -310.695 -1435 45 48 45
-91.8834 -310.667 -1435 47 50 47
-89.1047 -311.073 -1437 50 50 48
-86.2588 -311.264 -1438 50 50 48
-83.4094 -311.455 -1439 47 47 43
-80.6127 -311.864 -1441 49 49 47
-77.8086 -312.273 -1443 50 50 48
-75.0488 -312.9 -1446 49 49 47
-72.2278 -313.311 -1448 51 51 49
-69.3514 -313.507 -1449 50 50 48
-66.5173 -313.919 -1451 47 47 45
-63.5881 -313.9 -1451 46 46 44
-60.6176 -313.665 -1450 63 63 59
-57.7313 -313.864 -1451 62 62 59
-54.9168 -314.497 -1454 62 62 60
-52.1624 -315.562 -1459 58 61 56
-49.3881 -316.629 -1464 59 61 57
-46.594 -317.696 -1469 59 59 57
-43.7802 -318.764 -1474 58 58 56
-40.8911 -319.4 -1477 56 56 54
-38.0674 -320.686 -1483 56 56 54
-35.2434 -322.189 -1490 56 56 54
-32.4131 -323.909 -1498 55 55 53
-29.6293 -326.495 -1510 54 54 52
-27.0087 -331.675 -1534 60 60 58
-24.3851 -338.154 -1564 65 66 64
-21.5594 -343.337 -1588 43 44 46
-241.821 -341.312 -1551 93 99 102
-235.695 -337.059 -1532 75 79 78
-231.32 -335.228 -1524 72 75 74
-225.782 -331.64 -1508 70 73 70
-221.198 -329.374 -1498 66 69 63
-216.657 -327.109 -1488 63 66 59
-212.016 -324.627 -1477 61 64 57
-208.412 -323.684 -1473 52 55 50
-204.687 -322.523 -1468 40 43 40
-201.533 -322.242 -1467 39 42 39
-197.844 -321.084 -1462 41 44 41
-194.844 -321.025 -1462 40 43 40
-191.058 -319.649 -1456 44 45 42
-187.427 -318.495 -1451 47 47 45
-184.073 -317.78 -1448 48 48 46
-180.732 -317.067 -1445 50 50 48
-177.406 -316.355 -1442 49 49 47
-174.214 -315.863 -1440 51 51 49
-171.031 -315.373 -1438 51 51 49
-167.742 -314.664 -1435 50 50 48
-164.81 -314.614 -1435 51 51 49
-161.655 -314.127 -1433 52 52 50
-158.62 -313.86 -1432 48 50 50
-155.59 -313.593 -1431 46 48 47
-152.672 -313.547 -1431 45 48 45
-149.546 -313.064 -1429 44 47 44
-146.532 -312.8 -1428 46 49 46
-143.624 -312.757 -1428 47 50 47
-140.717 -312.714 -1428 47 50 47
-137.619 -312.234 -1426 48 51 48
-134.719 -312.194 -1426 47 50 47
-131.727 -311.935 -1425 47 50 47
-128.831 -311.896 -1425 49 52 49
-125.936 -311.858 -1425 49 52 49
-123.042 -311.821 -1425 49 52 49
-120.064 -311.566 -1424 52 52 50
-117.175 -311.53 -1424 53 53 51
-114.286 -311.495 -1424 53 53 51
-111.476 -311.68 -1425 49 49 47
-108.587 -311.648 -1425 47 47 45
-105.921 -312.272 -1428 46 46 44
-102.955 -312.022 -1427 43 45 41
-100.205 -312.429 -1429 43 46 41
-97.3795 -312.618 -1430 43 46 43
-94.6167 -313.027 -1432 46 49 46
-91.7825 -313.217 -1433 47 50 47
-89.0072 -313.627 -1435 48 49 47
-86.2244 -314.038 -1437 49 50 47
-83.3762 -314.232 -1438 48 48 44
-80.5806 -314.644 -1440 50 50 47
-77.7777 -315.058 -1442 53 53 51
-75.0711 -315.909 -1446 51 51 49
-72.2492 -316.324 -1448 51 51 49
-69.3719 -316.521 -1449 50 50 48
-66.4912 -316.719 -1450 48 48 46
-63.5631 -316.7 -1450 48 48 46
-60.5519 -316.245 -1448 62 62 59
-57.6688 -316.446 -1449 62 62 60
-54.8198 -316.865 -1451 63 63 61
-52.0347 -317.723 -1455 57 60 55
-49.2677 -318.8 -1460 58 60 56
-46.5126 -320.096 -1466 59 59 57
-43.704 -321.174 -1471 57 57 55
-40.8478 -322.035 -1475 54 54 52
-38.0786 -323.77 -1483 54 54 52
-35.2539 -325.287 -1490 56 56 54
-32.4227 -327.023 -1498 56 56 54
-29.6185 -329.415 -1509 57 57 55
-26.9815 -334.428 -1532 60 61 58
-24.4392 -342.061 -1567 67 70 67
-21.5929 -347.074 -1590 43 45 47
-240.179 -342.123 -1540 77 82 84
-234.536 -338.496 -1524 70 74 73
-229.72 -335.983 -1513 68 71 70
-225.252 -333.915 -1504 66 69 66
-220.675 -331.627 -1494 65 68 62
-216.141 -329.341 -1484 63 66 59
-211.937 -327.5 -1476 65 68 61
-208.192 -326.327 -1471 57 60 55
-204.888 -325.821 -1469 45 48 45
-201.594 -325.315 -1467 39 42 39
-198.04 -324.367 -1463 41 44 41
-194.636 -323.642 -1460 40 43 40
-191.247 -322.919 -1457 41 42 40
-187.613 -321.753 -1452 41 41 39
-183.874 -320.368 -1446 42 42 40
-180.537 -319.647 -1443 46 46 44
-177.213 -318.929 -1440 47 47 45
-173.903 -318.211 -1437 50 50 48
-170.845 -317.937 -1436 50 50 48
-167.676 -317.443 -1434 50 50 48
-164.86 -317.614 -1435 50 50 48
-161.817 -317.343 -1434 50 50 48
-158.889 -317.295 -1434 46 48 48
-155.637 -316.583 -1431 45 47 46
-152.825 -316.758 -1432 44 47 44
-149.486 -315.827 -1428 44 47 44
-146.474 -315.561 -1427 46 49 46
-143.567 -315.517 -1427 47 50 47
-140.661 -315.474 -1427 48 51 48
-137.564 -314.99 -1425 49 52 49
-134.759 -315.17 -1426 48 51 48
-131.859 -315.13 -1426 47 50 47
-128.869 -314.87 -1425 49 52 49
-125.885 -314.61 -1424 50 53 50
-122.992 -314.573 -1424 48 51 48
-120.101 -314.536 -1424 51 51 49
-117.127 -314.279 -1423 50 50 48
-114.159 -314.023 -1422 50 50 48
-111.431 -314.431 -1424 48 48 46
-108.467 -314.177 -1423 47 48 46
-105.73 -314.586 -1425 45 48 45
-102.842 -314.555 -1425 44 47 43
-100.095 -314.966 -1427 43 46 41
-97.2725 -315.157 -1428 43 46 43
-94.6451 -316.011 -1432 46 49 46
-91.8101 -316.203 -1433 46 49 46
-89.0958 -316.838 -1436 46 49 46
-86.3102 -317.253 -1438 49 51 48
-83.4592 -317.448 -1439 52 52 48
-80.6048 -317.644 -1440 52 52 49
-77.747 -317.84 -1441 53 53 51
-74.9897 -318.479 -1444 51 51 49
-72.171 -318.898 -1446 50 50 48
-69.2969 -319.097 -1447 48 48 46
-66.4193 -319.297 -1448 46 46 44
-63.5383 -319.498 -1449 49 49 47
-60.57 -319.259 -1448 63 63 61
-57.686 -319.462 -1449 61 61 59
-54.8362 -319.886 -1451 59 59 57
-52.086 -320.972 -1456 56 59 54
-49.2487 -321.618 -1459 57 59 55
-46.5265 -323.147 -1466 59 59 57
-43.6873 -324.015 -1470 57 57 55
-40.8601 -325.104 -1475 54 54 52
-38.0901 -326.856 -1483 54 54 52
-35.2406 -328.167 -1489 56 56 54
-32.4107 -329.92 -1497 55 55 53
-29.6274 -332.555 -1509 56 56 54
-26.9015 -336.514 -1527 61 62 60
-24.3996 -344.66 -1564 65 68 65
-21.5043 -348.84 -1583 33 35 37
-238.848 -343.34 -1531 72 76 77
-233.684 -340.352 -1518 71 75 74
-228.576 -337.366 -1505 68 72 71
-224.572 -335.951 -1499 66 68 66
-220.151 -333.866 -1490 65 68 62
-215.915 -332.007 -1482 64 67 60
-212.145 -330.821 -1477 64 67 60
-208.114 -329.188 -1470 55 58 53
-204.672 -328.453 -1467 47 50 47
-201.381 -327.943 -1465 46 49 46
-197.694 -326.763 -1460 47 50 47
-194.429 -326.255 -1458 45 48 45
-191.043 -325.524 -1455 43 44 42
-187.67 -324.795 -1452 41 41 39
-183.93 -323.396 -1446 42 42 40
-180.592 -322.669 -1443 46 46 44
