ply
format ascii 1.0
comment Created by Open3D
element vertex 1465
property double x
property double y
property double z
property uchar red
property uchar green
property uchar blue
end_header
-73.1857 -817.356 -1331 40 40 35
-70.1687 -816.677 -1330 38 38 35
-67.1064 -815.386 -1328 37 37 34
-64.1019 -814.713 -1327 39 39 35
-61.1025 -814.043 -1326 39 40 36
-58.152 -813.989 -1326 40 42 38
-55.2437 -814.551 -1327 38 41 36
-52.3315 -815.116 -1328 36 39 34
-49.4525 -816.298 -1330 37 40 35
-46.5302 -816.868 -1331 36 39 34
-43.7021 -819.282 -1335 35 38 33
-40.7956 -820.472 -1337 36 39 32
-37.909 -822.277 -1340 35 38 31
-34.9572 -822.857 -1341 34 37 30
-32.0967 -825.895 -1346 34 37 30
-29.1278 -826.481 -1347 34 37 30
-26.1935 -828.297 -1350 33 36 29
-23.2461 -830.115 -1353 35 38 31
-20.3156 -833.163 -1358 34 37 30
-17.3632 -836.214 -1363 34 37 30
-14.4096 -840.494 -1370 35 38 31
-11.3919 -842.323 -1373 35 40 31
-8.35504 -843.541 -1375 33 36 29
-5.30923 -844.762 -1377 32 35 28
-2.25149 -844.758 -1377 35 38 31
0.808167 -846.598 -1380 39 39 35
3.87835 -847.827 -1382 38 39 34
6.96229 -849.673 -1385 35 38 31
10.0381 -849.681 -1385 35 38 31
13.1328 -850.918 -1387 36 39 33
16.2483 -852.772 -1390 36 39 34
19.405 -855.856 -1395 35 38 33
22.552 -857.715 -1398 35 38 33
25.8224 -863.259 -1407 35 37 32
29.0099 -865.125 -1410 36 36 32
32.2336 -867.607 -1414 36 36 32
35.3504 -867.024 -1413 39 39 35
38.5448 -868.285 -1415 42 43 38
41.6012 -866.48 -1412 44 45 38
-224.698 -993.046 -1601 36 36 36
-221.485 -994.702 -1604 30 30 28
-217.446 -992.64 -1601 30 30 28
-213.289 -989.962 -1597 31 31 29
-208.89 -986.05 -1591 30 30 28
-204.003 -979.663 -1581 31 30 28
-198.277 -968.945 -1564 29 29 27
-190.388 -947.086 -1529 31 31 29
-182.047 -922.141 -1489 33 31 29
-174.489 -900.304 -1454 31 30 28
-168.974 -888.383 -1435 29 29 27
-164.702 -882.659 -1426 28 28 24
-161.265 -881.272 -1424 28 28 24
-157.838 -879.888 -1422 28 28 24
-154.422 -878.507 -1420 26 26 22
-151.336 -878.986 -1421 25 25 21
-148.038 -878.231 -1420 25 25 22
-145.053 -879.333 -1422 27 27 25
-141.96 -879.82 -1423 26 26 24
-138.766 -879.692 -1423 26 26 24
-135.669 -880.185 -1424 27 27 25
-132.29 -878.826 -1422 27 27 25
-129.194 -879.325 -1423 26 26 26
-125.475 -875.501 -1417 27 27 27
-122.215 -874.77 -1416 29 29 29
-118.877 -873.425 -1414 34 32 30
-115.549 -872.083 -1412 31 30 28
-112.071 -869.509 -1408 30 30 28
-108.768 -868.173 -1406 30 30 28
-105.399 -866.223 -1403 32 32 30
-101.827 -862.424 -1397 31 31 29
-97.8579 -854.925 -1385 29 29 27
-93.533 -843.728 -1367 29 29 25
-89.4881 -834.387 -1352 33 33 29
-85.8308 -828.135 -1342 38 38 34
-82.466 -824.357 -1336 40 40 35
-79.4262 -823.666 -1335 41 41 37
-76.3344 -822.361 -1333 41 41 37
-73.3072 -821.676 -1332 39 40 33
-70.3908 -822.227 -1333 35 35 31
-67.2684 -820.314 -1330 36 36 32
-64.2084 -819.021 -1328 37 37 33
-61.204 -818.347 -1327 40 40 36
-58.2487 -818.293 -1327 41 43 37
-55.2521 -817.625 -1326 38 41 35
-52.3789 -818.809 -1328 36 39 34
-49.4974 -819.996 -1330 36 39 34
-46.5724 -820.569 -1331 36 39 34
-43.709 -822.377 -1334 34 37 32
-40.8326 -824.188 -1337 33 36 29
-37.9433 -826.002 -1340 36 39 32
-35.0671 -828.434 -1344 36 39 32
-32.1257 -829.636 -1346 35 38 31
-29.1325 -829.609 -1346 35 38 31
-26.2172 -832.049 -1350 34 37 30
-23.2672 -833.875 -1353 35 38 31
-20.3041 -835.704 -1356 35 38 31
-17.3789 -840.001 -1363 35 38 31
-14.4015 -843.068 -1368 37 40 33
-11.369 -843.673 -1369 36 41 32
-8.34421 -845.513 -1372 34 37 30
-5.30626 -847.356 -1375 32 35 28
-2.2501 -847.352 -1375 35 38 31
0.808388 -849.817 -1379 38 40 34
3.87904 -851.052 -1381 38 40 34
6.96868 -853.522 -1385 36 39 32
10.0473 -853.529 -1385 34 37 30
13.1543 -855.389 -1388 36 39 33
16.2864 -857.867 -1392 36 39 34
19.4227 -859.732 -1395 35 38 33
22.5886 -862.217 -1399 35 37 32
25.7908 -865.321 -1404 36 37 33
29.0157 -868.427 -1409 36 36 32
32.263 -871.537 -1414 37 37 33
35.3575 -870.335 -1412 39 39 35
38.5253 -870.985 -1413 40 40 36
41.5505 -868.556 -1409 45 46 39
-228.824 -999.002 -1603 47 46 45
-224.905 -997.546 -1601 36 36 36
-221.551 -998.586 -1603 30 30 28
-217.374 -995.892 -1599 31 31 29
-213.619 -995.07 -1598 31 31 29
-209.345 -991.761 -1593 29 31 28
-204.578 -985.968 -1584 28 28 26
-199.22 -977.068 -1570 28 28 26
-191.809 -957.597 -1539 30 30 28
-169.719 -895.515 -1440 31 30 27
-165.316 -889.142 -1430 28 28 24
-161.866 -887.748 -1428 28 28 24
-158.428 -886.358 -1426 27 27 23
-155.108 -885.592 -1425 27 27 23
-151.581 -883.586 -1422 26 26 22
-148.383 -883.448 -1422 25 25 21
-145.288 -883.935 -1423 24 24 21
-142.09 -883.803 -1423 25 25 23
-138.991 -884.295 -1424 25 25 23
-135.889 -884.789 -1425 26 26 24
-132.412 -882.803 -1422 26 26 24
-129.221 -882.683 -1422 27 27 26
-125.678 -880.084 -1418 28 28 27
-122.413 -879.349 -1417 29 29 29
-119.07 -877.997 -1415 33 31 27
-115.736 -876.649 -1413 31 30 27
-112.254 -874.063 -1409 31 31 29
-108.945 -872.721 -1407 31 31 28
-105.496 -870.142 -1403 30 30 28
-101.701 -864.465 -1394 29 29 27
-98.0181 -859.413 -1386 30 30 28
-93.4816 -846.304 -1365 32 32 28
-89.6362 -838.781 -1353 34 34 30
-85.7813 -830.642 -1340 36 36 32
-82.5413 -828.085 -1336 38 38 34
-79.4392 -826.771 -1334 40 40 36
-76.4613 -826.7 -1334 39 39 35
-73.4292 -826.012 -1333 38 39 32
-70.508 -826.566 -1334 38 38 33
-67.3298 -824.024 -1330 37 37 33
-64.267 -822.725 -1328 39 39 35
-61.1675 -820.809 -1325 41 41 37
-58.2139 -820.755 -1325 41 42 37
-55.3025 -821.322 -1326 38 41 34
-52.4267 -822.512 -1328 36 39 34
-49.5425 -823.704 -1330 36 39 34
-46.6148 -824.279 -1331 37 40 35
-43.8144 -827.334 -1336 35 38 33
-40.8698 -827.915 -1337 34 37 30
-37.9779 -829.736 -1340 35 38 31
-35.1252 -832.799 -1345 35 38 31
-32.1311 -832.768 -1345 35 38 31
-29.2023 -834.598 -1348 36 39 32
-26.2605 -836.43 -1351 35 38 31
-23.2884 -837.645 -1353 35 38 31
-20.3376 -840.102 -1357 36 39 32
-17.3691 -842.561 -1361 37 40 33
-14.3936 -845.642 -1366 37 40 33
-11.3877 -848.106 -1370 34 37 30
-8.34574 -848.717 -1371 34 37 30
-5.30329 -849.949 -1373 34 37 30
-2.25217 -851.183 -1375 35 38 31
0.809197 -853.659 -1379 36 39 32
3.88274 -854.899 -1381 35 38 31
6.99021 -859.237 -1388 36 39 32
10.071 -858.626 -1387 35 38 31
13.2043 -861.732 -1392 34 37 32
16.3131 -862.365 -1393 35 38 33
19.4404 -863.619 -1395 36 39 34
22.674 -868.592 -1403 37 37 33
25.8697 -871.09 -1407 36 36 32
29.0629 -872.973 -1410 37 37 33
32.3152 -876.097 -1415 37 37 33
35.44 -875.509 -1414 36 36 32
38.5059 -873.685 -1411 39 39 34
41.4704 -870.006 -1405 43 44 37
-231.036 -1012.28 -1617 47 46 45
-226.098 -1006.44 -1608 36 36 36
-222.31 -1005.6 -1607 30 30 28
-217.984 -1002.27 -1602 27 27 25
-213.817 -999.569 -1598 29 29 27
-209.538 -996.246 -1593 28 31 28
-204.638 -989.8 -1583 29 29 27
-199.405 -981.486 -1570 27 27 25
-192.361 -963.801 -1542 29 29 25
-170.466 -902.686 -1445 33 31 27
-165.7 -894.41 -1432 30 29 25
-162.129 -892.385 -1429 29 28 24
-158.796 -891.612 -1428 30 30 26
-155.251 -889.594 -1425 29 29 25
-151.934 -888.827 -1424 27 27 23
-148.728 -888.688 -1424 26 26 22
-145.422 -887.929 -1423 25 25 21
-142.121 -887.172 -1422 26 26 24
-139.021 -887.666 -1423 27 27 25
-135.919 -888.163 -1424 25 25 23
-132.533 -886.791 -1422 26 26 24
-129.249 -886.047 -1421 28 28 26
-125.705 -883.435 -1417 29 29 27
-122.439 -882.698 -1416 30 30 28
-119.011 -880.716 -1413 34 32 28
-115.761 -879.985 -1412 32 31 28
-112.516 -879.256 -1411 30 30 28
-109.045 -876.662 -1407 31 31 27
-105.593 -874.071 -1403 29 29 26
-101.794 -868.369 -1394 27 27 24
-97.7541 -860.179 -1381 28 28 26
-93.4303 -848.88 -1363 31 31 27
-89.5196 -840.7 -1350 35 35 31
-85.7959 -833.769 -1339 35 35 31
-82.7407 -833.069 -1338 38 38 34
-79.5716 -831.127 -1335 40 40 36
-76.5888 -831.055 -1335 41 41 37
-73.6069 -830.986 -1335 38 39 32
-70.6255 -830.919 -1335 36 37 30
-67.4929 -828.989 -1332 36 37 31
-64.3744 -827.061 -1329 39 39 35
-61.2698 -825.136 -1326 41 41 37
-58.2672 -824.459 -1325 40 41 36
-55.3114 -824.407 -1325 38 41 34
-52.3562 -824.358 -1325 37 40 35
-49.4761 -825.555 -1327 37 40 35
-46.5874 -826.755 -1329 37 40 35
-43.7232 -828.58 -1332 36 39 34
-40.8155 -829.785 -1334 36 39 32
-37.9842 -832.859 -1339 35 38 31
-35.0788 -834.692 -1342 35 38 31
-32.2561 -839.014 -1349 34 37 30
-29.2724 -839.608 -1350 34 37 30
-26.2456 -838.961 -1349 34 37 30
-23.3096 -841.426 -1353 36 39 32
-20.3412 -843.272 -1356 36 39 32
-17.3722 -845.742 -1360 37 40 33
-14.3961 -848.836 -1365 36 39 32
-11.3813 -850.69 -1368 34 37 30
-8.34729 -851.925 -1370 34 37 30
-5.31192 -854.406 -1374 33 36 29
-2.25078 -853.781 -1373 35 38 31
0.809424 -856.889 -1378 36 39 32
3.88908 -859.379 -1382 36 38 31
6.98659 -861.871 -1386 37 38 31
10.0731 -861.88 -1386 34 37 30
13.2069 -865 -1391 33 36 31
16.3164 -865.635 -1392 35 38 33
19.5142 -870.004 -1399 36 38 33
22.6625 -871.268 -1401 36 36 32
25.8934 -875.021 -1407 36 36 32
29.1308 -878.156 -1412 39 39 35
32.345 -880.05 -1415 37 37 33
35.5227 -880.704 -1416 36 35 31
38.6779 -880.738 -1416 38 37 33
-225.464 -1007.21 -1602 37 37 37
-222.101 -1008.26 -1604 32 32 30
-217.642 -1004.28 -1598 29 29 27
-213.614 -1002.2 -1595 29 29 27
-209.47 -999.486 -1591 28 31 28
-204.829 -994.268 -1583 28 28 25
-199.59 -985.915 -1570 26 26 22
-192.789 -969.406 -1544 26 26 22
-177.259 -924.493 -1473 35 33 29
-170.86 -908.014 -1447 34 32 28
-166.201 -900.327 -1435 33 31 27
-162.734 -898.92 -1433 30 30 26
-159.389 -898.143 -1432 31 31 27
-155.722 -895.488 -1428 30 30 26
-152.289 -894.091 -1426 28 28 24
-148.762 -892.07 -1423 26 26 22
-145.557 -891.933 -1423 26 26 22
-142.253 -891.173 -1422 27 27 25
-139.052 -891.042 -1422 27 27 25
-135.758 -890.288 -1421 26 26 24
-132.376 -888.911 -1419 27 27 24
-129.005 -887.537 -1417 28 28 26
-125.644 -886.166 -1415 29 29 27
-122.466 -886.051 -1415 29 29 27
-119.205 -885.313 -1414 31 29 25
-115.95 -884.578 -1413 30 29 26
-112.62 -883.22 -1411 30 30 28
-109.146 -880.614 -1407 30 30 26
-105.69 -878.011 -1403 31 31 27
-101.815 -871.657 -1393 30 30 27
-97.561 -861.553 -1377 29 29 27
-93.1736 -849.578 -1358 33 33 29
-89.4031 -842.612 -1347 36 36 32
-85.9393 -838.152 -1340 37 37 33
-82.6934 -835.573 -1336 38 38 34
-79.6451 -834.872 -1335 40 40 36
-76.7744 -836.051 -1337 41 41 37
-73.6195 -834.105 -1334 38 39 31
-70.6907 -834.664 -1335 36 37 30
-67.4537 -831.474 -1330 37 38 32
-64.3852 -830.162 -1328 39 39 35
-61.2338 -827.604 -1324 41 41 37
-58.2329 -826.924 -1323 40 41 36
-55.2788 -826.871 -1323 38 41 34
-52.3649 -827.447 -1324 38 41 36
-49.5216 -829.275 -1327 37 40 35
-46.5601 -829.23 -1327 38 41 36
-43.6977 -831.063 -1330 36 39 34
-40.7917 -832.274 -1332 37 40 33
-38.0192 -836.611 -1339 37 40 33
-35.1373 -839.077 -1343 35 38 31
-32.2858 -842.794 -1349 33 36 29
-29.3427 -844.64 -1352 32 35 28
-26.3476 -845.239 -1353 33 36 29
-23.331 -845.216 -1353 34 37 30
-20.3448 -846.446 -1355 35 38 31
-17.3754 -848.927 -1359 36 39 32
-14.4199 -853.285 -1366 35 38 31
-11.3917 -854.522 -1368 34 39 30
-8.36696 -857.012 -1372 33 37 29
-5.31303 -857.63 -1373 33 36 29
-2.25286 -857.627 -1373 35 38 31
0.81024 -860.749 -1378 37 37 33
3.89 -862.626 -1381 37 37 32
6.98821 -865.129 -1385 35 36 29
10.0897 -866.387 -1387 33 36 29
13.2383 -870.145 -1393 33 36 30
16.3433 -870.159 -1393 36 38 32
19.5462 -874.548 -1400 38 38 34
22.732 -877.067 -1404 35 35 31
25.9727 -880.838 -1410 35 35 31
29.1783 -882.737 -1413 36 36 32
32.4436 -885.889 -1418 34 34 31
35.6811 -887.795 -1421 35 34 30
-225.675 -1011.75 -1602 36 36 36
-221.893 -1010.91 -1601 31 31 29
-217.709 -1008.18 -1597 30 30 28
-213.68 -1006.08 -1594 29 29 27
-209.534 -1003.36 -1590 27 30 27
-205.02 -998.747 -1583 27 29 25
-200.031 -991.618 -1572 25 27 22
-193.719 -977.557 -1550 26 26 22
-185.791 -954.677 -1514 31 29 25
-178.268 -933.07 -1480 35 33 29
-171.729 -915.885 -1453 33 31 27
-166.704 -906.273 -1438 32 30 26
-162.772 -902.338 -1432 31 31 27
-159.314 -900.927 -1430 31 31 27
-155.867 -899.52 -1428 30 30 26
-152.538 -898.746 -1427 28 28 24
-149.214 -897.975 -1426 26 26 22
-145.897 -897.208 -1425 26 26 22
-142.385 -895.185 -1422 25 25 23
-139.084 -894.424 -1421 25 25 23
-135.884 -894.296 -1421 25 25 23
-132.499 -892.912 -1419 26 26 22
-129.216 -892.161 -1418 28 28 25
-125.938 -891.413 -1417 28 28 26
-122.58 -890.039 -1415 28 28 26
-119.231 -888.668 -1413 32 30 26
-115.893 -887.301 -1411 30 29 26
-112.725 -887.194 -1411 28 28 26
-109.092 -883.319 -1405 30 30 26
-105.562 -880.076 -1400 31 31 27
-101.617 -873.065 -1389 28 28 24
-97.297 -862.287 -1372 31 31 29
-93.054 -851.515 -1355 34 34 31
-89.3532 -845.146 -1345 37 37 33
-85.8906 -840.666 -1338 38 38 33
-82.8939 -840.588 -1338 39 39 34
-79.7787 -839.256 -1336 39 40 34
-76.8455 -839.811 -1337 38 39 32
-73.6878 -837.857 -1334 38 39 32
-70.6502 -837.162 -1333 36 37 30
-67.4654 -834.586 -1329 37 38 31
-64.3478 -832.641 -1326 40 40 35
-61.2442 -830.699 -1323 40 41 34
-58.1987 -829.387 -1321 38 40 33
-55.2464 -829.335 -1321 39 42 35
-52.3341 -829.913 -1322 38 41 36
-49.4554 -831.121 -1324 36 39 34
-46.4979 -831.077 -1324 36 39 34
-43.6724 -833.545 -1328 37 38 34
-40.7989 -835.389 -1331 36 39 32
-37.9691 -838.491 -1336 37 40 33
-35.0913 -840.967 -1340 34 37 30
-32.3636 -847.84 -1351 33 35 28
-29.3916 -849.066 -1353 33 35 28
-26.372 -849.04 -1353 33 36 29
-23.3871 -850.272 -1355 33 36 29
-20.3786 -850.879 -1356 33 36 29
-17.3914 -852.744 -1359 35 38 31
-14.3909 -854.612 -1362 35 39 32
-11.4023 -858.365 -1368 35 38 31
-8.35636 -858.983 -1369 33 36 29
-5.31397 -860.859 -1372 34 37 30
-2.25805 -862.738 -1375 35 38 31
0.811059 -864.62 -1378 37 38 31
3.89637 -867.132 -1382 37 39 31
6.99471 -869.019 -1385 34 37 29
10.0844 -869.027 -1385 34 37 30
13.241 -873.431 -1392 36 37 30
16.3585 -874.072 -1393 36 37 30
19.5644 -878.481 -1400 36 36 32
22.7693 -881.638 -1405 34 34 30
26.0152 -885.426 -1411 35 35 31
29.2055 -886.707 -1413 35 35 31
32.4966 -890.501 -1419 34 34 32
35.7394 -892.415 -1422 36 36 32
-226.875 -1020.74 -1609 36 36 36
-222.379 -1016.72 -1603 31 31 29
-217.777 -1012.08 -1596 31 31 29
-213.746 -1009.97 -1593 30 30 28
-209.863 -1008.51 -1591 27 30 27
-205.213 -1003.24 -1583 27 30 26
-200.346 -996.711 -1573 26 29 24
-194.151 -983.22 -1552 28 28 24
-186.579 -962.137 -1519 31 29 25
-178.918 -939.798 -1484 33 31 27
-172.481 -923.169 -1458 34 32 28
-167.324 -912.879 -1442 32 30 26
-163.607 -910.192 -1438 31 30 26
-159.91 -907.508 -1434 30 30 26
-156.232 -904.829 -1430 29 29 25
-152.788 -903.418 -1428 27 27 23
-149.563 -903.276 -1428 27 27 23
-146.136 -901.872 -1426 27 27 23
-142.719 -900.472 -1424 26 26 24
-139.508 -900.34 -1424 25 25 23
-136.203 -899.578 -1423 27 27 24
-132.717 -897.556 -1420 28 28 25
-129.337 -896.169 -1418 28 28 26
-126.145 -896.05 -1418 28 28 26
-122.608 -893.405 -1414 28 28 26
-119.343 -892.66 -1413 30 29 25
-116.166 -892.55 -1413 31 30 27
-112.83 -891.18 -1411 30 30 28
-109.271 -887.918 -1406 31 31 27
-105.661 -884.029 -1400 30 30 26
-101.492 -875.092 -1386 28 28 24
-97.3878 -866.16 -1372 31 31 29
-92.8659 -852.814 -1351 35 35 32
-89.2369 -847.048 -1342 38 38 33
-85.9064 -843.811 -1337 38 39 32
-82.9092 -843.732 -1337 39 40 32
-79.7932 -842.393 -1335 40 41 33
-76.7446 -841.689 -1334 39 40 33
-73.5906 -839.727 -1331 38 39 32
-70.5038 -838.398 -1329 37 38 31
-67.325 -835.81 -1325 36 37 30
-64.3105 -835.118 -1324 38 39 32
-61.3013 -834.428 -1323 37 39 31
-58.297 -833.742 -1322 39 41 34
-55.2978 -833.058 -1321 39 42 35
-52.3829 -833.639 -1322 38 41 36
-49.464 -834.222 -1323 36 39 34
-46.5763 -835.438 -1325 36 38 33
-43.713 -837.288 -1328 38 38 34
-40.8675 -839.77 -1332 37 40 33
-38.0328 -842.885 -1337 37 40 33
-35.2549 -847.894 -1345 35 38 31
-32.4416 -852.906 -1353 35 36 29
-29.4189 -852.877 -1353 33 36 29
-26.4159 -853.482 -1354 34 37 30
-23.4089 -854.089 -1355 34 37 30
-20.4276 -855.96 -1358 35 38 31
-17.4331 -857.833 -1361 35 39 32
-14.4572 -861.6 -1367 34 38 31
-11.4295 -863.478 -1370 35 38 31
-8.39463 -865.99 -1374 34 37 30
-5.33042 -866.614 -1375 35 38 31
-2.26508 -868.501 -1378 35 38 31
0.81365 -870.392 -1381 37 38 31
3.89731 -870.394 -1381 37 40 32
6.99617 -872.29 -1384 36 41 32
10.0866 -872.298 -1384 35 38 31
13.2535 -877.351 -1392 36 38 31
16.3855 -878.626 -1394 37 38 31
19.5967 -883.055 -1401 36 36 32
22.7906 -885.596 -1405 36 36 32
26.021 -888.77 -1410 35 35 31
29.2328 -890.687 -1413 34 34 30
32.5958 -896.389 -1422 35 35 31
35.8231 -897.682 -1424 36 36 32
39.0324 -898.348 -1425 39 39 35
-221.895 -1018.11 -1598 31 31 30
-217.437 -1014.07 -1592 29 30 28
-213.277 -1011.32 -1588 28 29 27
-209.401 -1009.85 -1586 26 29 26
-204.887 -1005.2 -1579 29 32 27
-200.153 -999.276 -1570 29 31 26
-194.209 -986.998 -1551 29 29 25
-187.001 -967.728 -1521 30 29 25
-179.569 -946.561 -1488 32 30 26
-172.762 -927.948 -1459 34 32 28
-167.714 -918.248 -1444 31 31 27
-163.875 -914.912 -1439 29 28 24
-159.837 -910.309 -1432 31 29 25
-156.598 -910.16 -1432 29 30 24
-153.146 -908.743 -1430 26 27 22
-149.704 -907.329 -1428 26 26 22
-146.273 -905.919 -1426 27 27 23
-142.953 -905.147 -1425 27 27 24
-139.541 -903.744 -1423 27 27 24
-136.235 -902.979 -1422 27 27 23
-132.935 -902.217 -1421 28 28 26
-129.641 -901.458 -1420 29 29 25
-126.263 -900.068 -1418 28 28 24
-122.809 -898.047 -1415 28 28 26
-119.624 -897.933 -1415 30 30 26
-116.11 -895.284 -1411 30 30 27
-112.776 -893.907 -1409 31 31 29
-109.218 -890.631 -1404 32 32 28
-105.609 -886.724 -1398 31 31 27
-101.441 -877.747 -1384 29 29 25
-96.9107 -864.97 -1364 32 32 30
-92.7465 -854.735 -1348 36 36 32
-89.1875 -849.577 -1340 37 37 33
-85.9869 -847.593 -1337 38 39 32
-82.9248 -846.88 -1336 39 40 32
-79.7484 -844.902 -1333 41 42 35
-76.7589 -844.829 -1333 41 42 35
-73.6042 -842.857 -1330 39 40 33
-70.4105 -840.255 -1326 37 38 31
-67.3881 -839.556 -1325 38 39 32
-64.3708 -838.861 -1324 38 39 32
-61.3586 -838.168 -1323 36 39 31
-58.3515 -837.479 -1322 38 41 34
-55.4333 -838.059 -1323 39 42 35
-52.5112 -838.642 -1324 38 41 35
-49.5476 -838.594 -1324 36 37 32
-46.6198 -839.182 -1325 37 37 33
-43.7538 -841.04 -1328 38 38 34
-40.9056 -843.533 -1332 36 39 32
-38.0684 -846.662 -1337 36 38 31
-35.2878 -851.694 -1345 35 37 30
-32.3759 -854.195 -1349 36 37 30
-29.4463 -856.699 -1353 35 38 31
-26.4602 -857.939 -1355 34 37 30
-23.448 -858.549 -1356 35 38 31
-20.4617 -860.428 -1359 37 40 33
-17.4622 -862.31 -1362 34 38 31
-14.4707 -865.461 -1367 34 38 31
-11.415 -865.448 -1367 36 39 32
-8.38407 -867.971 -1371 36 39 32
-5.3314 -869.864 -1374 34 37 30
-2.26884 -873.026 -1379 34 37 30
0.815658 -875.558 -1383 36 39 32
3.90391 -874.927 -1382 36 39 32
7.00797 -876.832 -1385 36 39 31
10.1107 -877.473 -1386 35 38 31
13.2563 -880.649 -1391 36 38 31
16.4246 -883.829 -1396 37 38 31
19.6711 -889.544 -1405 36 36 32
22.8445 -890.83 -1407 35 35 31
26.0456 -892.753 -1410 34 34 30
29.3224 -896.578 -1416 36 36 32
32.6033 -899.773 -1421 36 36 32
35.8314 -901.072 -1423 38 38 34
39.1238 -903.64 -1427 40 40 36
-220.855 -1016.91 -1589 31 32 31
-216.413 -1012.86 -1583 30 30 29
-212.941 -1013.3 -1584 28 31 28
-208.939 -1011.18 -1581 28 31 28
-204.692 -1007.78 -1576 29 31 27
-199.96 -1001.84 -1567 31 31 27
-194.518 -992.06 -1552 31 31 27
-187.671 -974.621 -1525 32 30 26
-180.343 -953.997 -1493 33 30 27
-173.4 -934.661 -1463 35 32 29
-168.338 -924.917 -1448 31 31 27
-164.258 -920.288 -1441 28 28 24
-160.659 -918.218 -1438 28 28 24
-157.074 -916.152 -1435 28 28 24
-153.398 -913.451 -1431 27 27 23
-149.951 -912.031 -1429 27 27 23
-146.617 -911.252 -1428 25 25 21
-143.289 -910.477 -1427 26 26 22
-139.967 -909.705 -1426 26 26 22
-136.556 -908.298 -1424 26 26 22
-133.248 -907.532 -1423 27 27 25
-129.855 -906.132 -1421 28 28 25
-126.65 -906.011 -1421 29 29 25
-123.186 -903.98 -1418 29 29 27
-119.991 -903.865 -1418 29 29 26
-116.549 -901.841 -1415 31 31 27
-113.123 -899.82 -1412 31 31 29
-109.399 -895.255 -1405 30 30 26
-105.708 -890.693 -1398 31 31 27
-101.61 -882.313 -1385 31 31 27
-96.9309 -868.205 -1363 34 34 32
-92.765 -857.924 -1347 36 36 32
-89.2049 -852.743 -1339 38 38 34
-86.0035 -850.75 -1336 39 40 33
-82.8787 -849.397 -1334 39 40 32
-79.7636 -848.047 -1332 40 41 33
-76.6582 -846.7 -1330 40 41 34
-73.5073 -844.719 -1327 38 39 32
-70.3705 -842.741 -1324 38 39 32
-67.3497 -842.04 -1323 40 41 34
-64.334 -841.341 -1322 40 41 34
-61.4163 -841.919 -1323 38 41 33
-58.4506 -841.862 -1323 39 41 33
-55.4854 -841.808 -1323 38 40 33
-52.6002 -843.03 -1325 36 39 32
-49.6317 -842.982 -1325 37 39 33
-46.6989 -843.573 -1326 36 38 33
-43.828 -845.438 -1329 37 37 33
-40.9748 -847.943 -1333 33 36 29
-38.1326 -851.086 -1338 34 36 29
-35.2947 -854.868 -1344 36 37 30
-32.4062 -858.017 -1349 36 37 30
-29.4739 -860.532 -1353 36 38 31
-26.4654 -861.141 -1354 36 38 31
-23.4527 -861.754 -1355 35 38 31
-20.4959 -864.913 -1360 35 38 31
-17.4528 -864.895 -1360 34 37 30
-14.4842 -869.332 -1367 36 39 32
-11.4341 -869.956 -1368 36 39 32
-8.41023 -873.762 -1374 36 39 32
-5.34811 -875.663 -1377 35 38 31
-2.27242 -877.567 -1380 34 37 30
0.817081 -880.111 -1384 35 38 31
3.91054 -879.477 -1383 34 37 30
7.02468 -882.026 -1387 33 36 28
10.1351 -882.67 -1388 34 37 30
13.288 -885.861 -1393 35 37 30
16.4871 -890.326 -1400 36 37 31
19.7036 -894.159 -1406 36 36 32
22.8824 -895.451 -1408 36 36 32
26.07 -896.747 -1410 35 35 31
29.3085 -899.316 -1414 35 35 31
32.5653 -901.89 -1418 35 35 31
35.7644 -902.558 -1419 37 37 33
39.051 -905.138 -1423 40 40 36
-225.967 -1027.46 -1598 37 39 38
-222.04 -1025.96 -1596 32 32 31
-217.578 -1021.89 -1590 30 30 28
-213.414 -1019.12 -1586 29 31 29
-209.403 -1016.99 -1583 29 32 29
-205.017 -1012.93 -1577 30 32 28
-200.15 -1006.32 -1567 30 30 26
-194.955 -997.782 -1554 30 30 26
-188.465 -982.191 -1530 31 29 26
-180.999 -960.832 -1497 34 30 27
-174.158 -942.05 -1468 35 31 28
-168.499 -929.054 -1448 32 31 27
-164.529 -925.046 -1442 30 30 26
-160.7 -921.683 -1437 28 28 24
-157.443 -921.531 -1437 28 28 24
-153.758 -918.818 -1433 27 27 23
-150.198 -916.75 -1430 25 25 21
-146.653 -914.685 -1427 24 24 20
-143.425 -914.547 -1427 26 26 22
-140.199 -914.412 -1427 27 27 23
-137.069 -914.921 -1428 27 27 23
-133.656 -913.511 -1426 26 26 24
-130.344 -912.745 -1425 27 27 24
-127.038 -911.982 -1424 28 28 24
-123.564 -909.941 -1421 30 30 28
-120.274 -909.185 -1420 29 29 26
-116.742 -906.512 -1416 30 30 27
-113.471 -905.762 -1415 31 31 28
-109.581 -899.895 -1406 30 30 26
-105.733 -894.033 -1397 31 31 27
-101.339 -883.056 -1380 34 34 30
-96.6668 -868.885 -1358 35 35 33
-92.8529 -861.757 -1347 36 36 33
-89.2894 -856.553 -1339 39 39 34
-86.085 -854.551 -1336 38 39 32
-82.9571 -853.191 -1334 40 41 34
-79.899 -852.475 -1333 40 41 34
-76.6154 -849.203 -1328 38 39 32
-73.5767 -848.492 -1327 37 38 31
-70.437 -846.506 -1324 37 38 31
-67.3624 -845.162 -1322 41 42 35
-64.4435 -845.739 -1323 41 42 35
-61.5208 -846.319 -1324 40 41 33
-58.5501 -846.261 -1324 40 41 33
-55.5799 -846.207 -1324 39 40 33
-52.6499 -846.795 -1325 36 39 32
-49.7161 -847.386 -1326 35 38 33
-46.7782 -847.979 -1327 34 37 32
-43.9024 -849.853 -1330 36 36 32
-41.1058 -853.647 -1336 32 35 28
-38.1971 -855.526 -1339 34 37 30
-35.3543 -859.325 -1345 38 39 32
-32.4609 -862.487 -1350 37 38 31
-29.4799 -863.736 -1352 38 39 32
-26.4904 -864.987 -1354 37 38 31
-23.5094 -866.88 -1357 36 39 32
-20.5454 -870.053 -1362 36 39 32
-17.4821 -869.396 -1361 34 37 30
-14.4766 -871.936 -1365 35 38 31
-11.4365 -873.202 -1367 35 38 31
-8.39988 -875.747 -1371 35 38 31
-5.34912 -878.935 -1376 35 38 31
-2.27455 -881.486 -1380 35 38 31
0.817919 -884.041 -1384 36 39 32
3.91699 -884.043 -1384 36 38 31
7.03149 -885.965 -1387 35 36 28
10.1593 -887.889 -1390 35 38 31
13.3101 -890.455 -1394 38 39 32
16.4792 -893.025 -1398 36 37 31
19.7224 -898.152 -1406 36 36 32
22.8878 -898.812 -1407 37 37 33
26.0948 -900.751 -1410 35 35 31
29.2741 -901.416 -1411 35 35 31
32.5271 -904.001 -1415 34 34 30
35.6723 -903.395 -1414 36 36 32
38.8406 -903.43 -1414 40 39 35
-227.741 -1039.16 -1609 38 38 36
-223.228 -1035.07 -1603 31 31 29
-218.06 -1027.75 -1592 30 30 28
-214.023 -1025.61 -1589 30 30 28
-209.471 -1020.89 -1582 29 32 29
-204.823 -1015.52 -1574 29 31 27
-199.959 -1008.88 -1564 29 29 25
-194.765 -1000.3 -1551 29 29 25
-188.399 -985.288 -1528 29 28 24
-181.535 -967.057 -1500 31 29 25
-174.919 -949.48 -1473 33 31 27
-169.242 -936.424 -1453 32 32 28
-165.143 -931.753 -1446 31 31 27
-161.189 -927.731 -1440 30 30 26
-157.703 -926.29 -1438 30 31 24
-153.905 -922.92 -1433 28 29 23
-150.552 -922.13 -1432 25 25 21
-146.999 -920.056 -1429 26 26 22
-143.864 -920.561 -1430 26 26 24
-140.529 -919.781 -1429 27 27 25
-137.104 -918.361 -1427 27 27 23
-133.783 -917.588 -1426 26 26 24
-130.468 -916.818 -1425 28 28 26
-127.07 -915.408 -1423 28 28 26
-123.681 -914.002 -1421 29 29 27
-120.473 -913.885 -1421 30 30 27
-117.019 -911.842 -1418 30 30 26
-113.579 -909.803 -1415 30 30 26
-109.841 -905.196 -1408 32 32 28
-105.834 -898.022 -1397 31 31 27
-101.362 -886.352 -1379 33 33 29
-96.9014 -874.046 -1360 35 35 33
-92.8722 -864.959 -1346 37 37 35
-89.4411 -861.016 -1340 38 38 35
-86.1669 -858.362 -1336 38 38 34
-82.9115 -855.712 -1332 39 40 33
-79.855 -854.992 -1331 39 40 33
-76.6882 -852.99 -1328 38 39 32
-73.5913 -851.634 -1326 37 38 31
-70.5039 -850.281 -1324 37 38 31
-67.5284 -850.215 -1324 40 41 34
-64.5536 -850.152 -1324 40 41 34
-61.6258 -850.734 -1325 38 40 32
-58.6057 -850.035 -1324 40 41 34
-55.6327 -849.981 -1324 40 41 34
-52.7397 -851.213 -1326 37 39 32
-49.7633 -851.164 -1326 36 38 33
-46.8226 -851.76 -1327 36 38 33
-43.9771 -854.284 -1331 37 37 32
-41.1448 -857.453 -1336 33 35 28
-38.2619 -859.982 -1340 35 37 30
-35.3878 -863.156 -1345 38 39 32
-32.4676 -865.691 -1349 37 38 31
-29.5516 -868.87 -1354 36 37 30
-26.535 -869.485 -1355 36 37 30
-23.549 -871.386 -1358 34 37 30
-20.5196 -872.007 -1359 34 37 30
-17.4986 -873.272 -1361 33 36 29
-14.4796 -875.182 -1364 34 37 30
-11.464 -878.378 -1369 34 38 31
-8.40161 -879.01 -1370 35 38 31
-5.35812 -883.495 -1377 34 37 30
-2.27999 -886.699 -1382 34 37 30
0.81876 -887.982 -1384 34 37 30
3.92082 -887.984 -1384 34 37 30
7.04828 -891.197 -1389 34 37 29
10.1763 -892.489 -1391 31 35 28
13.3324 -895.067 -1395 35 37 30
16.5068 -897.648 -1399 37 37 31
19.7273 -901.515 -1405 38 36 32
22.9258 -903.46 -1408 36 36 32
26.1198 -904.767 -1410 35 35 29
29.3228 -906.077 -1412 35 36 29
32.6041 -909.315 -1417 35 36 29
35.7062 -907.422 -1414 37 37 33
38.8227 -906.174 -1412 40 39 35
-228.244 -1045.09 -1611 38 38 36
-223.443 -1039.68 -1603 30 30 28
-218.682 -1034.28 -1595 30 30 28
-214.229 -1030.18 -1589 31 31 29
-209.408 -1024.14 -1580 29 31 29
-204.891 -1019.4 -1573 27 30 27
-200.023 -1012.73 -1563 29 29 25
-194.952 -1004.76 -1551 28 28 24
-188.951 -991.624 -1531 28 27 23
-182.558 -975.901 -1507 30 30 26
-175.919 -958.246 -1480 32 30 26
-169.871 -943.188 -1457 31 31 27
-165.416 -936.554 -1447 31 31 27
-161.232 -931.219 -1439 30 30 26
-158.074 -931.712 -1440 31 32 25
-154.16 -927.68 -1434 29 30 24
-150.907 -927.533 -1434 27 27 23
-147.14 -924.156 -1429 27 27 23
-143.801 -923.369 -1428 26 26 24
-140.566 -923.232 -1428 26 26 24
-137.236 -922.453 -1427 27 27 23
-134.005 -922.322 -1427 28 28 26
-130.593 -920.902 -1425 30 30 28
-127.281 -920.132 -1424 29 29 27
-123.8 -918.073 -1421 28 28 26
-120.674 -918.602 -1422 30 30 27
-117.379 -917.842 -1421 30 30 26
-113.687 -913.855 -1415 30 30 26
-109.868 -908.582 -1407 31 31 27
-105.859 -901.375 -1396 31 31 27
-101.091 -887.072 -1374 33 33 29
-96.4949 -873.42 -1353 35 35 33
-92.9611 -868.81 -1346 37 37 35
-89.4598 -864.205 -1339 38 38 36
-86.3785 -863.475 -1338 39 39 35
-83.1154 -860.813 -1334 39 40 33
-79.9914 -859.444 -1332 38 39 32
-76.8193 -857.433 -1329 39 40 33
-73.7726 -856.716 -1328 38 39 32
-70.6779 -855.357 -1326 38 39 32
-67.644 -854.646 -1325 40 41 34
-64.664 -854.582 -1325 41 42 35
-61.6847 -854.522 -1325 37 40 33
-58.6617 -853.819 -1324 39 41 34
-55.6858 -853.764 -1324 39 40 33
-52.7503 -854.357 -1325 39 40 33
-49.8108 -854.953 -1326 38 38 33
-46.9027 -856.196 -1328 38 38 34
-44.0852 -859.376 -1333 36 37 30
-41.2148 -861.914 -1337 35 36 29
-38.327 -864.455 -1341 37 37 31
-35.5005 -868.932 -1348 38 37 31
-32.4985 -869.544 -1349 37 38 30
-29.5579 -872.093 -1353 36 37 30
-26.5408 -872.71 -1354 36 37 30
-23.5888 -875.909 -1359 32 35 28
-20.5089 -874.599 -1357 32 35 28
-17.5282 -877.803 -1362 33 36 29
-14.4934 -879.077 -1364 34 37 30
-11.4581 -880.998 -1367 33 37 30
-8.41564 -883.567 -1371 33 36 29
-5.35917 -886.783 -1376 34 37 30
-2.27865 -889.357 -1380 33 36 29
0.819605 -891.934 -1384 34 37 30
3.92466 -891.937 -1384 35 38 30
7.05515 -895.164 -1389 33 36 28
10.2008 -897.75 -1393 32 36 29
13.3453 -899.051 -1395 37 39 32
16.5344 -902.287 -1400 37 37 31
19.746 -905.527 -1405 38 36 32
22.9804 -908.77 -1410 35 35 31
26.1447 -908.794 -1410 35 36 30
29.4339 -912.688 -1416 35 36 29
32.6354 -913.362 -1417 36 37 30
35.6899 -910.172 -1412 37 37 33
38.7497 -907.629 -1408 43 41 37
-230.734 -1060.17 -1627 38 38 36
-225.055 -1050.83 -1613 31 31 29
-219.58 -1042.14 -1600 31 31 29
-215.246 -1038.68 -1595 31 31 29
-210.407 -1032.61 -1586 30 32 30
-205.741 -1027.2 -1578 29 31 28
-200.729 -1019.84 -1567 29 29 25
-195.393 -1010.54 -1553 29 29 25
-189.628 -998.64 -1535 29 28 24
-182.734 -980.245 -1507 29 28 24
-176.089 -962.51 -1480 33 31 27
-170.502 -949.987 -1461 32 32 28
-165.69 -941.372 -1448 31 31 27
-161.612 -936.663 -1441 30 33 28
-158.337 -936.508 -1441 32 32 28
-154.524 -933.107 -1436 31 31 27
-150.948 -931.011 -1433 29 29 25
-147.592 -930.216 -1432 25 25 21
-144.242 -929.426 -1431 25 25 21
-140.8 -927.989 -1429 26 26 22
-137.56 -927.855 -1429 27 27 23
-134.041 -925.776 -1426 28 28 26
-130.719 -924.999 -1425 29 29 27
-127.493 -924.874 -1425 28 28 26
-123.919 -922.156 -1421 30 30 28
-120.62 -921.389 -1420 32 32 28
-117.326 -920.626 -1419 30 30 26
-113.556 -915.973 -1412 31 31 27
-109.818 -911.325 -1405 30 30 26
-105.43 -900.843 -1389 32 32 27
-100.599 -885.828 -1366 34 34 30
-96.6591 -877.952 -1354 35 35 33
-92.9122 -871.377 -1344 37 37 35
-89.6128 -868.695 -1340 37 37 35
-86.3322 -866.017 -1336 38 38 34
-83.1953 -864.64 -1334 39 40 33
-80.1284 -863.913 -1333 38 39 32
-76.8931 -861.245 -1329 39 40 33
-73.9548 -861.82 -1330 38 39 32
-70.8526 -860.454 -1328 37 38 31
-67.7601 -859.092 -1326 39 40 33
-64.6772 -857.733 -1324 39 40 33
-61.6507 -857.024 -1323 37 40 33
-58.5849 -855.671 -1321 38 40 33
-55.6129 -855.616 -1321 39 40 33
-52.6813 -856.211 -1322 40 41 34
-49.7834 -857.458 -1324 39 40 35
-46.9476 -860.001 -1328 38 38 34
-44.0944 -862.548 -1332 37 38 31
-41.2853 -866.392 -1338 36 37 30
-38.3923 -868.944 -1342 37 37 31
-35.5082 -872.146 -1347 40 38 32
-32.5779 -874.703 -1351 37 38 30
-29.6299 -877.263 -1355 36 37 30
-26.625 -878.531 -1357 36 37 30
-23.5592 -877.859 -1356 32 35 28
-20.5284 -878.485 -1357 32 35 28
-17.545 -881.704 -1362 34 37 30
-14.4753 -881.041 -1361 36 39 32
-11.4774 -885.56 -1368 34 38 31
-8.42971 -888.14 -1372 34 37 30
-5.37211 -892.018 -1378 34 37 30
-2.28081 -893.308 -1380 34 37 30
0.820454 -895.897 -1384 35 38 31
3.93137 -896.547 -1385 35 37 30
7.06205 -899.142 -1389 35 37 29
10.2106 -901.739 -1393 35 38 31
13.3486 -902.398 -1394 35 38 31
16.5267 -905.002 -1398 38 40 34
19.7228 -907.609 -1402 37 37 33
22.9536 -910.867 -1407 34 34 30
26.1885 -913.48 -1411 36 36 30
29.4416 -916.096 -1415 37 37 31
32.6667 -917.421 -1417 35 36 29
35.7495 -914.864 -1413 37 37 33
38.677 -909.073 -1404 43 42 38
-231.527 -1067.5 -1631 40 38 34
-225.554 -1056.81 -1615 30 29 26
-220.481 -1050.05 -1605 29 29 27
-215.591 -1043.95 -1596 31 31 29
-211.143 -1039.82 -1590 31 32 30
-206.202 -1033.07 -1580 30 33 30
-200.925 -1024.37 -1567 30 30 26
-195.583 -1015.03 -1553 29 29 25
-190.059 -1004.39 -1537 30 29 25
-183.154 -985.908 -1509 32 30 26
-176.856 -970.054 -1485 33 31 27
-170.902 -955.515 -1463 32 31 27
-166.08 -946.861 -1450 31 31 27
-162.218 -943.436 -1445 28 31 26
-158.49 -940.669 -1441 29 30 25
-154.998 -939.21 -1439 28 28 24
-151.41 -937.104 -1436 26 26 22
-147.735 -934.348 -1432 24 24 20
-144.382 -933.554 -1431 25 25 21
-140.936 -932.111 -1429 25 25 21
-137.597 -931.323 -1428 27 27 23
-134.359 -931.191 -1428 29 29 27
-131.029 -930.41 -1427 29 29 27
-127.796 -930.284 -1427 28 28 26
-124.388 -928.858 -1425 29 29 27
-120.737 -925.48 -1420 32 32 27
-117.274 -923.41 -1417 31 32 25
-113.746 -920.692 -1413 31 31 27
-109.611 -912.764 -1401 30 31 24
-105.152 -901.585 -1384 32 33 27
-100.697 -889.76 -1366 34 34 30
-96.2523 -877.29 -1347 36 36 34
-92.8637 -873.942 -1342 37 37 35
-89.4985 -870.598 -1337 36 36 34
-86.2862 -868.559 -1334 37 37 33
-83.1508 -867.175 -1332 39 40 33
-80.2057 -867.747 -1333 38 39 32
-76.9674 -865.067 -1329 38 39 32
-73.9705 -864.994 -1329 38 39 32
-70.8142 -862.971 -1326 36 37 30
-67.8254 -862.904 -1326 38 39 32
-64.6418 -860.237 -1322 39 40 33
-61.6635 -860.176 -1322 38 39 32
-58.6414 -859.468 -1321 39 40 33
-55.6244 -858.762 -1320 40 41 34
-52.772 -860.661 -1323 40 41 34
-49.9066 -862.563 -1326 39 39 34
-47.0283 -864.468 -1329 37 37 33
-44.17 -867.025 -1333 37 38 31
-41.3559 -870.886 -1339 36 37 30
-38.4866 -874.1 -1344 37 38 31
-35.5688 -876.666 -1348 39 38 32
-32.5851 -877.933 -1350 36 37 30
-29.6803 -881.805 -1356 36 36 30
-26.6114 -881.128 -1355 37 36 31
-23.5819 -881.754 -1356 33 36 29
-20.5482 -882.382 -1357 32 35 28
-17.536 -884.315 -1360 34 37 30
-14.4999 -885.6 -1362 36 39 33
-11.48 -888.839 -1367 37 40 33
-8.42556 -890.78 -1370 36 39 32
-5.36539 -894.024 -1375 35 38 31
-2.28298 -897.271 -1380 35 38 31
0.82012 -898.571 -1382 34 37 30
3.93525 -900.524 -1385 34 37 30
7.0637 -902.48 -1388 34 36 29
10.1985 -903.789 -1390 33 36 29
13.3521 -905.751 -1393 35 36 31
16.531 -908.367 -1397 36 36 32
19.728 -910.985 -1401 37 37 33
23.0085 -916.208 -1409 36 37 30
26.2325 -918.183 -1412 36 36 31
29.5117 -921.461 -1417 36 36 32
32.7676 -923.442 -1420 35 36 29
35.8601 -920.874 -1416 38 38 34
38.7143 -913.106 -1404 42 42 38
-225.635 -1060.84 -1614 31 29 26
-220.422 -1053.4 -1603 29 29 27
-215.396 -1046.61 -1593 31 31 29
-210.951 -1042.46 -1587 31 31 29
-206.012 -1035.69 -1577 31 31 29
-201.378 -1030.23 -1569 30 30 26
-196.152 -1021.5 -1556 29 29 25
-190.493 -1010.16 -1539 29 29 25
-183.698 -992.251 -1512 31 30 26
-177.624 -977.638 -1490 32 30 26
-171.77 -963.69 -1469 31 30 26
-166.586 -953.029 -1453 31 31 27
-162.826 -950.244 -1449 30 31 27
-158.865 -946.152 -1443 30 30 25
-155.149 -943.377 -1439 27 28 22
-151.769 -942.571 -1438 25 25 21
-148.189 -940.458 -1435 27 27 23
-144.523 -937.694 -1431 28 28 25
-141.468 -938.865 -1433 28 28 26
-137.924 -936.763 -1430 27 27 25
-134.489 -935.32 -1428 28 28 26
-131.341 -935.845 -1429 27 27 25
-127.83 -933.754 -1426 28 28 26
-124.51 -932.976 -1425 31 31 29
-120.939 -930.238 -1421 32 32 28
-117.305 -926.849 -1416 32 33 26
-113.615 -922.809 -1410 31 31 27
-109.483 -914.847 -1398 31 31 25
-105.026 -903.618 -1381 33 33 28
-100.499 -891.087 -1362 37 36 32
-96.3459 -881.178 -1347 38 38 35
-92.746 -875.853 -1339 38 38 34
-89.3845 -872.494 -1334 39 38 34
-86.2406 -871.1 -1332 38 38 34
-83.0441 -869.056 -1329 39 39 35
-80.1029 -869.63 -1330 39 39 34
-76.9262 -867.592 -1327 39 40 33
-73.9865 -868.173 -1328 36 37 30
-70.8828 -866.795 -1326 36 37 30
-67.84 -866.074 -1325 38 39 32
-64.7046 -864.048 -1322 40 41 34
-61.6766 -863.334 -1321 40 41 34
-58.6094 -861.968 -1319 40 41 34
-55.6783 -862.566 -1320 41 42 35
-52.7433 -863.167 -1321 40 41 34
-49.8796 -865.077 -1324 38 39 32
-47.0738 -868.297 -1329 38 39 32
-44.1796 -870.212 -1332 38 39 32
-41.3341 -873.438 -1337 36 37 30
-38.4379 -876.012 -1341 35 36 29
-35.524 -878.589 -1345 35 36 29
-32.5683 -880.516 -1348 35 36 29
-29.6214 -883.098 -1352 37 36 31
-26.6764 -886.337 -1357 38 36 32
-23.6221 -886.313 -1357 33 36 29
-20.5832 -886.944 -1358 33 37 30
-17.5529 -888.232 -1360 35 38 32
-14.5245 -890.176 -1363 36 39 33
-11.4911 -892.775 -1367 38 41 34
-8.44605 -896.031 -1372 36 39 32
-5.37449 -898.637 -1376 36 39 32
-2.28019 -899.287 -1377 36 39 32
0.821165 -902.551 -1382 35 38 31
3.93914 -904.513 -1385 35 38 32
7.06556 -905.824 -1387 32 35 30
10.2086 -907.792 -1390 32 35 28
13.365 -909.763 -1393 34 35 30
16.5233 -911.084 -1395 36 36 32
19.7471 -915.02 -1401 36 36 32
23.0308 -920.266 -1409 36 37 30
26.3137 -924.209 -1415 35 35 30
29.6447 -928.808 -1422 36 36 31
32.915 -930.798 -1425 36 36 30
36.0471 -928.872 -1422 39 39 35
38.9452 -921.724 -1411 43 43 39
-225.298 -1062.9 -1610 31 29 26
-220.501 -1057.4 -1602 32 32 30
-215.473 -1050.59 -1592 30 30 28
-211.557 -1049.06 -1590 29 29 27
-206.738 -1042.91 -1581 30 30 28
-201.961 -1036.78 -1572 30 30 26
-197.102 -1029.99 -1562 28 28 24
-191.919 -1021.22 -1549 28 28 24
-184.973 -1002.58 -1521 28 28 24
-178.753 -987.241 -1498 29 28 24
-172.641 -971.912 -1475 32 31 27
-167.324 -960.544 -1458 33 31 27
-162.986 -954.453 -1449 31 31 27
-159.462 -952.977 -1447 30 31 25
-155.517 -948.871 -1441 29 30 23
-152.023 -947.403 -1439 27 27 23
-148.437 -945.28 -1436 26 26 22
-144.866 -943.162 -1433 27 27 22
-141.409 -941.705 -1431 27 28 21
-138.252 -942.226 -1432 27 27 23
-134.715 -940.118 -1429 28 28 25
-131.561 -940.645 -1430 29 29 27
-128.314 -940.518 -1430 30 30 26
-124.806 -938.421 -1427 30 30 28
-121.228 -935.67 -1423 31 30 28
-117.835 -934.238 -1421 32 30 26
-113.726 -926.893 -1410 30 30 26
-109.355 -916.924 -1395 31 31 27
-104.748 -904.331 -1376 35 34 30
-100.376 -893.059 -1359 38 37 33
-96.2251 -883.106 -1344 36 36 33
-92.8367 -879.728 -1339 38 37 34
-89.5388 -877.011 -1335 38 36 34
-86.3247 -874.954 -1332 38 38 34
-83.1251 -872.901 -1329 40 40 36
-80.1811 -873.478 -1330 39 39 35
-77.0012 -871.431 -1327 39 40 33
-74.0587 -872.013 -1328 38 39 32
-70.8984 -869.973 -1325 39 40 33
-67.8037 -868.592 -1323 40 41 34
-64.6207 -865.901 -1319 40 41 34
-61.7368 -867.152 -1321 40 41 34
-58.6666 -865.781 -1319 41 42 35
-55.6903 -865.725 -1319 40 41 34
-52.7946 -866.985 -1321 40 41 34
-49.9282 -868.903 -1324 38 39 32
-47.1197 -872.137 -1329 37 38 31
-44.2226 -874.061 -1332 35 36 29
-41.2815 -875.332 -1334 34 35 28
-38.4466 -879.23 -1340 35 36 29
-35.5057 -881.162 -1343 35 36 29
-32.5517 -883.097 -1346 38 39 32
-29.6502 -887.004 -1352 39 38 32
-26.663 -888.944 -1355 39 37 32
-23.6451 -890.232 -1357 35 38 31
-20.6032 -890.866 -1358 33 37 30
-17.5958 -893.472 -1362 34 37 30
-14.528 -893.456 -1362 36 39 32
-11.4854 -895.412 -1365 37 40 33
-8.44175 -898.682 -1370 35 38 31
-5.37188 -901.299 -1374 35 38 31
-2.28568 -904.575 -1379 36 39 32
0.823213 -907.854 -1384 36 39 32
3.94306 -908.513 -1385 36 38 32
7.06744 -909.174 -1386 34 35 31
10.2113 -911.151 -1389 33 36 29
13.3493 -911.818 -1390 36 36 32
16.5277 -914.457 -1394 36 36 32
19.7666 -919.067 -1401 36 36 32
23.0371 -923.68 -1408 35 35 31
26.3394 -928.296 -1415 34 34 30
29.6318 -931.604 -1420 36 36 32
32.9239 -934.259 -1424 35 35 31
36.0823 -932.98 -1422 37 37 33
39.0661 -927.768 -1414 42 42 38
-226.221 -1070.92 -1615 30 30 28
-221.133 -1064.07 -1605 33 33 31
-216.093 -1057.23 -1595 32 32 30
-212.166 -1055.69 -1593 30 30 28
-207.073 -1048.19 -1582 29 29 27
-202.289 -1042.03 -1573 30 30 28
-197.423 -1035.21 -1563 30 30 27
-192.108 -1025.74 -1549 30 30 27
-185.642 -1009.66 -1525 29 29 25
-179.169 -992.932 -1500 29 29 25
-173.28 -978.858 -1479 31 31 27
-167.948 -967.439 -1462 33 31 27
-163.484 -960.658 -1452 30 30 26
-159.398 -955.868 -1445 30 29 24
-155.778 -953.728 -1442 30 28 22
-152.067 -950.93 -1438 28 28 22
-148.48 -948.798 -1435 26 26 22
-144.807 -946.009 -1431 26 27 22
-141.647 -946.529 -1432 25 28 23
-138.582 -947.712 -1434 28 28 24
-135.131 -946.256 -1432 28 28 25
-131.875 -946.124 -1432 29 29 27
-128.44 -944.674 -1430 31 31 27
-124.841 -941.908 -1426 32 32 30
-121.262 -939.144 -1422 33 32 29
-117.784 -937.046 -1419 34 32 28
-113.757 -930.328 -1409 31 31 27
-109.305 -919.655 -1393 32 32 28
-104.47 -905.026 -1371 36 36 32
-100.327 -895.684 -1357 37 37 33
-96.3196 -887.007 -1344 38 38 36
-92.9277 -883.614 -1339 38 38 36
-89.5595 -880.226 -1334 38 37 35
-86.3445 -878.16 -1331 39 39 35
-83.144 -876.097 -1328 37 37 33
-80.2597 -877.336 -1330 37 37 32
-77.0767 -875.28 -1327 38 39 32
-74.0755 -875.206 -1327 36 37 30
-71.0215 -874.475 -1326 38 39 32
-67.9214 -873.088 -1324 40 41 34
-64.7821 -871.044 -1321 41 42 35
-61.7037 -869.663 -1319 42 43 36
-58.724 -869.604 -1319 41 42 35
-55.7871 -870.207 -1320 39 40 33
-52.8464 -870.813 -1321 39 40 33
-50.0526 -874.059 -1326 39 40 33
-47.1303 -875.329 -1328 37 38 31
-44.2326 -877.262 -1331 35 36 29
-41.291 -878.538 -1333 36 37 30
-38.4267 -881.794 -1338 37 38 31
-35.4875 -883.735 -1341 37 38 31
-32.5592 -886.338 -1345 38 39 32
-29.6573 -890.261 -1351 38 37 31
-26.6693 -892.211 -1354 37 35 29
-23.6333 -892.845 -1355 34 37 30
-20.6537 -896.118 -1360 33 37 30
-17.5871 -896.099 -1360 33 36 29
-14.5207 -896.083 -1360 35 38 31
-11.5049 -900.024 -1366 35 38 31
-8.44383 -901.991 -1369 34 37 30
-5.3771 -905.279 -1374 34 37 30
-2.28436 -907.251 -1377 35 38 31
0.823482 -911.204 -1383 35 38 31
3.94414 -911.865 -1384 37 38 32
7.07954 -913.847 -1387 37 38 32
10.2066 -913.856 -1387 34 37 30
13.3528 -915.185 -1389 36 36 32
16.5202 -917.177 -1392 36 36 32
19.7295 -920.489 -1397 39 39 35
23.027 -926.44 -1406 32 32 28
26.2721 -929.1 -1410 34 34 30
29.5775 -933.081 -1416 34 34 30
32.8406 -935.089 -1419 34 34 30
36.0162 -934.464 -1418 36 36 32
-226.446 -1075.66 -1615 29 29 25
-221.628 -1070.11 -1607 30 30 28
-216.579 -1063.23 -1597 31 31 29
-212.91 -1063.02 -1597 32 32 30
-207.934 -1056.15 -1587 31 31 29
-203.263 -1050.62 -1579 29 29 27
-198.378 -1043.77 -1569 30 30 28
-193.168 -1034.93 -1556 31 31 29
-186.68 -1018.78 -1532 30 30 26
-180.303 -1002.64 -1508 29 29 25
-174.038 -986.504 -1484 29 29 25
-168.46 -973.705 -1465 31 29 25
-164.097 -967.558 -1456 30 30 26
-159.666 -960.753 -1446 31 29 24
-155.932 -957.939 -1442 30 28 22
-152.535 -957.121 -1441 28 29 22
-148.627 -952.987 -1435 28 28 23
-145.152 -951.513 -1433 26 27 23
-141.887 -951.371 -1433 24 27 22
-138.719 -951.895 -1434 26 26 22
-135.17 -949.768 -1431 28 28 25
-131.913 -949.636 -1431 30 30 28
-128.478 -948.18 -1429 30 30 26
-125.14 -947.391 -1428 30 30 28
-121.552 -944.615 -1424 32 32 29
-117.984 -941.843 -1420 34 32 28
-113.95 -935.096 -1410 32 32 28
-109.256 -922.386 -1391 32 32 28
-104.42 -907.693 -1369 35 35 31
-100.204 -897.646 -1354 38 38 34
-96.4146 -890.92 -1344 38 38 35
-93.0194 -887.512 -1339 37 37 33
-89.7822 -885.433 -1336 37 37 34
-86.6245 -884.021 -1334 38 38 34
-83.3513 -881.286 -1330 37 39 34
-80.2179 -879.88 -1328 36 38 33
-77.1526 -879.14 -1327 37 38 31
-74.0368 -877.741 -1325 35 36 29
-70.9842 -877.006 -1324 37 38 31
-67.937 -876.275 -1323 39 40 33
-64.7967 -874.223 -1320 40 41 34
-61.8112 -874.161 -1320 41 42 35
-58.8263 -874.101 -1320 42 43 36
-55.969 -876.031 -1323 40 41 34
-52.9785 -875.977 -1323 38 39 32
-50.1397 -878.575 -1327 39 40 33
-47.2121 -879.851 -1329 38 39 32
-44.2429 -880.468 -1330 39 40 33
-41.3005 -881.75 -1332 38 39 32
-38.407 -884.358 -1336 37 38 31
-35.5224 -887.631 -1341 37 38 31
-32.6155 -890.907 -1346 35 36 29
-29.6424 -892.862 -1349 36 36 29
-26.6955 -896.144 -1354 37 36 30
-23.639 -896.119 -1354 33 36 29
-20.6284 -898.083 -1357 32 36 29
-17.6173 -900.711 -1361 33 36 29
-14.5563 -901.358 -1362 35 38 31
-11.4993 -902.668 -1364 36 39 32
-8.43357 -903.982 -1366 34 37 30
-5.39018 -910.593 -1376 35 38 31
-2.29154 -913.236 -1380 35 38 31
0.825542 -916.545 -1385 35 38 31
3.95949 -918.532 -1388 35 37 30
7.09168 -918.538 -1388 36 37 30
10.2315 -919.208 -1389 33 36 29
13.3949 -921.205 -1392 36 36 32
16.5722 -923.206 -1395 37 37 33
19.8056 -927.194 -1401 37 37 33
23.017 -929.201 -1404 33 33 29
26.3168 -933.858 -1411 36 36 32
29.6276 -937.857 -1417 37 37 33
32.8962 -939.874 -1420 35 35 31
36.0261 -937.922 -1417 37 37 33
39.0876 -934.65 -1412 40 40 36
-228.216 -1087.76 -1626 27 27 23
-222.954 -1080.18 -1615 28 28 26
-218.153 -1074.61 -1607 29 29 27
-213.79 -1071.05 -1602 30 30 28
-209.191 -1066.16 -1595 31 31 29
-204.239 -1059.27 -1585 30 30 28
-199.208 -1051.71 -1574 30 30 28
-193.733 -1041.5 -1559 31 31 29
-187.598 -1027.28 -1538 32 32 28
-180.602 -1007.72 -1509 30 30 26
-174.329 -991.522 -1485 29 29 25
-168.743 -978.665 -1466 29 28 24
-164.486 -973.159 -1458 29 29 25
-160.047 -966.323 -1448 29 29 25
-156.412 -964.163 -1445 29 28 24
-152.475 -960.006 -1439 27 27 22
-148.982 -958.521 -1437 29 29 25
-145.094 -954.373 -1431 28 28 24
-142.028 -955.564 -1433 25 26 21
-138.76 -955.423 -1433 24 24 20
-135.304 -953.954 -1431 26 26 23
-132.044 -953.821 -1431 29 29 27
-128.785 -953.691 -1431 29 29 27
-125.352 -952.231 -1429 30 30 28
-121.502 -947.444 -1422 33 32 29
-118.101 -945.993 -1420 35 33 29
-113.901 -937.884 -1408 32 32 28
-108.893 -922.453 -1385 31 31 27
-104.295 -909.693 -1366 36 35 31
-100.081 -899.603 -1351 39 39 35
-96.5102 -894.844 -1344 36 36 32
-93.1116 -891.421 -1339 36 36 32
-89.8712 -889.333 -1336 36 36 32
-86.7103 -887.914 -1334 37 39 34
-83.4967 -885.833 -1331 38 41 36
-80.3579 -884.421 -1329 39 42 37
-77.2872 -883.677 -1328 39 40 33
-74.2778 -883.602 -1328 37 38 31
-71.1618 -882.199 -1326 37 38 31
-68.107 -881.465 -1325 39 40 33
-65.0083 -880.068 -1323 39 40 33
-61.9661 -879.34 -1322 40 41 34
-59.0184 -879.945 -1323 41 42 35
-56.0667 -880.553 -1324 40 41 34
-53.111 -881.164 -1325 38 39 32
-50.1135 -881.113 -1325 37 38 31
-47.2589 -883.725 -1329 38 39 32
-44.2866 -884.344 -1330 38 39 32
-41.3103 -884.967 -1331 37 38 31
-38.5026 -889.581 -1338 36 37 30
-35.584 -892.204 -1342 37 38 31
-32.6477 -894.83 -1346 36 37 30
-29.6497 -896.128 -1348 36 37 30
-26.7218 -900.089 -1354 36 37 30
-23.6448 -899.399 -1353 33 36 29
-20.6487 -902.036 -1357 32 35 28
-17.6088 -903.347 -1359 33 36 29
-14.5599 -904.66 -1361 36 39 32
-11.5191 -907.306 -1365 36 39 32
-8.47276 -911.285 -1371 36 39 32
-5.39526 -914.601 -1376 34 37 30
-2.29043 -915.927 -1378 33 36 29
0.825818 -919.914 -1384 33 36 29
3.96346 -922.576 -1388 36 37 31
7.10898 -923.911 -1390 35 35 30
10.2638 -925.249 -1392 33 36 30
13.4179 -925.925 -1393 36 36 32
16.6125 -928.599 -1397 37 37 33
19.8252 -931.276 -1401 36 36 32
23.0726 -934.621 -1406 34 34 30
26.3615 -938.634 -1412 34 34 32
29.6988 -943.315 -1419 35 35 32
32.9752 -945.341 -1422 36 36 32
36.1638 -944.71 -1421 38 38 34
-228.165 -1091.21 -1624 29 29 25
-222.902 -1083.59 -1613 29 29 27
-218.507 -1080.01 -1608 28 28 27
-214.405 -1077.78 -1605 29 29 29
-209.794 -1072.87 -1598 30 30 28
-204.831 -1065.95 -1588 30 30 28
-199.788 -1058.36 -1577 30 30 27
-194.55 -1049.44 -1564 30 30 26
-188.762 -1037.17 -1546 31 31 29
-181.862 -1018.2 -1518 29 29 26
-175.326 -1000.58 -1492 29 29 26
-169.257 -984.985 -1469 30 30 26
-164.764 -978.113 -1459 29 29 25
-160.207 -970.576 -1448 29 29 25
-156.677 -969.077 -1446 28 28 24
-152.734 -964.901 -1440 28 28 24
-149.131 -962.74 -1437 29 29 25
-145.746 -961.922 -1436 27 27 23
-142.269 -960.438 -1434 25 25 21
-138.995 -960.297 -1434 26 26 22
-135.534 -958.821 -1432 26 26 23
-132.268 -958.687 -1432 29 29 27
-128.734 -956.548 -1429 30 30 28
-125.214 -954.413 -1426 31 31 29
-121.623 -951.612 -1422 31 31 29
-118.052 -948.816 -1418 31 31 27
-113.691 -939.333 -1404 31 31 27
-109.001 -926.511 -1385 32 31 27
-104.169 -911.688 -1363 38 36 32
-99.958 -901.553 -1348 38 38 34
-96.4627 -897.443 -1342 37 37 34
-93.0652 -894.004 -1337 36 36 33
-89.9607 -893.244 -1336 35 35 31
-86.7317 -891.15 -1333 34 37 32
-83.5798 -889.728 -1331 37 40 35
-80.4984 -888.978 -1330 38 41 34
-77.4224 -888.231 -1329 38 39 32
-74.2958 -886.819 -1327 36 37 30
-71.2864 -886.746 -1327 39 40 33
-68.1233 -884.672 -1324 40 41 34
-65.0729 -883.938 -1323 39 40 33
-62.0277 -883.206 -1322 39 40 33
-59.0771 -883.814 -1323 40 41 34
-56.1224 -884.424 -1324 38 39 32
-53.1638 -885.038 -1325 37 38 31
-50.2012 -885.654 -1326 36 37 30
-47.199 -885.605 -1326 38 39 32
-44.2973 -887.564 -1329 39 40 33
-41.3202 -888.189 -1330 37 38 31
-38.512 -892.824 -1337 37 38 31
-35.5662 -894.79 -1340 38 39 32
-32.6558 -898.095 -1345 37 38 31
-29.6791 -900.067 -1348 36 37 30
-26.6891 -902.042 -1351 35 36 29
-23.6508 -902.685 -1352 32 35 28
-20.6691 -906.001 -1357 33 36 29
-17.6132 -906.65 -1358 34 37 30
-14.5636 -907.969 -1360 36 39 32
-11.522 -910.627 -1364 33 36 29
-8.47492 -914.622 -1370 33 36 29
-5.39271 -917.286 -1374 33 36 29
-2.2993 -922.623 -1382 34 37 30
0.827888 -925.293 -1386 35 38 31
3.97031 -927.298 -1389 36 38 32
7.13164 -929.974 -1393 35 35 31
10.2888 -930.65 -1394 35 35 31
13.4507 -931.33 -1395 35 35 31
16.6647 -934.683 -1400 37 37 33
19.8875 -937.372 -1404 37 37 33
23.0956 -938.729 -1406 35 35 31
