ply
format ascii 1.0
comment Created by Open3D
element vertex 1469
property double x
property double y
property double z
property uchar red
property uchar green
property uchar blue
end_header
-383.035 -1153.04 -1617 53 50 51
-371.865 -1130.53 -1586 52 50 48
-362.474 -1113.03 -1562 46 45 42
-353.891 -1097.68 -1541 40 40 36
-347.685 -1089.46 -1530 38 41 38
-342.661 -1084.82 -1524 38 41 38
-338.558 -1083.03 -1522 40 43 40
-335.129 -1083.37 -1523 37 40 37
-331.699 -1083.72 -1524 37 40 37
-328.699 -1085.5 -1527 37 37 35
-324.836 -1084.44 -1526 37 37 35
-320.349 -1081.25 -1522 38 38 36
-316.718 -1080.9 -1522 38 38 36
-312.268 -1077.73 -1518 39 42 39
-308.856 -1078.1 -1519 38 41 38
-304.639 -1075.64 -1516 37 40 37
-301.631 -1077.44 -1519 37 41 36
-298.024 -1077.12 -1519 37 40 35
-294.614 -1077.51 -1520 37 40 35
-290.628 -1075.78 -1518 37 40 35
-287.032 -1075.47 -1518 35 38 33
-282.693 -1072.33 -1514 34 37 32
-278.376 -1069.2 -1510 35 38 33
-273.716 -1064.65 -1504 36 39 34
-269.447 -1061.53 -1500 35 38 33
-264.668 -1056.29 -1493 33 36 31
-261.674 -1058.13 -1496 34 37 32
-257.806 -1056.44 -1494 37 37 33
-253.95 -1054.75 -1492 36 36 32
-249.771 -1051.66 -1488 35 35 31
-245.447 -1047.86 -1483 31 31 27
-240.497 -1041.24 -1474 30 30 26
-235.913 -1036.04 -1467 31 33 28
-231.523 -1031.55 -1461 32 33 29
-227.164 -1027.07 -1455 32 32 30
-222.989 -1023.3 -1450 33 33 31
-218.84 -1019.54 -1445 36 36 34
-214.716 -1015.78 -1440 39 40 38
-211.059 -1014.14 -1438 38 41 38
-207.124 -1011.1 -1434 39 42 39
-203.494 -1009.47 -1432 38 42 39
-199.316 -1005.03 -1426 39 43 40
-195.994 -1004.82 -1426 40 44 39
-192.673 -1004.61 -1426 38 41 38
-189.62 -1005.82 -1428 37 40 37
-186.69 -1007.73 -1431 36 39 36
-183.748 -1009.65 -1434 38 38 36
-181.297 -1014.38 -1441 39 39 37
-178.446 -1017.01 -1445 38 38 36
-176.062 -1022.45 -1453 35 38 35
-173.049 -1024.37 -1456 34 37 34
-170.723 -1030.52 -1465 32 35 32
-167.9 -1033.86 -1470 29 32 29
-165.391 -1039.31 -1478 29 32 29
-162.518 -1042.65 -1483 27 32 27
-159.731 -1046.7 -1489 26 30 26
-157.338 -1053.56 -1499 27 30 27
-154.9 -1060.42 -1509 28 31 28
-152.318 -1066.58 -1518 27 28 26
-149.891 -1074.15 -1529 25 25 23
-146.937 -1078.21 -1535 25 24 21
-143.863 -1081.57 -1540 23 22 21
-140.585 -1083.52 -1543 21 18 18
-136.94 -1082.67 -1542 21 17 18
-133.387 -1082.53 -1542 21 18 18
-129.583 -1080.29 -1539 23 20 21
-125.548 -1075.94 -1533 28 25 26
-121.861 -1074.41 -1531 30 27 28
-118.107 -1072.17 -1528 29 26 27
-114.518 -1071.35 -1527 27 26 26
-110.643 -1067.72 -1522 29 27 28
-107.075 -1066.91 -1521 30 27 28
-103.376 -1064.69 -1518 29 29 29
-99.5607 -1061.08 -1513 27 27 27
-96.1501 -1061.68 -1514 29 29 28
-92.5524 -1060.17 -1512 30 30 28
-88.9647 -1058.68 -1510 32 32 30
-85.2739 -1055.78 -1506 31 31 30
-81.7654 -1054.99 -1505 31 31 31
-78.002 -1050.7 -1499 31 31 31
-74.267 -1046.41 -1493 31 31 29
-70.7026 -1044.24 -1490 31 31 29
-67.0624 -1040.66 -1485 31 31 29
-63.4887 -1037.79 -1481 32 32 32
-59.9745 -1035.62 -1478 34 34 33
-56.4747 -1033.46 -1475 38 38 37
-52.9892 -1031.3 -1472 37 37 35
-49.5179 -1029.14 -1469 35 35 33
-46.061 -1026.99 -1466 36 36 34
-42.7056 -1026.94 -1466 38 38 36
-39.3507 -1026.9 -1466 40 40 36
-35.9471 -1025.46 -1464 41 41 37
-32.6198 -1026.12 -1465 39 40 36
-29.2683 -1026.09 -1465 36 39 34
-25.9171 -1026.06 -1465 39 39 35
-22.5507 -1025.34 -1464 40 40 38
-19.2416 -1027.42 -1467 40 41 39
-15.8865 -1027.4 -1467 39 42 39
-12.5401 -1028.08 -1468 37 40 37
-9.16424 -1025.97 -1465 36 39 36
-5.81804 -1026.66 -1466 35 38 35
-2.46414 -1025.96 -1465 35 38 35
0.888384 -1028.76 -1469 35 38 33
4.25054 -1029.46 -1470 38 39 36
7.62766 -1031.57 -1473 39 40 38
11.0186 -1033.68 -1476 40 40 37
14.394 -1033.69 -1476 41 41 37
17.8057 -1035.81 -1479 42 41 37
21.2456 -1038.63 -1483 42 41 37
24.7041 -1041.46 -1487 43 43 39
28.2189 -1045.69 -1493 44 44 40
31.6769 -1047.12 -1495 42 42 38
35.1909 -1049.96 -1499 40 41 36
38.6467 -1050.7 -1500 40 43 38
42.023 -1049.34 -1498 42 42 40
45.4212 -1048.69 -1497 41 42 40
48.8477 -1048.74 -1497 40 43 40
52.3447 -1050.19 -1499 42 45 40
55.8141 -1050.95 -1500 43 46 39
59.3283 -1052.41 -1502 42 45 37
62.852 -1053.88 -1504 39 42 34
66.2536 -1053.24 -1503 38 41 36
69.6047 -1051.91 -1501 41 44 39
73.0934 -1052.69 -1502 43 46 41
76.6893 -1054.87 -1505 42 45 40
80.1401 -1054.95 -1505 42 45 38
83.6473 -1055.74 -1506 42 45 38
87.2177 -1057.23 -1508 42 45 38
90.6779 -1057.33 -1508 42 45 38
94.0142 -1056.02 -1506 42 45 38
97.4719 -1056.13 -1506 40 43 36
101.199 -1059.04 -1510 41 44 37
104.737 -1059.85 -1511 40 43 36
108.925 -1066.97 -1521 38 41 36
113.087 -1073.4 -1530 41 41 37
117.443 -1081.24 -1541 43 43 39
122.479 -1094.7 -1560 47 47 43
-392.969 -1163.93 -1624 53 48 48
-387.84 -1159.92 -1619 53 49 48
-381.792 -1153.05 -1610 54 52 51
-362.635 -1117.16 -1561 46 45 43
-353.816 -1101.03 -1539 41 41 39
-347.153 -1091.35 -1526 39 42 39
-342.357 -1087.4 -1521 40 42 42
-338.48 -1086.31 -1520 40 42 41
-334.832 -1085.95 -1520 38 41 38
-332.059 -1088.44 -1524 35 38 35
-328.408 -1088.08 -1524 35 38 35
-325.187 -1089.16 -1526 37 39 37
-321.328 -1088.09 -1525 36 40 37
-316.852 -1084.89 -1521 36 40 35
-312.605 -1082.41 -1518 39 42 37
-308.986 -1082.08 -1518 38 41 37
-305.169 -1081.03 -1517 38 41 38
-301.559 -1080.7 -1517 38 41 36
-298.149 -1081.09 -1518 36 39 34
-294.543 -1080.77 -1518 36 39 34
-290.366 -1078.32 -1515 35 38 33
-286.584 -1077.3 -1514 36 39 34
-282.249 -1074.14 -1510 35 38 33
-278.306 -1072.42 -1508 36 39 34
-273.282 -1066.43 -1500 36 37 33
-269.377 -1064.72 -1498 36 38 33
-265.307 -1062.3 -1495 35 37 32
-262.13 -1063.44 -1497 35 38 33
-258.083 -1061.03 -1494 35 38 31
-254.223 -1059.33 -1492 35 35 31
-249.87 -1055.51 -1487 35 35 31
-245.379 -1050.99 -1481 33 33 31
-240.755 -1045.76 -1474 34 34 31
-236.649 -1042.66 -1470 36 36 33
-232.406 -1038.87 -1465 34 34 32
-228.345 -1035.78 -1461 34 34 32
-223.843 -1030.58 -1454 36 36 34
-219.528 -1026.09 -1448 37 37 35
-214.946 -1020.19 -1440 38 38 36
-211.137 -1017.83 -1437 39 42 39
-207.2 -1014.78 -1433 40 42 41
-203.569 -1013.14 -1431 38 40 39
-199.669 -1010.09 -1427 39 41 40
-196.478 -1010.59 -1428 39 42 39
-192.878 -1008.97 -1426 38 41 38
-189.689 -1009.47 -1427 37 40 37
-186.758 -1011.39 -1430 37 40 37
-183.816 -1013.31 -1433 39 41 39
-181.239 -1017.36 -1439 39 41 38
-178.141 -1018.58 -1441 39 41 38
-176.128 -1026.17 -1452 35 38 35
-173.352 -1029.52 -1457 36 36 33
-170.671 -1033.57 -1463 33 35 32
-168.078 -1038.34 -1470 29 32 29
-165.343 -1042.4 -1476 29 32 29
-162.691 -1047.17 -1483 30 33 28
-159.794 -1050.52 -1488 28 31 27
-157.505 -1058.12 -1499 25 28 25
-155.065 -1065.01 -1509 27 30 26
-152.68 -1072.61 -1520 27 29 26
-149.854 -1077.39 -1527 27 27 25
-147.38 -1084.99 -1538 27 27 24
-144.296 -1088.36 -1543 23 23 21
-140.916 -1089.62 -1545 21 19 19
-137.351 -1089.48 -1545 19 16 17
-133.355 -1085.81 -1540 19 16 17
-129.804 -1085.67 -1540 22 21 21
-125.681 -1080.6 -1533 26 24 24
-122.07 -1079.76 -1532 30 27 28
-118.309 -1077.52 -1529 29 26 27
-114.639 -1075.99 -1527 26 26 26
-110.761 -1072.34 -1522 28 28 28
-107.188 -1071.52 -1521 28 27 27
-103.486 -1069.3 -1518 27 27 27
-99.666 -1065.67 -1513 28 28 28
-96.2518 -1066.27 -1514 30 30 30
-92.7116 -1065.46 -1513 31 31 31
-89.1178 -1063.96 -1511 30 30 28
-85.5341 -1062.46 -1509 29 29 29
-81.9605 -1060.96 -1507 29 29 31
-78.3449 -1058.77 -1504 29 31 31
-74.4949 -1053.05 -1496 32 32 30
-70.9198 -1050.86 -1493 32 32 30
-67.1333 -1045.16 -1485 32 32 30
-63.5557 -1042.28 -1481 32 32 30
-60.0378 -1040.1 -1478 34 34 32
-56.4959 -1037.22 -1474 37 37 35
-53.0812 -1036.46 -1473 34 34 32
-49.6377 -1035 -1471 35 35 33
-46.1097 -1031.43 -1466 36 36 34
-42.7507 -1031.38 -1466 39 39 37
-39.3654 -1030.64 -1465 40 40 36
-35.9604 -1029.19 -1463 39 39 35
-32.5873 -1028.45 -1462 36 38 33
-29.2791 -1029.83 -1464 33 36 31
-25.9266 -1029.8 -1464 36 36 32
-22.5745 -1029.77 -1464 39 39 37
-19.2356 -1030.45 -1465 39 40 38
-15.9032 -1031.84 -1467 38 41 38
-12.5617 -1033.23 -1469 36 39 36
-9.16756 -1029.7 -1464 36 39 36
-5.82417 -1031.1 -1466 35 38 35
-2.46999 -1031.8 -1467 35 38 35
0.889972 -1033.91 -1470 35 38 33
4.25809 -1034.62 -1471 37 40 36
7.64616 -1037.44 -1475 38 41 37
11.0526 -1040.26 -1479 40 40 36
14.4386 -1040.27 -1479 40 40 36
17.8607 -1042.4 -1482 41 40 36
21.2681 -1043.13 -1483 44 42 38
24.7469 -1046.67 -1488 44 44 40
28.1732 -1047.4 -1489 43 43 39
31.7104 -1051.65 -1495 40 40 36
35.2283 -1054.5 -1499 38 39 34
38.6875 -1055.24 -1500 39 42 37
42.0677 -1053.88 -1498 42 42 40
45.4388 -1052.52 -1496 39 41 38
48.8669 -1052.57 -1496 40 43 39
52.2954 -1052.62 -1496 41 44 39
55.7987 -1054.09 -1498 40 43 36
59.3119 -1055.55 -1500 40 43 35
62.8349 -1057.03 -1502 41 44 36
66.2795 -1057.1 -1502 42 45 40
69.7248 -1057.17 -1502 41 44 39
73.1707 -1057.24 -1502 42 45 40
76.7196 -1058.73 -1504 43 46 40
80.1716 -1058.81 -1504 41 44 37
83.6803 -1059.61 -1505 40 43 36
87.1942 -1060.4 -1506 40 43 36
90.6537 -1060.49 -1506 43 46 39
93.9265 -1058.48 -1503 43 46 39
97.5103 -1059.99 -1505 41 44 37
101.037 -1060.8 -1506 41 44 37
104.709 -1063.02 -1509 41 44 37
108.825 -1069.48 -1518 40 41 36
113.206 -1078.05 -1530 41 41 37
117.873 -1088.74 -1545 44 44 40
122.531 -1098.74 -1559 46 46 42
-397.828 -1170.86 -1626 52 46 45
-392.673 -1166.83 -1621 52 46 45
-387.545 -1162.8 -1616 54 50 49
-379.598 -1150.15 -1599 51 49 47
-370.562 -1133.92 -1577 49 47 45
-361.636 -1117.71 -1555 45 44 42
-353.511 -1103.66 -1536 41 41 39
-347.076 -1094.65 -1524 40 43 40
-342.73 -1092.12 -1521 39 41 40
-338.849 -1091.03 -1520 38 40 40
-335.196 -1090.67 -1520 36 39 36
-332.42 -1093.17 -1524 35 38 35
-328.981 -1093.53 -1525 36 39 36
-325.967 -1095.32 -1528 35 38 35
-321.466 -1092.1 -1524 36 40 37
-317.613 -1091.04 -1523 38 41 36
-313.15 -1087.83 -1519 39 42 37
-309.729 -1088.21 -1520 39 42 37
-305.903 -1087.16 -1519 38 41 38
-302.483 -1087.54 -1520 37 40 35
-298.472 -1085.78 -1518 36 39 34
-294.474 -1084.03 -1516 36 39 34
-290.488 -1082.28 -1514 37 40 35
-286.704 -1081.26 -1513 37 40 35
-282.367 -1078.09 -1509 37 40 35
-278.052 -1074.93 -1505 36 39 34
-274.124 -1073.2 -1503 37 37 33
-270.028 -1070.76 -1500 36 38 33
-265.594 -1066.91 -1495 36 38 33
-261.887 -1065.91 -1494 35 38 33
-257.669 -1062.77 -1490 34 37 30
-253.814 -1061.07 -1488 36 37 32
-249.635 -1057.95 -1484 34 34 30
-245.477 -1054.83 -1480 34 34 32
-240.85 -1049.58 -1473 35 35 33
-237.226 -1048.61 -1472 34 34 32
-233.291 -1046.22 -1469 33 33 31
-229.06 -1042.41 -1464 33 33 31
-224.238 -1035.76 -1455 35 35 33
-219.916 -1031.25 -1449 38 38 36
-215.475 -1026.03 -1442 40 40 38
-211.511 -1022.95 -1438 39 42 39
-207.712 -1020.59 -1435 38 40 38
-203.93 -1018.24 -1432 36 39 37
-200.023 -1015.18 -1428 38 41 39
-196.689 -1014.97 -1428 41 44 41
-193.221 -1014.05 -1427 39 42 39
-189.892 -1013.84 -1427 37 40 37
-187.089 -1016.48 -1431 38 41 38
-184.269 -1019.12 -1435 38 41 38
-181.433 -1021.77 -1439 38 41 38
-178.827 -1025.83 -1445 36 39 36
-176.802 -1033.45 -1456 34 34 32
-173.775 -1035.39 -1459 33 33 29
-171.437 -1041.59 -1468 34 35 32
-168.372 -1043.54 -1471 32 35 32
-165.631 -1047.62 -1477 31 34 31
-162.645 -1050.28 -1481 32 35 31
-160.072 -1055.78 -1489 31 34 30
-157.673 -1062.7 -1499 28 31 28
-155.333 -1070.33 -1510 28 31 26
-152.843 -1077.25 -1520 29 30 27
-150.112 -1082.76 -1528 31 31 29
-147.441 -1088.98 -1537 29 29 27
-144.262 -1091.65 -1541 25 25 23
-141.067 -1094.33 -1545 21 19 19
-137.765 -1096.31 -1548 19 16 17
-133.93 -1094.04 -1545 20 17 18
-129.943 -1090.36 -1540 20 20 20
-126.061 -1087.39 -1536 24 23 24
-122.199 -1084.43 -1532 31 28 29
-118.358 -1081.47 -1528 30 30 30
-114.761 -1080.64 -1527 30 30 30
-110.878 -1076.98 -1522 29 29 29
-107.232 -1075.45 -1520 28 28 28
-103.527 -1073.21 -1517 27 27 27
-99.9039 -1071.69 -1515 28 28 28
-96.4178 -1071.58 -1515 29 29 29
-92.7487 -1069.36 -1512 30 30 30
-89.1534 -1067.85 -1510 30 30 30
-85.6249 -1067.05 -1509 30 30 32
-82.1021 -1066.25 -1508 30 30 32
-78.4281 -1063.34 -1504 30 30 30
-74.7733 -1060.43 -1500 30 30 28
-71.1377 -1057.52 -1496 31 31 29
-67.5213 -1054.62 -1492 32 32 30
-63.8379 -1050.31 -1486 32 32 30
-60.3049 -1048.13 -1483 34 34 32
-56.7093 -1044.53 -1478 36 36 34
-53.2096 -1042.35 -1475 34 34 32
-49.7242 -1040.18 -1472 35 35 33
-46.253 -1038.01 -1469 38 38 36
-42.7668 -1035.13 -1465 38 38 36
-39.407 -1035.09 -1465 40 40 36
-36.0232 -1034.34 -1464 39 39 35
-32.6218 -1032.89 -1462 37 37 33
-29.2701 -1032.86 -1462 37 37 33
-25.9896 -1035.66 -1466 38 38 34
-22.5983 -1034.22 -1464 38 38 36
-19.2427 -1034.2 -1464 37 38 36
-15.8983 -1034.88 -1465 34 37 34
-12.5408 -1034.87 -1465 35 38 35
-9.17092 -1033.44 -1463 37 40 37
-5.8184 -1033.44 -1463 37 40 37
-2.47247 -1036.26 -1467 37 40 37
0.891165 -1038.38 -1470 36 39 34
4.25966 -1038.38 -1470 36 37 34
7.64915 -1041.21 -1474 38 39 35
11.057 -1044.05 -1478 41 41 37
14.4247 -1042.65 -1476 40 40 36
17.8436 -1044.78 -1479 40 40 36
21.2621 -1046.22 -1481 42 41 37
24.7567 -1050.48 -1487 42 42 38
28.2033 -1051.92 -1489 41 41 37
31.7017 -1054.78 -1493 37 37 33
35.1483 -1055.52 -1494 39 40 36
38.6772 -1058.39 -1498 39 42 37
42.0561 -1057.02 -1496 42 45 40
45.4265 -1055.65 -1494 42 45 40
48.8861 -1056.41 -1495 41 44 39
52.386 -1057.87 -1497 42 45 39
55.8209 -1057.93 -1497 42 45 38
59.2958 -1058.7 -1498 41 44 36
62.86 -1060.89 -1501 41 44 37
66.2617 -1060.25 -1500 42 43 38
69.7525 -1061.03 -1501 41 44 41
73.2486 -1061.81 -1502 44 47 43
76.8012 -1063.3 -1504 45 48 42
80.257 -1063.39 -1504 43 46 39
83.658 -1062.77 -1503 42 45 38
87.0553 -1062.15 -1502 43 46 39
90.5091 -1062.25 -1502 44 47 40
94.0266 -1063.05 -1503 44 47 40
97.2899 -1061.03 -1500 43 46 41
101.347 -1067.51 -1509 40 43 37
105.168 -1071.15 -1514 42 44 38
109.085 -1075.51 -1520 42 42 38
113.401 -1083.42 -1531 42 42 38
118.304 -1096.28 -1549 44 44 40
122.583 -1102.78 -1558 50 50 46
-397.287 -1173.06 -1622 55 50 49
-393.105 -1171.9 -1621 53 47 46
-388.212 -1168.58 -1617 51 47 46
-379.54 -1153.71 -1597 51 49 47
-370.498 -1137.4 -1575 49 47 45
-361.335 -1120.4 -1552 46 44 42
-353.669 -1107.73 -1535 42 42 40
-347.913 -1100.85 -1526 39 42 39
-343.557 -1098.31 -1523 40 42 40
-339.666 -1097.21 -1522 38 40 40
-336.005 -1096.84 -1522 35 38 35
-333.002 -1098.64 -1525 34 37 34
-329.557 -1098.99 -1526 37 40 37
-325.683 -1097.91 -1525 38 41 38
-321.606 -1096.12 -1523 36 40 37
-317.751 -1095.05 -1522 36 39 34
-313.492 -1092.55 -1519 38 41 36
-309.863 -1092.21 -1519 38 41 36
-305.833 -1090.43 -1517 36 39 35
-302.414 -1090.82 -1518 36 39 34
-298.207 -1088.34 -1515 36 39 34
-294.405 -1087.29 -1514 35 38 33
-290.42 -1085.54 -1512 37 40 35
-286.637 -1084.51 -1511 37 40 35
-282.487 -1082.04 -1508 38 41 36
-278.539 -1080.3 -1506 38 41 36
-274.239 -1077.13 -1502 38 38 34
-270.141 -1074.69 -1499 34 36 31
-266.06 -1072.24 -1496 33 36 31
-262.522 -1071.96 -1496 33 36 31
-258.295 -1068.81 -1492 34 37 31
-254.26 -1066.38 -1489 35 36 31
-249.737 -1061.81 -1483 34 34 30
-245.909 -1060.11 -1481 33 33 31
-241.602 -1056.27 -1476 34 34 32
-237.966 -1055.29 -1475 34 34 32
-234.179 -1053.61 -1473 33 33 31
-229.934 -1049.78 -1468 33 33 31
-225.097 -1043.1 -1459 34 34 32
-220.609 -1037.85 -1452 36 36 34
-215.858 -1031.18 -1443 39 39 37
-211.592 -1026.66 -1437 39 42 39
-207.791 -1024.3 -1434 38 41 38
-204.007 -1021.93 -1431 35 38 35
-200.239 -1019.57 -1428 37 40 37
-196.9 -1019.35 -1428 40 43 38
-193.7 -1019.86 -1429 39 42 39
-190.363 -1019.65 -1429 38 41 38
-187.421 -1021.59 -1432 38 41 36
-184.339 -1022.81 -1434 36 39 36
-182.259 -1029.75 -1444 37 40 37
-179.267 -1031.69 -1447 36 39 36
-177.235 -1039.34 -1458 33 33 31
-174.32 -1042 -1462 32 32 28
-171.387 -1044.67 -1466 33 34 30
-168.324 -1046.62 -1469 32 35 32
-165.697 -1051.43 -1476 31 34 31
-162.929 -1055.53 -1482 31 34 30
-160.566 -1062.47 -1492 31 34 31
-158.158 -1069.42 -1502 28 31 28
-155.603 -1075.66 -1511 26 29 26
-153.208 -1083.33 -1522 26 28 25
-150.47 -1088.86 -1530 28 29 27
-147.503 -1092.97 -1536 29 29 27
-144.323 -1095.66 -1540 25 26 24
-141.218 -1099.06 -1545 21 21 20
-137.734 -1099.62 -1546 18 18 18
-133.9 -1097.34 -1543 19 16 17
-130.166 -1095.78 -1541 21 20 20
-126.032 -1090.66 -1534 24 23 24
-122.33 -1089.11 -1532 31 28 29
-118.639 -1087.56 -1530 31 31 31
-114.959 -1086.01 -1528 30 30 30
-111.143 -1083.05 -1524 29 29 29
-107.417 -1080.8 -1521 29 29 29
-103.706 -1078.55 -1518 28 28 28
-99.9446 -1075.6 -1514 28 28 28
-96.3934 -1074.79 -1513 29 29 29
-92.7863 -1073.27 -1511 31 31 31
-89.2486 -1072.46 -1510 31 31 31
-85.6028 -1070.23 -1507 32 32 33
-82.1897 -1070.85 -1508 30 30 32
-78.6162 -1069.35 -1506 28 28 27
-75.1027 -1068.56 -1505 30 30 28
-71.3089 -1063.51 -1498 31 31 29
-67.6387 -1059.88 -1493 29 29 27
-63.992 -1056.26 -1488 32 32 30
-60.4099 -1053.36 -1484 34 34 32
-56.8083 -1049.75 -1479 36 36 34
-53.3385 -1048.27 -1477 36 36 34
-49.7771 -1044.66 -1472 37 37 35
-46.2707 -1041.77 -1468 38 38 36
-42.8708 -1041.02 -1467 38 38 36
-39.4221 -1038.84 -1464 39 39 35
-36.0369 -1038.09 -1463 38 38 34
-32.6342 -1036.64 -1461 37 37 33
-29.3413 -1038.73 -1464 37 37 33
-25.9639 -1038 -1463 39 39 35
-22.6224 -1038.68 -1464 40 40 36
-19.2896 -1040.08 -1466 37 38 34
-15.9151 -1039.35 -1465 36 37 34
-12.5541 -1039.33 -1465 36 39 36
-9.18684 -1038.61 -1464 35 38 35
-5.83234 -1039.31 -1465 38 41 37
-2.47497 -1040.73 -1467 38 41 37
0.892156 -1042.85 -1470 36 39 34
4.27596 -1045.7 -1474 39 40 36
7.66256 -1046.41 -1475 42 42 38
11.0838 -1049.97 -1480 42 42 38
14.4793 -1049.98 -1480 40 40 36
17.8989 -1051.42 -1482 40 40 36
21.328 -1052.86 -1484 39 39 35
24.7664 -1054.3 -1486 40 40 36
28.2334 -1056.46 -1489 40 40 36
31.7144 -1058.62 -1492 38 38 34
35.2094 -1060.78 -1495 40 41 37
38.7185 -1062.95 -1498 40 43 38
42.1011 -1061.58 -1496 42 45 40
45.475 -1060.2 -1494 42 45 40
48.9383 -1060.97 -1495 42 45 39
52.3718 -1061.02 -1495 42 45 38
55.7686 -1060.37 -1494 42 45 38
59.2801 -1061.85 -1496 43 46 38
62.8433 -1064.04 -1499 43 45 38
66.3326 -1064.82 -1500 43 43 39
69.8271 -1065.61 -1501 43 46 43
73.327 -1066.39 -1502 44 47 43
76.8322 -1067.18 -1503 45 48 42
80.3429 -1067.98 -1504 44 47 40
83.7475 -1067.36 -1503 43 46 39
87.1485 -1066.74 -1502 44 47 40
90.6059 -1066.83 -1502 45 48 41
94.0018 -1066.22 -1501 43 46 39
97.394 -1065.61 -1500 41 44 39
101.119 -1068.56 -1504 44 46 39
104.933 -1072.22 -1509 43 45 38
108.914 -1077.31 -1516 42 43 37
113.597 -1088.8 -1532 41 41 37
118.66 -1103.14 -1552 44 44 40
123.502 -1114.65 -1568 46 47 42
-391.84 -1171.91 -1614 53 47 46
-386.958 -1168.57 -1610 53 49 48
-378.531 -1154.36 -1591 54 52 50
-369.965 -1139.44 -1571 51 49 47
-361.267 -1123.81 -1550 45 43 41
-354.289 -1113.26 -1536 42 42 40
-348.296 -1105.63 -1526 39 41 39
-343.71 -1102.35 -1522 38 41 38
-340.264 -1102.7 -1523 38 41 38
-336.154 -1100.87 -1521 36 39 36
-333.15 -1102.68 -1524 35 38 35
-329.054 -1100.87 -1522 38 41 38
-325.185 -1099.78 -1521 39 42 39
-321.114 -1097.98 -1519 36 39 34
-317.473 -1097.63 -1519 34 37 32
-313.423 -1095.84 -1517 35 38 33
-309.998 -1096.22 -1518 36 39 34
-306.168 -1095.16 -1517 36 39 34
-302.745 -1095.54 -1518 36 39 34
-298.73 -1093.77 -1516 35 38 33
-294.727 -1092 -1514 35 38 33
-290.545 -1089.52 -1511 34 37 32
-286.95 -1089.2 -1511 35 38 33
-282.983 -1087.45 -1509 34 37 32
-279.399 -1087.14 -1509 34 37 32
-274.904 -1083.24 -1504 33 35 30
-270.616 -1080.06 -1500 32 35 30
-266.35 -1076.88 -1496 34 37 32
-262.632 -1075.88 -1495 34 37 32
-258.576 -1073.43 -1492 32 35 30
-254.708 -1071.71 -1490 33 34 30
-250.683 -1069.28 -1487 32 32 28
-246.841 -1067.57 -1485 32 32 30
-243.012 -1065.87 -1483 33 33 31
-239.033 -1063.45 -1480 33 33 31
-235.07 -1061.03 -1477 34 34 32
-230.654 -1056.47 -1471 34 34 32
-225.805 -1049.76 -1462 32 32 30
-221.001 -1043.05 -1453 35 35 33
-216.84 -1039.23 -1448 37 37 35
-212.116 -1032.54 -1439 39 39 37
-208.452 -1030.87 -1437 40 40 38
-204.371 -1027.06 -1432 38 38 36
-200.596 -1024.69 -1429 37 40 37
-196.976 -1023.04 -1427 39 42 37
-193.638 -1022.83 -1427 39 42 38
-190.436 -1023.34 -1428 39 42 39
-187.755 -1026.72 -1433 36 39 34
-185.053 -1030.1 -1438 36 39 36
-182.709 -1035.63 -1446 37 40 37
-180.205 -1040.44 -1453 36 39 36
-177.67 -1045.26 -1460 33 35 32
-174.389 -1045.79 -1461 31 33 29
-171.924 -1051.32 -1469 31 34 30
-168.85 -1053.29 -1472 31 34 31
-165.876 -1055.97 -1476 30 33 30
-163.325 -1061.51 -1484 32 35 32
-160.847 -1067.77 -1493 32 35 32
-158.645 -1076.18 -1505 27 30 27
-155.977 -1081.73 -1513 26 29 26
-153.575 -1089.43 -1524 25 28 25
-150.533 -1092.84 -1529 27 30 27
-147.374 -1095.54 -1533 29 29 27
-144.291 -1098.95 -1538 25 28 25
-141.278 -1103.09 -1544 18 20 18
-137.882 -1104.37 -1546 16 16 16
-134.392 -1104.93 -1547 18 15 16
-130.56 -1102.65 -1544 20 20 20
-126.414 -1097.51 -1537 25 25 25
-122.462 -1093.81 -1532 28 28 28
-118.612 -1090.82 -1528 28 28 28
-114.932 -1089.27 -1526 28 28 28
-111.189 -1087 -1523 29 29 29
-107.391 -1084.03 -1519 31 31 31
-103.681 -1081.78 -1516 31 31 31
-100.118 -1080.95 -1515 29 29 29
-96.4969 -1079.42 -1513 30 30 30
-92.8859 -1077.89 -1511 31 31 31
-89.3444 -1077.08 -1510 31 31 31
-85.6947 -1074.85 -1507 32 32 32
-82.3324 -1076.18 -1509 30 30 30
-78.596 -1072.53 -1504 29 29 27
-75.1332 -1072.45 -1504 29 29 27
-71.4329 -1068.8 -1499 29 29 27
-67.9379 -1068.02 -1498 28 28 26
-64.2759 -1064.38 -1493 32 32 30
-60.6783 -1061.46 -1489 35 35 33
-57.0229 -1057.12 -1483 37 37 35
-53.3234 -1051.36 -1475 37 37 35
-49.8643 -1049.88 -1473 37 37 35
-46.2887 -1045.55 -1467 37 37 35
-42.9167 -1045.5 -1467 38 38 36
-39.5182 -1044.75 -1466 40 40 36
-36.026 -1041.14 -1461 38 38 34
-32.6691 -1041.11 -1461 38 38 34
-29.3727 -1043.21 -1464 37 37 33
-25.974 -1041.76 -1462 38 38 34
-22.6465 -1043.15 -1464 40 40 36
-19.2837 -1043.13 -1464 39 39 35
-15.9213 -1043.11 -1464 39 39 35
-12.5588 -1043.1 -1464 38 41 38
-9.19675 -1043.09 -1464 39 42 38
-5.83456 -1043.08 -1464 40 43 39
-2.47748 -1045.21 -1467 40 43 38
0.891938 -1045.92 -1468 37 40 35
4.27778 -1049.49 -1473 38 40 35
7.68142 -1052.34 -1477 40 42 37
11.0808 -1053.07 -1478 40 42 37
14.4851 -1053.79 -1479 41 41 37
17.894 -1054.52 -1480 40 40 36
21.2935 -1054.54 -1480 38 38 34
24.7764 -1058.13 -1485 39 39 35
28.2068 -1058.87 -1486 38 38 34
31.6845 -1061.04 -1489 40 40 36
35.1529 -1062.5 -1491 41 42 37
38.6566 -1064.68 -1494 40 43 38
42.0619 -1064.01 -1493 42 45 40
45.5544 -1065.49 -1495 42 46 41
48.9255 -1064.11 -1493 41 45 40
52.2878 -1062.74 -1491 43 46 39
55.7537 -1063.51 -1492 44 47 40
59.2248 -1064.29 -1493 43 46 38
62.7851 -1066.49 -1496 43 45 38
66.2711 -1067.27 -1497 45 45 41
69.9022 -1070.2 -1501 47 47 45
73.4547 -1071.7 -1503 44 46 42
76.966 -1072.5 -1504 42 45 39
80.3757 -1071.87 -1503 41 44 37
83.8375 -1071.96 -1503 40 43 36
87.184 -1070.62 -1501 39 43 36
90.5827 -1070 -1500 41 45 38
94.0403 -1070.1 -1500 42 45 38
97.5639 -1070.92 -1501 40 43 38
101.295 -1073.88 -1505 43 45 38
105.185 -1078.27 -1511 44 45 38
108.888 -1080.53 -1514 41 42 35
113.274 -1089.22 -1526 40 40 36
118.558 -1105.76 -1549 41 41 37
123.635 -1119.45 -1568 46 46 41
130.829 -1151 -1612 50 51 44
137.227 -1174 -1644 49 49 46
-393.75 -1170.14 -1604 53 49 48
-389.602 -1168.97 -1603 54 48 47
-384.982 -1166.35 -1600 54 51 50
-377.284 -1154.27 -1584 57 54 53
-368.49 -1138.55 -1563 54 52 50
-360.268 -1124.31 -1544 46 44 42
-353.297 -1113.72 -1530 41 41 39
-347.996 -1108.24 -1523 39 41 38
-344.09 -1107.13 -1522 36 39 36
-340.64 -1107.47 -1523 36 39 36
-336.525 -1105.64 -1521 36 39 36
-333.299 -1106.73 -1523 37 40 37
-329.201 -1104.91 -1521 38 41 38
-325.33 -1103.82 -1520 39 42 37
-321.045 -1101.28 -1517 37 40 35
-317.614 -1101.65 -1518 35 38 33
-313.768 -1100.58 -1517 36 39 34
-309.931 -1099.51 -1516 35 38 33
-306.303 -1099.17 -1516 37 40 35
-303.079 -1100.28 -1518 37 40 35
-298.861 -1097.78 -1515 36 39 34
-295.246 -1097.45 -1515 36 39 34
-291.249 -1095.68 -1513 37 40 35
-287.645 -1095.36 -1513 39 42 37
-283.669 -1093.6 -1511 37 40 35
-279.149 -1089.67 -1506 35 38 33
-275.388 -1088.64 -1505 33 36 31
-270.912 -1084.73 -1500 32 35 30
-266.82 -1082.26 -1497 33 36 31
-263.096 -1081.25 -1496 33 36 31
-259.033 -1078.79 -1493 32 35 30
-255.5 -1078.51 -1493 33 35 30
-251.632 -1076.79 -1491 34 34 30
-247.61 -1074.35 -1488 32 32 30
-243.769 -1072.64 -1486 32 32 30
-239.617 -1069.48 -1482 33 33 31
-235.167 -1064.89 -1476 34 34 32
-230.592 -1059.59 -1469 32 32 30
-225.897 -1053.57 -1461 32 32 30
-221.09 -1046.84 -1452 33 33 31
-216.627 -1041.55 -1445 36 36 34
-212.347 -1036.99 -1439 40 40 38
-208.388 -1033.88 -1435 42 42 40
-204.308 -1030.05 -1430 41 41 39
-201.095 -1030.55 -1431 40 40 36
-197.052 -1026.74 -1426 39 42 37
-193.985 -1027.96 -1428 40 43 39
-190.509 -1027.03 -1427 40 43 40
-188.09 -1031.86 -1434 37 40 35
-185.383 -1035.26 -1439 35 38 35
-183.287 -1042.25 -1449 34 37 34
-180.525 -1045.65 -1454 33 36 33
-178.229 -1051.92 -1463 32 35 32
-174.817 -1051.73 -1463 31 34 29
-172.11 -1055.86 -1469 32 35 30
-169.033 -1057.83 -1472 30 33 30
-166.168 -1061.24 -1477 28 31 28
-163.392 -1065.37 -1483 31 34 31
-161.129 -1073.1 -1494 30 33 30
-158.923 -1081.54 -1506 29 32 29
-156.249 -1087.11 -1514 28 31 28
-153.943 -1095.56 -1526 26 29 26
-150.401 -1095.4 -1526 25 28 25
-147.533 -1100.26 -1533 28 29 27
-144.353 -1102.97 -1537 26 29 26
-141.065 -1104.97 -1540 19 21 19
-137.764 -1106.97 -1543 15 15 15
-134.276 -1107.54 -1544 17 16 16
-130.532 -1105.96 -1542 20 20 20
-126.304 -1100.09 -1534 26 26 26
-122.514 -1097.8 -1531 29 29 29
-118.662 -1094.8 -1527 27 27 27
-114.98 -1093.24 -1525 26 26 26
-111.163 -1090.25 -1521 27 27 27
-107.578 -1089.42 -1520 28 30 30
-103.861 -1087.15 -1517 29 31 31
-100.16 -1084.89 -1514 26 28 28
-96.7287 -1085.5 -1515 27 29 29
-92.9861 -1082.53 -1511 29 31 31
-89.4408 -1081.72 -1510 31 31 31
-85.8439 -1080.19 -1508 31 30 30
-82.2573 -1078.67 -1506 29 28 28
-78.6807 -1077.15 -1504 29 28 26
-75.2142 -1077.06 -1504 29 29 26
-71.7008 -1076.27 -1503 29 29 27
-68.0111 -1072.61 -1498 29 29 27
-64.5175 -1071.83 -1497 31 31 29
-60.7436 -1066.03 -1489 35 35 33
-57.1228 -1062.39 -1484 37 37 35
-53.4169 -1056.6 -1476 36 36 34
-49.9519 -1055.11 -1474 34 34 32
-46.3701 -1050.77 -1468 35 35 33
-42.9336 -1049.29 -1466 37 37 35
-39.4798 -1047.1 -1463 37 37 33
-36.0895 -1046.34 -1462 38 38 34
-32.6595 -1044.15 -1459 38 37 33
-29.344 -1045.55 -1461 39 37 33
-26.0018 -1046.24 -1462 39 39 35
-22.6398 -1046.21 -1462 41 41 37
-19.3044 -1047.62 -1464 40 40 36
-15.9601 -1049.03 -1466 41 41 37
-12.5809 -1048.3 -1465 38 41 38
-9.21907 -1049.01 -1466 37 40 35
-5.84478 -1048.28 -1465 37 40 35
-2.48021 -1049.71 -1467 37 40 35
0.894362 -1051.86 -1470 36 39 34
4.27671 -1052.57 -1471 37 40 35
7.67931 -1055.44 -1475 37 40 35
11.1079 -1059.03 -1480 38 41 36
14.5009 -1058.33 -1479 41 41 37
17.9255 -1059.78 -1481 39 40 34
21.3165 -1059.08 -1480 39 39 33
24.7865 -1061.97 -1484 41 41 37
28.2184 -1062.72 -1485 42 42 38
31.6976 -1064.89 -1488 42 42 38
35.1437 -1065.65 -1489 41 42 37
38.6726 -1068.55 -1493 40 43 38
42.1074 -1068.59 -1493 41 44 39
45.5122 -1067.92 -1492 41 45 40
48.9456 -1067.98 -1492 40 44 38
52.3444 -1067.31 -1491 42 45 38
55.7767 -1067.37 -1491 43 46 39
59.2888 -1068.87 -1493 43 46 39
62.8948 -1071.8 -1497 42 44 38
66.3427 -1071.87 -1497 45 45 42
69.9778 -1074.81 -1501 45 45 43
73.534 -1076.31 -1503 43 45 41
76.9468 -1075.68 -1502 41 44 38
80.409 -1075.77 -1502 39 42 35
83.8165 -1075.14 -1501 40 44 37
87.2784 -1075.23 -1501 40 44 37
90.7411 -1075.33 -1501 41 44 37
94.142 -1074.71 -1500 42 45 38
97.6694 -1075.53 -1501 42 43 40
101.202 -1076.36 -1502 43 44 38
105.09 -1080.77 -1508 43 44 37
108.646 -1081.6 -1509 42 43 35
112.95 -1089.61 -1520 42 42 38
117.997 -1104.07 -1540 41 44 39
122.821 -1115.67 -1556 48 49 44
-394.436 -1175.94 -1605 54 50 47
-390.524 -1175.5 -1605 56 50 47
-384.689 -1169.21 -1597 55 52 50
-376.99 -1157.07 -1581 54 52 50
-368.429 -1142.02 -1561 52 50 48
-360.669 -1129.18 -1544 47 45 43
-353.921 -1119.27 -1531 41 41 39
-349.528 -1116.69 -1528 41 42 39
-344.473 -1111.92 -1522 39 42 39
-341.019 -1112.27 -1523 37 40 37
-336.899 -1110.43 -1521 35 38 33
-333.45 -1110.78 -1522 37 40 36
-329.35 -1108.96 -1520 39 42 39
-325.477 -1107.86 -1519 40 43 38
-321.401 -1106.04 -1517 37 40 35
-317.547 -1104.96 -1516 35 38 33
-313.702 -1103.88 -1515 38 41 36
-310.683 -1105.72 -1518 37 40 35
-307.047 -1105.38 -1518 40 43 38
-303.414 -1105.04 -1518 39 42 37
-299.982 -1105.43 -1519 39 42 37
-295.963 -1103.65 -1517 37 40 35
-292.149 -1102.59 -1516 35 38 33
-288.344 -1101.55 -1515 35 38 33
-284.17 -1099.05 -1512 36 39 34
-280.571 -1098.74 -1512 35 38 33
-276.058 -1094.8 -1507 34 37 32
-271.753 -1091.59 -1503 34 37 32
-267.471 -1088.39 -1499 35 39 34
-263.21 -1085.19 -1495 35 38 33
-259.318 -1083.45 -1493 33 36 32
-255.438 -1081.71 -1491 32 34 31
-251.74 -1080.71 -1490 34 34 30
-247.882 -1078.98 -1488 34 34 32
-243.709 -1075.81 -1484 34 34 32
-239.718 -1073.37 -1481 34 34 32
-235.107 -1068.04 -1474 38 36 34
-230.059 -1060.54 -1464 37 37 35
-225.835 -1056.67 -1459 34 34 32
-221.484 -1052.07 -1453 33 33 31
-217.315 -1048.21 -1448 35 35 33
-213.023 -1043.63 -1442 37 37 35
-209.489 -1042.68 -1441 38 38 36
-204.96 -1036.66 -1433 41 41 37
-201.316 -1034.99 -1431 41 41 37
-197.544 -1032.61 -1428 39 39 35
-194.333 -1033.11 -1429 38 39 36
-191.119 -1033.63 -1430 38 41 38
-188.296 -1036.31 -1434 39 42 37
-185.585 -1039.72 -1439 38 41 37
-183.107 -1044.57 -1446 36 39 36
-180.597 -1049.43 -1453 32 35 32
-178.057 -1054.29 -1460 28 31 28
-175.008 -1056.26 -1463 30 31 28
-172.063 -1058.96 -1467 32 33 29
-169.102 -1061.66 -1471 29 33 30
-166.349 -1065.81 -1477 27 31 28
-163.791 -1071.4 -1485 28 31 28
-161.197 -1076.99 -1493 30 33 30
-159.307 -1087.64 -1508 31 33 32
-156.522 -1092.51 -1515 28 31 28
-154.01 -1099.56 -1525 25 28 25
-150.762 -1101.55 -1528 26 29 26
-147.501 -1103.55 -1531 26 29 26
-144.134 -1104.84 -1533 25 28 25
-141.126 -1109 -1539 21 23 21
-138.003 -1112.45 -1544 17 17 17
-134.596 -1113.75 -1546 16 16 16
-130.843 -1112.16 -1544 20 20 20
-126.441 -1104.82 -1534 22 22 22
-122.567 -1101.8 -1530 26 26 26
-118.713 -1098.79 -1526 25 27 27
-114.954 -1096.5 -1523 27 28 28
-111.138 -1093.5 -1519 26 26 26
-107.553 -1092.66 -1518 27 29 29
-103.974 -1091.83 -1517 26 28 28
-100.401 -1091 -1516 25 27 27
-96.8336 -1090.17 -1515 25 27 27
-93.2718 -1089.35 -1514 28 30 30
-89.597 -1087.09 -1511 30 30 30
-85.9371 -1084.84 -1508 32 30 31
-82.2918 -1082.59 -1505 31 28 29
-78.7136 -1081.06 -1503 30 28 25
-75.2457 -1080.98 -1503 29 29 25
-71.6829 -1079.46 -1501 30 30 26
-68.2211 -1079.38 -1501 30 30 28
-64.5442 -1075.72 -1496 31 31 29
-60.932 -1072.77 -1492 34 34 32
-57.1846 -1066.95 -1484 36 36 34
-53.5472 -1062.58 -1478 36 36 34
-49.9381 -1058.21 -1472 35 35 33
-46.4518 -1056 -1469 36 36 35
-43.0386 -1055.24 -1468 36 36 36
-39.6035 -1053.75 -1466 36 36 32
-36.2026 -1052.99 -1465 38 38 34
-32.8068 -1052.24 -1464 40 39 35
-29.4159 -1051.48 -1463 41 39 35
-26.0298 -1050.74 -1462 40 40 36
-22.6643 -1050.71 -1462 39 39 35
-19.3121 -1051.41 -1463 37 37 33
-15.9555 -1052.11 -1464 38 38 34
-12.5858 -1052.09 -1464 35 38 35
-9.22887 -1053.52 -1466 36 39 34
-5.85504 -1053.51 -1466 36 39 34
-2.48274 -1054.22 -1467 37 40 35
0.894759 -1055.66 -1469 37 40 35
4.28729 -1058.54 -1473 36 39 34
7.67721 -1058.54 -1473 37 40 35
11.0899 -1060.71 -1476 37 40 35
14.4675 -1059.28 -1474 38 41 36
17.9088 -1062.18 -1478 38 41 34
21.3253 -1062.92 -1479 39 41 35
24.7634 -1064.38 -1481 41 41 37
28.192 -1065.13 -1482 44 44 40
31.6893 -1068.03 -1486 42 42 38
35.1582 -1069.51 -1488 42 42 38
38.6885 -1072.42 -1492 43 45 40
42.0966 -1071.75 -1491 43 45 39
45.5309 -1071.8 -1491 42 45 40
48.9986 -1072.57 -1492 42 45 39
52.3661 -1071.18 -1490 41 45 38
55.7622 -1070.52 -1489 44 47 40
59.2736 -1072.02 -1491 45 48 41
62.879 -1074.97 -1495 45 47 41
66.4147 -1076.48 -1497 45 46 39
70.0071 -1078.71 -1500 45 45 41
73.565 -1080.22 -1502 42 45 40
76.979 -1079.59 -1501 42 45 39
80.4428 -1079.67 -1501 42 45 38
83.9635 -1080.48 -1502 45 48 41
87.3731 -1079.85 -1501 44 47 40
90.8395 -1079.95 -1501 43 46 39
94.4955 -1082.21 -1504 43 46 39
97.9709 -1082.32 -1504 43 43 41
101.38 -1081.7 -1503 43 44 37
105.204 -1085.42 -1508 41 42 34
108.908 -1087.69 -1511 39 40 32
112.999 -1093.57 -1519 41 41 37
117.818 -1105.94 -1536 44 44 40
122.955 -1120.47 -1556 53 52 48
-395.372 -1182.5 -1607 56 52 49
-390.232 -1178.38 -1602 59 53 50
-384.398 -1172.06 -1594 56 53 51
-376.458 -1159.14 -1577 54 52 50
-367.424 -1142.55 -1555 50 48 46
-360.606 -1132.59 -1542 44 42 40
-354.318 -1124.11 -1531 41 40 38
-349.69 -1120.78 -1527 41 42 39
-345.085 -1117.46 -1523 39 42 39
-341.4 -1117.07 -1523 37 40 37
-337.275 -1115.23 -1521 35 38 34
-333.603 -1114.85 -1521 37 40 35
-329.283 -1112.28 -1518 40 43 40
-325.84 -1112.65 -1519 41 44 39
-321.971 -1111.56 -1518 40 43 38
-317.691 -1109 -1515 36 39 34
-314.051 -1108.65 -1515 38 41 36
-310.824 -1109.76 -1517 38 41 36
-307.186 -1109.42 -1517 39 40 36
-303.551 -1109.08 -1517 40 40 36
-299.722 -1108.01 -1516 40 40 36
-296.487 -1109.14 -1518 40 40 36
-292.666 -1108.08 -1517 39 40 36
-288.664 -1106.3 -1515 37 38 34
-284.861 -1105.25 -1514 38 39 35
-280.696 -1102.75 -1511 36 39 34
-276.547 -1100.25 -1508 35 38 33
-272.235 -1097.03 -1504 37 40 35
-268.838 -1097.45 -1505 35 39 34
-264.206 -1092.78 -1499 35 38 33
-259.952 -1089.58 -1495 34 37 33
-256.235 -1088.56 -1494 33 36 33
-252.526 -1087.55 -1493 35 35 31
-248.156 -1083.63 -1488 34 34 32
-244.142 -1081.18 -1485 34 34 33
-240.145 -1078.73 -1482 34 34 34
-235.526 -1073.37 -1475 38 36 34
-230.627 -1066.56 -1466 38 38 36
-226.549 -1063.4 -1462 33 33 31
-222.034 -1058.06 -1455 33 33 31
-217.554 -1052.73 -1448 35 35 33
-213.11 -1047.4 -1441 37 37 35
-209.283 -1044.99 -1438 38 38 35
-205.043 -1040.4 -1432 38 38 34
-201.537 -1039.45 -1431 39 40 33
-197.761 -1037.05 -1428 41 41 36
-194.682 -1038.29 -1430 40 41 36
-191.462 -1038.8 -1431 39 42 37
-188.634 -1041.49 -1435 38 41 36
-185.66 -1043.47 -1438 36 39 35
-183.181 -1048.34 -1445 34 37 34
-180.671 -1053.22 -1452 30 33 30
-177.886 -1056.65 -1457 28 31 28
-175.08 -1060.08 -1462 28 31 27
-172.134 -1062.79 -1466 28 31 26
-169.517 -1067.68 -1473 28 32 29
-166.757 -1071.84 -1479 27 31 28
-164.191 -1077.46 -1487 26 30 27
-161.59 -1083.07 -1495 28 32 29
-159.27 -1090.87 -1506 31 33 33
-156.9 -1098.66 -1517 27 30 28
-154.077 -1103.56 -1524 25 28 25
-150.828 -1105.56 -1527 24 27 24
-147.662 -1108.3 -1531 25 28 25
-144.103 -1108.14 -1531 24 28 25
-140.913 -1110.88 -1535 22 25 23
-137.975 -1115.79 -1542 17 19 19
-134.482 -1116.36 -1543 17 17 17
-130.646 -1114.05 -1540 19 19 19
-126.496 -1108.84 -1533 22 22 22
-122.621 -1105.81 -1529 27 27 27
-118.765 -1102.79 -1525 26 28 28
-114.929 -1099.77 -1521 27 28 28
-111.332 -1098.92 -1520 28 29 29
-107.812 -1098.8 -1520 28 30 30
-104.225 -1097.96 -1519 28 30 30
-100.643 -1097.13 -1518 28 30 30
-97.1311 -1097.02 -1518 28 30 30
-93.4351 -1094.75 -1515 29 31 31
-89.754 -1092.48 -1512 30 30 30
-86.0306 -1089.5 -1508 31 30 30
-82.4362 -1087.96 -1506 32 29 30
-78.8517 -1086.43 -1504 31 29 25
-75.3275 -1085.62 -1503 29 29 26
-71.8566 -1085.54 -1503 30 30 28
-68.3408 -1084.74 -1502 30 30 28
-64.5713 -1079.61 -1495 32 32 30
-60.9983 -1077.38 -1492 33 33 31
-57.2468 -1071.54 -1484 35 35 33
-53.5691 -1066.42 -1477 36 36 34
-50.0262 -1063.48 -1473 36 36 34
-46.534 -1061.26 -1470 36 36 35
-43.1148 -1060.49 -1469 37 37 36
-39.6465 -1058.28 -1466 38 38 36
-36.242 -1057.51 -1465 38 38 34
-32.8873 -1058.2 -1466 39 39 34
-29.4478 -1056 -1463 40 39 34
-26.0582 -1055.25 -1462 39 39 35
-22.6889 -1055.22 -1462 38 38 34
-19.3462 -1056.64 -1464 39 39 35
-15.9727 -1056.62 -1464 39 39 35
-12.5995 -1056.61 -1464 34 37 34
-9.23891 -1058.04 -1466 34 37 32
-5.86133 -1058.03 -1466 36 39 34
-2.48697 -1059.47 -1468 36 39 34
0.895159 -1059.47 -1468 36 39 35
4.28624 -1061.64 -1471 38 41 36
7.67011 -1060.92 -1470 39 41 36
11.087 -1063.82 -1474 40 40 36
14.4932 -1064.55 -1475 39 39 35
17.9405 -1067.46 -1479 39 39 35
21.363 -1068.2 -1480 41 41 37
24.8406 -1071.12 -1484 42 42 38
28.2418 -1070.42 -1483 43 43 39
31.7026 -1071.9 -1485 43 43 39
35.1965 -1074.1 -1488 43 43 39
38.6788 -1075.59 -1490 45 45 41
42.0861 -1074.91 -1489 42 44 38
45.5196 -1074.95 -1489 43 46 40
48.9535 -1075.01 -1489 41 44 38
52.3176 -1073.62 -1487 38 42 35
55.823 -1075.12 -1489 43 46 39
59.3383 -1076.63 -1491 45 48 41
62.9054 -1078.86 -1494 45 48 41
66.3983 -1079.65 -1495 45 48 41
69.9899 -1081.9 -1498 46 47 43
73.5471 -1083.42 -1500 44 47 42
76.9603 -1082.78 -1499 44 47 41
80.477 -1083.59 -1500 45 48 41
83.9991 -1084.4 -1501 45 48 43
87.4685 -1084.49 -1501 43 46 39
91.1205 -1086.76 -1504 43 46 39
94.6615 -1087.58 -1505 42 45 37
98.1431 -1087.69 -1505 44 44 42
101.558 -1087.08 -1504 43 44 37
105.249 -1089.36 -1507 41 42 35
108.882 -1090.92 -1509 40 41 33
112.824 -1095.38 -1515 41 41 37
117.486 -1106.35 -1530 46 46 42
122.773 -1122.39 -1552 56 54 50
-389.941 -1181.26 -1599 58 53 50
-384.348 -1175.65 -1592 56 53 50
-376.643 -1163.41 -1576 55 54 51
-366.419 -1143.06 -1549 49 48 46
-360.075 -1134.54 -1538 41 39 37
-354.716 -1128.97 -1531 40 39 37
-350.083 -1125.63 -1527 42 42 40
-345.473 -1122.29 -1523 39 41 39
-342.008 -1122.63 -1524 38 39 36
-337.432 -1119.31 -1520 36 39 34
-333.758 -1118.93 -1520 37 40 35
-330.087 -1118.56 -1520 40 43 39
-326.42 -1118.19 -1520 41 44 39
-322.544 -1117.09 -1519 41 44 39
-318.676 -1115.99 -1518 38 41 36
-315.232 -1116.37 -1519 38 41 34
-311.171 -1114.55 -1517 38 41 36
-308.137 -1116.41 -1520 36 38 33
-304.491 -1116.06 -1520 37 37 33
-300.65 -1114.99 -1519 37 37 33
-297.209 -1115.39 -1520 38 38 34
-292.993 -1112.86 -1517 39 39 35
-289.176 -1111.8 -1516 38 38 34
-284.991 -1109.28 -1513 38 38 34
-281.194 -1108.23 -1512 36 39 34
-276.672 -1104.26 -1507 35 38 33
-272.719 -1102.48 -1505 34 37 32
-269.137 -1102.18 -1505 34 38 33
-264.5 -1097.49 -1499 36 39 34
-260.241 -1094.27 -1495 37 40 36
-256.692 -1093.98 -1495 36 39 36
-253.145 -1093.7 -1495 37 37 33
-248.599 -1089.03 -1489 34 34 32
-244.742 -1087.29 -1487 32 32 31
-240.411 -1083.37 -1482 34 34 34
-235.947 -1078.72 -1476 37 35 33
-231.198 -1072.61 -1468 36 35 33
-227.11 -1069.44 -1464 31 32 30
-222.585 -1064.07 -1457 30 33 30
-218.246 -1059.45 -1451 35 35 33
-213.494 -1052.64 -1442 39 37 35
-209.223 -1048.02 -1436 39 37 35
-205.126 -1044.15 -1431 39 39 35
-201.478 -1042.46 -1429 40 41 34
-197.702 -1040.05 -1426 41 41 36
-194.897 -1042.75 -1430 41 42 38
-191.272 -1041.08 -1428 38 41 36
-188.711 -1045.24 -1434 35 38 33
-185.994 -1048.68 -1439 33 36 32
-183.129 -1051.39 -1443 32 35 32
-180.497 -1055.56 -1449 31 34 31
-177.716 -1059.01 -1454 31 35 32
-174.793 -1061.72 -1458 31 35 31
-172.089 -1065.9 -1464 30 33 28
-169.474 -1070.81 -1471 31 35 32
-166.489 -1073.53 -1475 33 36 33
-164.04 -1079.9 -1484 29 33 30
-161.551 -1086.27 -1493 30 34 31
-159.657 -1097.01 -1508 31 35 34
-157.073 -1103.38 -1517 31 34 31
-154.449 -1109.75 -1526 29 32 29
-150.895 -1109.59 -1526 26 29 26
-147.728 -1112.33 -1530 24 27 24
-144.544 -1115.08 -1534 24 28 25
-141.436 -1118.55 -1539 23 27 24
-138.216 -1121.31 -1543 18 20 20
-134.804 -1122.61 -1545 18 18 18
-130.875 -1119.56 -1541 19 19 19
-126.635 -1113.6 -1533 23 23 23
-122.675 -1109.83 -1528 27 27 27
-118.661 -1105.34 -1522 27 29 29
-114.979 -1103.76 -1520 28 29 29
-111.381 -1102.91 -1519 31 31 31
-107.717 -1101.34 -1517 29 32 31
-104.064 -1099.77 -1515 30 32 32
-100.554 -1099.66 -1515 31 33 33
-97.0454 -1099.55 -1515 28 30 30
-93.4757 -1098.72 -1514 29 31 30
-89.7928 -1096.44 -1511 32 32 32
-86.1248 -1094.17 -1508 28 28 28
-82.5263 -1092.63 -1506 30 29 29
-78.8856 -1090.36 -1503 30 29 26
-75.4601 -1091 -1504 30 30 28
-71.8395 -1088.75 -1501 31 31 29
-68.37 -1088.67 -1501 32 32 30
-64.6851 -1084.97 -1496 33 33 31
-61.0649 -1082 -1492 33 33 31
-57.2708 -1075.41 -1483 34 34 32
-53.7367 -1073.17 -1480 36 36 34
-50.1829 -1070.21 -1476 36 36 34
-46.6165 -1066.54 -1471 38 38 35
-43.2207 -1066.49 -1471 39 39 37
-39.7981 -1065.72 -1470 39 39 35
-36.3806 -1064.95 -1469 39 39 35
-32.9456 -1063.46 -1467 38 38 33
-29.5404 -1062.7 -1466 38 39 32
-26.1043 -1060.5 -1463 38 38 34
-22.698 -1059.02 -1461 38 38 34
-19.3275 -1059 -1461 38 38 34
-15.9683 -1059.7 -1462 39 39 35
-12.596 -1059.69 -1462 36 39 36
-9.23638 -1061.13 -1464 35 38 33
-5.85943 -1061.12 -1464 37 40 35
-2.48952 -1064.01 -1468 36 39 34
0.894953 -1062.56 -1466 36 39 35
4.28792 -1065.46 -1470 36 39 34
7.66823 -1064.02 -1468 38 40 35
11.0768 -1066.21 -1471 39 39 35
14.4895 -1067.67 -1473 39 39 35
17.9358 -1070.59 -1477 40 40 36
21.3287 -1069.88 -1476 42 42 38
24.8009 -1072.81 -1480 42 42 38
28.2155 -1072.84 -1480 43 43 39
31.6519 -1073.6 -1481 44 44 40
35.1642 -1076.53 -1485 44 44 40
38.6694 -1078.75 -1488 44 44 40
42.1039 -1078.79 -1488 41 44 37
45.5696 -1079.57 -1489 43 46 39
49.0731 -1081.07 -1491 42 45 38
52.4456 -1079.67 -1489 40 44 37
55.8843 -1079.73 -1489 42 45 38
59.4432 -1081.97 -1492 45 48 41
62.9744 -1083.49 -1494 44 47 40
66.4267 -1083.56 -1494 44 47 40
69.9265 -1084.36 -1495 45 48 43
73.5298 -1086.62 -1498 44 47 42
76.942 -1085.97 -1497 44 47 41
80.4043 -1086.06 -1497 44 47 40
83.9792 -1087.6 -1499 44 47 40
87.5062 -1088.42 -1500 44 47 40
91.0386 -1089.24 -1501 45 48 41
94.6396 -1090.8 -1503 45 47 41
98.1203 -1090.9 -1503 45 45 41
101.737 -1092.47 -1505 44 45 38
105.225 -1092.58 -1505 42 43 36
108.858 -1094.15 -1507 42 43 35
112.725 -1097.9 -1512 42 42 37
117.154 -1106.74 -1524 46 46 42
122.432 -1122.85 -1546 55 54 50
-394.788 -1188.3 -1601 56 52 51
-389.895 -1184.88 -1597 57 55 51
-383.575 -1177.02 -1587 55 54 50
-374.917 -1161.76 -1567 50 50 46
-365.413 -1143.55 -1543 49 48 46
-360.014 -1137.95 -1536 44 43 41
-354.885 -1133.1 -1530 42 41 39
-350.478 -1130.48 -1527 42 42 40
-345.636 -1126.39 -1522 42 42 39
-342.169 -1126.74 -1523 42 42 38
-337.813 -1124.13 -1520 39 41 36
-334.354 -1124.49 -1521 39 42 37
-330.024 -1121.9 -1518 41 44 39
-326.788 -1123.01 -1520 41 42 38
-323.12 -1122.64 -1520 40 40 36
-319.666 -1123.02 -1521 41 41 37
-315.795 -1121.92 -1520 39 42 37
-312.137 -1121.57 -1520 37 40 35
-308.281 -1120.48 -1519 37 39 34
-304.632 -1120.13 -1519 37 37 33
-300.79 -1119.06 -1518 39 39 35
-297.346 -1119.46 -1519 40 40 36
-293.128 -1116.92 -1516 39 39 35
-289.309 -1115.85 -1515 39 39 35
-284.933 -1112.58 -1511 39 39 35
-281.323 -1112.27 -1511 36 39 34
-277.349 -1110.48 -1509 37 40 35
-273.206 -1107.96 -1506 34 38 33
-269.259 -1106.19 -1504 33 37 30
-264.972 -1102.95 -1500 36 40 34
-260.183 -1097.51 -1493 36 40 34
-256.634 -1097.22 -1493 36 39 32
-252.919 -1096.2 -1492 37 37 33
-248.542 -1092.25 -1487 35 36 30
-244.686 -1090.5 -1485 35 36 30
-240.679 -1088.03 -1482 34 34 32
-236.049 -1082.62 -1475 36 36 36
-231.298 -1076.49 -1467 36 36 35
-227.052 -1072.57 -1462 35 35 33
-222.374 -1066.45 -1454 33 33 31
-218.338 -1063.27 -1450 36 36 32
-214.027 -1058.63 -1444 40 40 35
-209.747 -1053.99 -1438 40 41 34
-205.784 -1050.83 -1434 40 40 36
-201.843 -1047.67 -1430 40 40 36
-198.338 -1046.72 -1429 42 42 38
-194.977 -1046.5 -1429 41 41 37
-192.02 -1048.48 -1432 36 39 34
-189.052 -1050.46 -1435 37 38 32
-186.2 -1053.18 -1439 34 36 31
-183.205 -1055.17 -1442 32 35 32
-180.447 -1058.63 -1447 32 36 33
-177.668 -1062.09 -1452 33 37 35
-174.867 -1065.55 -1457 31 35 33
-172.28 -1070.48 -1464 31 34 31
-170.007 -1077.6 -1474 32 35 32
-167.125 -1081.07 -1479 33 33 30
-164.443 -1086 -1486 31 32 28
-162.055 -1093.13 -1496 31 34 31
-159.727 -1100.98 -1507 31 34 31
-156.624 -1103.73 -1511 30 33 30
-154.214 -1111.59 -1522 30 33 30
-151.061 -1114.35 -1526 27 30 27
-147.698 -1115.64 -1528 26 30 29
-144.515 -1118.4 -1532 29 32 30
-141.224 -1120.43 -1535 27 29 27
-138.099 -1123.93 -1540 21 21 19
-134.603 -1124.5 -1541 16 16 16
-131.019 -1124.36 -1541 20 20 20
-126.775 -1118.38 -1533 24 24 24
-122.971 -1116.05 -1530 27 27 27
-119.026 -1112.27 -1525 28 28 28
-115.106 -1108.5 -1520 29 29 30
-111.43 -1106.91 -1518 29 30 32
-107.907 -1106.79 -1518 28 32 31
-104.385 -1106.67 -1518 27 30 29
-100.798 -1105.83 -1517 27 29 29
-97.2163 -1104.99 -1516 25 27 27
-93.3931 -1101.24 -1511 27 29 28
-89.7726 -1099.69 -1509 31 31 31
-86.048 -1096.67 -1505 30 30 30
-82.5623 -1096.58 -1505 29 29 29
-78.8672 -1093.58 -1501 30 30 28
-75.4426 -1094.22 -1502 30 30 28
-71.8705 -1092.68 -1500 31 31 29
-68.3083 -1091.15 -1498 32 32 30
-64.7129 -1088.89 -1495 31 31 29
-61.091 -1085.91 -1491 32 32 30
-57.4884 -1082.93 -1487 34 34 32
-53.832 -1078.5 -1481 36 36 34
-50.2721 -1075.53 -1477 36 36 34
-46.7629 -1073.29 -1474 36 36 33
-43.3269 -1072.51 -1473 38 38 34
-39.8418 -1070.28 -1470 40 40 36
-36.3957 -1068.78 -1468 41 41 37
-32.9593 -1067.29 -1466 39 40 34
-29.5526 -1066.53 -1465 38 39 32
-26.1866 -1067.23 -1466 37 37 33
-22.7384 -1064.29 -1462 38 38 34
-19.3752 -1064.99 -1463 39 39 35
-15.9748 -1063.52 -1461 39 39 35
-12.601 -1063.5 -1461 37 40 36
-9.23997 -1064.94 -1463 38 41 36
-5.86197 -1064.94 -1463 36 39 34
-2.4889 -1067.12 -1466 36 39 34
0.896178 -1067.11 -1466 36 39 34
4.28397 -1067.85 -1467 36 39 34
7.6714 -1067.85 -1467 37 39 35
11.1041 -1072.23 -1473 37 37 33
14.5154 -1072.97 -1474 39 39 35
17.9679 -1075.9 -1478 41 41 37
21.3958 -1076.65 -1479 42 42 38
24.845 -1078.13 -1481 40 40 36
28.2657 -1078.16 -1481 40 40 36
31.7297 -1079.65 -1483 42 42 38
35.2266 -1081.87 -1486 43 43 39
38.7121 -1083.37 -1488 43 43 39
42.1502 -1083.41 -1488 43 46 41
45.5891 -1083.46 -1488 43 46 39
49.0613 -1084.24 -1489 42 46 39
52.5033 -1084.3 -1489 40 47 39
56.021 -1085.82 -1491 43 46 38
59.5087 -1086.61 -1492 43 46 39
63.0439 -1088.13 -1494 42 45 38
66.4555 -1087.48 -1493 43 46 39
70.0035 -1089.01 -1495 44 47 42
73.4633 -1089.09 -1495 43 46 41
77.0269 -1090.63 -1497 44 47 41
80.3316 -1088.53 -1494 47 49 42
84.0157 -1091.53 -1498 45 48 41
87.4859 -1091.63 -1498 44 47 40
90.9568 -1091.73 -1498 45 48 41
94.6179 -1094.02 -1501 45 48 41
98.1632 -1094.85 -1502 44 44 40
101.782 -1096.42 -1504 42 43 36
105.271 -1096.53 -1504 42 43 35
109.122 -1100.3 -1509 42 43 35
112.998 -1104.07 -1514 41 42 35
117.13 -1110.03 -1522 45 45 41
122.092 -1123.29 -1540 54 53 48
-390.828 -1191.48 -1599 56 53 50
-384.98 -1185.08 -1591 53 51 47
-376.541 -1170.5 -1572 49 48 44
-367.251 -1152.95 -1549 51 49 47
-361.127 -1145.09 -1539 45 43 41
-355.985 -1140.22 -1533 43 41 39
-351.336 -1136.84 -1529 42 42 39
-346.71 -1133.47 -1525 43 43 39
-342.558 -1131.59 -1523 44 44 40
-338.196 -1128.98 -1520 42 43 39
-334.513 -1128.6 -1520 39 42 37
-330.398 -1126.73 -1518 39 42 37
-327.157 -1127.84 -1520 40 41 37
-323.698 -1128.22 -1521 39 39 35
-320.237 -1128.59 -1522 39 39 35
-316.568 -1128.23 -1522 38 41 36
-312.901 -1127.88 -1522 38 41 36
-308.832 -1126.04 -1520 38 41 36
-304.976 -1124.96 -1519 39 39 35
-300.93 -1123.13 -1517 38 38 34
-297.094 -1122.05 -1516 39 39 35
-292.878 -1119.5 -1513 39 39 35
-288.87 -1117.69 -1511 39 39 35
-284.498 -1114.41 -1507 39 39 35
-281.08 -1114.83 -1508 38 40 35
-277.293 -1113.78 -1507 37 40 34
-273.513 -1112.73 -1506 35 38 32
-269.024 -1108.73 -1501 34 38 33
-265.093 -1106.95 -1499 35 39 35
-260.127 -1100.75 -1491 34 38 35
-256.406 -1099.72 -1490 35 38 33
-252.693 -1098.7 -1489 37 37 33
-248.318 -1094.72 -1484 35 35 30
-244.465 -1092.97 -1482 33 34 27
-240.624 -1091.23 -1480 33 33 29
-236.153 -1086.53 -1474 34 34 34
-231.872 -1082.59 -1469 36 36 35
-227.617 -1078.64 -1464 35 35 33
-222.929 -1072.5 -1456 35 35 33
-219.185 -1070.78 -1454 34 34 30
-214.86 -1066.12 -1448 37 37 32
-210.419 -1060.73 -1441 40 41 34
-205.87 -1054.6 -1433 41 41 37
-202.351 -1053.64 -1432 39 39 35
-198.699 -1051.94 -1430 39 39 35
-195.331 -1051.72 -1430 40 40 36
-192.369 -1053.71 -1433 39 42 38
-189.394 -1055.71 -1436 35 38 34
-186.408 -1057.7 -1439 34 37 32
-183.409 -1059.7 -1442 35 38 35
-180.523 -1062.44 -1446 35 38 35
-177.743 -1065.91 -1451 34 37 34
-174.821 -1068.65 -1455 33 36 33
-172.236 -1073.6 -1462 32 35 32
-169.619 -1078.55 -1469 32 35 32
-167.198 -1084.97 -1478 31 34 31
-164.515 -1089.92 -1485 31 34 31
-162.126 -1097.08 -1495 29 32 29
-159.799 -1104.97 -1506 30 33 30
-157.629 -1114.33 -1519 28 31 28
-154.182 -1114.89 -1520 27 30 27
-151.13 -1118.39 -1525 26 29 26
-147.862 -1120.42 -1528 26 30 29
-144.676 -1123.19 -1532 27 30 28
-141.565 -1126.7 -1537 25 28 25
-138.432 -1130.21 -1542 21 21 19
-134.927 -1130.79 -1543 16 16 16
-131.164 -1129.17 -1541 19 19 19
-127.164 -1125.37 -1536 22 22 22
-123.348 -1123.03 -1533 26 26 26
-119.236 -1117.77 -1526 28 28 28
-115.612 -1116.91 -1525 28 29 30
-111.7 -1113.12 -1520 27 29 31
-108.169 -1113 -1520 27 31 30
