ply
format ascii 1.0
comment Created by Open3D
element vertex 1346
property double x
property double y
property double z
property uchar red
property uchar green
property uchar blue
end_header
-120.18 -186.806 -1476 233 230 181
-117.297 -186.912 -1477 230 227 178
-114.256 -186.766 -1476 229 226 177
-111.37 -186.873 -1477 226 223 174
-108.555 -187.108 -1479 221 218 169
-105.733 -187.342 -1481 217 214 166
-102.834 -187.451 -1482 207 204 155
-99.7969 -187.307 -1481 197 194 145
-96.8956 -187.417 -1482 194 191 139
-93.7377 -187.021 -1479 198 195 143
-90.7153 -186.879 -1478 211 208 159
-87.6975 -186.737 -1477 226 223 173
-84.742 -186.723 -1477 235 232 181
-81.787 -186.708 -1477 240 237 188
-78.9395 -186.948 -1479 239 236 187
-76.0333 -187.061 -1480 237 234 185
-73.1236 -187.174 -1481 234 231 183
-70.258 -187.415 -1483 233 230 182
-67.4302 -187.782 -1486 233 230 182
-64.5477 -188.024 -1488 231 227 180
-61.6577 -188.266 -1490 226 222 176
-58.6814 -188.256 -1490 220 217 170
-55.7056 -188.246 -1490 212 209 161
-52.7303 -188.237 -1490 206 203 154
-49.7219 -188.102 -1489 205 201 152
-46.7809 -188.22 -1490 205 199 151
-43.8067 -188.212 -1490 206 200 152
-40.8877 -188.457 -1492 211 205 157
-37.9356 -188.577 -1493 218 212 165
-35.0033 -188.823 -1495 228 222 177
-32.0633 -189.07 -1497 240 234 189
-29.135 -189.444 -1500 244 243 201
-26.2124 -189.944 -1504 247 246 205
-23.2741 -190.445 -1508 249 248 207
-20.3468 -191.2 -1514 250 249 208
-17.3729 -191.701 -1518 251 250 209
-14.3926 -192.33 -1523 249 250 211
-11.3924 -192.959 -1528 247 246 210
-8.37258 -193.589 -1533 243 240 205
-5.34313 -194.598 -1541 233 232 196
-2.27887 -195.355 -1547 227 225 189
0.810874 -196.492 -1556 221 217 179
3.93652 -197.628 -1565 213 209 172
7.09809 -198.766 -1574 206 202 165
10.2956 -199.904 -1583 202 197 163
-267.207 -200.465 -1547 222 221 209
-261.639 -198.604 -1533 239 237 212
-256.974 -197.392 -1524 248 246 219
-253.015 -196.7 -1519 250 249 217
-249.407 -196.267 -1516 246 244 209
-245.651 -195.706 -1512 244 241 206
-241.913 -195.145 -1508 233 230 193
-238.828 -195.103 -1508 226 223 185
-235.431 -194.802 -1506 227 224 185
-232.045 -194.503 -1504 226 223 188
-228.669 -194.204 -1502 226 223 187
-225.604 -194.164 -1502 228 228 188
-222.244 -193.866 -1500 230 230 188
-219.186 -193.827 -1500 230 230 188
-216.13 -193.789 -1500 232 230 186
-213.076 -193.751 -1500 232 230 185
-210.163 -193.843 -1501 232 230 184
-207.111 -193.807 -1501 232 230 184
-203.788 -193.512 -1499 232 230 184
-200.475 -193.219 -1497 234 232 186
-197.04 -192.797 -1494 232 230 184
-193.618 -192.376 -1491 228 226 180
-190.466 -192.213 -1490 219 217 171
-187.446 -192.18 -1490 209 207 161
-184.303 -192.018 -1489 202 200 152
-181.531 -192.244 -1491 198 196 149
-178.394 -192.084 -1490 197 195 149
-175.144 -191.795 -1488 190 188 140
-171.672 -191.25 -1484 184 181 133
-168.218 -190.704 -1480 199 197 148
-164.67 -190.031 -1475 217 215 166
-161.472 -189.745 -1473 232 230 181
-158.499 -189.717 -1473 236 234 185
-155.632 -189.819 -1474 235 233 184
-152.971 -190.178 -1477 227 225 176
-149.892 -190.023 -1476 220 218 169
-146.917 -189.997 -1476 217 215 166
-143.944 -189.972 -1476 223 221 172
-140.973 -189.947 -1476 228 226 177
-138.095 -190.051 -1477 234 232 183
-135.124 -190.028 -1477 239 237 188
-132.243 -190.133 -1478 237 235 186
-129.184 -189.982 -1477 231 229 180
-126.13 -189.831 -1476 228 226 177
-123.082 -189.681 -1475 230 227 178
-120.038 -189.531 -1474 234 231 182
-117.158 -189.639 -1475 234 231 182
-114.275 -189.747 -1476 232 229 180
-111.465 -189.985 -1478 230 227 178
-108.647 -190.223 -1480 227 224 175
-105.822 -190.461 -1482 224 221 173
-102.921 -190.572 -1483 215 212 163
-99.9489 -190.554 -1483 202 199 150
-96.9778 -190.537 -1483 193 190 138
-93.8806 -190.263 -1481 193 190 137
-90.7923 -189.99 -1479 206 203 154
-87.772 -189.846 -1478 220 217 167
-84.8713 -189.96 -1479 231 228 177
-81.8564 -189.817 -1478 238 235 186
-78.9531 -189.932 -1479 241 238 189
-76.0463 -190.047 -1480 241 238 189
-73.1362 -190.162 -1481 238 235 186
-70.2226 -190.278 -1482 234 231 183
-67.3964 -190.651 -1485 232 229 181
-64.472 -190.768 -1486 231 228 181
-61.6269 -191.143 -1489 230 226 181
-58.6521 -191.132 -1489 227 224 177
-55.6778 -191.122 -1489 221 218 170
-52.7039 -191.113 -1489 211 208 159
-49.7639 -191.232 -1490 208 204 155
-46.8203 -191.352 -1491 206 200 152
-43.8436 -191.344 -1491 203 197 149
-40.9496 -191.722 -1494 205 199 151
-37.9422 -191.587 -1493 210 204 157
-35.0328 -191.966 -1496 218 212 166
-32.0688 -192.088 -1497 230 224 179
-29.1206 -192.339 -1499 235 234 191
-26.1995 -192.848 -1503 241 239 197
-23.2626 -193.357 -1507 249 245 204
-20.3099 -193.866 -1511 252 248 207
-17.3529 -194.505 -1516 252 249 208
-14.3761 -195.144 -1521 251 250 210
-11.3795 -195.783 -1526 248 247 209
-8.36305 -196.422 -1531 244 241 207
-5.32668 -197.063 -1536 236 235 200
-2.27482 -198.088 -1544 232 231 196
0.81102 -199.628 -1556 226 223 186
3.92964 -200.398 -1562 218 214 178
7.1038 -202.067 -1575 206 202 165
10.3104 -203.351 -1585 202 197 163
-266.909 -203.353 -1545 225 224 211
-261.686 -201.727 -1533 243 242 213
-257.189 -200.628 -1525 251 250 218
-253.226 -199.924 -1520 251 250 214
-249.78 -199.616 -1518 248 246 207
-246.182 -199.177 -1515 249 246 206
-242.277 -198.476 -1510 238 235 194
-238.712 -198.039 -1507 229 226 184
-235.317 -197.734 -1505 229 227 183
-231.932 -197.429 -1503 229 226 186
-228.71 -197.257 -1502 230 227 188
-225.343 -196.954 -1500 231 231 191
-222.135 -196.782 -1499 236 236 195
-219.225 -196.874 -1500 239 239 197
-216.024 -196.704 -1499 242 240 196
-212.971 -196.666 -1499 241 239 195
-210.06 -196.76 -1500 238 236 190
-207.009 -196.722 -1500 237 235 189
-203.688 -196.424 -1498 234 232 186
-200.51 -196.257 -1497 231 229 183
-197.074 -195.828 -1494 231 229 183
-193.652 -195.4 -1491 237 235 190
-190.5 -195.235 -1490 235 233 187
-187.353 -195.07 -1489 219 216 170
-184.212 -194.906 -1488 206 203 155
-181.32 -195.005 -1489 203 200 153
-178.185 -194.842 -1488 199 196 150
-175.057 -194.68 -1487 191 188 140
-171.702 -194.256 -1484 185 182 133
-168.475 -193.964 -1482 190 187 138
-164.81 -193.149 -1476 208 206 157
-161.72 -192.99 -1475 227 225 176
-158.742 -192.961 -1475 235 233 184
-155.871 -193.064 -1476 235 233 184
-152.894 -193.037 -1476 229 227 178
-149.918 -193.01 -1476 221 219 170
-146.844 -192.853 -1475 216 214 165
-143.97 -192.958 -1476 220 218 169
-140.997 -192.933 -1476 225 223 174
-138.026 -192.908 -1476 230 228 179
-135.056 -192.884 -1476 236 234 185
-132.266 -193.122 -1478 238 236 187
-129.207 -192.968 -1477 233 231 182
-126.153 -192.815 -1476 230 228 179
-123.187 -192.793 -1476 230 227 178
-120.14 -192.641 -1475 233 230 181
-117.099 -192.489 -1474 236 233 184
-114.218 -192.599 -1475 234 231 182
-111.484 -192.971 -1478 231 228 179
-108.666 -193.213 -1480 231 228 179
-105.912 -193.586 -1483 228 225 177
-103.008 -193.698 -1484 223 220 172
-100.034 -193.68 -1484 212 209 160
-97.1255 -193.793 -1485 200 197 146
-94.0238 -193.515 -1483 194 191 139
-90.8695 -193.107 -1480 200 197 146
-87.8467 -192.961 -1479 212 209 158
-84.8287 -192.816 -1478 226 223 172
-81.8707 -192.801 -1478 236 233 184
-78.9669 -192.917 -1479 239 236 187
-76.0595 -193.034 -1480 242 239 190
-73.1983 -193.282 -1482 244 241 192
-70.3296 -193.53 -1484 245 242 193
-67.499 -193.909 -1487 242 239 191
-64.5266 -193.897 -1487 241 237 190
-61.679 -194.277 -1490 238 234 189
-58.6623 -194.137 -1489 235 232 185
-55.6875 -194.127 -1489 231 228 180
-52.7131 -194.117 -1489 223 220 171
-49.7726 -194.238 -1490 218 213 165
-46.8284 -194.36 -1491 214 208 160
-43.8806 -194.483 -1492 207 201 153
-40.9566 -194.736 -1494 205 199 151
-37.9996 -194.859 -1495 208 201 153
-35.0623 -195.114 -1497 213 206 159
-32.1173 -195.368 -1499 220 214 167
-29.1451 -195.493 -1500 227 223 180
-26.204 -195.879 -1503 234 231 188
-23.2512 -196.266 -1506 245 241 198
-20.2865 -196.653 -1509 251 247 204
-17.3101 -197.041 -1512 252 248 206
-14.3408 -197.69 -1517 251 249 208
-11.3516 -198.339 -1522 249 246 209
-8.34808 -199.119 -1528 246 243 209
-5.31717 -199.769 -1533 240 238 204
-2.27078 -200.811 -1541 239 237 203
0.809084 -202.245 -1552 232 229 193
3.9278 -203.418 -1561 224 220 185
7.09149 -204.852 -1572 212 207 172
10.3056 -206.418 -1584 206 201 168
-266.957 -206.503 -1545 216 215 201
-261.562 -204.717 -1532 217 216 182
-257.066 -203.601 -1524 222 222 184
-253.272 -203.021 -1520 227 227 183
-249.825 -202.708 -1518 227 226 181
-246.551 -202.529 -1517 224 222 177
-242.963 -202.084 -1514 220 218 173
-239.547 -201.773 -1512 219 217 171
-235.985 -201.33 -1509 220 218 171
-232.283 -200.754 -1505 224 222 177
-228.903 -200.445 -1503 232 230 186
-225.684 -200.271 -1502 234 234 193
-222.175 -199.83 -1499 238 238 196
-218.972 -199.657 -1498 239 239 196
-215.919 -199.617 -1498 240 238 194
-212.867 -199.578 -1498 239 237 192
-209.958 -199.674 -1499 237 235 189
-207.046 -199.769 -1500 233 231 185
-203.86 -199.599 -1499 229 227 181
-200.412 -199.163 -1496 225 223 177
-197.11 -198.861 -1494 228 226 181
-193.557 -198.293 -1490 237 235 191
-190.406 -198.125 -1489 243 241 195
-187.387 -198.091 -1489 232 230 183
-183.997 -197.658 -1486 216 213 165
-181.23 -197.892 -1488 206 202 156
-178.217 -197.859 -1488 201 197 152
-175.206 -197.827 -1488 193 190 142
-171.964 -197.53 -1486 187 184 136
-168.732 -197.234 -1484 185 182 133
-165.286 -196.672 -1480 201 199 150
-161.968 -196.244 -1477 222 220 171
-158.878 -196.082 -1476 232 230 181
-155.793 -195.921 -1475 236 234 185
-152.818 -195.893 -1475 233 231 182
-149.843 -195.866 -1475 226 224 175
-146.87 -195.839 -1475 218 216 167
-143.898 -195.813 -1475 219 217 168
-141.022 -195.92 -1476 221 219 170
-138.051 -195.895 -1476 227 225 176
-135.08 -195.871 -1476 236 234 185
-132.29 -196.112 -1478 240 238 189
-129.23 -195.956 -1477 236 234 185
-126.175 -195.801 -1476 232 230 181
-123.209 -195.778 -1476 230 227 178
-120.243 -195.756 -1476 231 228 179
-117.12 -195.47 -1474 235 232 183
-114.238 -195.582 -1475 234 231 182
-111.429 -195.827 -1477 231 228 179
-108.612 -196.072 -1479 230 227 178
-105.931 -196.583 -1483 231 228 180
-103.026 -196.697 -1484 227 224 176
-99.9841 -196.546 -1483 216 213 164
-97.0774 -196.661 -1484 202 199 149
-94.0405 -196.512 -1483 192 189 138
-90.947 -196.23 -1481 197 194 144
-87.9218 -196.082 -1480 207 204 153
-84.8437 -195.801 -1478 219 216 165
-81.8299 -195.654 -1477 231 228 179
-78.9275 -195.772 -1478 236 233 184
-76.0216 -195.891 -1479 240 237 188
-73.1619 -196.142 -1481 245 242 193
-70.2948 -196.394 -1483 251 248 199
-67.3747 -196.514 -1484 252 249 201
-64.4947 -196.767 -1486 251 248 200
-61.6071 -197.021 -1488 248 244 199
-58.6333 -197.01 -1488 246 242 195
-55.6973 -197.133 -1489 244 241 193
-52.7224 -197.123 -1489 238 235 186
-49.7814 -197.246 -1490 230 226 178
-46.8367 -197.37 -1491 223 217 169
-43.9178 -197.626 -1493 215 209 161
-40.9639 -197.751 -1494 211 204 156
-38.0317 -198.009 -1496 209 202 154
-35.0919 -198.267 -1498 208 202 155
-32.1444 -198.526 -1500 209 203 157
-29.189 -198.785 -1502 220 214 169
-26.2261 -199.045 -1504 228 222 177
-23.2553 -199.305 -1506 234 230 186
-20.3036 -199.83 -1510 240 236 193
-17.3132 -200.092 -1512 243 239 196
-14.3434 -200.751 -1517 247 243 201
-11.3461 -201.278 -1521 248 245 206
-8.33312 -201.805 -1525 246 243 209
-5.31114 -202.598 -1531 240 239 205
-2.26379 -203.259 -1536 244 243 209
0.806627 -204.715 -1547 236 233 199
3.92095 -206.171 -1558 226 222 188
7.07487 -207.495 -1568 218 213 179
10.3011 -209.482 -1583 210 205 172
-261.781 -207.977 -1533 165 165 127
-257.62 -207.115 -1527 172 172 130
-253.819 -206.525 -1523 180 181 131
-250.694 -206.479 -1523 189 189 140
-247.409 -206.297 -1522 191 191 142
-243.81 -205.845 -1519 195 193 145
-240.383 -205.53 -1517 199 197 148
-236.966 -205.215 -1515 202 200 152
-233.097 -204.494 -1510 209 206 158
-229.554 -204.045 -1507 218 216 168
-225.876 -203.462 -1503 225 223 182
-222.364 -203.015 -1500 229 227 184
-219.158 -202.839 -1499 232 230 187
-216.102 -202.799 -1499 234 232 188
-212.906 -202.624 -1498 235 233 188
-209.996 -202.72 -1499 236 234 188
-207.084 -202.817 -1500 232 230 184
-203.625 -202.374 -1497 224 222 176
-200.449 -202.202 -1496 222 220 174
-197.146 -201.895 -1494 227 225 179
-193.592 -201.319 -1490 230 228 184
-190.441 -201.148 -1489 240 238 192
-187.295 -200.979 -1488 241 239 192
-183.907 -200.539 -1485 230 227 179
-181.02 -200.641 -1486 209 206 159
-178.13 -200.743 -1487 203 199 154
-175.12 -200.711 -1487 201 198 150
-171.88 -200.409 -1485 193 190 142
-169.104 -200.648 -1487 185 182 133
-165.652 -200.078 -1483 194 192 143
-162.436 -199.778 -1481 215 213 164
-158.907 -199.074 -1476 231 229 180
-155.927 -199.045 -1476 239 237 188
-152.845 -198.882 -1475 239 237 188
-149.667 -198.585 -1473 232 230 181
-146.697 -198.558 -1473 224 222 173
-143.924 -198.801 -1475 222 220 171
-140.952 -198.775 -1475 222 220 171
-137.982 -198.75 -1475 227 225 176
-135.013 -198.725 -1475 234 232 183
-132.135 -198.835 -1476 240 238 189
-129.253 -198.946 -1477 240 238 189
-126.283 -198.923 -1477 234 231 182
-123.314 -198.9 -1477 229 226 177
-120.347 -198.878 -1477 230 227 178
-117.3 -198.721 -1476 233 230 181
-114.259 -198.566 -1475 234 231 182
-111.449 -198.814 -1477 231 228 179
-108.705 -199.198 -1480 231 228 179
-105.879 -199.448 -1482 231 228 177
-103.045 -199.698 -1484 232 229 178
-100.07 -199.68 -1484 227 224 175
-97.0294 -199.527 -1483 216 213 164
-93.994 -199.375 -1482 200 197 148
-90.8406 -198.955 -1479 198 195 146
-87.8188 -198.804 -1478 205 202 152
-84.859 -198.788 -1478 216 213 162
-81.9 -198.773 -1478 226 223 174
-78.9417 -198.759 -1478 234 231 182
-76.1382 -199.148 -1481 241 238 189
-73.2245 -199.269 -1482 245 242 193
-70.3548 -199.525 -1484 246 243 194
-67.4322 -199.647 -1485 244 241 193
-64.5062 -199.769 -1486 243 240 193
-61.5768 -199.892 -1487 241 237 192
-58.6045 -199.881 -1487 240 237 190
-55.6699 -200.006 -1488 241 238 190
-52.7319 -200.13 -1489 241 238 189
-49.8237 -200.39 -1491 238 234 186
-46.8765 -200.515 -1492 233 228 180
-43.9846 -200.91 -1495 228 222 174
-40.9987 -200.903 -1495 222 216 168
-38.064 -201.164 -1497 219 212 164
-35.1216 -201.426 -1499 216 210 163
-32.1715 -201.689 -1501 211 205 160
-29.2138 -201.952 -1503 216 210 162
-26.2482 -202.216 -1505 221 215 168
-23.2904 -202.614 -1508 223 219 174
-20.3072 -202.879 -1510 227 223 179
-17.3278 -203.279 -1513 231 227 184
-14.3364 -203.679 -1516 238 234 191
-11.3407 -204.214 -1520 243 239 200
-8.33457 -204.884 -1525 243 240 204
-5.30512 -205.42 -1529 238 237 203
-2.2627 -206.226 -1535 243 241 207
0.805216 -207.435 -1544 234 231 197
3.91409 -208.913 -1555 225 220 186
7.08064 -210.795 -1569 222 217 183
-262.855 -211.931 -1539 161 160 117
-258.511 -210.918 -1532 156 155 109
-254.366 -210.044 -1526 149 149 94
-251.07 -209.859 -1525 153 151 98
-247.781 -209.675 -1524 163 161 109
-244.818 -209.766 -1525 168 166 111
-241.379 -209.446 -1523 176 173 119
-237.793 -208.988 -1520 182 180 126
-234.53 -208.807 -1519 191 187 133
-230.663 -208.076 -1514 201 197 144
-226.819 -207.346 -1509 209 206 161
-222.998 -206.617 -1504 216 213 169
-219.637 -206.301 -1502 224 221 176
-216.286 -205.985 -1500 228 224 182
-212.946 -205.671 -1498 236 232 189
-210.035 -205.769 -1499 238 235 191
-206.846 -205.593 -1498 233 231 187
-203.527 -205.28 -1496 223 222 178
-200.352 -205.105 -1495 225 222 177
-197.05 -204.794 -1493 225 222 176
-193.628 -204.346 -1490 226 223 177
-190.604 -204.31 -1490 230 228 182
-187.455 -204.138 -1489 243 241 195
-184.064 -203.692 -1486 240 237 189
-181.175 -203.795 -1487 223 220 172
-178.163 -203.762 -1487 205 202 153
-175.152 -203.729 -1487 206 203 154
-172.143 -203.697 -1487 197 194 145
-169.249 -203.802 -1488 187 183 134
-165.905 -203.36 -1485 186 182 134
-162.576 -202.919 -1482 204 201 153
-159.151 -202.341 -1478 223 220 172
-156.061 -202.175 -1477 234 231 182
-152.873 -201.873 -1475 240 237 187
-149.694 -201.571 -1473 233 231 181
-146.724 -201.543 -1473 222 220 169
-143.853 -201.653 -1474 215 213 165
-140.978 -201.764 -1475 217 214 166
-137.914 -201.601 -1474 219 216 167
-135.129 -201.85 -1476 227 224 173
-132.248 -201.961 -1477 238 235 185
-129.452 -202.211 -1479 241 239 190
-126.392 -202.05 -1478 236 233 184
-123.504 -202.164 -1479 227 224 175
-120.45 -202.005 -1478 225 222 174
-117.401 -201.846 -1477 227 224 176
-114.435 -201.825 -1477 230 227 178
-111.469 -201.804 -1477 230 227 178
-108.651 -202.057 -1479 226 223 174
-105.827 -202.31 -1481 227 224 176
-102.925 -202.428 -1482 227 224 175
-99.953 -202.409 -1482 223 220 172
-96.9817 -202.391 -1482 215 212 163
-93.9478 -202.237 -1481 201 198 149
-90.9186 -202.083 -1480 195 192 142
-87.8942 -201.93 -1479 198 195 144
-84.8746 -201.777 -1478 210 207 155
-81.9705 -201.898 -1479 223 220 168
-79.063 -202.02 -1480 226 223 171
-76.2036 -202.279 -1482 229 224 174
-73.2379 -202.265 -1482 232 227 179
-70.3676 -202.525 -1484 233 227 180
-67.3992 -202.512 -1484 234 230 184
-64.4747 -202.636 -1485 235 231 186
-61.5052 -202.625 -1485 239 235 190
-58.6152 -202.887 -1487 240 237 190
-55.7175 -203.149 -1489 239 237 189
-52.8124 -203.412 -1491 238 237 188
-49.8663 -203.539 -1492 239 237 189
-46.9479 -203.803 -1494 241 237 191
-43.9926 -203.931 -1495 239 235 189
-41.0062 -203.923 -1495 230 225 178
-38.071 -204.189 -1497 225 219 171
-35.128 -204.455 -1499 224 217 169
-32.1989 -204.858 -1502 218 212 164
-29.2385 -205.125 -1504 212 208 159
-26.3053 -205.665 -1508 213 208 160
-23.3564 -206.206 -1512 211 208 161
-20.3647 -206.475 -1514 216 212 167
-17.3767 -206.881 -1517 221 217 172
-14.3864 -207.423 -1521 228 225 185
-11.3651 -207.694 -1523 230 225 186
-8.33605 -207.964 -1525 235 228 190
-5.29912 -208.236 -1527 237 234 198
-2.26015 -209.054 -1533 240 236 201
0.803284 -210.008 -1540 229 226 192
3.90744 -211.645 -1552 223 220 186
7.08642 -214.1 -1570 226 222 188
-259.404 -214.743 -1537 185 183 132
-254.914 -213.577 -1529 172 170 111
-251.612 -213.389 -1528 165 161 103
-247.99 -212.923 -1525 155 150 93
-245.025 -213.015 -1526 153 151 88
-241.583 -212.69 -1524 155 151 89
-238.463 -212.644 -1524 160 155 95
-235.037 -212.32 -1522 169 163 103
-231.316 -211.718 -1518 181 175 116
-227.614 -211.117 -1514 189 186 138
-223.485 -210.098 -1507 203 199 153
-219.971 -209.638 -1504 215 211 166
-216.327 -209.039 -1500 227 223 182
-212.986 -208.72 -1498 239 235 193
-209.794 -208.54 -1497 239 233 191
-206.747 -208.501 -1497 230 228 186
-203.429 -208.183 -1495 222 222 180
-200.389 -208.145 -1495 221 217 174
-197.219 -207.969 -1494 221 218 173
-193.924 -207.653 -1492 221 218 170
-190.64 -207.338 -1490 219 216 170
-187.49 -207.164 -1489 226 224 178
-184.099 -206.711 -1486 237 233 186
-180.965 -206.538 -1485 231 228 178
-178.076 -206.643 -1486 212 209 156
-175.067 -206.61 -1486 203 200 149
-172.059 -206.577 -1486 197 193 143
-169.167 -206.684 -1487 191 186 138
-166.048 -206.513 -1486 184 180 132
-162.825 -206.204 -1484 195 192 144
-159.504 -205.757 -1481 214 209 162
-156.302 -205.449 -1479 228 223 175
-152.902 -204.865 -1475 236 233 183
-149.824 -204.698 -1474 234 231 180
-146.752 -204.531 -1473 222 220 169
-143.782 -204.503 -1473 211 209 161
-140.909 -204.616 -1474 206 203 155
-137.846 -204.45 -1473 205 202 153
-135.155 -204.841 -1476 212 209 158
-132.273 -204.955 -1477 224 222 171
-129.564 -205.347 -1480 236 234 185
-126.501 -205.184 -1479 238 236 187
-123.611 -205.299 -1480 230 227 178
-120.554 -205.137 -1479 223 220 172
-117.582 -205.115 -1479 220 217 169
-114.533 -204.955 -1478 224 221 172
-111.565 -204.933 -1478 226 223 174
-108.598 -204.913 -1478 225 222 173
-105.775 -205.17 -1480 224 221 173
-102.805 -205.15 -1480 227 224 176
-99.8367 -205.132 -1480 225 222 174
-96.8688 -205.113 -1480 219 216 168
-93.9018 -205.095 -1480 211 208 159
-90.8127 -204.801 -1478 198 195 145
-87.8512 -204.784 -1478 194 191 141
-84.8903 -204.768 -1478 206 203 152
-81.9856 -204.891 -1479 219 216 165
-79.0776 -205.014 -1480 224 220 169
-76.2177 -205.277 -1482 227 221 172
-73.2515 -205.263 -1482 231 225 177
-70.3807 -205.526 -1484 233 227 180
-67.4117 -205.514 -1484 233 230 183
-64.5734 -205.917 -1487 235 232 185
-61.5581 -205.766 -1486 238 234 187
-58.6654 -206.032 -1488 240 237 189
-55.7653 -206.298 -1490 241 238 189
-52.8222 -206.427 -1491 239 238 189
-49.8754 -206.555 -1492 240 237 189
-46.9566 -206.823 -1494 241 236 189
-44.0008 -206.953 -1495 242 236 190
-41.0412 -207.084 -1496 238 233 187
-38.1034 -207.353 -1498 234 227 180
-35.1814 -207.762 -1501 227 221 173
-32.2692 -208.309 -1505 219 213 165
-29.3218 -208.719 -1508 211 207 155
-26.3626 -209.128 -1511 204 200 149
-23.4071 -209.678 -1515 202 197 148
-20.4358 -210.227 -1519 207 201 154
-17.4143 -210.362 -1520 207 201 155
-14.3985 -210.636 -1522 208 204 162
-11.3748 -210.91 -1524 208 202 159
-8.33773 -211.047 -1525 214 206 163
-5.30007 -211.322 -1527 224 220 182
-2.26202 -212.29 -1534 229 226 188
0.803962 -213.259 -1541 220 217 184
-261.48 -219.583 -1549 194 193 147
-256.13 -217.691 -1536 196 193 132
-252.483 -217.216 -1533 189 184 125
-248.525 -216.46 -1528 179 174 116
-245.393 -216.412 -1528 161 159 95
-242.105 -216.223 -1527 152 149 86
-238.822 -216.035 -1526 150 147 85
-235.391 -215.707 -1524 152 147 87
-231.818 -215.237 -1521 151 146 87
-228.56 -215.051 -1520 163 160 110
-224.566 -214.159 -1514 179 175 126
-220.891 -213.55 -1510 201 196 148
-217.09 -212.801 -1505 216 212 167
-213.737 -212.477 -1503 232 228 182
-210.115 -211.871 -1499 236 231 183
-206.925 -211.689 -1498 229 228 184
-203.604 -211.367 -1496 224 224 182
-200.159 -210.905 -1493 221 217 173
-197.257 -211.008 -1494 215 211 165
-193.961 -210.688 -1492 203 200 152
-190.932 -210.651 -1492 191 186 140
-187.652 -210.332 -1490 191 186 139
-184.382 -210.014 -1488 213 208 162
-180.999 -209.556 -1485 227 222 174
-178.11 -209.663 -1486 215 212 161
-174.983 -209.488 -1485 198 195 146
-171.976 -209.455 -1485 192 189 140
-169.085 -209.563 -1486 190 186 139
-166.192 -209.672 -1487 182 179 131
-162.856 -209.218 -1484 187 185 136
-159.642 -208.905 -1482 208 204 156
-156.332 -208.452 -1479 223 219 171
-153.138 -208.14 -1477 229 226 177
-149.852 -207.689 -1474 232 230 179
-146.879 -207.661 -1474 226 224 173
-143.809 -207.492 -1473 213 211 163
-141.031 -207.747 -1475 205 202 153
-137.966 -207.579 -1474 200 197 148
-135.18 -207.835 -1476 203 200 149
-132.298 -207.95 -1477 212 209 158
-129.588 -208.347 -1480 227 225 176
-126.439 -208.042 -1478 239 236 187
-123.55 -208.158 -1479 236 233 184
-120.577 -208.135 -1479 225 222 174
-117.684 -208.253 -1480 219 216 168
-114.633 -208.09 -1479 220 217 168
-111.662 -208.069 -1479 222 219 170
-108.692 -208.048 -1479 223 220 171
-105.723 -208.027 -1479 224 221 172
-102.755 -208.008 -1479 224 221 173
-99.7205 -207.848 -1478 226 223 174
-96.7562 -207.829 -1478 222 219 170
-93.983 -208.233 -1481 211 208 159
-90.8912 -207.934 -1479 201 198 149
-87.9271 -207.917 -1479 196 193 145
-85.0212 -208.041 -1480 203 200 152
-82.112 -208.166 -1481 216 213 164
-79.0925 -208.01 -1480 223 219 170
-76.2834 -208.417 -1483 226 220 172
-73.3147 -208.403 -1483 228 222 174
-70.3465 -208.389 -1483 230 224 177
-67.3789 -208.376 -1483 231 228 179
-64.4988 -208.645 -1485 232 229 180
-61.5282 -208.633 -1485 232 229 178
-58.637 -208.902 -1487 232 229 179
-55.7758 -209.313 -1490 231 228 177
-52.8675 -209.583 -1492 229 226 175
-49.9183 -209.714 -1493 229 224 175
-46.9969 -209.986 -1495 230 223 175
-44.0384 -210.118 -1496 231 224 177
-41.1312 -210.531 -1499 233 226 179
-38.1869 -210.805 -1501 229 222 175
-35.2349 -211.078 -1503 219 214 168
-32.3395 -211.774 -1508 210 206 161
-29.405 -212.33 -1512 205 199 142
-26.4373 -212.746 -1515 196 190 134
-23.4887 -213.444 -1520 194 187 133
-20.5203 -214.141 -1525 188 181 131
-17.4749 -214.138 -1525 168 161 111
-14.439 -214.275 -1526 160 154 107
-11.3992 -214.413 -1527 165 158 111
-8.35565 -214.552 -1528 173 166 118
-5.31144 -214.831 -1530 183 178 137
-2.26537 -215.673 -1536 212 209 170
0.807251 -217.217 -1547 206 205 173
-258.515 -222.841 -1550 205 200 143
-253.85 -221.497 -1541 203 199 142
-249.387 -220.298 -1533 201 197 140
-245.762 -219.819 -1530 186 184 120
-242.31 -219.484 -1528 171 169 106
-238.868 -219.149 -1526 155 153 90
-235.591 -218.959 -1525 143 139 79
-232.168 -218.626 -1523 146 142 83
-228.754 -218.294 -1521 148 145 92
-224.906 -217.532 -1516 160 156 103
-221.519 -217.202 -1514 185 180 127
-217.709 -216.442 -1509 204 201 153
-214.063 -215.826 -1505 224 221 173
-210.296 -215.068 -1500 234 231 182
-206.965 -214.74 -1498 232 231 185
-203.507 -214.27 -1495 223 223 178
-200.332 -214.088 -1494 217 212 165
-197.427 -214.192 -1495 202 198 150
-194.129 -213.868 -1493 188 184 134
-190.969 -213.687 -1492 175 169 122
-187.688 -213.364 -1490 175 168 121
-184.541 -213.184 -1489 192 186 139
-181.156 -212.719 -1486 217 212 163
-178.264 -212.828 -1487 219 216 163
-175.016 -212.507 -1485 203 200 149
-172.009 -212.473 -1485 194 191 141
-168.89 -212.297 -1484 193 190 141
-165.888 -212.265 -1484 186 183 134
-162.778 -212.09 -1483 182 180 131
-159.457 -211.63 -1480 200 197 148
-156.256 -211.313 -1478 217 214 165
-153.168 -211.14 -1477 223 220 170
-149.983 -210.825 -1475 229 226 176
-146.907 -210.653 -1474 229 226 175
-143.837 -210.482 -1473 222 220 171
-141.154 -210.883 -1476 211 209 160
-138.086 -210.713 -1475 203 200 151
-135.298 -210.973 -1477 199 196 147
-132.323 -210.947 -1477 204 201 151
-129.613 -211.35 -1480 218 216 167
-126.549 -211.182 -1479 233 230 181
-123.574 -211.158 -1479 237 234 185
-120.6 -211.135 -1479 228 225 177
-117.786 -211.397 -1481 221 218 170
-114.732 -211.232 -1480 220 217 168
-111.683 -211.067 -1479 220 217 167
-108.639 -210.903 -1478 222 219 169
-105.744 -211.025 -1479 218 215 166
-102.775 -211.005 -1479 218 215 166
-99.8071 -210.986 -1479 223 220 171
-96.9057 -211.109 -1480 225 222 173
-94.0644 -211.376 -1482 216 213 164
-90.97 -211.073 -1480 203 200 151
-88.0629 -211.198 -1481 195 192 143
-85.095 -211.182 -1481 200 197 149
-82.2386 -211.451 -1483 212 209 160
-79.2146 -211.293 -1482 220 217 168
-76.3495 -211.563 -1484 220 214 166
-73.3782 -211.548 -1484 217 211 164
-70.4548 -211.677 -1485 219 213 166
-67.5281 -211.806 -1486 220 216 166
-64.598 -211.936 -1487 224 219 169
-61.6228 -211.924 -1487 226 219 169
-58.7271 -212.198 -1489 224 219 169
-55.8238 -212.472 -1491 223 218 168
-52.9131 -212.746 -1493 221 217 166
-49.9947 -213.021 -1495 223 217 167
-47.1316 -213.582 -1499 224 215 166
-44.194 -213.858 -1501 223 214 167
-41.2489 -214.135 -1503 222 213 166
-38.3214 -214.554 -1506 215 208 161
-35.3824 -214.975 -1509 207 202 156
-32.4529 -215.538 -1513 202 197 152
-29.5079 -216.102 -1517 197 188 136
-26.5296 -216.524 -1520 190 181 128
-23.555 -217.089 -1524 174 166 113
-20.5377 -217.37 -1526 158 149 95
-17.5011 -217.508 -1527 148 139 85
-14.4607 -217.648 -1528 152 142 89
-11.4238 -217.93 -1530 152 144 93
-8.37907 -218.213 -1532 151 144 96
-5.32997 -218.639 -1535 159 155 115
-2.27611 -219.778 -1543 192 188 151
0.815242 -222.484 -1562 200 199 170
-251.552 -225.325 -1546 207 204 153
-247.417 -224.401 -1540 201 200 140
-242.675 -222.895 -1530 195 194 133
-239.072 -222.41 -1527 189 187 125
-235.792 -222.218 -1526 170 167 106
-232.213 -221.735 -1523 148 145 84
-228.95 -221.543 -1522 158 155 95
-225.247 -220.916 -1518 165 162 102
-221.855 -220.581 -1516 171 169 110
-218.04 -219.81 -1511 190 188 138
-214.532 -219.331 -1508 208 206 157
-210.617 -218.416 -1502 225 223 175
-207.282 -218.084 -1500 235 233 185
-204.092 -217.898 -1499 220 218 170
-200.64 -217.422 -1496 206 200 152
-197.597 -217.383 -1496 193 187 139
-194.557 -217.344 -1496 187 181 131
-191.39 -217.16 -1495 178 171 124
-187.977 -216.687 -1492 177 170 123
-184.949 -216.65 -1492 189 183 135
-181.436 -216.034 -1488 211 206 155
-178.299 -215.853 -1487 220 217 162
-175.051 -215.528 -1485 209 206 153
-171.927 -215.349 -1484 198 195 142
-168.809 -215.17 -1483 197 194 141
-165.697 -214.992 -1482 194 191 141
-162.59 -214.815 -1481 183 181 132
-159.488 -214.638 -1480 191 188 139
-156.286 -214.317 -1478 211 207 158
-153.197 -214.142 -1477 219 216 165
-150.114 -213.967 -1476 226 223 172
-147.036 -213.793 -1475 227 224 173
-143.962 -213.619 -1474 229 227 178
-141.182 -213.881 -1476 219 216 168
-138.206 -213.853 -1476 208 205 156
-135.416 -214.116 -1478 198 195 146
-132.349 -213.945 -1477 198 195 146
-129.551 -214.209 -1479 209 207 158
-126.488 -214.039 -1478 223 221 172
-123.598 -214.16 -1479 233 230 181
-120.623 -214.136 -1479 229 226 178
-117.729 -214.257 -1480 222 219 170
-114.754 -214.234 -1480 218 215 166
-111.705 -214.067 -1479 215 212 162
-108.734 -214.046 -1479 217 214 163
-105.764 -214.025 -1479 217 214 165
-102.725 -213.86 -1478 215 212 163
-99.759 -213.84 -1478 215 212 164
-96.9245 -214.11 -1480 215 212 163
-94.0192 -214.236 -1481 217 214 164
-91.1107 -214.363 -1482 206 203 154
-88.0799 -214.2 -1481 195 192 143
-85.1114 -214.184 -1481 201 198 149
-82.1991 -214.312 -1482 210 207 157
-79.2299 -214.296 -1482 216 213 163
-76.2614 -214.281 -1482 213 207 159
-73.3923 -214.555 -1484 208 202 155
-70.516 -214.83 -1486 208 202 155
-67.6321 -215.106 -1488 210 204 154
-64.6539 -215.093 -1488 213 206 156
-61.7591 -215.37 -1490 215 207 158
-58.8568 -215.647 -1492 212 205 156
-55.9845 -216.07 -1495 209 203 153
-53.0651 -216.348 -1497 208 201 152
-50.1716 -216.772 -1500 209 201 152
-47.2666 -217.196 -1503 208 199 150
-44.3204 -217.476 -1505 205 195 149
-41.3392 -217.612 -1506 200 191 144
-38.4306 -218.182 -1510 194 186 140
-35.483 -218.608 -1513 188 181 135
-32.5236 -219.035 -1516 182 176 130
-29.5915 -219.751 -1521 177 165 117
-26.6046 -220.179 -1524 169 158 110
-23.606 -220.608 -1527 163 154 104
-20.5686 -220.748 -1528 166 156 102
-17.5274 -220.889 -1529 172 161 107
-14.4824 -221.03 -1530 181 171 115
-11.441 -221.317 -1532 185 177 126
-8.39705 -221.748 -1535 187 182 137
-5.35527 -222.758 -1542 185 182 145
-2.28833 -224.057 -1551 190 187 153
0.819062 -226.658 -1569 188 186 162
-249.074 -229.026 -1550 206 205 160
-243.834 -227.056 -1537 211 209 163
-239.903 -226.269 -1532 208 206 155
-235.994 -225.482 -1527 202 199 144
-232.26 -224.845 -1523 189 186 130
-228.845 -224.503 -1521 160 159 102
-225.143 -223.867 -1517 154 152 96
-221.606 -223.379 -1514 160 157 104
-218.228 -223.04 -1512 161 159 113
-214.717 -222.554 -1509 178 176 131
-210.94 -221.774 -1504 204 202 160
-207.599 -221.437 -1502 221 218 172
-204.405 -221.249 -1501 212 209 161
-201.082 -220.913 -1499 199 193 143
-198.033 -220.873 -1499 191 186 136
-194.986 -220.834 -1499 190 185 133
-191.684 -220.501 -1497 184 178 130
-188.392 -220.168 -1495 181 174 127
-185.234 -219.983 -1494 187 182 135
-181.594 -219.211 -1489 201 198 148
-178.455 -219.027 -1488 214 211 157
-175.203 -218.698 -1486 211 208 155
-172.077 -218.516 -1485 201 198 145
-169.071 -218.482 -1485 197 194 140
-165.953 -218.301 -1484 196 193 142
-162.622 -217.827 -1481 186 183 134
-159.52 -217.648 -1480 188 182 135
-156.317 -217.323 -1478 207 202 154
-153.228 -217.145 -1477 217 214 163
-150.144 -216.967 -1476 223 220 169
-147.164 -216.938 -1476 228 226 175
-144.089 -216.762 -1475 228 225 176
-141.305 -217.027 -1477 223 220 171
-138.327 -216.999 -1477 214 211 163
-135.351 -216.972 -1477 203 200 151
-132.286 -216.799 -1476 196 193 144
-129.401 -216.919 -1477 200 197 148
-126.342 -216.747 -1476 212 209 160
-123.455 -216.869 -1477 228 225 176
-120.647 -217.139 -1479 229 226 177
-117.832 -217.409 -1481 223 220 171
-114.854 -217.385 -1481 218 215 166
-111.803 -217.216 -1480 213 210 160
-108.829 -217.194 -1480 214 211 160
-105.856 -217.173 -1480 212 209 160
-102.885 -217.152 -1480 210 207 158
-99.9812 -217.279 -1481 212 209 161
-97.0091 -217.259 -1481 211 208 158
-94.1647 -217.534 -1483 213 210 159
-91.1286 -217.369 -1482 206 203 152
-88.0973 -217.204 -1481 195 192 140
-85.1282 -217.187 -1481 200 197 143
-82.1597 -217.171 -1481 208 205 151
-79.1386 -217.008 -1480 205 202 149
-76.2764 -217.286 -1482 200 194 145
-73.4068 -217.564 -1484 196 190 142
-70.5299 -217.843 -1486 195 189 141
-67.6454 -218.123 -1488 198 189 139
-64.797 -218.549 -1491 199 190 141
-61.8542 -218.683 -1492 199 190 142
-58.9079 -218.818 -1493 196 188 140
-55.9955 -219.1 -1495 193 186 138
-53.111 -219.529 -1498 192 185 137
-50.2484 -220.104 -1502 190 183 135
-47.3388 -220.534 -1505 187 179 131
-44.3881 -220.818 -1507 182 174 128
-41.4846 -221.396 -1511 175 167 121
-38.4891 -221.534 -1512 166 157 110
-35.5603 -222.113 -1516 159 150 103
-32.5944 -222.546 -1519 152 143 96
-29.675 -223.419 -1525 148 136 93
-26.6447 -223.56 -1526 149 138 94
-23.6106 -223.702 -1527 156 146 101
-20.5861 -223.99 -1529 174 164 116
-17.5423 -224.133 -1530 192 182 133
-14.4947 -224.276 -1531 198 191 141
-11.473 -225.006 -1536 200 195 151
-8.42619 -225.59 -1540 200 197 159
-5.37712 -226.761 -1548 181 180 149
-2.30794 -229.104 -1564 146 145 117
0.825496 -231.594 -1581 158 156 138
-245.629 -231.846 -1548 146 144 117
-240.265 -229.7 -1534 158 155 120
-236.196 -228.753 -1528 173 170 127
-232.459 -228.106 -1524 178 175 130
-228.741 -227.46 -1520 177 178 131
-225.189 -226.965 -1517 160 160 113
-221.651 -226.471 -1514 142 140 95
-218.272 -226.127 -1512 135 132 93
-214.761 -225.634 -1509 127 124 86
-211.403 -225.292 -1507 144 142 106
-208.056 -224.95 -1505 177 173 130
-204.718 -224.61 -1503 191 186 139
-201.391 -224.27 -1501 191 185 136
-198.337 -224.229 -1501 189 183 134
-195.155 -224.04 -1500 189 184 132
-191.851 -223.702 -1498 182 176 127
-188.682 -223.514 -1497 180 174 125
-185.395 -223.177 -1495 181 178 132
-181.996 -222.692 -1492 195 192 144
-178.85 -222.506 -1491 210 207 156
-175.474 -222.023 -1488 216 213 161
-172.46 -221.987 -1488 207 204 151
-169.332 -221.804 -1487 199 196 142
-166.099 -221.471 -1485 197 193 142
-162.765 -220.991 -1482 189 185 136
-159.66 -220.809 -1481 182 176 129
-156.454 -220.479 -1479 200 195 147
-153.362 -220.299 -1478 213 210 159
-150.377 -220.268 -1478 217 215 163
-147.393 -220.238 -1478 224 222 170
-144.411 -220.208 -1478 226 223 174
-141.525 -220.328 -1479 224 221 172
-138.449 -220.151 -1478 221 218 170
-135.378 -219.975 -1477 214 211 162
-132.312 -219.799 -1476 200 197 148
-129.339 -219.772 -1476 195 192 143
-126.367 -219.747 -1476 204 201 152
-123.396 -219.721 -1476 222 219 170
-120.508 -219.846 -1477 232 229 180
-117.696 -220.119 -1479 231 228 179
-114.8 -220.245 -1480 223 220 171
-111.825 -220.222 -1480 218 215 164
-108.924 -220.349 -1481 214 211 160
-106.021 -220.476 -1482 213 210 161
-103.044 -220.455 -1482 213 210 161
-100.001 -220.285 -1481 214 211 163
-97.094 -220.414 -1482 216 213 163
-94.1835 -220.544 -1483 217 214 163
-91.2699 -220.674 -1484 209 205 154
-88.2339 -220.507 -1483 197 194 140
-85.2602 -220.49 -1483 198 196 138
-82.2871 -220.473 -1483 208 205 149
-79.2613 -220.308 -1482 196 193 137
-76.343 -220.441 -1483 190 185 133
-73.5204 -220.872 -1486 192 186 135
-70.6388 -221.155 -1488 190 184 134
-67.7044 -221.289 -1489 188 179 129
-64.8099 -221.573 -1491 183 174 124
-61.9909 -222.155 -1495 176 166 118
-58.9985 -222.143 -1495 170 162 115
-56.119 -222.577 -1498 173 166 118
-53.2634 -223.16 -1502 170 163 117
-50.3922 -223.744 -1506 159 152 105
-47.4111 -223.883 -1507 148 141 93
-44.4263 -224.022 -1508 140 133 87
-41.4928 -224.459 -1511 138 131 85
-38.5477 -224.897 -1514 136 127 80
-35.5909 -225.335 -1517 139 129 84
-32.6438 -225.923 -1521 140 130 85
-29.7004 -226.659 -1526 152 142 101
-26.6849 -226.95 -1528 150 141 100
-23.6307 -226.945 -1528 175 167 128
-20.6037 -227.238 -1530 194 186 148
-17.5802 -227.68 -1533 196 188 150
-14.5355 -227.973 -1535 176 170 135
-11.5052 -228.713 -1540 154 149 118
-8.46612 -229.751 -1547 116 113 86
-5.399 -230.789 -1554 70 69 47
-2.31132 -232.571 -1566 61 60 41
0.828279 -235.541 -1586 113 111 98
-246.314 -235.62 -1552 44 42 31
-241.097 -233.596 -1539 46 43 31
-236.708 -232.333 -1531 58 54 40
-232.812 -231.525 -1526 69 65 51
-228.938 -230.719 -1521 79 78 54
-225.384 -230.217 -1518 92 91 65
-221.697 -229.564 -1514 119 117 88
-218.317 -229.216 -1512 150 149 118
-214.805 -228.716 -1509 139 138 107
-211.447 -228.369 -1507 127 126 93
-208.375 -228.326 -1507 130 127 90
-205.169 -228.132 -1506 155 150 110
-201.835 -227.787 -1504 171 165 121
-198.51 -227.443 -1502 171 166 120
-195.456 -227.402 -1502 172 169 119
-192.018 -226.908 -1499 173 168 118
-188.721 -226.566 -1497 179 173 124
-185.433 -226.225 -1495 180 176 136
-182.155 -225.885 -1493 192 188 145
-179.007 -225.697 -1492 204 201 153
-175.746 -225.358 -1490 212 209 160
-172.727 -225.322 -1490 205 202 153
-169.595 -225.135 -1489 198 195 144
-166.356 -224.799 -1487 199 194 144
-163.127 -224.462 -1485 195 190 141
-159.8 -223.976 -1482 184 178 130
-156.486 -223.49 -1479 195 190 141
-153.393 -223.307 -1478 208 205 154
-150.408 -223.276 -1478 212 210 157
-147.423 -223.246 -1478 219 218 164
-144.44 -223.216 -1478 222 219 170
-141.458 -223.187 -1478 221 218 170
-138.477 -223.158 -1478 223 220 172
-135.405 -222.979 -1477 221 218 169
-132.339 -222.801 -1476 210 207 158
-129.453 -222.925 -1477 198 195 146
-126.479 -222.899 -1477 195 192 143
-123.589 -223.024 -1478 209 206 157
-120.614 -222.999 -1478 226 223 174
-117.72 -223.126 -1479 231 228 179
-114.823 -223.253 -1480 226 223 172
-111.923 -223.38 -1481 221 218 167
-108.946 -223.358 -1481 216 213 162
-106.042 -223.487 -1482 214 211 162
-103.065 -223.465 -1482 214 211 162
-100.157 -223.595 -1483 213 210 161
-97.1136 -223.424 -1482 215 212 162
-94.2026 -223.556 -1483 220 217 166
-91.2268 -223.537 -1483 214 208 158
-88.2518 -223.519 -1483 200 196 142
-85.2199 -223.35 -1482 208 206 146
-82.3038 -223.484 -1483 202 199 142
-79.3843 -223.618 -1484 186 184 126
-76.4615 -223.753 -1485 186 181 128
-73.5847 -224.039 -1487 181 176 123
-70.7481 -224.476 -1490 175 170 117
-67.809 -224.613 -1491 167 158 106
-64.91 -224.9 -1493 156 147 95
-62.0449 -225.339 -1496 151 142 92
-59.0894 -225.478 -1497 149 141 93
-56.1678 -225.767 -1499 145 138 90
-53.3096 -226.359 -1503 145 138 93
-50.4024 -226.8 -1506 143 135 89
-47.4521 -227.091 -1508 145 138 90
-44.4942 -227.383 -1510 157 151 106
-41.5287 -227.675 -1512 162 155 111
-38.5809 -228.119 -1515 162 155 111
-35.6449 -228.714 -1519 163 155 114
-32.6718 -229.158 -1522 174 166 125
-29.7064 -229.754 -1526 162 157 117
-26.6903 -230.05 -1528 164 159 121
-23.6355 -230.045 -1528 135 131 98
-20.5943 -230.191 -1529 81 77 50
-17.5837 -230.789 -1533 47 43 18
-14.5574 -231.388 -1537 34 30 10
-11.5225 -232.138 -1542 31 28 9
-8.47871 -233.19 -1549 40 38 21
-5.41742 -234.694 -1559 48 47 35
-2.31176 -235.747 -1566 57 56 45
0.826365 -238.155 -1582 80 78 72
-246.366 -238.797 -1552 41 39 40
-241.147 -236.746 -1539 43 40 43
-236.603 -235.311 -1530 42 39 41
-232.861 -234.647 -1526 39 36 37
-228.986 -233.83 -1521 39 37 29
-225.282 -233.168 -1517 40 37 26
-221.596 -232.506 -1513 42 40 24
-218.073 -231.999 -1510 66 64 45
-214.707 -231.647 -1508 125 124 103
-211.35 -231.295 -1506 146 145 121
-208.418 -231.405 -1507 151 149 122
-205.348 -231.361 -1507 139 135 106
-202.011 -231.012 -1505 128 123 89
-198.816 -230.816 -1504 135 131 94
-195.496 -230.468 -1502 141 137 94
-192.186 -230.121 -1500 155 150 104
-188.76 -229.621 -1497 177 172 125
-185.348 -229.122 -1494 184 180 140
-182.071 -228.777 -1492 189 185 142
-179.044 -228.74 -1492 194 191 143
-175.9 -228.549 -1491 199 196 146
-172.878 -228.513 -1491 194 191 141
-169.744 -228.324 -1490 187 184 131
-166.614 -228.136 -1489 189 185 134
-163.271 -227.642 -1486 194 190 140
-160.049 -227.302 -1484 186 182 133
-156.836 -226.963 -1482 190 186 137
-153.633 -226.624 -1480 200 197 146
-150.642 -226.593 -1480 208 205 153
-147.553 -226.409 -1479 215 212 160
-144.47 -226.225 -1478 222 219 169
-141.487 -226.195 -1478 222 219 170
-138.599 -226.32 -1479 224 221 172
-135.525 -226.138 -1478 223 220 171
-132.546 -226.11 -1478 217 214 165
-129.567 -226.083 -1478 204 201 152
-126.505 -225.904 -1477 194 191 142
-123.614 -226.031 -1478 198 195 146
-120.557 -225.852 -1477 211 208 159
-117.744 -226.134 -1479 221 218 169
-114.847 -226.262 -1480 222 219 168
-112.097 -226.698 -1483 219 216 165
-109.116 -226.675 -1483 215 212 161
-106.279 -226.958 -1485 211 208 158
-103.156 -226.631 -1483 210 207 157
-100.245 -226.762 -1484 208 205 156
-97.1991 -226.589 -1483 210 205 155
-94.2219 -226.569 -1483 217 213 162
-91.2455 -226.55 -1483 212 206 156
-88.3293 -226.684 -1484 201 197 144
-85.2949 -226.514 -1483 206 204 147
-82.3761 -226.649 -1484 188 184 128
-79.4541 -226.785 -1485 177 173 117
-76.5286 -226.922 -1486 173 168 115
-73.5999 -227.059 -1487 168 162 110
-70.7151 -227.349 -1489 166 159 107
-67.7774 -227.488 -1490 167 160 107
-64.8798 -227.78 -1492 167 161 107
-62.0161 -228.224 -1495 165 158 106
-59.1015 -228.517 -1497 164 157 108
-56.2542 -229.116 -1501 164 157 109
-53.356 -229.563 -1504 170 164 119
-50.3792 -229.705 -1505 173 166 121
-47.4304 -230 -1507 176 169 125
-44.4738 -230.296 -1509 184 179 138
-41.5097 -230.592 -1511 181 177 137
-38.5633 -231.041 -1514 181 175 139
-35.6288 -231.644 -1518 182 176 143
-32.657 -232.095 -1521 172 166 135
-29.6541 -232.394 -1523 136 134 105
-26.6783 -232.998 -1527 83 82 54
-23.6403 -233.146 -1528 41 42 21
-20.6254 -233.599 -1531 35 33 16
-17.6102 -234.205 -1535 41 39 23
-14.5792 -234.812 -1539 47 44 33
-11.5323 -235.42 -1543 45 42 32
-8.47491 -236.181 -1548 49 47 38
-5.40806 -237.4 -1556 50 48 42
-2.31221 -238.925 -1566 53 51 46
0.824645 -240.755 -1578 58 57 55
-246.735 -242.288 -1554 41 39 45
-241.668 -240.365 -1542 42 39 47
-236.962 -238.756 -1532 37 36 41
-232.91 -237.771 -1526 37 37 41
-229.185 -237.099 -1522 40 37 40
-225.478 -236.428 -1518 41 38 38
-221.936 -235.913 -1515 44 41 35
-218.408 -235.399 -1512 42 40 32
-214.894 -234.886 -1509 41 39 30
-211.535 -234.53 -1507 55 54 39
-208.462 -234.485 -1507 105 104 88
-205.255 -234.286 -1506 142 140 123
-202.053 -234.087 -1505 149 146 122
-198.857 -233.889 -1504 141 137 111
-195.407 -233.381 -1501 151 148 113
-191.97 -232.874 -1498 170 166 126
-188.673 -232.522 -1496 187 183 141
-185.262 -232.017 -1493 186 182 142
-181.987 -231.667 -1491 188 184 142
-178.841 -231.474 -1490 191 188 140
-175.819 -231.436 -1490 192 189 139
-172.914 -231.555 -1491 191 188 138
-170.007 -231.674 -1492 193 190 136
-166.761 -231.328 -1490 194 191 138
-163.525 -230.983 -1488 194 191 140
-160.298 -230.638 -1486 188 185 136
-156.975 -230.139 -1483 187 184 135
-153.769 -229.796 -1481 191 188 137
-150.776 -229.764 -1481 195 192 141
-147.684 -229.577 -1480 199 196 145
-144.695 -229.547 -1480 207 204 153
-141.612 -229.361 -1479 215 212 162
-138.628 -229.332 -1479 222 219 170
-135.645 -229.303 -1479 223 220 171
-132.573 -229.12 -1478 219 216 167
-129.594 -229.092 -1478 209 206 157
-126.617 -229.065 -1478 197 194 145
-123.64 -229.039 -1478 192 189 140
-120.664 -229.014 -1478 198 195 146
-117.849 -229.298 -1480 210 207 158
-114.948 -229.429 -1481 216 213 162
-112.121 -229.715 -1483 215 212 161
-109.139 -229.692 -1483 212 209 158
-106.229 -229.824 -1484 209 206 155
-103.177 -229.647 -1483 208 205 155
-100.333 -229.935 -1485 207 204 155
-97.2849 -229.76 -1484 209 204 154
-94.3051 -229.74 -1484 217 211 161
-91.3261 -229.72 -1484 214 208 158
-88.4073 -229.856 -1485 204 199 148
-85.3126 -229.529 -1483 190 187 133
-82.4488 -229.821 -1485 177 172 119
-79.5241 -229.958 -1486 179 174 121
-76.6476 -230.252 -1488 178 172 122
-73.7141 -230.391 -1489 182 176 125
-70.8247 -230.685 -1491 185 178 128
-67.837 -230.671 -1491 186 181 129
-64.9367 -230.966 -1493 187 182 131
-62.0705 -231.417 -1496 188 182 133
-59.1532 -231.714 -1498 189 183 137
-56.1909 -231.856 -1499 184 179 134
-53.2961 -232.309 -1502 185 180 139
-50.3228 -232.453 -1503 187 181 142
-47.3772 -232.752 -1505 193 185 148
-44.4241 -233.051 -1507 192 188 154
-41.5183 -233.661 -1511 180 177 143
-38.5714 -234.116 -1514 153 149 122
-35.6362 -234.727 -1518 118 114 90
-32.6423 -235.029 -1520 80 75 53
-29.6602 -235.487 -1523 60 59 41
-26.6488 -235.79 -1525 42 43 26
-23.6297 -236.094 -1527 43 45 31
-20.6163 -236.553 -1530 47 47 36
-17.6025 -237.168 -1534 43 42 32
-14.5822 -237.937 -1539 46 46 37
-11.5421 -238.708 -1544 46 45 38
-8.48227 -239.479 -1549 49 48 43
-5.40932 -240.559 -1556 52 50 47
-2.31119 -241.95 -1565 55 54 52
0.825869 -244.269 -1580 54 54 54
-246.153 -244.841 -1550 45 45 47
-241.25 -243.052 -1539 46 44 49
-237.013 -241.895 -1532 42 43 44
-233.112 -241.055 -1527 40 42 42
-229.234 -240.216 -1522 42 39 42
-225.675 -239.693 -1519 40 37 37
-222.13 -239.172 -1516 40 38 34
-218.599 -238.651 -1513 41 40 36
-215.083 -238.132 -1510 42 41 37
-211.58 -237.613 -1507 41 40 36
-208.506 -237.568 -1507 43 42 36
-205.298 -237.365 -1506 53 52 46
-201.962 -237.007 -1504 81 79 66
-198.635 -236.649 -1502 110 109 94
-195.188 -236.134 -1499 138 137 114
-191.755 -235.62 -1496 170 168 141
-188.335 -235.107 -1493 187 184 156
-185.054 -234.752 -1491 187 183 147
-181.781 -234.398 -1489 185 181 143
-178.879 -234.516 -1490 189 185 142
-175.738 -234.321 -1489 194 191 145
-172.835 -234.441 -1490 199 195 149
-169.815 -234.404 -1490 200 197 147
-166.797 -234.369 -1490 197 194 144
-163.56 -234.019 -1488 195 192 141
-160.332 -233.67 -1486 190 187 137
-157.114 -233.321 -1484 186 183 134
-154.009 -233.131 -1483 184 181 130
-150.909 -232.941 -1482 181 178 127
-147.815 -232.752 -1481 181 178 127
-144.824 -232.721 -1481 185 182 131
-141.738 -232.533 -1480 194 191 141
-138.751 -232.503 -1480 204 201 152
-135.765 -232.474 -1480 211 208 159
-132.871 -232.603 -1481 215 212 163
-129.797 -232.418 -1480 210 207 158
-126.729 -232.233 -1479 201 198 149
-123.75 -232.207 -1479 192 189 140
-120.69 -232.024 -1478 191 188 139
-117.714 -231.998 -1478 199 196 146
-114.817 -232.131 -1479 207 204 153
-112.069 -232.577 -1482 210 207 156
-109.088 -232.554 -1482 212 209 158
-106.252 -232.845 -1484 209 206 155
-103.269 -232.822 -1484 209 206 156
-100.287 -232.801 -1484 209 206 157
-97.3054 -232.78 -1484 210 205 156
-94.325 -232.759 -1484 213 207 157
-91.3453 -232.74 -1484 210 204 154
-88.4854 -233.034 -1486 202 197 147
-85.5032 -233.016 -1486 180 177 128
-82.5773 -233.155 -1487 177 172 123
-79.648 -233.294 -1488 184 178 130
-76.7152 -233.435 -1489 196 190 143
-73.7297 -233.419 -1489 200 194 146
-70.8397 -233.717 -1491 200 193 144
-67.8967 -233.859 -1492 196 193 144
-64.9504 -234.002 -1493 196 193 146
-62.0835 -234.458 -1496 195 191 147
-59.1656 -234.759 -1498 193 189 150
-56.2403 -235.06 -1500 191 187 149
-53.3428 -235.519 -1503 193 188 155
-50.3668 -235.664 -1504 189 184 153
-47.4187 -235.967 -1506 164 159 130
-44.463 -236.271 -1508 112 110 86
-41.5546 -236.889 -1512 62 60 37
-38.554 -237.037 -1513 48 46 28
-35.6202 -237.656 -1517 54 51 37
-32.6277 -237.962 -1519 50 47 36
-29.6275 -238.268 -1521 42 40 33
-26.6369 -238.732 -1524 45 44 38
-23.6347 -239.197 -1527 42 45 38
-20.6475 -239.975 -1532 43 44 36
-17.6291 -240.598 -1536 46 47 39
-14.6137 -241.534 -1542 42 43 33
-11.5521 -242.002 -1545 46 47 40
-8.48399 -242.626 -1549 53 53 49
-5.41041 -243.721 -1556 46 46 44
-2.3074 -244.66 -1562 52 52 49
0.823959 -246.853 -1576 56 56 54
-245.73 -247.54 -1547 48 51 48
-240.832 -245.727 -1536 45 45 45
-236.91 -244.875 -1531 43 44 42
-233.163 -244.184 -1527 39 41 38
-229.434 -243.495 -1523 42 40 44
-225.872 -242.965 -1520 43 41 43
-222.471 -242.597 -1518 40 38 35
-218.935 -242.069 -1515 36 36 34
-215.272 -241.383 -1511 39 39 37
-211.766 -240.858 -1508 41 41 40
-208.552 -240.652 -1507 39 39 38
-205.206 -240.288 -1505 39 39 39
-202.006 -240.084 -1504 40 39 35
-198.678 -239.721 -1502 46 45 39
-195.23 -239.199 -1499 61 61 49
-191.668 -238.519 -1495 77 77 62
-188.25 -237.999 -1492 105 104 88
-184.969 -237.64 -1490 135 130 105
-181.576 -237.122 -1487 153 148 120
-178.437 -236.923 -1486 177 172 140
-175.422 -236.885 -1486 194 189 154
-172.292 -236.688 -1485 206 202 166
-169.396 -236.81 -1486 206 202 160
-166.385 -236.774 -1486 199 195 149
-163.265 -236.579 -1485 194 191 140
-160.151 -236.385 -1484 189 185 136
-156.936 -236.032 -1482 185 181 131
-153.834 -235.839 -1481 180 177 126
-150.942 -235.965 -1482 177 174 123
-147.847 -235.774 -1481 177 174 122
-144.757 -235.583 -1480 179 175 125
-141.768 -235.552 -1480 181 178 128
-138.781 -235.522 -1480 186 183 135
-135.794 -235.492 -1480 196 193 145
-132.899 -235.622 -1481 207 204 155
-129.825 -235.435 -1480 208 205 155
-126.756 -235.248 -1479 203 200 150
-123.776 -235.221 -1479 195 192 143
