ply
format ascii 1.0
comment Created by Open3D
element vertex 1385
property double x
property double y
property double z
property uchar red
property uchar green
property uchar blue
end_header
-79.7072 180.12 -1685 173 205 205
-75.9823 179.253 -1677 166 208 206
-72.3332 178.494 -1670 170 211 211
-68.7953 177.95 -1665 173 215 217
-65.3172 177.513 -1661 167 210 213
-61.8556 177.076 -1657 169 212 215
-58.4105 176.64 -1653 166 210 212
-55.015 176.311 -1650 166 211 213
-51.6948 176.197 -1649 164 210 211
-48.3201 175.869 -1646 165 212 213
-44.9852 175.649 -1644 165 212 212
-41.6587 175.429 -1642 164 210 211
-38.317 175.102 -1639 160 206 206
-34.9663 174.67 -1635 158 204 203
-31.6899 174.558 -1634 170 218 217
-28.4526 174.661 -1635 171 219 218
-25.2115 174.764 -1636 171 215 217
-21.9667 174.867 -1637 178 220 221
-18.7295 175.078 -1639 179 221 221
-15.4655 175.075 -1639 185 223 225
-12.2092 175.18 -1640 183 221 222
-8.94339 175.179 -1640 186 225 223
-5.68478 175.391 -1642 183 224 223
-2.41953 175.711 -1645 181 222 222
0.856926 175.925 -1647 183 222 221
4.14156 176.139 -1649 185 223 222
7.43849 176.46 -1652 186 224 223
10.7411 176.675 -1654 181 224 224
14.0516 176.89 -1656 184 227 226
17.3704 177.106 -1658 190 227 227
20.7095 177.43 -1661 186 225 225
24.0321 177.54 -1662 181 221 221
27.375 177.757 -1664 184 224 225
30.7448 178.082 -1667 181 221 222
34.1879 178.727 -1673 176 217 217
37.79 180.014 -1685 181 217 219
41.7331 182.584 -1709 167 202 204
-87.6014 179.174 -1708 178 201 203
-83.502 177.693 -1694 163 195 195
-79.6958 176.738 -1685 166 202 201
-76.062 176.097 -1679 174 218 218
-72.4095 175.353 -1672 171 214 215
-68.9094 174.923 -1668 175 217 219
-65.3473 174.285 -1662 180 222 224
-61.9214 173.961 -1659 179 221 223
-58.5435 173.743 -1657 176 218 220
-55.1072 173.315 -1653 170 212 214
-51.75 173.098 -1651 171 213 213
-48.3719 172.777 -1648 172 216 216
-45.0062 172.455 -1645 171 214 215
-41.7035 172.344 -1644 171 212 215
-38.3115 171.815 -1639 164 206 207
-34.9826 171.495 -1636 160 201 201
-31.7242 171.49 -1636 172 213 213
-28.4485 171.381 -1635 190 230 231
-25.2387 171.692 -1638 197 235 238
-21.9904 171.793 -1639 194 232 234
-18.7496 172 -1641 196 234 235
-15.4821 171.998 -1641 192 230 230
-12.2223 172.101 -1642 191 230 230
-8.94759 171.994 -1641 187 229 227
-5.68746 172.203 -1643 187 227 227
-2.42214 172.622 -1647 187 226 227
0.858877 173.041 -1651 191 227 226
4.14599 173.041 -1651 195 231 230
7.44194 173.252 -1653 198 234 233
10.7394 173.358 -1654 195 239 236
14.0412 173.464 -1655 198 242 239
17.3468 173.571 -1656 205 245 243
20.6942 173.993 -1660 205 246 245
24.014 174.101 -1661 200 242 242
27.3876 174.524 -1665 192 234 234
30.7219 174.633 -1666 179 220 220
34.2036 175.476 -1674 177 215 214
37.762 176.53 -1684 183 218 221
41.5806 178.527 -1703 194 229 232
-87.4866 175.541 -1706 181 205 207
-83.3426 173.986 -1691 166 198 198
-79.6374 173.254 -1684 169 204 205
-76.1874 173.038 -1682 160 204 204
-72.5293 172.307 -1675 153 196 197
-68.9824 171.783 -1670 151 193 195
-65.5346 171.465 -1667 155 197 199
-62.0621 171.045 -1663 159 201 203
-58.6059 170.625 -1659 164 206 208
-55.1995 170.309 -1656 165 206 207
-51.8368 170.096 -1654 168 208 209
-48.4826 169.883 -1652 174 215 215
-45.1367 169.671 -1650 177 218 219
-41.8245 169.562 -1649 179 219 222
-38.4465 169.145 -1645 171 210 212
-35.0633 168.626 -1640 162 201 202
-31.7586 168.416 -1638 162 197 199
-28.5142 168.514 -1639 184 219 220
-25.2507 168.511 -1639 206 241 245
-22.0142 168.713 -1641 209 244 247
-18.7813 169.019 -1644 206 242 244
-15.5083 169.016 -1644 198 236 236
-12.2355 169.014 -1644 191 229 229
-8.96817 169.116 -1645 186 226 224
-5.70399 169.423 -1648 186 227 226
-2.42917 169.834 -1652 190 231 231
0.85979 169.937 -1653 196 233 232
4.15294 170.04 -1654 196 234 232
7.45441 170.246 -1656 193 232 231
10.7509 170.247 -1656 187 228 226
14.0562 170.352 -1657 186 227 225
17.3758 170.56 -1659 182 221 220
20.7162 170.871 -1662 176 215 215
24.0396 170.977 -1663 174 212 214
27.3674 171.083 -1664 175 214 215
30.7176 171.293 -1666 172 211 211
34.158 171.914 -1672 183 222 221
37.5999 172.433 -1677 190 225 228
41.404 174.392 -1696 209 243 247
-87.6284 172.422 -1709 187 210 213
-83.5283 170.998 -1695 174 205 207
-79.8156 170.281 -1688 180 214 216
-76.1769 169.665 -1682 175 218 218
-72.5626 169.049 -1676 171 213 213
-69.0142 168.536 -1671 160 201 203
-65.565 168.224 -1668 147 189 191
-62.1281 167.913 -1665 140 182 184
-58.6685 167.501 -1661 133 175 177
-55.2587 167.191 -1658 130 171 173
-51.9237 167.083 -1657 132 171 172
-48.5933 166.975 -1656 139 179 180
-45.2126 166.666 -1653 148 188 189
-41.8948 166.559 -1652 157 198 200
-38.488 166.05 -1647 156 196 197
-35.0799 165.44 -1641 152 191 191
-31.7736 165.234 -1639 152 188 189
-28.5277 165.331 -1640 165 201 202
-25.2472 165.226 -1639 182 219 222
-22.0111 165.425 -1641 178 216 217
-18.7901 165.825 -1645 163 202 203
-15.5345 166.024 -1647 155 196 195
-12.2561 166.022 -1647 149 190 189
-8.98332 166.122 -1648 147 185 184
-5.71707 166.524 -1652 144 186 186
-2.43473 166.927 -1656 144 187 187
0.861745 167.027 -1657 148 187 185
4.1597 167.028 -1657 149 188 186
7.46239 167.129 -1658 150 189 188
10.7494 166.929 -1656 148 187 186
14.0458 166.931 -1656 149 188 186
17.3525 167.034 -1657 151 188 188
20.7008 167.439 -1661 160 196 197
24.0219 167.543 -1662 176 210 212
27.3964 167.95 -1666 197 231 233
30.7135 167.954 -1666 203 239 240
34.1736 168.664 -1673 196 237 235
37.6844 169.475 -1681 194 230 232
41.3737 170.892 -1695 207 241 245
-84.0097 168.589 -1705 183 210 213
-80.1358 167.589 -1695 194 225 228
-76.393 166.788 -1687 195 236 234
-72.6395 165.888 -1678 190 230 230
-69.2115 165.681 -1676 180 219 222
-65.6347 165.079 -1670 174 216 218
-62.1571 164.675 -1666 167 209 211
-58.7666 164.469 -1664 159 203 205
-55.3512 164.165 -1661 151 193 194
-52.0108 164.059 -1660 141 180 181
-48.7041 164.052 -1660 128 169 169
-45.3432 163.848 -1658 122 164 164
-41.9653 163.546 -1655 128 172 174
-38.5762 163.145 -1651 137 180 180
-35.1607 162.548 -1645 144 185 184
-31.8274 162.247 -1642 145 189 187
-28.5412 162.144 -1641 149 192 190
-25.2746 162.14 -1641 160 203 204
-22.0216 162.236 -1642 140 185 185
-18.7762 162.431 -1644 129 175 174
-15.5324 162.725 -1647 134 182 180
-12.2768 163.02 -1650 141 187 185
-9.0094 163.315 -1653 141 181 179
-5.73016 163.61 -1656 136 182 181
-2.4403 164.005 -1660 139 187 185
0.863182 164.005 -1660 149 192 190
4.16667 164.005 -1660 158 198 197
7.4659 163.907 -1659 169 206 205
10.761 163.809 -1658 174 209 210
14.0694 163.91 -1659 173 208 210
17.3712 163.912 -1659 176 211 212
20.7229 164.31 -1663 194 226 228
24.0621 164.51 -1665 213 243 245
27.4421 164.909 -1669 223 251 253
30.8198 165.209 -1672 213 245 247
34.312 166.004 -1680 193 236 235
37.7241 166.305 -1683 195 229 234
41.3682 167.496 -1695 209 240 247
45.1131 168.886 -1709 210 227 231
-80.4562 164.871 -1702 189 216 219
-76.7905 164.279 -1696 205 242 242
-73.0194 163.398 -1687 214 250 251
-69.3675 162.71 -1680 197 235 238
-65.7833 162.12 -1674 181 220 222
-62.2609 161.628 -1669 180 219 221
-58.7942 161.233 -1665 175 219 222
-55.4105 161.031 -1663 174 217 221
-52.0666 160.928 -1662 171 214 216
-48.7857 161.018 -1663 157 200 201
-45.4193 160.818 -1661 143 186 188
-42.0358 160.522 -1658 145 187 189
-38.6646 160.226 -1655 140 183 182
-35.263 159.737 -1650 138 182 177
-31.9008 159.346 -1646 140 183 182
-28.5896 159.148 -1644 136 179 178
-25.3329 159.242 -1645 144 190 187
-22.0456 159.142 -1644 157 201 199
-18.808 159.429 -1647 173 216 214
-15.5492 159.621 -1649 180 224 225
-12.2901 159.909 -1652 172 216 216
-9.01913 160.198 -1655 163 204 202
-5.73634 160.488 -1658 162 207 205
-2.43999 160.681 -1660 166 213 211
0.863062 160.681 -1660 171 214 213
4.16612 160.681 -1660 177 217 216
7.46492 160.585 -1659 184 220 218
10.7596 160.49 -1658 185 218 218
14.0589 160.491 -1658 187 219 220
17.3689 160.59 -1659 202 232 233
20.7078 160.883 -1662 222 249 250
24.0443 161.079 -1664 229 253 255
27.455 161.664 -1670 231 253 255
30.8711 162.151 -1675 208 234 236
34.3892 163.027 -1684 164 200 199
37.876 163.613 -1690 154 183 184
41.4359 164.392 -1698 186 213 216
45.3712 166.431 -1719 209 224 228
-81.722 164.023 -1729 164 189 191
-77.3238 162.02 -1708 155 188 190
-73.3563 160.778 -1695 196 229 231
-69.7301 160.199 -1689 218 252 254
-65.8927 159.053 -1677 201 238 239
-62.4394 158.76 -1674 182 220 220
-58.9279 158.278 -1669 175 218 224
-55.47 157.891 -1665 175 219 223
-52.1225 157.79 -1664 174 219 222
-48.7794 157.688 -1663 171 215 219
-45.4408 157.588 -1662 159 203 207
-42.0811 157.392 -1660 157 196 199
-38.7531 157.292 -1659 151 192 190
-35.3652 156.908 -1655 153 197 190
-32.0323 156.715 -1653 162 204 203
-28.673 156.331 -1649 165 208 207
-25.3912 156.328 -1649 158 207 202
-22.0695 156.041 -1646 165 208 205
-18.8056 156.133 -1647 180 219 217
-15.5661 156.51 -1651 175 213 216
-12.2959 156.698 -1653 166 206 207
-9.01254 156.791 -1654 164 209 206
-5.73216 157.075 -1657 170 213 211
-2.43969 157.358 -1660 173 215 213
0.861904 157.169 -1658 176 218 218
4.16307 157.264 -1659 182 222 220
7.46846 157.359 -1660 185 221 217
10.7842 157.55 -1662 189 222 219
14.0825 157.457 -1661 205 236 233
17.4085 157.649 -1663 227 251 252
20.7425 157.841 -1665 230 251 252
24.0701 157.938 -1666 220 238 240
27.5008 158.605 -1673 178 195 196
30.9961 159.462 -1682 140 157 157
34.4255 159.846 -1686 57 75 71
38.0057 160.798 -1696 37 53 47
41.5038 161.277 -1701 58 74 68
45.0751 161.947 -1708 104 114 114
-78.0836 160.179 -1725 151 181 183
-73.8663 158.499 -1707 152 183 185
-70.1754 157.84 -1700 172 204 206
-66.238 156.531 -1686 190 224 222
-62.6552 155.966 -1680 189 224 221
-58.991 155.123 -1671 176 219 219
-55.563 154.837 -1668 176 219 219
-52.1786 154.645 -1666 175 219 218
-48.832 154.546 -1665 171 215 215
-45.4351 154.262 -1662 164 208 208
-42.0758 154.071 -1660 161 200 202
-38.7715 154.065 -1660 153 193 193
-35.3822 153.69 -1656 150 192 188
-32.0477 153.5 -1654 156 197 195
-28.7041 153.218 -1651 160 202 200
-25.4342 153.307 -1652 161 210 205
-22.0936 152.933 -1648 165 212 209
-18.8032 152.837 -1647 167 212 210
-15.5453 153.021 -1649 169 208 209
-12.287 153.298 -1652 168 208 210
-9.00598 153.389 -1653 172 215 215
-5.72434 153.574 -1655 179 218 219
-2.43645 153.852 -1658 185 223 223
0.862308 153.944 -1659 186 224 224
4.16756 154.13 -1661 185 223 221
7.47202 154.131 -1661 192 228 224
10.7958 154.411 -1664 206 239 234
14.0977 154.319 -1663 217 246 245
17.4271 154.507 -1665 203 228 226
20.7773 154.788 -1668 170 190 189
24.1393 155.069 -1671 141 158 156
27.5793 155.722 -1678 150 161 159
31.0844 156.561 -1687 78 89 86
34.6458 157.493 -1697 12 21 15
38.3816 158.982 -1713 13 22 15
41.8889 159.358 -1717 9 18 10
45.4651 159.921 -1723 20 25 24
49.2643 161.133 -1736 25 28 29
-74.5926 156.627 -1724 164 193 194
-70.5382 155.255 -1709 152 180 181
-66.7405 154.338 -1699 160 189 185
-63.0204 153.513 -1690 177 206 200
-59.2308 152.415 -1678 170 211 207
-55.7226 151.954 -1673 174 214 209
-52.2661 151.584 -1669 176 214 209
-48.8846 151.397 -1667 174 216 212
-45.4568 151.028 -1663 176 219 215
-42.0959 150.841 -1661 175 215 215
-38.8135 150.926 -1662 167 207 206
-35.4632 150.74 -1660 158 197 196
-32.1212 150.555 -1658 155 196 191
-28.7527 150.188 -1654 156 197 193
-25.4619 150.184 -1654 152 198 194
-22.1311 149.909 -1651 159 205 202
-18.8351 149.816 -1650 164 210 207
-15.5528 149.814 -1650 166 207 206
-12.2929 150.084 -1653 172 211 212
-8.99944 149.992 -1652 183 221 225
-5.71327 149.991 -1652 194 229 232
-2.43322 150.354 -1656 195 229 231
0.861155 150.445 -1657 189 226 225
4.16454 150.717 -1660 185 221 219
7.48009 150.991 -1663 185 222 218
10.8204 151.446 -1668 187 219 214
14.1553 151.629 -1670 163 195 189
17.4878 151.721 -1671 148 173 168
20.837 151.905 -1673 145 165 159
24.2519 152.453 -1679 147 163 157
27.7074 153.092 -1686 136 143 138
31.2832 154.185 -1698 44 49 44
34.9681 155.551 -1713 19 20 13
38.825 157.372 -1733 17 20 14
42.4449 158.012 -1740 13 17 12
46.1191 158.744 -1748 15 16 18
49.854 159.568 -1757 16 16 18
-67.3216 152.272 -1714 164 188 181
-63.4229 151.11 -1701 167 191 181
-59.6472 150.125 -1690 159 197 186
-55.949 149.23 -1680 162 197 187
-52.4164 148.691 -1674 165 198 188
-48.9667 148.329 -1670 167 206 198
-45.506 147.88 -1665 174 214 207
-42.1416 147.697 -1663 174 218 214
-38.8321 147.692 -1663 173 214 212
-35.4804 147.51 -1661 167 205 204
-32.1561 147.417 -1660 155 198 191
-28.7839 147.058 -1656 158 200 193
-25.505 147.144 -1657 158 199 196
-22.1417 146.697 -1652 160 202 199
-18.8443 146.606 -1651 161 203 201
-15.5603 146.604 -1651 169 211 208
-12.284 146.691 -1652 185 223 223
-8.99293 146.601 -1651 197 227 234
-5.71259 146.689 -1652 193 223 227
-2.43441 147.132 -1657 183 214 217
0.861044 147.132 -1657 171 209 207
4.16905 147.576 -1662 161 200 197
7.49718 148.021 -1667 150 189 185
10.8451 148.466 -1672 144 177 170
14.1875 148.645 -1674 139 170 163
17.5694 149.091 -1679 145 167 157
20.9466 149.36 -1682 152 167 156
24.3357 149.629 -1685 133 142 131
27.7862 150.165 -1691 132 133 125
31.3898 151.323 -1704 39 38 31
35.1272 152.836 -1721 24 17 11
39.0892 154.972 -1745 21 19 15
42.6103 155.155 -1747 12 12 9
-63.8255 148.664 -1712 172 192 179
-59.993 147.615 -1700 163 196 181
-56.2088 146.566 -1688 159 192 177
-52.6293 145.952 -1681 157 190 175
-49.1075 145.425 -1675 153 190 177
-45.6099 144.898 -1669 156 194 181
-42.2126 144.633 -1666 163 202 194
-38.8976 144.628 -1666 173 211 206
-35.5402 144.45 -1664 179 216 212
-32.1716 144.186 -1661 168 212 202
-28.8327 144.009 -1659 154 198 188
-25.5327 144.005 -1659 155 196 190
-22.166 143.569 -1654 160 203 197
-18.8534 143.393 -1652 169 213 208
-15.5774 143.478 -1653 185 230 224
-12.2975 143.563 -1654 189 231 227
-9.01367 143.648 -1655 179 215 217
-5.71885 143.561 -1654 161 199 199
-2.43707 143.994 -1659 155 194 193
0.864054 144.341 -1663 144 188 184
4.18862 144.949 -1670 136 179 173
7.52757 145.297 -1674 135 175 169
10.8957 145.819 -1680 148 179 170
14.2706 146.167 -1684 152 180 171
17.651 146.43 -1687 163 178 165
21.0684 146.866 -1692 145 152 137
24.4339 146.869 -1692 137 137 120
27.9144 147.479 -1699 143 138 126
31.4967 148.438 -1710 27 20 10
35.1025 149.31 -1720 24 13 6
39.0174 151.224 -1742 19 15 12
-64.4519 146.684 -1729 177 193 179
-60.3742 145.15 -1711 169 195 176
-56.6351 144.295 -1701 164 194 174
-52.9677 143.525 -1692 159 195 174
-49.3363 142.756 -1683 156 191 174
-45.8232 142.242 -1677 151 187 170
-42.3598 141.813 -1672 153 186 175
-39.0332 141.808 -1672 157 192 182
-35.6429 141.549 -1669 163 199 190
-32.2842 141.376 -1667 161 206 192
-28.9163 141.118 -1664 156 201 187
-25.6067 141.115 -1664 155 198 187
-22.2304 140.688 -1659 163 207 197
-18.9083 140.516 -1657 171 216 207
-15.6039 140.429 -1656 165 211 202
-12.3183 140.513 -1657 150 195 187
-9.02898 140.596 -1658 143 184 180
-5.73203 140.595 -1658 137 184 177
-2.44268 141.019 -1663 136 185 177
0.867065 141.528 -1669 128 181 173
4.19566 141.867 -1673 134 181 173
7.54469 142.292 -1678 151 190 183
10.9528 143.226 -1689 167 194 185
14.3452 143.566 -1693 172 195 184
17.785 144.162 -1700 158 163 147
21.2154 144.503 -1704 143 138 118
24.6908 145.015 -1710 154 143 121
28.1741 145.442 -1715 130 122 107
31.5667 145.36 -1714 24 15 3
35.0373 145.618 -1717 25 14 7
-64.5564 143.478 -1732 154 166 149
-60.6498 142.394 -1719 172 187 163
-56.8285 141.394 -1707 176 195 170
-53.306 141.056 -1703 170 196 169
-49.5653 140.057 -1691 160 193 169
-46.1186 139.803 -1688 152 186 163
-42.6083 139.301 -1682 151 186 170
-39.2156 139.131 -1680 152 184 169
-35.7883 138.795 -1676 154 184 170
-32.4548 138.791 -1676 152 190 174
-29.052 138.457 -1672 153 191 175
-25.6962 138.288 -1670 151 192 175
-22.3485 138.12 -1668 151 193 178
-19.0089 137.952 -1666 145 189 174
-15.7058 138.033 -1667 141 182 169
-12.3838 137.948 -1666 143 184 172
-9.06589 137.864 -1665 144 184 174
-5.76251 138.029 -1667 138 183 171
-2.45857 138.608 -1674 133 179 167
0.870077 138.691 -1675 135 182 172
4.21274 139.105 -1680 149 189 178
7.59779 139.934 -1690 165 195 185
11.0099 140.598 -1698 178 193 182
14.4452 141.179 -1705 161 172 160
17.8771 141.512 -1709 145 137 118
21.3126 141.762 -1712 155 140 117
24.7891 142.179 -1717 167 147 121
28.2531 142.43 -1720 121 109 91
31.5632 141.937 -1714 24 12 2
35.0946 142.437 -1720 28 15 8
-152.028 141.284 -1744 231 234 231
-148.535 141.268 -1744 252 253 246
-145.542 141.738 -1750 252 253 246
-142.283 141.965 -1753 249 252 247
-138.855 142.03 -1754 251 254 250
-135.809 142.501 -1760 253 255 252
-132.215 142.406 -1759 248 252 246
-65.0711 141.15 -1746 154 161 142
-61.2781 140.416 -1737 158 162 134
-57.2217 138.954 -1719 167 175 145
-53.707 138.706 -1716 175 189 157
-50.146 138.296 -1711 167 193 164
-46.5779 137.806 -1705 158 186 158
-42.8823 136.831 -1693 154 187 165
-39.4913 136.746 -1692 154 184 164
-35.998 136.257 -1686 156 183 165
-32.6255 136.172 -1685 149 181 164
-29.1878 135.765 -1680 146 179 161
-25.8319 135.681 -1679 140 178 158
-22.4532 135.436 -1676 139 179 159
-19.0981 135.272 -1674 137 178 158
-15.77 135.27 -1674 136 176 159
-12.4493 135.349 -1675 137 177 160
-9.11391 135.268 -1674 135 175 159
-5.79991 135.59 -1678 133 175 159
-2.46418 135.589 -1678 132 174 159
0.87465 136.074 -1684 143 182 169
4.24236 136.721 -1692 156 188 174
7.6419 137.368 -1700 165 186 171
11.0865 138.177 -1710 161 164 150
14.5368 138.663 -1716 140 139 125
18.0216 139.231 -1723 161 142 119
21.4846 139.475 -1726 170 146 119
24.9452 139.64 -1728 178 150 121
28.3976 139.723 -1729 111 95 75
31.7255 139.242 -1723 27 11 3
35.3355 139.973 -1732 30 14 8
-176.295 137.759 -1742 238 240 242
-172.697 137.661 -1741 237 239 240
-169.203 137.643 -1741 241 242 242
-165.805 137.704 -1742 249 250 245
-162.218 137.607 -1741 254 254 249
-158.819 137.669 -1742 252 252 250
-155.328 137.653 -1742 244 245 242
-151.751 137.557 -1741 246 248 244
-148.434 137.699 -1743 253 254 245
-145.36 138.079 -1748 252 253 245
-141.943 138.142 -1749 248 251 245
-138.523 138.206 -1750 248 251 245
-135.332 138.508 -1754 251 254 248
-131.599 138.257 -1751 251 254 247
-128.465 138.638 -1756 250 253 245
-124.956 138.624 -1756 245 248 237
-118.681 139.466 -1767 235 241 213
-65.0269 137.585 -1745 160 161 138
-61.2009 136.79 -1735 166 160 127
-57.5485 136.311 -1729 165 158 124
-53.889 135.753 -1722 174 168 133
-50.2871 135.274 -1716 172 182 148
-46.8188 135.111 -1714 169 183 150
-43.1815 134.397 -1705 160 186 160
-39.7671 134.314 -1704 156 183 159
-36.2717 133.916 -1699 157 185 162
-32.7963 133.518 -1694 148 180 158
-29.3759 133.278 -1691 143 176 153
-25.9829 133.118 -1689 140 174 149
-22.5982 132.958 -1687 138 173 148
-19.233 132.877 -1686 135 170 146
-15.9001 133.032 -1688 127 169 146
-12.5446 133.031 -1688 126 167 145
-9.18372 132.951 -1687 127 167 145
-5.83041 132.95 -1687 133 168 149
-2.48155 133.186 -1690 133 167 149
0.880262 133.58 -1695 140 164 147
4.26446 134.053 -1701 150 166 148
7.67255 134.527 -1707 155 162 142
11.1305 135.316 -1717 157 145 129
14.6031 135.869 -1724 151 136 119
18.0615 136.107 -1727 171 146 119
21.5445 136.424 -1731 178 151 123
25.0003 136.506 -1732 179 151 120
28.3781 136.193 -1728 107 89 68
31.685 135.645 -1721 29 10 3
-195.593 133.23 -1727 252 253 246
-192.117 133.21 -1727 255 254 249
-188.861 133.345 -1729 255 254 248
-185.491 133.402 -1730 254 253 248
-182.328 133.614 -1733 252 254 248
-178.64 133.441 -1731 252 254 248
-175.163 133.423 -1731 253 254 252
-171.787 133.482 -1732 253 254 252
-168.408 133.541 -1733 253 253 250
-165.216 133.755 -1736 254 253 247
-161.735 133.738 -1736 252 252 245
-158.529 133.953 -1739 252 252 247
-155.044 133.936 -1739 252 253 248
-151.473 133.844 -1738 250 252 247
-148.078 133.905 -1739 251 252 244
-144.846 134.121 -1742 252 253 245
-141.604 134.337 -1745 250 252 246
-138.113 134.322 -1745 250 253 246
-134.855 134.539 -1748 253 254 249
-131.285 134.448 -1747 253 255 248
-128.086 134.743 -1751 253 255 247
-124.801 134.96 -1754 249 251 240
-121.92 135.64 -1763 248 252 225
-118.668 135.936 -1767 234 239 201
-115.597 136.462 -1774 193 196 143
-112.183 136.604 -1776 180 183 135
-108.945 136.977 -1781 183 185 153
-72.8746 135.807 -1767 180 186 174
-69.0037 135.108 -1758 168 165 141
-65.1318 134.332 -1748 161 157 129
-61.3004 133.557 -1738 179 166 131
-57.7421 133.321 -1735 175 160 124
-54.1649 133.007 -1731 175 159 121
-50.487 132.387 -1723 164 159 123
-47.0052 132.229 -1721 171 169 134
-43.4556 131.84 -1716 175 185 157
-39.973 131.605 -1713 164 181 153
-36.4599 131.217 -1708 157 182 153
-32.9284 130.676 -1701 147 178 150
-29.5117 130.519 -1699 144 176 148
-26.1032 130.362 -1697 143 174 146
-22.7298 130.36 -1697 136 171 142
-19.3337 130.204 -1695 129 166 137
-15.955 130.125 -1694 123 165 137
-12.6027 130.277 -1696 123 164 136
-9.24809 130.507 -1699 123 164 136
-5.86782 130.429 -1698 131 161 137
-2.49451 130.506 -1699 139 166 143
0.885357 130.966 -1705 150 159 138
4.27655 131.043 -1706 150 152 130
7.71669 131.889 -1717 158 150 127
11.1552 132.197 -1721 171 149 129
14.6269 132.659 -1727 178 154 133
18.0701 132.738 -1728 184 154 126
21.5921 133.278 -1735 184 155 126
25.0554 133.357 -1736 178 150 119
28.4737 133.206 -1734 106 85 65
31.9027 133.132 -1733 29 9 3
35.5933 134.058 -1745 34 14 9
-237.83 130.261 -1730 253 253 253
-234.056 130.086 -1728 255 255 255
-230.559 130.062 -1728 254 254 254
-227.064 130.039 -1728 255 255 253
-223.441 129.941 -1727 255 254 251
-219.951 129.918 -1727 254 252 248
-216.84 130.122 -1730 253 253 247
-213.471 130.175 -1731 252 253 246
-209.979 130.154 -1731 252 253 246
-206.369 130.057 -1730 252 253 246
-202.765 129.961 -1729 253 254 246
-198.936 129.716 -1726 253 254 246
-195.234 129.545 -1724 252 253 245
-191.764 129.526 -1724 255 254 247
-188.514 129.657 -1726 255 254 247
-185.15 129.713 -1727 255 254 245
-181.889 129.844 -1729 254 255 245
-178.518 129.901 -1730 254 255 245
-174.943 129.808 -1729 253 253 249
-171.67 129.941 -1731 253 253 249
-168.002 129.773 -1729 252 252 248
-164.914 130.057 -1733 253 252 245
-161.346 129.965 -1732 255 255 248
-158.057 130.099 -1734 253 254 247
-154.85 130.308 -1737 253 253 248
-151.283 130.218 -1736 254 254 250
-148.063 130.428 -1739 255 255 249
-144.748 130.563 -1741 254 255 248
-141.508 130.774 -1744 252 253 248
-137.941 130.684 -1743 252 253 248
-134.687 130.896 -1746 254 254 250
-131.046 130.732 -1744 253 254 247
-127.634 130.794 -1745 252 253 245
-124.504 131.156 -1750 252 251 238
-121.493 131.668 -1757 252 253 223
-118.454 132.181 -1764 225 227 187
-115.324 132.619 -1770 192 193 139
-111.982 132.832 -1773 200 201 149
-108.628 133.046 -1776 180 181 133
-105.145 133.11 -1777 171 172 131
-101.658 133.174 -1778 179 180 142
-98.4445 133.614 -1784 183 185 153
-87.0411 132.462 -1769 175 178 155
-83.5644 132.528 -1770 169 172 151
-79.768 132.071 -1764 169 174 155
-76.0825 131.764 -1760 180 183 163
-72.496 131.607 -1758 184 185 163
-68.7612 131.15 -1752 161 154 123
-65.088 130.769 -1747 165 155 122
-61.3999 130.314 -1741 181 166 130
-57.5699 129.484 -1730 184 168 129
-54.0343 129.254 -1727 179 161 120
-50.5405 129.099 -1725 173 153 115
-47.0549 128.945 -1723 167 147 110
-43.5272 128.641 -1719 176 163 132
-40.0856 128.562 -1718 174 180 147
-36.6057 128.333 -1715 162 183 148
-33.0993 127.956 -1710 149 180 145
-29.6129 127.579 -1705 144 174 139
-26.1929 127.426 -1703 139 167 135
-22.8078 127.424 -1703 132 167 134
-19.4115 127.347 -1702 128 167 134
-16.0475 127.495 -1704 124 165 132
-12.6757 127.643 -1706 124 165 132
-9.27982 127.567 -1705 122 163 130
-5.89488 127.641 -1706 138 162 133
-2.50894 127.865 -1709 149 169 141
0.887856 127.94 -1710 154 149 125
4.29867 128.314 -1715 160 148 123
7.7159 128.464 -1717 177 155 129
11.1541 128.765 -1721 189 161 134
14.6085 129.065 -1725 191 163 135
18.0578 129.216 -1727 195 164 134
21.5401 129.518 -1731 184 155 125
24.9952 129.595 -1732 169 141 112
28.4544 129.672 -1733 108 86 66
31.8258 129.376 -1729 28 8 3
35.4875 130.203 -1740 31 14 8
-707.631 131.824 -1714 234 211 203
-704.445 131.901 -1716 233 210 201
-698.399 131.441 -1711 232 209 194
-694.819 131.442 -1712 228 208 190
-691.241 131.443 -1713 225 205 188
-684.456 130.832 -1706 221 202 186
-678.108 130.298 -1700 218 198 183
-587.78 129.976 -1718 222 207 200
-585.315 130.217 -1722 220 206 201
-582.501 130.382 -1725 221 204 199
-577.665 130.094 -1722 222 205 200
-575.181 130.335 -1726 220 204 198
-570.698 130.124 -1724 218 204 200
-565.572 129.762 -1720 219 205 202
-562.428 129.854 -1722 217 204 202
-559.93 130.097 -1726 214 202 200
-554.519 129.661 -1721 214 202 201
-550.415 129.528 -1720 216 203 202
-543.183 129.489 -1721 218 205 203
-538.474 129.207 -1718 220 206 201
-535.028 129.226 -1719 222 207 203
-532.2 129.396 -1722 225 209 205
-526.909 128.965 -1717 227 212 207
-523.474 128.985 -1718 230 215 209
-518.828 128.706 -1715 233 218 212
-506.181 128.171 -1710 240 217 209
-501.303 127.819 -1706 243 220 212
-496.739 127.542 -1703 246 223 215
-493.929 127.716 -1706 248 223 215
-489.1 127.365 -1702 250 224 215
-484.862 127.165 -1700 252 225 213
-480.92 127.041 -1699 253 226 213
-478.111 127.215 -1702 253 226 213
-450.838 127.355 -1709 255 229 215
-447.202 127.309 -1709 255 227 215
-443.05 127.115 -1707 255 229 215
-439.683 127.144 -1708 255 229 214
-435.549 126.95 -1706 255 228 213
-432.188 126.98 -1707 255 229 214
-428.825 127.011 -1708 255 230 215
-258.117 126.57 -1725 250 250 249
-254.76 126.618 -1726 255 254 253
-251.255 126.593 -1726 254 254 254
-247.465 126.421 -1724 252 253 253
-243.827 126.324 -1723 254 253 252
-237.394 126.569 -1727 255 253 251
-233.627 126.399 -1725 255 253 251
-230.403 126.523 -1727 254 252 250
-226.778 126.427 -1726 254 252 248
-222.901 126.185 -1723 255 253 248
-219.547 126.236 -1724 255 254 248
-216.191 126.288 -1725 255 254 248
-213.08 126.486 -1728 254 253 247
-209.472 126.392 -1727 254 253 247
-206.11 126.445 -1728 254 253 247
-202.51 126.351 -1727 254 253 247
-198.8 126.185 -1725 254 253 247
-194.987 125.946 -1722 254 253 247
-191.633 126 -1723 254 252 246
-188.167 125.982 -1723 255 253 246
-184.81 126.036 -1724 254 252 245
-181.45 126.091 -1725 254 253 245
-178.294 126.293 -1728 254 254 245
-174.925 126.349 -1729 255 254 250
-171.454 126.332 -1729 254 254 251
-167.985 126.315 -1729 253 253 252
-164.612 126.371 -1730 254 252 247
-161.144 126.355 -1730 255 254 249
-157.767 126.413 -1731 253 252 248
-154.299 126.397 -1731 253 252 247
-150.92 126.455 -1732 254 253 248
-147.793 126.733 -1736 253 252 248
-144.401 126.791 -1737 252 251 248
-141.251 127.069 -1741 252 251 248
-137.848 127.129 -1742 252 252 249
-134.596 127.334 -1745 253 253 251
-130.883 127.102 -1742 253 253 250
-127.475 127.162 -1743 253 253 250
-124.278 127.442 -1747 255 254 248
-121.273 127.94 -1754 250 249 224
-118.241 128.439 -1761 217 217 179
-115.183 128.938 -1768 216 214 162
-111.907 129.219 -1772 222 220 167
-108.434 129.281 -1773 169 170 113
-105.075 129.489 -1776 151 150 93
-101.534 129.479 -1776 174 172 116
-98.0485 129.542 -1777 173 173 124
-94.3473 129.314 -1774 167 168 120
-90.7613 129.232 -1773 167 168 125
-86.934 128.786 -1767 175 175 138
-83.1785 128.413 -1762 179 178 144
-79.5339 128.187 -1759 182 182 151
-75.9452 128.033 -1757 192 191 159
-72.4064 127.953 -1756 190 185 153
-68.7151 127.582 -1751 167 156 120
-64.9697 127.066 -1744 167 154 116
-61.3938 126.841 -1741 182 169 133
-57.6307 126.179 -1732 187 171 132
-54.0603 125.882 -1728 191 172 130
-50.5354 125.659 -1725 186 164 125
-47.1049 125.654 -1725 172 150 112
-43.5734 125.358 -1721 163 146 111
-40.105 125.208 -1719 161 153 118
-36.6447 125.059 -1717 174 175 139
-33.1733 124.837 -1714 167 175 141
-29.7142 124.616 -1711 161 170 137
-26.2826 124.467 -1709 146 163 131
-22.8725 124.392 -1708 134 164 131
-19.4438 124.171 -1705 129 166 133
-16.0931 124.461 -1709 141 163 130
-12.6968 124.459 -1709 147 164 132
-9.31701 124.677 -1712 158 163 132
-5.92194 124.822 -1714 160 155 126
-2.51898 124.967 -1716 158 150 122
0.891916 125.113 -1718 171 152 127
4.30575 125.113 -1718 186 164 137
7.73311 125.332 -1721 191 166 137
11.1595 125.406 -1722 195 167 136
14.6323 125.844 -1728 194 165 134
18.0665 125.846 -1728 194 164 132
21.5629 126.212 -1733 181 152 123
24.9927 126.141 -1732 164 136 108
28.4187 126.071 -1731 118 96 77
31.8043 125.855 -1728 29 10 3
35.3208 126.15 -1732 26 16 8
-734.06 129.721 -1729 214 190 187
-727.028 129.119 -1722 225 194 181
-719.615 128.442 -1714 233 200 186
-713.918 128.066 -1710 236 202 187
-708.247 127.691 -1706 240 205 190
-703.426 127.467 -1704 243 208 191
-699.444 127.392 -1704 244 209 192
-696.284 127.468 -1706 243 210 191
-692.716 127.469 -1707 242 209 189
-688.343 127.322 -1706 242 209 189
-682.377 126.876 -1701 240 209 189
-676.041 126.358 -1695 241 208 188
-655.232 127.133 -1712 229 203 187
-647.029 126.923 -1711 232 208 192
-641.625 126.559 -1707 233 209 194
-638.486 126.641 -1709 232 209 195
-636.087 126.871 -1713 236 212 195
-632.938 126.953 -1715 239 215 200
-628.319 126.739 -1713 239 217 203
-625.537 126.896 -1716 241 219 205
-622.023 126.905 -1717 239 217 203
-617.071 126.62 -1714 240 218 203
-612.853 126.482 -1713 241 219 207
-610.423 126.714 -1717 243 219 207
-606.921 126.725 -1718 246 220 208
-603.07 126.663 -1718 246 220 208
-599.224 126.601 -1718 245 219 207
-595.73 126.613 -1719 245 219 207
-591.893 126.552 -1719 245 219 207
-588.403 126.564 -1720 245 219 208
-585.255 126.651 -1722 245 220 210
-581.765 126.665 -1723 245 219 208
-577.605 126.532 -1722 246 220 208
-571.456 125.959 -1715 246 219 207
-567.991 125.974 -1716 245 219 208
-564.527 125.99 -1717 244 219 209
-560.737 125.932 -1717 248 221 209
-558.574 126.241 -1722 246 220 210
-553.495 125.892 -1718 245 220 210
-549.718 125.835 -1718 246 221 211
-545.947 125.78 -1718 247 221 211
-541.864 125.651 -1717 247 222 212
-537.478 125.45 -1715 246 220 210
-533.728 125.395 -1715 246 220 210
-529.364 125.195 -1713 247 220 210
-525.321 125.069 -1712 246 220 210
-521.896 125.089 -1713 247 222 211
-517.565 124.89 -1711 247 223 212
-513.246 124.692 -1709 251 221 210
-509.239 124.567 -1708 252 221 210
-504.649 124.297 -1705 253 223 211
-500.077 124.028 -1702 254 224 212
-496.105 123.905 -1701 255 224 213
-493.3 124.074 -1704 254 223 212
-489.05 123.879 -1702 254 224 211
-485.098 123.757 -1701 255 225 211
-481.437 123.708 -1701 255 226 212
-478.905 123.951 -1705 255 226 212
-474.408 123.685 -1702 255 226 212
-471.035 123.71 -1703 255 226 212
-468.211 123.881 -1706 255 226 212
-464.833 123.907 -1707 255 228 215
-461.185 123.86 -1707 255 228 215
-457.005 123.669 -1705 255 228 215
-454.167 123.842 -1708 255 227 215
-450.793 123.869 -1709 255 227 214
-446.895 123.752 -1708 255 228 215
-443.265 123.707 -1708 255 228 214
-439.896 123.736 -1709 255 228 214
-435.761 123.547 -1707 255 229 215
-432.144 123.504 -1707 255 230 216
-429.033 123.606 -1709 255 230 216
-425.42 123.563 -1709 255 230 216
-359.313 123.476 -1718 243 227 219
-355.541 123.369 -1717 244 228 220
-351.777 123.263 -1716 241 227 219
-347.816 123.085 -1714 240 226 219
-345.876 123.625 -1722 236 223 216
-341.321 123.233 -1717 234 221 216
-338.56 123.486 -1721 233 220 215
-334.617 123.31 -1719 231 218 213
-328.48 123.604 -1724 223 214 218
-263.878 122.585 -1717 253 254 249
-260.84 122.774 -1720 254 253 248
-257.494 122.82 -1721 255 253 248
-254.145 122.867 -1722 254 252 247
-250.649 122.842 -1722 253 252 247
-247.154 122.818 -1722 253 252 248
-243.662 122.794 -1722 253 251 247
-240.451 122.914 -1724 254 251 247
-236.959 122.891 -1724 255 252 249
-233.468 122.868 -1724 255 252 248
-230.247 122.988 -1726 255 252 248
-226.625 122.895 -1725 255 253 246
-223.009 122.802 -1724 255 253 246
-219.526 122.781 -1724 255 253 247
-216.17 122.831 -1725 255 253 246
-212.812 122.881 -1726 255 253 245
-209.331 122.861 -1726 254 252 246
-205.97 122.912 -1727 254 253 246
-202.49 122.893 -1727 254 253 247
-198.781 122.731 -1725 255 253 247
-194.969 122.499 -1722 255 253 247
-191.392 122.409 -1721 253 251 244
-187.93 122.391 -1721 254 252 244
-184.577 122.444 -1722 254 252 244
-181.222 122.498 -1723 255 253 243
-178.173 122.765 -1727 255 253 244
-174.807 122.819 -1728 255 253 248
-171.438 122.873 -1729 254 253 250
-167.872 122.786 -1728 254 253 253
-164.596 122.912 -1730 255 253 249
-161.128 122.897 -1730 254 253 248
-157.479 122.739 -1728 254 252 247
-154.106 122.796 -1729 255 254 249
-150.644 122.781 -1729 253 252 247
-147.693 123.193 -1735 254 253 251
-144.221 123.179 -1735 254 252 250
-141.075 123.449 -1739 255 253 251
-137.597 123.436 -1739 254 253 252
-134.275 123.565 -1741 252 252 252
-130.645 123.41 -1739 252 252 252
-127.316 123.54 -1741 253 253 253
-123.981 123.67 -1743 255 251 252
-120.916 124.084 -1749 251 248 227
-117.961 124.64 -1757 225 222 187
-114.911 125.125 -1764 240 237 186
-111.644 125.398 -1768 240 238 184
-108.178 125.459 -1769 197 196 135
-104.828 125.661 -1772 159 156 89
-101.238 125.58 -1771 178 174 106
-97.7631 125.642 -1772 178 176 114
-94.0723 125.42 -1769 177 175 115
-90.343 125.128 -1765 182 181 126
-86.8272 125.119 -1765 189 185 137
-83.0288 124.686 -1759 187 183 136
-79.3906 124.465 -1756 196 193 150
-75.8083 124.316 -1754 197 192 150
-72.3169 124.309 -1754 194 186 145
-68.7084 124.09 -1751 171 158 116
-65.0752 123.8 -1747 171 157 116
-61.3174 123.227 -1739 181 168 133
-57.5919 122.655 -1731 187 171 133
-53.9612 122.224 -1725 190 171 130
-50.4427 122.007 -1722 192 172 130
-46.9911 121.931 -1721 184 164 123
-43.5693 121.927 -1721 175 152 116
-40.1478 121.923 -1721 164 145 109
-36.7051 121.848 -1720 160 143 107
-33.2475 121.703 -1718 166 153 121
-29.7808 121.488 -1715 169 159 127
-26.3723 121.485 -1715 162 162 131
-22.964 121.483 -1715 151 165 132
-19.5331 121.339 -1713 143 163 130
-16.1292 121.337 -1713 156 156 124
-12.7476 121.549 -1716 161 154 123
-9.34877 121.689 -1718 169 145 116
-5.93175 121.618 -1717 171 142 114
-2.52315 121.759 -1719 186 156 128
0.892343 121.759 -1719 190 160 135
4.31285 121.901 -1721 195 166 139
7.74584 122.114 -1724 198 170 141
11.1908 122.327 -1727 199 173 138
14.6139 122.258 -1726 195 169 134
18.0647 122.401 -1728 186 157 125
21.5483 122.686 -1732 175 147 116
24.9614 122.547 -1730 167 140 111
28.3339 122.266 -1726 132 110 91
31.746 122.198 -1725 37 21 4
35.2359 122.414 -1728 20 16 6
-741.3 126.077 -1727 226 200 188
-734.225 125.49 -1720 229 197 185
-729.313 125.268 -1718 225 189 178
-723.152 124.829 -1713 229 188 167
-717.861 124.536 -1710 231 189 168
-713.426 124.389 -1709 226 183 162
-708.588 124.17 -1707 229 187 167
-704.178 124.025 -1706 232 190 170
-701.012 124.098 -1708 236 194 174
-696.211 123.881 -1706 238 199 178
-693.049 123.954 -1708 236 199 177
-687.061 123.521 -1703 241 205 183
-681.102 123.088 -1698 244 209 189
-675.573 122.729 -1694 248 212 192
-671.654 122.66 -1694 247 212 193
-667.741 122.592 -1694 243 209 192
-666.187 122.958 -1700 240 209 190
-663.053 123.034 -1702 243 211 193
-661.853 123.473 -1709 245 212 194
-656.777 123.189 -1706 245 214 195
-654.017 123.339 -1709 244 215 195
-649.348 123.128 -1707 241 214 192
-646.206 123.207 -1709 240 213 192
-640.055 122.709 -1703 243 215 194
-636.553 122.717 -1704 243 213 193
-633.794 122.868 -1707 249 217 194
-630.29 122.877 -1708 247 214 192
-626.787 122.885 -1709 248 216 194
-624.015 123.038 -1712 246 215 195
-621.235 123.19 -1715 244 214 194
-616.648 122.985 -1713 242 213 193
-612.433 122.851 -1712 242 212 194
-608.584 122.79 -1712 245 215 196
-604.74 122.729 -1712 243 214 196
-602.306 122.955 -1716 244 213 194
-597.07 122.608 -1712 245 213 194
-594.283 122.763 -1715 248 216 197
-590.8 122.776 -1716 249 215 197
-587.317 122.788 -1717 250 216 198
-584.516 122.944 -1720 251 219 200
-581.031 122.958 -1721 252 219 200
-577.547 122.971 -1722 252 218 201
-573.064 122.771 -1720 253 219 204
-568.596 122.572 -1718 252 219 205
-564.141 122.373 -1716 252 218 205
-560.027 122.246 -1715 250 219 201
-557.221 122.404 -1718 251 220 204
-553.117 122.278 -1717 250 220 203
-549.983 122.366 -1719 250 219 203
-546.21 122.311 -1719 250 219 204
-541.81 122.115 -1717 250 220 205
-536.797 121.777 -1713 252 219 207
-533.052 121.725 -1713 252 220 208
-528.693 121.53 -1711 250 219 207
-524.655 121.407 -1710 249 220 206
-521.54 121.498 -1712 250 222 207
-516.908 121.234 -1709 251 223 205
-513.195 121.183 -1709 250 220 206
-508.592 120.92 -1706 251 220 208
-504.007 120.658 -1703 252 223 209
-499.733 120.467 -1701 253 224 211
-495.473 120.277 -1699 254 224 211
-492.383 120.37 -1701 255 225 211
-489.001 120.393 -1702 255 225 211
-485.335 120.345 -1702 255 225 212
-482.239 120.439 -1704 255 225 212
-479.419 120.604 -1707 254 226 212
-474.64 120.275 -1703 255 226 212
-471.542 120.37 -1705 255 227 213
-468.713 120.536 -1708 255 227 213
-465.332 120.561 -1709 255 228 212
-461.68 120.516 -1709 255 229 213
-457.496 120.331 -1707 255 229 213
-454.388 120.427 -1709 255 229 212
-450.485 120.313 -1708 255 228 212
-446.851 120.269 -1708 255 229 215
-443.221 120.226 -1708 255 229 215
-440.11 120.324 -1710 255 229 215
-435.463 120 -1706 255 230 216
-431.595 119.888 -1705 255 230 217
-427.485 119.706 -1703 255 230 217
-423.636 119.595 -1702 255 230 217
-419.795 119.484 -1701 255 230 217
-416.696 119.584 -1703 255 229 216
-413.349 119.614 -1704 255 229 215
-366.202 120.001 -1717 254 230 219
-361.789 119.687 -1713 254 231 220
-358.651 119.792 -1715 254 233 221
-355.093 119.758 -1715 254 233 221
-351.743 119.794 -1716 254 235 223
-347.986 119.691 -1715 254 235 223
-344.838 119.798 -1717 254 234 223
-341.288 119.765 -1717 253 234 224
-337.74 119.733 -1717 254 234 225
-334.39 119.771 -1718 253 234 225
-331.617 120.018 -1722 252 234 224
-328.258 120.056 -1723 252 234 225
-324.709 120.025 -1723 251 234 226
-321.536 120.134 -1725 250 232 225
-318.358 120.243 -1727 250 232 225
-315.174 120.352 -1729 249 232 224
-282.33 119.681 -1723 244 232 223
-271.317 119.394 -1720 254 248 246
-267.503 119.23 -1718 253 252 249
-263.853 119.136 -1717 251 254 249
-260.512 119.181 -1718 254 253 247
-257.02 119.156 -1718 255 252 246
-253.973 119.34 -1721 254 252 242
-250.479 119.317 -1721 255 252 243
-246.987 119.293 -1721 255 253 243
-243.356 119.201 -1720 254 252 244
-239.87 119.178 -1720 254 251 244
-236.524 119.225 -1721 255 252 250
-233.175 119.273 -1722 255 253 248
-229.958 119.389 -1724 255 253 246
-226.472 119.368 -1724 255 254 243
-222.858 119.278 -1723 255 254 244
-219.378 119.257 -1723 255 253 246
-215.649 119.098 -1721 255 254 243
-212.299 119.147 -1722 255 254 241
-208.947 119.197 -1723 255 253 245
-205.712 119.316 -1725 254 252 245
-202.119 119.228 -1724 253 253 247
-198.647 119.209 -1724 254 253 245
-194.837 118.983 -1721 254 252 244
-191.263 118.896 -1720 253 251 243
-187.803 118.878 -1720 254 252 242
-184.56 118.999 -1722 254 253 240
-180.994 118.913 -1721 255 254 238
-177.847 119.104 -1724 255 254 238
-174.285 119.018 -1723 255 253 245
-171.124 119.209 -1726 254 252 246
-167.564 119.124 -1725 255 253 248
-164.2 119.178 -1726 255 254 248
-160.647 119.094 -1725 255 253 247
-157.099 119.01 -1724 255 253 246
-153.824 119.134 -1726 254 253 247
-150.368 119.119 -1726 253 253 249
-147.169 119.313 -1729 253 253 251
-143.875 119.437 -1731 253 253 251
-140.818 119.769 -1736 253 253 251
-137.347 119.756 -1736 253 253 252
-134.031 119.881 -1738 253 253 253
-130.482 119.8 -1737 253 253 251
-127.085 119.857 -1738 253 253 251
-123.898 120.121 -1742 254 252 249
-120.628 120.317 -1745 245 244 221
-117.682 120.857 -1753 235 235 199
-114.639 121.329 -1760 251 251 202
-111.444 121.663 -1765 244 244 193
-108.107 121.86 -1768 216 216 157
-104.582 121.85 -1768 169 167 103
-101.171 121.978 -1770 173 170 104
-97.5333 121.831 -1768 185 180 119
-93.9571 121.753 -1767 193 188 127
-90.2322 121.469 -1763 195 193 132
-86.7206 121.461 -1763 203 196 139
-82.8794 120.971 -1756 203 194 138
-79.5188 121.17 -1759 209 202 149
-75.7579 120.75 -1753 209 201 150
-72.2277 120.674 -1752 204 195 146
-68.6236 120.461 -1749 185 174 126
-65.0318 120.248 -1746 172 161 113
-61.2764 119.691 -1738 185 172 132
-57.5864 119.204 -1731 188 173 134
-53.9874 118.854 -1726 189 171 132
-50.5258 118.78 -1725 192 171 132
-47.014 118.569 -1722 190 169 130
-43.5146 118.359 -1719 191 164 130
-40.1206 118.424 -1720 185 157 124
-36.7231 118.489 -1721 173 145 112
-33.2832 118.417 -1720 166 139 107
-29.8648 118.414 -1720 164 138 105
-26.4005 118.205 -1717 164 137 105
-23.002 118.271 -1718 162 137 106
-19.5541 118.063 -1715 161 137 105
-16.1559 118.13 -1716 166 137 106
-12.7687 118.335 -1719 167 137 107
-9.36423 118.472 -1721 177 143 114
-5.94502 118.471 -1721 190 155 128
-2.52879 118.609 -1723 199 164 137
0.89433 118.608 -1723 197 165 137
4.31746 118.609 -1723 200 169 141
7.74511 118.678 -1724 202 171 143
11.1962 118.954 -1728 203 175 142
14.6464 119.093 -1730 194 166 133
18.0942 119.164 -1731 183 154 122
21.5339 119.165 -1731 178 151 120
24.9735 119.168 -1731 168 142 111
28.3805 119.032 -1729 137 119 95
31.8718 119.242 -1732 43 28 7
35.2734 119.107 -1730 25 17 5
38.7343 119.179 -1731 23 18 11
112.193 120.497 -1748 242 245 238
-741.434 121.864 -1718 228 191 172
-735.644 121.506 -1714 227 184 166
-731.162 121.361 -1713 221 175 156
-727.541 121.359 -1714 206 158 139
-723.078 121.215 -1713 203 156 131
-718.627 121.072 -1712 199 149 125
-714.188 120.929 -1711 191 141 118
-708.516 120.576 -1707 190 142 119
-703.694 120.364 -1705 200 154 132
-699.3 120.223 -1704 205 160 138
-694.509 120.012 -1702 211 168 146
-690.545 119.943 -1702 224 186 165
-684.974 119.593 -1698 238 201 181
-679.028 119.173 -1693 244 208 188
-672.713 118.683 -1687 246 211 191
-669.604 118.758 -1689 247 212 193
-665.704 118.691 -1689 248 214 196
-663.769 118.977 -1694 247 214 194
-661.039 119.122 -1697 247 214 194
-659.076 119.407 -1702 248 214 194
-655.171 119.342 -1702 247 216 195
-652.038 119.418 -1704 246 216 193
-647.381 119.214 -1702 244 215 191
-643.873 119.22 -1703 243 214 190
-639.992 119.157 -1703 245 215 190
-636.863 119.234 -1705 247 214 189
-633.731 119.312 -1707 250 213 187
-630.596 119.389 -1709 246 208 182
-627.825 119.537 -1712 246 206 179
-624.318 119.546 -1713 244 207 180
-621.174 119.624 -1715 240 205 178
-617.307 119.564 -1715 235 202 176
-612.372 119.295 -1712 233 198 174
-608.523 119.235 -1712 232 198 174
-605.034 119.246 -1713 233 200 177
-601.194 119.187 -1713 236 200 176
-596.314 118.92 -1710 239 202 178
-593.878 119.14 -1714 242 205 181
-590.397 119.152 -1715 245 208 183
-587.259 119.234 -1717 247 210 185
-584.458 119.385 -1720 247 210 184
-580.298 119.26 -1719 248 211 187
-576.819 119.273 -1720 249 212 189
-572.342 119.079 -1718 250 212 195
-568.209 118.954 -1717 250 212 196
-563.758 118.761 -1715 252 213 198
-561.279 118.984 -1719 250 215 196
-557.166 118.861 -1718 250 215 196
-553.063 118.738 -1717 250 215 195
-549.61 118.754 -1718 250 215 195
-545.203 118.564 -1716 250 215 196
-541.442 118.511 -1716 250 216 198
-536.432 118.183 -1712 252 215 202
-531.755 117.925 -1709 251 216 202
-527.715 117.805 -1708 249 216 202
-523.684 117.686 -1707 247 217 201
-519.966 117.636 -1707 248 219 201
-516.858 117.725 -1709 248 219 199
-512.545 117.538 -1707 249 218 203
-507.947 117.283 -1704 252 219 206
-503.366 117.028 -1701 252 223 208
-498.804 116.774 -1698 253 223 209
-495.133 116.726 -1698 253 223 210
-492.625 116.954 -1702 254 223 209
-489.241 116.976 -1703 255 225 211
-486.143 117.068 -1705 255 226 213
-482.475 117.022 -1705 255 227 213
-479.654 117.182 -1708 255 226 212
-475.431 116.999 -1706 255 226 212
-472.05 117.023 -1707 255 226 212
-468.394 116.979 -1707 255 226 212
-465.287 117.072 -1709 255 227 211
-461.095 116.891 -1707 255 228 212
-456.916 116.711 -1705 255 229 213
-454.079 116.873 -1708 255 228 213
-450.178 116.762 -1707 255 228 213
-446.547 116.72 -1707 255 229 215
-443.179 116.746 -1708 255 229 215
-439.553 116.705 -1708 255 230 216
-434.655 116.322 -1703 255 230 216
-430.542 116.145 -1701 255 231 218
-427.193 116.173 -1702 255 231 218
-423.098 115.997 -1700 255 231 218
-419.755 116.025 -1701 255 231 217
-416.656 116.123 -1703 255 230 216
-412.825 116.016 -1702 255 230 216
-409.482 116.045 -1703 255 230 216
-405.423 115.871 -1701 255 231 215
-402.322 115.97 -1703 255 229 214
-398.747 115.932 -1703 254 227 212
-394.944 115.827 -1702 253 229 215
-391.608 115.858 -1703 252 228 214
-388.727 116.026 -1706 252 228 215
-386.062 116.262 -1710 253 229 216
-382.266 116.158 -1709 254 230 217
-379.364 116.327 -1712 255 230 219
-375.574 116.224 -1711 255 231 220
-372.661 116.393 -1714 255 231 220
-369.093 116.358 -1714 255 231 220
-365.742 116.392 -1715 255 232 220
-361.755 116.223 -1713 255 232 220
-358.617 116.325 -1715 255 233 220
-354.852 116.224 -1714 255 234 221
-351.3 116.192 -1714 255 233 220
-347.344 116.024 -1712 255 233 220
-344.203 116.127 -1714 255 234 221
-340.66 116.096 -1714 255 235 223
-337.905 116.335 -1718 255 236 225
-334.359 116.304 -1718 255 236 225
-331.201 116.409 -1720 255 236 224
-327.846 116.446 -1721 255 236 223
-324.491 116.484 -1722 255 236 225
-321.32 116.589 -1724 255 235 224
-318.328 116.763 -1727 255 235 224
-314.78 116.734 -1727 255 236 225
-311.234 116.705 -1727 255 237 226
-307.513 116.609 -1726 255 238 229
-303.622 116.446 -1724 255 238 228
-299.742 116.283 -1722 255 238 227
-296.561 116.391 -1724 255 237 226
-293.034 116.364 -1724 255 237 226
-289.174 116.202 -1722 255 235 228
-285.49 116.108 -1721 255 236 227
-281.485 115.88 -1718 255 239 230
-277.818 115.787 -1717 255 235 228
-274.317 115.762 -1717 255 236 230
-270.345 115.534 -1714 251 242 238
-266.7 115.442 -1713 254 251 246
-263.214 115.418 -1713 252 251 246
-259.73 115.394 -1713 255 253 246
-256.398 115.438 -1714 255 252 245
-253.212 115.55 -1716 255 252 240
-250.019 115.661 -1718 255 253 241
-246.821 115.773 -1720 255 252 240
-243.192 115.684 -1719 254 252 243
-239.569 115.594 -1718 254 252 244
-236.09 115.573 -1718 255 252 248
-232.883 115.686 -1720 255 253 246
-229.67 115.799 -1722 255 253 244
-226.451 115.913 -1724 255 254 241
-222.967 115.893 -1724 255 254 242
-219.358 115.805 -1723 254 254 245
-215.754 115.718 -1722 255 255 242
-212.156 115.632 -1721 255 254 239
-208.685 115.613 -1721 255 253 243
-205.335 115.661 -1722 255 253 244
-201.983 115.71 -1723 254 254 247
-198.514 115.692 -1723 255 253 246
-194.819 115.539 -1721 255 253 245
-191.245 115.455 -1720 254 252 242
-187.786 115.438 -1720 253 251 240
-184.329 115.421 -1720 254 253 238
-180.768 115.337 -1719 255 254 238
-177.624 115.522 -1722 255 254 238
-174.269 115.573 -1723 255 254 244
-170.811 115.558 -1723 255 253 245
-167.355 115.543 -1723 255 253 247
-163.9 115.528 -1723 255 253 245
-160.446 115.513 -1723 255 253 245
-156.903 115.431 -1722 255 253 246
-153.543 115.485 -1723 254 253 248
-150.18 115.538 -1724 253 253 250
-147.155 115.859 -1729 253 253 251
-143.696 115.846 -1729 253 253 251
-140.562 116.101 -1733 253 253 251
-137.176 116.156 -1734 253 253 252
-133.787 116.211 -1735 253 253 253
-130.17 116.065 -1733 253 253 251
-126.781 116.12 -1734 253 253 251
-123.603 116.377 -1738 253 253 247
-120.34 116.567 -1741 243 243 220
-117.402 117.092 -1749 244 245 211
-114.108 117.282 -1752 250 252 205
-110.992 117.674 -1758 248 249 201
-107.608 117.798 -1760 222 223 167
-104.276 117.989 -1763 181 179 117
-100.762 117.98 -1763 169 167 102
-97.0831 117.77 -1760 191 185 122
-93.6828 117.895 -1762 200 195 132
-89.9169 117.552 -1757 201 197 134
-86.4668 117.611 -1758 210 202 140
-82.7303 117.269 -1753 211 201 140
-79.2855 117.329 -1754 215 206 147
-75.6214 117.054 -1750 215 206 149
-72.1799 117.115 -1751 213 204 149
-68.5388 116.841 -1747 204 195 144
-64.9515 116.634 -1744 179 170 119
-61.2707 116.227 -1738 184 171 129
-57.6477 115.887 -1733 190 174 134
-54.0137 115.481 -1727 192 174 136
-50.5212 115.343 -1725 195 174 135
-47.0371 115.205 -1723 193 171 133
-43.5865 115.134 -1722 196 169 134
-40.1636 115.13 -1722 196 166 132
-36.7411 115.127 -1722 190 158 124
-33.2995 115.057 -1721 182 149 117
-29.8794 115.054 -1721 177 143 111
-26.4443 114.984 -1720 176 140 108
-23.0267 114.982 -1720 176 137 105
-19.6093 114.98 -1720 175 135 103
-16.211 115.112 -1722 177 139 107
-12.7898 115.111 -1722 186 148 117
-9.37971 115.244 -1724 195 158 128
-5.95485 115.243 -1724 200 164 136
-2.53003 115.243 -1724 204 168 140
0.894242 115.176 -1723 203 170 141
4.32708 115.443 -1727 205 173 144
7.76237 115.511 -1728 205 172 144
