ply
format ascii 1.0
comment Created by Open3D
element vertex 1472
property double x
property double y
property double z
property uchar red
property uchar green
property uchar blue
end_header
-48.0843 -617.581 -1564 37 40 37
-44.8484 -617.95 -1565 36 39 36
-41.6088 -618.321 -1566 40 43 40
-38.3164 -617.904 -1565 40 43 40
-35.0732 -618.278 -1566 39 42 39
-31.8466 -619.049 -1568 39 42 39
-28.6118 -619.822 -1570 40 43 40
-25.3529 -620.202 -1571 40 43 40
-22.1179 -621.373 -1574 37 40 37
-18.8828 -622.941 -1578 37 40 37
-15.6113 -623.721 -1580 37 40 37
-12.3161 -623.713 -1580 37 40 37
-9.02661 -624.102 -1581 38 41 38
-5.72595 -623.703 -1580 38 41 38
-2.43391 -624.49 -1582 38 41 38
0.866797 -625.674 -1585 37 40 37
4.18286 -627.255 -1589 35 38 35
7.5062 -628.048 -1591 34 37 34
10.8445 -629.237 -1594 34 37 34
14.1512 -628.454 -1592 35 38 35
17.4826 -628.858 -1593 35 38 35
20.8181 -629.263 -1594 35 38 35
24.1733 -630.065 -1596 39 42 39
27.5716 -631.659 -1600 39 42 39
31.006 -633.649 -1605 41 44 41
34.5044 -636.431 -1612 42 45 42
38.1027 -640.399 -1622 51 51 47
41.9989 -648.318 -1642 46 46 42
45.8684 -654.66 -1658 42 42 40
50.9355 -676.01 -1712 41 41 37
56.4196 -699.732 -1772 45 45 41
60.8315 -708.057 -1793 40 40 36
65.1877 -714.806 -1810 36 38 35
69.3487 -718.793 -1820 34 36 34
73.3912 -721.202 -1826 34 37 34
77.6286 -725.194 -1836 38 39 39
-157.197 -668.619 -1679 51 51 51
-151.467 -658.976 -1655 48 47 47
-147.18 -655.309 -1646 44 43 43
-143.456 -654.033 -1643 37 40 36
-139.832 -653.157 -1641 40 43 38
-135.968 -651.09 -1636 41 44 39
-132.045 -648.627 -1630 40 43 38
-128.069 -645.769 -1623 39 41 38
-124.201 -643.311 -1617 40 41 39
-120.508 -641.651 -1613 39 42 39
-117.124 -641.584 -1613 39 42 39
-113.529 -640.326 -1610 40 43 40
-110.085 -639.866 -1609 40 43 40
-106.314 -637.419 -1603 39 42 39
-102.762 -636.168 -1600 40 43 40
-98.9134 -632.931 -1592 41 44 41
-95.3989 -631.684 -1589 41 44 41
-91.8977 -630.438 -1586 41 44 41
-88.2982 -628.401 -1581 42 45 42
-84.7206 -626.365 -1576 41 44 41
-81.2678 -625.126 -1573 41 44 41
-77.7292 -623.095 -1568 42 45 42
-74.1173 -620.271 -1561 43 46 43
-70.6714 -618.641 -1557 42 45 42
-67.3296 -617.808 -1555 41 44 41
-63.9966 -616.976 -1553 42 45 42
-60.7508 -616.941 -1553 42 46 43
-57.6166 -618.1 -1556 41 45 42
-54.5054 -619.658 -1560 39 43 40
-51.3451 -620.82 -1563 37 40 37
-48.2034 -622.38 -1567 36 39 36
-44.9308 -622.354 -1567 36 39 36
-41.632 -621.933 -1566 40 43 40
-38.3622 -621.911 -1566 40 43 40
-35.0704 -621.493 -1565 40 43 40
-31.8236 -621.872 -1566 39 42 39
-28.6277 -623.443 -1570 40 43 40
-25.3992 -624.619 -1573 40 43 40
-22.1584 -625.797 -1576 39 42 39
-18.9172 -627.374 -1580 38 41 38
-15.62 -627.364 -1580 37 40 37
-12.3229 -627.357 -1580 37 40 37
-9.02595 -627.351 -1580 38 41 38
-5.73266 -627.744 -1581 38 41 38
-2.43677 -628.536 -1583 38 41 38
0.868541 -630.123 -1587 38 41 38
4.18528 -630.919 -1589 35 38 35
7.51985 -632.511 -1593 34 37 34
10.8575 -633.31 -1595 33 36 33
14.1681 -632.523 -1593 35 38 35
17.5034 -632.929 -1594 36 39 36
20.856 -633.734 -1596 37 40 37
24.2323 -634.938 -1599 37 40 37
27.6042 -635.746 -1601 38 41 38
31.0427 -637.748 -1606 41 44 41
34.5023 -639.752 -1611 41 44 41
38.2181 -645.729 -1626 51 52 48
42.0736 -652.9 -1644 47 47 43
46.2816 -664.045 -1672 42 42 39
51.5296 -687.505 -1731 42 42 38
56.6741 -706.6 -1779 45 45 41
60.9333 -712.988 -1795 38 38 34
65.1879 -718.585 -1809 34 37 34
69.3493 -722.595 -1819 34 37 34
73.5929 -727.005 -1830 35 38 35
77.5874 -728.636 -1834 36 38 38
-157.567 -673.713 -1682 51 51 51
-151.827 -664.013 -1658 45 45 45
-147.352 -659.524 -1647 43 43 43
-143.45 -657.439 -1642 38 41 38
-139.74 -656.158 -1639 40 43 39
-135.961 -654.479 -1635 40 43 39
-132.119 -652.402 -1630 39 42 38
-127.983 -648.726 -1621 38 41 37
-124.347 -647.455 -1618 38 41 38
-120.726 -646.185 -1615 39 42 38
-117.19 -645.318 -1613 39 42 39
-113.452 -643.252 -1608 39 42 39
-109.873 -641.989 -1605 38 41 38
-106.308 -640.729 -1602 39 42 39
-102.692 -639.07 -1598 42 45 42
-99.0311 -637.013 -1593 42 45 42
-95.4524 -635.359 -1589 40 43 40
-91.9493 -634.107 -1586 41 44 41
-88.4038 -632.457 -1582 41 44 41
-84.8219 -630.409 -1577 40 43 40
-81.2618 -628.364 -1572 41 44 41
-77.7729 -626.72 -1568 41 44 41
-74.2064 -624.279 -1562 41 44 41
-70.6657 -621.841 -1556 40 43 40
-67.324 -621.002 -1554 42 45 42
-63.9913 -620.166 -1552 44 47 44
-60.7848 -620.531 -1553 44 47 44
-57.649 -621.696 -1556 43 46 43
-54.5359 -623.263 -1560 41 45 42
-51.4067 -624.831 -1564 37 40 37
-48.2305 -626.001 -1567 35 38 35
-44.9847 -626.375 -1568 35 38 35
-41.7085 -626.35 -1568 39 42 39
-38.4082 -625.928 -1567 40 43 40
-35.1124 -625.508 -1566 40 43 40
-31.8617 -625.889 -1567 39 42 39
-28.6437 -627.07 -1570 38 41 38
-25.3973 -627.854 -1572 39 42 39
-22.1426 -628.639 -1574 39 42 39
-18.9278 -631.024 -1580 39 42 39
-15.6386 -631.414 -1581 40 43 40
-12.3454 -631.805 -1582 39 42 39
-9.04245 -631.799 -1582 39 42 39
-5.73938 -631.795 -1582 39 42 39
-2.44118 -632.991 -1585 38 41 38
0.869539 -634.189 -1588 38 41 38
4.19279 -635.388 -1591 35 38 35
7.53825 -637.388 -1596 34 37 34
10.8772 -637.793 -1597 33 36 33
14.1939 -637.001 -1595 36 39 36
17.5241 -637.01 -1595 38 41 38
20.8547 -637.021 -1595 38 41 38
24.2307 -638.232 -1598 38 41 38
27.6369 -639.844 -1602 37 40 37
31.0987 -642.257 -1608 38 41 38
34.5431 -643.874 -1612 40 43 40
38.1924 -648.687 -1624 50 50 47
42.1997 -658.297 -1648 49 49 46
46.7783 -674.699 -1689 41 41 37
51.6478 -692.704 -1734 45 45 41
56.7378 -711.111 -1780 45 45 41
61.1375 -719.134 -1800 36 36 32
65.1885 -722.366 -1808 32 35 32
69.2737 -725.6 -1816 34 37 34
73.4734 -729.637 -1826 35 38 35
77.9273 -735.673 -1841 37 39 39
-157.843 -678.424 -1684 51 51 51
-152.096 -668.668 -1660 44 44 44
-147.615 -664.152 -1649 43 43 43
-143.793 -662.458 -1645 39 42 39
-139.99 -660.767 -1641 41 44 41
-136.121 -658.675 -1636 41 44 41
-132.031 -655.378 -1628 40 43 40
-127.977 -652.084 -1620 39 42 39
-124.418 -651.207 -1618 37 40 37
-120.794 -649.93 -1615 37 40 35
-117.402 -649.862 -1615 39 42 38
-113.799 -648.59 -1612 40 43 40
-110.141 -646.917 -1608 39 42 39
-106.501 -645.246 -1604 40 43 40
-102.557 -641.567 -1595 41 44 41
-99.025 -640.303 -1592 41 44 41
-95.5064 -639.041 -1589 40 43 40
-92.0593 -638.184 -1587 41 44 41
-88.5096 -636.524 -1583 40 43 40
-84.8699 -634.062 -1577 40 43 40
-81.3077 -632.005 -1572 41 44 41
-77.7672 -629.95 -1567 41 44 41
-74.2483 -627.897 -1562 40 43 40
-70.751 -625.846 -1557 41 44 41
-67.4487 -625.405 -1556 44 47 44
-64.1099 -624.564 -1554 45 48 45
-60.8192 -624.126 -1553 44 47 44
-57.6814 -625.298 -1556 43 46 43
-54.6017 -627.276 -1561 39 42 39
-51.4028 -628.05 -1563 38 41 38
-48.196 -628.825 -1565 36 39 36
-44.9813 -629.602 -1567 36 39 36
-41.7054 -629.578 -1567 38 41 38
-38.4298 -629.555 -1567 38 41 38
-35.1546 -629.534 -1567 37 40 37
-31.9204 -630.319 -1569 36 39 36
-28.7147 -631.908 -1573 36 39 36
-25.4763 -633.098 -1576 38 41 38
-22.2114 -633.888 -1578 39 42 39
-18.9624 -635.483 -1582 40 43 40
-15.6573 -635.474 -1582 39 42 39
-12.3601 -635.867 -1583 39 42 39
-9.05307 -635.861 -1583 37 40 37
-5.74996 -636.259 -1584 38 41 38
-2.44405 -637.06 -1586 38 41 38
0.87184 -639.068 -1591 38 41 38
4.20051 -639.873 -1593 35 38 35
7.54251 -641.081 -1596 36 39 36
10.8835 -641.488 -1597 34 37 34
14.2109 -641.094 -1596 35 38 35
17.534 -640.701 -1595 37 40 37
20.9056 -641.917 -1598 38 41 38
24.275 -642.733 -1600 37 40 37
27.6526 -643.552 -1602 36 39 36
31.1356 -646.38 -1609 38 41 38
34.5626 -647.604 -1612 38 41 38
38.2376 -652.847 -1625 49 49 47
42.1979 -661.709 -1647 51 51 48
46.7771 -678.207 -1688 43 43 39
51.8262 -698.726 -1739 44 44 40
56.6425 -713.624 -1776 44 44 40
61.0701 -722.095 -1797 36 36 32
65.2616 -726.953 -1809 31 34 31
69.2748 -729.403 -1815 32 35 32
73.4346 -733.06 -1824 34 37 34
77.8868 -739.132 -1839 37 39 39
-158.309 -683.962 -1688 49 49 49
-152.366 -673.338 -1662 45 45 45
-147.699 -667.986 -1649 41 41 41
-143.788 -665.877 -1644 40 43 40
-139.984 -664.176 -1640 42 45 42
-135.866 -660.858 -1632 42 45 42
-132.188 -659.566 -1629 40 43 40
-128.366 -657.467 -1624 39 42 39
-124.72 -656.181 -1621 36 39 36
-120.938 -654.086 -1616 36 39 36
-117.541 -654.018 -1616 38 41 38
-113.864 -652.333 -1612 39 42 39
-110.204 -650.651 -1608 39 42 39
-106.03 -645.734 -1596 41 44 41
-102.615 -645.27 -1595 41 44 41
-99.1435 -644.403 -1593 41 44 41
-95.5608 -642.729 -1589 40 43 40
-92.1117 -641.867 -1587 41 44 41
-88.5041 -639.793 -1582 41 44 41
-84.972 -638.126 -1578 41 44 41
-81.4057 -636.057 -1573 41 44 41
-77.8114 -633.585 -1567 40 43 40
-74.2905 -631.52 -1562 41 44 41
-70.7458 -629.053 -1556 42 45 42
-67.5304 -629.418 -1557 43 46 43
-64.1463 -628.168 -1554 43 46 43
-60.9713 -628.941 -1556 44 47 44
-57.7513 -629.311 -1557 43 46 43
-54.5977 -630.491 -1560 41 44 41
-51.3662 -630.865 -1561 37 40 37
-48.1926 -632.05 -1564 35 38 35
-44.9781 -632.831 -1566 36 39 36
-41.7557 -633.615 -1568 38 41 38
-38.4762 -633.592 -1568 38 41 38
-35.2644 -634.783 -1571 36 39 36
-31.9792 -634.764 -1571 37 40 37
-28.7309 -635.555 -1573 39 42 39
-25.4907 -636.752 -1576 39 42 39
-22.1958 -636.738 -1576 39 42 39
-18.9491 -638.342 -1580 37 40 37
-15.6563 -638.737 -1581 38 41 38
-12.3515 -638.729 -1581 38 41 38
-9.05248 -639.127 -1582 38 41 38
-5.7531 -639.93 -1584 39 42 39
-2.44848 -641.544 -1588 37 40 37
0.871749 -642.351 -1590 36 39 36
4.20298 -643.565 -1593 35 38 35
7.54206 -644.376 -1595 33 36 33
10.8896 -645.19 -1597 35 38 35
14.219 -644.793 -1596 36 39 36
17.5551 -644.802 -1596 37 40 37
20.8914 -644.813 -1596 37 40 37
24.2735 -646.038 -1599 36 39 36
27.6512 -646.861 -1601 35 38 35
31.1148 -649.302 -1607 38 41 38
34.5609 -650.937 -1611 38 41 38
38.2594 -656.614 -1625 49 49 47
42.1964 -665.123 -1646 52 52 49
46.9702 -684.545 -1694 45 45 41
51.9749 -704.375 -1743 46 46 42
56.8022 -719.358 -1780 43 43 40
61.1388 -726.667 -1798 36 36 34
65.2986 -731.148 -1809 31 35 32
69.3906 -734.42 -1817 33 36 34
73.4763 -737.291 -1824 34 36 35
77.9311 -743.397 -1839 33 35 35
-158.306 -687.487 -1687 49 49 49
-152.637 -678.025 -1664 45 45 45
-147.963 -672.642 -1651 41 42 42
-143.87 -669.706 -1644 39 41 40
-139.979 -667.588 -1639 40 43 41
-136.027 -665.064 -1633 40 43 40
-132.183 -662.951 -1628 40 43 40
-128.36 -660.84 -1623 38 41 38
-124.868 -660.36 -1622 38 41 38
-121.232 -659.068 -1619 39 42 39
-117.754 -658.592 -1618 39 42 39
-114.07 -656.897 -1614 39 42 39
-110.404 -655.205 -1610 39 42 39
-106.423 -651.48 -1601 40 43 40
-102.867 -650.199 -1598 41 44 41
-99.2625 -648.514 -1594 39 42 39
-95.6757 -646.83 -1590 39 42 39
-92.2226 -645.963 -1588 40 43 40
-88.7786 -645.098 -1586 42 45 42
-85.0206 -641.794 -1578 43 46 43
-81.4005 -639.306 -1572 41 44 41
-77.7565 -636.413 -1565 41 44 41
-74.2854 -634.743 -1561 41 44 41
-70.8772 -633.482 -1558 42 45 42
-67.569 -633.036 -1557 43 46 43
-64.3068 -632.998 -1557 43 46 43
-61.0845 -633.368 -1558 43 46 43
-57.8215 -633.334 -1558 42 45 42
-54.6289 -634.115 -1560 41 44 41
-51.3956 -634.491 -1561 37 40 37
-48.1585 -634.869 -1562 35 38 35
-44.9176 -635.249 -1563 37 40 37
-41.7262 -636.443 -1566 39 42 39
-38.4982 -637.233 -1568 38 41 38
-35.2396 -637.618 -1569 36 39 36
-32.0178 -638.818 -1572 38 41 38
-28.7839 -640.02 -1575 40 43 40
-25.5052 -640.411 -1576 38 41 38
-22.2508 -641.616 -1579 39 42 39
-18.972 -642.417 -1581 38 41 38
-15.6751 -642.814 -1582 37 40 37
-12.3664 -642.806 -1582 36 39 36
-9.05191 -642.393 -1581 38 41 38
-5.75282 -643.201 -1583 40 43 40
-2.44983 -645.231 -1588 38 41 38
0.872208 -646.043 -1590 38 41 38
4.20546 -647.263 -1593 35 38 35
7.54635 -648.08 -1595 35 38 35
10.8891 -648.491 -1596 36 39 36
14.2271 -648.499 -1596 36 39 36
17.5763 -648.914 -1597 36 39 35
20.9164 -648.925 -1597 35 38 34
24.2874 -649.751 -1599 35 38 35
27.667 -650.578 -1601 36 39 34
31.0938 -652.221 -1605 35 38 34
34.5378 -653.865 -1609 36 40 37
38.187 -658.763 -1621 47 48 45
42.0667 -666.507 -1640 53 53 51
46.8583 -686.447 -1689 48 48 44
51.9153 -707.203 -1740 49 49 45
56.8028 -723.086 -1779 44 44 41
61.174 -730.843 -1798 38 38 36
65.3363 -735.351 -1809 32 36 33
69.354 -737.828 -1815 31 35 32
73.4781 -741.122 -1823 33 36 35
77.806 -746.044 -1835 33 35 35
-158.773 -693.063 -1691 48 48 48
-152.634 -681.498 -1663 43 45 45
-148.138 -676.903 -1652 39 41 41
-143.866 -673.131 -1643 37 39 39
-139.889 -670.591 -1637 38 41 39
-136.022 -668.463 -1632 38 41 38
-132.259 -666.747 -1628 39 42 39
-128.513 -665.033 -1624 38 41 38
-124.786 -663.322 -1620 37 40 37
-121.227 -662.432 -1618 39 42 39
-117.749 -661.954 -1617 40 43 40
-113.853 -659.021 -1610 40 43 40
-110.124 -656.91 -1605 39 42 39
-106.617 -656.029 -1603 39 42 39
-102.862 -653.513 -1597 40 43 40
-99.1951 -651.408 -1592 39 42 39
-95.791 -650.943 -1591 39 42 39
-92.1594 -648.843 -1586 40 43 40
-88.6617 -647.563 -1583 43 46 43
-85.0695 -645.468 -1578 42 45 42
-81.4473 -642.966 -1572 41 44 41
-77.8012 -640.057 -1565 42 45 42
-74.3281 -638.377 -1561 42 45 42
-70.827 -636.29 -1556 42 45 42
-67.6947 -637.477 -1559 43 46 43
-64.3439 -636.621 -1557 43 46 43
-61.1197 -636.994 -1558 43 46 43
-57.8547 -636.96 -1558 42 45 42
-54.6603 -637.745 -1560 41 44 41
-51.3921 -637.714 -1560 38 41 38
-48.1862 -638.503 -1562 37 40 37
-44.9434 -638.885 -1563 38 41 38
-41.7502 -640.086 -1566 40 43 40
-38.4957 -640.472 -1567 38 41 38
-35.2373 -640.859 -1568 37 40 37
-31.9955 -641.657 -1570 38 41 38
-28.7821 -643.275 -1574 39 42 39
-25.5199 -644.076 -1576 38 41 38
-22.2494 -644.88 -1578 39 42 39
-18.9709 -645.685 -1580 40 43 40
-15.6741 -646.084 -1581 38 41 38
-12.3577 -645.667 -1580 37 40 37
-9.06853 -646.887 -1583 39 42 39
-5.75961 -647.292 -1584 41 44 41
-2.45118 -648.924 -1588 39 42 39
0.873422 -650.149 -1591 38 41 38
4.20795 -650.968 -1593 36 39 36
7.55088 -651.789 -1595 35 38 35
10.9022 -652.612 -1597 36 39 36
14.2442 -652.619 -1597 35 38 34
17.6083 -653.446 -1599 33 36 31
20.9549 -653.457 -1599 35 38 33
24.347 -654.696 -1602 37 40 37
27.7176 -655.119 -1603 35 38 33
31.1312 -656.363 -1606 35 38 34
34.5362 -657.199 -1608 36 40 37
38.1856 -662.125 -1620 42 44 41
42.0394 -669.505 -1638 52 53 50
46.802 -689.15 -1686 54 54 50
51.736 -708.39 -1733 51 51 47
56.644 -724.772 -1773 41 41 38
61.0731 -733.391 -1794 32 33 31
65.2654 -738.333 -1806 30 34 31
69.2026 -740.008 -1810 30 34 32
73.6414 -746.591 -1826 33 37 36
77.8934 -750.723 -1836 35 37 37
-158.302 -694.544 -1685 45 47 48
-152.631 -684.973 -1662 40 42 43
-147.955 -679.528 -1649 37 39 39
-144.037 -677.383 -1644 38 40 40
-140.141 -675.24 -1639 38 41 39
-136.018 -671.864 -1631 38 41 38
-132.254 -670.138 -1627 39 42 39
-128.588 -668.826 -1624 38 41 38
-124.936 -667.517 -1621 36 40 37
-121.222 -665.798 -1617 38 41 38
-117.745 -665.317 -1616 39 42 39
-113.99 -663.191 -1611 39 42 39
-110.394 -661.891 -1608 39 42 39
-106.48 -658.535 -1600 40 43 40
-102.857 -656.828 -1596 39 42 39
-99.315 -655.534 -1593 38 41 38
-95.8464 -654.655 -1591 38 41 38
-92.1547 -652.131 -1585 41 44 41
-88.7131 -651.256 -1583 43 46 43
-85.0649 -648.737 -1577 42 45 42
-81.4427 -646.22 -1571 41 44 41
-77.7967 -643.295 -1564 43 46 43
-74.4188 -642.428 -1562 43 46 43
-70.9591 -640.741 -1558 42 45 42
-67.6905 -640.701 -1558 43 46 43
-64.3811 -640.251 -1557 44 47 44
-61.1551 -640.626 -1558 43 46 43
-57.8882 -640.591 -1558 41 44 41
-54.727 -641.792 -1561 40 43 40
-51.4878 -642.172 -1562 39 42 39
-48.1832 -641.732 -1561 39 42 39
-45.0269 -643.35 -1565 40 43 40
-41.7477 -643.324 -1565 40 43 40
-38.518 -644.124 -1567 39 42 39
-35.2802 -644.924 -1569 38 41 38
-32.0344 -645.727 -1571 37 40 37
-28.817 -647.353 -1575 38 41 38
-25.5669 -648.57 -1578 39 42 39
-22.2763 -648.967 -1579 40 43 40
-18.9698 -648.955 -1579 41 44 41
-15.6931 -650.178 -1582 39 42 39
-12.3727 -649.759 -1581 40 43 40
-9.068 -650.164 -1582 38 41 38
-5.763 -650.982 -1584 40 43 40
-2.44946 -651.801 -1586 39 42 39
0.873338 -653.445 -1590 39 42 39
4.21045 -654.679 -1593 38 41 38
7.55048 -655.094 -1594 36 39 36
10.9086 -656.332 -1597 37 40 36
14.2703 -657.162 -1599 35 38 34
17.6406 -657.993 -1601 32 35 31
20.9801 -657.593 -1600 34 37 33
24.3764 -658.839 -1603 35 38 35
27.7336 -658.854 -1603 36 39 34
31.1297 -659.693 -1605 37 40 36
34.5347 -660.535 -1607 37 40 37
38.0898 -663.844 -1615 40 43 40
41.8842 -670.444 -1631 52 54 51
46.107 -682.391 -1660 56 57 53
51.6766 -711.196 -1730 53 53 49
56.8687 -731.371 -1779 43 44 40
61.1085 -737.573 -1794 32 35 32
65.1587 -740.898 -1802 32 36 33
69.2812 -744.638 -1811 30 34 32
73.5631 -749.614 -1823 33 37 35
78.1083 -756.648 -1840 36 38 38
-158.394 -698.49 -1685 44 46 48
-152.72 -688.865 -1662 41 43 44
-148.042 -683.389 -1649 38 40 40
-144.121 -681.231 -1644 40 42 42
-140.309 -679.49 -1640 39 42 40
-136.515 -677.752 -1636 39 42 39
-132.657 -675.602 -1631 38 42 39
-128.822 -673.454 -1626 37 41 38
-125.24 -672.551 -1624 37 41 38
-121.143 -668.752 -1615 38 41 38
-117.449 -667.026 -1611 38 41 38
-113.915 -666.13 -1609 40 43 40
-110.321 -664.823 -1606 40 43 40
-106.475 -661.862 -1599 39 42 39
-103.046 -661.386 -1598 37 40 37
-99.3105 -658.844 -1592 38 41 38
-95.6613 -656.718 -1587 39 42 39
-92.1503 -655.421 -1584 41 44 41
-88.5966 -653.714 -1580 42 45 42
-84.9526 -651.18 -1574 41 44 41
-81.4383 -649.477 -1570 42 45 42
-77.8917 -647.362 -1565 44 47 44
-74.4622 -646.077 -1562 45 48 45
-70.9093 -643.553 -1556 42 45 42
-67.6429 -643.512 -1556 41 44 41
-64.2945 -642.646 -1554 43 46 43
-61.0336 -642.61 -1554 42 45 41
-57.736 -642.162 -1553 41 44 40
-54.6536 -644.196 -1558 42 45 41
-51.5177 -645.819 -1562 42 45 42
-48.3038 -646.617 -1564 42 45 42
-45.1107 -647.83 -1567 41 44 41
-41.8253 -647.804 -1567 39 42 39
-38.5895 -648.608 -1569 38 41 38
-35.2782 -648.173 -1568 37 40 37
-32.0326 -648.98 -1570 38 41 38
-28.7971 -650.202 -1573 39 42 39
-25.5332 -651.013 -1575 40 43 40
-22.2752 -652.239 -1578 40 43 40
-18.9688 -652.227 -1578 40 43 40
-15.6923 -653.457 -1581 40 43 40
-12.3719 -653.036 -1580 38 41 38
-9.07322 -653.856 -1582 39 42 39
-5.76255 -654.265 -1583 39 42 39
-2.44928 -655.089 -1585 39 42 39
0.872909 -656.329 -1588 39 42 39
4.20767 -657.57 -1591 38 41 38
7.55504 -658.814 -1594 34 37 34
10.9082 -659.646 -1596 36 39 36
14.2787 -660.893 -1599 35 38 35
17.662 -662.142 -1602 33 36 33
21.0054 -661.741 -1601 33 36 33
24.3907 -662.58 -1603 35 38 33
27.7843 -663.423 -1605 34 37 34
31.1673 -663.853 -1606 37 40 37
34.5118 -663.459 -1605 37 40 37
38.0413 -666.374 -1612 40 43 40
41.9342 -674.665 -1632 49 52 49
46.5508 -692.467 -1675 59 62 59
51.617 -713.994 -1727 55 55 53
56.7419 -733.457 -1774 42 43 41
61.0758 -740.934 -1792 33 36 33
65.2329 -745.519 -1803 31 34 31
69.2832 -748.453 -1810 31 34 31
73.8079 -755.938 -1828 35 38 35
78.3663 -763.013 -1845 37 39 37
-158.393 -702.026 -1684 44 46 47
-152.81 -692.763 -1662 42 44 45
-148.219 -687.673 -1650 39 41 41
-144.206 -685.086 -1644 40 42 41
-140.391 -683.335 -1640 38 40 39
-136.428 -680.754 -1634 39 41 40
-132.735 -679.424 -1631 38 40 39
-128.897 -677.265 -1626 36 38 36
-125.159 -675.524 -1622 38 40 37
-121.289 -672.952 -1616 39 42 39
-117.737 -672.049 -1614 38 41 38
-113.84 -669.066 -1607 39 42 39
-110.111 -666.919 -1602 40 43 40
-106.471 -665.19 -1598 39 42 39
-102.784 -663.047 -1593 38 41 38
-99.1816 -661.323 -1589 39 42 39
-95.6571 -660.017 -1586 40 43 40
-92.0297 -657.881 -1581 40 44 41
-88.5924 -656.995 -1579 41 45 42
-84.8404 -653.616 -1571 41 45 42
-81.486 -653.151 -1570 42 45 42
-77.9373 -651.024 -1565 42 46 43
-74.5059 -649.731 -1562 41 45 42
-71.042 -648.025 -1558 41 45 42
-67.6826 -647.152 -1556 42 45 42
-64.2907 -645.866 -1553 42 45 42
-60.9907 -645.413 -1552 42 45 40
-57.807 -646.21 -1554 42 45 40
-54.6856 -647.84 -1558 41 44 39
-51.5809 -649.888 -1563 42 45 42
-48.363 -650.69 -1565 42 45 42
-45.1371 -651.494 -1567 40 43 40
-41.8765 -651.884 -1568 39 42 39
-38.5875 -651.861 -1568 38 41 38
-35.2763 -651.424 -1567 35 38 35
-32.0513 -652.651 -1570 37 40 37
-28.7957 -653.465 -1572 39 42 39
-25.5319 -654.28 -1574 40 43 40
-22.2741 -655.513 -1577 40 43 40
-18.9798 -655.916 -1578 39 42 39
-15.6816 -656.322 -1579 38 41 38
-12.3792 -656.73 -1580 38 41 38
-9.07847 -657.555 -1582 38 41 38
-5.7696 -658.382 -1584 39 42 39
-2.4522 -659.21 -1586 39 42 39
0.873929 -660.457 -1589 37 40 37
4.20734 -660.874 -1590 36 39 36
7.56416 -662.956 -1595 35 38 35
10.9078 -662.961 -1595 37 40 37
14.2781 -664.216 -1598 36 39 36
17.6282 -664.225 -1598 34 37 34
21.0047 -665.068 -1600 34 37 33
24.3898 -665.913 -1602 35 38 33
27.7834 -666.759 -1604 37 40 37
31.1856 -667.608 -1606 36 39 36
34.5752 -668.043 -1607 36 39 36
38.1344 -671.39 -1615 39 42 39
41.8818 -677.234 -1629 44 47 44
45.8273 -685.159 -1648 59 62 59
51.4679 -715.538 -1721 58 58 56
56.8392 -738.438 -1776 41 42 40
61.1799 -745.957 -1794 33 36 33
65.3797 -750.984 -1806 32 35 32
69.4005 -753.519 -1812 32 35 32
73.8917 -760.631 -1829 36 39 36
-158.487 -705.984 -1684 44 46 46
-152.716 -695.83 -1660 43 45 45
-148.217 -691.13 -1649 39 41 41
-144.116 -688.11 -1642 38 41 38
-140.475 -687.187 -1640 38 40 39
-136.592 -685.01 -1635 39 41 41
-132.732 -682.835 -1630 40 41 41
-129.132 -681.92 -1628 39 39 39
-125.233 -679.331 -1622 38 38 36
-121.511 -677.583 -1618 38 41 38
-117.587 -674.581 -1611 39 42 39
-113.907 -672.837 -1607 40 43 40
-110.176 -670.678 -1602 40 43 40
-106.534 -668.939 -1598 40 43 40
-102.909 -667.202 -1594 39 42 39
-99.2402 -665.05 -1589 39 42 39
-95.5929 -662.899 -1584 41 44 41
-91.7928 -659.496 -1576 40 43 40
-88.364 -658.606 -1574 40 43 40
-84.8364 -656.881 -1570 39 42 39
-81.4302 -655.995 -1568 40 43 40
-77.8338 -653.438 -1562 41 44 41
-74.5498 -653.393 -1562 39 43 40
-71.0383 -651.258 -1557 39 43 40
-67.6789 -650.381 -1555 41 45 42
-64.2873 -649.087 -1552 43 46 43
-60.9874 -648.632 -1551 42 45 40
-57.8038 -649.433 -1553 42 45 40
-54.6827 -651.072 -1557 41 44 39
-51.5453 -652.714 -1561 41 44 41
-48.3914 -654.357 -1565 39 42 39
-45.1925 -655.583 -1568 37 40 37
-41.9547 -656.394 -1570 40 43 40
-38.6348 -655.952 -1569 39 42 39
-35.3421 -655.93 -1569 36 39 36
-32.0906 -656.746 -1571 37 40 37
-28.7943 -656.728 -1571 39 42 39
-25.5307 -657.548 -1573 39 42 39
-22.2589 -658.37 -1575 38 41 38
-18.979 -659.194 -1577 37 40 37
-15.7007 -660.438 -1580 37 40 37
-12.41 -661.684 -1583 38 41 38
-9.09542 -662.095 -1584 38 41 38
-5.78397 -663.345 -1587 37 40 37
-2.45687 -663.761 -1588 38 41 38
0.876052 -665.432 -1592 38 41 38
4.21517 -665.434 -1592 37 40 37
7.56876 -666.691 -1595 39 42 39
10.9074 -666.279 -1594 38 41 38
14.2867 -667.958 -1598 38 41 38
17.6497 -668.386 -1599 36 39 36
21.0433 -669.651 -1602 35 38 35
24.4194 -670.083 -1603 37 40 36
27.8346 -671.352 -1606 35 38 35
31.2236 -671.788 -1607 36 39 36
34.7033 -673.897 -1612 36 39 36
38.1569 -675.173 -1615 38 41 38
41.8808 -680.632 -1628 42 45 42
46.5222 -699.054 -1672 56 59 56
51.3487 -717.479 -1716 62 62 60
56.8088 -741.762 -1774 41 42 40
61.1139 -748.906 -1791 31 34 31
65.3822 -754.797 -1805 32 35 32
69.595 -759.437 -1816 34 37 34
74.0567 -766.171 -1832 37 40 37
-158.488 -709.527 -1683 45 47 47
-152.715 -699.316 -1659 42 44 44
-148.305 -695.011 -1649 38 40 40
-144.202 -691.974 -1642 38 41 38
-140.644 -691.467 -1641 38 41 39
-136.423 -687.593 -1632 39 41 41
-132.73 -686.248 -1629 39 41 41
-128.971 -684.485 -1625 38 39 39
-125.462 -683.988 -1624 38 38 36
-121.508 -680.966 -1617 38 41 38
-117.73 -678.789 -1612 40 43 40
-113.975 -676.615 -1607 40 43 40
-110.035 -673.18 -1599 41 44 41
-106.397 -671.431 -1595 39 42 39
-102.841 -670.106 -1592 39 42 39
-99.2367 -668.362 -1588 41 44 41
-95.7101 -667.042 -1585 40 43 40
-92.0222 -664.461 -1579 40 43 40
-88.5288 -663.145 -1576 39 42 39
-84.8327 -660.148 -1569 38 41 38
-81.4266 -659.257 -1567 39 42 39
-77.9798 -657.947 -1564 39 43 40
-74.594 -657.061 -1562 38 42 39
-71.126 -655.335 -1558 38 42 39
-67.7191 -654.032 -1555 41 44 41
-64.4083 -653.572 -1554 43 46 43
-61.0629 -652.693 -1552 43 46 41
-57.8382 -653.079 -1553 42 45 40
-54.7152 -654.727 -1557 41 44 39
-51.5428 -655.957 -1560 39 42 39
-48.3583 -657.189 -1563 38 41 38
-45.2193 -659.263 -1568 39 42 39
-41.9527 -659.658 -1569 40 43 40
-38.6824 -660.054 -1570 37 40 37
-35.4082 -660.453 -1571 34 37 34
-32.1096 -660.432 -1571 36 39 36
-28.848 -661.255 -1573 38 41 38
-25.5782 -662.08 -1575 39 42 39
-22.2721 -662.066 -1575 39 42 39
-19.0022 -663.314 -1578 39 42 39
-15.7 -663.725 -1579 38 41 38
-12.4173 -665.397 -1583 40 43 40
-9.09498 -665.391 -1583 39 42 39
-5.78721 -667.068 -1587 37 40 37
-2.45826 -667.486 -1588 36 39 36
0.877282 -669.587 -1593 37 40 37
4.22037 -669.589 -1593 38 41 38
7.58268 -671.274 -1597 39 42 39
10.9208 -670.439 -1595 38 41 38
14.2861 -671.287 -1597 38 41 38
17.6381 -671.296 -1597 37 40 37
21.0033 -671.728 -1598 35 38 35
24.3576 -671.742 -1598 36 39 36
27.8164 -674.279 -1604 37 40 37
31.2032 -674.718 -1605 37 40 37
34.6162 -675.578 -1607 37 40 37
38.156 -678.543 -1614 37 40 37
41.9829 -685.713 -1631 40 43 40
45.8261 -692.046 -1646 47 50 47
51.1995 -718.984 -1710 58 58 56
56.5222 -741.721 -1764 42 43 41
61.1842 -753.53 -1792 31 34 31
65.566 -760.716 -1809 31 34 31
69.5978 -763.28 -1815 34 37 34
74.222 -771.734 -1835 36 39 36
-152.899 -703.652 -1660 42 44 44
-148.394 -698.899 -1649 39 41 41
-144.288 -695.845 -1642 38 41 38
-140.557 -694.488 -1639 37 40 38
-136.755 -692.71 -1635 40 42 42
-132.728 -689.663 -1628 40 42 42
-128.889 -687.467 -1623 38 40 40
-125.151 -685.696 -1619 37 40 37
-121.43 -683.928 -1615 38 41 38
-117.874 -683.009 -1613 39 42 39
-113.972 -679.976 -1606 41 44 41
-110.308 -678.215 -1602 40 43 40
-106.461 -675.187 -1595 37 40 37
-102.967 -674.277 -1593 38 41 38
-99.2959 -672.1 -1588 40 43 40
-95.7068 -670.349 -1584 40 43 40
-92.1355 -668.6 -1580 40 43 40
-88.3569 -665.161 -1572 41 44 41
-84.7752 -662.993 -1567 41 44 41
-81.4752 -662.944 -1567 40 43 40
-77.9266 -660.781 -1562 39 42 39
-74.4952 -659.466 -1559 38 41 38
-71.1229 -658.576 -1557 38 41 38
-67.8031 -658.112 -1556 40 43 40
-64.4053 -656.803 -1553 42 45 42
-61.0993 -656.343 -1552 44 47 42
-57.8726 -656.73 -1553 43 46 41
-54.7478 -658.388 -1557 39 42 37
-51.5404 -659.202 -1559 37 40 37
-48.3871 -660.863 -1563 37 40 37
-45.1885 -662.104 -1566 39 42 39
-41.951 -662.923 -1568 39 42 39
-38.7301 -664.168 -1571 38 41 38
-35.4293 -664.145 -1571 36 39 36
-32.1492 -664.548 -1572 35 38 35
-28.8651 -664.952 -1573 36 39 36
-25.5935 -665.782 -1575 39 42 39
-22.2995 -666.19 -1576 41 44 41
-19.0135 -667.023 -1578 41 44 41
-15.7492 -669.126 -1583 40 43 40
-12.4325 -669.541 -1584 40 43 40
-9.11755 -670.379 -1586 40 43 40
-5.80163 -672.066 -1590 40 43 40
-2.4643 -672.486 -1591 37 40 37
0.878863 -674.176 -1595 37 40 37
4.22823 -674.178 -1595 39 42 39
7.58733 -675.027 -1597 37 40 37
10.9341 -674.61 -1596 37 40 37
14.2947 -675.04 -1597 36 39 36
17.6488 -675.05 -1597 34 37 34
21.0159 -675.484 -1598 34 37 34
24.4028 -676.343 -1600 35 38 35
27.8331 -678.05 -1604 36 39 36
31.2219 -678.49 -1605 37 40 37
34.6799 -680.201 -1609 38 41 38
38.2025 -682.759 -1615 36 39 36
41.9822 -689.125 -1630 38 41 38
45.9649 -697.607 -1650 44 47 44
50.9905 -719.622 -1702 53 53 51
56.8124 -749.251 -1772 44 45 43
61.1525 -756.898 -1790 32 35 32
65.5325 -764.124 -1807 30 33 30
69.6394 -767.548 -1815 33 36 33
74.2259 -775.626 -1834 34 37 34
-153.268 -708.853 -1663 42 44 44
-148.573 -703.22 -1650 38 40 40
-144.375 -699.722 -1642 38 40 39
-140.556 -697.932 -1638 37 39 39
-136.587 -695.292 -1632 39 41 41
-132.807 -693.506 -1628 40 42 42
-128.967 -691.297 -1623 39 42 41
-125.072 -688.665 -1617 37 40 37
-121.353 -686.887 -1613 37 40 37
-117.872 -686.389 -1612 39 42 39
-114.183 -684.616 -1608 39 42 39
-110.443 -682.42 -1603 39 42 39
-106.592 -679.374 -1596 38 41 38
-102.965 -677.609 -1592 38 41 38
-99.4182 -676.271 -1589 39 42 39
-95.8249 -674.509 -1585 39 42 39
-92.1325 -671.899 -1579 41 44 41
-88.5225 -669.717 -1574 41 45 42
-84.8262 -666.687 -1567 42 46 43
-81.316 -664.935 -1563 42 45 42
-77.9734 -664.462 -1562 40 43 40
-74.4921 -662.714 -1558 39 42 39
-71.1656 -662.245 -1557 38 41 38
-67.8439 -661.778 -1556 40 43 40
-64.4439 -660.462 -1553 42 45 42
-61.1754 -660.424 -1553 44 47 42
-57.9446 -660.814 -1554 43 46 41
-54.7807 -662.056 -1557 39 42 37
-51.6045 -663.299 -1560 37 40 37
-48.4162 -664.545 -1563 36 39 36
-45.1867 -665.367 -1565 38 41 38
-42.003 -667.041 -1569 39 42 39
-38.7533 -667.867 -1571 39 42 39
-35.4505 -667.845 -1571 39 42 39
-32.1889 -668.675 -1573 39 42 39
-28.9008 -669.081 -1574 39 42 39
-25.5925 -669.065 -1574 38 41 38
-22.3128 -669.901 -1576 38 41 38
-19.0128 -670.313 -1577 39 42 39
-15.7586 -672.853 -1583 38 41 38
-12.4321 -672.845 -1583 38 41 38
-9.12311 -674.113 -1586 39 42 39
-5.80146 -675.384 -1589 37 40 37
-2.4688 -677.082 -1593 35 38 35
0.878446 -677.081 -1593 36 39 36
4.23631 -678.783 -1597 36 39 36
7.60606 -680.062 -1600 37 40 37
10.9475 -678.793 -1597 37 40 37
14.3034 -678.8 -1597 36 39 36
17.6593 -678.81 -1597 35 38 35
21.0285 -679.246 -1598 34 37 34
24.4023 -679.685 -1599 34 37 34
27.815 -680.976 -1602 35 38 35
31.2213 -681.844 -1604 37 40 37
34.7009 -683.99 -1609 37 40 37
38.2018 -686.137 -1614 36 39 36
41.8786 -690.838 -1625 37 40 37
45.8252 -698.942 -1644 44 47 44
50.9013 -721.929 -1698 50 50 48
56.1086 -743.646 -1749 43 44 42
61.0867 -759.838 -1787 32 35 32
65.4269 -766.68 -1803 32 35 32
69.7199 -772.249 -1816 33 36 33
74.3111 -780.372 -1835 35 38 35
-153.268 -712.36 -1662 41 43 43
-148.574 -706.696 -1649 38 40 40
-144.727 -704.893 -1645 38 40 40
-140.727 -702.235 -1639 38 40 40
-137.088 -701.294 -1637 38 40 40
-132.725 -696.5 -1626 38 40 40
-128.966 -694.707 -1622 39 41 40
-125.225 -692.916 -1618 38 41 38
-121.577 -691.557 -1615 39 42 39
-118.09 -691.056 -1614 40 43 40
-114.252 -688.417 -1608 39 42 39
-110.579 -686.636 -1604 39 42 39
-106.857 -684.43 -1599 39 42 39
-103.286 -683.082 -1596 40 43 40
-99.541 -680.452 -1590 40 43 40
-95.8828 -678.253 -1585 41 44 41
-92.2466 -676.057 -1580 42 45 42
-88.4635 -672.579 -1572 43 47 44
-85.0399 -671.671 -1570 43 47 44
-81.2611 -667.77 -1561 42 45 42
-77.8707 -666.866 -1559 39 42 39
-74.5372 -666.392 -1558 39 42 39
-71.0713 -664.637 -1554 40 43 40
-67.7102 -663.74 -1552 41 44 41
-64.3583 -662.845 -1550 42 45 42
-61.1335 -663.234 -1551 43 46 41
-57.9423 -664.053 -1553 43 44 40
-54.7785 -665.302 -1556 41 41 37
-51.6687 -667.408 -1561 37 40 37
-48.4144 -667.805 -1562 37 40 37
-45.2718 -669.914 -1567 38 41 38
-42.0282 -670.743 -1569 39 42 39
-38.7767 -671.573 -1571 39 42 39
-35.517 -672.406 -1573 39 42 39
-32.2083 -672.385 -1573 39 42 39
-28.9366 -673.222 -1575 39 42 39
-25.6242 -673.205 -1575 38 41 38
-22.3262 -673.618 -1576 37 40 37
-19.0363 -674.46 -1578 38 41 38
-15.768 -676.587 -1583 39 42 39
-12.4474 -677.006 -1584 39 42 39
-9.14 -678.709 -1588 39 42 39
-5.80496 -679.132 -1589 36 39 36
-2.47021 -680.839 -1593 36 39 36
0.879482 -681.266 -1594 37 40 37
4.2389 -682.55 -1597 36 39 36
7.606 -683.408 -1599 37 39 38
10.9679 -683.414 -1599 37 39 38
14.339 -683.849 -1600 37 40 37
17.7144 -684.286 -1601 35 38 35
21.0676 -683.871 -1600 34 37 34
24.417 -683.457 -1599 35 38 35
27.8841 -686.037 -1605 34 37 34
31.2597 -686.055 -1605 36 39 36
34.7218 -687.785 -1609 36 39 36
38.2012 -689.517 -1613 38 41 38
41.9556 -695.527 -1627 40 43 40
45.7415 -701.11 -1640 44 47 44
50.3921 -718.24 -1680 47 49 45
61.0554 -763.2 -1785 32 35 32
65.4301 -770.507 -1802 32 35 32
69.6084 -774.824 -1812 34 37 34
74.2344 -783.42 -1832 33 36 33
-153.731 -718.024 -1666 40 42 42
-148.935 -711.898 -1652 37 39 39
-145.167 -710.515 -1649 37 39 39
-140.984 -706.981 -1641 38 40 40
-137.591 -707.327 -1642 39 41 41
-133.296 -702.936 -1632 39 41 41
-129.203 -699.41 -1624 39 41 41
-125.456 -697.61 -1620 39 42 39
-121.802 -696.242 -1617 40 43 40
-118.161 -694.878 -1614 40 43 40
-114.322 -692.224 -1608 39 42 39
-110.715 -690.863 -1605 39 42 39
-106.988 -688.645 -1600 37 40 37
-103.349 -686.859 -1596 40 43 40
-99.6643 -684.645 -1591 40 43 40
-95.8807 -681.573 -1584 42 45 42
-92.4196 -680.655 -1582 43 44 42
-88.4047 -675.438 -1570 42 44 42
-84.9291 -674.094 -1567 44 47 44
-81.3105 -671.462 -1561 43 46 43
-77.8181 -669.693 -1557 41 44 41
-74.5346 -669.647 -1557 41 44 41
-71.1145 -668.312 -1554 40 43 40
-67.7514 -667.41 -1552 42 45 42
-64.3558 -666.08 -1549 44 47 44
-61.0917 -666.041 -1549 44 47 42
-57.9029 -666.865 -1551 44 45 41
-54.7414 -668.121 -1554 41 41 37
-51.6338 -670.238 -1559 37 40 37
-48.4747 -671.927 -1563 38 41 38
-45.2414 -672.758 -1565 39 42 39
-41.9733 -673.161 -1566 39 42 39
-38.7508 -674.427 -1569 39 42 39
-35.4933 -675.264 -1571 39 42 39
-32.1869 -675.243 -1571 38 41 38
-28.9358 -676.514 -1574 38 41 38
-25.6072 -676.067 -1573 37 40 37
-22.3115 -676.483 -1574 37 40 37
-19.0117 -676.9 -1575 38 41 38
-15.7477 -679.038 -1580 39 42 39
-12.4313 -679.46 -1581 38 41 38
-9.1341 -681.602 -1586 39 42 39
-5.80462 -682.457 -1588 36 39 36
-2.47163 -684.603 -1593 38 41 38
0.879069 -684.173 -1592 37 40 37
4.23885 -685.894 -1596 36 39 36
7.60597 -686.757 -1598 37 39 39
10.961 -686.333 -1597 37 40 38
14.3477 -687.63 -1600 37 40 37
17.7029 -687.21 -1599 36 39 36
21.0938 -688.081 -1601 35 38 35
24.4624 -688.095 -1601 36 39 36
27.9184 -690.26 -1606 35 38 35
31.3176 -690.708 -1607 37 40 37
34.7861 -692.448 -1611 35 38 35
38.3193 -695.049 -1617 37 40 37
42.0327 -700.231 -1629 39 42 39
45.8808 -706.706 -1644 43 46 43
50.2428 -719.632 -1674 45 48 43
56.787 -760.075 -1768 40 43 39
61.1611 -768.279 -1787 34 37 34
65.3247 -773.047 -1798 34 37 34
69.6892 -779.538 -1813 36 39 36
74.3607 -788.612 -1834 36 39 36
-154.01 -722.848 -1668 40 42 42
-149.116 -716.255 -1653 37 39 39
-145.433 -715.297 -1651 37 39 39
-141.415 -712.61 -1645 38 40 40
-137.759 -711.658 -1643 39 41 41
-133.214 -705.944 -1630 38 40 40
-129.362 -703.698 -1625 38 40 40
-125.533 -701.454 -1620 39 42 39
-121.801 -699.646 -1616 40 43 40
-118.161 -698.273 -1613 39 42 39
-114.463 -696.47 -1609 40 43 40
-110.714 -694.237 -1604 38 41 38
-107.054 -692.439 -1600 38 41 38
-103.347 -690.211 -1595 40 43 40
-99.7252 -688.418 -1591 39 42 39
-95.6971 -683.598 -1580 39 42 39
-92.1253 -681.81 -1576 42 42 40
-88.4024 -678.726 -1569 42 44 41
-84.6013 -674.78 -1560 43 46 43
-81.3603 -675.162 -1561 43 46 43
-77.8656 -673.383 -1557 43 46 43
-74.4844 -672.471 -1555 42 45 42
-71.0207 -670.697 -1551 41 42 40
-67.7055 -670.222 -1550 43 45 42
-64.2704 -668.452 -1546 44 47 44
-61.0502 -668.846 -1547 44 47 42
-57.9382 -670.539 -1551 43 44 40
-54.7395 -671.369 -1553 40 40 36
-51.6654 -673.93 -1559 37 40 37
-48.4734 -675.196 -1562 38 41 38
-45.2112 -675.6 -1563 39 42 39
-41.9454 -676.005 -1564 39 42 39
-38.7498 -677.709 -1568 38 41 38
-35.4698 -678.119 -1569 38 41 38
-32.2065 -678.962 -1571 37 40 37
-28.935 -679.808 -1573 38 41 38
-25.6066 -679.359 -1572 38 41 38
-22.2967 -679.344 -1572 38 41 38
-19.0112 -680.196 -1574 39 42 39
-15.7374 -681.914 -1578 40 43 40
-12.439 -683.202 -1581 38 41 38
-9.12224 -684.06 -1583 39 42 39
-5.81546 -687.08 -1590 37 40 37
-2.47481 -688.806 -1594 39 42 39
0.880663 -688.805 -1594 37 40 37
4.24146 -689.671 -1596 37 40 37
7.6107 -690.539 -1598 37 39 39
10.9745 -690.545 -1598 37 39 38
14.3565 -691.417 -1600 37 40 37
17.7027 -690.563 -1598 36 39 36
21.133 -692.736 -1603 36 39 36
24.5082 -692.75 -1603 38 41 38
27.9703 -694.926 -1608 36 39 36
31.3759 -695.377 -1609 36 39 36
34.8938 -697.99 -1615 34 37 34
38.3903 -699.742 -1619 36 39 36
42.0585 -704.089 -1629 37 40 37
45.8532 -709.734 -1642 40 43 40
50.0934 -721.002 -1668 40 43 38
56.8219 -764.262 -1768 39 42 38
60.856 -768.188 -1777 38 41 38
65.3648 -777.306 -1798 36 39 36
69.8474 -785.129 -1816 35 39 36
74.6498 -795.55 -1840 37 41 38
-160.485 -739.988 -1698 49 51 52
-154.198 -727.253 -1669 39 41 41
-149.118 -719.752 -1652 38 40 40
-145.434 -718.789 -1650 38 40 40
-141.416 -716.087 -1644 37 39 39
-137.592 -714.258 -1640 38 40 40
-133.46 -710.691 -1632 38 40 40
-129.522 -707.996 -1626 35 38 37
-125.378 -703.999 -1617 35 39 36
-121.801 -703.052 -1615 38 41 38
-118.16 -701.672 -1612 39 42 39
-114.462 -699.859 -1608 40 43 40
-110.92 -698.919 -1606 37 40 37
-106.986 -695.37 -1598 36 39 36
-103.411 -693.999 -1595 39 42 39
-99.7239 -691.761 -1590 39 42 39
-95.8772 -688.22 -1582 39 42 39
-91.7727 -682.507 -1569 42 42 40
-88.5132 -682.887 -1570 42 44 42
-84.8162 -679.789 -1563 42 45 42
-81.3061 -677.998 -1559 41 44 41
-77.9135 -677.079 -1557 40 43 40
-74.5302 -676.162 -1555 39 42 39
-71.0643 -674.378 -1551 43 43 41
-67.6597 -673.031 -1548 41 43 40
-64.2683 -671.686 -1545 42 45 42
-61.0877 -672.517 -1547 44 47 42
-57.9365 -673.784 -1550 42 43 39
-54.7731 -675.053 -1553 39 39 35
-51.664 -677.194 -1558 37 40 37
-48.441 -678.032 -1560 39 42 39
-45.1522 -678.003 -1560 39 42 39
-41.9711 -679.715 -1564 39 42 39
-38.6499 -679.256 -1563 38 41 38
-35.4237 -680.537 -1566 37 40 37
-32.1442 -680.95 -1567 38 41 38
-28.9159 -682.67 -1571 37 40 37
-25.5897 -682.218 -1570 38 41 38
-22.3104 -683.073 -1572 40 43 40
-19.0107 -683.495 -1573 41 44 41
-15.7269 -684.787 -1576 41 44 41
-12.4229 -685.648 -1578 38 41 38
-9.13942 -688.683 -1585 39 42 39
-5.81535 -690.416 -1589 38 41 38
-2.47158 -691.282 -1591 38 41 38
0.880807 -692.151 -1593 37 40 37
4.24408 -693.456 -1596 37 40 37
7.60573 -693.46 -1596 37 39 39
10.9676 -693.466 -1596 37 39 38
14.3653 -695.212 -1600 38 40 39
17.7359 -695.222 -1600 38 41 38
21.1593 -696.972 -1604 37 40 37
24.5691 -697.855 -1606 37 40 37
28.0572 -700.478 -1612 36 39 36
31.5122 -701.8 -1615 37 40 37
34.9803 -703.125 -1618 34 37 34
38.5088 -705.32 -1623 33 36 33
42.1103 -708.387 -1630 35 38 35
45.8534 -713.195 -1641 37 40 37
50.8755 -735.825 -1693 40 43 38
56.471 -763.24 -1756 37 40 37
60.7563 -770.666 -1773 33 36 33
65.405 -781.572 -1798 33 35 35
69.9674 -790.308 -1818 34 37 35
74.6957 -799.916 -1840 38 42 39
-160.207 -742.284 -1694 51 53 54
-154.386 -731.67 -1670 40 42 42
-149.572 -725.442 -1656 38 40 40
-145.789 -724.036 -1653 37 39 39
-141.59 -720.442 -1645 38 40 40
-137.678 -718.166 -1640 38 40 40
-133.543 -714.578 -1632 38 41 40
-129.522 -711.432 -1625 35 38 37
-125.455 -707.85 -1617 34 38 35
-121.876 -706.897 -1615 37 41 38
-118.16 -705.072 -1611 39 42 39
-114.533 -703.687 -1608 40 43 40
-110.851 -701.866 -1604 38 41 38
-107.387 -701.361 -1603 36 39 36
-103.41 -697.358 -1594 38 41 38
-99.723 -695.107 -1589 38 41 38
-95.9366 -691.985 -1582 39 42 39
-92.1222 -688.427 -1574 41 41 39
-88.5117 -686.184 -1569 41 43 40
-84.8145 -683.069 -1562 42 45 42
-81.5651 -683.455 -1563 40 43 40
-77.9618 -680.782 -1557 39 42 39
-74.6244 -680.297 -1556 39 42 39
-71.1083 -678.066 -1551 42 42 40
-67.7015 -676.711 -1548 41 43 40
-64.3081 -675.359 -1545 42 45 42
-61.165 -676.631 -1548 44 47 42
-57.9723 -677.469 -1550 41 43 38
-54.8424 -679.182 -1554 37 37 33
-51.6627 -680.46 -1557 36 39 36
-48.4088 -680.866 -1558 39 42 39
-45.1222 -680.837 -1558 39 42 39
-41.8896 -681.684 -1560 38 41 38
-38.6242 -682.096 -1561 38 41 38
-35.3551 -682.51 -1562 38 41 38
-32.123 -683.8 -1565 38 42 39
-28.8786 -685.092 -1568 38 41 38
-25.5891 -685.512 -1569 39 42 39
-22.3241 -686.808 -1572 41 44 41
-19.0224 -687.232 -1573 39 42 39
-15.7167 -687.658 -1574 38 41 38
-12.4148 -688.523 -1576 40 41 39
-9.11605 -690.264 -1580 40 41 39
-5.80793 -692.881 -1586 39 42 39
-2.47146 -694.626 -1590 39 42 39
0.881855 -696.373 -1594 38 41 38
4.24406 -696.811 -1595 37 40 37
7.61527 -697.689 -1597 37 39 38
10.9743 -697.258 -1596 37 39 37
14.3654 -698.576 -1599 37 39 37
17.758 -699.46 -1601 35 38 35
21.1725 -700.783 -1604 35 38 35
24.5843 -701.671 -1606 34 37 34
28.0746 -704.309 -1612 35 38 35
31.5318 -705.638 -1615 35 38 35
34.9803 -706.533 -1617 34 37 34
38.4852 -708.303 -1621 35 38 35
42.0589 -710.95 -1627 35 38 35
45.7701 -715.347 -1637 37 40 37
50.3056 -731.109 -1673 40 43 39
56.152 -762.607 -1745 36 39 36
61.0683 -778.377 -1781 30 33 30
65.482 -786.283 -1799 31 33 33
69.9722 -794.192 -1817 35 38 35
-154.575 -736.099 -1671 42 44 44
-149.666 -729.397 -1656 39 41 41
-145.704 -727.102 -1651 37 39 39
-141.851 -725.25 -1647 38 40 40
-137.764 -722.08 -1640 39 41 41
-133.462 -717.593 -1630 38 41 40
-129.763 -716.19 -1627 36 39 38
-125.534 -711.708 -1617 36 39 36
-121.877 -710.31 -1614 38 41 38
-118.307 -709.355 -1612 40 43 40
-114.605 -707.522 -1608 40 43 40
-110.92 -705.692 -1604 39 42 39
-107.119 -702.984 -1598 38 41 38
-103.604 -702.038 -1596 38 41 38
-99.6596 -698.016 -1587 38 41 38
-95.9963 -695.756 -1582 41 44 41
-92.0039 -690.859 -1571 40 42 41
-88.4539 -689.044 -1567 39 42 40
-84.813 -686.352 -1561 39 42 39
-81.616 -687.179 -1563 40 43 40
-78.1607 -685.81 -1560 39 42 39
-74.7668 -684.883 -1558 39 42 39
-71.2444 -682.64 -1553 40 42 40
-67.8313 -681.278 -1550 41 44 41
-64.4731 -680.357 -1548 41 44 41
-61.2821 -681.197 -1550 43 46 41
-58.1581 -682.918 -1554 42 43 39
-54.9118 -683.322 -1555 37 37 33
-51.6948 -684.168 -1557 35 38 35
-48.47 -685.015 -1559 38 41 38
-45.1792 -684.986 -1559 39 42 39
-41.8888 -684.959 -1559 38 41 38
-38.574 -684.494 -1558 39 42 39
-35.3996 -686.668 -1563 38 41 38
-32.1429 -687.526 -1565 37 43 39
-28.8965 -688.825 -1568 38 43 40
-25.605 -689.247 -1569 39 42 39
-22.3521 -690.989 -1573 41 44 41
-19.0221 -690.537 -1572 39 42 39
-15.7364 -691.844 -1575 37 40 37
-12.4225 -692.274 -1576 39 39 37
-9.12173 -694.025 -1580 39 40 38
-5.80051 -695.338 -1583 39 42 39
-2.47135 -697.971 -1589 39 42 39
0.880896 -698.849 -1591 38 41 38
4.24138 -699.729 -1593 36 39 36
7.61053 -700.611 -1595 36 39 36
10.9882 -701.496 -1597 38 41 38
14.3833 -702.822 -1600 39 42 39
17.7579 -702.832 -1600 37 40 37
21.212 -705.48 -1606 35 38 35
24.661 -707.251 -1610 34 37 34
28.1095 -708.585 -1613 35 38 35
31.5905 -710.361 -1617 36 39 36
35.0887 -712.139 -1621 36 39 36
38.5328 -712.602 -1622 37 40 37
42.0075 -713.505 -1624 36 39 36
45.7706 -718.805 -1636 38 41 38
50.4273 -736.41 -1676 39 42 39
55.994 -764.126 -1739 38 41 38
60.6948 -777.344 -1769 32 35 33
65.5593 -791.007 -1800 32 34 34
70.17 -800.278 -1821 35 38 36
-154.487 -739.212 -1669 42 44 44
-149.579 -732.473 -1654 39 41 41
-145.619 -730.166 -1649 35 39 38
-141.681 -727.861 -1644 35 38 37
-137.766 -725.56 -1639 37 39 39
-133.546 -721.49 -1630 37 40 38
-129.365 -717.424 -1621 36 39 36
-125.69 -716.016 -1618 36 39 36
-121.878 -713.726 -1613 38 41 38
-118.382 -713.208 -1612 39 42 39
-114.676 -711.364 -1608 42 45 42
-110.99 -709.524 -1604 41 44 41
-107.455 -708.571 -1602 40 43 40
-103.604 -705.408 -1595 40 43 40
-100.162 -704.902 -1594 41 44 41
-96.1173 -699.976 -1583 41 44 41
-92.2374 -695.937 -1574 41 43 42
-88.7353 -694.554 -1571 40 43 40
-85.0836 -691.847 -1565 41 44 40
-81.6671 -690.91 -1563 40 43 40
-78.2597 -689.976 -1561 40 42 40
-74.8616 -689.044 -1559 41 43 42
-71.3348 -686.788 -1554 41 44 41
-67.9175 -685.419 -1551 42 45 42
-64.5134 -684.051 -1548 43 46 43
-61.2809 -684.454 -1549 42 45 40
-58.157 -686.184 -1553 41 42 38
-54.9814 -687.474 -1556 38 38 34
-51.8269 -689.207 -1560 35 38 35
-48.5315 -689.176 -1560 38 41 38
-45.2365 -689.146 -1560 40 43 40
-41.915 -688.678 -1559 40 43 40
-38.6724 -689.536 -1561 38 41 38
-35.4218 -690.396 -1563 36 39 36
-32.1836 -691.7 -1566 35 39 36
-28.933 -693.006 -1569 38 42 39
-25.6536 -693.872 -1571 39 42 39
-22.3803 -695.182 -1574 40 43 40
-19.0339 -694.286 -1572 39 42 39
-15.7263 -694.717 -1573 38 42 39
-12.4064 -694.708 -1573 38 38 36
-9.10434 -696.026 -1576 39 40 37
-5.78943 -697.346 -1579 39 42 39
-2.46521 -699.552 -1584 39 42 39
0.88195 -703.085 -1592 37 40 37
4.24424 -703.528 -1593 36 39 36
7.62012 -704.857 -1596 36 39 36
11.002 -705.746 -1598 39 42 39
14.3925 -706.637 -1600 39 42 39
17.7691 -706.647 -1600 38 41 38
21.2121 -708.868 -1605 35 38 35
24.6306 -709.765 -1607 35 38 35
28.0923 -711.549 -1611 35 38 35
31.5321 -712.451 -1613 37 40 37
35.0241 -714.239 -1617 36 39 36
38.4144 -713.82 -1616 36 39 36
41.9304 -715.612 -1620 37 40 37
45.6873 -720.941 -1632 39 42 39
55.7711 -764.74 -1731 40 43 40
60.8014 -782.449 -1771 34 37 34
65.6732 -796.185 -1802 33 35 35
70.2911 -805.506 -1823 36 39 36
-160.793 -755.783 -1697 52 54 56
-154.678 -743.658 -1670 41 43 43
-149.854 -737.328 -1656 39 41 41
-145.711 -734.118 -1649 35 38 37
-141.598 -730.911 -1642 35 38 38
-137.938 -729.932 -1640 37 39 39
-133.795 -726.285 -1632 38 41 39
-129.687 -722.642 -1624 38 41 38
-125.77 -719.891 -1618 37 40 37
-122.03 -718.033 -1614 37 40 37
-118.309 -716.177 -1610 37 40 37
-114.82 -715.659 -1609 41 44 41
-110.921 -712.474 -1602 40 43 40
-107.388 -711.515 -1600 40 43 40
-103.8 -710.115 -1597 41 44 41
-100.099 -707.827 -1592 42 45 42
-96.2387 -704.208 -1584 42 45 42
-92.2956 -699.703 -1574 41 44 41
-88.7347 -697.868 -1570 42 45 40
-85.1372 -695.59 -1565 43 46 41
-81.7709 -695.093 -1564 40 43 40
-78.3091 -693.709 -1561 41 43 42
-75.0048 -693.661 -1561 43 45 45
-71.4257 -690.948 -1555 43 46 43
-67.9165 -688.683 -1550 43 46 43
-64.5958 -688.197 -1549 43 46 43
-61.3591 -688.601 -1550 43 46 41
-58.2311 -690.34 -1554 41 43 38
-55.0514 -691.637 -1557 39 39 35
-51.793 -692.048 -1558 36 39 36
-48.4997 -692.016 -1558 40 43 40
-45.2068 -691.986 -1558 42 45 42
-41.9144 -691.959 -1558 40 43 40
-38.6472 -692.378 -1559 38 41 38
-35.4668 -694.575 -1564 36 39 36
-32.2244 -695.886 -1567 35 39 36
-28.9696 -697.199 -1570 37 41 38
-25.6697 -697.626 -1571 38 41 38
-22.3943 -698.943 -1574 40 43 40
-19.0459 -698.042 -1572 39 42 39
-15.7261 -698.031 -1572 39 42 39
-12.4222 -698.91 -1574 39 39 37
-9.11584 -700.235 -1577 39 40 37
-5.79668 -701.563 -1580 38 41 38
-2.46666 -703.336 -1584 39 42 39
0.880789 -705.556 -1589 38 41 38
4.24424 -706.89 -1592 36 39 36
7.62496 -708.669 -1596 36 39 36
11.0091 -709.563 -1598 38 41 38
14.4105 -710.904 -1601 37 40 37
17.8138 -711.802 -1603 36 39 36
21.2653 -714.035 -1608 36 39 36
24.6613 -714.049 -1608 34 37 34
28.1625 -716.73 -1614 35 38 34
31.6499 -718.525 -1618 37 40 36
35.0245 -717.658 -1616 35 38 35
38.4386 -717.682 -1616 36 39 36
41.9826 -719.928 -1621 37 40 37
45.7442 -725.285 -1633 38 41 38
50.0691 -738.196 -1662 41 44 41
55.2584 -761.326 -1714 39 42 39
60.5993 -783.572 -1764 34 37 34
65.7876 -801.381 -1804 33 36 33
70.4511 -811.197 -1826 35 38 35
-155.054 -749.013 -1673 38 40 40
-150.04 -741.752 -1657 39 41 41
-145.892 -738.525 -1650 37 40 40
-141.861 -735.748 -1644 36 40 39
-137.941 -733.421 -1639 37 39 39
-133.798 -729.755 -1631 37 40 38
-129.929 -727.434 -1626 37 40 37
-125.927 -724.221 -1619 37 40 37
-122.259 -722.8 -1616 37 40 37
-118.752 -722.276 -1615 38 41 38
-115.036 -720.412 -1611 39 42 39
-111.269 -718.105 -1606 37 40 37
-107.658 -716.694 -1603 39 42 39
-103.931 -714.391 -1598 40 43 40
-100.226 -712.091 -1593 40 43 40
-96.2997 -708.005 -1584 41 44 41
-92.4715 -704.37 -1576 42 45 42
-88.791 -701.63 -1570 42 45 41
-85.1368 -698.894 -1564 42 45 40
-81.7703 -698.394 -1563 41 44 41
-78.2583 -696.556 -1559 40 43 41
-74.9563 -696.507 -1559 42 44 44
-71.4251 -694.227 -1554 43 46 43
-68.0472 -693.289 -1552 43 46 43
-64.6367 -691.907 -1549 42 45 42
-61.3979 -692.313 -1550 40 43 38
-58.193 -693.169 -1552 39 41 36
-55.0509 -694.919 -1556 40 40 36
-51.8257 -695.778 -1558 38 41 38
-48.5304 -695.747 -1558 40 43 40
-45.2065 -695.27 -1557 40 43 40
-41.9948 -696.582 -1560 40 43 40
-38.6468 -695.664 -1558 38 41 38
-35.5118 -698.766 -1565 35 38 35
-32.2653 -700.084 -1568 33 37 34
-28.9879 -700.957 -1570 37 40 37
-25.7023 -701.833 -1572 38 41 38
-22.4084 -702.71 -1574 39 42 39
-19.0579 -701.805 -1572 40 43 40
-15.726 -701.347 -1571 39 42 39
-12.4222 -702.231 -1573 41 41 39
-9.11002 -703.117 -1575 39 40 38
-5.79662 -704.898 -1579 38 41 38
-2.46812 -707.128 -1584 40 43 40
0.882607 -710.252 -1591 39 42 39
4.24958 -711.147 -1593 38 41 38
7.62982 -712.49 -1596 36 39 36
11.0092 -712.942 -1597 37 40 37
14.4017 -713.843 -1599 37 40 37
17.7917 -714.3 -1600 35 38 35
21.2259 -716.098 -1604 35 38 35
24.6771 -717.898 -1608 34 37 34
28.1278 -719.255 -1611 36 39 34
31.5723 -720.167 -1613 35 38 34
35.0685 -721.974 -1617 33 36 31
38.4394 -721.104 -1615 36 39 36
42.061 -724.702 -1623 37 40 37
45.6612 -727.409 -1629 39 42 39
50.1309 -742.622 -1663 40 43 40
55.6805 -770.789 -1726 39 42 38
60.7067 -788.69 -1766 35 38 33
65.7564 -804.808 -1802 35 38 35
70.6502 -817.357 -1830 35 38 35
-161.094 -764.394 -1698 54 55 57
-155.061 -752.589 -1672 36 38 38
-150.136 -745.74 -1657 36 38 38
-146.074 -742.944 -1651 37 40 39
-142.211 -741.052 -1647 40 43 42
-137.692 -735.563 -1635 38 40 40
-133.883 -733.677 -1631 37 40 38
-130.012 -731.343 -1626 36 39 36
-126.008 -728.113 -1619 36 39 36
-122.262 -726.235 -1615 37 40 37
-118.754 -725.707 -1614 37 40 37
-115.11 -724.284 -1611 38 41 38
-111.409 -722.413 -1607 37 40 37
