ply
format ascii 1.0
comment Created by Open3D
element vertex 1464
property double x
property double y
property double z
property uchar red
property uchar green
property uchar blue
end_header
-159.091 -905.313 -1583 46 46 44
-154.902 -901.179 -1576 43 43 41
-150.841 -897.62 -1570 38 38 36
-146.997 -895.209 -1566 36 36 34
-143.354 -893.944 -1564 36 37 35
-139.633 -892.112 -1561 37 40 37
-135.838 -889.71 -1557 37 40 37
-132.233 -888.456 -1555 39 42 39
-128.638 -887.204 -1553 39 42 39
-124.892 -884.813 -1549 39 42 39
-121.478 -884.71 -1549 40 43 40
-117.989 -884.039 -1548 40 43 40
-114.654 -884.513 -1549 39 42 39
-111.1 -883.277 -1547 38 41 38
-107.765 -883.756 -1548 37 40 37
-104.021 -880.814 -1543 39 42 37
-100.562 -880.157 -1542 41 41 37
-96.9193 -877.792 -1538 40 40 36
-93.599 -878.283 -1539 40 40 36
-90.1579 -877.636 -1538 37 37 33
-86.835 -878.133 -1539 38 40 36
-83.3458 -876.921 -1537 37 40 35
-80.0743 -877.994 -1539 37 40 35
-76.5955 -876.787 -1537 38 41 36
-73.2691 -877.295 -1538 40 43 38
-70.0754 -879.517 -1542 40 43 38
-66.9512 -882.883 -1548 38 41 34
-64.0068 -889.102 -1559 37 40 33
-61.0923 -896.463 -1572 36 39 32
-58.0113 -902.116 -1582 35 38 31
-54.9216 -908.342 -1593 37 40 33
-51.6228 -911.718 -1599 37 40 33
-48.2681 -914.528 -1604 37 38 31
-44.836 -916.199 -1607 35 36 29
-41.4171 -918.444 -1611 34 35 28
-37.9573 -920.121 -1614 34 35 28
-34.4636 -921.231 -1616 33 34 27
-30.9614 -922.344 -1618 34 35 28
-27.4337 -922.89 -1619 34 35 28
-23.8725 -922.299 -1618 35 35 31
-20.3409 -922.85 -1619 36 36 32
-16.7844 -922.265 -1618 35 35 31
-13.249 -922.822 -1619 35 35 31
-9.6971 -922.243 -1618 37 37 33
-6.15752 -922.807 -1619 37 37 33
-2.61177 -922.803 -1619 36 36 32
0.935473 -924.512 -1622 36 36 32
4.49331 -925.655 -1624 36 36 32
8.07482 -928.51 -1629 37 37 33
11.6709 -930.798 -1633 37 37 33
15.2568 -931.379 -1634 36 37 32
18.8934 -934.244 -1639 33 36 31
22.5245 -935.971 -1642 33 36 31
26.1053 -935.421 -1641 37 36 32
29.7545 -937.155 -1644 36 34 30
33.3766 -937.751 -1645 48 46 42
-171.14 -917.443 -1596 49 47 45
-167.498 -916.725 -1595 47 45 43
-163.244 -912.563 -1588 47 47 45
-159.124 -908.98 -1582 44 44 42
-155.13 -905.975 -1577 41 41 39
-151.16 -902.974 -1572 39 39 37
-147.12 -899.402 -1566 37 37 35
-143.291 -896.983 -1562 36 37 35
-139.75 -896.29 -1561 35 38 35
-136.04 -894.451 -1558 36 39 36
-132.429 -893.19 -1556 38 41 38
-128.912 -892.506 -1555 40 43 40
-124.996 -888.956 -1549 41 44 41
-121.501 -888.279 -1548 40 43 40
-118.164 -888.752 -1549 39 42 39
-114.824 -889.228 -1550 40 43 40
-111.193 -887.412 -1547 38 41 38
-107.646 -886.173 -1545 39 42 38
-104.041 -884.364 -1542 38 41 36
-100.581 -883.705 -1541 41 41 37
-97.0634 -882.475 -1539 41 41 37
-93.7381 -882.968 -1540 39 39 35
-90.2333 -881.744 -1538 38 38 34
-86.8511 -881.67 -1538 39 42 37
-83.4697 -881.599 -1538 40 43 38
-80.1412 -882.103 -1539 40 40 36
-76.7094 -881.465 -1538 38 41 36
-73.4257 -882.548 -1540 38 41 36
-70.1793 -884.207 -1543 37 40 35
-67.0505 -887.588 -1549 36 39 34
-63.978 -892.117 -1557 35 38 33
-61.1433 -900.659 -1572 36 39 32
-58.0966 -906.911 -1583 36 39 32
-54.864 -910.874 -1590 36 39 34
-51.5043 -913.121 -1594 36 39 34
-48.3083 -918.807 -1604 37 38 31
-44.8456 -919.914 -1606 35 36 29
-41.3743 -921.024 -1608 35 36 29
-37.9419 -923.282 -1612 36 37 30
-34.4496 -924.397 -1614 35 36 29
-30.9488 -925.515 -1616 33 34 27
-27.4395 -926.636 -1618 32 33 26
-23.8775 -926.042 -1617 33 33 29
-20.3578 -927.169 -1619 35 35 31
-16.7776 -925.435 -1616 36 36 32
-13.2435 -925.996 -1617 35 35 31
-9.69907 -925.986 -1617 35 35 31
-6.17015 -928.27 -1621 35 35 31
-2.61706 -928.267 -1621 35 35 31
0.936937 -929.411 -1623 35 35 31
4.50547 -931.704 -1627 34 35 31
8.07647 -932.282 -1628 35 37 32
11.6664 -934.008 -1631 35 38 33
15.2696 -935.738 -1634 35 37 32
18.8977 -938.043 -1638 33 36 31
22.5296 -939.778 -1641 33 36 31
26.0794 -938.081 -1638 35 35 31
29.6888 -938.677 -1639 38 37 33
-174.389 -919.567 -1592 51 49 47
-171.285 -921.731 -1596 48 46 44
-167.744 -921.588 -1596 48 46 45
-163.999 -920.293 -1594 48 48 46
-159.661 -915.537 -1586 43 43 41
-155.655 -912.518 -1581 40 40 38
-151.769 -910.079 -1577 40 40 38
-147.338 -904.182 -1567 40 40 38
-143.504 -901.751 -1563 38 39 37
-139.957 -901.055 -1562 37 40 37
-136.242 -899.208 -1559 38 41 38
-132.626 -897.941 -1557 39 42 39
-129.02 -896.676 -1555 41 44 41
-125.263 -894.263 -1551 41 44 41
-121.682 -893.006 -1549 39 42 39
-118.111 -891.751 -1547 38 41 38
-114.772 -892.229 -1548 36 39 36
-111.215 -890.982 -1546 37 40 36
-107.736 -890.313 -1545 38 41 37
-104.196 -889.071 -1543 38 41 36
-100.666 -887.832 -1541 40 40 36
-97.0819 -886.021 -1538 40 40 36
-93.756 -886.517 -1539 39 39 35
-90.1917 -884.711 -1536 37 37 33
-86.811 -884.636 -1536 39 41 36
-83.4313 -884.565 -1536 41 44 39
-80.1565 -885.648 -1538 42 42 38
-76.7738 -885.581 -1538 40 43 38
-73.4873 -886.67 -1540 38 41 36
-70.2383 -888.336 -1543 36 39 34
-67.1501 -892.308 -1550 35 38 33
-64.0317 -896.283 -1557 37 40 34
-61.0778 -903.138 -1569 38 41 34
-58.0718 -909.995 -1581 37 40 33
-54.8755 -914.552 -1589 36 38 32
-51.6769 -919.687 -1598 38 38 34
-48.3187 -922.523 -1603 38 39 32
-44.8552 -923.634 -1605 37 38 31
-41.4348 -925.9 -1609 37 38 31
-37.9737 -927.593 -1612 35 36 29
-34.4571 -928.138 -1613 36 37 30
-30.9555 -929.261 -1615 33 34 27
-27.4626 -930.963 -1618 31 32 25
-23.9271 -931.517 -1619 33 33 29
-20.4 -932.649 -1621 35 35 31
-16.8332 -932.058 -1620 35 35 31
-13.2792 -932.045 -1620 33 33 29
-9.73129 -932.611 -1621 34 34 30
-6.179 -933.18 -1622 35 35 31
-2.62237 -933.751 -1623 34 34 30
0.938405 -934.326 -1624 31 33 28
4.51211 -936.63 -1628 32 34 29
8.08829 -937.211 -1629 33 36 31
11.6763 -938.369 -1631 34 37 32
15.2732 -939.531 -1633 34 37 32
18.8905 -941.272 -1636 35 38 33
22.4661 -940.714 -1635 34 37 32
25.9899 -938.433 -1631 35 36 31
29.5506 -937.881 -1630 38 38 33
-171.215 -924.87 -1594 48 46 46
-167.466 -923.566 -1592 50 47 48
-163.83 -922.845 -1591 48 48 46
-159.696 -919.227 -1585 44 44 42
-155.787 -916.773 -1581 40 41 39
-151.512 -912.004 -1573 37 40 37
-147.651 -909.558 -1569 38 38 36
-143.717 -906.536 -1564 38 39 37
-139.717 -902.938 -1558 37 40 37
-136.27 -902.821 -1558 36 40 37
-132.653 -901.548 -1556 37 40 37
-128.963 -899.699 -1553 36 39 36
-125.288 -897.853 -1550 37 40 37
-121.785 -897.169 -1549 39 42 39
-118.44 -897.646 -1550 40 43 40
-114.721 -895.231 -1546 38 41 38
-111.237 -894.556 -1545 38 41 36
-107.827 -894.463 -1545 40 43 38
-104.217 -892.636 -1542 41 44 39
-100.751 -891.97 -1541 42 42 38
-97.2272 -890.729 -1539 41 41 37
-93.7133 -889.491 -1537 40 40 36
-90.3267 -889.413 -1537 38 38 34
-86.941 -889.338 -1537 41 42 38
-83.5017 -888.687 -1536 43 44 40
-80.2763 -890.353 -1539 40 40 36
-76.8886 -890.287 -1539 40 42 38
-73.5971 -891.38 -1541 40 43 38
-70.3887 -893.633 -1545 38 41 36
-67.2067 -896.467 -1550 36 39 34
-64.2504 -902.773 -1561 37 40 34
-61.3242 -910.238 -1574 37 40 33
-58.0105 -912.5 -1578 36 39 32
-54.8872 -918.235 -1588 36 37 32
-51.5586 -921.081 -1593 36 36 32
-48.2689 -925.087 -1600 38 39 32
-44.8091 -926.203 -1602 40 41 34
-41.4181 -929.058 -1607 37 38 31
-37.9349 -930.18 -1609 34 35 28
-34.4647 -931.884 -1612 34 35 28
-30.9625 -933.013 -1614 32 33 26
-27.4857 -935.3 -1618 32 33 26
-23.9472 -935.857 -1619 34 35 28
-20.4172 -936.994 -1621 35 35 30
-16.8473 -936.4 -1620 35 35 31
-13.3067 -937.544 -1622 34 34 30
-9.75135 -938.112 -1623 33 33 29
-6.19551 -939.261 -1625 35 35 31
-2.62953 -939.836 -1626 33 33 29
0.940456 -939.835 -1626 30 33 28
4.52155 -942.15 -1630 31 34 29
8.10036 -942.155 -1630 32 35 30
11.6933 -943.319 -1632 32 35 30
15.2861 -943.909 -1633 34 37 32
18.9066 -945.657 -1636 35 38 33
22.5128 -946.253 -1637 35 38 33
25.9959 -942.227 -1630 36 35 30
29.5575 -941.673 -1629 39 38 32
-171.899 -932.09 -1599 48 45 45
-167.819 -929.03 -1594 48 45 46
-164.072 -927.722 -1592 46 46 46
-160.134 -925.253 -1588 43 43 41
-156.019 -921.622 -1582 40 41 38
-151.545 -915.666 -1572 35 38 35
-147.306 -910.878 -1564 37 37 35
-143.84 -910.754 -1564 38 39 37
-139.926 -907.722 -1559 38 41 38
-136.386 -907.021 -1558 36 40 37
-132.68 -905.16 -1555 36 39 36
-129.239 -905.048 -1555 35 38 35
-125.395 -902.03 -1550 37 40 37
-121.889 -901.342 -1549 40 43 40
-118.464 -901.24 -1549 39 42 39
-114.893 -899.977 -1547 38 41 38
-111.331 -898.717 -1545 39 42 37
-107.779 -897.46 -1543 39 42 37
-104.238 -896.206 -1541 39 43 38
-100.836 -896.119 -1541 42 44 39
-97.373 -895.453 -1540 41 42 37
-93.8539 -894.209 -1538 39 39 34
-90.4622 -894.131 -1538 38 38 34
-86.9582 -892.893 -1536 41 41 37
-83.5181 -892.239 -1535 43 43 39
-80.1879 -892.75 -1536 40 40 36
-76.8539 -893.265 -1537 41 44 39
-73.6118 -894.944 -1540 43 46 41
-70.3572 -896.626 -1543 41 44 39
-67.2637 -900.635 -1550 38 41 36
-64.1812 -905.227 -1558 36 39 34
-61.2982 -913.308 -1572 36 39 33
-58.0964 -917.324 -1579 33 36 29
-54.9337 -922.505 -1588 34 35 30
-51.6023 -925.364 -1593 36 36 32
-48.3099 -929.388 -1600 37 38 31
-44.8471 -930.51 -1602 37 38 31
-41.4533 -933.377 -1607 36 37 30
-37.9906 -935.086 -1610 37 35 29
-34.5153 -936.797 -1613 33 34 27
-30.9886 -937.35 -1614 32 33 26
-27.4919 -939.068 -1617 32 33 25
-23.9527 -939.627 -1618 33 34 27
-20.4471 -941.931 -1622 35 35 30
-16.8928 -942.496 -1623 35 35 31
-13.3426 -943.645 -1625 34 34 30
-9.78371 -944.796 -1627 34 34 30
-6.20846 -944.79 -1627 35 35 31
-2.63325 -944.786 -1627 34 34 30
0.943092 -945.946 -1629 31 34 29
4.52824 -947.11 -1631 30 33 28
8.11225 -947.116 -1631 30 33 28
11.7035 -947.705 -1632 31 34 29
15.2992 -948.297 -1633 32 35 30
18.8995 -948.892 -1634 33 36 31
22.518 -950.072 -1636 33 36 31
26.05 -947.769 -1632 35 35 30
29.5827 -946.051 -1629 40 39 35
-172.046 -936.419 -1599 44 42 40
-168.068 -933.93 -1595 46 44 42
-164.316 -932.616 -1593 40 40 40
-159.969 -927.794 -1585 38 38 37
-155.856 -924.146 -1579 39 39 37
-151.579 -919.332 -1571 36 39 36
-147.904 -918.033 -1569 39 39 37
-143.687 -913.227 -1561 40 41 38
-140.135 -912.521 -1560 40 43 40
-136.415 -910.647 -1557 38 42 39
-132.709 -908.777 -1554 36 40 37
-129.184 -908.08 -1553 37 40 37
-125.583 -906.802 -1551 38 41 38
-121.914 -904.942 -1548 39 42 39
-118.413 -904.254 -1547 39 42 39
-114.917 -903.57 -1546 37 40 37
-111.354 -902.304 -1544 38 41 37
-107.802 -901.041 -1542 38 41 36
-104.394 -900.95 -1542 39 42 37
-100.857 -899.694 -1540 40 42 37
-97.4562 -899.609 -1540 39 40 35
-94.1784 -900.695 -1542 40 40 34
-90.6572 -899.448 -1540 39 39 35
-87.089 -897.62 -1537 44 44 40
-83.6983 -897.547 -1537 44 44 40
-80.3085 -897.477 -1537 40 40 37
-76.9695 -897.993 -1538 39 40 36
-73.6746 -899.097 -1540 40 42 37
-70.5085 -901.954 -1545 38 41 35
-67.4948 -907.149 -1554 38 41 35
-64.3597 -911.179 -1561 37 40 34
-61.3504 -917.546 -1572 35 38 32
-58.2196 -922.748 -1581 33 36 29
-54.9805 -926.784 -1588 34 35 29
-51.6139 -929.074 -1592 35 35 30
-48.3509 -933.699 -1600 36 37 30
-44.8572 -934.243 -1601 36 37 30
-41.4628 -937.124 -1606 36 37 30
-38.023 -939.424 -1610 35 35 29
-34.5232 -940.56 -1612 35 36 28
-30.9958 -941.116 -1613 34 34 28
-27.4983 -942.841 -1616 34 32 27
-23.973 -943.986 -1618 34 33 28
-20.4392 -945.134 -1620 35 34 29
-16.9176 -947.452 -1624 33 34 27
-13.3621 -948.606 -1626 33 33 29
-9.79787 -949.762 -1628 31 32 26
-6.22122 -950.339 -1629 32 33 26
-2.63698 -949.752 -1628 33 34 27
0.943998 -950.335 -1629 32 35 30
4.53216 -951.504 -1631 31 34 29
8.12418 -952.093 -1632 30 33 28
11.7135 -952.102 -1632 31 34 29
15.331 -953.863 -1635 33 36 31
18.9273 -953.878 -1635 33 36 31
22.5649 -955.646 -1638 33 36 31
26.0723 -952.166 -1632 36 36 32
29.5898 -949.856 -1628 41 40 37
-173.702 -948.995 -1613 41 41 39
-169.057 -942.965 -1603 40 41 37
-164.871 -939.291 -1597 38 40 38
-160.309 -933.269 -1587 38 40 38
-155.892 -927.841 -1578 39 41 38
-151.709 -923.592 -1571 39 41 41
-147.654 -919.936 -1565 38 39 35
-143.995 -918.635 -1563 38 39 35
-140.166 -916.161 -1559 39 42 39
-136.62 -915.454 -1558 38 42 39
-132.994 -914.163 -1556 36 40 37
-129.211 -911.7 -1552 37 40 37
-125.367 -908.653 -1547 38 41 38
-121.861 -907.959 -1546 38 41 38
-118.285 -906.681 -1544 38 41 38
-114.792 -905.993 -1543 39 42 37
-111.233 -904.722 -1541 39 42 37
-107.754 -904.041 -1540 41 43 39
-104.281 -903.362 -1539 42 42 38
-100.878 -903.274 -1539 40 40 36
-97.6665 -904.949 -1542 37 37 33
-94.137 -903.693 -1540 37 37 33
-90.735 -903.613 -1540 37 37 33
-87.2205 -902.363 -1538 44 44 40
-83.7702 -901.703 -1537 45 45 41
-80.3251 -901.046 -1536 41 41 39
-76.9853 -901.565 -1537 40 40 37
-73.6899 -902.673 -1539 39 39 35
-70.3862 -903.784 -1541 38 41 34
-67.2049 -906.658 -1546 37 40 33
-64.0847 -910.706 -1553 37 40 33
-61.2858 -920.035 -1569 37 40 33
-58.3064 -927.606 -1582 36 39 32
-55.0969 -932.248 -1590 35 36 29
-51.7878 -935.72 -1596 37 38 31
-48.4529 -939.195 -1602 37 38 31
-44.9517 -939.741 -1603 36 37 30
-41.6015 -943.807 -1610 36 37 30
-38.1737 -946.704 -1615 37 38 31
-34.6171 -946.673 -1615 34 35 27
-31.0608 -946.645 -1615 34 34 27
-27.5218 -947.206 -1616 33 31 27
-23.9935 -948.356 -1618 34 32 28
-20.4692 -950.095 -1621 34 33 29
-16.932 -951.838 -1624 35 35 30
-13.3898 -954.169 -1628 33 33 29
-9.81832 -955.331 -1630 31 31 27
-6.23424 -955.911 -1631 30 31 26
-2.64235 -955.321 -1630 30 33 26
0.945486 -955.32 -1630 31 34 29
4.54445 -957.667 -1634 32 35 30
8.14113 -957.673 -1634 33 36 31
11.7307 -957.095 -1633 33 36 31
15.3349 -957.693 -1634 33 36 31
18.9668 -959.466 -1637 33 36 31
22.5981 -960.656 -1639 34 37 32
26.1426 -958.333 -1635 35 35 31
29.7245 -957.771 -1634 43 43 39
-173.53 -951.612 -1610 37 38 35
-168.887 -945.553 -1600 38 40 35
-164.6 -941.272 -1593 39 42 39
-160.246 -936.404 -1585 38 41 38
-156.126 -932.722 -1579 39 42 38
-151.744 -927.272 -1570 36 39 37
-147.876 -924.78 -1566 38 38 35
-144.211 -923.472 -1564 38 39 35
-140.107 -919.216 -1557 36 39 36
-136.387 -917.325 -1554 36 40 39
-132.852 -916.618 -1553 37 41 39
-129.156 -914.734 -1550 38 41 38
-125.394 -912.263 -1546 38 41 38
-121.809 -910.976 -1544 38 41 38
-118.463 -911.462 -1545 38 41 38
-114.817 -909.591 -1542 39 42 37
-111.402 -909.493 -1542 38 41 36
-107.847 -908.219 -1540 39 41 37
-104.371 -907.537 -1539 40 40 36
-100.9 -906.859 -1538 39 39 35
-97.6874 -908.542 -1541 38 38 34
-94.0958 -906.69 -1538 37 37 33
-90.8132 -907.789 -1540 38 38 34
-87.3525 -907.123 -1539 42 42 38
-83.8425 -905.87 -1537 42 42 38
-80.342 -904.62 -1535 41 41 38
-77.0016 -905.142 -1536 40 40 37
-73.6575 -905.666 -1537 40 41 36
-70.4012 -907.371 -1540 39 42 35
-67.2628 -910.847 -1546 36 39 32
-64.3051 -917.27 -1557 37 40 33
-61.534 -927.231 -1574 38 41 34
-58.2459 -930.125 -1579 36 39 32
-55.179 -937.144 -1591 36 38 31
-51.9623 -942.399 -1600 38 39 32
-48.4945 -943.534 -1602 38 39 32
-45.1307 -947.027 -1608 36 37 30
-41.6374 -948.168 -1610 36 37 30
-38.2302 -951.667 -1616 36 37 30
-34.6898 -952.224 -1617 35 36 29
-31.1452 -952.785 -1618 33 33 27
-27.6136 -953.937 -1620 32 32 28
-24.0586 -954.504 -1621 33 33 29
-20.4995 -955.073 -1622 34 34 30
-16.9674 -957.412 -1626 35 35 31
-13.3931 -957.988 -1627 33 33 29
-9.82676 -959.745 -1630 33 33 29
-6.23177 -959.149 -1629 34 34 30
-2.64308 -959.145 -1629 34 37 32
0.945238 -958.556 -1628 34 37 32
4.53729 -959.736 -1630 33 36 31
8.13818 -960.919 -1632 34 37 32
11.7338 -960.928 -1632 34 37 32
15.3858 -964.472 -1638 32 35 30
18.9831 -963.898 -1637 33 36 31
22.659 -966.861 -1642 32 35 30
26.2934 -967.471 -1643 35 35 31
29.9686 -969.262 -1646 44 43 40
-177.493 -957.345 -1612 36 36 34
-173.249 -953.629 -1606 38 38 36
-169.14 -950.511 -1601 40 40 36
-165.054 -947.397 -1596 38 41 38
-160.891 -943.693 -1590 35 38 34
-156.162 -936.433 -1578 36 39 34
-151.973 -932.145 -1571 34 37 34
-147.91 -928.454 -1565 37 38 34
-144.152 -926.547 -1562 38 38 34
-140.229 -923.457 -1557 36 39 36
-136.593 -922.15 -1555 36 40 37
-132.882 -920.254 -1552 37 40 38
-129.102 -917.768 -1548 38 41 38
-125.666 -917.657 -1548 38 41 38
-121.915 -915.179 -1544 39 42 39
-118.413 -914.481 -1543 39 42 39
-114.768 -912.602 -1540 39 42 37
-111.281 -911.911 -1539 38 41 36
-107.801 -911.223 -1538 38 41 36
-104.461 -911.723 -1539 40 40 36
-101.053 -911.634 -1539 39 39 35
-97.7722 -912.732 -1541 39 39 35
-94.3611 -912.648 -1541 40 40 36
-91.0101 -913.16 -1542 37 37 33
-87.4282 -911.306 -1539 40 40 36
-83.9697 -910.639 -1538 44 44 40
-80.5164 -909.976 -1537 42 42 38
-77.1185 -909.907 -1537 40 40 36
-73.7694 -910.434 -1538 40 40 35
-70.4622 -911.555 -1540 37 40 33
-67.3211 -915.047 -1546 36 39 32
-64.1955 -919.133 -1553 37 40 33
-61.3917 -928.547 -1569 37 40 33
-58.3702 -935.597 -1581 37 40 33
-55.2616 -942.057 -1592 36 38 31
-52.0398 -947.336 -1601 36 37 30
-48.5971 -949.067 -1604 37 38 31
-45.1979 -951.985 -1609 37 38 31
-41.7251 -953.722 -1612 37 38 31
-38.2396 -955.463 -1615 35 36 29
-34.7842 -958.389 -1620 34 35 28
-31.2107 -958.36 -1620 33 34 28
-27.6545 -958.927 -1621 34 34 30
-24.0646 -958.312 -1620 35 35 31
-20.5298 -960.068 -1623 35 35 31
-16.9716 -961.235 -1625 35 35 31
-13.4211 -963.587 -1629 34 34 30
-9.84127 -964.761 -1631 34 34 30
-6.23719 -963.571 -1629 34 35 31
-2.64846 -964.75 -1631 33 36 31
0.947678 -964.749 -1631 35 38 33
4.54683 -965.343 -1632 33 36 31
8.15542 -966.532 -1634 33 36 31
11.7585 -966.541 -1634 34 37 32
15.4087 -969.51 -1639 33 36 31
19.0346 -970.117 -1640 32 35 30
22.7065 -972.501 -1644 31 34 29
26.3642 -973.705 -1646 36 36 32
30.104 -977.279 -1652 44 43 40
-176.877 -957.579 -1605 40 40 38
-172.537 -953.25 -1598 39 39 36
-168.759 -951.907 -1596 39 39 35
-164.785 -949.375 -1592 38 39 37
-160.728 -946.251 -1587 36 38 35
-156.299 -940.746 -1578 34 37 32
-152.396 -938.226 -1574 35 36 34
-148.134 -933.325 -1566 37 37 34
-144.371 -931.409 -1563 39 39 35
-140.442 -928.305 -1558 37 40 37
-136.449 -924.609 -1552 37 40 37
-132.912 -923.896 -1551 38 41 38
-129.131 -921.398 -1547 38 41 38
-125.613 -920.691 -1546 39 42 39
-121.863 -918.201 -1542 40 43 39
-118.439 -918.096 -1542 40 43 38
-114.868 -916.803 -1540 38 41 36
-111.596 -917.894 -1542 41 44 39
-107.895 -915.418 -1538 41 44 39
-104.688 -917.11 -1541 38 41 36
-101.009 -914.64 -1537 38 38 34
-97.7304 -915.743 -1539 40 40 36
-94.3209 -915.659 -1539 39 39 35
-90.9122 -915.578 -1539 37 37 33
-87.4476 -914.905 -1538 40 40 36
-84.0428 -914.83 -1538 42 42 37
-80.5866 -914.164 -1537 41 41 37
-77.1857 -914.095 -1537 41 42 35
-73.8335 -914.623 -1538 41 42 35
-70.5694 -916.345 -1541 38 40 33
-67.4669 -920.447 -1548 36 38 31
-64.4582 -926.335 -1558 36 38 31
-61.4843 -933.414 -1570 37 39 32
-58.4949 -941.091 -1583 35 38 31
-55.2402 -945.202 -1590 35 37 30
-51.8899 -948.128 -1595 36 37 30
-48.7303 -955.217 -1607 36 37 30
-45.1809 -955.176 -1607 37 38 31
-41.7874 -958.705 -1613 37 38 31
-38.3202 -961.047 -1617 34 35 28
-34.8144 -962.798 -1620 34 35 28
-31.3149 -965.147 -1624 33 34 28
-27.7639 -966.31 -1626 35 35 31
-24.1747 -966.287 -1626 34 36 31
-20.5855 -966.268 -1626 33 35 30
-17.0177 -967.44 -1628 34 36 31
-13.441 -968.615 -1630 34 34 30
-9.8556 -969.794 -1632 32 34 29
-6.25007 -969.192 -1631 30 32 27
-2.65246 -969.782 -1632 32 35 30
0.949181 -969.782 -1632 34 37 32
4.55641 -970.973 -1634 32 35 30
8.1625 -970.979 -1634 32 35 30
11.7831 -972.176 -1636 34 37 32
15.4316 -974.565 -1640 34 37 32
19.0512 -974.58 -1640 34 37 32
22.7401 -977.57 -1645 34 37 32
26.3392 -976.402 -1643 35 35 31
30.0756 -979.993 -1649 44 43 40
-175.048 -951.193 -1587 41 41 39
-172.149 -954.635 -1593 39 39 36
-168.273 -952.687 -1590 37 37 33
-164.515 -951.342 -1588 38 38 36
-160.971 -951.199 -1588 38 39 36
-156.635 -946.267 -1580 35 38 33
-152.433 -941.939 -1573 35 35 33
-148.548 -939.411 -1569 37 37 34
-144.683 -936.887 -1565 40 40 36
-140.475 -931.973 -1557 40 43 40
-136.745 -930.055 -1554 40 43 39
-133.115 -928.739 -1552 39 42 38
-129.328 -926.23 -1548 39 42 39
-125.804 -925.52 -1547 39 42 38
-122.049 -923.018 -1543 40 43 38
-118.62 -922.912 -1543 38 41 36
-114.969 -921.015 -1540 37 40 35
-111.621 -921.513 -1541 39 42 37
-107.989 -919.623 -1538 40 43 38
-104.848 -921.921 -1542 37 40 35
-101.295 -920.634 -1540 37 40 35
-97.9432 -921.145 -1541 40 42 37
-94.3422 -919.267 -1538 40 40 36
-90.9918 -919.783 -1539 39 39 35
-87.4673 -918.51 -1537 40 41 36
-84.1165 -919.032 -1538 40 41 34
-80.6571 -918.362 -1537 39 40 33
-77.2533 -918.293 -1537 40 41 34
-73.8982 -918.824 -1538 41 42 35
-70.6311 -920.553 -1541 40 41 34
-67.4387 -923.479 -1546 39 40 33
-64.4318 -929.394 -1556 38 39 32
-61.5381 -937.701 -1570 38 39 32
-58.3981 -943.023 -1579 38 39 32
-55.1494 -947.154 -1586 36 37 30
-51.9679 -953.079 -1596 36 37 30
-48.6212 -956.618 -1602 37 38 31
-45.2204 -959.562 -1607 38 39 32
-41.7979 -962.51 -1612 36 37 30
-38.4012 -966.654 -1619 34 35 28
-34.9309 -969.607 -1624 33 34 28
-31.3615 -970.175 -1625 33 33 28
-27.8394 -972.537 -1629 33 34 30
-24.2404 -972.515 -1629 32 35 30
-20.6415 -972.495 -1629 31 34 29
-17.0534 -973.076 -1630 29 32 27
-13.461 -973.66 -1631 28 30 25
-9.8702 -974.843 -1633 27 30 25
-6.26704 -975.433 -1634 29 32 27
-2.6595 -976.026 -1635 31 34 29
0.950107 -974.234 -1632 32 35 30
4.56623 -976.625 -1636 32 35 30
8.18483 -977.228 -1637 31 34 29
11.8295 -979.624 -1641 31 34 29
15.4734 -980.83 -1643 33 36 31
19.126 -982.04 -1645 33 36 31
22.7878 -983.252 -1647 33 36 31
26.4425 -983.871 -1648 36 36 32
30.1749 -986.881 -1653 45 44 41
-171.328 -953.597 -1584 39 39 36
-167.998 -954.65 -1586 37 37 33
-164.453 -954.503 -1586 37 37 35
-160.809 -953.757 -1585 37 38 35
-156.476 -948.803 -1577 35 37 32
-152.18 -943.853 -1569 37 37 34
-148.3 -941.314 -1565 38 38 34
-144.533 -939.38 -1562 39 39 35
-140.509 -935.645 -1556 39 42 39
-136.954 -934.921 -1555 39 42 38
-133.147 -932.397 -1551 36 39 36
-129.526 -931.079 -1549 36 39 35
-125.997 -930.365 -1548 39 42 37
-122.315 -928.452 -1545 39 42 37
-118.879 -928.345 -1545 39 42 37
-115.219 -926.439 -1542 39 42 37
-111.937 -927.54 -1544 40 43 38
-108.225 -925.04 -1540 40 43 38
-104.941 -926.147 -1542 38 41 36
-101.45 -925.455 -1541 37 40 35
-98.0295 -925.367 -1541 38 41 36
-94.3025 -922.28 -1536 40 40 36
-90.9536 -922.798 -1537 38 38 34
-87.4303 -921.519 -1535 40 41 36
-84.0811 -922.044 -1536 41 42 35
-80.6231 -921.371 -1535 40 41 34
-77.2207 -921.301 -1535 41 42 35
-73.9151 -922.435 -1537 40 41 34
-70.7392 -925.372 -1542 40 41 34
-67.5853 -928.911 -1548 37 38 31
-64.7372 -937.254 -1562 37 38 31
-61.7099 -943.798 -1573 39 40 33
-58.5235 -948.545 -1581 38 39 32
-55.3022 -953.294 -1589 37 38 31
-52.0135 -957.446 -1596 37 38 31
-48.512 -958.002 -1597 39 40 33
-45.2601 -963.96 -1607 38 39 32
-41.8606 -967.52 -1613 36 37 30
-38.4111 -970.484 -1618 35 36 29
-34.9399 -973.451 -1623 34 34 30
-31.4083 -975.221 -1626 32 33 29
-27.881 -977.594 -1630 30 33 28
-24.2914 -978.171 -1631 31 34 29
-20.685 -978.151 -1631 30 33 28
-17.0892 -978.734 -1632 28 31 26
-13.4809 -978.721 -1632 28 31 26
-9.8788 -979.31 -1633 27 30 25
-6.27254 -979.903 -1634 31 34 29
-2.66493 -981.698 -1637 28 31 27
0.95395 -981.697 -1637 27 30 25
4.57585 -982.299 -1638 31 34 29
8.20199 -982.905 -1639 31 34 29
11.8328 -983.513 -1640 30 33 28
15.4682 -984.125 -1641 32 35 30
19.1314 -985.94 -1644 32 35 30
22.7941 -987.157 -1646 30 33 28
26.4819 -988.979 -1649 34 34 30
30.2382 -992.602 -1655 42 42 38
-171.372 -957.359 -1583 39 39 37
-168.147 -959.021 -1586 37 37 32
-164.807 -960.082 -1588 36 36 34
-161.053 -958.728 -1586 36 36 33
-156.615 -953.146 -1577 35 35 31
-152.315 -948.174 -1569 37 37 33
-148.337 -945.018 -1564 39 39 34
-144.569 -943.076 -1561 41 41 37
-140.634 -939.928 -1556 39 42 39
-137.075 -939.2 -1555 36 39 36
-133.523 -938.476 -1554 34 37 34
-129.892 -937.151 -1552 36 39 34
-126.19 -935.226 -1549 38 41 36
-122.582 -933.908 -1547 39 42 37
-118.907 -931.99 -1544 39 42 36
-115.247 -930.075 -1541 40 43 38
-111.891 -930.577 -1542 39 42 37
-108.391 -929.876 -1541 39 42 37
-105.102 -930.988 -1543 39 42 37
-101.54 -929.689 -1541 38 41 36
-98.1163 -929.601 -1541 39 41 36
-94.5703 -928.309 -1539 39 39 35
-91.0934 -927.623 -1538 40 40 36
-87.6218 -926.941 -1537 42 43 38
-84.2103 -926.865 -1537 44 45 38
-80.6945 -925.586 -1535 42 43 36
-77.3897 -926.722 -1537 41 42 35
-74.0287 -927.257 -1538 42 43 36
-70.7558 -929.002 -1541 39 40 33
-67.7762 -934.969 -1551 34 35 28
-64.7115 -940.335 -1560 35 36 29
-61.686 -946.909 -1571 38 39 32
-58.5382 -952.281 -1580 38 39 32
-55.2117 -955.244 -1585 38 39 32
-51.8964 -958.812 -1591 38 39 32
-48.6158 -963.589 -1599 39 40 33
-45.3001 -968.368 -1607 37 38 31
-41.8196 -970.137 -1610 36 37 30
-38.4212 -974.32 -1617 34 35 28
-34.8846 -975.492 -1619 33 33 29
-31.4554 -980.283 -1627 32 33 28
-27.9056 -982.064 -1630 30 33 28
-24.283 -981.439 -1629 31 34 29
-20.6905 -982.022 -1630 32 35 30
-17.1043 -983.21 -1632 30 33 28
-13.5093 -984.401 -1634 29 32 27
-9.89976 -984.993 -1635 30 33 28
-6.29342 -986.793 -1638 31 34 30
-2.6706 -987.392 -1639 30 33 30
0.956054 -987.391 -1639 30 33 28
4.58551 -987.996 -1640 30 33 28
8.2094 -987.4 -1639 30 33 28
11.865 -989.818 -1643 32 35 30
15.5102 -990.433 -1644 33 36 31
19.1717 -991.654 -1646 32 35 30
22.8559 -993.48 -1649 30 33 28
26.5377 -994.706 -1651 31 34 29
30.2651 -997.142 -1655 41 42 38
-172.501 -967.202 -1592 36 36 34
-168.828 -966.441 -1591 35 36 29
-165.162 -965.684 -1590 36 36 33
-161.096 -962.501 -1585 36 36 33
-156.755 -957.501 -1577 37 37 33
-152.354 -951.899 -1568 36 37 31
-148.375 -948.729 -1563 37 37 32
-144.698 -947.384 -1561 39 39 35
-140.85 -944.829 -1557 37 40 37
-137.286 -944.098 -1556 37 40 36
-133.728 -943.369 -1555 38 41 37
-130.092 -942.038 -1553 37 40 35
-126.384 -940.104 -1550 37 40 35
-122.691 -938.173 -1547 38 41 36
-119.167 -937.459 -1546 39 42 35
-115.574 -936.141 -1544 39 42 36
-112.063 -935.433 -1543 39 42 36
-108.488 -934.122 -1541 40 43 38
-105.127 -934.633 -1542 39 42 37
-101.565 -933.328 -1540 37 40 35
-98.0762 -932.634 -1539 37 39 34
-94.593 -931.942 -1538 40 40 36
-91.056 -930.647 -1536 40 40 36
-87.6427 -930.567 -1536 43 43 38
-84.2304 -930.491 -1536 41 42 35
-80.8188 -930.417 -1536 40 41 33
-77.3578 -929.741 -1535 41 42 34
-74.0464 -930.885 -1537 41 42 35
-70.7268 -932.032 -1539 39 40 33
-67.7489 -938.026 -1549 37 38 31
-64.7274 -944.022 -1559 38 38 31
-61.6621 -950.021 -1569 41 39 33
-58.4789 -954.811 -1577 39 40 33
-55.226 -958.999 -1584 39 40 33
-52.0404 -965.005 -1594 38 39 32
-48.7198 -969.198 -1601 36 37 30
-45.3403 -972.788 -1607 36 37 30
-41.8827 -975.171 -1611 35 36 29
-38.4791 -979.372 -1618 33 34 27
-34.894 -979.339 -1618 32 32 28
-31.4253 -982.942 -1624 31 32 28
-27.896 -985.336 -1628 29 32 27
-24.3194 -986.523 -1630 31 34 29
-20.7215 -987.109 -1631 34 37 33
-17.1194 -987.697 -1632 31 34 31
-13.5212 -988.894 -1634 30 33 28
-9.90844 -989.489 -1635 30 33 30
-6.29876 -991.297 -1638 29 32 29
-2.67279 -991.898 -1639 32 35 32
0.957579 -992.503 -1640 33 36 31
4.58959 -992.506 -1640 31 34 30
8.22186 -992.511 -1640 30 33 29
11.8612 -993.126 -1641 33 34 29
15.5053 -993.743 -1642 33 35 29
19.1886 -996.18 -1646 31 33 27
22.8624 -997.409 -1648 29 32 27
26.5614 -999.247 -1651 30 31 26
30.3287 -1002.9 -1657 41 42 38
-173.849 -978.326 -1603 35 35 33
-169.617 -974.51 -1597 34 35 28
-165.519 -971.308 -1592 35 35 32
-161.139 -966.281 -1584 36 36 34
-156.896 -961.868 -1577 37 37 33
-152.491 -956.239 -1568 36 36 32
-148.603 -953.665 -1564 37 37 33
-144.827 -951.703 -1561 38 38 34
-140.976 -949.136 -1557 36 39 35
-137.321 -947.792 -1555 36 39 35
-133.676 -946.451 -1553 39 42 37
-130.208 -946.333 -1553 39 42 37
-126.497 -944.39 -1550 40 43 37
-122.801 -942.45 -1547 39 42 36
-119.197 -941.123 -1545 38 41 35
-115.603 -939.799 -1543 39 42 36
-112.164 -939.697 -1543 39 42 37
-108.515 -937.771 -1540 39 42 38
-105.085 -937.675 -1540 38 41 36
-101.656 -937.582 -1540 37 40 35
-98.164 -936.884 -1539 38 41 36
-94.7392 -936.797 -1539 37 39 34
-91.3154 -936.714 -1539 41 42 36
-87.7782 -935.416 -1537 44 44 38
-84.3605 -935.339 -1537 42 43 36
-80.8384 -934.048 -1535 38 38 33
-77.4269 -933.977 -1535 39 40 34
-74.1125 -935.126 -1537 41 42 35
-70.882 -937.495 -1541 39 40 33
-67.6781 -940.474 -1546 39 40 33
-64.7021 -947.106 -1557 37 38 31
-61.6779 -953.741 -1568 38 39 32
-58.4941 -958.553 -1576 39 39 35
-55.3101 -963.976 -1585 38 39 33
-52.0215 -968.185 -1592 38 39 32
-48.7023 -972.397 -1599 38 39 32
-45.409 -977.828 -1608 35 36 29
-41.894 -979.005 -1610 35 36 29
-38.4896 -983.226 -1617 34 35 28
-34.9035 -983.193 -1617 32 35 30
-31.4339 -986.812 -1623 30 33 28
-27.8694 -988.001 -1625 30 33 28
-24.3261 -990.41 -1629 30 33 28
-20.7399 -991.606 -1631 32 35 30
-17.1346 -992.197 -1632 30 33 28
-13.5416 -994.007 -1635 32 32 28
-9.92928 -995.212 -1637 30 33 30
-6.30818 -996.421 -1639 31 34 31
-2.67849 -997.633 -1641 32 35 32
0.958525 -997.024 -1640 33 35 30
4.59391 -997.027 -1640 33 36 32
8.24439 -998.857 -1643 33 36 33
11.8935 -999.473 -1644 35 35 31
15.538 -999.486 -1644 35 35 30
19.2059 -1000.72 -1646 32 32 27
22.8691 -1001.34 -1647 30 31 27
26.5206 -1001.37 -1647 33 33 29
30.2276 -1003.22 -1650 43 43 40
-175.091 -988.911 -1613 37 35 31
-170.621 -983.85 -1605 36 36 32
-166.188 -978.794 -1597 37 37 34
-161.488 -971.904 -1586 35 35 33
-157.137 -966.858 -1578 35 35 31
-152.921 -962.429 -1571 35 35 31
-148.737 -958.005 -1564 38 38 34
-144.958 -956.035 -1561 39 39 35
-141.285 -954.68 -1559 36 39 34
-137.621 -953.33 -1557 36 39 34
-133.968 -951.982 -1555 37 40 35
-130.326 -950.639 -1553 37 40 33
-126.693 -949.298 -1551 40 42 37
-122.912 -946.738 -1547 40 43 38
-119.459 -946.628 -1547 37 40 35
-115.782 -944.686 -1544 36 39 34
-112.265 -943.972 -1543 37 40 36
-108.753 -943.261 -1542 39 43 40
-105.179 -941.941 -1540 41 44 39
-101.681 -941.235 -1539 40 43 38
-98.2523 -941.145 -1539 39 42 37
-94.7627 -940.447 -1538 38 41 36
-91.3381 -940.363 -1538 39 41 34
-87.8 -939.06 -1536 43 44 38
-84.4364 -939.593 -1537 43 43 38
-80.8584 -937.685 -1534 40 40 34
-77.547 -938.836 -1536 39 39 33
-74.1309 -938.768 -1536 41 42 35
-70.9456 -941.758 -1541 41 42 35
-67.9143 -947.196 -1550 39 40 33
-64.9266 -953.858 -1561 39 40 33
-61.8908 -960.522 -1572 38 39 32
-58.7323 -965.967 -1581 38 39 32
-55.4297 -969.581 -1587 38 39 32
-52.1009 -973.198 -1593 38 39 32
-48.807 -978.04 -1601 37 38 31
-45.3932 -981.052 -1606 36 37 30
-41.9316 -983.457 -1610 35 36 29
-38.5718 -988.918 -1619 35 36 29
-34.9564 -988.274 -1618 31 34 29
-31.4427 -990.687 -1622 28 31 26
-27.8772 -991.882 -1624 28 31 26
-24.3181 -993.691 -1627 30 33 28
-20.7331 -994.892 -1629 33 36 31
-17.171 -997.929 -1634 33 36 31
-13.5786 -1000.36 -1638 30 33 28
-9.95625 -1001.57 -1640 30 33 30
-6.32149 -1002.17 -1641 32 35 31
-2.6807 -1002.17 -1641 32 35 30
0.960646 -1002.78 -1642 34 34 30
4.60644 -1003.39 -1643 32 33 30
8.25671 -1004.01 -1644 32 34 32
11.9117 -1004.63 -1645 34 34 30
15.5426 -1003.42 -1643 36 36 32
19.2351 -1005.88 -1647 35 35 31
22.8896 -1005.9 -1647 35 35 31
26.5284 -1005.31 -1646 34 34 30
30.2916 -1009 -1652 44 44 41
-179.762 -998.494 -1621 39 37 33
-175.468 -994.636 -1615 38 36 32
-170.776 -988.32 -1605 37 37 33
-166.443 -983.857 -1598 37 37 34
-161.94 -978.167 -1589 39 39 37
-157.578 -973.097 -1581 38 38 34
-153.254 -968.032 -1573 38 38 34
-149.253 -964.818 -1568 37 37 33
-145.368 -962.223 -1564 39 39 35
-141.503 -959.632 -1560 36 39 34
-137.746 -957.66 -1557 37 40 35
-134.003 -955.691 -1554 38 41 36
-130.276 -953.726 -1551 37 40 33
-126.644 -952.38 -1549 40 41 36
-123.023 -951.037 -1547 42 43 38
-119.49 -950.312 -1546 39 42 37
-115.736 -947.747 -1542 38 41 36
-112.221 -947.029 -1541 38 42 37
-108.64 -945.7 -1539 38 42 39
-105.138 -944.988 -1538 39 42 37
-101.509 -943.051 -1535 38 41 36
-98.3411 -945.418 -1539 38 41 36
-94.7868 -944.102 -1537 38 41 36
-91.4801 -945.246 -1539 37 38 32
-87.9938 -944.551 -1538 43 43 37
-84.5677 -944.473 -1538 44 44 38
-80.9842 -942.556 -1535 41 42 35
-77.7181 -944.326 -1538 40 41 34
-74.2461 -943.643 -1537 43 44 36
-71.0558 -946.647 -1542 41 42 35
-67.9317 -950.881 -1549 38 39 32
-64.902 -956.959 -1559 37 38 31
-61.8678 -963.654 -1570 39 40 33
-58.748 -969.737 -1580 39 40 33
-55.4796 -973.982 -1587 38 39 32
-52.1478 -977.616 -1593 37 38 31
-48.7289 -980.025 -1597 38 39 32
-45.3776 -984.277 -1604 38 39 32
-42.0216 -989.147 -1612 36 37 30
-38.5828 -992.792 -1618 36 37 30
-35.0528 -994.6 -1621 31 34 29
-31.4904 -995.797 -1623 29 32 27
-27.9194 -996.997 -1625 28 31 26
-24.3399 -998.201 -1627 29 32 27
-20.7645 -1000.02 -1630 32 35 30
-17.1863 -1002.46 -1634 32 35 30
-13.5824 -1004.28 -1637 30 33 28
-9.96528 -1006.11 -1640 30 33 30
-6.32712 -1006.72 -1641 31 34 31
-2.68315 -1006.72 -1641 32 35 30
0.961602 -1007.33 -1642 32 33 29
4.61081 -1007.95 -1643 31 32 29
8.26427 -1008.56 -1644 32 32 29
11.9225 -1009.19 -1645 34 34 30
15.5757 -1009.2 -1645 35 35 31
19.2291 -1009.22 -1645 33 33 29
22.8826 -1009.24 -1645 34 34 30
26.5365 -1009.26 -1645 37 36 32
30.3372 -1014.19 -1653 45 44 41
-180.371 -1005.5 -1625 39 37 33
-175.845 -1000.38 -1617 37 35 31
-171.038 -993.421 -1606 36 36 32
-166.491 -987.7 -1597 36 36 33
-162.088 -982.603 -1589 38 38 36
-157.822 -978.128 -1582 38 38 34
-153.491 -973.04 -1574 37 37 33
-149.579 -970.428 -1570 37 37 33
-145.78 -968.439 -1567 38 38 34
-141.905 -965.836 -1563 36 39 34
-138.137 -963.855 -1560 36 39 34
-134.298 -961.259 -1556 37 40 35
-130.562 -959.285 -1553 37 40 33
-126.678 -956.079 -1548 40 41 36
-123.056 -954.73 -1546 42 43 39
-119.521 -954.002 -1545 40 43 38
-115.842 -952.042 -1542 38 41 36
-112.323 -951.321 -1541 39 42 38
-108.739 -949.986 -1539 39 43 39
-105.096 -948.036 -1536 40 43 38
-101.601 -947.325 -1535 38 41 36
-98.1746 -947.234 -1535 39 42 37
-94.6878 -946.529 -1534 37 40 35
-91.3847 -947.678 -1536 39 40 34
-87.9592 -947.597 -1536 41 42 35
-84.5894 -948.135 -1537 43 44 37
-81.0577 -946.826 -1535 42 43 36
-77.6875 -947.371 -1536 42 43 36
-74.3135 -947.918 -1537 42 43 36
-71.1202 -950.936 -1542 39 40 33
-67.9934 -955.189 -1549 33 34 27
-64.8775 -960.062 -1557 34 35 28
-61.9239 -968.02 -1570 40 41 34
-58.8014 -974.13 -1580 41 42 35
-55.495 -977.778 -1586 39 40 33
-52.1297 -980.811 -1591 36 37 30
-48.7426 -983.847 -1596 37 38 31
-45.4187 -988.736 -1604 38 39 32
-42.0336 -993.011 -1611 37 38 31
-38.6177 -997.29 -1618 36 37 30
-35.1278 -1000.34 -1623 32 35 30
-31.5189 -1000.31 -1623 30 33 28
-27.962 -1002.13 -1626 31 34 29
-24.3469 -1002.11 -1626 31 34 29
-20.7832 -1004.55 -1630 31 34 29
-17.1808 -1005.77 -1632 32 35 30
-13.6029 -1009.45 -1638 32 33 29
-9.97413 -1010.67 -1640 30 33 28
-6.33663 -1011.9 -1642 31 34 29
-2.68866 -1012.51 -1643 31 34 29
0.963734 -1013.12 -1644 31 34 29
4.61778 -1013.13 -1644 32 33 29
8.27185 -1013.13 -1644 32 32 28
11.919 -1012.53 -1643 34 34 30
15.571 -1012.54 -1643 34 34 30
19.2465 -1013.79 -1645 33 33 29
22.9034 -1013.81 -1645 33 33 29
26.609 -1015.68 -1648 34 32 28
30.5852 -1026.18 -1665 46 45 41
-181.092 -1013.16 -1630 38 36 33
-175.898 -1004.29 -1616 36 34 30
-171.089 -997.297 -1605 34 34 30
-166.539 -991.55 -1596 37 37 33
-162.134 -986.429 -1588 35 35 32
-157.967 -982.555 -1582 36 36 32
-153.632 -977.444 -1574 36 36 32
-149.716 -974.82 -1570 37 37 33
-146.007 -973.443 -1568 37 37 33
-142.125 -970.828 -1564 36 36 32
-138.175 -967.596 -1559 36 37 32
-134.507 -966.229 -1557 37 39 34
-130.598 -963.005 -1552 37 40 35
-126.712 -959.785 -1547 38 39 34
-123.009 -957.809 -1544 40 40 36
-119.475 -957.078 -1543 39 42 37
-115.797 -955.109 -1540 38 41 36
-112.28 -954.384 -1539 38 41 36
-108.768 -953.663 -1538 39 43 38
-105.192 -952.325 -1536 42 45 40
-101.561 -950.37 -1533 41 44 39
-98.2644 -951.519 -1535 40 43 38
-94.7125 -950.191 -1533 39 42 36
-91.3491 -950.725 -1534 38 40 33
-87.8675 -950.023 -1533 40 41 34
-84.5014 -950.564 -1534 42 43 36
-81.026 -949.869 -1533 45 46 39
-77.6571 -950.416 -1534 46 47 40
-74.3329 -951.586 -1536 44 45 38
-71.139 -954.617 -1541 39 40 33
-67.9674 -958.27 -1547 38 39 31
-64.9367 -964.403 -1557 35 36 29
-62.0593 -973.636 -1572 36 37 30
-58.9295 -979.774 -1582 40 41 34
-55.6856 -984.676 -1590 38 39 32
-52.2756 -987.104 -1594 38 39 32
-48.8787 -990.154 -1599 37 38 31
-45.4884 -993.826 -1605 36 37 30
-42.1241 -998.74 -1613 35 36 29
-38.7007 -1003.04 -1620 33 34 27
-35.203 -1006.1 -1625 30 32 27
-31.5865 -1006.07 -1625 28 31 26
-28.0046 -1007.28 -1627 30 33 28
-24.3841 -1007.26 -1627 32 35 30
-20.8148 -1009.71 -1631 32 35 30
-17.1859 -1009.69 -1631 31 34 29
-13.607 -1013.39 -1637 30 30 26
-9.98932 -1015.86 -1641 31 32 28
-6.3539 -1018.33 -1645 33 33 29
-2.69441 -1018.32 -1645 33 33 29
0.966459 -1019.56 -1647 34 34 30
4.62499 -1018.33 -1645 32 32 28
8.28954 -1018.95 -1646 32 32 28
11.937 -1017.72 -1644 34 34 30
15.5947 -1017.74 -1644 34 34 30
19.2876 -1019.61 -1647 33 33 29
22.9801 -1020.87 -1649 34 34 30
26.7304 -1023.98 -1654 35 33 29
30.7237 -1034.54 -1671 45 44 40
-182.148 -1022.73 -1638 37 35 33
-176.496 -1011.33 -1620 33 31 27
-171.566 -1003.68 -1608 34 34 30
-166.902 -997.278 -1598 37 37 33
-162.386 -991.51 -1589 37 37 33
-158.212 -987.618 -1583 37 37 33
-153.871 -982.483 -1575 36 36 32
-149.759 -978.6 -1569 36 36 32
-146.048 -977.216 -1567 37 37 33
-142.256 -975.213 -1564 38 38 34
-138.48 -973.213 -1561 38 38 34
-134.631 -970.593 -1557 38 38 34
-130.802 -967.978 -1553 35 38 33
-126.828 -964.119 -1547 38 39 34
-123.122 -962.135 -1544 41 41 37
-119.508 -960.777 -1542 39 42 37
-115.904 -959.422 -1540 38 41 36
-112.383 -958.694 -1539 37 40 35
-108.867 -957.969 -1538 38 42 37
-105.289 -956.625 -1536 40 43 38
-101.654 -954.661 -1533 38 41 36
-98.2264 -954.569 -1533 38 41 36
-94.7994 -954.48 -1533 37 40 33
-91.2541 -953.15 -1531 37 39 32
-87.8333 -953.067 -1531 41 42 35
-84.4136 -952.988 -1531 42 43 35
-81.0474 -953.534 -1532 42 43 35
-77.6776 -954.084 -1533 44 45 37
-74.3526 -955.259 -1535 42 43 35
-70.9732 -955.814 -1536 39 40 32
-67.9858 -961.973 -1546 38 39 31
-64.8709 -966.89 -1554 36 37 30
-61.9186 -974.92 -1567 36 37 30
-58.9089 -982.952 -1580 37 38 31
-55.7366 -989.12 -1590 37 38 31
-52.3234 -991.559 -1594 37 38 31
-48.9847 -995.867 -1601 37 38 31
-45.53 -998.312 -1605 36 37 30
-42.1626 -1003.25 -1613 34 35 28
-38.6882 -1006.32 -1618 36 37 30
-35.2353 -1010.64 -1625 33 35 30
-31.6153 -1010.61 -1625 29 32 27
-28.0129 -1011.2 -1626 30 33 28
-24.3614 -1009.94 -1624 32 35 30
-20.8083 -1013.02 -1629 33 36 31
-17.191 -1013.63 -1630 32 35 30
-13.636 -1019.21 -1639 31 33 28
-9.99846 -1020.44 -1641 31 34 29
-6.36735 -1024.17 -1647 32 34 29
-2.69831 -1023.54 -1646 30 31 25
0.968019 -1024.78 -1648 32 32 28
4.63201 -1023.54 -1646 32 32 28
8.2972 -1023.55 -1646 32 32 28
11.9554 -1022.94 -1645 32 32 28
15.647 -1024.82 -1648 33 33 29
19.3523 -1026.7 -1651 34 34 30
23.0991 -1029.83 -1656 34 34 30
26.9329 -1035.45 -1665 36 34 30
31.0095 -1047.91 -1685 46 45 41
-181.983 -1025.46 -1635 38 36 33
-176.66 -1015.89 -1620 36 34 30
-171.832 -1008.83 -1609 34 34 29
-166.847 -1000.52 -1596 36 36 31
-162.332 -994.728 -1587 37 37 33
-158.259 -991.445 -1582 36 36 32
-153.818 -985.661 -1573 35 35 31
-149.898 -983.013 -1569 35 35 31
-146.183 -981.623 -1567 37 37 33
-142.297 -978.984 -1563 39 39 35
-138.341 -975.722 -1558 41 41 37
-134.583 -973.717 -1555 41 41 37
-130.586 -969.837 -1549 38 38 34
-126.864 -967.839 -1546 36 36 32
-123.156 -965.846 -1543 38 38 34
-119.618 -965.108 -1542 38 41 36
-116.086 -964.373 -1541 38 41 38
-112.487 -963.015 -1539 38 41 38
-108.897 -961.661 -1537 38 41 36
-105.386 -960.936 -1536 38 41 34
-101.815 -959.589 -1534 37 40 34
-98.3171 -958.871 -1533 37 40 35
-94.825 -958.157 -1532 38 41 34
-91.3383 -957.445 -1531 38 40 33
-87.9144 -957.362 -1531 42 43 36
-84.381 -956.032 -1529 45 46 38
-81.0163 -956.581 -1530 43 44 35
-77.5971 -956.507 -1530 41 42 33
-74.3241 -958.312 -1533 40 41 32
-71.0386 -960.121 -1536 40 41 33
-68.0044 -965.682 -1545 38 39 31
-64.8471 -969.996 -1552 36 37 29
-61.8965 -978.062 -1565 36 37 30
-58.8885 -986.131 -1578 35 36 29
-55.7529 -992.952 -1589 37 38 31
-52.3715 -996.026 -1594 36 37 30
-48.9991 -999.728 -1600 36 37 30
-45.6287 -1004.06 -1607 36 37 30
-42.2276 -1008.39 -1614 37 38 31
-38.7238 -1010.85 -1618 36 37 30
-35.2242 -1013.94 -1623 33 36 31
-31.6834 -1016.41 -1627 31 34 29
-28.0731 -1017.01 -1628 30 33 28
-24.4438 -1016.98 -1628 32 35 30
-20.853 -1018.84 -1631 33 36 31
-17.2279 -1019.44 -1632 33 36 31
-13.6401 -1023.18 -1638 31 34 29
-10.0196 -1026.29 -1643 31 32 27
-6.37332 -1028.78 -1647 31 31 26
-2.69916 -1027.53 -1645 31 32 25
0.969583 -1030.03 -1649 33 33 29
4.63645 -1028.15 -1646 33 32 28
8.30512 -1028.16 -1646 33 31 27
11.9811 -1028.8 -1647 32 32 28
15.6807 -1030.68 -1650 34 34 30
19.382 -1031.95 -1652 35 35 31
23.1203 -1034.47 -1656 34 34 30
27.0064 -1041.99 -1668 37 35 29
31.0383 -1052.63 -1685 45 44 40
-183.156 -1035.75 -1644 38 37 33
-177.152 -1022.35 -1623 37 35 31
-172.206 -1014.63 -1611 33 34 27
-167.212 -1006.29 -1598 35 35 29
-162.381 -998.577 -1586 37 37 33
-158.306 -995.279 -1581 36 36 32
-154.059 -990.727 -1574 35 35 31
-150.037 -987.438 -1569 35 35 31
-146.412 -986.671 -1568 37 37 33
-142.52 -984.019 -1564 38 38 34
-138.47 -980.114 -1558 40 40 36
-134.621 -977.47 -1554 42 42 38
-130.707 -974.202 -1549 39 39 35
-126.899 -971.566 -1545 38 38 34
-123.27 -970.192 -1543 39 39 35
-119.729 -969.45 -1542 38 41 36
-116.043 -967.455 -1539 37 40 37
-112.591 -967.348 -1539 37 40 37
-109.069 -966.616 -1538 38 41 36
-105.553 -965.888 -1537 39 42 35
-102.108 -965.792 -1537 39 42 36
-98.665 -965.698 -1537 39 42 37
-94.9748 -963.095 -1533 40 41 34
-91.4827 -962.38 -1532 38 39 32
-87.9384 -961.04 -1530 41 42 35
-84.5145 -960.961 -1530 45 46 38
-81.0913 -960.884 -1530 45 46 36
-77.669 -960.81 -1530 43 44 34
-74.393 -962.623 -1533 42 43 34
-70.9655 -962.556 -1533 40 41 33
-67.8911 -967.514 -1541 37 38 30
-64.7817 -972.475 -1549 38 39 31
-61.8746 -981.206 -1563 35 36 29
-58.8683 -989.31 -1576 34 35 28
-55.7694 -996.79 -1588 36 37 30
-52.5187 -1002.39 -1597 38 39 32
-49.1058 -1005.48 -1602 37 38 31
-45.6709 -1008.57 -1607 36 37 30
-42.1881 -1011.04 -1611 37 38 31
-38.7596 -1015.4 -1618 35 36 29
-35.2134 -1017.25 -1621 31 34 29
-31.6542 -1019.1 -1624 31 34 29
-28.03 -1019.07 -1624 30 33 28
-24.4363 -1020.3 -1626 30 33 28
-20.8466 -1022.16 -1629 32 35 30
-17.2649 -1025.28 -1634 32 35 30
-13.6611 -1028.41 -1639 30 33 28
-10.0289 -1030.91 -1643 29 30 26
-6.38296 -1034.03 -1648 31 32 27
-2.70637 -1034.03 -1648 32 33 26
0.971741 -1035.91 -1651 32 32 28
4.64351 -1033.41 -1647 33 32 28
8.32294 -1034.04 -1648 32 30 26
12.014 -1035.3 -1650 32 32 28
15.7237 -1037.2 -1653 36 36 32
19.4705 -1040.35 -1658 36 36 32
23.2257 -1042.88 -1662 35 34 30
27.1286 -1050.44 -1674 38 35 29
31.1777 -1061.13 -1691 47 44 40
35.5923 -1080.62 -1722 53 51 47
-183.55 -1041.67 -1646 35 35 32
-177.099 -1025.68 -1621 37 35 31
-172.261 -1018.56 -1610 35 36 29
-167.369 -1010.81 -1598 35 36 29
-162.328 -1001.8 -1584 36 36 31
-158.454 -999.752 -1581 35 35 31
-154.399 -996.444 -1576 35 35 31
-150.177 -991.875 -1569 37 37 33
-146.362 -989.84 -1566 37 37 33
-142.653 -988.44 -1564 36 36 32
-138.51 -983.885 -1557 37 37 33
-134.487 -979.966 -1551 39 39 35
-130.745 -977.946 -1548 42 42 38
-127.1 -976.562 -1546 41 41 37
-123.465 -975.182 -1544 41 41 37
-119.919 -974.436 -1543 38 41 36
-116.151 -971.8 -1539 36 39 35
-112.696 -971.693 -1539 35 38 35
-109.171 -970.958 -1538 37 40 35
-105.72 -970.857 -1538 40 41 34
-102.27 -970.76 -1538 39 41 35
-98.8213 -970.666 -1538 38 41 36
-95.2494 -969.313 -1536 39 40 33
-91.6277 -967.333 -1533 38 39 32
-88.0204 -965.356 -1530 43 44 37
-84.5932 -965.276 -1530 45 46 37
-81.1139 -964.567 -1529 43 44 34
-77.6906 -964.493 -1529 43 44 34
-74.3166 -965.053 -1530 41 42 34
-71.078 -967.508 -1534 38 39 31
-67.8221 -969.966 -1538 36 38 30
-64.9257 -978.103 -1551 38 39 32
-61.9322 -985.611 -1563 37 38 31
-58.9978 -995.013 -1578 35 36 30
-55.8915 -1002.53 -1590 38 39 33
-52.6334 -1008.15 -1599 39 40 33
-49.1821 -1010.62 -1603 38 39 32
-45.7987 -1014.99 -1610 37 38 31
-42.2535 -1016.21 -1612 35 36 29
-38.7477 -1018.7 -1616 34 35 28
-35.2461 -1021.81 -1621 32 35 29
-31.7225 -1024.93 -1626 31 34 28
-28.1079 -1025.54 -1627 30 33 28
-24.5342 -1028.03 -1631 31 34 29
-20.9044 -1028.64 -1632 30 34 29
-17.2809 -1029.89 -1634 29 32 27
-13.6987 -1034.91 -1642 27 30 24
-10.0442 -1036.16 -1644 28 29 24
-6.37712 -1036.79 -1645 30 30 26
-2.70889 -1038.67 -1648 32 32 27
0.972138 -1039.93 -1650 33 34 28
4.65646 -1039.93 -1650 32 32 27
8.34587 -1040.57 -1651 31 31 27
12.0544 -1042.47 -1654 31 31 27
15.7671 -1043.75 -1656 33 33 29
19.5121 -1046.28 -1660 34 34 30
23.3034 -1050.09 -1666 33 33 29
27.1703 -1055.78 -1675 39 35 32
31.0592 -1060.85 -1683 49 46 41
35.3773 -1077.9 -1710 53 50 44
-190.523 -1063.69 -1673 46 45 43
-183.165 -1043.17 -1641 32 32 30
-177.157 -1029.65 -1620 34 32 28
-172.423 -1023.13 -1610 34 34 29
-167.736 -1016.61 -1600 35 35 30
-162.685 -1007.56 -1586 35 35 30
-158.603 -1004.24 -1581 34 34 30
-154.544 -1000.91 -1576 35 35 31
-150.318 -996.324 -1569 36 36 32
-146.406 -993.645 -1565 36 36 32
-142.605 -991.604 -1562 39 39 35
-138.64 -988.298 -1557 40 40 36
-134.613 -984.361 -1551 40 40 36
-130.952 -982.967 -1549 42 42 38
-127.302 -981.576 -1547 41 41 37
-123.581 -979.555 -1544 40 40 36
-119.954 -978.171 -1542 38 38 34
-116.26 -976.158 -1539 37 37 34
-112.655 -974.781 -1537 38 38 36
-109.202 -974.677 -1537 39 39 35
-105.819 -975.21 -1538 38 41 38
-102.366 -975.112 -1538 39 42 38
-98.9139 -975.018 -1538 38 41 36
-95.4007 -974.293 -1537 37 40 33
-91.8931 -973.571 -1536 38 40 33
-88.1604 -970.317 -1531 44 45 38
-84.7278 -970.236 -1531 44 45 35
-81.1898 -968.891 -1529 42 43 33
-77.7633 -968.816 -1529 40 41 32
-74.289 -968.111 -1528 40 41 33
-71.0981 -971.211 -1533 36 39 31
-67.7972 -973.046 -1536 35 37 29
-64.8188 -979.952 -1547 38 39 32
-61.7126 -985.594 -1556 40 41 34
-58.791 -995.038 -1571 39 39 34
-55.7679 -1003.85 -1585 39 40 35
-52.5178 -1009.5 -1594 40 41 34
-49.1359 -1013.25 -1600 40 41 34
-45.7561 -1017.64 -1607 38 39 32
-42.2404 -1019.5 -1610 36 37 30
-38.7119 -1021.36 -1613 35 36 29
-35.2354 -1025.13 -1619 32 35 28
-31.7132 -1028.26 -1624 30 33 26
-28.1169 -1029.5 -1626 29 32 27
-24.542 -1032.01 -1630 31 34 29
-20.9238 -1033.25 -1632 30 33 28
-17.3288 -1036.4 -1637 28 32 27
-13.6947 -1038.28 -1640 31 32 25
-10.0658 -1042.07 -1646 31 31 27
-6.38681 -1042.06 -1646 30 30 26
-2.71142 -1043.33 -1648 31 31 27
0.973718 -1045.23 -1651 31 31 26
4.66379 -1045.23 -1651 30 30 26
8.35897 -1045.87 -1652 30 30 26
12.0657 -1047.14 -1654 31 31 27
15.7913 -1049.06 -1657 32 32 28
19.5306 -1050.97 -1660 32 32 28
23.3113 -1054.16 -1665 33 33 29
27.2121 -1061.15 -1676 38 34 31
31.1808 -1068.77 -1688 49 46 41
35.6797 -1090.96 -1723 54 52 46
-189.564 -1062.07 -1663 46 45 45
-182.78 -1044.65 -1636 35 34 32
-177.105 -1032.99 -1618 32 30 24
-172.371 -1026.44 -1608 33 32 27
-167.79 -1020.53 -1599 35 34 30
-162.737 -1011.44 -1585 37 37 33
-158.652 -1008.1 -1580 38 38 34
-154.396 -1003.48 -1573 37 37 33
-150.269 -999.51 -1567 34 34 30
-146.451 -997.456 -1564 36 36 32
-142.74 -996.044 -1562 37 37 33
-138.771 -992.723 -1557 37 37 33
-134.827 -989.406 -1552 39 39 35
-131.16 -988.005 -1550 41 41 37
-127.504 -986.608 -1548 39 39 35
-123.778 -984.577 -1545 38 38 34
-119.989 -981.913 -1541 38 38 34
-116.521 -981.801 -1541 38 38 35
-112.908 -980.419 -1539 38 38 36
-109.305 -979.04 -1537 40 40 36
-105.919 -979.575 -1538 38 41 38
-102.462 -979.476 -1538 38 41 37
-99.0714 -980.018 -1539 38 41 34
-95.4906 -978.653 -1537 36 39 32
-91.9796 -977.928 -1536 36 38 31
-88.3587 -975.933 -1533 42 43 36
-84.9183 -975.851 -1533 43 44 35
-81.2131 -972.59 -1528 41 42 32
-77.8874 -973.788 -1530 40 41 32
-74.3588 -972.443 -1528 41 42 34
-71.165 -975.556 -1533 37 40 32
-67.861 -977.4 -1536 35 37 30
-64.9217 -984.973 -1548 37 38 31
-61.8499 -991.276 -1558 39 40 33
-58.8464 -999.49 -1571 40 40 36
-55.7851 -1007.71 -1584 39 39 35
-52.5672 -1014.02 -1594 40 41 34
-49.1821 -1017.79 -1600 39 40 33
-45.742 -1020.92 -1605 38 39 32
-42.2801 -1024.06 -1610 37 38 31
-38.7722 -1026.57 -1614 35 36 29
-35.2903 -1030.35 -1620 33 36 29
-31.7819 -1034.13 -1626 30 33 27
-28.2124 -1036.65 -1630 29 32 27
-24.6253 -1039.17 -1634 31 34 29
-21.0332 -1042.33 -1639 31 35 30
-17.3556 -1041.67 -1638 29 33 28
-13.7243 -1044.2 -1642 34 34 29
-10.0629 -1045.46 -1644 32 32 28
-6.40064 -1048 -1648 32 32 28
-2.71702 -1049.27 -1650 32 32 28
0.975892 -1051.17 -1653 31 31 27
4.67964 -1052.45 -1655 32 32 28
8.37694 -1051.82 -1654 31 31 27
12.0847 -1052.46 -1655 32 32 28
15.7872 -1052.48 -1655 32 32 28
19.549 -1055.67 -1660 31 31 27
23.3192 -1058.24 -1664 34 34 30
