ply
format ascii 1.0
comment Created by Open3D
element vertex 1447
property double x
property double y
property double z
property uchar red
property uchar green
property uchar blue
end_header
-46.9444 227.707 -1712 31 28 33
-43.5005 227.566 -1711 38 35 40
-40.2483 228.489 -1718 40 37 42
-36.8828 228.882 -1721 40 37 42
-33.4278 228.742 -1720 39 36 40
-29.9422 228.338 -1717 35 32 36
-26.5307 228.466 -1718 39 32 38
-23.0347 227.796 -1713 41 34 39
-19.6161 227.792 -1713 36 29 33
-16.2165 228.055 -1715 31 25 26
-12.824 228.585 -1719 31 25 26
-9.36103 227.785 -1713 32 25 26
-5.93249 227.384 -1710 32 26 27
-2.51155 226.586 -1704 31 25 26
0.886466 226.054 -1700 33 27 28
-96.2793 227.835 -1738 39 38 45
-92.2676 226.507 -1728 32 31 38
-89.2732 227.671 -1737 25 22 29
-86.0459 228.311 -1742 23 20 25
-82.4201 227.903 -1739 20 17 22
-78.6254 226.971 -1732 18 15 20
-75.1197 226.827 -1731 19 16 21
-71.453 226.158 -1726 18 15 20
-67.7282 225.229 -1719 20 17 22
-64.2936 225.217 -1719 26 23 28
-60.8596 225.206 -1719 29 25 30
-57.2923 224.672 -1715 26 23 28
-53.6788 223.876 -1709 29 25 30
-50.2955 223.998 -1710 33 29 34
-46.8538 223.858 -1709 34 30 35
-43.4164 223.719 -1708 38 35 40
-40.2412 225.022 -1718 44 41 46
-36.8333 225.146 -1719 48 45 50
-33.4414 225.402 -1721 51 48 51
-30.0067 225.396 -1721 42 38 41
-26.5569 225.26 -1720 39 32 36
-23.0306 224.339 -1713 39 32 36
-19.6355 224.597 -1715 35 28 32
-16.2231 224.725 -1716 31 25 26
-12.8218 225.115 -1719 33 26 27
-9.39219 225.113 -1719 32 24 26
-5.94881 224.588 -1715 32 25 26
-2.51702 223.671 -1708 32 26 27
0.891513 223.933 -1710 33 27 28
-91.9845 222.373 -1723 32 31 38
-89.1033 223.777 -1734 26 23 30
-85.8826 224.407 -1739 22 19 25
-82.4056 224.392 -1739 19 16 21
-78.7023 223.733 -1734 20 17 22
-75.3235 223.978 -1736 20 17 22
-71.6061 223.191 -1730 18 15 20
-68.0708 222.921 -1728 21 18 23
-64.5814 222.78 -1727 26 23 28
-61.0258 222.382 -1724 27 23 28
-57.4827 221.985 -1721 26 22 27
-53.952 221.588 -1718 28 24 29
-50.3455 220.805 -1712 31 27 32
-46.9004 220.668 -1711 32 28 33
-43.5868 221.176 -1715 43 40 45
-40.3512 222.201 -1723 52 49 54
-36.8912 222.065 -1722 54 51 55
-33.552 222.703 -1727 46 42 45
-30.1235 222.827 -1728 40 35 38
-26.5986 222.177 -1723 37 29 33
-23.1073 221.657 -1719 35 27 31
-19.7008 221.911 -1721 31 23 27
-16.2581 221.779 -1720 28 20 22
-12.827 221.777 -1720 30 22 24
-9.41791 222.291 -1724 31 23 25
-5.94781 221.129 -1715 32 25 27
0.890828 220.354 -1709 32 26 27
-92.3956 219.912 -1731 32 31 38
-89.1907 220.532 -1736 28 25 32
-85.769 220.644 -1737 24 21 26
-82.344 220.757 -1738 20 17 22
-78.7795 220.489 -1736 21 18 23
-75.137 219.968 -1732 20 17 22
-71.4696 219.32 -1727 18 15 20
-68.0591 219.435 -1728 22 19 24
-64.533 219.17 -1726 25 22 27
-60.9799 218.778 -1723 25 21 26
-57.5396 218.768 -1723 26 22 27
-54.0369 218.505 -1721 26 22 27
-50.3956 217.607 -1714 28 25 30
-46.9745 217.599 -1714 31 27 32
-43.7063 218.353 -1720 42 39 44
-40.5082 219.615 -1730 51 48 52
-37.0776 219.735 -1731 45 42 45
-33.6434 219.856 -1732 35 32 35
-30.188 219.851 -1732 34 30 33
-26.6094 218.83 -1724 34 26 30
-23.1436 218.572 -1722 33 25 29
-19.7546 219.076 -1726 34 26 30
-16.2836 218.692 -1723 34 26 28
-12.8621 218.944 -1725 33 25 27
-5.98149 218.94 -1725 32 26 27
-2.5265 217.67 -1715 32 26 27
0.894835 217.924 -1717 32 26 27
4.31158 217.544 -1714 32 26 27
-92.8602 217.546 -1740 33 31 38
-89.2783 217.281 -1738 30 27 34
-85.8531 217.391 -1739 27 24 30
-82.33 217.252 -1738 22 19 24
-78.9022 217.363 -1739 21 18 23
-75.2543 216.85 -1735 18 15 20
-71.7057 216.588 -1733 17 14 19
-68.1262 216.201 -1730 23 20 25
-64.6715 216.19 -1730 26 23 28
-61.0049 215.43 -1724 25 21 26
-57.4964 215.17 -1722 25 22 27
-54.0905 215.285 -1723 24 21 26
-50.5341 214.777 -1719 27 24 29
-47.131 214.894 -1720 26 23 28
-43.8513 215.636 -1726 36 33 38
-40.5715 216.503 -1733 42 38 42
-37.0499 216.122 -1730 36 32 35
-33.6183 216.241 -1731 31 27 30
-30.1655 216.235 -1731 33 28 32
-26.6666 215.856 -1728 35 27 31
-23.2337 215.977 -1729 32 24 28
-19.7855 215.973 -1729 32 24 28
-16.347 216.095 -1730 32 24 25
-12.8896 215.967 -1729 32 24 25
-9.45825 216.34 -1732 33 25 27
-5.97704 215.34 -1724 33 27 28
-2.53198 214.714 -1719 33 27 28
4.32594 214.84 -1720 33 26 27
7.76019 214.966 -1721 34 26 27
11.257 216.216 -1731 32 27 28
-93.325 215.146 -1749 34 32 38
-89.6229 214.638 -1745 30 27 34
-86.0362 214.378 -1743 29 26 32
-82.1268 213.257 -1734 23 20 25
-78.753 213.49 -1736 19 17 23
-75.1116 212.985 -1732 16 14 20
-71.611 212.85 -1731 16 14 19
-68.233 213.084 -1733 20 18 23
-64.8102 213.196 -1734 24 21 27
-61.207 212.694 -1730 26 21 27
-57.6871 212.438 -1728 24 20 26
-54.3011 212.675 -1730 21 19 24
-50.7019 212.051 -1725 22 19 24
-47.3149 212.289 -1727 23 20 25
-43.9202 212.527 -1729 33 28 33
-40.5647 213.012 -1733 36 31 35
-37.0651 212.76 -1731 30 25 27
-33.6515 213 -1733 23 17 21
-30.2476 213.363 -1736 27 21 25
-26.693 212.621 -1730 31 22 26
-23.3239 213.354 -1736 30 21 25
-19.8738 213.474 -1737 30 22 25
-16.4105 213.471 -1737 30 22 23
-12.9323 213.222 -1735 31 23 24
-9.52223 214.327 -1744 33 25 27
-6.00359 212.851 -1732 33 26 28
-2.54336 212.235 -1727 33 27 28
4.36797 213.465 -1737 33 26 27
7.81751 213.097 -1734 33 25 25
11.3657 214.819 -1748 31 27 27
-93.683 212.468 -1756 33 30 36
-89.6595 211.244 -1746 34 30 38
-86.0714 210.987 -1744 30 27 33
-82.2554 210.127 -1737 24 21 26
-78.8761 210.355 -1739 15 17 24
-75.4895 210.585 -1741 14 14 21
-71.9714 210.452 -1740 14 13 20
-68.3005 209.836 -1735 18 15 22
-64.8743 209.946 -1736 22 18 25
-61.1262 208.968 -1728 25 18 26
-57.6442 208.837 -1727 21 16 24
-54.3237 209.312 -1731 18 17 24
-50.87 209.303 -1731 20 17 22
-47.4441 209.416 -1732 22 18 23
-44.0145 209.53 -1733 29 22 28
-40.5581 209.523 -1733 31 25 27
-37.1447 209.758 -1735 26 21 20
-33.646 209.511 -1733 21 14 19
-30.26 209.989 -1737 24 16 21
-26.7503 209.622 -1734 26 17 19
-23.3738 210.343 -1740 28 18 21
-19.8591 209.856 -1736 31 21 24
-16.436 210.337 -1740 30 22 26
-12.9078 209.367 -1732 31 23 25
-9.52617 210.937 -1745 35 25 27
-6.01303 209.727 -1735 33 25 28
-2.54738 209.122 -1730 33 25 28
4.36977 210.089 -1738 30 23 25
7.80723 209.365 -1732 33 25 25
11.3834 211.663 -1751 31 27 25
-94.0412 209.765 -1763 34 31 36
-89.7477 207.965 -1748 36 31 39
-85.8601 207 -1740 32 28 35
-82.1473 206.391 -1735 22 19 25
-78.7273 206.497 -1736 14 15 20
-75.2172 206.366 -1735 16 16 21
-71.6703 206.116 -1733 17 15 20
-68.132 205.867 -1731 18 15 21
-64.7891 206.213 -1734 20 16 22
-61.187 205.728 -1730 21 16 24
-57.6349 205.361 -1727 20 16 23
-54.409 206.185 -1734 17 15 21
-50.9793 206.295 -1735 18 14 19
-47.4912 206.168 -1734 18 14 19
-44.0837 206.399 -1736 22 15 21
-40.6919 206.749 -1739 23 17 19
-37.2672 206.98 -1741 21 15 14
-33.757 206.737 -1739 20 12 15
-30.3074 206.851 -1740 22 13 17
-26.8078 206.608 -1738 24 15 17
-23.3297 206.485 -1737 27 18 20
-19.8559 206.363 -1736 32 23 25
-16.4335 206.836 -1740 32 24 26
-12.9355 206.358 -1736 32 24 25
-9.50284 206.95 -1741 35 25 25
-6.02941 206.83 -1740 34 25 27
-2.55288 206.116 -1734 31 23 26
0.907229 207.067 -1742 28 23 25
4.39923 208.019 -1750 29 22 24
7.90062 208.376 -1753 33 26 25
11.4853 210.042 -1767 32 29 27
22.5381 214.686 -1806 31 24 23
-93.4396 204.929 -1752 32 28 33
-89.2201 203.277 -1738 37 32 40
-85.5999 202.913 -1735 32 28 36
-81.945 202.432 -1731 22 19 26
-78.3974 202.185 -1729 17 17 18
-74.9885 202.29 -1730 17 16 18
-71.4936 202.161 -1729 17 14 17
-67.9244 201.8 -1726 17 13 17
-64.6294 202.257 -1730 16 13 17
-61.142 202.13 -1729 16 13 20
-57.6926 202.121 -1729 17 14 20
-54.5886 203.398 -1740 17 14 19
-51.0006 202.922 -1736 18 14 19
-47.5658 203.031 -1737 17 13 18
-44.0259 202.673 -1734 20 13 19
-40.5919 202.783 -1735 20 13 16
-37.0686 202.427 -1732 19 13 12
-33.6546 202.655 -1734 21 13 14
-30.2329 202.884 -1736 23 15 16
-26.819 203.23 -1739 27 19 21
-23.326 202.992 -1737 30 22 24
-19.8413 202.755 -1735 33 25 27
-16.4402 203.453 -1741 32 26 23
-12.9484 203.1 -1738 32 25 22
-9.49591 203.332 -1740 34 24 22
-6.03888 203.682 -1743 32 23 23
-2.56405 203.564 -1742 31 23 23
0.90916 204.031 -1746 32 28 29
4.42367 205.668 -1760 33 28 28
7.95345 206.253 -1765 36 29 28
-97.092 201.764 -1755 75 72 75
-92.8917 200.255 -1742 38 35 39
-88.8981 199.091 -1732 36 31 39
-85.3398 198.848 -1730 39 35 42
-81.7428 198.49 -1727 26 23 30
-78.3399 198.592 -1728 23 21 22
-74.8901 198.58 -1728 20 18 19
-71.4824 198.684 -1729 17 14 16
-68.0318 198.673 -1729 16 13 16
-64.694 199.008 -1732 15 12 16
-61.1325 198.653 -1729 13 12 17
-57.7502 198.874 -1731 16 14 19
-54.6428 200.129 -1742 18 15 20
-51.022 199.546 -1737 19 15 20
-47.6131 199.768 -1739 18 14 19
-44.0444 199.302 -1735 20 14 19
-40.6557 199.64 -1738 23 16 18
-37.1913 199.634 -1738 25 17 17
-33.7658 199.858 -1740 25 17 19
-30.3327 200.083 -1742 28 20 21
-26.9227 200.538 -1746 31 22 23
-23.4164 200.304 -1744 31 22 23
-19.9068 199.956 -1741 30 21 23
-16.4944 200.643 -1747 28 21 18
-12.991 200.296 -1744 30 22 19
-9.54903 200.983 -1750 33 23 22
-6.06568 201.097 -1751 31 23 24
-2.5828 201.556 -1755 32 25 26
0.915257 201.9 -1758 35 31 33
-96.5793 197.217 -1746 72 69 72
-92.5576 196.073 -1736 37 33 38
-88.6278 195.043 -1727 42 37 45
-85.2773 195.256 -1729 47 44 51
-81.7303 195.017 -1727 26 23 30
-78.3731 195.231 -1729 26 23 25
-75.0086 195.445 -1731 22 19 21
-71.7195 195.886 -1735 19 16 17
-68.2968 195.988 -1736 16 13 16
-64.9454 196.316 -1739 14 11 14
-61.5119 196.42 -1740 13 13 17
-57.9749 196.185 -1738 17 15 20
-54.7599 197.079 -1746 19 15 20
-51.0435 196.168 -1738 18 14 19
-47.5785 196.161 -1738 18 14 18
-44.0123 195.702 -1734 21 16 19
-40.6963 196.373 -1740 25 19 20
-37.1856 196.141 -1738 27 20 19
-33.8382 196.813 -1744 28 19 22
-30.4151 197.147 -1747 29 20 23
-27.0419 197.932 -1754 31 21 21
-23.4934 197.477 -1750 30 20 21
-19.9953 197.361 -1749 29 19 21
-16.5391 197.697 -1752 28 19 19
-13.004 197.018 -1746 30 21 21
-9.55851 197.693 -1752 35 26 27
-6.08555 198.256 -1757 36 29 30
-2.59272 198.819 -1762 35 28 30
0.918752 199.158 -1765 32 27 30
-96.4542 193.485 -1744 33 30 35
-92.7036 192.917 -1739 35 31 37
-88.7171 191.794 -1729 34 29 37
-85.2645 191.781 -1729 34 29 37
-81.6706 191.436 -1726 32 27 35
-78.2706 191.534 -1727 30 27 30
-74.7374 191.301 -1725 25 22 25
-71.5433 191.956 -1731 21 18 21
-68.2472 192.389 -1735 16 13 18
-65.0104 193.044 -1741 14 11 16
-61.7148 193.589 -1746 13 13 17
-58.233 193.58 -1746 16 15 19
-54.9711 194.348 -1753 18 15 20
-51.2414 193.453 -1745 19 15 18
-47.7082 193.224 -1743 21 16 20
-44.1834 192.995 -1741 23 16 20
-40.924 193.987 -1750 23 16 18
-37.3297 193.426 -1745 24 18 17
-33.9883 194.197 -1752 27 17 23
-30.5498 194.525 -1755 28 18 23
-27.1612 195.296 -1762 30 20 22
-23.5838 194.738 -1757 32 22 24
-20.0952 194.846 -1758 32 22 24
-16.5837 194.732 -1757 33 23 27
-13.0765 194.619 -1756 34 24 28
-9.57892 194.618 -1756 35 27 30
-6.12276 195.947 -1768 38 30 32
-2.61589 197.054 -1778 37 29 31
0.931097 198.273 -1789 34 27 28
-96.108 189.327 -1738 26 23 28
-92.4766 188.987 -1735 38 34 40
-88.6013 188.102 -1727 39 34 42
-85.3505 188.525 -1731 39 34 42
-81.7531 188.186 -1728 37 32 40
-78.3044 188.174 -1728 39 36 42
-74.813 188.054 -1727 39 36 42
-71.6154 188.697 -1733 39 36 41
-68.1978 188.795 -1734 28 25 30
-64.8887 189.221 -1738 16 13 18
-61.7763 190.301 -1748 17 14 18
-58.3912 190.618 -1751 20 17 21
-55.1512 191.481 -1759 18 15 19
-51.5568 191.146 -1756 21 16 17
-48.0569 191.139 -1756 25 19 20
-44.4559 190.697 -1752 24 15 16
-41.105 191.344 -1758 23 15 14
-37.4739 190.685 -1752 24 16 14
-34.0416 191.006 -1755 26 15 21
-30.6149 191.437 -1759 26 16 21
-27.2342 192.303 -1767 30 21 23
-23.7145 192.3 -1767 34 24 27
-20.1836 192.188 -1766 36 26 29
-16.6946 192.511 -1769 35 26 29
-13.1863 192.727 -1771 35 26 28
-9.69186 193.378 -1777 35 27 28
-6.1842 194.356 -1786 37 28 27
-2.642 195.444 -1796 37 28 27
0.936154 195.77 -1799 39 29 25
4.529 196.206 -1803 45 34 29
8.1646 197.295 -1813 54 42 35
11.7754 197.297 -1813 82 60 48
15.4115 197.625 -1816 110 88 77
-96.094 185.837 -1738 22 19 24
-92.4632 185.502 -1735 22 19 25
-88.7937 185.061 -1731 27 22 30
-85.4367 185.263 -1733 37 32 40
-81.8359 184.93 -1730 39 34 43
-78.5195 185.239 -1733 42 38 47
-75.0186 185.121 -1732 35 31 39
-71.8115 185.752 -1738 26 21 29
-68.4631 186.062 -1741 25 20 26
-65.178 186.587 -1746 17 13 18
-61.9441 187.326 -1753 23 16 19
-58.6493 187.959 -1759 22 16 19
-55.2999 188.485 -1764 21 16 19
-51.7548 188.37 -1763 23 15 15
-48.2962 188.576 -1765 24 15 14
-44.7539 188.463 -1764 29 17 14
-41.2861 188.67 -1766 29 18 14
-37.7465 188.558 -1765 27 17 13
-34.2693 188.767 -1767 29 18 22
-30.7671 188.869 -1768 30 20 24
-27.369 189.719 -1776 31 23 25
-23.8722 190.036 -1779 32 24 27
-20.3521 190.246 -1781 33 25 29
-16.8149 190.35 -1782 32 23 26
-13.2812 190.562 -1784 35 27 27
-9.76683 191.308 -1791 35 28 24
-6.22487 192.055 -1798 38 28 22
-2.65193 192.588 -1803 45 34 28
0.941213 193.229 -1809 63 48 36
4.55345 193.657 -1813 86 70 55
8.19495 194.405 -1820 108 92 75
-96.1909 182.557 -1740 25 22 27
-92.4499 182.019 -1735 20 16 21
-88.781 181.587 -1731 29 24 32
-85.5231 181.994 -1735 34 29 38
-82.0607 181.982 -1735 37 32 41
-78.5989 181.971 -1735 43 39 49
-75.1378 181.96 -1735 36 31 41
-71.9252 182.579 -1741 22 15 24
-68.6107 182.988 -1745 31 24 29
-65.3553 183.608 -1751 27 20 24
-62.2532 184.752 -1762 26 16 16
-58.8744 185.163 -1766 26 16 15
-55.48 185.575 -1770 36 26 22
-51.8942 185.357 -1768 47 32 26
-48.3988 185.455 -1769 43 27 21
-44.7983 185.134 -1766 43 24 16
-41.2568 185.023 -1765 38 21 12
-37.6983 184.808 -1763 36 20 10
-34.2644 185.222 -1767 33 22 16
-30.7279 185.113 -1766 33 23 17
-27.3343 185.947 -1774 33 22 20
-23.8821 186.572 -1780 33 23 23
-20.3949 187.093 -1785 34 25 25
-16.8219 186.881 -1783 30 22 15
-13.3016 187.298 -1787 34 25 16
-9.78728 188.135 -1795 40 28 15
-6.23439 188.763 -1801 54 40 24
-2.65598 189.286 -1806 82 67 50
0.942632 189.915 -1812 115 95 72
4.55783 190.23 -1815 134 113 88
8.18928 190.65 -1819 146 124 97
11.8108 190.652 -1819 156 121 97
15.441 190.758 -1820 165 130 107
-96.2328 179.168 -1741 33 29 34
-92.437 178.538 -1735 21 17 22
-88.8199 178.216 -1732 28 23 31
-85.4619 178.41 -1734 31 26 35
-82.0965 178.604 -1736 27 22 31
-78.6333 178.593 -1736 24 19 30
-75.1707 178.582 -1736 30 24 34
-71.9565 179.189 -1742 32 25 33
-68.719 179.797 -1748 33 24 27
-65.5328 180.61 -1756 32 22 23
-62.2798 181.321 -1763 39 25 20
-58.9995 182.033 -1770 51 35 29
-55.535 182.231 -1772 71 54 44
-51.975 182.12 -1771 86 64 50
-48.4741 182.216 -1772 80 57 43
-44.9442 182.21 -1772 76 49 35
-41.368 181.998 -1770 67 43 26
-37.8427 181.993 -1770 64 41 24
-34.3373 182.091 -1771 56 40 24
-30.7759 181.88 -1769 52 36 22
-27.3151 182.288 -1773 47 32 22
-23.8252 182.593 -1776 46 32 24
-20.3235 182.898 -1779 46 32 26
-16.8195 183.307 -1783 51 39 22
-13.3072 183.819 -1788 66 52 33
-9.80775 184.948 -1799 90 72 50
-6.25085 185.666 -1806 120 100 74
-2.66297 186.18 -1811 136 115 88
0.945093 186.797 -1817 144 119 86
4.56723 187.003 -1819 149 122 88
8.19715 187.209 -1821 161 132 96
11.8351 187.416 -1823 170 133 106
15.4983 187.829 -1827 175 140 114
-95.6669 174.667 -1731 33 29 34
-91.8916 174.048 -1725 29 25 31
-88.6026 174.339 -1728 35 30 38
-85.3516 174.731 -1732 33 28 37
-82.1798 175.325 -1738 31 26 35
-78.8489 175.616 -1741 27 22 33
-75.55 176.009 -1745 32 26 36
-72.277 176.503 -1750 37 30 36
-69.0241 177.099 -1756 38 26 25
-65.7476 177.695 -1762 42 29 26
-62.3772 178.09 -1766 59 41 30
-59.0248 178.586 -1771 84 62 48
-55.5587 178.779 -1773 109 82 65
-51.9972 178.671 -1772 124 93 70
-48.4948 178.765 -1773 124 92 69
-44.938 178.658 -1772 125 90 66
-41.3856 178.552 -1771 118 85 59
-37.8376 178.445 -1770 113 82 56
-34.3325 178.541 -1771 104 78 51
-30.789 178.436 -1770 95 69 44
-27.3113 178.734 -1773 87 61 40
-23.8353 179.134 -1777 85 61 42
-20.3093 179.232 -1778 89 66 47
-16.8173 179.734 -1783 107 85 57
-13.2979 180.135 -1787 125 102 72
-9.77918 180.839 -1794 143 116 84
-6.23617 181.644 -1802 157 128 95
-2.65821 182.248 -1808 160 131 98
0.940795 182.349 -1809 165 133 97
4.54881 182.652 -1812 167 136 99
8.17352 183.056 -1816 169 138 101
11.84 183.864 -1824 172 141 113
15.5386 184.672 -1832 171 140 114
-96.0408 171.888 -1738 35 31 36
-91.826 170.491 -1724 31 27 33
-88.6932 171.072 -1730 33 28 36
-85.3894 171.357 -1733 33 28 36
-82.3106 172.137 -1741 34 28 36
-79.1553 172.818 -1748 39 35 45
-75.9295 173.401 -1754 34 29 37
-72.6803 173.984 -1760 34 26 30
-69.2898 174.272 -1763 57 42 38
-65.9254 174.658 -1767 67 51 44
-62.5455 175.045 -1771 80 57 41
-59.1168 175.333 -1774 106 77 58
-55.5513 175.227 -1773 129 94 71
-52.0195 175.22 -1773 149 110 82
-48.5156 175.312 -1774 156 117 88
-44.9066 175.009 -1771 161 118 88
-41.3801 175.003 -1771 159 118 87
-37.8752 175.097 -1772 157 117 84
-34.3666 175.191 -1773 148 112 78
-30.8196 175.088 -1772 142 106 72
-27.3077 175.183 -1773 135 99 68
-23.7919 175.278 -1774 138 103 73
-20.2838 175.473 -1776 144 110 80
-16.7772 175.767 -1779 156 122 86
-13.2812 176.358 -1785 164 129 93
-9.76154 176.949 -1791 171 134 98
-6.22151 177.639 -1798 176 139 103
-2.65493 178.429 -1806 176 139 102
0.941181 178.824 -1810 176 140 103
4.55573 179.319 -1815 176 142 106
8.19943 180.011 -1822 175 143 108
11.8773 180.803 -1830 169 143 118
15.5874 181.595 -1838 171 147 122
-91.7074 166.842 -1722 36 31 37
-88.4252 167.121 -1725 35 30 37
-85.2303 167.594 -1730 37 32 40
-82.3471 168.745 -1742 40 34 42
-79.326 169.703 -1752 35 32 40
-76.2657 170.662 -1762 28 23 28
-72.9598 171.136 -1767 41 33 34
-69.5558 171.418 -1770 74 58 50
-66.0659 171.506 -1771 84 65 55
-62.6432 171.788 -1774 99 72 49
-59.1089 171.78 -1774 118 84 58
-55.5753 171.772 -1774 142 100 70
-52.042 171.765 -1774 168 123 90
-48.5092 171.759 -1774 181 136 102
-44.9261 171.559 -1772 186 137 102
-41.3979 171.553 -1772 186 139 102
-37.8917 171.645 -1773 182 136 98
-34.3428 171.544 -1772 179 133 93
-30.8156 171.539 -1772 179 133 93
-27.3349 171.826 -1775 175 129 87
-23.7888 171.726 -1774 175 130 90
-20.2697 171.82 -1775 180 135 95
-16.7751 172.205 -1779 183 137 96
-13.2646 172.59 -1783 181 136 95
-9.73848 172.976 -1787 184 138 100
-6.20342 173.555 -1793 188 143 105
-2.64724 174.329 -1801 191 146 109
0.940009 175.007 -1808 186 148 112
4.55262 175.588 -1814 181 146 113
8.20286 176.46 -1823 177 145 116
11.9082 177.623 -1835 166 146 123
15.6615 178.786 -1847 166 147 125
-95.5186 164.068 -1729 45 38 42
-91.163 162.443 -1712 34 28 33
-88.4651 163.76 -1726 34 30 36
-85.4164 164.508 -1734 36 32 39
-82.431 165.446 -1744 39 35 43
-79.6779 166.953 -1760 46 42 50
-76.5589 167.797 -1769 45 39 44
-73.198 168.167 -1773 64 55 54
-69.6647 168.158 -1773 86 64 54
-66.132 168.149 -1773 103 77 64
-62.6351 168.236 -1774 125 89 64
-59.1014 168.228 -1774 139 100 69
-55.5994 168.315 -1775 158 115 79
-52.006 168.119 -1773 177 133 96
-48.503 168.207 -1774 186 143 106
-44.9203 168.012 -1772 189 144 108
-41.3927 168.006 -1772 194 148 109
-37.9081 168.191 -1774 195 147 108
-34.3577 168.091 -1773 195 148 102
-30.7943 167.898 -1771 194 147 101
-27.316 168.178 -1774 191 146 100
-23.7589 167.985 -1772 191 146 100
-20.2443 168.077 -1773 193 148 103
-16.7447 168.359 -1776 193 147 105
-13.2555 168.926 -1782 186 143 100
-9.7209 169.114 -1784 185 146 103
-6.1888 169.587 -1789 191 151 111
-2.63957 170.25 -1796 193 152 113
0.938321 171.103 -1805 188 150 116
4.56207 172.336 -1818 181 148 115
8.2333 173.475 -1830 175 146 116
11.9456 174.519 -1841 164 149 125
-95.9484 161.348 -1737 44 37 42
-91.8437 160.222 -1725 34 28 34
-88.8639 161.047 -1734 35 31 37
-85.6518 161.5 -1739 34 31 38
-82.704 162.511 -1750 36 33 41
-79.8037 163.708 -1763 42 36 44
-76.679 164.534 -1772 56 48 53
-73.2301 164.71 -1774 70 59 57
-69.6167 164.516 -1772 93 68 56
-66.0491 164.414 -1771 113 84 70
-62.6272 164.685 -1774 137 97 71
-59.0273 164.491 -1772 149 107 75
-55.4985 164.484 -1772 166 121 82
-51.9995 164.571 -1773 182 137 99
-48.4422 164.471 -1772 192 147 109
-44.8639 164.28 -1770 194 149 113
-41.3174 164.182 -1769 197 151 112
-37.7966 164.177 -1769 201 154 113
-34.2759 164.172 -1769 200 152 106
-30.7556 164.168 -1769 199 152 107
-27.2509 164.257 -1770 196 151 106
-23.7559 164.44 -1772 196 151 105
-20.2188 164.344 -1771 195 150 104
-16.7049 164.435 -1772 194 150 107
-13.2092 164.804 -1776 191 150 107
-9.67067 164.71 -1775 188 153 108
-6.1809 165.823 -1787 193 155 113
-2.63337 166.286 -1792 192 154 112
0.936116 167.121 -1801 188 152 117
4.55145 168.328 -1814 181 149 116
8.23676 169.906 -1831 176 148 117
-123.76 158.069 -1738 40 33 28
-120.009 157.69 -1734 42 36 34
-116.141 157.13 -1728 50 44 45
-91.5662 156.314 -1720 35 29 35
-88.5966 157.121 -1729 37 34 41
-85.7398 158.201 -1741 36 32 40
-82.6466 158.917 -1749 36 31 40
-79.7033 159.998 -1761 39 32 40
-76.6695 160.988 -1772 48 39 43
-73.1798 161.069 -1773 70 56 53
-69.5688 160.879 -1771 105 79 66
-66.1155 161.052 -1773 118 88 73
-62.5842 161.044 -1773 140 100 74
-59.0533 161.037 -1773 155 113 81
-55.4917 160.939 -1772 173 128 90
-51.9637 160.933 -1772 191 142 105
-48.3542 160.654 -1769 198 149 112
-44.7063 160.194 -1764 201 153 116
-41.1956 160.189 -1764 201 156 116
-37.6209 159.912 -1761 199 156 114
-34.0973 159.817 -1760 199 153 114
-30.578 159.722 -1759 198 152 112
-27.0628 159.628 -1758 200 155 115
-23.5922 159.806 -1760 201 156 115
-20.1251 160.076 -1763 200 154 113
-16.6462 160.346 -1766 198 153 113
-13.1481 160.526 -1768 191 150 109
-9.65315 160.888 -1772 189 154 112
-6.14903 161.431 -1778 194 155 113
-2.62718 162.339 -1788 193 154 111
0.937033 163.701 -1803 190 153 114
4.56343 165.154 -1819 182 151 116
-123.033 153.699 -1728 42 35 30
-94.9861 152.883 -1720 35 29 37
-91.289 152.428 -1715 35 30 38
-88.1248 152.861 -1720 39 36 44
-85.5324 154.362 -1737 40 35 44
-82.3059 154.796 -1742 41 36 45
-79.3769 155.853 -1754 50 42 50
-76.4439 156.998 -1767 56 45 49
-73.0471 157.256 -1770 80 65 62
-69.4033 156.981 -1767 108 81 69
-65.9584 157.151 -1769 127 97 81
-62.4707 157.232 -1770 145 107 82
-58.8797 157.047 -1768 163 123 94
-55.3597 157.04 -1768 178 135 101
-51.6642 156.501 -1762 188 142 108
-48.1844 156.584 -1763 194 148 114
-44.4729 155.868 -1755 199 156 121
-40.9103 155.596 -1752 197 159 124
-37.3601 155.325 -1749 196 162 126
-33.7252 154.61 -1741 197 163 133
-30.2962 154.784 -1743 202 167 138
-26.8133 154.692 -1742 198 165 135
-23.3882 154.955 -1745 194 162 129
-19.9515 155.219 -1748 191 158 124
-16.4934 155.394 -1750 187 153 119
-13.0425 155.748 -1754 190 156 122
-9.5812 156.191 -1759 194 162 127
-6.1241 157.255 -1771 196 159 120
-2.61071 157.787 -1777 188 150 110
0.931716 159.208 -1793 189 152 113
4.54281 160.807 -1811 182 152 118
-94.3675 148.486 -1709 33 27 35
-91.1184 148.736 -1712 35 30 38
-88.3193 149.768 -1724 40 37 45
-85.7192 151.235 -1741 45 41 49
-82.4379 151.573 -1745 47 42 50
-79.2317 152.084 -1751 55 47 55
-76.2186 153.03 -1762 57 47 50
-72.7909 153.195 -1764 80 65 61
-69.238 153.1 -1763 110 84 72
-65.8015 153.266 -1765 128 98 84
-62.3222 153.346 -1766 148 112 89
-58.6396 152.904 -1761 162 125 99
-55.0087 152.55 -1757 173 133 105
-51.3357 152.023 -1751 181 141 110
-47.7688 151.757 -1748 195 155 124
-44.1382 151.231 -1742 206 173 141
-40.5086 150.618 -1735 222 195 165
-36.9926 150.353 -1732 233 216 188
-33.4693 150.002 -1728 244 230 210
-29.9972 149.825 -1726 248 233 214
-26.5177 149.561 -1723 249 237 217
-23.1443 149.905 -1727 246 234 211
-19.698 149.816 -1726 239 227 203
-16.3313 150.421 -1733 227 211 184
-12.9294 150.94 -1739 215 193 167
-9.50383 151.46 -1745 205 178 151
-6.05424 151.98 -1751 196 165 133
-2.5781 152.326 -1755 189 157 123
0.920168 153.715 -1771 187 153 118
4.4896 155.365 -1790 183 154 125
-97.2507 144.316 -1700 42 34 42
-94.4669 145.238 -1711 37 30 38
-91.4805 145.907 -1719 40 34 42
-88.053 145.897 -1719 45 40 48
-84.9217 146.396 -1725 55 50 58
-82.0505 147.405 -1737 58 53 61
-78.7249 147.65 -1740 59 51 57
-75.9503 148.999 -1756 57 48 50
-72.4937 149.075 -1757 63 51 47
-68.9944 149.067 -1757 92 70 57
-65.5329 149.144 -1758 115 89 74
-62.068 149.222 -1759 137 105 86
-58.1334 148.112 -1746 147 115 93
-54.6894 148.191 -1747 166 132 108
-50.9193 147.336 -1737 204 176 147
-47.1075 146.228 -1724 245 220 191
-43.7278 146.393 -1726 249 239 210
-40.2004 146.049 -1722 254 248 224
-36.7534 145.959 -1721 255 250 231
-33.2138 145.447 -1715 255 253 242
-29.82 145.528 -1716 255 252 241
-26.3608 145.27 -1713 255 252 240
-23.0076 145.607 -1717 255 253 239
-19.6044 145.689 -1718 254 252 237
-16.2352 146.111 -1723 254 250 233
-12.8238 146.279 -1725 253 248 229
-9.41563 146.617 -1729 247 241 220
-6.00861 147.379 -1738 237 225 201
-2.56018 147.803 -1743 223 207 181
0.911223 148.735 -1754 203 183 158
4.4339 149.923 -1768 187 171 150
-134.358 144.446 -1741 27 19 18
-129.824 143.27 -1727 41 32 28
-94.5115 141.901 -1712 41 33 40
-91.0977 141.89 -1712 44 36 43
-87.7358 141.963 -1713 51 45 51
-84.7644 142.699 -1722 58 54 60
-81.805 143.519 -1732 58 55 60
-78.4898 143.758 -1735 55 50 53
-75.6823 144.993 -1750 57 50 50
-72.1967 144.984 -1750 53 44 38
-68.7117 144.977 -1750 63 44 32
-65.1901 144.886 -1749 73 51 38
-61.7082 144.879 -1749 104 79 61
-57.9272 144.127 -1740 153 129 108
-54.1511 143.293 -1730 226 203 179
-50.474 142.624 -1722 254 247 219
-46.9383 142.287 -1718 255 249 221
-43.3429 141.703 -1711 255 253 225
-39.9392 141.698 -1711 255 253 231
-36.5143 141.611 -1710 255 252 235
-33.0745 141.441 -1708 255 252 244
-29.7297 141.686 -1711 255 251 243
-26.3117 141.6 -1710 255 252 243
-22.9514 141.846 -1713 254 252 243
-19.5452 141.844 -1713 255 253 243
-16.1768 142.173 -1717 255 255 242
-12.7703 142.254 -1718 255 254 240
-9.3817 142.667 -1723 255 252 236
-5.96992 142.997 -1727 255 251 233
-2.54375 143.411 -1732 254 249 231
0.90488 144.239 -1742 250 247 229
4.39077 144.984 -1751 243 239 224
7.92148 145.896 -1762 231 226 215
81.4998 145.918 -1761 252 254 253
84.9607 145.844 -1760 251 253 253
88.4683 145.854 -1760 250 252 251
-145.709 141.9 -1752 36 29 23
-141.715 141.398 -1746 30 24 19
-136.955 140.087 -1730 26 19 15
-106.773 136.743 -1690 39 33 36
-103.155 136.408 -1686 39 35 36
-99.969 136.64 -1689 39 33 39
-96.8858 137.033 -1694 32 25 33
-94.0043 137.751 -1703 53 45 51
-87.4701 138.136 -1708 58 52 54
-84.7059 139.178 -1721 67 63 65
-81.7016 139.896 -1730 62 59 61
-78.255 139.888 -1730 58 55 55
-75.1983 140.607 -1739 67 63 60
-71.7762 140.68 -1740 67 61 54
-68.2331 140.511 -1738 62 48 36
-64.6984 140.342 -1736 62 45 32
-61.137 140.092 -1733 100 81 64
-57.5213 139.682 -1728 204 187 166
-53.9261 139.272 -1723 249 239 215
-50.2632 138.619 -1715 255 250 222
-46.7692 138.372 -1712 255 249 222
-43.3128 138.205 -1710 254 253 227
-39.818 137.877 -1706 252 251 230
-36.425 137.873 -1706 253 251 234
-33.0514 137.95 -1707 254 252 242
-29.6917 138.108 -1709 254 252 243
-26.2934 138.105 -1709 254 253 244
-22.9489 138.426 -1713 254 252 244
-19.5431 138.424 -1713 254 252 243
-16.1468 138.502 -1714 252 253 242
-12.7392 138.501 -1714 254 253 242
-9.35347 138.823 -1718 255 252 239
-5.94854 139.065 -1721 255 252 239
-2.53614 139.549 -1727 255 252 239
0.900619 140.114 -1734 255 251 241
4.35519 140.357 -1737 255 253 244
7.84868 141.085 -1746 255 253 247
11.3523 141.49 -1751 254 250 241
14.8672 141.815 -1755 245 239 230
50.279 143.305 -1773 232 233 227
53.5942 142.745 -1766 252 252 245
57.0113 142.508 -1763 252 251 237
60.4171 142.272 -1760 252 251 236
63.9929 142.441 -1762 253 252 237
67.3858 142.205 -1759 254 254 242
70.9282 142.294 -1760 254 255 244
74.3909 142.221 -1759 254 255 244
77.8942 142.229 -1759 254 255 247
81.2595 141.995 -1756 251 254 250
84.6616 141.842 -1754 252 255 252
88.1571 141.852 -1754 251 254 251
91.5486 141.7 -1752 250 252 246
95.15 141.872 -1754 250 253 246
-159.639 138.381 -1751 68 70 63
-156.398 138.601 -1754 34 34 28
-152.622 138.347 -1751 52 51 45
-149.286 138.489 -1753 47 41 34
-145.859 138.553 -1754 38 31 23
-141.781 137.984 -1747 32 25 19
-137.415 137.101 -1736 28 21 16
-133.712 136.849 -1733 37 30 26
-106.509 133.05 -1686 39 32 36
-99.9583 133.265 -1689 37 32 38
-97.2186 134.122 -1700 34 28 36
-93.8839 134.191 -1701 53 45 50
-87.8704 135.355 -1716 65 59 59
-84.7952 135.898 -1723 74 70 69
-81.5984 136.283 -1728 71 67 66
-78.0658 136.117 -1726 67 67 61
-74.8876 136.582 -1732 79 77 69
-71.4387 136.574 -1732 78 74 63
-67.8725 136.331 -1729 96 86 69
-64.3934 136.245 -1728 122 110 93
-60.9187 136.159 -1727 136 124 102
-57.2822 135.68 -1721 189 179 154
-53.7951 135.516 -1719 247 242 214
-50.1992 135.038 -1713 254 248 219
-46.7096 134.796 -1710 254 249 221
-43.2068 134.476 -1706 254 252 223
-39.7905 134.393 -1705 254 251 226
-36.3998 134.389 -1705 255 253 230
-33.0286 134.464 -1706 255 254 235
-29.6712 134.618 -1708 255 254 236
-26.2905 134.694 -1709 255 254 238
-22.9464 135.007 -1713 255 252 237
-19.541 135.005 -1713 255 251 236
-16.145 135.082 -1714 254 252 237
-12.7379 135.08 -1714 254 253 238
-9.34159 135.236 -1716 255 253 237
-5.94446 135.551 -1720 254 254 237
-2.53294 135.944 -1725 253 253 236
0.898958 136.417 -1731 254 252 238
4.35471 136.89 -1737 252 251 238
7.82986 137.285 -1742 252 251 239
11.3185 137.601 -1746 255 251 238
14.8063 137.76 -1748 255 252 239
18.3021 137.92 -1750 254 254 247
21.7935 138.001 -1751 255 255 251
25.3034 138.161 -1753 255 255 253
46.5093 139.051 -1764 227 226 219
49.9901 138.977 -1763 234 234 225
53.4368 138.825 -1761 240 241 231
56.8112 138.515 -1757 251 251 235
60.2389 138.364 -1755 251 250 234
63.7682 138.449 -1756 250 249 233
67.2252 138.377 -1755 252 252 239
70.7192 138.385 -1755 254 254 243
74.2136 138.392 -1755 252 253 242
77.5758 138.164 -1752 252 253 245
81.2507 138.488 -1756 249 250 247
84.6526 138.339 -1754 251 252 251
88.0973 138.269 -1753 254 255 254
91.3299 137.884 -1748 251 253 248
95.0312 138.21 -1752 252 254 248
98.4683 138.141 -1751 254 255 249
102.193 138.467 -1755 255 255 252
-165.216 133.755 -1736 250 249 235
-158.711 134.107 -1741 136 136 121
-155.49 134.322 -1744 78 77 63
-152.257 134.537 -1747 98 96 84
-149.1 134.829 -1751 92 86 77
-145.844 135.045 -1754 62 55 47
-141.766 134.491 -1747 67 60 54
-137.559 133.784 -1738 52 45 39
-133.466 133.154 -1730 45 38 33
-128.88 131.986 -1715 46 38 30
-110.644 130.616 -1698 44 37 40
-107.066 130.374 -1695 38 32 35
-103.562 130.209 -1693 40 36 39
-100.599 130.737 -1700 33 29 33
-97.6658 131.342 -1708 46 41 47
-87.8099 131.851 -1715 74 68 66
-84.7863 132.457 -1723 80 76 71
-81.4955 132.679 -1726 79 76 70
-78.0124 132.594 -1725 73 73 60
-74.75 132.894 -1729 103 102 87
-71.3074 132.886 -1729 114 111 93
-67.7476 132.648 -1726 146 138 116
-64.2003 132.411 -1723 158 149 126
-60.736 132.328 -1722 144 135 108
-57.143 131.937 -1717 164 157 129
-53.633 131.701 -1714 243 239 210
-50.2233 131.696 -1714 255 250 221
-46.732 131.46 -1711 255 251 222
-43.253 131.225 -1708 255 253 224
-39.833 131.144 -1707 255 253 224
-36.4172 131.063 -1706 255 251 223
-33.0252 131.06 -1706 253 251 224
-29.668 131.21 -1708 252 250 224
-26.3032 131.361 -1710 252 250 228
-22.9307 131.512 -1712 254 250 230
-19.539 131.587 -1713 255 251 231
-16.1339 131.585 -1713 253 251 233
-12.7364 131.66 -1714 254 251 233
-9.35696 132.043 -1719 255 252 234
-5.94385 132.119 -1720 254 253 233
-2.53415 132.58 -1726 253 252 232
0.899377 133.04 -1732 254 252 234
4.35426 133.425 -1737 254 253 235
7.81556 133.579 -1739 252 252 234
11.2978 133.887 -1743 254 251 235
14.7709 133.965 -1744 254 252 238
18.2583 134.121 -1746 253 254 244
21.7165 134.046 -1745 253 253 246
25.2142 134.202 -1747 254 254 250
28.7364 134.435 -1750 255 254 255
32.2524 134.592 -1752 255 253 253
42.8013 134.911 -1756 255 253 249
46.2935 134.916 -1756 254 252 243
49.7862 134.921 -1756 251 251 240
53.1885 134.695 -1753 248 249 237
56.579 134.471 -1750 254 252 237
60.061 134.477 -1750 254 252 236
63.5437 134.483 -1750 250 249 234
67.0267 134.49 -1750 252 251 240
70.5908 134.651 -1752 254 252 244
74.1213 134.735 -1753 252 253 243
77.612 134.743 -1753 253 253 247
81.1034 134.751 -1753 253 253 251
84.4023 134.452 -1749 254 254 255
87.9374 134.538 -1750 253 253 254
91.3724 134.47 -1749 253 253 251
94.9129 134.557 -1750 253 253 248
98.4019 134.567 -1750 251 252 245
102.183 134.962 -1755 253 254 247
105.864 135.203 -1758 253 253 248
109.496 135.368 -1760 255 253 250
113.072 135.457 -1761 254 254 250
116.786 135.699 -1764 255 255 250
120.171 135.558 -1762 255 254 250
123.901 135.801 -1765 254 255 249
127.355 135.737 -1764 251 254 246
131.251 136.136 -1769 252 253 245
134.711 136.072 -1768 253 254 246
138.637 136.471 -1773 254 255 249
142.263 136.563 -1774 254 254 248
146.306 137.04 -1780 251 252 247
-175.752 130.409 -1737 253 253 237
-172.066 130.241 -1735 255 254 235
-168.585 130.224 -1735 252 249 225
-164.819 129.982 -1732 254 253 230
-161.439 130.04 -1733 254 254 232
-157.874 129.949 -1732 204 202 180
-154.315 129.858 -1731 104 100 79
-151.109 130.068 -1734 68 63 44
-147.978 130.353 -1738 124 117 108
-144.748 130.563 -1741 105 98 90
-140.453 129.799 -1731 114 107 101
-136.912 129.71 -1730 68 61 56
-132.758 129.021 -1721 43 36 31
-128.867 128.558 -1715 48 41 35
-113.418 126.561 -1689 47 41 40
-110.503 127.074 -1696 41 34 35
-106.866 126.764 -1692 44 38 39
-103.673 126.978 -1695 36 32 35
-100.588 127.342 -1700 30 26 29
-97.7131 128.006 -1709 56 52 55
-94.3058 127.996 -1709 58 50 50
-91.3782 128.661 -1718 64 56 55
-88.2617 129.101 -1724 82 76 71
-85.2697 129.767 -1733 82 78 70
-81.676 129.533 -1730 77 74 66
-78.0496 129.226 -1726 77 75 55
-74.6559 129.293 -1727 109 107 84
-71.1764 129.211 -1726 144 140 114
-67.7015 129.129 -1725 174 166 137
-64.1565 128.898 -1722 176 167 137
-60.6945 128.817 -1721 149 142 109
-57.1373 128.511 -1717 158 153 121
-53.6589 128.356 -1715 234 231 199
-50.1596 128.126 -1712 252 244 216
-46.7272 128.047 -1711 254 246 218
-43.2486 127.818 -1708 250 245 216
-39.8289 127.739 -1707 249 244 213
-36.4349 127.735 -1707 250 245 212
-33.0218 127.657 -1706 243 240 205
-29.6476 127.728 -1707 243 240 206
-26.2544 127.725 -1707 241 240 208
-22.9016 127.947 -1710 244 241 213
-19.5141 128.02 -1711 245 241 216
-16.1229 128.093 -1712 242 240 219
-12.7352 128.241 -1714 244 239 219
-9.35602 128.614 -1719 250 240 221
-5.94671 128.763 -1721 252 246 223
-2.5339 129.137 -1726 252 248 223
0.899279 129.586 -1732 255 248 225
4.3513 129.885 -1736 255 251 228
7.81476 130.11 -1739 255 251 230
11.2967 130.411 -1743 255 252 236
14.7525 130.337 -1742 254 252 237
18.2042 130.264 -1741 255 254 244
21.677 130.341 -1742 254 254 247
25.1395 130.343 -1742 253 254 247
28.6514 130.57 -1745 254 253 253
32.1203 130.573 -1745 254 253 254
35.6506 130.801 -1748 255 252 253
39.1486 130.88 -1749 254 252 249
42.6751 131.034 -1751 255 253 249
46.078 130.814 -1748 254 253 244
49.5827 130.893 -1749 253 252 241
52.9402 130.599 -1745 253 253 241
56.4116 130.605 -1745 255 253 239
59.9177 130.685 -1746 255 253 240
63.4644 130.841 -1748 253 250 237
66.9816 130.923 -1749 252 250 241
70.5031 131.004 -1750 255 253 246
74.0714 131.161 -1752 255 254 245
77.5156 131.094 -1751 254 253 247
81.0025 131.102 -1751 254 253 253
84.4903 131.111 -1751 255 254 255
88.0288 131.194 -1752 254 253 254
91.4154 131.053 -1750 254 253 251
94.9031 131.063 -1750 255 254 249
98.448 131.147 -1751 255 254 248
102.114 131.382 -1754 254 254 245
105.733 131.543 -1756 254 254 245
109.36 131.703 -1758 254 252 245
112.996 131.864 -1760 253 252 245
116.575 131.951 -1761 253 252 245
120.023 131.888 -1760 254 252 245
123.537 131.9 -1760 253 252 245
127.125 131.988 -1761 253 253 246
130.941 132.301 -1765 255 253 246
134.545 132.389 -1766 255 253 247
138.388 132.703 -1770 255 253 247
142.008 132.792 -1771 254 252 246
145.88 133.106 -1775 254 253 247
149.264 132.971 -1773 255 253 249
152.9 133.062 -1774 253 252 249
-203.448 126.937 -1735 253 251 253
-200.068 126.99 -1736 255 254 254
-195.893 126.532 -1730 255 253 254
-192.745 126.732 -1733 255 255 253
-189.15 126.64 -1732 255 255 251
-185.989 126.841 -1735 255 255 248
-182.397 126.749 -1734 252 252 242
-178.913 126.731 -1734 238 238 226
-175.33 126.641 -1733 253 252 232
-171.653 126.478 -1731 255 253 229
-168.082 126.388 -1730 255 251 222
-164.327 126.152 -1727 253 251 221
-160.864 126.136 -1727 253 250 221
-157.221 125.975 -1725 240 236 207
-153.675 125.886 -1724 149 144 117
-150.397 126.017 -1726 92 86 61
-147.112 126.149 -1728 111 104 92
-144.152 126.572 -1734 127 120 110
-140.683 126.558 -1734 95 88 81
-136.661 126.034 -1727 47 40 34
-132.282 125.145 -1715 47 39 36
-128.554 124.84 -1711 44 39 34
-124.55 124.244 -1703 38 32 27
-113.273 123.042 -1687 48 42 41
-110.296 123.469 -1693 40 32 34
-106.413 122.875 -1685 48 41 43
-103.174 123.01 -1687 35 31 33
-100.283 123.584 -1695 40 34 35
-97.1317 123.865 -1699 60 53 54
-88.253 125.661 -1724 79 74 69
-85.1628 126.162 -1731 74 70 61
-81.6679 126.081 -1730 79 76 65
-78.1323 125.928 -1728 90 87 63
-74.7782 126.066 -1730 146 143 116
-71.2107 125.84 -1727 191 186 153
-67.6163 125.542 -1723 200 191 156
-64.1129 125.39 -1721 179 169 134
-60.618 125.238 -1719 139 132 98
-56.9319 124.649 -1711 139 131 99
-53.5284 124.644 -1711 217 210 179
-50.1253 124.639 -1711 246 239 213
-46.7226 124.634 -1711 254 248 222
-43.2949 124.557 -1710 253 250 224
-39.8716 124.48 -1709 255 252 223
-36.4953 124.549 -1710 254 253 220
-33.0572 124.4 -1708 255 252 213
-29.6621 124.397 -1708 255 251 213
-26.2365 124.249 -1706 254 252 218
-22.8592 124.319 -1707 255 254 225
-19.4894 124.463 -1709 255 255 229
-16.1119 124.607 -1711 255 254 235
-12.7413 124.896 -1715 255 252 233
-9.36055 125.259 -1720 255 250 231
-5.94613 125.332 -1721 254 250 225
-2.53513 125.768 -1727 254 250 223
0.898146 125.987 -1730 255 250 221
4.34836 126.351 -1735 255 250 225
7.80949 126.57 -1738 255 251 229
11.2761 126.717 -1740 254 250 235
14.7339 126.718 -1740 253 250 235
18.1815 126.647 -1739 254 253 244
21.6624 126.794 -1741 254 254 247
25.0937 126.651 -1739 254 253 248
28.5665 126.726 -1740 253 254 255
32.0067 126.656 -1739 253 253 254
35.5452 126.951 -1743 255 252 255
39.0103 126.955 -1743 255 254 253
42.5246 127.104 -1745 254 252 250
45.9944 127.109 -1745 254 252 243
49.4361 127.041 -1744 255 254 243
52.8439 126.9 -1742 253 253 240
56.2442 126.76 -1740 255 252 238
59.7402 126.838 -1741 255 254 240
63.313 127.063 -1744 254 252 239
66.8599 127.215 -1746 253 251 241
70.3753 127.294 -1747 255 253 245
74.0218 127.593 -1751 255 253 244
77.5077 127.6 -1751 255 254 248
80.9483 127.535 -1750 255 253 254
84.4335 127.543 -1750 254 251 253
87.8694 127.479 -1749 255 253 253
91.1973 127.269 -1746 255 254 250
94.8395 127.497 -1749 254 252 246
98.3821 127.579 -1750 254 252 244
101.987 127.735 -1752 253 252 238
105.541 127.818 -1753 255 254 240
109.225 128.047 -1756 255 254 243
112.792 128.131 -1757 255 254 244
116.299 128.142 -1757 254 253 243
119.874 128.227 -1758 255 254 244
123.385 128.239 -1758 255 253 245
126.896 128.251 -1758 255 253 245
130.557 128.41 -1760 255 252 245
134.15 128.496 -1761 255 252 246
137.983 128.801 -1765 255 253 247
141.513 128.815 -1765 255 253 247
145.455 129.194 -1770 255 253 247
149.081 129.281 -1771 255 253 245
152.971 129.588 -1775 255 254 247
155.908 129.092 -1768 255 253 246
159.9 129.473 -1773 254 252 246
-216.922 123.258 -1731 254 252 252
-213.429 123.237 -1731 255 252 251
-209.816 123.146 -1730 255 251 249
-206.447 123.197 -1731 255 251 249
-202.725 123.035 -1729 255 252 250
-199.357 123.087 -1730 255 252 250
-195.535 122.854 -1727 255 251 249
-192.393 123.049 -1730 254 253 247
-188.804 122.96 -1729 255 254 245
-185.542 123.084 -1731 254 254 240
-182.169 123.138 -1732 255 254 238
-178.586 123.049 -1731 235 234 216
-175.009 122.961 -1730 251 251 228
-171.537 122.944 -1730 255 254 226
-168.066 122.928 -1730 255 251 217
-164.216 122.628 -1726 245 242 207
-160.662 122.542 -1725 251 249 213
-157.114 122.455 -1724 249 244 210
-153.571 122.369 -1723 203 198 166
-150.121 122.355 -1723 105 98 70
-147.012 122.625 -1727 119 112 98
-144.055 123.037 -1733 96 89 78
-140.75 123.165 -1735 53 46 39
-137.28 123.152 -1735 40 33 28
-132.655 122.074 -1720 48 40 38
-128.692 121.565 -1713 39 35 29
-124.976 121.269 -1709 34 29 24
-121.278 120.973 -1705 48 40 37
-117.528 120.607 -1700 49 42 41
-113.866 120.312 -1696 48 42 41
-110.872 120.727 -1702 41 33 35
-107.35 120.575 -1700 46 39 40
-103.898 120.494 -1699 32 27 28
-101.16 121.264 -1710 50 43 42
-97.9797 121.539 -1714 62 54 52
-91.4134 121.875 -1719 66 60 57
-88.398 122.434 -1727 76 71 65
-85.007 122.496 -1728 71 67 56
-81.5655 122.488 -1728 95 92 79
-78.1247 122.481 -1728 125 122 92
-74.6414 122.403 -1727 165 161 129
-71.0388 122.112 -1723 191 187 149
-67.6097 122.105 -1723 202 194 155
-63.995 121.745 -1718 186 178 139
-60.5064 121.597 -1716 156 150 115
-56.8932 121.167 -1710 157 150 117
-53.4294 121.02 -1708 236 228 197
-50.0326 121.015 -1708 255 252 226
-46.6361 121.01 -1708 255 253 226
-43.2402 121.006 -1708 248 246 219
-39.8445 121.002 -1708 239 237 206
-36.4491 120.998 -1708 233 231 196
-33.0347 120.924 -1707 238 230 187
-29.6419 120.921 -1707 240 232 190
-26.2339 120.848 -1706 240 233 198
-22.8569 120.916 -1707 245 239 208
-19.4761 120.985 -1708 252 250 220
-16.1104 121.196 -1711 255 253 231
-12.7476 121.549 -1716 254 252 230
-9.3651 121.902 -1721 250 249 226
-5.95593 122.113 -1724 243 240 212
-2.53636 122.396 -1728 239 236 206
0.89961 122.75 -1733 243 237 204
4.35044 122.963 -1736 247 241 213
7.80874 123.105 -1738 252 246 224
11.2621 123.106 -1738 255 250 235
14.7325 123.249 -1740 255 251 237
18.1797 123.18 -1739 255 253 244
21.6105 123.04 -1737 255 253 247
25.048 122.972 -1736 254 252 248
28.4981 122.974 -1736 252 254 255
31.93 122.906 -1735 251 252 254
35.4194 123.051 -1737 255 251 255
38.8946 123.125 -1738 254 251 253
42.3741 123.2 -1739 255 254 255
45.7791 123.063 -1737 255 253 245
49.2046 122.996 -1736 255 253 242
52.5962 122.86 -1734 255 255 242
56.0772 122.936 -1735 255 252 238
59.6999 123.295 -1740 255 253 238
63.2343 123.443 -1742 255 252 239
66.7769 123.591 -1744 253 251 241
70.328 123.739 -1746 254 252 243
73.9302 123.959 -1749 255 252 243
77.3233 123.824 -1747 254 251 246
80.8478 123.903 -1748 254 251 252
84.3772 123.981 -1749 255 253 251
87.911 124.06 -1750 254 252 250
91.3452 123.998 -1749 254 253 246
94.776 123.936 -1748 255 254 245
98.3724 124.087 -1750 255 254 242
101.861 124.097 -1750 254 252 232
105.471 124.248 -1752 254 252 234
109.09 124.401 -1754 255 253 238
112.717 124.553 -1756 255 254 242
116.155 124.493 -1755 255 254 242
119.726 124.575 -1756 254 254 242
123.022 124.374 -1753 255 254 244
126.739 124.599 -1756 255 252 244
130.173 124.54 -1755 255 252 244
133.985 124.837 -1759 255 252 244
137.892 125.205 -1764 255 252 245
141.66 125.431 -1767 255 253 245
145.276 125.515 -1768 255 253 245
148.898 125.601 -1769 255 252 244
152.611 125.757 -1771 255 253 244
155.981 125.63 -1769 255 253 243
159.614 125.716 -1770 255 253 243
163.437 125.945 -1773 255 253 244
167.085 126.031 -1774 255 253 244
171.22 126.474 -1780 254 253 246
174.889 126.562 -1781 255 253 248
178.663 126.721 -1783 254 253 249
182.345 126.809 -1784 250 250 250
-239.273 120.611 -1741 236 236 240
-235.342 120.381 -1738 246 245 248
-231.559 120.22 -1736 253 251 252
-227.391 119.853 -1731 255 253 252
-223.634 119.693 -1729 255 253 252
-219.887 119.534 -1727 255 254 250
-216.275 119.444 -1726 255 252 249
-213.039 119.563 -1728 255 251 249
-209.553 119.543 -1728 255 252 243
-205.951 119.454 -1727 255 252 244
-202.588 119.504 -1728 255 253 247
-198.993 119.416 -1727 255 252 246
-195.403 119.329 -1726 255 252 246
-192.264 119.518 -1729 254 251 245
-188.786 119.5 -1729 255 252 241
-185.525 119.621 -1731 255 253 235
-182.151 119.673 -1732 255 254 233
-178.466 119.518 -1730 235 234 212
-174.993 119.502 -1730 240 239 212
-171.421 119.416 -1729 253 252 220
-167.856 119.332 -1728 253 250 212
-164.2 119.178 -1726 238 237 197
-160.926 119.301 -1728 243 242 202
-157.099 119.01 -1724 245 244 204
-153.468 118.857 -1722 232 229 195
-150.107 118.912 -1723 145 141 112
-146.998 119.175 -1727 92 86 73
-143.46 119.092 -1726 63 56 46
-140.169 119.217 -1728 42 35 29
-136.397 118.928 -1724 45 37 33
-131.871 117.95 -1710 46 36 34
-128.304 117.8 -1708 36 29 24
-124.818 117.719 -1707 40 33 28
-121.338 117.639 -1706 48 40 40
-117.932 117.628 -1706 46 40 40
-114.325 117.41 -1703 44 40 39
-111.252 117.744 -1708 39 32 34
-107.655 117.527 -1705 39 33 34
-104.316 117.586 -1706 37 32 33
-101.151 117.853 -1710 54 46 43
-91.458 118.515 -1720 70 62 62
-88.2361 118.782 -1724 73 66 63
-84.9006 118.912 -1726 88 83 71
-81.5106 118.973 -1727 129 125 110
-77.9818 118.828 -1725 150 149 112
-74.6343 118.959 -1727 196 195 156
-71.0321 118.677 -1723 211 210 167
-67.5249 118.532 -1721 206 202 164
-63.8027 117.975 -1713 201 196 159
-60.3597 117.901 -1712 188 184 152
-56.788 117.551 -1707 175 170 136
-53.3306 117.408 -1705 237 230 196
-49.9986 117.541 -1707 255 250 220
-46.6045 117.537 -1707 246 242 211
-43.2108 117.532 -1707 225 223 184
-39.8174 117.529 -1707 211 208 166
-36.467 117.663 -1709 210 207 162
-33.0703 117.66 -1709 213 206 160
-29.6565 117.588 -1708 220 213 169
-26.2314 117.448 -1706 223 218 179
-22.8547 117.514 -1707 231 226 188
-19.4743 117.581 -1708 246 242 205
-16.0994 117.717 -1710 254 250 221
-12.7389 118.06 -1715 252 248 219
-9.36423 118.472 -1721 244 242 211
-5.95193 118.609 -1723 241 238 205
-2.53613 118.953 -1728 240 237 203
0.898482 119.159 -1731 244 240 208
4.34001 119.228 -1732 249 245 219
7.79003 119.367 -1734 253 249 231
11.2416 119.436 -1735 255 252 242
14.6972 119.506 -1736 255 252 243
18.1465 119.508 -1736 255 252 245
21.5961 119.51 -1736 255 253 246
25.0024 119.305 -1733 255 253 247
28.4462 119.308 -1733 252 253 252
31.8718 119.242 -1732 253 253 253
35.3141 119.245 -1732 255 252 253
38.8015 119.386 -1734 255 253 252
42.2727 119.459 -1735 255 253 252
45.7219 119.463 -1735 255 253 245
49.115 119.329 -1733 255 253 246
52.5003 119.196 -1731 255 254 246
56.0074 119.339 -1733 255 254 242
59.5914 119.62 -1737 255 253 241
63.083 119.694 -1738 254 252 240
66.6558 119.907 -1741 254 252 243
70.2409 120.12 -1744 255 253 245
73.8385 120.333 -1747 255 253 246
77.2718 120.272 -1746 254 253 248
80.7478 120.279 -1746 254 253 252
84.2726 120.355 -1747 255 253 248
87.8526 120.501 -1749 255 253 248
91.2321 120.372 -1747 255 253 247
94.6588 120.311 -1746 255 254 244
98.2508 120.458 -1748 255 254 242
101.793 120.536 -1749 253 252 233
105.281 120.546 -1749 254 252 232
108.831 120.625 -1750 255 253 232
112.514 120.842 -1753 255 255 237
115.946 120.784 -1752 254 253 236
119.442 120.795 -1752 254 252 241
122.94 120.806 -1752 255 253 242
126.511 120.886 -1753 255 254 242
129.938 120.829 -1752 255 253 243
133.82 121.186 -1757 255 253 243
137.566 121.406 -1760 255 253 242
141.326 121.626 -1763 254 251 239
145.345 122.053 -1769 255 254 241
148.8 121.998 -1768 255 253 242
152.424 122.081 -1769 255 254 242
155.878 122.026 -1768 255 253 241
159.419 122.041 -1768 255 253 241
163.053 122.125 -1769 255 253 241
166.787 122.278 -1771 255 252 240
170.626 122.501 -1774 255 253 240
174.578 122.794 -1778 255 254 241
178.546 123.086 -1782 255 254 241
181.919 122.965 -1780 255 253 245
186.015 123.328 -1785 255 253 246
189.389 123.207 -1783 254 252 249
193.189 123.363 -1785 253 253 250
-246.021 117.03 -1739 247 248 250
-242.219 116.873 -1737 251 251 252
-238.426 116.716 -1735 255 252 251
-234.643 116.56 -1733 254 251 248
-230.87 116.405 -1731 255 252 247
-227.108 116.249 -1729 255 253 247
-223.484 116.162 -1728 255 254 247
-219.994 116.141 -1728 255 253 244
-216.506 116.122 -1728 255 253 245
-213.142 116.169 -1729 255 253 245
-209.655 116.15 -1729 255 253 239
-206.289 116.198 -1730 255 253 240
-202.687 116.113 -1729 255 252 243
-199.09 116.027 -1728 255 253 244
-195.498 115.942 -1727 255 253 244
-192.246 116.059 -1729 255 253 245
-188.878 116.109 -1730 255 252 240
-185.508 116.159 -1731 255 252 233
-182.135 116.209 -1732 255 253 231
-178.45 116.059 -1730 243 241 217
-174.977 116.043 -1730 230 229 200
-171.406 115.96 -1729 253 251 218
-167.937 115.945 -1729 255 252 214
-164.185 115.729 -1726 236 235 193
-160.819 115.781 -1727 234 233 190
-156.812 115.364 -1721 248 247 205
-153.275 115.283 -1720 247 244 210
-149.919 115.337 -1721 179 175 149
-146.73 115.524 -1724 60 54 43
-143.031 115.31 -1721 44 37 28
-139.832 115.499 -1724 45 37 31
-136.147 115.285 -1721 49 40 35
