ply
format ascii 1.0
comment Created by Open3D
element vertex 736
property double x
property double y
property double z
property double nx
property double ny
property double nz
property uchar red
property uchar green
property uchar blue
end_header
1415.69 260.564 -1295.31 0.138548 0.139038 0.904045 170 169 179
1418.14 267.039 -1296.38 0.0398693 0.119672 0.900504 160 159 170
1431.83 252.79 -1292.49 0.387501 -0.0844318 0.917633 197 194 198
1436.21 245.148 -1296.1 0.515015 -0.0969326 0.846192 185 182 185
1433.41 251.894 -1293.44 0.425252 -0.097758 0.894141 194 190 195
1419.95 266.377 -1292.46 0.292031 -0.0124123 0.934881 200 197 202
1436.7 257.767 -1294.48 0.473993 -0.104066 0.852346 191 187 191
1439.62 257.419 -1296.2 0.529702 -0.115164 0.809867 185 181 185
1436.26 262.976 -1293.8 0.445084 -0.0915977 0.866728 194 190 194
1442.38 264.659 -1297.25 0.583413 -0.113532 0.734212 183 179 182
1421.74 273.278 -1294.66 -0.0190142 -0.0102787 0.879632 182 180 188
1424.32 280.406 -1297.98 -0.346295 -0.0956442 0.767071 151 148 161
1435.84 272.02 -1293.49 0.315204 -0.0617607 0.875284 202 198 202
1440.84 268.534 -1295.73 0.545866 -0.115299 0.75754 191 187 190
1437.22 277.568 -1293.58 0.303762 -0.0651138 0.866916 205 201 205
1438.43 275.775 -1294.04 0.393888 -0.0883264 0.855786 202 198 202
1427.37 286.414 -1298.58 -0.604645 0.026083 0.680271 145 143 157
1426.85 283.169 -1293.49 -0.330436 0.0337486 0.764688 192 189 196
1430.62 292.971 -1293.5 -0.654076 0.182419 0.566486 194 191 199
1433.24 283.273 -1292.01 -0.177916 0.0679421 0.769189 215 212 215
1439.06 286.717 -1293.09 0.144421 -0.0442964 0.799507 211 207 211
1440.3 293.83 -1292.39 0.344121 -0.133349 0.947048 209 205 210
1446.22 273.946 -1298.12 0.717659 -0.20165 0.641673 185 180 183
1448.49 287.667 -1295.93 0.55824 -0.220628 0.799528 200 195 200
1450.19 292.25 -1295.81 0.549659 -0.155522 0.812783 202 198 203
1445.77 292.791 -1294.09 0.47324 -0.134439 0.901127 206 202 207
1430.14 296.643 -1296.05 -0.456915 0.101815 0.706133 170 168 179
1430.57 302.891 -1295.92 -0.0959051 0.0685098 0.877007 171 169 180
1441.78 296.789 -1292.56 0.386667 -0.0990359 0.957648 209 205 210
1437.91 308.632 -1292.99 0.318513 0.125124 0.945833 208 204 211
1444.07 304.112 -1293.15 0.427235 0.0503241 0.924188 212 208 213
1385.05 -1173.75 -1289.44 0.576969 0.720674 0.360119 101 77 60
1397.69 -1179.09 -1288.81 0.212274 0.968366 0.100242 88 81 71
1395.16 -1178.64 -1291.39 0.308718 0.93238 0.151566 76 65 54
1406.73 -1179.02 -1287.68 0.0258014 0.993814 0.0490473 138 138 133
1416.87 -1178.2 -1291.48 -0.143528 0.962996 0.109163 156 153 147
1376.4 -1167.29 -1286.58 0.295238 0.686578 0.544525 122 96 80
1368.75 -1162.45 -1290.29 -0.311623 0.798422 0.466048 110 85 69
1376.89 -1166.76 -1287.38 0.309414 0.673965 0.538419 122 96 80
1381.07 -1169.79 -1289.31 0.574321 0.643525 0.450657 116 89 72
1424.69 -1176.11 -1292.47 -0.338925 0.872996 0.202089 147 135 125
1429.32 -1175.26 -1290.29 -0.336972 0.849764 0.285202 141 124 112
1437.72 -1174.52 -1286.73 -0.27862 0.844423 0.434276 135 108 91
1445.2 -1174.47 -1285.66 -0.0869617 0.886601 0.421887 135 105 87
1450.58 -1173.67 -1288.33 0.0547288 0.917753 0.375328 127 97 80
1459.49 -1174.5 -1287.49 0.00298988 0.934061 0.326067 115 88 74
1462.58 -1173.84 -1287.81 -0.0669656 0.929831 0.309393 115 89 76
1470.62 -1172.36 -1285.59 -0.252594 0.925269 0.239403 116 90 78
1401.83 100.926 -1285.75 0.264813 0.22879 0.902053 196 193 204
1416.06 93.1531 -1292.28 0.363763 0.171832 0.890633 215 211 220
1406.9 98.8244 -1289.75 0.312994 0.182792 0.89955 204 201 211
1386.37 119.109 -1286.84 -0.0557765 -0.0700506 0.87608 138 138 155
1382.63 125.235 -1285.47 -0.0502113 -0.107994 0.889506 145 144 161
1383.04 128.144 -1287.3 0.00835454 -0.0375654 0.895246 157 156 171
1401.05 102.402 -1287.61 0.212421 0.277377 0.891538 182 180 193
1398.55 105.218 -1288.62 0.108912 0.375197 0.875192 157 157 172
1389.94 115.031 -1288.2 -0.0183235 0.0397592 0.867485 140 140 157
1414.87 113.718 -1287.11 0.635305 0.321669 0.702353 223 220 227
1414.09 116.382 -1286.67 0.646314 0.261688 0.711687 223 220 227
1413.86 115.236 -1286.22 0.646245 0.288313 0.704375 224 221 227
1416.59 126.851 -1290.5 0.644013 0.100254 0.75311 213 210 217
1418.59 91.6467 -1291.47 0.379479 0.218496 0.870841 217 213 222
1429.37 91.5708 -1291.39 0.427413 0.403348 0.797108 225 222 229
1427.38 94.3928 -1287.36 0.436194 0.404034 0.798256 226 223 230
1419.85 108.022 -1289 0.591935 0.388213 0.706299 223 221 228
1424.92 102.506 -1289.86 0.492827 0.424543 0.753187 225 222 229
1367.25 174.295 -1278.36 0.315051 0.159281 0.921352 212 209 218
1530.82 -1186.68 -1261.86 0.126527 0.939945 0.0440218 36 31 28
1533.23 -1189.01 -1263.9 0.109614 0.907288 0.0754012 62 54 48
1537.45 -1191.22 -1271.1 0.106616 0.854832 0.119925 100 85 76
1536.69 -1196.21 -1264.7 0.0783778 0.882084 0.106393 85 74 66
1319.49 -1182.26 -1245.03 0.157238 0.992589 -0.0424339 70 67 64
1323.7 -1180.71 -1245.14 0.159238 0.990885 -0.0511218 51 48 46
1331.79 -1179.03 -1250.97 0.223822 0.977731 -0.0985642 22 22 22
1322.9 -1177.73 -1251 0.203315 0.985639 -0.0754846 67 66 64
1340.03 -1181.29 -1246.8 0.0718835 0.987569 -0.0569627 11 10 9
1345.58 -1180.2 -1249.9 -0.0255821 0.988515 -0.058212 0 1 1
1355.29 -1177.55 -1250.27 -0.202886 0.972062 -0.00822001 4 3 2
1359.56 -1176.16 -1250.86 -0.200758 0.969512 -0.0159013 9 7 5
1367.07 -1175.01 -1250.42 -0.0989106 0.97094 -0.0693138 19 16 14
1375.47 -1175.83 -1247.24 0.0356063 0.96682 -0.176456 13 12 12
1389.19 -1180.89 -1244.6 0.0660595 0.966758 -0.175047 15 14 13
1382.91 -1178.36 -1249.8 0.141972 0.955984 -0.255991 0 0 0
1392.99 -1179.44 -1249.64 -0.0284437 0.976092 -0.161957 11 11 10
1398.8 -1181.18 -1245.5 -0.0181267 0.98489 -0.135025 13 13 12
1402.22 -1179.21 -1248.41 -0.0322263 0.993679 -0.146004 9 9 9
1410.35 -1179.72 -1249.59 0.0634888 0.988805 -0.137066 23 23 22
1412.3 -1183.32 -1246.99 0.0358532 0.995407 -0.121297 66 66 64
1405.53 -1177.89 -1250.9 -0.00780825 0.990283 -0.144364 14 15 14
1422.17 -1187.33 -1247.38 0.0564262 0.935768 0.0473671 61 60 58
1430.85 -1188.28 -1248.53 0.0634064 0.928429 0.139023 49 46 44
1438.08 -1187.51 -1248.54 0.0618274 0.933307 0.140408 49 47 44
1439.7 -1186.72 -1248.86 0.0517064 0.952801 0.126644 49 46 44
1442.21 -1184.77 -1251.15 0.0111716 0.994161 0.0941487 38 36 34
1451.8 -1185.17 -1245.27 -0.0749307 0.968315 0.0117506 13 12 11
1458.93 -1181.85 -1249.57 -0.103314 1.00037 -0.0582544 0 0 0
1464.78 -1180.98 -1250.11 -0.0612065 1.00001 -0.0445678 0 0 0
1469.32 -1183.41 -1245.06 -0.00873004 0.97981 0.0418062 5 5 4
1637.89 -1212.65 -1619.9 0.167957 0.962464 0.147518 81 84 77
1638.21 -1207.63 -1622.09 0.0971963 0.972745 0.12629 54 55 50
1636.36 -1205.52 -1629.53 0.0895715 0.974778 0.119773 43 44 40
1640.2 -1199.21 -1622.93 -0.0240734 0.991909 0.0872916 8 8 7
1737.4 -1221.42 -1626.06 0.184375 0.97113 0.155501 89 92 84
1737.43 -1220.25 -1628.31 0.184713 0.972126 0.153716 90 93 85
1737.21 -1222.05 -1623.04 0.184319 0.970899 0.155797 89 92 84
1737.35 -1220.45 -1620.46 0.184339 0.970826 0.155541 89 92 84
1737.84 -1212.33 -1621.38 0.18476 0.971911 0.151949 91 94 86
1370.67 -1198.58 -1619.88 -0.0203514 0.839785 -0.255176 112 99 91
1379.59 -1195.08 -1618.52 0.00963159 0.871632 -0.264272 124 109 99
1388.43 -1196.84 -1620.36 0.0151726 0.874318 -0.269034 127 111 101
1397.1 -1197.24 -1620.78 0.0156649 0.87239 -0.272894 128 112 102
1409.81 -1197.17 -1620.17 0.0127227 0.870511 -0.276084 128 111 101
1416.43 -1198.51 -1620.6 0.011267 0.872429 -0.276757 128 111 101
1418.49 -1198.72 -1620.58 0.0109609 0.872593 -0.276941 128 111 101
1436.83 -1199.43 -1619.19 0.0248602 0.833498 -0.267562 123 108 98
2113.18 72.8429 -1613.95 -0.180276 -0.965206 -0.190656 130 103 95
2117.66 70.5168 -1613.25 -0.181584 -0.965156 -0.189085 115 91 84
2133.42 65.5681 -1610.82 -0.158446 -0.971824 -0.175388 16 12 11
2129.2 68.2317 -1616.2 -0.163064 -0.970781 -0.177168 22 17 16
2138.35 66.5752 -1613.34 -0.148092 -0.974138 -0.170717 0 0 0
2138.07 68.633 -1616.83 -0.148637 -0.974022 -0.170672 0 0 0
2146.06 71.521 -1616.84 -0.124061 -0.978614 -0.160564 0 0 0
2104.56 69.3468 -1589.83 -0.266685 -0.950206 -0.16106 114 90 81
2105.04 70.1983 -1595.21 -0.252312 -0.952163 -0.172066 116 92 83
2123.48 63.2512 -1592.45 -0.200608 -0.963445 -0.177155 124 98 89
2126.15 63.614 -1595.93 -0.18265 -0.966546 -0.178169 125 99 90
2123.9 62.9981 -1591.41 -0.20022 -0.963757 -0.175662 122 97 88
2135.06 62.7889 -1594.75 -0.140354 -0.976034 -0.161746 94 74 65
2141.3 63.1275 -1592.5 -0.100565 -0.982819 -0.146487 82 66 57
2150.67 66.75 -1596.92 -0.0669282 -0.988719 -0.133574 28 23 20
1284.86 -1186.03 -1593.66 -0.0721991 0.975925 -0.062654 44 43 40
1282.57 -1185.51 -1601.22 0.0280957 0.962951 -0.0411504 66 65 62
1279.64 -1186.09 -1602.11 0.0408975 0.957692 -0.0343433 75 75 70
1292.09 -1182.8 -1596.34 -0.0152719 0.982566 -0.0675344 32 31 29
1296.71 -1181.64 -1593.17 -0.0309308 0.984704 -0.0852943 20 20 19
1295.54 -1182.26 -1602.05 0.0409458 0.98022 -0.0625462 37 37 35
1300.38 -1181.6 -1594.66 -0.0215374 0.984074 -0.0918413 18 18 17
1303.98 -1181.4 -1593.78 -0.0382033 0.982146 -0.104569 16 15 15
1327.89 -1186.35 -1603.84 -0.0826843 0.918829 -0.162464 63 59 55
1313.84 -1180.94 -1595.8 -0.0702277 0.969621 -0.139625 20 20 18
1311.49 -1179.89 -1591.29 -0.0898914 0.982882 -0.13922 2 2 2
1318.25 -1184.37 -1601.79 -0.0665973 0.930216 -0.151044 52 49 45
1270 -1194.78 -1579.06 -0.1875 0.582941 -0.178552 59 55 53
1273.47 -1192.15 -1582.71 -0.157756 0.678528 -0.133283 54 51 49
1277.32 -1187.38 -1581.99 -0.0918821 0.906179 -0.0551854 33 31 30
1277.41 -1183.87 -1578.06 -0.00289501 0.987685 0.0760514 15 15 14
1282.05 -1186.39 -1586.74 -0.113982 0.956617 -0.0891445 36 35 33
1393.95 -377.829 -1574.71 -0.34888 -0.121651 -0.914332 22 22 28
1390.43 -376.165 -1573.43 -0.390794 -0.124283 -0.870111 21 20 27
1398.76 -372.263 -1576.07 -0.211247 -0.0146386 -0.971123 23 24 30
1409.11 -370.478 -1575.83 -0.0087659 0.151927 -0.970488 22 24 29
1428.16 -422.281 -1568.99 -0.398594 -0.0874607 -0.881626 16 18 22
1428.97 -415.341 -1570.23 -0.330426 -0.117629 -0.903278 16 19 22
1432.71 -421.625 -1572.23 -0.495778 0.00299062 -0.85902 16 18 22
1434.23 -414.809 -1573.42 -0.41794 0.0189934 -0.885101 17 19 23
1423.51 -404.734 -1571.14 -0.0419094 -0.146718 -0.968365 20 22 25
1426.16 -407.931 -1570.48 -0.0793182 -0.122551 -0.968081 19 21 25
1421.14 -397.349 -1572.47 0.0801428 -0.183589 -0.96685 21 23 27
1428.77 -400.647 -1572.18 -0.0726122 -0.126809 -0.952059 20 22 26
1433.78 -407.317 -1573.08 -0.280053 -0.00963347 -0.923209 18 20 24
1439.42 -403.545 -1574.79 -0.334626 0.0413506 -0.930711 18 20 24
1433.53 -397.873 -1572.81 -0.140323 -0.0949355 -0.952055 21 22 26
1460.35 -423.423 -1574.95 0.319537 -0.178647 -0.91964 20 22 29
1461.51 -423.187 -1574.28 0.349895 -0.181993 -0.903009 21 23 30
1462.99 -413.619 -1575.95 0.285528 -0.143554 -0.897203 21 23 30
1467.53 -417.18 -1571.42 0.520794 -0.160214 -0.808862 22 23 31
1469.08 -405.7 -1571.96 0.625681 -0.112415 -0.76443 22 24 31
1466.44 -398.842 -1575.85 0.511088 -0.109769 -0.831155 21 23 31
1468.68 -402.859 -1572.86 0.616348 -0.109832 -0.76783 22 24 31
1424.37 -393.157 -1572.81 0.135204 -0.155724 -0.964759 21 23 27
1432.18 -397.39 -1572.59 -0.101088 -0.112351 -0.95489 21 22 26
1422.83 -387.621 -1573.78 0.223408 -0.111022 -0.966992 21 23 27
1431.06 -389.078 -1572.87 0.0438874 -0.087542 -0.968679 21 22 27
1434.56 -392.354 -1573.53 -0.0957127 -0.0689535 -0.958301 21 22 26
1436.38 -390.162 -1573.91 -0.147335 -0.050993 -0.956604 21 21 26
1439.09 -389.112 -1574.5 -0.225846 -0.0189156 -0.952643 20 20 26
1421.21 -379.627 -1574.61 0.24912 -0.0234429 -0.970042 21 22 27
1428.63 -380.035 -1573.26 0.127385 -0.0545152 -0.976077 21 21 26
1420.91 -373.008 -1574.64 0.136883 -0.0401567 -0.965386 21 22 27
1429.74 -371.208 -1574.09 0.0810021 -0.190735 -0.963523 21 21 27
1432.57 -378.763 -1573.03 0.0481475 -0.0579015 -0.979661 21 21 26
1444.16 -377.915 -1575.22 -0.201841 0.0539324 -0.960424 19 19 25
1434.95 -373.704 -1573.92 -0.00886702 -0.127904 -0.96884 21 20 26
1439.64 -373.491 -1574.27 -0.0725909 -0.0884807 -0.969117 21 20 26
1469.38 -391.199 -1574.66 0.438628 -0.0813353 -0.85991 20 22 29
1470.75 -389.989 -1573.25 0.533485 -0.0970759 -0.797738 20 22 29
1472.36 -383.893 -1572.16 0.572253 -0.0836991 -0.752135 20 22 28
1469.51 -379.294 -1575.59 0.30612 -0.0452125 -0.89388 20 22 28
1472.75 -370.453 -1574.17 0.534425 -0.144902 -0.783189 20 22 28
1382.93 -365.443 -1570.91 -0.762815 -0.0961883 -0.560446 14 13 20
1390.23 -362.913 -1575.85 -0.19502 -0.0435047 -0.93708 19 18 25
1384.96 -360.353 -1573.2 -0.645685 -0.0273393 -0.654708 13 12 19
1380.48 -351.428 -1569.08 -0.887489 0.0375854 -0.510894 10 9 16
1386.68 -351.041 -1573.45 -0.596357 0.0130348 -0.709222 13 12 19
1382.55 -346.343 -1571.89 -0.706601 -0.0546644 -0.657789 27 25 33
1385.12 -342.214 -1573.23 -0.513208 -0.124433 -0.774807 53 51 59
1392.46 -367.974 -1575.36 -0.234157 -0.071454 -0.926381 21 21 27
1398.86 -368.873 -1575.7 -0.134312 0.0299818 -0.978888 23 24 30
1395.34 -358.5 -1575.85 -0.0679607 0.0144428 -0.972208 20 19 27
1402.95 -358.284 -1575.84 0.0196031 0.018843 -0.989126 23 23 30
1410.98 -364.311 -1575.63 -0.0804012 -0.0480847 -0.954632 23 23 30
1406.51 -358.295 -1576.1 -0.00559498 -0.0479243 -0.974239 23 23 29
1394.81 -348.957 -1575.66 -0.233502 -0.00820653 -0.924851 24 23 30
1392.33 -346.316 -1575.07 -0.318435 -0.0232743 -0.878976 35 34 41
1401.74 -342.288 -1575.83 -0.182698 0.182014 -0.960764 30 28 35
1368.86 -329.749 -1570.95 -0.214858 -0.473529 -0.819464 175 171 182
1376.35 -333.315 -1572.29 -0.36033 -0.355346 -0.804737 137 134 143
1377.49 -338.225 -1570.39 -0.52704 -0.230783 -0.754726 81 79 87
1389.02 -339.468 -1574.46 -0.317672 -0.103752 -0.873051 84 82 90
1378.85 -329.512 -1574.48 -0.259671 -0.212652 -0.892646 163 159 168
1387.03 -330.102 -1575.68 -0.124682 -0.0941514 -0.961665 168 165 173
1363.57 -322.461 -1571.58 -0.206231 -0.188329 -0.925071 185 180 191
1372.87 -324.889 -1573.43 -0.254366 -0.230645 -0.895569 177 172 183
1365.5 -316.562 -1571.76 -0.202388 -0.0203748 -0.952231 180 175 186
1370.59 -317.024 -1572.85 -0.235011 -0.0526073 -0.943289 180 175 186
1380.21 -324.703 -1575.31 -0.169141 -0.0813583 -0.952489 183 178 188
1386.9 -323.216 -1576.16 -0.0887644 -0.00239575 -0.991173 184 180 189
1382.4 -319.63 -1575.44 -0.173235 0.0253873 -0.971557 183 178 188
1393.91 -337.963 -1574.96 -0.252988 -0.0516458 -0.917879 105 103 111
1401.06 -335.543 -1576.2 -0.257472 -0.0150231 -0.940774 128 125 133
1396.9 -334.602 -1575.37 -0.224938 -0.0525139 -0.943962 141 138 146
1419.21 -489.62 -1564.32 -0.583655 -0.103834 -0.785421 13 15 21
1424.86 -488.371 -1567.92 -0.585421 0.0634522 -0.790308 14 16 22
1424.27 -481.553 -1568.11 -0.499035 -0.0540566 -0.84472 16 18 24
1459.53 -506.254 -1565.56 0.631422 -0.0806632 -0.767564 23 24 33
1462.55 -501.722 -1562.88 0.631675 -0.104063 -0.759201 22 24 32
1460.67 -499.747 -1564.86 0.630953 -0.0888101 -0.765755 23 24 33
1466.15 -489.369 -1562.78 0.572473 -0.161779 -0.801556 22 24 32
1460.93 -492.927 -1565.81 0.599079 -0.124321 -0.788936 23 24 32
1465.71 -485.294 -1563.74 0.578813 -0.124632 -0.804558 23 25 32
1413.35 -474.982 -1562.39 -0.558668 -0.0413434 -0.824931 16 18 24
1416.21 -469.867 -1564.55 -0.554625 -0.0334354 -0.824982 17 20 26
1417.96 -460.968 -1565.61 -0.567199 0.0322167 -0.820685 18 20 26
1388.4 -424.95 -1562.71 -0.203524 -0.160904 -0.948018 17 19 25
1417.23 -445.189 -1564.37 -0.407172 0.0474125 -0.895009 17 19 24
1403.62 -431.179 -1562.61 -0.113794 -0.204124 -0.971244 20 22 27
1402.24 -426.578 -1563.76 -0.11039 -0.235583 -0.961201 19 21 27
1407.95 -434.034 -1562.68 -0.159474 -0.160776 -0.965759 18 20 26
1415.51 -434.749 -1564.33 -0.280881 -0.084959 -0.928683 18 20 24
1409.8 -431.164 -1563.56 -0.179953 -0.190741 -0.949854 19 21 26
1414.89 -427.268 -1565.37 -0.218448 -0.218831 -0.924668 18 20 25
1425.74 -479.22 -1569.2 -0.454521 -0.0999153 -0.867395 17 20 26
1420.15 -462.643 -1567.34 -0.564547 0.0507354 -0.822209 18 20 26
1420.84 -453.292 -1567.02 -0.51621 0.0669263 -0.851324 16 18 24
1466.22 -478.746 -1563.93 0.604537 -0.0818588 -0.792083 23 25 33
1463.41 -466.766 -1568.37 0.627826 -0.0912674 -0.776464 23 25 32
1468.62 -468.019 -1563.38 0.64073 -0.105467 -0.762589 22 24 31
1470.41 -459.655 -1562.98 0.639621 -0.10878 -0.757043 21 23 29
1464.79 -457.882 -1568.56 0.608793 -0.0796446 -0.784152 23 24 32
1469.5 -456.271 -1564.24 0.657904 -0.070028 -0.74364 21 23 30
1423.77 -445.981 -1567.81 -0.496336 0.124696 -0.857009 16 18 24
1420.53 -438.403 -1565.74 -0.388594 0.0354033 -0.901719 17 19 23
1311.63 -339.919 -1559.5 -0.467648 -0.146004 -0.859339 91 89 96
1315.29 -339.876 -1561.8 -0.411365 -0.158301 -0.885599 102 100 107
1311.08 -331.246 -1560.84 -0.460558 -0.106803 -0.871634 179 175 184
1311.18 -320.658 -1560.32 -0.317402 0.0241671 -0.925737 178 174 185
1310 -320.105 -1559.86 -0.311901 0.00614593 -0.926741 179 174 186
1362.32 -341.201 -1561.56 0.481738 -0.33151 -0.76968 126 123 132
1368.62 -1166.55 -1554.94 -0.00788125 0.860101 -0.51863 76 62 54
1375.9 -1169.6 -1560.09 -0.00122015 0.911404 -0.399183 87 72 64
1382.97 -1166.15 -1555.18 -0.11389 0.871447 -0.473815 80 65 57
1385.54 -1168.03 -1561.57 -0.0956829 0.90627 -0.361192 107 95 88
1371.87 -1151.63 -1555.07 0.0100169 0.821232 -0.557868 140 129 126
1398.69 -1165.31 -1562.11 -0.092734 0.920059 -0.344642 127 123 113
1398.49 -1163.44 -1558.22 -0.155142 0.888358 -0.388186 106 97 88
1407.31 -1161.97 -1555.62 -0.017747 0.897621 -0.420936 118 105 92
1412.71 -1164.18 -1559.99 0.0189648 0.92996 -0.360479 141 129 118
1424.89 -1165.09 -1559.12 0.0668257 0.920068 -0.391452 143 116 100
1418.98 -1164.48 -1559.35 0.0482859 0.920732 -0.386032 137 116 102
1431.96 -1164.94 -1558.9 -0.0125815 0.900117 -0.40829 146 115 98
1437.6 -1162.08 -1555.64 -0.154033 0.872011 -0.434365 141 110 92
1444.07 -1161.61 -1556.82 -0.161183 0.878618 -0.394123 139 107 87
1452.49 -1162.57 -1558.17 0.00764248 0.926891 -0.298562 138 106 85
1457.6 -1163.92 -1560.33 0.0862965 0.942114 -0.264775 134 102 83
1468.38 -1165.63 -1557.65 0.169489 0.950665 -0.250435 126 94 77
1462.62 -1164.09 -1557.33 0.13454 0.95279 -0.247193 130 98 81
1325.07 -203.283 -1555.8 -0.581572 -0.30935 -0.708147 162 156 171
1331.75 -199.805 -1560.48 -0.410738 -0.142574 -0.851755 173 167 180
1324.15 -194.283 -1558.5 -0.608163 -0.151751 -0.745904 166 160 175
1333.01 -195.447 -1561.65 -0.294883 -0.0867469 -0.929056 178 172 184
1319.27 -183.012 -1556.48 -0.544217 -0.134521 -0.810367 173 168 184
1322.77 -188.401 -1558.16 -0.586326 -0.107523 -0.781641 170 165 180
1329.32 -188.405 -1560.44 -0.361289 -0.0238018 -0.900776 180 175 187
1322.55 -180.637 -1557.48 -0.396079 -0.0155943 -0.881548 183 178 192
1330.46 -177.01 -1556.97 -0.117204 0.263585 -0.921768 201 196 207
1338.87 -195.996 -1562.34 -0.135307 -0.0212803 -0.992805 185 179 190
1335.5 -194.2 -1561.91 -0.204688 -0.0326006 -0.964007 183 177 188
1347.04 -192.728 -1562.45 -0.112808 0.16391 -0.981012 197 192 203
1353.24 -192.721 -1562.47 -0.110047 0.278618 -0.932947 204 199 210
1337.59 -186.155 -1559.85 -0.0496591 0.1845 -0.939731 197 192 202
1342.34 -186.061 -1559.26 0.0523752 0.283671 -0.929388 204 199 209
1346.82 -183.561 -1556.5 0.16904 0.462818 -0.847197 213 208 219
1345.17 -182.036 -1555.84 0.200388 0.472155 -0.833277 214 209 220
1361.96 -188.98 -1555.57 0.281395 0.752798 -0.578032 224 219 230
1327.67 -173.834 -1555.96 -0.0724429 0.314573 -0.931018 205 200 211
1386.15 76.2591 -1556.59 -0.342536 0.0719068 -0.856623 196 191 202
1394.47 78.9323 -1558.08 -0.130847 0.0188822 -0.908976 193 190 200
1398.72 73.6879 -1557.5 0.0521311 -0.230895 -0.939036 187 183 193
1393.51 81.7028 -1556.8 -0.223698 0.191484 -0.848946 196 192 202
1398.87 82.4466 -1558.43 -0.125361 0.0622909 -0.89258 194 190 200
1406.13 77.1549 -1558.52 0.0523884 -0.255117 -0.952789 187 183 192
1411.82 80.3507 -1559.6 0.0195151 -0.2982 -0.956049 188 183 192
1407.14 82.3474 -1559.94 -0.010032 -0.196615 -0.945528 191 187 196
1408.24 81.8839 -1559.96 0.00502006 -0.231239 -0.951692 190 186 195
1401.78 87.8662 -1558.18 -0.269511 0.228361 -0.824045 197 194 203
1407.97 92.3354 -1559.75 -0.294505 0.159602 -0.841432 198 194 203
1412.72 93.8626 -1561.39 -0.207643 0.0440126 -0.90292 198 195 203
1408.74 99.6408 -1556.08 -0.53613 0.454838 -0.676135 199 196 205
1411.72 99.9751 -1558.65 -0.446667 0.346459 -0.76709 200 196 204
1415.95 106.137 -1558.7 -0.514072 0.375811 -0.723726 199 196 204
1418.41 111.85 -1556.41 -0.641612 0.461405 -0.571597 197 193 202
1422.67 78.1693 -1557.48 0.122992 -0.300497 -0.936124 187 182 191
1421.18 82.9223 -1559.04 0.0951271 -0.276578 -0.949896 189 184 193
1424.37 85.6925 -1559.25 0.126388 -0.255037 -0.954732 191 186 195
1435.28 79.9404 -1555.48 0.169821 -0.229939 -0.957653 190 185 193
1442.19 83.1387 -1555.34 0.154456 -0.238794 -0.955687 194 189 196
1421.56 88.4223 -1560.64 0.0861045 -0.242418 -0.96341 193 188 197
1427.78 92.6868 -1560.63 0.144432 -0.243558 -0.957173 195 191 199
1429.91 99.279 -1562.15 0.154869 -0.225654 -0.958118 200 195 203
1434.91 89.7547 -1558.32 0.16977 -0.233087 -0.958124 195 190 198
1440.8 94.7796 -1558.27 0.203569 -0.24134 -0.945477 201 196 203
1436.59 99.06 -1560.43 0.202164 -0.24754 -0.951248 200 196 203
1443.01 100.208 -1558.73 0.265891 -0.227653 -0.93209 203 199 205
1446.87 92.0855 -1556.26 0.187423 -0.180291 -0.952877 203 198 204
1450.3 99.809 -1555.78 0.351345 -0.16698 -0.913876 207 203 208
1420.06 109.947 -1559.27 -0.495726 0.326159 -0.706638 199 195 204
1422.55 110.357 -1561.35 -0.384471 0.252219 -0.789353 200 196 205
1437.98 102.078 -1560.84 0.214402 -0.235584 -0.951387 202 197 204
1438.36 110.991 -1562.29 0.0942505 -0.0280403 -0.975507 202 197 203
1445.73 111.83 -1559.49 0.274991 -0.0368626 -0.929243 205 200 206
1408.36 -584.234 -1553.21 -0.733377 0.00414986 -0.649585 14 15 24
1408.63 -577.586 -1553.75 -0.733546 0.0338905 -0.665158 14 15 25
1407.77 -575.905 -1552.37 -0.763263 0.0206147 -0.625833 14 15 24
1407.24 -569.448 -1551.52 -0.782166 -0.000333884 -0.609144 14 15 24
1405.49 -559.956 -1548.66 -0.81331 0.016056 -0.577804 15 16 24
1407.28 -557.014 -1550.7 -0.779493 0.0482634 -0.620083 15 16 25
1406.32 -550.179 -1548.74 -0.753041 0.0655157 -0.648 15 15 24
1408.88 -543.833 -1549.38 -0.684531 0.1872 -0.681492 13 13 22
1409.86 -540.955 -1549.1 -0.656554 0.254275 -0.682828 12 12 21
1415.46 -538.863 -1553.48 -0.710658 0.240242 -0.628246 12 13 21
1469.35 -586.504 -1552.71 0.433201 -0.0983156 -0.898183 20 21 31
1469.56 -586.04 -1552.63 0.435815 -0.0989587 -0.897105 20 21 31
1468.09 -583.109 -1554.3 0.407109 -0.0853371 -0.905267 20 20 30
1471.36 -576.181 -1552.64 0.458782 -0.0690448 -0.878513 20 21 30
1470.35 -561.488 -1554.4 0.510595 -0.0575128 -0.848636 21 22 32
1470.33 -552.488 -1555 0.439813 -0.0132764 -0.888754 21 22 32
1473.53 -544.698 -1553.82 0.363569 0.0125022 -0.927095 21 22 31
1477.71 -645.787 -1549.16 -0.139999 -0.0147774 -0.730109 45 40 43
1484.35 -645.702 -1548.41 -0.023258 -0.215696 -0.809839 34 30 37
1478.51 -633.967 -1550.42 0.0665024 -0.00475032 -0.967544 24 23 32
1481.79 -635.519 -1550.1 0.0546483 -0.0271101 -0.949137 25 24 33
1490.96 -640.322 -1549.07 0.109237 -0.204293 -0.945041 22 21 31
1494.24 -635.533 -1549.23 0.105042 -0.12049 -0.984318 19 20 30
1474.83 -630.553 -1550.76 0.0963045 0.00535147 -0.99315 22 21 31
1483.33 -626.42 -1550.1 0.0927035 0.0202203 -0.99992 21 21 31
1475.07 -625.346 -1550.63 0.112264 0.0198099 -0.999331 22 21 31
1482.12 -618.816 -1550.24 0.0594636 0.0213856 -0.996806 22 21 31
1489.57 -629.443 -1549.86 0.0660727 -0.0242597 -0.995299 20 20 30
1496.94 -625.136 -1550.16 -0.00576102 -0.0520122 -0.996081 20 20 31
1488.15 -624.324 -1550.01 0.0633411 -0.00302531 -1.00215 20 20 31
1494.5 -622.291 -1550.33 0.00384661 -0.0496602 -0.998458 21 21 31
1505.97 -633.488 -1549.27 -0.0447108 -0.170911 -0.980168 20 20 30
1511.48 -636.617 -1549.12 -0.125355 -0.24421 -0.956134 20 20 29
1526.27 -641.25 -1550.21 -0.135771 -0.43286 -0.871783 18 20 27
1516.19 -633.307 -1550.97 -0.18596 -0.196104 -0.956421 19 20 28
1522.02 -632.023 -1552.43 -0.193494 -0.160891 -0.955687 18 20 27
1501.99 -625.658 -1550.34 -0.0338056 -0.0702554 -0.990186 20 20 31
1512.77 -626.561 -1551.2 -0.112374 -0.0795924 -0.973669 20 20 30
1506.14 -624.253 -1550.73 -0.0519633 -0.0602284 -0.984364 20 21 31
1514.59 -618.612 -1550.94 -0.027583 0.0899796 -0.979915 19 20 30
1517.3 -630.038 -1551.64 -0.17235 -0.131182 -0.962787 19 20 28
1523.46 -631.191 -1552.69 -0.176185 -0.138853 -0.959352 18 20 27
1517.33 -624.487 -1551.75 -0.120537 -0.0151272 -0.972936 19 20 29
1525.78 -619.593 -1552.2 -0.13101 0.0999092 -0.981925 18 20 27
1474.06 -612.412 -1548.7 -0.16196 0.169365 -0.981243 22 21 31
1482.21 -614.234 -1550.07 0.00274629 0.0486694 -0.986348 22 22 32
1478.14 -608.386 -1548.91 -0.0474924 0.147289 -0.958687 22 22 32
1485.25 -608.953 -1550.09 -0.0337268 0.081635 -0.972539 22 22 32
1360.26 247.335 -1549.62 -0.661096 -0.297979 -0.689881 175 170 178
1359.16 253.232 -1552.55 -0.567705 -0.369478 -0.760003 181 175 181
1359.29 256.012 -1554.21 -0.539796 -0.357001 -0.787901 178 171 178
1350.66 263.688 -1548.99 -0.561185 -0.333363 -0.709104 170 164 173
1349.24 267.394 -1549.42 -0.493075 -0.279073 -0.788892 174 167 176
1350.47 269.719 -1549.71 -0.539892 -0.243354 -0.759925 168 162 171
1357.19 270.369 -1553.57 -0.432524 -0.164993 -0.85146 173 165 174
1353.65 275.486 -1548.97 -0.583167 -0.175572 -0.726169 161 154 164
1358.81 274.881 -1551.6 -0.417234 -0.119249 -0.821279 170 163 172
1361.05 376.763 -1550.91 -0.432692 -0.103022 -0.871451 157 128 118
1361.04 379.056 -1551.33 -0.423246 -0.0798386 -0.886237 159 130 120
1362.2 389.417 -1552.62 -0.375314 -0.0999633 -0.914203 161 132 124
1356.41 397.2 -1549.85 -0.434154 -0.0568522 -0.899407 149 120 113
1359.76 400.311 -1551.78 -0.406002 -0.0510412 -0.909629 164 132 124
1360.25 402.883 -1552.08 -0.409025 -0.0416416 -0.909123 170 136 128
1421.5 58.3974 -1551.29 0.119399 -0.322745 -0.930573 185 180 188
1429.03 54.1341 -1548.5 0.130678 -0.338134 -0.929845 185 180 188
1439.55 59.3813 -1548.93 0.118232 -0.366439 -0.917607 186 181 189
1423.96 59.8262 -1551.4 0.1489 -0.324312 -0.929098 185 180 189
1428.15 65.9778 -1552.85 0.170816 -0.319695 -0.927897 186 181 189
1427.8 68.2867 -1553.65 0.171775 -0.320409 -0.926745 186 181 189
1432.26 63.3574 -1551.29 0.142485 -0.32728 -0.929557 186 181 189
1444.87 62.9127 -1548.98 0.173942 -0.299749 -0.927973 188 183 191
1437.35 66.7322 -1551.48 0.150927 -0.305114 -0.93179 187 182 190
1440.61 70.4918 -1551.75 0.193007 -0.249958 -0.940144 188 183 191
1459.59 62.8947 -1548.2 -0.0591484 -0.200053 -0.959392 192 187 195
1447.11 68.1776 -1549.63 0.224893 -0.208334 -0.938512 189 184 192
1454.33 73.5203 -1550.03 0.161307 -0.210332 -0.930735 188 183 192
1466.73 67.3188 -1548.58 0.0982161 -0.0372277 -0.961007 155 154 167
1378.91 74.0347 -1552.97 -0.398988 0.308579 -0.768397 199 194 204
1381.8 79.838 -1550.99 -0.537296 0.47143 -0.657759 201 196 207
1385.09 80.4877 -1553.73 -0.475846 0.359628 -0.736039 199 195 205
1391.08 86.7012 -1551.06 -0.454371 0.52491 -0.642032 199 195 205
1394 89.2826 -1550.7 -0.486367 0.555563 -0.612073 199 195 206
1401.15 94.5217 -1552.58 -0.59321 0.527527 -0.592187 199 196 206
1404.58 97.4638 -1553.79 -0.607711 0.49067 -0.610808 199 196 205
1408.47 102.564 -1552.64 -0.59857 0.52486 -0.590565 198 195 203
1411.92 108.218 -1550.08 -0.630948 0.571526 -0.517075 196 193 201
1418.51 112.608 -1555.65 -0.664375 0.481071 -0.540961 196 193 201
1432.54 75.0168 -1554.69 0.146649 -0.265776 -0.947382 187 182 190
1445.89 76.077 -1552.17 0.234669 -0.230873 -0.933345 190 185 193
1446.65 75.268 -1551.75 0.238441 -0.227139 -0.931716 189 184 192
1458.51 79.5281 -1551.25 0.152264 -0.248659 -0.925868 192 187 194
1456.16 76.5123 -1550.66 0.164098 -0.233618 -0.925647 189 184 192
1454.69 84.2949 -1553.41 0.147526 -0.253249 -0.932723 196 192 199
1463.6 76.8454 -1550.12 0.0914819 -0.18979 -0.94946 185 181 190
1472.1 74.388 -1549.17 0.0941791 -0.176832 -0.974434 152 151 165
1461.79 83.726 -1551.68 0.163542 -0.207065 -0.9371 196 192 198
1469.94 86.3553 -1551.11 0.213169 -0.159752 -0.948801 194 191 198
1451.98 93.3323 -1555.27 0.194075 -0.133828 -0.951871 205 201 206
1458.48 92.3347 -1553.49 0.213453 -0.105864 -0.952275 205 201 207
1458.59 96.8007 -1553.75 0.243941 -0.0706555 -0.95408 208 204 209
1462.92 92.2795 -1552.63 0.21535 -0.080152 -0.960362 206 202 207
1472.18 87.8856 -1551.05 0.239741 -0.143958 -0.949367 194 191 198
1463.18 99.1163 -1553.2 0.237072 -0.0417896 -0.961674 208 204 210
1469.04 97.5478 -1552.49 0.200518 -0.0161876 -0.972425 203 200 206
1493.39 -1171.24 -1544.42 0.188936 0.976194 0.0544661 21 19 17
1403.54 -588.524 -1543.28 -0.917143 -0.00398691 -0.391187 11 12 20
1405.29 -589.292 -1547.38 -0.844333 -0.0324665 -0.493226 12 13 22
1402.55 -573.258 -1542.22 -0.921557 -0.0445157 -0.386234 12 13 21
1402.26 -569.03 -1542.44 -0.902606 -0.0527557 -0.423145 13 14 21
1404.34 -569.636 -1546.86 -0.866702 -0.0321292 -0.489911 13 15 23
1403.72 -559.927 -1546.22 -0.836303 -0.00797068 -0.549482 15 16 24
1404.45 -560.03 -1547.25 -0.829278 0.0011076 -0.558042 15 16 24
1401.96 -547.172 -1542.83 -0.791345 0.0711149 -0.59208 15 14 22
1404.7 -542.267 -1545.05 -0.721234 0.192602 -0.637811 14 13 21
1407.8 -537.065 -1544.6 -0.651531 0.38544 -0.623748 12 11 19
1494.41 -643.785 -1547.25 0.129432 -0.342608 -0.913224 20 20 30
1500.14 -640.567 -1547.46 0.101233 -0.244376 -0.955482 19 19 29
1507.96 -640.419 -1547.28 -0.0179646 -0.285364 -0.949606 20 19 29
1514.35 -643.568 -1546.52 -0.0884197 -0.40163 -0.894568 19 20 29
1515.25 -641.966 -1547.9 -0.164129 -0.358121 -0.910771 19 21 29
1371.91 -351.856 -1548.07 0.442366 -0.226246 -0.618619 31 30 39
1493.42 -420.466 -1547.08 0.567244 -0.0558297 -0.816219 19 20 25
1492.59 -415.939 -1547.72 0.593 -0.0342464 -0.8036 19 20 25
1500.49 -417.748 -1544.08 0.41583 -0.0313349 -0.902544 20 21 27
1497.8 -406.361 -1545.75 0.454454 -0.0576067 -0.882515 19 20 26
1492.62 -403.375 -1548.48 0.532564 -0.0882486 -0.835738 18 20 25
1494.76 -403.26 -1547.35 0.489294 -0.0894362 -0.863265 18 20 26
1505.85 -423.282 -1542.28 0.30359 -0.0195183 -0.946073 20 22 29
1504.48 -417.119 -1543.15 0.335938 -0.028238 -0.928781 20 22 28
1513.37 -416.211 -1541.79 0.171313 -0.0507345 -0.969772 20 22 30
1507.88 -405.141 -1542.7 0.269245 -0.021955 -0.957077 20 22 29
1512.46 -404.858 -1541.92 0.212407 0.00472053 -0.968296 21 23 30
1502.84 -399.129 -1544.32 0.387437 -0.0534729 -0.911132 19 21 27
1508.83 -403.173 -1542.47 0.258522 -0.0144095 -0.961213 20 22 29
1497.15 -395.655 -1547.28 0.518817 -0.12946 -0.838014 18 20 26
1501.73 -386.594 -1545.58 0.527824 -0.0874155 -0.833513 18 20 27
1500.63 -369.883 -1547.85 0.528549 -0.0611094 -0.817143 29 31 38
1503.21 -395.799 -1544.35 0.405581 -0.0538414 -0.90028 18 20 27
1504.25 -382.664 -1544.51 0.512692 -0.0823506 -0.839647 19 21 28
1503.4 -375.834 -1545.66 0.55862 -0.0994737 -0.810706 23 24 31
1509.95 -376.876 -1541.96 0.465411 -0.0682581 -0.87019 19 21 28
1507.39 -371.812 -1543.57 0.540386 -0.0932141 -0.830263 22 24 31
1362.5 230.023 -1543.79 -0.738602 -0.317184 -0.551038 163 159 171
1360.97 234.339 -1543.02 -0.791208 -0.285615 -0.524235 157 152 165
1361.2 240.671 -1548 -0.753714 -0.220821 -0.643824 171 166 175
1355.29 252.417 -1547.07 -0.647429 -0.367876 -0.643758 175 169 177
1348.95 265.888 -1547.99 -0.5615 -0.319576 -0.699838 169 162 171
1351.77 258.819 -1547.13 -0.659438 -0.389338 -0.592976 165 159 169
1348.15 269.453 -1544.91 -0.687219 -0.296955 -0.563779 156 149 160
1435.63 -172.188 -1542.12 -0.268554 0.103397 -0.928932 203 198 207
1440.19 -172.881 -1544.2 -0.362631 0.109826 -0.907179 205 200 208
1435.95 -165.216 -1541.82 -0.2866 0.06563 -0.93489 199 194 203
1443.75 -164.1 -1545.08 -0.371706 0.0545793 -0.918237 199 194 203
1438.88 -155.746 -1542.97 -0.307604 0.0140281 -0.947571 195 190 200
1436.7 -152.907 -1542.31 -0.274152 -0.00665793 -0.961184 196 191 200
1440.59 -150.391 -1543.59 -0.282329 0.0208255 -0.955212 197 192 201
1451.43 -171.757 -1548.31 -0.251377 0.0774959 -0.953023 204 199 208
1451.45 -165.451 -1547.45 -0.270592 0.102931 -0.937129 201 196 205
1455.26 -163.418 -1547.92 -0.2107 0.129662 -0.948447 201 196 205
1449.41 -161.402 -1546.64 -0.313389 0.0870204 -0.927962 199 194 203
1459.07 -155.752 -1547.77 -0.172557 0.0998464 -0.958749 200 194 204
1449.91 -149.744 -1545.59 -0.260006 0.120588 -0.940173 197 192 202
1459.49 -151.026 -1547.31 -0.179999 0.135572 -0.956285 198 192 202
1463.82 -158.267 -1548.57 -0.134705 0.114814 -0.973109 203 197 207
1463.16 -152.242 -1547.88 -0.133389 0.110304 -0.972624 199 194 203
1434.56 -146.621 -1541.81 -0.223007 -0.034584 -0.980254 197 192 202
1442.25 -143.61 -1543.06 -0.178146 0.099694 -0.966891 198 193 202
1450.3 -145.29 -1544.59 -0.210722 0.173384 -0.945216 197 192 201
1456.2 -145.308 -1545.72 -0.221846 0.203348 -0.941471 196 191 200
1454.39 -137.568 -1542.59 -0.168141 0.296782 -0.937236 195 191 200
1460.15 -146.492 -1546.73 -0.191267 0.178579 -0.953159 196 191 200
1463.91 -145.857 -1547.2 -0.17074 0.164576 -0.964714 196 191 200
1464.63 -133.543 -1544.37 -0.229027 0.242569 -0.938139 192 187 196
1471.91 -134.562 -1546.72 -0.0440651 0.149164 -0.87563 183 180 190
1470.93 -137.612 -1547.08 -0.0877077 0.161832 -0.907245 187 183 193
1466.75 -127.39 -1543.54 -0.266954 0.21008 -0.933762 196 192 200
1470.08 -132.425 -1545.73 -0.0885693 0.164707 -0.882309 185 181 191
1471.44 -122.583 -1544.23 -0.210899 0.162216 -0.894424 195 191 200
1470.69 -119.183 -1543.02 -0.270805 0.194947 -0.902337 202 198 206
1496.66 -199.331 -1547.29 0.729582 0.107618 -0.572939 137 137 157
1496.27 -190.488 -1546.51 0.489408 0.142192 -0.712786 171 169 184
1757.05 179.404 -1549.88 -0.0935408 -0.687058 0.52192 117 102 102
1758.63 180.714 -1541.56 -0.18798 -0.874219 0.451336 109 92 90
1757.91 179.184 -1549.76 -0.10545 -0.710416 0.510952 116 101 100
1775.72 176.881 -1545.27 -0.168573 -0.850761 0.450523 110 93 92
1768 177.811 -1544.87 -0.207027 -0.903275 0.431583 108 91 89
1781.54 176.805 -1544.51 -0.108582 -0.84118 0.442181 112 94 93
1785.73 175.946 -1547.2 0.01028 -0.655406 0.510031 120 104 104
1793.91 176.398 -1544.06 0.0262734 -0.726346 0.456788 118 99 99
1802.57 175.668 -1544.82 0.044041 -0.757244 0.44457 114 96 94
1702.56 187.846 -1549.64 0.0311026 -0.681296 0.56217 111 96 97
1709.24 186.978 -1547.87 -0.0234069 -0.725131 0.554801 110 95 95
1713.71 186.367 -1548.53 -0.0160983 -0.685296 0.57724 113 97 97
1719.53 185.644 -1546.28 -0.0262077 -0.690089 0.593289 114 97 96
1724.78 184.028 -1547.34 -0.00294315 -0.584654 0.680984 120 102 100
1753.64 266.271 -1544.03 0.300875 0.656369 0.572128 136 120 119
1760.58 263.981 -1542.44 0.310914 0.790161 0.526019 133 116 115
1772.38 260.484 -1541.48 0.318868 0.817089 0.496825 128 112 112
1770.81 261.844 -1544.56 0.310761 0.720045 0.530362 130 115 115
1801.3 251.688 -1542 0.296839 0.669458 0.666594 126 107 99
1781.46 260.56 -1547.33 0.277589 0.224291 0.688594 139 128 132
1786.58 258.124 -1545.08 0.291005 0.286893 0.698952 137 124 125
1792.75 256.777 -1546.08 0.293606 0.320322 0.708749 135 121 121
1801.43 255.216 -1547.25 0.267375 0.370335 0.69705 135 120 118
1366.34 363.76 -1544.23 -0.177585 -0.684924 -0.610648 130 108 87
1384.28 363.913 -1543.01 0.117057 -0.811956 -0.544336 120 99 81
1374.05 365.795 -1546.63 -0.0965111 -0.575131 -0.720219 141 117 96
1384.07 367 -1547.34 0.024668 -0.608923 -0.733493 134 112 90
1387.73 365.357 -1543.69 0.107767 -0.746437 -0.604388 121 100 83
1589.55 -616.581 -1536.92 0.583028 0.0377085 -0.73132 21 23 27
1593.31 -616.133 -1536.78 0.584509 0.0457401 -0.718324 21 23 28
1588.93 -607.936 -1541.25 0.3089 -0.069567 -0.84942 21 23 30
1600.07 -613.459 -1539.37 0.582115 0.132505 -0.743273 20 22 29
1608.51 -612.444 -1534.64 0.667942 0.18055 -0.680173 19 21 27
1600.14 -608.019 -1540.4 0.569361 0.168649 -0.768405 20 22 29
1605.32 -605.12 -1536.33 0.60228 0.257585 -0.755934 18 20 27
1597.66 -594.744 -1539.45 0.491329 0.169525 -0.81253 19 21 28
1600.72 -600.717 -1538.7 0.544588 0.196491 -0.790508 18 20 28
1598.83 -595.812 -1538.93 0.535232 0.177841 -0.791717 18 20 27
1595.65 -588.38 -1539.48 0.448543 0.197594 -0.814425 19 21 28
1594.16 -579.252 -1537.72 0.469159 0.194423 -0.770011 18 20 28
1599.72 -584.919 -1535.34 0.673267 0.256517 -0.678609 17 19 26
1589.73 -573.526 -1540.49 0.345493 0.053577 -0.852807 18 20 28
1593.14 -576.44 -1538.09 0.482591 0.141736 -0.768735 18 20 27
1589.75 -563.354 -1538.58 0.429373 0.112253 -0.83553 18 20 27
1584.33 -560.236 -1539.54 0.369467 0.158392 -0.871984 20 22 29
1595.98 -557.782 -1535.12 0.660468 -0.066658 -0.714891 16 18 25
1586.24 -554.917 -1538.02 0.416607 0.0902194 -0.86085 20 22 29
1596.97 -550.093 -1535.19 0.558031 -0.0548545 -0.794538 17 19 26
1589.61 -543.207 -1536.85 0.297685 0.0237445 -0.914158 19 21 28
1593.62 -547.414 -1536.06 0.399911 0.00945344 -0.850662 18 20 27
1585.2 -537.511 -1537.45 0.332566 0.0633992 -0.928363 20 21 29
1592.84 -540.668 -1535.81 0.361523 0.0567041 -0.85532 18 20 27
1404.9 -534.873 -1539.58 -0.644066 0.486864 -0.584119 12 11 18
1408.75 -524.718 -1536.94 -0.642356 0.324673 -0.62245 12 11 18
1411.12 -524.161 -1539.6 -0.692176 0.297735 -0.584443 11 11 18
1406.03 -519.104 -1534.61 -0.604558 0.0550044 -0.716726 12 12 19
1411.37 -519.279 -1539.53 -0.726548 0.0565548 -0.595734 12 12 19
1409.93 -511.037 -1540.68 -0.69108 -0.309323 -0.617511 12 13 20
1385.55 -479.882 -1537.8 -0.724015 -0.460692 -0.511546 12 14 19
1402.84 -506.883 -1537.01 -0.652722 -0.37035 -0.639084 12 14 20
1394.37 -495.193 -1536.08 -0.717127 -0.466128 -0.519231 13 14 19
1398.54 -495.88 -1541.54 -0.674858 -0.461004 -0.569843 13 15 20
1392.01 -490.373 -1537.24 -0.734491 -0.462099 -0.497897 12 14 19
1422.27 2.33831 -1535.66 0.0214871 -0.406054 -0.895237 184 179 187
1419.37 10.2655 -1538.24 -0.0469501 -0.279363 -0.9324 184 179 187
1427.36 5.48097 -1536.88 0.00399132 -0.42847 -0.885738 185 180 188
1418.73 12.8953 -1538.81 -0.0589953 -0.248018 -0.94325 183 178 186
1426.62 15.5609 -1539.21 -0.00898904 -0.192417 -0.9486 185 180 188
1436.57 10.9163 -1536.49 0.25755 -0.30102 -0.884873 186 181 189
1432.58 12.0914 -1537.85 0.12229 -0.286931 -0.906636 186 181 189
1442.36 16.545 -1536.23 0.252367 -0.278491 -0.899937 186 182 189
1447.19 17.368 -1535.41 0.256792 -0.382196 -0.873682 186 182 189
1484.31 -92.0276 -1541.34 -0.417365 0.377081 -0.774072 203 199 208
1484.37 -84.4444 -1536.19 -0.443907 0.40807 -0.735912 203 198 208
1491.06 -83.1577 -1541.55 -0.129124 0.276179 -0.694585 184 180 194
1488.93 -77.0292 -1536.33 -0.340543 0.313517 -0.72374 195 191 202
1496.97 -73.4751 -1540.59 -0.117025 0.143487 -0.707861 176 174 188
1494.3 -70.9477 -1538.58 -0.272569 0.182948 -0.676185 184 182 195
1500.24 -69.1911 -1540.37 -0.155059 0.130128 -0.708224 176 174 188
1522.34 -88.7217 -1541.57 0.388775 -0.082619 -0.905341 205 201 208
1527.12 -85.5694 -1537.49 0.512596 -0.0786546 -0.840174 206 202 207
1505.16 -66.5529 -1541.33 -0.358997 0.241713 -0.765897 192 190 200
1528.17 -77.2061 -1539.03 0.463331 -0.187266 -0.847918 205 202 207
1492.15 -65.1883 -1534.98 -0.359605 0.215948 -0.64115 188 185 197
1498.08 -58.2245 -1535.19 0.0362922 0.15444 -0.567945 160 159 175
1489.99 -57.1301 -1541.21 0.319757 0.104334 -0.678231 155 155 172
1485.85 -50.6679 -1540.45 0.105241 0.179747 -0.676188 167 166 181
1483.07 -42.8203 -1540.6 0.125972 0.171579 -0.679208 167 165 180
1489.14 -45.9923 -1539.24 0.354201 0.0856299 -0.661034 152 152 169
1493.22 -42.5242 -1538.64 0.614724 0.0192115 -0.646597 137 138 156
1504.31 -60.4153 -1539.21 -0.175016 0.198625 -0.644064 175 173 187
1509.33 -58.4505 -1541.07 -0.385716 0.267203 -0.706965 190 188 199
1502.77 -53.3911 -1534.86 -0.00910548 0.222823 -0.63874 166 165 181
1513.68 -51.9106 -1541.95 -0.613916 0.318988 -0.664639 200 197 206
1510.48 -48.8575 -1535.51 -0.447643 0.368503 -0.67593 193 190 201
1517.03 -40.414 -1537 -0.509722 0.379833 -0.704857 195 193 203
1531.89 -80.4428 -1533.39 0.585659 -0.147264 -0.74674 195 191 198
1531.51 -77.1017 -1535.29 0.564982 -0.183991 -0.762479 199 195 201
1530.62 -68.0261 -1541.13 0.501988 -0.321893 -0.799063 206 203 209
1538.74 -59.7073 -1536.03 0.689037 -0.32058 -0.623665 207 203 209
1541.6 -55.8275 -1534.73 0.708905 -0.349341 -0.588066 208 204 210
1543.21 -51.5806 -1535.76 0.680368 -0.32587 -0.641695 208 204 210
1545.91 -46.2518 -1534.72 0.703139 -0.290169 -0.608801 207 203 210
1545.19 -36.8266 -1541.18 0.477213 -0.113162 -0.850948 209 206 213
1412.68 454.391 -1546.76 0.566125 0.356889 -0.584212 130 99 88
1414.82 450.57 -1542.7 0.641203 0.421016 -0.471423 130 98 88
1415.6 450.191 -1541.73 0.653888 0.411047 -0.443104 130 98 88
1752.13 186.994 -1529.86 -0.112944 -0.852545 0.502237 111 93 91
1759.77 185.517 -1530.6 -0.16254 -0.849128 0.493745 111 94 91
1800.37 237.464 -1529.18 0.387979 0.487632 0.778551 131 111 102
1690.49 280.596 -1528.17 0.346332 0.676457 0.590315 158 153 163
1669.98 286.543 -1532.62 0.342337 0.682408 0.586517 159 154 165
1686.28 282.033 -1528.55 0.346353 0.69217 0.578419 159 155 165
1734.1 266.925 -1527.57 0.314168 0.514086 0.741617 145 129 128
1744.96 266.062 -1532.28 0.289413 0.660607 0.652181 139 123 121
1696.4 278.293 -1527.93 0.344019 0.611368 0.640579 155 146 153
1702.49 276.473 -1528.44 0.337424 0.518863 0.714463 150 138 140
1712.77 274.473 -1532.09 0.327555 0.451437 0.774529 147 131 131
1715.81 273.359 -1532.3 0.328463 0.458492 0.770026 147 131 131
1433.67 398.818 -1533.41 0.884816 0.077733 -0.199968 121 96 92
1434.25 392.991 -1533.14 0.86975 -0.0898435 -0.295576 117 93 91
1429.46 413.705 -1532.81 0.771819 0.461915 -0.0308706 129 100 92
1428.14 417.441 -1532.41 0.734133 0.487874 -0.103439 130 100 92
1432.43 405.748 -1531.32 0.889053 0.354817 0.085743 128 101 93
1426.29 423.826 -1529.39 0.713979 0.45607 -0.183881 130 100 92
1424.92 428.153 -1529.42 0.727727 0.413883 -0.270917 130 100 92
1364.46 501.468 -1533.24 -0.590109 0.200496 -0.729914 123 99 87
1810.91 182.23 -1528.31 0.0824781 -0.850666 0.51144 112 96 93
1818.29 181.766 -1532.55 0.163358 -0.885181 0.440687 113 94 91
1822.7 183.368 -1531.41 0.218588 -0.840832 0.491836 117 96 93
1825.78 184.823 -1531.2 0.263842 -0.773394 0.548273 120 96 93
1828.43 188.678 -1529.08 0.331465 -0.592931 0.682181 123 100 94
1826.14 208.709 -1527.82 0.144538 0.203162 0.964814 133 110 100
1828.72 208.483 -1527.97 0.132858 0.186927 0.971414 131 109 99
1838.04 197.627 -1529.57 0.383842 -0.292711 0.831411 125 102 94
1842.22 191.927 -1534.74 0.354807 -0.566045 0.727475 118 95 87
1839.99 201.219 -1530.28 0.343247 -0.169445 0.873847 127 104 96
1844.26 201.878 -1532.47 0.354157 -0.180557 0.888026 127 105 97
1838.81 207.209 -1529.57 0.218589 0.0435952 0.951536 130 107 100
1846.31 207.121 -1532.17 0.293738 -0.105924 0.932991 133 111 104
1853.58 205.935 -1534.53 0.127524 -0.237394 0.9562 134 113 107
1854.45 208.468 -1534.17 0.134679 -0.179176 0.968192 137 116 111
1832.28 216.071 -1528.84 0.156657 0.0699625 0.978743 133 110 102
1824.79 224.625 -1529.05 0.118914 0.283231 0.915129 130 108 97
1827.32 224.978 -1529.42 0.0989018 0.265609 0.923082 132 109 98
1254.08 -349.406 -1524.92 -0.521656 0.215646 -0.767868 15 15 23
1252.39 -342.278 -1523.76 -0.492618 0.0468956 -0.776376 18 17 26
1255.19 -345.982 -1524.98 -0.519094 0.13761 -0.770795 14 13 22
1258.73 -334.914 -1527.12 -0.395626 -0.0557976 -0.792377 14 12 22
1254.57 -329.07 -1525.22 -0.408362 -0.0793987 -0.84492 101 97 110
1253.87 -324.542 -1525.42 -0.42818 -0.108343 -0.857497 138 134 149
1252.6 -319.817 -1525.62 -0.471676 -0.108876 -0.847205 154 149 165
1367.51 -1192.14 -1521.93 0.0675538 0.996392 0.00746405 101 92 87
1374.94 -1192.38 -1526.58 0.0650268 0.991157 -0.0985791 104 94 88
1416.62 -1082.66 -1522.04 -1.05062 0.207888 -0.0116277 117 107 94
1417.24 -1075.26 -1524.42 -0.92457 0.196258 -0.00307017 120 109 94
1417.34 -1070.13 -1522.15 -0.862207 0.197233 -0.0208818 120 109 93
1418.39 -1062.9 -1524.26 -0.672843 0.175047 0.0297088 122 108 91
1420.62 -1055.4 -1525.07 -0.243305 0.152096 0.0645057 123 105 88
1422.32 -1049.15 -1524.27 -0.0558631 0.149932 0.0766393 123 103 86
1423.02 -1044.03 -1521.81 0.0670783 0.146255 0.0871201 123 103 85
1425.88 -1039.21 -1523.12 0.294726 0.127759 0.122857 123 101 85
1429.61 -1013.24 -1521.18 -0.230514 0.102834 0.452779 139 115 99
1430.78 -1001.92 -1521.91 -0.410215 0.114709 0.572388 139 114 99
1409.38 -899.749 -1521.03 -0.0938777 -0.457694 -0.86707 146 120 109
1413.44 -897.155 -1522.11 0.00839841 -0.413978 -0.883555 151 124 112
1389.03 -873.307 -1522.14 -0.581946 -0.19931 -0.778151 129 108 95
1403.91 -889.804 -1523.95 -0.211913 -0.339542 -0.885504 143 117 106
1393.74 -884.386 -1521.48 -0.494524 -0.281479 -0.809505 133 111 99
1402.09 -882.194 -1525.34 -0.311892 -0.261733 -0.896964 139 115 104
1410.59 -891.448 -1524.47 -0.0465998 -0.354974 -0.899982 150 123 112
1416.46 -891.23 -1524.28 0.0964087 -0.33633 -0.910816 157 128 115
1406.07 -886.678 -1525.33 -0.197562 -0.287534 -0.913388 144 119 108
1416.03 -885.405 -1526.33 0.0386273 -0.284404 -0.935978 157 129 116
1397.29 -877.489 -1524.87 -0.402558 -0.234326 -0.874872 135 112 101
1400.45 -878.947 -1525.57 -0.342781 -0.235974 -0.8971 138 114 103
1392.02 -868.985 -1524.53 -0.476134 -0.155105 -0.846769 132 110 99
1401.93 -869.769 -1527.39 -0.247876 -0.142356 -0.946785 139 115 105
1407.25 -877.122 -1527.59 -0.187902 -0.171878 -0.962273 144 119 109
1397.42 -588.584 -1524.09 -0.94342 0.136629 -0.295058 11 10 20
1398.07 -577.843 -1525.84 -0.947972 -0.00575983 -0.311571 12 11 20
1397.42 -571.784 -1525.04 -0.950112 -0.0844178 -0.291319 13 12 21
1396.3 -568.489 -1522.86 -0.953545 -0.121675 -0.271439 13 12 22
1390.32 -538.582 -1523.68 -0.81874 0.0235006 -0.499424 11 11 19
1394.16 -557.024 -1525.36 -0.922463 -0.160842 -0.328623 14 13 21
1393.16 -553.192 -1525.34 -0.908549 -0.135795 -0.358037 13 12 20
1391.42 -545.033 -1524.86 -0.866211 -0.0278637 -0.436612 12 11 19
1555.91 -361.245 -1527.67 0.321073 0.149243 -0.930774 19 19 27
1555.07 -350.898 -1526.24 0.265497 0.0984896 -0.949708 20 20 27
1551.85 -345.159 -1526.59 0.222508 0.0283814 -0.96698 20 20 28
1561.7 -366.199 -1526.07 0.328035 0.128078 -0.93491 20 20 27
1565.85 -362.534 -1523.98 0.363517 0.162335 -0.912501 19 20 27
1563.65 -358.993 -1524.32 0.356908 0.147976 -0.924275 19 20 27
1568.85 -360.836 -1522.38 0.407064 0.194565 -0.88899 17 18 25
1571.2 -364.296 -1522.11 0.388373 0.192277 -0.883836 18 19 26
1562.39 -353.842 -1524 0.354684 0.139461 -0.923823 19 19 26
1565.39 -353.956 -1522.78 0.396415 0.161162 -0.907898 17 18 25
1563.05 -344.773 -1522.42 0.429218 0.137875 -0.883262 17 18 25
1552.33 -336.49 -1526.2 0.367229 -0.00105502 -0.920129 21 20 28
1551.46 -332.571 -1526.26 0.422698 -0.00409461 -0.898504 23 22 30
1556.55 -335.973 -1524.27 0.389973 0.0840713 -0.898479 21 20 28
1551.77 -326.274 -1525.44 0.485412 0.08114 -0.860498 32 31 39
1549.73 -315.517 -1524.61 0.593338 0.12452 -0.777283 77 76 84
1550.38 -317.758 -1524.6 0.568306 0.129713 -0.795675 67 66 74
1562.4 -339.992 -1521.75 0.465796 0.15288 -0.855612 17 18 25
1557.86 -332.644 -1522.95 0.470686 0.131733 -0.850572 22 22 29
1606.96 -531.116 -1523.73 0.770955 0.100956 -0.589012 16 18 24
1603.2 -525.099 -1526.59 0.630182 0.155128 -0.742541 14 16 22
1603.99 -515.547 -1523.25 0.770844 0.121763 -0.607313 14 16 22
1605.41 -516.714 -1521.74 0.778907 0.160967 -0.589932 14 16 22
1601.75 -514.364 -1526.5 0.753303 0.0390215 -0.634599 14 16 23
1603.11 -506.105 -1523.25 0.852143 0.079966 -0.479681 14 16 23
1601.41 -499.248 -1524.22 0.801611 0.160079 -0.54669 14 16 24
1596.53 -484.507 -1527.08 0.744019 0.112518 -0.638137 15 17 25
1341.76 74.795 -1525.12 -0.081402 0.558701 -0.777299 216 213 222
1348.39 73.5633 -1527.67 -0.190839 0.335206 -0.81391 213 210 220
1346.7 81.8836 -1524.25 -0.212323 0.262604 -0.859984 213 210 220
1345.97 83.8693 -1523.77 -0.196703 0.193644 -0.885235 213 210 219
1349.82 83.079 -1524.65 -0.233058 0.251052 -0.858682 212 209 219
1356.79 82.0303 -1526.39 -0.412555 0.498331 -0.73631 208 204 215
1338.44 88.9167 -1521.96 -0.14926 0.0582681 -0.928088 212 208 218
1343.68 89.8209 -1523 -0.153132 0.00864161 -0.946684 210 207 216
1336.61 94.8806 -1522.59 -0.157016 -0.116757 -0.956455 200 197 206
1343.82 97.3406 -1524.03 -0.115727 -0.152055 -0.973609 198 195 204
1351.54 93.6602 -1523.37 -0.0416268 -0.0392756 -0.986872 207 204 213
