ply
format ascii 1.0
comment Created by Open3D
element vertex 729
property double x
property double y
property double z
property double nx
property double ny
property double nz
property uchar red
property uchar green
property uchar blue
end_header
1283.68 -227.633 -1312.58 0.378368 -0.153251 -0.880054 205 198 206
1281.22 -220.717 -1314.94 0.546562 0.0754923 -0.720152 183 178 189
1282.69 -210.337 -1313.5 0.364708 0.118814 -0.86243 192 186 195
1282.98 -207.912 -1313.26 0.296916 0.117662 -0.913853 196 189 198
1279.08 -199.469 -1317.4 0.495476 0.0109073 -0.771314 182 178 190
1303.29 -202.084 -1317.23 0.503258 0.193818 -0.833965 192 185 193
1313.39 -225.557 -1316.12 0.376935 0.0257419 -0.921372 198 191 199
1309.72 -216.37 -1316.84 0.4811 0.0332206 -0.868581 196 189 197
1315.31 -216.711 -1313.93 0.438536 0.109996 -0.884509 195 188 196
1323.36 -226.545 -1311.8 0.45488 0.0127729 -0.886542 195 188 196
1319.55 -217.165 -1312.04 0.434517 0.136996 -0.884501 194 187 195
1309.17 -212.221 -1316.55 0.505884 0.0776952 -0.849008 193 186 194
1315.87 -211.948 -1312.65 0.479688 0.146066 -0.856859 192 185 193
1310.2 -201.624 -1312.93 0.485162 0.224195 -0.839208 184 177 184
1318.57 -213.889 -1311.84 0.443446 0.172965 -0.874472 193 186 194
1344.44 446.094 -1316.34 0.697075 -0.00632409 -0.717915 202 162 129
1350.21 436.507 -1311.4 0.627953 -0.0446444 -0.783821 204 167 138
1347.07 442.456 -1314.18 0.647085 -0.0379892 -0.768129 205 165 134
1345.6 451.626 -1315.22 0.684622 0.00535482 -0.730265 201 161 128
1346.49 454.506 -1314.42 0.674048 0.0010256 -0.739951 198 159 127
1351.37 461.968 -1311.23 0.608814 -0.10795 -0.781624 163 133 111
1390.31 356.922 -1312.8 0.51061 0.740802 -0.362633 154 117 92
1395.83 353.798 -1311.98 0.36255 0.866126 -0.257534 137 100 77
1428.95 355.576 -1315.47 -0.372974 0.878301 -0.252395 111 81 71
1433.61 358.933 -1313.66 -0.489039 0.801605 -0.332492 112 84 76
1439.83 364.151 -1315.53 -0.637378 0.677414 -0.341137 110 86 78
1441.2 366.949 -1313.82 -0.692905 0.608644 -0.36244 110 86 79
1443.45 368.899 -1315.7 -0.74145 0.56279 -0.347392 109 86 79
1446.45 378.748 -1311.89 -0.815805 0.407217 -0.415457 109 87 80
1449.75 385.49 -1312.83 -0.795759 0.387878 -0.465262 108 88 79
1451.64 387.254 -1314.61 -0.790729 0.387977 -0.46304 108 88 78
1450.91 390.848 -1311.85 -0.754111 0.305165 -0.563947 106 85 77
1457.09 396.598 -1316.21 -0.768665 0.304769 -0.546177 110 87 79
1458.21 399.995 -1316.16 -0.772416 0.301873 -0.541019 112 88 80
1460.13 404.312 -1315.85 -0.774246 0.295886 -0.540469 117 91 84
1476.78 -259.69 -1307.07 -0.473961 0.646803 -0.548332 157 149 164
1477.83 -261.014 -1309.58 -0.437621 0.714754 -0.507512 158 150 164
1483.95 -252.063 -1311.06 -0.663981 0.0665521 -0.653769 146 138 156
1477.94 -250.303 -1304.4 -0.635035 0.00414967 -0.708142 153 145 161
1478.67 -245.348 -1306.23 -0.692692 -0.182812 -0.69999 151 143 159
1480.94 -243.953 -1309.19 -0.743144 -0.277352 -0.672901 147 138 156
1478.53 -239.626 -1307.36 -0.725713 -0.145937 -0.670044 153 145 161
1476.51 -231.114 -1306.44 -0.680899 -0.0910127 -0.698568 157 149 164
1475.11 -227.097 -1305.85 -0.626256 -0.109223 -0.737042 157 149 164
1472.67 -222.361 -1305 -0.540196 -0.175328 -0.800504 156 148 163
1472.61 -219.343 -1304.76 -0.517783 -0.135185 -0.822862 154 147 161
1480.43 -213.959 -1309.22 -0.589107 0.0385638 -0.790321 147 139 155
1476.07 -213.455 -1306.12 -0.548049 0.0058723 -0.820404 149 141 156
1482.68 -211.86 -1310.57 -0.599114 0.0525235 -0.781406 146 138 155
1474.95 -203.924 -1305.08 -0.553114 0.0240015 -0.821782 149 142 156
1480.44 -200.902 -1309.06 -0.590794 0.0350208 -0.791006 146 138 155
1287.48 -199.411 -1309.12 0.337404 0.0200407 -0.930989 207 200 206
1291.31 -191.473 -1305.89 0.491236 0.0111015 -0.84917 211 203 209
1292 -192.487 -1305.06 0.506479 0.0155162 -0.84014 210 202 208
1288.6 -180.526 -1309.36 0.462106 -0.0209315 -0.873642 210 203 209
1289.28 -174.59 -1308.9 0.503362 -0.0151397 -0.851791 209 202 208
1278.1 -85.51 -1309.35 0.866938 0.0133374 -0.47045 140 142 162
1279 -81.7436 -1308.72 0.862586 -0.0552958 -0.477671 139 141 161
1292.45 -88.4671 -1305.46 0.574229 -0.0342454 -0.746483 167 165 179
1292.09 -81.2562 -1307.61 0.467002 -0.00153055 -0.835063 184 181 190
1283.3 -69.9018 -1304.86 0.825934 -0.00521624 -0.549432 138 141 162
1281.23 -67.1531 -1308.92 0.861798 -0.0668004 -0.498976 137 139 160
1281.62 -68.9094 -1308.15 0.851769 -0.0369714 -0.514057 137 140 161
1292.12 -71.5476 -1307.55 0.422233 -0.0158828 -0.873969 177 175 185
1292.64 -64.686 -1307.89 0.425443 -0.0115332 -0.880088 169 168 180
1318.29 -88.973 -1308.94 0.5009 -0.0111074 -0.860431 207 202 206
1321.07 -84.4194 -1307.15 0.473493 0.0284782 -0.875525 206 202 205
1325.77 -87.9766 -1304.94 0.414832 0.0516805 -0.903845 206 202 206
1323.75 -76.9086 -1305.75 0.503885 -0.0318493 -0.856933 207 203 206
1316.22 -72.1579 -1310.68 0.487154 -0.0378916 -0.86734 205 201 204
1319.75 -70.69 -1308.84 0.498785 -0.0636526 -0.861009 206 201 204
1322.39 -69.7561 -1307.45 0.492962 -0.0684171 -0.860742 206 201 204
1323.96 -67.551 -1306.66 0.479177 -0.0542652 -0.865387 206 201 204
1327.87 -67.5543 -1304.65 0.467053 -0.0538967 -0.867733 206 201 204
1282.05 -57.1783 -1310.07 0.854032 -0.100035 -0.514032 136 138 159
1283.49 -52.2633 -1309.44 0.838182 -0.111383 -0.529296 137 139 159
1288.48 -51.3935 -1305.1 0.669264 -0.117027 -0.666504 131 133 154
1441.72 441.067 -1305.14 -0.583023 0.15749 -0.753398 132 102 97
1428.76 458.35 -1304.96 -0.472761 -0.297256 -0.838082 109 79 71
1439.78 449.619 -1306.02 -0.42005 -0.232945 -0.814109 113 83 79
1441.4 451.929 -1307.67 -0.383301 -0.191187 -0.850982 115 85 80
1435.02 462.332 -1308.8 -0.377062 -0.224047 -0.905817 107 79 75
1441.04 458.446 -1310.04 -0.282015 -0.252869 -0.929367 108 78 75
1451.33 408.531 -1304.5 -0.608623 0.138962 -0.756669 116 88 82
1450.97 414.836 -1304.8 -0.454591 -0.0831595 -0.858341 131 102 95
1453.5 417.753 -1307.52 -0.509918 -0.0568934 -0.797909 132 103 96
1457.94 415.131 -1309.45 -0.616663 0.120966 -0.716412 128 100 93
1445.92 425.988 -1306.52 -0.512771 -0.247417 -0.789306 133 103 96
1453.88 424.565 -1309.6 -0.417227 -0.247367 -0.85128 141 111 104
1443.33 435.272 -1307.07 -0.594235 0.0747214 -0.750283 137 107 100
1458.83 421.916 -1310.88 -0.537348 -0.0865764 -0.780385 137 107 100
1446.46 442.409 -1307.97 -0.504554 0.243773 -0.791044 139 108 101
1444.91 443.514 -1307.22 -0.506577 0.18211 -0.78754 134 104 98
1450.3 446.107 -1310.13 -0.426868 0.182406 -0.831541 137 106 99
1448.94 451.928 -1310.13 -0.394797 -0.0725205 -0.85532 123 93 89
1354.3 468.911 -1310.88 0.538139 0.0625638 -0.781258 137 111 100
1358.25 464.325 -1308.62 0.443115 -0.109054 -0.854788 139 112 102
1355.15 471.326 -1309.89 0.481424 0.185593 -0.771935 137 113 106
1346.21 483.724 -1308.81 0.603652 0.330522 -0.584418 168 140 131
1345.08 488.913 -1309.98 0.674323 0.17084 -0.587492 156 129 119
1347.34 481.68 -1308.74 0.577855 0.357223 -0.606573 165 137 129
1353.7 477.174 -1307.34 0.358668 0.455496 -0.713674 159 137 134
1347.18 485.212 -1307.68 0.540484 0.311566 -0.61713 169 144 137
1365.48 463.909 -1306.08 0.289092 -0.232662 -0.917265 129 103 98
1370.51 464.494 -1304.73 0.264164 -0.298296 -0.914249 125 98 94
1365.35 471.83 -1305.78 0.285542 0.128703 -0.874931 115 92 92
1346.97 492.516 -1308.94 0.628728 0.0358202 -0.670437 135 111 105
1347.99 497.592 -1309.58 0.669343 -0.038694 -0.713258 94 74 70
1352.71 496.84 -1305.57 0.497487 -0.0874065 -0.828958 121 103 97
1352.06 503.624 -1305.96 0.416668 0.0675027 -0.823517 91 77 69
1352.72 499.329 -1305.69 0.505341 -0.0322915 -0.817467 109 92 85
1343.09 507.523 -1308.19 0.553606 0.280209 -0.706034 42 35 32
1337.62 514.231 -1309.6 0.74538 0.165953 -0.625097 29 25 22
1344.13 511.625 -1305.21 0.14333 0.519643 -0.799002 26 25 22
1348.4 510.323 -1304.63 0.0510697 0.426762 -0.850017 49 43 39
1355.38 506.813 -1304.88 0.285463 -0.0487267 -0.845173 110 92 83
1355.72 512.604 -1305.21 0.0194724 0.029324 -0.867529 103 86 78
1266.4 -236.764 -1304.4 0.9756 -0.00885013 -0.0831505 136 136 156
1267.65 -231.068 -1302.73 0.941747 -0.0644992 -0.215454 138 139 160
1271.01 -231.016 -1297.66 0.795655 -0.126467 -0.544292 139 140 160
1268.72 -222.951 -1302.53 0.894863 -0.0675003 -0.329627 140 141 161
1269.19 -218.511 -1302.97 0.87719 -0.101251 -0.368471 141 141 162
1274.4 -221.592 -1297.1 0.698435 -0.110885 -0.678002 138 139 159
1270.65 -208.535 -1303.34 0.856657 -0.115395 -0.469084 142 143 163
1274 -200.714 -1298.48 0.852837 -0.011111 -0.491414 140 141 161
1272.29 -204.982 -1301.47 0.845417 -0.0492699 -0.499042 141 142 162
1274.84 -200.445 -1296.99 0.848674 0.00314329 -0.49663 141 142 162
1274.74 -189.352 -1298.93 0.898833 -0.0977433 -0.428975 141 142 162
1273.04 -183.958 -1303.61 0.888053 -0.0876217 -0.440385 140 141 161
1273.77 -174.274 -1302.21 0.935627 -0.040138 -0.349152 140 141 161
1274.73 -167.758 -1299.83 0.920457 -0.077383 -0.338256 142 143 163
1275.03 -169.425 -1298.37 0.921463 -0.0483362 -0.348586 142 142 162
1274.45 -164.26 -1302.14 0.919732 -0.0905648 -0.326146 144 145 164
1276.47 -141.411 -1303.14 0.843408 -0.00680525 -0.53573 139 142 162
1276.94 -119.461 -1303.95 0.910717 -0.0805859 -0.394481 138 141 161
1288.92 -85.9039 -1299.22 0.679649 -0.064741 -0.68366 138 140 159
1284.57 -81.9177 -1302.15 0.807992 -0.112493 -0.545392 136 138 159
1288.26 -82.9014 -1301.06 0.730659 -0.0758551 -0.630416 141 143 162
1291.82 -84.7292 -1300.98 0.646819 -0.0405224 -0.71324 149 150 167
1290.02 -76.6101 -1302.07 0.679305 -0.0961112 -0.677431 144 146 164
1283.86 -68.2666 -1304.04 0.820208 0.0553745 -0.568037 139 141 162
1290.66 -62.6008 -1303.14 0.509126 -0.108727 -0.810148 137 139 158
1328.67 -86.2354 -1303.5 0.405363 0.0723944 -0.90966 206 202 206
1327.06 -76.3772 -1303.85 0.488343 -0.0235992 -0.863223 207 203 206
1330.18 -75.0523 -1302.59 0.469872 -0.0316602 -0.870685 206 202 206
1330.23 -65.3749 -1303.61 0.43909 -0.0227979 -0.880842 206 200 204
1291.03 -53.766 -1303.59 0.498554 -0.140238 -0.809635 131 133 153
1329.4 124.865 -1303.61 0.0922936 -0.0518049 -0.973621 203 199 203
1324.4 129 -1304.16 0.193935 -0.123923 -0.956728 207 203 206
1330.09 130.13 -1304.21 0.106817 -0.0944313 -0.968968 204 200 204
1338.54 81.4617 -1304.18 -0.0659843 0.0530372 -0.990031 191 186 194
1340.37 82.9773 -1304.22 -0.093226 -0.0096127 -0.998858 191 186 194
1344.67 86.6251 -1304.18 -0.0285061 0.0331081 -0.996369 189 184 192
1349.5 90.012 -1303.75 0.00798077 0.0711242 -0.990222 188 183 191
1332.48 93.8645 -1302.97 -0.0759354 0.0407049 -0.982259 191 186 193
1342.08 95.3093 -1303.95 -0.0691655 0.0498526 -0.983707 190 186 193
1332.8 101.418 -1302.66 -0.104633 0.0205259 -0.972465 194 189 196
1341.74 96.8598 -1303.94 -0.0831002 0.0550113 -0.980685 191 186 194
1346.25 94.8611 -1303.57 -0.00344469 0.0614085 -0.984862 190 185 193
1353.99 94.4931 -1303.63 -0.021658 0.0542891 -0.983661 189 183 191
1344.65 97.1929 -1303.51 -0.0149844 0.0570867 -0.981962 190 185 193
1353.35 97.2665 -1303.49 -0.0160338 0.0426737 -0.982153 189 184 192
1335.98 105.667 -1302.74 -0.090238 0.00603035 -0.971594 194 189 196
1340.68 111.194 -1302.94 -0.0512948 0.00738002 -0.981001 194 189 197
1333.41 115.66 -1303.03 -0.0269966 -0.0266036 -0.979354 198 194 200
1340.38 116.416 -1303.15 -0.0379781 -0.00567546 -0.98608 195 191 198
1347.47 107.032 -1302.96 6.37499e-05 0.0214868 -0.982951 192 187 195
1355.95 106.614 -1303.88 -0.121032 -0.00132537 -0.977679 190 185 194
1346.37 115.885 -1303.07 -0.0150288 -0.00379405 -0.984007 193 188 196
1356.23 112.272 -1303.8 -0.143023 0.0148066 -0.972851 190 185 193
1334.28 123.021 -1303.67 -0.0145443 -0.0544086 -0.982514 200 196 202
1342.32 120.95 -1303.59 -0.051674 -0.0409143 -0.988386 196 191 199
1334.72 128.485 -1304.24 0.00887741 -0.0754672 -0.980547 202 198 203
1345.32 118.665 -1303.18 -0.00907313 -0.023609 -0.984926 194 189 197
1357.02 120.415 -1303.89 -0.116828 -0.0976637 -0.957288 190 185 193
1391.53 22.6711 -1304.41 -0.0851703 -0.147187 -0.969861 201 196 205
1392.42 -264.321 -1292.72 0.214302 0.824667 -0.525733 200 193 201
1399.13 -265.782 -1292.58 0.154564 0.87756 -0.475759 199 192 200
1401.6 -267.866 -1296.77 0.100339 0.904626 -0.422772 197 190 198
1411.06 -267.459 -1295.17 0.0126922 0.914495 -0.421497 188 181 189
1416.35 -266.431 -1293.17 -0.0257341 0.907248 -0.448268 185 178 186
1425.99 -265.404 -1291.99 -0.060866 0.860554 -0.516994 188 181 190
1430.5 -265.167 -1292.13 -0.0760848 0.831375 -0.544872 190 183 192
1434.62 -265.275 -1293.2 -0.0946264 0.803638 -0.55694 189 182 191
1440.86 -264.931 -1294.05 -0.126451 0.79703 -0.550101 187 179 189
1448.57 -264.313 -1296.26 -0.230922 0.778231 -0.523407 180 173 184
1448.31 -261.634 -1292.28 -0.262326 0.61853 -0.637518 182 175 186
1455.71 -262.182 -1296.69 -0.328148 0.760634 -0.532472 172 166 177
1456.8 -257.838 -1294.7 -0.366867 0.397464 -0.702615 173 167 179
1366.24 -30.7867 -1296.31 0.226296 -0.265749 -0.929043 206 202 207
1368.52 -33.1404 -1294.8 0.229716 -0.253613 -0.934018 206 202 207
1369.09 -27.0269 -1296.66 0.241383 -0.261482 -0.924252 206 202 207
1376.88 -31.8459 -1292.95 0.21716 -0.249923 -0.938505 205 201 206
1387.36 -30.6601 -1291.33 0.126172 -0.266633 -0.95459 202 198 203
1376.14 -22.6693 -1295.31 0.254017 -0.190833 -0.939386 204 200 205
1381.89 -26.4988 -1293.19 0.186675 -0.237902 -0.950127 204 200 205
1372.6 -15.1713 -1297.18 0.262578 -0.0527804 -0.95748 201 197 202
1376.9 -15.6113 -1296.07 0.229988 -0.0858878 -0.962392 201 197 202
1383.97 -18.6621 -1294.55 0.162811 -0.168293 -0.966478 202 198 204
1376.51 -9.74618 -1296.5 0.211006 -0.0445178 -0.973006 199 195 201
1385.07 -6.84344 -1297.06 -0.00084052 -0.11826 -0.980326 201 196 203
1373.44 -4.15058 -1297.1 0.214583 -0.00329626 -0.976599 200 196 201
1377.16 -0.920867 -1297.15 0.100386 -0.0655247 -0.981373 202 198 203
1440.43 -83.0368 -1291.09 -0.239782 -0.120285 -0.952263 181 176 185
1436.99 -77.7167 -1291.08 -0.296204 -0.123211 -0.936734 182 177 186
1434.76 -74.1293 -1290.88 -0.324853 -0.121317 -0.929395 183 178 187
1440.1 -69.7204 -1292.53 -0.275922 -0.111006 -0.938816 182 177 186
1433.67 -62.9221 -1290.99 -0.308933 -0.0836332 -0.930329 187 182 191
1442.09 -66.4238 -1293.24 -0.274355 -0.101018 -0.938466 182 177 186
1366.84 -142.082 -1288.86 0.16808 0.00138763 -0.973301 198 191 198
1368.99 -140.017 -1288.41 0.186113 -0.0180705 -0.968959 198 191 198
1364.81 -137.435 -1289.45 0.202069 -0.0261818 -0.963354 199 192 199
1366.62 -137.418 -1289.08 0.187758 -0.0162564 -0.969412 199 192 199
1376.35 -140.632 -1286.52 0.212805 -0.0343874 -0.962976 197 190 198
1382.48 -138.476 -1285.01 0.212886 -0.0135374 -0.965364 198 191 199
1376.46 -137.017 -1286.7 0.220271 -0.0419561 -0.964111 197 191 199
1378.8 -136 -1286.08 0.230765 -0.0305161 -0.963255 198 191 199
1383.95 -138.125 -1284.58 0.211479 -0.00663452 -0.966969 198 192 199
1367.63 -126.64 -1289.07 0.241774 -0.0373762 -0.961534 201 194 202
1363.23 -118.167 -1290.17 0.283997 0.0431113 -0.952058 203 196 202
1371.02 -122.309 -1288.09 0.244139 0.00393908 -0.965723 201 194 201
1377.97 -126.795 -1286.31 0.242684 -0.00046189 -0.966992 199 192 200
1385.6 -125.719 -1284.13 0.234975 0.0182296 -0.969409 199 192 200
1376.03 -120.735 -1286.66 0.242249 0.0056599 -0.967877 200 193 201
1383.24 -119.816 -1284.61 0.246261 0.0119746 -0.967651 200 193 201
1381.93 -118.838 -1284.97 0.248842 0.00837482 -0.967186 200 193 201
1365.6 -115.739 -1289.38 0.273935 0.0317196 -0.953906 202 195 202
1372.02 -111.504 -1287.54 0.240342 0.0197375 -0.963286 201 194 201
1366.8 -104.456 -1288.98 0.271026 -0.0331966 -0.948771 203 196 202
1372.24 -109.137 -1287.53 0.232544 0.00692487 -0.964975 201 194 201
1379.65 -110.572 -1285.72 0.232045 -0.0173684 -0.970141 200 193 201
1382.22 -113.608 -1284.96 0.243547 -0.0211155 -0.967691 200 193 201
1379.29 -103.388 -1286.14 0.208218 -0.0424982 -0.976562 201 194 201
1386.07 -104.59 -1284.74 0.20633 -0.0803494 -0.975405 200 193 199
1367.33 -99.3843 -1288.88 0.262545 -0.0416656 -0.954209 204 197 203
1372.47 -104.355 -1287.59 0.21841 -0.0251404 -0.96844 202 195 201
1369.28 -94.1406 -1288.19 0.243767 0.0025579 -0.96277 205 198 204
1372.99 -92.0958 -1287.3 0.193356 0.0111759 -0.977653 205 199 205
1376.61 -99.1181 -1286.74 0.20155 -0.0331265 -0.977606 203 196 203
1382.26 -96.8512 -1285.88 0.176918 -0.0342516 -0.983497 203 196 202
1378.16 -93.5 -1286.43 0.176375 -0.00417898 -0.98403 205 198 204
1386.1 -90.6851 -1285.48 0.15209 -0.0155808 -0.987666 204 197 203
1394.39 -195.613 -1286.87 0.296576 -0.0549612 -0.942072 195 188 196
1398.05 -199.718 -1285.99 0.248432 -0.0621121 -0.948491 195 188 196
1388.13 -193.394 -1288.82 0.163287 -0.0323822 -0.958014 196 189 197
1395.6 -187.615 -1286.78 0.256726 -0.00951404 -0.949111 197 190 198
1402.79 -195.507 -1285.56 0.163993 -0.105177 -0.960339 194 187 195
1410.92 -199.342 -1285.46 -0.0627962 -0.119951 -0.976872 190 183 192
1406.34 -193.406 -1285.58 0.0590341 -0.125231 -0.972673 192 185 193
1408.51 -187.014 -1286.28 0.00915716 -0.109592 -0.983487 192 185 194
1413.16 -189.469 -1286.41 -0.0664225 -0.106169 -0.984883 189 182 191
1392.27 -182.907 -1287.33 0.190844 0.0440785 -0.954744 198 191 199
1396.6 -185.662 -1286.75 0.222689 -0.00126468 -0.95455 197 190 198
1392.25 -176.704 -1287.06 0.154895 0.0594406 -0.965965 199 192 200
1399.76 -178.825 -1286.72 0.101981 -0.0155117 -0.975567 197 190 198
1406.96 -186.22 -1286.31 0.0370847 -0.0988943 -0.980968 193 186 195
1413.72 -186.393 -1286.82 -0.0579757 -0.114256 -0.985113 190 183 192
1403.33 -174.722 -1287.06 0.0160222 -0.0705451 -0.985177 194 187 196
1413 -179.614 -1287.52 -0.0712396 -0.106225 -0.986527 192 185 194
1418.56 -197.2 -1286.55 -0.159696 -0.0779087 -0.979432 187 180 188
1425.18 -199.151 -1287.77 -0.187285 -0.0630417 -0.97439 186 179 188
1420.48 -191.927 -1287.11 -0.132997 -0.0641468 -0.980594 186 179 188
1425.51 -191.548 -1288.07 -0.161741 -0.046871 -0.971492 185 178 187
1429.66 -198.05 -1288.84 -0.208723 -0.0375506 -0.96694 185 178 187
1430.36 -187.082 -1289.4 -0.159202 -0.104381 -0.962833 184 177 186
1415.9 -183.244 -1287.47 -0.0897167 -0.116588 -0.984399 191 184 193
1421.12 -184.081 -1288.3 -0.125985 -0.134939 -0.973705 189 182 191
1427.99 -183.967 -1289.74 -0.14264 -0.1926 -0.957567 187 180 189
1420.14 -176.364 -1289.09 -0.154244 -0.122608 -0.974575 190 183 193
1425.97 -173.612 -1290.36 -0.174881 -0.0632612 -0.97417 188 181 190
1390.52 -165.577 -1286.96 0.0579474 0.0409085 -0.97989 195 187 195
1397.32 -168.596 -1287.1 0.0338659 -0.0155876 -0.978612 194 187 195
1391.53 -164.002 -1286.74 0.0474374 0.0495241 -0.97969 194 187 195
1395.3 -159.936 -1286.28 -0.00806661 0.0881365 -0.976712 192 184 192
1404.71 -169.245 -1287.44 -0.0303341 -0.0759965 -0.982257 192 185 194
1410.52 -170.272 -1287.93 -0.0867926 -0.0923131 -0.98246 191 184 193
1402.1 -161.355 -1286.85 -0.0469051 0.0281925 -0.972281 190 183 191
1408.71 -165.37 -1287.72 -0.0838695 -0.0549688 -0.97594 189 182 192
1415.34 -161.893 -1288.24 -0.160034 0.0382184 -0.966088 189 182 191
1394.55 -156.315 -1285.64 0.00647522 0.115232 -0.977855 192 185 193
1400.82 -153.898 -1285.29 -0.0179531 0.128321 -0.971571 190 183 191
1389.45 -146.065 -1284.35 0.0952239 0.0952256 -0.979611 196 189 196
1396.22 -150.423 -1284.58 0.025532 0.129995 -0.981774 193 186 194
1404.7 -155.061 -1285.76 -0.0493185 0.116161 -0.967342 189 182 191
1410.13 -154.008 -1286.03 -0.103233 0.139613 -0.961376 187 181 190
1401.88 -146.759 -1283.85 0.017489 0.122924 -0.98607 191 185 194
1408.67 -150.791 -1284.97 -0.070683 0.160043 -0.964507 187 180 189
1416.12 -165.984 -1288.69 -0.158182 -0.0274071 -0.972077 189 182 192
1418.62 -166.504 -1289.05 -0.162389 -0.0203071 -0.973415 189 182 192
1418.13 -161.17 -1288.44 -0.160268 0.0618782 -0.967446 189 182 191
1426.75 -160.212 -1288.58 -0.0649708 0.103289 -0.980452 187 180 189
1431.38 -166.189 -1289.61 -0.0693683 0.0683617 -0.985419 184 177 187
1438.64 -172.201 -1290.26 -0.0759723 0.052097 -0.984191 181 174 185
1434.01 -165.867 -1289.45 -0.0587985 0.0698854 -0.983529 182 175 185
1435.82 -160.762 -1288.72 -0.0452356 0.0578328 -0.976917 181 174 183
1440.33 -161.452 -1289.44 -0.172312 -0.0010211 -0.95814 177 170 180
1255 -1175.69 -1272.8 -0.0844463 -1.0008 0.0872374 0 0 0
1257.35 -1174.36 -1276.33 -0.0834567 -0.995584 0.0870539 0 0 0
1267.56 -1173.71 -1274.28 -0.0533098 -0.989082 0.101665 5 5 5
1274.49 -1174.18 -1276.16 -0.0737304 -0.990662 0.094428 33 33 31
1284.85 -1174.77 -1273.55 -0.0663909 -0.991209 0.0962071 128 121 111
1282.31 -1174.29 -1272.95 -0.0602358 -0.988483 0.11017 114 109 100
1291.74 -1175.02 -1270.88 -0.0545243 -0.993412 0.0974354 74 66 58
1297.02 -1174.91 -1275.59 0.0530414 -0.99468 -0.00831578 136 125 115
1303.28 -1174.95 -1272.71 0.116237 -0.96847 -0.167497 147 139 130
1306.85 -1174.68 -1272.29 0.121461 -0.955939 -0.201799 141 131 121
1314.77 -1173.16 -1275.53 0.0907415 -0.905663 -0.200583 128 111 97
1318.1 -1172.56 -1276.38 0.0908866 -0.877721 -0.196695 128 110 95
1329.23 -1168.54 -1269.96 0.382821 -0.761975 -0.160221 127 108 94
1330.29 -1167.6 -1271.96 0.363823 -0.769159 -0.132316 125 106 91
1348.44 -1175.28 -1275.77 -0.0624872 -0.985238 -0.206912 153 151 145
1359.83 -1181.41 -1271.16 -0.252294 -0.93267 -0.202025 149 147 142
1348.85 -1171.51 -1276.2 -0.0864103 -0.858752 -0.307353 152 148 142
1365.66 -1182.19 -1272.51 -0.023446 -0.907235 -0.227917 138 136 132
1360.38 -1181.1 -1273.12 -0.217104 -0.918351 -0.251159 147 145 139
1371.26 -1180.54 -1270.72 0.138706 -0.880612 -0.196804 118 117 114
1374.21 -1178.64 -1273.44 0.167422 -0.867652 -0.242306 126 126 122
1382.15 -1176 -1273.03 0.398101 -0.846723 -0.117715 150 151 145
1333.68 -1165.61 -1270.77 0.40324 -0.785642 -0.114417 124 103 89
1340.78 -1162.5 -1270.68 0.377244 -0.880583 -0.0694276 124 101 86
1344.92 -1160.86 -1271.97 0.331346 -0.94795 -0.00246169 128 103 89
1357.21 -1165.47 -1272.13 -0.0607484 -0.879419 -0.22834 134 121 113
1351.68 -1160.66 -1271.08 0.142804 -0.95116 -0.170116 133 108 95
1346.41 -1160.53 -1275.12 0.267111 -0.972299 0.00366916 129 105 92
1360.21 -1163.52 -1269.73 0.0209781 -0.950492 -0.18292 126 109 99
1419.91 -1170.37 -1234.43 0.0520297 -0.956698 0.216453 136 134 134
1428.41 -1171.74 -1231.15 -0.0797134 -0.99076 0.0379262 125 124 123
1440.78 -1174.89 -1229.94 -0.157333 -0.98858 -0.0644652 136 137 138
1435.82 -1172.91 -1234.3 -0.132839 -0.98962 -0.0226052 141 141 140
1447.94 -1176.67 -1233.87 -0.127314 -0.986535 -0.0791627 110 111 110
1443.92 -1175.71 -1230.6 -0.161444 -0.987642 -0.0701048 129 130 130
1455.2 -1179.89 -1235.22 -0.0735362 -0.986059 -0.0868024 89 89 88
1258.48 -1183.89 -1227.89 0.0172816 -0.82046 0.00643471 10 10 11
1260.51 -1183.47 -1224.75 -0.0428348 -0.877777 0.0426571 6 6 7
1252.12 -1193.55 -1226.9 0.43368 -0.241753 -0.286832 31 31 35
1256.9 -1192.07 -1222.32 0.304206 -0.419997 -0.194227 23 23 27
1257.71 -1189.54 -1223.78 0.211542 -0.552593 -0.128374 19 19 22
1265.89 -1183.38 -1218 -0.0904601 -0.932138 0.0748249 2 2 3
1265.32 -1185.55 -1216.95 -0.0171623 -0.833354 0.0236532 6 6 7
1262.85 -1180.48 -1224.52 -0.14002 -0.984922 0.105474 0 0 0
2062.06 242.909 -1595.41 -0.2547 0.303479 -0.827452 108 90 74
2060.82 245.883 -1598.05 -0.255774 0.274292 -0.837859 109 91 75
2060.64 251.83 -1601.02 -0.271873 0.185986 -0.856583 110 92 77
2065.58 250.025 -1593.84 -0.3032 0.170568 -0.845316 110 92 76
2065.67 252.439 -1594.65 -0.31203 0.134905 -0.853052 110 93 76
2070.34 254.45 -1586.87 -0.342391 0.0748063 -0.859964 111 93 77
2059.42 265.703 -1600.18 -0.284771 0.0874835 -0.874335 113 94 78
2059.6 258.803 -1602.32 -0.27675 0.122834 -0.870067 112 93 78
2061.7 256.992 -1600.34 -0.291227 0.121627 -0.865387 112 93 78
2067.79 257.825 -1590.81 -0.332033 0.0892425 -0.859911 111 93 77
2064.98 259.15 -1595.22 -0.319737 0.106493 -0.859234 111 93 77
2064.96 270.663 -1589.27 -0.337972 0.0961919 -0.856514 111 93 77
2061.48 274.114 -1589.38 -0.335726 0.0954431 -0.857492 111 93 77
2059.25 275.29 -1590.66 -0.325207 0.09448 -0.861051 111 93 77
2057.5 269.276 -1600.44 -0.277599 0.0814249 -0.878052 113 94 78
2054.06 280.604 -1590.58 -0.301443 0.092138 -0.869187 112 94 77
2053.3 279.044 -1594.97 -0.276833 0.0825557 -0.87808 113 94 78
1506.55 -530.816 -1574.25 -0.775879 -0.172895 0.573625 16 17 24
1499.34 -517.72 -1574.6 -0.650344 -0.15116 0.58486 15 17 23
1497.77 -505.617 -1575.05 -0.565545 -0.101556 0.786293 14 16 22
1499.2 -488.851 -1574.69 -0.626142 -0.0094706 0.785288 15 17 23
1500.16 -475.376 -1575.36 -0.647728 0.192964 0.72647 15 17 24
1501.45 -463.04 -1575.33 -0.692156 0.0255076 0.680321 15 17 24
1503.76 -469.659 -1575.17 -0.73223 0.176577 0.641023 14 16 23
1500.3 -453.577 -1575.09 -0.735434 -0.0945746 0.654943 14 16 23
1501.26 -443.398 -1574.51 -0.802859 0.0258805 0.585345 13 15 22
1498.12 -431.445 -1575.6 -0.750714 0.0001503 0.618581 15 17 24
1500.55 -414.845 -1574.81 -0.785842 0.0945774 0.611613 15 17 22
1457.76 -876.643 -1575.13 -0.779872 0.22293 0.520701 115 100 88
1458.67 -871.555 -1575.9 -0.791612 0.214252 0.501974 115 99 88
1461.99 -859.227 -1576.52 -0.828612 0.18651 0.447606 114 98 88
1465.45 -853.24 -1575.99 -0.863176 0.167404 0.401475 113 98 88
1469.98 -845.019 -1575.25 -0.895683 0.144958 0.355804 111 97 88
1464.77 -847.989 -1577.41 -0.872647 0.151374 0.377749 112 98 88
1460.74 -836.422 -1580.68 -0.889327 0.119521 0.333175 112 97 88
1464.71 -838.227 -1578.76 -0.890986 0.126051 0.340093 112 97 88
1405.04 -321.947 -1569.68 -0.0227234 0.253459 0.953127 184 179 192
1412.72 -323.134 -1569.21 0.0183892 0.197442 0.966921 183 178 191
1408.09 -311.005 -1570.28 -0.0967516 -0.0299991 0.985947 175 169 182
1414.49 -315.284 -1570.15 -0.0324543 0.0717784 0.982003 179 173 186
1420.05 -335.109 -1567.03 0.172259 0.177871 0.97082 178 174 184
1424.29 -338.182 -1567.15 0.129422 0.185671 0.972595 141 138 148
1418.2 -329.165 -1567.85 0.158857 0.166828 0.973657 180 175 187
1423.75 -326.729 -1569.39 0.128126 0.170307 0.974915 183 178 190
1434.08 -335.929 -1568.75 0.0839388 0.258175 0.958205 92 89 98
1439.87 -334.257 -1569.41 0.0427673 0.272455 0.954444 103 100 109
1430.55 -328.553 -1570.06 0.124534 0.198887 0.969382 164 160 171
1441.83 -330.649 -1570.23 0.0339421 0.250895 0.958254 137 134 143
1419.5 -319.602 -1569.88 0.0452507 0.11857 0.981735 182 176 189
1422.71 -322.742 -1569.84 0.100528 0.141646 0.979677 185 180 192
1416.65 -312.201 -1570.4 -0.00703129 0.0280376 0.983918 175 169 183
1428.19 -311.986 -1571.61 0.089989 0.0634655 0.98748 175 170 182
1434.2 -319.165 -1571.56 0.11018 0.107796 0.984909 184 180 191
1440.09 -319.7 -1571.74 0.0587878 0.119316 0.981655 184 180 189
1437.5 -319.622 -1571.75 0.0947237 0.11693 0.983213 184 180 190
1432.11 -315.829 -1571.66 0.105794 0.0808143 0.988261 181 177 188
1438.88 -311.911 -1572.42 0.0415618 0.0632672 0.984531 175 171 180
1448.21 -335.486 -1568.55 -0.0700354 0.296403 0.944644 79 76 83
1451.59 -335.015 -1568.1 -0.125216 0.263251 0.948711 91 88 95
1450.92 -330.569 -1569.27 -0.112934 0.230835 0.956268 142 138 147
1446.94 -331.374 -1569.59 -0.0475943 0.249501 0.955354 135 131 140
1451.09 -326.46 -1570.05 -0.106406 0.189305 0.964777 166 162 171
1457.35 -327.418 -1569.12 -0.13287 0.20823 0.959527 175 170 180
1466.89 -326.41 -1568.56 -0.110476 0.26935 0.94537 181 177 185
1445.01 -320.248 -1571.53 -0.0153879 0.125693 0.978015 185 181 190
1453.99 -319.396 -1570.59 -0.116175 0.0971867 0.974864 182 177 186
1443.26 -313.448 -1572 -0.0174217 0.0681392 0.979542 176 172 180
1452.76 -314.577 -1570.75 -0.121268 0.047745 0.973798 177 173 181
1462.14 -323.489 -1569.62 -0.0930042 0.193031 0.962166 183 179 188
1467.78 -319.625 -1569.96 -0.100003 0.151999 0.964504 184 180 188
1460 -312.009 -1570.52 -0.0508156 -0.00401334 0.982711 178 173 181
1468.4 -317.439 -1570.29 -0.0972453 0.108714 0.971899 185 180 189
1471.22 -329.08 -1567.36 -0.134614 0.341798 0.927989 178 174 182
1477.29 -323.423 -1567.78 -0.231785 0.290448 0.92312 185 180 189
1482.72 -317.595 -1567.06 -0.222656 0.0921555 0.966924 191 186 196
1473.68 -314.505 -1569.5 -0.151673 0.065258 0.970802 184 180 188
1478.65 -313.273 -1568.19 -0.23257 0.0417277 0.96566 184 179 188
1502.86 -529.789 -1573.23 -0.785306 -0.200227 0.539072 15 17 23
1511.09 -525.33 -1569.32 -0.681516 -0.280935 0.663648 14 16 23
1500.55 -523.041 -1570.83 -0.6099 -0.173311 0.62885 15 17 24
1510.07 -524.238 -1569.69 -0.696633 -0.287309 0.637451 14 16 23
1512.86 -525.95 -1567.83 -0.641308 -0.273295 0.712061 14 16 23
1503.62 -511.719 -1572.86 -0.808692 -0.106075 0.568117 14 16 22
1505.34 -513.511 -1571.42 -0.823276 -0.123945 0.546259 14 16 23
1506.89 -510.339 -1569.4 -0.783662 -0.0870718 0.611185 14 16 22
1502.55 -499.294 -1572.52 -0.642649 -0.103291 0.769061 14 16 22
1507.82 -501.747 -1567.54 -0.703402 -0.0729489 0.710324 14 16 23
1502.14 -497.341 -1572.66 -0.630724 -0.102446 0.781295 14 16 22
1505.89 -490.866 -1568.03 -0.669164 -0.0771539 0.743007 14 16 23
1502.26 -486.718 -1571.92 -0.666577 -0.0123174 0.74758 14 16 23
1503.17 -482.362 -1571.64 -0.700983 0.0509384 0.706051 14 16 23
1508.08 -479.91 -1566.93 -0.710228 0.0180386 0.686889 13 15 22
1503.62 140.874 -1567.56 0.0843421 0.234886 0.955051 184 179 187
1509.69 142.63 -1568.2 0.0490146 0.189726 0.978644 188 183 191
1514.47 139.431 -1567.71 0.0602342 0.160937 0.986752 195 190 198
1522.14 138.878 -1567.02 -0.0707179 0.196156 0.955832 200 195 203
1504.3 150.068 -1569.67 0.0382441 0.211616 0.964096 186 181 189
1501.24 148.043 -1569.22 0.0744448 0.25148 0.9467 185 180 188
1504.06 154.682 -1570.24 0.0493834 0.125626 0.975109 191 185 193
1498.73 155.238 -1570.02 0.130563 0.0911915 0.955606 190 185 193
1509.32 158.085 -1570.15 -0.0259921 0.0889875 0.991019 198 193 201
1513.35 149.487 -1569.16 -0.0222411 0.149447 0.98576 189 184 192
1525.04 146.742 -1567.57 -0.157962 0.0742262 0.955311 200 195 203
1518.52 154.429 -1568.65 -0.0827759 0.0740602 0.987301 195 190 199
1524.89 157.197 -1566.91 -0.155656 0.0187082 0.972533 202 197 205
1504.32 163.785 -1570.33 0.0755277 0.00757556 0.976369 203 198 206
1508.69 165.306 -1570.17 -0.0159106 0.00758196 0.990491 210 205 213
1504.63 167.084 -1570.09 0.0824201 -0.0226084 0.971314 206 201 209
1508.98 171.903 -1569.51 0.0227247 -0.0568713 0.976425 214 209 217
1516.74 163.888 -1569.23 -0.0889535 0.0493368 0.985232 209 204 212
1513.01 160.836 -1569.82 -0.0665872 0.066316 0.993059 204 198 207
1523.9 162.722 -1567.3 -0.196246 0.0882296 0.957708 209 204 212
1513.35 172.345 -1569.16 -0.0346297 -0.0575417 0.987463 218 213 222
1522.38 169.919 -1568.41 -0.107745 0.0278016 0.967853 215 210 218
1502.27 174.304 -1569.13 0.196893 -0.0921495 0.938352 203 198 206
1510.02 173.981 -1569.21 0.0100489 -0.078174 0.97474 215 210 218
1504.76 182.816 -1568.33 0.126089 -0.15324 0.949085 207 202 209
1511.65 183.518 -1567.94 -0.0758194 -0.211257 0.957078 217 212 219
1516.02 173.332 -1568.85 -0.0257012 -0.0626983 0.985895 219 214 222
1523.96 179.602 -1567.54 -0.03084 -0.184956 0.979694 218 213 221
1516.23 185.351 -1566.73 -0.137073 -0.265521 0.947974 220 215 222
1530.41 170.524 -1567.25 -0.320131 0.196759 0.905908 215 211 217
1526.42 178.847 -1567.41 -0.0613174 -0.151124 0.971008 217 212 220
1526.83 180.745 -1567.24 -0.034279 -0.210587 0.978063 217 212 220
1516.15 -584.218 -1562.04 -0.324566 -0.13489 0.879295 15 16 24
1520.03 -580.503 -1562.67 -0.445729 -0.179207 0.85147 14 15 23
1521.73 -585.914 -1563.93 -0.515544 -0.0797942 0.832676 14 15 23
1521.76 -579.519 -1561.3 -0.405026 -0.157098 0.861645 14 15 24
1512.23 -547.308 -1566.67 -0.632624 0.223248 0.748252 13 14 24
1507.13 -539.483 -1562.53 -0.51672 -0.0443755 0.801968 14 16 24
1509.5 -544.709 -1562.42 -0.534046 0.0909401 0.794214 14 15 24
1506.55 -535.152 -1562.42 -0.564106 -0.103541 0.767145 14 16 24
1513.47 -545.853 -1561.22 -0.532594 0.10364 0.799939 13 15 24
1515.41 -542.553 -1565.69 -0.650625 0.114834 0.738802 13 14 24
1516.32 -532.878 -1566.32 -0.651521 -0.0874594 0.730896 14 15 24
1339.19 -252.135 -1564.97 0.33675 0.0748589 0.909478 180 177 188
1345.93 -249.663 -1566.76 0.20338 -0.0865444 0.952142 199 195 207
1338.96 -246.526 -1564.4 0.298524 -0.00676315 0.897225 190 187 198
1341.06 -243.553 -1564.08 0.205185 -0.134287 0.896339 199 195 206
1350.67 -249.141 -1566.9 0.114705 -0.230867 0.951307 205 201 214
1350.14 -242.423 -1563.21 -0.0162043 -0.415769 0.875615 211 207 219
1359.14 -244.618 -1564.48 0.0448649 -0.468675 0.87161 212 208 220
1338.94 -242.546 -1563.63 0.247245 -0.12004 0.88706 197 194 204
1334.01 -239.692 -1561.52 0.337124 -0.173342 0.845334 193 190 200
1339.52 -242.118 -1563.47 0.221208 -0.157647 0.885462 199 196 206
1358.55 -241.647 -1562.54 0.00808891 -0.517238 0.842903 214 210 223
1364.55 -244.735 -1564.55 -6.50174e-05 -0.48507 0.861243 212 209 220
1364.73 -248.435 -1566.9 0.0184387 -0.443408 0.886123 209 206 217
1371.15 -245.797 -1564.55 -0.0732352 -0.488296 0.855391 215 212 222
1375.72 -250.725 -1566.88 -0.101129 -0.497329 0.846178 214 212 221
1378.81 -243.627 -1563.24 -0.0531479 -0.429107 0.886339 216 213 223
1382.49 -246.657 -1564.95 0.017753 -0.459971 0.868011 216 213 222
1362.26 -242.613 -1563.25 0.0180175 -0.502648 0.851486 214 210 222
1372.16 -237.555 -1560.24 -0.0118066 -0.52738 0.829259 217 214 224
1386.73 -238.578 -1561.53 0.137538 -0.450076 0.871243 213 210 220
1490.04 120.2 -1563.49 0.171056 0.124713 0.97615 190 185 193
1496.7 118.883 -1564.22 0.161788 0.103257 0.972817 197 192 200
1490.15 126.142 -1563.97 0.133027 0.102893 0.985663 184 179 188
1494.29 126.986 -1564.43 0.142395 0.0707335 0.987203 186 181 189
1494.18 127.819 -1564.47 0.135131 0.0735063 0.986622 185 180 189
1503.12 112.162 -1562.23 -0.154307 0.387321 0.844969 204 199 207
1507.15 115.629 -1562.24 -0.167049 0.333061 0.86296 204 199 206
1504.66 118.66 -1563.82 -0.00466705 0.181282 0.935728 203 198 206
1511.98 121.733 -1563.39 -0.11211 0.225819 0.914385 205 200 208
1502.08 128.254 -1565.39 0.150355 0.033807 0.994108 193 188 196
1500.39 131.622 -1565.46 0.126879 0.049718 0.990518 188 183 191
1506.04 127.54 -1565.51 0.124121 0.024215 0.998448 199 194 201
1518.73 122.98 -1559.77 -0.345632 0.433191 0.767033 190 185 195
1514.69 125.765 -1564.08 -0.079903 0.176557 0.935196 205 199 207
1522.22 131.139 -1563.65 -0.156854 0.218998 0.914614 203 198 206
1859.09 214.019 -1567.33 -0.13744 0.949192 -0.26241 108 85 79
1866.97 216.098 -1561.44 -0.134939 0.958605 -0.245949 106 83 78
1871.03 215.902 -1564.39 -0.135802 0.957007 -0.249963 106 83 78
1875.64 215.532 -1567.28 -0.134941 0.954761 -0.25489 106 84 78
1879.33 217.056 -1562.41 -0.129217 0.957223 -0.254173 106 84 78
1946.72 215.391 -1565.1 -0.211303 0.488173 -0.817621 106 91 82
1952.72 219.502 -1561.32 -0.248351 0.465156 -0.827205 105 91 82
1957.42 220.914 -1561.37 -0.238492 0.461557 -0.833042 105 91 82
1963.66 220.44 -1564.14 -0.199584 0.481552 -0.831865 106 91 82
1963.06 223.709 -1560.82 -0.208024 0.475173 -0.83507 104 90 80
1974.45 220.069 -1566.49 -0.156233 0.606262 -0.762267 104 89 78
1974.23 225.535 -1560.85 -0.127124 0.625872 -0.751216 102 87 76
1976.78 226.69 -1560.22 -0.120892 0.609865 -0.755109 102 86 76
1982.95 224 -1563.96 -0.146571 0.509245 -0.800501 103 86 75
1988.64 224.092 -1565.94 -0.195052 0.241975 -0.927515 104 84 73
1991.04 223.867 -1566.43 -0.17002 0.201752 -0.951423 104 83 73
1990.6 233.883 -1561.59 -0.279636 0.336427 -0.88323 105 86 75
1994.61 228.207 -1564.61 -0.14636 0.2173 -0.953106 103 83 73
2001.05 226.426 -1566.1 -0.0764329 0.209045 -0.970118 100 82 72
2000.37 231.93 -1563.87 -0.113747 0.238433 -0.957948 103 85 74
2006.72 227.86 -1566.17 -0.0846522 0.251548 -0.956034 98 82 71
1997.28 237.484 -1561.17 -0.203338 0.324348 -0.910166 108 89 77
2005.68 237.611 -1562.62 -0.150776 0.287789 -0.939883 106 88 76
2008.04 236.531 -1563.43 -0.16268 0.297919 -0.932581 104 87 76
2010.23 240.903 -1562.08 -0.153734 0.312952 -0.931586 108 90 78
2017.04 238.527 -1564.68 -0.26534 0.376912 -0.879317 104 87 76
2019.24 242.031 -1563.7 -0.204293 0.376441 -0.893157 107 90 77
1505.31 -1167.44 -1553.5 -0.662783 -0.742553 -0.0601353 90 75 71
1505.47 -1167.18 -1555.46 -0.678394 -0.73182 -0.0836347 90 74 70
1446.15 -945.175 -1558.55 -0.0947687 0.0753811 0.152585 134 111 96
1452.74 -945.564 -1553.97 -0.117432 0.0977623 0.123667 134 111 95
1456.55 -934.18 -1556.03 -0.0553012 0.0737919 0.122532 135 112 96
1458.39 -934.239 -1553.51 -0.0719334 0.0760151 0.131531 134 111 96
1460.56 -929.809 -1552.93 -0.0501848 0.070176 0.118465 135 112 96
1460.11 -919.634 -1558.62 -0.216374 0.130067 0.220839 130 109 94
1462.1 -919.688 -1555.97 -0.137064 0.102573 0.171854 132 110 95
1463.89 -915.416 -1554.91 -0.363358 0.18301 0.312045 125 106 92
1465.17 -908.721 -1555.07 -0.656248 0.289638 0.49568 116 100 88
1466.42 -902.706 -1555.67 -0.768467 0.330373 0.566096 113 98 87
1470.01 -895.206 -1555.17 -0.764044 0.316989 0.55571 113 98 87
1472.24 -892.2 -1554.22 -0.762951 0.306692 0.547186 114 98 87
1474.63 -886.136 -1554.54 -0.76217 0.318828 0.541955 114 99 87
1472.93 -880.258 -1559.41 -0.78688 0.260099 0.535158 114 99 88
1476.59 -876.033 -1555.25 -0.788966 0.274108 0.535925 114 99 88
1476.88 -869.028 -1558.56 -0.814713 0.208695 0.529516 115 99 88
1477.56 -869.168 -1557.2 -0.819358 0.208153 0.521937 115 99 88
1479.9 -863.534 -1556.74 -0.833955 0.225761 0.484104 114 99 88
1484.28 -855.366 -1553.48 -0.903195 0.274786 0.336292 111 97 87
1484.68 -851.016 -1554.88 -0.896475 0.227997 0.374431 111 97 87
1485.58 -848.382 -1554.26 -0.892377 0.211926 0.392527 111 97 87
1487.44 -837.127 -1555.87 -0.884936 0.188183 0.411003 111 97 88
1488.53 -834.547 -1555.47 -0.888984 0.180837 0.389714 111 97 88
1488.9 -828.605 -1559.88 -0.919213 0.0979378 0.268555 110 96 88
1491.95 -824.024 -1558.72 -0.941813 0.0226583 0.181187 110 96 88
1491.14 -257.594 -1559.64 -0.276568 -0.0220178 0.946641 203 198 206
1496.1 -263.007 -1559.37 -0.209026 -0.144109 0.953178 208 203 211
1391.08 -231.285 -1558.11 0.230079 -0.472762 0.840884 210 207 217
1391.63 -220.929 -1553.59 0.367321 -0.284624 0.88391 203 199 210
1387.53 -224.736 -1553.37 0.32212 -0.36003 0.856938 206 203 213
1399.85 -221.715 -1556.52 0.25709 -0.354883 0.887912 204 200 211
1399.94 -219.307 -1555.79 0.243637 -0.337325 0.898651 203 200 211
1402.5 -226.119 -1559.15 0.211409 -0.368448 0.896296 206 202 213
1410.46 -224.268 -1559.44 0.118 -0.293515 0.940221 205 202 212
1404.34 -215.655 -1554.65 0.140036 -0.403168 0.893945 205 202 213
1412.06 -214.759 -1555.21 0.1052 -0.412063 0.893347 208 205 216
1405.85 -212.59 -1553.43 0.0911431 -0.420836 0.895017 207 204 215
1416.29 -223.964 -1559.91 0.0710484 -0.247639 0.960152 207 204 214
1418.85 -220.6 -1558.99 0.0658275 -0.256712 0.954764 208 205 215
1424.14 -219.206 -1559.22 0.0899895 -0.217892 0.959664 210 207 217
1429.65 -216.389 -1558.31 0.0949715 -0.25893 0.940623 213 210 220
1436.64 -217.298 -1558.8 0.0566444 -0.275197 0.944229 213 210 220
1417.85 -208.781 -1553.49 0.187233 -0.446853 0.862683 214 211 221
1427.85 -215.012 -1557.67 0.117012 -0.284193 0.926538 213 210 220
1429.6 -207.505 -1553.31 -0.00314346 -0.547564 0.827301 213 210 220
1442.21 -207.799 -1555.4 0.0995674 -0.384819 0.898361 211 208 218
1440.32 -213.011 -1557.45 0.102981 -0.364901 0.901177 211 208 218
1409.8 173.82 -1555.8 -0.654225 0.438187 0.627859 186 181 189
1411.78 178.553 -1557.09 -0.516958 0.338763 0.708762 190 185 193
1442.4 164.913 -1553.66 0.416406 0.0502451 0.893265 184 179 188
1420.04 185.109 -1553.74 -0.496279 0.441677 0.702426 195 191 198
1460.53 135.649 -1552.67 0.359387 -0.378789 0.833461 196 191 201
1468.88 138.305 -1559.43 0.563983 -0.157531 0.797434 190 185 196
1469.04 142.984 -1557.39 0.535374 -0.214786 0.795212 190 185 196
1465.99 144.578 -1554.68 0.452514 -0.173162 0.810476 192 187 197
1456.39 151.027 -1554.57 0.173252 0.352438 0.902529 189 184 193
1448.03 154.842 -1554.24 0.309299 0.27967 0.883089 185 180 190
1452.95 155.081 -1555.33 0.223198 0.326709 0.897619 187 181 191
1463.45 146.16 -1553.31 0.352886 -0.0659929 0.84081 192 187 197
1465.43 149.062 -1555.06 0.345198 -0.0022212 0.856203 191 186 196
1461.76 152.246 -1555.51 0.198835 0.233439 0.900685 190 184 194
1465.92 154.598 -1556.7 0.233666 0.148747 0.908527 189 184 194
1473.91 149.404 -1559.87 0.508332 -0.107709 0.842917 187 182 192
1471.64 154.266 -1558.51 0.407255 -0.00725061 0.873336 187 182 193
1447.95 164.083 -1555.41 0.316422 0.062895 0.911148 184 179 188
1453.91 158.935 -1556.27 0.202828 0.236546 0.916273 186 181 190
1447.91 169.986 -1555.04 0.293532 -0.0343049 0.929144 183 178 188
1454.47 169.752 -1556.49 0.170102 -0.0401081 0.961872 184 179 188
1461.26 163.74 -1557.59 0.115275 0.0898436 0.965722 186 181 190
1467.43 165.518 -1558.92 0.159382 0.0934575 0.972482 187 182 191
1459.5 171.62 -1557.38 0.158375 -0.054474 0.9735 184 179 188
1469.93 168.881 -1559.45 0.149878 0.0682031 0.982112 187 183 192
1448.99 174.7 -1554.59 0.225025 -0.0892977 0.952697 183 178 188
1452.03 176.963 -1554.93 0.218376 -0.0714067 0.953309 183 178 188
1449.05 181.87 -1553.19 0.228906 -0.00599957 0.947888 183 178 188
1454.41 184.815 -1555.8 0.283478 0.113341 0.934868 183 178 187
1462.49 174.683 -1557.96 0.180668 -0.0283511 0.971515 184 180 188
1467.25 173.22 -1558.86 0.16238 0.00925566 0.977727 186 181 190
1456.39 181.259 -1556.21 0.243476 0.0162316 0.949143 183 179 187
1468.62 183.125 -1559.67 0.173385 0.0889965 0.96793 188 184 192
1475.25 172.041 -1559.68 0.129803 -0.0360174 0.98353 189 184 195
1472.74 177.188 -1559.56 0.137999 0.0207131 0.978445 188 184 193
1472.65 180.967 -1559.81 0.148241 0.0884664 0.972725 189 184 194
1390.14 193.237 -1554.14 0.221182 -0.314823 0.907892 193 189 197
1399.29 189.694 -1559.47 0.38315 -0.538165 0.765521 202 196 204
1398.52 198.254 -1556.1 0.349115 -0.209734 0.866519 179 175 185
1396.1 193.504 -1556.45 0.327954 -0.403868 0.840664 194 189 198
1394.14 204.048 -1553.61 0.307142 0.0138698 0.887054 155 153 163
1396.79 204.813 -1556.15 0.50969 0.148539 0.771116 143 141 152
1393.24 211.384 -1556.15 0.573844 0.305028 0.709539 133 131 142
1396.62 209.231 -1558.61 0.613655 0.325896 0.687118 135 133 146
1419 187.114 -1556.98 -0.529303 0.418472 0.721598 193 189 197
1422.36 195.569 -1559.27 -0.576483 0.412101 0.706997 187 183 192
1429.22 200.217 -1554.94 -0.562471 0.350892 0.727756 200 195 205
1443.1 195.202 -1553.42 0.299541 0.17476 0.930065 187 180 191
1432.4 201.078 -1553.64 -0.391139 0.299521 0.792864 201 196 206
1430.69 206.381 -1557.13 -0.567215 0.313174 0.708877 203 199 209
1442.26 204.13 -1553.64 0.124926 0.0792898 0.928499 191 186 196
1430.6 210.148 -1558.51 -0.547908 0.289712 0.716817 199 194 205
1437.76 210.934 -1555.17 -0.262724 0.169152 0.835597 191 187 198
1392.32 216.457 -1558.11 0.564575 0.344108 0.709662 154 151 162
1407.87 227.139 -1559.56 -0.142166 -0.160075 0.892821 198 194 206
1432.04 -981.789 -1547.21 -0.647863 0.189157 0.493728 143 119 102
1433.84 -974.508 -1546.92 -0.162866 0.166474 0.102421 141 117 100
1507.1 -1168.97 -1551.61 -0.654344 -0.746579 -0.046808 90 75 70
1515.48 -1174.8 -1551.79 -0.522726 -0.842659 -0.00381469 87 75 72
1521.67 -1178.88 -1549.29 -0.509804 -0.843313 0.0110225 87 76 73
1532.54 -1192.08 -1547.87 -0.584116 -0.758642 -0.0226084 87 75 70
1529.8 -1188.05 -1549.55 -0.57387 -0.775461 -0.0226608 87 75 71
1529.74 -1186.6 -1547 -0.545307 -0.792211 -0.00315764 87 76 71
1563.28 -611.868 -1547.96 -0.375327 -0.191247 0.879274 16 18 24
1558.65 -605.398 -1547.37 -0.321913 -0.213284 0.917625 16 18 25
1562.48 -602.693 -1547.64 -0.378537 -0.212289 0.888818 16 18 24
1566.16 -608.722 -1547.88 -0.436051 -0.229496 0.843063 15 17 24
1555.5 -594.464 -1547.66 -0.328705 -0.0713751 0.944453 15 17 24
1563.87 -596.103 -1546.68 -0.417665 -0.133349 0.885517 16 18 24
1559.02 -592.193 -1547.33 -0.363242 -0.0846915 0.926055 16 18 24
1511.42 -585.982 -1546.45 0.0688584 0.00103449 0.989125 17 19 25
1506.57 -573.839 -1546.9 0.0867812 0.109963 0.985476 20 22 28
1518.79 -584.004 -1546.35 -0.00577652 -0.0213882 0.987522 17 19 25
1521.49 -582.944 -1546.35 -0.0398101 -0.0250158 0.974981 17 19 25
1522.78 -574.091 -1547.23 0.0643786 -0.0153879 0.985176 18 20 26
1521.13 -578.158 -1546.72 0.0251794 -0.0262376 0.980573 18 20 26
1505.19 -569.54 -1547.01 0.0767363 0.0736333 0.986671 20 22 29
1508.58 -568.623 -1546.98 0.0325697 0.0532947 0.986276 19 21 28
1511.97 -564.205 -1546.57 -0.0608334 -0.0394747 0.987508 19 21 27
1508.7 -562.074 -1546.5 -0.0350087 -0.0668538 0.989334 19 21 28
1523.52 -568.2 -1547.29 0.00385131 -0.0392919 0.983017 18 20 26
1519.85 -569.304 -1546.4 0.0137561 -0.0211867 0.986343 18 20 26
1522.43 -565.543 -1546.79 -0.0069171 -0.0466978 0.982874 18 20 26
1532.12 -582.511 -1547.33 -0.262331 -0.0192051 0.933395 16 18 24
1536.36 -575.403 -1547.03 -0.305545 0.0232341 0.923558 16 18 25
1549.18 -575.203 -1546.05 -0.335952 0.0942676 0.919113 17 18 24
1531.3 -574.256 -1548.83 -0.103876 -0.0162126 0.958948 18 20 26
1534.94 -572.87 -1547.76 -0.223245 0.0141672 0.937313 17 19 25
1532.77 -560.871 -1547.89 -0.0721786 -0.0180768 0.963321 17 19 27
1534.68 -563.548 -1547.47 -0.137359 -0.0111474 0.95202 17 19 26
1551.07 -570.781 -1546.77 -0.334062 -0.0188835 0.912149 16 18 24
1552.03 -564.212 -1546.77 -0.310892 -0.126544 0.906283 16 18 25
1506.18 -554.964 -1546.11 0.094549 -0.12209 0.989405 20 22 28
1511.52 -548.094 -1546.78 -0.0269536 -0.0238698 0.98441 19 21 27
1513.87 -548.077 -1547.18 -0.0241115 -0.0174679 0.980748 19 21 27
1520.91 -550.609 -1547.49 -0.0382187 0.0122196 0.953919 18 20 28
1504.4 -544.013 -1546.15 -0.077394 0.0207987 0.985077 18 20 27
1511.14 -542.719 -1546.53 0.000330746 -0.0713518 0.984495 19 21 27
1518.75 -541.943 -1548.34 0.0195869 -0.0372776 0.969291 19 21 28
1520.79 -544.612 -1548.87 0.00131532 -0.00123342 0.969335 19 21 28
1516.94 -538.195 -1547.28 0.0493843 -0.103327 0.970947 19 21 28
1521.98 -537.097 -1548.55 0.0156322 -0.0580038 0.954158 19 21 28
1528.41 -556.739 -1548.15 -0.00998094 -0.0173213 0.965927 18 20 27
1539.86 -552.741 -1547.44 -0.0908491 0.00581367 0.933997 17 19 27
1531.92 -549.353 -1549.22 -0.0274867 0.0201675 0.952273 19 20 28
1538.42 -548.695 -1547.76 -0.12165 0.00744487 0.916948 18 19 27
1535.64 -546.303 -1548.42 -0.0905238 0.00566811 0.927482 18 20 28
1547.88 -553.889 -1546.42 -0.195274 -0.08611 0.903248 16 17 26
1544.5 -552.148 -1546.66 -0.136862 -0.0223414 0.918632 17 18 27
1550.27 -550.018 -1546.41 -0.28617 -0.0621978 0.879637 16 17 27
1528.01 -543.21 -1549.5 -0.0102233 -0.000709167 0.961166 19 21 28
1535.62 -541.62 -1546.8 -0.121141 -0.0652824 0.938579 19 21 28
1529.51 -532.659 -1547.84 -0.157681 -0.00438713 0.859648 18 19 27
1557.23 -582.053 -1546.73 -0.429498 -0.0866561 0.887579 16 17 24
1558.99 -580.299 -1546.37 -0.482335 -0.108261 0.853059 16 18 24
1555.95 -575.543 -1546.91 -0.458214 -0.0653261 0.867871 15 17 23
1554.08 -558.942 -1546.88 -0.359367 -0.181725 0.877951 15 17 25
1329.66 61.1622 -1551.67 0.374101 0.60416 0.716379 166 163 173
1314.87 66.9879 -1547.08 0.337043 0.532714 0.746076 165 161 171
1308.1 70.9218 -1546.76 0.341052 0.41317 0.767713 166 162 172
1316.28 72.1841 -1549.17 0.273654 0.260626 0.822719 172 168 178
1318.84 65.3293 -1547.16 0.353346 0.526753 0.751285 160 156 166
1328.36 64.0841 -1552.73 0.403867 0.503684 0.749708 167 163 173
1323.2 69.944 -1551.4 0.385763 0.261693 0.817721 164 160 170
1325.48 71.7004 -1552.99 0.393892 0.137411 0.844961 166 161 172
1350.04 47.5423 -1549.01 0.402127 0.499297 0.757695 171 167 176
1356.56 41.9768 -1547.37 0.336693 0.64716 0.68574 159 154 164
1372.26 34.4649 -1547.84 0.252359 0.492917 0.778336 163 158 167
1378.04 29.9397 -1546.65 0.254821 0.542793 0.766863 158 153 161
1384.3 31.1711 -1549.49 0.296256 0.383643 0.822473 172 167 176
1362.44 39.7216 -1547.55 0.293387 0.5564 0.730234 164 159 168
1369.68 36.4964 -1548.11 0.230181 0.473078 0.781193 168 163 172
1366.8 41.1258 -1549.95 0.191968 0.450401 0.79743 178 173 182
1363.03 42.4049 -1550.26 0.250273 0.518961 0.767443 177 171 181
1367.19 42.2474 -1550.34 0.155851 0.410546 0.815879 181 176 185
1374.73 41.0521 -1550.3 0.117114 0.265773 0.871929 188 182 191
1384.51 37.9308 -1550.71 0.169369 0.137459 0.900082 196 191 199
1376.43 43.1283 -1550.38 0.0649382 0.167262 0.907493 194 189 198
1383.66 42.0323 -1550.34 0.0770601 0.0167418 0.94123 204 199 208
1337.62 52.2862 -1546.12 0.407978 0.572539 0.696387 150 146 156
1345.85 51.4289 -1549.46 0.395989 0.44717 0.795924 170 167 175
1337.99 59.0557 -1552.53 0.296684 0.560395 0.780469 163 159 170
1343.98 57.2704 -1552.22 0.298502 0.44046 0.84435 168 164 174
