ply
format ascii 1.0
comment Created by Open3D
element vertex 1338
property double x
property double y
property double z
property uchar red
property uchar green
property uchar blue
end_header
-452.273 -225.98 -1590 178 184 197
-447.708 -225.323 -1586 173 178 192
-442.883 -224.525 -1581 161 166 179
-438.641 -224.012 -1578 145 151 166
-434.139 -223.359 -1574 130 136 151
-429.111 -222.423 -1568 123 129 144
-423.841 -221.346 -1561 118 127 141
-420.221 -221.122 -1560 120 128 142
-416.342 -220.756 -1558 124 130 145
-412.21 -220.25 -1555 124 130 145
-408.621 -220.028 -1554 125 131 146
-404.779 -219.666 -1552 124 130 145
-400.69 -219.163 -1549 130 135 150
-396.361 -218.519 -1545 126 131 146
-392.561 -218.159 -1543 119 124 139
-388.521 -217.659 -1540 121 126 141
-384.997 -217.442 -1539 127 132 147
-381.233 -217.085 -1537 132 137 152
-378.219 -217.152 -1538 128 133 148
-373.985 -216.515 -1534 126 131 146
-370.012 -216.019 -1531 122 127 142
-366.775 -215.947 -1531 123 128 143
-363.778 -216.018 -1532 123 128 143
-360.779 -216.088 -1533 124 129 144
-357.314 -215.878 -1532 120 125 140
-353.393 -215.386 -1529 121 126 141
-349.488 -214.896 -1526 117 122 137
-345.599 -214.406 -1523 120 125 140
-341.5 -213.776 -1519 124 129 144
-339.203 -214.274 -1523 126 131 146
-335.789 -214.068 -1522 127 132 147
-331.946 -213.581 -1519 124 129 144
-328.983 -213.658 -1520 118 123 138
-326.233 -213.876 -1522 121 126 141
-321.992 -213.111 -1517 123 128 143
-319.456 -213.471 -1520 119 124 139
-315.87 -213.129 -1518 123 128 143
-311.471 -212.226 -1512 120 125 140
-307.303 -211.465 -1507 116 121 136
-304.168 -211.407 -1507 118 123 138
-300.836 -211.208 -1506 119 124 139
-297.905 -211.291 -1507 120 125 140
-295.561 -211.795 -1511 124 129 144
-292.815 -212.019 -1513 132 137 152
-289.297 -211.683 -1511 133 138 153
-285.79 -211.347 -1509 136 141 156
-282.294 -211.013 -1507 145 147 163
-279.364 -211.099 -1508 140 142 158
-276.066 -210.906 -1507 142 144 160
-272.774 -210.714 -1506 129 131 147
-269.489 -210.522 -1505 117 119 135
-266.388 -210.471 -1505 122 124 140
-263.288 -210.42 -1505 127 129 145
-259.5 -209.811 -1501 128 130 146
-256.755 -210.042 -1503 130 132 148
-253.835 -210.133 -1504 128 130 146
-250.913 -210.225 -1505 125 127 143
-247.66 -210.037 -1504 124 126 144
-245.063 -210.409 -1507 127 129 147
-242.135 -210.503 -1508 131 133 149
-239.68 -211.015 -1512 130 132 148
-236.899 -211.249 -1514 123 125 141
-234.111 -211.483 -1516 117 119 137
-230.859 -211.3 -1515 116 118 136
-227.915 -211.396 -1516 122 124 142
-224.671 -211.213 -1515 124 126 144
-222.019 -211.589 -1518 126 128 146
-219.211 -211.826 -1520 131 133 151
-216.54 -212.203 -1523 130 132 150
-213.578 -212.301 -1524 129 131 149
-211.028 -212.818 -1528 120 124 141
-207.784 -212.64 -1527 96 101 118
-205.081 -213.018 -1530 90 95 108
-202.367 -213.397 -1533 95 99 112
-199.513 -213.638 -1535 111 114 128
-196.141 -213.322 -1533 139 144 157
-193.408 -213.703 -1536 158 163 176
-190.789 -214.223 -1540 141 144 155
-187.789 -214.326 -1541 122 125 135
-184.667 -214.291 -1541 116 119 128
-181.9 -214.674 -1544 111 114 125
-178.428 -214.223 -1541 107 110 122
-175.31 -214.189 -1541 108 111 124
-172.753 -214.851 -1546 118 119 134
-170.396 -215.792 -1553 126 127 143
-167.689 -216.316 -1557 144 147 161
-165.602 -217.674 -1567 117 120 134
-163.372 -218.893 -1576 104 107 120
-160.395 -219.14 -1578 122 125 138
-157.412 -219.388 -1580 147 150 163
-154.714 -220.053 -1585 149 151 164
-152.094 -220.857 -1591 147 149 164
-148.889 -220.829 -1591 150 152 168
-146.601 -222.189 -1601 153 154 172
-144.542 -223.966 -1614 139 141 158
-142.17 -225.326 -1624 132 135 150
-139.929 -226.965 -1636 135 137 153
-138.227 -229.574 -1655 150 152 168
-136.286 -231.907 -1672 162 164 180
-134.277 -234.239 -1689 157 160 175
-480.808 -233.599 -1616 195 198 208
-475.222 -232.492 -1609 176 181 192
-471.429 -232.252 -1608 162 168 179
-465.899 -231.147 -1601 154 161 173
-460.982 -230.333 -1596 147 153 167
-456.377 -229.664 -1592 141 147 161
-452.363 -229.284 -1590 133 139 154
-447.797 -228.618 -1586 127 133 147
-443.532 -228.096 -1583 121 127 142
-438.728 -227.288 -1578 123 129 144
-434.501 -226.769 -1575 124 130 145
-430.291 -226.251 -1572 124 130 145
-424.74 -225.015 -1564 126 134 148
-420.843 -224.643 -1562 121 130 144
-416.692 -224.128 -1559 125 131 146
-412.557 -223.614 -1556 127 133 148
-407.387 -222.527 -1549 127 133 148
-403.815 -222.303 -1548 124 130 145
-400.251 -222.08 -1547 131 137 152
-396.182 -221.57 -1544 127 132 147
-391.875 -220.919 -1540 122 127 142
-388.345 -220.698 -1539 123 128 143
-384.572 -220.335 -1537 126 131 146
-380.068 -219.542 -1532 130 135 150
-377.555 -219.897 -1535 128 133 148
-373.814 -219.537 -1533 133 138 153
-369.601 -218.891 -1529 131 136 151
-366.367 -218.818 -1529 130 135 150
-363.611 -219.033 -1531 130 135 150
-360.379 -218.961 -1531 127 132 147
-356.684 -218.605 -1529 123 128 143
-353.231 -218.392 -1528 122 127 142
-349.098 -217.751 -1524 121 126 141
-344.758 -216.969 -1519 127 132 147
-340.892 -216.473 -1516 130 135 150
-338.601 -216.978 -1520 126 131 146
-335.193 -216.769 -1519 125 130 145
-331.792 -216.561 -1518 127 132 147
-328.83 -216.639 -1519 130 135 150
-325.868 -216.718 -1520 130 135 150
-321.842 -216.084 -1516 128 133 148
-319.097 -216.306 -1518 125 130 145
-315.723 -216.102 -1517 124 129 144
-311.737 -215.471 -1513 126 131 146
-307.566 -214.699 -1508 125 130 145
-304.428 -214.639 -1508 126 131 146
-301.094 -214.438 -1507 124 129 144
-297.765 -214.237 -1506 125 130 145
-295.226 -214.606 -1509 125 130 145
-292.677 -214.976 -1512 130 135 150
-289.544 -214.919 -1512 133 138 153
-286.034 -214.579 -1510 136 141 156
-282.723 -214.382 -1509 144 146 162
-279.418 -214.185 -1508 135 137 153
-275.753 -213.705 -1505 138 140 156
-272.646 -213.652 -1505 130 132 148
-269.362 -213.457 -1504 116 118 134
-266.793 -213.831 -1507 121 123 139
-263.514 -213.638 -1506 128 130 146
-259.722 -213.02 -1502 130 132 148
-256.975 -213.253 -1504 132 134 150
-254.052 -213.346 -1505 128 130 146
-250.961 -213.297 -1505 127 129 145
-248.201 -213.532 -1507 125 127 143
-245.598 -213.91 -1510 126 128 145
-242.824 -214.146 -1512 126 128 144
-239.885 -214.241 -1513 126 128 144
-236.944 -214.337 -1514 127 129 145
-234.001 -214.433 -1515 123 125 144
-231.208 -214.671 -1517 117 119 139
-228.108 -214.627 -1517 121 123 142
-225.307 -214.866 -1519 124 126 144
-222.353 -214.965 -1520 127 129 147
-219.398 -215.063 -1521 132 134 152
-216.439 -215.163 -1522 133 135 153
-213.339 -215.122 -1522 132 134 151
-210.378 -215.222 -1523 121 125 142
-207.415 -215.323 -1524 100 105 122
-204.583 -215.566 -1526 91 96 109
-201.614 -215.669 -1527 97 101 114
-199.161 -216.336 -1532 109 112 125
-195.795 -216.016 -1530 127 132 145
-192.942 -216.261 -1532 146 151 164
-190.33 -216.789 -1536 151 154 166
-187.947 -217.6 -1542 135 138 149
-184.583 -217.282 -1540 121 124 134
-181.699 -217.529 -1542 112 115 126
-178.346 -217.212 -1540 105 108 119
-175.116 -217.037 -1539 105 108 120
-172.115 -217.145 -1540 112 114 128
-169.55 -217.818 -1545 119 120 136
-167.075 -218.631 -1551 137 140 153
-164.999 -220.009 -1561 138 141 154
-163.195 -221.81 -1574 100 103 116
-160.425 -222.343 -1578 101 104 117
-157.74 -223.017 -1583 129 132 145
-154.744 -223.269 -1585 148 151 164
-152.314 -224.366 -1593 143 146 160
-149.104 -224.337 -1593 142 144 160
-146.537 -225.295 -1600 149 150 168
-144.39 -226.957 -1612 152 154 171
-142.109 -228.478 -1623 137 139 155
-139.271 -229.155 -1628 131 133 149
-137.167 -231.099 -1642 138 140 156
-135.007 -233.044 -1656 154 156 172
-132.712 -234.848 -1669 161 163 179
-130.831 -237.496 -1688 155 157 173
-475.909 -236.138 -1611 165 170 181
-471.525 -235.602 -1608 133 138 149
-465.703 -234.334 -1600 129 136 148
-461.653 -233.947 -1598 134 141 155
-456.756 -233.122 -1593 133 139 154
-452.169 -232.445 -1589 126 132 147
-447.604 -231.768 -1585 130 136 151
-443.341 -231.24 -1582 128 134 149
-438.538 -230.419 -1577 123 129 144
-434.036 -229.747 -1573 126 132 147
-430.377 -229.513 -1572 132 138 153
-425.096 -228.405 -1565 134 143 157
-420.658 -227.736 -1561 134 143 157
-415.438 -226.631 -1554 139 145 160
-411.844 -226.401 -1553 128 134 149
-406.942 -225.444 -1547 122 128 143
-403.374 -225.217 -1546 128 134 149
-400.331 -225.282 -1547 133 138 153
-396.518 -224.911 -1545 124 129 144
-391.953 -224.104 -1540 118 123 138
-388.17 -223.734 -1538 123 128 143
-384.148 -223.221 -1535 126 131 146
-379.895 -222.563 -1531 127 132 147
-377.384 -222.923 -1534 128 133 148
-373.888 -222.702 -1533 130 135 150
-369.916 -222.192 -1530 130 135 150
-366.919 -222.263 -1531 131 136 151
-364.158 -222.481 -1533 134 139 154
-360.921 -222.408 -1533 129 134 149
-356.988 -221.902 -1530 121 126 141
-353.07 -221.396 -1527 116 121 136
-348.709 -220.601 -1522 118 123 138
-345.054 -220.242 -1520 127 132 147
-340.96 -219.594 -1516 131 136 151
-338.891 -220.251 -1521 126 131 146
-335.48 -220.039 -1520 121 126 141
-332.294 -219.973 -1520 125 130 145
-329.545 -220.196 -1522 127 132 147
-326.361 -220.131 -1522 125 130 145
-322.33 -219.488 -1518 129 134 149
-319.581 -219.714 -1520 128 133 148
-315.993 -219.362 -1518 126 131 146
-311.798 -218.577 -1513 124 129 144
-308.035 -218.083 -1510 125 130 145
-304.488 -217.733 -1508 123 128 143
-301.352 -217.673 -1508 125 130 145
-298.021 -217.47 -1507 136 141 156
-295.089 -217.556 -1508 142 147 162
-292.348 -217.786 -1510 135 140 155
-289.026 -217.584 -1509 134 139 154
-285.332 -217.095 -1506 137 142 157
-281.841 -216.751 -1504 139 141 157
-278.731 -216.696 -1504 134 136 152
-275.44 -216.497 -1503 129 131 147
-272.337 -216.444 -1503 124 126 142
-269.773 -216.822 -1506 113 115 131
-266.845 -216.913 -1507 119 121 137
-263.215 -216.43 -1504 128 130 146
-259.6 -215.947 -1501 132 134 150
-257.025 -216.327 -1504 131 133 149
-253.933 -216.277 -1504 124 126 142
-250.676 -216.084 -1503 127 129 145
-248.249 -216.61 -1507 130 132 148
-245.808 -217.137 -1511 128 130 146
-243.031 -217.376 -1513 121 123 139
-239.931 -217.329 -1513 120 122 138
-237.303 -217.713 -1516 125 127 143
-234.355 -217.811 -1517 124 126 145
-230.948 -217.478 -1515 118 120 139
-227.852 -217.433 -1515 123 125 144
-225.203 -217.819 -1518 121 123 142
-222.543 -218.206 -1521 123 125 143
-219.296 -218.02 -1520 126 128 146
-216.339 -218.121 -1521 128 130 147
-213.1 -217.935 -1520 131 133 149
-210.142 -218.037 -1521 126 130 147
-206.774 -217.71 -1519 104 108 125
-204.221 -218.243 -1523 90 95 108
-201.917 -219.064 -1529 92 96 109
-199.2 -219.454 -1532 99 102 115
-196.217 -219.559 -1533 112 116 129
-193.861 -220.38 -1539 133 138 151
-190.986 -220.629 -1541 153 156 169
-187.861 -220.593 -1541 139 142 154
-184.858 -220.7 -1542 122 125 136
-182.088 -221.093 -1545 115 118 129
-178.496 -220.486 -1541 109 112 123
-175.377 -220.451 -1541 105 108 119
-172.595 -220.847 -1544 112 114 128
-169.473 -220.814 -1544 123 124 140
-166.784 -221.353 -1548 134 137 150
-164.819 -222.894 -1559 145 148 161
-162.708 -224.292 -1569 117 120 133
-159.643 -224.403 -1570 98 101 114
-157.073 -225.23 -1576 112 115 128
-154.48 -226.057 -1582 138 141 154
-151.769 -226.742 -1587 151 153 168
-148.571 -226.713 -1587 146 148 164
-146.382 -228.256 -1598 145 147 163
-144.776 -230.799 -1616 147 149 165
-141.961 -231.485 -1621 145 147 163
-138.956 -231.886 -1624 130 132 148
-136.775 -233.716 -1637 132 134 150
-134.299 -235.117 -1647 149 151 167
-131.624 -236.234 -1655 162 164 180
-129.694 -238.778 -1673 163 165 181
-476.006 -239.497 -1611 118 123 134
-471.621 -238.953 -1608 122 127 139
-465.798 -237.668 -1600 131 138 150
-461.17 -236.978 -1596 132 138 152
-455.989 -235.993 -1590 129 135 150
-451.123 -235.158 -1585 128 134 149
-447.131 -234.769 -1583 125 131 146
-442.59 -234.084 -1579 128 134 149
-437.793 -233.252 -1574 127 133 148
-433.297 -232.57 -1570 125 131 146
-430.465 -232.778 -1572 125 131 146
-424.368 -231.21 -1562 123 131 146
-420.204 -230.679 -1559 121 129 144
-414.453 -229.262 -1550 131 137 152
-410.866 -229.03 -1549 126 132 147
-406.761 -228.503 -1546 119 125 140
-403.195 -228.273 -1545 124 130 145
-400.671 -228.634 -1548 129 134 149
-397.625 -228.7 -1549 130 135 150
-392.287 -227.439 -1541 131 136 151
-388.248 -226.916 -1538 122 127 142
-384.476 -226.543 -1536 127 132 147
-380.22 -225.875 -1532 135 140 155
-377.46 -226.093 -1534 134 139 154
-375.183 -226.606 -1538 127 132 147
-371.2 -226.088 -1535 127 132 147
-367.712 -225.866 -1534 130 135 150
-364.707 -225.939 -1535 129 134 149
-361.229 -225.718 -1534 127 132 147
-357.293 -225.204 -1531 125 130 145
-353.834 -224.985 -1530 124 129 144
-349.466 -224.179 -1525 130 135 150
-345.577 -223.668 -1522 137 142 157
-341.253 -222.864 -1517 136 141 156
-338.513 -223.089 -1519 140 145 160
-334.885 -222.727 -1517 140 145 160
-332.142 -222.954 -1519 139 144 159
-328.744 -222.74 -1518 130 135 150
-325.997 -222.968 -1520 126 131 146
-322.395 -222.609 -1518 130 135 150
-319.645 -222.838 -1520 127 132 147
-316.056 -222.481 -1518 120 125 140
-312.685 -222.271 -1517 124 129 144
-309.116 -221.916 -1515 124 129 144
-304.953 -221.122 -1510 127 132 147
-301.812 -221.061 -1510 129 134 149
-298.279 -220.708 -1508 136 141 156
-294.952 -220.503 -1507 146 151 166
-291.631 -220.298 -1506 144 149 164
-288.317 -220.093 -1505 143 148 163
-285.01 -219.89 -1504 145 150 165
-281.522 -219.541 -1502 139 141 157
-278.23 -219.339 -1501 138 140 156
-274.945 -219.137 -1500 136 138 154
-272.209 -219.375 -1502 135 137 153
-268.931 -219.175 -1501 116 118 134
-266.012 -219.267 -1502 114 116 132
-263.092 -219.361 -1503 123 125 141
-259.305 -218.725 -1499 132 134 150
-256.563 -218.965 -1501 137 139 155
-253.476 -218.915 -1501 128 130 146
-250.392 -218.865 -1501 126 128 144
-247.639 -219.107 -1503 128 130 146
-245.694 -220.078 -1510 128 130 146
-242.919 -220.321 -1512 123 125 141
-239.82 -220.273 -1512 122 124 140
-237.037 -220.517 -1514 124 126 142
-233.938 -220.47 -1514 126 128 147
-230.689 -220.279 -1513 126 128 148
-227.596 -220.233 -1513 133 135 154
-225.247 -220.916 -1518 127 129 147
-222.733 -221.454 -1522 122 124 142
-219.483 -221.265 -1521 123 125 143
-216.666 -221.512 -1523 123 125 143
-213.562 -221.47 -1523 132 134 150
-210.184 -221.137 -1521 130 132 150
-206.951 -220.951 -1520 109 111 129
-204.663 -221.782 -1526 92 97 110
-201.824 -222.032 -1528 92 96 109
-199.239 -222.574 -1532 96 99 112
-196.511 -222.971 -1535 103 106 119
-194.024 -223.658 -1540 123 126 139
-190.899 -223.62 -1540 147 150 163
-188.02 -223.874 -1542 150 153 165
-184.774 -223.692 -1541 134 137 148
-182.005 -224.091 -1544 120 123 134
-178.647 -223.765 -1542 116 119 130
-175.525 -223.73 -1542 111 114 125
-172.405 -223.696 -1542 111 113 127
-169.287 -223.662 -1542 117 118 133
-166.601 -224.21 -1546 126 129 142
-164.217 -225.192 -1553 140 143 156
-162.014 -226.465 -1562 128 131 144
-159.267 -227.013 -1566 105 108 121
-157.104 -228.432 -1576 108 111 124
-154.511 -229.271 -1582 118 121 134
-151.99 -230.255 -1589 143 146 160
-148.975 -230.515 -1591 149 151 167
-146.593 -231.79 -1600 145 147 163
-144.715 -233.935 -1615 146 148 164
-141.901 -234.631 -1620 147 149 165
-138.897 -235.038 -1623 138 140 156
-136.551 -236.604 -1634 136 138 154
-133.754 -237.446 -1640 142 144 160
-131.093 -238.578 -1648 152 154 170
-128.944 -240.724 -1663 160 162 178
-126.206 -241.857 -1671 164 166 182
-123.658 -243.425 -1682 156 158 174
-484.081 -245.22 -1626 132 138 149
-476.105 -242.858 -1611 127 133 145
-470.546 -241.704 -1604 130 136 148
-464.439 -240.25 -1595 130 137 149
-459.242 -239.25 -1589 131 138 150
-454.363 -238.402 -1584 130 137 150
-449.794 -237.705 -1580 127 132 146
-446.093 -237.462 -1579 126 132 146
-441.841 -236.918 -1576 129 135 150
-437.605 -236.375 -1573 128 134 149
-433.386 -235.834 -1570 132 138 154
-430.554 -236.045 -1572 129 137 153
-425.542 -235.055 -1566 116 125 139
-420.83 -234.216 -1561 119 127 141
-415.341 -232.93 -1553 126 132 147
-411.747 -232.694 -1552 126 132 147
-407.898 -232.309 -1550 122 128 143
-404.322 -232.075 -1549 124 130 145
-401.53 -232.291 -1551 130 135 150
-398.477 -232.358 -1552 136 141 156
-392.876 -230.929 -1543 137 142 157
-389.085 -230.549 -1541 127 132 147
-384.806 -229.871 -1537 127 132 147
-380.546 -229.194 -1533 136 141 156
-377.784 -229.415 -1535 142 147 162
-375.26 -229.785 -1538 134 139 154
-371.034 -229.111 -1534 131 136 151
-367.787 -229.035 -1534 135 140 155
-364.306 -228.811 -1533 128 133 148
-360.597 -228.438 -1531 126 131 146
-356.665 -227.916 -1528 124 129 144
-352.981 -227.545 -1526 128 133 148
-348.621 -226.728 -1521 125 130 145
-345.42 -226.657 -1521 132 137 152
-341.097 -225.842 -1516 130 135 150
-337.913 -225.772 -1516 132 137 152
-334.511 -225.554 -1515 135 140 155
-331.991 -225.933 -1518 134 139 154
-328.378 -225.568 -1516 131 136 151
-325.634 -225.798 -1518 130 135 150
-322.46 -225.732 -1518 131 136 151
-319.078 -225.518 -1517 129 134 149
-315.495 -225.156 -1515 124 129 144
-312.129 -224.944 -1514 128 133 148
-308.771 -224.732 -1513 131 136 151
-304.812 -224.076 -1509 136 141 156
-301.873 -224.162 -1510 140 145 160
-298.734 -224.101 -1510 145 150 165
-295.207 -223.744 -1508 147 152 167
-291.69 -223.388 -1506 139 144 159
-288.759 -223.477 -1507 136 141 156
-285.257 -223.122 -1505 136 141 156
-281.579 -222.62 -1502 135 137 153
-278.286 -222.415 -1501 137 139 155
-275 -222.211 -1500 140 142 158
-271.901 -222.156 -1500 138 140 156
-268.985 -222.249 -1501 118 120 136
-266.066 -222.343 -1502 114 116 132
-263.32 -222.586 -1504 116 118 134
-260.05 -222.385 -1503 119 121 137
-257.469 -222.776 -1506 128 130 146
-254.203 -222.577 -1505 130 132 148
-251.276 -222.674 -1506 131 133 149
-248.348 -222.771 -1507 126 128 145
-246.069 -223.46 -1512 123 125 142
-242.967 -223.411 -1512 119 121 137
-239.868 -223.362 -1512 119 121 137
-236.771 -223.315 -1512 123 125 141
-233.83 -223.415 -1513 128 130 148
-230.582 -223.221 -1512 130 132 151
-227.19 -222.879 -1510 127 129 147
-225.143 -223.867 -1517 123 125 143
-222.631 -224.412 -1521 119 121 139
-219.383 -224.22 -1520 118 120 138
-216.709 -224.619 -1523 120 122 139
-213.885 -224.871 -1525 131 133 150
-210.64 -224.681 -1524 131 133 150
-207.265 -224.344 -1522 112 114 132
-205.106 -225.335 -1529 92 97 110
-202.129 -225.441 -1530 90 94 107
-199.279 -225.696 -1532 94 97 110
-196.294 -225.803 -1533 97 100 113
-193.685 -226.353 -1537 113 116 129
-190.565 -226.315 -1537 138 141 153
-187.448 -226.277 -1537 148 151 163
-184.571 -226.534 -1539 141 144 155
-181.57 -226.645 -1540 127 130 141
-178.566 -226.756 -1541 124 127 139
-175.56 -226.868 -1542 116 119 131
-172.439 -226.833 -1542 111 113 127
-169.32 -226.799 -1542 115 116 132
-166.849 -227.648 -1548 122 126 139
-164.567 -228.791 -1556 135 138 151
-161.942 -229.494 -1561 129 132 145
-159.4 -230.344 -1567 110 113 126
-157.135 -231.635 -1576 106 109 122
-154.443 -232.339 -1581 111 114 127
-151.637 -232.897 -1585 130 133 147
-148.723 -233.307 -1588 147 149 165
-146.439 -234.747 -1598 149 151 167
-144.295 -236.481 -1610 149 151 167
-141.491 -237.187 -1615 143 145 161
-138.754 -238.04 -1621 136 138 154
-136.578 -239.922 -1634 134 136 152
-133.617 -240.482 -1638 135 137 153
-130.721 -241.19 -1643 143 145 161
-128.349 -242.926 -1655 151 153 169
-125.627 -244.075 -1663 160 162 178
-123.389 -246.251 -1678 159 161 177
-474.432 -245.304 -1605 135 141 154
-469.178 -244.287 -1599 126 133 146
-463.954 -243.272 -1593 125 131 145
-459.917 -242.868 -1591 124 130 143
-455.893 -242.466 -1589 124 130 144
-450.458 -241.302 -1582 123 128 141
-446.47 -240.902 -1580 126 132 145
-441.373 -239.894 -1574 125 131 146
-436.862 -239.192 -1570 125 131 146
-432.373 -238.49 -1566 130 136 152
-429.548 -238.704 -1568 128 137 153
-425.36 -238.157 -1565 116 125 139
-421.727 -237.916 -1564 122 131 145
-415.428 -236.155 -1553 131 137 152
-411.567 -235.764 -1551 134 140 155
-408.246 -235.678 -1551 125 131 146
-404.145 -235.137 -1548 124 130 145
-400.837 -235.052 -1548 132 138 153
-397.789 -235.12 -1549 126 131 146
-392.194 -233.671 -1540 128 133 148
-388.156 -233.135 -1537 133 138 153
-384.385 -232.751 -1535 128 133 148
-380.129 -232.064 -1531 125 130 145
-377.616 -232.44 -1534 128 133 148
-375.582 -233.118 -1539 129 134 149
-371.595 -232.586 -1536 125 130 145
-368.343 -232.509 -1536 132 137 152
-364.857 -232.281 -1535 132 137 152
-361.142 -231.903 -1533 128 133 148
-357.206 -231.374 -1530 126 131 146
-353.979 -231.3 -1530 127 132 147
-349.151 -230.169 -1523 130 135 150
-345.946 -230.097 -1523 137 142 157
-341.618 -229.27 -1518 132 137 152
-337.983 -228.898 -1516 127 132 147
-334.58 -228.677 -1515 132 137 152
-332.059 -229.06 -1518 135 140 155
-328.662 -228.841 -1517 138 143 158
-325.486 -228.774 -1517 136 141 156
-322.101 -228.556 -1516 128 133 148
-318.302 -228.037 -1513 125 130 145
-314.727 -227.67 -1511 129 134 149
-311.987 -227.907 -1513 125 130 145
-309.242 -228.144 -1515 136 141 156
-305.077 -227.328 -1510 143 148 163
-302.335 -227.566 -1512 145 150 165
-298.993 -227.354 -1511 144 149 164
-295.071 -226.691 -1507 145 150 165
-290.975 -225.878 -1502 139 144 159
-288.818 -226.571 -1507 137 142 157
-285.315 -226.211 -1505 138 143 158
-282.011 -226.002 -1504 139 142 158
-278.343 -225.494 -1501 135 137 153
-275.239 -225.437 -1501 132 134 150
-272.32 -225.531 -1502 130 132 148
-269.039 -225.325 -1501 120 122 138
-266.12 -225.421 -1502 114 116 132
-263.549 -225.817 -1505 112 114 130
-260.102 -225.463 -1503 111 113 129
-257.179 -225.56 -1504 120 122 138
-254.085 -225.508 -1504 129 131 147
-250.994 -225.456 -1504 136 138 154
-248.234 -225.705 -1506 132 134 151
-246.119 -226.553 -1512 126 128 146
-243.017 -226.503 -1512 123 125 141
-239.758 -226.304 -1511 122 124 140
-236.662 -226.256 -1511 125 127 142
-233.568 -226.208 -1511 127 129 146
-230.476 -226.16 -1511 123 125 143
-226.935 -225.665 -1508 116 118 135
-224.744 -226.517 -1514 114 116 134
-222.53 -227.369 -1520 111 113 131
-219.283 -227.174 -1519 112 114 132
-216.611 -227.578 -1522 115 117 135
-213.928 -227.983 -1525 128 130 147
-210.821 -227.94 -1525 133 135 152
-207.579 -227.748 -1524 120 122 140
-205.148 -228.453 -1529 91 96 109
-201.905 -228.262 -1528 82 87 100
-199.189 -228.67 -1531 89 92 105
-195.949 -228.48 -1530 93 96 109
-192.968 -228.59 -1531 106 109 122
-189.984 -228.701 -1532 126 129 140
-186.997 -228.812 -1533 144 147 158
-184.128 -229.072 -1535 153 156 167
-181.724 -229.931 -1541 137 140 153
-178.834 -230.193 -1543 122 125 138
-175.595 -230.008 -1542 119 122 135
-172.586 -230.121 -1543 115 117 132
-169.464 -230.087 -1543 116 118 134
-166.775 -230.649 -1547 115 120 133
-164.282 -231.51 -1553 129 133 146
-161.975 -232.67 -1561 144 147 160
-159.432 -233.532 -1567 131 134 147
-156.668 -234.096 -1571 115 118 131
-153.986 -234.809 -1576 108 111 124
-151.285 -235.523 -1581 115 118 132
-148.191 -235.642 -1582 141 143 159
-145.735 -236.804 -1590 149 151 167
-143.607 -238.562 -1602 150 152 168
-140.994 -239.576 -1609 144 146 162
-138.182 -240.292 -1614 141 143 159
-135.937 -242.051 -1626 139 141 157
-133.481 -243.512 -1636 132 134 150
-130.906 -244.825 -1645 140 142 158
-128.219 -245.989 -1653 143 145 161
-125.501 -247.154 -1661 148 150 166
-123.119 -249.064 -1674 155 157 173
-482.5 -251.085 -1620 134 140 155
-475.125 -248.967 -1607 141 147 162
-469.278 -247.626 -1599 134 140 155
-464.927 -247.061 -1596 127 133 148
-460.883 -246.652 -1594 124 130 145
-456.851 -246.244 -1592 126 132 147
-451.408 -245.064 -1585 124 129 142
-447.13 -244.504 -1582 127 132 146
-441.186 -243.018 -1573 126 132 147
-436.676 -242.306 -1569 123 129 144
-431.912 -241.441 -1564 120 127 142
-428.269 -241.195 -1563 124 133 149
-425.178 -241.258 -1564 124 130 146
-421.547 -241.013 -1563 121 127 142
-416.051 -239.69 -1555 122 128 143
-412.982 -239.756 -1556 123 129 144
-410.175 -239.977 -1558 125 131 146
-405.275 -238.966 -1552 121 127 142
-401.698 -238.726 -1551 128 134 149
-398.13 -238.487 -1550 119 124 139
-392.532 -237.018 -1541 126 131 146
-387.985 -236.167 -1536 132 137 152
-384.716 -236.085 -1536 127 132 147
-381.202 -235.85 -1535 126 131 146
-378.68 -236.23 -1538 131 136 151
-376.149 -236.611 -1541 129 134 149
-372.883 -236.532 -1541 129 134 149
-369.38 -236.3 -1540 131 136 151
-365.171 -235.608 -1536 127 132 147
-361.218 -235.072 -1533 123 128 143
-357.281 -234.536 -1530 124 129 144
-353.822 -234.308 -1529 119 124 139
-349.454 -233.467 -1524 123 128 143
-346.699 -233.7 -1526 132 137 152
-342.364 -232.862 -1521 132 137 152
-338.053 -232.025 -1516 130 135 150
-334.871 -231.954 -1516 131 136 151
-331.472 -231.731 -1515 132 137 152
-328.08 -231.509 -1514 135 140 155
-325.125 -231.594 -1515 135 140 155
-322.381 -231.831 -1517 129 134 149
-317.948 -230.847 -1511 129 134 149
-314.584 -230.628 -1510 132 137 152
-311.64 -230.715 -1511 131 136 151
-309.102 -231.108 -1514 142 147 162
-304.736 -230.128 -1508 149 154 169
-302.398 -230.675 -1512 143 148 163
-299.253 -230.612 -1512 141 146 161
-295.328 -229.94 -1508 141 146 161
-290.841 -228.812 -1501 137 142 157
-288.302 -229.209 -1504 138 143 158
-284.995 -228.997 -1503 139 144 159
-281.882 -228.938 -1503 142 145 161
-278.03 -228.27 -1499 137 139 155
-275.296 -228.517 -1501 131 133 149
-272.376 -228.612 -1502 127 129 145
-269.453 -228.708 -1503 118 120 136
-266.175 -228.5 -1502 117 119 135
-263.954 -229.205 -1507 111 113 129
-260.502 -228.847 -1505 110 112 128
-257.403 -228.793 -1505 120 122 138
-253.8 -228.284 -1502 128 130 146
-250.711 -228.232 -1502 136 138 154
-247.625 -228.18 -1502 135 137 154
-245.518 -229.041 -1508 125 127 145
-242.584 -229.142 -1509 126 128 144
-239.49 -229.092 -1509 127 130 145
-236.554 -229.194 -1510 126 129 142
-233.616 -229.298 -1511 129 131 148
-230.371 -229.098 -1510 124 126 144
-226.68 -228.444 -1506 118 120 136
-224.196 -229.004 -1510 115 117 134
-222.136 -230.019 -1517 116 118 134
-219.039 -229.974 -1517 115 117 133
-216.228 -230.232 -1519 114 116 132
-213.691 -230.794 -1523 124 126 142
-210.864 -231.053 -1525 131 133 149
-207.621 -230.859 -1524 131 133 149
-205.055 -231.422 -1528 105 110 125
-201.814 -231.229 -1527 87 91 106
-198.969 -231.49 -1529 90 92 107
-195.861 -231.449 -1529 92 95 109
-192.881 -231.561 -1530 96 99 112
-189.899 -231.673 -1531 113 116 127
-186.669 -231.483 -1530 127 130 141
-184.166 -232.201 -1535 145 148 159
-181.408 -232.618 -1538 151 154 167
-178.407 -232.732 -1539 141 144 157
-175.403 -232.847 -1540 130 133 146
-172.733 -233.416 -1544 118 121 135
-169.828 -233.683 -1546 113 115 131
-167.132 -234.253 -1550 104 109 123
-164.633 -235.126 -1556 126 130 144
-161.904 -235.696 -1560 145 147 163
-159.261 -236.419 -1565 143 145 161
-156.101 -236.387 -1565 126 128 143
-153.626 -237.412 -1572 112 115 128
-150.933 -238.136 -1577 112 114 128
-148.127 -238.71 -1581 124 126 141
-145.856 -240.189 -1591 146 148 163
-143.905 -242.273 -1605 153 155 171
-141.022 -242.848 -1609 146 148 164
-138.553 -244.177 -1618 143 145 161
-136.215 -245.809 -1629 143 145 161
-133.753 -247.29 -1639 141 143 159
-131.57 -249.376 -1653 141 143 159
-128.711 -250.254 -1659 144 146 162
-125.904 -251.284 -1666 146 148 164
-123.07 -252.314 -1673 150 152 168
-481.413 -253.844 -1616 137 142 156
-474.637 -252.012 -1605 141 146 160
-469.086 -250.81 -1598 137 142 156
-465.319 -250.552 -1597 135 141 156
-460.693 -249.823 -1593 130 136 152
-457.237 -249.723 -1593 121 129 145
-452.36 -248.841 -1588 119 125 139
-448.074 -248.273 -1585 120 126 140
-441.562 -246.453 -1574 120 126 141
-437.049 -245.732 -1570 122 128 143
-432.281 -244.855 -1565 120 126 141
-427.813 -244.136 -1561 117 124 140
-424.726 -244.2 -1562 118 124 139
-420.828 -243.796 -1560 120 126 141
-416.675 -243.236 -1557 123 129 144
-412.539 -242.678 -1554 128 134 149
-409.737 -242.902 -1556 129 135 150
-405.362 -242.189 -1552 122 128 143
-401.525 -241.79 -1550 127 132 147
-397.444 -241.236 -1547 127 132 147
-392.87 -240.372 -1542 128 133 148
-388.826 -239.82 -1539 126 131 146
-385.049 -239.425 -1537 123 128 143
-382.277 -239.654 -1539 122 127 142
-379.5 -239.884 -1541 124 129 144
-376.473 -239.958 -1542 123 128 143
-372.72 -239.567 -1540 126 131 146
-369.218 -239.332 -1539 127 132 147
-364.773 -238.475 -1534 124 129 144
-360.352 -237.621 -1529 129 134 149
-356.422 -237.078 -1526 129 134 149
-353.897 -237.468 -1529 128 133 148
-349.986 -236.927 -1526 127 132 147
-346.546 -236.697 -1525 130 135 150
-342.887 -236.313 -1523 133 138 153
-338.794 -235.62 -1519 132 137 152
-335.383 -235.393 -1518 132 137 152
-331.761 -235.012 -1516 130 135 150
-328.15 -234.631 -1514 130 135 150
-324.979 -234.562 -1514 131 136 151
-322.449 -234.958 -1517 133 138 153
-317.804 -233.806 -1510 135 140 155
-315.067 -234.048 -1512 133 138 153
-312.324 -234.291 -1514 134 139 154
-309.371 -234.38 -1515 134 139 154
-305.002 -233.387 -1509 135 140 155
-302.261 -233.632 -1511 137 142 157
-298.524 -233.104 -1508 135 140 155
-294.803 -232.578 -1505 137 142 157
-290.127 -231.28 -1497 140 145 160
-288.363 -232.3 -1504 136 141 156
-285.624 -232.548 -1506 134 139 154
-282.504 -232.488 -1506 136 138 154
-278.273 -231.503 -1500 135 137 153
-275.904 -232.061 -1504 137 139 155
-272.433 -231.695 -1502 133 135 151
-268.793 -231.175 -1499 121 123 139
-265.876 -231.273 -1500 117 119 135
-264.184 -232.45 -1508 111 113 129
-260.384 -231.779 -1504 107 109 125
-257.286 -231.724 -1504 116 118 134
-253.853 -231.362 -1502 123 125 141
-250.764 -231.309 -1502 131 133 149
-247.677 -231.257 -1502 135 137 153
-245.406 -231.975 -1507 129 131 148
-242.796 -232.385 -1510 122 124 139
-240.016 -232.643 -1512 125 127 141
-236.603 -232.285 -1510 128 131 144
-233.819 -232.543 -1512 128 131 147
-231.029 -232.802 -1514 133 135 153
-227.179 -231.985 -1509 133 135 151
-224.836 -232.706 -1514 118 120 137
-222.622 -233.582 -1520 115 117 133
-219.662 -233.689 -1521 119 121 137
-216.558 -233.644 -1521 123 125 141
-214.017 -234.213 -1525 130 132 148
-211.046 -234.322 -1526 135 137 153
-208.073 -234.432 -1527 137 138 154
-205.366 -234.849 -1530 116 121 136
-201.592 -234.039 -1525 94 99 114
-198.62 -234.151 -1526 91 93 109
-195.517 -234.11 -1526 92 95 109
-192.291 -233.916 -1525 93 96 109
-189.318 -234.03 -1526 105 108 119
-186.464 -234.297 -1528 116 119 131
-183.604 -234.565 -1530 130 133 144
-181.091 -235.294 -1535 147 150 163
-178.444 -235.87 -1539 151 154 167
-175.326 -235.833 -1539 142 145 158
-172.881 -236.716 -1545 129 131 145
-170.413 -237.599 -1551 123 125 140
-167.49 -237.871 -1553 107 112 127
-164.667 -238.296 -1556 112 116 131
-161.937 -238.874 -1560 130 132 148
-159.396 -239.759 -1566 147 150 166
-156.333 -239.88 -1567 128 131 146
-153.853 -240.919 -1574 113 116 129
-151.347 -241.959 -1581 107 111 124
-148.72 -242.846 -1587 107 111 124
-146.07 -243.733 -1593 123 126 141
-143.487 -244.774 -1600 147 150 165
-140.788 -245.663 -1606 155 157 173
-138.239 -246.858 -1614 153 155 171
-135.49 -247.747 -1620 154 156 172
-133.617 -250.319 -1637 153 155 171
-131.676 -252.89 -1654 144 146 162
-128.815 -253.781 -1660 144 146 162
-125.854 -254.519 -1665 144 146 162
-123.317 -256.174 -1676 146 148 164
-482.115 -257.544 -1618 134 140 153
-475.037 -255.529 -1606 137 142 155
-468.602 -253.833 -1596 137 142 155
-464.547 -253.412 -1594 134 140 155
-461.083 -253.31 -1594 128 135 150
-457.337 -253.05 -1593 125 133 150
-453.029 -252.473 -1590 122 128 143
-448.738 -251.897 -1587 121 127 142
-443.061 -250.53 -1579 117 123 138
-438.258 -249.639 -1574 119 125 140
-433.205 -248.592 -1568 123 129 144
-427.907 -247.388 -1561 124 130 145
-424.546 -247.294 -1561 125 131 146
-420.65 -246.885 -1559 126 132 147
-416.766 -246.476 -1557 123 129 144
-412.629 -245.911 -1554 128 134 149
-409.826 -246.137 -1556 126 132 147
-405.45 -245.415 -1552 124 130 145
-401.094 -244.695 -1548 126 131 146
-396.76 -243.975 -1544 127 132 147
-392.701 -243.415 -1541 123 128 143
-388.658 -242.856 -1538 118 123 138
-385.132 -242.614 -1537 125 130 145
-382.111 -242.688 -1538 129 134 149
-378.843 -242.605 -1538 126 131 146
-375.334 -242.365 -1537 124 129 144
-370.864 -241.496 -1532 126 131 146
-367.379 -241.258 -1531 124 129 144
-363.187 -240.549 -1527 120 125 140
-359.723 -240.313 -1526 130 135 150
-356.266 -240.078 -1525 128 133 148
-353.973 -240.63 -1529 126 131 146
-350.521 -240.397 -1528 123 128 143
-346.62 -239.849 -1525 127 132 147
-342.736 -239.303 -1522 129 134 149
-338.867 -238.758 -1519 131 136 151
-335.676 -238.685 -1519 132 137 152
-331.394 -237.827 -1514 125 130 145
-328.654 -238.07 -1516 125 130 145
-325.478 -238 -1516 126 131 146
-322.518 -238.086 -1517 127 132 147
-317.872 -236.919 -1510 135 140 155
-315.134 -237.165 -1512 136 141 156
-311.566 -236.784 -1510 139 144 159
-308.416 -236.717 -1510 139 144 159
-304.461 -236.024 -1506 139 144 159
-301.525 -236.116 -1507 138 143 158
-297.598 -235.425 -1503 138 143 158
-294.082 -235.048 -1501 139 144 159
-289.607 -233.889 -1494 137 142 157
-287.657 -234.767 -1500 134 139 154
-285.305 -235.331 -1504 130 135 150
-282.189 -235.271 -1504 133 135 151
-279.075 -235.21 -1504 134 136 152
-276.88 -235.933 -1509 136 138 154
-273.035 -235.249 -1505 133 135 151
-269.746 -235.034 -1504 125 127 143
-266.996 -235.29 -1506 118 120 136
-264.59 -235.858 -1510 114 116 132
-261.305 -235.645 -1509 106 108 124
-258.538 -235.902 -1511 111 113 129
-254.921 -235.379 -1508 124 126 142
-251.652 -235.169 -1507 131 133 149
-248.389 -234.96 -1506 132 134 150
-245.621 -235.219 -1508 132 134 150
-243.329 -235.947 -1513 138 141 154
-240.543 -236.207 -1515 134 137 150
-237.123 -235.845 -1513 127 130 143
-234.642 -236.418 -1517 125 127 144
-231.994 -236.836 -1520 130 132 150
-228.131 -236.008 -1515 122 124 142
-225.329 -236.272 -1517 113 115 133
-222.815 -236.847 -1521 115 117 135
-219.708 -236.8 -1521 116 118 134
-216.603 -236.754 -1521 116 118 134
-214.202 -237.486 -1526 124 126 142
-211.09 -237.441 -1526 130 131 147
-208.253 -237.708 -1528 132 133 149
-205.141 -237.664 -1528 120 125 140
-201.502 -236.999 -1524 96 101 116
-198.401 -236.957 -1524 91 93 109
-195.302 -236.915 -1524 94 96 110
-192.205 -236.874 -1524 96 99 112
-189.357 -237.145 -1526 101 104 117
-186.259 -237.105 -1526 109 112 125
-183.522 -237.532 -1529 120 123 134
-181.129 -238.426 -1535 141 144 156
-178.249 -238.699 -1537 150 153 166
-175.476 -239.127 -1540 141 144 157
-173.141 -240.177 -1547 129 132 145
-170.888 -241.383 -1555 124 127 140
-167.849 -241.503 -1556 115 117 133
-165.125 -242.088 -1560 115 117 133
-162.283 -242.519 -1563 127 129 145
-159.531 -243.106 -1567 146 150 165
-156.066 -242.607 -1564 138 143 158
-153.69 -243.816 -1572 121 124 137
-150.9 -244.404 -1576 114 117 130
-148.282 -245.303 -1582 110 114 127
-145.642 -246.202 -1588 113 117 131
-143.158 -247.412 -1596 138 143 156
-140.204 -247.848 -1599 156 158 174
-137.753 -249.213 -1608 158 160 176
-134.933 -249.96 -1613 160 162 178
-132.992 -252.411 -1629 158 160 176
-131.067 -255.017 -1646 154 156 172
-128.453 -256.384 -1655 154 156 172
-125.578 -257.287 -1661 153 155 171
-123.195 -259.274 -1674 150 152 168
-483.415 -261.578 -1622 132 138 151
-477.213 -260.019 -1613 133 139 151
-470.469 -258.14 -1602 137 142 155
-465.817 -257.39 -1598 136 142 157
-461.475 -256.803 -1595 128 135 151
-456.577 -255.896 -1590 126 134 153
-452.274 -255.312 -1587 133 139 154
-447.706 -254.568 -1583 132 138 153
-442.598 -253.504 -1577 127 133 148
-437.241 -252.28 -1570 123 129 144
-433.024 -251.702 -1567 121 127 142
-428.001 -250.642 -1561 125 131 146
-424.64 -250.547 -1561 132 138 153
-420.473 -249.972 -1558 128 134 149
-416.323 -249.398 -1555 127 133 148
-411.923 -248.664 -1551 128 134 149
-408.335 -248.413 -1550 126 132 147
-403.71 -247.522 -1545 120 125 140
-399.887 -247.112 -1543 121 126 141
-395.562 -246.384 -1539 128 133 148
-391.512 -245.816 -1536 136 141 156
-387.479 -245.25 -1533 131 136 151
-384.715 -245.485 -1535 129 134 149
-381.449 -245.4 -1535 133 138 153
-378.68 -245.636 -1537 131 136 151
-375.416 -245.553 -1537 120 125 140
-370.945 -244.672 -1532 127 132 147
-366.979 -244.112 -1529 129 134 149
-363.266 -243.712 -1527 124 129 144
-360.037 -243.633 -1527 133 138 153
-356.343 -243.235 -1525 131 136 151
-354.282 -243.954 -1530 130 135 150
-351.056 -243.877 -1530 128 133 148
-346.696 -243.003 -1525 131 136 151
-343.036 -242.609 -1523 130 135 150
-339.164 -242.057 -1520 133 138 153
-335.528 -241.664 -1518 134 139 154
-331.466 -240.955 -1514 126 131 146
-329.159 -241.519 -1518 122 127 142
-325.763 -241.288 -1517 123 128 143
-322.801 -241.376 -1518 121 126 141
-318.362 -240.352 -1512 131 136 151
-314.994 -240.124 -1511 139 144 159
-311.633 -239.897 -1510 143 148 163
-308.279 -239.671 -1509 138 143 158
-304.729 -239.286 -1507 142 147 162
-301.591 -239.22 -1507 138 143 158
-297.86 -238.679 -1504 141 146 161
-294.145 -238.139 -1501 140 145 160
-290.058 -237.282 -1496 130 135 150
-287.719 -237.853 -1500 133 138 153
-284.798 -237.95 -1501 135 140 155
-282.437 -238.522 -1505 138 140 156
-279.506 -238.62 -1506 138 140 156
-277.124 -239.193 -1510 135 137 153
-272.912 -238.183 -1504 132 134 150
-269.984 -238.283 -1505 132 134 150
-267.231 -238.541 -1507 122 124 140
-264.472 -238.8 -1509 113 115 131
-261.014 -238.427 -1507 101 103 119
-258.252 -238.687 -1509 103 105 121
-254.806 -238.316 -1507 113 115 131
-251.539 -238.103 -1506 123 125 141
-248.277 -237.891 -1505 128 130 146
-245.511 -238.154 -1507 132 134 150
-243.06 -238.733 -1511 135 138 151
-240.436 -239.155 -1514 129 132 145
-237.017 -238.788 -1512 132 135 148
-234.692 -239.526 -1517 129 131 147
-232.196 -240.108 -1521 126 128 146
-228.631 -239.584 -1518 118 120 138
-225.526 -239.535 -1518 115 117 135
-222.863 -239.961 -1521 114 116 134
-219.611 -239.755 -1520 114 116 133
-216.507 -239.709 -1520 119 121 137
-213.967 -240.293 -1524 118 120 136
-210.72 -240.09 -1523 121 123 139
-208.025 -240.518 -1526 132 133 149
-204.916 -240.474 -1526 129 132 147
-201.412 -239.957 -1523 104 107 122
-198.313 -239.914 -1523 92 94 110
-195.6 -240.345 -1526 90 93 107
-192.372 -240.146 -1525 93 96 109
-189.646 -240.577 -1528 93 96 109
-186.665 -240.694 -1529 96 99 112
-184.042 -241.284 -1533 108 111 123
-181.876 -242.504 -1541 130 133 146
-178.751 -242.466 -1541 146 149 162
-175.969 -242.9 -1544 148 151 164
-173.513 -243.806 -1550 141 144 157
-171.034 -244.713 -1556 132 135 148
-167.777 -244.52 -1555 121 123 139
-164.948 -244.956 -1558 120 122 138
-161.902 -245.078 -1559 128 130 146
-159.259 -245.83 -1564 136 140 156
-155.7 -245.168 -1560 146 151 166
-153.625 -246.863 -1571 138 140 155
-151.219 -248.088 -1579 123 126 140
-148.689 -249.156 -1586 113 118 131
-145.764 -249.596 -1589 109 114 127
-143.278 -250.821 -1597 124 128 142
-140.234 -251.105 -1599 145 147 163
-137.697 -252.332 -1607 157 159 175
-134.878 -253.088 -1612 163 165 181
-133.183 -256.042 -1631 163 165 181
-131.493 -259.154 -1651 160 162 178
-128.636 -260.068 -1657 160 162 178
-125.832 -261.139 -1664 156 158 174
-484.418 -265.466 -1625 130 138 152
-478.209 -263.887 -1616 133 140 154
-470.869 -261.657 -1603 137 143 157
-465.63 -260.571 -1597 137 143 158
-461 -259.814 -1593 126 133 148
-455.818 -258.732 -1587 121 128 146
-451.806 -258.303 -1585 130 136 152
-447.524 -257.712 -1582 134 140 155
-442.978 -256.96 -1578 128 134 149
-437.896 -255.884 -1572 123 129 144
-433.398 -255.134 -1568 120 126 141
-428.92 -254.386 -1564 116 123 139
-425.007 -253.965 -1562 125 132 147
-420.567 -253.219 -1558 127 133 148
-416.416 -252.638 -1555 127 133 148
-412.281 -252.057 -1552 128 134 149
-408.69 -251.802 -1551 127 133 148
-404.061 -250.899 -1546 125 130 145
-400.235 -250.485 -1544 125 130 145
-395.65 -249.584 -1539 127 132 147
-391.6 -249.01 -1536 131 136 151
-388.071 -248.76 -1535 132 137 152
-385.302 -248.998 -1537 135 140 155
-382.031 -248.912 -1537 137 142 157
-379.257 -249.151 -1539 125 130 145
-375.744 -248.904 -1538 124 129 144
-370.785 -247.688 -1531 129 134 149
-366.58 -246.959 -1527 127 132 147
-362.871 -246.554 -1525 123 128 143
-359.645 -246.474 -1525 128 133 148
-355.955 -246.071 -1523 126 131 146
-353.897 -246.8 -1528 130 135 150
-350.904 -246.883 -1529 129 134 149
-346.318 -245.837 -1523 127 132 147
-342.886 -245.599 -1522 127 132 147
-339.238 -245.2 -1520 130 135 150
-335.823 -244.964 -1519 132 137 152
-331.539 -244.084 -1514 129 134 149
-329.014 -244.494 -1517 127 132 147
-325.406 -244.1 -1515 129 134 149
-322.871 -244.511 -1518 128 133 148
-318.643 -243.635 -1513 133 138 153
-315.063 -243.243 -1511 140 145 160
-311.289 -242.691 -1508 142 147 162
-307.529 -242.14 -1505 134 139 154
-303.785 -241.59 -1502 134 139 154
-300.656 -241.523 -1502 139 144 159
-297.331 -241.296 -1501 138 143 158
-293.622 -240.749 -1498 137 142 157
-290.315 -240.524 -1497 140 145 160
-287.782 -240.942 -1500 140 145 160
-284.67 -240.879 -1500 138 143 158
-281.56 -240.817 -1500 137 139 155
-278.825 -241.077 -1502 136 138 154
-275.899 -241.176 -1503 134 136 152
-271.701 -240.153 -1497 135 137 153
-269.145 -240.575 -1500 138 140 156
-266.757 -241.158 -1504 134 136 152
-264.179 -241.581 -1507 121 123 139
-261.071 -241.523 -1507 109 111 127
-258.308 -241.787 -1509 107 109 125
-254.693 -241.25 -1506 113 115 131
-251.426 -241.034 -1505 121 123 139
-248.001 -240.66 -1503 126 128 144
-245.238 -240.926 -1505 127 129 146
-243.434 -242.153 -1513 131 134 148
-240.806 -242.58 -1516 127 130 143
-237.696 -242.528 -1516 131 134 147
-235.208 -243.116 -1520 134 136 152
-232.552 -243.545 -1523 134 136 154
-228.831 -242.855 -1519 129 131 149
-225.724 -242.805 -1519 122 124 141
-222.618 -242.757 -1519 113 115 133
-219.369 -242.549 -1518 115 117 133
-216.411 -242.661 -1519 126 128 144
-213.873 -243.253 -1523 122 124 140
-210.766 -243.207 -1523 119 120 136
-208.479 -244.119 -1529 133 134 150
-205.229 -243.915 -1528 137 139 155
-201.853 -243.551 -1526 113 115 131
-198.486 -243.189 -1524 98 100 116
-195.899 -243.784 -1528 89 92 106
-192.792 -243.742 -1528 88 91 104
-189.811 -243.86 -1529 89 92 105
-186.949 -244.138 -1531 91 94 107
-184.201 -244.576 -1534 105 108 120
-181.443 -245.015 -1537 121 124 137
-178.441 -245.135 -1538 132 134 148
-175.665 -245.575 -1541 141 144 157
-173.327 -246.653 -1548 144 147 160
-170.631 -247.253 -1552 139 143 156
-167.705 -247.535 -1554 131 134 149
-164.666 -247.658 -1555 125 128 144
-161.936 -248.26 -1559 125 127 143
-158.784 -248.225 -1559 127 130 146
-155.634 -248.191 -1559 142 147 162
-153.56 -249.909 -1570 147 149 165
-151.156 -251.149 -1578 131 134 149
-148.439 -251.913 -1583 122 127 140
-145.887 -252.995 -1590 112 117 130
-143.219 -253.918 -1596 114 119 132
-140 -253.888 -1596 135 137 153
-137.298 -254.812 -1602 154 156 172
-134.321 -255.26 -1605 163 165 181
-132.15 -257.299 -1618 163 165 181
-130.167 -259.815 -1634 161 163 179
-127.809 -261.695 -1646 163 165 181
-125.253 -263.258 -1656 161 163 179
-485.722 -269.536 -1629 131 140 156
-479.502 -267.936 -1620 130 138 153
-472.739 -266.007 -1609 133 139 154
-466.903 -264.577 -1601 136 142 157
-460.816 -262.983 -1592 129 135 151
-455.922 -262.052 -1587 120 126 143
-451.339 -261.288 -1583 121 127 142
-447.343 -260.855 -1581 133 139 154
-442.798 -260.093 -1577 132 138 153
-439.111 -259.827 -1576 126 132 147
-434.325 -258.903 -1571 127 133 148
-429.84 -258.145 -1567 120 128 144
-424.831 -257.059 -1561 123 130 146
-421.472 -256.963 -1561 125 132 147
-416.778 -256.044 -1556 126 132 147
-412.109 -255.127 -1551 130 136 151
-408.519 -254.869 -1550 128 134 149
-404.937 -254.612 -1549 132 138 153
-401.103 -254.192 -1547 132 137 152
-396.254 -253.116 -1541 132 137 152
-392.453 -252.698 -1539 131 136 151
-388.917 -252.445 -1538 132 137 152
-385.389 -252.193 -1537 132 137 152
-382.117 -252.106 -1537 134 139 154
-379.095 -252.184 -1538 130 135 150
-375.339 -251.77 -1536 129 134 149
-370.384 -250.539 -1529 131 136 151
-366.422 -249.964 -1526 130 135 150
-362.952 -249.718 -1525 126 131 146
-359.961 -249.8 -1526 129 134 149
-356.268 -249.392 -1524 129 134 149
-353.745 -249.803 -1527 137 142 157
-350.064 -249.396 -1525 136 141 156
-345.485 -248.337 -1519 130 135 150
-342.287 -248.259 -1519 131 136 151
-339.091 -248.183 -1519 132 137 152
-335.456 -247.78 -1517 131 136 151
-332.27 -247.705 -1517 131 136 151
-329.738 -248.121 -1520 133 138 153
-325.908 -247.558 -1517 135 140 155
-323.156 -247.811 -1519 139 144 159
-319.346 -247.25 -1516 143 148 163
-315.134 -246.364 -1511 146 151 166
-311.771 -246.13 -1510 143 148 163
-308.006 -245.572 -1507 141 146 161
-304.257 -245.015 -1504 141 146 161
-301.123 -244.947 -1504 147 152 167
-297.794 -244.717 -1503 140 145 160
-294.079 -244.163 -1500 135 140 155
-291.155 -244.26 -1501 140 145 160
-288.613 -244.684 -1504 143 148 163
-285.492 -244.62 -1504 136 141 156
-282.186 -244.394 -1503 137 140 156
-279.443 -244.657 -1505 140 143 159
-276.327 -244.595 -1505 138 140 156
-271.943 -243.396 -1498 135 137 153
-269.025 -243.499 -1499 133 135 151
-266.816 -244.251 -1504 127 129 145
-263.711 -244.192 -1504 122 124 140
-260.609 -244.134 -1504 112 114 130
-257.68 -244.239 -1505 105 107 123
-254.749 -244.344 -1506 113 115 131
-251.315 -243.964 -1504 119 121 137
-248.056 -243.746 -1503 121 123 140
-244.966 -243.692 -1503 125 127 145
-243.166 -244.935 -1511 132 135 149
-240.541 -245.367 -1514 136 139 152
-237.278 -245.153 -1513 142 145 158
-234.95 -245.91 -1518 137 139 155
-232.603 -246.669 -1523 135 137 155
-229.334 -246.456 -1522 131 133 150
-226.219 -246.405 -1522 123 125 141
-223.106 -246.356 -1522 119 121 138
-219.851 -246.145 -1521 117 119 135
-216.886 -246.259 -1522 115 117 133
-214.341 -246.858 -1526 111 113 129
-210.95 -246.488 -1524 114 116 132
-208.661 -247.412 -1530 131 132 148
-205.408 -247.205 -1529 136 138 154
-201.897 -246.675 -1526 115 117 133
-198.399 -246.146 -1523 106 108 124
-196.07 -247.072 -1529 95 97 111
-192.708 -246.707 -1527 91 94 107
-189.976 -247.149 -1530 90 93 104
-187.356 -247.754 -1534 88 91 102
-184.482 -248.036 -1536 99 102 114
-181.836 -248.642 -1540 110 112 127
-178.944 -248.925 -1542 118 120 136
-176.16 -249.37 -1545 131 134 147
-173.476 -249.977 -1549 144 148 161
-170.888 -250.746 -1554 146 151 164
-167.741 -250.709 -1554 139 143 158
-164.702 -250.834 -1555 135 139 155
-162.076 -251.605 -1560 126 128 144
-159.023 -251.731 -1561 126 130 145
-155.667 -251.374 -1559 138 143 158
-153.398 -252.791 -1568 152 154 170
-150.805 -253.725 -1574 145 148 163
-147.815 -254.015 -1576 131 136 149
-145.185 -254.95 -1582 122 127 140
-142.442 -255.724 -1587 114 119 132
-139.329 -255.855 -1588 118 120 136
-136.556 -256.63 -1593 143 145 161
-133.764 -257.406 -1598 159 161 177
-131.198 -258.666 -1606 162 164 180
-129 -260.731 -1619 161 163 179
-126.827 -262.957 -1633 162 164 180
-124.524 -265.023 -1646 163 165 181
-486.431 -273.289 -1631 135 141 157
-479.613 -271.334 -1620 131 138 153
-473.142 -269.548 -1610 131 137 152
-466.427 -267.597 -1599 130 136 151
-460.343 -265.984 -1590 127 133 148
-455.453 -265.041 -1585 127 133 149
-451.443 -264.601 -1583 124 130 145
-447.163 -263.995 -1580 130 136 151
-443.181 -263.558 -1578 135 141 156
-439.769 -263.456 -1578 130 136 151
-435.255 -262.687 -1574 129 135 150
-430.488 -261.752 -1569 123 129 145
-426.018 -260.986 -1565 127 135 149
-422.649 -260.888 -1565 125 134 148
-417.141 -259.457 -1557 127 133 148
-413.266 -259.028 -1555 128 134 149
-409.667 -258.767 -1554 127 132 147
-405.552 -258.173 -1551 131 136 151
-401.714 -257.748 -1549 136 141 156
-397.63 -257.157 -1546 135 140 155
-392.798 -256.068 -1540 131 136 151
-389.259 -255.812 -1539 129 134 149
-386.229 -255.889 -1540 130 135 150
-382.453 -255.468 -1538 124 129 144
-378.935 -255.215 -1537 123 128 143
-375.914 -255.294 -1538 125 130 145
-371.195 -254.213 -1532 128 133 148
-367.226 -253.631 -1529 130 135 150
-363.511 -253.215 -1527 131 136 151
-360.279 -253.133 -1527 128 133 148
-356.349 -252.553 -1524 128 133 148
-353.13 -252.472 -1524 133 138 153
-348.996 -251.73 -1520 133 138 153
-344.654 -250.823 -1515 133 138 153
-341.462 -250.744 -1515 136 141 156
-338.051 -250.502 -1514 134 139 154
-334.647 -250.26 -1513 132 137 152
-331.688 -250.349 -1514 132 137 152
-329.379 -250.935 -1518 132 137 152
-325.766 -250.53 -1516 132 137 152
-323.229 -250.952 -1519 133 138 153
-319.418 -250.384 -1516 142 147 162
-314.996 -249.321 -1510 144 149 164
-311.634 -249.085 -1509 144 149 164
-307.258 -248.024 -1503 139 144 159
-303.516 -247.46 -1500 138 143 158
-300.59 -247.557 -1501 148 153 168
-298.059 -247.984 -1504 139 144 159
-294.537 -247.587 -1502 135 140 155
