ply
format ascii 1.0
comment Created by Open3D
element vertex 1432
property double x
property double y
property double z
property uchar red
property uchar green
property uchar blue
end_header
-32.3104 -339.453 -1649 255 0 0
-29.0094 -339.65 -1650 255 0 0
-25.7826 -340.878 -1656 147 145 164
-22.464 -341.077 -1657 147 145 162
-19.1761 -341.894 -1661 135 133 149
-15.8247 -341.684 -1660 100 100 114
-12.5225 -342.709 -1665 74 73 90
-9.1894 -343.323 -1668 61 59 78
-5.85126 -344.35 -1673 58 57 74
-2.48837 -344.761 -1675 52 51 68
0.885485 -346.407 -1683 61 59 78
4.28393 -347.437 -1688 59 57 74
7.69797 -348.262 -1692 60 58 75
11.1544 -349.911 -1700 56 54 73
14.6174 -350.944 -1705 57 55 74
18.122 -352.39 -1712 66 64 83
-396.287 -353.738 -1670 66 69 80
-391.558 -352.563 -1665 62 64 75
-387.087 -351.602 -1661 63 64 76
-381.02 -349.161 -1650 60 61 74
-376.605 -348.204 -1646 59 60 73
-371.304 -346.403 -1638 54 56 67
-366.938 -345.449 -1634 49 50 61
-362.592 -344.497 -1630 44 44 56
-358.927 -344.18 -1629 42 42 54
-354.615 -343.231 -1625 40 40 52
-350.538 -342.494 -1622 40 40 53
-346.478 -341.759 -1619 38 39 49
-342.645 -341.236 -1617 38 39 49
-338.824 -340.715 -1615 39 40 51
-335.221 -340.406 -1614 43 44 58
-331.626 -340.098 -1613 53 54 70
-328.241 -340.002 -1613 64 67 81
-324.86 -339.907 -1613 78 81 95
-321.481 -339.813 -1613 98 99 114
-318.104 -339.72 -1613 100 103 117
-314.341 -339.207 -1611 255 0 0
-310.395 -338.485 -1608 255 0 0
-306.656 -337.974 -1606 255 0 0
-303.116 -337.676 -1605 114 116 134
-299.023 -336.747 -1601 121 123 139
-295.503 -336.45 -1600 124 126 142
-291.259 -335.314 -1595 124 126 142
-286.136 -333.129 -1585 127 129 145
-281.771 -331.786 -1579 127 129 146
-277.434 -330.444 -1573 255 0 0
-273.472 -329.525 -1569 255 0 0
-269.357 -328.396 -1564 255 0 0
-265.945 -328.109 -1563 255 0 0
-261.7 -326.773 -1557 255 0 0
-258.145 -326.279 -1555 255 0 0
-254.602 -325.785 -1553 255 0 0
-251.068 -325.293 -1551 255 0 0
-246.267 -323.124 -1541 255 0 0
-243.401 -323.473 -1543 131 137 154
-239.907 -322.984 -1541 139 145 162
-236.577 -322.706 -1540 147 153 170
-232.495 -321.382 -1534 144 150 167
-229.337 -321.315 -1534 138 144 161
-225.886 -320.831 -1532 141 147 164
-222.154 -319.929 -1528 255 0 0
-218.728 -319.447 -1526 255 0 0
-215.17 -318.757 -1523 255 0 0
-212.183 -318.905 -1524 134 140 157
-208.645 -318.217 -1521 134 140 157
-205.797 -318.576 -1523 134 140 157
-202.543 -318.308 -1522 138 144 161
-200.343 -319.714 -1529 144 150 167
-196.955 -319.239 -1527 147 152 169
-194.212 -319.811 -1530 149 154 171
-190.833 -319.337 -1528 149 154 170
-187.833 -319.492 -1529 151 156 171
-184.469 -319.021 -1527 149 154 169
-181.351 -318.969 -1527 143 148 163
-178.235 -318.917 -1527 143 148 163
-175.35 -319.285 -1529 140 145 162
-172.007 -318.818 -1527 136 141 158
-168.563 -318.143 -1524 139 144 161
-165.459 -318.095 -1524 143 148 165
-162.143 -317.631 -1522 138 143 160
-159.046 -317.585 -1522 137 142 159
-156.565 -318.792 -1528 133 138 155
-153.257 -318.331 -1526 133 138 155
-150.647 -319.33 -1531 134 139 156
-147.922 -320.122 -1535 138 143 160
-145.182 -320.914 -1539 136 141 158
-141.688 -320.04 -1535 136 141 158
-138.844 -320.625 -1538 144 149 166
-135.636 -320.378 -1537 140 145 162
-132.778 -320.965 -1540 145 150 167
-129.824 -321.344 -1542 148 153 170
-126.946 -321.933 -1545 147 153 170
-124.217 -322.939 -1550 144 150 167
-121.156 -323.112 -1551 142 147 164
-117.94 -322.87 -1550 144 149 166
-114.803 -322.837 -1550 149 155 172
-112.027 -323.846 -1555 149 155 172
-108.882 -323.815 -1555 149 155 172
-105.67 -323.576 -1554 149 154 171
-102.792 -324.379 -1558 255 0 0
-99.7715 -324.767 -1560 255 0 0
-96.8675 -325.572 -1564 255 0 0
-94.0678 -326.794 -1570 255 0 0
-91.129 -327.6 -1574 255 0 0
-88.1747 -328.407 -1578 151 156 173
-85.0973 -328.799 -1580 148 153 170
-82.0125 -329.191 -1582 149 151 169
-78.9203 -329.585 -1584 148 150 168
-75.9641 -330.603 -1589 146 148 166
-72.851 -330.998 -1591 148 150 168
-69.9056 -332.226 -1597 148 150 168
-66.8947 -333.247 -1602 145 147 165
-63.7848 -333.852 -1605 139 141 159
-60.7764 -335.083 -1611 146 148 166
-57.7444 -336.314 -1617 150 152 170
-54.6887 -337.546 -1623 145 147 165
-51.6093 -338.779 -1629 144 146 164
-48.4764 -339.804 -1634 137 139 157
-45.2408 -340.207 -1636 142 144 162
-42.0232 -340.818 -1639 255 0 0
-38.7702 -341.223 -1641 255 0 0
-35.5745 -342.252 -1646 255 0 0
-32.3391 -343.074 -1650 255 0 0
-29.0528 -343.481 -1652 255 0 0
-25.8054 -344.513 -1657 103 101 119
-22.4703 -344.506 -1657 75 74 89
-19.1815 -345.332 -1661 60 59 74
-15.8387 -345.327 -1661 52 51 65
-12.5261 -346.155 -1665 52 50 67
-9.19204 -346.775 -1668 50 48 67
-5.8493 -347.605 -1672 59 57 74
-2.49071 -348.435 -1676 60 58 76
0.88574 -349.89 -1683 66 64 83
4.28509 -350.931 -1688 70 68 85
7.70025 -351.764 -1692 60 58 76
11.1445 -353.014 -1698 57 55 74
14.6132 -354.265 -1704 59 57 76
18.1165 -355.725 -1711 65 63 82
-394.267 -355.341 -1661 71 74 85
-390.497 -355.011 -1660 65 67 78
-385.103 -353.185 -1652 65 66 78
-380.44 -352.003 -1647 61 61 73
-375.801 -350.823 -1642 59 59 71
-371.413 -349.858 -1638 55 56 67
-367.27 -349.108 -1635 54 54 66
-363.366 -348.573 -1633 51 50 62
-359.693 -348.252 -1632 47 46 58
-355.373 -347.293 -1628 44 42 54
-351.074 -346.336 -1624 44 40 53
-347.008 -345.594 -1621 41 39 50
-343.17 -345.066 -1619 39 38 48
-339.133 -344.326 -1616 41 40 50
-335.32 -343.8 -1614 38 39 51
-331.929 -343.702 -1614 38 39 53
-328.541 -343.605 -1614 32 33 45
-325.156 -343.509 -1614 29 29 41
-321.774 -343.414 -1614 33 32 44
-318.395 -343.32 -1614 38 39 51
-314.628 -342.802 -1612 44 44 57
-310.872 -342.285 -1610 255 0 0
-306.936 -341.557 -1607 255 0 0
-303.393 -341.255 -1606 255 0 0
-299.297 -340.317 -1602 118 120 136
-295.774 -340.017 -1601 125 127 143
-291.892 -339.294 -1598 123 125 141
-287.845 -338.36 -1594 120 122 138
-283.638 -337.216 -1589 129 132 148
-279.631 -336.285 -1585 128 133 150
-275.469 -335.143 -1580 126 131 148
-271.502 -334.215 -1576 122 127 144
-268.575 -334.56 -1578 122 127 144
-264.634 -333.635 -1574 255 0 0
-260.877 -332.922 -1571 132 137 154
-257.299 -332.423 -1569 134 139 156
-253.408 -331.501 -1565 130 136 153
-249.375 -330.369 -1560 119 124 141
-246.154 -330.297 -1560 127 132 149
-242.468 -329.591 -1557 127 133 150
-239.258 -329.521 -1557 127 133 150
-235.291 -328.394 -1552 122 128 145
-231.946 -328.114 -1551 122 128 145
-228.164 -327.202 -1547 255 0 0
-224.109 -325.867 -1541 255 0 0
-220.798 -325.591 -1540 255 0 0
-217.069 -324.682 -1536 128 134 151
-213.636 -324.197 -1534 124 130 147
-210.077 -323.502 -1531 124 130 147
-207.072 -323.653 -1532 125 131 148
-204.065 -323.804 -1533 125 131 148
-201.58 -324.802 -1538 124 129 146
-198.689 -325.166 -1540 132 138 155
-195.664 -325.32 -1541 134 139 156
-192.262 -324.842 -1539 129 135 151
-188.993 -324.576 -1538 128 133 149
-185.609 -324.1 -1536 129 134 149
-182.472 -324.047 -1536 128 133 148
-179.453 -324.205 -1537 130 135 150
-176.088 -323.732 -1535 127 132 149
-173.07 -323.893 -1536 121 126 143
-169.829 -323.633 -1535 123 128 145
-166.375 -322.952 -1532 122 127 144
-162.936 -322.272 -1529 128 133 150
-159.928 -322.436 -1530 127 132 149
-157.122 -323.023 -1533 123 128 145
-154.004 -322.978 -1533 127 132 149
-151.478 -324.198 -1539 126 131 148
-148.639 -324.787 -1542 125 130 147
-145.79 -325.376 -1545 123 128 145
-142.467 -324.914 -1543 121 126 143
-139.426 -325.083 -1544 125 130 147
-136.204 -324.833 -1543 124 129 146
-133.333 -325.426 -1546 127 132 149
-130.367 -325.809 -1548 128 134 151
-127.475 -326.404 -1551 128 134 151
-124.894 -327.84 -1558 124 130 147
-121.894 -328.226 -1560 129 134 151
-118.887 -328.612 -1562 132 137 154
-115.947 -329.209 -1565 136 142 159
-112.996 -329.808 -1568 137 144 161
-109.964 -330.196 -1570 137 143 160
-106.856 -330.375 -1571 140 146 163
-103.746 -330.556 -1572 141 146 163
-100.696 -330.947 -1574 255 0 0
-97.8864 -332.18 -1580 255 0 0
-94.8737 -332.783 -1583 255 0 0
-91.9078 -333.597 -1587 255 0 0
-88.7029 -333.571 -1587 255 0 0
-85.7141 -334.387 -1591 140 145 162
-82.5544 -334.573 -1592 145 148 166
-79.5408 -335.391 -1596 147 149 167
-76.5118 -336.209 -1600 144 146 164
-73.5588 -337.448 -1606 140 142 160
-70.4946 -338.268 -1610 139 141 159
-67.4149 -339.089 -1614 142 144 162
-64.2402 -339.49 -1616 144 146 164
-61.0956 -340.102 -1619 147 149 167
-58.0466 -341.345 -1625 145 147 165
-54.9065 -342.169 -1629 143 145 163
-51.7507 -342.994 -1633 150 152 170
-48.5495 -343.61 -1636 150 152 170
-45.309 -344.017 -1638 255 0 0
-42.0609 -344.424 -1640 255 0 0
-38.8522 -345.253 -1644 255 0 0
-35.6278 -346.082 -1648 255 0 0
-32.4463 -347.543 -1655 255 0 0
-29.1138 -347.534 -1655 61 59 75
-25.8127 -347.946 -1657 49 47 64
-22.4766 -347.939 -1657 49 48 62
-19.187 -348.773 -1661 51 50 64
-15.8241 -348.348 -1659 54 53 67
-12.5221 -349.394 -1664 60 58 76
-9.18898 -350.021 -1667 64 62 81
-5.84406 -350.649 -1670 67 65 82
-2.48988 -351.697 -1675 68 66 84
0.883891 -352.537 -1679 67 65 84
4.27864 -353.797 -1685 70 68 85
7.67958 -354.219 -1687 67 65 82
11.1215 -355.692 -1694 62 60 78
14.5744 -356.745 -1699 61 59 77
18.0898 -358.64 -1708 65 63 81
-393.91 -358.422 -1659 69 71 83
-389.673 -357.656 -1656 67 68 79
-385.684 -357.108 -1654 64 65 75
-381.015 -355.914 -1649 65 64 75
-375.913 -354.29 -1642 63 61 72
-371.75 -353.531 -1639 61 60 71
-367.155 -352.343 -1634 62 62 73
-363.028 -351.587 -1631 59 58 70
-359.359 -351.263 -1630 56 55 67
-354.824 -350.08 -1625 50 48 60
-350.745 -349.328 -1622 50 46 60
-346.896 -348.794 -1620 46 44 54
-343.271 -348.476 -1619 42 40 50
-339.023 -347.513 -1615 41 38 48
-335.626 -347.413 -1615 40 37 50
-331.821 -346.884 -1613 41 39 53
-328.842 -347.216 -1615 37 37 47
-325.454 -347.119 -1615 35 34 44
-321.869 -346.808 -1614 36 33 44
-318.488 -346.713 -1614 35 34 45
-314.916 -346.404 -1613 34 33 44
-310.963 -345.667 -1610 255 0 0
-306.835 -344.717 -1606 255 0 0
-303.482 -344.627 -1606 255 0 0
-299.572 -343.894 -1603 255 0 0
-296.23 -343.806 -1603 255 0 0
-292.161 -342.861 -1599 121 123 139
-288.471 -342.347 -1597 129 133 150
-284.614 -341.619 -1594 129 133 150
-280.419 -340.464 -1589 123 128 145
-276.771 -339.954 -1587 126 131 148
-272.96 -339.23 -1584 126 131 148
-269.675 -339.15 -1584 131 136 153
-265.72 -338.215 -1580 128 133 150
-262.615 -338.351 -1581 133 138 155
-258.687 -337.419 -1577 133 139 156
-255.101 -336.915 -1575 133 139 156
-251.367 -336.199 -1572 126 132 149
-248.12 -336.126 -1572 123 129 146
-244.408 -335.412 -1569 117 123 140
-241.019 -335.127 -1568 117 123 140
-237.938 -335.271 -1569 255 0 0
-234.257 -334.56 -1566 255 0 0
-230.443 -333.638 -1562 255 0 0
-226.938 -333.144 -1560 255 0 0
-223.157 -332.224 -1556 255 0 0
-219.677 -331.732 -1554 124 130 147
-216.067 -331.028 -1551 124 130 147
-212.609 -330.538 -1549 124 130 147
-209.431 -330.476 -1549 120 126 143
-206.521 -330.842 -1551 118 124 141
-203.736 -331.422 -1554 114 120 137
-200.553 -331.363 -1554 124 130 147
-197.372 -331.305 -1554 125 131 148
-194.318 -331.461 -1555 122 128 145
-190.646 -330.552 -1551 122 127 144
-187.597 -330.71 -1552 123 128 143
-184.664 -331.082 -1554 120 125 140
-181.257 -330.603 -1552 123 128 143
-178.205 -330.763 -1553 121 126 142
-174.698 -330.073 -1550 113 118 135
-171.427 -329.81 -1549 122 127 144
-168.27 -329.76 -1549 119 124 141
-164.902 -329.286 -1547 126 131 148
-161.542 -328.813 -1545 125 130 147
-158.398 -328.766 -1545 126 130 147
-155.355 -328.933 -1546 126 131 148
-152.703 -329.952 -1551 132 137 154
-149.743 -330.334 -1553 128 133 150
-146.776 -330.716 -1555 126 131 148
-143.617 -330.674 -1555 121 126 143
-140.459 -330.633 -1555 124 129 146
-137.215 -330.38 -1554 131 136 153
-134.148 -330.553 -1555 130 135 152
-131.331 -331.365 -1559 127 133 150
-128.334 -331.752 -1561 127 133 150
-125.731 -333.203 -1568 120 126 143
-122.632 -333.379 -1569 122 127 144
-119.835 -334.407 -1574 124 129 146
-116.87 -335.01 -1577 125 130 147
-113.822 -335.401 -1579 125 133 150
-110.626 -335.369 -1579 127 135 152
-107.567 -335.762 -1581 133 139 156
-104.502 -336.156 -1583 135 140 157
-101.301 -336.126 -1583 139 144 161
-98.4103 -337.159 -1588 141 146 163
-95.3208 -337.555 -1590 255 0 0
-92.2818 -338.165 -1593 255 0 0
-89.2315 -338.775 -1596 255 0 0
-86.0082 -338.75 -1596 255 0 0
-82.9932 -339.575 -1600 255 0 0
-79.8629 -339.976 -1602 255 0 0
-76.7729 -340.59 -1605 149 151 169
-73.7632 -341.629 -1610 146 148 166
-70.6464 -342.245 -1613 144 146 164
-67.5179 -342.861 -1616 143 145 163
-64.3779 -343.479 -1619 145 147 165
-61.2642 -344.309 -1623 145 147 165
-58.099 -344.928 -1626 146 148 166
-54.9897 -345.972 -1631 255 0 0
-51.8289 -346.806 -1635 255 0 0
-48.6229 -347.427 -1638 255 0 0
-45.3773 -347.838 -1640 255 0 0
-42.1242 -348.25 -1642 255 0 0
-38.887 -348.874 -1645 255 0 0
-35.6597 -349.712 -1649 57 56 73
-32.4556 -350.974 -1655 53 52 66
-29.1221 -350.965 -1655 50 49 64
-25.8357 -351.594 -1658 49 47 64
-22.4967 -351.587 -1658 49 48 62
-19.1809 -352.005 -1660 54 53 67
-15.8382 -352 -1660 62 61 75
-12.5257 -352.844 -1664 66 65 82
-9.19167 -353.477 -1667 64 62 81
-5.84913 -354.323 -1671 68 66 83
-2.48905 -354.958 -1674 69 67 85
0.883624 -355.806 -1678 68 66 85
4.28257 -357.503 -1686 71 69 86
7.68645 -357.929 -1688 71 69 86
11.1247 -359.204 -1694 66 64 82
14.5786 -360.268 -1699 63 61 78
18.1058 -362.393 -1709 71 69 86
-394.266 -362.151 -1660 70 72 83
-389.084 -360.506 -1653 66 68 79
-384.401 -359.299 -1648 64 65 76
-380.205 -358.529 -1645 66 65 77
-375.797 -357.543 -1641 61 60 71
-371.862 -356.995 -1639 60 60 71
-367.265 -355.794 -1634 66 65 77
-362.915 -354.813 -1630 64 64 76
-359.687 -354.922 -1631 59 59 71
-354.93 -353.509 -1625 54 53 66
-351.066 -352.968 -1623 54 50 65
-346.786 -351.993 -1619 50 48 60
-343.374 -351.889 -1619 46 45 55
-339.125 -350.917 -1615 42 40 51
-335.935 -351.033 -1616 39 37 49
-331.92 -350.281 -1613 40 37 51
-328.736 -350.399 -1614 39 38 48
-325.551 -350.518 -1615 39 38 48
-322.164 -350.421 -1615 37 34 45
-318.583 -350.108 -1614 35 34 44
-315.205 -350.014 -1614 33 32 43
-311.442 -349.486 -1612 36 33 46
-307.5 -348.743 -1609 255 0 0
-303.573 -348.002 -1606 255 0 0
-299.474 -347.045 -1602 255 0 0
-295.948 -346.74 -1601 255 0 0
-291.882 -345.786 -1597 255 0 0
-288.738 -345.916 -1598 92 94 110
-285.056 -345.397 -1596 111 114 129
-281.562 -345.097 -1595 121 123 139
-277.899 -344.581 -1593 124 126 142
-274.075 -343.849 -1590 128 130 146
-270.607 -343.552 -1589 132 134 150
-266.808 -342.824 -1586 128 131 147
-263.357 -342.529 -1585 130 132 149
-259.419 -341.587 -1581 129 134 149
-256.149 -341.51 -1581 129 133 149
-252.241 -340.571 -1577 124 129 144
-249.141 -340.712 -1578 123 128 144
-245.727 -340.423 -1577 124 129 144
-242.473 -340.351 -1577 255 0 0
-239.07 -340.064 -1576 255 0 0
-235.673 -339.777 -1575 255 0 0
-231.692 -338.63 -1570 255 0 0
-228.169 -338.13 -1568 255 0 0
-224.657 -337.632 -1566 123 128 144
-221.297 -337.351 -1565 119 125 141
-217.803 -336.855 -1563 121 126 142
-214.181 -336.144 -1560 130 135 152
-211.251 -336.512 -1562 121 127 143
-208.047 -336.451 -1562 116 121 136
-205.107 -336.82 -1564 116 122 137
-201.903 -336.76 -1564 127 132 148
-198.828 -336.916 -1565 125 130 146
-195.875 -337.289 -1567 122 126 143
-192.546 -337.016 -1566 122 126 143
-189.345 -336.96 -1566 123 127 142
-186.026 -336.689 -1565 122 127 142
-183.063 -337.065 -1567 121 126 141
-179.864 -337.012 -1567 123 127 144
-176.441 -336.53 -1565 119 123 141
-173.027 -336.048 -1563 126 128 145
-169.732 -335.783 -1562 118 121 138
-166.123 -334.874 -1558 123 125 143
-163.054 -335.04 -1559 127 132 147
-160.085 -335.422 -1561 131 136 151
-157.008 -335.591 -1562 123 128 143
-154.028 -335.975 -1564 126 130 147
-150.944 -336.145 -1565 131 136 154
-147.952 -336.53 -1567 136 139 158
-144.398 -335.628 -1563 136 139 158
-141.223 -335.587 -1563 136 139 157
-137.873 -335.116 -1561 140 143 161
-134.791 -335.291 -1562 138 141 159
-132.043 -336.325 -1567 134 139 156
-129.194 -337.145 -1571 132 137 153
-126.33 -337.966 -1575 121 126 142
-123.372 -338.573 -1578 124 127 145
-120.403 -339.181 -1581 134 137 155
-117.423 -339.79 -1584 130 133 151
-114.215 -339.756 -1584 125 130 147
-111.219 -340.367 -1587 122 128 145
-108.075 -340.549 -1588 129 132 150
-105.06 -341.161 -1591 136 139 157
-101.906 -341.345 -1592 135 138 156
-98.8728 -341.959 -1595 138 139 157
-95.7683 -342.359 -1597 146 147 165
-92.7143 -342.975 -1600 255 0 0
-89.5372 -343.163 -1601 255 0 0
-86.4105 -343.566 -1603 255 0 0
-83.2248 -343.755 -1604 255 0 0
-80.1353 -344.374 -1607 255 0 0
-76.9866 -344.78 -1609 255 0 0
-73.968 -345.829 -1614 255 0 0
-70.8859 -346.665 -1618 255 0 0
-67.7465 -347.288 -1621 255 0 0
-64.5557 -347.697 -1623 255 0 0
-61.3575 -348.107 -1625 255 0 0
-58.1874 -348.732 -1628 255 0 0
-55.0056 -349.358 -1631 255 0 0
-51.8757 -350.414 -1636 255 0 0
-48.6073 -350.613 -1637 255 0 0
-45.4182 -351.456 -1641 255 0 0
-42.1621 -351.872 -1643 255 0 0
-38.9929 -353.145 -1649 56 55 72
-35.7132 -353.562 -1651 55 53 71
-32.5043 -354.837 -1657 51 49 66
-29.1482 -354.614 -1656 50 48 65
-25.8276 -354.82 -1657 48 46 64
-22.4895 -354.813 -1657 48 47 62
-19.1749 -355.236 -1659 60 59 74
-15.8427 -355.444 -1660 66 65 81
-12.5293 -356.297 -1664 68 66 84
-9.19437 -356.936 -1667 69 67 86
-5.84722 -357.576 -1670 70 68 86
-2.48525 -357.789 -1671 69 67 85
0.882305 -358.645 -1675 66 64 83
4.27106 -359.931 -1681 66 64 82
7.67036 -360.575 -1684 70 68 86
11.1017 -361.862 -1690 71 69 86
14.5399 -362.723 -1694 70 68 85
18.0686 -365.083 -1705 70 68 85
21.566 -366.159 -1710 68 68 83
-394.386 -365.668 -1660 71 75 86
-389.437 -364.227 -1654 71 74 85
-385.451 -363.668 -1652 65 66 80
-380.321 -362.01 -1645 63 64 78
-376.14 -361.235 -1642 57 58 72
-371.521 -360.021 -1637 59 60 72
-367.376 -359.249 -1634 64 65 77
-362.579 -357.819 -1628 65 66 78
-359.355 -357.928 -1629 62 63 75
-355.037 -356.941 -1625 59 60 72
-351.173 -356.394 -1623 57 58 70
-346.891 -355.41 -1619 55 56 68
-343.477 -355.305 -1619 54 55 67
-339.017 -354.105 -1614 49 50 62
-335.828 -354.222 -1615 43 43 55
-332.02 -353.682 -1613 42 41 53
-329.039 -354.02 -1615 38 37 49
-325.447 -353.702 -1614 36 35 47
-322.261 -353.823 -1615 35 34 45
-318.679 -353.507 -1614 35 34 46
-315.299 -353.411 -1614 35 34 46
-311.536 -352.879 -1612 37 36 48
-307.592 -352.129 -1609 36 36 47
-304.042 -351.817 -1608 34 35 45
-299.564 -350.414 -1602 255 0 0
-295.852 -349.887 -1600 255 0 0
-291.969 -349.142 -1597 255 0 0
-288.643 -349.055 -1597 255 0 0
-285.141 -348.75 -1596 255 0 0
-281.999 -348.883 -1597 255 0 0
-278.157 -348.143 -1594 72 70 82
-274.502 -347.623 -1592 96 95 107
-270.858 -347.105 -1590 113 113 125
-266.888 -346.151 -1586 121 121 134
-263.768 -346.289 -1587 129 130 144
-260.153 -345.774 -1585 128 129 143
-256.712 -345.479 -1584 131 132 146
-253.116 -344.966 -1582 255 0 0
-250.005 -345.109 -1583 255 0 0
-246.58 -344.817 -1582 255 0 0
-243.007 -344.307 -1580 255 0 0
-239.596 -344.017 -1579 255 0 0
-236.042 -343.51 -1577 255 0 0
-232.499 -343.005 -1575 128 130 145
-228.819 -342.282 -1572 127 129 145
-225.585 -342.215 -1572 125 127 143
-222.07 -341.712 -1570 125 127 143
-219.122 -342.082 -1572 119 121 137
-215.618 -341.582 -1570 119 121 139
-212.531 -341.735 -1571 122 124 141
-209.175 -341.455 -1570 117 120 133
-206.087 -341.61 -1571 113 116 129
-202.738 -341.332 -1570 114 117 131
-199.649 -341.49 -1571 120 122 138
-196.433 -341.431 -1571 119 121 138
-193.341 -341.59 -1572 119 121 139
-190.126 -341.533 -1572 120 122 138
-187.032 -341.694 -1573 124 126 142
-183.701 -341.422 -1572 123 125 141
-180.491 -341.368 -1572 123 125 142
-177.17 -341.097 -1571 119 121 139
-173.964 -341.045 -1571 119 120 136
-170.435 -340.343 -1568 118 119 136
-167.345 -340.51 -1569 119 120 138
-164.148 -340.46 -1569 117 121 135
-161.055 -340.629 -1570 125 129 142
-157.759 -340.365 -1569 123 126 139
-154.664 -340.535 -1570 125 128 146
-151.664 -340.924 -1572 123 127 147
-148.278 -340.446 -1570 128 130 149
-144.903 -339.969 -1568 133 135 154
-141.626 -339.709 -1567 136 138 155
-138.444 -339.668 -1567 137 139 157
-135.435 -340.061 -1569 131 133 151
-132.588 -340.888 -1573 121 123 138
-129.726 -341.716 -1577 126 128 143
-126.768 -342.328 -1580 125 127 143
-123.799 -342.941 -1583 127 129 147
-120.819 -343.555 -1586 134 136 154
-117.754 -343.953 -1588 137 138 156
-114.537 -343.918 -1588 133 134 151
-111.532 -344.535 -1591 136 137 155
-108.447 -344.935 -1593 138 139 157
-105.355 -345.337 -1595 140 141 160
-102.192 -345.522 -1596 146 147 167
-99.0879 -345.926 -1598 153 151 170
-96.0363 -346.546 -1601 152 150 168
-92.9734 -347.168 -1604 147 148 164
-89.7872 -347.357 -1605 255 0 0
-86.7056 -347.98 -1608 255 0 0
-83.4568 -347.955 -1608 255 0 0
-80.3085 -348.364 -1610 255 0 0
-77.1528 -348.773 -1612 255 0 0
-74.0813 -349.616 -1616 255 0 0
-70.9505 -350.244 -1619 255 0 0
-67.8081 -350.873 -1622 255 0 0
-64.6144 -351.286 -1624 255 0 0
-61.3754 -351.484 -1625 255 0 0
-58.2045 -352.115 -1628 255 0 0
-54.9881 -352.531 -1630 255 0 0
-51.8275 -353.38 -1634 255 0 0
-48.5621 -353.581 -1635 255 0 0
-45.4038 -354.649 -1640 255 0 0
-42.1488 -355.069 -1642 50 49 61
-38.9806 -356.354 -1648 51 49 66
-35.7237 -356.992 -1651 50 48 67
-32.4941 -358.063 -1656 51 49 68
-29.1391 -357.838 -1655 53 51 70
-25.8351 -358.262 -1657 55 53 72
-22.5233 -358.687 -1659 57 55 72
-19.2152 -359.33 -1662 64 62 79
-15.876 -359.541 -1663 67 65 82
-12.548 -360.185 -1666 69 67 85
-9.20242 -360.614 -1668 70 68 87
-5.84902 -361.045 -1670 68 66 85
-2.48592 -361.259 -1671 66 64 83
0.882042 -361.908 -1674 64 62 81
4.26718 -362.99 -1679 65 63 82
7.67271 -364.072 -1684 70 68 86
11.1245 -366.021 -1693 70 68 86
14.57 -366.89 -1697 69 67 84
18.1268 -369.705 -1710 72 70 87
21.6607 -371.224 -1717 66 67 81
-394.745 -369.41 -1661 69 73 84
-389.557 -367.733 -1654 67 70 81
-385.336 -366.946 -1651 60 61 73
-379.512 -364.606 -1641 58 59 72
-375.338 -363.823 -1638 50 51 65
-371.407 -363.264 -1636 54 55 67
-367.039 -362.263 -1632 62 63 75
-362.69 -361.263 -1628 63 64 76
-359.465 -361.374 -1629 62 63 75
-355.146 -360.377 -1625 59 60 72
-351.28 -359.825 -1623 59 59 71
-347.211 -359.052 -1620 56 57 69
-343.37 -358.503 -1618 57 58 70
-338.91 -357.291 -1613 56 57 69
-335.93 -357.631 -1615 47 47 59
-332.121 -357.085 -1613 41 41 53
-329.139 -357.427 -1615 37 36 48
-325.748 -357.327 -1615 37 36 48
-322.359 -357.228 -1615 37 36 48
-318.776 -356.909 -1614 37 36 48
-315.395 -356.812 -1614 37 36 48
-311.437 -356.053 -1611 38 37 49
-307.494 -355.296 -1608 39 38 49
-303.567 -354.54 -1605 40 39 49
-299.467 -353.565 -1601 40 39 47
-295.572 -352.812 -1598 255 0 0
-291.875 -352.281 -1596 255 0 0
-288.731 -352.413 -1597 255 0 0
-285.406 -352.326 -1597 255 0 0
-282.084 -352.24 -1597 255 0 0
-278.416 -351.713 -1595 255 0 0
-274.758 -351.188 -1593 255 0 0
-271.11 -350.665 -1591 255 0 0
-267.474 -350.142 -1589 255 0 0
-264.014 -349.841 -1588 255 0 0
-260.396 -349.321 -1586 255 0 0
-256.951 -349.023 -1585 255 0 0
-253.352 -348.505 -1583 255 0 0
-250.238 -348.649 -1584 255 0 0
-246.81 -348.354 -1583 255 0 0
-243.388 -348.06 -1582 255 0 0
-240.124 -347.986 -1582 255 0 0
-236.562 -347.475 -1580 114 117 128
-232.716 -346.524 -1576 121 124 139
-229.179 -346.015 -1574 126 128 144
-225.796 -345.726 -1573 131 133 149
-222.561 -345.659 -1573 133 135 151
-219.466 -345.812 -1574 129 131 147
-216.233 -345.746 -1574 123 125 142
-213.001 -345.681 -1574 120 122 138
-209.77 -345.618 -1574 114 117 130
-206.673 -345.774 -1575 114 116 131
-203.315 -345.493 -1574 117 119 135
-200.217 -345.652 -1575 118 120 136
-196.992 -345.592 -1575 116 118 135
-193.768 -345.534 -1575 121 123 140
-190.546 -345.476 -1575 127 129 144
-187.326 -345.419 -1575 130 132 147
-184.224 -345.582 -1576 125 127 143
-181.004 -345.528 -1576 120 122 139
-177.674 -345.255 -1575 117 119 137
-174.57 -345.421 -1576 112 113 128
-171.138 -344.931 -1574 125 126 142
-167.822 -344.661 -1573 127 128 145
-164.72 -344.83 -1574 116 120 134
-161.514 -344.781 -1574 117 122 135
-158.409 -344.952 -1575 127 130 143
-155.203 -344.905 -1575 127 132 148
-151.998 -344.859 -1575 119 124 142
-148.606 -344.376 -1573 123 125 143
-145.316 -344.114 -1572 131 133 151
-142.301 -344.508 -1574 134 136 153
-139.015 -344.247 -1573 139 141 158
-136.08 -344.863 -1576 136 138 155
-133.049 -345.26 -1578 125 127 142
-130.093 -345.877 -1581 126 128 143
-127.046 -346.276 -1583 128 130 146
-124.071 -346.895 -1586 128 130 148
-120.931 -347.077 -1587 126 128 146
-117.863 -347.479 -1589 125 126 144
-114.716 -347.663 -1590 122 123 140
-111.635 -348.066 -1592 125 126 142
-108.548 -348.471 -1594 120 121 138
-105.387 -348.657 -1595 112 111 130
-102.287 -349.064 -1597 109 107 127
-99.1794 -349.471 -1599 106 104 122
-96.1249 -350.097 -1602 101 100 117
-93.0009 -350.506 -1604 91 92 108
-89.9258 -351.134 -1607 86 87 103
-86.7313 -351.326 -1608 74 75 91
-83.6373 -351.956 -1611 71 72 88
-80.3822 -351.932 -1611 65 66 82
-77.1756 -352.127 -1612 255 0 0
-74.1492 -353.197 -1617 255 0 0
-71.0153 -353.83 -1620 255 0 0
-67.8282 -354.246 -1622 255 0 0
-64.6734 -354.882 -1625 255 0 0
-61.4692 -355.3 -1627 255 0 0
-58.2217 -355.501 -1628 255 0 0
-55.0043 -355.92 -1630 255 0 0
-51.8746 -356.996 -1635 44 42 63
-48.5765 -356.981 -1635 51 49 67
-45.445 -358.277 -1641 51 49 67
-42.1869 -358.701 -1643 52 51 64
-39.0632 -360.435 -1651 52 51 68
-35.7559 -360.643 -1652 52 50 69
-32.5234 -361.724 -1657 51 49 68
-29.1654 -361.496 -1656 55 53 72
-25.8584 -361.925 -1658 58 56 75
-22.5436 -362.354 -1660 60 58 75
-19.2208 -362.785 -1662 65 63 80
-15.8806 -362.998 -1663 66 64 81
-12.5442 -363.43 -1665 69 67 85
-9.19413 -363.645 -1666 71 69 88
-5.84363 -364.08 -1668 69 67 86
-2.48233 -364.078 -1668 68 66 85
0.880727 -364.733 -1671 67 65 84
4.26351 -366.043 -1677 68 66 85
7.67052 -367.355 -1683 70 68 87
11.1016 -368.667 -1689 69 67 86
14.5742 -370.417 -1697 69 67 85
18.1005 -372.605 -1707 71 70 86
21.5915 -373.484 -1711 70 71 86
-394.154 -372.262 -1658 70 74 85
-389.207 -370.793 -1652 65 68 79
-384.988 -369.999 -1649 58 59 71
-379.63 -368.085 -1641 55 56 69
-375.455 -367.295 -1638 49 50 64
-371.068 -366.282 -1634 55 56 68
-366.927 -365.495 -1631 61 62 74
-362.356 -364.262 -1626 63 64 76
-359.134 -364.374 -1627 62 63 75
-354.818 -363.367 -1623 58 59 71
-350.522 -362.363 -1619 58 57 69
-346.675 -361.807 -1617 56 56 68
-342.839 -361.253 -1615 56 57 69
-338.594 -360.253 -1611 57 58 70
-335.409 -360.372 -1612 51 52 64
-332.018 -360.269 -1612 46 47 59
-329.036 -360.614 -1614 42 42 54
-325.646 -360.513 -1614 40 39 51
-322.259 -360.413 -1614 40 39 51
-318.676 -360.09 -1613 40 39 51
-315.297 -359.993 -1613 40 39 51
-311.339 -359.227 -1610 39 38 50
-307.397 -358.462 -1607 40 39 50
-303.471 -357.699 -1604 41 40 51
-299.372 -356.714 -1600 40 39 47
-295.662 -356.177 -1598 40 39 48
-291.964 -355.641 -1596 255 0 0
-288.819 -355.775 -1597 255 0 0
-285.493 -355.686 -1597 255 0 0
-281.994 -355.377 -1596 255 0 0
-278.151 -354.623 -1593 255 0 0
-274.496 -354.093 -1591 255 0 0
-270.682 -353.342 -1588 255 0 0
-267.05 -352.814 -1586 255 0 0
-263.762 -352.733 -1586 255 0 0
-260.475 -352.653 -1586 255 0 0
-257.191 -352.574 -1586 255 0 0
-253.75 -352.273 -1585 255 0 0
-250.472 -352.196 -1585 255 0 0
-247.041 -351.898 -1584 255 0 0
-243.462 -351.379 -1582 255 0 0
-240.045 -351.083 -1581 36 37 50
-236.485 -350.566 -1579 41 44 55
-232.787 -349.829 -1576 47 49 63
-229.54 -349.758 -1576 46 47 62
-226.295 -349.689 -1576 55 57 73
-222.911 -349.399 -1575 61 63 79
-219.812 -349.553 -1576 68 70 86
-216.573 -349.486 -1576 73 75 91
-213.471 -349.643 -1577 72 74 90
-210.1 -349.357 -1576 68 71 84
-206.867 -349.293 -1576 63 66 81
-203.506 -349.009 -1575 68 70 86
-200.278 -348.948 -1575 72 74 90
-196.926 -348.666 -1574 78 80 96
-193.827 -348.828 -1575 80 82 98
-190.483 -348.549 -1574 78 81 95
-187.263 -348.491 -1574 84 87 100
-184.045 -348.435 -1574 92 94 110
-180.944 -348.601 -1575 94 96 113
-177.727 -348.547 -1575 90 92 110
-174.623 -348.714 -1576 82 83 97
-171.298 -348.441 -1575 87 88 103
-168.086 -348.389 -1575 91 92 108
-164.979 -348.56 -1576 88 92 106
-161.665 -348.289 -1575 86 90 103
-158.457 -348.241 -1575 98 101 114
-155.25 -348.194 -1575 94 98 112
-151.948 -347.926 -1574 78 82 97
-148.651 -347.66 -1573 74 76 93
-145.544 -347.836 -1574 75 76 92
-142.435 -348.014 -1575 74 75 90
-139.322 -348.192 -1576 75 77 93
-136.553 -349.255 -1581 75 77 92
-133.342 -349.214 -1581 66 69 82
-130.379 -349.837 -1584 61 63 78
-127.245 -350.019 -1585 58 60 76
-124.186 -350.423 -1587 59 60 78
-120.968 -350.386 -1587 57 58 76
-117.824 -350.571 -1588 54 55 73
-114.75 -350.977 -1590 51 52 68
-111.669 -351.384 -1592 42 43 59
-108.512 -351.572 -1593 36 37 52
-105.418 -351.981 -1595 41 41 57
-102.381 -352.612 -1598 47 45 62
-99.209 -352.802 -1599 43 42 57
-96.1537 -353.434 -1602 40 39 54
-93.1449 -354.288 -1606 40 41 57
-90.0087 -354.702 -1608 42 43 59
-86.8112 -354.896 -1609 39 40 56
-83.7143 -355.532 -1612 44 45 61
-80.4562 -355.507 -1612 44 45 61
-77.2946 -355.925 -1614 42 43 60
-74.1713 -356.563 -1617 37 38 56
-71.0366 -357.203 -1620 39 40 58
-67.8485 -357.623 -1622 41 42 59
-64.6927 -358.265 -1625 44 43 62
-61.4498 -358.466 -1626 44 42 61
-58.2033 -358.669 -1627 45 43 64
-54.987 -359.093 -1629 43 41 62
-51.7631 -359.517 -1631 46 44 65
-48.5019 -359.723 -1632 53 51 70
-45.4031 -361.252 -1639 49 47 65
-42.2509 -362.561 -1645 51 50 64
-39.0274 -363.43 -1649 53 51 69
-35.7665 -364.08 -1652 55 53 72
-32.5332 -365.172 -1657 53 51 70
-29.1741 -364.942 -1656 57 55 74
-25.8505 -365.154 -1657 59 57 76
-22.5503 -365.808 -1660 58 56 73
-19.215 -366.022 -1661 64 62 79
-15.8854 -366.458 -1663 64 62 80
-12.5404 -366.674 -1664 66 64 83
-9.19139 -366.891 -1665 66 64 83
-5.84195 -367.33 -1667 65 63 82
-2.48301 -367.549 -1668 70 68 87
0.881522 -368.43 -1672 72 70 89
4.26219 -369.312 -1676 70 68 87
7.6727 -370.856 -1683 71 69 88
11.1246 -372.842 -1692 70 68 87
14.5872 -374.168 -1698 72 70 88
18.1377 -376.818 -1710 71 69 87
21.6359 -377.705 -1714 69 70 86
-394.753 -376.238 -1660 69 73 84
-388.621 -373.622 -1649 65 68 79
-384.642 -373.047 -1647 63 64 76
-379.98 -371.794 -1642 56 57 70
-375.113 -370.318 -1636 52 53 67
-371.639 -370.2 -1636 59 60 72
-367.267 -369.179 -1632 62 63 75
-363.138 -368.386 -1629 65 66 78
-359.246 -367.821 -1627 65 66 78
-355.148 -367.031 -1624 62 63 75
-350.415 -365.565 -1618 57 58 70
-346.139 -364.552 -1614 57 58 70
-342.309 -363.993 -1612 56 57 69
-338.279 -363.209 -1609 56 57 69
-335.097 -363.33 -1610 52 53 65
-331.709 -363.225 -1610 48 49 61
-328.731 -363.574 -1612 49 48 60
-325.343 -363.472 -1612 45 44 56
-322.159 -363.596 -1613 43 42 54
-318.577 -363.271 -1612 42 41 53
-315.003 -362.947 -1611 43 42 54
-311.049 -362.174 -1608 43 42 54
-307.301 -361.627 -1606 42 41 53
-303.186 -360.632 -1602 43 42 54
-299.09 -359.638 -1598 44 43 51
-295.384 -359.096 -1596 44 43 51
-291.871 -358.779 -1595 40 39 51
-288.727 -358.914 -1596 40 39 51
-285.403 -358.825 -1596 42 41 53
-282.081 -358.737 -1596 39 38 52
-278.237 -357.976 -1593 255 0 0
-274.753 -357.666 -1592 255 0 0
-271.106 -357.132 -1590 255 0 0
-267.469 -356.6 -1588 255 0 0
-264.009 -356.293 -1587 255 0 0
-260.72 -356.212 -1587 255 0 0
-257.108 -355.683 -1585 255 0 0
-253.828 -355.604 -1585 255 0 0
-250.391 -355.302 -1584 34 35 49
-246.961 -355.001 -1583 31 32 46
-243.536 -354.701 -1582 30 31 45
-239.967 -354.178 -1580 32 33 47
-236.857 -354.329 -1581 30 32 43
-233.006 -353.36 -1577 32 33 47
-229.61 -353.065 -1576 33 34 48
-226.365 -352.995 -1576 29 31 47
-223.121 -352.926 -1576 31 33 49
-219.879 -352.858 -1576 31 33 49
-216.777 -353.014 -1577 30 32 48
-213.401 -352.725 -1576 34 36 51
-210.031 -352.436 -1575 34 37 50
-206.799 -352.372 -1575 32 35 48
-203.439 -352.085 -1574 29 32 45
-200.212 -352.023 -1574 31 33 49
-196.986 -351.962 -1574 32 34 50
-193.763 -351.902 -1574 33 35 51
-190.541 -351.843 -1574 33 36 50
-187.32 -351.786 -1574 32 35 48
-184.102 -351.729 -1574 33 35 51
-180.999 -351.896 -1575 35 37 53
-177.894 -352.065 -1576 34 36 52
-174.676 -352.011 -1576 35 36 50
-171.459 -351.958 -1576 31 32 47
-168.137 -351.683 -1575 31 32 48
-165.134 -352.078 -1577 29 32 45
-161.817 -351.805 -1576 27 30 43
-158.706 -351.979 -1577 49 52 65
-155.396 -351.708 -1576 44 47 60
-152.09 -351.438 -1575 26 29 42
-148.98 -351.615 -1576 25 28 41
-145.588 -351.124 -1574 29 31 44
-142.749 -351.972 -1578 35 36 50
-139.718 -352.375 -1580 37 40 53
-136.767 -353.002 -1583 31 34 47
-133.551 -352.961 -1583 31 34 47
-130.583 -353.59 -1586 30 32 47
-127.284 -353.327 -1585 31 33 49
-124.145 -353.512 -1586 33 34 52
-120.852 -353.252 -1585 35 36 54
-117.786 -353.661 -1587 33 34 52
-114.64 -353.849 -1588 32 33 48
-111.632 -354.483 -1591 33 34 48
-108.545 -354.895 -1593 36 37 51
-105.45 -355.308 -1595 40 40 54
-102.476 -356.167 -1599 44 43 57
-99.3632 -356.582 -1601 43 42 56
-96.3028 -357.22 -1604 41 41 55
-93.2311 -357.86 -1607 42 42 58
-90.0919 -358.277 -1609 44 45 61
-86.8374 -358.25 -1609 40 41 57
-83.6877 -358.669 -1611 45 46 62
-80.4805 -358.867 -1612 45 45 62
-77.3658 -359.511 -1615 44 45 63
-74.1937 -359.933 -1617 41 42 60
-71.058 -360.579 -1620 43 44 62
-67.9527 -361.448 -1624 46 47 65
-64.7521 -361.873 -1626 47 46 65
-61.4683 -361.854 -1626 45 43 62
-58.2567 -362.281 -1628 46 44 65
-55.0036 -362.486 -1629 45 43 64
-51.7787 -362.915 -1631 47 45 66
-48.5462 -363.345 -1633 52 50 69
-45.4168 -364.666 -1639 46 45 63
-42.1866 -365.32 -1642 50 49 64
-38.9682 -366.197 -1646 54 53 72
-35.7557 -367.298 -1651 54 52 73
-32.5233 -368.4 -1656 58 56 75
-29.2005 -368.613 -1657 62 60 79
-25.8739 -368.828 -1658 61 59 79
-22.5707 -369.488 -1661 59 57 74
-19.2208 -369.481 -1661 64 62 80
-15.8902 -369.921 -1663 65 63 82
-12.5441 -370.139 -1664 65 63 82
-9.19418 -370.358 -1665 64 62 81
-5.84359 -370.801 -1667 63 61 80
-2.48221 -370.8 -1667 67 65 84
0.881265 -371.689 -1671 69 67 86
4.26108 -372.58 -1675 69 67 86
7.67967 -374.583 -1684 71 69 88
11.1149 -375.921 -1690 70 68 87
14.6089 -378.149 -1700 66 64 83
18.1326 -380.156 -1709 70 68 87
21.6675 -381.719 -1716 69 69 85
-393.451 -378.395 -1654 69 74 84
-388.509 -376.898 -1648 62 65 76
-384.062 -375.861 -1644 58 59 71
-379.405 -374.597 -1639 55 56 69
-374.773 -373.335 -1634 51 52 66
-371.074 -372.988 -1633 58 59 71
-367.158 -372.414 -1631 59 60 72
-363.03 -371.614 -1628 59 60 72
-358.697 -370.587 -1624 59 60 72
-354.822 -370.017 -1622 59 60 72
-350.092 -368.537 -1616 57 60 71
-345.819 -367.516 -1612 57 59 70
-341.991 -366.951 -1610 56 57 69
-338.175 -366.388 -1608 54 55 67
-335.203 -366.737 -1610 49 49 61
-332.019 -366.86 -1611 45 45 57
-329.038 -367.211 -1613 48 47 59
-325.445 -366.88 -1612 49 48 60
-322.06 -366.779 -1612 48 47 59
-318.677 -366.678 -1612 47 46 58
-315.102 -366.351 -1611 47 46 58
-311.146 -365.57 -1608 46 45 57
-307.397 -365.019 -1606 45 45 57
-303.281 -364.014 -1602 43 44 56
-299.183 -363.011 -1598 42 42 52
-295.476 -362.463 -1596 42 42 51
-292.145 -362.371 -1596 41 40 52
-288.817 -362.28 -1596 42 41 53
-285.492 -362.19 -1596 41 40 52
-282.168 -362.101 -1596 41 40 53
-278.149 -361.106 -1592 41 40 53
-274.839 -361.02 -1592 41 40 52
-271.19 -360.481 -1590 40 40 52
-267.889 -360.397 -1590 40 40 53
-264.257 -359.86 -1588 40 40 54
-261.129 -360.005 -1589 39 40 54
-257.513 -359.471 -1587 36 37 51
-254.066 -359.165 -1586 36 37 51
-250.785 -359.086 -1586 39 40 54
-247.349 -358.782 -1585 37 38 52
-243.612 -358.027 -1582 33 34 48
-240.041 -357.499 -1580 31 32 45
-236.78 -357.425 -1580 29 30 42
-233.226 -356.899 -1578 34 35 49
-229.973 -356.827 -1578 40 41 55
-226.722 -356.756 -1578 36 37 52
-223.332 -356.46 -1577 35 36 51
-219.947 -356.166 -1576 34 35 50
-216.706 -356.098 -1576 32 33 49
-213.467 -356.031 -1576 35 36 52
-210.096 -355.74 -1575 35 36 50
-206.863 -355.675 -1575 33 34 48
-203.372 -355.16 -1573 31 32 46
-200.146 -355.097 -1573 34 35 50
-196.797 -354.81 -1572 33 34 49
-193.822 -355.201 -1574 30 31 47
-190.357 -354.69 -1572 31 32 46
-187.14 -354.632 -1572 31 32 46
-183.924 -354.574 -1572 31 32 48
-180.825 -354.744 -1573 32 33 49
-177.836 -355.139 -1575 30 31 47
-174.619 -355.085 -1575 32 33 47
-171.403 -355.031 -1575 31 32 46
-168.188 -354.979 -1575 32 32 48
-165.08 -355.153 -1576 32 34 48
-161.661 -354.652 -1574 27 30 42
-158.453 -354.602 -1574 29 32 44
-155.049 -354.104 -1572 30 33 45
-151.847 -354.056 -1572 27 30 42
-148.647 -354.01 -1572 29 30 42
-145.448 -353.965 -1572 30 31 43
-142.703 -355.046 -1577 35 36 48
-139.761 -355.678 -1580 37 38 49
-136.809 -356.31 -1583 33 35 46
-133.592 -356.269 -1583 32 33 47
-130.624 -356.903 -1586 33 34 49
-127.242 -356.414 -1584 35 36 52
-124.105 -356.6 -1585 36 37 55
-120.889 -356.562 -1585 35 36 53
-117.896 -357.201 -1588 36 37 53
-114.675 -357.165 -1588 38 39 53
-111.737 -358.03 -1592 38 39 52
-108.646 -358.445 -1594 38 39 51
-105.615 -359.087 -1597 39 39 52
-102.444 -359.28 -1598 42 41 53
-99.4557 -360.148 -1602 45 44 56
-96.3322 -360.568 -1604 46 45 58
-93.2595 -361.213 -1607 44 43 59
-90.1194 -361.634 -1609 44 44 61
-86.9719 -362.057 -1611 42 41 59
-83.8171 -362.48 -1613 49 48 64
-80.6049 -362.68 -1614 49 48 66
-77.4852 -363.329 -1617 49 48 67
-74.3082 -363.756 -1619 48 49 67
-71.0798 -363.958 -1620 49 50 68
-67.8897 -364.386 -1622 51 52 70
-64.732 -365.04 -1625 52 51 69
-61.4871 -365.245 -1626 46 44 63
-58.2028 -365.226 -1626 45 43 64
-55.0204 -365.883 -1629 45 43 64
-51.7945 -366.316 -1631 49 47 68
-48.5609 -366.75 -1633 58 56 75
-45.3753 -367.634 -1637 50 48 67
-42.1994 -368.743 -1642 52 50 67
-38.98 -369.629 -1646 58 56 75
-35.7666 -370.74 -1651 58 56 77
-32.5135 -371.628 -1655 63 61 80
-29.2094 -372.068 -1657 64 62 82
-25.8973 -372.508 -1659 62 60 81
-22.5911 -373.175 -1662 58 56 75
-19.2382 -373.168 -1662 62 60 79
-15.8855 -373.163 -1662 63 61 80
-12.5328 -373.158 -1662 63 61 80
-9.18596 -373.38 -1663 64 62 81
-5.83493 -373.602 -1664 66 64 83
-2.48141 -374.05 -1666 69 67 86
0.88101 -374.948 -1670 70 68 87
4.26487 -376.295 -1676 69 67 86
7.66841 -377.42 -1681 70 68 87
11.1183 -379.443 -1690 70 68 87
14.6048 -381.468 -1699 66 64 83
18.1383 -383.718 -1709 70 68 87
-393.339 -381.685 -1653 65 69 80
-389.576 -381.328 -1652 58 61 72
-384.419 -379.589 -1645 55 56 68
-379.99 -378.543 -1641 55 56 69
-375.351 -377.269 -1636 53 54 68
-372.101 -377.38 -1637 58 59 71
-367.274 -375.879 -1631 59 60 72
-363.368 -375.301 -1629 57 58 70
-359.032 -374.264 -1625 57 58 70
-354.935 -373.459 -1622 57 58 70
-350.203 -371.966 -1616 56 59 70
-345.929 -370.934 -1612 57 59 70
-342.312 -370.594 -1611 54 55 67
-338.492 -370.026 -1609 50 51 63
-335.517 -370.378 -1611 48 48 60
-332.33 -370.502 -1612 46 46 58
-329.55 -371.086 -1615 47 46 58
-325.75 -370.523 -1613 51 50 62
-322.561 -370.649 -1614 53 52 64
-318.778 -370.088 -1612 53 52 64
-315.201 -369.758 -1611 52 51 63
-311.244 -368.97 -1608 50 49 61
-307.494 -368.413 -1606 47 47 59
-303.376 -367.399 -1602 46 48 59
-299.652 -366.845 -1600 47 48 59
-295.754 -366.063 -1597 48 49 59
-292.054 -365.512 -1595 43 43 55
-288.727 -365.42 -1595 42 41 53
-285.581 -365.558 -1596 41 40 52
-282.257 -365.468 -1596 40 39 50
-278.586 -364.922 -1594 40 39 51
-275.098 -364.605 -1593 42 41 53
-271.787 -364.519 -1593 42 43 55
-268.142 -363.977 -1591 42 43 56
-264.673 -363.664 -1590 42 43 57
-261.211 -363.352 -1589 42 43 56
-257.755 -363.042 -1588 40 41 54
-254.306 -362.733 -1587 37 38 51
-250.863 -362.425 -1586 39 39 53
-247.271 -361.889 -1584 40 41 54
-243.688 -361.355 -1582 37 38 51
-240.268 -361.051 -1581 35 36 49
-236.854 -360.748 -1580 34 35 47
-233.298 -360.217 -1578 37 38 51
-230.045 -360.145 -1578 40 41 54
-226.793 -360.073 -1578 39 40 53
-223.401 -359.774 -1577 35 36 49
-220.016 -359.477 -1576 35 35 49
-216.774 -359.408 -1576 35 35 51
-213.398 -359.113 -1575 36 36 52
-209.895 -358.591 -1573 37 38 51
-206.664 -358.525 -1573 34 35 49
-203.306 -358.233 -1572 35 35 49
-200.209 -358.398 -1573 37 38 51
-197.109 -358.564 -1574 38 39 53
-194.006 -358.73 -1575 35 35 51
-190.538 -358.215 -1573 34 35 49
-187.317 -358.156 -1573 36 36 50
-184.098 -358.098 -1573 35 35 51
-180.881 -358.041 -1573 34 34 50
-177.778 -358.213 -1574 34 35 50
-174.673 -358.385 -1575 33 33 47
-171.347 -358.104 -1574 33 33 48
-168.027 -357.823 -1573 33 31 48
-164.817 -357.771 -1573 32 33 47
-161.506 -357.493 -1572 29 31 44
-158.301 -357.443 -1572 28 30 41
-155.195 -357.622 -1573 27 29 40
-151.894 -357.347 -1572 27 29 40
-148.882 -357.754 -1574 31 32 44
-145.771 -357.936 -1575 35 36 48
-142.747 -358.346 -1577 37 38 48
-139.716 -358.756 -1579 37 38 48
-136.851 -359.622 -1583 36 36 46
-133.549 -359.353 -1582 34 35 49
-130.499 -359.766 -1584 33 34 49
-127.201 -359.499 -1583 36 37 53
-124.065 -359.687 -1584 39 39 58
-120.774 -359.422 -1583 40 39 57
-117.784 -360.066 -1586 41 41 57
-114.639 -360.257 -1587 40 40 54
-111.701 -361.13 -1591 41 41 53
-108.543 -361.322 -1592 41 41 53
-105.515 -361.97 -1595 42 41 53
-102.475 -362.619 -1598 43 42 54
-99.3622 -363.041 -1600 47 46 58
-96.2418 -363.465 -1602 50 49 62
-93.2883 -364.57 -1607 49 47 64
-90.1472 -364.995 -1609 50 48 66
-86.9988 -365.421 -1611 50 48 67
-83.843 -365.849 -1613 52 50 67
-80.6298 -366.05 -1614 51 49 67
-77.4132 -366.252 -1615 51 49 68
-74.2393 -366.682 -1617 50 49 68
-71.0578 -367.113 -1619 48 47 66
-67.8269 -367.318 -1620 51 51 69
-64.7121 -368.205 -1624 50 48 67
-61.4682 -368.412 -1625 48 46 66
-58.2207 -368.62 -1626 45 43 64
-55.0711 -369.509 -1630 43 41 62
-51.874 -370.173 -1633 52 50 71
-48.6355 -370.611 -1635 64 62 82
-45.3892 -371.05 -1637 58 56 76
-42.2124 -372.169 -1642 60 58 75
-38.9447 -372.61 -1644 64 62 82
-35.7776 -374.185 -1651 58 56 77
-32.5039 -374.855 -1654 63 61 80
-29.2184 -375.525 -1657 64 62 82
-25.8897 -375.743 -1658 60 58 79
-22.5709 -376.189 -1660 58 56 75
-19.2094 -375.956 -1659 58 56 75
-15.8712 -376.177 -1660 61 59 78
-12.5291 -376.399 -1661 65 63 82
-9.18307 -376.622 -1662 67 65 84
-5.84011 -377.3 -1665 69 67 86
-2.48211 -377.525 -1666 69 67 86
0.881812 -378.658 -1671 69 67 86
4.26358 -379.565 -1675 70 68 87
7.67064 -380.927 -1681 70 68 87
11.1151 -382.743 -1689 70 68 87
14.635 -385.693 -1702 71 69 88
18.1225 -386.831 -1707 67 65 84
21.6683 -388.65 -1715 69 67 84
-398.918 -387.199 -1661 71 76 87
-394.418 -386.138 -1657 66 70 81
-388.758 -383.915 -1648 61 64 75
-384.309 -382.858 -1644 58 59 71
-379.649 -381.57 -1639 55 56 69
-375.243 -380.517 -1635 55 56 70
-371.312 -379.931 -1633 59 60 73
-366.942 -378.881 -1629 60 61 73
-363.039 -378.298 -1627 60 61 73
-358.926 -377.484 -1624 60 61 73
-354.829 -376.672 -1621 57 58 70
-350.315 -375.397 -1616 56 59 70
-345.825 -374.123 -1611 56 58 69
-342.209 -373.781 -1610 52 53 65
-338.601 -373.439 -1609 48 49 61
-335.416 -373.563 -1610 46 47 59
-332.23 -373.688 -1611 46 47 59
-329.655 -374.509 -1615 49 48 60
-325.854 -373.94 -1613 53 52 64
-322.464 -373.836 -1613 57 56 68
-319.077 -373.733 -1613 56 55 67
-315.302 -373.168 -1611 54 53 65
-311.537 -372.605 -1609 54 53 65
-307.975 -372.274 -1608 51 51 63
-303.852 -371.25 -1604 48 51 62
-299.748 -370.228 -1600 51 52 62
-295.848 -369.439 -1597 53 54 64
-292.33 -369.114 -1596 46 47 61
-288.819 -368.789 -1595 44 44 57
-285.493 -368.698 -1595 43 42 54
-282.347 -368.838 -1596 41 40 50
-278.849 -368.518 -1595 41 40 51
-275.185 -367.968 -1593 42 41 53
-271.873 -367.88 -1593 40 41 53
-268.227 -367.333 -1591 37 38 50
-264.757 -367.017 -1590 40 41 55
-261.129 -366.472 -1588 43 42 55
-257.837 -366.389 -1588 43 42 55
-254.387 -366.077 -1587 40 39 52
-250.943 -365.766 -1586 41 41 53
-247.349 -365.226 -1584 43 42 54
-243.919 -364.918 -1583 40 39 51
-240.192 -364.149 -1580 39 38 50
-236.779 -363.843 -1579 37 38 50
-233.372 -363.538 -1578 36 37 49
-230.117 -363.465 -1578 38 39 51
-226.864 -363.393 -1578 41 40 52
-223.33 -362.861 -1576 40 39 52
-220.085 -362.791 -1576 39 38 52
-216.567 -362.261 -1574 38 37 52
-213.194 -361.963 -1573 39 38 52
-209.56 -361.206 -1570 40 39 51
-206.466 -361.37 -1571 40 39 52
-203.111 -361.076 -1570 42 41 55
-200.017 -361.242 -1571 43 42 55
-196.92 -361.409 -1572 41 40 53
-193.944 -361.807 -1574 39 39 53
-190.597 -361.517 -1573 38 38 52
-187.376 -361.457 -1573 39 38 52
-184.273 -361.628 -1574 39 38 52
-181.168 -361.801 -1575 40 39 53
-177.947 -361.744 -1575 40 40 54
-174.617 -361.459 -1574 37 36 50
-171.292 -361.175 -1573 37 36 51
-167.973 -360.892 -1572 38 36 53
-164.659 -360.61 -1571 38 38 51
-161.351 -360.329 -1570 34 35 47
-158.249 -360.508 -1571 32 33 45
-154.948 -360.23 -1570 32 33 44
-151.845 -360.411 -1571 33 34 44
-148.739 -360.593 -1572 39 40 52
-145.631 -360.776 -1573 44 45 57
-142.701 -361.419 -1576 40 41 51
-139.671 -361.833 -1578 40 40 50
-136.721 -362.478 -1581 42 41 51
-133.506 -362.435 -1581 38 39 53
-130.54 -363.082 -1584 38 39 54
-127.241 -362.812 -1583 41 42 58
-124.104 -363.002 -1584 47 45 64
-120.811 -362.734 -1583 46 44 62
-117.821 -363.384 -1586 44 42 59
-114.747 -363.806 -1588 42 41 54
-111.806 -364.687 -1592 45 44 56
-108.714 -365.111 -1594 46 45 55
-105.614 -365.535 -1596 47 46 57
-102.571 -366.19 -1599 49 48 60
-99.5174 -366.845 -1602 51 50 62
-96.3318 -367.043 -1603 52 51 64
-93.2592 -367.7 -1606 52 50 67
-90.1752 -368.359 -1609 52 50 68
-87.1338 -369.247 -1613 53 51 70
-83.9211 -369.449 -1614 53 51 68
-80.7049 -369.652 -1615 52 50 68
-77.4853 -369.856 -1616 53 51 70
-74.2623 -370.061 -1617 52 50 69
-71.036 -370.267 -1618 45 43 62
-67.848 -370.703 -1620 48 46 65
-64.6924 -371.369 -1623 49 47 68
-61.4495 -371.578 -1624 52 50 71
-58.2746 -372.246 -1627 53 51 72
-55.0544 -372.686 -1629 50 48 69
-51.8584 -373.356 -1632 55 53 74
-48.6505 -374.026 -1635 64 62 83
-45.431 -374.698 -1638 61 59 80
-42.2255 -375.599 -1642 60 58 77
-39.0278 -376.73 -1647 63 61 81
-35.8104 -377.862 -1652 59 57 78
-32.5336 -378.538 -1655 63 61 80
-29.245 -379.214 -1658 65 63 83
-25.8821 -378.977 -1657 62 60 81
-22.5778 -379.655 -1660 61 59 79
-19.2153 -379.42 -1659 61 59 78
-15.8762 -379.643 -1660 63 61 80
-12.5406 -380.096 -1662 67 65 84
-9.19698 -380.55 -1664 66 64 83
-5.8455 -381.005 -1666 66 64 83
-2.48749 -381.69 -1669 67 65 84
0.883352 -382.605 -1673 68 66 85
4.26759 -383.292 -1676 69 67 86
7.67311 -384.437 -1681 70 68 87
11.0989 -385.583 -1686 70 68 88
14.6053 -388.332 -1698 69 67 86
18.1283 -390.395 -1707 67 65 84
-399.769 -391.449 -1664 67 72 83
-395.022 -390.143 -1659 61 65 76
-389.592 -388.133 -1651 61 63 74
-385.603 -387.536 -1649 62 62 74
-380.467 -385.766 -1642 60 60 73
-375.594 -384.234 -1636 57 58 72
-371.205 -383.173 -1632 60 61 74
-367.061 -382.348 -1629 60 61 73
-362.71 -381.29 -1625 60 61 73
-358.6 -380.469 -1622 59 60 72
-354.725 -379.884 -1620 57 58 70
-350.645 -379.066 -1617 56 58 69
-346.152 -377.781 -1612 55 57 68
-342.532 -377.435 -1611 53 54 66
-338.71 -376.856 -1609 47 48 60
-335.733 -377.214 -1611 44 45 57
-332.337 -377.106 -1611 47 48 60
-329.353 -377.467 -1613 50 50 62
-325.757 -377.127 -1612 53 52 64
-322.568 -377.256 -1613 55 54 66
-318.982 -376.918 -1612 56 55 67
-315.403 -376.582 -1611 56 55 67
-311.831 -376.247 -1610 56 55 67
-308.266 -375.913 -1609 55 54 66
-304.139 -374.88 -1605 50 52 63
-300.219 -374.081 -1602 49 50 61
-296.314 -373.285 -1599 51 52 62
-292.424 -372.49 -1596 49 50 64
-288.911 -372.163 -1595 48 49 62
-285.763 -372.303 -1596 46 46 58
-282.614 -372.445 -1597 47 47 58
-279.113 -372.122 -1596 43 43 55
-275.619 -371.799 -1595 42 42 54
-272.302 -371.711 -1595 38 39 51
-268.481 -370.925 -1592 35 36 49
-265.008 -370.607 -1591 39 40 53
-261.213 -369.823 -1588 41 41 53
-258.082 -369.973 -1589 41 40 52
-254.468 -369.425 -1587 41 40 52
-251.023 -369.111 -1586 43 42 54
-247.428 -368.566 -1584 45 44 56
-243.997 -368.255 -1583 45 44 56
-240.268 -367.479 -1580 44 43 55
-236.704 -366.938 -1578 43 42 53
-233.298 -366.63 -1577 42 42 53
-229.899 -366.324 -1576 44 44 56
-226.793 -366.483 -1577 45 44 56
-223.401 -366.179 -1576 45 44 56
-220.155 -366.108 -1576 44 43 57
-216.635 -365.574 -1574 43 42 55
-213.126 -365.04 -1572 42 41 54
-209.493 -364.277 -1569 42 41 53
-206.269 -364.21 -1569 42 41 54
-203.046 -364.145 -1569 45 44 58
-199.953 -364.313 -1570 46 45 57
-196.982 -364.714 -1572 42 41 53
-193.882 -364.883 -1573 41 40 53
-190.779 -365.054 -1574 42 41 54
-187.554 -364.994 -1574 42 41 53
-184.449 -365.167 -1575 40 39 53
-181.225 -365.108 -1575 41 40 54
-178.003 -365.051 -1575 42 41 55
-174.672 -364.763 -1574 44 43 55
-171.237 -364.245 -1572 40 39 53
-168.026 -364.191 -1572 38 37 52
-164.711 -363.907 -1571 37 37 50
-161.402 -363.623 -1570 31 31 43
