ply
format ascii 1.0
comment Created by Open3D
element vertex 1400
property double x
property double y
property double z
property uchar red
property uchar green
property uchar blue
end_header
-393.243 -283.479 -1607 120 127 142
-388.615 -282.502 -1602 118 125 139
-384.251 -281.703 -1598 116 122 137
-380.147 -281.081 -1595 124 130 145
-377.239 -281.341 -1597 130 135 150
-373.859 -281.25 -1597 136 141 156
-371.177 -281.688 -1600 255 0 0
-367.566 -281.422 -1599 255 0 0
-364.191 -281.333 -1599 255 0 0
-360.593 -281.069 -1598 255 0 0
-357.45 -281.158 -1599 255 0 0
-354.306 -281.248 -1600 255 0 0
-350.502 -280.811 -1598 255 0 0
-347.362 -280.902 -1599 255 0 0
-343.575 -280.468 -1597 255 0 0
-340.438 -280.56 -1598 141 146 163
-336.667 -280.128 -1596 151 156 173
-333.535 -280.222 -1597 154 159 176
-329.987 -279.967 -1596 149 154 171
-326.651 -279.888 -1596 146 151 168
-323.116 -279.634 -1595 144 150 167
-319.587 -279.381 -1594 255 0 0
-316.263 -279.305 -1594 255 0 0
-312.746 -279.054 -1593 255 0 0
-309.819 -279.329 -1595 146 151 168
-306.117 -278.905 -1593 147 151 168
-302.617 -278.657 -1592 147 148 167
-299.499 -278.76 -1593 137 138 157
-296.193 -278.688 -1593 139 141 160
-292.155 -277.918 -1589 131 136 153
-289.59 -278.548 -1593 142 147 164
-285.932 -278.129 -1591 145 148 166
-282.819 -278.236 -1592 142 146 164
-279.528 -278.169 -1592 143 148 165
-277.106 -278.975 -1597 133 138 153
-273.124 -278.211 -1593 128 133 148
-270.007 -278.321 -1594 125 130 145
-266.554 -278.082 -1593 120 125 140
-263.603 -278.368 -1595 120 124 139
-259.504 -277.433 -1590 116 119 133
-256.394 -277.546 -1591 121 123 140
-252.964 -277.311 -1590 119 121 139
-249.697 -277.251 -1590 112 114 130
-246.278 -277.017 -1589 108 112 128
-243.629 -277.656 -1593 112 117 134
-240.513 -277.773 -1594 122 125 143
-237.842 -278.413 -1598 122 126 143
-235.009 -278.879 -1601 121 127 142
-232.167 -279.346 -1604 129 134 151
-229.599 -280.162 -1609 132 136 153
-226.591 -280.456 -1611 132 134 152
-223.299 -280.403 -1611 130 132 150
-219.873 -280.176 -1610 128 130 148
-216.049 -279.428 -1606 255 0 0
-212.375 -278.856 -1603 255 0 0
-209.499 -279.327 -1606 255 0 0
-206.354 -279.452 -1607 158 160 178
-202.955 -279.23 -1606 156 158 176
-200.805 -280.747 -1615 153 157 175
-197.886 -281.221 -1618 156 159 177
-194.356 -280.827 -1616 255 0 0
-191.544 -281.476 -1620 255 0 0
-188.718 -282.126 -1624 255 0 0
-184.964 -281.387 -1620 255 0 0
-181.9 -281.691 -1622 255 0 0
-179.381 -282.864 -1629 255 0 0
-175.969 -282.649 -1628 255 0 0
-172.669 -282.607 -1628 255 0 0
-169.579 -282.914 -1630 255 0 0
-166.584 -283.395 -1633 255 0 0
-163.079 -283.009 -1631 255 0 0
-159.877 -283.145 -1632 255 0 0
-156.863 -283.628 -1635 255 0 0
-153.746 -283.938 -1637 255 0 0
-150.437 -283.902 -1637 255 0 0
-147.04 -283.694 -1636 255 0 0
-143.912 -284.006 -1638 255 0 0
-140.862 -284.493 -1641 146 150 168
-138.137 -285.674 -1648 138 144 161
-134.731 -285.468 -1647 139 141 159
-132.048 -286.823 -1655 149 151 169
-129.177 -287.832 -1661 255 0 0
-125.602 -287.283 -1658 255 0 0
-122.336 -287.427 -1659 255 0 0
-119.137 -287.745 -1661 148 150 168
-116.002 -288.237 -1664 151 153 171
-112.991 -289.076 -1669 151 153 171
-110.42 -291.128 -1681 155 157 175
-107.356 -291.968 -1686 158 159 177
-104.705 -294.021 -1698 156 157 175
-102.006 -296.075 -1710 155 156 174
-98.7409 -296.571 -1713 155 156 174
-95.6315 -297.587 -1719 144 145 163
-92.4453 -298.43 -1724 144 145 163
-89.1364 -298.928 -1727 144 145 163
-85.5185 -298.388 -1724 142 143 161
-82.3419 -299.407 -1730 142 143 161
-79.0505 -300.081 -1734 136 134 153
-75.9181 -301.447 -1742 137 137 155
-483.226 -304.122 -1692 127 136 146
-477.003 -302.385 -1683 123 132 142
-470.541 -300.47 -1673 119 128 138
-464.964 -299.096 -1666 116 125 135
-459.145 -297.545 -1658 122 129 141
-455.013 -297.073 -1656 122 129 141
-449.804 -295.884 -1650 120 127 140
-442.19 -293.083 -1635 122 128 143
-436.255 -291.361 -1626 122 128 143
-430.362 -289.641 -1617 128 134 149
-423.72 -287.386 -1605 134 140 155
-420.275 -287.281 -1605 133 139 154
-417.613 -287.714 -1608 133 139 154
-413.139 -286.895 -1604 137 143 158
-409.708 -286.794 -1604 138 144 159
-407.04 -287.229 -1607 255 0 0
-404.112 -287.486 -1609 255 0 0
-400.183 -287.029 -1607 255 0 0
-396.266 -286.574 -1605 255 0 0
-393.095 -286.654 -1606 126 132 147
-387.982 -285.309 -1599 121 127 142
-383.864 -284.679 -1596 115 121 136
-380.002 -284.228 -1594 120 126 141
-377.332 -284.669 -1597 255 0 0
-373.482 -284.221 -1595 255 0 0
-371.036 -284.842 -1599 255 0 0
-366.966 -284.217 -1596 255 0 0
-363.141 -283.771 -1594 255 0 0
-359.101 -283.148 -1591 255 0 0
-356.195 -283.416 -1593 255 0 0
-353.284 -283.685 -1595 255 0 0
-349.49 -283.243 -1593 255 0 0
-347.011 -283.869 -1597 255 0 0
-343.443 -283.607 -1596 255 0 0
-340.095 -283.524 -1596 255 0 0
-336.327 -283.086 -1594 255 0 0
-333.616 -283.537 -1597 146 151 168
-329.654 -282.923 -1594 150 155 172
-326.526 -283.02 -1595 152 158 175
-323.396 -283.119 -1596 150 156 173
-319.464 -282.508 -1593 255 0 0
-316.142 -282.431 -1593 255 0 0
-312.822 -282.354 -1593 255 0 0
-309.311 -282.101 -1592 255 0 0
-305.23 -281.318 -1588 150 155 172
-301.929 -281.244 -1588 152 155 173
-299.007 -281.525 -1590 153 155 173
-295.893 -281.63 -1591 150 153 171
-292.041 -281.028 -1588 137 141 158
-289.296 -281.488 -1591 147 151 169
-286.001 -281.418 -1591 141 143 161
-282.709 -281.349 -1591 137 141 159
-279.244 -281.104 -1590 135 140 157
-276.479 -281.567 -1593 125 130 145
-272.675 -280.971 -1590 127 132 147
-270.072 -281.612 -1594 128 133 148
-266.785 -281.547 -1594 123 127 142
-263.997 -282.013 -1597 122 126 141
-260.219 -281.42 -1594 121 122 138
-256.778 -281.181 -1593 116 118 136
-253.343 -280.943 -1592 112 114 132
-249.914 -280.706 -1591 115 117 133
-246.492 -280.469 -1590 121 124 141
-243.993 -281.292 -1595 127 132 149
-241.024 -281.586 -1597 129 131 149
-238.048 -281.881 -1599 132 134 152
-235.359 -282.529 -1603 126 131 146
-232.367 -282.825 -1605 129 132 149
-229.654 -283.475 -1609 131 133 151
-226.364 -283.42 -1609 128 130 148
-223.214 -283.542 -1610 123 125 143
-219.515 -282.961 -1607 122 124 142
-215.427 -281.852 -1601 255 0 0
-211.631 -281.097 -1597 255 0 0
-209.026 -281.926 -1602 255 0 0
-205.761 -281.876 -1602 158 160 178
-202.624 -282.003 -1603 157 159 177
-200.48 -283.538 -1612 157 159 177
-197.689 -284.194 -1616 156 158 176
-194.161 -283.795 -1614 255 0 0
-191.472 -284.628 -1619 255 0 0
-188.298 -284.759 -1620 255 0 0
-184.779 -284.362 -1618 255 0 0
-181.607 -284.494 -1619 255 0 0
-178.872 -285.33 -1624 255 0 0
-175.47 -285.112 -1623 255 0 0
-172.18 -285.07 -1623 255 0 0
-168.995 -285.205 -1624 255 0 0
-165.808 -285.341 -1625 255 0 0
-162.417 -285.126 -1624 255 0 0
-159.425 -285.614 -1627 255 0 0
-156.517 -286.279 -1631 255 0 0
-153.5 -286.768 -1634 255 0 0
-150.289 -286.908 -1635 255 0 0
-147.075 -287.047 -1636 255 0 0
-144.122 -287.715 -1640 255 0 0
-141.239 -288.558 -1645 141 144 161
-138.338 -289.401 -1650 137 142 159
-135.008 -289.369 -1650 143 146 163
-132.159 -290.389 -1656 152 154 172
-128.975 -290.709 -1658 255 0 0
-125.481 -290.328 -1656 255 0 0
-122.291 -290.649 -1658 255 0 0
-119.166 -291.146 -1661 149 151 169
-116.169 -291.995 -1666 148 150 168
-113.22 -293.019 -1672 149 151 169
-110.774 -295.446 -1686 157 159 177
-107.891 -296.821 -1694 156 157 175
-105.285 -299.074 -1707 156 157 175
-102.269 -300.276 -1714 156 157 175
-98.9948 -300.777 -1717 154 155 173
-95.8211 -301.63 -1722 149 150 168
-92.4134 -301.783 -1723 143 144 162
-88.9509 -301.761 -1723 145 146 164
-85.4395 -301.565 -1722 142 144 162
-82.2184 -302.421 -1727 142 144 162
-79.0236 -303.453 -1733 137 137 155
-76.0231 -305.36 -1744 137 138 156
-483.348 -307.682 -1692 127 136 146
-476.272 -305.379 -1680 120 129 139
-470.097 -303.623 -1671 122 131 141
-463.127 -301.326 -1659 118 127 137
-457.321 -299.756 -1651 119 126 138
-454.028 -299.823 -1652 119 126 138
-448.553 -298.439 -1645 118 125 137
-442.301 -296.513 -1635 122 128 143
-437.974 -295.858 -1632 121 127 142
-432.067 -294.118 -1623 124 130 145
-424.09 -290.93 -1606 134 140 155
-420.118 -290.462 -1604 140 146 161
-416.938 -290.538 -1605 141 147 162
-412.469 -289.71 -1601 138 144 159
-408.788 -289.426 -1600 255 0 0
-406.128 -289.866 -1603 255 0 0
-403.459 -290.307 -1606 255 0 0
-399.037 -289.484 -1602 255 0 0
-394.635 -288.662 -1598 141 147 162
-391.479 -288.744 -1599 134 140 155
-387.107 -287.925 -1595 124 130 145
-383.96 -288.009 -1596 118 124 139
-380.811 -288.095 -1597 255 0 0
-378.134 -288.541 -1600 255 0 0
-373.34 -287.366 -1594 255 0 0
-371.127 -288.174 -1599 255 0 0
-366.597 -287.182 -1594 255 0 0
-362.319 -286.371 -1590 255 0 0
-358.738 -286.101 -1589 255 0 0
-355.612 -286.192 -1590 255 0 0
-352.264 -286.104 -1590 255 0 0
-348.479 -285.658 -1588 255 0 0
-345.141 -285.572 -1588 255 0 0
-341.59 -285.307 -1587 255 0 0
-338.473 -285.402 -1588 255 0 0
-335.355 -285.499 -1589 255 0 0
-333.071 -286.314 -1594 255 0 0
-329.528 -286.053 -1593 147 152 169
-326.606 -286.331 -1595 151 156 173
-323.881 -286.789 -1598 148 154 171
-319.743 -285.992 -1594 148 153 170
-315.822 -285.376 -1591 255 0 0
-312.899 -285.657 -1593 255 0 0
-308.998 -285.042 -1590 255 0 0
-304.344 -283.712 -1583 255 0 0
-301.052 -283.638 -1583 153 157 174
-298.516 -284.281 -1587 146 150 168
-295.035 -284.029 -1586 141 145 162
-291.561 -283.778 -1585 138 141 159
-289.185 -284.601 -1590 142 145 163
-285.891 -284.531 -1590 133 137 155
-282.778 -284.64 -1591 127 131 148
-279.663 -284.75 -1592 123 128 145
-276.72 -285.039 -1594 121 126 141
-273.085 -284.615 -1592 117 122 137
-270.646 -285.442 -1597 119 124 139
-267.018 -285.019 -1595 117 121 134
-264.061 -285.311 -1597 112 115 129
-260.935 -285.425 -1598 113 114 130
-257.969 -285.719 -1600 115 117 134
-254.2 -285.121 -1597 115 117 135
-251.074 -285.238 -1598 114 116 132
-247.172 -284.463 -1594 121 123 140
-244.358 -284.938 -1597 128 131 149
-240.78 -284.522 -1595 129 131 149
-237.956 -284.999 -1598 129 131 149
-234.829 -285.12 -1599 125 130 145
-231.844 -285.42 -1601 126 130 146
-229.138 -286.077 -1605 128 130 148
-226.278 -286.556 -1608 127 129 147
-222.713 -286.145 -1606 119 121 139
-219.568 -286.27 -1607 118 120 138
-215.614 -285.326 -1602 255 0 0
-212.212 -285.096 -1601 255 0 0
-209.077 -285.223 -1602 255 0 0
-206.068 -285.529 -1604 143 145 163
-202.673 -285.301 -1603 149 151 169
-200.28 -286.498 -1610 144 146 164
-197.247 -286.805 -1612 255 0 0
-194.088 -286.936 -1613 255 0 0
-191.399 -287.779 -1618 255 0 0
-188.46 -288.266 -1621 255 0 0
-185.052 -288.043 -1620 255 0 0
-182.099 -288.532 -1623 255 0 0
-178.805 -288.488 -1623 255 0 0
-175.296 -288.09 -1621 255 0 0
-171.903 -287.87 -1620 255 0 0
-168.62 -287.829 -1620 255 0 0
-165.541 -288.144 -1622 255 0 0
-162.657 -288.815 -1626 255 0 0
-159.659 -289.309 -1629 255 0 0
-156.554 -289.626 -1631 255 0 0
-153.913 -290.831 -1638 255 0 0
-150.601 -290.795 -1638 255 0 0
-147.29 -290.759 -1638 255 0 0
-144.42 -291.611 -1643 255 0 0
-141.617 -292.641 -1649 255 0 0
-138.455 -292.962 -1651 144 147 165
-135.204 -293.107 -1652 148 150 168
-132.35 -294.139 -1658 151 153 171
-129.006 -294.108 -1658 255 0 0
-125.511 -293.722 -1656 255 0 0
-122.468 -294.402 -1660 255 0 0
-119.409 -295.082 -1664 147 149 167
-116.545 -296.295 -1671 145 147 165
-113.789 -297.863 -1680 156 158 176
-111.261 -300.141 -1693 161 162 180
-108.235 -301.178 -1699 154 155 173
-105.557 -303.279 -1711 154 155 173
-102.592 -304.672 -1719 154 155 173
-99.3069 -305.18 -1722 152 153 171
-95.9553 -305.511 -1724 147 148 166
-92.4891 -305.488 -1724 145 146 164
-88.9205 -305.112 -1722 142 143 161
-85.4599 -305.091 -1722 144 145 163
-82.2381 -305.957 -1727 142 144 162
-79.0424 -307 -1733 139 140 158
-76.085 -309.107 -1745 136 138 155
-481.471 -309.956 -1685 129 138 148
-474.975 -307.995 -1675 118 127 137
-469.653 -306.771 -1669 117 126 137
-461.569 -303.711 -1653 115 124 135
-456.606 -302.676 -1648 117 124 136
-453.318 -302.743 -1649 117 123 137
-447.575 -301.16 -1641 120 126 141
-442.413 -299.946 -1635 116 122 137
-438.621 -299.65 -1634 119 125 140
-432.708 -297.889 -1625 127 133 148
-425.253 -295.031 -1610 133 139 154
-421.01 -294.373 -1607 136 142 157
-417.563 -294.267 -1607 134 140 155
-413.604 -293.795 -1605 140 146 161
-408.891 -292.776 -1600 255 0 0
-406.23 -293.221 -1603 255 0 0
-402.304 -292.753 -1601 255 0 0
-397.393 -291.555 -1595 137 143 158
-393.253 -290.907 -1592 137 143 158
-391.087 -291.721 -1597 134 142 156
-386.476 -290.71 -1592 133 141 155
-383.815 -291.16 -1595 255 0 0
-381.145 -291.611 -1598 255 0 0
-377.52 -291.333 -1597 255 0 0
-373.199 -290.509 -1593 255 0 0
-370.524 -290.962 -1596 255 0 0
-366.459 -290.323 -1593 255 0 0
-362.182 -289.502 -1589 255 0 0
-359.28 -289.776 -1591 255 0 0
-355.701 -289.504 -1590 255 0 0
-351.908 -289.051 -1588 255 0 0
-348.347 -288.781 -1587 255 0 0
-345.009 -288.694 -1587 255 0 0
-341.46 -288.427 -1586 255 0 0
-338.344 -288.523 -1587 255 0 0
-335.016 -288.439 -1587 255 0 0
-332.317 -288.901 -1590 255 0 0
-328.782 -288.636 -1589 255 0 0
-326.072 -289.099 -1592 144 149 166
-323.151 -289.382 -1594 140 146 163
-319.019 -288.575 -1590 143 148 165
-315.503 -288.315 -1589 140 145 162
-312.78 -288.781 -1592 255 0 0
-308.686 -287.978 -1588 255 0 0
-304.034 -286.632 -1581 255 0 0
-300.936 -286.738 -1582 136 139 158
-297.837 -286.845 -1583 128 132 150
-294.363 -286.59 -1582 123 127 144
-290.897 -286.336 -1581 125 128 146
-288.892 -287.532 -1588 126 129 146
-285.422 -287.279 -1587 119 124 140
-282.67 -287.752 -1590 111 116 132
-279.908 -288.225 -1593 107 112 128
-276.441 -287.975 -1592 110 115 129
-272.98 -287.726 -1591 112 116 131
-270.204 -288.201 -1594 115 119 134
-266.581 -287.773 -1592 112 114 129
-263.465 -287.889 -1593 109 111 125
-260.509 -288.185 -1595 113 114 130
-257.548 -288.483 -1597 117 119 136
-254.581 -288.78 -1599 117 119 137
-251.608 -289.079 -1601 119 121 137
-248.008 -288.656 -1599 122 124 141
-245.337 -289.317 -1603 126 128 146
-241.896 -289.077 -1602 128 130 148
-238.908 -289.378 -1604 128 131 149
-235.621 -289.32 -1604 130 135 150
-232.625 -289.623 -1606 129 132 150
-229.48 -289.746 -1607 122 124 143
-226.333 -289.871 -1608 123 125 143
-222.49 -289.095 -1604 122 124 142
-219.349 -289.22 -1605 255 0 0
-215.667 -288.626 -1602 255 0 0
-212.396 -288.574 -1602 255 0 0
-209.259 -288.702 -1603 129 131 149
-206.247 -289.011 -1605 136 138 156
-202.596 -288.421 -1602 127 129 147
-199.955 -289.271 -1607 130 132 150
-196.928 -289.583 -1609 255 0 0
-193.894 -289.895 -1611 255 0 0
-191.328 -290.927 -1617 255 0 0
-188.273 -291.24 -1619 255 0 0
-184.983 -291.195 -1619 255 0 0
-181.919 -291.509 -1621 255 0 0
-178.628 -291.465 -1621 255 0 0
-175.339 -291.422 -1621 255 0 0
-172.37 -291.919 -1624 255 0 0
-169.181 -292.057 -1625 255 0 0
-166.194 -292.555 -1628 255 0 0
-163.296 -293.233 -1632 255 0 0
-160.09 -293.374 -1633 255 0 0
-156.689 -293.155 -1632 255 0 0
-153.762 -293.836 -1636 255 0 0
-150.362 -293.619 -1635 255 0 0
-147.056 -293.583 -1635 255 0 0
-144.103 -294.265 -1639 255 0 0
-141.393 -295.487 -1646 255 0 0
-138.153 -295.632 -1647 147 149 167
-134.991 -295.958 -1649 151 153 171
-132.142 -297.003 -1655 151 153 171
-128.959 -297.33 -1657 148 150 168
-125.617 -297.299 -1657 255 0 0
-122.719 -298.345 -1663 255 0 0
-119.654 -299.033 -1667 255 0 0
-116.573 -299.722 -1671 147 149 167
-113.546 -300.59 -1676 154 156 174
-110.762 -302.177 -1685 160 161 179
-107.688 -303.047 -1690 158 159 177
-105.027 -305.173 -1702 158 159 177
-102.139 -306.761 -1711 154 155 173
-98.7541 -306.916 -1712 148 149 167
-95.7558 -308.327 -1720 145 146 164
-92.4042 -308.662 -1722 138 139 157
-88.8904 -308.461 -1721 140 141 159
-85.5302 -308.798 -1723 142 144 162
-82.3055 -309.674 -1728 134 135 153
-79.0159 -310.371 -1732 138 139 157
-76.1033 -312.682 -1745 141 143 160
-481.881 -313.692 -1686 134 143 153
-474.814 -311.336 -1674 124 133 143
-468.93 -309.726 -1666 121 130 141
-461.129 -306.818 -1651 119 128 140
-455.061 -305.028 -1642 119 126 138
-453.16 -306.025 -1648 117 123 137
-447.418 -304.423 -1640 118 124 139
-442.797 -303.566 -1636 116 122 137
-439.002 -303.267 -1635 116 122 137
-433.618 -301.856 -1628 123 129 144
-424.834 -298.038 -1608 130 136 151
-420.856 -297.559 -1606 136 142 157
-417.41 -297.451 -1606 141 147 162
-412.937 -296.604 -1602 141 147 162
-408.484 -295.758 -1598 255 0 0
-405.827 -296.209 -1601 255 0 0
-402.407 -296.105 -1601 255 0 0
-397.744 -295.078 -1596 140 147 161
-394.094 -294.792 -1595 138 144 159
-391.432 -295.246 -1598 139 147 161
-387.546 -294.777 -1596 140 149 163
-384.153 -294.679 -1596 255 0 0
-381.242 -294.95 -1598 255 0 0
-377.615 -294.669 -1597 255 0 0
-373.059 -293.651 -1592 255 0 0
-370.153 -293.925 -1594 255 0 0
-366.551 -293.647 -1593 255 0 0
-362.501 -293.001 -1590 255 0 0
-359.596 -293.278 -1592 255 0 0
-356.015 -293.003 -1591 255 0 0
-352.662 -292.913 -1591 255 0 0
-348.654 -292.271 -1588 255 0 0
-344.661 -291.631 -1585 255 0 0
-340.9 -291.176 -1583 255 0 0
-338.003 -291.458 -1585 255 0 0
-334.467 -291.189 -1584 255 0 0
-331.356 -291.289 -1585 255 0 0
-328.243 -291.389 -1586 255 0 0
-325.949 -292.225 -1591 138 144 161
-322.826 -292.327 -1592 135 141 158
-318.698 -291.511 -1588 137 142 159
-315.384 -291.431 -1588 135 140 157
-312.269 -291.536 -1589 255 0 0
-307.985 -290.54 -1584 255 0 0
-303.726 -289.546 -1579 255 0 0
-301.012 -290.02 -1582 122 124 144
-297.723 -289.945 -1582 128 130 149
-294.623 -290.054 -1583 125 127 145
-291.522 -290.163 -1584 118 123 140
-288.964 -290.823 -1588 115 120 136
-285.673 -290.751 -1588 114 119 134
-283.274 -291.595 -1593 112 117 132
-279.977 -291.524 -1593 106 111 126
-276.162 -290.905 -1590 107 112 125
-272.877 -290.836 -1590 108 112 126
-270.441 -291.683 -1595 113 115 131
-266.815 -291.25 -1593 114 116 132
-263.861 -291.549 -1595 116 117 133
-261.064 -292.032 -1598 121 122 138
-257.774 -291.967 -1598 124 126 143
-254.644 -292.085 -1599 122 124 142
-251.67 -292.387 -1601 125 127 143
-248.225 -292.142 -1600 126 128 145
-245.55 -292.811 -1604 131 133 151
-242.409 -292.933 -1605 130 135 152
-239.266 -293.055 -1606 125 130 147
-235.973 -292.996 -1606 132 137 152
-233.117 -293.485 -1609 134 138 155
-229.965 -293.609 -1610 120 122 142
-226.53 -293.37 -1609 121 123 141
-222.545 -292.403 -1604 131 133 151
-219.403 -292.53 -1605 255 0 0
-215.855 -292.111 -1603 255 0 0
-212.847 -292.422 -1605 255 0 0
-209.702 -292.552 -1606 117 119 137
-206.812 -293.047 -1609 125 127 145
-203.152 -292.45 -1606 129 131 149
-200.378 -293.128 -1610 122 126 144
-196.854 -292.714 -1608 255 0 0
-193.942 -293.212 -1611 255 0 0
-190.901 -293.528 -1613 255 0 0
-187.854 -293.845 -1615 255 0 0
-184.457 -293.617 -1614 255 0 0
-181.178 -293.572 -1614 255 0 0
-177.791 -293.345 -1613 255 0 0
-174.517 -293.302 -1613 255 0 0
-171.669 -293.986 -1617 255 0 0
-168.702 -294.489 -1620 255 0 0
-166.031 -295.539 -1626 255 0 0
-163.136 -296.225 -1630 255 0 0
-159.933 -296.367 -1631 255 0 0
-156.823 -296.691 -1633 255 0 0
-153.706 -297.016 -1635 255 0 0
-150.215 -296.615 -1633 255 0 0
-147.092 -296.942 -1635 255 0 0
-144.402 -298.177 -1642 255 0 0
-141.342 -298.686 -1645 255 0 0
-138.271 -299.197 -1648 143 148 165
-135.27 -299.889 -1652 156 158 176
-132.414 -300.945 -1658 157 159 177
-129.068 -300.913 -1658 154 156 174
-125.648 -300.7 -1657 255 0 0
-122.896 -302.121 -1665 255 0 0
-119.683 -302.454 -1667 255 0 0
-116.532 -302.969 -1670 149 151 169
-113.506 -303.848 -1675 153 155 173
-110.658 -305.271 -1683 159 160 178
-107.459 -305.789 -1686 159 160 178
-104.805 -307.939 -1698 154 155 173
-101.806 -309.183 -1705 149 150 168
-98.6051 -309.884 -1709 147 149 167
-95.6679 -311.492 -1718 149 150 168
-92.2121 -311.469 -1718 138 139 157
-88.6022 -310.902 -1715 141 142 160
-85.2532 -311.243 -1717 145 146 164
-82.0398 -312.129 -1722 136 137 155
-78.8071 -313.016 -1727 134 135 153
-75.8602 -315.172 -1739 141 143 161
-482.578 -317.624 -1688 135 144 154
-475.221 -315.052 -1675 126 135 145
-468.77 -313.048 -1665 122 131 143
-460.97 -310.107 -1650 119 128 140
-456.565 -309.424 -1647 120 127 139
-454.653 -310.432 -1653 117 123 137
-448.625 -308.624 -1644 114 120 135
-444.806 -308.319 -1643 118 124 139
-440.728 -307.829 -1641 116 122 137
-435.062 -306.214 -1633 120 126 141
-427.058 -302.915 -1616 133 139 154
-422.799 -302.242 -1613 147 153 168
-418.817 -301.758 -1611 149 155 170
-415.106 -301.463 -1610 140 146 161
-409.868 -300.045 -1603 255 0 0
-406.185 -299.752 -1602 255 0 0
-402.762 -299.647 -1602 255 0 0
-398.594 -298.982 -1599 148 157 171
-394.689 -298.506 -1597 148 154 169
-392.512 -299.338 -1602 144 152 166
-388.617 -298.864 -1600 255 0 0
-384.974 -298.577 -1599 255 0 0
-381.34 -298.291 -1598 255 0 0
-377.476 -297.82 -1596 255 0 0
-373.155 -296.977 -1592 255 0 0
-369.783 -296.881 -1592 255 0 0
-366.415 -296.787 -1592 255 0 0
-362.138 -295.947 -1588 255 0 0
-359.236 -296.227 -1590 255 0 0
-354.763 -295.204 -1585 255 0 0
-350.978 -294.741 -1583 255 0 0
-347.865 -294.837 -1584 255 0 0
-344.097 -294.376 -1582 255 0 0
-340.125 -293.731 -1579 255 0 0
-337.662 -294.388 -1583 255 0 0
-334.341 -294.302 -1583 255 0 0
-330.604 -293.845 -1581 255 0 0
-327.292 -293.761 -1581 255 0 0
-325.008 -294.606 -1586 255 0 0
-321.894 -294.709 -1587 137 143 160
-318.377 -294.442 -1586 138 143 160
-315.464 -294.732 -1588 136 141 158
-312.544 -295.023 -1590 255 0 0
-308.452 -294.202 -1586 255 0 0
-304.572 -293.567 -1583 255 0 0
-301.469 -293.676 -1584 123 125 143
-298.175 -293.599 -1584 124 126 144
-295.07 -293.709 -1585 121 123 141
-292.148 -294.005 -1587 117 122 139
-289.583 -294.672 -1591 112 117 134
-286.285 -294.599 -1591 109 115 130
-283.523 -295.082 -1594 114 119 134
-280.4 -295.195 -1595 111 116 131
-276.579 -294.569 -1592 115 120 133
-273.117 -294.315 -1591 116 119 134
-270.509 -294.986 -1595 118 120 136
-267.217 -294.918 -1595 117 119 135
-263.927 -294.85 -1595 118 120 136
-260.64 -294.784 -1595 123 124 140
-257.193 -294.534 -1594 124 126 143
-254.23 -294.839 -1596 124 126 144
-251.262 -295.144 -1598 129 131 147
-247.976 -295.081 -1598 131 133 150
-245.765 -296.311 -1605 135 137 156
-242.47 -296.25 -1605 131 136 153
-239.326 -296.373 -1606 125 130 147
-236.179 -296.498 -1607 132 137 152
-233.176 -296.808 -1609 136 140 158
-230.309 -297.302 -1612 130 132 152
-227.009 -297.245 -1612 127 129 147
-222.878 -296.082 -1606 133 135 153
-219.458 -295.842 -1605 255 0 0
-215.505 -294.866 -1600 255 0 0
-212.369 -294.996 -1601 255 0 0
-209.363 -295.312 -1603 122 124 142
-206.606 -295.996 -1607 130 132 150
-203.329 -295.945 -1607 132 134 152
-200.801 -296.999 -1613 125 129 147
-197.148 -296.397 -1610 255 0 0
-194.111 -296.716 -1612 255 0 0
-190.831 -296.667 -1612 255 0 0
-187.552 -296.62 -1612 255 0 0
-183.932 -296.021 -1609 255 0 0
-180.437 -295.608 -1607 255 0 0
-177.063 -295.379 -1606 255 0 0
-174.235 -296.071 -1610 255 0 0
-171.605 -297.131 -1616 255 0 0
-168.952 -298.191 -1622 255 0 0
-166.276 -299.252 -1628 255 0 0
-163.377 -299.946 -1632 255 0 0
-160.267 -300.273 -1634 255 0 0
-156.958 -300.233 -1634 255 0 0
-153.65 -300.195 -1634 255 0 0
-150.252 -299.973 -1633 255 0 0
-146.949 -299.936 -1633 255 0 0
-144.086 -300.818 -1638 255 0 0
-141.033 -301.333 -1641 255 0 0
-137.969 -301.849 -1644 145 150 167
-135.14 -302.917 -1650 155 157 175
-132.367 -304.168 -1657 154 156 174
-128.867 -303.768 -1655 152 154 172
-125.603 -303.92 -1656 255 0 0
-122.705 -304.99 -1662 255 0 0
-119.569 -305.511 -1665 255 0 0
-116.352 -305.848 -1667 150 152 170
-113.331 -306.737 -1672 151 153 171
-110.291 -307.626 -1677 156 157 175
-107.104 -308.15 -1680 157 158 176
-104.276 -309.774 -1689 152 153 171
-101.174 -310.665 -1694 150 152 170
-98.1101 -311.741 -1700 148 150 168
-95.3016 -313.734 -1711 145 146 164
-92.1812 -314.811 -1717 138 139 157
-88.6241 -314.421 -1715 142 143 161
-85.2742 -314.767 -1717 145 146 164
-82.1078 -315.846 -1723 138 139 157
-79.1004 -317.659 -1733 136 137 155
-76.0971 -319.656 -1744 144 146 164
-482.419 -320.996 -1687 131 141 151
-474.779 -318.205 -1673 125 134 144
-468.612 -316.369 -1664 121 130 141
-461.37 -313.775 -1651 118 127 139
-456.408 -312.703 -1646 122 129 141
-453.672 -313.153 -1649 122 128 142
-447.378 -311.135 -1639 121 127 142
-443.298 -310.638 -1637 116 122 137
-439.231 -310.142 -1635 114 120 135
-433.844 -308.7 -1628 115 121 136
-427.698 -306.691 -1618 128 134 149
-423.434 -306.01 -1615 139 145 160
-419.187 -305.331 -1612 141 147 162
-414.956 -304.653 -1609 255 0 0
-410.487 -303.788 -1605 255 0 0
-407.052 -303.68 -1605 255 0 0
-403.621 -303.574 -1605 135 144 158
-399.196 -302.712 -1601 141 150 164
-395.534 -302.419 -1600 147 153 168
-392.614 -302.694 -1602 148 154 169
-388.475 -302.025 -1599 255 0 0
-384.834 -301.735 -1598 255 0 0
-381.438 -301.635 -1598 255 0 0
-377.573 -301.159 -1596 255 0 0
-373.72 -300.684 -1594 255 0 0
-370.344 -300.587 -1594 255 0 0
-367.431 -300.868 -1596 255 0 0
-363.372 -300.207 -1593 255 0 0
-360.233 -300.301 -1594 255 0 0
-355.75 -299.267 -1589 255 0 0
-351.734 -298.61 -1586 255 0 0
-347.735 -297.954 -1583 255 0 0
-343.315 -296.923 -1578 255 0 0
-339.782 -296.647 -1577 255 0 0
-337.323 -297.311 -1581 255 0 0
-334.215 -297.412 -1582 255 0 0
-330.27 -296.762 -1579 255 0 0
-327.583 -297.241 -1582 255 0 0
-324.886 -297.72 -1585 255 0 0
-321.571 -297.637 -1585 138 144 161
-317.857 -297.178 -1583 135 140 157
-315.147 -297.66 -1586 132 137 154
-312.231 -297.954 -1588 133 138 155
-308.337 -297.311 -1585 255 0 0
-304.843 -297.045 -1584 255 0 0
-302.117 -297.529 -1587 255 0 0
-298.439 -297.077 -1585 128 130 148
-295.518 -297.375 -1587 124 127 145
-292.591 -297.674 -1589 123 127 145
-290.022 -298.349 -1593 120 124 141
-286.718 -298.275 -1593 113 119 134
-283.774 -298.576 -1595 119 124 140
-280.823 -298.878 -1597 117 122 138
-276.997 -298.245 -1594 121 126 140
-273.53 -297.987 -1593 121 124 139
-270.409 -298.104 -1594 121 123 139
-267.118 -298.035 -1594 125 127 143
-263.664 -297.78 -1593 133 135 150
-260.543 -297.9 -1594 134 135 152
-257.097 -297.647 -1593 136 137 155
-254.295 -298.142 -1596 135 137 155
-251.483 -298.638 -1599 139 141 157
-248.35 -298.761 -1600 140 142 160
-245.981 -299.818 -1606 139 141 161
-242.532 -299.569 -1605 138 142 160
-239.386 -299.694 -1606 138 142 160
-236.239 -299.82 -1607 138 142 157
-233.09 -299.947 -1608 135 138 156
-230.081 -300.261 -1610 138 140 160
-226.926 -300.389 -1611 140 142 160
-222.657 -299.026 -1604 137 139 157
-219.24 -298.784 -1603 255 0 0
-215.559 -298.169 -1600 255 0 0
-212.689 -298.674 -1603 255 0 0
-209.677 -298.993 -1605 143 145 163
-207.302 -300.244 -1612 138 140 158
-204.14 -300.378 -1613 139 141 159
-201.475 -301.257 -1618 255 0 0
-197.443 -300.09 -1612 255 0 0
-194.16 -300.04 -1612 255 0 0
-190.76 -299.805 -1611 255 0 0
-187.599 -299.943 -1612 255 0 0
-183.978 -299.338 -1609 255 0 0
-180.932 -299.663 -1611 255 0 0
-177.769 -299.804 -1612 255 0 0
-174.604 -299.945 -1613 255 0 0
-171.967 -301.017 -1619 255 0 0
-169.203 -301.903 -1624 255 0 0
-166.216 -302.419 -1627 255 0 0
-163.018 -302.563 -1628 255 0 0
-160.111 -303.265 -1632 255 0 0
-156.613 -302.854 -1630 255 0 0
-153.219 -302.629 -1629 255 0 0
-150.198 -303.147 -1632 255 0 0
-146.985 -303.296 -1633 255 0 0
-143.947 -303.816 -1636 255 0 0
-140.897 -304.337 -1639 255 0 0
-137.92 -305.045 -1643 255 0 0
-134.928 -305.753 -1647 156 158 176
-132.081 -306.833 -1653 155 157 175
-128.743 -306.8 -1653 152 154 172
-125.559 -307.139 -1655 255 0 0
-122.662 -308.221 -1661 255 0 0
-119.383 -308.376 -1662 255 0 0
-116.241 -308.903 -1665 152 154 172
-112.952 -309.06 -1666 156 158 176
-109.792 -309.588 -1669 157 158 176
-106.557 -309.932 -1671 158 159 177
-103.746 -311.575 -1680 159 160 178
-100.841 -313.033 -1688 158 160 178
-97.9615 -314.676 -1697 151 153 171
-95.2141 -316.877 -1709 143 144 162
-92.1506 -318.152 -1716 142 143 161
-88.6462 -317.943 -1715 145 146 164
-85.1962 -317.922 -1715 149 150 168
-82.2237 -319.754 -1725 144 145 163
-79.0288 -320.846 -1731 146 147 167
-76.0288 -322.865 -1742 150 151 170
-483.978 -325.52 -1692 129 140 149
-474.906 -321.737 -1673 126 135 145
-469.019 -320.072 -1665 123 132 144
-461.773 -317.449 -1652 119 128 140
-456.529 -316.174 -1646 123 130 143
-453.517 -316.436 -1648 122 128 142
-448.316 -315.164 -1642 121 127 142
-443.687 -314.277 -1638 116 122 136
-439.616 -313.776 -1636 114 120 134
-433.959 -312.125 -1628 115 121 136
-428.076 -310.285 -1619 121 127 142
-423.808 -309.597 -1616 132 138 153
-419.558 -308.91 -1613 140 146 161
-414.808 -307.842 -1608 255 0 0
-410.083 -306.776 -1603 255 0 0
-406.652 -306.667 -1603 255 0 0
-403.224 -306.56 -1603 137 146 160
-399.551 -306.262 -1602 136 144 158
-396.38 -306.348 -1603 140 146 161
-392.718 -306.053 -1602 142 148 163
-388.577 -305.376 -1599 255 0 0
-384.212 -304.51 -1595 255 0 0
-380.106 -303.837 -1592 255 0 0
-375.779 -302.974 -1588 255 0 0
-373.115 -303.447 -1591 255 0 0
-369.976 -303.54 -1592 255 0 0
-367.527 -304.206 -1596 255 0 0
-363.924 -303.919 -1595 255 0 0
-360.553 -303.823 -1595 255 0 0
-355.843 -302.586 -1589 255 0 0
-352.27 -302.303 -1588 255 0 0
-348.045 -301.45 -1584 255 0 0
-344.275 -300.978 -1582 255 0 0
-340.517 -300.508 -1580 255 0 0
-337.624 -300.799 -1582 255 0 0
-334.514 -300.901 -1583 255 0 0
-330.566 -300.244 -1580 255 0 0
-327.461 -300.348 -1581 255 0 0
-325.176 -301.212 -1586 255 0 0
-321.654 -300.938 -1585 130 136 153
-317.538 -300.095 -1581 139 144 161
-315.428 -301.151 -1587 142 147 164
-311.919 -300.88 -1586 133 138 155
-308.222 -300.419 -1584 255 0 0
-304.922 -300.339 -1584 255 0 0
-302.576 -301.208 -1589 255 0 0
-299.082 -300.94 -1588 137 142 159
-296.526 -301.621 -1592 127 132 149
-292.85 -301.165 -1590 124 126 144
-290.461 -302.036 -1595 130 132 150
-287.153 -301.961 -1595 120 125 142
-283.669 -301.698 -1594 124 129 146
-280.72 -302.003 -1596 121 126 143
-276.895 -301.363 -1593 125 130 145
-273.601 -301.292 -1593 126 130 146
-270.139 -301.032 -1592 127 129 145
-267.354 -301.53 -1595 133 136 149
-263.4 -300.705 -1591 144 147 160
-260.446 -301.015 -1593 143 144 162
-256.679 -300.381 -1590 141 142 160
-254.042 -301.071 -1594 136 138 156
-251.075 -301.383 -1596 138 140 156
-248.414 -302.074 -1600 146 148 165
-245.891 -302.954 -1605 140 142 162
-242.896 -303.268 -1607 140 142 160
-239.15 -302.64 -1604 139 141 159
-236.3 -303.145 -1607 140 143 158
-233.295 -303.461 -1609 138 140 158
-230.426 -303.967 -1612 141 143 163
-226.843 -303.531 -1610 140 142 160
-223.131 -302.908 -1607 136 138 156
-219.57 -302.474 -1605 255 0 0
-215.749 -301.664 -1601 255 0 0
-212.61 -301.797 -1602 255 0 0
-209.73 -302.308 -1605 143 145 163
-207.226 -303.384 -1611 142 144 162
-204.192 -303.708 -1613 145 147 165
-201.277 -304.221 -1616 148 150 168
-197.616 -303.605 -1613 255 0 0
-194.21 -303.366 -1612 255 0 0
-190.691 -302.941 -1610 255 0 0
-187.298 -302.704 -1609 255 0 0
-183.796 -302.28 -1607 255 0 0
-180.641 -302.422 -1608 255 0 0
-177.484 -302.564 -1609 255 0 0
-174.54 -303.083 -1612 255 0 0
-171.905 -304.166 -1618 255 0 0
-169.246 -305.25 -1624 255 0 0
-166.054 -305.395 -1625 255 0 0
-162.659 -305.166 -1624 255 0 0
-159.563 -305.5 -1626 255 0 0
-156.269 -305.46 -1626 255 0 0
-152.693 -304.857 -1623 255 0 0
-149.775 -305.569 -1627 255 0 0
-146.933 -306.47 -1632 255 0 0
-143.983 -307.184 -1636 255 0 0
-140.503 -306.772 -1634 255 0 0
-137.787 -308.051 -1641 150 152 170
-134.962 -309.142 -1647 154 156 174
-132.035 -310.047 -1652 152 154 172
-128.776 -310.201 -1653 150 154 171
-125.97 -311.482 -1660 255 0 0
-122.915 -312.201 -1664 255 0 0
-119.486 -311.983 -1663 255 0 0
-116.131 -311.953 -1663 153 155 173
-112.845 -312.111 -1664 155 157 175
-109.491 -312.083 -1664 153 155 173
-106.137 -312.055 -1664 159 160 178
-103.34 -313.716 -1673 161 162 180
-100.448 -315.19 -1681 158 159 177
-97.5244 -316.665 -1689 152 153 171
-94.9039 -319.265 -1703 152 153 171
-92.0128 -321.116 -1713 146 147 165
-88.5652 -321.093 -1713 145 146 164
-85.1681 -321.258 -1714 145 147 165
-82.1491 -322.924 -1723 142 144 162
-79.0032 -324.215 -1730 144 145 165
-75.9171 -325.882 -1739 145 146 165
-483.822 -328.902 -1691 131 141 151
-474.749 -325.077 -1672 127 136 146
-467.736 -322.617 -1660 125 134 145
-461.617 -320.742 -1651 119 128 140
-455.819 -319.064 -1643 125 130 145
-452.262 -318.942 -1643 123 129 143
-447.344 -317.85 -1638 122 128 143
-442.993 -317.148 -1635 118 125 137
-438.39 -316.253 -1631 115 121 134
-433.275 -314.972 -1625 113 119 134
-427.397 -313.112 -1616 113 119 134
-422.348 -311.836 -1610 127 133 148
-417.589 -310.755 -1605 134 140 155
-412.854 -309.675 -1600 255 0 0
-409.425 -309.565 -1600 255 0 0
-405.999 -309.455 -1600 255 0 0
-403.08 -309.734 -1602 138 145 160
-400.156 -310.012 -1604 137 144 159
-396.485 -309.713 -1603 137 143 158
-392.086 -308.835 -1599 141 147 162
-388.437 -308.537 -1598 255 0 0
-383.832 -307.469 -1593 255 0 0
-379.729 -306.788 -1590 255 0 0
-376.589 -306.88 -1591 255 0 0
-374.387 -307.744 -1596 255 0 0
-371.236 -307.837 -1597 255 0 0
-368.776 -308.509 -1601 255 0 0
-365.161 -308.219 -1600 255 0 0
-361.327 -307.737 -1598 255 0 0
-356.833 -306.679 -1593 255 0 0
-353.029 -306.2 -1591 255 0 0
-349.456 -305.914 -1590 255 0 0
-345.019 -304.86 -1585 255 0 0
-340.822 -304 -1581 255 0 0
-337.499 -303.91 -1581 255 0 0
-334.391 -304.013 -1582 255 0 0
-330.025 -302.964 -1577 255 0 0
-327.34 -303.454 -1580 255 0 0
-324.851 -304.135 -1584 255 0 0
-321.536 -304.05 -1584 134 140 157
-317.42 -303.198 -1580 134 139 156
-315.113 -304.074 -1585 138 143 160
-311.411 -303.607 -1583 138 143 160
-307.914 -303.334 -1582 255 0 0
-305.002 -303.637 -1584 255 0 0
-302.274 -304.132 -1587 255 0 0
-298.972 -304.052 -1587 136 141 158
-296.603 -304.932 -1592 127 132 149
-293.48 -305.046 -1593 129 131 149
-290.537 -305.352 -1595 132 134 152
-287.588 -305.659 -1597 125 128 146
-283.743 -305.01 -1594 124 126 144
-280.441 -304.935 -1594 134 136 154
-276.62 -304.289 -1591 137 139 157
-273.5 -304.408 -1592 136 139 156
-270.549 -304.719 -1594 131 133 150
-267.759 -305.222 -1597 133 135 152
-263.966 -304.579 -1594 144 146 162
-261.004 -304.892 -1596 140 141 159
-257.23 -304.251 -1593 137 138 156
-253.948 -304.184 -1593 132 134 152
-250.826 -304.309 -1594 131 133 151
-248.478 -305.389 -1600 143 145 163
-245.801 -306.088 -1604 140 142 161
-242.808 -306.406 -1606 139 141 159
-239.361 -306.152 -1605 139 141 159
-236.067 -306.09 -1605 148 150 167
-232.92 -306.22 -1606 146 148 165
-229.771 -306.35 -1607 149 151 170
-226.338 -306.1 -1606 150 152 170
-222.911 -305.851 -1605 145 147 166
-219.49 -305.603 -1604 255 0 0
-215.805 -304.975 -1601 255 0 0
-212.798 -305.3 -1603 255 0 0
-210.307 -306.387 -1609 158 161 179
-207.408 -306.904 -1612 155 158 176
-204.372 -307.232 -1614 156 158 176
-201.578 -307.94 -1618 160 162 180
-198.035 -307.508 -1616 255 0 0
-194.26 -306.696 -1612 255 0 0
-190.74 -306.265 -1610 255 0 0
-187.113 -305.646 -1607 255 0 0
-183.729 -305.407 -1606 255 0 0
-180.126 -304.79 -1603 255 0 0
-177.088 -305.124 -1605 255 0 0
-173.935 -305.268 -1606 255 0 0
-170.886 -305.604 -1608 255 0 0
-168.143 -306.51 -1613 255 0 0
-165.177 -307.037 -1616 255 0 0
-161.799 -306.805 -1615 255 0 0
-158.721 -307.143 -1617 255 0 0
-156.02 -308.242 -1623 255 0 0
-152.732 -308.202 -1623 255 0 0
-149.814 -308.922 -1627 255 0 0
-147.061 -310.023 -1633 255 0 0
-144.46 -311.504 -1641 255 0 0
-141.055 -311.277 -1640 255 0 0
-138.158 -312.19 -1645 152 154 172
-135.243 -313.104 -1650 153 155 173
-132.308 -314.018 -1655 151 153 171
-128.965 -313.984 -1655 145 149 167
-125.85 -314.521 -1658 255 0 0
-122.873 -315.437 -1663 255 0 0
-119.373 -315.027 -1661 255 0 0
-116.161 -315.375 -1663 156 158 176
-112.942 -315.725 -1665 154 156 174
-109.848 -316.455 -1669 153 154 172
-106.547 -316.617 -1670 161 162 180
-103.861 -318.675 -1681 159 160 178
-100.772 -319.596 -1686 152 153 171
-97.7804 -320.898 -1693 152 153 171
-94.7609 -322.2 -1700 155 156 174
-91.8752 -324.071 -1710 150 151 169
-88.4328 -324.048 -1710 142 143 161
-85.0408 -324.215 -1711 136 138 156
-82.0747 -326.088 -1721 140 141 159
-79.0691 -327.962 -1731 141 142 162
-483.954 -332.479 -1691 139 148 158
-474.595 -328.416 -1671 134 143 153
-467.581 -325.929 -1659 129 138 149
-461.183 -323.837 -1649 118 127 138
-455.388 -322.141 -1641 117 123 138
-451.284 -321.625 -1639 115 121 136
-447.192 -321.11 -1637 116 122 136
-442.571 -320.204 -1633 116 123 136
-438.509 -319.692 -1631 113 120 133
-433.393 -318.397 -1625 112 118 133
-428.042 -316.909 -1618 111 117 132
-422.987 -315.618 -1612 120 126 141
-417.701 -314.133 -1605 134 140 155
-412.966 -313.042 -1600 255 0 0
-409.024 -312.539 -1598 255 0 0
-406.109 -312.82 -1600 255 0 0
-402.182 -312.319 -1598 137 143 158
-399.266 -312.601 -1600 141 147 162
-395.85 -312.494 -1600 140 146 161
-391.211 -311.411 -1595 255 0 0
-387.083 -310.72 -1592 255 0 0
-383.453 -310.421 -1591 255 0 0
-379.115 -309.538 -1587 255 0 0
-375.98 -309.631 -1588 255 0 0
-373.549 -310.31 -1592 255 0 0
-370.638 -310.599 -1594 255 0 0
-367.723 -310.889 -1596 255 0 0
-364.574 -310.985 -1597 255 0 0
-360.971 -310.693 -1596 255 0 0
-356.704 -309.818 -1592 255 0 0
-352.901 -309.334 -1590 255 0 0
-349.109 -308.85 -1588 255 0 0
-344.676 -307.785 -1583 255 0 0
-340.266 -306.721 -1578 255 0 0
-336.095 -305.853 -1574 255 0 0
-332.577 -305.569 -1573 255 0 0
-328.857 -305.092 -1571 255 0 0
-326.391 -305.781 -1575 255 0 0
-324.117 -306.665 -1580 255 0 0
-321.215 -306.967 -1582 255 0 0
-317.705 -306.687 -1581 134 139 156
-315.395 -307.572 -1586 135 140 157
-311.887 -307.295 -1585 138 143 160
-308.385 -307.018 -1584 255 0 0
-305.275 -307.13 -1585 255 0 0
-302.545 -307.631 -1588 255 0 0
-299.051 -307.357 -1587 131 136 153
-296.309 -307.858 -1590 127 132 149
-293.005 -307.78 -1590 133 136 154
-290.431 -308.477 -1594 144 146 164
-287.484 -308.787 -1596 135 137 155
-283.462 -307.937 -1592 139 141 159
-280.691 -308.443 -1595 145 146 164
-277.04 -307.982 -1593 143 145 163
-273.916 -308.102 -1594 141 143 161
-270.45 -307.837 -1593 137 139 157
-267.83 -308.538 -1597 138 140 158
-263.87 -307.695 -1593 144 146 164
-260.746 -307.819 -1594 142 144 162
-257.136 -307.364 -1592 142 144 163
-254.174 -307.683 -1594 140 142 160
-251.207 -308.002 -1596 136 138 156
-248.544 -308.708 -1600 138 140 158
-245.559 -309.028 -1602 141 143 161
-242.267 -308.964 -1602 142 144 162
-238.827 -308.707 -1601 133 135 153
-235.246 -308.259 -1599 135 137 155
-232.256 -308.583 -1601 137 139 157
-229.116 -308.715 -1602 133 135 153
-226.256 -309.233 -1605 141 143 161
-222.969 -309.174 -1605 141 143 161
-219.958 -309.501 -1607 255 0 0
-215.996 -308.481 -1602 255 0 0
-212.588 -308.232 -1601 255 0 0
-209.839 -308.946 -1605 143 148 165
-207.076 -309.661 -1609 150 154 172
-203.919 -309.8 -1610 156 158 176
-201.506 -311.093 -1617 145 150 167
-198.086 -310.848 -1616 255 0 0
-194.431 -310.22 -1613 255 0 0
-190.79 -309.592 -1610 255 0 0
-187.046 -308.774 -1606 255 0 0
-183.548 -308.341 -1604 255 0 0
-180.285 -308.293 -1604 255 0 0
-177.134 -308.438 -1605 255 0 0
-173.981 -308.584 -1606 255 0 0
-171.037 -309.116 -1609 255 0 0
-168.187 -309.84 -1613 255 0 0
-164.811 -309.604 -1612 255 0 0
-161.54 -309.561 -1612 255 0 0
-158.467 -309.903 -1614 255 0 0
-155.58 -310.63 -1618 255 0 0
-152.207 -310.398 -1617 255 0 0
-149.669 -311.894 -1625 255 0 0
-146.829 -312.815 -1630 255 0 0
-144.146 -314.12 -1637 255 0 0
-140.919 -314.275 -1638 255 0 0
-138.11 -315.39 -1644 154 156 174
-135.114 -316.121 -1648 154 156 174
-132.183 -317.046 -1653 153 155 173
-128.921 -317.203 -1654 144 146 164
-126.035 -318.32 -1660 255 0 0
-122.978 -319.055 -1664 255 0 0
-119.547 -318.832 -1663 255 0 0
-116.261 -318.993 -1664 156 158 176
-113.175 -319.729 -1668 154 156 174
-110.074 -320.467 -1672 148 149 167
-106.766 -320.631 -1673 153 154 172
-104.073 -322.711 -1684 156 157 175
-100.858 -323.259 -1687 154 155 173
-97.748 -324.191 -1692 151 152 170
-94.6739 -325.316 -1698 154 155 173
-91.7915 -327.208 -1708 150 151 169
-88.3005 -326.993 -1707 148 149 167
-85.0629 -327.736 -1711 143 144 162
-82.0006 -329.247 -1719 139 140 158
-78.9525 -330.95 -1728 139 141 161
-483.515 -335.661 -1689 141 150 160
-475.01 -332.15 -1672 136 145 155
-468.274 -329.835 -1661 127 136 146
-461.31 -327.324 -1649 117 126 136
-454.125 -324.618 -1636 115 121 136
-450.581 -324.493 -1636 118 124 139
-446.768 -324.17 -1635 123 129 144
-441.879 -323.057 -1630 123 130 143
-438.36 -322.935 -1630 115 121 134
-433.245 -321.627 -1624 113 119 134
-427.1 -319.528 -1614 113 119 134
-422.052 -318.224 -1608 113 119 134
-416.514 -316.526 -1600 122 128 143
-411.271 -315.028 -1593 255 0 0
-408.111 -315.113 -1594 255 0 0
-405.712 -315.792 -1598 255 0 0
-401.788 -315.286 -1596 136 142 157
-398.875 -315.571 -1598 146 152 167
-395.462 -315.463 -1598 150 156 171
-390.336 -313.973 -1591 144 150 165
-385.972 -313.078 -1587 255 0 0
-382.352 -312.776 -1586 255 0 0
-378.261 -312.081 -1583 255 0 0
-375.372 -312.372 -1585 255 0 0
-372.946 -313.058 -1589 255 0 0
-370.273 -313.548 -1592 255 0 0
-367.131 -313.644 -1593 255 0 0
-364.216 -313.938 -1595 255 0 0
-361.295 -314.233 -1597 255 0 0
-357.921 -314.136 -1597 255 0 0
-353.884 -313.449 -1594 255 0 0
-350.303 -313.157 -1593 255 0 0
-345.858 -312.08 -1588 255 0 0
-341.221 -310.808 -1582 255 0 0
-336.399 -309.34 -1575 255 0 0
-332.455 -308.661 -1572 255 0 0
-328.736 -308.179 -1570 255 0 0
-326.686 -309.268 -1576 255 0 0
-323.794 -309.572 -1578 255 0 0
-321.099 -310.073 -1581 135 140 157
-317.791 -309.987 -1581 139 144 161
-315.281 -310.686 -1585 136 141 158
-311.577 -310.209 -1583 134 139 156
-308.468 -310.322 -1584 255 0 0
-305.55 -310.631 -1586 255 0 0
-302.626 -310.94 -1588 255 0 0
-299.131 -310.664 -1587 133 138 155
-296.202 -310.975 -1589 132 137 154
-293.083 -311.092 -1590 133 136 154
-290.327 -311.6 -1593 139 141 159
-287.2 -311.718 -1594 135 137 155
-283.537 -311.25 -1592 138 139 157
-280.238 -311.175 -1592 141 142 160
-276.592 -310.709 -1590 140 142 160
-273.645 -311.026 -1592 141 143 161
-270.522 -311.148 -1593 141 143 161
-267.733 -311.662 -1596 141 143 161
-263.94 -311.005 -1593 140 142 160
-261.143 -311.52 -1596 135 137 155
-257.043 -310.475 -1591 134 136 155
-253.604 -310.212 -1590 134 136 155
-250.801 -310.73 -1593 134 136 154
-248.454 -311.833 -1599 135 137 154
-245.318 -311.962 -1600 140 142 158
-242.482 -312.482 -1603 143 145 163
-239.189 -312.418 -1603 141 143 161
-235.603 -311.965 -1601 134 136 154
-232.317 -311.902 -1601 135 137 155
-229.034 -311.841 -1601 137 139 157
-225.893 -311.975 -1602 135 137 155
-222.611 -311.915 -1602 135 137 155
-219.742 -312.441 -1605 255 0 0
-216.188 -311.993 -1603 255 0 0
-212.91 -311.936 -1603 255 0 0
-209.895 -312.269 -1605 255 0 0
-207.002 -312.797 -1608 139 143 161
-203.846 -312.937 -1609 138 140 160
-201.185 -313.856 -1614 138 140 159
-197.893 -313.803 -1614 255 0 0
-194.121 -312.973 -1610 255 0 0
-190.721 -312.728 -1609 255 0 0
-187.095 -312.095 -1606 255 0 0
-183.826 -312.046 -1606 255 0 0
-180.558 -311.997 -1606 255 0 0
-177.402 -312.144 -1607 255 0 0
-174.243 -312.292 -1608 255 0 0
-171.082 -312.44 -1609 255 0 0
-168.023 -312.784 -1611 255 0 0
-164.752 -312.739 -1611 255 0 0
-161.382 -312.502 -1610 255 0 0
-158.411 -313.042 -1613 255 0 0
-155.525 -313.777 -1617 255 0 0
-152.436 -314.124 -1619 255 0 0
-149.432 -314.666 -1622 255 0 0
-146.867 -316.179 -1630 255 0 0
-143.919 -316.916 -1634 255 0 0
-140.956 -317.655 -1638 255 0 0
-137.81 -318.006 -1640 153 155 173
-134.986 -319.133 -1646 152 154 172
-132.297 -320.649 -1654 150 152 170
-129.188 -321.196 -1657 255 0 0
-126.068 -321.744 -1660 255 0 0
-123.159 -322.874 -1666 255 0 0
-119.722 -322.648 -1665 255 0 0
-116.152 -322.035 -1662 152 154 172
-113.001 -322.587 -1665 153 155 173
-109.971 -323.526 -1670 152 154 172
-106.794 -324.078 -1673 154 155 173
-104.286 -326.763 -1687 153 154 172
-101.124 -327.51 -1691 154 155 173
-98.1203 -328.84 -1698 152 153 171
-94.9218 -329.589 -1702 154 155 173
-91.6542 -330.145 -1705 148 149 167
-88.2718 -330.315 -1706 145 146 164
-85.1845 -331.648 -1713 142 143 161
-82.022 -332.787 -1719 137 138 156
-78.9731 -334.508 -1728 141 142 162
-482.791 -338.637 -1686 136 145 155
-475.142 -335.692 -1672 137 146 156
-468.404 -333.352 -1661 128 137 147
-461.159 -330.613 -1648 122 131 141
-454.807 -328.479 -1638 118 124 139
-450.982 -328.152 -1637 118 124 139
-447.712 -328.227 -1638 120 126 139
-442.815 -327.101 -1633 121 128 140
-439.558 -327.179 -1634 118 125 137
-433.898 -325.456 -1626 115 121 136
-427.748 -323.334 -1616 117 123 138
-421.644 -321.216 -1606 119 125 140
-416.108 -319.5 -1598 121 127 142
-411.385 -318.385 -1593 255 0 0
-408.224 -318.471 -1594 255 0 0
-405.569 -318.958 -1597 255 0 0
-401.395 -318.247 -1594 137 143 158
-398.236 -318.336 -1595 141 147 162
-394.334 -317.827 -1593 145 151 166
-389.216 -316.322 -1586 144 150 165
-385.105 -315.617 -1583 255 0 0
-381.492 -315.312 -1582 255 0 0
-377.409 -314.61 -1579 255 0 0
-374.29 -314.705 -1580 255 0 0
-371.404 -315.001 -1582 255 0 0
-368.514 -315.297 -1584 255 0 0
-365.387 -315.395 -1585 255 0 0
-362.945 -316.091 -1589 255 0 0
-360.263 -316.588 -1592 255 0 0
-357.122 -316.688 -1593 255 0 0
-353.315 -316.193 -1591 255 0 0
-350.399 -316.494 -1593 255 0 0
-346.388 -315.802 -1590 255 0 0
-341.53 -314.318 -1583 255 0 0
-337.131 -313.232 -1578 255 0 0
-332.968 -312.347 -1574 255 0 0
-328.825 -311.462 -1570 255 0 0
-326.153 -311.968 -1573 255 0 0
-323.061 -312.077 -1574 255 0 0
-320.17 -312.386 -1576 136 141 158
-317.274 -312.695 -1578 130 135 152
-314.77 -313.402 -1582 130 135 152
-311.268 -313.118 -1581 136 141 158
-308.162 -313.232 -1582 255 0 0
-305.054 -313.346 -1583 255 0 0
-301.945 -313.461 -1584 255 0 0
-298.835 -313.577 -1585 135 140 157
-295.536 -313.497 -1585 129 134 151
-292.793 -314.01 -1588 128 131 149
-290.405 -314.919 -1593 125 127 145
-287.097 -314.841 -1593 128 130 148
-283.258 -314.171 -1590 140 142 160
-280.665 -314.884 -1594 141 142 160
-277.015 -314.414 -1592 133 136 154
-274.063 -314.734 -1594 137 139 157
-270.935 -314.857 -1595 143 145 163
-268.141 -315.377 -1598 144 146 164
-264.177 -314.515 -1594 135 137 155
-261.213 -314.839 -1596 130 132 150
-257.112 -313.782 -1591 132 134 153
-253.513 -313.319 -1589 139 141 161
-250.711 -313.842 -1592 141 143 161
-248.055 -314.563 -1596 142 144 161
-244.924 -314.694 -1597 139 141 157
-242.093 -315.219 -1600 140 142 159
-238.954 -315.351 -1601 144 146 164
-235.077 -314.5 -1597 142 144 162
-232.234 -315.028 -1600 139 141 159
-229.095 -315.162 -1601 151 153 171
-225.813 -315.101 -1601 145 147 165
-222.671 -315.237 -1602 142 144 162
-219.664 -315.571 -1604 139 141 159
-215.976 -314.923 -1601 255 0 0
-212.701 -314.865 -1601 255 0 0
-209.559 -315.005 -1602 255 0 0
-206.671 -315.539 -1605 129 133 151
-203.393 -315.484 -1605 134 136 155
-200.616 -316.216 -1609 137 139 158
-197.578 -316.555 -1611 133 135 153
-194.052 -316.11 -1609 255 0 0
-190.654 -315.862 -1608 255 0 0
-187.028 -315.222 -1605 255 0 0
-183.531 -314.779 -1603 255 0 0
-179.819 -313.945 -1599 255 0 0
-176.676 -314.094 -1600 255 0 0
-173.639 -314.44 -1602 255 0 0
-170.702 -314.982 -1605 255 0 0
-167.859 -315.722 -1609 255 0 0
-164.898 -316.266 -1612 255 0 0
-161.726 -316.418 -1613 255 0 0
-158.453 -316.376 -1613 255 0 0
-155.47 -316.922 -1616 255 0 0
-152.288 -317.077 -1617 255 0 0
-149.379 -317.821 -1621 255 0 0
-146.546 -318.762 -1626 255 0 0
-143.958 -320.291 -1634 255 0 0
-140.994 -321.037 -1638 143 145 163
-137.847 -321.392 -1640 146 148 166
-134.857 -322.139 -1644 146 148 166
-132.252 -323.867 -1653 142 144 162
-128.832 -323.636 -1652 255 0 0
-125.798 -324.386 -1656 255 0 0
-122.895 -325.528 -1662 255 0 0
-119.754 -326.083 -1665 144 146 164
-116.252 -325.66 -1663 147 149 167
-113.574 -327.588 -1673 151 153 171
-110.527 -328.537 -1678 152 154 172
-107.333 -329.095 -1681 151 152 170
-104.746 -331.612 -1694 148 149 167
-101.39 -331.78 -1695 155 156 174
-98.2041 -332.537 -1699 152 153 171
-94.8911 -332.902 -1701 149 150 168
-91.5709 -333.269 -1703 148 149 167
-88.1917 -333.441 -1704 146 147 165
-85.2071 -335.179 -1713 142 143 161
-81.9483 -335.939 -1717 140 141 159
-79.0854 -338.461 -1730 147 148 168
-488.046 -343.365 -1691 134 144 154
-483.213 -342.415 -1687 134 143 153
-477.55 -340.859 -1680 132 141 151
-469.946 -337.885 -1666 127 136 146
-462.968 -335.32 -1654 124 133 143
-456.601 -333.163 -1644 122 128 142
-451.66 -332.022 -1639 121 127 141
