ply
format ascii 1.0
comment Created by Open3D
element vertex 1367
property double x
property double y
property double z
property uchar red
property uchar green
property uchar blue
end_header
-261.153 -948.817 -1620 176 125 87
-257.184 -947.422 -1618 177 126 89
-253.697 -947.787 -1619 177 126 89
-250.517 -949.326 -1622 176 125 87
-247.021 -949.697 -1623 176 125 86
-243.673 -950.656 -1625 179 128 90
-240.614 -952.787 -1629 180 131 92
-237.975 -956.675 -1636 181 130 90
-234.878 -958.81 -1640 180 130 89
-231.202 -958.61 -1640 178 130 87
-227.528 -958.413 -1640 173 127 88
-224.129 -959.388 -1642 172 124 87
-323.534 -956.378 -1618 139 110 91
-320.823 -959.051 -1623 150 112 91
-316.138 -955.819 -1618 155 112 89
-312.059 -954.364 -1616 157 110 83
-308.183 -953.503 -1615 158 109 79
-304.503 -953.235 -1615 159 110 80
-300.826 -952.972 -1615 163 114 85
-297.153 -952.711 -1615 167 115 85
-293.482 -952.454 -1615 167 115 85
-289.814 -952.2 -1615 167 115 85
-286.326 -952.539 -1616 169 116 84
-282.662 -952.292 -1616 172 117 84
-279.346 -953.226 -1618 172 116 83
-275.853 -953.574 -1619 169 118 83
-272.694 -955.103 -1622 169 120 85
-268.53 -953.101 -1619 172 122 87
-265.363 -954.636 -1622 176 123 89
-262.025 -955.584 -1624 174 123 86
-258.202 -954.77 -1623 174 123 86
-254.23 -953.372 -1621 176 125 88
-251.351 -956.093 -1626 174 123 86
-247.843 -956.465 -1627 175 124 87
-244.483 -957.427 -1629 178 127 89
-241.413 -959.568 -1633 177 128 90
-238.617 -962.885 -1639 180 129 89
-235.224 -963.855 -1641 179 129 88
-231.542 -963.654 -1641 177 129 86
-227.724 -962.868 -1640 172 126 87
-224.322 -963.847 -1642 169 122 86
-318.927 -956.979 -1612 142 109 90
-315.046 -956.107 -1611 150 111 89
-312.139 -958.205 -1615 157 110 82
-308.452 -957.933 -1615 154 108 78
-304.958 -958.258 -1616 154 108 77
-301.835 -959.771 -1619 158 111 82
-298.149 -959.508 -1619 164 114 85
-293.92 -957.471 -1616 165 115 85
-290.606 -958.4 -1618 166 114 84
-287.285 -959.332 -1620 165 112 80
-283.258 -957.898 -1618 169 115 81
-279.935 -958.836 -1620 170 115 80
-276.775 -960.369 -1623 168 117 82
-273.437 -961.312 -1625 170 119 84
-269.262 -959.3 -1622 172 122 87
-266.249 -961.432 -1626 173 120 85
-262.737 -961.793 -1627 172 121 84
-259.223 -962.156 -1628 173 122 85
-255.236 -960.75 -1626 174 123 86
-252.189 -962.893 -1630 173 122 85
-248.668 -963.265 -1631 177 126 88
-245.297 -964.232 -1633 180 129 90
-241.918 -965.201 -1635 181 130 87
-238.533 -966.172 -1637 179 129 88
-235.572 -968.917 -1642 180 130 89
-231.743 -968.124 -1641 177 127 86
-227.643 -966.155 -1638 171 125 87
-224.106 -966.548 -1639 169 123 88
-220.97 -968.714 -1643 160 115 84
-320.396 -964.996 -1618 136 104 87
-316.889 -965.311 -1619 146 108 87
-313.767 -966.822 -1622 158 112 83
-309.871 -965.951 -1621 156 111 80
-305.792 -964.488 -1619 156 111 79
-302.1 -964.22 -1619 159 111 82
-298.41 -963.956 -1619 162 111 83
-293.996 -961.314 -1615 162 111 82
-290.681 -962.247 -1617 161 110 80
-287.182 -962.588 -1618 161 109 77
-283.331 -961.743 -1617 164 112 78
-279.834 -962.09 -1618 167 114 78
-276.676 -963.629 -1621 167 116 81
-273.508 -965.171 -1624 169 118 83
-269.996 -965.527 -1625 170 119 84
-266.974 -967.668 -1629 171 118 82
-263.128 -966.842 -1628 171 120 83
-259.927 -968.394 -1631 171 120 83
-255.773 -966.388 -1628 174 123 86
-252.254 -966.759 -1629 177 126 89
-249.038 -968.319 -1632 177 126 88
-245.961 -970.476 -1636 180 129 89
-242.425 -970.856 -1637 181 128 82
-238.595 -970.052 -1636 178 128 84
-235.777 -973.403 -1642 176 127 85
-232.228 -973.791 -1643 174 123 83
-228.537 -973.59 -1643 168 122 85
-224.848 -973.392 -1643 165 120 86
-320.878 -970.062 -1619 136 107 90
-317.561 -970.977 -1621 146 110 88
-314.819 -973.692 -1626 157 111 82
-310.91 -972.816 -1625 157 112 82
-307.197 -972.542 -1625 157 112 81
-303.114 -971.075 -1623 160 111 82
-299.412 -970.808 -1623 162 111 82
-294.984 -968.153 -1619 157 105 77
-291.657 -969.089 -1621 150 101 70
-287.968 -968.834 -1621 153 101 69
-284.107 -967.983 -1620 159 106 73
-280.427 -967.734 -1620 165 112 77
-277.261 -969.28 -1623 168 117 82
-274.085 -970.828 -1626 168 117 82
-270.399 -970.588 -1626 168 117 82
-267.373 -972.738 -1630 170 117 81
-263.683 -972.504 -1630 171 120 83
-260.634 -974.66 -1634 173 122 85
-256.627 -973.24 -1632 175 124 87
-253.25 -974.208 -1634 179 128 91
-249.715 -974.582 -1635 180 129 90
-246.478 -976.152 -1638 180 129 89
-242.786 -975.937 -1638 179 127 84
-238.95 -975.13 -1637 178 127 85
-235.983 -977.9 -1642 177 126 85
-232.431 -978.289 -1643 171 124 83
-228.876 -978.682 -1644 167 121 83
-224.223 -974.317 -1637 164 119 83
-320.965 -973.942 -1618 132 103 88
-317.844 -975.462 -1621 144 108 87
-315.099 -978.189 -1626 154 110 80
-311.186 -977.308 -1625 154 109 80
-307.47 -977.033 -1625 154 108 79
-303.757 -976.761 -1625 157 109 80
-300.047 -976.493 -1625 157 107 79
-295.792 -974.425 -1622 155 104 76
-292.455 -975.365 -1624 156 107 76
-288.757 -975.107 -1624 157 105 74
-284.71 -973.652 -1622 159 107 75
-280.502 -971.6 -1619 164 111 77
-277.165 -972.553 -1621 167 116 81
-273.99 -974.108 -1624 168 117 82
-270.639 -975.067 -1626 168 117 82
-267.609 -977.227 -1630 169 117 81
-264.078 -977.59 -1631 171 120 83
-260.864 -979.156 -1634 173 122 85
-257.01 -978.328 -1633 176 125 88
-253.784 -979.899 -1636 178 127 90
-250.394 -980.874 -1638 177 126 88
-246.997 -981.852 -1640 176 125 85
-243.445 -982.233 -1641 176 124 84
-239.599 -981.422 -1640 177 125 85
-236.335 -983.007 -1643 178 126 86
-232.352 -981.603 -1641 172 126 85
-228.799 -981.998 -1642 168 124 85
-224.695 -980.004 -1639 163 120 83
-323.238 -984.479 -1628 127 100 86
-319.698 -984.796 -1629 140 104 84
-316.738 -986.929 -1633 151 109 81
-311.847 -983.021 -1627 153 110 80
-308.123 -982.744 -1627 155 109 80
-304.402 -982.47 -1627 155 108 79
-300.499 -981.596 -1626 152 104 75
-296.056 -978.915 -1622 151 102 73
-292.896 -980.462 -1625 156 107 76
-289.548 -981.409 -1627 159 108 76
-285.842 -981.152 -1627 160 108 76
-281.965 -980.296 -1626 163 112 77
-278.267 -980.046 -1626 166 115 80
-274.74 -980.402 -1627 166 115 80
-271.046 -980.159 -1627 166 115 80
-267.682 -981.124 -1629 168 117 81
-263.988 -980.887 -1629 170 119 82
-261.096 -983.664 -1634 170 119 82
-257.396 -983.433 -1634 173 122 85
-254.009 -984.409 -1636 174 123 86
-250.616 -985.389 -1638 172 121 83
-247.216 -986.37 -1640 172 121 81
-243.809 -987.355 -1642 172 120 82
-239.811 -985.938 -1640 174 122 84
-236.688 -988.131 -1644 176 124 86
-233.266 -989.125 -1646 173 127 86
-230.396 -992.524 -1652 168 125 87
-327.304 -1000.55 -1647 129 102 88
-321.949 -995.4 -1639 141 105 85
-317.993 -994.505 -1638 150 110 84
-312.127 -987.543 -1627 155 112 83
-308.399 -987.264 -1627 158 112 83
-304.487 -986.382 -1626 157 110 81
-300.768 -986.11 -1626 152 105 76
-296.869 -985.235 -1625 152 103 74
-293.88 -987.395 -1629 153 105 74
-290.163 -987.133 -1629 156 105 73
-286.449 -986.874 -1629 158 107 75
-282.217 -984.802 -1626 161 110 75
-278.173 -983.34 -1624 164 113 78
-274.648 -983.698 -1625 163 112 77
-271.288 -984.664 -1627 162 111 76
-267.921 -985.632 -1629 165 114 79
-264.386 -986 -1630 168 117 81
-261.649 -989.393 -1636 169 118 81
-257.625 -987.952 -1634 172 121 84
-254.235 -988.932 -1636 173 122 85
-250.686 -989.311 -1637 171 120 82
-247.134 -989.693 -1638 171 120 78
-243.729 -990.682 -1640 169 117 79
-240.464 -992.278 -1643 172 121 83
-237.187 -993.876 -1646 174 123 85
-234.041 -996.082 -1650 176 125 85
-328.395 -1007.59 -1651 130 103 89
-322.437 -1000.58 -1640 140 106 86
-318.863 -1000.9 -1641 145 107 82
-312.793 -993.297 -1629 150 108 80
-309.057 -993.016 -1629 152 107 78
-305.137 -992.129 -1628 153 106 77
-301.595 -992.464 -1629 154 106 77
-297.685 -991.584 -1628 155 106 77
-294.867 -994.362 -1633 153 106 75
-291.494 -995.315 -1635 153 105 73
-287.763 -995.054 -1635 157 108 75
-283.339 -992.362 -1631 159 107 75
-278.766 -989.067 -1626 161 109 75
-275.402 -990.034 -1628 161 110 75
-270.864 -986.748 -1623 163 112 77
-267.997 -989.545 -1628 165 114 79
-264.623 -990.521 -1630 167 116 80
-262.043 -994.538 -1637 169 118 81
-258.172 -993.696 -1636 171 120 83
-255.241 -996.502 -1641 173 122 85
-251.37 -995.668 -1640 172 121 84
-247.355 -994.23 -1638 172 121 79
-243.798 -994.616 -1639 174 122 82
-240.825 -997.433 -1644 175 123 83
-237.255 -997.825 -1645 175 124 84
-234.534 -1001.86 -1652 176 124 84
-327.698 -1009.14 -1646 130 103 89
-322.336 -1003.94 -1638 141 107 87
-319.153 -1005.49 -1641 143 105 81
-313.269 -998.461 -1630 147 105 77
-310.097 -1000.02 -1633 150 107 77
-305.976 -998.511 -1631 150 105 75
-302.794 -1000.07 -1634 152 105 76
-298.687 -998.574 -1632 154 105 76
-295.676 -1000.75 -1636 153 106 75
-291.758 -999.873 -1635 156 108 77
-288.199 -1000.22 -1636 159 110 77
-283.769 -997.518 -1632 161 109 77
-279.361 -994.818 -1628 161 109 75
-275.82 -995.178 -1629 163 112 77
-271.943 -994.319 -1628 165 114 79
-268.733 -995.907 -1631 166 115 80
-264.862 -995.055 -1630 166 115 79
-262.28 -999.09 -1637 168 117 80
-258.562 -998.854 -1637 173 122 85
-255.626 -1001.67 -1642 175 124 86
-251.75 -1000.83 -1641 174 123 86
-248.182 -1001.22 -1642 175 124 82
-244.464 -1001 -1642 174 124 80
-241.482 -1003.82 -1647 175 125 81
-238.046 -1004.83 -1649 176 124 81
-235.456 -1009.49 -1657 174 125 86
-331.186 -1023.61 -1662 129 102 88
-325.781 -1018.38 -1654 137 103 84
-321.975 -1018.09 -1654 140 103 81
-315.67 -1009.8 -1641 142 100 72
-311.9 -1009.51 -1641 145 102 72
-307.194 -1006.15 -1636 148 103 73
-303.441 -1005.87 -1636 150 104 75
-299.325 -1004.37 -1634 152 105 76
-295.945 -1005.33 -1636 149 102 71
-291.844 -1003.83 -1634 150 102 71
-288.461 -1004.79 -1636 156 107 74
-284.201 -1002.69 -1633 160 111 78
-279.614 -999.364 -1628 162 112 78
-276.07 -999.725 -1629 165 114 79
-272.19 -998.862 -1628 167 116 81
-268.977 -1000.46 -1631 168 117 82
-265.265 -1000.21 -1631 168 117 81
-262.838 -1004.88 -1639 169 118 81
-259.113 -1004.64 -1639 173 122 84
-255.858 -1006.25 -1642 176 125 88
-251.824 -1004.79 -1640 178 127 89
-248.558 -1006.4 -1643 177 126 84
-244.983 -1006.79 -1644 177 126 81
-242.14 -1010.24 -1650 178 128 82
-239.417 -1014.31 -1657 180 126 82
-237.375 -1021.44 -1669 175 127 88
-326.277 -1023.65 -1655 136 104 85
-321.88 -1021.5 -1652 140 105 83
-316.537 -1016.26 -1644 142 102 74
-312.376 -1014.74 -1642 143 101 71
-307.475 -1010.74 -1636 146 102 73
-303.719 -1010.46 -1636 149 103 74
-299.966 -1010.19 -1636 151 104 75
-296.215 -1009.91 -1636 153 105 73
-292.29 -1009.03 -1635 153 105 72
-288.901 -1009.99 -1637 152 105 70
-284.286 -1006.65 -1632 156 107 73
-279.698 -1003.31 -1627 159 109 74
-275.983 -1003.05 -1627 163 112 77
-272.271 -1002.8 -1627 165 114 79
-269.222 -1005.02 -1631 168 117 82
-265.832 -1006.01 -1633 169 119 83
-263.077 -1009.46 -1639 170 120 83
-259.191 -1008.61 -1638 174 123 85
-256.871 -1013.91 -1647 177 126 88
-252.822 -1012.45 -1645 178 127 90
-249.844 -1015.3 -1650 178 127 85
-245.952 -1014.46 -1649 177 128 84
-243.682 -1020.38 -1659 180 131 85
-240.791 -1023.85 -1665 182 128 84
-327.367 -1030.8 -1659 133 103 83
-322.567 -1027.4 -1654 140 105 84
-317.792 -1024 -1649 142 103 74
-313.234 -1021.22 -1645 142 100 70
-308.322 -1017.21 -1639 144 100 70
-303.812 -1014.45 -1635 147 100 71
-300.058 -1014.17 -1635 149 102 73
-296.488 -1014.51 -1636 151 104 71
-292.2 -1012.38 -1633 152 105 70
-288.989 -1013.97 -1636 153 105 70
-284.722 -1011.85 -1633 154 105 70
-280.298 -1009.11 -1629 157 107 72
-276.406 -1008.24 -1628 162 111 76
-273.023 -1009.22 -1630 165 114 79
-269.964 -1011.45 -1634 166 115 80
-266.564 -1012.44 -1636 167 116 81
-263.8 -1015.91 -1642 169 119 82
-260.061 -1015.67 -1642 173 122 84
-256.949 -1017.91 -1646 177 126 88
-253.514 -1018.91 -1648 176 125 88
-250.527 -1021.77 -1653 176 125 83
-246.923 -1022.16 -1654 178 128 85
-244.346 -1026.88 -1662 179 130 85
-241.735 -1031.6 -1670 184 130 86
-239.802 -1039.41 -1683 171 127 89
-237.673 -1046.6 -1695 134 96 63
-329.053 -1039.86 -1666 130 100 80
-323.451 -1033.94 -1657 138 104 82
-318.472 -1029.9 -1651 143 104 75
-314.096 -1027.74 -1648 142 101 71
-308.984 -1023.08 -1641 142 99 69
-304.651 -1020.93 -1638 144 97 70
-301.07 -1021.27 -1639 147 100 70
-297.306 -1020.99 -1639 148 102 69
-293.007 -1018.85 -1636 150 104 68
-289.61 -1019.83 -1638 153 104 69
-284.984 -1016.45 -1633 154 105 70
-280.901 -1014.94 -1631 157 108 73
-277 -1014.06 -1630 162 111 76
-273.61 -1015.05 -1632 164 113 78
-270.543 -1017.29 -1636 166 115 80
-267.136 -1018.28 -1638 166 115 80
-263.882 -1019.9 -1641 167 116 79
-260.459 -1020.91 -1643 171 120 83
-257.498 -1023.77 -1648 174 123 86
-253.901 -1024.16 -1649 178 127 90
-251.213 -1028.27 -1656 181 130 88
-247.747 -1029.29 -1658 182 131 88
-245.453 -1035.27 -1668 182 130 86
-243.55 -1043.11 -1681 183 130 86
-242.019 -1052.81 -1697 167 124 88
-240.137 -1061.28 -1711 126 89 59
-330.744 -1048.97 -1673 130 100 81
-324.534 -1041.14 -1661 139 103 81
-319.541 -1037.08 -1655 144 105 76
-314.388 -1032.4 -1648 143 102 72
-309.083 -1027.1 -1640 142 99 70
-304.934 -1025.56 -1638 143 96 69
-301.166 -1025.28 -1638 147 100 71
-297.4 -1025 -1638 150 103 71
-293.638 -1024.73 -1638 151 104 70
-290.055 -1025.08 -1639 155 106 71
-285.423 -1021.69 -1634 159 109 74
-281.507 -1020.8 -1633 160 110 75
-277.597 -1019.91 -1632 164 113 78
-274.199 -1020.91 -1634 166 115 80
-271.622 -1025.03 -1641 166 115 80
-268.362 -1026.65 -1644 168 117 82
-264.931 -1027.65 -1646 170 119 83
-261.652 -1029.28 -1649 172 121 85
-258.518 -1031.53 -1653 175 124 87
-254.444 -1030.05 -1651 179 128 91
-252.052 -1035.43 -1660 180 129 88
-248.874 -1037.69 -1664 181 129 86
-246.563 -1043.7 -1674 183 129 84
-244.935 -1052.82 -1689 181 129 85
-243.384 -1062.57 -1705 165 121 86
-240.92 -1068.58 -1715 120 84 56
-239.518 -1079.57 -1733 97 74 59
-238.854 -1094.3 -1757 95 77 69
-337.729 -1062.86 -1687 125 102 85
-330.064 -1050.58 -1668 132 103 83
-324.055 -1043.34 -1657 138 102 80
-319.26 -1039.89 -1652 143 104 75
-313.919 -1034.56 -1644 143 101 71
-308.994 -1030.5 -1638 142 99 68
-305.033 -1029.58 -1637 146 99 71
-301.263 -1029.3 -1637 150 102 73
-297.496 -1029.01 -1637 151 103 73
-294.091 -1030 -1639 151 103 71
-290.68 -1030.98 -1641 155 106 71
-286.389 -1028.82 -1638 160 110 75
-282.459 -1027.93 -1637 163 112 77
-278.877 -1028.3 -1638 164 113 78
-275.126 -1028.04 -1638 165 114 79
-272.04 -1030.29 -1642 166 115 80
-268.612 -1031.3 -1644 169 118 83
-265.822 -1034.81 -1650 174 123 88
-262.371 -1035.82 -1652 174 123 87
-259.228 -1038.08 -1656 175 124 87
-255.452 -1037.84 -1656 178 127 90
-252.894 -1042.62 -1664 180 128 88
-249.404 -1043.64 -1666 181 128 86
-247.234 -1050.3 -1677 182 128 83
-245.307 -1058.21 -1690 179 127 85
-243.752 -1068 -1706 171 126 89
-241.846 -1076.54 -1720 135 97 67
-240.294 -1086.95 -1737 98 75 59
-238.394 -1096.12 -1752 94 73 65
-338.047 -1067.67 -1687 125 102 86
-330.969 -1057.23 -1671 134 106 85
-325.535 -1051.86 -1663 139 103 81
-320.528 -1047.76 -1657 142 103 74
-315.743 -1044.3 -1652 142 101 71
-311.173 -1041.48 -1648 144 101 69
-306.811 -1039.29 -1645 145 98 68
-302.835 -1038.37 -1644 150 100 73
-298.866 -1037.46 -1643 153 103 76
-295.265 -1037.81 -1644 155 105 74
-291.484 -1037.53 -1644 157 108 73
-287.007 -1034.74 -1640 160 110 75
-283.069 -1033.84 -1639 161 110 75
-279.309 -1033.58 -1639 162 111 76
-276.056 -1035.21 -1642 164 113 78
-272.626 -1036.21 -1644 166 115 80
-269.19 -1037.22 -1646 171 120 85
-266.231 -1040.12 -1651 174 122 88
-262.776 -1041.13 -1653 174 122 87
-259.156 -1041.51 -1654 174 123 86
-255.381 -1041.27 -1654 178 125 89
-252.826 -1046.07 -1662 180 128 89
-249.487 -1047.72 -1665 180 128 87
-247.317 -1054.41 -1676 184 129 87
-245.972 -1064.88 -1693 183 131 89
-244.409 -1074.71 -1709 178 129 89
-242.212 -1082.03 -1721 156 113 78
-240.102 -1089.98 -1734 101 76 56
-237.527 -1096.04 -1744 95 73 59
-234.908 -1102.1 -1754 96 75 66
-231.72 -1105.65 -1760 86 73 64
-339.169 -1075.04 -1691 123 100 86
-331.877 -1063.91 -1674 137 108 88
-326.822 -1059.79 -1668 142 106 84
-321.992 -1056.3 -1663 142 103 75
-317.571 -1054.09 -1660 142 102 72
-312.979 -1051.26 -1656 145 102 70
-308.968 -1050.33 -1655 150 102 72
-304.78 -1048.77 -1653 152 103 75
-300.423 -1046.58 -1650 155 105 79
-296.622 -1046.3 -1650 158 106 76
-292.824 -1046.02 -1650 157 107 73
-287.628 -1040.67 -1642 157 107 72
-283.681 -1039.77 -1641 159 108 73
-279.742 -1038.87 -1640 161 110 75
-276.315 -1039.88 -1642 163 112 77
-273.048 -1041.52 -1645 167 116 81
-269.77 -1043.16 -1648 171 118 84
-266.804 -1046.07 -1653 173 120 87
-263.5 -1047.72 -1656 173 120 86
-259.713 -1047.47 -1656 175 122 86
-255.775 -1046.6 -1655 177 124 88
-253.215 -1051.42 -1663 181 129 90
-249.871 -1053.08 -1666 181 129 89
-247.844 -1060.43 -1678 185 130 91
-246.493 -1070.94 -1695 185 132 92
-245.21 -1082.08 -1713 185 134 94
-242.861 -1088.8 -1724 180 131 93
-240.742 -1096.78 -1737 134 102 74
-237.34 -1099.08 -1741 109 82 61
-234.19 -1102.65 -1747 94 71 57
-231.014 -1106.22 -1753 84 71 60
-227.814 -1109.79 -1759 81 73 64
-339.693 -1080.52 -1692 120 99 86
-332.589 -1069.99 -1676 140 112 90
-327.133 -1064.56 -1668 146 110 88
-322.298 -1061.06 -1663 144 106 78
-318.064 -1059.48 -1661 142 102 73
-313.465 -1056.63 -1657 145 101 69
-308.887 -1053.79 -1653 153 103 76
-304.885 -1052.86 -1652 153 103 76
-300.343 -1050.02 -1648 152 102 76
-296.543 -1049.74 -1648 155 105 73
-292.568 -1048.82 -1647 157 106 73
-287.9 -1045.36 -1642 158 107 72
-283.776 -1043.82 -1640 158 107 72
-280.348 -1044.82 -1642 158 107 72
-277.25 -1047.1 -1646 161 110 75
-273.639 -1047.48 -1647 165 114 79
-270.844 -1051.04 -1653 168 115 81
-267.702 -1053.32 -1657 170 117 84
-264.226 -1054.34 -1659 172 119 86
-260.115 -1052.83 -1657 175 122 86
-256.481 -1053.22 -1658 178 125 89
-253.606 -1056.79 -1664 181 129 91
-250.556 -1059.72 -1669 181 129 89
-248.669 -1067.74 -1682 183 128 89
-247.162 -1077.66 -1698 185 133 91
-245.584 -1087.58 -1714 193 141 99
-243.09 -1093.7 -1724 197 145 105
-240.414 -1099.18 -1733 177 136 99
-236.881 -1100.86 -1736 167 130 98
-233.739 -1104.44 -1742 151 119 92
-230.44 -1107.39 -1747 123 100 79
-227.51 -1112.25 -1755 100 82 65
-224.418 -1116.47 -1762 84 69 55
-338.41 -1080.26 -1684 119 98 87
-331.914 -1071.6 -1671 141 110 88
-327.053 -1068.07 -1666 146 109 85
-322.606 -1065.84 -1663 145 107 79
-318.751 -1065.53 -1663 144 104 73
-314.332 -1063.31 -1660 146 102 70
-309.743 -1060.45 -1656 150 102 73
-305.914 -1060.15 -1656 152 103 74
-300.994 -1056.02 -1650 152 103 73
-297.005 -1055.1 -1649 155 105 72
-293.025 -1054.18 -1648 158 107 74
-288.525 -1051.34 -1644 158 107 74
-284.046 -1048.51 -1640 159 108 73
-281.298 -1052.08 -1646 158 107 72
-278.02 -1053.73 -1649 161 109 75
-274.397 -1054.1 -1650 161 110 75
-271.594 -1057.68 -1656 164 111 77
-268.28 -1059.34 -1659 168 115 82
-264.636 -1059.72 -1660 171 118 85
-260.362 -1057.56 -1657 175 122 86
-256.879 -1058.59 -1659 179 126 90
-253.541 -1060.26 -1662 181 129 91
-250.643 -1063.85 -1668 181 129 89
-248.757 -1071.9 -1681 184 129 89
-247.25 -1081.87 -1697 188 135 93
-246.103 -1093.74 -1716 198 146 102
-243.743 -1100.52 -1727 205 150 111
-240.641 -1104.12 -1733 187 141 101
-236.831 -1104.53 -1734 179 135 95
-233.422 -1106.85 -1738 181 138 100
-230.394 -1111.09 -1745 174 137 104
-227.206 -1114.69 -1751 160 128 99
-224.12 -1118.93 -1758 133 104 78
-340.344 -1090.26 -1692 120 101 90
-333.426 -1080.28 -1677 145 109 85
-328.153 -1075.45 -1670 145 107 80
-323.11 -1071.27 -1664 145 106 76
-319.249 -1070.96 -1664 144 103 70
-314.633 -1068.08 -1660 143 102 69
-310.227 -1065.85 -1657 148 102 71
-306.022 -1064.27 -1655 152 104 73
-301.647 -1062.05 -1652 156 107 76
-296.929 -1058.55 -1647 160 108 76
-292.949 -1057.63 -1646 160 108 76
-288.449 -1054.78 -1642 160 109 77
-284.491 -1053.86 -1641 159 108 74
-281.225 -1055.52 -1644 160 109 74
-278.285 -1058.46 -1649 161 109 75
-274.826 -1059.48 -1651 162 109 75
-272.017 -1063.06 -1657 164 111 77
-268.697 -1064.73 -1660 167 113 79
-265.208 -1065.76 -1662 172 117 83
-261.082 -1064.22 -1660 174 121 89
-257.278 -1063.98 -1660 177 124 91
-253.783 -1065.01 -1662 181 129 93
-251.032 -1069.26 -1669 182 130 90
-248.697 -1075.43 -1679 184 130 86
-247.048 -1084.8 -1694 189 134 93
-245.907 -1096.73 -1713 207 151 112
-243.41 -1102.9 -1723 206 155 115
-240.453 -1107.15 -1730 197 151 110
-236.783 -1108.2 -1732 189 144 103
-233.241 -1109.89 -1735 187 145 103
-230.348 -1114.79 -1743 186 142 104
-227.032 -1117.77 -1748 186 143 105
-223.822 -1121.39 -1754 184 142 105
-220.713 -1125.66 -1761 173 134 97
-351.338 -1116.85 -1725 89 76 70
-342.082 -1099.69 -1699 123 105 94
-333.748 -1085.12 -1677 147 110 86
-327.683 -1077.69 -1666 147 107 81
-323.227 -1075.43 -1663 146 106 77
-318.789 -1073.18 -1660 146 105 72
-313.988 -1069.64 -1655 144 103 70
-309.776 -1068.05 -1653 149 104 73
-306.132 -1068.4 -1654 154 107 76
-301.572 -1065.52 -1650 160 111 80
-297.395 -1063.94 -1648 165 113 81
-293.587 -1063.66 -1648 164 112 80
-289.782 -1063.38 -1648 161 109 77
-285.459 -1061.16 -1645 161 109 77
-282.009 -1062.18 -1647 163 111 77
-278.721 -1063.84 -1650 160 109 74
-275.423 -1065.51 -1653 163 110 76
-272.113 -1067.18 -1656 169 114 80
-269.117 -1070.14 -1661 169 114 80
-265.621 -1071.17 -1663 173 118 84
-261.804 -1070.92 -1663 175 122 90
-257.369 -1068.1 -1659 178 125 92
-253.567 -1067.85 -1659 181 128 93
-250.821 -1072.12 -1666 181 129 89
-248.342 -1077.67 -1675 183 132 90
-246.262 -1085.15 -1687 190 137 96
-245.423 -1098.42 -1708 210 155 116
-243.642 -1107.83 -1723 210 158 118
-240.543 -1111.46 -1729 204 156 115
-237.146 -1113.8 -1733 198 151 110
-233.598 -1115.5 -1736 192 148 108
-230.568 -1119.78 -1743 191 146 107
-227.118 -1122.13 -1747 190 146 106
-223.652 -1124.48 -1751 190 146 105
-220.422 -1128.12 -1757 190 146 102
-217.043 -1131.12 -1762 186 146 106
-212.918 -1130.28 -1761 183 145 106
-208.563 -1128.15 -1758 177 143 103
-204.805 -1129.24 -1760 170 138 98
-200.926 -1129.68 -1761 167 134 95
-196.821 -1128.85 -1760 168 134 96
-192.832 -1128.67 -1760 179 138 105
-359.625 -1134.56 -1744 78 72 73
-351.068 -1119.91 -1722 86 73 67
-342.213 -1103.96 -1698 126 105 91
-333.872 -1089.33 -1676 152 115 88
-327.804 -1081.86 -1665 150 111 84
-322.957 -1078.3 -1660 148 109 80
-318.521 -1076.04 -1657 149 108 75
-313.722 -1072.48 -1652 147 106 73
-309.513 -1070.88 -1650 152 108 76
-305.872 -1071.23 -1651 156 109 78
-301.315 -1068.34 -1647 161 112 81
-297.141 -1066.76 -1645 166 114 82
-293.692 -1067.77 -1647 167 115 83
-290.237 -1068.78 -1649 164 112 80
-286.255 -1067.85 -1648 161 109 77
-282.966 -1069.52 -1651 163 112 78
-279.497 -1070.55 -1653 163 112 77
-276.022 -1071.57 -1655 165 112 78
-272.54 -1072.6 -1657 170 115 81
-269.052 -1073.63 -1659 173 118 84
-265.558 -1074.67 -1661 175 120 86
-261.899 -1075.06 -1662 177 122 90
-257.617 -1072.87 -1659 181 127 94
-253.964 -1073.27 -1660 181 128 94
-251.213 -1077.55 -1667 181 129 89
-248.581 -1082.48 -1675 182 131 89
-246.499 -1090 -1687 191 138 97
-245.659 -1103.33 -1708 211 156 117
-243.735 -1112.14 -1722 210 158 118
-240.496 -1115.13 -1727 206 158 117
-237.373 -1118.78 -1733 201 155 114
-234.226 -1122.42 -1739 197 152 113
-230.656 -1124.14 -1742 195 150 111
-227.206 -1126.5 -1746 192 148 107
-223.739 -1128.86 -1750 193 149 107
-220.382 -1131.87 -1755 196 152 108
-216.634 -1132.95 -1757 197 153 109
-212.759 -1133.39 -1758 197 153 109
-208.406 -1131.25 -1755 196 154 108
-204.768 -1132.99 -1758 190 151 104
-200.89 -1133.44 -1759 184 144 99
-197.009 -1133.89 -1760 181 141 98
-192.906 -1133.06 -1759 178 136 96
-367.815 -1151.76 -1762 80 70 70
-358.945 -1136.37 -1739 75 68 69
-351.002 -1123.61 -1720 87 75 70
-342.951 -1110.21 -1700 132 107 90
-333.999 -1093.55 -1675 154 117 87
-327.926 -1086.05 -1664 153 115 85
-323.661 -1084.42 -1662 151 112 83
-318.831 -1080.85 -1657 151 110 77
-314.408 -1078.58 -1654 149 107 77
-310.753 -1078.93 -1655 155 111 81
-306.726 -1077.98 -1654 159 112 81
-302.157 -1075.07 -1650 162 113 82
-298.153 -1074.13 -1649 165 114 83
-294.692 -1075.14 -1651 166 114 82
-290.695 -1074.21 -1650 166 114 82
-286.707 -1073.27 -1649 165 112 78
-283.412 -1074.95 -1652 164 112 78
-279.43 -1074.02 -1651 164 113 78
-275.956 -1075.06 -1653 166 111 77
-272.31 -1075.44 -1654 169 114 80
-268.826 -1076.48 -1656 174 119 85
-265.174 -1076.87 -1657 176 121 87
-262.152 -1079.86 -1662 181 126 92
-258.022 -1078.31 -1660 183 128 93
-254.669 -1080.01 -1663 184 129 93
-251.757 -1083.66 -1669 184 130 91
-248.821 -1087.31 -1675 182 130 89
-246.152 -1092.27 -1683 188 135 94
-245.032 -1104.36 -1702 209 154 115
-243.12 -1113.21 -1716 210 159 117
-240.31 -1118.16 -1724 209 160 119
-237.191 -1121.82 -1730 208 162 121
-234.047 -1125.48 -1736 204 159 119
-230.614 -1127.85 -1740 199 154 114
-226.904 -1128.93 -1742 198 153 112
-223.571 -1131.95 -1747 197 153 110
-220.091 -1134.33 -1751 197 153 109
-216.473 -1136.06 -1754 199 154 110
-212.6 -1136.5 -1755 202 156 111
-208.607 -1136.3 -1755 205 159 113
-204.732 -1136.75 -1756 202 157 112
-200.854 -1137.2 -1757 199 154 110
-196.974 -1137.65 -1758 192 147 105
-192.872 -1136.82 -1757 181 143 102
-189.314 -1139.22 -1761 179 142 103
-367.967 -1156.25 -1761 79 69 68
-359.297 -1141.44 -1739 72 63 61
-351.551 -1129.28 -1721 92 80 74
-343.287 -1115.16 -1700 146 115 94
-334.925 -1100.4 -1678 158 119 86
-328.642 -1092.21 -1666 155 116 84
-323.783 -1088.61 -1661 152 113 82
-319.336 -1086.33 -1658 153 111 81
-314.716 -1083.39 -1654 154 111 81
-310.493 -1081.78 -1652 158 114 84
-306.84 -1082.13 -1653 163 116 85
-302.453 -1079.87 -1650 167 118 87
-298.082 -1077.61 -1647 169 118 86
-294.443 -1077.98 -1648 170 117 85
-290.979 -1079 -1650 167 115 83
-286.813 -1077.41 -1648 168 115 81
-283.345 -1078.44 -1650 167 114 80
-279.702 -1078.81 -1651 165 112 78
-275.89 -1078.54 -1651 166 111 77
-272.081 -1078.27 -1651 169 112 79
-268.6 -1079.32 -1653 173 116 83
-264.952 -1079.71 -1654 176 121 87
-261.618 -1081.41 -1657 180 125 91
-257.65 -1080.51 -1656 182 127 92
-254.303 -1082.21 -1659 183 128 92
-251.398 -1085.88 -1665 185 130 91
-248.022 -1087.59 -1668 186 131 90
-245.512 -1093.22 -1677 189 134 93
-243.973 -1103.41 -1693 200 147 108
-242.221 -1112.95 -1708 205 158 115
-239.985 -1120.54 -1720 205 158 116
-237.696 -1128.12 -1732 208 162 121
-234.409 -1131.15 -1737 207 161 119
-230.705 -1132.22 -1739 203 157 115
-227.254 -1134.61 -1743 202 156 114
-223.403 -1135.04 -1744 203 158 114
-219.675 -1136.12 -1746 203 158 114
-216.064 -1137.86 -1749 204 159 114
-212.2 -1138.31 -1750 207 161 116
-208.213 -1138.1 -1750 209 163 120
-204.696 -1140.5 -1754 207 161 121
-200.819 -1140.96 -1755 206 161 121
-196.828 -1140.77 -1755 204 158 119
-193.059 -1141.88 -1757 192 152 109
-189.282 -1142.99 -1759 189 149 108
-185.498 -1144.11 -1761 191 152 112
-366.448 -1155.47 -1752 79 71 69
-356.963 -1137.96 -1726 84 71 66
-348.831 -1124.43 -1706 127 110 101
-341.806 -1114.2 -1691 157 123 98
-334.256 -1102.01 -1673 159 120 86
-328.176 -1094.44 -1662 156 117 83
-323.712 -1092.14 -1659 154 115 84
-319.265 -1089.85 -1656 155 113 83
-314.644 -1086.91 -1652 156 114 84
-310.61 -1085.94 -1651 159 115 85
-307.142 -1086.95 -1653 165 120 88
-302.75 -1084.68 -1650 169 120 89
-298.556 -1083.07 -1648 169 118 87
-294.911 -1083.43 -1649 170 117 85
-291.441 -1084.46 -1651 168 116 84
-287.268 -1082.86 -1649 169 116 84
-283.795 -1083.89 -1651 169 116 84
-280.146 -1084.27 -1652 168 115 81
-276.328 -1084 -1652 168 113 79
-272.183 -1082.42 -1650 170 113 80
-268.537 -1082.81 -1651 173 116 83
-264.73 -1082.55 -1651 177 120 87
-261.558 -1084.91 -1655 182 125 92
-257.591 -1084 -1654 183 126 92
-254.245 -1085.72 -1657 184 127 92
-251.492 -1090.06 -1664 185 130 91
-247.817 -1090.47 -1665 189 134 94
-245.019 -1094.81 -1672 191 136 95
-243.202 -1103.74 -1686 195 144 104
-241.18 -1112.01 -1699 199 154 111
-238.962 -1119.63 -1711 201 155 113
-237.378 -1130.52 -1728 207 159 119
-234.367 -1134.87 -1735 208 162 120
-230.398 -1134.64 -1735 207 161 119
-226.953 -1137.03 -1739 206 160 117
-223.235 -1138.12 -1741 206 160 116
-219.385 -1138.56 -1742 207 161 116
-215.533 -1139 -1743 207 161 116
-211.92 -1140.75 -1746 210 166 118
-208.178 -1141.85 -1748 213 167 125
-204.778 -1144.92 -1753 211 166 124
-200.9 -1145.37 -1754 209 165 123
-197.131 -1146.49 -1756 207 164 121
-193.466 -1148.26 -1759 204 161 117
-189.681 -1149.37 -1761 197 155 112
-185.678 -1149.19 -1761 199 157 116
-366.393 -1159.29 -1750 84 76 74
-356.903 -1141.7 -1724 98 83 75
-348.972 -1128.77 -1705 147 124 108
-341.943 -1118.5 -1690 157 121 95
-334.787 -1107.58 -1674 160 122 87
-329.094 -1101.29 -1665 160 120 85
-324.423 -1098.32 -1661 157 118 87
-319.773 -1095.36 -1657 159 117 87
-315.337 -1093.06 -1654 160 117 87
-311.294 -1092.09 -1653 160 117 87
-307.445 -1091.79 -1653 165 120 88
-302.865 -1088.84 -1649 169 120 89
-298.488 -1086.56 -1646 168 118 87
-294.844 -1086.93 -1647 168 115 83
-291.198 -1087.3 -1648 165 113 81
-287.202 -1086.35 -1647 168 114 82
-284.074 -1088.71 -1651 169 114 82
-280.591 -1089.75 -1653 167 114 80
-276.432 -1088.16 -1651 169 112 79
-272.615 -1087.89 -1651 170 113 80
-268.476 -1086.3 -1649 172 115 82
-264.83 -1086.7 -1650 176 119 86
-261.34 -1087.76 -1652 179 122 89
-258 -1089.48 -1655 183 127 93
-254.955 -1092.51 -1660 186 130 93
-252.193 -1096.87 -1667 188 133 94
-248.507 -1097.28 -1668 193 138 98
-245.406 -1100.33 -1673 196 141 100
-242.718 -1105.35 -1681 194 143 103
-239.853 -1109.72 -1688 193 148 105
-237.378 -1116.05 -1698 198 153 109
-235.96 -1127.65 -1716 205 157 116
-233.515 -1134.65 -1727 206 160 119
-229.693 -1135.08 -1728 208 162 119
-226.652 -1139.45 -1735 207 161 118
-223.197 -1141.86 -1739 207 161 116
-219.474 -1142.96 -1741 209 163 118
-215.62 -1143.4 -1742 209 163 117
-212.127 -1145.81 -1746 210 165 116
-208.381 -1146.92 -1748 213 166 122
-204.744 -1148.69 -1751 213 167 123
-200.981 -1149.8 -1753 212 167 122
-197.211 -1150.92 -1755 209 166 121
-193.545 -1152.69 -1758 209 164 120
-189.65 -1153.16 -1759 205 160 118
-185.859 -1154.29 -1761 205 163 122
-365.292 -1159.78 -1743 79 69 68
-355.187 -1140.13 -1714 118 102 94
-347.681 -1128.47 -1697 143 113 92
-341.473 -1120.81 -1686 157 121 95
-334.921 -1111.83 -1673 165 126 92
-329.223 -1105.52 -1664 166 125 87
-325.136 -1104.53 -1663 162 123 90
-320.671 -1102.22 -1660 164 122 92
-316.223 -1099.91 -1657 165 122 93
-311.98 -1098.27 -1655 165 122 94
-308.495 -1099.29 -1657 168 123 91
-303.901 -1096.33 -1653 169 121 89
-299.147 -1092.71 -1648 168 119 87
-295.495 -1093.08 -1649 169 116 84
-291.664 -1092.79 -1649 166 114 82
-287.661 -1091.84 -1648 165 111 78
-284.528 -1094.2 -1652 165 110 76
-280.699 -1093.92 -1652 166 111 77
-276.873 -1093.65 -1652 168 111 78
-272.72 -1092.05 -1650 171 113 80
-268.741 -1091.12 -1649 173 114 81
-265.091 -1091.52 -1650 173 116 83
-261.756 -1093.24 -1653 178 121 88
-258.41 -1094.97 -1656 183 126 92
-255.053 -1096.7 -1659 188 132 95
-252.29 -1101.07 -1666 192 137 97
-248.305 -1100.17 -1665 195 140 99
-245.061 -1102.56 -1669 198 143 102
-241.656 -1104.31 -1672 197 146 104
-238.952 -1109.35 -1680 193 147 103
-235.933 -1113.08 -1686 194 150 106
-234.541 -1124.73 -1704 201 155 114
-231.985 -1131.1 -1714 204 157 114
-229.121 -1136.15 -1722 206 159 116
-226.091 -1140.54 -1729 204 158 114
-222.774 -1143.62 -1734 204 158 113
-218.932 -1144.06 -1735 207 161 116
-215.336 -1145.83 -1738 208 162 116
-211.849 -1148.25 -1742 210 164 115
-208.108 -1149.36 -1744 214 165 121
-204.711 -1152.46 -1749 216 167 123
-201.064 -1154.23 -1752 216 167 123
-197.292 -1155.36 -1754 212 166 123
-193.624 -1157.14 -1757 215 165 119
-189.728 -1157.61 -1758 213 164 119
-185.935 -1158.74 -1760 214 167 126
-182.135 -1159.88 -1762 215 169 131
-178.126 -1159.7 -1762 214 166 129
-361.043 -1150.23 -1721 111 86 82
-352.431 -1135.17 -1699 155 123 113
-344.953 -1123.46 -1682 158 121 104
-338.369 -1114.43 -1669 165 125 97
-333.652 -1111.43 -1665 170 130 98
-328.959 -1108.42 -1661 170 129 94
-324.874 -1107.43 -1660 168 125 93
-320.798 -1106.44 -1659 169 123 94
-316.156 -1103.45 -1655 172 126 96
-311.537 -1100.47 -1651 174 129 97
-308.058 -1101.5 -1653 174 128 99
-303.468 -1098.52 -1649 172 124 94
-298.718 -1094.89 -1644 171 122 91
-294.892 -1094.6 -1644 171 119 87
-291.777 -1096.97 -1648 168 115 81
-287.598 -1095.35 -1646 165 112 78
-284.294 -1097.06 -1649 165 112 78
-281.149 -1099.44 -1653 166 111 79
-277.316 -1099.16 -1653 166 111 78
-273.156 -1097.55 -1651 166 111 78
-269.008 -1095.95 -1649 168 111 80
-265.355 -1096.35 -1650 172 115 84
-261.699 -1096.76 -1651 177 120 88
-258.198 -1097.82 -1653 184 127 94
-254.69 -1098.9 -1655 190 134 97
-251.783 -1102.63 -1661 196 140 102
-248.103 -1103.05 -1662 199 143 105
-244.863 -1105.45 -1666 205 147 108
-241.172 -1105.88 -1667 203 148 108
-237.907 -1108.29 -1671 196 146 103
-234.906 -1112.04 -1677 194 148 103
-232.706 -1119.76 -1689 199 153 111
-230.183 -1126.16 -1699 201 154 110
-227.749 -1133.23 -1710 202 156 111
-225.136 -1139.63 -1720 202 156 112
-222.094 -1144.04 -1727 204 158 115
-218.769 -1147.14 -1732 206 161 118
-215.3 -1149.57 -1736 207 162 118
-211.693 -1151.35 -1739 211 163 116
-208.075 -1153.12 -1742 215 164 122
-204.444 -1154.91 -1745 216 165 124
-200.917 -1157.35 -1749 217 167 126
-197.262 -1159.14 -1752 213 167 126
-193.594 -1160.93 -1755 215 166 122
-189.699 -1161.41 -1756 214 165 120
-186.119 -1163.86 -1760 213 166 124
-182.315 -1165.01 -1762 215 168 129
-178.301 -1164.83 -1762 214 165 127
-358.887 -1147.27 -1709 117 96 93
-350.502 -1132.81 -1688 166 135 124
-343.863 -1123.74 -1675 168 130 113
-338.303 -1118.03 -1667 170 129 104
-333.988 -1116.35 -1665 174 132 103
-329.884 -1115.35 -1664 176 133 99
-325.984 -1115.02 -1664 175 130 98
-321.701 -1113.35 -1662 172 127 97
-317.239 -1111.02 -1659 173 127 98
-312.227 -1106.68 -1653 176 131 99
-308.366 -1106.37 -1653 175 130 98
-303.588 -1102.72 -1648 174 128 95
-299.018 -1099.74 -1644 172 123 90
-294.828 -1098.1 -1642 170 118 86
-291.183 -1098.48 -1643 166 114 81
-287.187 -1097.52 -1642 165 112 79
-284.06 -1099.91 -1646 163 109 75
-281.089 -1102.96 -1651 163 108 76
-277.593 -1104.02 -1653 164 109 76
-273.429 -1102.41 -1651 168 113 79
-269.603 -1102.14 -1651 170 113 82
-265.619 -1101.2 -1650 174 117 86
-262.119 -1102.27 -1652 179 122 91
-258.612 -1103.35 -1654 185 128 95
-255.252 -1105.09 -1657 191 135 98
-252.185 -1108.17 -1662 197 141 104
-248.799 -1109.92 -1665 202 145 108
-245.401 -1111.67 -1668 209 150 112
-241.557 -1111.43 -1668 205 149 110
-238.144 -1113.19 -1671 197 146 104
-234.578 -1114.29 -1673 192 146 103
-231.696 -1118.72 -1680 198 152 109
-228.92 -1123.81 -1688 202 156 111
-226.242 -1129.58 -1697 205 159 115
-223.394 -1134.68 -1705 208 162 119
-220.899 -1141.78 -1716 208 162 121
-217.596 -1144.89 -1721 208 164 122
-214.397 -1148.66 -1727 210 166 124
-211.172 -1152.44 -1733 212 166 119
-207.803 -1155.56 -1738 212 164 120
-204.178 -1157.35 -1741 212 165 122
-200.657 -1159.81 -1745 212 165 123
-197.344 -1163.59 -1751 209 163 122
-193.565 -1164.73 -1753 207 161 119
-189.563 -1164.54 -1753 206 160 119
-186.197 -1168.34 -1759 204 158 118
-182.392 -1169.48 -1761 203 158 119
-178.275 -1168.64 -1760 208 161 123
-367.533 -1166.2 -1729 78 68 74
-358.83 -1151 -1707 123 104 103
-351.273 -1139.18 -1690 168 135 122
-345.033 -1131.41 -1679 173 133 114
-339.052 -1124.32 -1669 173 131 107
-334.928 -1123.31 -1668 173 131 104
-330.813 -1122.3 -1667 178 135 103
-326.706 -1121.29 -1666 179 134 102
-322.8 -1120.96 -1666 176 130 100
-317.942 -1117.28 -1661 177 131 102
-312.542 -1111.58 -1653 180 134 105
-308.491 -1110.59 -1652 180 134 105
-303.709 -1106.92 -1647 176 129 99
-298.773 -1102.58 -1641 171 122 91
-294.766 -1101.61 -1640 169 117 87
-291.121 -1101.99 -1641 167 115 83
-287.125 -1101.03 -1640 167 114 81
-283.655 -1102.08 -1642 167 112 78
-280.519 -1104.48 -1646 165 110 78
-277.032 -1105.54 -1648 165 110 77
-273.372 -1105.94 -1649 167 112 78
-269.547 -1105.66 -1649 172 115 84
-266.047 -1106.73 -1651 176 119 88
-262.223 -1106.47 -1651 182 125 93
-259.028 -1108.89 -1655 187 130 97
-255.662 -1110.64 -1658 193 137 100
-252.59 -1113.73 -1663 199 143 106
-249.048 -1114.82 -1665 203 147 110
-245.646 -1116.58 -1668 207 151 112
-241.654 -1115.67 -1667 206 150 111
-238.239 -1117.43 -1670 198 145 104
-234.252 -1116.53 -1669 194 146 103
-230.961 -1118.97 -1673 197 151 108
-227.519 -1120.75 -1676 201 154 110
-224.867 -1126.54 -1685 205 158 114
-221.912 -1131 -1692 208 160 117
-219.315 -1137.46 -1702 207 161 120
-216.041 -1140.58 -1707 208 163 122
-213.492 -1147.72 -1718 208 164 122
-210.407 -1152.18 -1725 210 165 119
-206.933 -1154.64 -1729 207 162 119
-203.56 -1157.78 -1734 205 159 116
-200.626 -1163.58 -1743 204 158 115
-196.864 -1164.72 -1745 199 155 113
-193.095 -1165.86 -1747 195 150 109
-189.318 -1167 -1749 195 150 109
-185.853 -1170.15 -1754 196 151 113
-182.055 -1171.3 -1756 196 152 114
-178.351 -1173.12 -1759 200 156 117
-170.618 -1174.78 -1762 204 158 120
-166.507 -1173.94 -1761 202 159 122
-372.856 -1174.44 -1733 78 72 73
-367.695 -1170.68 -1728 82 67 71
-358.353 -1153.37 -1703 129 108 108
-350.59 -1140.82 -1685 165 131 117
-344.767 -1134.38 -1676 169 129 110
-339.396 -1129.29 -1669 170 130 107
-335.067 -1127.59 -1667 173 132 106
-331.149 -1127.26 -1667 178 135 103
-327.43 -1127.6 -1668 179 134 102
-323.516 -1127.27 -1668 176 130 99
-318.072 -1121.53 -1660 179 133 104
-312.859 -1116.48 -1653 185 138 109
-308.616 -1114.82 -1651 183 136 109
-303.648 -1110.46 -1645 176 129 101
-298.711 -1106.1 -1639 175 126 95
-294.704 -1105.13 -1638 174 122 92
-290.35 -1102.81 -1635 171 119 88
-286.714 -1103.19 -1636 170 117 85
-283.423 -1104.92 -1639 170 115 81
-279.95 -1105.98 -1641 169 114 82
-276.807 -1108.4 -1645 169 113 82
-273.316 -1109.47 -1647 170 113 82
-269.492 -1109.19 -1647 172 115 84
-266.154 -1110.94 -1650 177 120 89
-262.487 -1111.35 -1651 183 126 94
-258.819 -1111.76 -1652 189 132 99
-255.457 -1113.52 -1655 194 137 102
-252.084 -1115.28 -1658 201 144 108
-248.4 -1115.7 -1659 205 149 112
-245.156 -1118.14 -1663 205 149 110
-241.026 -1116.55 -1661 202 146 107
-237.765 -1119 -1665 198 144 104
-233.925 -1118.76 -1665 198 148 105
-230.226 -1119.2 -1666 197 150 107
-226.389 -1118.97 -1666 198 150 106
-223.623 -1124.11 -1674 200 152 108
-220.56 -1127.92 -1680 202 154 111
-217.471 -1131.73 -1686 201 155 114
-214.104 -1134.2 -1690 201 155 114
-211.343 -1140.02 -1699 201 155 116
-208.176 -1143.84 -1705 202 155 119
-204.864 -1146.98 -1710 204 154 119
-201.883 -1152.14 -1718 201 151 115
-199.445 -1160.66 -1731 200 152 112
-196.045 -1163.81 -1736 196 150 111
-192.403 -1165.63 -1739 194 149 108
-188.749 -1167.45 -1742 192 148 106
-185.508 -1171.95 -1749 186 141 104
-181.822 -1173.78 -1752 189 144 110
-178.123 -1175.61 -1755 197 151 116
-174.612 -1178.78 -1760 197 151 114
-170.788 -1179.95 -1762 199 149 119
-166.484 -1177.77 -1759 195 148 118
-370.653 -1171.46 -1721 78 72 73
-364.876 -1165.64 -1713 87 71 71
-356.192 -1150.3 -1691 131 108 106
-349.491 -1141.1 -1678 165 128 113
-344.09 -1135.98 -1671 168 130 111
-338.115 -1128.84 -1661 171 131 108
-334.404 -1129.17 -1662 176 134 106
-330.492 -1128.83 -1662 181 138 108
-326.781 -1129.17 -1663 183 137 108
-322.487 -1127.48 -1661 178 132 103
-317.821 -1124.44 -1657 178 132 103
-312.041 -1117.34 -1647 184 137 108
-307.433 -1114.31 -1643 182 135 108
-302.479 -1109.93 -1637 180 133 106
-298.285 -1108.26 -1635 178 129 100
-294.103 -1106.61 -1633 179 127 97
-290.468 -1106.99 -1634 175 122 92
-286.479 -1106.02 -1633 173 120 88
-282.845 -1106.4 -1634 171 116 82
-279.551 -1108.15 -1637 170 115 83
-276.245 -1109.9 -1640 170 115 83
-272.929 -1111.65 -1643 171 114 83
-269.765 -1114.08 -1647 174 117 86
-266.585 -1116.51 -1651 177 120 89
-262.753 -1116.24 -1651 182 125 94
-259.238 -1117.33 -1653 186 129 96
-255.561 -1117.74 -1654 193 136 101
-251.882 -1118.16 -1655 198 142 106
-248.052 -1117.91 -1655 202 146 109
-244.814 -1120.36 -1659 200 145 106
-240.834 -1119.44 -1658 200 144 105
-237.433 -1121.22 -1661 199 144 105
-233.458 -1120.31 -1660 203 151 109
-230.043 -1122.1 -1663 202 150 108
-226.073 -1121.19 -1662 200 151 108
-222.779 -1123.66 -1666 196 148 105
-219.468 -1126.14 -1670 192 144 101
-216.27 -1129.29 -1675 185 139 98
-212.544 -1129.75 -1676 182 136 96
-209.812 -1135.6 -1685 181 135 96
-206.797 -1140.11 -1692 186 133 104
-203.391 -1142.59 -1696 187 134 105
-200.205 -1146.43 -1702 188 135 107
-197.569 -1153.64 -1713 189 136 106
-194.207 -1156.81 -1718 185 137 105
-190.824 -1159.98 -1723 186 138 104
-187.529 -1163.83 -1729 181 135 98
-184.314 -1168.35 -1736 174 126 95
-181.173 -1173.55 -1744 176 127 98
-177.794 -1177.41 -1750 185 135 107
-174.39 -1181.27 -1756 184 133 106
-170.765 -1183.79 -1760 184 132 107
-166.461 -1181.6 -1757 185 136 111
-162.543 -1182.11 -1758 188 141 115
-154.784 -1183.8 -1761 196 154 117
-369.957 -1173.21 -1716 75 68 72
-364.825 -1169.41 -1711 82 68 68
-356.981 -1156.74 -1693 128 104 100
-350.059 -1146.81 -1679 168 129 112
-345.268 -1143.72 -1675 171 133 114
-340.5 -1140.63 -1671 175 135 113
-335.553 -1136.87 -1666 180 137 109
-331.429 -1135.85 -1665 182 136 107
-327.51 -1135.51 -1665 182 136 107
-323.011 -1133.13 -1662 178 132 103
-318.147 -1129.39 -1657 175 129 100
-312.55 -1122.94 -1648 178 132 105
-307.748 -1119.21 -1643 181 134 106
-302.603 -1114.13 -1636 179 132 103
-298.224 -1111.78 -1633 181 129 99
-294.224 -1110.8 -1632 179 127 97
-290.231 -1109.82 -1631 176 124 94
-286.421 -1109.52 -1631 173 120 90
-282.787 -1109.91 -1632 171 116 82
-279.323 -1110.98 -1634 171 116 83
-276.021 -1112.74 -1637 171 116 84
-272.874 -1115.18 -1641 172 115 84
-269.384 -1116.26 -1643 175 118 87
-266.534 -1120.06 -1649 178 121 90
-262.702 -1119.79 -1649 183 126 95
-259.344 -1121.56 -1652 184 127 96
-255.666 -1121.98 -1653 188 131 97
-251.834 -1121.72 -1653 193 136 101
-247.854 -1120.79 -1652 194 138 101
-244.324 -1121.89 -1654 191 138 99
-240.497 -1121.64 -1654 196 141 102
-237.245 -1124.11 -1658 202 147 108
-233.413 -1123.87 -1658 207 153 113
-229.861 -1124.99 -1660 208 154 113
-226.03 -1124.76 -1660 206 154 113
-222.469 -1125.89 -1662 202 152 111
-218.77 -1126.34 -1663 197 149 106
-215.197 -1127.48 -1665 188 140 99
-211.49 -1127.94 -1666 171 124 84
-208.404 -1131.79 -1672 156 110 71
-205.415 -1136.31 -1679 160 109 76
-201.556 -1136.11 -1679 164 111 82
-198.641 -1141.32 -1687 165 111 84
-195.806 -1147.21 -1696 171 117 93
-192.027 -1147.69 -1697 178 126 103
-188.911 -1152.23 -1704 176 126 102
-185.981 -1158.12 -1713 172 124 98
-183.013 -1164.02 -1722 172 123 100
-180.004 -1169.92 -1731 176 126 103
-176.957 -1175.82 -1740 179 128 105
-173.572 -1179.7 -1746 180 129 106
-170.161 -1183.58 -1752 181 129 104
-165.965 -1182.06 -1750 184 133 107
-162.429 -1185.27 -1755 186 135 110
-138.792 -1187.73 -1760 175 135 112
-374.631 -1179.44 -1717 70 67 68
-370.34 -1178.37 -1716 74 68 71
-363.922 -1170.44 -1705 82 70 71
-356.083 -1157.71 -1687 129 104 98
-349.585 -1149.11 -1675 175 134 115
-345.212 -1147.38 -1673 179 139 118
-340.035 -1142.91 -1667 180 140 118
-335.495 -1140.5 -1664 183 140 114
-331.372 -1139.47 -1663 183 137 108
-327.454 -1139.13 -1663 180 134 105
-322.955 -1136.74 -1660 175 129 100
-318.282 -1133.67 -1656 168 122 93
-313.061 -1128.56 -1649 169 122 95
-308.252 -1124.81 -1644 168 121 94
-303.285 -1120.4 -1638 166 119 92
-299.262 -1119.4 -1637 173 121 93
-295.248 -1118.41 -1636 174 122 94
-291.241 -1117.43 -1635 174 121 93
-287.418 -1117.13 -1635 174 119 89
-283.598 -1116.83 -1635 172 117 83
-279.781 -1116.54 -1635 173 118 85
-276.304 -1117.62 -1637 172 117 85
-272.987 -1119.39 -1640 175 118 87
-269.496 -1120.48 -1642 178 121 90
-266.483 -1123.61 -1647 181 124 93
-262.811 -1124.02 -1648 185 128 97
-259.295 -1125.12 -1650 187 130 99
-254.999 -1122.81 -1647 187 130 97
-251.176 -1122.55 -1647 184 127 93
-247.206 -1121.61 -1646 188 132 95
-243.391 -1121.36 -1646 197 145 103
-239.433 -1120.44 -1645 206 152 112
-236.484 -1124.28 -1651 211 155 116
-232.947 -1125.4 -1653 214 159 120
-229.264 -1125.84 -1654 214 159 118
-225.579 -1126.29 -1655 210 156 115
-222.16 -1128.11 -1658 206 155 115
-218.466 -1128.56 -1659 202 154 111
-214.769 -1129.02 -1660 201 153 111
-211.324 -1130.84 -1663 197 149 109
-208.367 -1135.39 -1670 183 135 96
-205.012 -1137.9 -1674 159 113 73
-201.16 -1137.69 -1674 145 98 61
-197.782 -1140.2 -1678 141 93 58
-194.619 -1144.08 -1684 145 96 69
-190.523 -1142.53 -1682 150 102 79
-187.438 -1147.09 -1689 156 109 88
-184.323 -1151.65 -1696 153 111 91
-181.177 -1156.22 -1703 156 112 96
-178.313 -1162.83 -1713 160 114 98
-175.406 -1169.43 -1723 165 118 102
-172.056 -1173.33 -1729 167 121 104
-169.555 -1183.33 -1744 170 122 100
-165.564 -1183.16 -1744 170 122 101
-161.76 -1184.35 -1746 161 114 94
-158.671 -1190.97 -1756 157 113 90
-155.097 -1194.21 -1761 155 117 94
-151.16 -1194.73 -1762 143 107 86
-123.019 -1193.75 -1762 129 95 88
-369.429 -1179.41 -1710 76 70 71
-362.377 -1169.38 -1696 84 73 74
-355.185 -1158.66 -1681 145 117 109
-349.113 -1151.4 -1671 183 140 122
-344.95 -1150.35 -1670 185 142 122
-339.775 -1145.86 -1664 184 142 121
-335.036 -1142.76 -1660 184 142 116
-330.718 -1141.04 -1658 183 140 112
-327.004 -1141.38 -1659 177 132 104
-322.316 -1138.3 -1655 172 126 97
-318.227 -1137.28 -1654 164 118 89
-313.385 -1133.51 -1649 161 114 87
-308.759 -1130.44 -1645 158 111 84
-304.339 -1128.06 -1642 160 113 86
-300.12 -1126.37 -1640 167 115 87
-295.733 -1124 -1637 168 116 88
-291.542 -1122.33 -1635 171 119 91
-288.066 -1123.4 -1637 177 121 92
-284.237 -1123.11 -1637 179 124 92
-280.412 -1122.81 -1637 178 123 91
-277.096 -1124.58 -1640 176 121 89
-273.935 -1127.04 -1644 176 119 88
-270.102 -1126.76 -1644 177 120 89
-266.595 -1127.85 -1646 178 121 90
-262.762 -1127.58 -1646 180 123 92
-258.933 -1127.31 -1646 181 124 93
-254.641 -1124.99 -1643 184 127 95
-250.976 -1125.42 -1644 189 132 99
-246.708 -1123.11 -1641 199 143 106
-243.048 -1123.54 -1642 203 152 110
-239.678 -1125.35 -1645 211 158 118
-236.44 -1127.84 -1649 215 159 122
-232.904 -1128.96 -1651 219 163 124
-229.499 -1130.78 -1654 219 163 122
-225.81 -1131.23 -1655 215 161 119
-221.985 -1131 -1655 212 161 119
-218.426 -1132.14 -1657 209 161 118
-214.6 -1131.91 -1657 205 157 115
-211.159 -1133.75 -1660 203 155 114
-207.581 -1134.9 -1662 202 153 115
-204.241 -1137.42 -1666 194 154 109
-200.644 -1138.57 -1668 180 139 96
-197.276 -1141.1 -1672 154 111 70
-193.661 -1142.27 -1674 126 82 48
-189.811 -1142.07 -1674 111 70 43
-186.408 -1144.61 -1678 112 74 50
-182.77 -1145.78 -1680 116 83 62
-179.551 -1149.69 -1686 125 87 75
-176.828 -1157.01 -1697 133 93 82
-173.343 -1159.55 -1701 144 104 94
-170.04 -1163.47 -1707 149 109 97
-167.393 -1172.16 -1720 153 114 103
-163.452 -1171.99 -1720 151 112 102
-159.699 -1173.18 -1722 146 110 101
-156.752 -1180.52 -1733 134 103 90
-153.492 -1185.81 -1741 108 82 72
-149.939 -1189.06 -1746 79 56 47
-146.365 -1192.31 -1751 56 37 31
-142.526 -1193.53 -1753 51 34 27
-110.965 -1197.26 -1760 72 58 52
-368.517 -1180.43 -1704 77 72 71
-361.473 -1170.35 -1690 96 88 84
-354.71 -1160.98 -1677 168 131 111
-349.268 -1155.76 -1670 184 141 121
-344.69 -1153.32 -1667 187 143 121
-339.312 -1148.13 -1660 188 146 120
-334.577 -1145.01 -1656 188 146 116
-330.264 -1143.28 -1654 187 142 113
-325.964 -1141.55 -1652 175 129 100
-321.676 -1139.83 -1650 165 119 90
-318.365 -1141.57 -1653 155 110 78
-313.901 -1139.17 -1650 152 107 78
-309.643 -1137.47 -1648 152 106 79
-305.212 -1135.07 -1645 158 109 78
-300.981 -1133.38 -1643 163 111 81
-296.402 -1130.31 -1639 165 113 82
-292.379 -1129.31 -1638 171 118 86
-288.541 -1129.01 -1638 173 123 93
-284.706 -1128.71 -1638 178 124 98
-280.874 -1128.42 -1638 178 124 97
-277.721 -1130.89 -1642 174 121 93
-274.219 -1131.98 -1644 173 118 86
-270.217 -1131.01 -1643 177 119 87
-266.708 -1132.1 -1645 177 118 86
-262.714 -1131.14 -1644 177 120 90
-258.728 -1130.18 -1643 180 123 92
-254.594 -1128.54 -1641 187 131 97
-250.624 -1127.59 -1640 196 141 105
-246.662 -1126.65 -1639 204 148 111
-243.151 -1127.77 -1641 208 152 115
-239.342 -1127.52 -1641 214 158 120
-235.966 -1129.34 -1644 218 162 123
-232.579 -1131.15 -1647 220 161 123
-229.319 -1133.66 -1651 220 162 123
-225.497 -1133.43 -1651 221 163 124
-221.676 -1133.2 -1651 222 164 124
-218.123 -1134.34 -1653 219 165 122
-214.173 -1133.43 -1652 218 165 123
-210.867 -1135.96 -1656 214 163 121
-207.294 -1137.12 -1658 208 160 114
-203.96 -1139.65 -1662 208 159 112
