ply
format ascii 1.0
comment Created by Open3D
element vertex 1418
property double x
property double y
property double z
property uchar red
property uchar green
property uchar blue
end_header
-278.112 44.0939 -1401 140 115 56
-275.418 44.1135 -1402 134 109 51
-272.722 44.1333 -1403 106 85 51
-269.832 44.1216 -1403 90 70 42
-267.325 44.173 -1405 86 68 45
-264.247 44.1302 -1404 81 63 46
-261.92 44.2132 -1407 54 38 23
-259.767 44.3277 -1411 25 20 20
-257.599 44.4424 -1415 21 17 19
-254.338 44.3686 -1413 19 16 19
-251.265 44.3264 -1412 19 12 16
-248.022 44.253 -1410 19 12 17
-243.224 43.8973 -1399 17 13 18
-241.567 44.1066 -1406 18 14 19
-236.996 43.7827 -1396 23 19 24
-234.314 43.8041 -1397 26 21 29
-230.138 43.5434 -1389 25 21 28
-226.487 43.377 -1384 24 21 28
-223.182 43.2734 -1381 20 17 23
-220.53 43.2953 -1382 19 16 21
-217.245 43.192 -1379 20 17 22
-214.751 43.2455 -1381 19 16 21
-212.865 43.4242 -1387 16 13 18
-211.108 43.6344 -1394 17 14 16
-209.175 43.8133 -1400 18 15 18
-207.956 44.1487 -1411 22 19 24
-205.241 44.1712 -1412 29 25 27
-202.523 44.1938 -1413 39 34 34
-199.52 44.154 -1412 51 41 30
-196.802 44.1769 -1413 67 57 41
-193.669 44.1061 -1411 89 75 43
-191.087 44.1605 -1413 121 103 53
-187.832 44.0588 -1410 136 116 52
-184.985 44.0508 -1410 139 119 56
-181.751 43.9494 -1407 135 115 52
-178.659 43.8793 -1405 131 109 44
-175.701 43.8406 -1404 126 104 44
-172.994 43.8646 -1405 124 101 44
-170.406 43.9197 -1407 124 101 44
-167.693 43.9438 -1408 128 105 48
-165.094 43.9992 -1410 133 110 53
-162.373 44.0235 -1411 137 113 55
-159.762 44.0792 -1413 141 116 58
-156.812 44.0412 -1412 144 120 53
-154.194 44.0971 -1414 144 120 51
-151.462 44.1219 -1415 143 119 45
-148.622 44.1155 -1415 141 117 43
-145.681 44.0781 -1414 139 114 40
-142.744 44.0409 -1413 142 116 40
-139.813 44.0038 -1412 145 119 43
-136.693 43.9045 -1409 148 121 45
-133.776 43.8677 -1408 152 125 45
-131.05 43.8933 -1409 153 126 46
-128.14 43.8567 -1408 152 125 47
-125.234 43.8203 -1407 150 122 46
-122.42 43.815 -1407 148 120 47
-119.437 43.7477 -1405 147 118 49
-116.63 43.7427 -1405 144 115 46
-113.823 43.738 -1405 139 113 51
-110.938 43.7021 -1404 136 112 51
-108.289 43.7598 -1406 131 108 50
-105.708 43.8486 -1409 131 107 48
-102.97 43.8754 -1410 132 107 49
-100.228 43.9022 -1411 129 106 49
-97.6907 44.0226 -1415 127 103 46
-94.8028 43.9874 -1414 126 101 44
-92.18 44.0768 -1417 115 95 44
-89.2936 44.0419 -1416 107 88 38
-86.5341 44.0694 -1417 111 91 44
-83.653 44.0347 -1416 118 99 52
-80.891 44.0624 -1417 117 100 52
-78.1805 44.1212 -1419 119 98 47
-75.4629 44.1802 -1421 119 98 47
-72.84 44.3014 -1425 116 95 44
-70.2018 44.4228 -1429 110 90 42
-67.4069 44.451 -1430 105 85 39
-64.6085 44.4794 -1431 100 82 39
-61.893 44.57 -1434 96 78 36
-59.1661 44.6607 -1437 93 75 36
-56.4277 44.7515 -1440 90 73 33
-53.6778 44.8425 -1443 91 74 33
-50.8812 44.9024 -1445 93 77 34
-48.0107 44.9004 -1445 101 85 42
-45.1717 44.9294 -1446 105 87 45
-42.2706 44.8965 -1445 108 89 45
-39.5102 45.0191 -1449 107 88 43
-36.7342 45.1418 -1453 94 80 41
-33.8961 45.2025 -1455 86 72 37
-31.0503 45.2633 -1457 81 67 35
-28.2354 45.3863 -1461 80 66 37
-25.3528 45.4162 -1462 78 63 35
-22.4972 45.5084 -1465 82 67 39
-19.6165 45.5697 -1467 89 72 45
-16.7166 45.6 -1468 99 80 53
-13.8035 45.5993 -1468 102 85 47
-10.8905 45.5988 -1468 101 84 44
-7.97756 45.5985 -1468 101 85 40
-5.06814 45.6292 -1469 98 82 36
-2.1548 45.6602 -1470 97 81 36
0.763523 45.7533 -1473 99 82 31
3.68876 45.7845 -1474 105 88 36
6.61799 45.8157 -1475 108 89 37
9.5383 45.785 -1474 105 86 38
12.4716 45.8166 -1475 102 82 35
15.3882 45.7861 -1474 108 89 34
18.3257 45.8178 -1475 116 97 43
21.2673 45.8497 -1476 112 93 39
24.2131 45.8817 -1477 105 87 43
27.1447 45.8828 -1477 103 85 41
30.0968 45.9151 -1478 104 84 41
33.0532 45.9475 -1479 108 88 49
36.0381 46.011 -1481 111 90 55
39.0575 46.1058 -1484 113 93 51
42.0892 46.2007 -1487 114 94 57
45.1635 46.3268 -1491 119 97 71
48.2217 46.422 -1494 139 118 106
51.2237 46.4551 -1495 161 140 133
54.3388 46.5817 -1499 165 141 143
57.3555 46.6151 -1500 167 143 144
60.3767 46.6486 -1501 167 142 142
63.3603 46.6512 -1501 164 143 140
66.3884 46.685 -1502 166 143 141
69.3286 46.6567 -1501 171 145 145
72.3136 46.6597 -1501 169 144 144
75.3995 46.7249 -1503 166 142 142
78.494 46.7904 -1505 167 143 142
81.5972 46.8559 -1507 170 145 144
84.5966 46.8594 -1507 172 146 146
87.6547 46.8941 -1508 173 148 151
90.5974 46.8667 -1507 173 147 150
93.599 46.8706 -1507 172 144 146
96.5371 46.8435 -1506 172 141 144
99.6044 46.8786 -1507 171 139 142
102.676 46.9141 -1508 169 139 140
105.893 47.0117 -1511 168 141 141
108.979 47.0473 -1512 168 142 142
111.921 47.0209 -1511 166 140 143
114.936 47.0256 -1511 163 137 140
117.875 46.9994 -1510 165 137 139
120.97 47.0355 -1511 168 138 142
123.906 47.0095 -1510 169 139 144
127.175 47.1082 -1513 168 140 142
130.113 47.0824 -1512 168 140 141
133.313 47.1503 -1514 168 140 139
136.431 47.1871 -1515 166 141 135
139.462 47.1928 -1515 166 141 134
142.589 47.2299 -1516 166 141 133
145.432 47.1737 -1514 165 139 131
148.661 47.2422 -1516 163 138 131
151.499 47.1862 -1514 161 136 131
154.637 47.2238 -1515 165 139 132
157.467 47.168 -1513 169 142 134
160.715 47.237 -1515 166 135 126
163.54 47.1815 -1513 159 129 120
166.909 47.282 -1516 159 129 119
169.955 47.2891 -1516 161 132 113
173.23 47.3587 -1518 164 135 118
176.283 47.3661 -1518 164 137 123
179.455 47.4047 -1519 163 138 125
182.152 47.3188 -1516 164 138 125
185.083 47.2953 -1515 170 141 128
188.011 47.272 -1514 174 145 131
191.063 47.2799 -1514 177 148 133
194.116 47.2881 -1514 178 149 126
197.041 47.2652 -1513 178 148 129
200.228 47.3048 -1514 177 147 130
203.153 47.2821 -1513 179 146 133
206.074 47.2594 -1512 176 145 132
209.132 47.2683 -1512 178 148 135
212.472 47.3397 -1514 181 152 138
215.537 47.3488 -1514 180 152 137
218.46 47.3267 -1513 177 149 134
221.527 47.336 -1513 172 145 129
224.595 47.3454 -1513 172 145 131
227.515 47.3237 -1512 174 147 137
230.433 47.3022 -1511 171 147 144
233.967 47.4059 -1514 170 145 143
236.888 47.3847 -1513 171 146 144
240.125 47.4261 -1514 171 149 144
243.368 47.4677 -1515 169 147 142
246.617 47.5094 -1516 170 148 143
249.872 47.5514 -1517 173 149 145
252.966 47.562 -1517 174 149 145
256.4 47.6356 -1519 175 150 146
259.332 47.6153 -1518 175 150 149
262.435 47.6263 -1518 177 151 151
265.015 47.5434 -1515 180 152 154
268.116 47.5548 -1515 179 151 151
270.861 47.5035 -1513 177 149 149
274.325 47.578 -1515 176 149 151
277.249 47.5584 -1514 176 150 150
280.913 47.6645 -1517 176 150 151
284.217 47.708 -1518 175 151 154
287.338 47.7203 -1518 174 150 155
290.653 47.7641 -1519 174 150 155
293.007 47.6509 -1515 172 150 155
296.129 47.6634 -1515 169 151 153
299.451 47.7077 -1516 169 151 152
302.78 47.7521 -1517 168 150 148
305.914 47.7652 -1517 167 147 145
309.662 47.8728 -1520 167 147 145
313.013 47.9178 -1521 170 150 148
315.955 47.8997 -1520 170 150 148
319.526 47.9765 -1522 171 152 150
322.259 47.9273 -1520 168 150 148
324.987 47.8781 -1518 168 149 151
328.142 47.8922 -1518 167 149 151
331.517 47.938 -1519 170 153 155
334.68 47.9524 -1519 170 152 154
337.845 47.9669 -1519 173 151 154
341.462 48.0448 -1521 176 150 154
344.411 48.028 -1520 176 150 150
347.358 48.0114 -1519 180 150 151
350.074 47.9632 -1517 181 150 151
353.948 48.0734 -1520 174 150 146
357.133 48.0887 -1520 174 150 145
360.321 48.1043 -1520 175 152 146
364.23 48.215 -1523 173 152 149
367.672 48.2626 -1524 176 154 159
370.878 48.2786 -1524 179 157 161
374.578 48.3582 -1526 177 156 159
378.042 48.4063 -1527 176 155 160
380.515 48.3277 -1524 175 153 160
383.734 48.3443 -1524 174 153 160
386.195 48.2659 -1521 174 156 158
389.67 48.3146 -1522 172 154 156
392.379 48.2682 -1520 173 155 157
396.904 48.4443 -1525 174 157 159
400.405 48.4934 -1526 173 156 160
404.707 48.6382 -1530 172 157 160
407.963 48.656 -1530 172 158 161
411.491 48.7058 -1531 174 157 159
415.298 48.7876 -1533 164 147 145
418.298 48.774 -1532 157 139 138
421.573 48.7925 -1532 161 143 145
424.296 48.7474 -1530 158 140 142
426.736 48.6705 -1527 153 135 134
430.011 48.6893 -1527 151 132 130
431.588 48.517 -1521 156 134 135
436.001 48.6637 -1525 158 134 137
438.708 48.6192 -1523 157 134 136
442.86 48.7345 -1526 151 130 130
446.153 48.7541 -1526 148 126 126
450.628 48.9018 -1530 149 128 124
454.53 48.9858 -1532 154 133 128
458.147 49.038 -1533 156 135 130
461.47 49.0584 -1533 156 135 130
464.495 49.0469 -1532 155 133 128
468.741 49.1637 -1535 156 132 128
473.005 49.2807 -1538 156 132 130
476.356 49.3018 -1538 157 133 129
480.024 49.3552 -1539 158 134 130
483.701 49.4088 -1540 159 135 131
486.753 49.3983 -1539 152 131 128
490.443 49.4523 -1540 148 124 123
494.141 49.5064 -1541 143 120 119
498.172 49.5928 -1543 142 120 119
502.541 49.7116 -1546 143 119 118
506.6 49.7986 -1548 149 129 124
511.661 49.9823 -1553 159 139 135
515.754 50.0697 -1555 162 142 139
518.859 50.0607 -1554 155 138 132
522.636 50.1164 -1555 147 129 126
525.746 50.1077 -1554 143 124 121
528.175 50.0347 -1551 141 122 118
531.625 50.0586 -1551 141 121 118
-890.266 46.1562 -1409 202 183 171
-884.403 46.0148 -1406 208 187 174
-882.324 46.07 -1409 203 183 171
-877.745 45.9947 -1408 202 183 171
-875.045 46.0176 -1410 198 179 167
-867.401 45.7798 -1404 197 178 166
-864.722 45.8031 -1406 195 176 164
-858.369 45.6314 -1402 191 171 159
-855.095 45.6227 -1403 188 169 157
-851.826 45.6142 -1404 187 168 156
-851.581 45.7682 -1410 186 167 153
-845.302 45.5979 -1406 184 165 153
-842.047 45.5899 -1407 182 163 151
-839.988 45.6469 -1410 182 163 152
-836.143 45.607 -1410 183 164 154
-831.127 45.5026 -1408 184 165 155
-828.483 45.5278 -1410 179 162 152
-827.592 45.6498 -1415 190 173 163
-822.608 45.5463 -1413 198 181 171
-818.224 45.4752 -1412 209 190 180
-814.432 45.4367 -1412 219 200 190
-811.224 45.4305 -1413 225 205 198
-807.448 45.3923 -1413 245 225 216
-804.25 45.3865 -1414 246 225 214
-798.791 45.2526 -1411 246 223 212
-795.048 45.2151 -1411 229 213 205
-791.314 45.1781 -1411 222 207 205
-786.472 45.0771 -1409 41 23 26
-781.095 44.9446 -1406 38 21 26
-777.401 44.9082 -1406 42 21 23
-770.414 44.6805 -1400 38 19 25
-764.562 44.5173 -1396 48 32 38
-760.92 44.4818 -1396 117 104 112
-757.829 44.4784 -1397 220 202 204
-755.281 44.507 -1399 134 119 122
-754.343 44.631 -1404 112 97 99
-752.853 44.7233 -1408 96 78 76
-751.883 44.8474 -1413 134 114 109
-751.424 45.0031 -1419 216 196 192
-749.363 45.0636 -1422 239 218 215
-745.196 44.9977 -1421 239 219 216
-742.086 44.9951 -1422 241 220 215
-737.941 44.9296 -1421 242 221 218
-734.326 44.8959 -1421 241 221 219
-731.233 44.894 -1422 241 221 219
-727.119 44.8291 -1421 242 222 220
-725.055 44.8905 -1424 240 220 218
-719.944 44.7631 -1421 239 219 217
-716.368 44.7304 -1421 241 219 218
-712.799 44.698 -1421 244 220 219
-709.738 44.6971 -1422 243 218 218
-707.175 44.7279 -1424 241 215 215
-704.116 44.7273 -1425 241 216 214
-701.06 44.7269 -1426 239 217 214
-698.006 44.7267 -1427 238 217 214
-694.954 44.7265 -1428 240 219 214
-691.421 44.6953 -1428 239 218 213
-688.376 44.6956 -1429 237 216 213
-685.813 44.7272 -1431 237 215 214
-682.294 44.6965 -1431 236 215 212
-678.308 44.6348 -1430 234 212 210
-674.333 44.5734 -1429 233 212 209
-670.371 44.5122 -1428 230 209 206
-668.288 44.5758 -1431 233 209 208
-665.269 44.5771 -1432 230 207 206
-662.714 44.6097 -1434 225 203 202
-660.155 44.6425 -1436 223 201 200
-657.594 44.6754 -1438 222 200 199
-652.756 44.5531 -1435 221 199 198
-649.296 44.5243 -1435 220 198 197
-646.293 44.5265 -1436 221 196 192
-643.291 44.529 -1437 219 193 189
-639.847 44.5007 -1437 219 191 188
-638.18 44.5962 -1441 215 188 182
-635.179 44.5992 -1442 213 184 179
-631.741 44.5712 -1442 212 182 177
-627.874 44.5127 -1441 213 183 178
-625.318 44.5469 -1443 207 179 172
-621.897 44.5195 -1443 200 172 164
-618.911 44.5231 -1444 198 168 159
-616.779 44.5885 -1447 198 167 158
-613.791 44.5924 -1448 190 160 150
-610.805 44.5964 -1449 176 149 135
-606.981 44.5391 -1448 165 138 123
-604.002 44.5434 -1449 161 134 119
-600.609 44.5172 -1449 158 131 116
-597.635 44.5218 -1450 161 134 120
-594.662 44.5266 -1451 168 140 127
-592.098 44.5622 -1453 170 143 131
-589.935 44.6285 -1456 176 148 139
-586.153 44.5724 -1455 178 151 142
-582.781 44.5471 -1455 181 155 145
-578.221 44.4302 -1452 181 156 143
-574.472 44.3747 -1451 187 160 148
-571.126 44.3499 -1451 193 164 152
-567.786 44.3254 -1451 194 164 155
-564.841 44.3315 -1452 198 168 157
-561.897 44.3378 -1453 202 171 158
-558.953 44.3442 -1454 202 171 159
-556.01 44.3508 -1455 203 173 160
-553.448 44.388 -1457 206 177 164
-550.882 44.4252 -1459 203 176 163
-547.937 44.4321 -1460 206 179 168
-544.619 44.4088 -1460 208 181 171
-541.307 44.3855 -1460 206 180 175
-538 44.3625 -1460 209 182 175
-534.331 44.3093 -1459 212 185 178
-531.4 44.3169 -1460 214 184 179
-527.747 44.264 -1459 213 183 178
-524.821 44.272 -1460 212 182 177
-522.254 44.3104 -1462 211 181 177
-519.327 44.3186 -1463 215 185 182
-516.048 44.2967 -1463 215 185 184
-513.825 44.3657 -1466 214 184 181
-510.549 44.344 -1466 215 185 181
-506.239 44.2317 -1463 216 185 180
-502.979 44.2105 -1463 216 185 180
-499.382 44.159 -1462 217 186 180
-495.795 44.1079 -1461 216 185 180
-492.553 44.0871 -1461 217 186 181
-490.321 44.1569 -1464 219 187 182
-487.081 44.1364 -1464 221 187 183
-484.177 44.1461 -1465 222 188 183
-480.616 44.0957 -1464 218 184 180
-477.717 44.1057 -1465 218 184 181
-474.493 44.0858 -1465 217 184 169
-470.952 44.0359 -1464 214 181 162
-468.058 44.0463 -1465 208 176 153
-464.53 43.9968 -1464 174 145 102
-459.75 43.8272 -1459 158 132 77
-454.996 43.6579 -1454 153 127 63
-450.579 43.519 -1450 151 126 64
-446.492 43.4103 -1447 151 126 66
-442.729 43.3318 -1445 149 125 56
-439.89 43.3435 -1446 145 121 52
-436.75 43.3252 -1446 143 119 52
-434.213 43.3671 -1448 140 116 46
-430.48 43.2892 -1446 142 118 48
-427.942 43.3313 -1448 146 120 52
-424.226 43.2538 -1446 146 120 53
-420.813 43.2064 -1445 147 121 55
-417.409 43.1592 -1444 144 118 52
-414.299 43.142 -1444 139 114 48
-410.908 43.0951 -1443 141 117 50
-408.091 43.1081 -1444 144 118 54
-405.273 43.1212 -1445 140 114 53
-402.454 43.1343 -1446 139 112 58
-399.358 43.1178 -1446 144 118 58
-396.54 43.1313 -1447 142 116 54
-393.177 43.0853 -1446 136 110 46
-390.362 43.099 -1447 135 109 42
-386.743 43.0235 -1445 135 109 41
-383.401 42.9779 -1444 142 114 45
-380.593 42.992 -1445 149 120 51
-377.524 42.9765 -1445 150 121 52
-373.939 42.9016 -1443 149 120 49
-370.623 42.8567 -1442 145 116 46
-367.315 42.8119 -1441 146 117 48
-363.761 42.7375 -1439 137 109 39
-360.219 42.6634 -1437 131 103 32
-357.434 42.6785 -1438 153 124 49
-353.909 42.6046 -1436 163 134 57
-349.907 42.4716 -1432 160 132 52
-346.166 42.3685 -1429 157 129 57
-342.442 42.2656 -1426 152 124 53
-338.494 42.1332 -1422 147 119 46
-335.511 42.1194 -1422 151 124 49
-332.296 42.0763 -1421 160 133 57
-329.552 42.0925 -1422 167 139 57
-326.117 42.02 -1420 167 139 58
-323.149 42.0069 -1420 165 138 60
-319.733 41.9347 -1418 164 137 59
-316.551 41.8922 -1417 165 138 60
-312.712 41.7613 -1413 164 137 59
-308.892 41.6306 -1409 160 133 55
-305.309 41.5295 -1406 161 134 56
-301.311 41.3696 -1401 159 132 50
-297.762 41.269 -1398 156 129 47
-294.65 41.2275 -1397 153 126 46
-291.544 41.1862 -1396 147 120 42
-288.652 41.1745 -1396 145 118 41
-285.762 41.163 -1396 142 114 44
-283.28 41.2105 -1398 142 115 48
-280.592 41.2286 -1399 139 114 51
-277.902 41.2469 -1400 137 111 49
-275.21 41.2652 -1401 138 112 50
-272.711 41.3131 -1403 123 100 56
-269.821 41.3022 -1403 100 79 43
-267.123 41.3209 -1404 88 67 43
-264.424 41.3397 -1405 83 65 46
-261.909 41.388 -1407 55 38 22
-259.204 41.407 -1408 28 22 20
-257.225 41.5437 -1413 26 21 21
-254.147 41.5041 -1412 18 15 16
-251.966 41.6115 -1416 20 13 17
-249.419 41.6602 -1418 19 13 17
-244.605 41.3273 -1407 16 12 17
-241.213 41.2295 -1404 16 12 17
-237.156 41.0144 -1397 18 14 19
-233.801 40.9169 -1394 22 17 25
-229.797 40.7022 -1387 22 18 25
-226.151 40.5464 -1382 19 16 23
-222.85 40.4496 -1379 18 15 20
-220.042 40.4407 -1379 17 14 19
-217.708 40.52 -1382 19 16 21
-215.053 40.5407 -1383 18 15 20
-213.471 40.7666 -1391 15 12 17
-211.705 40.9633 -1398 17 14 18
-210.063 41.1893 -1406 19 16 20
-207.948 41.3276 -1411 22 19 24
-205.232 41.3487 -1412 27 23 27
-202.515 41.3698 -1413 36 32 34
-199.653 41.3619 -1413 50 40 30
-196.794 41.354 -1413 67 55 42
-193.798 41.317 -1412 88 74 43
-191.079 41.3387 -1413 118 101 53
-187.825 41.2434 -1410 134 114 51
-184.715 41.1776 -1408 137 117 54
-181.615 41.1119 -1406 135 114 51
-178.651 41.0755 -1405 131 109 44
-175.693 41.0392 -1404 126 103 43
-172.987 41.0615 -1405 123 100 43
-170.399 41.1133 -1407 122 99 42
-167.805 41.165 -1409 125 102 45
-165.087 41.1877 -1410 130 107 50
-162.481 41.2396 -1412 136 112 54
-159.643 41.2333 -1412 141 116 58
-156.805 41.2271 -1412 143 119 52
-154.187 41.2793 -1414 144 120 50
-151.456 41.3024 -1415 145 120 46
-148.511 41.2673 -1414 142 117 43
-145.572 41.2324 -1413 141 116 42
-142.536 41.1684 -1411 145 118 42
-139.609 41.1336 -1410 147 120 44
-136.59 41.0698 -1408 149 122 46
-133.771 41.0646 -1408 152 125 46
-130.952 41.0594 -1408 151 124 44
-127.952 40.996 -1406 149 122 44
-125.051 40.9618 -1405 149 121 45
-122.241 40.957 -1405 148 120 47
-119.348 40.9231 -1404 146 118 49
-116.625 40.9476 -1405 143 115 47
-113.899 40.9722 -1406 137 112 50
-111.091 40.9678 -1406 133 109 50
-108.362 40.9926 -1407 130 107 50
-105.779 41.0759 -1410 131 106 48
-103.038 41.1009 -1411 130 105 47
-100.295 41.126 -1412 127 104 47
-97.6177 41.1804 -1414 125 101 44
-94.866 41.2057 -1415 123 98 41
-92.0461 41.2021 -1415 115 96 43
-89.29 41.2277 -1416 111 91 40
-86.5306 41.2533 -1417 111 91 44
-83.6497 41.2209 -1416 115 97 50
-80.9448 41.2759 -1418 120 103 55
-78.1774 41.3019 -1419 124 103 52
-75.4598 41.3571 -1421 120 99 49
-72.7859 41.4415 -1424 115 94 46
-70.1007 41.526 -1427 108 89 43
-67.3571 41.5815 -1429 103 85 41
-64.6059 41.6371 -1431 98 80 38
-61.8905 41.722 -1434 94 76 35
-59.1225 41.7778 -1436 92 74 36
-56.3862 41.8628 -1439 90 73 34
-53.6013 41.9189 -1441 91 74 34
-50.8088 41.975 -1443 96 80 37
-47.9755 42.0021 -1444 101 85 42
-45.1699 42.0584 -1446 103 87 44
-42.3274 42.0858 -1447 105 87 42
-39.5359 42.1715 -1450 107 89 44
-36.7581 42.2863 -1454 92 77 41
-33.9646 42.4013 -1458 84 70 36
-31.1555 42.5163 -1462 78 64 33
-28.2729 42.5443 -1463 77 63 36
-25.4212 42.6305 -1466 75 61 34
-22.527 42.6586 -1467 80 64 40
-19.6424 42.7159 -1469 87 70 45
-16.7387 42.7443 -1470 95 76 52
-13.8311 42.7728 -1471 100 83 46
-10.9123 42.7723 -1471 101 84 45
-7.99354 42.7719 -1471 105 89 45
-5.07829 42.8008 -1472 101 85 41
-2.15765 42.8006 -1472 97 81 36
0.764009 42.8587 -1474 95 78 28
3.68861 42.8588 -1474 106 89 38
6.61324 42.859 -1474 108 89 37
9.53792 42.8594 -1474 104 84 38
12.4711 42.8889 -1475 101 81 36
15.3875 42.8603 -1474 110 91 38
18.3249 42.8901 -1475 114 94 43
21.2665 42.9199 -1476 106 86 37
24.1957 42.9208 -1476 103 84 42
27.1252 42.9218 -1476 103 85 42
30.0956 42.9811 -1478 102 83 41
33.0742 43.0405 -1480 107 87 49
36.061 43.1 -1482 109 88 53
39.1086 43.2178 -1486 112 91 52
42.1725 43.3357 -1490 114 93 59
45.2525 43.4538 -1494 125 103 81
48.2197 43.4556 -1494 145 124 117
51.2559 43.5158 -1496 159 138 136
54.3366 43.6051 -1499 162 139 145
57.3914 43.6655 -1501 164 140 146
60.334 43.6386 -1500 164 138 144
63.3999 43.6993 -1502 162 140 139
66.4299 43.7309 -1503 162 139 140
69.4182 43.7336 -1503 165 140 144
72.3589 43.7073 -1502 166 141 146
75.4968 43.7974 -1505 164 139 144
78.543 43.8295 -1506 162 138 140
81.5396 43.8328 -1506 165 139 142
84.5932 43.8651 -1507 167 139 144
87.6512 43.8976 -1508 171 141 145
90.4735 43.8137 -1505 171 140 144
93.5332 43.8464 -1506 172 139 142
96.4692 43.8211 -1505 173 137 141
99.5341 43.854 -1506 172 135 140
102.604 43.8871 -1507 169 135 138
105.889 44.0077 -1511 168 137 138
108.902 44.0119 -1511 165 137 137
111.917 44.0162 -1511 162 136 140
114.932 44.0207 -1511 162 136 140
117.948 44.0252 -1511 164 136 140
120.885 44.0008 -1510 164 135 140
123.901 44.0056 -1510 161 131 138
127.086 44.0688 -1512 161 133 136
130.022 44.0447 -1511 163 135 136
133.219 44.1082 -1513 165 137 136
136.245 44.1135 -1513 163 137 130
139.365 44.148 -1514 161 135 127
142.489 44.1828 -1515 158 133 125
145.523 44.1884 -1515 161 135 127
148.655 44.2234 -1516 162 136 128
151.693 44.2293 -1516 159 134 130
154.733 44.2354 -1516 161 134 128
157.565 44.1831 -1514 163 136 130
160.603 44.1894 -1514 163 133 125
163.641 44.1958 -1514 161 132 121
166.792 44.2315 -1515 164 135 121
169.836 44.2381 -1515 166 137 118
173.223 44.3325 -1518 167 138 121
176.159 44.3102 -1517 164 135 125
179.329 44.3464 -1518 164 135 121
182.265 44.3243 -1517 167 138 123
185.197 44.3024 -1516 170 139 119
188.252 44.3097 -1516 167 137 117
191.181 44.288 -1515 168 139 118
194.109 44.2664 -1514 171 142 113
197.164 44.2742 -1514 174 145 122
200.353 44.3113 -1515 172 143 124
203.278 44.29 -1514 172 141 132
206.475 44.3273 -1515 170 139 130
209.538 44.3356 -1515 170 140 131
212.744 44.3733 -1516 173 143 129
215.955 44.411 -1517 173 144 128
218.884 44.3904 -1516 173 143 126
222.103 44.4283 -1517 170 141 121
225.18 44.4372 -1517 167 137 120
228.108 44.417 -1516 166 137 124
231.186 44.4261 -1516 162 137 135
234.266 44.4353 -1516 162 137 135
237.348 44.4447 -1516 164 139 137
240.274 44.4249 -1515 168 143 138
243.518 44.4638 -1516 167 143 138
246.769 44.5029 -1517 167 144 138
249.861 44.5128 -1517 169 145 141
253.122 44.5522 -1518 169 145 141
256.389 44.5917 -1519 169 144 141
259.492 44.602 -1519 171 145 145
262.424 44.583 -1518 171 144 146
265.354 44.5642 -1517 175 144 149
268.459 44.5749 -1517 175 145 147
271.029 44.4975 -1514 173 143 144
274.132 44.5084 -1514 172 143 144
277.238 44.5194 -1514 169 143 142
280.531 44.56 -1515 168 144 144
283.831 44.6007 -1516 166 144 147
287.137 44.6416 -1517 165 144 147
290.258 44.6532 -1517 165 144 147
292.995 44.6059 -1515 162 144 147
296.313 44.6473 -1516 162 144 145
299.242 44.6298 -1515 163 145 145
302.967 44.7302 -1518 161 143 141
306.103 44.7425 -1518 163 144 142
309.649 44.8138 -1520 164 145 143
312.588 44.7969 -1519 164 146 144
315.942 44.839 -1520 163 146 143
319.092 44.8517 -1520 167 150 147
322.246 44.8647 -1520 169 151 148
325.188 44.8483 -1519 171 151 152
328.128 44.8319 -1518 167 148 149
330.849 44.7861 -1516 165 148 150
334.225 44.8291 -1517 164 146 148
337.386 44.8427 -1517 165 144 147
341.448 44.9747 -1521 168 144 147
344.17 44.9294 -1519 170 149 149
347.344 44.9434 -1519 173 149 151
350.52 44.9576 -1519 174 149 151
353.7 44.9719 -1519 171 148 148
356.648 44.9567 -1518 168 146 142
360.543 45.0601 -1521 169 148 143
364.454 45.1637 -1524 169 148 145
367.898 45.2082 -1525 171 149 152
370.862 45.1936 -1524 175 151 154
374.562 45.2682 -1526 178 152 154
377.779 45.2835 -1526 180 152 158
380.25 45.2099 -1523 178 151 159
383.466 45.2255 -1523 176 149 158
386.179 45.1818 -1521 176 151 156
389.142 45.1679 -1520 171 149 152
392.104 45.1542 -1519 169 149 152
396.367 45.2892 -1523 168 151 153
399.601 45.3055 -1523 171 154 158
403.896 45.441 -1527 172 156 159
406.879 45.4278 -1526 171 157 159
410.399 45.4744 -1527 172 158 161
413.655 45.4913 -1527 172 157 159
416.642 45.4786 -1526 168 152 155
419.629 45.466 -1525 170 154 160
422.892 45.4833 -1525 167 150 156
425.321 45.4114 -1522 165 149 149
428.585 45.4289 -1522 160 146 140
431.286 45.3869 -1520 167 146 147
434.839 45.4347 -1521 171 148 151
438.113 45.4527 -1521 170 148 150
442.551 45.5905 -1525 165 145 145
445.549 45.579 -1524 161 142 142
448.841 45.5975 -1524 156 136 134
452.73 45.6761 -1526 154 133 131
456.035 45.6949 -1526 156 135 131
459.945 45.7738 -1528 162 137 135
463.565 45.8229 -1529 161 137 135
467.194 45.8723 -1530 159 135 133
471.139 45.9518 -1532 159 135 134
474.787 46.0015 -1533 161 137 134
478.756 46.0814 -1535 161 137 134
482.109 46.1014 -1535 161 137 134
484.834 46.0616 -1533 153 130 129
488.511 46.112 -1534 151 127 126
492.517 46.1926 -1536 145 122 121
496.536 46.2734 -1538 144 122 121
499.918 46.2944 -1538 145 123 121
505.269 46.496 -1544 149 128 124
509.662 46.6078 -1547 151 130 127
512.083 46.5388 -1544 157 136 133
516.165 46.6207 -1546 159 139 135
520.261 46.7028 -1548 160 140 137
524.032 46.755 -1549 158 137 134
527.131 46.747 -1548 157 136 133
530.23 46.7391 -1547 151 130 127
532.985 46.7011 -1545 148 126 123
535.389 46.6329 -1542 150 128 125
537.436 46.5347 -1538 151 129 126
541.579 46.6181 -1540 144 125 120
544.674 46.6108 -1539 142 123 119
549.195 46.725 -1542 141 123 119
553.735 46.8393 -1545 135 117 114
559.014 47.0146 -1550 139 121 118
-914.316 43.253 -1409 166 150 136
-908.334 43.1192 -1406 174 157 145
-902.382 42.986 -1403 189 169 158
-896.457 42.853 -1400 199 179 166
-893.111 42.8429 -1401 211 191 178
-887.231 42.7107 -1398 228 206 195
-885.17 42.7621 -1401 231 209 198
-881.216 42.7221 -1401 228 205 192
-879.778 42.8041 -1405 223 200 189
-876.458 42.795 -1406 221 199 188
-871.281 42.6947 -1404 219 197 186
-865.508 42.5644 -1401 217 195 184
-862.222 42.5559 -1402 216 194 182
-857.104 42.4566 -1400 215 194 183
-853.227 42.4184 -1400 215 193 182
-851.786 42.5013 -1404 215 193 182
-849.73 42.554 -1407 215 194 181
-845.864 42.5162 -1407 216 194 183
-840.213 42.388 -1404 217 195 184
-838.162 42.4412 -1407 218 196 186
-832.547 42.3136 -1404 220 198 189
-826.957 42.1865 -1401 222 201 192
-823.745 42.1801 -1402 221 202 191
-822.29 42.2639 -1406 225 204 193
-817.914 42.1977 -1405 230 208 198
-814.131 42.1617 -1405 235 213 203
-810.935 42.1558 -1406 241 218 208
-807.742 42.1503 -1407 248 225 218
-805.125 42.1747 -1409 248 225 217
-801.369 42.1395 -1409 244 221 210
-797.056 42.0746 -1408 243 217 207
-793.885 42.0697 -1409 240 219 210
-790.156 42.0351 -1409 228 209 201
-785.879 41.971 -1408 105 83 76
-781.06 41.8772 -1406 100 77 71
-777.366 41.8434 -1406 100 77 74
-770.379 41.6313 -1400 102 82 78
-764.528 41.4791 -1396 104 85 80
-760.886 41.446 -1396 198 177 174
-758.338 41.4725 -1398 189 167 170
-756.327 41.5288 -1401 102 84 87
-755.384 41.6443 -1406 89 73 74
-754.424 41.7599 -1411 126 106 104
-753.445 41.8754 -1416 197 176 173
-749.802 41.8431 -1416 236 215 212
-747.221 41.8701 -1418 241 220 217
-744.639 41.8971 -1420 242 221 218
-740.488 41.8359 -1419 245 223 218
-737.389 41.8338 -1420 244 223 220
-733.777 41.8023 -1420 243 223 220
-730.172 41.7712 -1420 241 221 219
-726.575 41.7401 -1420 242 222 220
-723.496 41.7387 -1421 240 220 218
-719.912 41.7081 -1421 237 217 214
-716.336 41.6776 -1421 238 217 215
-712.768 41.6474 -1421 239 217 215
-710.206 41.6759 -1423 239 216 214
-707.144 41.6752 -1424 238 213 212
-704.58 41.704 -1426 236 211 208
-701.521 41.7036 -1427 238 214 209
-698.464 41.7033 -1428 238 214 209
-695.897 41.7325 -1430 237 214 210
-692.359 41.7033 -1430 235 212 208
-688.828 41.6743 -1430 232 209 206
-685.784 41.6747 -1431 233 210 207
-682.265 41.6461 -1431 229 208 204
-678.753 41.6177 -1431 230 207 204
-674.776 41.5604 -1430 228 204 201
-671.75 41.5614 -1431 226 203 200
-668.727 41.5625 -1432 231 206 203
-665.705 41.5637 -1433 227 202 200
-663.147 41.5941 -1435 222 197 195
-660.127 41.5957 -1436 219 195 193
-656.652 41.5684 -1436 218 194 192
-652.728 41.5124 -1435 218 194 192
-649.268 41.4855 -1435 216 192 190
-645.815 41.4587 -1435 216 189 186
-643.264 41.4899 -1437 215 188 184
-640.264 41.4923 -1438 216 187 183
-637.709 41.5238 -1440 214 184 179
-635.151 41.5552 -1442 213 183 178
-631.276 41.5004 -1441 211 181 176
-627.847 41.4746 -1441 209 179 174
-624.858 41.4778 -1442 204 176 169
-621.44 41.4523 -1442 200 173 165
-618.885 41.4844 -1444 198 168 159
-616.327 41.5166 -1446 197 166 157
-613.341 41.5203 -1447 191 160 151
-610.357 41.524 -1448 181 154 141
-606.955 41.4992 -1448 171 146 130
-603.56 41.4747 -1448 165 140 125
-600.584 41.4789 -1449 158 133 118
-598.434 41.5404 -1452 150 123 109
-595.457 41.5448 -1453 146 118 105
-592.888 41.5779 -1455 146 116 105
-589.91 41.5826 -1456 153 123 113
-586.128 41.5303 -1455 157 128 118
-582.356 41.4782 -1454 162 134 123
-578.595 41.4263 -1453 167 139 126
-575.239 41.403 -1453 174 146 133
-571.496 41.3515 -1452 178 150 137
-568.545 41.3571 -1453 182 152 142
-565.207 41.3343 -1453 189 158 147
-562.647 41.3686 -1455 196 165 152
-559.699 41.3746 -1456 193 162 149
-557.134 41.409 -1458 194 165 150
-554.185 41.4152 -1459 199 171 155
-550.859 41.3932 -1459 198 172 155
-547.914 41.3995 -1460 198 172 158
-544.597 41.3778 -1460 199 173 161
-541.285 41.3562 -1460 200 175 167
-537.609 41.3064 -1459 204 177 169
-534.309 41.2851 -1459 205 178 170
-532.107 41.3488 -1462 206 176 171
-528.449 41.2995 -1461 207 177 172
-525.519 41.3069 -1462 206 176 171
-522.947 41.3426 -1464 206 176 171
-520.371 41.3784 -1466 211 181 178
-516.732 41.3298 -1465 213 183 182
-513.804 41.3376 -1466 210 180 177
-510.18 41.2892 -1465 212 181 178
-505.873 41.1847 -1462 214 182 179
-502.615 41.1649 -1462 212 181 176
-499.704 41.1733 -1463 211 181 175
-496.792 41.1818 -1464 213 182 177
-493.207 41.1342 -1463 218 187 182
-490.636 41.1712 -1465 217 185 181
-487.394 41.152 -1465 218 184 180
-484.488 41.1611 -1466 220 186 182
-481.253 41.1422 -1466 217 183 179
-478.349 41.1515 -1467 215 181 181
-474.798 41.1048 -1466 215 181 170
-471.898 41.1144 -1467 210 177 162
-468.359 41.0681 -1466 211 178 160
-464.511 40.9939 -1464 187 158 123
-460.047 40.8639 -1460 161 133 89
-455.604 40.7342 -1456 154 128 65
-450.561 40.5487 -1450 151 125 64
-446.783 40.4754 -1448 149 124 64
-443.017 40.4023 -1446 146 123 56
-439.873 40.3852 -1446 141 118 53
-436.732 40.3682 -1446 141 116 56
-433.895 40.3792 -1447 144 120 51
-430.165 40.3068 -1445 142 118 48
-427.334 40.3181 -1446 143 117 49
-424.502 40.3295 -1447 145 119 52
-421.088 40.2853 -1446 147 121 54
-417.97 40.2692 -1446 144 118 52
-414.569 40.2253 -1445 139 113 48
-411.462 40.2094 -1445 138 114 49
-408.357 40.1936 -1445 142 116 53
-405.537 40.2058 -1446 139 113 53
-402.16 40.1625 -1445 138 111 57
-399.343 40.1749 -1446 141 115 55
-396.798 40.2152 -1448 141 115 53
-393.434 40.1724 -1447 132 106 42
-390.077 40.1296 -1446 131 105 39
-386.727 40.087 -1445 133 107 39
-383.651 40.0723 -1445 141 113 44
-380.315 40.0299 -1444 147 118 49
-376.986 39.9878 -1443 148 119 50
-373.924 39.9735 -1443 148 118 46
-370.609 39.9316 -1442 145 115 43
-367.301 39.8898 -1441 144 115 46
-363.747 39.8206 -1439 135 106 37
-360.456 39.7792 -1438 137 109 39
-357.172 39.7378 -1437 157 128 53
-353.649 39.669 -1435 163 135 58
-349.893 39.5728 -1432 161 133 51
-346.153 39.4767 -1429 157 129 57
-342.188 39.3532 -1425 153 125 53
-338.243 39.2299 -1421 148 120 47
-335.497 39.2447 -1422 150 123 48
-332.283 39.2045 -1421 157 130 54
-329.539 39.2196 -1422 165 137 55
-326.334 39.1796 -1421 165 138 57
-323.591 39.1949 -1422 165 138 60
-319.946 39.1001 -1419 165 138 60
-316.538 39.033 -1417 164 137 59
-312.921 38.9385 -1414 166 139 61
-309.319 38.8442 -1411 161 134 55
-305.297 38.695 -1406 159 132 52
-301.514 38.5735 -1402 159 132 49
-297.963 38.4797 -1399 156 129 46
-294.849 38.4411 -1398 151 124 42
-291.742 38.4026 -1397 144 117 38
-288.641 38.3642 -1396 144 117 39
-285.751 38.3534 -1396 142 114 44
-283.269 38.3977 -1398 141 114 44
-280.581 38.4147 -1399 138 113 46
-277.693 38.4042 -1399 136 111 47
-275.003 38.4213 -1400 137 112 49
-272.506 38.4659 -1402 132 108 53
-269.426 38.4283 -1401 118 94 49
-266.923 38.4732 -1403 102 78 45
-264.225 38.4907 -1404 82 65 41
-262.085 38.5906 -1408 55 40 20
-259.562 38.6356 -1410 32 25 20
-257.397 38.7356 -1414 28 23 21
-254.678 38.7534 -1415 23 20 21
-252.312 38.8262 -1418 20 13 17
-250.113 38.9263 -1422 18 12 16
-245.639 38.6707 -1413 15 11 16
-242.922 38.689 -1414 15 11 16
-238.845 38.4885 -1407 15 11 16
-234.127 38.179 -1396 18 13 21
-229.954 37.9515 -1388 19 15 22
-225.978 37.7517 -1381 17 14 21
-222.841 37.6887 -1379 16 13 19
-220.512 37.7625 -1382 16 13 18
-218.33 37.8637 -1386 16 13 18
-216.134 37.9649 -1390 16 13 18
-214.23 38.1208 -1396 16 13 18
-211.697 38.1675 -1398 18 15 19
-209.607 38.2962 -1403 18 15 20
-207.498 38.4249 -1408 20 17 22
-205.079 38.4992 -1411 23 20 25
-202.364 38.5189 -1412 33 30 34
-199.504 38.5115 -1412 48 38 30
-196.786 38.5315 -1413 65 54 42
-193.654 38.4697 -1411 86 72 44
-191.072 38.5172 -1413 116 99 52
-187.817 38.4284 -1410 131 111 49
-184.708 38.367 -1408 133 113 50
-181.479 38.2785 -1405 133 112 49
-178.644 38.2719 -1405 131 109 44
-175.436 38.1837 -1402 128 105 45
-172.857 38.2317 -1404 125 102 45
-170.272 38.2799 -1406 122 99 42
-167.68 38.3281 -1408 124 101 44
-165.081 38.3765 -1410 127 104 47
-162.475 38.4248 -1412 134 110 52
-159.636 38.4189 -1412 141 116 58
-156.799 38.4131 -1412 143 119 52
-153.963 38.4074 -1412 145 121 52
-151.236 38.429 -1413 148 123 49
-148.295 38.3963 -1412 144 119 45
-145.463 38.3909 -1412 143 118 44
-142.632 38.3857 -1412 149 122 46
-139.604 38.3261 -1410 149 123 47
-136.682 38.2938 -1409 152 125 49
-133.861 38.289 -1409 153 126 47
-130.854 38.2297 -1407 152 125 45
-127.856 38.1706 -1405 151 124 46
-124.957 38.1389 -1404 150 122 46
-122.149 38.1344 -1404 149 121 48
-119.258 38.1027 -1403 148 120 50
-116.537 38.1256 -1404 143 116 47
-113.895 38.1757 -1406 136 111 53
-111.087 38.1716 -1406 133 109 51
-108.357 38.1947 -1407 132 109 52
-105.7 38.2451 -1409 133 108 51
-102.962 38.2685 -1410 131 106 49
-100.291 38.319 -1412 127 104 47
-97.614 38.3697 -1414 126 102 45
-94.7954 38.3662 -1414 122 97 40
-92.1077 38.417 -1416 115 96 43
-89.2235 38.3865 -1415 113 94 43
-86.4663 38.4105 -1416 113 93 46
-83.7056 38.4345 -1417 115 96 50
-80.9417 38.4587 -1418 121 103 57
-78.2295 38.5099 -1420 125 104 53
-75.51 38.5614 -1422 117 96 46
-72.7832 38.6129 -1424 111 90 44
-69.9999 38.6375 -1425 105 86 42
-67.3074 38.7163 -1428 101 83 40
-64.5583 38.7681 -1430 97 79 38
-61.845 38.8472 -1433 94 76 36
-59.1203 38.9263 -1436 93 75 37
-56.3841 39.0055 -1439 91 73 34
-53.6364 39.0847 -1442 91 74 34
-50.8068 39.11 -1443 96 79 39
-48.0069 39.1624 -1445 99 82 40
-45.1682 39.1878 -1446 102 86 42
-42.3258 39.2133 -1447 105 87 44
-39.5344 39.2931 -1450 106 88 45
-36.7819 39.4272 -1455 89 75 37
-33.9633 39.5072 -1458 80 67 31
-31.1331 39.5873 -1461 74 62 30
-28.2525 39.6133 -1462 75 61 34
-25.4202 39.7208 -1466 76 62 35
-22.5262 39.747 -1467 81 65 42
-19.6551 39.8275 -1470 85 68 45
-16.7495 39.8539 -1471 89 71 48
-13.8494 39.9076 -1473 98 81 44
-10.9267 39.9071 -1473 101 84 46
-8.00954 39.9339 -1474 104 87 48
-5.08845 39.9607 -1475 103 86 46
-2.16197 39.9606 -1475 96 79 38
0.765014 39.9876 -1476 93 75 30
3.69347 39.9877 -1476 104 86 40
6.61747 39.9608 -1475 110 90 42
9.54402 39.9611 -1475 104 85 39
12.4707 39.9615 -1475 102 83 38
15.4078 39.9891 -1476 110 90 42
18.3367 39.9897 -1476 108 88 42
21.2801 40.0176 -1477 101 81 38
24.2112 40.0184 -1477 99 81 41
27.1425 40.0193 -1477 99 81 41
30.0741 40.0204 -1477 99 81 41
33.0729 40.1028 -1480 102 82 44
36.0839 40.1854 -1483 104 83 46
39.1334 40.2951 -1487 110 89 51
42.2275 40.4321 -1492 116 94 63
45.3114 40.5421 -1496 132 110 92
48.3147 40.5709 -1497 147 127 122
51.3224 40.5998 -1498 158 138 136
54.407 40.683 -1501 162 140 147
57.4657 40.7393 -1503 163 139 146
60.4122 40.7144 -1502 163 137 145
63.4396 40.7438 -1503 160 138 138
66.4716 40.7732 -1504 159 137 137
69.4618 40.7757 -1504 160 136 136
72.3562 40.7241 -1502 161 137 137
75.4939 40.8081 -1505 162 138 138
78.5922 40.8651 -1507 161 136 134
81.6448 40.8951 -1508 161 135 134
84.6461 40.8982 -1508 162 134 135
87.7642 40.9556 -1510 161 132 136
90.5302 40.8504 -1506 162 132 135
93.5296 40.8537 -1506 165 132 134
96.5296 40.8572 -1506 168 133 135
99.5304 40.8608 -1506 168 133 135
102.6 40.8916 -1507 164 132 134
105.815 40.9768 -1510 163 133 134
108.898 41.0079 -1511 161 134 134
111.838 40.9848 -1510 157 131 134
114.927 41.0161 -1511 157 130 133
117.709 40.9389 -1508 157 129 131
120.72 40.9432 -1508 157 128 133
123.814 40.9749 -1509 158 129 135
126.913 41.0066 -1510 156 128 132
130.017 41.0385 -1511 157 129 130
133.302 41.1248 -1514 157 129 128
136.42 41.1569 -1515 158 131 123
139.635 41.2163 -1517 159 133 125
142.672 41.2214 -1517 158 133 124
145.709 41.2268 -1517 158 131 122
148.846 41.2594 -1518 158 131 122
151.688 41.2105 -1516 155 130 124
154.727 41.2161 -1516 156 130 124
157.663 41.1946 -1515 158 132 125
160.808 41.2276 -1516 161 131 123
163.743 41.2064 -1515 162 133 120
166.896 41.2398 -1516 167 137 120
170.165 41.3004 -1518 166 137 118
173.445 41.3611 -1520 163 133 117
176.385 41.3403 -1519 159 129 120
179.677 41.4013 -1521 159 128 114
182.498 41.3535 -1519 160 128 113
185.557 41.3602 -1519 161 129 107
188.617 41.3671 -1519 159 129 106
191.553 41.3469 -1518 163 133 109
194.229 41.2723 -1515 164 135 106
197.416 41.3067 -1516 166 137 115
200.345 41.2869 -1515 167 138 120
203.271 41.267 -1514 170 139 132
206.331 41.2746 -1514 168 137 130
209.53 41.3095 -1515 166 135 128
212.596 41.3173 -1515 165 134 121
215.805 41.3525 -1516 164 133 119
219.02 41.3878 -1517 163 133 116
222.241 41.4232 -1518 166 135 116
225.616 41.4861 -1520 163 133 116
228.55 41.4673 -1519 160 131 118
231.787 41.503 -1520 155 130 126
234.721 41.4844 -1519 157 132 129
237.809 41.4931 -1519 157 131 128
240.74 41.4747 -1518 158 133 127
243.83 41.4837 -1518 160 135 129
246.922 41.4928 -1518 162 137 131
250.016 41.502 -1518 164 139 134
253.446 41.566 -1520 163 138 134
256.38 41.5482 -1519 162 137 134
259.482 41.5578 -1519 162 136 137
262.414 41.5401 -1518 161 135 137
265.518 41.5499 -1518 163 135 139
268.625 41.5599 -1518 164 135 136
271.197 41.4877 -1515 164 135 135
274.303 41.4979 -1515 165 136 137
277.593 41.5356 -1516 162 135 135
280.705 41.5461 -1516 164 137 138
283.82 41.5565 -1516 162 137 141
286.936 41.5672 -1516 160 136 139
290.055 41.578 -1516 159 136 139
292.983 41.5614 -1515 158 139 141
296.301 41.5999 -1516 159 140 140
299.427 41.6111 -1516 158 139 139
303.155 41.7047 -1519 158 140 138
306.494 41.7436 -1520 162 142 140
309.841 41.7825 -1521 161 141 139
312.576 41.7393 -1519 161 142 140
315.722 41.7511 -1519 160 142 139
318.87 41.763 -1519 162 143 140
322.445 41.8301 -1521 161 142 139
324.961 41.7597 -1518 163 142 142
328.547 41.8271 -1520 161 140 142
331.491 41.8119 -1519 160 140 142
334.432 41.7969 -1518 160 139 143
337.818 41.8371 -1519 161 140 143
341.21 41.8775 -1520 161 139 143
344.156 41.8628 -1519 162 142 143
347.33 41.8759 -1519 164 145 147
350.507 41.8891 -1519 167 147 150
353.686 41.9024 -1519 167 145 148
356.869 41.9159 -1519 164 143 141
360.292 41.957 -1520 164 143 140
364.2 42.0535 -1523 164 142 140
367.401 42.0675 -1523 164 142 145
370.604 42.0814 -1523 167 143 145
374.548 42.1785 -1526 172 145 147
378.012 42.2204 -1527 178 147 154
380.484 42.1519 -1524 178 148 156
383.703 42.1664 -1524 173 144 152
386.164 42.098 -1521 170 143 149
389.639 42.1405 -1522 168 145 148
392.347 42.1 -1520 167 146 149
396.351 42.1981 -1523 165 147 149
399.585 42.2133 -1523 167 150 154
403.616 42.3118 -1526 168 153 155
406.329 42.2718 -1524 167 153 154
409.845 42.3152 -1525 169 156 158
412.555 42.2754 -1523 171 157 158
415.534 42.2635 -1522 170 155 158
418.511 42.2517 -1521 171 156 163
422.043 42.2957 -1522 171 156 162
424.465 42.2285 -1519 171 157 156
427.723 42.2448 -1519 165 152 144
430.701 42.2335 -1518 172 153 153
434.25 42.278 -1519 180 158 160
437.807 42.3226 -1520 179 159 160
441.953 42.4232 -1523 176 158 158
445.239 42.4403 -1523 172 154 157
448.234 42.4296 -1522 170 151 151
451.229 42.4191 -1521 170 150 149
453.626 42.3529 -1518 171 149 148
456.315 42.3147 -1516 173 148 146
460.212 42.3883 -1518 170 146 145
464.733 42.5179 -1522 167 143 142
468.968 42.6199 -1525 162 139 138
473.219 42.722 -1528 160 137 136
477.489 42.8244 -1531 161 137 136
480.834 42.843 -1531 161 137 135
483.866 42.8338 -1530 153 130 129
487.218 42.8527 -1530 153 129 128
491.535 42.9558 -1533 146 123 122
495.225 43.0031 -1534 143 121 120
499.573 43.1066 -1537 145 124 121
503.939 43.2104 -1540 153 131 128
507.335 43.2302 -1540 152 130 128
511.067 43.2782 -1541 154 132 129
513.807 43.2421 -1539 157 134 132
516.207 43.178 -1536 159 137 134
520.966 43.3108 -1540 157 134 132
524.726 43.3594 -1541 155 131 129
528.838 43.4364 -1543 154 130 128
531.239 43.3729 -1540 156 132 130
534.326 43.3657 -1539 158 135 133
536.365 43.2741 -1535 160 137 134
539.447 43.2671 -1534 157 137 132
542.175 43.232 -1532 155 134 131
545.967 43.2817 -1533 152 131 129
550.486 43.3882 -1536 147 127 124
554.303 43.4383 -1537 143 122 119
558.129 43.4886 -1538 140 121 118
563.425 43.6524 -1543 140 116 114
-919.241 39.889 -1398 164 146 132
-913.231 39.7644 -1395 184 164 151
-909.857 39.7542 -1396 204 183 170
-907.787 39.801 -1399 215 193 180
-903.772 39.7626 -1399 220 199 187
-900.412 39.7528 -1400 227 205 194
-894.497 39.6297 -1397 231 208 197
-892.434 39.677 -1400 235 212 200
-885.288 39.498 -1395 237 214 203
-881.973 39.4891 -1396 237 213 202
-878.033 39.4521 -1396 234 208 196
-876.609 39.5283 -1400 229 203 193
-873.303 39.5199 -1401 227 202 192
-871.243 39.568 -1404 226 202 191
-864.852 39.4191 -1400 227 203 193
-861.569 39.4113 -1401 227 204 191
-857.067 39.3474 -1400 225 201 190
-851.971 39.2557 -1398 226 202 191
-847.503 39.1924 -1397 227 203 192
-846.674 39.2975 -1402 228 203 192
-841.62 39.2065 -1400 230 207 196
-838.381 39.1998 -1401 231 207 196
-835.147 39.1933 -1402 230 206 196
-831.918 39.187 -1403 232 207 198
-826.922 39.097 -1401 234 210 201
-823.709 39.091 -1402 236 213 202
-821.671 39.1408 -1405 238 214 204
-816.132 39.0238 -1402 242 218 207
-814.096 39.0739 -1405 245 221 210
-810.9 39.0686 -1406 249 223 213
-807.708 39.0633 -1407 249 224 217
-803.948 39.0306 -1407 246 220 212
-800.767 39.0257 -1408 241 216 206
-797.023 38.9932 -1408 240 212 202
-793.288 38.961 -1408 235 211 203
-789.562 38.929 -1408 197 173 163
-785.288 38.8696 -1407 121 96 85
-781.027 38.8103 -1406 123 94 84
-775.675 38.6961 -1403 124 96 84
-770.897 38.6099 -1401 118 92 77
-766.139 38.5239 -1399 118 91 77
-761.944 38.4657 -1398 134 105 95
-758.848 38.4628 -1399 111 89 92
-755.756 38.4599 -1400 94 77 78
-755.89 38.6219 -1407 117 100 99
-753.323 38.6466 -1409 168 148 144
-752.882 38.7812 -1415 224 202 200
-749.771 38.7786 -1416 235 214 211
-747.191 38.8036 -1418 237 216 213
-743.559 38.774 -1418 237 216 213
-739.414 38.7173 -1417 238 213 210
-736.32 38.7153 -1418 237 216 212
-733.23 38.7136 -1419 234 213 209
-730.142 38.712 -1420 232 211 207
-726.545 38.6832 -1420 231 210 206
-723.466 38.6819 -1421 229 209 205
-719.883 38.6535 -1421 229 209 205
-716.811 38.6524 -1422 228 208 204
-713.24 38.6243 -1422 230 209 205
-710.177 38.6236 -1423 230 208 205
-707.116 38.623 -1424 229 205 202
-704.057 38.6225 -1425 227 204 199
-701.984 38.6764 -1428 230 205 199
-698.925 38.6762 -1429 229 204 198
-695.382 38.649 -1429 228 203 199
-691.847 38.622 -1429 227 203 198
-688.319 38.5952 -1429 225 201 196
-685.756 38.6225 -1431 225 201 196
-681.76 38.569 -1430 221 198 193
-678.251 38.5426 -1430 222 198 193
-674.749 38.5165 -1430 221 196 192
-671.254 38.4905 -1430 219 194 190
-667.766 38.4647 -1430 220 195 191
-664.749 38.4659 -1431 217 192 188
-662.196 38.4941 -1433 214 189 184
-659.181 38.4956 -1434 211 185 180
-656.168 38.4972 -1435 212 186 181
-652.247 38.4453 -1434 212 186 181
-649.695 38.4739 -1436 213 186 181
-646.24 38.4491 -1436 211 184 180
-643.238 38.4513 -1437 212 184 180
-640.239 38.4535 -1438 212 182 177
-638.127 38.5093 -1441 209 179 174
-634.686 38.485 -1441 208 178 173
-631.251 38.4609 -1441 207 177 172
-627.387 38.4104 -1440 207 177 172
-624.4 38.4132 -1441 203 175 168
-620.985 38.3897 -1441 200 172 164
-618.004 38.3929 -1442 197 167 158
-615.45 38.4227 -1444 196 166 156
-612.046 38.3995 -1444 192 162 152
-609.912 38.4562 -1447 189 162 150
-606.932 38.4599 -1448 187 163 148
-603.953 38.4636 -1449 181 157 142
-600.975 38.4674 -1450 178 154 139
-598.411 38.4979 -1452 169 143 129
-595.024 38.4755 -1452 157 128 116
-592.457 38.5063 -1454 146 114 103
-589.482 38.5106 -1455 140 108 97
-586.105 38.4886 -1455 142 110 99
-583.535 38.5196 -1457 149 118 107
-579.767 38.4714 -1456 155 125 111
-575.613 38.397 -1454 160 131 117
-571.867 38.3493 -1453 167 139 125
-568.523 38.328 -1453 175 146 134
-565.185 38.307 -1453 181 151 137
-562.238 38.3124 -1454 185 155 140
-559.293 38.3179 -1455 187 157 142
-555.966 38.2972 -1455 187 160 141
-553.024 38.3029 -1456 187 161 141
-550.46 38.3351 -1458 187 161 141
-547.143 38.3149 -1458 188 164 146
-544.203 38.321 -1459 191 167 152
-541.264 38.3272 -1460 193 168 158
-537.957 38.3073 -1460 198 172 163
-534.289 38.2614 -1459 200 173 165
-532.086 38.3203 -1462 203 173 168
-528.79 38.3008 -1462 204 174 169
-526.218 38.3339 -1464 206 176 171
-523.641 38.3669 -1466 205 175 170
-520.706 38.374 -1467 207 177 174
-517.065 38.3289 -1466 209 179 178
-513.785 38.31 -1466 212 180 178
-510.16 38.2651 -1465 211 179 177
-505.854 38.1682 -1462 211 179 177
-502.94 38.176 -1463 211 180 175
-499.685 38.1576 -1463 212 181 176
-496.774 38.1655 -1464 213 182 177
-493.526 38.1476 -1464 215 184 179
-490.617 38.1557 -1465 212 180 175
-487.376 38.1379 -1465 211 177 173
-484.8 38.1724 -1467 215 181 177
-481.564 38.1548 -1467 213 179 176
-478.983 38.1895 -1469 213 179 180
-475.427 38.1462 -1468 213 179 170
-471.88 38.1031 -1467 211 178 165
-468.341 38.0601 -1466 209 176 160
-464.494 37.9914 -1464 195 164 137
-460.66 37.9228 -1462 161 132 98
-455.587 37.7507 -1456 151 125 65
-450.855 37.6047 -1451 148 122 63
-447.383 37.5626 -1450 148 123 64
-443.307 37.469 -1447 143 121 56
-439.856 37.4272 -1446 139 116 53
-437.018 37.4373 -1447 139 114 56
-434.479 37.4735 -1449 140 116 49
-430.744 37.4062 -1447 140 116 47
-427.909 37.4168 -1448 140 114 46
-424.487 37.3756 -1447 141 115 47
-421.072 37.3347 -1446 143 117 49
-417.666 37.2939 -1445 143 117 51
-414.841 37.3049 -1446 139 114 49
-411.731 37.2901 -1446 136 111 47
-408.907 37.3013 -1447 137 111 49
-405.522 37.261 -1446 135 108 48
-402.423 37.2466 -1446 135 108 53
-399.328 37.2324 -1446 136 110 51
-397.058 37.2955 -1449 134 108 48
-393.419 37.23 -1447 128 102 39
-390.332 37.216 -1447 127 101 34
-386.981 37.1766 -1446 131 105 37
-384.168 37.1886 -1447 141 113 44
-380.301 37.098 -1444 149 121 52
-376.972 37.0589 -1443 149 120 51
-373.911 37.0456 -1443 147 116 43
-370.595 37.0069 -1442 148 117 44
-367.287 36.9682 -1441 144 115 46
-363.734 36.904 -1439 133 105 36
-360.443 36.8656 -1438 141 113 44
-357.159 36.8273 -1437 159 130 55
-354.129 36.8148 -1437 163 135 57
-350.613 36.7511 -1435 161 133 51
-346.867 36.662 -1432 157 129 56
-342.656 36.522 -1427 152 124 52
-338.945 36.4333 -1424 148 120 47
-335.721 36.3959 -1423 150 123 48
-332.505 36.3586 -1422 157 130 54
-329.527 36.347 -1422 164 136 54
-326.552 36.3355 -1422 165 137 57
-323.352 36.2985 -1421 164 137 59
-319.934 36.2362 -1419 164 137 59
-316.303 36.1485 -1416 165 138 60
-312.688 36.061 -1413 168 141 62
-309.307 35.9991 -1411 162 135 55
-305.72 35.9118 -1408 158 131 51
-301.933 35.7992 -1404 159 132 49
-298.378 35.7123 -1401 157 130 47
-295.049 35.651 -1399 153 126 44
-291.94 35.6152 -1398 147 120 40
-288.837 35.5797 -1397 144 117 39
-285.946 35.5697 -1397 141 113 40
-283.259 35.5853 -1398 142 115 43
-280.571 35.6009 -1399 142 115 46
-277.683 35.5913 -1399 139 115 50
-274.993 35.6071 -1400 135 112 48
-272.301 35.6231 -1401 132 107 46
-269.608 35.6391 -1402 126 100 47
-266.913 35.6553 -1403 110 84 40
-264.028 35.6461 -1403 78 63 34
-261.703 35.7132 -1406 58 44 20
-259 35.7296 -1407 37 30 22
-257.206 35.873 -1413 25 19 17
-254.309 35.8642 -1413 22 18 20
-252.303 35.9823 -1418 22 15 19
-249.928 36.0498 -1421 18 11 16
-245.63 35.8383 -1413 14 10 15
-241.711 35.6777 -1407 13 9 14
-238.497 35.6188 -1405 12 8 13
-234.622 35.4585 -1399 16 11 19
-230.94 35.3238 -1394 17 13 20
-227.607 35.2399 -1391 16 13 20
-224.449 35.1814 -1389 17 14 19
-221.462 35.1485 -1388 16 13 18
-219.268 35.2422 -1392 15 12 17
-216.903 35.3107 -1395 15 12 17
-214.836 35.4298 -1400 16 13 18
-212.447 35.4984 -1403 17 14 19
-209.749 35.5165 -1404 18 15 20
-207.49 35.6105 -1408 18 15 19
-205.217 35.7046 -1412 20 17 22
-201.926 35.6218 -1409 30 27 33
-199.497 35.6907 -1412 46 35 29
-196.64 35.684 -1412 61 49 39
-193.647 35.652 -1411 83 69 42
-190.93 35.6707 -1412 118 100 54
-187.678 35.5884 -1409 133 113 52
-184.701 35.5568 -1408 133 113 50
-181.343 35.4495 -1404 132 111 48
