ply
format ascii 1.0
comment Created by Open3D
element vertex 1414
property double x
property double y
property double z
property uchar red
property uchar green
property uchar blue
end_header
-83.069 -53.2238 -1317 141 111 50
-80.3839 -53.179 -1316 138 107 52
-77.7626 -53.1747 -1316 123 95 42
-75.0848 -53.1302 -1315 122 95 45
-72.5769 -53.207 -1317 125 98 50
-69.8492 -53.1224 -1315 124 97 49
-67.181 -53.0782 -1314 124 94 48
-64.4683 -52.9938 -1312 126 97 46
-61.8584 -52.9904 -1312 124 95 40
-59.2037 -52.9468 -1311 118 91 35
-56.5104 -52.8629 -1309 109 82 29
-53.9079 -52.8599 -1309 104 76 33
-51.2665 -52.8167 -1308 104 75 38
-48.6667 -52.814 -1308 104 75 42
-46.0322 -52.7711 -1307 99 74 40
-43.4684 -52.8091 -1308 96 74 38
-40.901 -52.847 -1309 93 76 38
-38.2715 -52.8045 -1308 89 74 34
-35.7008 -52.8429 -1309 89 75 34
-33.1011 -52.841 -1309 90 73 37
-30.5482 -52.9201 -1311 87 70 34
-27.9663 -52.9588 -1312 84 67 31
-25.4194 -53.0785 -1315 82 67 33
-22.8087 -53.0772 -1315 82 67 33
-20.2289 -53.1568 -1317 84 71 38
-17.628 -53.1961 -1318 84 70 36
-15.0346 -53.276 -1320 84 69 33
-12.4334 -53.3559 -1322 86 71 37
-9.8392 -53.5168 -1326 88 73 39
-7.22377 -53.6374 -1329 87 72 38
-4.59994 -53.7985 -1333 83 69 36
-1.95734 -53.8791 -1335 83 70 37
0.69423 -54.0405 -1339 85 70 38
3.35918 -54.1617 -1342 85 70 38
6.03157 -54.2426 -1344 86 71 39
8.71842 -54.3641 -1347 88 73 42
11.4257 -54.5261 -1351 85 70 40
14.1385 -54.6479 -1354 83 68 37
16.8634 -54.7698 -1357 82 67 37
19.6147 -54.9322 -1361 81 66 37
22.382 -55.0948 -1365 82 68 39
25.2573 -55.4594 -1374 84 70 41
28.1685 -55.8241 -1383 83 69 38
31.1381 -56.2293 -1393 80 66 35
34.1233 -56.5944 -1402 76 62 31
37.1445 -56.9596 -1411 78 64 37
-176.928 -59.2229 -1391 146 129 51
-172.745 -58.7445 -1380 149 129 42
-169.101 -58.4368 -1373 150 128 32
-165.729 -58.2145 -1368 150 127 35
-162.617 -58.0774 -1365 151 127 35
-159.635 -57.9832 -1363 147 124 33
-156.432 -57.804 -1359 143 118 30
-153.586 -57.7524 -1358 143 116 30
-150.634 -57.6587 -1356 144 116 33
-147.692 -57.5652 -1354 144 116 33
-144.759 -57.4718 -1352 141 114 31
-141.834 -57.3786 -1350 140 112 29
-138.919 -57.2856 -1348 140 112 29
-136.014 -57.1927 -1346 141 113 30
-133.117 -57.1 -1344 140 112 30
-130.326 -57.0501 -1343 139 111 29
-127.446 -56.9577 -1341 137 109 29
-124.574 -56.8655 -1339 138 110 30
-121.712 -56.7737 -1337 138 109 31
-118.858 -56.6818 -1335 137 108 30
-116.014 -56.5903 -1333 137 108 31
-113.178 -56.4988 -1331 140 111 34
-110.351 -56.4076 -1329 138 109 34
-107.534 -56.3164 -1327 137 108 33
-104.883 -56.3104 -1327 140 111 37
-102.079 -56.2197 -1325 142 113 42
-99.3584 -56.1715 -1324 143 114 45
-96.5699 -56.0811 -1322 143 114 45
-93.9323 -56.0757 -1322 142 112 47
-91.2263 -56.0279 -1321 142 112 49
-88.5251 -55.9804 -1320 141 111 50
-85.6985 -55.8483 -1317 139 109 51
-83.0106 -55.8011 -1316 136 106 48
-80.3273 -55.754 -1315 131 100 46
-77.7078 -55.7495 -1315 121 92 39
-74.9748 -55.6604 -1313 124 96 44
-72.5258 -55.7834 -1316 122 95 45
-69.853 -55.737 -1315 121 94 44
-67.2359 -55.7332 -1315 126 96 44
-64.5701 -55.6869 -1314 135 105 48
-61.9561 -55.6833 -1314 139 109 48
-59.207 -55.5528 -1311 132 105 42
-56.5567 -55.5071 -1310 116 89 30
-53.952 -55.504 -1310 105 77 30
-51.3477 -55.501 -1310 103 75 39
-48.7066 -55.4558 -1309 100 72 40
-46.1052 -55.4532 -1309 99 74 44
-43.5373 -55.493 -1310 96 74 41
-40.9658 -55.533 -1311 92 75 37
-38.3321 -55.4884 -1310 90 75 35
-35.73 -55.4863 -1310 90 76 35
-33.1282 -55.4842 -1310 93 76 38
-30.5498 -55.5247 -1311 89 72 35
-27.9465 -55.5231 -1311 87 70 32
-25.3821 -55.6063 -1313 83 67 33
-22.7753 -55.6049 -1313 83 69 35
-20.1993 -55.6884 -1315 83 68 36
-17.6156 -55.772 -1317 83 68 34
-15.0354 -55.8982 -1320 84 69 33
-12.4341 -55.9821 -1322 87 72 38
-9.83974 -56.1508 -1326 90 75 41
-7.2296 -56.3197 -1330 87 72 38
-4.60364 -56.4888 -1334 80 67 33
-1.95891 -56.5733 -1336 82 69 36
0.69479 -56.7426 -1340 85 70 37
3.35936 -56.8274 -1342 87 72 39
6.02742 -56.8701 -1343 87 72 40
8.71891 -57.0399 -1347 87 72 41
11.4263 -57.2098 -1351 86 71 40
14.1289 -57.2952 -1353 83 68 37
16.8767 -57.5079 -1358 80 66 35
19.6302 -57.6783 -1362 82 68 38
22.416 -57.8912 -1367 84 70 41
25.2771 -58.2314 -1375 83 69 40
28.2312 -58.6987 -1386 83 69 39
31.1845 -59.0816 -1395 79 65 34
34.1495 -59.4223 -1403 76 62 31
37.1728 -59.8055 -1412 79 65 38
-176.811 -61.9571 -1390 144 127 50
-173.006 -61.59 -1382 146 127 43
-168.988 -61.1341 -1372 146 124 35
-165.981 -61.0349 -1370 145 122 33
-162.746 -60.8469 -1366 146 122 33
-159.762 -60.7482 -1364 145 121 35
-156.557 -60.5606 -1360 144 119 36
-153.482 -60.4177 -1357 143 116 37
-150.643 -60.3641 -1356 142 115 32
-147.81 -60.3106 -1355 143 116 33
-144.874 -60.2129 -1353 142 115 33
-142.053 -60.1598 -1352 142 115 32
-139.031 -60.0178 -1349 141 113 30
-136.224 -59.9651 -1348 139 111 28
-133.323 -59.868 -1346 139 111 28
-130.528 -59.8158 -1345 139 111 29
-127.643 -59.7191 -1343 139 111 30
-124.675 -59.5781 -1340 137 109 29
-121.81 -59.4819 -1338 140 112 32
-118.865 -59.3413 -1335 145 116 38
-116.021 -59.2455 -1333 144 115 38
-113.185 -59.1497 -1331 142 113 36
-110.441 -59.0985 -1330 141 112 35
-107.621 -59.0032 -1328 140 111 36
-104.968 -58.9969 -1328 142 113 38
-102.162 -58.9018 -1326 142 113 40
-99.4393 -58.8515 -1325 141 112 43
-96.6486 -58.7567 -1323 140 111 42
-93.9377 -58.7066 -1322 137 107 43
-91.1626 -58.6124 -1320 135 105 43
-88.5302 -58.6069 -1320 135 105 46
-85.6383 -58.4242 -1316 133 102 47
-83.0784 -58.4636 -1317 129 98 43
-80.4542 -58.4588 -1317 127 96 43
-77.7714 -58.4095 -1316 121 91 37
-75.1505 -58.405 -1316 124 94 40
-72.6402 -58.4894 -1318 123 95 43
-69.9102 -58.3964 -1316 127 99 46
-67.2909 -58.3924 -1316 133 104 47
-64.6722 -58.3885 -1316 139 110 47
-62.0068 -58.3402 -1315 140 110 44
-59.2556 -58.2035 -1312 141 113 44
-56.6464 -58.2001 -1312 125 97 32
-53.9963 -58.1525 -1311 108 81 29
-51.3507 -58.105 -1310 104 76 37
-48.7095 -58.0577 -1309 100 72 40
-46.1783 -58.1436 -1311 98 73 44
-43.573 -58.141 -1311 96 73 41
-40.9682 -58.1385 -1311 92 75 37
-38.3636 -58.1361 -1311 91 76 35
-35.7594 -58.1339 -1311 91 77 36
-33.1301 -58.0875 -1310 93 76 38
-30.5517 -58.13 -1311 92 75 37
-27.9481 -58.1283 -1311 89 72 34
-25.3642 -58.1709 -1312 84 68 33
-22.7766 -58.2138 -1313 82 67 33
-20.2158 -58.3455 -1316 82 67 35
-17.63 -58.4331 -1318 83 68 34
-15.0477 -58.5651 -1321 83 68 32
-12.4442 -58.653 -1323 86 71 36
-9.84031 -58.7853 -1326 88 73 39
-7.22458 -58.9178 -1329 87 72 38
-4.60046 -59.0948 -1333 82 68 35
-1.95755 -59.1833 -1335 80 66 34
0.694315 -59.3606 -1339 83 68 34
3.35956 -59.4937 -1342 86 71 38
6.02777 -59.5383 -1343 84 69 37
8.71941 -59.7161 -1347 83 68 37
11.4185 -59.8497 -1350 84 69 38
14.1192 -59.9391 -1352 84 69 38
16.8653 -60.1617 -1357 82 68 37
19.6025 -60.2958 -1360 83 69 38
22.4173 -60.6074 -1367 85 71 42
25.205 -60.7861 -1371 84 70 41
28.2125 -61.4086 -1385 85 71 42
31.2087 -61.8979 -1396 80 66 36
34.2245 -62.3434 -1406 76 62 31
37.3856 -62.9663 -1420 79 65 38
40.9141 -64.0772 -1445 82 69 46
-177.585 -65.0136 -1396 142 125 48
-173.267 -64.4439 -1384 144 125 43
-169.491 -64.0606 -1376 145 122 38
-166.234 -63.8639 -1372 145 121 34
-162.994 -63.6675 -1368 144 120 34
-160.006 -63.5641 -1366 144 120 36
-156.912 -63.4147 -1363 144 118 37
-153.831 -63.2654 -1360 144 117 38
-150.764 -63.1163 -1357 144 117 34
-147.928 -63.0605 -1356 143 116 33
-144.99 -62.9583 -1354 143 116 34
-142.062 -62.8564 -1352 142 115 32
-139.142 -62.7546 -1350 141 113 30
-136.333 -62.6995 -1349 140 112 29
-133.529 -62.6445 -1348 140 112 29
-130.633 -62.5433 -1346 141 113 30
-127.746 -62.4424 -1344 141 113 32
-124.775 -62.2951 -1341 138 110 30
-121.817 -62.148 -1338 139 111 31
-118.872 -62.0013 -1335 143 114 36
-116.115 -61.9474 -1334 142 113 37
-113.192 -61.8011 -1331 139 110 34
-110.531 -61.794 -1331 140 111 34
-107.79 -61.7409 -1330 142 113 38
-105.053 -61.6877 -1329 145 116 41
-102.322 -61.635 -1328 145 116 43
-99.6705 -61.6285 -1328 143 113 44
-96.8006 -61.4833 -1325 138 109 40
-94.0855 -61.4308 -1324 133 103 40
-91.3062 -61.3323 -1322 131 101 40
-88.6027 -61.2804 -1321 132 102 44
-85.7087 -61.0893 -1317 128 97 42
-83.1466 -61.1305 -1318 123 92 37
-80.4591 -61.0791 -1317 125 94 40
-77.7762 -61.0278 -1316 123 92 36
-75.0979 -60.9765 -1315 127 97 40
-72.5895 -61.0647 -1317 131 102 46
-69.9145 -61.0139 -1316 135 106 50
-67.295 -61.0097 -1316 137 107 47
-64.6762 -61.0056 -1316 139 110 45
-62.0106 -60.9554 -1315 139 111 42
-59.3044 -60.8589 -1313 144 114 41
-56.693 -60.8552 -1313 134 105 35
-54.0408 -60.8054 -1312 114 85 30
-51.393 -60.7558 -1311 103 76 33
-48.8241 -60.7991 -1312 102 75 38
-46.2164 -60.7961 -1312 101 76 46
-43.6422 -60.8397 -1313 95 73 40
-41.0019 -60.7907 -1312 93 76 36
-38.4244 -60.8346 -1313 93 78 35
-35.8161 -60.8323 -1313 94 80 36
-33.1827 -60.7839 -1312 95 78 39
-30.5535 -60.7356 -1311 94 77 38
-27.9499 -60.7338 -1311 92 75 37
-25.3658 -60.7783 -1312 87 70 34
-22.7433 -60.7305 -1311 84 68 32
-20.2017 -60.9144 -1315 83 68 36
-17.631 -61.0522 -1318 84 69 35
-15.0486 -61.1902 -1321 84 69 33
-12.445 -61.282 -1323 84 69 35
-9.84833 -61.4666 -1327 85 70 36
-7.23045 -61.605 -1330 84 69 35
-4.60763 -61.8363 -1335 82 67 34
-1.9606 -61.9287 -1337 80 66 34
0.695397 -62.1139 -1341 84 69 35
3.36227 -62.2067 -1343 86 71 37
6.03263 -62.2533 -1344 83 68 36
8.71994 -62.3927 -1347 82 67 36
11.4192 -62.5323 -1350 83 68 37
14.1305 -62.6721 -1353 84 69 38
16.8663 -62.8583 -1357 85 70 39
19.6469 -63.1376 -1363 85 71 40
22.4351 -63.3703 -1368 86 72 42
25.2985 -63.7424 -1376 87 74 44
28.2142 -64.161 -1385 86 73 44
31.1659 -64.5799 -1394 82 69 38
34.2753 -65.2305 -1408 76 62 31
37.4405 -65.8814 -1422 79 65 38
-178.869 -68.2891 -1406 143 126 47
-173.654 -67.3549 -1387 145 125 44
-169.625 -66.858 -1377 146 122 41
-166.245 -66.6042 -1372 145 121 35
-163.123 -66.4479 -1369 144 120 34
-160.133 -66.3403 -1367 144 120 36
-156.922 -66.1357 -1363 144 118 36
-153.841 -65.98 -1360 144 117 37
-150.884 -65.8731 -1358 144 117 34
-147.937 -65.7663 -1356 142 115 32
-144.999 -65.6598 -1354 141 114 32
-142.176 -65.602 -1353 142 114 31
-139.254 -65.4958 -1351 141 113 30
-136.342 -65.3899 -1349 140 112 29
-133.538 -65.3326 -1348 140 112 29
-130.641 -65.227 -1346 138 110 27
-127.754 -65.1216 -1344 138 110 29
-124.876 -65.0166 -1342 140 112 32
-121.916 -64.8632 -1339 139 111 31
-118.88 -64.6616 -1335 137 108 30
-116.122 -64.6056 -1334 138 109 34
-113.199 -64.4528 -1331 140 111 35
-110.455 -64.3972 -1330 140 111 34
-107.797 -64.39 -1330 139 111 36
-105.218 -64.4316 -1331 138 109 35
-102.406 -64.328 -1329 136 107 34
-99.827 -64.3698 -1330 134 104 37
-97.0259 -64.2666 -1328 132 102 36
-94.2337 -64.1636 -1326 128 98 36
-91.3811 -64.0123 -1323 127 97 36
-88.6754 -63.9582 -1322 129 99 41
-85.7791 -63.7591 -1318 126 95 39
-83.1519 -63.7536 -1318 123 93 37
-80.5864 -63.7966 -1319 127 96 40
-77.8994 -63.7431 -1318 125 95 37
-75.2169 -63.6898 -1317 129 99 40
-72.5942 -63.685 -1317 134 105 46
-69.9189 -63.6319 -1316 137 108 49
-67.2482 -63.5792 -1315 137 107 46
-64.6311 -63.5749 -1315 140 111 45
-62.0146 -63.5709 -1315 140 112 43
-59.3081 -63.4703 -1313 140 109 35
-56.6966 -63.4665 -1313 138 107 36
-54.0854 -63.463 -1313 120 91 31
-51.4747 -63.4594 -1313 107 79 31
-48.8644 -63.4562 -1313 104 77 34
-46.2545 -63.4531 -1313 103 78 44
-43.6449 -63.4502 -1313 97 74 38
-41.0357 -63.4475 -1313 93 76 35
-38.4561 -63.4933 -1314 94 79 35
-35.8456 -63.4909 -1314 95 81 36
-33.2101 -63.4403 -1313 96 79 39
-30.5788 -63.39 -1312 96 79 40
-27.9517 -63.3398 -1311 95 78 40
-25.3674 -63.3864 -1312 91 74 38
-22.762 -63.3848 -1312 87 71 35
-20.2183 -63.5767 -1316 85 70 37
-17.6455 -63.7204 -1319 86 71 36
-15.0609 -63.8641 -1322 86 71 35
-12.4457 -63.9117 -1323 85 70 35
-9.84894 -64.104 -1327 83 68 33
-7.23091 -64.2484 -1330 82 67 33
-4.60102 -64.393 -1333 83 68 35
-1.95925 -64.5377 -1336 83 68 35
0.694926 -64.7308 -1340 85 69 35
3.35998 -64.8276 -1342 83 68 35
6.03301 -64.9245 -1344 83 68 36
8.72697 -65.1182 -1348 83 68 37
11.42 -65.2155 -1350 83 68 37
14.1314 -65.3612 -1353 83 68 37
16.8674 -65.5556 -1357 84 69 38
19.6193 -65.7501 -1361 81 67 36
22.4201 -66.0413 -1367 82 68 37
25.2817 -66.4293 -1375 86 73 42
28.1956 -66.8659 -1384 85 74 45
31.1455 -67.3026 -1393 83 70 40
34.3505 -68.1744 -1411 77 63 32
37.4956 -68.8048 -1424 79 65 38
-179.644 -71.4027 -1412 142 125 46
-174.041 -70.2782 -1390 146 124 45
-170.006 -69.761 -1380 146 121 42
-166.498 -69.4462 -1374 145 121 38
-163.373 -69.2835 -1371 145 121 37
-160.378 -69.1713 -1369 144 120 35
-157.047 -68.9079 -1364 143 117 33
-153.964 -68.7459 -1361 144 117 34
-150.895 -68.5838 -1358 143 116 33
-147.947 -68.4727 -1356 141 114 31
-145.009 -68.3618 -1354 140 113 31
-142.185 -68.3016 -1353 140 112 30
-139.16 -68.1406 -1350 140 112 29
-136.351 -68.0808 -1349 141 113 30
-133.546 -68.0211 -1348 140 112 29
-130.65 -67.9112 -1346 139 111 28
-127.763 -67.8015 -1344 140 112 31
-124.978 -67.7426 -1343 140 112 32
-122.015 -67.5829 -1340 138 110 30
-118.977 -67.373 -1336 135 107 28
-116.13 -67.2643 -1334 134 105 30
-113.377 -67.206 -1333 134 105 30
-110.545 -67.0975 -1331 133 104 29
-107.804 -67.0398 -1330 133 104 30
-105.146 -67.0326 -1330 131 102 29
-102.489 -67.0256 -1330 129 100 28
-99.8336 -67.0187 -1330 128 99 32
-97.1055 -66.9617 -1329 130 100 35
-94.311 -66.8544 -1327 130 100 35
-91.4563 -66.697 -1324 129 99 36
-88.6813 -66.5902 -1322 129 99 38
-85.8499 -66.4331 -1319 128 98 39
-83.2836 -66.4778 -1320 129 99 40
-80.5917 -66.422 -1319 131 101 42
-77.9045 -66.3662 -1318 127 97 37
-75.1648 -66.2603 -1316 131 101 40
-72.5438 -66.2554 -1316 135 106 45
-69.8704 -66.2003 -1315 141 112 51
-67.2526 -66.1955 -1315 142 112 49
-64.6353 -66.1911 -1315 141 112 45
-62.0186 -66.1868 -1315 135 106 37
-59.3573 -66.1324 -1314 139 108 35
-56.7003 -66.0782 -1313 134 103 32
-54.1302 -66.1248 -1314 125 97 31
-51.4781 -66.071 -1313 117 90 33
-48.8304 -66.0171 -1312 106 79 27
-46.2928 -66.1146 -1314 102 78 37
-43.6479 -66.0613 -1313 100 79 37
-41.0072 -66.0081 -1312 94 78 35
-38.4294 -66.0557 -1313 93 79 34
-35.8207 -66.0533 -1313 94 80 35
-33.187 -66.0006 -1312 95 78 38
-30.5808 -65.9985 -1312 95 78 39
-27.9535 -65.9462 -1311 95 78 40
-25.3691 -65.9948 -1312 94 77 41
-22.7809 -66.0434 -1313 91 74 38
-20.2196 -66.1929 -1316 86 71 37
-17.6467 -66.3425 -1319 85 70 35
-15.0619 -66.4923 -1322 86 71 35
-12.456 -66.592 -1324 86 71 35
-9.85701 -66.7924 -1328 84 69 33
-7.23682 -66.9427 -1331 84 69 35
-4.60477 -67.0932 -1334 86 71 37
-1.96085 -67.2439 -1337 86 71 37
0.695493 -67.445 -1341 86 69 35
3.36522 -67.5961 -1344 84 67 34
6.0379 -67.6467 -1345 84 69 37
8.73403 -67.8484 -1349 85 70 39
11.4207 -67.8993 -1350 84 69 38
14.1533 -68.1517 -1355 84 69 38
16.8685 -68.2533 -1357 83 69 38
19.6494 -68.5563 -1363 80 66 35
22.438 -68.8092 -1368 79 65 34
25.3017 -69.2132 -1376 84 70 40
28.1771 -69.5671 -1383 84 73 45
31.1699 -70.1225 -1394 85 71 42
37.4719 -71.5859 -1423 79 65 38
-174.554 -73.2668 -1394 144 123 46
-170.018 -72.519 -1380 146 121 44
-166.631 -72.2443 -1375 146 122 41
-163.384 -72.0224 -1371 144 120 39
-160.272 -71.8534 -1368 141 117 32
-157.173 -71.6847 -1365 140 114 31
-154.201 -71.5686 -1363 141 114 32
-151.016 -71.3478 -1359 143 116 33
-148.176 -71.2846 -1358 142 115 32
-145.34 -71.2218 -1357 142 115 33
-142.405 -71.1067 -1355 142 115 33
-139.273 -70.8869 -1351 141 114 32
-136.461 -70.8247 -1350 140 112 29
-133.457 -70.6578 -1347 140 112 29
-130.562 -70.5435 -1345 141 113 30
-127.677 -70.4295 -1343 142 114 33
-124.893 -70.3682 -1342 141 113 33
-122.024 -70.2547 -1340 138 110 30
-119.074 -70.0889 -1337 136 108 29
-116.138 -69.9233 -1334 134 105 30
-113.469 -69.9153 -1334 134 105 31
-110.636 -69.8026 -1332 133 104 31
-107.892 -69.7424 -1331 131 102 30
-105.153 -69.6826 -1330 129 100 28
-102.574 -69.7276 -1331 128 99 29
-99.8404 -69.6682 -1330 129 99 33
-97.1852 -69.6612 -1330 129 99 34
-94.3175 -69.4974 -1327 135 105 38
-91.5316 -69.386 -1325 135 105 39
-88.6874 -69.2227 -1322 135 105 41
-85.921 -69.1119 -1320 134 104 43
-83.3525 -69.1582 -1321 138 108 47
-80.6583 -69.1001 -1320 138 108 49
-78.0281 -69.0946 -1320 134 104 44
-75.2842 -68.9844 -1318 138 108 47
-72.604 -68.9269 -1317 138 109 48
-69.9283 -68.8696 -1316 140 111 50
-67.3083 -68.8648 -1316 141 111 47
-64.6398 -68.8079 -1315 140 110 43
-62.0229 -68.8033 -1315 137 108 38
-59.3613 -68.7468 -1314 137 108 37
-56.7042 -68.6904 -1313 130 101 31
-54.0927 -68.6866 -1313 129 101 32
-51.4817 -68.6829 -1313 127 99 37
-48.8337 -68.6271 -1312 114 86 27
-46.2607 -68.6761 -1313 105 80 31
-43.6176 -68.6205 -1312 100 78 31
-41.01 -68.6175 -1312 95 78 38
-38.4028 -68.6148 -1312 94 79 35
-35.8231 -68.6645 -1313 92 78 33
-33.1639 -68.5575 -1311 95 77 35
-30.5596 -68.5553 -1311 95 77 37
-27.9554 -68.5532 -1311 95 77 37
-25.3902 -68.656 -1313 95 78 41
-22.7825 -68.6543 -1313 92 75 39
-20.2364 -68.8619 -1317 85 70 36
-17.6613 -69.0175 -1320 84 69 34
-15.0743 -69.1732 -1323 83 68 32
-12.4756 -69.3291 -1326 85 69 33
-9.86511 -69.4852 -1329 86 70 35
-7.23731 -69.5891 -1331 86 71 37
-4.61199 -69.8501 -1336 86 71 37
-1.96244 -69.9545 -1338 85 70 36
0.695545 -70.1113 -1341 87 70 36
3.36795 -70.3206 -1345 88 71 38
6.05178 -70.4778 -1348 85 70 38
8.7411 -70.5828 -1350 83 69 38
11.4469 -70.7404 -1353 83 69 38
14.1856 -71.0027 -1358 83 68 37
16.9069 -71.1084 -1360 82 67 36
19.6796 -71.3711 -1365 80 66 35
22.4723 -71.634 -1370 80 66 35
25.3218 -72.0017 -1377 82 68 38
28.2401 -72.4742 -1386 84 72 45
31.2391 -73.0514 -1397 85 72 43
34.3064 -73.6813 -1409 82 68 39
-181.451 -77.8129 -1426 142 125 51
-175.318 -76.3811 -1400 143 122 49
-170.4 -75.441 -1383 146 121 49
-166.764 -75.0469 -1376 146 121 48
-163.515 -74.8166 -1372 143 118 44
-160.518 -74.6955 -1370 137 113 31
-157.645 -74.6294 -1369 137 111 30
-154.439 -74.4 -1365 138 111 32
-151.36 -74.2251 -1362 143 116 33
-148.405 -74.1052 -1360 144 117 34
-145.458 -73.9855 -1358 144 117 35
-142.415 -73.8114 -1355 145 118 36
-139.283 -73.5832 -1351 142 115 33
-136.37 -73.4642 -1349 141 113 30
-133.367 -73.291 -1346 144 116 33
-130.474 -73.1724 -1344 145 117 35
-127.591 -73.0541 -1342 143 115 35
-124.902 -73.045 -1342 145 117 37
-121.941 -72.8726 -1339 147 119 39
-119.172 -72.8094 -1338 143 115 36
-116.32 -72.6919 -1336 140 111 34
-113.563 -72.629 -1335 133 104 31
-110.727 -72.5121 -1333 132 103 32
-108.062 -72.5041 -1333 135 106 34
-105.24 -72.3875 -1331 137 108 37
-102.658 -72.4343 -1332 139 110 41
-99.9227 -72.3725 -1331 140 110 44
-97.1921 -72.311 -1330 140 110 44
-94.3243 -72.1408 -1327 140 111 42
-91.5382 -72.0254 -1325 141 112 43
-88.7609 -71.9102 -1323 143 113 45
-86.0573 -71.8493 -1322 145 115 51
-83.4215 -71.8432 -1322 150 120 56
-80.7252 -71.7828 -1321 148 118 58
-78.0928 -71.7771 -1321 140 110 50
-75.2895 -71.6085 -1318 139 109 49
-72.6091 -71.5488 -1317 141 112 50
-69.8802 -71.4349 -1315 141 112 50
-67.2109 -71.3756 -1314 139 109 45
-64.5461 -71.3165 -1313 139 110 42
-61.9802 -71.3662 -1314 139 110 39
-59.3204 -71.3076 -1313 135 107 38
-56.6651 -71.2489 -1312 132 104 34
-54.0965 -71.2992 -1313 133 104 35
-51.4853 -71.2954 -1313 132 104 37
-48.8372 -71.2375 -1312 125 97 31
-46.2288 -71.234 -1312 113 88 30
-43.6539 -71.285 -1313 101 78 25
-40.9817 -71.1734 -1311 97 79 38
-38.3762 -71.1704 -1311 95 80 36
-35.7984 -71.222 -1312 92 78 34
-33.1663 -71.1652 -1311 95 77 36
-30.5617 -71.1629 -1311 96 78 37
-27.9787 -71.2151 -1312 95 77 37
-25.4113 -71.3217 -1314 94 77 40
-22.8188 -71.3742 -1315 91 74 38
-20.2533 -71.5355 -1318 87 72 37
-17.6893 -71.7512 -1322 84 69 34
-15.0982 -71.9129 -1325 83 68 32
-12.4859 -72.0204 -1327 85 69 33
-9.88065 -72.2367 -1331 87 71 35
-7.25413 -72.3989 -1334 86 71 38
-4.61576 -72.5613 -1337 86 71 38
-1.96405 -72.6696 -1339 85 70 36
0.695598 -72.7781 -1341 88 71 37
3.36569 -72.9411 -1344 89 73 40
6.05671 -73.2128 -1349 86 71 39
8.7482 -73.3219 -1351 85 71 39
11.4646 -73.5397 -1355 86 72 40
14.2075 -73.812 -1360 86 71 40
16.9454 -73.9759 -1363 82 67 37
19.7099 -74.1944 -1367 81 67 36
22.5067 -74.4673 -1372 83 69 38
25.342 -74.7947 -1378 81 68 38
28.2014 -75.1223 -1384 83 71 43
31.219 -75.7758 -1396 85 72 43
-182.355 -81.0609 -1433 142 125 55
-175.581 -79.2938 -1402 143 123 51
-170.413 -78.2062 -1383 146 121 50
-166.898 -77.8541 -1377 147 122 50
-163.527 -77.5588 -1372 145 120 47
-160.647 -77.4898 -1371 138 114 36
-157.542 -77.3083 -1368 136 110 32
-154.563 -77.1833 -1366 139 113 33
-151.483 -77.0022 -1363 142 115 34
-148.525 -76.8778 -1361 142 115 34
-145.576 -76.7536 -1359 143 116 34
-142.531 -76.5733 -1356 143 116 34
-139.397 -76.3368 -1352 141 114 31
-136.38 -76.157 -1349 143 115 32
-133.377 -75.9772 -1346 147 119 36
-130.484 -75.8543 -1344 146 118 37
-127.505 -75.6752 -1341 143 115 34
-125.005 -75.7786 -1343 143 115 34
-122.133 -75.6564 -1341 145 117 37
-119.359 -75.5908 -1340 141 113 34
-116.503 -75.469 -1338 138 109 32
-113.741 -75.4038 -1337 137 108 34
-110.818 -75.2261 -1334 140 111 37
-108.151 -75.2179 -1334 143 114 39
-105.327 -75.097 -1332 146 117 43
-102.666 -75.0892 -1332 149 120 46
-99.8551 -74.9687 -1330 149 120 48
-97.1994 -74.9614 -1330 147 118 48
-94.3313 -74.785 -1327 147 118 47
-91.545 -74.6653 -1325 147 118 47
-88.8345 -74.6021 -1324 149 120 50
-86.0636 -74.4828 -1322 152 123 55
-83.4277 -74.4763 -1322 156 127 60
-80.609 -74.3012 -1319 155 125 61
-78.0395 -74.3516 -1320 143 113 53
-75.1809 -74.1204 -1316 138 108 51
-72.5043 -74.0585 -1315 142 112 48
-69.8322 -73.9969 -1314 140 110 46
-67.1647 -73.9354 -1313 138 108 46
-64.5018 -73.874 -1312 138 108 41
-61.9848 -73.9819 -1314 137 108 37
-59.3699 -73.9773 -1314 135 107 34
-56.6692 -73.8604 -1312 135 106 34
-54.1006 -73.9124 -1313 137 106 36
-51.4891 -73.9084 -1313 135 105 35
-48.8409 -73.8484 -1312 135 106 36
-46.1969 -73.7885 -1311 125 98 32
-43.5906 -73.7851 -1311 107 82 23
-40.9535 -73.7257 -1310 98 77 33
-38.3498 -73.7227 -1310 95 79 36
-35.7465 -73.72 -1310 94 80 37
-33.1688 -73.7736 -1311 94 76 38
-30.564 -73.7711 -1311 94 76 37
-27.9808 -73.8252 -1312 95 77 37
-25.4132 -73.9357 -1314 95 77 39
-22.8552 -74.1027 -1317 91 74 36
-20.2548 -74.1574 -1318 88 73 37
-17.6906 -74.381 -1322 86 71 37
-15.1107 -74.6048 -1326 85 70 36
-12.4963 -74.7163 -1328 86 70 36
-9.8888 -74.9405 -1332 86 70 36
-7.24923 -74.9961 -1333 86 71 38
-4.60919 -75.1082 -1335 86 71 38
-1.95979 -75.1643 -1336 87 72 38
0.695134 -75.3892 -1340 87 71 37
3.36595 -75.6144 -1344 87 72 38
6.05716 -75.8961 -1349 87 72 39
8.7618 -76.1217 -1353 86 71 40
11.4824 -76.3475 -1357 85 71 40
14.219 -76.5735 -1361 85 70 39
16.9591 -76.7435 -1364 82 68 38
19.7257 -76.9699 -1368 83 69 39
22.5084 -77.1966 -1372 84 71 39
25.3623 -77.5923 -1379 83 69 38
28.2035 -77.8756 -1384 86 72 42
31.2214 -78.5532 -1396 87 73 44
34.3846 -79.4559 -1412 80 66 37
-175.47 -82.0396 -1401 145 126 53
-170.919 -81.2061 -1387 146 122 48
-167.153 -80.7245 -1379 145 120 46
-163.659 -80.3602 -1373 143 118 44
-160.542 -80.1718 -1370 138 113 39
-157.554 -80.0421 -1368 137 112 34
-154.802 -80.0299 -1368 142 118 35
-151.828 -79.9008 -1366 142 115 37
-148.645 -79.655 -1362 143 116 38
-145.694 -79.5266 -1360 143 116 36
-142.542 -79.2812 -1356 142 115 33
-139.407 -79.0363 -1352 141 114 31
-136.593 -78.967 -1351 144 117 34
-133.486 -78.7227 -1347 147 120 37
-130.494 -78.537 -1344 145 117 37
-127.61 -78.41 -1342 141 113 31
-125.014 -78.4585 -1343 139 111 29
-122.233 -78.3903 -1342 142 114 34
-119.457 -78.3224 -1341 141 113 34
-116.599 -78.1963 -1339 143 114 37
-113.75 -78.0704 -1337 146 117 41
-110.827 -77.8864 -1334 149 120 44
-108.078 -77.8196 -1333 151 122 45
-105.335 -77.7528 -1332 152 123 47
-102.596 -77.6862 -1331 153 124 48
-99.8627 -77.62 -1330 153 124 50
-97.1338 -77.5538 -1329 151 122 49
-94.3386 -77.4297 -1327 150 121 51
-91.552 -77.3057 -1325 153 124 53
-88.8413 -77.2403 -1324 154 125 54
-86.0703 -77.1167 -1322 154 125 55
-83.4341 -77.1102 -1322 155 126 57
-80.6764 -76.9871 -1320 152 122 57
-77.9863 -76.9225 -1319 141 111 49
-75.2438 -76.8 -1317 138 108 49
-72.565 -76.7357 -1316 139 109 45
-69.8908 -76.6719 -1315 135 105 42
-67.2722 -76.6666 -1315 135 105 44
-64.605 -76.6032 -1314 134 105 38
-61.9895 -76.5981 -1314 134 105 33
-59.3745 -76.5934 -1314 134 106 34
-56.7168 -76.5306 -1313 137 108 37
-54.1047 -76.5263 -1313 142 110 41
-51.4539 -76.4639 -1312 140 110 40
-48.8074 -76.4017 -1311 142 113 42
-46.2005 -76.3979 -1311 135 106 37
-43.5607 -76.3362 -1310 115 88 25
-40.9566 -76.3329 -1310 101 79 29
-38.3528 -76.3298 -1310 95 80 34
-35.722 -76.2687 -1309 95 81 37
-33.1713 -76.3825 -1311 94 76 37
-30.5663 -76.38 -1311 94 76 36
-28.0043 -76.4943 -1313 96 77 37
-25.4345 -76.6087 -1315 95 78 40
-22.857 -76.7232 -1317 92 75 37
-20.2717 -76.838 -1319 90 75 39
-17.692 -77.0113 -1322 88 73 38
-15.1005 -77.1848 -1325 85 70 36
-12.5066 -77.4168 -1329 86 71 37
-9.89698 -77.6489 -1333 86 71 38
-7.24978 -77.6482 -1333 87 72 39
-4.61299 -77.8225 -1336 85 70 37
-1.9614 -77.8805 -1337 86 71 37
0.69571 -78.1135 -1341 88 73 39
3.36871 -78.3466 -1345 87 72 38
6.05763 -78.58 -1349 86 71 38
8.76895 -78.8719 -1354 89 74 42
11.4917 -79.1057 -1358 89 74 43
14.241 -79.3979 -1363 87 72 41
16.9729 -79.5156 -1365 83 69 39
19.7417 -79.7501 -1369 82 68 39
22.5265 -79.9848 -1373 82 68 36
25.3643 -80.3363 -1379 82 68 36
28.2262 -80.688 -1385 87 72 41
31.3357 -81.6224 -1401 90 75 45
-176.361 -85.2663 -1408 144 126 53
-170.933 -83.9805 -1387 145 123 49
-166.924 -83.3613 -1377 146 122 47
-163.553 -83.0451 -1372 146 121 46
-160.438 -82.8503 -1369 145 120 45
-157.567 -82.7769 -1368 143 117 39
-154.701 -82.7037 -1367 143 116 36
-151.618 -82.5096 -1364 143 116 38
-148.657 -82.3765 -1362 144 117 38
-145.706 -82.2435 -1360 142 115 35
-142.659 -82.0504 -1357 141 114 32
-139.625 -81.8574 -1354 142 115 32
-136.705 -81.7253 -1352 145 118 35
-133.596 -81.4726 -1348 144 117 35
-130.699 -81.341 -1346 144 116 36
-127.715 -81.1492 -1343 144 116 34
-125.024 -81.1389 -1343 144 116 34
-122.243 -81.0685 -1342 147 119 39
-119.556 -81.0586 -1342 146 118 39
-116.695 -80.9282 -1340 147 118 41
-113.844 -80.7981 -1338 151 122 44
-111.002 -80.6681 -1336 152 124 45
-108.168 -80.5386 -1334 152 123 46
-105.343 -80.4092 -1332 151 122 46
-102.605 -80.3403 -1331 151 122 47
-99.8707 -80.2719 -1330 150 121 48
-97.0684 -80.1431 -1328 149 120 47
-94.275 -80.0146 -1326 151 122 53
-91.4211 -79.8261 -1323 155 126 56
-88.7813 -79.8188 -1323 156 127 56
-86.012 -79.6911 -1321 156 127 56
-83.3777 -79.6841 -1321 154 125 54
-80.6216 -79.5569 -1319 146 116 51
-78.0517 -79.6109 -1320 136 106 42
-75.2498 -79.4237 -1317 139 109 46
-72.5708 -79.3574 -1316 141 111 50
-69.8963 -79.2914 -1315 134 104 44
-67.2775 -79.2857 -1315 136 106 47
-64.6102 -79.2202 -1314 138 108 40
-61.9473 -79.1548 -1313 139 110 35
-59.334 -79.1499 -1313 140 112 41
-56.7213 -79.1451 -1313 141 112 42
-54.109 -79.1407 -1313 143 114 45
-51.4579 -79.0762 -1312 142 113 42
-48.8485 -79.0722 -1312 143 114 43
-46.2042 -79.008 -1311 141 112 43
-43.5642 -78.944 -1310 128 101 36
-40.9598 -78.9406 -1310 110 87 31
-38.3558 -78.9375 -1310 98 82 34
-35.7521 -78.9345 -1310 97 83 38
-33.1993 -79.0522 -1312 96 78 38
-30.5921 -79.0497 -1312 97 78 38
-28.0278 -79.1678 -1314 100 79 40
-25.4558 -79.2862 -1316 96 78 40
-22.8588 -79.3445 -1317 93 76 38
-20.2733 -79.4633 -1319 91 76 40
-17.7068 -79.7027 -1323 89 74 39
-15.1131 -79.882 -1326 87 72 38
-12.517 -80.122 -1330 87 72 38
-9.90518 -80.3619 -1334 88 73 39
-7.26123 -80.4215 -1335 88 73 39
-4.61335 -80.4814 -1336 86 71 37
-1.96302 -80.6014 -1338 85 70 36
0.696288 -80.8424 -1342 87 72 38
3.37149 -81.0835 -1346 87 72 39
6.06709 -81.3851 -1351 87 72 40
8.77613 -81.6266 -1355 90 75 43
11.5011 -81.8686 -1359 91 76 44
14.2525 -82.1708 -1364 87 72 41
16.9866 -82.2926 -1366 83 68 38
19.7865 -82.6555 -1372 81 67 38
22.5775 -82.8982 -1376 82 68 37
25.4032 -83.2014 -1381 83 69 38
28.3099 -83.6855 -1389 86 71 40
31.3605 -84.4712 -1402 87 72 43
34.6091 -85.6186 -1421 83 68 39
-176.626 -88.2089 -1410 141 124 52
-171.563 -87.0682 -1392 146 125 52
-167.302 -86.3035 -1380 147 123 47
-163.686 -85.8518 -1373 146 121 45
-160.569 -85.6505 -1370 147 122 46
-157.58 -85.512 -1368 148 121 43
-154.714 -85.4365 -1367 147 120 40
-151.63 -85.2361 -1364 146 119 41
-148.67 -85.0984 -1362 145 118 40
-145.611 -84.8987 -1359 146 119 39
-142.46 -84.6366 -1355 147 120 39
-139.533 -84.4999 -1353 148 121 39
-136.716 -84.4259 -1352 147 120 37
-133.806 -84.2895 -1350 146 119 37
-130.807 -84.0912 -1347 151 123 43
-127.916 -83.9555 -1345 150 122 41
-125.128 -83.8824 -1344 147 119 37
-122.344 -83.8096 -1343 147 119 39
-119.566 -83.7371 -1342 149 121 42
-116.879 -83.7272 -1342 152 123 46
-114.024 -83.5927 -1340 153 124 45
-111.094 -83.3961 -1337 151 123 42
-108.258 -83.2623 -1335 150 121 44
-105.431 -83.1285 -1333 151 122 46
-102.613 -82.9951 -1331 150 121 46
-99.954 -82.9865 -1331 149 120 47
-97.1495 -82.8537 -1329 148 119 46
-94.2827 -82.6586 -1326 150 121 52
-91.4287 -82.4639 -1323 154 125 55
-88.7215 -82.394 -1322 157 128 55
-85.954 -82.2621 -1320 155 126 55
-83.2582 -82.1926 -1319 150 121 50
-80.5671 -82.1235 -1318 142 112 47
-77.999 -82.1791 -1319 131 101 35
-75.256 -82.0482 -1317 136 106 40
-72.6319 -82.0419 -1317 137 107 47
-69.9552 -81.9737 -1316 132 102 42
-67.2319 -81.8434 -1314 139 109 47
-64.5663 -81.7757 -1313 142 113 44
-61.9523 -81.7703 -1313 143 114 39
-59.3389 -81.7653 -1313 142 113 40
-56.7259 -81.7604 -1313 139 110 39
-54.1135 -81.7557 -1313 142 113 44
-51.4621 -81.689 -1312 143 114 44
-48.8525 -81.6849 -1312 139 111 40
-46.2079 -81.6187 -1311 139 110 41
-43.5678 -81.5527 -1310 135 107 40
-40.9632 -81.5492 -1310 118 94 31
-38.3589 -81.5459 -1310 101 83 33
-35.755 -81.5427 -1310 99 84 37
-33.202 -81.6643 -1312 99 81 38
-30.5946 -81.6617 -1312 99 80 39
-28.0301 -81.7837 -1314 102 81 42
-25.4579 -81.906 -1316 96 79 40
-22.878 -82.0285 -1318 93 76 38
-20.2749 -82.0889 -1319 90 76 38
-17.7216 -82.3985 -1324 89 75 38
-15.1372 -82.6461 -1328 88 73 38
-12.5181 -82.7694 -1330 89 74 40
-9.89856 -82.9552 -1333 88 73 39
-7.26181 -83.0789 -1335 87 72 38
-4.61718 -83.2029 -1337 86 71 37
-1.96464 -83.3271 -1339 86 71 37
0.696349 -83.5137 -1342 87 72 38
3.37427 -83.8251 -1347 87 72 39
6.06759 -84.0744 -1351 87 72 40
8.78333 -84.3862 -1356 88 73 41
11.519 -84.6982 -1361 89 74 42
14.2537 -84.886 -1364 86 71 40
17.0005 -85.0739 -1367 82 68 38
19.7881 -85.3867 -1372 83 69 40
22.5796 -85.6374 -1376 84 70 39
25.4053 -85.9506 -1381 85 71 40
28.353 -86.5752 -1391 86 71 41
31.4078 -87.3868 -1404 86 71 42
34.7094 -88.6966 -1425 84 69 40
-176.39 -90.9021 -1408 141 123 55
-171.331 -89.725 -1390 146 124 54
-167.558 -89.1938 -1382 147 122 47
-163.938 -88.7276 -1375 144 119 43
-160.582 -88.3909 -1370 146 120 44
-157.478 -88.1835 -1367 147 121 42
-154.5 -88.0411 -1365 147 120 40
-151.532 -87.8988 -1363 148 121 43
-148.573 -87.7567 -1361 147 120 42
-145.516 -87.5506 -1358 147 120 40
-142.578 -87.4091 -1356 145 118 37
-139.648 -87.268 -1354 143 116 34
-136.728 -87.127 -1352 145 118 35
-133.916 -87.0509 -1351 148 120 38
-131.012 -86.9106 -1349 151 123 43
-128.117 -86.7704 -1347 153 125 44
-125.231 -86.6306 -1345 150 122 40
-122.355 -86.4911 -1343 150 122 42
-119.576 -86.4162 -1342 151 123 44
-116.802 -86.3416 -1341 151 122 45
-114.033 -86.2672 -1340 150 122 42
-111.186 -86.1287 -1338 148 120 38
-108.267 -85.9262 -1335 148 119 42
-105.519 -85.8526 -1334 150 121 45
-102.699 -85.7148 -1332 149 120 45
-99.9625 -85.6417 -1331 148 119 45
-97.1578 -85.5046 -1329 147 118 45
-94.2907 -85.3033 -1326 149 120 50
-91.4364 -85.1022 -1323 155 126 55
-88.6619 -84.9658 -1321 156 127 54
-85.8962 -84.8296 -1319 151 122 50
-83.2653 -84.8224 -1319 146 117 46
-80.6351 -84.8152 -1319 142 112 47
-78.0056 -84.8084 -1319 131 101 36
-75.3767 -84.8019 -1319 134 104 37
-72.6381 -84.6668 -1317 134 104 44
-70.0143 -84.6607 -1317 133 103 43
-67.2888 -84.5261 -1315 142 112 47
-64.621 -84.4562 -1314 143 113 42
-61.9104 -84.3223 -1312 140 111 36
-59.2987 -84.3169 -1312 141 112 38
-56.6444 -84.2477 -1311 139 110 38
-53.9944 -84.1787 -1310 142 113 43
-51.3881 -84.1742 -1310 144 115 45
-48.8194 -84.2342 -1311 138 110 39
-46.1414 -84.1015 -1309 136 107 38
-43.5382 -84.0976 -1309 137 109 40
-40.9354 -84.094 -1309 125 99 31
-38.3329 -84.0906 -1309 106 87 33
-35.7307 -84.0875 -1309 100 83 32
-33.1794 -84.213 -1311 99 82 37
-30.5972 -84.2745 -1312 97 79 36
-28.0325 -84.4004 -1314 98 78 38
-25.4407 -84.4622 -1315 93 75 37
-22.8626 -84.5886 -1317 91 74 36
-20.2766 -84.7152 -1319 90 76 37
-17.7097 -84.9705 -1323 90 75 38
-15.127 -85.226 -1327 89 74 38
-12.5192 -85.4175 -1330 92 77 43
-9.89939 -85.6092 -1333 91 76 42
-7.2733 -85.8654 -1337 89 74 40
-4.62102 -85.9291 -1338 88 73 39
-1.9648 -85.993 -1339 88 73 39
0.69745 -86.3141 -1344 87 72 38
3.38208 -86.6996 -1350 86 71 37
6.0726 -86.8285 -1352 86 71 38
8.78407 -87.086 -1356 86 71 39
11.52 -87.408 -1361 87 72 40
14.2758 -87.7302 -1366 85 70 39
17.0268 -87.9243 -1369 82 68 38
19.8042 -88.1827 -1373 84 70 41
22.6307 -88.5699 -1379 86 72 41
25.481 -88.9573 -1385 85 71 40
28.437 -89.602 -1395 86 71 42
31.4329 -90.2468 -1405 86 71 42
34.8829 -91.9842 -1432 87 72 43
-176.406 -93.721 -1408 140 122 57
-171.716 -92.7071 -1393 145 123 54
-167.452 -91.8934 -1381 148 123 49
-163.953 -91.4793 -1375 150 125 50
-160.831 -91.2652 -1372 149 123 47
-157.607 -90.9848 -1368 146 119 42
-154.741 -90.9043 -1367 143 117 38
-151.768 -90.7576 -1365 149 122 44
-148.805 -90.6111 -1363 151 124 46
-145.529 -90.2657 -1358 150 123 43
-142.695 -90.1862 -1357 148 121 39
-139.661 -89.9742 -1354 147 120 38
-136.74 -89.829 -1352 149 122 39
-134.027 -89.8168 -1352 151 123 41
-131.218 -89.7385 -1351 150 122 41
-128.414 -89.6605 -1350 153 125 43
-125.336 -89.3836 -1346 152 124 42
-122.548 -89.3062 -1345 153 125 45
-119.676 -89.1624 -1343 153 125 45
-116.9 -89.0855 -1342 151 122 44
-114.043 -88.9425 -1340 149 121 41
-111.196 -88.7997 -1338 149 121 40
-108.277 -88.5909 -1335 148 119 42
-105.529 -88.5149 -1334 149 120 43
-102.708 -88.3729 -1332 150 121 46
-100.046 -88.3638 -1332 151 122 47
-97.1663 -88.156 -1329 152 123 48
-94.3701 -88.0149 -1327 153 124 52
-91.4445 -87.7413 -1323 155 126 54
-88.6698 -87.6007 -1321 152 123 50
-85.9688 -87.5265 -1320 146 117 46
-83.2726 -87.4528 -1319 144 115 45
-80.6422 -87.4454 -1319 140 110 45
-78.0124 -87.4384 -1319 128 98 34
-75.3833 -87.4315 -1319 131 101 38
-72.5892 -87.2262 -1316 136 106 45
-69.9673 -87.2197 -1316 139 109 47
-67.2947 -87.1474 -1315 143 113 44
-64.6266 -87.0753 -1314 141 112 39
-61.8686 -86.8708 -1311 141 112 37
-59.2588 -86.8654 -1311 145 116 41
-56.6061 -86.7941 -1310 146 117 44
-53.9992 -86.7892 -1310 146 117 46
-51.3533 -86.7182 -1309 146 117 46
-48.8237 -86.8462 -1311 141 113 42
-46.1807 -86.7758 -1310 136 108 39
-43.5753 -86.7719 -1310 139 111 41
-40.9702 -86.7681 -1310 135 107 36
-38.3656 -86.7645 -1310 116 96 36
-35.7612 -86.7612 -1310 105 86 30
-33.2076 -86.8906 -1312 96 79 34
-30.6232 -86.954 -1313 93 75 31
-28.0136 -86.9514 -1313 92 73 32
-25.4236 -87.0153 -1314 91 74 35
-22.8645 -87.2119 -1317 89 72 34
-20.2784 -87.3424 -1319 89 75 36
-17.7246 -87.6717 -1324 91 76 39
-15.1397 -87.9351 -1328 90 75 39
-12.5202 -88.0663 -1330 92 77 43
-9.90025 -88.264 -1333 92 77 43
-7.26849 -88.4618 -1336 88 73 41
-4.62832 -88.7262 -1340 87 72 38
-1.96937 -88.8583 -1342 87 72 38
0.699072 -89.1893 -1347 87 72 38
3.38739 -89.5206 -1352 86 71 37
6.08661 -89.7196 -1355 87 72 38
8.80428 -89.9852 -1359 87 72 40
11.5464 -90.3171 -1364 85 70 39
14.3084 -90.6494 -1369 84 69 38
17.078 -90.9158 -1373 82 68 37
19.8638 -91.1823 -1377 84 70 40
22.6983 -91.5815 -1383 85 71 39
25.5385 -91.9147 -1388 83 69 38
28.3987 -92.2482 -1393 84 70 41
31.5027 -93.2442 -1408 85 71 42
34.8128 -94.6379 -1429 88 74 45
-176.547 -96.6094 -1409 143 125 62
-172.102 -95.7021 -1396 146 124 55
-167.831 -94.8638 -1384 150 126 52
-164.325 -94.4371 -1378 154 129 55
-161.08 -94.148 -1374 151 126 50
-157.852 -93.8592 -1370 147 122 44
-154.868 -93.7078 -1368 145 120 42
-151.893 -93.5566 -1366 150 123 45
-148.927 -93.4057 -1364 150 123 44
-145.757 -93.1182 -1360 145 118 38
-142.708 -92.8996 -1357 144 117 36
-139.776 -92.7496 -1355 147 120 38
-136.854 -92.6001 -1353 148 121 38
-134.039 -92.5191 -1352 148 121 38
-131.23 -92.4385 -1351 152 124 42
-128.425 -92.3582 -1350 152 124 42
-125.44 -92.1411 -1347 153 125 43
-122.65 -92.0613 -1346 155 127 47
-119.686 -91.8451 -1343 155 127 47
-116.91 -91.7658 -1342 153 125 45
-114.054 -91.6185 -1340 150 122 42
-111.206 -91.4713 -1338 150 122 42
-108.368 -91.3245 -1336 150 121 44
-105.538 -91.178 -1334 150 121 45
-102.794 -91.1 -1333 152 123 48
-100.055 -91.0223 -1332 154 125 50
-97.1751 -90.8084 -1329 155 126 51
-94.3786 -90.6629 -1327 158 129 55
-91.4528 -90.3811 -1323 152 123 50
-88.6778 -90.2363 -1321 149 120 46
-85.9766 -90.1599 -1320 142 113 41
-83.3433 -90.1522 -1320 141 112 42
-80.7106 -90.1446 -1320 136 106 41
-78.0786 -90.1373 -1320 125 95 31
-75.4472 -90.1303 -1320 132 102 40
-72.651 -89.9187 -1317 141 111 48
-69.9736 -89.8438 -1316 143 114 50
-67.3008 -89.7694 -1315 143 114 43
-64.6324 -89.6949 -1314 142 113 40
-61.9214 -89.5527 -1312 140 111 36
-59.2641 -89.4789 -1311 142 113 38
-56.6112 -89.4053 -1310 145 116 42
-54.004 -89.4002 -1310 149 118 47
-51.3972 -89.3955 -1310 146 116 45
-48.8281 -89.4592 -1311 141 112 41
-46.1849 -89.3864 -1310 137 109 40
-43.5792 -89.3824 -1310 137 109 39
-40.974 -89.3785 -1310 134 106 35
-38.369 -89.3749 -1310 124 101 40
-35.7644 -89.3716 -1310 112 90 32
-33.2107 -89.5049 -1312 99 79 32
-30.6259 -89.57 -1313 93 75 30
-27.9948 -89.4991 -1312 95 77 37
-25.4259 -89.6332 -1314 93 75 36
-22.8667 -89.8356 -1317 92 74 36
-20.2956 -90.0383 -1320 92 75 37
-17.7262 -90.3094 -1324 93 77 40
-15.1411 -90.5808 -1328 92 76 40
-12.5308 -90.7841 -1331 91 76 42
-9.90855 -90.9877 -1334 91 76 42
-7.27458 -91.1916 -1337 88 73 40
-4.62873 -91.3956 -1340 86 71 37
-1.97101 -91.6 -1343 86 71 37
0.69914 -91.8727 -1347 88 73 39
3.38769 -92.214 -1352 88 73 39
6.09165 -92.4872 -1356 88 73 39
8.80507 -92.6925 -1359 88 73 42
11.5474 -93.0345 -1364 86 71 40
14.3097 -93.3767 -1369 85 70 39
17.0922 -93.7192 -1374 82 67 36
19.8945 -94.0619 -1379 82 68 37
22.7168 -94.4049 -1384 83 70 37
25.5592 -94.7482 -1389 83 69 38
28.4624 -95.2281 -1396 82 68 40
31.5279 -96.1177 -1409 85 71 42
-177.065 -99.7142 -1413 142 124 64
-172.241 -98.5687 -1397 145 123 54
-167.968 -97.7058 -1385 151 126 53
-164.579 -97.3373 -1380 153 128 54
-161.33 -97.0398 -1376 150 125 49
-158.097 -96.7424 -1372 149 124 47
-154.996 -96.516 -1369 148 123 45
-152.018 -96.3604 -1367 150 123 45
-149.05 -96.2051 -1365 150 123 45
-145.77 -95.8389 -1360 146 119 39
-142.722 -95.6138 -1357 144 117 36
-139.789 -95.4594 -1355 147 120 38
-136.866 -95.3053 -1353 148 121 38
-134.151 -95.2926 -1353 148 121 38
-131.339 -95.2096 -1352 152 124 42
-128.533 -95.1268 -1351 154 126 44
-125.638 -94.974 -1349 156 128 46
-122.752 -94.8215 -1347 158 130 50
-119.787 -94.5987 -1344 157 129 49
-116.921 -94.4467 -1342 155 127 47
-114.064 -94.2951 -1340 151 123 43
-111.3 -94.214 -1339 152 124 44
-108.378 -93.9926 -1336 153 124 47
-105.627 -93.9121 -1335 152 123 46
-102.881 -93.8319 -1334 154 125 48
-100.14 -93.7519 -1333 157 128 53
-97.2573 -93.5317 -1330 158 129 54
-94.4586 -93.382 -1328 154 125 50
-91.5995 -93.1622 -1325 151 122 47
-88.8203 -93.0132 -1323 148 119 44
-86.1149 -92.9346 -1322 142 113 41
-83.4141 -92.8562 -1321 141 112 41
-80.7793 -92.8485 -1321 135 105 38
-78.0859 -92.7707 -1320 123 93 29
-75.4542 -92.7635 -1320 130 100 39
-72.7129 -92.6159 -1318 143 113 49
-70.0865 -92.6092 -1318 145 116 50
-67.4094 -92.5324 -1317 143 114 43
-64.7368 -92.4559 -1316 145 116 42
-62.0216 -92.3095 -1314 144 115 40
-59.4052 -92.3037 -1314 142 113 38
-56.7029 -92.1578 -1312 145 115 41
-54.0503 -92.0824 -1311 150 118 48
-51.4412 -92.0773 -1311 148 118 48
-48.8326 -92.0726 -1311 141 112 41
-46.1891 -91.998 -1310 135 107 37
-43.6166 -92.064 -1311 134 106 36
-41.009 -92.06 -1311 130 102 32
-38.4019 -92.0562 -1311 124 98 35
-35.8223 -92.1229 -1312 116 90 30
-33.2391 -92.1899 -1313 102 82 33
-30.6055 -92.1167 -1312 95 75 30
-28.0187 -92.1842 -1313 94 76 36
-25.4283 -92.2519 -1314 94 76 38
-22.8688 -92.4602 -1317 93 75 37
-20.2821 -92.5985 -1319 93 76 38
-17.7011 -92.8073 -1322 95 78 41
-15.1311 -93.1568 -1327 95 78 42
-12.5131 -93.2959 -1329 91 76 42
-9.88718 -93.4353 -1331 90 75 41
-7.26436 -93.7153 -1335 89 74 40
-4.62916 -94.0657 -1340 87 72 38
-1.96972 -94.2058 -1342 87 72 38
0.699209 -94.5567 -1347 88 73 39
3.39302 -95.0483 -1354 89 74 40
6.09671 -95.2593 -1357 89 74 40
8.81885 -95.5409 -1361 88 73 42
11.5739 -95.963 -1367 88 73 42
14.3529 -96.3854 -1373 88 73 42
17.1186 -96.5975 -1376 83 69 38
19.9251 -96.9504 -1381 80 66 35
22.7517 -97.3035 -1386 83 70 37
25.5799 -97.5865 -1390 83 70 39
28.4242 -97.8699 -1394 83 69 42
31.4189 -98.5748 -1404 84 70 40
-177.709 -102.908 -1418 142 124 68
-172.874 -101.73 -1402 147 125 57
-168.591 -100.843 -1390 153 128 55
-164.834 -100.246 -1382 152 127 53
-161.462 -99.8676 -1377 150 125 49
-158.113 -99.4894 -1372 149 123 47
-155.01 -99.2566 -1369 147 122 44
-152.033 -99.0966 -1367 146 120 42
-149.065 -98.937 -1365 147 120 42
-145.999 -98.7051 -1362 146 119 39
-143.156 -98.6185 -1361 145 118 38
-140.112 -98.3873 -1358 148 121 40
-137.082 -98.1565 -1355 150 123 40
-134.362 -98.1432 -1355 149 122 39
-131.449 -97.9853 -1353 153 125 42
-128.545 -97.8279 -1351 155 127 45
-125.65 -97.6708 -1349 156 128 45
-122.673 -97.4413 -1346 156 128 48
-119.709 -97.2124 -1343 158 130 50
-116.845 -97.0562 -1341 157 129 49
-113.99 -96.9002 -1339 154 126 45
-111.144 -96.7445 -1337 154 126 45
-108.388 -96.6615 -1336 156 127 49
-105.558 -96.5064 -1334 154 125 47
-102.891 -96.4962 -1334 154 125 48
-100.15 -96.414 -1333 158 129 54
-97.4129 -96.3321 -1332 157 128 53
-94.5388 -96.1058 -1329 151 122 47
-91.7466 -95.952 -1327 144 115 41
-88.9631 -95.7986 -1325 139 110 36
-86.2534 -95.7179 -1324 136 107 35
-83.4853 -95.565 -1322 138 109 38
-80.787 -95.4849 -1321 135 106 37
-78.0934 -95.4048 -1320 123 93 26
-75.4043 -95.3252 -1319 126 96 31
-72.7199 -95.2456 -1318 135 105 40
-70.0932 -95.2388 -1318 138 108 43
-67.5182 -95.3043 -1319 140 111 41
-64.8414 -95.2257 -1318 146 117 43
-62.1692 -95.1473 -1317 143 115 37
-59.4561 -94.9968 -1315 143 115 39
-56.7516 -94.8468 -1313 146 118 43
-54.0554 -94.6968 -1311 148 118 47
-51.4069 -94.6195 -1310 146 117 46
-48.8373 -94.687 -1311 139 110 39
-46.1935 -94.6102 -1310 133 104 33
-43.6207 -94.6779 -1311 133 104 34
-41.0442 -94.7461 -1312 130 102 32
-38.4348 -94.7423 -1312 127 100 37
-35.8258 -94.7387 -1312 122 95 34
-33.2422 -94.8076 -1313 110 89 40
-30.6317 -94.8045 -1313 100 80 35
-28.0214 -94.8015 -1313 95 77 37
-25.45 -94.9434 -1315 94 76 38
-22.8536 -95.0132 -1316 93 75 37
-20.2687 -95.1556 -1318 92 75 37
-17.6893 -95.3703 -1321 93 76 39
-15.0983 -95.5854 -1324 92 75 39
-12.4954 -95.8006 -1327 90 75 41
-9.87325 -95.9439 -1329 91 76 41
-7.26504 -96.3763 -1335 91 76 40
-4.62959 -96.7366 -1340 89 74 40
-1.97284 -97.0251 -1344 89 74 40
0.6998 -97.3138 -1348 89 74 41
3.39335 -97.7472 -1354 88 73 40
6.10628 -98.1086 -1359 87 72 38
8.81969 -98.2537 -1361 89 74 42
11.575 -98.6878 -1367 88 73 42
14.3753 -99.2666 -1375 87 72 41
17.17 -99.6291 -1380 84 69 38
19.9559 -99.8475 -1383 82 68 37
22.8031 -100.283 -1389 83 69 38
25.656 -100.646 -1394 82 68 39
28.5289 -101.01 -1399 84 70 43
31.6457 -102.096 -1414 89 75 44
-178.103 -105.975 -1421 141 124 70
-172.891 -104.54 -1402 145 124 56
-168.607 -103.628 -1390 149 124 51
-164.969 -103.09 -1383 149 124 50
-161.478 -102.626 -1377 151 124 50
-158.128 -102.237 -1372 150 123 49
-155.139 -102.073 -1370 145 120 43
-152.159 -101.908 -1368 145 118 40
-149.298 -101.818 -1367 146 119 41
-146.335 -101.655 -1365 147 120 42
-143.275 -101.417 -1362 147 120 41
-140.333 -101.253 -1360 149 122 41
-137.399 -101.091 -1358 151 124 41
-134.474 -100.928 -1356 150 123 40
-131.559 -100.766 -1354 151 123 40
-128.653 -100.604 -1352 155 127 44
-125.663 -100.368 -1349 156 128 45
-122.685 -100.133 -1346 155 127 47
-119.632 -99.8229 -1342 158 130 50
-116.857 -99.7366 -1341 158 130 50
-113.916 -99.502 -1338 159 131 49
-111.155 -99.4164 -1337 156 128 45
-108.399 -99.3311 -1336 156 128 48
-105.648 -99.246 -1335 157 128 49
-102.901 -99.1613 -1334 158 129 52
-100.159 -99.0768 -1333 159 130 55
-97.4225 -98.9925 -1332 154 125 50
-94.548 -98.76 -1329 146 117 42
-91.8247 -98.6765 -1328 139 110 36
-89.039 -98.5188 -1326 133 104 31
-86.3271 -98.4357 -1325 133 104 32
-83.5567 -98.2787 -1323 135 106 35
-80.7949 -98.122 -1321 135 106 37
-78.0419 -97.9654 -1319 127 97 29
-75.3545 -97.8836 -1318 128 98 30
-72.727 -97.8761 -1318 136 106 41
-70.1001 -97.8691 -1318 139 109 44
-67.4737 -97.8622 -1318 142 113 43
-64.8478 -97.8556 -1318 145 117 41
-62.2224 -97.8492 -1318 140 112 32
-59.5072 -97.6947 -1316 142 113 38
-56.8004 -97.5405 -1314 147 119 44
-54.1019 -97.3864 -1312 147 118 47
-51.4904 -97.3812 -1312 145 116 45
-48.8794 -97.3761 -1312 138 109 38
-46.2333 -97.2972 -1311 133 104 33
-43.6915 -97.4412 -1313 133 104 34
-41.0796 -97.437 -1313 130 101 32
-38.4679 -97.4331 -1313 130 100 39
-35.8292 -97.3551 -1312 124 94 35
-33.2708 -97.5001 -1314 113 92 43
-30.6347 -97.4227 -1313 104 85 39
-28.0455 -97.494 -1314 97 79 39
-25.4719 -97.6398 -1316 96 78 39
-22.8732 -97.7116 -1317 94 76 38
-20.286 -97.8578 -1319 92 75 37
-17.7045 -98.0785 -1322 92 75 38
-15.0998 -98.2251 -1324 91 74 37
-12.5061 -98.5205 -1328 89 74 40
-9.88907 -98.742 -1331 89 74 40
-7.2603 -98.9637 -1334 91 76 40
-4.62313 -99.2598 -1338 91 76 41
-1.97302 -99.7046 -1344 91 76 42
0.698835 -99.853 -1346 89 74 42
3.39118 -100.372 -1353 88 73 40
6.10688 -100.818 -1359 87 72 38
8.84648 -101.264 -1365 88 73 41
11.6185 -101.784 -1372 87 72 40
14.3976 -102.156 -1377 86 71 39
17.1841 -102.455 -1381 83 68 37
20.0012 -102.828 -1386 82 68 37
22.8546 -103.275 -1392 83 69 38
25.6769 -103.5 -1395 82 68 38
28.5521 -103.874 -1400 85 71 44
31.6041 -104.767 -1412 88 74 44
-173.279 -107.58 -1405 144 124 57
-168.988 -106.644 -1393 146 121 49
-165.344 -106.091 -1386 149 124 50
-161.612 -105.461 -1378 154 127 52
-158.259 -105.062 -1373 154 127 52
-155.042 -104.74 -1369 150 125 49
-152.175 -104.648 -1368 148 121 43
-149.313 -104.556 -1367 147 120 42
-146.457 -104.464 -1366 147 120 42
-143.395 -104.22 -1363 147 120 41
-140.347 -103.976 -1360 147 120 40
-137.413 -103.808 -1358 149 122 39
-134.389 -103.565 -1355 151 123 40
-131.475 -103.399 -1353 153 125 42
-128.476 -103.156 -1350 156 128 45
-125.489 -102.914 -1347 158 130 47
-122.424 -102.595 -1343 158 130 50
-119.466 -102.354 -1340 160 132 51
-116.694 -102.265 -1339 160 132 51
-113.758 -102.024 -1336 162 134 51
-111.083 -102.013 -1336 158 130 47
-108.41 -102.002 -1336 157 129 49
-105.579 -101.838 -1334 156 128 49
-102.911 -101.827 -1334 155 126 49
-100.169 -101.74 -1333 154 125 49
-97.4323 -101.654 -1332 149 120 45
-94.5577 -101.415 -1329 140 111 36
-91.9032 -101.406 -1329 133 104 29
-89.048 -101.167 -1326 128 99 24
-86.4009 -101.158 -1326 128 99 27
-83.6283 -100.997 -1324 127 98 27
-80.9255 -100.912 -1323 129 100 31
-78.1089 -100.675 -1320 124 95 26
-75.4193 -100.591 -1319 130 101 32
-72.7896 -100.584 -1319 139 109 45
-70.1603 -100.576 -1319 141 111 47
-67.5316 -100.569 -1319 142 113 41
-64.9035 -100.563 -1319 144 116 39
-62.2287 -100.48 -1318 142 114 34
-59.5584 -100.397 -1317 146 117 42
-56.8493 -100.239 -1315 152 123 48
-54.1074 -100.005 -1312 150 121 50
-51.4956 -99.9992 -1312 145 117 46
-48.847 -99.9178 -1311 140 112 41
-46.2027 -99.8367 -1310 139 110 39
-43.6294 -99.9084 -1311 138 109 38
-41.0211 -99.9041 -1311 134 105 36
-38.4132 -99.8999 -1311 132 102 43
-35.8055 -99.8962 -1311 123 93 36
-33.2488 -100.045 -1313 112 91 42
-30.6378 -100.042 -1313 107 87 41
-28.0483 -100.115 -1314 100 82 40
-25.4745 -100.265 -1316 98 80 42
-22.8928 -100.415 -1318 97 79 41
-20.2881 -100.489 -1319 94 77 39
-17.7063 -100.715 -1322 93 76 38
-15.1013 -100.866 -1324 93 76 38
-12.5167 -101.245 -1329 91 76 42
-9.89006 -101.397 -1331 91 76 41
-7.27191 -101.777 -1336 91 76 40
-4.6305 -102.081 -1340 91 76 41
-1.97468 -102.461 -1345 90 75 41
0.699429 -102.614 -1347 89 74 42
3.38651 -102.919 -1351 88 73 40
6.09851 -103.376 -1357 87 72 38
8.82792 -103.758 -1362 88 73 41
11.6029 -104.368 -1370 87 72 40
14.3991 -104.903 -1377 87 72 40
17.2108 -105.362 -1383 83 69 37
20.032 -105.744 -1388 82 68 36
