ply
format ascii 1.0
comment Created by Open3D
element vertex 1439
property double x
property double y
property double z
property uchar red
property uchar green
property uchar blue
end_header
363.651 15.5027 -1651 127 103 103
367.535 15.5261 -1653 129 105 104
370.757 15.5214 -1652 132 107 106
373.978 15.5169 -1651 128 104 104
377.427 15.5217 -1651 124 101 100
381.34 15.5455 -1653 126 103 102
384.799 15.5503 -1653 125 102 101
388.262 15.5554 -1653 124 103 101
393.15 15.617 -1659 125 104 103
397.11 15.6409 -1661 126 104 105
401.323 15.6744 -1664 125 103 103
405.066 15.6891 -1665 124 103 104
409.798 15.7415 -1670 124 105 106
412.574 15.7184 -1667 122 103 103
416.34 15.7332 -1668 118 99 97
420.366 15.7576 -1670 117 98 96
423.895 15.7631 -1670 119 100 101
427.429 15.7686 -1670 121 98 100
430.966 15.7742 -1670 121 99 101
434.507 15.78 -1670 121 99 101
438.577 15.8046 -1672 122 100 104
442.13 15.8103 -1672 123 100 104
446.486 15.8445 -1675 123 100 103
450.053 15.8503 -1675 122 98 101
453.895 15.8658 -1676 123 99 99
457.472 15.8717 -1676 124 100 100
461.054 15.8778 -1676 125 100 99
464.362 15.8743 -1675 126 100 103
468.787 15.909 -1678 123 100 101
472.667 15.9247 -1679 122 101 101
475.987 15.9213 -1678 116 101 99
480.451 15.9561 -1681 118 101 103
484.356 15.972 -1682 117 102 102
487.399 15.9595 -1680 115 101 100
489.853 15.928 -1676 119 103 100
493.178 15.9247 -1675 115 101 98
495.317 15.8839 -1670 111 98 94
498.633 15.881 -1669 98 84 79
501.95 15.8781 -1668 75 54 52
506.479 15.9133 -1671 72 48 46
511.331 15.9581 -1675 78 52 49
515.59 15.9841 -1677 81 52 47
521.72 16.0672 -1685 79 50 45
526.019 16.0931 -1687 79 50 45
530.959 16.1384 -1691 95 68 63
533.709 16.117 -1688 112 96 88
538.042 16.1431 -1690 129 109 102
541.106 16.1312 -1688 136 115 108
545.458 16.1576 -1690 141 120 113
549.173 16.165 -1690 144 123 116
553.221 16.1817 -1691 148 122 114
557.278 16.1988 -1692 146 119 111
560.682 16.1969 -1691 144 117 109
565.421 16.2331 -1694 143 118 112
568.835 16.2311 -1693 144 120 115
573.264 16.2579 -1695 144 122 117
577.368 16.2752 -1696 143 121 116
581.138 16.2831 -1696 144 120 116
584.913 16.2909 -1696 143 119 116
589.042 16.3085 -1697 139 115 112
592.481 16.3069 -1696 140 115 112
596.977 16.3341 -1698 142 117 114
600.779 16.3422 -1698 140 118 115
604.943 16.36 -1699 140 116 114
609.475 16.3875 -1701 136 114 111
613.301 16.3958 -1701 131 110 107
617.858 16.4234 -1703 123 103 101
623.161 16.4704 -1707 116 97 95
629.589 16.5467 -1714 107 90 87
632.728 16.5359 -1712 107 89 87
638.096 16.5831 -1716 104 86 84
640.869 16.5629 -1713 101 85 82
649.28 16.6877 -1725 100 85 84
654.344 16.7257 -1728 96 80 79
662.095 16.8316 -1738 100 84 82
666.449 16.8504 -1739 104 88 85
673.126 16.9274 -1746 104 88 84
677.903 16.9561 -1748 104 87 81
683.477 17.0042 -1752 102 86 82
690.644 17.0913 -1760 103 88 85
-790.217 11.8673 -1500 168 129 120
-787.425 11.8741 -1502 160 121 110
-784.631 11.8807 -1504 152 116 105
-781.836 11.8876 -1506 164 131 122
-777.489 11.8707 -1505 209 177 169
-774.184 11.8697 -1506 217 185 177
-770.371 11.8609 -1506 216 184 177
-763.512 11.8048 -1500 210 179 172
-759.224 11.7882 -1499 198 167 160
-753.941 11.7559 -1496 195 162 156
-749.685 11.7396 -1495 186 154 147
-743.445 11.6917 -1490 192 160 154
-736.742 11.6363 -1484 199 167 162
-733.041 11.6279 -1484 203 170 165
-730.33 11.6353 -1486 203 173 166
-726.151 11.6192 -1485 207 178 171
-723.929 11.6345 -1488 211 180 175
-721.701 11.6497 -1491 209 178 171
-716.576 11.6182 -1488 206 174 168
-710.994 11.5788 -1484 204 172 167
-707.346 11.5708 -1484 196 163 158
-703.705 11.5628 -1484 190 157 153
-700.072 11.555 -1484 193 159 155
-697.854 11.5704 -1487 194 160 157
-695.628 11.586 -1490 193 159 155
-691.537 11.5705 -1489 194 162 157
-689.307 11.5861 -1492 195 165 157
-686.149 11.586 -1493 192 164 156
-683.908 11.6017 -1496 191 163 157
-680.751 11.6018 -1497 188 160 154
-678.047 11.6097 -1499 183 156 150
-674.441 11.6023 -1499 166 146 139
-670.842 11.5948 -1499 147 128 120
-668.586 11.6105 -1502 136 116 109
-666.321 11.6264 -1505 124 107 99
-664.049 11.6421 -1508 117 100 93
-661.769 11.658 -1511 117 100 94
-658.175 11.6507 -1511 112 96 90
-654.588 11.6433 -1511 111 95 90
-651.438 11.6439 -1512 111 95 91
-648.718 11.6521 -1514 108 92 88
-644.717 11.6373 -1513 109 93 89
-641.998 11.6456 -1515 113 97 93
-637.591 11.6232 -1513 112 96 93
-218.739 11.4731 -1571 87 69 40
-215.7 11.4783 -1572 87 68 40
-212.523 11.476 -1572 93 73 32
-208.948 11.4521 -1569 112 92 44
-205.256 11.4209 -1565 119 98 42
-201.84 11.4043 -1563 125 104 45
-198.179 11.3732 -1559 132 108 42
-194.661 11.3492 -1556 130 107 43
-191.157 11.3255 -1553 132 110 46
-187.788 11.309 -1551 136 112 45
-184.19 11.2781 -1547 136 112 45
-180.844 11.2617 -1545 133 111 44
-177.277 11.2306 -1541 135 111 43
-173.954 11.2143 -1539 136 112 43
-170.529 11.1908 -1536 135 113 44
-167.554 11.1965 -1537 134 111 43
-164.148 11.173 -1534 139 113 47
-161.071 11.1714 -1534 141 115 49
-157.892 11.1626 -1533 139 113 46
-154.617 11.1463 -1531 138 112 46
-151.351 11.1302 -1529 138 112 46
-148.192 11.1215 -1528 139 112 48
-145.037 11.1128 -1527 139 113 47
-141.888 11.1041 -1526 138 112 45
-138.744 11.0955 -1525 135 109 43
-135.695 11.0941 -1525 132 106 39
-132.472 11.0783 -1523 131 105 37
-129.598 11.0916 -1525 131 106 36
-126.552 11.0903 -1525 129 103 34
-123.506 11.0891 -1525 127 101 37
-120.54 11.0952 -1526 126 100 37
-117.649 11.1084 -1528 124 99 37
-114.675 11.1145 -1529 123 98 36
-111.771 11.1279 -1531 123 98 36
-108.932 11.1487 -1534 124 99 39
-105.943 11.1549 -1535 128 103 42
-102.951 11.1611 -1536 129 104 42
-99.8902 11.1601 -1536 129 104 42
-96.8309 11.1592 -1536 130 105 43
-93.7111 11.151 -1535 130 105 43
-90.5961 11.1428 -1534 130 105 42
-87.5429 11.1419 -1534 128 103 40
-84.4353 11.1338 -1533 129 104 42
-81.3855 11.133 -1533 128 103 42
-78.2851 11.125 -1532 127 102 41
-75.3859 11.146 -1535 127 102 41
-72.4282 11.1598 -1537 126 101 41
-69.3278 11.1519 -1536 125 100 40
-66.275 11.1512 -1536 123 98 38
-63.1816 11.1433 -1535 122 97 36
-60.1317 11.1427 -1535 122 97 34
-57.0452 11.1349 -1534 123 98 34
-54.0688 11.1488 -1536 123 98 36
-51.0184 11.1483 -1536 119 94 34
-47.9996 11.1551 -1537 117 92 33
-44.9481 11.1546 -1537 117 92 30
-41.9241 11.1615 -1538 119 94 31
-38.8459 11.1538 -1537 118 94 27
-35.7953 11.1535 -1537 118 93 29
-32.7237 11.1459 -1536 118 93 31
-29.6564 11.1383 -1535 118 92 39
-26.6452 11.1525 -1537 117 92 39
-23.6263 11.1668 -1539 117 93 42
-20.5997 11.1811 -1541 118 92 43
-17.5539 11.1882 -1542 116 90 42
-14.523 11.2098 -1545 118 92 41
-11.4434 11.1951 -1543 122 96 44
-8.39342 11.2096 -1545 121 98 42
-5.32872 11.2095 -1545 122 101 42
-2.26699 11.224 -1547 121 101 40
0.801615 11.224 -1547 121 101 38
3.87273 11.2312 -1548 121 100 37
6.94336 11.2313 -1548 122 102 37
10.0076 11.2241 -1547 124 102 35
13.0848 11.2315 -1548 125 104 36
16.1766 11.2461 -1550 126 103 45
19.264 11.2536 -1551 127 104 43
22.3555 11.261 -1552 128 106 41
25.4511 11.2685 -1553 126 104 41
28.5509 11.276 -1554 125 102 39
31.5735 11.2546 -1551 127 102 40
34.6292 11.2476 -1550 124 101 40
37.7298 11.2553 -1551 121 99 39
40.782 11.2484 -1550 116 96 37
43.8872 11.2561 -1551 113 93 34
46.9967 11.2638 -1552 109 90 31
50.1105 11.2715 -1553 106 89 35
53.263 11.2865 -1555 104 87 34
56.4963 11.3161 -1559 104 87 37
59.6313 11.3239 -1560 102 84 38
62.8512 11.3463 -1563 99 81 37
66.0412 11.3614 -1565 99 79 37
69.284 11.3839 -1568 98 79 38
72.493 11.3991 -1570 96 78 39
75.8551 11.4361 -1575 95 77 37
79.1877 11.4659 -1579 92 74 35
82.4845 11.4885 -1582 90 71 36
85.7939 11.5111 -1585 87 70 37
89.172 11.541 -1589 81 66 35
92.3343 11.5419 -1589 81 66 34
95.6779 11.5646 -1592 81 66 35
99.0339 11.5874 -1595 77 62 33
102.403 11.6102 -1598 75 60 32
105.652 11.6184 -1599 76 61 32
108.907 11.6268 -1600 79 61 35
112.306 11.6496 -1603 80 63 39
115.502 11.6508 -1603 85 69 46
118.625 11.6446 -1602 84 70 41
121.821 11.6458 -1602 77 63 36
125.096 11.6545 -1603 77 61 41
128.215 11.6484 -1602 79 63 41
131.496 11.657 -1603 80 63 41
134.698 11.6583 -1603 89 67 40
137.815 11.6523 -1602 93 71 42
141.194 11.6683 -1604 93 72 42
144.311 11.6624 -1603 96 75 44
147.609 11.6711 -1604 100 79 47
150.913 11.6798 -1605 98 76 43
154.126 11.6813 -1605 94 78 42
157.242 11.6755 -1604 93 77 42
160.355 11.6698 -1603 99 81 51
163.466 11.6641 -1602 100 81 51
166.574 11.6586 -1601 104 84 53
169.679 11.653 -1600 104 87 53
173.43 11.6911 -1605 104 86 57
201.856 11.8589 -1626 113 93 88
205.385 11.8755 -1628 113 93 89
209.565 11.9288 -1635 114 94 92
213.644 11.9746 -1641 115 96 97
216.956 11.9767 -1641 115 97 99
223.45 11.9739 -1640 119 99 99
227.042 11.9907 -1642 120 101 99
230.363 11.9929 -1642 121 100 96
233.544 11.9878 -1641 119 98 94
237.012 11.9976 -1642 120 99 94
240.192 11.9926 -1641 123 100 91
243.371 11.9876 -1640 126 102 96
246.849 11.9975 -1641 129 104 102
250.18 11.9999 -1641 126 102 101
253.204 11.9879 -1639 124 100 99
259.551 11.9783 -1637 125 100 93
263.365 12.0029 -1640 125 101 93
266.704 12.0055 -1640 123 102 93
270.046 12.0083 -1640 127 103 93
272.89 11.9889 -1637 127 103 94
276.399 11.9991 -1638 128 103 98
279.744 12.0018 -1638 128 105 105
282.918 11.9974 -1637 128 104 106
286.265 12.0001 -1637 129 107 110
289.792 12.0104 -1638 130 108 109
292.967 12.0059 -1637 131 109 109
296.322 12.009 -1637 130 109 109
299.679 12.012 -1637 135 112 106
303.779 12.0443 -1641 136 112 106
307.149 12.0474 -1641 138 113 105
311.279 12.0798 -1645 138 113 105
314.662 12.083 -1645 140 114 106
318.242 12.0936 -1646 144 115 106
321.438 12.0895 -1645 142 111 105
324.829 12.0926 -1645 143 113 106
327.625 12.0739 -1642 140 109 101
330.411 12.0552 -1639 134 109 102
333.799 12.0585 -1639 136 112 105
337.189 12.062 -1639 133 108 102
340.167 12.0507 -1637 130 106 103
344.188 12.0762 -1640 127 103 100
347.802 12.0871 -1641 123 99 96
351.422 12.0978 -1642 123 98 96
355.265 12.1162 -1644 126 101 99
359.556 12.1493 -1648 123 99 98
363.206 12.1605 -1649 123 99 98
367.086 12.1789 -1651 124 100 98
370.528 12.1827 -1651 125 101 98
373.974 12.1864 -1651 121 97 96
377.651 12.1976 -1652 119 95 93
381.336 12.2088 -1653 122 98 96
384.795 12.2126 -1653 122 98 97
389.432 12.2537 -1658 119 97 95
393.145 12.265 -1659 118 96 95
397.105 12.2838 -1661 120 97 96
401.801 12.325 -1666 120 98 97
406.521 12.366 -1671 120 99 100
409.793 12.3627 -1670 118 99 100
413.064 12.3596 -1669 114 96 97
417.084 12.3786 -1671 115 96 95
420.109 12.3681 -1669 115 96 95
423.89 12.3798 -1670 114 95 97
427.936 12.399 -1672 115 94 96
432.251 12.4258 -1675 116 95 97
435.022 12.4078 -1672 117 95 97
438.572 12.4124 -1672 117 95 100
441.86 12.4095 -1671 119 97 101
446.214 12.4364 -1674 119 97 102
448.973 12.4186 -1671 119 96 101
453.619 12.453 -1675 119 96 99
457.74 12.4726 -1677 120 97 98
461.323 12.4774 -1677 120 97 98
465.465 12.497 -1679 122 99 104
469.62 12.5168 -1681 122 101 102
473.506 12.5291 -1682 120 101 101
476.833 12.5265 -1681 112 98 97
480.731 12.5391 -1682 112 97 98
484.062 12.5366 -1681 111 97 97
487.393 12.5342 -1680 111 97 96
489.555 12.5019 -1675 113 98 95
492.289 12.4847 -1672 112 98 95
495.607 12.4823 -1671 107 93 89
498.328 12.465 -1668 91 77 72
501.643 12.4628 -1667 65 46 42
505.563 12.4754 -1668 70 46 44
510.103 12.5033 -1671 77 50 48
515.276 12.5461 -1676 77 48 43
520.475 12.5888 -1681 77 51 45
525.077 12.6168 -1684 81 53 48
530.011 12.6524 -1688 93 67 61
533.702 12.658 -1688 106 90 82
537.08 12.6559 -1687 116 98 90
540.459 12.6541 -1686 126 107 99
545.129 12.6824 -1689 133 114 106
549.492 12.7031 -1691 137 116 109
553.214 12.7089 -1691 142 115 107
557.601 12.73 -1693 142 116 107
561.338 12.7359 -1693 143 118 109
565.081 12.7417 -1693 144 122 115
568.828 12.7477 -1693 144 123 116
572.919 12.7614 -1694 147 126 120
576.68 12.7674 -1694 148 126 121
580.788 12.7812 -1695 148 124 120
583.872 12.7721 -1693 148 124 120
587.646 12.7784 -1693 145 121 117
591.426 12.7846 -1693 145 120 117
594.86 12.7834 -1692 145 120 118
599.002 12.7974 -1693 143 121 118
601.731 12.7811 -1690 145 120 117
606.243 12.8027 -1692 141 117 115
611.13 12.8317 -1695 137 114 111
614.948 12.8385 -1695 129 108 105
620.597 12.8829 -1700 118 98 96
625.908 12.9199 -1704 104 85 83
629.764 12.9266 -1704 98 79 77
634.369 12.9485 -1706 92 72 70
638.99 12.9707 -1708 88 70 68
645.132 13.023 -1714 86 69 69
651.686 13.0831 -1721 87 71 70
657.135 13.1207 -1725 91 75 74
661.075 13.1279 -1725 95 79 76
666.564 13.1654 -1729 97 81 77
673.241 13.226 -1736 102 85 79
678.787 13.2638 -1740 102 86 82
686.712 13.3475 -1750 103 87 84
-787.417 8.63095 -1502 119 80 73
-785.145 8.64153 -1505 114 78 69
-782.347 8.64638 -1507 126 92 85
-778.515 8.63996 -1507 177 144 138
-775.205 8.63911 -1508 192 161 154
-772.921 8.64992 -1511 193 162 155
-765.541 8.60333 -1504 191 160 153
-761.749 8.59703 -1504 189 158 151
-757.462 8.58486 -1503 181 150 143
-752.686 8.5672 -1501 166 135 128
-746.432 8.53248 -1496 167 136 130
-742.196 8.52063 -1495 170 139 135
-736.491 8.49153 -1491 170 140 136
-733.763 8.49683 -1493 170 143 137
-731.033 8.50214 -1495 176 150 143
-729.274 8.51902 -1499 184 155 150
-726.05 8.51866 -1500 191 163 155
-720.903 8.49561 -1497 192 163 156
-713.862 8.44994 -1490 185 155 149
-709.246 8.43287 -1488 174 145 137
-703.699 8.40432 -1484 173 145 137
-701.009 8.40998 -1486 179 150 142
-698.316 8.41545 -1488 183 154 147
-696.088 8.42678 -1491 183 154 147
-693.388 8.43227 -1493 182 155 147
-690.686 8.43796 -1495 179 155 147
-687.521 8.43802 -1496 173 149 141
-683.902 8.43246 -1496 172 149 143
-680.744 8.43256 -1497 171 148 142
-676.684 8.42142 -1496 163 140 133
-673.535 8.42156 -1497 138 122 114
-670.388 8.42171 -1498 116 101 93
-668.134 8.43312 -1501 109 94 86
-666.315 8.45015 -1505 107 95 86
-664.923 8.47278 -1510 106 93 85
-661.325 8.46756 -1510 104 92 85
-657.734 8.46216 -1510 105 89 83
-654.582 8.46259 -1511 105 87 83
-649.708 8.44045 -1508 106 87 84
-218.877 8.34272 -1572 87 71 48
-215.835 8.3463 -1573 89 70 40
-212.791 8.35009 -1574 103 85 47
-209.212 8.33269 -1571 119 100 58
-205.516 8.31001 -1567 119 100 42
-201.967 8.29266 -1564 126 106 47
-198.305 8.27004 -1560 132 110 47
-194.66 8.24725 -1556 130 108 44
-191.033 8.22469 -1552 129 107 43
-187.665 8.21275 -1550 133 109 42
-184.07 8.19024 -1546 135 112 45
-180.726 8.17835 -1544 133 111 44
-177.391 8.16649 -1542 134 110 42
-174.179 8.15995 -1541 135 111 42
-170.75 8.14266 -1538 135 113 44
-167.662 8.14146 -1538 134 111 42
-164.361 8.12969 -1536 139 113 45
-161.174 8.12325 -1535 143 116 48
-157.89 8.11153 -1533 141 114 46
-154.615 8.09984 -1531 139 113 47
-151.152 8.07759 -1527 140 113 47
-147.899 8.06595 -1525 141 113 47
-144.846 8.06491 -1525 139 113 45
-141.701 8.05861 -1524 139 113 45
-138.652 8.05761 -1524 135 109 43
-135.604 8.05664 -1524 132 106 39
-132.471 8.0504 -1523 133 107 39
-129.512 8.05475 -1524 133 108 38
-126.385 8.04837 -1523 130 105 36
-123.424 8.05277 -1524 128 102 38
-120.381 8.0519 -1524 126 101 38
-117.494 8.06162 -1526 124 99 37
-114.524 8.06608 -1527 123 98 36
-111.697 8.08112 -1530 122 97 36
-108.789 8.09089 -1532 123 98 38
-105.873 8.10069 -1534 126 101 40
-102.95 8.11051 -1536 127 102 40
-99.8894 8.10979 -1536 128 103 41
-96.9561 8.11965 -1538 129 104 42
-93.8324 8.11369 -1537 130 105 43
-90.6544 8.10247 -1535 129 104 42
-87.6563 8.10711 -1536 128 103 41
-84.5448 8.10122 -1535 128 103 43
-81.4379 8.09536 -1534 127 102 42
-78.3356 8.08951 -1533 127 102 42
-75.2871 8.08896 -1533 127 102 42
-72.3334 8.09899 -1535 127 102 42
-69.2369 8.09321 -1534 129 104 44
-66.1018 8.08217 -1532 126 101 41
-63.0575 8.08171 -1532 124 99 37
-60.092 8.09182 -1534 124 99 35
-57.0076 8.08613 -1533 127 102 38
-54.0683 8.10156 -1536 125 100 38
-51.0512 8.10646 -1537 122 97 36
-48.0305 8.11138 -1538 120 95 36
-44.9769 8.11105 -1538 120 95 31
-41.9237 8.11074 -1538 120 95 31
-38.8456 8.10518 -1537 120 96 27
-35.795 8.10491 -1537 120 96 31
-32.7235 8.09939 -1536 120 95 33
-29.6754 8.09917 -1536 118 93 38
-26.6623 8.10952 -1538 116 91 37
-23.6261 8.11461 -1539 117 91 39
-20.5995 8.125 -1541 117 91 40
-17.5423 8.12486 -1541 116 90 40
-14.4947 8.13002 -1542 119 93 41
-11.4284 8.12465 -1541 123 97 43
-8.38792 8.1404 -1544 123 98 39
-5.32868 8.14562 -1545 125 102 39
-2.26698 8.15614 -1547 124 102 37
0.801607 8.15614 -1547 123 102 35
3.8702 8.15616 -1547 123 103 35
6.93882 8.15619 -1547 123 103 34
10.001 8.15098 -1546 122 102 34
13.0678 8.15107 -1546 124 105 38
16.1555 8.16171 -1548 127 104 46
19.2514 8.17239 -1550 127 104 43
22.3265 8.17254 -1550 127 105 40
25.4181 8.17798 -1551 126 104 41
28.4772 8.1729 -1550 125 102 40
31.5326 8.16784 -1549 126 101 39
34.6065 8.16808 -1549 124 100 41
37.6808 8.16834 -1549 120 97 39
40.7553 8.16862 -1549 113 93 35
43.9151 8.18474 -1552 111 92 34
46.9357 8.17452 -1550 109 90 32
50.1101 8.19069 -1553 105 89 35
53.2625 8.2016 -1555 103 88 35
56.4596 8.21782 -1558 104 87 37
59.5161 8.21296 -1557 102 84 39
62.73 8.22922 -1560 97 79 37
65.9563 8.24551 -1563 95 77 38
69.1508 8.25654 -1565 95 77 39
72.4924 8.28343 -1570 94 76 39
75.8063 8.30506 -1574 93 75 37
79.187 8.332 -1579 90 72 34
82.4317 8.34313 -1581 89 70 36
85.7931 8.36484 -1585 86 70 38
89.1151 8.38129 -1588 82 67 38
92.3335 8.38722 -1589 80 65 35
95.6771 8.40373 -1592 79 64 34
99.1573 8.43082 -1597 77 62 33
102.402 8.43681 -1598 75 59 33
105.717 8.44812 -1600 74 58 33
109.042 8.45944 -1602 74 58 33
112.445 8.47607 -1605 77 60 35
115.501 8.46632 -1603 83 65 40
118.698 8.46716 -1603 78 64 35
121.972 8.4733 -1604 74 59 33
125.25 8.47946 -1605 77 59 41
128.534 8.48565 -1606 79 62 39
131.659 8.48129 -1605 80 62 38
134.949 8.48752 -1606 88 65 38
138.072 8.4834 -1605 92 69 40
141.368 8.48969 -1606 94 71 42
144.49 8.48542 -1605 93 72 41
147.608 8.48117 -1604 93 72 40
150.912 8.48752 -1605 94 71 39
154.22 8.49389 -1606 90 73 38
157.143 8.47913 -1603 92 75 41
160.454 8.48555 -1604 97 78 48
163.464 8.47612 -1602 100 80 47
166.468 8.4667 -1600 105 84 50
169.572 8.46261 -1599 104 87 54
285.388 8.69385 -1632 118 97 98
298.578 8.69712 -1631 123 102 97
303.406 8.74189 -1639 124 102 96
307.333 8.76024 -1642 125 101 95
311.087 8.77308 -1644 126 101 94
314.851 8.78615 -1646 125 100 93
318.819 8.80438 -1649 127 101 93
321.435 8.78546 -1645 136 104 92
324.827 8.78773 -1645 140 107 96
327.822 8.77952 -1643 134 100 90
330.408 8.76045 -1639 127 98 90
333.389 8.75228 -1637 129 100 92
336.981 8.76017 -1638 127 98 90
340.372 8.76253 -1638 121 94 89
344.395 8.78117 -1641 120 94 90
347.587 8.77844 -1640 120 95 92
351.205 8.78623 -1641 119 94 91
354.83 8.79425 -1642 119 94 90
359.117 8.81836 -1646 120 95 91
362.983 8.8316 -1648 119 95 93
366.86 8.84506 -1650 119 94 91
370.301 8.84783 -1650 118 94 90
373.744 8.85062 -1650 115 93 89
376.962 8.84807 -1649 114 92 88
380.409 8.8509 -1649 114 92 88
383.86 8.85356 -1649 116 91 89
387.549 8.86181 -1650 117 93 90
391.957 8.88621 -1654 115 92 89
396.145 8.90527 -1657 114 90 89
400.832 8.93511 -1662 114 90 89
405.787 8.97037 -1668 114 92 91
409.544 8.97878 -1669 112 91 90
413.061 8.98184 -1669 110 89 90
420.357 8.99361 -1670 114 93 91
423.887 8.99674 -1670 113 91 92
427.676 9.00528 -1671 110 92 92
431.215 9.00845 -1671 111 92 91
434.498 9.00626 -1670 112 91 90
438.305 9.01508 -1671 113 93 93
441.592 9.01293 -1670 115 94 97
445.944 9.03239 -1673 115 94 97
449.775 9.04109 -1674 116 95 98
453.615 9.05002 -1675 116 95 96
456.917 9.04796 -1674 114 94 94
461.044 9.06235 -1676 114 94 92
464.629 9.06574 -1676 116 95 98
468.777 9.07998 -1678 116 95 95
472.938 9.09446 -1680 114 96 94
475.977 9.08731 -1678 109 97 96
480.155 9.10164 -1680 108 95 96
483.482 9.09995 -1679 108 95 94
486.228 9.08722 -1676 108 94 93
488.382 9.06387 -1671 105 93 88
491.696 9.06222 -1670 108 94 90
494.12 9.0441 -1666 104 90 86
497.129 9.03705 -1664 81 67 63
501.036 9.04632 -1665 55 38 32
504.65 9.05018 -1665 73 47 45
509.183 9.07037 -1668 78 50 48
514.042 9.09605 -1672 75 45 40
519.851 9.13809 -1679 79 49 42
524.449 9.15841 -1682 82 52 47
528.75 9.17332 -1684 94 67 61
532.749 9.18282 -1685 103 87 79
536.757 9.19234 -1686 109 93 85
539.813 9.18553 -1684 116 100 92
544.801 9.21147 -1688 121 104 96
548.512 9.21562 -1688 127 107 100
552.555 9.22526 -1689 131 106 98
556.278 9.22967 -1689 134 109 101
560.67 9.24483 -1691 139 114 106
564.742 9.25455 -1692 141 120 113
567.479 9.24263 -1689 144 123 116
571.9 9.25788 -1691 153 129 125
575.994 9.26789 -1692 157 134 130
579.07 9.26128 -1690 158 134 130
583.177 9.27135 -1691 154 130 126
586.6 9.27026 -1690 152 127 123
590.023 9.26941 -1689 153 128 124
593.097 9.26308 -1687 152 127 123
597.582 9.27874 -1689 152 128 124
602.081 9.29422 -1691 150 125 121
605.521 9.29346 -1690 146 122 118
609.322 9.29821 -1690 143 119 115
613.492 9.3085 -1691 141 120 117
616.941 9.3078 -1690 130 110 108
622.964 9.34569 -1696 116 98 95
626.801 9.35056 -1696 109 90 88
631.761 9.372 -1699 109 89 87
636.74 9.39349 -1702 106 88 86
644.373 9.45389 -1712 104 86 86
648.65 9.46443 -1713 100 84 83
655.224 9.50817 -1720 98 82 81
659.536 9.51879 -1721 101 85 82
664.245 9.5352 -1723 102 86 82
669.745 9.5625 -1727 113 96 90
676.05 9.60115 -1733 119 103 99
685.136 9.67844 -1746 118 102 99
-755.945 5.34816 -1500 146 116 109
-751.177 5.33707 -1498 133 103 96
-746.427 5.32601 -1496 125 96 90
-743.184 5.32585 -1497 120 92 89
-738.462 5.31483 -1495 122 96 94
-736.707 5.32516 -1499 124 100 96
-733.473 5.32483 -1500 131 107 102
-731.701 5.33535 -1504 141 115 111
-728.466 5.33504 -1505 155 130 122
-723.787 5.32411 -1503 160 134 126
-716.253 5.29217 -1495 150 124 117
-713.054 5.29192 -1496 144 123 112
-704.642 5.25299 -1486 145 126 114
-702.419 5.25986 -1489 150 132 120
-697.842 5.24927 -1487 156 138 126
-696.084 5.25967 -1491 157 140 130
-691.991 5.25264 -1490 155 138 129
-690.219 5.26325 -1494 154 135 127
-687.057 5.26329 -1495 150 132 124
-683.897 5.26315 -1496 150 132 124
-681.194 5.26672 -1498 146 127 120
-677.132 5.25977 -1497 133 115 107
-674.43 5.26336 -1499 112 100 92
-670.831 5.25994 -1499 100 88 81
-667.239 5.25655 -1499 99 88 80
-665.425 5.26718 -1503 101 91 83
-664.479 5.28481 -1509 101 92 84
-659.569 5.27093 -1506 100 90 82
-215.697 5.20395 -1572 94 75 46
-212.79 5.20962 -1574 110 92 56
-209.478 5.20538 -1573 120 102 63
-205.909 5.19453 -1570 119 100 44
-202.224 5.18039 -1566 127 107 49
-198.431 5.16296 -1561 132 111 49
-194.784 5.14867 -1557 130 109 45
-191.032 5.13128 -1552 129 107 42
-187.422 5.11721 -1548 132 109 42
-183.949 5.10647 -1545 135 112 45
-180.724 5.10235 -1544 134 112 45
-177.39 5.09495 -1542 134 111 42
-174.291 5.09416 -1542 135 112 43
-170.971 5.08679 -1540 133 111 42
-167.77 5.08273 -1539 130 107 38
-164.574 5.07869 -1538 135 109 41
-161.174 5.06806 -1535 142 114 46
-157.889 5.06074 -1533 142 114 46
-154.513 5.05014 -1530 138 112 45
-151.151 5.03956 -1527 140 113 46
-147.802 5.02899 -1524 141 113 47
-144.75 5.02834 -1524 138 112 44
-141.514 5.02092 -1522 139 113 45
-138.469 5.02029 -1522 137 111 44
-135.426 5.01968 -1522 135 109 41
-132.296 5.01579 -1521 136 110 41
-129.341 5.0185 -1522 135 110 40
-126.301 5.01793 -1522 135 110 41
-123.18 5.01408 -1521 132 106 41
-120.144 5.01353 -1521 128 102 39
-117.108 5.013 -1521 125 100 38
-114.223 5.01908 -1523 122 97 35
-111.332 5.02516 -1525 120 95 34
-108.646 5.04115 -1530 122 97 37
-105.734 5.04726 -1532 125 100 38
-102.815 5.05338 -1534 126 101 39
-99.7587 5.05292 -1534 128 103 42
-96.7664 5.05578 -1535 128 103 42
-93.7097 5.05535 -1535 128 103 41
-90.5948 5.05165 -1534 128 103 41
-87.5987 5.05454 -1535 128 103 41
-84.4892 5.05086 -1534 127 102 42
-81.4373 5.05049 -1534 127 102 42
-78.3351 5.04684 -1533 127 102 42
-75.3357 5.04979 -1534 128 103 43
-72.2387 5.04617 -1533 128 103 43
-69.1914 5.04585 -1533 127 102 42
-66.1014 5.04226 -1532 128 103 42
-63.0159 5.03868 -1531 127 102 40
-60.0917 5.04828 -1534 127 102 38
-57.0072 5.04472 -1533 127 102 38
-54.068 5.05435 -1536 126 101 39
-51.0509 5.0574 -1537 124 99 37
-48.0302 5.06047 -1538 123 98 37
-44.9474 5.05697 -1537 121 96 33
-41.8962 5.05678 -1537 119 94 30
-38.8201 5.05331 -1536 119 95 26
-35.7483 5.04985 -1535 119 94 29
-32.702 5.0497 -1535 120 95 32
-29.6559 5.04956 -1535 120 95 38
-26.6448 5.05601 -1537 119 94 37
-23.626 5.06248 -1539 118 93 38
-20.6127 5.07225 -1542 118 92 39
-17.5536 5.07216 -1542 120 94 42
-14.504 5.07538 -1543 121 97 42
-11.4432 5.07532 -1543 122 98 41
-8.38787 5.07856 -1544 123 100 38
-5.3321 5.08511 -1546 124 102 38
-2.26696 5.08838 -1547 123 102 36
0.802639 5.09496 -1549 123 101 31
3.87268 5.09168 -1548 125 104 34
6.93429 5.08513 -1546 125 105 34
9.9945 5.08188 -1545 123 104 36
13.0593 5.08193 -1545 125 106 39
16.1346 5.08528 -1546 127 106 46
19.214 5.08865 -1547 127 105 43
22.2831 5.08875 -1547 127 105 41
25.3688 5.09214 -1548 126 104 42
28.4403 5.09226 -1548 125 102 41
31.4713 5.08582 -1546 124 100 40
34.584 5.09255 -1548 121 99 41
37.6319 5.08942 -1547 116 94 37
40.7025 5.0896 -1547 112 92 35
43.83 5.09636 -1549 110 91 34
46.9354 5.09986 -1550 108 90 32
50.0453 5.10337 -1551 105 90 35
53.1937 5.11018 -1553 103 88 34
56.423 5.12359 -1557 103 86 36
59.5158 5.12385 -1557 101 83 38
62.6894 5.1307 -1559 97 79 38
65.8715 5.13758 -1561 94 76 40
69.1504 5.15104 -1565 93 75 40
72.4458 5.16453 -1569 93 75 41
75.7097 5.17473 -1572 91 73 38
79.1364 5.19483 -1578 89 71 35
82.4312 5.20507 -1581 87 68 36
85.7926 5.21862 -1585 82 66 36
89.1146 5.22889 -1588 79 65 36
92.3911 5.23588 -1590 80 65 39
95.7965 5.24947 -1594 77 62 35
99.2809 5.26638 -1599 77 62 34
102.529 5.27012 -1600 74 59 35
105.783 5.27388 -1601 73 57 34
109.041 5.27766 -1602 71 55 32
112.374 5.28474 -1604 75 57 33
115.5 5.28196 -1603 80 61 36
118.771 5.28578 -1604 77 60 34
122.047 5.28961 -1605 74 56 33
125.172 5.28687 -1604 77 57 41
128.374 5.28744 -1604 78 59 37
131.576 5.28802 -1604 78 59 35
134.948 5.29521 -1606 80 58 34
137.985 5.28922 -1604 84 63 36
141.368 5.29644 -1606 89 68 40
144.489 5.29378 -1605 87 68 37
147.791 5.29773 -1606 86 66 35
150.911 5.2951 -1605 89 68 36
154.316 5.30258 -1607 88 70 36
157.24 5.29337 -1604 94 75 42
160.353 5.29078 -1603 97 77 46
163.26 5.2816 -1600 101 80 45
166.155 5.27243 -1597 106 84 48
463.795 5.64672 -1673 110 87 87
467.657 5.65232 -1674 112 90 89
490.515 5.6412 -1666 102 90 85
493.227 5.63337 -1663 90 77 72
495.035 5.61537 -1657 60 46 41
499.228 5.6245 -1659 50 33 27
501.919 5.61669 -1656 69 45 42
505.211 5.61587 -1655 73 45 43
536.117 5.72929 -1684 105 91 82
539.809 5.73181 -1684 107 94 85
544.475 5.74477 -1687 111 98 89
548.833 5.75413 -1689 118 100 92
553.86 5.77055 -1693 124 99 94
557.263 5.76973 -1692 127 103 96
560.666 5.76893 -1691 133 109 102
564.071 5.76834 -1690 139 116 111
566.804 5.76073 -1687 145 122 117
570.543 5.76359 -1687 154 130 124
574.628 5.76967 -1688 160 134 129
577.353 5.76229 -1685 161 136 130
580.759 5.76177 -1684 159 134 130
585.208 5.77132 -1686 154 129 125
588.273 5.7674 -1684 155 128 125
592.038 5.77034 -1684 158 130 127
596.163 5.77651 -1685 154 127 124
599.585 5.77606 -1684 153 126 123
603.725 5.78247 -1685 152 126 123
608.597 5.79578 -1688 150 126 123
612.762 5.80224 -1689 148 125 123
616.572 5.80507 -1689 137 117 115
621.123 5.81501 -1691 123 106 102
625.319 5.82153 -1692 111 94 91
631.757 5.84872 -1699 112 94 92
636.362 5.85873 -1701 111 96 93
642.487 5.88255 -1707 111 94 94
647.132 5.89262 -1709 107 90 90
653.315 5.91651 -1715 107 90 89
658.382 5.93008 -1718 108 91 89
665.012 5.95749 -1725 111 94 90
670.129 5.97135 -1728 121 102 97
677.996 6.00921 -1738 119 103 99
687.093 6.05751 -1751 122 106 103
-688.831 2.08982 -1491 125 109 101
-687.055 2.09404 -1495 122 106 98
-683.438 2.09266 -1495 117 101 93
-680.737 2.09408 -1497 111 95 87
-215.696 2.06695 -1572 92 72 48
-213.33 2.07445 -1578 111 93 59
-209.743 2.07012 -1575 121 103 65
-206.039 2.06449 -1571 122 103 49
-202.74 2.06281 -1570 127 108 51
-198.938 2.05587 -1565 131 111 48
-195.033 2.04764 -1559 131 109 45
-191.277 2.04072 -1554 130 108 43
-187.785 2.03643 -1551 131 109 42
-184.187 2.03066 -1547 133 111 44
-180.841 2.0277 -1545 134 112 45
-177.504 2.02475 -1543 134 112 44
-174.29 2.02312 -1542 136 114 45
-171.082 2.0215 -1541 135 113 44
-167.769 2.01856 -1539 134 111 42
-164.36 2.01433 -1536 139 113 45
-160.963 2.0101 -1533 144 117 48
-157.786 2.0085 -1532 144 116 48
-154.311 2.00297 -1528 139 113 45
-151.051 2.00007 -1526 139 112 45
-147.898 1.99849 -1525 141 113 47
-144.655 1.9956 -1523 140 113 46
-141.421 1.99272 -1521 139 113 45
-138.378 1.99247 -1521 139 113 45
-135.158 1.9896 -1519 137 112 43
-132.122 1.98935 -1519 135 110 40
-129.086 1.98912 -1519 136 111 41
-126.051 1.98888 -1519 139 114 44
-123.018 1.98866 -1519 134 108 42
-119.985 1.98844 -1519 128 102 38
-117.031 1.98953 -1520 126 101 38
-114.148 1.99194 -1522 126 101 39
-111.258 1.99435 -1524 125 100 38
-108.503 1.99938 -1528 125 100 40
-105.665 2.00311 -1531 125 100 39
-102.681 2.00423 -1532 125 100 38
-99.6934 2.00536 -1533 126 101 41
-96.7661 2.00779 -1535 128 103 42
-93.7705 2.00893 -1536 130 105 43
-90.7127 2.00876 -1536 129 104 42
-87.6555 2.0086 -1536 128 103 41
-84.5991 2.00844 -1536 128 103 43
-81.4371 2.00567 -1534 128 103 43
-78.2838 2.00291 -1532 127 102 42
-75.1882 2.00146 -1531 128 103 43
-72.1443 2.00133 -1531 129 104 44
-69.0558 1.99989 -1530 128 103 43
-66.015 1.99977 -1530 129 104 43
-62.9746 1.99965 -1530 127 102 40
-60.0915 2.00477 -1534 126 101 37
-57.0442 2.00466 -1534 125 100 36
-54.103 2.00848 -1537 124 99 37
-51.0507 2.00838 -1537 126 100 38
-48.0613 2.01091 -1539 127 101 39
-44.9473 2.00821 -1537 124 99 35
-41.8961 2.00813 -1537 121 97 32
-38.82 2.00675 -1536 120 96 27
-35.7481 2.00537 -1535 119 94 28
-32.7019 2.00531 -1535 118 93 29
-29.6558 2.00526 -1535 120 93 35
-26.6794 2.01043 -1539 122 96 38
-23.6566 2.013 -1541 121 96 39
-20.626 2.01557 -1543 121 96 40
-17.5763 2.01684 -1544 125 100 44
-14.4946 2.0142 -1542 124 101 44
-11.4283 2.01287 -1541 122 99 40
-8.37155 2.01285 -1541 122 100 37
-5.32173 2.01545 -1543 121 101 35
-2.26402 2.01806 -1545 121 102 35
0.801082 2.01936 -1546 123 102 29
3.86766 2.01937 -1546 125 104 31
6.9253 2.01676 -1544 127 106 33
9.988 2.01678 -1544 126 107 38
13.0508 2.0168 -1544 125 106 39
16.1137 2.01683 -1544 126 106 44
19.1643 2.01555 -1543 127 106 44
22.2254 2.01559 -1543 127 105 42
25.2704 2.01433 -1542 126 104 43
28.3484 2.01568 -1543 123 101 41
31.4305 2.01704 -1544 122 99 41
34.5169 2.01841 -1545 118 97 41
37.6075 2.01978 -1546 114 93 38
40.676 2.01985 -1546 112 91 36
43.8015 2.02254 -1548 108 89 32
46.9353 2.02524 -1550 106 90 30
50.0451 2.02664 -1551 104 89 33
53.1593 2.02804 -1552 102 87 33
56.3504 2.03206 -1555 99 83 33
59.4774 2.03347 -1556 96 80 36
62.649 2.0362 -1558 93 76 37
65.8713 2.04023 -1561 93 74 41
69.106 2.04428 -1564 92 74 41
72.4456 2.05094 -1569 91 74 42
75.7574 2.05631 -1573 88 71 38
79.0858 2.06168 -1577 85 68 34
82.3788 2.06575 -1580 83 66 34
85.7383 2.07113 -1584 79 64 34
89.1143 2.07652 -1588 77 63 34
92.4489 2.08061 -1591 78 66 43
95.7964 2.08471 -1594 74 61 37
99.2185 2.09012 -1598 75 61 34
102.465 2.09161 -1599 75 59 36
105.782 2.09441 -1601 75 59 37
147.607 2.10134 -1604 84 66 37
150.722 2.10031 -1603 84 65 35
153.835 2.09927 -1602 90 70 39
156.945 2.09824 -1601 94 73 42
160.052 2.09722 -1600 95 74 41
543.182 2.27794 -1683 99 87 78
548.832 2.28723 -1689 107 91 83
553.204 2.29111 -1691 116 94 90
556.602 2.29073 -1690 120 97 92
560.664 2.29328 -1691 125 103 97
564.069 2.29291 -1690 129 107 103
567.474 2.29275 -1689 139 117 113
571.218 2.29396 -1689 152 128 122
573.605 2.28953 -1685 159 134 128
577.694 2.29211 -1686 158 134 128
579.722 2.28632 -1681 156 132 128
583.817 2.28891 -1682 153 130 125
587.572 2.29015 -1682 153 129 125
591.333 2.29139 -1682 156 129 125
595.453 2.29379 -1683 153 127 124
600.295 2.29913 -1686 153 128 124
604.798 2.30312 -1688 151 127 124
608.955 2.30555 -1689 149 126 124
613.123 2.30819 -1690 149 127 124
617.3 2.31085 -1691 138 119 117
621.855 2.31487 -1693 122 107 103
626.426 2.3187 -1695 109 94 91
633.242 2.33096 -1703 108 92 89
638.23 2.33639 -1706 110 95 91
644.743 2.34731 -1713 112 96 95
648.644 2.34865 -1713 108 91 90
654.074 2.35527 -1717 106 88 88
659.147 2.36075 -1720 109 91 89
666.552 2.37448 -1729 109 91 88
672.841 2.3841 -1735 117 97 92
683.455 2.40887 -1752 116 99 95
-212.925 -1.0719 -1575 111 93 62
-210.01 -1.07309 -1577 124 106 68
-206.432 -1.07088 -1574 124 104 55
-202.869 -1.06867 -1571 126 106 53
-199.065 -1.0651 -1566 130 110 47
-195.283 -1.06154 -1561 131 110 46
-191.4 -1.0573 -1555 131 110 45
-187.785 -1.05443 -1551 133 111 44
-184.068 -1.05088 -1546 133 111 44
-180.841 -1.05005 -1545 133 111 44
-177.504 -1.04854 -1543 135 113 44
-174.29 -1.04772 -1542 137 115 46
-171.082 -1.0469 -1541 138 117 46
-167.769 -1.0454 -1539 140 116 47
-164.466 -1.0439 -1537 141 115 47
-161.068 -1.04173 -1534 142 115 46
-157.786 -1.04024 -1532 142 114 45
-154.412 -1.03808 -1529 139 113 45
-151.249 -1.03727 -1528 139 112 45
-147.898 -1.03511 -1525 141 113 47
-144.655 -1.03364 -1523 140 114 46
-141.328 -1.03148 -1520 139 113 45
-138.196 -1.03069 -1519 139 113 45
-134.98 -1.02922 -1517 139 114 45
-131.948 -1.02911 -1517 137 112 42
-128.831 -1.02832 -1516 135 110 40
-125.802 -1.02822 -1516 138 113 44
-122.775 -1.02812 -1516 135 109 43
-119.748 -1.02801 -1516 129 104 39
-116.723 -1.02792 -1516 129 104 41
-113.923 -1.02986 -1519 130 105 43
-111.039 -1.03112 -1521 129 104 42
-108.361 -1.03442 -1526 125 100 40
-105.458 -1.03569 -1528 124 99 37
-102.48 -1.03628 -1529 123 98 36
-99.3682 -1.03552 -1528 125 100 40
-96.4508 -1.03679 -1530 124 99 39
-93.2821 -1.03536 -1528 126 101 39
-90.4173 -1.03731 -1531 128 103 41
-87.4272 -1.03792 -1532 129 104 42
-84.4338 -1.03852 -1533 128 103 43
-81.384 -1.03846 -1533 129 104 44
-78.2837 -1.03771 -1532 129 104 44
-75.1881 -1.03697 -1531 129 104 45
-72.1913 -1.03759 -1532 129 104 45
-69.1009 -1.03685 -1531 130 105 46
-66.0581 -1.0368 -1531 129 104 44
-63.0157 -1.03674 -1531 127 102 40
-60.1306 -1.0394 -1535 126 101 37
-57.0442 -1.03867 -1534 127 102 38
-54.103 -1.04066 -1537 127 102 40
-51.0507 -1.04062 -1537 128 103 41
-48.0612 -1.04193 -1539 129 103 41
-44.9473 -1.04054 -1537 125 100 36
-41.8961 -1.0405 -1537 124 100 35
-38.82 -1.03979 -1536 125 101 32
-35.7015 -1.03773 -1533 123 98 32
-32.6592 -1.0377 -1533 122 97 33
-29.6365 -1.03835 -1534 123 97 36
-26.662 -1.04104 -1538 126 100 40
-23.6566 -1.04305 -1541 124 99 40
-20.6127 -1.0437 -1542 123 98 40
-17.5877 -1.04572 -1545 126 101 44
-14.5134 -1.04503 -1544 125 103 43
-11.4432 -1.04434 -1543 122 100 40
-8.38241 -1.04433 -1543 123 101 38
-5.32518 -1.045 -1544 123 102 38
-2.26402 -1.04568 -1545 124 104 40
0.801599 -1.04703 -1547 126 105 32
3.86516 -1.04568 -1545 126 105 32
6.92529 -1.04501 -1544 127 106 35
9.98799 -1.04501 -1544 126 106 40
13.0339 -1.04367 -1542 125 105 39
16.1032 -1.04436 -1543 126 106 43
19.1518 -1.0437 -1542 128 107 45
22.1822 -1.04236 -1540 127 105 44
25.2212 -1.0417 -1539 124 102 41
28.2565 -1.04105 -1538 122 100 40
31.3083 -1.04107 -1538 119 96 39
34.4275 -1.04313 -1541 116 94 39
37.5345 -1.04452 -1543 114 93 38
40.6497 -1.0459 -1545 111 90 35
43.7449 -1.04661 -1546 106 87 30
46.8747 -1.04801 -1548 103 87 28
49.9483 -1.04805 -1548 102 87 31
53.0908 -1.04944 -1550 101 86 32
56.2416 -1.05084 -1552 98 82 33
59.4009 -1.05224 -1554 93 77 35
62.6088 -1.05433 -1557 90 73 36
65.8291 -1.05641 -1560 90 71 41
69.0618 -1.0585 -1563 90 72 41
72.3994 -1.06194 -1568 87 70 39
75.6611 -1.06404 -1571 85 68 36
78.9355 -1.06613 -1574 82 65 32
82.2744 -1.06891 -1578 83 66 34
85.7382 -1.07304 -1584 80 65 35
89.0582 -1.07515 -1587 76 62 35
92.4489 -1.07793 -1591 72 60 38
95.8564 -1.08072 -1595 71 58 35
99.3426 -1.08419 -1600 74 60 35
102.401 -1.08292 -1598 74 59 36
552.222 -1.17939 -1688 102 84 80
555.614 -1.17933 -1687 106 88 83
559.669 -1.18046 -1688 111 94 89
563.067 -1.1802 -1687 114 96 93
565.457 -1.17784 -1683 123 104 101
569.188 -1.17849 -1683 136 116 110
571.903 -1.17683 -1680 146 126 119
575.295 -1.17657 -1679 145 125 117
577.653 -1.17443 -1675 142 121 116
582.428 -1.17698 -1678 144 124 119
585.825 -1.17673 -1677 147 126 121
590.278 -1.1788 -1679 149 125 121
595.099 -1.18136 -1682 148 125 121
600.295 -1.18463 -1686 149 125 121
604.081 -1.18531 -1686 145 123 120
609.676 -1.18929 -1691 141 122 119
614.936 -1.19258 -1695 142 123 119
619.49 -1.19467 -1697 130 113 109
624.794 -1.19797 -1701 113 101 96
631.969 -1.20479 -1710 105 93 88
636.588 -1.2069 -1712 101 87 83
643.841 -1.21374 -1721 105 89 85
651.141 -1.2208 -1730 108 92 91
653.188 -1.21778 -1725 107 90 89
659.026 -1.22181 -1730 104 86 85
664.894 -1.22607 -1735 106 88 85
673.49 -1.23506 -1747 107 87 84
-211.979 -4.19578 -1568 116 97 68
-210.276 -4.22448 -1579 126 108 71
-206.695 -4.21555 -1576 125 105 60
-203.257 -4.20949 -1574 126 106 56
-199.32 -4.19275 -1568 129 109 47
-195.909 -4.18672 -1566 132 112 48
-191.647 -4.16199 -1557 133 113 48
-188.027 -4.15065 -1553 135 113 46
-184.425 -4.13931 -1549 134 112 45
-180.841 -4.12799 -1545 133 111 44
-177.39 -4.11936 -1542 133 111 43
-174.291 -4.11875 -1542 134 112 43
-171.082 -4.11548 -1541 136 115 44
-167.661 -4.10689 -1538 137 114 44
-164.36 -4.10097 -1536 137 111 43
-161.068 -4.09507 -1534 139 111 42
-157.683 -4.08651 -1531 140 112 43
-154.311 -4.07796 -1528 137 111 43
-151.151 -4.07458 -1527 137 110 43
-147.704 -4.06339 -1523 140 112 45
-144.465 -4.05755 -1521 139 112 44
-141.142 -4.04905 -1518 137 111 43
-138.014 -4.0459 -1517 139 113 45
-134.803 -4.04009 -1515 141 115 46
-131.774 -4.03963 -1515 139 114 44
-128.661 -4.03651 -1514 137 112 42
-125.637 -4.03607 -1514 137 112 42
-122.613 -4.03564 -1514 135 109 43
-119.591 -4.03522 -1514 132 107 42
-116.569 -4.03481 -1514 131 106 42
-113.698 -4.03974 -1516 131 106 44
-110.82 -4.04468 -1518 130 105 43
-108.149 -4.05762 -1523 127 102 42
-105.182 -4.05991 -1524 124 99 38
-102.212 -4.06221 -1525 123 98 36
-99.1083 -4.0592 -1524 123 98 38
-96.1989 -4.06419 -1526 120 95 34
-93.1602 -4.06386 -1526 120 95 33
-90.4175 -4.07685 -1531 124 99 37
-87.3703 -4.07654 -1531 126 101 39
-84.3789 -4.07891 -1532 127 102 42
-81.278 -4.07596 -1531 129 104 44
-78.335 -4.08101 -1533 129 104 44
-75.1883 -4.07541 -1531 129 104 45
-72.1915 -4.07782 -1532 128 103 45
-69.1461 -4.07757 -1532 129 104 46
-66.1013 -4.07734 -1532 128 103 44
-63.0158 -4.07445 -1531 127 102 40
-60.0916 -4.08222 -1534 126 101 37
-56.97 -4.0767 -1532 128 103 39
-54.0327 -4.08449 -1535 131 106 44
-50.9844 -4.0843 -1535 132 106 44
-47.9989 -4.08945 -1537 129 103 41
-44.9181 -4.08663 -1536 127 103 38
-41.9234 -4.0918 -1538 127 104 39
-38.8959 -4.09432 -1539 129 105 36
-35.7715 -4.08621 -1536 129 104 38
-32.7019 -4.08343 -1535 129 104 40
-29.6945 -4.08864 -1537 130 105 42
-26.6794 -4.09386 -1539 133 107 44
-23.6566 -4.0991 -1541 131 106 45
-20.6261 -4.10434 -1543 128 103 44
-17.5877 -4.10959 -1545 128 103 45
-14.504 -4.10422 -1543 127 104 43
-11.4506 -4.10683 -1544 126 103 42
-8.38786 -4.1068 -1544 127 104 41
-5.32519 -4.10677 -1544 126 105 43
-2.26403 -4.10942 -1545 127 107 44
0.800565 -4.10942 -1545 128 107 34
3.86016 -4.10411 -1543 125 105 33
6.91185 -4.09881 -1541 125 105 35
9.96861 -4.09884 -1541 126 106 41
13.017 -4.09622 -1540 124 104 40
16.0615 -4.09361 -1539 125 105 42
19.1022 -4.09101 -1538 128 107 45
22.1246 -4.08576 -1536 127 105 44
25.1721 -4.08584 -1536 123 101 40
28.2198 -4.08594 -1536 121 99 38
31.2881 -4.0887 -1537 117 96 38
34.4276 -4.09946 -1541 113 92 35
37.4859 -4.09958 -1541 112 92 36
40.5972 -4.10504 -1543 110 89 34
43.6884 -4.10785 -1544 105 86 30
46.8142 -4.11333 -1546 103 86 29
49.9161 -4.11615 -1547 102 87 31
53.0566 -4.12166 -1549 99 84 30
56.2418 -4.12983 -1552 94 78 31
59.4392 -4.13801 -1555 91 74 34
62.6491 -4.14621 -1558 88 71 36
65.9136 -4.15708 -1562 87 69 39
69.1503 -4.1653 -1565 86 68 38
72.3995 -4.17353 -1568 84 67 36
75.6131 -4.17911 -1570 83 66 35
78.9357 -4.19003 -1574 81 65 33
82.2746 -4.20096 -1578 81 64 33
85.7384 -4.21723 -1584 79 64 35
89.0022 -4.22285 -1586 77 63 36
92.3329 -4.23116 -1589 69 57 36
95.7363 -4.24214 -1593 69 56 34
571.904 -4.63641 -1680 119 105 98
572.897 -4.61663 -1672 119 105 97
577.309 -4.62426 -1674 121 106 99
581.041 -4.62638 -1674 122 108 101
585.477 -4.63404 -1676 123 108 102
589.576 -4.63916 -1677 124 108 102
595.808 -4.66069 -1684 128 111 105
602.433 -4.68502 -1692 130 112 106
605.874 -4.68466 -1691 126 110 104
612.922 -4.71182 -1700 122 106 101
618.928 -4.7309 -1706 123 106 101
622.412 -4.73038 -1705 111 96 92
628.468 -4.74952 -1711 100 88 83
636.036 -4.77957 -1721 99 86 81
642.539 -4.80155 -1728 94 79 75
648.706 -4.82056 -1734 96 80 76
656.789 -4.85373 -1745 99 82 82
-209.878 -7.36035 -1576 126 107 76
-206.565 -7.35422 -1575 125 105 57
-203.387 -7.35297 -1575 128 108 57
-199.575 -7.32841 -1570 131 111 54
-196.161 -7.31787 -1568 135 114 52
-191.771 -7.27002 -1558 134 114 49
-188.391 -7.25953 -1556 135 113 46
-184.307 -7.22108 -1548 135 113 46
-180.842 -7.20597 -1545 134 112 45
-177.275 -7.18604 -1541 133 111 43
-174.065 -7.1803 -1540 133 111 42
-170.861 -7.17459 -1539 134 113 42
-167.334 -7.15491 -1535 136 114 43
-163.932 -7.13992 -1532 139 113 44
-160.754 -7.13427 -1531 141 113 44
-157.478 -7.12398 -1529 141 113 44
-154.11 -7.10905 -1526 137 111 43
-150.953 -7.10346 -1525 136 109 42
-147.705 -7.09323 -1523 140 112 44
-144.276 -7.07371 -1519 140 114 46
-141.05 -7.06353 -1517 139 113 45
-137.924 -7.05802 -1516 138 112 44
-134.714 -7.04788 -1514 139 114 45
-131.514 -7.03757 -1512 138 113 43
-128.577 -7.04143 -1513 135 110 40
-125.471 -7.036 -1512 135 110 40
-122.371 -7.03059 -1511 137 111 45
-119.354 -7.02985 -1511 137 111 47
-116.415 -7.03378 -1512 133 108 44
-113.549 -7.04238 -1514 129 104 42
-110.602 -7.04634 -1515 128 103 42
-107.723 -7.05498 -1517 129 104 44
-104.63 -7.04968 -1516 126 101 39
-101.81 -7.06299 -1519 123 98 36
-98.6535 -7.05308 -1517 124 99 39
-95.6951 -7.05714 -1518 121 96 35
-92.7333 -7.06121 -1519 120 95 33
-89.8864 -7.07459 -1522 123 98 36
-86.9712 -7.08335 -1524 125 100 38
-84.1039 -7.09677 -1527 126 101 41
-81.1723 -7.10555 -1529 128 103 43
-78.2332 -7.11436 -1531 129 104 44
-75.1886 -7.11389 -1531 127 102 43
-72.2861 -7.12738 -1534 125 100 42
-69.1916 -7.1223 -1533 125 100 42
-66.1879 -7.12653 -1534 126 101 41
-63.0573 -7.11684 -1532 127 102 40
-60.1311 -7.1304 -1535 127 102 38
-57.0074 -7.12075 -1533 128 103 39
-53.9978 -7.12505 -1534 128 103 41
-50.885 -7.11544 -1532 128 102 40
-47.9367 -7.12907 -1535 128 102 40
-44.8891 -7.12879 -1535 125 102 37
-41.8964 -7.13781 -1537 126 104 39
-38.8708 -7.14221 -1538 130 106 37
-35.7717 -7.13269 -1536 131 106 40
-32.7021 -7.12784 -1535 130 105 41
-29.6754 -7.13229 -1536 131 107 40
-26.6622 -7.1414 -1538 132 108 42
-23.626 -7.14589 -1539 133 108 46
-20.6128 -7.15968 -1542 132 106 45
-17.5764 -7.16885 -1544 130 104 44
-14.5041 -7.16411 -1543 129 104 42
-11.4432 -7.16403 -1543 129 104 42
-8.38247 -7.16397 -1543 128 103 41
-5.31487 -7.15465 -1541 127 104 43
-2.25525 -7.14534 -1539 126 104 43
0.796942 -7.14069 -1538 127 106 35
3.84517 -7.13606 -1537 124 104 34
6.88946 -7.13145 -1536 123 104 36
9.94278 -7.13615 -1537 126 106 42
12.9917 -7.13622 -1537 125 105 42
16.0303 -7.13166 -1536 124 104 41
19.0774 -7.13177 -1536 126 105 43
22.1103 -7.12726 -1535 125 103 42
25.1395 -7.12276 -1534 122 100 39
28.2016 -7.12757 -1535 122 101 40
31.2271 -7.12311 -1534 118 98 39
34.3384 -7.13724 -1537 113 93 35
37.4374 -7.14675 -1539 110 90 32
40.5447 -7.15627 -1541 107 86 31
43.632 -7.16118 -1542 104 84 30
46.7842 -7.17539 -1545 103 86 32
49.8518 -7.17568 -1545 102 87 32
53.0569 -7.19458 -1549 97 82 28
56.2783 -7.21349 -1553 92 76 30
59.5542 -7.23708 -1558 88 71 32
62.7701 -7.25139 -1561 87 70 36
65.9983 -7.26572 -1564 87 69 39
69.1507 -7.27078 -1565 84 67 36
72.3999 -7.28515 -1568 81 65 34
75.6134 -7.2949 -1570 79 64 32
78.8859 -7.30931 -1573 79 64 32
82.275 -7.33304 -1578 82 64 34
85.7929 -7.36609 -1585 80 65 37
89.0588 -7.37592 -1587 79 65 39
92.4495 -7.39507 -1591 71 59 36
-209.214 -10.471 -1571 123 105 75
-206.435 -10.4891 -1574 124 104 57
-203.26 -10.4872 -1574 130 110 60
-199.45 -10.4521 -1569 134 113 58
-196.037 -10.4371 -1567 134 113 52
-192.142 -10.3954 -1561 135 115 51
-188.393 -10.3605 -1556 136 114 48
-184.547 -10.3187 -1550 135 113 46
-181.078 -10.2971 -1547 135 112 44
-177.507 -10.2689 -1543 134 112 43
-174.18 -10.2541 -1541 136 114 44
-170.751 -10.2326 -1538 133 112 41
-167.445 -10.2178 -1536 138 116 45
-163.827 -10.1831 -1531 138 114 44
-160.755 -10.1815 -1531 139 113 44
-157.479 -10.1668 -1529 141 114 45
-154.01 -10.1389 -1525 139 113 44
-150.856 -10.1309 -1524 138 112 42
-147.609 -10.1163 -1522 140 114 43
-144.182 -10.0884 -1518 141 115 46
-140.958 -10.0739 -1516 140 114 46
-137.834 -10.066 -1515 138 112 44
-134.626 -10.0516 -1513 139 113 44
-131.428 -10.0371 -1511 137 111 43
-128.408 -10.036 -1511 136 109 40
-125.223 -10.0216 -1509 137 110 42
-122.129 -10.0139 -1508 136 110 44
-119.276 -10.0259 -1510 136 111 46
-116.185 -10.0182 -1509 133 108 44
-113.325 -10.0305 -1511 129 104 41
-110.238 -10.0229 -1510 130 105 42
-107.369 -10.0352 -1512 129 104 42
-104.355 -10.0343 -1512 128 103 41
-101.476 -10.0466 -1514 125 100 38
-98.4593 -10.0458 -1514 125 100 40
-95.5697 -10.0582 -1516 124 99 39
-92.4898 -10.0507 -1515 125 100 40
-89.7099 -10.0765 -1519 125 100 40
-86.8007 -10.0889 -1521 125 100 39
-83.8842 -10.1015 -1523 125 100 41
-80.9603 -10.114 -1525 126 100 42
-78.0294 -10.1266 -1527 126 101 42
-75.091 -10.1392 -1529 124 99 41
-72.1453 -10.1518 -1531 123 98 40
-69.1921 -10.1644 -1533 124 99 42
-66.1453 -10.1638 -1533 126 101 42
-63.0578 -10.1566 -1532 126 101 39
-60.0923 -10.1693 -1534 129 103 38
-57.0078 -10.1622 -1533 129 104 38
-53.963 -10.1617 -1533 127 102 40
-50.8521 -10.148 -1531 125 100 39
-47.9058 -10.1674 -1534 125 100 40
-44.8602 -10.167 -1534 126 103 36
-41.8694 -10.1799 -1536 127 104 37
-38.8205 -10.1796 -1536 129 105 36
-35.7719 -10.1792 -1536 130 106 39
-32.7023 -10.1723 -1535 131 106 41
-29.6176 -10.1588 -1533 131 106 43
-26.6451 -10.185 -1537 129 104 42
-23.6262 -10.1981 -1539 128 103 43
-20.5862 -10.2045 -1540 131 105 46
-17.5424 -10.211 -1541 132 106 47
-14.4948 -10.2174 -1542 131 106 45
-11.4285 -10.2107 -1541 129 104 43
-8.35536 -10.1907 -1538 128 103 40
-5.29766 -10.1774 -1536 127 104 42
-2.25087 -10.1774 -1536 126 104 43
0.794357 -10.1575 -1533 125 103 36
3.83019 -10.1443 -1531 126 104 38
6.87157 -10.151 -1532 125 104 40
9.91698 -10.1576 -1533 125 105 42
12.958 -10.1578 -1533 128 108 45
15.9782 -10.1446 -1531 126 106 45
19.0403 -10.158 -1533 124 102 43
22.0529 -10.145 -1531 122 99 41
25.0905 -10.1452 -1531 118 97 38
28.165 -10.1587 -1533 116 95 36
31.207 -10.1589 -1533 115 94 36
34.3163 -10.1791 -1536 113 93 37
37.4134 -10.1927 -1538 110 90 36
40.5187 -10.2063 -1540 108 88 33
43.5758 -10.2066 -1540 105 86 33
46.7543 -10.2335 -1544 101 84 34
49.8845 -10.2472 -1546 100 85 33
53.0573 -10.2676 -1549 98 83 31
56.3149 -10.3012 -1554 93 77 35
59.5929 -10.3348 -1559 89 72 36
62.8912 -10.3685 -1564 86 69 37
66.0832 -10.3824 -1566 86 68 39
69.1512 -10.3763 -1565 86 69 39
72.4004 -10.3968 -1568 81 65 34
75.614 -10.4107 -1570 76 61 31
78.8865 -10.4313 -1573 75 61 30
82.2756 -10.4652 -1578 79 63 33
85.9559 -10.5322 -1588 79 65 37
89.2278 -10.5463 -1590 76 63 37
92.3921 -10.5471 -1590 74 61 41
-209.216 -13.605 -1571 119 104 73
-206.175 -13.6113 -1572 126 106 62
-203.003 -13.6088 -1572 132 112 65
-199.579 -13.5892 -1570 137 116 61
-196.164 -13.5697 -1568 137 117 57
-192.267 -13.5155 -1562 136 116 55
-188.516 -13.4699 -1557 137 115 50
-184.43 -13.3986 -1549 138 115 49
-180.962 -13.3706 -1546 139 115 46
-177.279 -13.3253 -1541 136 114 44
-173.842 -13.2974 -1538 134 113 42
-170.531 -13.2779 -1536 135 114 43
-167.228 -13.2587 -1534 138 116 45
-163.828 -13.2309 -1531 139 115 44
-160.547 -13.2118 -1529 140 115 45
-157.275 -13.1927 -1527 141 116 46
-154.012 -13.1736 -1525 141 116 46
-150.758 -13.1546 -1523 142 117 45
-147.514 -13.1355 -1521 141 116 42
-144.183 -13.1079 -1518 140 115 46
-140.959 -13.089 -1516 140 114 46
-137.835 -13.0788 -1515 138 112 44
-134.628 -13.06 -1513 137 111 43
-131.429 -13.0412 -1511 138 112 44
-128.324 -13.0311 -1510 136 108 40
-125.142 -13.0124 -1508 138 111 43
-122.049 -13.0023 -1507 138 112 46
-119.04 -13.001 -1507 136 110 46
-116.033 -12.9996 -1507 134 108 44
-113.101 -13.0069 -1508 131 106 42
-110.093 -13.0055 -1508 132 107 43
