ply
format ascii 1.0
comment Created by Open3D
element vertex 1410
property double x
property double y
property double z
property uchar red
property uchar green
property uchar blue
end_header
-145.973 -194.64 -1381 140 110 37
-143.081 -194.471 -1380 142 114 43
-140.194 -194.303 -1379 145 115 45
-137.413 -194.277 -1379 137 106 37
-134.73 -194.392 -1380 129 103 42
-132.235 -194.789 -1383 128 103 43
-129.542 -194.905 -1384 128 105 46
-127.029 -195.303 -1387 131 107 48
-124.505 -195.701 -1390 129 104 46
-122.058 -196.241 -1394 122 98 47
-119.339 -196.359 -1395 115 94 45
-116.951 -197.04 -1400 107 87 42
-114.625 -197.862 -1406 99 81 41
-112.038 -198.263 -1409 93 76 38
-109.982 -199.649 -1419 95 80 48
-108.038 -201.316 -1431 97 81 46
-105.753 -202.421 -1439 93 76 40
-103.364 -203.386 -1446 88 74 43
-100.879 -204.21 -1452 85 72 41
-98.1012 -204.473 -1454 76 65 35
-95.316 -204.736 -1456 75 61 32
-92.5869 -205.14 -1459 77 63 34
-89.8465 -205.544 -1462 81 67 36
-86.9759 -205.668 -1463 86 72 42
-84.5042 -206.776 -1471 87 72 43
-82.112 -208.166 -1481 91 77 48
-273.965 -208.446 -1446 162 143 86
-269.286 -207.095 -1437 169 149 77
-265.017 -206.034 -1430 172 153 79
-261.879 -205.838 -1429 169 153 73
-258.203 -205.211 -1425 168 147 71
-255.263 -205.16 -1425 168 146 71
-252.148 -204.967 -1424 167 146 64
-249.39 -205.061 -1425 167 145 63
-245.937 -204.581 -1422 166 142 61
-242.67 -204.245 -1420 160 136 59
-239.582 -204.054 -1419 157 132 54
-236.333 -203.72 -1417 151 127 43
-233.094 -203.386 -1415 149 123 40
-229.703 -202.91 -1412 149 122 40
-226.647 -202.722 -1411 148 121 39
-223.439 -202.39 -1409 147 120 38
-220.241 -202.06 -1407 146 119 36
-217.207 -201.873 -1406 147 120 40
-214.18 -201.688 -1405 147 120 40
-211.158 -201.502 -1404 154 127 49
-208.142 -201.318 -1403 153 126 46
-204.985 -200.991 -1401 151 123 42
-201.983 -200.807 -1400 148 120 40
-198.702 -200.338 -1397 140 112 33
-195.715 -200.156 -1396 139 110 34
-192.872 -200.119 -1396 137 108 30
-190.031 -200.081 -1396 137 109 29
-187.191 -200.044 -1396 138 109 33
-184.353 -200.008 -1396 143 114 38
-181.256 -199.686 -1394 148 119 44
-178.169 -199.365 -1392 156 126 49
-174.966 -198.901 -1389 169 139 61
-172.024 -198.724 -1388 173 142 60
-168.844 -198.261 -1385 162 131 50
-165.917 -198.086 -1384 151 120 41
-163.113 -198.054 -1384 153 124 45
-160.31 -198.022 -1384 147 118 39
-157.509 -197.991 -1384 143 115 35
-154.71 -197.961 -1384 143 114 35
-151.801 -197.788 -1383 144 113 35
-149.006 -197.759 -1383 145 114 37
-146.001 -197.445 -1381 146 115 40
-143.109 -197.274 -1380 144 116 47
-140.221 -197.103 -1379 144 113 45
-137.439 -197.076 -1379 134 101 34
-134.56 -196.907 -1378 121 98 37
-132.069 -197.31 -1381 119 97 38
-129.567 -197.713 -1384 119 100 45
-127.053 -198.117 -1387 123 101 47
-124.619 -198.664 -1391 119 98 44
-122.081 -199.069 -1394 113 92 46
-119.533 -199.474 -1397 108 89 44
-117.057 -200.022 -1401 102 84 41
-114.566 -200.571 -1405 97 80 39
-112.298 -201.548 -1412 93 77 38
-110.081 -202.668 -1420 94 79 45
-108.059 -204.217 -1431 95 79 46
-105.846 -205.481 -1440 92 75 42
-103.527 -206.602 -1448 88 74 43
-100.968 -207.296 -1453 83 70 39
-98.1876 -207.562 -1455 75 64 34
-95.3342 -207.686 -1456 75 62 32
-92.5411 -207.953 -1458 74 60 31
-89.7407 -208.221 -1460 81 67 38
-86.9331 -208.489 -1462 89 74 45
-84.5779 -209.898 -1472 90 75 46
-82.1831 -211.308 -1482 89 75 46
-275.914 -212.872 -1456 157 141 90
-269.339 -210.04 -1437 169 150 80
-265.069 -208.963 -1430 169 152 80
-261.747 -208.619 -1428 166 152 72
-258.255 -208.129 -1425 169 151 74
-255.493 -208.223 -1426 175 155 80
-252.198 -207.881 -1424 173 152 74
-249.264 -207.831 -1424 172 150 70
-245.813 -207.344 -1421 170 147 64
-242.376 -206.857 -1418 164 140 60
-239.46 -206.809 -1418 162 138 58
-236.213 -206.471 -1416 161 137 53
-233.14 -206.278 -1415 160 134 52
-229.911 -205.94 -1413 157 130 49
-227.013 -205.895 -1413 152 125 44
-223.483 -205.268 -1409 152 125 44
-220.284 -204.932 -1407 151 124 41
-217.25 -204.743 -1406 150 123 43
-214.374 -204.7 -1406 150 123 43
-211.199 -204.367 -1404 152 125 47
-208.183 -204.18 -1403 150 123 43
-205.318 -204.139 -1403 147 119 36
-202.167 -203.808 -1401 141 113 32
-198.883 -203.332 -1398 134 106 26
-196.034 -203.293 -1398 138 109 35
-193.048 -203.109 -1397 141 112 36
-190.068 -202.926 -1396 143 114 36
-187.094 -202.743 -1395 142 113 37
-184.257 -202.706 -1395 148 119 43
-181.292 -202.525 -1394 159 129 52
-178.076 -202.054 -1391 167 136 56
-175.126 -201.873 -1390 173 142 61
-172.057 -201.549 -1388 171 140 58
-168.998 -201.225 -1386 163 132 51
-166.069 -201.047 -1385 155 124 45
-163.263 -201.014 -1385 160 130 50
-160.574 -201.128 -1386 152 122 42
-157.654 -200.951 -1385 151 122 40
-154.852 -200.92 -1385 154 124 42
-151.941 -200.745 -1384 160 129 47
-149.143 -200.715 -1384 161 131 51
-146.135 -200.396 -1382 161 131 53
-143.24 -200.223 -1381 155 126 55
-140.35 -200.05 -1380 147 114 47
-137.565 -200.023 -1380 132 98 33
-134.684 -199.851 -1379 115 95 37
-132.095 -200.115 -1381 109 90 36
-129.498 -200.379 -1383 106 88 43
-127.078 -200.933 -1387 106 87 43
-124.643 -201.488 -1391 102 83 39
-122.193 -202.043 -1395 99 81 41
-119.727 -202.599 -1399 99 81 41
-117.163 -203.01 -1402 98 80 41
-114.751 -203.711 -1407 96 81 41
-112.479 -204.702 -1414 96 80 41
-110.412 -206.128 -1424 93 78 43
-108.457 -207.844 -1436 94 78 45
-106.234 -209.125 -1445 93 76 45
-103.69 -209.828 -1450 83 69 39
-100.988 -210.242 -1453 78 65 35
-98.2066 -210.512 -1455 73 62 33
-95.4182 -210.783 -1457 76 63 34
-92.6226 -211.054 -1459 77 63 34
-89.8197 -211.325 -1461 84 70 40
-87.0689 -211.742 -1464 90 76 46
-84.6517 -213.027 -1473 92 77 48
-82.5319 -215.179 -1488 91 77 48
-271.643 -214.765 -1449 167 148 80
-265.864 -212.487 -1434 168 151 80
-262.167 -211.841 -1430 169 154 76
-258.669 -211.344 -1427 173 156 77
-255.365 -210.996 -1425 176 158 78
-252.249 -210.797 -1424 178 157 80
-249.139 -210.598 -1423 179 157 78
-245.516 -209.956 -1419 176 153 69
-242.082 -209.463 -1416 169 146 62
-239.001 -209.267 -1415 171 147 64
-235.759 -208.923 -1413 167 143 59
-232.692 -208.728 -1412 162 137 55
-229.631 -208.534 -1411 160 133 53
-226.737 -208.488 -1411 158 131 51
-223.369 -207.999 -1408 160 133 52
-220.485 -207.954 -1408 156 129 47
-217.293 -207.615 -1406 154 127 48
-214.417 -207.572 -1406 153 126 48
-211.091 -207.086 -1403 151 124 46
-208.224 -207.044 -1403 150 123 43
-205.213 -206.855 -1402 144 116 33
-202.207 -206.666 -1401 138 110 28
-198.923 -206.183 -1398 135 107 25
-195.933 -205.996 -1397 142 113 39
-192.948 -205.81 -1396 141 112 38
-189.97 -205.624 -1395 144 115 40
-186.997 -205.439 -1394 146 117 40
-184.162 -205.402 -1394 151 121 44
-181.198 -205.218 -1393 161 130 50
-178.111 -204.887 -1391 168 137 56
-175.161 -204.705 -1390 173 142 60
-172.216 -204.523 -1389 169 138 56
-169.154 -204.194 -1387 158 127 45
-166.222 -204.013 -1386 153 122 43
-163.413 -203.981 -1386 164 133 52
-160.721 -204.095 -1387 160 129 48
-157.799 -203.916 -1386 163 132 49
-154.994 -203.885 -1386 166 135 51
-152.081 -203.707 -1385 171 141 55
-149.173 -203.53 -1384 171 143 59
-146.164 -203.207 -1382 169 141 58
-143.268 -203.031 -1381 164 132 59
-140.378 -202.856 -1380 148 116 48
-137.593 -202.828 -1380 129 96 33
-134.906 -202.948 -1381 112 94 40
-132.121 -202.921 -1381 104 87 39
-129.618 -203.336 -1384 98 82 46
-127.287 -204.045 -1389 97 81 45
-124.936 -204.754 -1394 96 80 44
-122.48 -205.317 -1398 94 79 45
-119.837 -205.587 -1400 94 79 44
-117.354 -206.151 -1404 94 77 41
-115.1 -207.155 -1411 93 79 40
-112.819 -208.16 -1418 95 81 42
-110.667 -209.459 -1427 94 79 43
-108.705 -211.199 -1439 92 77 44
-106.255 -212.058 -1445 88 73 42
-103.711 -212.771 -1450 77 63 35
-101.008 -213.191 -1453 73 60 32
-98.226 -213.464 -1455 70 58 31
-95.3715 -213.592 -1456 76 63 34
-92.5773 -213.867 -1458 81 67 38
-89.7759 -214.142 -1460 88 74 43
-87.1456 -214.858 -1465 89 75 44
-84.7258 -216.161 -1474 91 77 46
-82.659 -218.49 -1490 93 79 50
-267.773 -216.931 -1444 168 151 84
-263.87 -216.125 -1439 167 151 73
-259.81 -215.17 -1433 173 156 77
-256.134 -214.517 -1429 174 156 77
-252.477 -213.864 -1425 179 158 79
-249.189 -213.513 -1423 182 160 79
-245.22 -212.562 -1417 179 156 73
-241.79 -212.062 -1414 176 154 68
-238.712 -211.863 -1413 177 154 68
-235.64 -211.665 -1412 175 151 66
-232.74 -211.617 -1412 170 145 62
-229.515 -211.27 -1410 164 137 56
-226.783 -211.373 -1411 164 137 59
-223.573 -211.028 -1409 164 137 58
-220.53 -210.832 -1408 161 134 54
-217.492 -210.638 -1407 159 132 53
-214.46 -210.444 -1406 153 126 48
-211.284 -210.102 -1404 148 121 42
-208.266 -209.909 -1403 144 117 36
-205.108 -209.568 -1401 139 111 28
-202.104 -209.377 -1400 133 105 22
-199.105 -209.187 -1399 135 107 25
-195.972 -208.847 -1397 141 111 34
-192.987 -208.658 -1396 146 115 38
-189.872 -208.321 -1394 152 122 45
-186.9 -208.133 -1393 156 125 47
-183.934 -207.946 -1392 156 126 47
-181.234 -208.058 -1393 162 131 50
-178.019 -207.574 -1390 168 138 54
-175.07 -207.388 -1389 169 139 55
-172.25 -207.353 -1389 165 135 50
-169.188 -207.02 -1387 154 124 41
-166.255 -206.837 -1386 151 120 40
-163.446 -206.803 -1386 167 136 54
-160.638 -206.771 -1386 167 136 54
-157.717 -206.589 -1385 169 139 53
-154.802 -206.408 -1384 173 143 55
-151.892 -206.228 -1383 173 143 53
-148.879 -205.9 -1381 170 142 53
-145.982 -205.721 -1380 167 139 51
-143.193 -205.691 -1380 161 129 51
-140.305 -205.514 -1379 143 112 46
-137.72 -205.784 -1381 124 94 34
-135.031 -205.905 -1382 102 86 41
-132.434 -206.176 -1384 97 82 41
-129.831 -206.448 -1386 94 80 49
-127.495 -207.166 -1391 95 81 48
-124.961 -207.588 -1394 93 80 46
-122.592 -208.307 -1399 91 79 44
-119.946 -208.581 -1401 91 78 43
-117.544 -209.301 -1406 91 77 43
-115.205 -210.171 -1412 92 78 41
-113.16 -211.636 -1422 91 77 40
-111.232 -213.399 -1434 91 76 41
-109.105 -214.865 -1444 89 74 42
-106.424 -215.29 -1447 81 66 36
-103.731 -215.715 -1450 70 57 30
-100.958 -215.992 -1452 69 56 29
-98.1105 -216.121 -1453 68 56 29
-95.325 -216.399 -1455 67 54 25
-92.6593 -216.975 -1459 79 65 36
-89.7938 -217.105 -1460 89 75 45
-87.2224 -217.979 -1466 87 73 43
-85.0302 -219.895 -1479 91 77 47
-82.7865 -221.811 -1492 94 80 51
-271.538 -222.94 -1464 162 146 82
-265.759 -220.6 -1449 169 152 74
-261.133 -219.175 -1440 168 151 73
-256.904 -218.056 -1433 172 155 77
-253.061 -217.242 -1428 178 158 75
-249.241 -216.43 -1423 179 158 76
-245.27 -215.466 -1417 179 156 74
-241.497 -214.655 -1412 179 157 71
-238.423 -214.453 -1411 181 158 72
-235.355 -214.252 -1410 177 153 67
-232.293 -214.052 -1409 172 147 63
-229.237 -213.852 -1408 172 145 63
-226.508 -213.957 -1409 174 147 69
-223.46 -213.758 -1408 170 143 66
-220.418 -213.561 -1407 165 138 61
-217.382 -213.364 -1406 162 135 57
-214.504 -213.319 -1406 154 127 49
-211.177 -212.82 -1403 152 125 45
-208.161 -212.625 -1402 149 122 40
-205.296 -212.582 -1402 148 120 37
-202.145 -212.237 -1400 145 117 33
-199.004 -211.892 -1398 143 115 30
-195.872 -211.548 -1396 147 116 35
-193.027 -211.508 -1396 151 120 40
-189.911 -211.166 -1394 157 126 48
-186.804 -210.824 -1392 161 130 49
-183.84 -210.635 -1391 163 132 50
-181.011 -210.597 -1391 166 136 52
-177.799 -210.106 -1388 168 138 54
-174.854 -209.918 -1387 168 138 53
-172.161 -210.034 -1388 161 129 45
-169.222 -209.848 -1387 156 125 42
-166.409 -209.813 -1387 152 121 40
-163.479 -209.628 -1386 164 134 51
-160.67 -209.595 -1386 168 137 54
-157.635 -209.26 -1384 171 142 54
-154.721 -209.076 -1383 174 144 54
-151.703 -208.742 -1381 173 143 51
-148.91 -208.712 -1381 172 144 51
-145.906 -208.379 -1379 169 140 50
-143.119 -208.35 -1379 158 126 48
-140.231 -208.17 -1378 133 106 42
-137.748 -208.594 -1381 111 88 32
-134.961 -208.566 -1381 96 83 45
-132.557 -209.143 -1385 92 79 44
-130.138 -209.72 -1389 90 79 50
-127.796 -210.449 -1394 91 79 46
-125.346 -211.027 -1398 86 74 40
-122.792 -211.454 -1401 85 75 38
-120.227 -211.882 -1404 88 77 41
-117.735 -212.461 -1408 89 76 42
-115.473 -213.494 -1415 90 75 40
-113.422 -214.979 -1425 91 76 41
-111.332 -216.465 -1435 88 73 40
-108.9 -217.347 -1441 82 67 37
-106.298 -217.928 -1445 74 59 31
-103.681 -218.51 -1449 67 55 28
-100.84 -218.64 -1450 68 57 29
-97.9953 -218.771 -1451 70 59 31
-95.2132 -219.052 -1453 74 61 32
-92.4875 -219.486 -1456 85 71 42
-89.6274 -219.618 -1457 90 76 47
-87.1211 -220.655 -1464 86 72 43
-84.9324 -222.597 -1477 89 75 46
-82.9143 -225.141 -1494 94 80 51
-273.264 -227.336 -1473 148 131 76
-268.566 -225.889 -1464 164 146 68
-262.82 -223.519 -1449 168 149 72
-258.751 -222.539 -1443 172 152 75
-253.823 -220.789 -1432 174 154 69
-249.468 -219.502 -1424 175 154 71
-245.495 -218.526 -1418 175 152 73
-241.719 -217.704 -1413 174 151 67
-238.304 -217.191 -1410 174 151 67
-235.237 -216.987 -1409 174 150 62
-232.176 -216.784 -1408 174 148 63
-229.285 -216.736 -1408 179 152 70
-226.556 -216.842 -1409 178 151 73
-223.348 -216.487 -1407 170 143 66
-220.308 -216.286 -1406 168 141 64
-217.427 -216.24 -1406 169 142 65
-214.244 -215.888 -1404 167 140 62
-211.07 -215.536 -1402 162 135 55
-208.055 -215.338 -1401 160 133 51
-205.193 -215.295 -1401 161 133 48
-202.187 -215.099 -1400 155 128 40
-199.187 -214.903 -1399 150 122 33
-195.913 -214.401 -1396 155 125 39
-192.929 -214.207 -1395 159 128 45
-189.814 -213.86 -1393 160 129 49
-186.709 -213.513 -1391 164 134 49
-183.614 -213.168 -1389 167 137 52
-180.918 -213.283 -1390 170 140 53
-177.836 -212.939 -1388 173 142 58
-174.89 -212.749 -1387 172 141 59
-172.073 -212.712 -1387 172 140 56
-169.135 -212.523 -1386 166 134 51
-166.324 -212.489 -1386 155 124 43
-163.277 -212.148 -1384 161 131 47
-160.356 -211.961 -1383 167 137 52
-157.326 -211.621 -1381 174 147 55
-154.418 -211.436 -1380 178 149 56
-151.405 -211.097 -1378 176 145 52
-148.725 -211.219 -1379 170 140 48
-145.936 -211.189 -1379 162 132 42
-143.148 -211.159 -1379 142 112 38
-140.362 -211.129 -1379 116 94 34
-137.976 -211.713 -1383 100 84 34
-135.379 -211.99 -1385 92 78 47
-132.967 -212.575 -1389 86 74 44
-130.446 -213.007 -1392 83 74 46
-128.189 -213.898 -1398 85 74 40
-125.551 -214.177 -1400 83 72 35
-122.905 -214.458 -1402 81 73 31
-120.423 -215.044 -1406 86 75 36
-118.01 -215.784 -1411 89 76 41
-115.742 -216.831 -1418 89 74 40
-113.764 -218.489 -1429 89 74 40
-111.432 -219.536 -1436 83 68 37
-108.998 -220.43 -1442 72 59 31
-106.246 -220.713 -1444 67 55 29
-103.487 -220.998 -1446 68 56 29
-100.721 -221.282 -1448 71 60 32
-97.9479 -221.567 -1450 72 61 32
-95.1673 -221.853 -1452 78 65 36
-92.5065 -222.444 -1456 87 73 44
-89.7688 -222.884 -1459 88 74 47
-87.377 -224.24 -1468 87 73 45
-85.0074 -225.75 -1478 90 76 47
-82.9312 -228.176 -1494 91 77 49
-269.357 -229.522 -1468 138 119 45
-265.415 -228.684 -1463 155 135 59
-259.703 -226.283 -1448 164 143 66
-254.763 -224.509 -1437 168 148 60
-250.397 -223.206 -1429 170 149 62
-246.066 -221.903 -1421 172 149 65
-242.112 -220.914 -1415 172 150 63
-238.861 -220.551 -1413 175 153 66
-235.287 -219.876 -1409 175 151 63
-232.061 -219.514 -1407 175 150 65
-229.17 -219.465 -1407 179 152 71
-226.282 -219.417 -1407 179 152 75
-223.078 -219.057 -1405 176 149 73
-220.041 -218.854 -1404 177 150 74
-217.164 -218.808 -1404 177 150 73
-214.136 -218.606 -1403 177 150 73
-210.964 -218.249 -1401 171 144 65
-208.099 -218.205 -1401 167 140 58
-205.089 -218.005 -1400 168 140 53
-201.941 -217.651 -1398 166 139 46
-198.945 -217.452 -1397 163 136 41
-195.673 -216.944 -1394 169 139 47
-192.969 -217.058 -1395 172 142 53
-189.99 -216.862 -1394 175 145 60
-186.882 -216.511 -1392 177 147 60
-183.917 -216.316 -1391 176 146 59
-180.956 -216.122 -1390 177 147 60
-178.002 -215.929 -1389 179 148 64
-174.927 -215.581 -1387 178 146 64
-171.985 -215.389 -1386 179 147 63
-169.171 -215.353 -1386 169 138 54
-166.238 -215.162 -1385 158 127 45
-163.075 -214.661 -1382 165 135 50
-160.041 -214.316 -1380 170 140 53
-157.131 -214.128 -1379 174 147 54
-154.114 -213.784 -1377 176 148 55
-151.217 -213.597 -1376 174 143 52
-148.54 -213.72 -1377 169 137 50
-145.861 -213.845 -1378 156 125 40
-143.282 -214.124 -1380 128 103 36
-140.595 -214.25 -1381 102 85 33
-138.204 -214.841 -1385 89 77 35
-135.701 -215.278 -1388 89 75 44
-133.378 -216.025 -1393 89 76 45
-130.848 -216.462 -1396 85 76 47
-128.4 -217.055 -1400 83 73 40
-125.936 -217.648 -1404 82 71 37
-123.194 -217.777 -1405 84 76 36
-120.791 -218.527 -1410 88 79 41
-118.286 -219.121 -1414 90 78 42
-116.174 -220.491 -1423 87 73 41
-113.788 -221.397 -1429 84 70 38
-111.378 -222.303 -1435 79 64 36
-108.794 -222.899 -1439 69 57 30
-106.048 -223.187 -1441 66 56 30
-103.366 -223.629 -1444 68 56 30
-100.603 -223.918 -1446 72 61 34
-97.8332 -224.206 -1448 73 62 33
-95.1215 -224.651 -1451 80 67 38
-92.4622 -225.25 -1455 88 74 45
-89.726 -225.696 -1458 87 74 47
-87.3952 -227.225 -1468 88 74 46
-85.2551 -229.374 -1482 92 77 48
-82.7819 -230.749 -1491 92 77 50
-275.609 -235.293 -1485 109 91 44
-270.884 -233.807 -1476 109 87 22
-265.291 -231.532 -1462 117 95 24
-259.579 -229.1 -1447 135 112 35
-254.995 -227.619 -1438 150 130 38
-250.801 -226.457 -1431 160 139 49
-246.639 -225.295 -1424 169 147 57
-242.849 -224.452 -1419 172 150 61
-239.251 -223.767 -1415 172 150 62
-235.671 -223.083 -1411 173 149 61
-232.44 -222.716 -1409 176 150 66
-229.219 -222.35 -1407 180 153 73
-226.169 -222.143 -1406 178 151 75
-222.967 -221.779 -1404 179 152 76
-219.774 -221.415 -1402 181 154 77
-216.901 -221.368 -1402 180 153 77
-213.877 -221.164 -1401 182 155 79
-210.859 -220.961 -1400 178 150 73
-207.847 -220.758 -1399 173 146 65
-204.694 -220.398 -1397 174 147 57
-201.55 -220.039 -1395 175 148 51
-198.417 -219.68 -1393 176 149 50
-195.294 -219.323 -1391 178 149 52
-192.595 -219.439 -1392 179 149 56
-189.485 -219.082 -1390 181 151 64
-186.519 -218.885 -1389 182 152 63
-183.427 -218.53 -1387 180 150 62
-180.474 -218.333 -1386 179 149 62
-177.271 -217.822 -1383 180 148 65
-174.333 -217.627 -1382 180 148 66
-171.401 -217.433 -1381 177 145 61
-168.596 -217.396 -1381 169 137 54
-165.793 -217.36 -1381 165 134 52
-162.756 -217.011 -1379 176 146 60
-159.727 -216.661 -1377 179 149 62
-156.823 -216.47 -1376 181 153 59
-153.811 -216.122 -1374 177 147 55
-150.919 -215.933 -1373 170 139 49
-148.356 -216.215 -1375 161 128 45
-145.997 -216.813 -1379 143 112 32
-143.416 -217.096 -1381 112 92 32
-140.93 -217.538 -1384 94 81 35
-138.633 -218.294 -1389 86 79 43
-136.121 -218.736 -1392 89 75 42
-133.598 -219.178 -1395 88 75 44
-131.064 -219.621 -1398 84 75 45
-128.518 -220.065 -1401 84 73 43
-125.962 -220.509 -1404 85 73 43
-123.395 -220.954 -1407 87 79 43
-120.902 -221.556 -1411 90 81 45
-118.562 -222.472 -1417 89 79 42
-116.362 -223.703 -1425 86 73 41
-113.971 -224.621 -1431 81 67 37
-111.402 -225.225 -1435 76 60 36
-108.741 -225.672 -1438 69 57 32
-105.997 -225.963 -1440 65 56 30
-103.316 -226.412 -1443 66 54 29
-100.624 -226.861 -1446 73 61 36
-97.8538 -227.153 -1448 77 65 38
-95.1416 -227.603 -1451 83 70 41
-92.5453 -228.368 -1456 88 74 45
-89.9296 -229.133 -1461 85 73 46
-87.5923 -230.682 -1471 87 74 46
-85.2731 -232.389 -1482 90 75 46
-82.8549 -233.939 -1492 88 74 47
-274.184 -237.064 -1477 105 87 34
-269.658 -235.72 -1469 98 75 18
-264.26 -233.576 -1456 108 83 28
-259.277 -231.754 -1445 119 93 39
-254.696 -230.254 -1436 125 103 36
-250.856 -229.397 -1431 141 119 50
-247.385 -228.862 -1428 159 135 56
-243.586 -228.007 -1423 167 145 62
-239.979 -227.313 -1419 170 149 63
-236.057 -226.3 -1413 174 150 62
-232.821 -225.929 -1411 176 151 67
-229.106 -225.078 -1406 179 152 73
-226.058 -224.868 -1405 176 149 73
-222.697 -224.339 -1402 178 151 75
-219.508 -223.97 -1400 179 152 75
-216.484 -223.763 -1399 175 148 71
-213.465 -223.556 -1398 176 149 73
-210.453 -223.35 -1397 179 150 74
-207.297 -222.985 -1395 178 150 70
-204.298 -222.78 -1394 178 151 60
-201.16 -222.416 -1392 178 152 52
-197.748 -221.734 -1388 180 155 51
-194.774 -221.531 -1387 184 155 56
-191.945 -221.489 -1387 182 153 58
-189.117 -221.448 -1387 181 151 60
-186.022 -221.088 -1385 181 151 62
-182.937 -220.728 -1383 181 151 63
-179.992 -220.529 -1382 179 147 63
-176.924 -220.172 -1380 177 145 62
-173.992 -219.974 -1379 179 147 65
-171.065 -219.777 -1378 179 149 64
-168.389 -219.9 -1379 171 140 56
-165.709 -220.023 -1380 169 138 56
-162.555 -219.509 -1377 181 151 64
-159.53 -219.155 -1375 184 154 65
-156.742 -219.121 -1375 184 156 60
-153.732 -218.769 -1373 174 145 52
-150.841 -218.577 -1372 163 133 45
-148.495 -219.181 -1376 150 116 38
-146.241 -219.946 -1381 129 96 22
-143.863 -220.552 -1385 99 83 28
-141.47 -221.158 -1389 89 79 37
-139.062 -221.764 -1393 83 78 46
-136.443 -222.053 -1395 88 75 39
-133.818 -222.342 -1397 81 69 34
-131.185 -222.632 -1399 76 67 37
-128.638 -223.081 -1402 81 70 45
-126.169 -223.69 -1406 86 74 51
-123.597 -224.14 -1409 86 78 48
-121.357 -225.227 -1416 88 80 47
-119.006 -226.156 -1422 86 78 41
-116.713 -227.243 -1429 83 70 40
-114.155 -227.855 -1433 77 63 34
-111.503 -228.307 -1436 75 59 36
-108.916 -228.92 -1440 71 58 34
-106.093 -229.055 -1441 67 56 31
-103.41 -229.51 -1444 68 56 32
-100.646 -229.806 -1446 76 64 39
-97.8747 -230.102 -1448 80 68 41
-95.0308 -230.24 -1449 86 72 44
-92.5014 -231.173 -1455 89 75 46
-90.0104 -232.266 -1462 87 75 48
-87.6705 -233.835 -1472 88 75 46
-85.4064 -235.723 -1484 90 75 44
-82.9282 -237.134 -1493 86 73 45
-271.645 -237.829 -1463 92 73 14
-268.065 -237.281 -1460 79 56 10
-261.777 -234.297 -1442 117 92 43
-257.18 -232.778 -1433 119 93 46
-253.511 -232.071 -1429 116 91 34
-250.21 -231.69 -1427 121 97 36
-247.093 -231.473 -1426 135 111 35
-243.64 -230.932 -1423 150 127 45
-240.371 -230.553 -1421 161 139 55
-236.443 -229.527 -1415 172 148 61
-233.037 -228.988 -1412 176 151 67
-229.646 -228.451 -1409 180 152 74
-226.268 -227.914 -1406 178 149 74
-222.746 -227.216 -1402 181 152 77
-219.713 -227.005 -1401 178 151 73
-216.377 -226.471 -1398 174 147 70
-213.359 -226.261 -1397 175 148 71
-210.348 -226.053 -1396 176 146 69
-207.045 -225.521 -1393 179 150 70
-203.903 -225.152 -1391 180 152 64
-200.771 -224.783 -1389 177 150 56
-197.364 -224.092 -1385 176 150 52
-194.255 -223.725 -1383 179 151 54
-191.433 -223.683 -1383 180 151 57
-188.477 -223.479 -1382 180 149 58
-185.526 -223.277 -1381 178 148 59
-182.58 -223.074 -1380 181 152 63
-179.641 -222.873 -1379 179 147 63
-176.706 -222.672 -1378 177 146 63
-173.778 -222.472 -1377 179 148 66
-170.73 -222.111 -1375 175 147 59
-168.059 -222.235 -1376 164 135 49
-165.265 -222.199 -1376 166 139 56
-162.236 -221.84 -1374 181 152 65
-159.448 -221.805 -1374 181 151 62
-156.662 -221.77 -1374 180 150 59
-153.766 -221.575 -1373 163 134 48
-151.094 -221.702 -1374 149 122 42
-148.852 -222.476 -1379 128 104 36
-146.484 -223.089 -1383 106 84 18
-144.31 -224.025 -1389 91 80 33
-141.908 -224.639 -1393 91 81 43
-139.492 -225.253 -1397 83 76 45
-136.864 -225.545 -1399 77 65 32
-134.134 -225.677 -1400 77 65 33
-131.402 -225.809 -1401 76 67 37
-128.849 -226.264 -1404 80 69 43
-126.376 -226.881 -1408 86 74 50
-123.887 -227.498 -1412 85 76 46
-121.555 -228.438 -1418 88 78 47
-119.199 -229.378 -1424 84 74 40
-116.984 -230.641 -1432 79 66 37
-114.259 -230.938 -1434 76 63 35
-111.605 -231.396 -1437 74 59 37
-108.94 -231.855 -1440 72 59 35
-106.116 -231.993 -1441 70 58 35
-103.361 -232.292 -1443 73 62 39
-100.528 -232.43 -1444 76 65 41
-97.8283 -232.892 -1447 81 69 42
-95.1169 -233.354 -1450 87 73 45
-92.6486 -234.46 -1457 90 76 47
-89.9683 -235.083 -1461 88 75 48
-87.8682 -237.317 -1475 89 76 47
-85.54 -239.067 -1486 91 76 44
-83.0572 -240.497 -1495 86 73 45
-277.742 -243.539 -1479 152 137 76
-272.263 -241.337 -1466 94 76 12
-266.472 -238.807 -1451 75 52 10
-260.746 -236.28 -1436 139 115 61
-256.52 -235.07 -1429 156 130 74
-252.68 -234.19 -1424 136 110 46
-249.564 -233.969 -1423 127 102 35
-246.455 -233.749 -1422 115 91 10
-243.181 -233.365 -1420 120 96 13
-239.917 -232.982 -1418 136 112 28
-235.994 -231.943 -1412 156 132 46
-232.594 -231.398 -1409 171 145 62
-229.371 -231.018 -1407 178 149 73
-226.158 -230.638 -1405 175 146 71
-222.637 -229.931 -1401 177 149 74
-219.605 -229.718 -1400 175 150 72
-216.27 -229.177 -1397 174 148 70
-213.254 -228.965 -1396 177 150 71
-210.244 -228.753 -1395 179 149 69
-206.943 -228.215 -1392 179 149 69
-203.509 -227.513 -1388 177 149 66
-200.237 -226.976 -1385 176 149 60
-196.837 -226.276 -1381 175 148 56
-193.736 -225.905 -1379 176 149 55
-190.783 -225.698 -1378 176 148 55
-187.836 -225.492 -1377 176 145 54
-185.029 -225.451 -1377 172 144 53
-182.224 -225.41 -1377 174 147 57
-179.289 -225.206 -1376 176 147 61
-176.232 -224.839 -1374 175 146 62
-173.311 -224.637 -1373 173 145 62
-170.52 -224.598 -1373 166 139 51
-167.607 -224.397 -1372 156 130 43
-164.821 -224.36 -1372 166 142 58
-162.272 -224.651 -1374 177 149 62
-159.484 -224.615 -1374 174 144 56
-156.583 -224.416 -1373 169 141 57
-154.136 -224.872 -1376 148 122 43
-151.677 -225.328 -1379 125 102 32
-149.208 -225.785 -1382 101 86 28
-147.046 -226.733 -1388 89 75 20
-144.965 -227.844 -1395 83 75 37
-142.245 -227.975 -1396 84 75 42
-139.722 -228.434 -1399 83 74 44
-136.992 -228.566 -1400 79 68 38
-134.26 -228.699 -1401 77 66 36
-131.524 -228.833 -1402 79 70 40
-128.969 -229.294 -1405 87 76 48
-126.583 -230.082 -1410 91 79 52
-124.265 -231.033 -1416 90 76 45
-122.01 -232.148 -1423 88 74 43
-119.56 -232.937 -1428 83 69 38
-117.091 -233.726 -1433 76 64 36
-114.444 -234.19 -1436 72 60 33
-111.785 -234.654 -1439 69 57 34
-108.964 -234.793 -1440 68 56 34
-106.139 -234.932 -1441 68 56 35
-103.383 -235.235 -1443 71 62 38
-100.55 -235.375 -1444 76 66 42
-97.7822 -235.679 -1446 81 69 42
-94.9409 -235.821 -1447 86 73 45
-92.3509 -236.615 -1452 88 74 45
-89.9264 -237.899 -1460 87 73 46
-87.6492 -239.671 -1471 89 75 46
-85.4436 -241.77 -1484 90 75 44
-83.0754 -243.544 -1495 90 76 48
-278.932 -247.59 -1485 170 154 87
-271.396 -243.526 -1461 149 131 60
-264.696 -240.132 -1441 115 94 32
-260.442 -238.905 -1434 133 112 46
-255.86 -237.347 -1425 157 135 64
-251.672 -236.124 -1418 160 137 63
-248.568 -235.9 -1417 161 137 62
-245.471 -235.677 -1416 143 120 39
-242.037 -235.123 -1413 124 100 18
-238.955 -234.902 -1412 109 85 5
-235.212 -234.016 -1407 120 95 12
-232.316 -233.963 -1407 139 113 34
-228.933 -233.412 -1404 151 126 55
-225.726 -233.028 -1402 162 135 64
-222.528 -232.644 -1400 167 140 69
-219.655 -232.594 -1400 172 147 69
-216.473 -232.212 -1398 178 152 73
-213.455 -231.998 -1397 181 154 74
-209.99 -231.286 -1393 179 151 68
-206.692 -230.74 -1390 178 150 67
-203.408 -230.196 -1387 176 149 64
-199.993 -229.486 -1383 178 151 62
-196.739 -228.944 -1380 176 150 59
-193.639 -228.568 -1378 176 149 57
-190.549 -228.193 -1376 177 149 57
-187.469 -227.818 -1374 180 149 58
-184.399 -227.445 -1372 177 149 58
-181.47 -227.238 -1371 176 149 57
-178.548 -227.032 -1370 174 146 59
-175.759 -226.992 -1370 175 148 62
-172.971 -226.952 -1370 176 150 64
-170.185 -226.914 -1370 151 126 42
-167.401 -226.875 -1370 153 128 45
-164.738 -227.004 -1371 170 144 61
-162.072 -227.132 -1372 173 146 60
-159.519 -227.427 -1374 162 133 46
-156.96 -227.723 -1376 141 116 43
-154.618 -228.35 -1380 124 101 34
-152.041 -228.646 -1382 106 86 30
-149.782 -229.439 -1387 88 76 30
-147.397 -230.067 -1391 82 71 28
-145.101 -230.862 -1396 77 69 38
-142.379 -230.995 -1397 75 67 39
-139.753 -231.294 -1399 77 68 42
-136.925 -231.263 -1399 79 68 39
-134.194 -231.397 -1400 80 69 39
-131.554 -231.698 -1402 84 75 45
-128.998 -232.165 -1405 89 79 49
-126.611 -232.962 -1410 89 78 49
-124.293 -233.925 -1416 88 74 44
-122.123 -235.219 -1424 84 70 40
-119.671 -236.018 -1429 79 65 35
-117.199 -236.817 -1434 75 63 36
-114.469 -237.121 -1436 70 58 32
-111.732 -237.426 -1438 69 57 34
-108.988 -237.732 -1440 69 57 35
-106.163 -237.873 -1441 70 58 36
-103.406 -238.18 -1443 76 67 42
-100.642 -238.487 -1445 84 75 49
-97.8039 -238.63 -1446 89 78 49
-95.0277 -238.938 -1448 89 76 47
-92.6259 -240.237 -1456 88 74 45
-90.0696 -241.207 -1462 88 74 49
-87.7878 -243.002 -1473 92 77 51
-85.5202 -244.962 -1485 92 77 48
-82.9827 -246.263 -1493 88 74 48
-80.5209 -247.894 -1503 83 69 44
-277.869 -249.642 -1479 166 151 78
-272.759 -247.721 -1468 168 151 75
-266.226 -244.453 -1449 171 152 80
-261.228 -242.537 -1438 167 147 72
-255.739 -240.116 -1424 169 148 68
-251.908 -239.215 -1419 168 145 64
-248.275 -238.483 -1415 166 143 61
-244.833 -237.92 -1412 162 139 58
-241.407 -237.359 -1409 155 132 49
-237.995 -236.798 -1406 141 117 34
-234.597 -236.239 -1403 123 96 15
-231.378 -235.848 -1401 109 84 8
-228.333 -235.627 -1400 115 92 26
-225.133 -235.238 -1398 127 103 35
-222.261 -235.187 -1398 140 116 47
-219.391 -235.136 -1398 156 131 56
-216.213 -234.75 -1396 168 141 65
-213.198 -234.533 -1395 175 148 70
-210.038 -234.148 -1393 173 143 64
-206.888 -233.764 -1391 173 143 65
-203.307 -232.877 -1386 170 142 63
-199.894 -232.158 -1382 172 143 61
-196.641 -231.609 -1379 169 140 57
-193.402 -231.06 -1376 173 144 57
-190.177 -230.513 -1373 178 147 60
-187.102 -230.134 -1371 184 151 63
-184.037 -229.756 -1369 180 150 61
-181.247 -229.714 -1369 177 148 59
-178.458 -229.673 -1369 171 142 57
-175.799 -229.8 -1370 172 143 59
-173.01 -229.76 -1370 173 145 62
-170.224 -229.721 -1370 148 123 45
-167.439 -229.683 -1370 149 124 46
-164.895 -229.98 -1372 163 135 55
-162.227 -230.11 -1373 150 124 43
-159.788 -230.576 -1376 135 109 28
-157.452 -231.211 -1380 114 95 34
-154.989 -231.678 -1383 99 81 25
-152.626 -232.313 -1387 94 78 33
-150.248 -232.948 -1391 85 75 37
-147.642 -233.249 -1393 79 71 35
-145.134 -233.718 -1396 70 64 36
-142.411 -233.853 -1397 70 62 36
-139.785 -234.155 -1399 75 65 41
-136.956 -234.124 -1399 80 69 40
-134.224 -234.26 -1400 84 73 44
-131.583 -234.565 -1402 87 78 48
-129.119 -235.205 -1406 89 79 49
-126.819 -236.179 -1412 88 77 47
-124.497 -237.154 -1418 86 72 43
-122.236 -238.297 -1425 82 68 39
-119.698 -238.938 -1429 79 65 36
-117.307 -239.914 -1435 74 62 36
-114.575 -240.223 -1437 71 59 34
-111.913 -240.698 -1440 72 60 37
-109.012 -240.673 -1440 73 61 38
-106.187 -240.816 -1441 75 63 40
-103.358 -240.959 -1442 79 70 44
-100.595 -241.271 -1444 86 76 50
-97.6906 -241.248 -1444 88 77 47
-95.1147 -242.061 -1449 87 74 45
-92.5195 -242.876 -1454 85 71 43
-89.8434 -243.523 -1458 85 72 49
-87.5095 -245.173 -1468 90 75 51
-85.4242 -247.659 -1483 91 75 49
-82.9457 -249.142 -1492 86 72 49
-278.122 -252.867 -1480 152 137 66
-273.194 -251.094 -1470 159 142 66
-267.942 -248.981 -1458 160 141 67
-261.471 -245.675 -1439 166 146 69
-256.158 -243.395 -1426 173 153 69
-251.788 -241.971 -1418 178 156 68
-247.63 -240.718 -1411 178 156 68
-244.196 -240.149 -1408 177 154 71
-240.263 -239.069 -1402 175 151 66
-236.864 -238.502 -1399 178 154 66
-233.48 -237.936 -1396 163 136 55
-230.275 -237.541 -1394 132 107 31
-227.081 -237.147 -1392 102 82 21
-224.38 -237.265 -1393 96 74 10
-221.199 -236.872 -1391 104 82 17
-218.814 -237.332 -1394 124 99 27
-215.953 -237.281 -1394 132 105 33
-212.941 -237.061 -1393 140 111 38
-209.785 -236.672 -1391 149 116 46
-206.787 -236.453 -1390 156 123 53
-203.354 -235.725 -1386 156 124 54
-200.085 -235.168 -1383 158 125 51
-196.829 -234.612 -1380 158 125 48
-193.587 -234.057 -1377 171 140 57
-190.359 -233.502 -1374 181 148 65
-187.009 -232.779 -1370 181 147 61
-184.08 -232.566 -1369 173 142 55
-181.156 -232.354 -1368 171 140 54
-178.368 -232.313 -1368 168 137 55
-175.582 -232.272 -1368 166 136 55
-173.05 -232.571 -1370 157 128 47
-170.263 -232.531 -1370 132 106 32
-167.599 -232.662 -1371 146 120 47
-164.933 -232.793 -1372 149 120 47
-162.618 -233.434 -1376 133 108 36
-160.405 -234.245 -1381 116 93 21
-157.83 -234.547 -1383 93 81 31
-155.585 -235.359 -1388 84 72 26
-153.211 -236.002 -1392 80 69 33
-150.606 -236.306 -1394 74 68 36
-147.888 -236.441 -1395 70 65 34
-145.271 -236.746 -1397 67 62 35
-142.545 -236.882 -1398 71 63 37
-139.717 -236.85 -1398 76 64 39
-136.987 -236.987 -1399 83 71 44
-134.159 -236.956 -1399 87 76 48
-131.707 -237.603 -1403 88 79 49
-129.149 -238.081 -1406 91 81 51
-126.848 -239.068 -1412 90 79 49
-124.525 -240.054 -1418 86 72 43
-122.35 -241.38 -1426 79 65 36
-119.809 -242.03 -1430 78 64 35
-117.17 -242.51 -1433 72 59 33
-114.361 -242.653 -1434 70 58 33
-111.783 -243.304 -1438 73 61 38
-108.81 -243.109 -1437 76 64 41
-106.063 -243.423 -1439 80 68 45
-103.381 -243.906 -1442 82 73 47
-100.688 -244.39 -1445 85 76 50
-97.7805 -244.367 -1445 85 75 45
-95.202 -245.191 -1450 85 73 45
-92.7315 -246.353 -1457 84 72 44
-90.0487 -247.008 -1461 83 70 47
-87.6487 -248.51 -1470 86 72 49
-85.1555 -249.842 -1478 88 72 48
-82.909 -252.02 -1491 85 71 49
-80.611 -254.199 -1504 83 69 47
-277.247 -255.061 -1475 146 133 59
-273.444 -254.304 -1471 146 130 50
-267.086 -251.128 -1453 139 121 44
-261.896 -248.992 -1441 145 126 46
-256.577 -246.684 -1428 147 125 41
-252.558 -245.588 -1422 156 133 50
-248.039 -243.974 -1413 168 145 62
-243.907 -242.708 -1406 175 152 71
-240.319 -241.96 -1402 180 156 71
-236.581 -241.041 -1397 184 160 71
-232.866 -240.123 -1392 170 144 65
-229.503 -239.551 -1389 162 137 62
-226.645 -239.497 -1389 148 125 63
-223.788 -239.444 -1389 122 97 35
-220.774 -239.22 -1388 97 72 10
-218.237 -239.513 -1390 98 70 4
-215.539 -239.634 -1391 109 81 14
-212.532 -239.411 -1390 115 86 18
-209.23 -238.845 -1387 125 93 23
-206.388 -238.796 -1387 133 100 30
-203.108 -238.232 -1384 141 108 37
-199.842 -237.668 -1381 153 121 44
-196.732 -237.277 -1379 161 129 48
-193.351 -236.543 -1375 177 147 57
-190.127 -235.982 -1372 184 152 64
-186.779 -235.25 -1368 178 144 60
-183.854 -235.035 -1367 167 134 51
-180.933 -234.82 -1366 163 131 49
-178.149 -234.778 -1366 161 128 50
-175.495 -234.908 -1367 160 127 51
-172.964 -235.211 -1369 142 110 35
-170.302 -235.343 -1370 126 98 29
-167.76 -235.647 -1372 140 112 45
-165.212 -235.951 -1374 127 100 39
-163.011 -236.772 -1379 113 92 32
-160.791 -237.592 -1384 99 81 23
-158.438 -238.242 -1388 81 75 32
-155.846 -238.548 -1390 75 69 29
-153.467 -239.198 -1394 72 64 33
-150.749 -239.335 -1395 67 63 35
-148.028 -239.471 -1396 65 61 34
-145.409 -239.78 -1398 66 61 34
-142.578 -239.746 -1398 69 62 35
-139.749 -239.714 -1398 75 65 37
-136.921 -239.681 -1398 82 73 45
-134.286 -239.993 -1400 88 78 50
-131.738 -240.476 -1403 87 78 50
-129.178 -240.96 -1406 87 76 48
-126.878 -241.958 -1412 84 73 44
-124.729 -243.3 -1420 83 70 42
-122.378 -244.299 -1426 78 65 37
-119.836 -244.956 -1430 76 62 32
-117.279 -245.613 -1434 73 60 33
-114.388 -245.587 -1434 70 58 32
-111.731 -246.074 -1437 72 60 37
-108.759 -245.877 -1436 80 68 46
-106.014 -246.195 -1438 85 73 52
-103.333 -246.684 -1441 85 76 51
-100.642 -247.174 -1444 87 78 52
-97.9385 -247.664 -1447 85 76 47
-95.3554 -248.498 -1452 85 74 47
-92.7529 -249.331 -1457 85 73 46
-90.1928 -250.337 -1463 83 71 47
-87.6689 -251.514 -1470 86 73 48
-85.2328 -253.034 -1479 90 75 50
-82.9838 -255.238 -1492 87 74 51
-80.5759 -257.101 -1503 85 71 50
-280.377 -258.178 -1475 143 136 64
-274.869 -255.836 -1462 142 131 51
-270.534 -254.546 -1455 138 124 38
-266.23 -253.257 -1448 132 114 34
-260.504 -250.571 -1433 126 106 25
-256.638 -249.634 -1428 128 105 21
-251.908 -247.826 -1418 132 108 30
-248.274 -247.067 -1414 148 124 48
-244.138 -245.785 -1407 160 137 59
-240.548 -245.028 -1403 170 147 65
-236.807 -244.098 -1398 163 140 53
-233.088 -243.169 -1393 127 102 26
-229.558 -242.416 -1389 124 99 26
-226.372 -242.012 -1387 154 128 65
-223.358 -241.784 -1386 163 136 74
-220.508 -241.731 -1386 147 119 57
-217.975 -242.028 -1388 126 96 32
-215.125 -241.976 -1388 118 88 23
-212.124 -241.751 -1387 121 90 24
-208.827 -241.178 -1384 131 100 28
-205.991 -241.129 -1384 135 104 32
-202.863 -240.732 -1382 144 113 38
-199.6 -240.161 -1379 158 128 48
-196.636 -239.94 -1378 169 140 55
-193.397 -239.371 -1375 180 152 58
-190.033 -238.63 -1371 178 149 57
-186.687 -237.889 -1367 172 138 53
-183.762 -237.671 -1366 164 131 49
-180.844 -237.453 -1365 162 130 48
-178.322 -237.759 -1367 159 126 52
-175.536 -237.717 -1367 156 123 52
-173.005 -238.023 -1369 136 103 34
-170.467 -238.33 -1371 130 101 37
-168.167 -238.986 -1375 132 104 42
-165.852 -239.641 -1379 115 92 42
-163.64 -240.471 -1384 100 84 36
-161.294 -241.128 -1388 87 75 28
-158.818 -241.611 -1391 73 71 36
-156.219 -241.921 -1393 67 64 32
-153.503 -242.058 -1394 65 60 34
-150.784 -242.196 -1395 64 62 38
-147.957 -242.161 -1395 64 63 39
-145.339 -242.473 -1397 65 60 34
-142.51 -242.439 -1397 71 64 37
-139.782 -242.579 -1398 81 72 42
-137.051 -242.72 -1399 86 77 49
-134.413 -243.035 -1401 86 77 49
-131.956 -243.698 -1405 86 77 49
-129.484 -244.361 -1409 82 71 44
-127.177 -245.371 -1415 78 66 40
-124.847 -246.382 -1421 80 68 41
-122.493 -247.393 -1427 80 68 39
-119.781 -247.711 -1429 78 64 33
-117.143 -248.203 -1432 75 63 35
-114.335 -248.349 -1433 72 60 34
-111.523 -248.496 -1434 76 64 42
-108.709 -248.643 -1435 84 72 51
-105.965 -248.964 -1437 87 75 56
-103.286 -249.46 -1440 85 76 53
-100.665 -250.128 -1444 86 77 52
-98.029 -250.798 -1448 84 75 48
-95.5746 -251.988 -1455 84 73 46
-93.0292 -253.005 -1461 86 74 47
-90.2755 -253.503 -1464 85 73 48
-87.8086 -254.867 -1472 85 72 47
-85.2527 -256.058 -1479 90 76 49
-82.7805 -257.597 -1488 87 74 51
-80.2193 -258.963 -1496 84 72 49
-277.212 -258.22 -1458 147 140 64
-272.867 -256.914 -1451 148 137 54
-268.926 -255.963 -1446 152 139 50
-263.72 -253.774 -1434 145 127 48
-259.839 -252.826 -1429 139 120 40
-256.161 -252.056 -1425 145 122 40
-251.08 -249.872 -1413 149 126 53
-247.631 -249.281 -1410 141 117 47
-244.023 -248.515 -1406 134 110 35
-240.434 -247.749 -1402 143 119 42
-236.694 -246.808 -1397 141 118 36
-233.312 -246.221 -1394 117 92 19
-229.613 -245.282 -1389 102 76 5
-226.426 -244.874 -1387 127 99 33
-223.25 -244.467 -1385 151 122 59
-220.243 -244.237 -1384 164 134 73
-217.399 -244.184 -1384 164 134 69
-214.711 -244.308 -1385 158 128 61
-211.41 -243.728 -1382 161 129 59
-208.424 -243.501 -1381 166 138 61
-205.593 -243.451 -1381 167 140 62
-202.764 -243.402 -1381 164 137 55
-199.503 -242.825 -1378 170 144 58
-196.398 -242.425 -1376 179 153 63
-193.302 -242.026 -1374 178 155 58
-190.078 -241.451 -1371 171 146 52
-186.868 -240.877 -1368 168 134 49
-183.806 -240.481 -1366 160 128 46
-181.152 -240.613 -1367 158 127 46
-178.495 -240.746 -1368 157 124 55
-175.835 -240.879 -1369 155 123 56
-173.552 -241.541 -1373 139 107 44
-171.005 -241.852 -1375 129 100 42
-168.818 -242.69 -1380 123 95 40
-166.493 -243.354 -1384 99 82 42
-164.152 -244.017 -1388 85 73 36
-161.681 -244.506 -1391 73 66 32
-159.198 -244.995 -1394 64 64 37
-156.368 -244.957 -1394 61 61 36
-153.54 -244.92 -1394 62 60 40
-150.82 -245.059 -1395 61 60 40
-147.992 -245.023 -1395 63 62 42
-145.373 -245.34 -1397 69 63 40
-142.646 -245.481 -1398 77 70 45
-139.915 -245.623 -1399 84 75 47
-137.378 -246.116 -1402 88 79 51
-134.829 -246.61 -1405 85 76 48
-132.364 -247.281 -1409 83 74 47
-129.791 -247.776 -1412 79 68 43
-127.387 -248.622 -1417 77 65 42
-125.052 -249.645 -1423 80 68 41
-122.522 -250.317 -1427 81 69 40
-119.809 -250.639 -1429 79 65 34
-117.089 -250.962 -1431 75 63 36
-114.362 -251.285 -1433 77 65 40
-111.472 -251.258 -1433 84 72 51
-108.659 -251.407 -1434 88 76 55
-105.769 -251.382 -1434 87 75 56
-103.167 -252.058 -1438 85 75 54
-100.48 -252.56 -1441 84 75 52
-97.9167 -253.412 -1446 83 74 47
-95.4658 -254.616 -1453 84 73 46
-93.0513 -255.995 -1461 85 73 46
-90.3585 -256.674 -1465 86 74 49
-87.8294 -257.88 -1472 87 75 49
-85.2151 -258.91 -1478 88 76 49
-82.967 -261.167 -1491 85 73 48
-80.6137 -263.25 -1503 83 71 47
-276.709 -260.703 -1455 156 149 72
-271.241 -258.307 -1442 158 147 65
-266.201 -256.27 -1431 166 153 65
-263.049 -256.026 -1430 169 151 74
-258.266 -254.172 -1420 169 151 73
-254.785 -253.572 -1417 176 154 75
-250.786 -252.437 -1411 175 153 77
-247.516 -252.018 -1409 172 150 74
-243.562 -250.885 -1403 159 136 57
-240.15 -250.289 -1400 142 119 39
-236.413 -249.337 -1395 134 111 30
-233.034 -248.744 -1392 135 110 35
-229.173 -247.615 -1386 134 109 36
-226.481 -247.738 -1387 120 92 26
-223.465 -247.504 -1386 119 90 27
-220.455 -247.271 -1385 149 119 58
-217.451 -247.04 -1384 160 130 65
-214.918 -247.344 -1386 165 136 68
-211.461 -246.578 -1382 168 139 65
-208.475 -246.348 -1381 169 141 66
-205.643 -246.298 -1381 180 152 77
-202.813 -246.248 -1381 183 156 79
-199.696 -245.843 -1379 186 159 80
-196.588 -245.438 -1377 188 160 79
-193.771 -245.39 -1377 177 150 67
-190.402 -244.631 -1373 164 136 54
-187.186 -244.051 -1370 154 125 44
-184.12 -243.649 -1368 148 121 44
-181.46 -243.783 -1369 150 124 49
-178.538 -243.561 -1368 150 123 59
-176.134 -244.052 -1371 142 115 54
-173.846 -244.722 -1375 120 93 38
-171.544 -245.392 -1379 110 86 36
-169.471 -246.418 -1385 101 78 31
-166.894 -246.733 -1387 78 68 35
-164.428 -247.226 -1390 69 62 32
-161.952 -247.72 -1393 63 58 32
-159.236 -247.859 -1394 58 57 37
-156.406 -247.821 -1394 56 55 35
-153.576 -247.784 -1394 59 58 37
-150.857 -247.925 -1395 64 63 40
-147.922 -247.711 -1394 68 67 44
-145.408 -248.208 -1397 77 70 43
-142.782 -248.529 -1399 85 76 48
-140.149 -248.85 -1401 89 79 47
-137.509 -249.172 -1403 87 77 49
-135.149 -250.027 -1408 81 72 44
-132.583 -250.527 -1411 75 66 41
-130.006 -251.028 -1414 76 65 42
-127.597 -251.884 -1419 79 67 45
-125.082 -252.564 -1423 80 68 41
-122.465 -253.067 -1426 80 67 40
-119.754 -253.392 -1428 77 64 35
-116.953 -253.541 -1429 76 63 38
-114.23 -253.868 -1431 83 71 46
-111.421 -254.018 -1432 88 76 55
-108.609 -254.169 -1433 87 76 55
-105.868 -254.498 -1435 87 76 56
-103.263 -255.182 -1439 86 76 54
-100.643 -255.867 -1443 84 74 51
-98.1434 -256.907 -1449 82 73 46
-95.6859 -258.125 -1456 84 74 47
-93.1372 -259.166 -1462 86 75 48
-90.5651 -260.207 -1468 86 74 51
-87.7907 -260.717 -1471 88 76 52
-84.9472 -261.051 -1473 87 75 49
-82.653 -263.158 -1485 85 73 49
-80.5256 -265.973 -1501 87 75 51
-270.367 -260.389 -1437 171 159 81
-265.709 -258.692 -1428 170 156 71
-262.378 -258.264 -1426 176 159 82
-258.147 -256.932 -1419 183 165 89
-254.848 -256.506 -1417 185 164 87
-251.025 -255.538 -1412 180 159 80
-247.577 -254.933 -1409 180 159 78
-243.796 -253.968 -1404 181 158 75
-240.552 -253.546 -1402 171 148 65
-236.98 -252.764 -1398 157 133 51
-233.761 -252.344 -1396 137 112 35
-229.891 -251.202 -1390 136 111 35
-227.027 -251.146 -1390 137 110 43
-223.843 -250.729 -1388 121 93 30
-220.828 -250.493 -1387 117 88 28
-217.505 -249.897 -1384 132 104 42
-214.971 -250.205 -1386 155 128 63
-211.666 -249.611 -1383 162 137 66
-208.828 -249.559 -1383 162 135 67
-205.694 -249.147 -1381 176 150 82
-203.01 -249.277 -1382 184 157 89
-199.889 -248.867 -1380 182 155 87
-196.922 -248.637 -1379 173 145 77
-194.1 -248.589 -1379 154 126 59
-190.864 -248.001 -1376 143 116 49
-187.779 -247.594 -1374 136 113 44
-184.434 -246.828 -1370 130 110 45
-181.77 -246.963 -1371 129 110 46
-178.973 -246.919 -1371 126 106 53
-176.691 -247.595 -1375 118 98 46
-174.395 -248.272 -1379 100 81 32
-172.208 -249.13 -1384 89 72 30
-169.757 -249.628 -1387 79 63 23
-167.175 -249.946 -1389 63 59 33
-164.587 -250.266 -1391 59 57 33
-161.991 -250.586 -1393 56 55 34
-159.275 -250.726 -1394 59 58 42
-156.444 -250.687 -1394 62 61 43
-153.614 -250.65 -1394 64 64 38
-150.677 -250.432 -1393 73 71 45
-147.958 -250.576 -1394 78 75 49
-145.34 -250.899 -1396 84 77 45
-142.817 -251.403 -1399 87 79 46
-140.283 -251.908 -1402 91 80 47
-137.738 -252.413 -1405 87 78 49
-135.278 -253.098 -1409 82 73 45
-132.803 -253.783 -1413 73 64 40
-130.129 -254.111 -1415 75 64 42
-127.718 -254.977 -1420 81 69 48
-125.2 -255.664 -1424 80 68 41
-122.495 -255.993 -1426 79 67 40
-119.783 -256.323 -1428 77 65 38
-116.982 -256.473 -1429 79 67 42
-114.177 -256.625 -1430 86 74 51
-111.448 -256.956 -1432 89 77 56
-108.711 -257.288 -1434 87 76 55
-105.894 -257.441 -1435 86 76 55
-103.288 -258.133 -1439 87 78 54
-100.668 -258.826 -1443 87 78 54
-98.2349 -260.057 -1450 84 76 48
-95.6432 -260.93 -1455 86 78 50
-93.1597 -262.163 -1462 87 78 50
-90.3402 -262.499 -1464 86 74 53
-87.8716 -263.912 -1472 85 73 51
-85.1984 -264.787 -1477 82 70 47
-82.8399 -266.738 -1488 86 74 52
-80.3305 -268.332 -1497 84 72 51
-78.612 -272.794 -1522 84 74 54
-270.811 -263.736 -1439 172 161 85
-265.961 -261.836 -1429 173 159 80
-261.891 -260.67 -1423 174 157 78
-258.394 -260.056 -1420 172 155 76
-255.091 -259.625 -1418 173 152 72
-251.088 -258.463 -1412 174 153 73
-247.639 -257.851 -1409 175 154 75
-243.857 -256.875 -1404 176 153 69
-240.784 -256.631 -1403 175 152 67
-237.208 -255.84 -1399 170 148 62
-234.154 -255.598 -1398 156 131 49
-230.279 -254.443 -1392 130 105 24
-227.41 -254.386 -1392 127 101 33
-223.898 -253.598 -1388 128 101 39
-220.883 -253.36 -1387 122 94 37
-217.559 -252.757 -1384 108 84 30
-215.025 -253.068 -1386 108 86 31
-212.025 -252.832 -1385 124 104 48
-209.031 -252.597 -1384 140 119 62
-206.043 -252.363 -1383 149 127 70
-203.354 -252.495 -1384 154 131 75
-200.374 -252.262 -1383 152 127 74
-197.256 -251.848 -1381 142 115 64
-194.571 -251.981 -1382 126 101 52
-191.328 -251.386 -1379 121 98 49
-188.509 -251.339 -1379 112 96 47
-185.018 -250.381 -1374 110 98 50
-182.478 -250.7 -1376 109 98 50
-179.539 -250.473 -1375 104 93 52
-177.249 -251.157 -1379 94 83 42
-174.691 -251.478 -1381 79 70 30
-172.499 -252.345 -1386 69 61 27
-169.799 -252.484 -1387 63 56 24
-167.337 -252.989 -1390 59 60 40
-164.627 -253.129 -1391 61 62 43
-162.031 -253.453 -1393 58 58 41
-159.314 -253.595 -1394 61 60 45
-156.482 -253.556 -1394 69 68 50
-153.431 -253.154 -1392 78 75 44
-150.606 -253.116 -1392 81 77 46
-147.888 -253.261 -1393 84 79 47
-145.271 -253.588 -1395 87 79 45
-142.852 -254.28 -1399 86 78 45
-140.317 -254.79 -1402 85 77 43
-137.87 -255.482 -1406 83 74 46
-135.407 -256.175 -1410 76 67 41
-132.836 -256.687 -1413 71 62 38
-130.253 -257.2 -1416 72 61 39
-127.75 -257.894 -1420 77 65 44
-125.231 -258.59 -1424 80 68 43
-122.439 -258.74 -1425 80 68 43
-119.728 -259.074 -1427 80 68 41
-117.01 -259.408 -1429 81 69 45
-114.205 -259.561 -1430 85 73 50
-111.553 -260.077 -1433 88 76 55
-108.814 -260.413 -1435 87 76 55
-106.067 -260.749 -1437 87 77 56
-103.457 -261.449 -1441 86 77 53
-100.902 -262.331 -1446 86 77 53
-98.2589 -263.032 -1450 83 75 47
-95.6666 -263.916 -1455 83 75 48
-93.1825 -265.162 -1462 84 75 48
-90.3623 -265.502 -1464 82 70 49
-87.6543 -266.206 -1468 82 70 50
-84.9885 -267.091 -1473 82 72 53
-82.8602 -269.79 -1488 83 72 54
-80.3501 -271.402 -1497 83 72 54
-78.4762 -275.371 -1519 81 71 54
-271.821 -267.65 -1444 160 148 80
-266.959 -265.728 -1434 162 147 78
-263.062 -264.734 -1429 162 146 70
-259.551 -264.112 -1426 159 142 66
-255.695 -263.121 -1421 165 143 67
-251.507 -261.76 -1414 168 146 75
-247.701 -260.771 -1409 167 144 75
-243.744 -259.599 -1403 162 139 60
-240.501 -259.167 -1401 165 142 61
-237.268 -258.737 -1399 164 141 56
-234.38 -258.677 -1399 166 143 62
-230.667 -257.694 -1394 153 130 50
-227.467 -257.266 -1392 136 109 40
-224.277 -256.839 -1390 132 106 43
-221.098 -256.414 -1388 123 98 41
-217.613 -255.619 -1384 118 97 54
-214.768 -255.565 -1384 92 73 31
-211.925 -255.511 -1384 72 58 21
-209.083 -255.458 -1384 74 61 24
-206.243 -255.405 -1384 81 69 31
-203.552 -255.538 -1385 98 83 49
-200.714 -255.487 -1385 105 89 57
-197.734 -255.252 -1384 102 86 55
-195.042 -255.387 -1385 95 80 49
-192.07 -255.154 -1384 97 83 52
-188.966 -254.738 -1382 92 84 53
-185.738 -254.138 -1379 91 85 54
-182.922 -254.091 -1379 90 85 54
-179.976 -253.861 -1378 87 81 52
-177.679 -254.553 -1382 77 71 42
-175.114 -254.877 -1384 65 61 30
-172.667 -255.386 -1387 59 58 31
-169.841 -255.343 -1387 58 58 33
-167.258 -255.669 -1389 60 61 47
-164.55 -255.811 -1390 61 62 47
-161.839 -255.954 -1391 61 62 47
-159.125 -256.098 -1392 65 64 49
-156.409 -256.242 -1393 74 72 54
-153.469 -256.02 -1392 82 77 46
-150.752 -256.165 -1393 84 78 47
-147.925 -256.128 -1393 85 78 47
-145.516 -256.827 -1397 85 76 46
-142.989 -257.342 -1400 86 77 48
-140.452 -257.858 -1403 84 75 46
-138.002 -258.558 -1407 80 71 45
-135.441 -259.075 -1410 73 64 38
-132.869 -259.593 -1413 72 63 39
-130.194 -259.928 -1415 75 64 41
-127.691 -260.63 -1419 77 65 43
-125.086 -261.149 -1422 79 67 42
-122.384 -261.486 -1424 81 69 43
-119.674 -261.823 -1426 82 71 42
-116.876 -261.977 -1427 84 72 47
-114.154 -262.315 -1429 85 73 49
-111.581 -263.021 -1433 86 74 53
-108.841 -263.361 -1435 86 75 55
-106.167 -263.885 -1438 86 76 56
