ply
format ascii 1.0
comment Created by Open3D
element vertex 1391
property double x
property double y
property double z
property uchar red
property uchar green
property uchar blue
end_header
10.1571 263.581 -1555 132 133 143
13.3143 264.431 -1560 149 150 161
16.4072 263.926 -1557 153 154 164
19.4256 262.574 -1549 140 141 151
-238.846 260.315 -1542 131 135 147
-235.684 260.26 -1542 121 124 136
-229.664 260.49 -1544 94 98 109
-218.299 261.802 -1553 82 85 95
-215.821 262.594 -1558 79 83 92
-213.323 263.388 -1563 80 84 93
-209.732 262.834 -1560 87 91 100
-205.625 261.607 -1553 126 129 139
-202.982 262.234 -1557 184 187 197
-198.913 261.009 -1550 238 241 248
-195.506 260.627 -1548 248 251 255
-192.357 260.582 -1548 250 255 255
-189.821 261.38 -1553 250 254 255
-186.184 260.664 -1549 253 255 255
-182.329 259.612 -1543 248 251 253
-178.383 258.393 -1536 207 202 206
-174.353 257.007 -1528 194 109 128
-171.03 256.631 -1526 182 98 111
-167.056 255.247 -1518 208 124 131
-163.98 255.209 -1518 214 162 146
-160.481 254.499 -1514 228 179 162
-157.311 254.295 -1513 226 183 165
-153.638 253.251 -1507 227 183 164
-150.389 252.88 -1505 228 183 163
-147.15 252.51 -1503 226 183 163
-143.92 252.141 -1501 224 182 161
-140.699 251.773 -1499 221 181 158
-137.58 251.573 -1498 219 178 153
-134.016 250.534 -1492 216 174 149
-130.741 250 -1489 214 168 143
-127.394 249.3 -1485 207 162 136
-124.148 248.767 -1482 201 158 132
-121.16 248.739 -1482 200 154 127
-118.093 248.544 -1481 197 151 124
-115.187 248.685 -1482 191 145 117
-111.974 248.156 -1479 187 141 114
-109.07 248.299 -1480 189 142 114
-105.947 247.939 -1478 190 144 113
-102.903 247.747 -1477 191 145 114
-99.9317 247.724 -1477 191 146 114
-97.1579 248.205 -1480 197 151 122
-94.182 248.183 -1480 205 158 130
-91.3917 248.665 -1483 210 163 137
-88.5305 248.98 -1485 213 166 141
-85.6043 249.128 -1486 217 171 146
-82.786 249.612 -1489 223 176 151
-79.8492 249.761 -1490 228 181 156
-77.0122 250.246 -1493 232 187 162
-74.0151 250.229 -1493 234 190 165
-71.1136 250.547 -1495 237 194 168
-68.2047 250.867 -1497 234 195 168
-65.2449 251.019 -1498 233 195 168
-62.3646 251.507 -1501 238 195 169
-59.5124 252.164 -1505 239 195 169
-56.6445 252.821 -1509 240 195 169
-53.69 253.143 -1511 236 194 168
-50.728 253.467 -1513 232 190 165
-47.7899 253.958 -1516 227 185 161
-44.9286 254.953 -1522 219 174 150
-42.0988 256.283 -1530 204 157 133
-39.0331 256.274 -1530 190 126 116
-35.8737 255.595 -1526 163 89 85
-32.8382 255.755 -1527 160 68 76
-29.7209 255.245 -1524 160 66 78
-26.6859 255.406 -1525 169 72 86
-23.6315 255.401 -1525 192 89 110
-20.6718 256.568 -1532 209 141 157
-17.5924 256.396 -1531 216 184 196
-14.593 257.565 -1538 188 175 188
-11.5057 257.394 -1537 163 152 164
-8.47752 258.899 -1546 127 127 132
-5.37841 258.73 -1545 108 109 117
0.80665 258.059 -1541 94 95 108
3.89979 258.562 -1544 132 134 144
6.98215 258.229 -1542 204 206 211
10.0959 258.9 -1546 242 244 249
13.2429 259.908 -1552 250 252 255
16.3613 260.079 -1553 250 252 255
19.4086 259.245 -1548 245 247 253
22.5378 259.585 -1550 242 244 250
25.5594 258.753 -1545 239 240 247
-240.857 256.031 -1535 245 248 254
-238.327 256.644 -1539 244 247 254
-234.866 256.256 -1537 237 240 246
-231.114 255.536 -1533 226 229 235
-228.422 255.984 -1536 217 219 225
-225.718 256.432 -1539 212 215 221
-222.86 256.715 -1541 199 202 209
-220.281 257.331 -1545 184 186 193
-217.406 257.614 -1547 180 183 190
-215.079 258.564 -1553 178 181 187
-211.91 258.515 -1553 181 184 191
-209.012 258.8 -1555 203 206 211
-205.711 258.587 -1554 237 240 244
-202.936 259.04 -1557 250 253 255
-199.253 258.329 -1553 251 255 255
-196.219 258.45 -1554 250 254 255
-192.686 257.907 -1551 248 255 253
-189.9 258.363 -1554 250 255 254
-186.021 257.323 -1548 252 254 253
-182.405 256.616 -1544 248 251 250
-178.226 255.08 -1535 192 184 186
-174.2 253.711 -1527 183 90 109
-170.543 252.841 -1522 175 84 98
-166.908 251.972 -1517 200 111 121
-163.726 251.769 -1516 212 156 143
-160.55 251.566 -1515 227 173 159
-157.379 251.364 -1514 226 181 163
-153.806 250.499 -1509 230 183 164
-150.455 249.967 -1506 229 182 161
-147.116 249.435 -1503 225 182 162
-143.695 248.739 -1499 224 182 161
-140.48 248.375 -1497 221 181 158
-137.273 248.012 -1495 223 181 157
-133.986 247.484 -1492 223 181 156
-130.712 246.956 -1489 221 175 150
-127.537 246.595 -1487 214 169 144
-124.203 245.904 -1483 206 163 137
-121.132 245.71 -1482 201 155 128
-118.146 245.683 -1482 197 151 124
-115.238 245.823 -1483 194 148 121
-112.176 245.632 -1482 192 145 118
-109.193 245.607 -1482 191 144 117
-106.067 245.251 -1480 189 144 113
-103.019 245.062 -1479 190 145 113
-100.044 245.039 -1479 192 147 116
-97.1359 245.183 -1480 199 152 124
-94.1607 245.161 -1480 206 159 132
-91.371 245.637 -1483 212 165 140
-88.57 246.114 -1486 216 169 144
-85.6426 246.26 -1487 222 176 151
-82.7673 246.572 -1489 228 182 157
-79.8848 246.885 -1491 232 186 161
-76.9948 247.199 -1493 235 189 164
-73.9984 247.182 -1493 235 191 165
-71.0976 247.497 -1495 234 191 165
-68.1894 247.812 -1497 234 193 167
-65.3172 248.294 -1500 234 193 168
-62.3505 248.445 -1501 238 195 169
-59.4198 248.762 -1503 237 193 168
-56.4816 249.08 -1505 237 192 166
-53.5714 249.564 -1508 235 192 166
-50.616 249.884 -1510 233 191 165
-47.6215 250.038 -1511 223 186 161
-44.7119 250.69 -1515 217 169 144
-41.7867 251.342 -1519 199 146 120
-38.8203 251.829 -1522 184 118 106
-35.7716 251.821 -1522 158 86 80
-32.7663 252.144 -1524 153 69 74
-29.6947 251.972 -1523 157 68 78
-26.7148 252.627 -1527 167 76 87
-23.6417 252.456 -1526 191 85 105
-20.6537 253.278 -1531 228 160 175
-17.5655 252.943 -1529 251 235 244
-14.5517 253.767 -1534 253 248 253
-11.4807 253.764 -1534 248 242 249
-8.42616 254.258 -1537 233 235 237
-5.34245 253.926 -1535 215 217 222
-2.27251 254.256 -1537 173 175 181
0.802274 253.594 -1533 180 182 189
3.88359 254.422 -1538 224 226 233
6.98515 255.25 -1543 247 249 252
10.1198 256.41 -1550 251 253 255
13.2568 257.074 -1554 252 254 255
16.368 257.077 -1554 251 253 255
19.4668 256.916 -1553 249 251 254
22.5327 256.424 -1550 248 250 253
25.5204 255.272 -1543 249 251 253
28.4433 253.789 -1534 252 254 255
-305.823 252.854 -1527 83 86 100
-302.048 252.288 -1524 86 89 101
-299.269 252.551 -1526 123 126 137
-295.126 251.656 -1521 173 174 186
-291.774 251.424 -1520 197 198 207
-287.86 250.696 -1516 205 207 214
-284.339 250.301 -1514 190 192 200
-272.222 253.29 -1534 160 162 169
-267.827 252.073 -1527 187 189 195
-239.39 251.394 -1526 251 254 255
-236.725 251.834 -1529 251 254 255
-233.285 251.452 -1527 250 253 255
-230.007 251.235 -1526 242 245 250
-227.18 251.513 -1528 245 247 252
-224.788 252.285 -1533 251 253 255
-222.376 253.058 -1538 252 254 255
-220.089 253.995 -1544 251 253 255
-217.357 254.44 -1547 248 250 254
-215.03 255.378 -1553 244 246 252
-211.726 255.166 -1552 244 246 251
-208.831 255.448 -1554 248 250 252
-205.664 255.401 -1554 252 254 255
-202.89 255.848 -1557 252 254 255
-198.952 254.818 -1551 252 254 255
-192.394 254.401 -1549 248 255 251
-189.246 254.359 -1549 249 254 250
-185.259 253.168 -1542 252 255 251
-181.538 252.306 -1537 247 247 246
-177.838 251.445 -1532 172 160 161
-174.046 250.421 -1526 178 81 100
-170.28 249.398 -1520 165 71 87
-166.98 249.032 -1518 182 90 104
-163.797 248.831 -1517 202 135 128
-160.408 248.303 -1514 226 162 153
-157.344 248.268 -1514 225 175 159
-153.874 247.577 -1510 229 179 159
-150.421 246.887 -1506 230 180 157
-146.888 246.035 -1501 223 180 160
-143.663 245.674 -1499 223 181 160
-140.073 244.66 -1493 220 180 157
-137.059 244.629 -1493 221 179 155
-133.776 244.107 -1490 221 179 154
-130.419 243.423 -1486 223 177 152
-127.337 243.23 -1485 220 176 150
-124.092 242.711 -1482 216 173 147
-121.023 242.52 -1481 212 166 139
-118.04 242.493 -1481 205 159 132
-115.057 242.467 -1481 201 155 128
-112.075 242.442 -1481 198 152 125
-109.094 242.417 -1481 199 152 125
-106.043 242.23 -1480 198 152 123
-102.996 242.043 -1479 198 152 123
-100.022 242.021 -1479 202 156 127
-97.1799 242.326 -1481 207 161 133
-94.1396 242.141 -1480 214 167 140
-91.2275 242.284 -1481 221 174 149
-88.4312 242.755 -1484 225 178 153
-85.5659 243.063 -1486 228 182 157
-82.7489 243.535 -1489 231 185 160
-79.867 243.844 -1491 233 187 162
-77.0292 244.317 -1494 234 188 163
-74.0314 244.3 -1494 235 190 165
-71.1293 244.611 -1496 233 190 164
-68.1287 244.596 -1496 234 191 166
-65.2591 245.072 -1499 232 188 164
-62.2951 245.221 -1500 234 190 166
-59.5252 246.188 -1506 235 192 167
-56.5441 246.339 -1507 234 191 165
-53.6304 246.817 -1510 234 191 163
-50.6718 247.133 -1512 230 188 160
-47.674 247.285 -1513 217 180 152
-44.6135 247.111 -1512 213 159 135
-41.5849 247.102 -1512 194 131 109
-38.5567 247.093 -1512 171 92 87
-35.5522 247.248 -1513 154 72 71
-32.6085 247.894 -1517 157 69 76
-29.6102 248.214 -1519 158 67 77
-26.6739 249.189 -1525 166 74 85
-23.6055 249.02 -1524 186 98 114
-20.6087 249.668 -1528 238 186 197
-17.5156 249.174 -1525 251 245 249
-14.539 250.478 -1533 253 251 255
-11.4631 250.311 -1532 254 254 255
-8.4134 250.799 -1535 253 254 255
-5.34113 250.798 -1535 254 255 255
-2.27204 251.124 -1537 254 255 255
0.802611 250.633 -1534 254 255 255
3.88022 251.124 -1537 254 255 255
6.95648 251.125 -1537 253 254 255
10.0718 252.108 -1543 252 253 255
13.1858 252.6 -1546 252 253 255
16.2906 252.767 -1547 252 253 255
19.3998 252.934 -1548 251 253 255
22.4695 252.612 -1546 251 252 254
25.4651 251.637 -1540 251 252 254
28.4926 251.153 -1537 252 253 254
-310.485 248.531 -1519 85 87 97
-306.306 247.643 -1514 82 84 95
-303.151 247.575 -1514 102 105 116
-300.395 247.834 -1516 175 177 186
-297.241 247.767 -1516 235 238 243
-293.896 247.537 -1515 249 251 253
-290.749 247.472 -1515 251 253 255
-287.225 247.081 -1513 251 253 255
-283.524 246.527 -1510 251 253 254
-276.901 246.075 -1508 251 253 253
-274.144 246.34 -1510 251 253 253
-269.322 247.523 -1518 249 251 252
-265.838 247.137 -1516 252 254 254
-239.807 248.748 -1529 251 255 255
-236.827 248.857 -1530 251 255 255
-233.692 248.805 -1530 243 247 250
-230.558 248.754 -1530 229 231 238
-227.13 248.378 -1528 237 239 245
-224.884 249.303 -1534 249 251 254
-222.327 249.903 -1538 253 254 255
-220.182 250.992 -1545 252 253 255
-217.309 251.268 -1547 245 246 252
-214.844 252.032 -1552 237 239 245
-211.679 251.985 -1552 237 239 244
-208.65 252.101 -1553 244 246 247
-205.486 252.055 -1553 250 252 253
-202.845 252.659 -1557 252 253 254
-198.907 251.641 -1551 253 254 255
-192.351 251.23 -1549 249 254 251
-188.838 250.702 -1546 250 254 251
-184.737 249.363 -1538 253 255 252
-181.143 248.674 -1534 246 245 243
-176.986 247.176 -1525 160 145 146
-173.324 246.327 -1520 170 74 91
-169.683 245.479 -1515 152 58 75
-166.503 245.28 -1514 155 62 79
-163.437 245.244 -1514 174 98 97
-160.479 245.37 -1515 214 144 140
-157.517 245.497 -1516 223 170 156
-154.247 245.139 -1514 224 176 156
-150.887 244.619 -1511 226 179 156
-147.247 243.615 -1505 223 180 160
-143.727 242.774 -1500 222 180 159
-140.23 241.934 -1495 221 179 156
-137.12 241.741 -1494 220 177 154
-133.836 241.226 -1491 219 176 153
-130.566 240.712 -1488 221 175 151
-127.48 240.522 -1487 219 173 149
-124.316 240.171 -1485 217 172 148
-121.16 239.82 -1483 216 170 144
-118.253 239.956 -1484 212 166 141
-115.265 239.93 -1484 212 166 141
-112.126 239.582 -1482 213 166 140
-109.218 239.719 -1483 214 167 140
-106.163 239.534 -1482 214 167 138
-102.974 239.026 -1479 213 166 138
-100.068 239.166 -1480 215 168 140
-97.1585 239.306 -1481 218 171 145
-94.1826 239.285 -1481 222 175 149
-91.2689 239.426 -1482 224 177 152
-88.4117 239.729 -1484 225 178 153
-85.6622 240.356 -1488 226 179 153
-82.7307 240.499 -1489 230 183 158
-79.8494 240.805 -1491 232 185 160
-77.0122 241.272 -1494 231 186 161
-74.0647 241.417 -1495 233 189 163
-71.1136 241.563 -1496 233 190 163
-68.1137 241.547 -1496 233 189 166
-65.2013 241.856 -1498 234 190 167
-62.2399 242.003 -1499 233 190 167
-59.4331 242.797 -1504 232 190 166
-56.4566 242.946 -1505 231 189 163
-53.5477 243.418 -1508 231 187 159
-50.5601 243.568 -1509 224 181 152
-47.5375 243.557 -1509 212 168 140
-44.3677 242.74 -1504 206 143 123
-41.3558 242.731 -1504 178 106 90
-38.3698 242.884 -1505 161 72 75
-35.4269 243.36 -1508 160 68 74
-32.5369 244.321 -1514 162 66 78
-29.5646 244.798 -1517 162 67 80
-26.6331 245.76 -1523 167 74 86
-23.6158 246.077 -1525 195 131 143
-20.6042 246.557 -1528 252 221 228
-17.5118 246.068 -1525 254 251 253
-14.5264 247.194 -1532 249 254 255
-11.4532 247.03 -1531 249 253 254
-8.42259 247.996 -1537 254 254 254
-5.32957 247.188 -1532 254 254 254
-2.26418 247.187 -1532 254 254 255
0.800335 246.864 -1530 254 254 255
3.87433 247.672 -1535 254 254 254
6.93217 247.189 -1532 253 253 253
10.0566 248.643 -1541 253 253 253
13.1742 249.291 -1545 253 253 253
16.2766 249.455 -1546 253 253 253
19.3829 249.621 -1547 253 253 253
22.4355 249.141 -1544 253 253 253
25.476 248.662 -1541 253 253 253
28.3752 247.054 -1531 253 253 253
-320.776 246.251 -1523 84 87 98
-315.716 244.726 -1514 83 86 97
-311.108 243.525 -1507 94 96 107
-308.168 243.617 -1508 98 99 109
-304.619 243.226 -1506 134 135 145
-302.282 243.805 -1510 210 211 220
-299.337 243.9 -1511 253 255 255
-296.391 243.995 -1512 251 253 255
-293.055 243.769 -1511 251 253 255
-290.492 244.188 -1514 251 253 255
-286.592 243.479 -1510 251 253 255
-268.198 243.434 -1512 252 254 254
-264.727 243.053 -1510 251 253 255
-255.56 243.043 -1511 250 252 254
-253.786 244.273 -1519 251 253 255
-250.992 244.539 -1521 250 253 254
-248.681 245.288 -1526 248 252 253
-245.868 245.555 -1528 249 253 252
-242.891 245.663 -1529 249 253 253
-239.284 245.128 -1526 250 254 254
-236.001 244.915 -1525 249 253 254
-232.571 244.542 -1523 238 241 243
-229.754 244.813 -1525 228 230 236
-226.931 245.084 -1527 240 242 247
-224.102 245.355 -1529 252 254 255
-221.555 245.948 -1533 254 254 255
-219.564 247.184 -1541 254 254 255
-216.84 247.617 -1544 252 252 255
-214.382 248.372 -1549 246 247 251
-211.36 248.486 -1550 244 246 250
-208.604 248.921 -1553 247 249 250
-205.309 248.715 -1552 252 253 253
-202.019 248.51 -1551 252 252 252
-198.607 248.146 -1549 253 253 253
-195.079 247.623 -1546 253 253 253
-191.316 246.78 -1541 249 251 251
-187.575 245.938 -1536 251 253 253
-183.976 245.257 -1532 253 255 255
-180.513 244.737 -1529 247 244 243
-176.715 243.738 -1523 161 144 146
-172.716 242.42 -1515 162 72 87
-169.422 242.063 -1513 152 62 78
-166.247 241.866 -1512 147 55 73
-163.078 241.67 -1511 153 70 75
-160.126 241.795 -1512 189 113 114
-157.067 241.761 -1512 209 152 143
-153.908 241.567 -1511 218 169 152
-150.555 241.054 -1508 218 173 153
-146.921 240.063 -1502 224 179 159
-143.6 239.552 -1499 221 177 157
-140.105 238.722 -1494 220 178 155
-136.999 238.532 -1493 220 177 155
-133.718 238.024 -1490 218 175 153
-130.537 237.676 -1488 218 173 149
-127.452 237.488 -1487 216 170 146
-124.288 237.141 -1485 216 170 146
-121.215 236.955 -1484 213 167 143
-118.227 236.929 -1484 210 164 139
-115.084 236.585 -1482 210 164 139
-112.026 236.4 -1481 208 162 136
-109.047 236.376 -1481 209 162 135
-106.068 236.353 -1481 211 164 135
-103.021 236.171 -1480 212 165 137
-100.113 236.309 -1481 214 167 140
-97.2685 236.606 -1483 215 168 143
-94.2892 236.586 -1483 217 170 145
-91.3723 236.725 -1484 219 172 147
-88.5116 237.025 -1486 221 174 148
-85.7587 237.644 -1490 225 178 151
-82.7683 237.626 -1490 229 182 157
-79.9392 238.086 -1493 232 185 160
-77.0471 238.388 -1495 231 188 162
-74.0981 238.532 -1496 231 188 161
-71.0982 238.516 -1496 231 188 160
-68.0533 238.341 -1495 229 185 162
-65.1871 238.805 -1498 231 187 165
-62.2263 238.951 -1499 230 188 165
-59.3807 239.575 -1503 226 185 160
-56.4069 239.722 -1504 222 182 156
-53.5361 240.348 -1508 226 180 151
-50.4487 240.018 -1506 221 173 145
-47.3382 239.529 -1503 214 160 133
-44.2695 239.201 -1501 192 119 106
-41.1544 238.554 -1497 160 78 71
-38.183 238.705 -1498 162 64 77
-35.2548 239.175 -1501 166 66 80
-32.358 239.965 -1506 167 64 80
-29.4219 240.595 -1510 168 68 83
-26.5224 241.705 -1517 177 80 94
-23.5178 242.018 -1519 222 187 194
-20.5592 242.969 -1525 255 245 249
-17.4621 242.328 -1521 252 251 253
-14.4758 243.28 -1527 247 255 255
-11.4432 243.755 -1530 247 254 254
-8.40421 244.39 -1534 253 253 253
-5.32499 243.911 -1531 253 253 253
-2.26667 244.388 -1534 253 253 253
0.800154 243.751 -1530 253 253 253
3.86341 243.911 -1531 252 253 253
6.93071 244.071 -1532 251 253 253
10.0088 244.392 -1534 253 253 252
13.1118 245.031 -1538 253 253 252
16.2204 245.513 -1541 253 253 252
19.3037 245.516 -1541 253 253 252
22.3579 245.202 -1539 253 253 253
28.369 243.939 -1531 253 253 253
31.3097 242.989 -1525 252 252 252
34.4071 243.315 -1527 253 253 252
-329.837 243.001 -1521 80 83 96
-325.791 242.29 -1517 95 98 106
-321.551 241.421 -1512 123 125 134
-317.968 241.031 -1510 142 142 152
-314.395 240.643 -1508 153 154 163
-310.627 240.095 -1505 177 177 185
-307.487 240.028 -1505 214 216 222
-304.754 240.28 -1507 239 241 247
-302.216 240.691 -1510 250 252 255
-299.272 240.785 -1511 252 253 255
-295.934 240.561 -1510 252 253 255
-292.99 240.656 -1511 252 253 255
-290.045 240.751 -1512 253 253 255
-286.339 240.211 -1509 252 253 255
-279.158 239.292 -1504 252 252 255
-267.076 239.372 -1506 250 251 252
-260.862 239.257 -1506 250 252 253
-257.93 239.36 -1507 250 252 255
-255.673 240.098 -1512 250 252 255
-253.397 240.837 -1517 249 251 254
-250.937 241.417 -1521 249 252 255
-247.975 241.521 -1522 249 253 255
-244.849 241.468 -1522 251 254 255
-242.52 242.208 -1527 250 254 255
-238.604 241.363 -1522 249 253 255
-235.949 241.788 -1525 243 247 251
-232.368 241.261 -1522 232 236 240
-229.403 241.37 -1523 231 233 237
-226.585 241.638 -1525 241 243 246
-224.053 242.223 -1529 252 253 254
-221.362 242.65 -1532 251 251 252
-218.946 243.394 -1537 252 252 253
-216.371 243.981 -1541 253 253 254
-213.782 244.567 -1545 254 254 255
-210.905 244.838 -1547 253 253 255
-207.619 244.635 -1546 253 254 254
-204.603 244.749 -1547 253 253 253
-201.194 244.388 -1545 253 253 253
-197.923 244.187 -1544 254 253 253
-194.027 243.196 -1538 253 251 252
-190.654 242.839 -1536 253 252 255
-187.046 242.166 -1532 254 253 255
-183.336 241.336 -1527 254 254 255
-179.176 239.874 -1518 248 244 245
-175.865 239.52 -1516 175 160 163
-172.108 238.535 -1510 149 78 91
-168.713 238.024 -1507 141 61 75
-165.661 237.989 -1507 142 55 70
-162.611 237.953 -1507 140 56 63
-159.562 237.919 -1507 157 77 81
-156.618 238.043 -1508 181 115 111
-153.569 238.009 -1508 202 149 136
-150.123 237.346 -1504 218 170 154
-146.791 236.84 -1501 223 176 158
-143.569 236.494 -1499 221 176 156
-140.262 235.99 -1496 218 176 153
-137.061 235.645 -1494 216 174 151
-133.689 234.985 -1490 215 173 150
-130.597 234.799 -1489 215 171 147
-127.425 234.456 -1487 215 170 146
-124.262 234.114 -1485 215 169 145
-121.189 233.93 -1484 211 165 140
-118.202 233.904 -1484 210 164 139
-115.137 233.722 -1483 211 165 140
-112.002 233.382 -1481 210 163 137
-109.097 233.516 -1482 211 164 137
-106.117 233.493 -1482 208 161 134
-103.138 233.471 -1482 212 165 137
-100.16 233.449 -1482 214 167 140
-97.3132 233.743 -1484 215 166 142
-94.269 233.565 -1483 218 169 146
-91.3526 233.703 -1484 221 174 149
-88.4925 233.999 -1486 225 178 152
-85.6828 234.453 -1489 227 180 153
-82.695 234.435 -1489 230 183 158
-79.8685 234.89 -1492 232 185 160
-76.9791 235.188 -1494 229 186 160
-74.0327 235.329 -1495 228 185 158
-71.0829 235.471 -1496 226 183 155
-68.0842 235.456 -1496 224 182 155
-65.1732 235.757 -1498 226 184 158
-62.1716 235.743 -1498 225 180 155
-59.2099 235.888 -1499 224 177 152
-56.1698 235.718 -1498 221 172 147
-53.2052 235.864 -1499 226 168 147
-50.1364 235.538 -1497 215 155 134
-47.1391 235.528 -1497 185 116 99
-44.0242 234.889 -1493 159 79 74
-41.0356 234.88 -1493 149 63 64
-38.0983 235.186 -1495 158 64 77
-35.1299 235.336 -1496 162 67 81
-32.2866 236.429 -1503 167 69 85
-29.3766 237.209 -1508 164 70 87
-26.4643 238.147 -1514 212 122 138
-23.4972 238.771 -1518 243 226 231
-20.5144 239.396 -1522 253 250 254
-17.4698 239.392 -1522 252 253 255
-14.4633 240.017 -1526 250 255 254
-11.381 239.386 -1522 250 254 254
-8.35318 239.855 -1525 252 252 252
-5.30998 240.168 -1527 253 253 253
-2.26031 240.639 -1530 254 253 253
0.79893 240.325 -1528 253 253 253
3.86008 240.64 -1530 252 253 253
6.92021 240.641 -1530 250 252 252
10.0065 241.272 -1534 252 253 251
13.0833 241.432 -1535 253 253 251
16.1644 241.592 -1536 253 253 252
19.2744 242.068 -1539 253 253 252
22.295 241.443 -1535 253 253 253
25.2667 240.504 -1529 253 253 253
28.2703 240.038 -1526 253 253 252
31.2619 239.573 -1523 253 253 251
34.197 238.793 -1518 253 253 251
37.2347 238.801 -1518 253 253 251
93.2643 242.356 -1539 0 0 0
-332.078 239.3 -1517 88 91 103
-329.982 240.017 -1522 101 103 114
-325.72 239.158 -1517 185 186 192
-321.694 238.457 -1513 234 233 238
-317.898 237.915 -1510 246 245 249
-314.952 238.004 -1511 243 242 250
-311.178 237.464 -1508 252 252 255
-308.033 237.397 -1508 250 252 255
-304.89 237.331 -1508 249 251 254
-301.95 237.423 -1509 249 250 254
-298.811 237.358 -1509 251 251 253
-295.869 237.451 -1510 252 252 254
-292.345 237.073 -1508 249 249 250
-289.599 237.325 -1510 251 251 253
-285.518 236.477 -1505 250 250 252
-282.399 236.416 -1505 248 248 250
-279.283 236.355 -1505 248 248 250
-276.352 236.453 -1506 249 249 251
-273.057 236.237 -1505 248 248 250
-269.948 236.178 -1505 247 247 250
-267.018 236.278 -1506 245 245 249
-263.56 235.907 -1504 242 243 247
-260.46 235.851 -1504 244 246 249
-257.704 236.109 -1506 244 246 251
-255.28 236.681 -1510 243 245 250
-252.34 236.783 -1511 242 244 249
-250.223 237.67 -1517 245 248 254
-247.433 237.93 -1519 246 249 255
-244.636 238.19 -1521 247 250 255
-241.356 237.982 -1520 244 247 253
-238.553 238.244 -1522 241 244 250
-234.97 237.723 -1519 235 238 245
-232.165 237.987 -1521 234 237 243
-229.053 237.937 -1521 236 238 242
-226.09 238.045 -1522 245 246 248
-223.272 238.31 -1524 254 254 254
-221.315 239.514 -1532 254 253 253
-217.902 239.154 -1530 254 253 253
-215.483 239.889 -1535 252 252 252
-213.182 240.781 -1541 254 254 254
-209.905 240.58 -1540 253 253 254
-206.769 240.536 -1540 254 254 255
-203.898 240.804 -1542 253 253 254
-200.63 240.605 -1541 253 253 253
-196.728 239.626 -1535 255 253 253
-193.103 238.961 -1531 254 252 252
-189.869 238.764 -1530 253 250 255
-185.908 237.632 -1523 254 252 255
-182.817 237.592 -1523 255 253 255
-179.019 236.618 -1517 251 248 251
-175.712 236.269 -1515 198 186 190
-172.072 235.452 -1510 149 98 109
-168.565 234.792 -1506 135 63 74
-165.406 234.601 -1505 144 59 71
-162.468 234.722 -1506 141 55 64
-159.316 234.532 -1505 140 56 63
-156.169 234.343 -1504 151 75 77
-153.129 234.31 -1504 172 108 102
-149.891 233.967 -1502 203 145 135
-146.467 233.312 -1498 214 162 146
-143.443 233.282 -1498 220 171 152
-140.233 232.94 -1496 218 174 152
-137.123 232.755 -1495 214 173 150
-133.929 232.415 -1493 214 174 151
-130.745 232.076 -1491 215 173 148
-127.655 231.893 -1490 216 172 148
-124.486 231.555 -1488 217 171 147
-121.327 231.218 -1486 214 167 142
-118.256 231.037 -1485 211 164 139
-115.113 230.702 -1483 212 165 141
-112.054 230.522 -1482 212 165 140
-109.074 230.499 -1482 211 164 138
-106.166 230.632 -1483 212 165 137
-103.185 230.61 -1483 213 166 138
-100.273 230.744 -1484 214 167 140
-97.3582 230.878 -1485 216 167 143
-94.249 230.547 -1483 220 170 147
-91.3948 230.838 -1485 222 174 150
-88.4143 230.82 -1485 226 177 153
-85.6071 231.268 -1488 227 180 153
-82.6774 231.405 -1489 229 182 157
-79.7445 231.544 -1490 230 183 158
-76.9112 231.993 -1493 226 182 157
-74.017 232.288 -1495 225 181 155
-71.1154 232.584 -1497 224 181 153
-68.0243 232.258 -1495 222 180 148
-65.1159 232.555 -1497 222 181 148
-61.9924 232.076 -1494 220 172 142
-59 232.063 -1494 223 169 143
-55.933 231.74 -1492 220 160 139
-52.91 231.573 -1491 206 134 122
-49.9249 231.563 -1491 171 97 87
-46.9088 231.397 -1490 149 69 63
-43.897 231.232 -1489 146 61 63
-40.8896 231.068 -1488 149 61 67
-37.9374 231.215 -1489 152 60 72
-35.0286 231.673 -1492 160 67 80
-32.1079 232.132 -1495 163 68 84
-29.2341 233.057 -1501 178 99 116
-26.3539 234.138 -1508 253 184 202
-23.4304 235.065 -1514 248 244 248
-20.4292 235.371 -1516 254 253 255
-17.4087 235.522 -1517 252 253 255
-14.375 235.519 -1517 252 253 250
-11.3413 235.516 -1517 252 253 251
-8.3241 235.98 -1520 252 252 252
-5.29848 236.599 -1524 254 252 253
-2.25542 237.064 -1527 255 252 253
0.798754 237.219 -1528 253 253 253
3.85423 237.22 -1528 252 253 253
6.91426 237.376 -1529 250 252 252
9.97834 237.533 -1530 252 253 251
13.055 237.846 -1532 253 253 251
16.1188 237.849 -1532 253 253 253
19.1451 237.387 -1529 253 253 253
22.174 237.081 -1527 253 253 253
25.1954 236.775 -1525 253 253 253
28.1902 236.315 -1522 253 253 253
31.1938 236.011 -1520 253 253 251
34.2121 235.863 -1519 252 252 250
37.2024 235.56 -1517 253 253 251
40.2908 235.878 -1519 253 253 253
92.3963 237.048 -1525 196 197 201
95.5828 237.379 -1527 143 145 151
-341.564 236.385 -1517 86 91 106
-341.275 238.337 -1530 88 93 108
-336.957 237.485 -1525 104 108 121
-332.882 236.791 -1521 147 147 157
-330.127 237.031 -1523 203 203 212
-326.079 236.338 -1519 248 246 250
-322.05 235.647 -1515 253 251 255
-318.251 235.112 -1512 254 252 255
-314.884 234.889 -1511 253 252 255
-311.112 234.356 -1508 251 251 255
-307.763 234.134 -1507 250 252 254
-304.623 234.069 -1507 249 250 252
-301.685 234.16 -1508 250 251 253
-298.549 234.096 -1508 251 251 253
-295.61 234.188 -1509 251 251 253
-292.089 233.815 -1507 251 251 251
-289.345 234.063 -1509 249 249 251
-285.647 233.537 -1506 249 249 251
-282.339 233.322 -1505 249 249 251
-279.038 233.107 -1504 249 249 251
-275.743 232.893 -1503 247 247 249
-272.455 232.68 -1502 244 244 246
-269.352 232.623 -1502 243 243 246
-266.252 232.566 -1502 241 240 247
-262.628 232.046 -1499 239 241 247
-260.231 232.61 -1503 238 240 246
-257.307 232.709 -1504 236 238 244
-254.887 233.274 -1508 236 238 244
-252.453 233.839 -1512 236 238 244
-249.511 233.941 -1513 238 239 250
-246.403 233.888 -1513 236 238 249
-243.78 234.3 -1516 236 239 248
-240.988 234.558 -1518 236 239 248
-238.189 234.817 -1520 234 237 246
-234.766 234.458 -1518 229 232 241
-231.963 234.718 -1520 236 238 246
-229.004 234.824 -1521 239 241 243
-226.191 235.085 -1523 247 248 249
-223.079 235.037 -1523 253 253 253
-220.69 235.762 -1528 253 251 251
-217.856 236.025 -1530 254 252 253
-214.876 236.133 -1531 253 253 253
-211.478 235.78 -1529 254 253 255
-209.316 236.815 -1536 254 251 254
-206.322 236.926 -1537 253 253 255
-202.797 236.42 -1534 254 254 255
-199.547 236.224 -1533 254 254 255
-196.302 236.029 -1532 254 254 252
-193.062 235.834 -1531 253 252 251
-189.456 235.178 -1527 255 253 255
-185.746 234.368 -1522 255 252 255
-182.298 233.868 -1519 255 253 255
-178.982 233.522 -1517 255 252 255
-175.211 232.562 -1511 226 217 223
-171.58 231.756 -1506 173 143 152
-168.306 231.412 -1504 141 77 86
-165.042 231.07 -1502 142 58 68
-161.895 230.882 -1501 139 52 62
-158.648 230.541 -1499 137 50 60
-155.617 230.508 -1499 140 51 60
-152.486 230.322 -1498 142 65 65
-149.361 230.137 -1497 167 94 91
-146.241 229.952 -1496 187 129 115
-143.126 229.768 -1495 207 153 136
-140.203 229.893 -1496 214 167 146
-137.003 229.556 -1494 209 169 146
-134.081 229.682 -1495 211 172 149
-130.98 229.5 -1494 212 172 147
-127.714 229.013 -1491 212 169 144
-124.46 228.526 -1488 214 167 142
-121.383 228.347 -1487 214 167 142
-118.231 228.014 -1485 212 164 140
-115.166 227.837 -1484 212 164 141
-112.182 227.813 -1484 214 166 142
-109.272 227.944 -1485 214 167 142
-106.287 227.921 -1485 212 166 137
-103.442 228.206 -1487 215 168 140
-100.388 228.032 -1486 217 170 143
-97.4033 228.011 -1486 219 170 146
-94.3563 227.838 -1485 223 173 150
-91.3757 227.818 -1485 226 176 153
-88.4554 227.953 -1486 227 178 154
-85.5317 228.088 -1487 225 179 152
-82.6602 228.378 -1489 223 177 152
-79.7278 228.514 -1490 222 176 151
-76.8437 228.805 -1492 222 176 151
-73.9026 228.942 -1493 219 174 148
-70.9106 228.927 -1493 217 174 146
-67.8737 228.76 -1492 215 173 135
-64.7979 228.439 -1490 214 171 131
-61.7306 228.12 -1488 216 163 129
-58.6717 227.8 -1486 206 143 117
-55.6215 227.482 -1484 171 100 81
-52.6861 227.624 -1485 157 68 67
-49.6801 227.46 -1484 147 58 59
-46.7416 227.604 -1485 145 58 64
-43.7994 227.747 -1486 144 55 64
-40.8261 227.739 -1486 147 58 68
-37.904 228.037 -1488 151 62 71
-34.9977 228.489 -1491 157 67 78
-32.0798 228.942 -1494 174 80 97
-29.1891 229.702 -1499 211 155 171
-26.3309 230.922 -1507 255 218 234
-23.3791 231.53 -1511 255 251 255
-20.4115 232.138 -1515 255 251 255
-17.3592 231.828 -1513 255 251 255
-14.3341 231.824 -1513 252 254 248
-11.3089 231.822 -1513 250 253 247
-8.30034 232.279 -1516 253 253 252
-5.27638 232.585 -1518 253 253 253
-2.24741 233.197 -1522 254 253 254
0.797012 233.656 -1525 254 253 254
3.84839 233.81 -1526 254 253 254
6.90362 233.964 -1527 252 253 253
9.95004 233.813 -1526 253 253 252
13.0011 233.815 -1526 253 253 252
16.0629 233.971 -1527 253 253 253
19.1036 233.822 -1526 253 253 253
22.126 233.52 -1524 253 253 253
25.1405 233.218 -1522 253 253 252
28.1102 232.611 -1518 253 253 252
31.0847 232.157 -1515 254 252 252
34.1149 232.164 -1515 253 251 251
37.1454 232.171 -1515 254 253 252
40.1764 232.179 -1515 255 254 254
43.2076 232.188 -1515 255 253 254
46.2697 232.351 -1516 254 253 253
89.4929 234.388 -1528 252 252 253
92.5588 234.407 -1528 249 250 251
95.8131 234.887 -1531 235 237 239
99.0803 235.367 -1534 201 203 209
-348.296 231.625 -1505 86 88 96
-345.125 231.551 -1505 87 90 98
-343.546 232.555 -1512 87 89 98
-341.266 233.097 -1516 111 113 123
-339.418 233.948 -1522 162 163 173
-336.223 233.876 -1522 213 213 222
-332.811 233.652 -1521 244 243 246
-328.973 233.121 -1518 254 253 254
-325.151 232.592 -1515 254 251 255
-321.556 232.217 -1513 254 250 255
-317.763 231.689 -1510 255 250 255
-314.817 231.776 -1511 252 250 255
-311.252 231.403 -1509 253 251 255
-308.31 231.491 -1510 251 251 255
-304.76 231.12 -1508 250 250 254
-301.822 231.21 -1509 252 252 255
-298.683 231.146 -1509 252 253 255
-295.743 231.237 -1510 250 250 252
-292.221 230.869 -1508 249 249 250
-289.092 230.808 -1508 251 252 254
-285.397 230.289 -1505 250 251 253
-281.904 229.924 -1503 250 250 252
-278.423 229.559 -1501 250 250 252
-275.868 229.96 -1504 251 251 253
-272.397 229.597 -1502 250 250 251
-269.116 229.387 -1501 247 247 249
-265.841 229.178 -1500 244 245 250
-262.573 228.97 -1499 243 243 248
-259.83 229.221 -1501 240 241 246
-256.91 229.32 -1502 237 239 244
-254.158 229.572 -1504 236 238 244
-251.399 229.825 -1506 237 239 246
-249.129 230.535 -1511 236 240 248
-245.863 230.331 -1510 234 238 247
-243.246 230.738 -1513 236 238 246
-240.144 230.688 -1513 235 238 246
-237.513 231.095 -1516 234 238 246
-234.098 230.742 -1514 235 239 247
-231.457 231.15 -1517 238 242 248
-228.053 230.798 -1515 245 247 249
-225.847 231.665 -1521 249 250 251
-222.446 231.314 -1519 254 254 255
-219.778 231.725 -1522 255 254 255
-216.957 231.984 -1524 254 254 255
-213.989 232.091 -1525 253 253 255
-210.88 232.047 -1525 254 252 255
-208.046 232.308 -1527 254 252 255
-205.206 232.57 -1529 253 253 254
-202.359 232.832 -1531 253 253 254
-198.985 232.486 -1529 253 253 254
-195.748 232.293 -1528 253 253 252
-192.014 231.493 -1523 253 253 252
-188.921 231.454 -1523 254 251 254
-185.464 230.959 -1520 254 251 254
-182.02 230.465 -1517 255 251 255
-178.827 230.276 -1516 254 254 254
-175.522 229.936 -1514 246 243 245
-171.658 228.837 -1507 208 193 198
-168.271 228.346 -1504 168 120 129
-164.898 227.857 -1501 137 70 81
-161.538 227.368 -1498 139 55 67
-158.297 227.031 -1496 139 53 65
-155.17 226.847 -1495 138 51 60
-151.946 226.512 -1493 133 50 57
-148.731 226.177 -1491 136 55 61
-145.526 225.844 -1489 150 74 72
-142.713 226.117 -1491 178 106 101
-139.799 226.24 -1492 201 136 126
-136.699 226.06 -1491 209 155 139
-133.784 226.184 -1492 215 163 145
-130.778 226.157 -1492 209 167 142
-127.687 225.978 -1491 212 166 140
-124.518 225.65 -1489 215 165 138
-121.44 225.473 -1488 216 165 140
-118.366 225.297 -1487 216 166 141
-115.142 224.818 -1484 214 166 143
-112.234 224.946 -1485 216 169 146
-109.249 224.924 -1485 217 171 147
-106.408 225.204 -1487 221 171 144
-103.351 225.031 -1486 223 173 146
-100.434 225.162 -1487 222 171 145
-97.5143 225.293 -1488 222 171 146
-94.464 225.122 -1487 225 173 149
-91.4184 224.952 -1486 223 174 148
-88.4371 224.933 -1486 222 174 149
-85.4565 224.915 -1486 224 178 155
-82.4766 224.898 -1486 225 176 153
-79.4974 224.881 -1486 223 173 151
-76.6219 225.168 -1488 215 169 142
-73.5904 225.001 -1487 216 170 143
-70.6586 225.138 -1488 215 169 142
-67.6323 224.973 -1487 216 160 134
-64.5671 224.656 -1485 198 139 115
-61.469 224.19 -1482 178 109 93
-58.4228 223.875 -1480 151 74 66
-55.4602 223.863 -1480 140 56 55
-52.4979 223.852 -1480 143 52 60
-49.5695 223.993 -1481 141 51 59
-46.6061 223.983 -1481 140 52 60
-43.6725 224.125 -1482 143 55 64
-40.7628 224.419 -1484 147 58 68
-37.8707 224.865 -1487 160 68 80
-34.9437 225.16 -1489 162 78 90
-32.0088 225.455 -1491 202 130 144
-29.1052 226.054 -1495 241 208 218
-26.2207 226.955 -1501 255 239 249
-23.2661 227.404 -1504 255 252 255
-20.2996 227.853 -1507 255 252 255
-17.3098 228.152 -1509 255 252 255
-14.3027 228.3 -1510 253 254 251
-11.2992 228.599 -1512 252 253 249
-8.29322 229.051 -1515 253 253 252
-5.27881 229.654 -1519 253 253 253
-2.24845 230.258 -1523 253 253 254
0.79684 230.561 -1525 254 253 254
3.84743 230.712 -1526 254 253 254
6.90222 230.865 -1527 253 253 253
9.95456 230.866 -1527 253 253 253
12.9899 230.566 -1525 253 253 253
15.9964 229.964 -1521 253 253 253
19.0245 229.817 -1520 253 253 253
22.0488 229.67 -1519 253 253 253
25.0362 229.221 -1516 253 253 252
28.0489 229.075 -1515 253 253 252
31.0578 228.93 -1514 254 253 253
34.0404 228.635 -1512 253 251 251
37.1378 229.095 -1515 254 252 252
40.168 229.103 -1515 255 253 254
43.1987 229.112 -1515 255 253 254
46.1991 228.97 -1514 254 252 253
49.1958 228.828 -1513 255 253 254
52.1891 228.688 -1512 253 251 254
55.1786 228.547 -1511 254 254 255
58.1647 228.408 -1510 253 253 255
61.2688 228.722 -1512 253 253 255
73.5277 229.232 -1515 253 253 253
76.6645 229.55 -1517 251 251 251
79.7576 229.717 -1518 251 251 251
82.9642 230.188 -1521 254 254 254
86.0141 230.205 -1521 253 253 253
89.123 230.374 -1522 252 254 254
92.1762 230.393 -1522 250 252 252
95.3553 230.715 -1524 253 255 255
98.5431 231.038 -1526 249 251 254
114.168 231.752 -1530 88 91 102
-354.574 228.662 -1505 96 102 109
-351.397 228.588 -1505 110 115 120
-349.38 229.274 -1510 132 129 132
-346.657 229.505 -1512 145 142 145
-344.61 230.192 -1517 175 172 175
-341.87 230.423 -1519 226 223 228
-339.57 230.959 -1523 254 251 255
-335.931 230.585 -1521 253 251 253
-332.523 230.364 -1520 254 252 254
-329.121 230.144 -1519 255 252 255
-325.297 229.621 -1516 255 251 255
-321.914 229.402 -1515 255 251 255
-318.327 229.033 -1513 255 251 255
-315.376 229.118 -1514 254 251 255
-311.599 228.599 -1511 252 250 255
-308.246 228.384 -1510 250 249 255
-304.899 228.169 -1509 250 250 254
-301.759 228.106 -1509 252 252 255
-298.423 227.893 -1508 251 253 255
-295.29 227.831 -1508 250 251 253
-291.579 227.317 -1505 251 251 253
-288.457 227.257 -1505 250 252 254
-284.959 226.896 -1503 251 252 254
-281.471 226.536 -1501 251 251 253
-277.994 226.176 -1499 250 250 252
-275.078 226.27 -1500 250 250 252
-271.978 226.213 -1500 250 250 251
-268.523 225.856 -1498 249 250 252
-265.786 226.102 -1500 246 248 252
-262.694 226.048 -1500 243 244 248
-259.43 225.844 -1499 241 242 246
-256.857 226.242 -1502 238 240 244
-254.105 226.491 -1504 237 239 245
-251.18 226.59 -1505 238 241 248
-248.253 226.689 -1506 236 242 249
-245.324 226.789 -1507 234 241 247
-242.232 226.739 -1507 237 239 246
-239.3 226.84 -1508 236 240 246
-236.837 227.392 -1512 234 240 246
-233.432 227.043 -1510 235 241 247
-231.104 227.747 -1515 240 244 250
-227.855 227.55 -1514 245 247 249
-225.058 227.804 -1516 248 249 251
-222.254 228.059 -1518 252 252 254
-219.444 228.314 -1520 253 253 255
-216.343 228.27 -1520 253 253 255
-213.524 228.526 -1522 253 253 255
-210.699 228.783 -1524 253 253 255
-207.459 228.59 -1523 253 253 255
-204.358 228.548 -1523 253 253 253
-201.128 228.357 -1522 253 253 253
-198.163 228.466 -1523 253 253 253
-195.324 228.726 -1525 253 253 253
-191.974 228.386 -1523 253 253 253
-188.634 228.048 -1521 254 253 254
-185.182 227.56 -1518 255 252 255
-181.743 227.073 -1515 255 252 255
-178.318 226.586 -1512 250 252 252
-175.023 226.251 -1510 249 249 250
-171.509 225.616 -1506 230 224 228
-167.901 224.833 -1501 203 171 179
-164.535 224.35 -1498 154 110 120
-161.289 224.017 -1496 142 65 79
-157.948 223.535 -1493 133 53 66
-154.827 223.354 -1492 137 50 62
-151.711 223.173 -1491 131 45 56
-148.502 222.843 -1489 133 48 58
-145.399 222.664 -1488 133 49 56
-142.493 222.784 -1489 136 57 61
-139.584 222.905 -1490 147 74 73
-136.396 222.578 -1488 166 103 95
-133.577 222.85 -1490 189 128 118
-130.488 222.673 -1489 200 152 133
-127.319 222.348 -1487 211 160 139
-124.242 222.173 -1486 218 164 141
-121.17 221.999 -1485 219 166 143
-118.262 222.124 -1486 217 164 141
-115.274 222.1 -1486 215 166 144
-112.287 222.077 -1486 216 169 146
-109.374 222.204 -1487 215 169 145
-106.458 222.332 -1488 220 170 144
-103.469 222.311 -1488 219 169 143
-100.481 222.29 -1488 219 170 143
-97.429 222.121 -1487 222 171 145
-94.3177 221.802 -1485 223 172 146
-91.3383 221.784 -1485 221 173 145
-88.3001 221.616 -1484 220 172 146
-85.1516 221.151 -1481 220 171 151
-82.2379 221.283 -1482 225 171 152
-79.3208 221.416 -1483 222 166 148
-76.2974 221.251 -1482 211 159 139
-73.2786 221.087 -1481 198 145 126
-70.2644 220.923 -1480 177 121 105
-67.2548 220.76 -1479 162 94 83
-64.2063 220.448 -1477 142 71 63
-61.2077 220.286 -1476 137 57 56
-58.2531 220.274 -1476 135 49 54
-55.3365 220.412 -1477 139 48 58
-52.3808 220.401 -1477 140 48 61
-49.4925 220.689 -1479 140 49 61
-46.5652 220.829 -1480 141 54 63
-43.6636 221.118 -1482 144 56 66
-40.7819 221.557 -1485 151 63 72
-37.8631 221.847 -1487 163 81 93
-34.9366 222.139 -1489 211 142 153
-32.0023 222.43 -1491 244 212 221
-29.0798 222.872 -1494 253 246 249
-26.163 223.463 -1498 255 254 255
-23.2149 223.905 -1501 253 253 255
-20.2685 224.498 -1505 252 252 255
-17.2834 224.792 -1507 253 253 255
-14.2998 225.236 -1510 253 253 253
-11.2969 225.532 -1512 252 252 252
-8.28066 225.679 -1513 253 253 253
-5.27431 226.424 -1518 253 253 253
-2.24507 226.871 -1521 253 253 253
0.79544 227.169 -1523 253 253 253
3.84665 227.617 -1526 253 253 253
6.89181 227.469 -1525 253 253 253
9.92651 227.172 -1523 253 253 253
12.9363 226.578 -1519 253 253 253
15.9615 226.431 -1518 253 253 253
18.958 225.987 -1515 253 253 253
22.0007 226.141 -1516 253 253 253
25.0476 226.295 -1517 253 253 253
28.0432 226.002 -1515 253 253 253
31.072 226.008 -1515 253 253 253
34.0785 225.865 -1514 252 251 251
37.1548 226.171 -1516 252 252 252
40.1599 226.029 -1515 253 253 253
43.1613 225.889 -1514 254 253 253
46.0981 225.45 -1511 254 253 253
49.2184 225.907 -1514 253 253 253
52.1439 225.47 -1511 253 253 253
55.1673 225.481 -1511 253 253 253
58.2684 225.791 -1513 253 253 253
61.2967 225.803 -1513 253 253 253
64.3257 225.815 -1513 253 253 254
67.4442 226.127 -1515 253 253 253
70.5247 226.29 -1516 253 253 252
73.5128 226.156 -1515 253 253 253
76.649 226.469 -1517 253 253 253
79.8464 226.933 -1520 253 253 253
82.8928 226.95 -1520 253 253 253
86.0531 227.265 -1522 253 253 253
89.1634 227.432 -1523 252 253 253
92.218 227.451 -1523 252 253 253
95.3985 227.768 -1525 252 253 253
98.7167 228.385 -1529 253 254 255
101.786 228.406 -1529 254 255 255
105.198 229.174 -1534 252 253 255
108.491 229.644 -1537 231 233 239
111.651 229.815 -1538 184 186 193
114.518 229.39 -1535 129 131 138
117.833 229.862 -1538 96 98 106
120.689 229.438 -1535 87 89 97
-366.225 227.125 -1514 83 87 101
-361.822 226.3 -1509 86 90 104
-357.918 225.776 -1506 105 109 122
-355.207 226.002 -1508 170 173 181
-352.725 226.378 -1511 220 222 228
-349.539 226.306 -1511 242 239 242
-346.585 226.384 -1512 248 245 248
-344.311 226.912 -1516 253 250 253
-341.124 226.841 -1516 255 253 255
-338.608 227.22 -1519 254 251 255
-334.979 226.851 -1517 254 251 255
-331.579 226.633 -1516 253 250 253
-328.187 226.416 -1515 253 250 253
-324.801 226.2 -1514 253 250 254
-321.423 225.984 -1513 253 249 255
-318.051 225.769 -1512 254 249 255
-315.103 225.854 -1513 254 251 255
-311.535 225.491 -1511 252 250 255
-308.182 225.278 -1510 248 247 255
-304.836 225.066 -1509 250 249 254
-301.497 224.855 -1508 252 252 255
-298.164 224.645 -1507 251 253 255
-295.23 224.733 -1508 251 252 254
-291.519 224.226 -1505 253 253 255
-288.206 224.018 -1504 252 254 254
-284.521 223.513 -1501 251 253 254
-281.038 223.158 -1499 252 252 254
-277.566 222.803 -1497 252 252 254
-274.838 223.045 -1499 252 252 254
-271.379 222.691 -1497 252 252 253
-268.647 222.934 -1499 250 251 254
-265.555 222.88 -1499 246 250 253
-262.64 222.975 -1500 244 246 250
-259.55 222.922 -1500 242 244 248
-256.805 223.166 -1502 242 244 248
-253.715 223.115 -1502 242 244 249
-250.795 223.212 -1503 242 244 251
-248.202 223.607 -1506 238 243 251
-244.46 222.963 -1502 238 243 251
-241.861 223.359 -1505 240 243 250
-238.776 223.311 -1505 239 243 250
-236.319 223.856 -1509 236 242 248
-233.075 223.66 -1508 239 242 248
-230.6 224.206 -1512 242 245 250
-227.659 224.308 -1513 247 249 251
-224.864 224.559 -1515 249 250 252
-221.77 224.514 -1515 251 251 253
-218.966 224.766 -1517 252 252 255
-215.729 224.574 -1516 253 253 255
-212.639 224.531 -1516 253 253 255
-209.412 224.34 -1515 253 253 255
-206.736 224.742 -1518 253 253 255
-203.646 224.701 -1518 253 253 253
-200.823 224.956 -1520 253 253 253
-197.733 224.916 -1520 253 253 253
-194.772 225.025 -1521 253 253 253
-191.431 224.69 -1519 253 253 253
-188.224 224.504 -1518 255 252 253
-184.778 224.023 -1515 255 252 254
-181.586 223.838 -1514 255 253 255
-178.164 223.358 -1511 252 254 254
-174.64 222.732 -1507 251 251 252
-171.247 222.254 -1504 241 237 240
-167.979 221.924 -1502 222 209 216
-164.721 221.595 -1500 188 171 180
-161.364 221.119 -1497 173 110 126
-158.127 220.792 -1495 136 66 81
-154.899 220.465 -1493 140 55 69
-151.681 220.139 -1491 134 49 61
-148.372 219.666 -1488 130 45 56
-145.272 219.489 -1487 128 44 59
-142.272 219.46 -1487 125 46 58
-139.274 219.432 -1487 120 47 55
-136.186 219.257 -1486 120 54 57
-133.192 219.23 -1486 131 65 67
-130.287 219.351 -1487 149 85 82
-127.122 219.031 -1485 172 112 103
-124.133 219.006 -1485 192 135 122
-121.146 218.981 -1485 207 150 135
-118.159 218.957 -1485 213 157 140
-115.018 218.639 -1483 214 161 141
-112.264 219.059 -1486 217 167 144
-109.205 218.889 -1485 219 170 146
-106.365 219.162 -1487 216 170 143
-103.309 218.994 -1486 214 168 141
-100.326 218.974 -1486 215 169 142
-97.2783 218.807 -1485 219 170 144
-94.1718 218.493 -1483 221 171 145
-91.1969 218.474 -1483 223 173 147
-88.1039 218.162 -1481 222 171 146
-85.0196 217.85 -1479 215 160 138
-81.9995 217.686 -1478 204 142 127
-79.0375 217.67 -1478 180 116 103
-76.0247 217.507 -1477 153 85 81
-73.066 217.493 -1477 135 64 64
-70.0604 217.331 -1476 129 54 61
-67.0595 217.17 -1475 124 48 56
-64.0196 216.863 -1473 123 46 54
-61.071 216.85 -1473 129 44 55
-58.123 216.838 -1473 133 44 56
-55.2505 217.122 -1475 137 44 58
-52.3349 217.258 -1476 136 43 55
-49.4826 217.689 -1479 142 51 63
-46.5559 217.827 -1480 144 60 71
-43.6844 218.26 -1483 145 60 71
-40.7737 218.546 -1485 173 87 99
-37.8301 218.685 -1486 213 169 176
-34.9296 219.119 -1489 252 228 234
-31.9745 219.26 -1490 255 248 253
-29.0545 219.695 -1493 253 251 253
-26.1403 220.278 -1497 252 249 252
-23.1949 220.715 -1500 249 249 253
-20.2241 221.005 -1502 251 251 253
-17.2684 221.59 -1506 252 252 254
-14.2875 222.028 -1509 253 253 253
-11.2871 222.32 -1511 254 254 254
-8.28453 222.759 -1514 253 253 253
-5.26982 223.199 -1517 253 253 253
-2.24464 223.787 -1521 253 253 253
0.795274 224.081 -1523 253 253 253
3.84337 224.376 -1525 253 253 253
6.88142 224.083 -1523 253 253 253
9.90502 223.643 -1520 253 253 253
12.908 223.057 -1516 253 253 253
15.9163 222.765 -1514 253 253 253
18.9168 222.475 -1512 253 253 253
21.9237 222.331 -1511 253 253 253
25.026 223.072 -1516 253 253 253
28.019 222.783 -1514 253 253 253
31.0657 222.936 -1515 253 253 253
34.0492 222.648 -1513 252 252 252
37.1229 222.949 -1515 252 252 252
40.0459 222.368 -1511 253 253 253
43.1242 222.671 -1513 253 253 253
46.0279 222.091 -1509 254 254 254
49.0784 222.248 -1510 253 253 253
51.9608 221.669 -1506 253 253 253
55.0834 222.122 -1509 253 253 253
58.1026 222.133 -1509 253 253 253
61.1629 222.292 -1510 253 253 253
64.1427 222.157 -1509 253 253 253
67.2082 222.317 -1510 253 253 253
70.3244 222.626 -1512 253 253 253
73.3524 222.64 -1512 253 253 253
76.4315 222.802 -1513 253 253 253
79.6202 223.26 -1516 253 253 253
82.7125 223.423 -1517 253 253 253
85.7532 223.44 -1517 253 253 253
88.8528 223.605 -1518 253 253 253
91.9572 223.77 -1519 253 253 253
95.0665 223.936 -1520 253 253 253
98.4387 224.692 -1525 253 253 253
101.566 224.859 -1526 254 254 254
104.972 225.617 -1531 254 254 254
108.187 225.933 -1533 254 254 254
111.483 226.397 -1536 253 253 255
114.196 225.682 -1531 241 241 243
117.58 226.295 -1535 201 202 204
-385.754 226.453 -1528 84 89 103
-378.76 226 -1526 113 115 126
-374.783 225.479 -1523 131 133 145
-371.797 225.551 -1524 124 126 139
-368.085 225.179 -1522 102 104 117
-364.145 224.661 -1519 110 112 124
-359.507 223.7 -1513 180 182 194
-356.312 223.627 -1513 245 245 250
-353.353 223.703 -1514 251 251 255
-349.467 223.188 -1511 255 252 255
-346.743 223.412 -1513 254 252 254
-344.014 223.638 -1515 255 252 255
-341.279 223.863 -1517 255 253 255
-338.093 223.794 -1517 253 250 255
-334.91 223.726 -1517 254 252 255
-331.293 223.364 -1515 254 251 254
-327.903 223.149 -1514 253 250 254
-324.735 223.083 -1514 253 250 255
-321.145 222.723 -1512 252 247 255
-317.987 222.659 -1512 250 245 254
-314.831 222.595 -1512 250 247 254
-311.266 222.237 -1510 252 249 255
-307.915 222.028 -1509 248 247 255
-304.572 221.819 -1508 250 249 255
-301.435 221.758 -1508 252 251 255
-298.103 221.55 -1507 252 253 255
-294.974 221.49 -1507 252 253 255
-291.072 220.844 -1503 254 254 255
-287.765 220.638 -1502 251 253 253
-284.084 220.14 -1499 252 254 254
-280.606 219.79 -1497 254 254 255
-276.954 219.294 -1494 252 252 254
-274.049 219.385 -1495 252 252 254
-270.961 219.33 -1495 252 252 254
-268.413 219.716 -1498 252 252 255
-265.147 219.516 -1497 249 251 255
-262.412 219.757 -1499 248 249 253
-259.325 219.704 -1499 247 248 252
-256.582 219.946 -1501 245 247 251
-253.327 219.748 -1500 245 247 252
-250.578 219.991 -1502 244 246 252
-247.493 219.941 -1502 240 244 252
-244.248 219.746 -1501 241 245 253
-241.17 219.697 -1501 242 246 253
-237.935 219.503 -1500 242 246 253
-235.489 220.041 -1504 241 245 252
-232.41 219.994 -1504 242 245 251
-229.944 220.533 -1508 244 247 251
-227.162 220.78 -1510 250 252 254
-224.522 221.174 -1513 252 252 254
-221.432 221.129 -1513 252 252 254
-218.345 221.086 -1513 253 253 255
-215.402 221.188 -1514 253 253 255
-212.316 221.146 -1514 253 253 255
-208.955 220.812 -1512 253 253 255
-205.741 220.625 -1511 253 253 255
-202.935 220.876 -1513 253 253 254
-199.99 220.982 -1514 253 253 253
-197.173 221.235 -1516 253 253 253
-194.221 221.342 -1517 253 253 253
-191.141 221.303 -1517 253 253 253
-187.938 221.12 -1516 255 254 254
-184.62 220.791 -1514 254 252 253
-181.07 220.172 -1510 255 252 254
-177.657 219.699 -1507 252 253 253
-174.257 219.227 -1504 253 253 254
-170.871 218.755 -1501 251 248 251
-167.498 218.285 -1498 242 232 241
-164.469 218.252 -1498 222 209 221
-161.009 217.637 -1494 213 174 188
-157.99 217.605 -1494 164 119 133
-154.661 217.138 -1491 130 74 87
-151.447 216.816 -1489 127 54 68
-148.243 216.495 -1487 132 53 68
-145.048 216.175 -1485 129 45 61
-142.149 216.293 -1486 126 46 60
-139.153 216.265 -1486 122 46 57
-136.067 216.092 -1485 116 47 54
-132.986 215.92 -1484 115 47 53
-130.086 216.04 -1485 115 46 50
-126.84 215.578 -1482 118 51 53
-123.858 215.553 -1482 125 61 60
-120.877 215.529 -1482 138 74 73
-117.897 215.506 -1482 150 86 84
