ply
format ascii 1.0
comment Created by Open3D
element vertex 1406
property double x
property double y
property double z
property uchar red
property uchar green
property uchar blue
end_header
-272.052 112.878 -1492 226 230 247
-268.627 112.699 -1490 225 227 245
-264.856 112.369 -1486 223 227 248
-261.456 112.191 -1484 221 225 246
-258.241 112.088 -1483 222 224 245
-255.031 111.986 -1482 222 224 243
-252.168 112.036 -1483 220 222 240
-249.135 112.01 -1483 218 222 242
-245.938 111.909 -1482 221 224 244
-242.584 111.733 -1480 226 228 248
-239.401 111.633 -1479 226 228 246
-236.225 111.533 -1478 229 231 247
-233.37 111.585 -1479 231 233 249
-230.357 111.561 -1479 230 232 250
-227.192 111.462 -1478 226 230 250
-224.185 111.439 -1478 226 229 250
-220.881 111.266 -1476 227 229 250
-217.587 111.092 -1474 223 229 246
-214.593 111.07 -1474 223 229 246
-211.458 110.973 -1473 222 227 244
-208.47 110.952 -1473 221 224 240
-205.345 110.855 -1472 223 225 241
-202.637 110.985 -1474 230 233 244
-199.381 110.814 -1472 238 241 249
-196.536 110.869 -1473 243 247 250
-193.425 110.774 -1472 247 251 254
-190.708 110.905 -1474 249 253 255
-187.729 110.886 -1474 249 253 255
-185.129 111.093 -1477 250 252 255
-182.27 111.149 -1478 250 252 255
-179.289 111.131 -1478 248 251 255
-176.308 111.113 -1478 245 248 254
-173.564 111.245 -1480 242 245 252
-170.467 111.153 -1479 239 244 250
-167.602 111.211 -1480 238 244 250
-164.734 111.269 -1481 240 243 249
-161.755 111.252 -1481 243 246 252
-158.776 111.236 -1481 245 248 254
-156.01 111.37 -1483 246 249 253
-153.133 111.43 -1484 245 249 252
-150.254 111.489 -1485 245 249 252
-147.372 111.549 -1486 246 250 253
-144.39 111.535 -1486 246 250 253
-141.409 111.52 -1486 248 252 254
-138.43 111.506 -1486 246 250 253
-135.451 111.492 -1486 248 252 253
-132.474 111.479 -1486 247 250 254
-129.671 111.615 -1488 235 238 245
-126.607 111.527 -1487 230 232 246
-123.631 111.515 -1487 229 231 247
-120.655 111.502 -1487 227 232 249
-117.681 111.49 -1487 229 232 249
-114.707 111.479 -1487 227 229 245
-111.81 111.542 -1488 229 231 239
-108.836 111.531 -1488 238 240 247
-105.793 111.445 -1487 247 249 253
-102.823 111.435 -1487 251 253 255
-99.7193 111.275 -1485 252 254 255
-96.6899 111.19 -1484 252 254 255
-93.7917 111.255 -1485 251 253 255
-90.8901 111.321 -1486 253 253 255
-87.9261 111.312 -1486 253 253 254
-85.0201 111.378 -1487 253 253 253
-82.1658 111.519 -1489 253 253 255
-79.198 111.511 -1489 251 251 255
-76.1795 111.429 -1488 246 248 252
-73.1165 111.271 -1486 243 245 251
-70.0619 111.114 -1484 244 246 252
-66.9707 110.883 -1481 246 248 252
-64.0217 110.876 -1481 246 248 252
-61.0732 110.87 -1481 247 249 253
-58.1644 110.939 -1482 246 250 253
-55.2521 111.008 -1483 247 251 254
-52.3363 111.077 -1484 249 253 254
-49.2838 110.848 -1481 250 254 254
-46.3062 110.768 -1480 250 254 255
-43.3037 110.614 -1478 250 254 255
-40.3367 110.535 -1477 250 254 255
-37.3741 110.456 -1476 251 255 255
-34.4157 110.378 -1475 251 254 255
-31.5043 110.449 -1476 250 252 254
-28.5892 110.521 -1477 246 251 253
-25.6529 110.518 -1477 244 250 251
-22.7015 110.441 -1476 241 247 250
-19.7811 110.514 -1477 236 241 247
-16.8339 110.437 -1476 232 235 244
-13.9003 110.435 -1476 232 233 247
-10.9668 110.434 -1476 232 233 247
-8.04977 110.658 -1479 232 233 247
-5.12087 110.882 -1482 232 235 248
-2.17863 111.031 -1484 233 236 249
0.771552 111.18 -1486 233 238 253
3.7347 111.48 -1490 235 240 255
6.7003 111.555 -1491 235 240 255
9.6764 111.706 -1493 234 239 255
12.6522 111.782 -1494 238 242 255
15.6424 111.933 -1496 244 247 255
18.6034 111.86 -1495 247 250 255
21.5749 111.862 -1495 247 250 255
24.5631 111.939 -1496 248 254 255
27.5554 112.016 -1497 248 254 255
30.5519 112.094 -1498 248 253 255
33.5528 112.172 -1499 248 252 255
36.5577 112.25 -1500 248 252 255
39.5406 112.254 -1500 249 253 255
42.6088 112.483 -1503 248 252 255
45.6287 112.562 -1504 248 250 254
48.653 112.642 -1505 241 247 252
51.7502 112.871 -1508 233 239 245
54.7871 112.952 -1509 227 230 241
57.8669 113.107 -1511 222 226 237
61.0355 113.412 -1515 221 226 237
64.136 113.568 -1517 227 230 242
67.2451 113.725 -1519 235 238 250
70.3625 113.882 -1521 240 243 254
73.4887 114.039 -1523 242 244 254
76.5227 114.046 -1523 241 242 252
79.6098 114.129 -1524 237 238 248
82.7013 114.212 -1525 221 224 236
85.8538 114.37 -1527 215 220 233
88.9568 114.454 -1528 220 223 238
92.0043 114.463 -1528 218 221 236
95.0523 114.472 -1528 218 223 236
98.1012 114.482 -1528 221 226 239
101.019 114.342 -1526 224 229 242
104.133 114.428 -1527 223 227 240
107.253 114.513 -1528 218 222 239
110.522 114.749 -1531 217 221 241
113.655 114.835 -1532 219 224 241
116.869 114.997 -1534 219 224 240
120.015 115.084 -1535 217 222 238
123.084 115.096 -1535 217 222 237
126.073 115.034 -1534 218 223 237
128.975 114.897 -1532 219 224 239
132.128 114.985 -1533 221 226 241
135.286 115.073 -1534 222 227 243
138.269 115.012 -1533 223 228 245
141.526 115.177 -1535 221 226 243
144.509 115.116 -1534 217 223 240
147.778 115.281 -1536 216 221 236
150.86 115.296 -1536 218 223 237
154.044 115.387 -1537 219 224 237
157.028 115.327 -1536 219 224 237
160.217 115.418 -1537 217 222 235
163.094 115.285 -1535 215 220 232
166.288 115.376 -1536 213 218 231
169.488 115.469 -1537 214 219 234
172.581 115.486 -1537 217 222 235
175.79 115.579 -1538 218 223 235
179.12 115.747 -1540 214 219 231
182.342 115.841 -1541 213 216 226
185.569 115.935 -1542 215 219 228
188.679 115.954 -1542 216 220 229
191.916 116.048 -1543 216 219 229
194.778 115.917 -1541 214 217 227
198.148 116.088 -1543 214 217 226
201.397 116.183 -1544 213 217 227
204.652 116.279 -1545 214 218 229
207.644 116.225 -1544 216 217 224
211.043 116.397 -1546 213 216 224
214.174 116.419 -1546 207 212 221
217.589 116.591 -1548 201 206 216
221.013 116.764 -1550 202 206 217
224.303 116.863 -1551 205 208 219
227.598 116.961 -1552 209 204 215
230.9 117.06 -1553 194 178 189
234.057 117.083 -1553 113 82 93
237.215 117.108 -1553 107 43 63
240.685 117.283 -1555 105 41 60
243.852 117.308 -1555 103 39 56
247.656 117.635 -1559 113 40 59
251.157 117.811 -1561 114 44 56
254.668 117.988 -1563 137 77 74
258.519 118.316 -1567 139 91 75
262.389 118.645 -1571 145 98 79
265.939 118.823 -1573 146 100 75
270.013 119.229 -1578 144 98 73
273.763 119.483 -1581 146 100 74
276.652 119.36 -1579 145 99 72
279.889 119.389 -1579 146 98 69
282.591 119.191 -1576 149 102 72
285.646 119.145 -1575 149 102 71
288.882 119.174 -1575 153 102 75
292.678 119.431 -1578 153 101 74
295.737 119.386 -1577 152 100 70
298.985 119.416 -1577 147 98 68
302.044 119.372 -1576 144 96 66
305.101 119.327 -1575 143 95 66
308.157 119.283 -1574 140 94 62
312.002 119.543 -1577 141 95 64
315.463 119.651 -1578 140 94 66
319.132 119.836 -1580 137 92 69
322.404 119.869 -1580 136 91 68
325.885 119.978 -1581 136 91 68
328.957 119.936 -1580 141 93 68
332.238 119.971 -1580 138 91 67
336.158 120.233 -1583 132 85 63
339.236 120.192 -1582 130 86 63
342.53 120.228 -1582 129 84 62
345.607 120.187 -1581 130 85 62
348.242 119.995 -1578 142 91 70
351.313 119.956 -1577 146 97 75
354.383 119.916 -1576 150 101 78
357.452 119.877 -1575 152 104 79
360.52 119.839 -1574 153 106 79
363.817 119.876 -1574 155 107 80
367.118 119.915 -1574 155 108 80
370.187 119.877 -1573 156 108 79
373.967 120.068 -1575 158 110 80
377.279 120.108 -1575 159 110 80
380.595 120.147 -1575 159 111 82
384.646 120.416 -1578 161 114 83
388.466 120.609 -1580 159 113 81
391.555 120.574 -1579 161 115 82
394.642 120.539 -1578 162 118 85
397.981 120.581 -1578 159 115 82
400.561 120.393 -1575 161 117 86
403.644 120.359 -1574 167 122 90
406.985 120.402 -1574 167 122 89
410.069 120.368 -1573 166 121 88
413.94 120.565 -1575 168 120 89
417.294 120.609 -1575 172 123 93
420.652 120.653 -1575 174 125 94
423.744 120.621 -1574 177 126 97
427.107 120.666 -1574 175 128 96
430.747 120.788 -1575 175 127 96
433.844 120.757 -1574 174 127 97
437.496 120.88 -1575 174 127 97
440.877 120.926 -1575 173 126 95
444.543 121.05 -1576 178 131 99
447.649 121.021 -1575 181 136 105
451.328 121.145 -1576 179 136 103
454.149 121.04 -1574 180 138 104
458.71 121.396 -1578 183 142 108
461.828 121.368 -1577 180 139 103
465.536 121.495 -1578 181 137 104
469.253 121.621 -1579 182 140 106
472.379 121.595 -1578 183 142 107
475.204 121.491 -1576 183 142 106
478.935 121.619 -1577 184 143 109
482.675 121.748 -1578 186 145 110
485.808 121.723 -1577 185 145 107
489.561 121.852 -1578 184 145 106
493.323 121.982 -1579 184 145 110
496.465 121.958 -1578 186 148 114
499.923 122.011 -1578 185 150 115
502.749 121.911 -1576 184 149 120
506.212 121.965 -1576 186 151 122
510.003 122.097 -1577 186 152 122
513.478 122.153 -1577 185 150 118
516.958 122.208 -1577 191 152 119
520.442 122.264 -1577 191 151 118
524.264 122.398 -1578 191 151 118
527.76 122.455 -1578 192 152 118
531.261 122.513 -1578 189 150 117
534.428 122.493 -1577 184 149 115
537.596 122.473 -1576 183 149 115
541.451 122.609 -1577 183 148 115
545.661 122.824 -1579 180 148 112
550.58 123.195 -1583 178 146 110
554.823 123.411 -1585 178 145 110
558.727 123.549 -1586 176 142 108
562.996 123.766 -1588 173 142 106
564.781 123.438 -1583 177 146 112
568.704 123.578 -1584 176 145 110
570.83 123.328 -1580 171 139 105
574.761 123.469 -1581 173 140 106
577.97 123.454 -1580 174 139 107
581.917 123.596 -1581 173 138 106
585.503 123.66 -1581 175 140 107
589.84 123.881 -1583 187 152 118
593.817 124.025 -1584 195 163 138
597.049 124.012 -1583 205 173 146
599.904 123.921 -1581 210 179 153
602.373 123.753 -1578 219 189 164
605.603 123.741 -1577 226 196 173
608.447 123.651 -1575 229 201 177
612.454 123.797 -1576 235 207 181
616.081 123.865 -1576 239 211 186
618.533 123.698 -1573 247 219 193
621.769 123.688 -1572 248 220 195
625.802 123.836 -1573 254 223 201
629.046 123.827 -1572 255 225 202
633.096 123.976 -1573 255 226 203
636.347 123.968 -1572 255 226 204
640.007 124.04 -1572 255 227 205
642.855 123.953 -1570 255 227 206
648.17 124.341 -1574 255 228 205
653.51 124.73 -1578 255 226 204
657.626 124.883 -1579 255 227 205
660.916 124.878 -1578 254 225 204
664.207 124.873 -1577 252 225 201
667.077 124.79 -1575 255 227 204
670.37 124.786 -1574 255 226 203
675.378 125.099 -1577 255 224 201
680.407 125.414 -1580 255 224 201
685.024 125.65 -1582 255 225 203
686.609 125.33 -1577 255 225 203
690.805 125.488 -1578 254 223 202
695.452 125.725 -1580 254 221 204
697.903 125.566 -1577 0 0 0
701.682 125.645 -1577 0 0 0
-647.295 114.2 -1475 234 208 190
-642.469 113.897 -1472 238 214 194
-638.965 113.826 -1472 239 213 193
-635.9 113.834 -1473 242 213 195
-631.978 113.687 -1472 245 213 192
-628.494 113.617 -1472 243 211 190
-625.866 113.703 -1474 243 211 190
-621.123 113.403 -1471 240 212 189
-617.66 113.336 -1471 237 208 188
-614.62 113.345 -1472 237 207 187
-612.828 113.586 -1476 233 203 188
-610.61 113.75 -1479 230 200 180
-607.563 113.761 -1480 232 201 181
-603.701 113.618 -1479 231 198 184
-600.256 113.553 -1479 230 196 178
-595.605 113.258 -1476 227 193 174
-591.777 113.117 -1475 224 190 170
-589.954 113.359 -1479 222 186 166
-586.532 113.296 -1479 222 186 165
-583.51 113.309 -1480 219 183 161
-580.488 113.323 -1481 217 181 155
-577.468 113.337 -1482 214 179 153
-572.899 113.045 -1479 210 177 150
-570.275 113.137 -1481 210 174 147
-566.499 112.999 -1480 212 175 147
-563.114 112.938 -1480 212 173 142
-560.49 113.031 -1482 205 165 133
-557.487 113.047 -1483 200 162 127
-554.484 113.064 -1484 196 159 122
-551.111 113.004 -1484 191 150 111
-548.481 113.098 -1486 185 144 104
-545.114 113.039 -1486 179 137 95
-542.116 113.057 -1487 173 131 91
-539.119 113.076 -1488 172 127 88
-535.763 113.019 -1488 173 125 88
-532.411 112.962 -1488 175 119 82
-529.421 112.981 -1489 170 114 77
-526.43 113.001 -1490 166 116 78
-522.739 112.87 -1489 173 122 81
-520.102 112.966 -1491 182 131 90
-516.769 112.911 -1491 189 138 95
-513.785 112.932 -1492 194 141 99
-510.801 112.954 -1493 197 144 101
-507.477 112.9 -1493 196 148 105
-503.821 112.771 -1492 200 151 110
-500.509 112.718 -1492 203 154 113
-496.868 112.59 -1491 201 155 113
-492.575 112.311 -1488 202 157 118
-489.614 112.335 -1489 201 156 118
-486.327 112.284 -1489 199 154 117
-483.045 112.233 -1489 198 151 118
-479.767 112.182 -1489 192 144 115
-476.493 112.132 -1489 173 119 95
-472.588 111.932 -1487 116 51 39
-468.696 111.732 -1485 123 42 48
-464.191 111.383 -1481 120 44 53
-460.641 111.259 -1480 119 44 53
-457.408 111.211 -1480 115 44 50
-454.179 111.164 -1480 151 98 113
-450.955 111.116 -1480 245 201 218
-448.037 111.145 -1481 217 210 229
-444.519 111.023 -1480 215 210 227
-441.306 110.977 -1480 214 209 226
-438.69 111.081 -1482 225 223 241
-435.188 110.961 -1481 232 233 250
-431.985 110.916 -1481 226 230 246
-429.076 110.947 -1482 229 232 247
-426.166 110.977 -1483 239 242 254
-422.686 110.858 -1482 246 247 255
-420.062 110.964 -1484 241 243 252
-417.153 110.996 -1485 227 229 238
-414.244 111.028 -1486 220 221 233
-411.61 111.135 -1488 221 223 238
-408.971 111.242 -1490 220 224 239
-406.055 111.274 -1491 216 221 233
-403.139 111.307 -1492 216 220 232
-400.221 111.341 -1493 213 216 228
-396.506 111.15 -1491 214 216 231
-393.066 111.035 -1490 219 221 236
-390.157 111.07 -1491 221 223 238
-386.728 110.955 -1490 218 221 237
-383.821 110.99 -1491 217 220 237
-380.659 110.951 -1491 212 218 233
-377.5 110.913 -1491 212 218 233
-374.595 110.948 -1492 215 221 237
-371.44 110.91 -1492 223 227 239
-368.041 110.798 -1491 227 231 243
-365.14 110.835 -1492 227 231 245
-362.48 110.947 -1494 223 228 241
-359.574 110.984 -1495 221 226 239
-356.906 111.096 -1497 219 224 238
-353.759 111.06 -1497 214 219 233
-351.084 111.172 -1499 210 215 229
-347.708 111.063 -1498 208 213 227
-344.568 111.028 -1498 210 215 229
-341.432 110.993 -1498 211 217 230
-338.298 110.958 -1498 212 218 231
-335.615 111.072 -1500 214 219 232
-332.926 111.186 -1502 217 222 235
-330.013 111.227 -1503 218 223 236
-327.098 111.268 -1504 218 223 235
-324.397 111.383 -1506 215 220 233
-321.263 111.35 -1506 209 214 227
-318.555 111.466 -1508 203 209 222
-315.842 111.581 -1510 198 204 217
-313.123 111.697 -1512 191 197 211
-310.193 111.74 -1513 187 192 205
-307.261 111.783 -1514 186 191 204
-304.128 111.752 -1514 188 193 207
-300.996 111.721 -1514 191 194 208
-297.474 111.544 -1512 198 201 214
-293.963 111.366 -1510 234 237 251
-290.462 111.19 -1508 233 237 250
-286.21 110.718 -1502 213 218 233
-282.739 110.542 -1500 210 215 231
-279.092 110.293 -1497 221 226 243
-275.644 110.118 -1495 227 230 248
-271.842 109.796 -1491 226 229 247
-268.6 109.695 -1490 226 227 245
-264.473 109.227 -1484 225 228 248
-261.077 109.053 -1482 223 226 246
-257.866 108.954 -1481 223 224 244
-254.833 108.928 -1481 221 222 242
-251.973 108.976 -1482 221 222 241
-249.11 109.025 -1483 219 222 243
-246.079 109 -1483 221 224 244
-242.723 108.829 -1481 225 227 245
-239.539 108.731 -1480 226 228 246
-236.52 108.708 -1480 227 229 247
-233.504 108.684 -1480 229 231 248
-230.334 108.588 -1479 230 232 250
-227.323 108.565 -1479 226 229 248
-224.314 108.542 -1479 224 227 247
-221.008 108.373 -1477 225 228 248
-217.712 108.205 -1475 222 228 245
-214.717 108.183 -1475 221 227 244
-211.58 108.089 -1474 217 222 239
-208.591 108.068 -1474 215 217 235
-205.324 107.901 -1472 216 218 235
-202.617 108.027 -1474 222 224 240
-199.361 107.861 -1472 233 235 247
-196.383 107.841 -1472 240 242 251
-193.405 107.822 -1472 245 247 254
-190.559 107.876 -1473 247 249 255
-187.711 107.93 -1474 250 252 255
-185.11 108.132 -1477 251 253 255
-182.252 108.187 -1478 251 253 255
-179.149 108.096 -1477 249 252 255
-176.29 108.151 -1478 247 250 255
-173.312 108.134 -1478 246 249 254
-170.334 108.117 -1478 244 248 253
-167.359 108.1 -1478 242 247 252
-164.607 108.23 -1480 244 247 252
-161.738 108.287 -1481 245 248 253
-158.761 108.271 -1481 245 249 253
-156.1 108.475 -1484 244 248 252
-153.221 108.533 -1485 243 248 251
-150.34 108.591 -1486 244 249 253
-147.357 108.576 -1486 245 250 253
-144.376 108.562 -1486 247 251 254
-141.395 108.548 -1486 247 251 254
-138.416 108.534 -1486 249 253 255
-135.438 108.521 -1486 249 253 255
-132.46 108.508 -1486 247 251 255
-129.658 108.641 -1488 238 242 249
-126.594 108.555 -1487 230 233 245
-123.535 108.47 -1486 226 229 242
-120.643 108.531 -1487 229 233 248
-117.669 108.519 -1487 227 231 245
-114.619 108.435 -1486 225 229 243
-111.724 108.497 -1487 222 225 236
-108.752 108.486 -1487 228 230 241
-105.711 108.402 -1486 238 240 248
-102.605 108.246 -1484 249 251 255
-99.7094 108.309 -1485 251 254 255
-96.7455 108.299 -1485 250 252 255
-93.8455 108.363 -1486 252 254 255
-90.7588 108.208 -1484 252 254 255
-87.8583 108.272 -1485 252 253 255
-84.8973 108.264 -1485 251 252 254
-81.9921 108.329 -1486 252 252 255
-78.9773 108.248 -1485 251 251 254
-76.0184 108.24 -1485 245 247 249
-73.06 108.233 -1485 242 243 247
-70.1022 108.226 -1485 243 244 248
-67.0545 108.073 -1483 245 247 249
-64.1018 108.067 -1483 246 248 250
-61.1496 108.061 -1483 247 250 252
-58.1979 108.055 -1483 248 251 254
-55.2094 107.977 -1482 249 253 255
-52.2606 107.971 -1482 249 253 254
-49.2789 107.893 -1481 250 254 255
-46.3016 107.816 -1480 250 254 254
-43.2993 107.666 -1478 249 253 253
-40.3327 107.589 -1477 249 253 253
-37.3704 107.512 -1476 250 254 255
-34.389 107.363 -1474 251 254 255
-31.4799 107.433 -1475 250 252 255
-28.5476 107.43 -1475 246 250 255
-25.6157 107.427 -1475 242 246 252
-22.6839 107.425 -1475 237 241 249
-19.7523 107.423 -1475 232 236 246
-16.8208 107.421 -1475 229 232 243
-13.8896 107.419 -1475 228 231 244
-10.9657 107.491 -1476 229 232 245
-8.05442 107.781 -1480 230 232 247
-5.12383 107.999 -1483 231 234 247
-2.18135 108.217 -1486 232 235 248
0.772509 108.363 -1488 235 239 253
3.73934 108.655 -1492 236 240 254
6.70862 108.728 -1493 236 241 255
9.68192 108.801 -1494 237 242 255
12.6593 108.875 -1495 239 244 255
15.6304 108.877 -1495 246 249 255
18.5891 108.806 -1494 249 251 255
21.5439 108.735 -1493 249 252 255
24.5442 108.883 -1495 248 253 255
27.5158 108.885 -1495 248 254 255
30.5285 109.034 -1497 247 253 255
33.5269 109.11 -1498 247 253 255
36.5541 109.259 -1500 247 252 254
39.5367 109.263 -1500 248 251 255
42.6046 109.485 -1503 246 249 254
45.6242 109.562 -1504 244 246 252
48.7127 109.786 -1507 237 241 249
51.7794 109.936 -1509 228 232 241
54.818 110.014 -1510 223 226 237
57.8993 110.166 -1512 222 226 236
61.0295 110.39 -1515 226 230 240
64.1719 110.615 -1518 233 236 245
67.2383 110.694 -1519 240 243 253
70.4019 110.919 -1522 242 246 255
73.5295 111.072 -1524 244 246 255
76.6157 111.152 -1525 239 240 250
79.7062 111.233 -1526 235 237 247
82.8016 111.314 -1527 221 223 235
85.9016 111.395 -1528 214 218 231
88.9479 111.404 -1528 216 219 234
91.995 111.413 -1528 215 218 233
95.1051 111.495 -1529 213 218 231
98.1558 111.504 -1529 214 219 232
101.141 111.441 -1528 219 224 237
104.191 111.451 -1528 223 226 239
107.383 111.607 -1530 220 223 240
110.511 111.691 -1531 217 221 242
113.644 111.775 -1532 217 221 240
116.934 112.005 -1535 217 221 240
120.003 112.017 -1535 215 220 237
122.992 111.956 -1534 216 221 236
126.061 111.968 -1534 217 221 236
129.13 111.981 -1534 215 220 235
132.201 111.994 -1534 216 221 238
135.361 112.08 -1535 218 223 239
138.526 112.166 -1536 220 224 244
141.604 112.18 -1536 221 226 245
144.495 112.048 -1534 216 222 241
147.764 112.209 -1536 212 217 232
150.747 112.15 -1535 211 216 231
153.828 112.165 -1535 210 215 228
157.012 112.254 -1536 210 215 228
160.41 112.489 -1539 211 216 229
163.29 112.358 -1537 211 216 229
166.38 112.375 -1537 210 215 231
169.471 112.391 -1537 209 214 231
172.564 112.408 -1537 209 214 229
175.544 112.352 -1536 212 217 231
178.986 112.589 -1539 210 215 227
182.324 112.753 -1541 206 210 221
185.671 112.918 -1543 207 210 221
189.027 113.083 -1545 207 212 223
192.269 113.175 -1546 209 213 224
195.138 113.048 -1544 211 216 227
198.385 113.14 -1545 213 216 226
201.377 113.087 -1544 212 215 227
204.764 113.254 -1546 212 215 227
207.892 113.274 -1546 209 209 217
211.294 113.441 -1548 204 205 213
214.568 113.536 -1549 201 205 212
217.988 113.704 -1551 196 201 210
221.276 113.799 -1552 197 200 210
224.714 113.968 -1554 199 200 212
228.015 114.064 -1555 201 196 207
231.025 114.013 -1554 155 134 144
234.184 114.036 -1554 95 50 60
237.344 114.06 -1554 101 40 60
240.661 114.157 -1555 97 37 56
243.828 114.181 -1555 95 37 54
247.79 114.573 -1560 107 36 53
251.453 114.818 -1563 118 53 63
255.131 115.064 -1566 128 77 71
258.493 115.163 -1567 132 84 69
262.696 115.63 -1573 133 88 69
266.419 115.877 -1576 130 90 65
269.986 116.051 -1578 133 91 66
273.736 116.299 -1581 136 94 68
276.799 116.253 -1580 136 93 67
279.684 116.133 -1578 136 91 65
282.921 116.161 -1578 137 92 65
286.342 116.264 -1579 138 92 63
289.953 116.44 -1581 139 93 68
293.204 116.469 -1581 141 94 68
296.832 116.646 -1583 140 93 64
299.903 116.602 -1582 138 91 63
302.588 116.411 -1579 137 90 62
305.845 116.442 -1579 135 89 61
309.104 116.473 -1579 128 87 56
312.168 116.43 -1578 127 85 56
316.43 116.831 -1583 127 85 59
319.705 116.863 -1583 126 85 65
323.8 117.191 -1587 126 85 65
326.883 117.15 -1586 123 81 62
329.756 117.035 -1584 124 78 53
333.045 117.068 -1584 124 79 55
336.124 117.028 -1583 119 75 52
339.63 117.136 -1584 119 76 54
343.144 117.245 -1585 128 84 62
346.228 117.206 -1584 137 93 71
349.31 117.167 -1583 145 95 73
351.945 116.981 -1580 145 97 73
355.021 116.942 -1579 147 100 76
357.642 116.756 -1576 151 104 79
360.712 116.719 -1575 153 106 80
364.242 116.829 -1576 152 105 79
367.547 116.867 -1576 153 106 78
370.855 116.904 -1576 153 106 77
374.64 117.091 -1578 155 107 78
378.199 117.203 -1579 155 106 77
381.281 117.168 -1578 156 109 80
384.85 117.281 -1579 157 111 81
388.426 117.395 -1580 156 111 80
392.01 117.509 -1581 158 114 83
394.851 117.4 -1579 158 115 84
398.696 117.59 -1581 155 112 82
401.791 117.556 -1580 156 114 84
405.14 117.597 -1580 160 115 83
407.977 117.49 -1578 160 116 84
411.329 117.532 -1578 161 117 85
414.423 117.5 -1577 163 116 88
417.516 117.468 -1576 167 119 91
420.074 117.288 -1573 168 120 91
423.969 117.48 -1575 169 121 92
427.605 117.599 -1576 169 122 91
430.976 117.643 -1576 169 122 93
434.075 117.613 -1575 169 123 94
438.006 117.807 -1577 171 125 97
441.111 117.778 -1576 170 125 94
444.497 117.824 -1576 173 128 97
447.887 117.87 -1576 175 130 101
451.567 117.991 -1577 173 131 99
454.679 117.963 -1576 173 131 99
458.953 118.235 -1579 175 134 101
462.951 118.433 -1581 175 132 98
466.372 118.481 -1581 176 131 99
469.501 118.454 -1580 176 132 99
472.928 118.503 -1580 176 133 99
475.757 118.403 -1578 176 133 99
479.188 118.452 -1578 177 134 102
482.93 118.578 -1579 177 135 101
486.373 118.628 -1579 176 135 98
489.509 118.604 -1578 176 135 98
493.271 118.73 -1579 175 135 101
496.727 118.782 -1579 177 139 106
500.504 118.91 -1580 178 143 111
503.333 118.812 -1578 176 140 113
507.764 119.09 -1581 175 141 114
511.243 119.144 -1581 174 140 111
513.749 118.972 -1578 172 137 107
517.231 119.026 -1578 175 138 110
520.717 119.08 -1578 177 140 112
524.208 119.135 -1578 176 140 112
527.703 119.191 -1578 175 138 110
531.204 119.247 -1578 173 136 108
535.049 119.378 -1579 169 136 108
537.197 119.133 -1575 166 134 105
541.392 119.341 -1577 165 133 105
545.257 119.474 -1578 164 132 102
550.173 119.835 -1582 160 130 99
554.763 120.121 -1585 160 129 101
559.372 120.408 -1588 158 127 101
562.935 120.467 -1588 155 128 99
566.147 120.451 -1587 156 128 101
569.361 120.436 -1586 157 130 103
571.852 120.269 -1583 157 129 102
576.153 120.482 -1585 162 131 106
578.273 120.239 -1581 161 129 105
582.59 120.453 -1583 158 126 101
586.18 120.516 -1583 160 128 102
590.893 120.807 -1586 168 135 109
594.877 120.947 -1587 179 146 120
598.116 120.935 -1586 189 156 129
600.977 120.847 -1584 196 163 136
603.453 120.682 -1581 203 170 145
605.537 120.442 -1577 209 177 153
608.381 120.355 -1575 220 190 166
611.61 120.344 -1574 227 198 172
615.622 120.486 -1575 234 205 178
618.072 120.324 -1572 242 212 186
622.097 120.467 -1573 244 214 189
625.336 120.458 -1572 247 215 192
628.577 120.449 -1571 249 217 194
631.417 120.364 -1569 251 219 196
634.658 120.356 -1568 252 220 197
639.123 120.579 -1570 253 221 200
641.556 120.418 -1567 254 222 201
646.863 120.796 -1571 254 225 202
651.781 121.097 -1574 255 225 202
656.72 121.399 -1577 255 225 203
659.586 121.317 -1575 254 226 204
662.449 121.236 -1573 252 225 203
666.156 121.308 -1573 255 227 204
669.869 121.381 -1573 255 228 205
674.018 121.532 -1574 255 228 204
677.747 121.607 -1574 255 224 199
681.484 121.681 -1574 255 224 198
685.662 121.834 -1575 253 224 198
690.727 122.142 -1578 251 222 197
694.494 122.218 -1578 250 220 200
698.71 122.373 -1579 0 0 0
702.048 122.373 -1578 0 0 0
-653.39 111.062 -1473 240 217 200
-649.424 110.917 -1472 240 215 197
-645.469 110.772 -1471 243 214 193
-641.963 110.703 -1471 244 216 196
-638.028 110.559 -1470 242 214 195
-636.695 110.867 -1475 241 211 194
-633.627 110.874 -1476 243 210 191
-629.28 110.656 -1474 240 207 187
-624.949 110.44 -1472 238 206 185
-620.633 110.223 -1470 236 207 183
-616.333 110.007 -1468 237 207 184
-614.554 110.242 -1472 234 203 181
-612.347 110.401 -1475 229 198 177
-609.719 110.486 -1477 228 195 173
-606.266 110.422 -1477 229 196 175
-603.636 110.507 -1479 229 195 177
-598.568 110.145 -1475 226 192 172
-595.138 110.082 -1475 223 188 167
-591.714 110.019 -1475 223 187 164
-588.694 110.032 -1476 222 186 165
-585.676 110.044 -1477 220 184 162
-583.447 110.206 -1480 219 185 158
-579.643 110.071 -1479 218 184 157
-576.627 110.085 -1480 212 178 152
-572.451 109.876 -1478 210 177 152
-569.445 109.89 -1479 209 176 149
-565.291 109.682 -1477 211 175 148
-562.293 109.698 -1478 211 171 144
-559.296 109.713 -1479 208 167 136
-557.052 109.877 -1482 206 166 133
-553.305 109.746 -1481 203 163 128
-550.31 109.762 -1482 196 154 115
-547.685 109.853 -1484 189 147 106
-544.69 109.87 -1485 181 138 94
-541.695 109.888 -1486 175 130 87
-538.7 109.906 -1487 173 127 84
-535.347 109.85 -1487 169 123 80
-533.071 110.017 -1490 169 119 77
-529.365 109.888 -1489 166 116 76
-526.022 109.833 -1489 165 116 79
-523.737 110 -1492 168 117 79
-520.746 110.02 -1493 176 125 87
-517.061 109.893 -1492 184 133 95
-514.42 109.987 -1494 191 139 100
-511.09 109.935 -1494 194 143 103
-507.764 109.882 -1494 196 148 102
-503.768 109.683 -1492 199 152 108
-500.457 109.632 -1492 200 153 110
-496.15 109.36 -1489 199 153 110
-492.524 109.236 -1488 198 153 109
-489.235 109.186 -1488 196 152 107
-485.95 109.136 -1488 195 152 113
-482.995 109.16 -1489 193 148 112
-480.039 109.184 -1490 186 141 106
-477.084 109.209 -1491 179 124 99
-473.175 109.014 -1489 129 65 50
-469.595 108.893 -1488 119 42 40
-465.397 108.626 -1485 118 44 50
-461.527 108.432 -1483 116 41 47
-457.979 108.313 -1482 117 40 48
-454.439 108.193 -1481 113 47 63
-451.213 108.147 -1481 222 164 181
-448.294 108.175 -1482 215 202 224
-445.374 108.203 -1483 217 207 227
-441.857 108.085 -1482 218 211 229
-438.941 108.113 -1483 228 226 244
-435.437 107.996 -1482 227 229 247
-432.233 107.952 -1482 223 229 246
-429.032 107.909 -1482 232 238 253
-426.41 108.012 -1484 242 246 255
-423.213 107.969 -1484 239 240 253
-420.586 108.072 -1486 227 228 242
-417.392 108.03 -1486 216 217 231
-414.48 108.061 -1487 217 218 232
-411.845 108.165 -1489 217 221 234
-408.93 108.196 -1490 215 219 233
-406.014 108.228 -1491 217 219 235
-403.098 108.26 -1492 216 219 233
-400.181 108.292 -1493 214 217 230
-396.465 108.108 -1491 217 219 235
-393.29 108.068 -1491 218 220 236
-390.379 108.102 -1492 218 220 236
-386.689 107.918 -1490 216 220 237
-383.783 107.952 -1491 214 219 236
-380.876 107.986 -1492 212 218 233
-377.715 107.948 -1492 211 216 232
-374.306 107.839 -1491 213 218 235
-371.651 107.946 -1493 218 223 240
-368.004 107.765 -1491 221 226 243
-365.103 107.801 -1492 223 228 243
-362.443 107.909 -1494 224 229 243
-359.538 107.946 -1495 221 226 239
-356.631 107.982 -1496 217 222 237
-353.96 108.092 -1498 212 217 232
-351.049 108.129 -1499 209 214 229
-347.673 108.022 -1498 206 211 226
-344.304 107.916 -1497 209 214 229
-341.397 107.954 -1498 209 216 228
-338.264 107.921 -1498 209 216 228
-335.581 108.032 -1500 212 219 231
-333.115 108.215 -1503 216 221 234
-330.199 108.254 -1504 218 223 236
-327.5 108.366 -1506 218 223 234
-324.58 108.405 -1507 214 219 232
-321.658 108.446 -1508 210 215 228
-318.735 108.486 -1509 206 211 224
-316.02 108.599 -1511 203 208 222
-313.092 108.64 -1512 198 203 218
-310.367 108.753 -1514 192 197 210
-307.231 108.723 -1514 187 192 205
-304.097 108.693 -1514 184 189 202
-300.967 108.663 -1514 187 190 203
-297.248 108.418 -1511 202 205 218
-293.934 108.318 -1510 231 236 253
-290.241 108.074 -1507 217 222 239
-286.372 107.759 -1503 205 210 227
-282.711 107.516 -1500 213 218 235
-279.251 107.345 -1498 224 229 246
-275.617 107.103 -1495 228 230 248
-271.998 106.862 -1492 227 228 246
-268.574 106.692 -1490 226 227 245
-264.447 106.237 -1484 224 226 244
-261.052 106.068 -1482 222 224 242
-257.841 105.971 -1481 221 222 240
-254.808 105.946 -1481 219 220 239
-251.948 105.993 -1482 219 219 240
-248.918 105.969 -1482 220 222 245
-246.055 106.016 -1483 221 223 245
-242.863 105.921 -1482 220 222 238
-239.839 105.898 -1482 220 222 239
-236.657 105.803 -1481 221 223 241
-233.481 105.709 -1480 225 227 245
-230.311 105.615 -1479 228 230 248
-227.147 105.522 -1478 228 230 248
-223.989 105.428 -1477 224 228 245
-220.987 105.407 -1477 223 228 245
-217.838 105.314 -1476 220 225 242
-214.842 105.293 -1476 218 222 239
-211.703 105.201 -1475 214 218 236
-208.429 105.038 -1473 213 216 234
-205.164 104.876 -1471 216 218 236
-202.597 105.07 -1474 221 223 241
-199.342 104.908 -1472 231 232 248
-196.363 104.889 -1472 238 239 253
-193.518 104.942 -1473 244 245 254
-190.799 105.065 -1475 248 249 255
-187.947 105.119 -1476 249 251 255
-185.343 105.314 -1479 250 252 255
-182.358 105.296 -1479 250 252 255
-179.374 105.279 -1479 249 252 255
-176.631 105.404 -1481 247 250 255
-173.529 105.316 -1480 246 250 253
-170.433 105.229 -1479 246 250 253
-167.456 105.212 -1479 245 249 252
-164.59 105.268 -1480 244 249 252
-161.723 105.323 -1481 245 249 252
-158.745 105.308 -1481 245 249 252
-155.979 105.435 -1483 244 249 252
-153.103 105.491 -1484 243 249 252
-150.225 105.548 -1485 243 249 254
-147.244 105.533 -1485 245 250 254
-144.362 105.59 -1486 246 251 254
-141.381 105.577 -1486 247 251 254
-138.402 105.563 -1486 249 253 255
-135.424 105.55 -1486 248 251 255
-132.537 105.608 -1487 247 251 255
-129.559 105.596 -1487 242 247 252
-126.497 105.513 -1486 234 237 247
-123.44 105.43 -1485 228 231 242
-120.55 105.489 -1486 230 233 246
-117.579 105.478 -1486 226 229 242
-114.608 105.467 -1486 224 229 242
-111.638 105.456 -1486 223 225 241
-108.596 105.374 -1485 224 226 242
-105.63 105.364 -1485 227 229 245
-102.526 105.212 -1483 237 240 252
-99.5655 105.202 -1483 247 250 254
-96.5407 105.122 -1482 251 254 255
-93.7101 105.255 -1484 250 254 255
-90.7499 105.246 -1484 250 254 255
-87.8498 105.309 -1485 251 254 255
-84.889 105.3 -1485 251 253 255
-81.9842 105.363 -1486 254 254 255
-78.9165 105.214 -1484 253 254 255
-75.9598 105.206 -1484 248 250 252
-73.0037 105.199 -1484 245 246 248
-70.001 105.122 -1483 245 245 247
-67.0028 105.044 -1482 244 246 246
-64.0956 105.109 -1483 246 249 249
-61.1437 105.103 -1483 248 251 253
-58.1922 105.097 -1483 248 252 253
-55.2413 105.092 -1483 248 252 253
-52.2908 105.087 -1483 250 254 255
-49.2742 104.94 -1481 250 254 254
-46.2971 104.865 -1480 250 254 251
-43.2952 104.719 -1478 251 255 253
-40.3288 104.644 -1477 250 254 253
-37.3668 104.569 -1476 250 254 255
-34.3857 104.424 -1474 248 252 254
-31.4768 104.492 -1475 246 250 253
-28.5449 104.489 -1475 244 247 255
-25.6306 104.557 -1476 238 241 250
-22.6971 104.555 -1476 233 236 249
-19.7638 104.553 -1476 230 233 246
-16.8192 104.481 -1475 229 232 245
-13.8882 104.479 -1475 226 231 244
-10.9647 104.549 -1476 226 231 244
-8.04822 104.76 -1479 226 231 246
-5.12334 105.043 -1483 228 232 246
-2.18115 105.255 -1486 231 234 247
0.772429 105.397 -1488 235 238 251
3.73897 105.68 -1492 240 243 255
6.70797 105.752 -1493 242 245 255
9.68099 105.823 -1494 239 243 255
12.6496 105.824 -1494 239 244 255
15.6289 105.897 -1495 246 247 255
18.5873 105.827 -1494 248 250 255
21.5419 105.758 -1493 247 251 254
24.509 105.761 -1493 246 252 255
27.5132 105.905 -1495 247 253 255
30.5255 106.049 -1497 246 252 253
33.5237 106.123 -1498 246 252 254
36.5504 106.268 -1500 244 250 253
39.5593 106.343 -1501 246 249 255
42.6572 106.63 -1505 243 246 253
45.6805 106.705 -1506 238 240 249
48.708 106.78 -1507 231 233 245
51.8086 106.998 -1510 225 227 240
54.8127 107.003 -1510 222 225 236
57.8938 107.15 -1512 226 230 239
61.0235 107.368 -1515 234 238 245
64.1658 107.587 -1518 241 244 250
67.2761 107.735 -1520 244 247 254
70.395 107.883 -1522 242 247 255
73.619 108.174 -1526 244 247 255
76.6584 108.181 -1526 237 240 250
79.7508 108.259 -1527 234 237 247
82.9561 108.479 -1530 219 222 233
86.118 108.629 -1532 212 216 227
89.0558 108.496 -1530 212 217 230
92.1666 108.576 -1531 212 217 230
95.2202 108.585 -1531 212 217 230
98.2746 108.594 -1531 210 215 226
101.264 108.532 -1530 209 214 226
104.386 108.613 -1531 216 219 231
107.513 108.694 -1532 219 222 236
110.644 108.776 -1533 218 221 237
113.707 108.786 -1533 217 222 236
116.847 108.868 -1534 217 222 236
119.913 108.88 -1534 218 221 235
122.98 108.891 -1534 217 220 235
126.048 108.903 -1534 215 219 234
129.118 108.915 -1534 215 220 236
132.188 108.928 -1534 215 220 236
135.436 109.083 -1536 215 220 236
138.513 109.096 -1536 216 222 238
141.59 109.109 -1536 218 224 241
144.481 108.981 -1534 216 222 238
147.653 109.066 -1535 214 219 233
150.536 108.938 -1533 210 214 228
153.713 109.024 -1534 209 213 226
156.894 109.11 -1535 210 214 227
160.29 109.338 -1538 209 214 227
163.274 109.283 -1537 209 214 227
166.364 109.299 -1537 208 211 225
169.455 109.315 -1537 207 209 223
172.547 109.331 -1537 205 208 221
175.755 109.419 -1538 207 210 222
179.085 109.578 -1540 209 211 223
182.542 109.809 -1543 207 208 219
186.014 110.04 -1546 206 208 219
189.131 110.058 -1546 206 210 221
192.499 110.219 -1548 208 210 220
195.498 110.167 -1547 209 211 221
198.751 110.257 -1548 208 210 220
201.749 110.205 -1547 205 207 218
205.274 110.438 -1550 206 208 219
208.14 110.316 -1548 205 204 214
211.683 110.55 -1551 201 203 212
214.963 110.642 -1552 198 203 212
218.248 110.734 -1553 196 201 210
221.539 110.827 -1554 191 194 204
224.836 110.919 -1555 190 190 201
227.993 110.941 -1555 199 181 191
231.151 110.964 -1555 121 89 100
234.01 110.843 -1553 95 42 54
237.473 111.009 -1555 95 35 54
240.792 111.103 -1556 93 33 51
244.274 111.27 -1558 91 33 50
248.242 111.651 -1563 98 37 47
251.268 111.604 -1562 118 63 68
255.269 111.985 -1567 117 74 67
258.798 112.153 -1569 119 80 67
263.004 112.608 -1575 120 82 65
266.562 112.776 -1577 117 84 61
270.814 113.232 -1583 122 84 63
274.228 113.33 -1584 123 85 63
277.122 113.213 -1582 123 84 61
280.365 113.24 -1582 125 85 62
283.61 113.268 -1582 125 85 62
287.765 113.654 -1587 125 85 60
290.291 113.395 -1583 125 83 61
293.731 113.496 -1584 125 83 60
297.365 113.668 -1586 126 82 57
300.063 113.482 -1583 126 83 58
303.133 113.44 -1582 125 82 57
306.008 113.326 -1580 121 80 54
309.465 113.428 -1581 114 76 48
312.533 113.387 -1580 113 76 49
316.398 113.633 -1583 113 74 51
320.279 113.879 -1586 112 74 58
323.971 114.054 -1588 112 74 58
327.674 114.23 -1590 111 73 59
330.348 114.047 -1587 114 71 45
333.012 113.864 -1584 117 74 49
336.727 114.04 -1586 123 81 56
339.811 114.002 -1585 132 90 67
343.326 114.107 -1586 139 95 73
346.849 114.213 -1587 142 98 76
349.937 114.176 -1586 149 99 76
352.579 113.994 -1583 147 100 75
355.435 113.885 -1581 146 100 75
358.514 113.848 -1580 148 102 77
361.362 113.74 -1578 149 103 78
365.13 113.92 -1580 149 103 77
368.443 113.956 -1580 152 105 76
371.523 113.92 -1579 151 104 73
375.552 114.174 -1582 151 104 73
379.118 114.283 -1583 151 104 73
381.967 114.177 -1581 152 106 77
385.298 114.215 -1581 153 107 78
388.879 114.325 -1582 152 106 76
392.218 114.364 -1582 147 104 76
395.311 114.331 -1581 149 106 78
398.908 114.443 -1582 152 109 81
402.004 114.41 -1581 148 106 76
405.356 114.45 -1581 154 108 79
408.194 114.346 -1579 156 111 82
411.548 114.387 -1579 157 114 83
415.169 114.501 -1580 158 112 85
417.738 114.325 -1577 162 115 87
421.1 114.367 -1577 163 115 88
424.464 114.409 -1577 161 114 87
427.562 114.379 -1576 162 115 86
430.932 114.422 -1576 164 117 89
434.03 114.393 -1575 162 116 89
438.239 114.655 -1578 164 118 91
441.346 114.626 -1577 165 121 91
445.297 114.816 -1579 166 122 92
448.409 114.788 -1578 167 123 95
452.094 114.906 -1579 166 124 93
454.632 114.734 -1576 164 122 92
458.325 114.852 -1577 161 119 88
462.318 115.045 -1579 168 123 91
465.735 115.091 -1579 169 122 91
469.452 115.211 -1580 170 124 92
473.179 115.332 -1581 169 124 90
476.311 115.307 -1580 168 125 93
479.443 115.282 -1579 169 126 94
482.88 115.331 -1579 168 126 93
486.631 115.453 -1580 168 127 91
490.079 115.503 -1580 167 126 91
493.532 115.553 -1580 166 126 93
496.99 115.603 -1580 165 127 95
500.136 115.581 -1579 163 128 96
504.238 115.778 -1581 164 128 102
507.712 115.83 -1581 162 128 102
511.513 115.955 -1582 161 127 100
514.673 115.934 -1581 161 125 98
518.16 115.987 -1581 161 127 105
520.333 115.747 -1577 162 128 106
523.821 115.8 -1577 159 125 104
526.646 115.707 -1575 156 122 102
531.149 115.982 -1578 156 124 102
534.654 116.037 -1578 153 122 101
538.164 116.092 -1578 148 118 97
541.336 116.073 -1577 148 118 98
545.545 116.277 -1579 149 119 97
550.463 116.628 -1583 146 118 94
555.755 117.053 -1588 144 116 95
559.313 117.111 -1588 142 113 96
563.231 117.242 -1589 139 114 94
565.731 117.079 -1586 134 110 92
569.301 117.138 -1586 136 111 93
572.514 117.123 -1585 136 111 93
577.182 117.405 -1588 138 110 94
578.944 117.095 -1583 137 109 95
583.264 117.303 -1585 138 110 93
586.859 117.364 -1585 141 112 94
591.576 117.648 -1588 146 116 96
595.564 117.784 -1589 160 124 98
597.676 117.549 -1585 172 136 110
601.293 117.612 -1585 182 146 120
603.389 117.378 -1581 186 151 125
606.624 117.367 -1580 192 158 133
609.089 117.208 -1577 196 164 138
611.933 117.123 -1575 207 175 150
615.557 117.187 -1575 217 185 158
618.793 117.178 -1574 225 192 166
622.426 117.243 -1574 233 200 175
625.269 117.16 -1572 234 202 180
628.51 117.151 -1571 237 205 182
631.752 117.143 -1570 241 209 186
634.59 117.061 -1568 243 211 188
639.054 117.277 -1570 243 211 188
642.715 117.345 -1570 244 212 189
647.205 117.563 -1572 245 215 192
652.125 117.856 -1575 248 217 194
655.817 117.926 -1575 247 215 192
659.096 117.921 -1574 247 216 194
661.535 117.766 -1571 244 214 195
666.507 118.062 -1574 245 214 193
670.223 118.133 -1574 246 216 195
673.517 118.129 -1573 250 218 195
677.674 118.277 -1574 251 216 190
682.275 118.5 -1576 249 213 184
686.458 118.648 -1577 241 208 181
689.339 118.571 -1575 240 209 181
693.978 118.796 -1577 244 212 187
699.076 119.097 -1580 0 0 0
703.751 119.323 -1582 0 0 0
-672.775 108.059 -1469 124 109 101
-667.398 107.695 -1465 167 151 140
-665.672 107.919 -1469 205 187 173
-665.286 108.363 -1476 231 206 189
-661.734 108.294 -1476 243 214 195
-655.96 107.858 -1471 242 214 192
-653.321 107.936 -1473 244 216 194
-648.032 107.575 -1469 244 215 193
-644.524 107.508 -1469 243 213 190
-641.458 107.514 -1470 242 212 193
-638.829 107.593 -1472 241 211 192
-634.901 107.454 -1471 238 208 190
-632.273 107.535 -1473 238 206 187
-627.933 107.323 -1471 237 205 185
-624.459 107.258 -1471 235 203 182
-620.146 107.048 -1469 232 202 178
-616.689 106.984 -1469 232 201 178
-613.655 106.994 -1470 232 201 178
-611.453 107.149 -1473 228 197 174
-609.242 107.304 -1476 226 192 171
-606.203 107.314 -1477 225 191 170
-602.349 107.179 -1476 224 190 170
-597.694 106.9 -1473 223 190 167
-595.48 107.056 -1476 220 186 164
-591.652 106.923 -1475 220 184 161
-589.032 107.007 -1477 220 185 163
-585.219 106.875 -1476 219 184 161
-582.599 106.96 -1478 216 183 156
-579.191 106.901 -1478 215 182 155
-575.789 106.842 -1478 211 179 153
-572.005 106.711 -1477 210 177 152
-569.386 106.798 -1479 211 176 151
-565.616 106.668 -1478 212 176 150
-562.996 106.755 -1480 213 174 147
-559.617 106.698 -1480 213 172 142
-556.243 106.641 -1480 211 171 139
-553.248 106.657 -1481 209 170 136
-550.254 106.673 -1482 206 165 126
-547.26 106.69 -1483 201 159 119
-544.634 106.778 -1485 196 153 112
-542.368 106.939 -1488 190 144 101
-539.37 106.957 -1489 183 137 94
-535.652 106.831 -1488 176 131 86
-533.375 106.992 -1491 171 124 81
-529.667 106.867 -1490 168 120 79
-527.028 106.957 -1492 169 120 82
-522.982 106.761 -1490 170 120 83
-520.344 106.852 -1492 177 127 90
-517.355 106.872 -1493 187 137 100
-514.023 106.821 -1493 193 144 105
-511.038 106.841 -1494 195 147 106
-507.373 106.719 -1493 200 151 105
-503.718 106.597 -1492 201 153 111
-500.071 106.475 -1491 200 153 111
-496.433 106.354 -1490 198 152 110
-492.143 106.091 -1487 196 151 108
-489.186 106.113 -1488 194 149 105
-486.228 106.136 -1489 190 148 108
-483.595 106.231 -1491 188 145 106
-480.636 106.254 -1492 183 138 101
-477.676 106.278 -1493 181 125 100
-474.081 106.16 -1492 145 83 66
-470.179 105.971 -1490 115 43 38
-465.977 105.711 -1487 112 34 42
-461.792 105.452 -1484 117 40 48
-458.242 105.336 -1483 113 39 46
-454.394 105.149 -1481 106 39 52
-451.168 105.104 -1481 163 104 118
-448.249 105.131 -1482 220 198 217
-445.33 105.158 -1483 221 208 227
-441.813 105.043 -1482 224 216 234
-438.898 105.071 -1483 229 227 245
-435.687 105.028 -1483 224 226 242
-432.19 104.915 -1482 222 227 243
-429.279 104.943 -1483 230 236 251
-426.655 105.043 -1485 231 236 250
-424.312 105.214 -1488 226 227 241
-421.11 105.172 -1488 216 217 231
-418.474 105.273 -1490 213 215 228
-415.275 105.232 -1490 217 218 232
-412.357 105.262 -1491 217 219 233
-409.164 105.222 -1491 215 219 232
-406.519 105.324 -1493 215 217 233
-403.328 105.284 -1493 214 217 232
-400.141 105.245 -1493 215 218 231
-396.692 105.136 -1492 219 221 237
-393.515 105.098 -1492 219 221 237
-390.34 105.06 -1492 217 219 235
-386.91 104.952 -1491 216 218 235
-384.26 105.055 -1493 214 217 234
-380.583 104.877 -1491 211 217 232
-377.931 104.981 -1493 210 216 232
-374.269 104.804 -1491 211 216 233
-371.615 104.909 -1493 213 218 235
-368.215 104.803 -1492 217 222 238
-365.067 104.768 -1492 219 224 241
-362.408 104.873 -1494 223 228 242
-359.262 104.838 -1494 221 226 240
-356.597 104.944 -1496 217 222 237
-353.689 104.98 -1497 211 216 231
-351.015 105.086 -1499 206 212 226
-347.639 104.983 -1498 208 212 226
-344.5 104.95 -1498 208 212 225
-341.592 104.987 -1499 206 212 225
-338.683 105.024 -1500 207 214 226
-335.996 105.132 -1502 211 218 230
-333.304 105.24 -1504 214 220 233
-330.826 105.418 -1507 215 221 234
-327.686 105.386 -1507 214 221 233
-324.979 105.495 -1509 210 216 229
-322.053 105.534 -1510 206 212 225
-318.915 105.503 -1510 206 211 224
-315.989 105.543 -1511 206 210 224
-313.268 105.653 -1513 203 207 221
-310.337 105.693 -1514 195 199 212
-307.404 105.733 -1515 190 194 207
-304.269 105.704 -1515 186 190 203
-301.335 105.745 -1516 187 190 203
-298.006 105.647 -1515 193 196 209
-294.489 105.479 -1513 208 213 230
-290.791 105.242 -1510 197 202 219
-286.916 104.936 -1506 206 211 228
-283.061 104.63 -1502 219 224 241
-279.411 104.395 -1499 226 230 247
-275.775 104.16 -1496 225 227 245
-272.154 103.925 -1493 224 225 243
-268.548 103.69 -1490 223 225 243
-264.778 103.387 -1486 224 226 243
-261.379 103.223 -1484 223 225 241
-257.99 103.059 -1482 221 222 240
-254.956 103.035 -1482 218 218 239
-252.094 103.08 -1483 216 216 237
-249.062 103.057 -1483 217 219 242
-246.198 103.103 -1484 218 220 242
-243.004 103.01 -1483 215 217 236
-239.978 102.988 -1483 214 216 236
-237.114 103.035 -1484 215 217 236
-233.774 102.874 -1482 220 222 240
-230.445 102.713 -1480 223 225 243
-227.279 102.622 -1479 226 228 246
-224.119 102.531 -1478 223 227 244
-220.966 102.441 -1477 221 226 243
-217.818 102.351 -1476 217 222 239
-214.821 102.331 -1476 215 219 236
-211.683 102.241 -1475 213 216 234
-208.55 102.152 -1474 212 215 233
-205.424 102.064 -1473 215 217 236
-202.578 102.114 -1474 223 225 244
-199.323 101.957 -1472 229 231 248
-196.345 101.938 -1472 235 237 251
-193.499 101.989 -1473 241 244 252
-190.781 102.109 -1475 246 248 255
-187.929 102.161 -1476 247 249 255
-185.2 102.282 -1478 248 250 255
-182.34 102.334 -1479 248 250 255
-179.357 102.317 -1479 248 251 255
-176.376 102.3 -1479 248 251 255
-173.278 102.215 -1478 248 252 255
-170.302 102.199 -1478 247 251 254
-167.213 102.114 -1477 247 251 254
-164.353 102.168 -1478 245 251 254
-161.489 102.222 -1479 245 250 253
-158.73 102.345 -1481 245 249 252
-155.964 102.468 -1483 245 249 252
-153.089 102.523 -1484 245 249 252
-150.21 102.578 -1485 244 249 253
-147.131 102.495 -1484 244 249 253
-144.154 102.481 -1484 245 251 254
-141.273 102.537 -1485 247 251 254
-138.389 102.593 -1486 248 252 255
-135.503 102.65 -1487 249 253 255
-132.613 102.706 -1488 249 253 255
-129.547 102.625 -1487 246 250 253
-126.57 102.613 -1487 236 240 249
-123.428 102.463 -1485 229 232 243
-120.539 102.521 -1486 230 233 246
-117.567 102.51 -1486 225 229 242
-114.597 102.499 -1486 223 228 241
-111.552 102.42 -1485 224 226 240
-108.512 102.341 -1484 222 225 239
-105.62 102.4 -1485 221 223 239
-102.585 102.321 -1484 225 227 241
-99.5561 102.243 -1483 237 240 249
-96.5316 102.165 -1482 248 250 255
-93.7013 102.294 -1484 251 253 255
-90.6803 102.216 -1483 251 253 255
-87.8415 102.346 -1485 252 253 255
-84.7668 102.2 -1483 252 253 255
-81.9213 102.33 -1485 253 253 255
-78.8027 102.116 -1482 254 254 255
-75.9015 102.178 -1483 250 252 254
-72.8984 102.102 -1482 247 249 252
-69.9944 102.164 -1483 245 246 250
-66.9965 102.089 -1482 246 248 249
-64.0896 102.152 -1483 247 249 251
-61.1791 102.215 -1484 250 252 255
-58.1868 102.14 -1483 250 252 255
-55.2361 102.135 -1483 250 252 254
-52.2506 102.061 -1482 249 253 254
-49.2362 101.919 -1480 250 253 254
-46.2615 101.845 -1479 251 254 254
-43.3204 101.841 -1479 250 254 254
-40.3523 101.769 -1478 250 254 254
-37.3633 101.627 -1476 250 254 255
-34.4057 101.555 -1475 247 252 254
-31.4525 101.483 -1474 243 249 252
-28.5229 101.481 -1474 241 245 254
-25.5761 101.409 -1473 235 238 248
-22.6642 101.476 -1474 230 233 246
-19.7351 101.474 -1474 227 230 243
-16.8177 101.541 -1475 226 229 242
-13.8964 101.608 -1476 225 230 241
-10.9711 101.676 -1477 224 229 241
-8.05835 101.951 -1481 225 230 246
-5.12978 102.225 -1485 228 231 247
-2.18095 102.294 -1486 231 233 249
0.771833 102.363 -1487 235 238 251
3.73611 102.638 -1491 241 244 255
6.70284 102.708 -1492 244 247 255
9.6736 102.777 -1493 239 244 255
12.6484 102.847 -1494 239 244 255
15.6168 102.848 -1494 246 247 255
18.5856 102.85 -1494 247 249 255
21.5398 102.783 -1493 247 250 255
24.5067 102.785 -1493 246 252 255
27.5106 102.925 -1495 247 253 255
30.5023 102.997 -1496 246 252 254
33.5205 103.137 -1498 245 251 255
36.5714 103.347 -1501 243 249 253
39.6081 103.488 -1503 241 244 251
42.7099 103.768 -1507 237 240 248
45.7369 103.841 -1508 231 234 244
48.7681 103.914 -1509 225 226 239
51.838 104.056 -1511 224 225 238
54.88 104.13 -1512 225 228 239
57.9649 104.273 -1514 232 235 244
61.0581 104.416 -1516 240 243 251
64.2019 104.629 -1519 246 249 255
67.3141 104.773 -1521 246 250 255
70.5271 105.055 -1525 244 249 255
73.6119 105.13 -1526 243 247 255
76.7015 105.206 -1527 235 238 249
79.8999 105.42 -1530 232 235 246
83.0569 105.565 -1532 219 222 233
86.1662 105.642 -1533 208 211 222
89.2219 105.65 -1533 206 211 225
92.3387 105.728 -1534 206 211 225
95.3979 105.736 -1534 206 211 224
98.4578 105.745 -1534 205 210 221
101.519 105.755 -1534 204 209 220
104.512 105.695 -1533 209 212 222
107.573 105.705 -1533 212 215 227
110.562 105.646 -1532 214 217 229
113.696 105.726 -1533 213 218 231
116.835 105.805 -1534 214 219 232
119.98 105.885 -1535 217 220 233
122.968 105.828 -1534 217 220 235
126.037 105.839 -1534 217 219 235
129.19 105.92 -1535 213 218 234
132.262 105.932 -1535 212 217 232
135.6 106.152 -1538 210 215 230
138.59 106.095 -1537 209 215 229
141.577 106.039 -1536 212 217 231
144.655 106.053 -1536 215 220 234
