ply
format ascii 1.0
comment Created by Open3D
element vertex 1355
property double x
property double y
property double z
property uchar red
property uchar green
property uchar blue
end_header
92.1312 -828.845 -1432 201 198 201
94.6899 -823.715 -1423 96 92 95
-90.9858 -866.883 -1491 182 180 182
-86.6978 -856.924 -1474 186 186 189
-82.7122 -849.294 -1461 185 185 187
-78.7301 -841.087 -1447 187 187 189
-74.9151 -834.047 -1435 188 188 192
-71.3036 -828.754 -1426 190 190 192
-67.7324 -823.465 -1417 189 189 191
-64.2471 -818.76 -1409 191 191 193
-60.8411 -814.639 -1402 193 193 194
-57.4665 -810.521 -1395 192 192 194
-54.2403 -808.15 -1391 189 189 191
-51.1425 -807.524 -1390 188 188 190
-47.9459 -805.158 -1386 189 189 191
-44.7997 -803.376 -1383 189 189 190
-41.6673 -801.597 -1380 193 191 193
-38.5483 -799.82 -1377 195 193 195
-35.4429 -798.046 -1374 193 191 192
-32.3746 -796.856 -1372 191 189 191
-29.3797 -797.41 -1373 186 184 186
-26.3423 -796.806 -1372 187 184 187
-23.3605 -797.946 -1374 197 194 197
-20.3257 -797.347 -1373 201 198 201
-17.3082 -797.331 -1373 197 194 197
-14.2595 -795.576 -1370 193 190 193
-11.2488 -795.565 -1370 194 191 194
-8.22626 -794.395 -1368 199 196 198
-5.22014 -794.39 -1368 202 199 200
-2.21245 -793.806 -1367 193 190 193
0.790831 -793.225 -1366 182 179 182
3.79528 -793.807 -1367 181 178 181
6.78923 -792.65 -1365 185 181 186
9.77444 -791.496 -1363 186 186 188
12.7884 -792.667 -1365 189 187 189
15.8344 -795.002 -1369 182 179 180
18.9118 -797.921 -1374 193 190 191
22.0754 -803.165 -1383 192 191 192
25.2788 -808.412 -1392 188 188 188
28.4812 -812.5 -1399 180 177 178
31.647 -814.849 -1403 170 167 168
34.8307 -817.201 -1407 164 161 162
38.0593 -820.135 -1412 162 159 160
41.1936 -820.75 -1413 163 160 161
44.364 -821.948 -1415 163 160 161
47.6444 -824.892 -1420 161 158 159
50.9472 -827.839 -1425 157 154 155
54.0828 -827.883 -1425 154 151 152
57.4599 -831.417 -1431 154 151 152
60.7367 -833.211 -1434 156 153 154
64.0274 -835.007 -1437 156 153 156
67.1916 -835.063 -1437 156 153 154
70.3564 -835.121 -1437 157 154 155
73.6245 -836.345 -1439 159 157 155
76.6884 -835.247 -1437 160 159 156
79.9109 -835.895 -1438 164 162 160
82.9654 -834.802 -1436 171 168 168
86.1918 -835.455 -1437 184 181 184
89.1748 -833.786 -1434 191 188 191
92.3384 -833.863 -1434 195 192 195
95.1034 -830.454 -1428 88 84 87
-90.636 -866.817 -1484 181 180 182
-86.5364 -858.564 -1470 185 185 187
-82.896 -854.403 -1463 184 184 186
-78.9062 -846.158 -1449 184 184 186
-75.2402 -840.837 -1440 185 185 189
-71.5646 -834.935 -1430 188 188 191
-67.9815 -829.621 -1421 191 191 193
-64.3476 -823.143 -1410 190 190 192
-60.893 -818.419 -1402 192 192 194
-57.5568 -814.866 -1396 197 197 199
-54.2475 -811.316 -1390 198 198 200
-51.1125 -810.103 -1388 193 193 195
-47.9175 -807.726 -1384 190 190 192
-44.838 -807.104 -1383 192 192 192
-41.7027 -805.316 -1380 195 192 195
-38.5811 -803.531 -1377 194 191 193
-35.5248 -802.916 -1376 196 193 194
-32.4494 -801.72 -1374 199 196 199
-29.4047 -801.11 -1373 199 196 199
-26.3454 -799.919 -1371 200 197 200
-23.3463 -800.481 -1372 204 201 204
-20.3133 -799.879 -1371 202 199 202
-17.285 -799.28 -1370 198 195 198
-14.2716 -799.266 -1370 198 195 198
-11.2501 -798.672 -1369 203 200 205
-8.22708 -797.497 -1367 201 198 202
-5.22445 -798.075 -1368 197 194 197
-2.21098 -796.322 -1365 187 184 187
0.790431 -795.738 -1364 177 174 175
3.79301 -796.323 -1365 179 176 178
6.78509 -795.161 -1363 183 179 184
9.78277 -795.168 -1363 184 183 185
12.7993 -796.344 -1365 190 188 189
15.848 -798.691 -1369 180 177 178
18.9418 -802.206 -1375 186 183 184
22.0943 -806.891 -1383 185 185 185
25.264 -810.995 -1390 185 184 185
28.4853 -815.686 -1398 179 176 177
31.6966 -819.213 -1404 168 165 166
34.8604 -820.992 -1407 162 159 160
38.0918 -823.94 -1412 162 159 160
41.258 -825.141 -1414 163 160 161
44.4647 -826.929 -1417 164 161 162
47.7187 -829.303 -1421 164 161 162
51.0266 -832.263 -1426 158 155 156
54.243 -833.476 -1428 154 151 152
57.549 -835.858 -1432 156 153 154
60.7886 -837.077 -1434 155 152 153
63.9929 -837.714 -1435 154 151 152
67.1555 -837.77 -1435 153 150 151
70.4166 -838.997 -1437 154 151 152
73.5848 -839.058 -1437 155 153 151
76.8074 -839.707 -1438 158 156 153
79.9794 -839.774 -1438 161 158 155
83.2099 -840.428 -1439 166 162 161
86.3857 -840.501 -1439 174 171 173
89.5623 -840.576 -1439 181 178 180
92.8042 -841.238 -1440 184 180 182
95.5849 -837.814 -1434 82 78 80
-90.6527 -870.244 -1483 178 178 180
-86.6107 -862.54 -1470 183 183 185
-83.1373 -860.12 -1466 182 182 184
-79.1375 -851.837 -1452 181 181 183
-75.2525 -844.144 -1439 185 185 189
-71.7261 -839.974 -1432 189 189 192
-67.9919 -832.876 -1420 191 191 193
-64.4484 -827.54 -1411 192 192 194
-61.0321 -823.381 -1404 194 194 196
-57.6473 -819.225 -1397 198 198 200
-54.333 -815.659 -1391 201 201 203
-51.2668 -815.613 -1391 200 200 202
-48.0279 -812.639 -1386 198 198 200
-44.8763 -810.84 -1383 201 201 202
-41.6779 -807.872 -1378 202 199 202
-38.6141 -807.251 -1377 199 196 198
-35.5034 -805.46 -1374 200 197 200
-32.4535 -804.845 -1373 200 197 200
-29.4299 -804.818 -1373 199 196 199
-26.4065 -804.795 -1373 200 197 200
-23.3833 -804.773 -1373 201 198 201
-20.3455 -804.168 -1372 197 194 197
-17.3124 -803.566 -1371 194 191 194
-14.2942 -803.553 -1371 193 190 193
-11.2596 -802.37 -1369 192 189 194
-8.24016 -801.775 -1368 194 191 195
-5.2175 -800.011 -1365 193 190 192
-2.21276 -800.008 -1365 189 186 189
0.791192 -799.421 -1364 188 185 187
3.79353 -799.423 -1364 190 187 189
6.80088 -800.014 -1365 191 187 191
9.81269 -800.607 -1366 191 188 191
12.8292 -801.203 -1367 191 188 190
15.8849 -803.56 -1371 177 174 175
18.9995 -807.678 -1378 182 179 180
22.1133 -810.626 -1383 181 180 180
25.3041 -815.336 -1391 182 181 181
28.4689 -818.29 -1396 180 177 178
31.6335 -820.661 -1400 170 167 168
34.7912 -822.448 -1403 164 161 162
38.0705 -826.583 -1410 162 159 160
41.2642 -828.376 -1413 165 162 163
44.5344 -831.344 -1418 167 164 165
47.6925 -831.97 -1419 168 165 166
50.9272 -833.771 -1422 163 160 161
54.1755 -835.575 -1425 161 158 159
57.5181 -838.556 -1430 161 158 159
60.671 -838.607 -1430 158 155 156
63.9587 -840.42 -1433 156 153 154
67.1664 -841.063 -1434 155 153 152
70.428 -842.295 -1436 155 153 151
73.5969 -842.357 -1436 155 153 150
76.7664 -842.422 -1436 156 154 152
79.9925 -843.076 -1437 157 154 152
83.2236 -843.733 -1438 161 157 156
86.3397 -843.219 -1437 164 162 161
89.5769 -843.882 -1438 174 172 172
92.755 -843.961 -1438 177 174 175
95.667 -841.694 -1434 80 76 77
-90.792 -874.856 -1484 175 175 177
-86.8033 -867.705 -1472 182 182 185
-83.3226 -865.274 -1468 181 181 183
-79.3694 -857.541 -1455 180 180 182
-75.579 -850.991 -1444 185 185 189
-71.8882 -845.034 -1434 189 189 192
-68.1943 -838.492 -1423 191 191 193
-64.5497 -831.953 -1412 192 192 194
-61.1717 -828.364 -1406 197 197 199
-57.7796 -824.188 -1399 197 197 199
-54.4189 -820.016 -1392 199 199 201
-51.311 -819.382 -1391 202 202 204
-48.1039 -816.983 -1387 202 202 204
-44.9474 -815.175 -1384 202 202 204
-41.8046 -813.371 -1381 205 202 205
-38.7596 -813.336 -1381 204 201 204
-35.5857 -810.359 -1376 204 201 204
-32.5524 -810.33 -1376 203 200 203
-29.4767 -809.126 -1374 203 200 203
-26.4099 -807.924 -1372 203 200 203
-23.3523 -806.724 -1370 202 199 202
-20.3333 -806.706 -1370 195 192 195
-17.2893 -805.512 -1368 193 190 193
-14.2647 -804.909 -1367 191 188 191
-11.2528 -804.899 -1367 186 183 186
-8.23519 -804.301 -1366 188 185 187
-5.21801 -803.118 -1364 187 184 185
-2.20986 -801.937 -1362 187 184 187
0.791376 -802.526 -1363 189 186 189
3.79406 -802.528 -1363 186 182 185
6.80176 -803.121 -1364 187 183 186
9.80692 -803.128 -1364 186 183 186
12.8591 -806.082 -1369 186 183 185
15.9216 -808.45 -1373 177 174 175
18.9883 -810.232 -1376 183 180 181
22.1166 -813.782 -1382 187 185 185
25.2894 -817.925 -1389 188 185 185
28.4323 -820.304 -1393 186 183 184
31.6156 -823.274 -1398 186 184 183
34.7966 -825.658 -1402 183 181 181
38.0765 -829.812 -1409 181 178 179
41.2707 -831.614 -1412 176 173 174
44.51 -834.007 -1416 173 170 171
47.6664 -834.636 -1417 174 171 172
50.9711 -837.623 -1422 173 170 171
54.1463 -838.258 -1423 171 167 168
57.4068 -840.074 -1426 167 163 164
60.5537 -840.125 -1426 163 159 160
63.8352 -841.946 -1429 158 155 154
67.0368 -842.592 -1430 156 153 152
70.2435 -843.24 -1431 154 150 149
73.4553 -843.892 -1432 153 149 146
76.6723 -844.546 -1433 153 151 146
79.8943 -845.204 -1434 154 151 148
83.1796 -846.453 -1436 159 155 154
86.4145 -847.116 -1437 160 158 156
89.6544 -847.782 -1438 167 164 164
92.7707 -847.272 -1437 179 176 177
95.7497 -845.584 -1434 93 89 91
-91.0545 -880.667 -1487 172 172 174
-87.0557 -873.483 -1475 184 184 188
-83.5652 -871.04 -1471 182 182 186
-79.4382 -861.496 -1455 182 182 184
-75.6446 -854.915 -1444 185 185 189
-72.0509 -850.115 -1436 189 189 192
-68.3973 -844.134 -1426 189 189 191
-64.6513 -836.381 -1413 192 192 194
-61.2683 -832.775 -1407 197 197 199
-57.8297 -827.989 -1399 199 199 201
-54.4661 -823.797 -1392 198 198 200
-51.3555 -823.159 -1391 199 199 201
-48.215 -821.933 -1389 199 198 200
-45.0513 -820.117 -1386 199 199 201
-41.8408 -817.121 -1381 204 201 204
-38.7651 -816.494 -1380 208 205 208
-35.6424 -814.687 -1377 209 206 209
-32.5806 -814.066 -1376 207 204 207
-29.5236 -813.447 -1375 205 202 205
-26.4713 -812.831 -1374 204 201 204
-23.4066 -811.627 -1372 200 197 200
-20.3509 -810.425 -1370 191 188 191
-17.3042 -809.225 -1368 188 185 188
-14.2875 -809.212 -1368 187 184 187
-11.2707 -809.201 -1368 185 182 185
-8.24229 -808.009 -1366 186 183 185
-5.22637 -807.412 -1365 188 185 187
-2.21328 -806.226 -1363 189 186 189
0.791378 -805.634 -1362 188 185 188
3.80017 -806.819 -1364 192 189 192
6.81282 -807.415 -1365 191 187 190
9.83713 -808.605 -1367 187 184 187
12.8891 -810.981 -1371 188 184 186
15.9473 -812.768 -1374 184 180 181
19.005 -813.967 -1376 193 190 191
22.1357 -817.534 -1382 194 192 190
25.2932 -821.104 -1388 195 193 191
28.4161 -822.902 -1391 192 189 190
31.5979 -825.886 -1396 190 188 186
34.8018 -828.873 -1401 190 187 186
38.0553 -832.455 -1407 188 184 184
41.248 -834.265 -1410 185 181 182
44.4857 -836.669 -1414 182 178 179
47.6405 -837.3 -1415 180 176 177
50.9078 -839.71 -1419 180 176 177
54.0028 -839.164 -1418 179 175 176
57.2551 -840.988 -1421 179 175 176
60.4362 -841.631 -1422 178 174 175
63.7118 -843.461 -1425 170 166 165
66.9074 -844.109 -1426 160 156 154
70.1572 -845.353 -1428 157 153 150
73.3138 -845.416 -1428 149 145 142
76.6853 -847.849 -1432 139 137 131
79.7965 -847.325 -1431 138 135 131
83.0201 -847.988 -1432 144 140 136
86.3088 -849.246 -1434 154 152 148
89.545 -849.915 -1435 165 162 162
92.5927 -848.81 -1433 179 176 177
95.2315 -844.153 -1425 97 93 96
-91.2565 -885.91 -1489 174 174 176
-87.427 -880.478 -1480 183 183 187
-83.7518 -876.239 -1473 183 183 186
-79.6713 -867.245 -1458 182 182 184
-75.8154 -860.04 -1446 184 184 187
-72.214 -855.217 -1438 187 187 189
-68.5048 -848.614 -1427 187 187 189
-64.7992 -841.42 -1415 190 190 192
-61.4088 -837.797 -1409 194 194 196
-57.9214 -832.393 -1400 197 197 199
-54.5918 -828.777 -1394 196 196 198
-51.3631 -826.353 -1390 195 195 197
-48.257 -825.715 -1389 195 193 196
-45.0905 -823.891 -1386 195 192 195
-41.9075 -821.475 -1382 198 195 198
-38.8269 -820.845 -1381 203 200 203
-35.7252 -819.624 -1379 206 203 206
-32.6563 -819 -1378 204 201 204
-29.5493 -817.19 -1375 202 199 202
-26.4943 -816.571 -1374 199 196 199
-23.4268 -815.361 -1372 194 191 194
-20.3388 -812.965 -1368 190 187 190
-17.3192 -812.948 -1368 187 184 187
-14.2685 -811.152 -1365 187 184 187
-11.2641 -811.735 -1366 189 186 190
-8.2432 -811.132 -1365 190 187 190
-5.22691 -810.532 -1364 188 185 188
-2.21363 -809.341 -1362 194 191 194
0.792729 -809.934 -1363 200 197 199
3.80072 -809.937 -1363 205 201 203
6.81874 -811.13 -1365 201 197 200
9.84563 -812.325 -1367 201 198 201
12.9098 -815.307 -1372 195 192 194
15.9728 -817.102 -1375 187 183 184
19.0491 -818.9 -1378 198 195 196
22.155 -821.295 -1382 199 197 195
25.2423 -822.505 -1384 201 198 197
28.3795 -824.905 -1388 202 199 200
31.5574 -827.903 -1393 197 195 193
34.8074 -832.092 -1400 192 189 187
38.0616 -835.691 -1406 189 185 184
41.2255 -836.914 -1408 189 185 186
44.493 -839.924 -1413 188 184 185
47.6484 -840.558 -1414 187 183 184
50.9162 -842.979 -1418 185 181 182
54.0499 -843.025 -1418 183 179 180
57.2647 -844.263 -1420 184 180 181
60.404 -844.315 -1420 185 181 181
63.5885 -844.963 -1421 183 179 178
66.778 -845.615 -1422 180 176 173
70.0217 -846.864 -1424 176 172 169
73.2237 -847.522 -1425 169 165 162
76.4843 -848.777 -1427 160 157 151
79.8104 -850.63 -1430 156 153 147
83.0344 -851.296 -1431 155 152 146
86.2637 -851.965 -1432 164 162 158
89.3734 -851.447 -1431 182 179 177
92.4797 -850.932 -1430 188 184 184
94.9134 -844.468 -1419 95 91 94
-95.8458 -901.419 -1508 87 83 84
-91.5818 -892.37 -1493 175 175 177
-87.6809 -886.315 -1483 183 183 187
-83.8821 -880.861 -1474 183 183 186
-79.6864 -870.63 -1457 181 181 183
-75.7768 -862.794 -1444 183 183 185
-72.2271 -858.547 -1437 187 187 189
-68.5648 -852.511 -1427 188 188 190
-64.8101 -844.686 -1414 189 189 191
-61.419 -841.047 -1408 193 193 195
-57.9721 -836.216 -1400 193 193 195
-54.6787 -833.18 -1395 194 194 196
-51.5191 -831.939 -1393 196 196 198
-48.3687 -830.701 -1391 191 190 193
-45.1951 -828.868 -1388 188 185 188
-42.0352 -827.039 -1385 184 181 186
-38.889 -825.212 -1382 187 184 188
-35.8082 -824.582 -1381 196 193 196
-32.6849 -822.761 -1378 199 195 198
-29.6181 -822.136 -1377 194 190 193
-26.5367 -820.918 -1375 188 185 188
-23.4644 -819.701 -1373 186 183 186
-20.3863 -817.892 -1370 189 186 189
-17.3597 -817.875 -1370 189 186 189
-14.3018 -816.07 -1367 194 191 194
-11.2821 -816.059 -1367 201 198 203
-8.26244 -816.051 -1367 205 202 206
-5.23148 -814.254 -1364 206 203 206
-2.21706 -813.654 -1363 205 202 205
0.794667 -814.847 -1365 204 201 202
3.80705 -814.252 -1364 207 204 206
6.82486 -814.854 -1365 206 203 206
9.85435 -816.055 -1367 201 198 201
12.9118 -818.453 -1371 198 195 197
15.9868 -820.854 -1375 191 187 188
19.0382 -821.466 -1376 200 198 196
22.1103 -822.678 -1378 200 196 195
25.2279 -825.087 -1382 202 198 198
28.4045 -828.693 -1388 204 201 202
31.4718 -828.719 -1388 201 199 197
34.6886 -832.331 -1394 194 191 189
37.9323 -835.945 -1400 191 187 186
41.1736 -838.966 -1405 189 185 186
44.406 -841.392 -1409 190 186 187
47.5889 -842.627 -1411 190 186 187
50.8172 -844.462 -1414 188 184 185
54.0211 -845.702 -1416 187 183 184
57.194 -846.348 -1417 187 183 183
60.3291 -846.4 -1417 188 184 183
63.5995 -848.247 -1420 189 185 183
66.8365 -849.499 -1422 191 185 182
70.034 -850.156 -1423 189 184 181
73.2365 -850.817 -1424 188 184 181
76.5514 -852.675 -1427 186 182 179
79.7687 -853.341 -1428 184 181 176
82.9911 -854.01 -1429 185 182 176
86.1587 -854.085 -1429 191 189 185
89.3269 -854.162 -1429 206 202 201
92.1078 -850.655 -1423 187 183 184
-95.7393 -903.749 -1505 89 86 87
-91.6625 -896.461 -1493 178 175 177
-87.7581 -890.377 -1483 183 183 187
-83.8989 -884.298 -1473 183 183 186
-79.6472 -873.421 -1455 184 184 185
-75.7385 -865.548 -1442 186 186 188
-72.1397 -860.681 -1434 186 186 188
-68.4809 -854.617 -1424 187 187 189
-64.8213 -847.958 -1413 189 189 191
-61.4729 -844.901 -1408 192 192 194
-58.106 -841.248 -1402 191 191 193
-54.766 -837.598 -1396 193 193 195
-51.5273 -835.151 -1392 194 194 196
-48.4112 -834.508 -1391 190 189 191
-45.2022 -832.066 -1387 187 184 187
-42.1025 -831.428 -1386 184 181 186
-39.0077 -830.793 -1385 184 181 184
-35.8397 -828.36 -1381 189 186 189
-32.7135 -826.531 -1378 196 192 195
-29.644 -825.903 -1377 194 191 194
-26.5213 -823.48 -1373 192 189 192
-23.4679 -822.858 -1372 192 189 192
-20.4042 -821.639 -1370 193 190 193
-17.3622 -821.023 -1369 195 192 195
-14.3143 -819.809 -1367 195 192 195
-11.3002 -820.398 -1368 199 196 200
-8.26359 -819.19 -1366 204 201 203
-5.24375 -819.184 -1366 204 201 203
-2.2205 -817.981 -1364 202 199 202
0.795444 -818.581 -1365 198 195 197
3.81321 -818.583 -1365 195 192 194
6.82582 -817.988 -1364 199 196 197
9.85589 -819.195 -1366 198 195 198
12.9137 -821.604 -1370 197 193 195
15.9661 -822.816 -1372 189 185 186
19.0412 -824.63 -1375 198 196 194
22.1298 -826.448 -1378 199 196 195
25.2137 -827.668 -1380 202 198 198
28.3681 -830.691 -1385 205 202 203
31.4995 -832.517 -1388 204 202 201
34.6943 -835.545 -1393 197 194 193
37.9658 -839.776 -1400 191 187 186
41.2101 -842.81 -1405 191 187 188
44.4452 -845.248 -1409 191 187 188
47.6309 -846.488 -1411 192 188 189
50.8619 -848.332 -1414 191 187 188
54.0687 -849.578 -1416 189 185 186
57.2444 -850.227 -1417 190 186 187
60.3824 -850.279 -1417 193 189 190
63.6108 -851.534 -1419 195 191 190
66.7544 -851.592 -1419 195 191 190
69.8986 -851.652 -1419 194 190 189
73.1467 -852.915 -1421 194 190 188
76.458 -854.782 -1424 195 191 186
79.6715 -855.452 -1425 195 192 186
82.8318 -855.524 -1425 198 195 189
85.9933 -855.598 -1425 203 199 196
89.0304 -854.475 -1423 212 208 209
91.5412 -848.55 -1413 166 161 164
-96.1425 -910.9 -1510 86 81 82
-91.928 -902.372 -1496 179 176 177
-88.132 -897.467 -1488 183 183 187
-84.1443 -890.153 -1476 182 182 184
-79.8272 -878.622 -1457 185 185 185
-75.7004 -868.302 -1440 187 187 189
-72.1532 -864.016 -1433 186 186 188
-68.4934 -857.924 -1423 185 185 187
-64.8327 -851.233 -1412 188 188 190
-61.4836 -848.163 -1407 193 193 195
-58.1159 -844.493 -1401 194 194 196
-54.7753 -840.827 -1395 193 193 195
-51.647 -840.177 -1394 191 191 193
-48.5236 -839.53 -1393 194 193 195
-45.4053 -838.885 -1392 193 190 193
-42.231 -837.039 -1389 191 188 193
-39.0702 -835.195 -1386 192 189 193
-35.9753 -834.559 -1385 188 185 188
-32.7899 -831.516 -1380 198 194 197
-29.6487 -829.078 -1376 206 202 205
-26.5448 -827.246 -1373 206 203 206
-23.4886 -826.621 -1372 203 200 203
-20.4371 -825.999 -1371 202 199 202
-17.3902 -825.38 -1370 201 198 201
-14.3479 -824.764 -1369 197 194 197
-11.3101 -824.15 -1368 196 195 197
-8.2831 -824.141 -1368 199 197 199
-5.24836 -822.93 -1366 196 193 196
-2.2274 -823.53 -1367 193 190 193
0.797975 -824.131 -1368 189 188 190
3.81939 -822.928 -1366 184 183 185
6.837 -822.331 -1365 184 181 184
9.86467 -822.941 -1366 191 188 191
12.8968 -823.554 -1367 196 192 196
15.9454 -824.771 -1369 191 187 191
19.0165 -826.594 -1372 193 190 191
22.1335 -829.625 -1377 196 194 193
25.2544 -832.056 -1381 205 203 202
28.3113 -832.08 -1381 208 205 206
31.5275 -836.324 -1388 206 203 204
34.7002 -838.764 -1392 199 196 197
37.8908 -841.206 -1396 191 188 189
41.1584 -844.857 -1402 193 189 190
44.4215 -847.908 -1407 194 190 191
47.6395 -849.757 -1410 193 189 190
50.9071 -852.212 -1414 193 189 190
54.1166 -853.464 -1416 195 191 191
57.2951 -854.116 -1417 196 192 194
60.436 -854.168 -1417 196 192 195
63.6671 -855.429 -1419 197 193 194
66.7665 -854.884 -1418 198 194 195
69.9606 -855.548 -1419 198 194 195
73.1085 -855.611 -1419 198 194 193
76.4183 -857.487 -1422 197 195 189
79.6302 -858.159 -1423 200 198 192
82.7308 -857.628 -1422 207 204 198
85.7677 -856.497 -1420 211 207 204
88.7337 -854.765 -1417 213 209 210
90.974 -846.399 -1403 135 131 133
-88.2105 -901.564 -1488 186 185 189
-84.048 -892.399 -1473 182 182 185
-79.7885 -881.422 -1455 183 183 184
-75.6624 -871.054 -1438 187 187 189
-71.9654 -864.931 -1428 187 187 189
-68.4098 -860.024 -1420 187 187 189
-64.9363 -855.725 -1413 186 187 189
-61.407 -850.218 -1404 190 191 193
-58.1675 -848.348 -1401 194 194 196
-54.9418 -846.481 -1398 193 193 195
-51.6557 -843.407 -1393 192 192 194
-48.5319 -842.756 -1392 193 192 194
-45.3803 -841.504 -1390 195 192 195
-42.238 -840.254 -1388 198 195 198
-39.1331 -839.612 -1387 197 194 197
-36.0071 -838.368 -1385 195 192 195
-32.8191 -835.311 -1380 194 191 194
-29.675 -832.862 -1376 198 195 198
-26.5876 -831.627 -1374 204 201 204
-23.5094 -830.394 -1372 206 203 206
-20.4551 -829.769 -1371 207 204 207
-17.4182 -829.752 -1371 206 203 206
-14.3606 -828.528 -1369 200 197 200
-11.3367 -829.122 -1370 197 197 199
-8.29036 -827.903 -1368 195 193 196
-5.2605 -827.897 -1368 195 192 195
-2.22923 -827.288 -1367 192 189 192
0.798177 -827.288 -1367 188 187 189
3.82559 -827.29 -1367 188 186 188
6.84821 -826.689 -1366 189 186 189
9.87349 -826.697 -1366 191 188 191
12.9179 -827.918 -1368 194 191 195
15.9828 -829.746 -1371 189 186 190
19.0473 -830.972 -1373 193 190 191
22.1533 -833.412 -1377 200 198 196
25.2586 -835.248 -1380 209 206 205
28.3776 -837.088 -1383 211 208 209
31.5329 -839.536 -1387 206 203 204
34.7061 -841.987 -1391 201 198 199
37.9519 -845.651 -1397 195 192 193
41.1657 -848.108 -1401 195 191 192
44.4294 -851.173 -1406 196 192 193
47.6143 -852.425 -1408 196 192 192
50.9163 -855.496 -1413 196 192 192
54.1649 -857.36 -1416 198 194 193
57.3461 -858.015 -1417 198 194 195
60.4898 -858.067 -1417 199 195 197
63.679 -858.728 -1418 200 196 196
66.7317 -857.576 -1416 201 197 197
69.8749 -857.637 -1416 201 197 197
73.0705 -858.306 -1417 201 197 196
76.4325 -860.796 -1421 202 200 194
79.5331 -860.26 -1420 210 207 201
82.63 -859.726 -1419 217 214 209
85.6022 -857.984 -1416 218 214 211
88.3114 -853.82 -1409 208 204 205
-88.6453 -909.325 -1494 185 184 187
-84.3516 -898.9 -1477 182 182 184
-79.8598 -885.438 -1455 183 183 185
-75.6248 -873.806 -1436 187 187 189
-71.9792 -868.264 -1427 186 186 188
-68.4226 -863.334 -1419 185 185 187
-64.9943 -859.624 -1413 186 188 190
-61.5494 -855.309 -1406 188 189 191
-58.1363 -850.997 -1399 190 190 192
-54.9515 -849.73 -1397 190 190 192
-51.8133 -849.074 -1396 189 189 191
-48.645 -847.812 -1394 192 191 193
-45.4534 -845.946 -1391 196 193 196
-42.367 -845.906 -1391 200 197 200
-39.2245 -844.654 -1389 201 198 201
-36.0913 -843.404 -1387 198 195 198
-32.8959 -840.333 -1382 193 190 193
-29.723 -837.264 -1377 189 186 189
-26.6113 -835.415 -1374 199 196 199
-23.5475 -834.785 -1373 205 202 205
-20.4734 -833.549 -1371 208 205 208
-17.4592 -834.748 -1373 206 203 206
-14.4048 -834.126 -1372 205 202 205
-11.3468 -832.899 -1370 202 202 204
-8.29765 -831.674 -1368 198 196 198
-5.27285 -832.884 -1370 196 193 196
-2.23289 -831.665 -1368 192 189 192
0.800135 -832.272 -1369 187 184 187
3.832 -831.667 -1368 190 187 190
6.85443 -830.455 -1366 191 188 191
9.88234 -830.463 -1366 192 189 192
12.92 -831.081 -1367 192 189 192
15.9738 -832.31 -1369 189 185 188
19.0507 -834.15 -1372 195 192 193
22.1408 -835.992 -1375 201 199 198
25.2812 -839.054 -1380 210 208 207
28.444 -842.118 -1385 211 208 209
31.6066 -844.577 -1389 206 203 204
34.7373 -845.823 -1391 204 201 202
37.9587 -848.896 -1396 203 200 201
41.1439 -850.756 -1399 201 197 198
44.4059 -853.835 -1404 200 196 197
47.623 -855.7 -1407 199 195 195
50.8899 -858.177 -1411 199 195 194
54.0985 -859.441 -1413 200 196 195
57.3166 -860.708 -1415 200 196 196
60.4585 -860.76 -1415 199 195 196
63.691 -862.033 -1417 201 197 196
66.7443 -860.875 -1415 204 200 199
69.8883 -860.936 -1415 207 203 202
73.0843 -861.609 -1416 211 207 206
76.4471 -864.11 -1420 216 214 208
79.4362 -862.354 -1417 218 216 211
82.704 -863.644 -1419 218 216 212
85.558 -860.677 -1414 218 214 213
88.2023 -855.885 -1406 196 192 193
-89.022 -916.518 -1499 184 184 186
-84.7704 -906.657 -1483 183 183 185
-80.0965 -891.299 -1458 184 184 186
-75.7454 -878.392 -1437 186 186 188
-71.943 -870.99 -1425 186 186 188
-68.2911 -864.815 -1415 185 185 187
-64.9146 -861.7 -1410 187 189 191
-61.5172 -857.976 -1404 190 190 192
-58.3133 -856.7 -1402 191 191 193
-55.0009 -853.594 -1397 191 191 193
-51.8226 -852.324 -1395 190 190 192
-48.5839 -849.835 -1391 192 191 193
-45.4289 -848.57 -1389 194 191 194
-42.3136 -847.92 -1388 194 191 194
-39.2032 -847.273 -1387 197 194 197
-36.0716 -846.017 -1385 199 196 199
-32.9254 -844.153 -1382 196 193 196
-29.7929 -842.293 -1379 193 190 193
-26.674 -840.435 -1376 193 190 193
-23.5514 -837.969 -1372 197 194 197
-20.4768 -836.728 -1370 204 201 204
-17.4494 -837.322 -1371 204 201 204
-14.3967 -836.697 -1370 204 201 204
-11.3569 -836.685 -1370 203 200 203
-8.30497 -835.455 -1368 198 195 198
-5.27369 -836.06 -1369 192 189 192
-2.2331 -834.835 -1367 183 180 183
0.800928 -836.056 -1369 177 174 177
3.83543 -835.447 -1368 174 171 174
6.87055 -835.452 -1368 177 174 177
9.92038 -836.681 -1370 186 183 186
12.9601 -836.692 -1370 190 186 189
16.0234 -837.926 -1372 188 184 187
19.0955 -839.164 -1374 197 195 194
22.2091 -841.625 -1378 201 199 197
25.3224 -843.479 -1381 210 208 207
28.4697 -845.947 -1385 209 206 207
31.6578 -849.028 -1390 204 201 202
34.8434 -851.501 -1394 206 203 204
38.02 -853.366 -1397 209 206 207
41.2104 -855.235 -1400 209 205 206
44.4775 -858.328 -1405 205 201 202
47.6319 -858.981 -1406 201 198 198
50.8996 -861.469 -1410 203 200 199
54.1473 -863.349 -1413 203 200 199
57.2871 -863.399 -1413 204 201 201
60.3847 -862.841 -1412 206 203 204
63.5684 -863.509 -1413 210 207 206
66.6629 -862.956 -1412 212 209 208
69.8523 -863.629 -1413 215 212 210
73.0986 -864.916 -1415 217 215 212
76.3004 -865.595 -1416 218 216 210
79.5077 -866.276 -1417 219 217 212
82.5452 -865.127 -1415 218 216 213
85.3323 -861.534 -1409 216 213 214
87.6539 -853.663 -1396 154 150 153
-93.6767 -933.046 -1519 180 177 180
-89.578 -925.592 -1507 183 181 183
-85.362 -916.3 -1492 183 181 183
-80.6087 -900.258 -1466 186 183 186
-76.0777 -885.45 -1442 189 186 189
-72.2101 -877.4 -1429 189 186 189
-68.546 -871.197 -1419 188 185 188
-65.0654 -866.839 -1412 187 189 191
-61.6604 -863.098 -1406 189 190 192
-58.4492 -861.816 -1404 191 191 193
-55.1687 -859.309 -1400 193 193 195
-51.9437 -857.42 -1397 193 193 195
-48.7675 -856.147 -1395 192 191 194
-45.5353 -853.649 -1391 194 191 194
-42.3822 -852.382 -1389 193 190 193
-39.2669 -851.731 -1388 192 189 192
-36.1563 -851.084 -1387 193 190 193
-32.9551 -847.985 -1382 193 190 193
-29.863 -847.343 -1381 192 189 192
-26.6979 -844.249 -1376 193 190 193
-23.6241 -843.613 -1375 192 189 192
-20.5251 -841.753 -1372 190 187 190
-17.4906 -842.349 -1373 189 186 189
-14.4306 -841.721 -1372 191 188 191
-11.3836 -841.709 -1372 189 186 189
-8.32465 -840.474 -1370 188 185 188
-5.27838 -839.854 -1369 184 181 184
-2.23678 -839.237 -1368 179 176 179
0.801725 -839.85 -1369 176 173 176
3.84187 -839.852 -1369 178 175 178
6.88689 -840.471 -1370 183 180 183
9.93658 -841.092 -1371 188 185 188
12.9813 -841.102 -1371 191 186 189
16.0496 -842.342 -1373 189 184 187
19.1129 -842.972 -1374 199 197 195
22.2294 -845.445 -1378 202 200 198
25.3452 -847.307 -1381 208 206 205
28.5162 -850.399 -1386 208 205 206
31.6637 -852.267 -1389 204 201 202
34.8501 -854.752 -1393 208 205 206
37.9455 -854.785 -1393 212 209 210
41.1593 -857.275 -1397 211 208 209
44.3594 -859.155 -1400 208 205 206
47.6074 -861.652 -1404 208 205 205
50.8012 -862.924 -1406 210 208 206
54.0428 -864.813 -1409 211 209 207
57.1766 -864.863 -1409 212 209 209
60.3965 -866.144 -1411 213 210 211
63.5359 -866.2 -1411 214 212 210
66.7232 -866.873 -1412 215 213 211
69.9154 -867.549 -1413 218 216 213
73.1647 -868.842 -1415 220 218 214
76.3696 -869.524 -1416 219 217 213
79.4673 -868.981 -1415 218 216 214
82.5032 -867.826 -1413 219 216 215
85.1671 -862.989 -1405 214 211 212
87.419 -854.467 -1391 120 116 119
-98.2386 -947.851 -1536 113 111 109
-94.0088 -939.742 -1523 182 179 182
-89.7783 -931.02 -1509 178 175 178
-85.554 -921.686 -1494 181 178 181
-80.6269 -903.72 -1465 185 182 185
-76.1467 -889.461 -1442 187 184 187
-72.2756 -881.375 -1429 190 187 190
-68.5599 -874.527 -1418 191 188 191
-65.1705 -871.383 -1413 186 188 190
-61.7603 -867.625 -1407 188 188 190
-58.4606 -865.104 -1403 189 189 191
-55.1793 -862.586 -1399 189 189 191
-52.0653 -862.537 -1399 191 190 192
-48.8118 -860.025 -1395 193 191 193
-45.5766 -857.516 -1391 194 191 194
-42.4513 -856.86 -1390 193 190 193
-39.3025 -855.59 -1388 191 188 191
-36.1369 -853.706 -1385 190 187 190
-33.0327 -853.059 -1384 189 186 189
-29.8684 -850.564 -1380 190 187 190
-26.7609 -849.306 -1378 192 189 192
-23.6284 -846.818 -1374 190 187 190
-20.5436 -845.565 -1372 186 183 186
-17.4936 -845.548 -1372 181 178 181
-14.4437 -845.534 -1372 180 177 180
-11.3939 -845.522 -1372 182 179 182
-8.33204 -844.281 -1370 183 180 183
-5.2831 -843.658 -1369 182 179 182
-2.23537 -841.806 -1366 179 176 179
0.801939 -843.038 -1368 179 176 179
3.84534 -843.656 -1369 183 180 183
6.89321 -844.278 -1370 186 183 186
9.94577 -844.902 -1371 188 184 187
13.0121 -846.145 -1373 194 188 191
16.0641 -846.158 -1373 191 184 188
19.1303 -846.79 -1374 199 197 195
22.2495 -849.274 -1378 203 201 199
25.3683 -851.145 -1381 206 204 203
28.5008 -853.019 -1384 204 201 202
31.7154 -856.744 -1390 205 202 203
34.9318 -859.857 -1395 211 208 209
38.0346 -859.89 -1395 214 211 211
41.2261 -861.775 -1398 212 210 209
44.4315 -863.664 -1401 209 206 207
47.6845 -866.171 -1405 210 207 207
50.8112 -866.216 -1405 212 210 208
54.0536 -868.114 -1408 212 210 208
57.188 -868.165 -1408 214 211 211
60.3658 -868.835 -1409 215 212 212
63.5035 -868.891 -1409 216 214 211
66.6893 -869.567 -1410 217 215 212
69.8801 -870.246 -1411 218 216 213
73.1796 -872.162 -1414 218 216 212
76.3312 -872.23 -1414 218 216 212
79.371 -871.067 -1412 219 217 215
82.4028 -869.907 -1410 217 214 214
85.0019 -864.431 -1401 205 202 204
-94.28 -945.852 -1526 179 176 178
-90.2772 -939.569 -1516 180 177 179
-86.1479 -931.432 -1503 183 180 183
-81.3065 -914.623 -1476 185 182 185
-76.4805 -896.582 -1447 187 184 187
-72.6453 -889.079 -1435 189 186 189
-68.8644 -881.58 -1423 191 188 191
-65.3685 -877.182 -1416 189 189 191
-61.9923 -874.026 -1411 189 189 191
-58.6807 -871.493 -1407 189 189 191
-55.3876 -868.964 -1403 187 187 189
-52.1872 -867.676 -1401 188 185 186
-48.9613 -865.771 -1398 190 187 188
-45.6837 -862.632 -1393 189 186 189
-42.5816 -862.592 -1393 189 186 189
-39.3949 -860.697 -1390 187 184 187
-36.2481 -859.424 -1388 188 185 188
-33.0628 -856.915 -1384 191 188 191
-29.9172 -855.029 -1381 192 189 192
-26.7659 -852.527 -1377 192 189 192
-23.6154 -849.408 -1372 189 186 189
-20.5624 -849.388 -1372 185 182 185
-17.5095 -849.371 -1372 185 182 185
-14.4463 -848.737 -1371 186 183 186
-11.4126 -849.964 -1373 184 181 184
-8.35182 -849.336 -1372 181 178 181
-5.29556 -848.711 -1371 180 177 180
-2.24398 -848.088 -1370 181 178 181
0.804503 -848.707 -1371 182 179 182
3.85182 -848.09 -1370 182 179 182
6.89956 -848.095 -1370 181 178 181
9.9548 -848.721 -1371 186 182 185
13.0051 -848.732 -1371 195 189 192
16.0555 -848.745 -1371 194 187 191
19.1338 -850 -1373 202 199 198
22.2699 -853.114 -1378 202 200 198
25.4101 -855.612 -1382 203 200 200
28.5476 -857.495 -1385 202 199 200
31.7443 -860.618 -1390 207 204 205
34.9387 -863.125 -1394 211 208 209
38.042 -863.159 -1394 212 209 209
41.2933 -866.291 -1399 210 208 206
44.4085 -866.33 -1399 209 206 207
47.6601 -868.849 -1403 212 209 209
50.7853 -868.894 -1403 213 211 209
54.0646 -871.42 -1407 214 212 210
57.1995 -871.471 -1407 214 212 210
60.421 -872.764 -1409 216 214 211
63.5165 -872.201 -1408 217 215 211
66.7502 -873.5 -1410 218 216 212
69.944 -874.182 -1411 219 217 213
73.1946 -875.487 -1413 218 216 212
76.455 -876.794 -1415 219 217 213
79.4436 -875.007 -1412 218 216 214
82.4784 -873.842 -1410 216 214 214
85.1404 -868.96 -1402 181 178 181
-90.5984 -946.302 -1520 183 180 182
-86.3991 -937.504 -1506 183 180 183
-81.5465 -920.62 -1479 185 182 185
-76.7093 -902.497 -1450 188 185 188
-72.8639 -894.959 -1438 189 186 189
-68.9275 -885.559 -1423 191 188 191
-65.5208 -882.386 -1418 186 186 188
-62.0491 -877.971 -1411 185 185 187
-58.6927 -874.805 -1406 186 185 187
-55.3987 -872.264 -1402 187 187 187
-52.1978 -870.97 -1400 189 186 187
-48.9361 -868.435 -1396 188 185 187
-45.6927 -865.904 -1392 185 182 185
-42.5289 -864.619 -1390 183 180 183
-39.4026 -863.959 -1389 183 180 183
-36.1767 -860.815 -1384 185 182 185
-33.0691 -860.161 -1383 191 188 191
-29.9229 -858.266 -1380 193 190 193
-26.7709 -855.753 -1376 191 188 191
-23.637 -853.242 -1372 190 187 190
-20.5662 -852.6 -1371 190 187 190
-17.5255 -853.204 -1372 191 188 191
-14.4805 -853.811 -1373 191 188 191
-11.4146 -853.178 -1372 188 184 187
-8.35947 -853.169 -1372 185 182 185
-5.30033 -852.541 -1371 185 182 185
-2.24258 -850.672 -1368 187 184 187
0.804724 -851.915 -1370 188 185 188
3.85531 -851.917 -1370 187 184 187
6.90593 -851.922 -1370 188 185 188
9.96406 -852.552 -1371 191 187 190
13.017 -852.562 -1371 194 188 191
16.0586 -851.954 -1370 194 187 190
19.1655 -854.457 -1374 197 193 192
22.2419 -855.099 -1375 197 195 193
25.3965 -858.23 -1380 200 198 197
28.5532 -860.742 -1384 206 203 204
31.705 -862.636 -1387 210 207 208
34.9206 -865.777 -1392 214 211 212
38.077 -867.054 -1394 213 210 211
41.2723 -868.957 -1397 209 207 205
44.4494 -870.24 -1399 209 206 207
47.636 -871.527 -1401 212 210 209
50.832 -872.816 -1403 212 210 208
54.1142 -875.353 -1407 213 211 209
57.2522 -875.404 -1407 216 214 212
60.4336 -876.081 -1408 218 216 213
63.5748 -876.138 -1408 218 216 212
66.7642 -876.82 -1409 218 216 212
69.8593 -876.261 -1408 219 217 213
73.1065 -877.572 -1410 218 216 212
76.309 -878.263 -1411 218 216 212
79.4042 -877.712 -1410 215 214 212
82.2614 -874.674 -1405 212 211 210
84.7325 -867.903 -1394 144 142 141
-95.0726 -960.658 -1536 184 181 182
-90.682 -950.566 -1520 186 183 186
-86.4214 -941.104 -1505 186 183 186
-81.7872 -926.644 -1482 187 184 187
-76.939 -908.439 -1453 188 185 188
-73.134 -901.493 -1442 188 185 188
-69.2334 -892.675 -1428 186 183 186
-65.6274 -886.987 -1419 180 180 182
-62.1503 -882.552 -1412 182 181 183
-58.7886 -879.371 -1407 185 182 185
-55.4894 -876.819 -1403 185 185 185
-52.2459 -874.894 -1400 188 186 187
-49.0162 -872.973 -1397 187 184 186
-45.8004 -871.054 -1394 187 184 187
-42.6292 -869.764 -1392 187 184 187
-39.4389 -867.851 -1389 187 184 187
-36.2624 -865.942 -1386 184 181 184
-33.1234 -864.661 -1384 185 182 185
-29.9504 -862.132 -1380 187 184 187
-26.7955 -859.608 -1376 186 183 186
-23.6759 -857.71 -1373 185 182 185
-20.6151 -857.69 -1373 185 182 185
-17.5416 -857.048 -1372 185 182 185
-14.4832 -857.033 -1372 184 181 184
-11.45 -858.895 -1375 189 185 188
-8.37916 -858.261 -1374 190 187 190
-5.30916 -857.006 -1372 189 186 189
-2.24958 -856.378 -1371 191 188 191
0.805536 -855.752 -1370 194 190 193
3.85901 -855.755 -1370 196 192 195
6.91252 -855.759 -1370 194 191 194
9.96608 -855.768 -1370 193 189 192
13.0197 -855.778 -1370 191 186 189
16.0852 -856.416 -1371 193 188 189
19.1552 -857.057 -1372 197 194 193
22.2786 -859.575 -1376 203 201 200
25.4201 -862.096 -1380 209 207 207
28.5588 -863.996 -1383 214 211 212
31.6885 -865.273 -1385 213 210 211
34.8776 -867.803 -1389 214 211 212
38.0301 -869.086 -1391 212 209 210
41.2216 -870.997 -1394 209 207 207
44.4587 -873.536 -1398 211 208 209
47.68 -875.453 -1401 214 211 212
50.8063 -875.499 -1401 215 212 213
54.0873 -878.047 -1405 216 213 214
57.2642 -878.724 -1406 216 214 212
60.4034 -878.778 -1406 217 215 212
63.5883 -879.461 -1407 217 215 211
66.6362 -878.271 -1405 218 216 214
69.775 -878.334 -1405 220 217 214
73.0181 -879.65 -1407 221 217 214
76.1088 -879.094 -1406 219 217 213
79.1393 -877.915 -1404 215 215 213
82.0445 -875.489 -1400 209 208 206
84.5673 -869.312 -1390 130 128 126
-95.2846 -966.236 -1538 183 180 181
-90.4079 -951.073 -1514 189 186 189
-86.1567 -941.568 -1499 187 184 187
-81.5869 -927.672 -1477 184 181 184
-76.7983 -910.013 -1449 182 179 182
-73.1002 -904.292 -1440 180 177 180
-69.2491 -896.062 -1427 180 177 180
-65.7346 -891.604 -1420 179 179 181
-62.2078 -886.522 -1412 182 181 183
-58.9267 -884.582 -1409 185 182 185
-55.4615 -879.507 -1401 184 184 184
-52.1821 -876.945 -1397 186 184 185
-48.886 -873.76 -1392 186 183 185
-45.7771 -873.716 -1392 188 185 188
-42.5767 -871.792 -1389 191 188 191
-39.4754 -871.754 -1389 191 188 191
-36.2959 -869.836 -1386 191 188 191
-33.1541 -868.549 -1384 191 188 191
-29.9781 -866.01 -1380 189 186 189
-26.8008 -862.846 -1375 187 184 187
-23.6805 -860.94 -1372 182 179 182
-20.6191 -860.919 -1372 176 173 176
-17.5449 -860.274 -1371 174 171 174
-14.4966 -860.887 -1372 173 170 173
-11.444 -861.502 -1373 175 172 175
-8.37467 -860.866 -1372 179 176 179
-5.30622 -859.604 -1370 187 184 187
-2.24819 -858.974 -1369 193 190 195
0.806939 -860.228 -1371 195 192 195
3.86254 -859.603 -1370 195 192 195
6.91895 -859.608 -1370 197 193 196
9.97522 -859.616 -1370 194 191 192
13.0318 -859.626 -1370 191 187 188
16.1001 -860.267 -1371 191 187 188
19.1591 -860.284 -1371 197 195 193
22.2669 -862.186 -1374 199 196 197
25.4068 -864.718 -1378 209 206 207
28.4614 -864.116 -1377 214 211 212
31.6492 -867.281 -1382 216 213 214
34.8346 -869.822 -1386 218 215 216
37.9834 -871.111 -1388 212 209 210
41.2006 -873.659 -1392 212 209 210
44.4364 -876.209 -1396 214 211 212
47.6561 -878.135 -1399 217 214 215
50.8172 -878.808 -1400 217 214 215
54.0218 -880.113 -1402 217 214 215
57.236 -881.42 -1404 219 217 215
60.3735 -881.475 -1404 219 217 214
63.4212 -880.277 -1402 218 216 212
66.5082 -879.71 -1401 218 216 214
69.641 -879.773 -1401 221 218 215
72.7224 -879.211 -1400 222 219 216
75.9629 -880.536 -1402 219 217 215
79.1 -880.608 -1402 216 216 215
81.9446 -877.543 -1397 207 205 204
84.4634 -871.338 -1387 118 116 114
-95.0014 -966.789 -1532 181 178 179
-90.253 -952.82 -1510 192 189 191
-86.0644 -943.904 -1496 181 178 181
-81.6076 -931.207 -1476 173 170 173
-76.9759 -915.361 -1451 175 172 175
-73.1683 -908.352 -1440 176 173 176
-69.4107 -901.347 -1429 178 175 178
-65.9348 -897.499 -1423 182 179 182
-62.3981 -892.394 -1415 183 180 184
-58.9397 -887.923 -1408 186 182 187
-55.4339 -882.194 -1399 185 182 185
-52.2307 -880.883 -1397 186 183 186
-48.8963 -877.052 -1391 187 184 187
-45.8197 -877.639 -1392 188 185 188
-42.647 -876.337 -1390 190 187 190
-39.5121 -875.668 -1389 192 189 192
-36.3034 -873.111 -1385 194 191 194
-33.2328 -873.709 -1386 193 190 193
-30.0277 -870.527 -1381 191 188 191
-26.8841 -868.61 -1378 187 184 187
-23.7544 -866.695 -1375 186 183 186
-20.6683 -866.045 -1374 189 186 189
-17.5868 -865.396 -1373 187 184 187
-14.5206 -865.381 -1373 182 179 182
-11.4462 -864.739 -1372 175 172 175
-8.38852 -865.36 -1373 171 168 171
-5.31879 -864.723 -1372 170 167 170
-2.25193 -863.459 -1370 171 168 173
0.807758 -864.089 -1371 174 171 174
3.87192 -864.722 -1372 179 175 178
6.93046 -864.097 -1371 186 182 185
10.0065 -865.365 -1373 189 186 187
13.0536 -864.116 -1371 191 187 188
16.1152 -864.129 -1371 188 184 185
19.1771 -864.146 -1371 193 191 189
22.2878 -866.056 -1374 197 194 195
25.3936 -867.339 -1376 206 203 204
28.488 -867.994 -1377 214 211 212
31.633 -869.914 -1380 218 215 216
34.7917 -871.836 -1383 218 215 216
37.9641 -873.761 -1386 212 209 210
41.1799 -876.32 -1390 212 209 210
44.4141 -878.882 -1394 215 212 213
47.6665 -881.447 -1398 215 212 213
50.8284 -882.123 -1399 216 213 214
54.0336 -883.434 -1401 217 214 215
57.2078 -884.116 -1402 218 216 214
60.3008 -883.541 -1401 219 217 214
63.4351 -883.598 -1401 220 218 214
66.5227 -883.028 -1400 220 218 216
69.7059 -883.723 -1401 220 217 214
72.6343 -881.266 -1397 220 216 214
75.8711 -882.597 -1399 218 216 213
79.061 -883.301 -1400 211 210 209
81.669 -877.698 -1391 208 205 205
-90.3974 -957.725 -1511 186 184 185
-85.9722 -946.233 -1493 178 175 178
-81.4073 -932.212 -1471 172 169 172
-76.9418 -918.197 -1449 174 171 174
-73.1351 -911.156 -1438 174 171 174
-69.3785 -904.12 -1427 176 173 176
-65.9037 -900.255 -1421 179 176 179
-62.3682 -895.127 -1413 182 178 182
-58.9529 -891.269 -1407 185 181 186
-55.4065 -884.881 -1397 186 183 186
-52.1298 -882.297 -1393 186 183 186
-48.8717 -879.716 -1389 187 184 187
-45.7966 -880.305 -1390 187 184 187
-42.6868 -880.264 -1390 187 184 187
-39.606 -880.858 -1391 188 185 188
-36.3897 -878.29 -1387 190 187 190
-33.2399 -876.991 -1385 189 186 189
-30.0339 -873.795 -1380 188 185 188
-26.9484 -873.769 -1380 187 184 187
-23.7939 -871.212 -1376 186 183 186
-20.7176 -871.191 -1376 186 183 186
-17.616 -869.907 -1374 187 184 187
-14.5342 -869.259 -1373 187 184 187
-11.4651 -869.247 -1373 187 184 187
-8.39018 -868.604 -1372 185 182 185
-5.31588 -867.332 -1370 180 177 180
-2.25403 -867.329 -1370 173 170 173
0.808581 -867.961 -1371 170 167 170
3.87567 -868.596 -1372 170 166 169
6.93713 -867.968 -1371 173 169 172
10.0013 -867.976 -1371 181 178 179
13.0657 -867.987 -1371 189 185 186
16.1304 -868.001 -1371 189 185 186
19.1951 -868.018 -1371 195 193 192
22.26 -868.037 -1371 198 195 196
25.3436 -868.693 -1372 203 200 201
28.4526 -869.984 -1374 215 212 213
31.5708 -871.279 -1376 216 213 214
34.6731 -871.944 -1377 213 210 211
37.89 -875.144 -1382 212 209 210
41.1 -877.714 -1386 215 212 213
44.36 -880.92 -1391 217 214 215
47.5747 -882.864 -1394 218 215 216
50.8033 -884.81 -1397 219 216 217
53.9685 -885.493 -1398 218 215 216
57.1389 -886.178 -1399 219 217 215
60.2281 -885.6 -1398 218 216 214
63.3134 -885.025 -1397 219 217 215
66.4423 -885.086 -1397 220 218 216
69.572 -885.15 -1397 221 217 215
72.7024 -885.216 -1397 221 217 214
75.7793 -884.653 -1396 217 215 211
78.8524 -884.092 -1395 211 209 207
81.3342 -877.195 -1384 205 202 202
-94.8072 -971.649 -1526 174 174 174
-89.5843 -952.461 -1496 178 177 177
-85.4192 -943.465 -1482 180 177 178
-81.2623 -933.838 -1467 174 171 174
-77.1205 -923.578 -1451 171 168 171
-73.4076 -917.779 -1442 171 168 171
-69.7357 -911.983 -1433 175 172 175
-66.1514 -906.828 -1425 179 176 179
-62.6036 -901.677 -1417 181 178 181
-59.0083 -895.256 -1407 184 180 185
-55.4982 -889.476 -1398 185 182 185
-52.2538 -887.517 -1395 185 182 185
-49.0233 -885.56 -1392 182 179 182
-46.0045 -887.424 -1395 181 178 181
-42.7577 -884.838 -1391 182 179 182
-39.6146 -884.163 -1390 183 180 183
-36.3976 -881.583 -1386 185 182 185
-33.3191 -882.186 -1387 187 184 187
-30.1057 -878.976 -1382 188 185 188
-27.0322 -879.585 -1383 188 185 188
-23.9027 -878.289 -1381 188 185 188
-20.7823 -876.996 -1379 186 183 186
-17.6453 -874.434 -1375 186 183 186
-14.5796 -875.055 -1376 185 182 185
-11.4926 -874.407 -1375 183 180 185
-8.41023 -873.762 -1374 183 180 183
-5.33257 -873.12 -1373 182 179 182
-2.26089 -873.116 -1373 180 177 180
0.810587 -873.116 -1373 179 176 179
3.88791 -874.39 -1375 180 177 180
6.95884 -873.759 -1374 181 177 180
10.0328 -873.767 -1374 186 182 185
13.0972 -873.142 -1373 189 185 186
16.1573 -872.52 -1372 187 183 184
19.1991 -871.265 -1370 193 190 191
22.281 -871.92 -1371 197 194 195
25.3674 -872.579 -1372 202 199 200
28.4587 -873.24 -1373 214 211 212
31.6007 -875.177 -1376 214 211 212
34.731 -876.48 -1378 210 207 208
37.9258 -879.059 -1382 212 209 210
41.109 -881.005 -1385 219 216 217
44.338 -883.589 -1389 223 220 221
47.5854 -886.177 -1393 222 219 220
50.7783 -887.496 -1395 219 216 217
53.9035 -887.546 -1395 219 216 217
57.0701 -888.234 -1396 218 216 214
60.1985 -888.29 -1396 218 216 214
63.3732 -888.985 -1397 219 217 215
66.5052 -889.046 -1397 220 218 216
69.6376 -889.11 -1397 221 218 217
72.7711 -889.178 -1397 220 217 215
75.7965 -887.975 -1395 216 214 211
78.8136 -886.775 -1393 211 209 208
81.1168 -877.938 -1379 188 185 185
-85.0961 -943.204 -1475 188 185 186
-81.0065 -934.173 -1461 189 186 189
-77.1402 -927.065 -1450 183 180 183
-73.426 -921.239 -1441 178 175 178
-69.8991 -917.336 -1435 177 174 177
-66.3998 -913.436 -1429 179 176 179
-62.8396 -908.261 -1421 179 176 179
-59.1481 -900.533 -1409 182 178 183
-55.7096 -896.005 -1402 180 177 180
-52.3781 -892.759 -1397 180 177 180
-49.1753 -891.432 -1395 179 176 179
-45.949 -889.471 -1392 182 179 182
-42.8288 -889.428 -1392 183 180 183
-39.6235 -887.473 -1389 182 179 182
-36.4583 -886.159 -1387 183 180 183
-33.3025 -884.848 -1385 185 182 185
-30.1777 -884.179 -1384 186 183 186
-27.0969 -884.791 -1385 184 181 184
-23.9426 -882.851 -1382 181 178 181
-20.8471 -882.829 -1382 180 177 180
-17.6876 -879.617 -1377 181 178 181
-14.5932 -878.963 -1376 182 179 182
-11.4951 -877.673 -1374 182 179 184
-8.41826 -877.664 -1374 185 182 186
-5.34523 -878.296 -1375 187 184 187
-2.26301 -877.015 -1373 191 188 191
0.811418 -877.014 -1373 190 187 190
3.88869 -877.655 -1374 186 182 185
6.96051 -877.022 -1373 186 182 185
10.0497 -878.308 -1375 188 184 187
13.1096 -877.041 -1373 189 185 187
16.1727 -876.416 -1372 186 182 183
19.2455 -876.433 -1372 193 189 190
22.3021 -875.814 -1371 194 191 192
25.3915 -876.476 -1372 197 194 195
28.465 -876.501 -1372 209 206 207
31.5846 -877.807 -1374 211 208 209
34.6884 -878.478 -1375 209 206 207
37.8792 -881.068 -1379 214 211 212
41.0589 -883.022 -1382 221 218 219
44.2842 -885.618 -1386 224 221 222
47.4595 -886.94 -1388 224 221 222
50.7536 -890.182 -1393 222 219 220
53.8386 -889.592 -1392 219 216 217
57.0015 -890.284 -1393 219 216 216
60.1694 -890.979 -1394 216 214 213
63.2516 -890.399 -1393 217 215 213
66.4727 -891.739 -1395 219 217 215
69.6538 -892.443 -1396 221 217 216
72.788 -892.51 -1396 219 216 214
75.814 -891.302 -1394 217 215 213
78.8317 -890.097 -1392 211 208 209
80.8403 -878.023 -1373 153 149 150
-89.5144 -958.413 -1492 181 178 179
-85.3503 -949.337 -1478 189 186 187
-81.2501 -940.266 -1464 187 184 187
-77.2668 -931.841 -1451 188 185 188
-73.4448 -924.705 -1440 190 187 190
-70.0143 -922.068 -1436 186 183 186
-66.4629 -917.509 -1429 182 179 182
-63.0321 -914.237 -1424 178 175 179
-59.4143 -907.759 -1414 178 175 178
-56.0409 -904.494 -1409 178 175 178
-52.6155 -899.949 -1402 178 175 178
-49.3631 -897.975 -1399 179 176 179
-46.1578 -896.645 -1397 184 181 184
-42.9618 -895.319 -1395 185 182 185
-39.7182 -892.713 -1391 185 182 185
-36.5455 -891.393 -1389 184 181 184
-33.3822 -890.077 -1387 186 183 186
-30.2282 -888.763 -1385 185 182 185
-27.1421 -889.377 -1386 185 182 185
-23.9826 -887.428 -1383 184 181 184
-20.8669 -886.765 -1382 183 180 183
-17.7429 -885.463 -1380 182 179 182
-14.6282 -884.165 -1378 185 182 185
-11.5226 -882.869 -1376 188 185 190
-8.43227 -882.218 -1375 190 187 190
-5.33867 -880.287 -1372 191 188 191
-2.26514 -880.925 -1373 191 188 191
0.811661 -880.283 -1372 189 186 189
3.88682 -880.285 -1372 188 183 186
6.96709 -880.932 -1373 189 182 186
10.0446 -880.94 -1373 187 183 186
13.1413 -882.234 -1375 189 185 186
16.1882 -880.323 -1372 188 184 185
19.2499 -879.699 -1371 194 190 191
22.3396 -880.36 -1372 195 192 193
25.4344 -881.025 -1373 200 197 198
28.5544 -882.334 -1375 206 203 204
31.7068 -884.288 -1378 206 203 204
34.7719 -883.678 -1377 209 206 207
37.9704 -886.28 -1381 217 214 215
41.1277 -887.601 -1383 223 220 221
44.3264 -889.567 -1386 225 222 223
47.539 -891.537 -1389 223 220 221
50.7291 -892.867 -1391 223 220 221
53.8511 -892.917 -1391 221 218 219
57.0148 -893.612 -1392 219 216 217
60.1835 -894.31 -1393 218 215 215
63.3117 -894.369 -1393 216 214 212
66.5362 -895.715 -1395 219 217 215
69.6702 -895.78 -1395 222 218 217
72.8052 -895.848 -1395 220 217 215
75.7773 -893.992 -1392 217 215 212
78.7368 -892.14 -1389 205 202 203
80.5049 -877.442 -1366 105 100 101
-85.7209 -956.79 -1483 188 185 186
-81.5499 -947.033 -1468 182 179 182
-77.3406 -935.99 -1451 184 181 183
-73.515 -928.822 -1440 186 183 185
-70.0811 -926.174 -1436 191 188 191
-66.5264 -921.593 -1429 192 189 192
-63.048 -917.662 -1423 192 189 192
-59.5131 -912.444 -1415 191 188 191
-56.2139 -910.455 -1412 188 185 188
-52.7409 -905.245 -1404 185 184 185
-49.4809 -903.261 -1401 187 186 187
-46.2018 -900.637 -1397 188 185 188
-43.0028 -899.305 -1395 188 185 188
-39.7561 -896.686 -1391 187 184 187
-36.554 -894.716 -1388 187 184 187
-33.3899 -893.394 -1386 188 185 188
-30.2352 -892.074 -1384 188 185 188
-27.1288 -892.047 -1384 187 184 187
-24.0227 -892.022 -1384 184 181 184
-20.8867 -890.712 -1382 180 177 180
-17.747 -888.76 -1379 180 177 180
-14.6527 -888.744 -1379 181 178 181
-11.5336 -886.798 -1376 184 181 186
-8.42791 -884.856 -1373 185 182 186
-5.34749 -884.849 -1373 186 183 186
-2.26379 -883.556 -1371 185 182 185
0.811907 -883.556 -1371 187 184 187
3.8878 -883.559 -1371 192 187 190
6.96372 -883.563 -1371 195 188 192
10.0397 -883.572 -1371 190 186 189
13.1445 -885.516 -1374 187 183 185
16.2155 -884.886 -1373 187 183 184
19.2963 -884.903 -1373 192 188 189
22.3774 -884.923 -1373 195 192 193
25.4772 -885.591 -1374 198 195 196
28.5817 -886.261 -1375 204 201 202
31.6911 -886.934 -1376 207 204 205
34.7799 -886.967 -1376 214 211 212
37.9241 -888.291 -1378 222 219 220
41.0779 -889.618 -1380 224 221 222
44.2728 -891.593 -1383 223 220 221
47.4817 -893.571 -1386 222 219 220
50.6681 -894.907 -1388 222 219 220
53.7864 -894.958 -1388 221 218 219
56.9463 -895.656 -1389 218 215 216
60.1113 -896.357 -1390 219 217 216
