ply
format ascii 1.0
comment Created by Open3D
element vertex 1336
property double x
property double y
property double z
property uchar red
property uchar green
property uchar blue
end_header
-100.167 -183.996 -1327 208 207 215
-97.5032 -183.978 -1327 210 209 217
-94.7685 -183.821 -1326 215 217 224
-92.3164 -184.219 -1329 226 228 235
-89.7181 -184.341 -1330 232 234 241
-87.2474 -184.74 -1333 236 237 246
-84.6385 -184.863 -1334 240 241 251
-82.1492 -185.263 -1337 244 245 249
-79.5891 -185.525 -1339 247 247 250
-77.0791 -185.926 -1342 248 248 250
-74.5576 -186.327 -1345 252 252 252
-72.0248 -186.729 -1348 253 253 253
-69.3776 -186.855 -1349 252 252 254
-66.7765 -187.119 -1351 253 253 255
-64.1678 -187.384 -1353 252 252 254
-61.5064 -187.51 -1354 251 253 253
-58.9281 -187.914 -1357 251 253 253
-56.3799 -188.458 -1361 251 253 255
-53.8161 -189.001 -1365 252 253 254
-51.1244 -189.13 -1366 253 253 253
-48.5355 -189.674 -1370 253 253 253
-45.8306 -189.804 -1371 253 253 253
-43.185 -190.211 -1374 253 253 253
-40.4984 -190.48 -1376 253 253 253
-37.8863 -191.165 -1381 252 252 252
-35.1528 -191.297 -1382 253 253 253
-32.5329 -192.121 -1388 253 253 253
-29.8249 -192.53 -1391 253 253 253
-27.2218 -193.77 -1400 252 252 254
-24.4957 -194.319 -1404 251 251 253
-21.8002 -195.284 -1411 250 250 252
-19.0366 -195.834 -1415 249 249 251
-16.2342 -196.107 -1417 252 252 254
-13.3673 -195.551 -1413 252 252 253
-10.4567 -193.888 -1401 209 209 211
-234.763 -194.821 -1374 163 167 187
-234.471 -196.902 -1389 202 206 225
-233.285 -198.274 -1399 203 205 223
-231.402 -199.08 -1405 202 204 222
-228.195 -198.752 -1403 206 208 226
-225.319 -198.708 -1403 212 216 236
-222.286 -198.523 -1402 213 218 238
-218.946 -198.056 -1399 211 217 236
-214.694 -196.74 -1390 213 217 237
-211.242 -196.133 -1386 212 216 236
-207.809 -195.527 -1382 209 213 233
-204.245 -194.78 -1377 206 211 230
-200.85 -194.175 -1373 204 210 229
-197.761 -193.854 -1371 208 213 230
-194.539 -193.392 -1368 210 215 231
-191.472 -193.072 -1366 210 215 230
-188 -192.329 -1361 213 218 233
-184.686 -191.728 -1357 215 220 235
-181.256 -190.987 -1352 215 217 233
-177.716 -190.105 -1346 212 214 229
-174.331 -189.365 -1341 210 213 226
-171.48 -189.191 -1340 208 211 223
-168.383 -188.734 -1337 209 212 223
-165.547 -188.561 -1336 212 215 224
-163.082 -188.812 -1338 210 213 222
-160.371 -188.781 -1338 203 206 217
-157.661 -188.751 -1338 204 205 217
-154.837 -188.58 -1337 209 210 222
-152.017 -188.409 -1336 208 209 221
-149.092 -188.099 -1334 216 217 228
-146.285 -187.929 -1333 221 222 232
-143.807 -188.184 -1335 221 223 230
-141.111 -188.156 -1335 216 217 225
-138.623 -188.412 -1337 212 211 221
-136.128 -188.667 -1339 208 207 217
-133.327 -188.501 -1338 207 206 216
-130.531 -188.334 -1337 203 202 212
-127.741 -188.169 -1336 203 203 213
-124.862 -187.863 -1334 203 204 214
-121.992 -187.558 -1332 201 202 213
-119.22 -187.394 -1331 199 200 211
-116.542 -187.372 -1331 199 200 210
-113.864 -187.35 -1331 200 201 211
-111.271 -187.469 -1332 202 201 211
-108.592 -187.448 -1332 201 200 208
-105.756 -187.146 -1330 202 201 209
-103.007 -186.986 -1329 204 203 211
-100.186 -186.685 -1327 205 204 212
-97.4481 -186.526 -1326 207 206 214
-94.7864 -186.507 -1326 208 210 217
-92.3338 -186.912 -1329 220 222 229
-89.735 -187.035 -1330 230 232 239
-87.1984 -187.299 -1332 237 238 247
-84.591 -187.424 -1333 240 241 251
-82.1032 -187.83 -1336 244 244 248
-79.4852 -187.955 -1337 245 245 248
-77.0361 -188.502 -1341 244 244 246
-74.4607 -188.769 -1343 246 246 247
-71.9849 -189.317 -1347 251 251 252
-69.3392 -189.444 -1348 252 252 254
-66.7396 -189.713 -1350 253 253 255
-64.1325 -189.981 -1352 253 253 254
-61.5633 -190.391 -1355 251 253 253
-58.9827 -190.801 -1358 251 253 253
-56.3905 -191.211 -1361 252 254 255
-53.7867 -191.622 -1364 253 254 255
-51.134 -191.894 -1366 254 254 255
-48.58 -192.586 -1371 253 253 253
-45.8392 -192.578 -1371 253 253 253
-43.1931 -192.99 -1374 254 254 255
-40.506 -193.263 -1376 253 253 253
-37.8385 -193.677 -1379 252 252 252
-35.1086 -193.811 -1380 253 253 254
-32.4921 -194.647 -1386 252 252 253
-29.7875 -195.063 -1389 253 253 253
-27.188 -196.321 -1398 249 249 251
-24.4828 -197.018 -1403 252 252 253
-21.758 -197.716 -1408 249 249 250
-19.0133 -198.414 -1413 248 248 250
-16.2144 -198.692 -1415 254 254 255
-13.3887 -198.689 -1415 253 253 255
-10.4959 -197.423 -1406 220 220 222
-7.60102 -195.175 -1390 147 147 149
-234.125 -197.054 -1370 161 165 185
-234.01 -199.309 -1386 202 206 225
-233.164 -200.988 -1398 202 204 222
-231.117 -201.662 -1403 203 205 223
-228.239 -201.617 -1403 207 209 227
-225.202 -201.428 -1402 212 216 236
-222.17 -201.241 -1401 213 218 237
-218.832 -200.767 -1398 212 216 236
-214.89 -199.72 -1391 213 217 237
-211.436 -199.104 -1387 211 215 235
-207.999 -198.489 -1383 209 213 233
-204.581 -197.874 -1379 205 209 229
-201.181 -197.261 -1375 206 210 230
-198.088 -196.935 -1373 210 214 232
-194.862 -196.466 -1370 210 215 232
-191.79 -196.142 -1368 209 214 229
-188.313 -195.388 -1363 211 216 231
-185.13 -194.921 -1360 213 218 233
-181.559 -194.026 -1354 214 216 232
-177.882 -192.988 -1347 212 214 229
-174.495 -192.237 -1342 210 213 226
-171.513 -191.917 -1340 208 211 223
-168.416 -191.454 -1337 210 213 224
-165.703 -191.422 -1337 210 213 222
-163.114 -191.533 -1338 210 213 222
-160.402 -191.502 -1338 206 209 220
-157.574 -191.328 -1337 206 207 219
-154.866 -191.297 -1337 211 212 224
-151.933 -190.982 -1335 208 209 221
-149.121 -190.809 -1334 214 215 226
-146.313 -190.638 -1333 220 221 231
-143.835 -190.896 -1335 221 223 230
-141.138 -190.868 -1335 217 219 227
-138.649 -191.127 -1337 214 213 223
-136.154 -191.386 -1339 209 208 218
-133.452 -191.36 -1339 206 205 215
-130.556 -191.049 -1337 204 203 213
-127.861 -191.024 -1337 203 203 213
-124.979 -190.713 -1335 202 203 213
-122.107 -190.404 -1333 201 202 212
-119.333 -190.238 -1332 200 201 211
-116.652 -190.215 -1332 199 200 210
-114.057 -190.335 -1333 201 201 211
-111.375 -190.314 -1333 203 202 212
-108.695 -190.292 -1333 202 201 209
-105.856 -189.986 -1331 201 200 208
-103.104 -189.823 -1330 203 202 210
-100.281 -189.518 -1328 203 202 210
-97.6138 -189.499 -1328 205 204 212
-94.9475 -189.481 -1328 205 207 214
-92.4905 -189.89 -1331 212 214 221
-89.8872 -190.015 -1332 223 224 231
-87.2151 -189.998 -1332 234 235 244
-84.6072 -190.124 -1333 240 241 251
-81.996 -190.251 -1334 243 243 248
-79.4409 -190.521 -1336 244 244 248
-76.936 -190.933 -1339 244 244 247
-74.4195 -191.347 -1342 246 246 248
-71.8383 -191.618 -1344 249 249 251
-69.301 -192.032 -1347 252 252 254
-66.7029 -192.304 -1349 253 253 255
-64.0498 -192.434 -1350 254 254 255
-61.4842 -192.849 -1353 251 253 253
-58.9505 -193.408 -1357 251 253 254
-56.3598 -193.824 -1360 252 254 255
-53.7576 -194.241 -1363 253 254 255
-51.1438 -194.659 -1366 254 254 255
-48.5184 -195.077 -1369 253 253 253
-45.8145 -195.21 -1370 253 253 254
-43.1699 -195.629 -1373 253 253 255
-40.4842 -195.906 -1375 253 253 254
-37.8183 -196.326 -1378 253 253 253
-35.0898 -196.461 -1379 253 253 255
-32.4514 -197.167 -1384 253 253 254
-29.7718 -197.731 -1388 252 252 252
-27.1348 -198.723 -1395 247 247 249
-24.4003 -199.145 -1398 253 253 255
-21.7157 -200.138 -1405 249 249 250
-18.963 -200.704 -1409 249 249 251
-16.206 -201.413 -1414 254 254 255
-13.3723 -201.267 -1413 255 255 255
-10.5054 -200.41 -1407 229 229 230
-7.61883 -198.415 -1393 153 153 156
-232.804 -198.688 -1362 150 156 175
-233.549 -201.705 -1383 197 203 221
-232.709 -203.408 -1395 200 202 220
-230.833 -204.237 -1401 202 204 222
-228.284 -204.483 -1403 207 209 227
-225.246 -204.292 -1402 214 217 237
-222.056 -203.957 -1400 213 217 237
-218.719 -203.476 -1397 212 216 236
-214.623 -202.268 -1389 213 217 237
-211.325 -201.789 -1386 210 214 234
-208.04 -201.31 -1383 208 212 232
-204.77 -200.833 -1380 206 210 230
-201.513 -200.356 -1377 206 210 230
-198.415 -200.025 -1375 210 214 232
-195.184 -199.55 -1372 210 215 232
-191.827 -198.93 -1368 210 214 229
-188.488 -198.311 -1364 210 214 229
-184.894 -197.402 -1358 211 216 231
-181.595 -196.784 -1354 212 214 230
-178.049 -195.877 -1348 210 213 228
-174.529 -194.97 -1342 210 213 226
-171.547 -194.645 -1340 209 212 224
-168.7 -194.467 -1339 211 214 225
-165.983 -194.434 -1339 209 212 221
-163.268 -194.401 -1339 210 213 223
-160.673 -194.514 -1340 207 210 221
-157.84 -194.338 -1339 206 209 220
-154.897 -194.017 -1337 212 214 225
-151.963 -193.696 -1335 209 210 222
-149.038 -193.377 -1333 214 215 226
-146.342 -193.348 -1333 219 220 230
-143.863 -193.609 -1335 220 222 231
-141.165 -193.581 -1335 219 221 230
-138.676 -193.844 -1337 216 215 225
-136.181 -194.107 -1339 209 208 219
-133.478 -194.08 -1339 206 205 216
-130.68 -193.909 -1338 204 203 213
-127.982 -193.884 -1338 203 203 213
-125.191 -193.714 -1337 202 203 213
-122.405 -193.545 -1336 201 202 212
-119.625 -193.376 -1335 199 200 210
-116.85 -193.208 -1334 199 200 210
-114.165 -193.186 -1334 201 202 212
-111.481 -193.164 -1334 203 202 212
-108.798 -193.142 -1334 202 201 210
-106.036 -192.976 -1333 200 199 207
-103.279 -192.811 -1332 202 201 209
-100.451 -192.501 -1330 203 202 210
-97.7798 -192.482 -1330 204 203 211
-95.1089 -192.463 -1330 203 205 212
-92.5779 -192.734 -1332 207 209 216
-89.9721 -192.861 -1333 216 215 223
-87.232 -192.699 -1332 228 228 238
-84.5602 -192.682 -1332 238 239 249
-81.9505 -192.811 -1333 243 242 249
-79.3968 -193.084 -1335 247 247 252
-76.8934 -193.503 -1338 248 248 252
-74.434 -194.066 -1342 248 248 250
-71.8522 -194.341 -1344 249 249 251
-69.263 -194.617 -1346 252 252 254
-66.7158 -195.037 -1349 252 252 254
-64.0623 -195.169 -1350 253 253 254
-61.5416 -195.735 -1354 251 253 255
-59.0054 -196.301 -1358 251 253 255
-56.3708 -196.579 -1360 251 253 255
-53.768 -197.002 -1363 252 253 255
-51.1163 -197.281 -1365 253 253 255
-48.4923 -197.705 -1368 253 253 253
-45.79 -197.84 -1369 253 253 254
-43.1469 -198.265 -1372 253 253 255
-40.4332 -198.401 -1373 254 254 254
-37.7707 -198.827 -1376 253 253 253
-35.0202 -198.82 -1376 254 254 255
-32.3639 -199.392 -1380 254 254 255
-29.6917 -199.963 -1384 250 250 251
-27.1012 -201.258 -1393 244 244 246
-24.3875 -201.831 -1397 251 251 253
-21.689 -202.694 -1403 245 245 247
-18.9667 -203.556 -1409 249 249 251
-16.1977 -204.131 -1413 251 251 253
-13.3939 -204.417 -1415 254 254 255
-10.5523 -204.126 -1413 235 235 237
-7.65855 -202.246 -1400 160 159 165
-233.258 -204.238 -1381 187 193 212
-232.756 -206.262 -1395 202 204 222
-230.715 -206.954 -1400 201 203 221
-228.492 -207.499 -1404 208 210 228
-225.13 -207.01 -1401 215 217 237
-222.1 -206.817 -1400 214 217 237
-218.606 -206.182 -1396 212 216 236
-214.512 -204.957 -1388 212 216 236
-211.367 -204.619 -1386 211 215 235
-208.082 -204.134 -1383 207 211 231
-204.959 -203.797 -1381 206 210 230
-201.7 -203.314 -1378 206 210 230
-198.743 -203.126 -1377 208 212 230
-195.365 -202.496 -1373 209 214 230
-192.146 -202.015 -1370 211 213 229
-188.802 -201.387 -1366 211 215 230
-185.34 -200.613 -1361 211 216 231
-181.899 -199.839 -1356 212 214 230
-178.217 -198.771 -1349 210 212 227
-174.694 -197.852 -1343 210 213 225
-171.581 -197.375 -1340 210 213 224
-168.734 -197.194 -1339 211 214 225
-166.016 -197.161 -1339 211 214 224
-163.422 -197.275 -1340 210 213 223
-160.825 -197.39 -1341 208 211 222
-157.871 -197.063 -1339 207 210 220
-154.927 -196.738 -1337 211 214 224
-151.993 -196.413 -1335 211 212 224
-148.956 -195.942 -1332 214 215 226
-146.151 -195.765 -1331 220 221 231
-143.784 -196.177 -1334 221 222 232
-140.982 -196.002 -1333 222 222 232
-138.6 -196.415 -1336 218 217 228
-136.208 -196.829 -1339 211 210 222
-133.604 -196.949 -1340 206 205 217
-130.803 -196.776 -1339 205 204 214
-128.103 -196.75 -1339 203 203 213
-125.309 -196.578 -1338 201 202 212
-122.521 -196.406 -1337 200 201 211
-119.649 -196.088 -1335 199 200 210
-116.96 -196.065 -1335 199 201 209
-114.358 -196.189 -1336 198 199 208
-111.67 -196.166 -1336 199 198 208
-108.982 -196.144 -1336 200 199 207
-106.136 -195.829 -1334 201 200 208
-103.377 -195.662 -1333 201 200 208
-100.698 -195.641 -1333 200 199 207
-97.9461 -195.475 -1332 202 201 209
-95.3423 -195.602 -1333 201 203 210
-92.7352 -195.73 -1334 206 207 214
-90.0573 -195.712 -1334 212 211 219
-87.3147 -195.548 -1333 221 221 230
-84.7038 -195.678 -1334 234 234 244
-81.9666 -195.514 -1333 247 246 253
-79.4125 -195.792 -1335 251 250 255
-76.851 -196.07 -1337 254 254 255
-74.3377 -196.495 -1340 252 252 253
-71.7594 -196.773 -1342 250 250 252
-69.1737 -197.053 -1344 252 252 254
-66.5806 -197.332 -1346 251 251 253
-63.9325 -197.466 -1347 251 251 253
-61.4173 -198.04 -1351 252 253 255
-58.8866 -198.614 -1355 252 253 255
-56.2989 -199.043 -1358 252 253 255
-53.6997 -199.472 -1361 253 253 255
-51.0514 -199.754 -1363 253 253 255
-48.431 -200.184 -1366 253 253 254
-45.732 -200.321 -1367 253 253 254
-43.061 -200.606 -1369 252 252 254
-40.3822 -200.89 -1371 251 251 253
-37.6958 -201.176 -1373 252 252 253
-35.0271 -201.608 -1376 254 254 255
-32.3468 -202.041 -1379 254 254 255
-29.719 -202.914 -1385 246 246 247
-27.0675 -203.787 -1391 248 248 250
-24.3399 -204.222 -1394 251 251 252
-21.6469 -205.096 -1400 241 241 243
-18.9301 -205.971 -1406 249 249 251
-16.2008 -206.993 -1413 251 251 253
-13.3965 -207.283 -1415 254 254 255
-10.5692 -207.281 -1415 240 240 243
-7.66017 -205.082 -1400 166 167 173
-232.968 -206.765 -1379 180 185 204
-232.636 -208.966 -1394 203 205 223
-230.762 -209.818 -1400 201 203 221
-228.539 -210.371 -1404 209 211 229
-225.658 -210.325 -1404 215 217 237
-222.621 -210.129 -1403 215 217 237
-218.807 -209.185 -1397 214 218 238
-214.864 -208.093 -1390 211 215 235
-211.41 -207.451 -1386 211 215 235
-208.274 -207.109 -1384 207 211 231
-205.001 -206.618 -1381 205 209 229
-201.887 -206.277 -1379 205 209 229
-198.783 -205.937 -1377 209 212 229
-195.547 -205.448 -1374 211 213 229
-192.185 -204.811 -1370 211 213 229
-189.117 -204.473 -1368 213 216 232
-185.513 -203.538 -1362 213 218 233
-181.936 -202.605 -1356 212 215 229
-178.253 -201.522 -1349 210 213 226
-174.859 -200.739 -1344 210 213 224
-171.872 -200.406 -1342 210 213 224
-168.894 -200.072 -1340 210 213 224
-166.05 -199.889 -1339 211 214 225
-163.577 -200.154 -1341 211 214 225
-160.737 -199.972 -1340 208 211 222
-157.903 -199.791 -1339 207 210 219
-154.843 -199.311 -1336 212 215 224
-152.137 -199.28 -1336 212 213 225
-149.097 -198.802 -1333 212 213 224
-146.4 -198.772 -1333 218 219 229
-143.92 -199.041 -1335 221 222 232
-141.327 -199.162 -1336 222 223 233
-138.732 -199.282 -1337 220 219 231
-136.235 -199.552 -1339 213 212 224
-133.631 -199.674 -1340 208 207 219
-130.829 -199.499 -1339 204 203 213
-128.224 -199.621 -1340 203 202 212
-125.428 -199.447 -1339 203 202 212
-122.638 -199.273 -1338 202 202 212
-119.762 -198.951 -1336 200 201 211
-117.071 -198.927 -1336 199 201 208
-114.296 -198.755 -1335 198 199 207
-111.608 -198.732 -1335 199 198 208
-108.922 -198.71 -1335 200 199 207
-106.157 -198.539 -1334 201 200 208
-103.475 -198.518 -1334 201 200 208
-100.794 -198.497 -1334 200 199 207
-98.1128 -198.477 -1334 201 200 208
-95.5044 -198.606 -1335 201 203 210
-92.8928 -198.736 -1336 204 206 213
-90.1428 -198.569 -1335 209 208 216
-87.3977 -198.403 -1334 217 216 225
-84.7207 -198.385 -1334 229 228 238
-81.983 -198.22 -1333 245 244 251
-79.3688 -198.352 -1334 253 252 255
-76.8089 -198.634 -1336 253 253 255
-74.297 -199.065 -1339 253 253 255
-71.7203 -199.348 -1341 254 254 255
-69.1875 -199.779 -1344 255 255 255
-66.5444 -199.914 -1345 253 253 255
-63.8977 -200.05 -1346 253 253 255
-61.3386 -200.483 -1349 253 253 255
-58.8114 -201.065 -1353 253 253 255
-56.2687 -201.648 -1357 253 253 255
-53.6709 -202.083 -1360 253 253 255
-51.099 -202.667 -1364 253 253 255
-48.4761 -203.103 -1367 253 253 255
-45.7411 -203.093 -1367 253 253 255
-43.0696 -203.381 -1369 253 253 255
-40.3608 -203.522 -1370 254 254 255
-37.7033 -203.959 -1373 253 253 255
-34.9832 -204.101 -1374 252 252 253
-32.3297 -204.688 -1378 247 247 248
-29.682 -205.425 -1383 243 243 245
-27.0145 -206.162 -1388 252 252 254
-24.3098 -206.751 -1392 246 246 248
-21.6202 -207.637 -1398 241 241 243
-18.9069 -208.524 -1404 251 251 253
-16.1811 -209.56 -1411 253 253 255
-13.3897 -210.003 -1414 250 250 252
-10.5788 -210.298 -1416 246 247 251
-7.68901 -208.662 -1405 177 179 185
-4.79795 -205.096 -1381 137 139 146
-232.847 -209.438 -1378 173 179 198
-232.684 -211.821 -1394 203 206 224
-230.809 -212.685 -1400 202 204 222
-228.911 -213.548 -1406 209 211 229
-225.865 -213.349 -1405 215 217 237
-222.826 -213.151 -1404 215 217 237
-219.322 -212.498 -1400 214 217 236
-215.372 -211.391 -1393 211 215 235
-212.063 -210.891 -1390 211 215 235
-208.769 -210.393 -1387 207 211 231
-205.34 -209.743 -1383 204 208 228
-201.928 -209.095 -1379 205 209 229
-198.68 -208.598 -1376 210 212 229
-195.445 -208.103 -1373 212 214 230
-192.084 -207.457 -1369 212 214 230
-189.017 -207.115 -1367 213 216 232
-185.415 -206.167 -1361 214 218 233
-181.973 -205.372 -1356 212 215 228
-178.553 -204.578 -1351 209 212 225
-175.025 -203.633 -1345 210 213 224
-171.779 -202.991 -1341 210 213 223
-169.055 -202.956 -1341 211 214 224
-166.208 -202.771 -1340 210 214 225
-163.488 -202.737 -1340 210 214 225
-160.77 -202.703 -1340 207 210 221
-157.935 -202.519 -1339 207 210 220
-155.106 -202.336 -1338 214 217 226
-152.282 -202.153 -1337 212 213 225
-149.24 -201.669 -1334 211 212 223
-146.54 -201.638 -1334 219 220 230
-144.057 -201.911 -1336 221 222 232
-141.356 -201.882 -1336 222 223 233
-138.864 -202.155 -1338 220 220 232
-136.262 -202.278 -1339 214 213 225
-133.559 -202.25 -1339 208 207 219
-130.758 -202.072 -1338 204 203 213
-128.25 -202.348 -1340 203 202 212
-125.454 -202.171 -1339 202 201 210
-122.662 -201.994 -1338 202 201 211
-119.876 -201.819 -1337 201 201 211
-117.183 -201.794 -1337 199 200 209
-114.49 -201.771 -1337 198 198 208
-111.715 -201.597 -1336 199 198 208
-109.026 -201.574 -1336 199 198 206
-106.338 -201.552 -1336 200 199 207
-103.574 -201.38 -1335 200 199 207
-100.814 -201.208 -1334 200 199 207
-98.1327 -201.188 -1334 200 199 207
-95.5238 -201.319 -1335 199 200 209
-92.9116 -201.45 -1336 202 203 211
-90.2286 -201.432 -1336 202 201 209
-87.4809 -201.263 -1335 208 207 215
-84.7379 -201.095 -1334 218 217 225
-81.9995 -200.927 -1333 235 234 241
-79.385 -201.061 -1334 250 249 254
-76.7669 -201.196 -1335 253 253 255
-74.2011 -201.482 -1337 253 253 255
-71.6277 -201.769 -1339 253 253 255
-69.0471 -202.055 -1341 254 254 255
-66.4093 -202.192 -1342 254 254 255
-63.7682 -202.33 -1343 254 254 255
-61.2145 -202.769 -1346 253 253 255
-58.6929 -203.359 -1350 253 253 255
-56.1556 -203.95 -1354 253 253 255
-53.6028 -204.542 -1358 253 253 255
-50.9969 -204.983 -1361 253 253 255
-48.3794 -205.425 -1364 253 253 255
-45.717 -205.716 -1366 254 254 255
-43.0153 -205.858 -1367 252 252 254
-40.3394 -206.15 -1369 254 254 255
-37.7384 -206.895 -1374 253 253 255
-35.092 -207.49 -1378 249 249 251
-32.3832 -207.785 -1380 239 239 241
-29.7309 -208.531 -1385 243 243 245
-27.02 -208.977 -1388 249 249 251
-24.2798 -209.273 -1390 238 238 240
-21.5782 -210.021 -1395 243 243 245
-18.8703 -210.92 -1401 252 252 254
-16.1729 -212.272 -1410 251 251 253
-13.4019 -213.021 -1415 244 244 245
-10.6109 -213.772 -1420 250 250 252
-7.72335 -212.415 -1411 184 185 188
-4.83016 -209.252 -1390 144 145 151
-232.727 -212.108 -1377 168 176 195
-232.566 -214.523 -1393 201 206 223
-230.857 -215.552 -1400 202 205 223
-228.796 -216.274 -1405 210 212 230
-226.073 -216.38 -1406 216 218 238
-222.713 -215.871 -1403 213 215 235
-219.367 -215.363 -1400 213 215 233
-215.726 -214.549 -1395 212 215 234
-212.108 -213.735 -1390 211 215 235
-208.662 -213.076 -1386 208 212 232
-205.085 -212.264 -1381 204 208 228
-201.824 -211.76 -1378 205 209 229
-198.577 -211.258 -1375 209 211 228
-195.343 -210.755 -1372 212 214 230
-192.264 -210.408 -1370 213 215 231
-189.195 -210.061 -1368 214 216 232
-185.453 -208.947 -1361 216 218 234
-182.011 -208.141 -1356 212 215 228
-178.59 -207.336 -1351 208 211 224
-175.191 -206.532 -1346 209 212 223
-171.814 -205.728 -1341 210 213 223
-168.963 -205.539 -1340 213 215 224
-166.118 -205.351 -1339 210 215 226
-163.278 -205.163 -1338 210 214 225
-160.803 -205.436 -1340 207 210 221
-158.086 -205.403 -1340 208 211 221
-155.138 -205.064 -1338 215 218 227
-152.427 -205.032 -1338 213 214 226
-149.606 -204.847 -1337 211 212 223
-146.79 -204.663 -1336 218 219 229
-144.303 -204.939 -1338 220 221 231
-141.597 -204.91 -1338 221 222 232
-138.996 -205.034 -1339 220 221 233
-136.392 -205.158 -1340 215 215 227
-133.586 -204.977 -1339 210 209 221
-130.883 -204.95 -1339 205 204 214
-128.276 -205.076 -1340 203 202 212
-125.573 -205.05 -1340 202 201 209
-122.779 -204.871 -1339 202 201 210
-119.991 -204.692 -1338 202 201 210
-117.294 -204.668 -1338 198 199 209
-114.514 -204.491 -1337 198 198 208
-111.654 -204.162 -1335 198 197 207
-109.048 -204.292 -1336 199 198 206
-106.36 -204.269 -1336 199 198 206
-103.673 -204.248 -1336 199 198 206
-101.061 -204.379 -1337 200 199 207
-98.3736 -204.359 -1337 199 198 206
-95.7581 -204.492 -1338 198 199 209
-93.0698 -204.472 -1338 199 199 209
-90.2472 -204.147 -1336 200 198 206
-87.5644 -204.129 -1336 203 201 209
-84.8823 -204.111 -1336 207 206 214
-82.0779 -203.788 -1334 219 218 225
-79.4012 -203.772 -1334 238 237 243
-76.7827 -203.908 -1335 248 248 251
-74.2162 -204.198 -1337 253 253 255
-71.6424 -204.489 -1339 254 254 255
-69.0612 -204.779 -1341 253 253 255
-66.3735 -204.765 -1341 252 252 255
-63.7338 -204.905 -1342 252 252 255
-61.0906 -205.045 -1343 253 253 255
-58.5744 -205.643 -1347 253 253 255
-56.0011 -206.089 -1350 253 253 255
-53.5348 -206.994 -1356 253 253 255
-50.8949 -207.288 -1358 253 253 255
-48.3184 -207.888 -1362 253 253 255
-45.6593 -208.184 -1364 253 253 255
-42.9611 -208.328 -1365 253 253 255
-40.3182 -208.777 -1368 254 254 255
-37.7186 -209.532 -1373 253 253 255
-35.0483 -209.982 -1376 241 241 244
-32.3664 -210.433 -1379 237 237 240
-29.694 -211.037 -1383 246 246 248
-27.006 -211.641 -1387 244 244 246
-24.2673 -211.941 -1389 237 237 239
-21.5671 -212.7 -1394 249 249 251
-18.8876 -213.916 -1402 253 253 255
-16.1532 -214.828 -1408 248 248 250
-13.414 -216.046 -1416 239 239 240
-10.6055 -216.501 -1419 252 252 254
-7.75224 -216.041 -1416 192 192 194
-4.87281 -213.904 -1402 145 147 153
-232.438 -214.62 -1375 164 172 191
-232.615 -217.379 -1393 200 205 222
-231.236 -218.734 -1402 200 204 221
-228.845 -219.153 -1405 210 212 230
-226.121 -219.261 -1406 216 218 237
-222.76 -218.745 -1403 213 215 234
-219.257 -218.075 -1399 212 214 232
-215.772 -217.405 -1395 211 214 233
-212.458 -216.892 -1392 210 214 234
-208.856 -216.068 -1387 209 212 232
-205.277 -215.246 -1382 206 209 229
-202.013 -214.735 -1379 205 209 229
-198.907 -214.381 -1377 208 210 227
-195.669 -213.872 -1374 212 214 230
-192.304 -213.209 -1370 214 216 232
-189.234 -212.857 -1368 215 217 233
-185.629 -211.884 -1362 216 218 234
-182.183 -211.067 -1357 212 215 228
-178.892 -210.407 -1353 209 212 224
-175.358 -209.436 -1347 209 212 223
-172.107 -208.778 -1343 210 212 222
-168.999 -208.275 -1340 212 213 223
-166.029 -207.929 -1338 210 215 226
-163.312 -207.894 -1338 210 214 225
-160.837 -208.171 -1340 207 210 221
-158.119 -208.137 -1340 209 212 222
-155.287 -207.949 -1339 216 219 228
-152.573 -207.916 -1339 214 215 227
-149.749 -207.729 -1338 210 211 222
-146.931 -207.543 -1337 217 218 228
-144.441 -207.823 -1339 220 221 231
-141.838 -207.948 -1340 221 222 232
-139.129 -207.918 -1340 222 223 235
-136.523 -208.044 -1341 217 217 229
-133.814 -208.016 -1341 210 209 221
-131.106 -207.988 -1341 204 203 213
-128.303 -207.805 -1340 203 202 211
-125.599 -207.779 -1340 202 201 209
-122.805 -207.598 -1339 203 202 210
-120.016 -207.417 -1338 202 201 209
-117.231 -207.237 -1337 198 199 209
-114.452 -207.058 -1336 198 198 208
-111.594 -206.724 -1334 199 198 208
-108.99 -206.856 -1335 199 198 206
-106.303 -206.833 -1335 198 197 205
-103.694 -206.966 -1336 198 197 205
-101.007 -206.945 -1336 199 198 206
-98.3205 -206.924 -1336 199 198 206
-95.7065 -207.058 -1337 197 198 208
-92.9501 -206.884 -1336 197 197 207
-90.2659 -206.864 -1336 200 197 205
-87.517 -206.691 -1335 201 198 206
-84.9 -206.828 -1336 202 199 207
-82.1565 -206.656 -1335 205 204 211
-79.4772 -206.639 -1335 219 218 225
-76.8562 -206.777 -1336 233 233 237
-74.2872 -207.071 -1338 246 246 248
-71.7108 -207.365 -1340 252 252 254
-69.127 -207.66 -1342 254 254 255
-66.4368 -207.646 -1342 253 253 255
-63.7945 -207.787 -1343 252 252 255
-61.1033 -207.774 -1343 253 253 255
-58.5431 -208.225 -1346 253 253 255
-55.9713 -208.677 -1349 253 253 255
-53.388 -209.13 -1352 253 253 255
-50.793 -209.583 -1355 253 253 255
-48.222 -210.191 -1359 253 253 255
-45.6019 -210.646 -1362 252 252 255
-42.9385 -210.946 -1364 253 253 255
-40.3266 -211.556 -1368 253 253 254
-37.7265 -212.321 -1373 245 245 247
-35.0556 -212.777 -1376 233 233 237
-32.373 -213.234 -1379 243 243 246
-29.7002 -213.846 -1383 247 247 249
-26.9727 -214.149 -1385 238 238 240
-24.2198 -214.298 -1386 243 243 245
-21.5252 -215.067 -1391 254 254 255
-18.8376 -216.145 -1398 254 254 255
-16.1222 -217.223 -1405 246 246 248
-13.3978 -218.612 -1414 236 236 238
-10.6077 -219.382 -1419 252 252 254
-7.7704 -219.38 -1419 221 221 224
-4.88786 -217.369 -1406 154 156 162
-232.999 -220.553 -1395 200 205 222
-231.451 -221.768 -1403 200 204 221
-229.056 -222.192 -1406 210 212 230
-226.169 -222.143 -1406 217 219 237
-222.967 -221.779 -1404 213 215 233
-219.617 -221.257 -1401 212 214 232
-216.127 -220.579 -1397 210 213 232
-212.503 -219.743 -1392 209 213 233
-208.901 -218.909 -1387 209 211 232
-205.469 -218.233 -1383 207 210 230
-202.056 -217.558 -1379 204 208 228
-198.805 -217.042 -1376 207 210 227
-195.711 -216.684 -1374 212 214 230
-192.626 -216.327 -1372 215 217 233
-189.413 -215.813 -1369 216 218 234
-185.532 -214.512 -1361 216 218 234
-182.222 -213.842 -1357 214 215 229
-178.93 -213.173 -1353 210 212 226
-175.526 -212.347 -1348 209 212 223
-172.143 -211.522 -1343 210 211 222
-169.161 -211.171 -1341 212 213 223
-166.188 -210.82 -1339 209 214 225
-163.347 -210.627 -1338 210 215 226
-160.871 -210.907 -1340 208 211 222
-158.153 -210.873 -1340 210 213 222
-155.436 -210.84 -1340 217 220 229
-152.72 -210.807 -1340 215 217 228
-150.005 -210.774 -1340 210 212 222
-147.182 -210.585 -1339 217 219 228
-144.471 -210.554 -1339 219 220 231
-141.974 -210.838 -1341 220 221 232
-139.262 -210.808 -1341 222 223 236
-136.654 -210.936 -1342 219 219 232
-133.942 -210.907 -1342 211 210 222
-131.329 -211.036 -1343 203 202 213
-128.426 -210.694 -1341 203 202 212
-125.814 -210.824 -1342 203 202 210
-122.923 -210.483 -1340 203 202 210
-120.131 -210.3 -1339 202 201 209
-117.256 -209.961 -1337 198 200 208
-114.476 -209.779 -1336 197 198 207
-111.701 -209.598 -1335 199 198 208
-108.931 -209.418 -1334 199 198 206
-106.325 -209.552 -1335 198 197 205
-103.794 -209.843 -1337 198 197 205
-101.179 -209.979 -1338 198 197 205
-98.4885 -209.957 -1338 199 198 206
-95.7983 -209.937 -1338 198 199 209
-93.0393 -209.76 -1337 198 198 208
-90.3526 -209.74 -1337 201 198 208
-87.6011 -209.565 -1336 201 198 206
-84.9815 -209.703 -1337 203 200 208
-82.1738 -209.372 -1335 201 200 207
-79.6131 -209.668 -1337 207 206 213
-76.9299 -209.652 -1337 217 216 223
-74.3584 -209.949 -1339 228 228 232
-71.6725 -209.934 -1339 237 237 240
-69.1931 -210.546 -1343 245 245 249
-66.4508 -210.375 -1342 249 249 251
-63.8555 -210.674 -1344 252 252 253
-61.1162 -210.504 -1343 253 253 255
-58.5554 -210.962 -1346 253 253 255
-55.9416 -211.263 -1348 253 253 255
-53.3992 -211.879 -1352 253 253 255
-50.7288 -212.024 -1353 253 253 255
-48.1612 -212.641 -1357 253 253 255
-45.5779 -213.257 -1361 253 253 255
-42.9161 -213.561 -1363 253 253 255
-40.3056 -214.179 -1367 246 246 248
-37.7069 -214.954 -1372 236 236 238
-35.012 -215.26 -1374 237 237 241
-32.3094 -215.566 -1376 243 243 246
-29.642 -216.186 -1380 239 239 242
-26.9004 -216.337 -1381 238 238 240
-24.1725 -216.645 -1383 251 251 252
-21.4988 -217.58 -1389 253 253 254
-18.8281 -218.829 -1397 253 253 254
-16.1141 -219.922 -1404 249 249 251
-13.3817 -221.172 -1412 236 236 238
-10.6174 -222.422 -1420 250 251 253
-7.79935 -223.047 -1424 249 250 254
-4.92362 -221.792 -1416 179 181 188
-2.07696 -220.225 -1406 106 108 115
-233.05 -223.417 -1395 198 203 220
-231.666 -224.808 -1404 200 204 221
-229.269 -225.238 -1407 210 212 229
-226.379 -225.188 -1407 217 219 237
-223.015 -224.659 -1404 212 214 232
-219.665 -224.13 -1401 212 214 232
-216.174 -223.443 -1397 210 213 232
-212.549 -222.596 -1392 209 213 233
-208.795 -221.591 -1386 208 210 231
-205.514 -221.066 -1383 207 209 230
-202.1 -220.383 -1379 204 208 228
-198.993 -220.02 -1377 208 210 228
-195.896 -219.657 -1375 211 213 229
-192.668 -219.136 -1372 215 217 233
-189.316 -218.455 -1368 217 219 235
-185.708 -217.456 -1362 215 217 233
-182.262 -216.618 -1357 213 214 228
-178.969 -215.94 -1353 211 212 225
-175.564 -215.104 -1348 209 212 223
-172.437 -214.588 -1345 210 212 222
-169.45 -214.231 -1343 211 212 222
-166.472 -213.876 -1341 209 214 225
-163.626 -213.681 -1340 210 215 225
-161.026 -213.805 -1341 208 211 222
-158.423 -213.93 -1342 210 213 222
-155.585 -213.736 -1341 218 221 230
-152.752 -213.544 -1340 216 219 230
-150.037 -213.511 -1340 209 212 222
-147.103 -213.16 -1338 216 218 228
-144.395 -213.128 -1338 217 218 230
-141.899 -213.416 -1340 219 220 232
-139.188 -213.386 -1340 222 223 236
-136.581 -213.515 -1341 221 221 234
-133.971 -213.645 -1342 214 213 225
-131.357 -213.776 -1343 205 204 216
-128.645 -213.748 -1343 203 203 214
-125.934 -213.72 -1343 202 202 210
-123.041 -213.375 -1341 202 201 209
-120.157 -213.03 -1339 201 200 208
-117.369 -212.846 -1338 198 200 207
-114.672 -212.821 -1338 197 198 207
-111.892 -212.637 -1337 200 199 209
-109.199 -212.613 -1337 200 199 207
-106.587 -212.749 -1338 198 197 205
-103.971 -212.885 -1339 197 197 205
-101.277 -212.863 -1339 198 197 205
-98.5832 -212.842 -1339 198 198 206
-95.8187 -212.662 -1338 198 198 208
-93.0591 -212.483 -1337 198 198 208
-90.4394 -212.622 -1338 201 198 208
-87.751 -212.603 -1338 200 198 206
-85.1268 -212.743 -1339 201 198 206
-82.4377 -212.725 -1339 200 199 207
-79.8683 -213.025 -1341 201 200 208
-77.2341 -213.167 -1342 204 203 210
-74.5965 -213.31 -1343 209 208 214
-71.8483 -213.135 -1342 215 215 221
-69.3109 -213.597 -1345 225 224 229
-66.6135 -213.582 -1345 231 230 235
-63.9642 -213.727 -1346 237 237 240
-61.2658 -213.713 -1346 244 243 247
-58.6984 -214.177 -1349 247 246 250
-55.9951 -214.164 -1349 250 250 252
-53.3711 -214.47 -1351 253 253 255
-50.7021 -214.618 -1352 253 253 255
-48.1359 -215.242 -1356 254 254 255
-45.5542 -215.867 -1360 252 252 255
-42.9253 -216.334 -1363 250 250 253
-40.3142 -216.959 -1367 239 239 241
-37.6874 -217.586 -1371 237 237 239
-34.9939 -217.896 -1373 243 243 246
-32.2693 -218.047 -1374 238 238 242
-29.5839 -218.516 -1377 235 235 238
-26.8672 -218.828 -1379 245 245 247
-24.1602 -219.298 -1382 254 254 255
-21.4723 -220.087 -1387 252 252 254
-18.8186 -221.511 -1396 250 250 252
-16.106 -222.618 -1403 253 253 254
-13.394 -224.201 -1413 236 236 238
-10.6196 -225.309 -1420 248 249 251
-7.80095 -225.942 -1424 253 254 255
-4.93853 -225.306 -1420 226 228 233
-2.08624 -224.036 -1412 91 92 98
-232.767 -225.959 -1393 189 195 212
-231.057 -227.042 -1400 200 205 221
-229.32 -228.127 -1407 209 211 227
-226.751 -228.4 -1409 214 216 234
-223.064 -227.54 -1404 211 213 231
-219.713 -227.005 -1401 214 216 234
-215.912 -225.985 -1395 212 214 234
-212.596 -225.451 -1392 212 214 234
-208.841 -224.433 -1386 207 210 230
-205.559 -223.902 -1383 206 210 230
-202.437 -223.533 -1381 204 210 229
-199.47 -223.327 -1380 206 210 228
-196.366 -222.96 -1378 211 214 231
-193.272 -222.593 -1376 214 216 233
-189.772 -221.742 -1371 214 216 233
-186.022 -220.569 -1364 214 216 232
-182.436 -219.558 -1358 210 214 227
-179.008 -218.71 -1353 207 211 224
-175.732 -218.024 -1349 209 212 221
-172.603 -217.501 -1346 209 211 221
-169.613 -217.141 -1344 211 213 222
-166.633 -216.78 -1342 210 214 223
-163.784 -216.583 -1341 211 214 224
-161.181 -216.708 -1342 208 211 222
-158.457 -216.673 -1342 209 212 222
-155.619 -216.477 -1341 220 223 232
-152.9 -216.444 -1341 217 220 229
-150.182 -216.41 -1341 210 212 222
-147.245 -216.055 -1339 216 217 228
-144.642 -216.184 -1340 215 216 228
-142.036 -216.314 -1341 218 219 231
-139.427 -216.445 -1342 221 222 234
-136.814 -216.576 -1343 221 221 233
-134.199 -216.707 -1344 216 215 227
-131.582 -216.839 -1345 207 207 219
-128.673 -216.489 -1343 203 203 215
-125.962 -216.461 -1343 201 201 213
-123.159 -216.272 -1342 200 201 211
-120.362 -216.085 -1341 199 200 210
-117.482 -215.736 -1339 198 200 209
-114.783 -215.711 -1339 198 198 208
-112 -215.525 -1338 199 198 210
-109.223 -215.34 -1337 199 198 208
-106.69 -215.638 -1339 198 197 206
-103.994 -215.615 -1339 196 197 206
-101.374 -215.754 -1340 196 197 206
-98.6782 -215.732 -1340 197 199 206
-95.9827 -215.711 -1340 199 198 208
-93.2185 -215.529 -1339 198 197 207
-90.5943 -215.67 -1340 199 197 207
-87.9011 -215.651 -1340 199 198 207
-85.3359 -215.954 -1342 198 197 205
-82.6402 -215.936 -1342 198 197 205
-80.1239 -216.401 -1345 198 197 205
-77.4235 -216.383 -1345 196 195 205
-74.8348 -216.688 -1347 197 196 204
-72.1316 -216.672 -1347 201 200 208
-69.5321 -216.979 -1349 207 205 212
-66.7765 -216.803 -1348 209 208 215
-64.0731 -216.789 -1348 212 212 218
-61.3701 -216.775 -1348 216 215 222
-58.7547 -217.084 -1350 219 218 224
-56.0487 -217.071 -1350 226 226 228
-53.4221 -217.381 -1352 235 235 238
-50.7881 -217.691 -1354 250 250 253
-48.2173 -218.323 -1358 255 255 255
-45.564 -218.635 -1360 252 252 255
-42.966 -219.268 -1364 242 242 246
-40.3229 -219.741 -1367 238 238 240
-37.6681 -220.215 -1370 248 248 250
-34.9505 -220.368 -1371 242 242 244
-32.2058 -220.361 -1371 236 236 238
-29.5258 -220.836 -1374 243 243 245
-26.834 -221.312 -1377 253 253 254
-24.1479 -221.95 -1381 248 248 249
-21.4924 -223.07 -1388 248 248 250
-18.8226 -224.351 -1396 245 245 247
-16.1095 -225.472 -1403 255 255 255
-13.3875 -226.915 -1412 238 238 240
-10.622 -228.198 -1420 247 248 250
-7.80257 -228.839 -1424 252 253 254
-4.94651 -228.517 -1422 251 251 253
-2.08814 -227.069 -1413 149 150 151
0.718149 -220.641 -1373 63 63 67
-231.314 -227.344 -1384 183 189 206
-230.778 -229.591 -1398 201 205 222
-229.208 -230.853 -1406 208 210 226
-226.48 -230.966 -1407 214 216 233
-223.114 -230.424 -1404 212 214 232
-219.919 -230.046 -1402 212 214 234
-216.115 -229.013 -1396 211 212 232
-212.796 -228.473 -1393 211 212 232
-209.189 -227.605 -1388 205 209 229
-206.199 -227.395 -1387 204 209 228
-202.776 -226.693 -1383 203 209 228
-199.514 -226.157 -1380 207 212 230
-196.41 -225.785 -1378 210 214 232
-193.315 -225.414 -1376 213 215 233
-189.676 -224.388 -1370 214 216 233
-185.927 -223.2 -1363 214 216 232
-182.611 -222.504 -1359 210 215 228
-179.312 -221.809 -1355 206 211 224
-175.902 -220.951 -1350 208 211 221
-172.898 -220.584 -1348 209 212 222
-170.155 -220.546 -1348 211 214 223
-167.042 -220.018 -1345 212 215 224
-164.187 -219.818 -1344 212 215 225
-161.457 -219.781 -1344 208 211 222
-158.611 -219.582 -1343 209 212 222
-155.653 -219.22 -1341 220 223 232
-152.934 -219.186 -1341 216 219 228
-150.103 -218.989 -1340 207 210 220
-147.278 -218.792 -1339 215 216 228
-144.566 -218.76 -1339 214 215 227
-142.067 -219.055 -1341 215 216 228
-139.561 -219.35 -1343 219 220 233
-136.845 -219.32 -1343 221 222 234
-134.229 -219.453 -1344 218 217 230
-131.708 -219.75 -1346 207 208 220
-128.893 -219.558 -1345 202 203 215
-126.083 -219.366 -1344 200 201 213
-123.37 -219.339 -1344 199 200 211
-120.478 -218.986 -1342 198 199 209
-117.508 -218.47 -1339 198 199 209
-114.722 -218.281 -1338 198 199 209
-112.192 -218.582 -1340 198 198 210
-109.41 -218.394 -1339 197 197 208
-106.793 -218.533 -1340 198 198 208
-104.172 -218.673 -1341 198 198 208
-101.397 -218.488 -1340 197 197 206
-98.6998 -218.465 -1340 196 196 204
-95.9322 -218.281 -1339 198 196 206
-93.239 -218.26 -1339 198 196 206
-90.5466 -218.24 -1339 197 196 206
-87.9204 -218.383 -1340 197 196 205
-85.3547 -218.69 -1342 197 196 204
-82.7199 -218.834 -1343 196 196 204
-80.1415 -219.142 -1345 196 196 204
-77.6132 -219.614 -1348 195 194 204
-74.9624 -219.76 -1349 194 193 201
-72.201 -219.58 -1348 195 194 202
-69.5474 -219.728 -1349 198 195 203
-66.8407 -219.713 -1349 198 196 204
-64.0871 -219.535 -1348 200 199 206
-61.429 -219.684 -1349 202 201 208
-58.7675 -219.834 -1350 201 201 207
-56.1025 -219.984 -1351 202 202 206
-53.4734 -220.298 -1353 207 207 210
-50.8366 -220.612 -1355 224 224 228
-48.2279 -221.089 -1358 242 242 246
-45.641 -221.73 -1362 247 246 251
-43.0069 -222.209 -1365 237 235 240
-40.3317 -222.525 -1367 246 245 248
-37.6763 -223.005 -1370 249 249 251
-34.9326 -222.997 -1370 239 239 241
-32.2128 -223.152 -1371 240 240 242
-29.5107 -223.471 -1373 250 250 252
-26.8009 -223.79 -1375 250 250 252
-24.1182 -224.436 -1379 236 236 238
-21.4507 -225.407 -1385 242 242 244
-18.8133 -227.03 -1395 243 243 245
-16.0901 -228.003 -1401 254 254 255
-13.3714 -229.465 -1410 241 241 243
-10.6093 -230.764 -1418 247 247 249
-7.7989 -231.576 -1423 253 253 255
-4.94754 -231.411 -1422 253 253 253
-2.09449 -230.597 -1417 205 205 206
0.726683 -226.04 -1389 88 88 92
-229.528 -228.361 -1373 176 182 199
-230.17 -231.801 -1394 198 203 220
-228.933 -233.412 -1404 204 206 224
-226.531 -233.859 -1407 210 212 231
-223.323 -233.475 -1405 210 212 232
-220.282 -233.259 -1404 211 213 233
-216.319 -232.046 -1397 210 211 231
-212.844 -231.333 -1393 210 211 231
-209.387 -230.621 -1389 206 210 230
-206.246 -230.242 -1387 203 207 227
-202.968 -229.698 -1384 203 209 228
-199.704 -229.155 -1381 208 212 230
-196.596 -228.778 -1379 211 214 232
-193.499 -228.402 -1377 213 215 233
-189.857 -227.364 -1371 214 216 234
-186.241 -226.326 -1365 215 217 233
-182.786 -225.456 -1360 212 216 230
-179.485 -224.752 -1356 207 212 225
-176.202 -224.049 -1352 208 211 222
-173.193 -223.678 -1350 209 212 222
-170.446 -223.639 -1350 211 214 223
-167.328 -223.104 -1347 213 216 225
-164.346 -222.735 -1345 213 216 225
-161.493 -222.533 -1344 206 209 220
-158.764 -222.497 -1344 208 211 220
-155.804 -222.131 -1342 220 223 232
-152.968 -221.93 -1341 216 219 230
-150.361 -222.062 -1342 206 208 219
-147.531 -221.863 -1341 214 215 227
-144.598 -221.499 -1339 215 216 228
-142.099 -221.798 -1341 212 213 225
-139.488 -221.931 -1342 216 217 231
-136.671 -221.735 -1341 221 222 236
-134.059 -221.87 -1342 220 219 233
-131.542 -222.171 -1344 209 209 222
-128.73 -221.976 -1343 202 203 215
-126.017 -221.948 -1343 200 201 213
-123.398 -222.085 -1344 199 200 210
-120.505 -221.727 -1342 197 198 208
-117.622 -221.37 -1340 199 200 210
-114.919 -221.344 -1340 199 199 210
-112.301 -221.484 -1341 199 199 211
-109.517 -221.294 -1340 197 198 209
-106.976 -221.6 -1342 197 198 208
-104.273 -221.576 -1342 199 198 208
-101.495 -221.388 -1341 198 197 206
-98.7217 -221.2 -1340 197 196 204
-96.0252 -221.179 -1340 199 196 206
-93.399 -221.323 -1341 199 196 206
-90.702 -221.302 -1341 196 195 204
-88.0713 -221.447 -1342 195 194 203
-85.4372 -221.593 -1343 195 194 202
-82.7999 -221.739 -1344 194 196 203
-80.2189 -222.05 -1346 196 197 205
-77.5729 -222.198 -1347 197 196 206
-74.9234 -222.346 -1348 197 196 204
-72.217 -222.329 -1348 198 197 205
-69.5113 -222.313 -1348 201 198 206
-66.806 -222.298 -1348 203 201 208
-64.0537 -222.119 -1347 203 202 209
-61.3516 -222.105 -1347 205 204 211
-58.737 -222.421 -1349 206 205 212
-56.1149 -222.738 -1351 207 207 211
-53.5247 -223.22 -1354 208 208 212
-50.8854 -223.538 -1356 207 207 211
-48.2741 -224.022 -1359 225 225 229
-45.6511 -224.506 -1362 239 237 242
-42.9849 -224.826 -1364 244 241 246
-40.2816 -224.981 -1365 249 248 251
-37.6296 -225.467 -1368 246 246 248
-34.8894 -225.459 -1368 244 244 246
-32.173 -225.616 -1369 247 247 249
-29.5173 -226.269 -1373 250 250 252
-26.8263 -226.757 -1376 237 237 239
-24.1411 -227.41 -1380 235 235 237
-21.4709 -228.394 -1386 242 242 244
-18.8175 -229.873 -1395 248 248 250
-16.0936 -230.857 -1401 254 254 255
-13.3743 -232.337 -1410 246 246 248
-10.5967 -233.323 -1416 248 248 250
-7.80056 -234.474 -1423 251 251 253
-4.94876 -234.308 -1422 253 253 253
-2.0964 -233.648 -1418 229 229 230
0.73313 -230.847 -1401 107 107 111
-229.231 -233.66 -1388 198 203 220
-228.496 -235.796 -1401 202 204 222
-226.099 -236.248 -1404 207 209 228
-223.374 -236.365 -1405 208 210 230
-220.019 -235.809 -1402 208 210 230
-216.368 -234.918 -1397 208 210 230
-212.892 -234.196 -1393 209 211 231
-209.585 -233.643 -1390 207 211 231
-206.441 -233.26 -1388 203 207 227
-203.307 -232.877 -1386 201 207 226
-200.039 -232.326 -1383 207 210 228
-196.784 -231.777 -1380 212 214 232
-193.262 -230.893 -1375 214 216 234
-190.039 -230.345 -1372 214 216 234
-186.147 -228.959 -1364 215 217 233
-182.962 -228.413 -1361 212 216 230
-179.658 -227.701 -1357 208 213 226
-176.372 -226.989 -1353 208 211 222
-173.361 -226.613 -1351 207 210 221
-170.358 -226.239 -1349 211 214 223
-167.366 -225.865 -1347 212 215 225
-164.505 -225.659 -1346 213 216 226
-161.53 -225.287 -1344 207 210 221
-158.8 -225.25 -1344 207 210 220
-155.723 -224.712 -1341 219 222 232
-153.116 -224.844 -1342 217 220 231
-150.283 -224.642 -1341 206 208 219
-147.564 -224.608 -1341 213 214 226
-144.847 -224.575 -1341 215 216 228
-142.237 -224.709 -1342 210 211 223
-139.416 -224.51 -1341 213 214 228
-136.702 -224.478 -1341 220 220 234
-133.989 -224.448 -1341 222 221 235
-131.376 -224.585 -1342 212 211 223
-128.759 -224.723 -1343 205 205 217
-126.046 -224.694 -1343 202 201 213
-123.517 -225 -1345 200 199 210
-120.622 -224.638 -1343 199 199 209
-117.736 -224.276 -1341 200 200 210
-114.945 -224.083 -1340 200 200 210
-112.326 -224.224 -1341 200 199 210
-109.623 -224.199 -1341 199 198 208
-107 -224.341 -1342 198 198 208
-104.452 -224.652 -1344 199 198 208
-101.593 -224.294 -1342 198 197 206
-99.0387 -224.606 -1344 197 196 204
-96.1902 -224.249 -1342 198 196 205
-93.5594 -224.395 -1343 198 195 205
-90.8577 -224.374 -1343 196 195 203
-88.1567 -224.354 -1343 196 195 203
-85.4564 -224.334 -1343 197 196 204
-82.8802 -224.649 -1345 197 199 206
-80.2369 -224.798 -1346 197 198 206
-77.5903 -224.947 -1347 201 200 208
-74.9402 -225.097 -1348 203 202 210
-72.2869 -225.247 -1349 205 204 212
-69.4753 -224.897 -1347 207 206 214
-66.821 -225.049 -1348 211 209 217
-64.0206 -224.7 -1346 213 212 219
-61.3654 -224.852 -1347 219 218 225
-58.6631 -224.839 -1347 220 219 225
-56.0859 -225.327 -1350 221 221 225
-53.4972 -225.815 -1353 221 221 225
-50.8969 -226.304 -1356 220 220 224
-48.2849 -226.794 -1359 224 224 228
-45.6613 -227.284 -1362 237 236 240
-42.963 -227.44 -1363 249 246 251
-40.2611 -227.598 -1364 249 248 251
-37.6105 -228.09 -1367 245 245 247
-34.8972 -228.248 -1368 246 246 248
-32.2037 -228.575 -1370 250 250 252
-29.5239 -229.068 -1373 243 243 245
-26.8518 -229.729 -1377 238 238 240
-24.1815 -230.557 -1382 243 243 245
-21.4757 -231.219 -1386 243 243 245
-18.8081 -232.55 -1394 251 251 253
-16.0857 -233.547 -1400 253 253 255
-13.3583 -234.878 -1408 250 250 252
-10.5691 -235.542 -1412 251 251 253
-7.79127 -237.042 -1421 250 250 252
-4.94982 -237.207 -1422 254 254 254
-2.09832 -236.706 -1419 240 240 241
0.739059 -235.538 -1412 133 133 137
3.47248 -229.366 -1375 65 64 70
-227.302 -234.473 -1376 194 199 216
-227.734 -237.828 -1396 200 202 220
-225.991 -238.968 -1403 204 206 224
-223.426 -239.256 -1405 207 209 227
-220.227 -238.864 -1403 208 210 230
-216.573 -237.962 -1398 208 210 230
-213.094 -237.231 -1394 208 210 230
-209.634 -236.502 -1390 207 211 231
-206.489 -236.113 -1388 201 205 225
-203.354 -235.725 -1386 200 204 224
-200.085 -235.168 -1383 206 209 228
-196.686 -234.442 -1379 212 214 232
-193.447 -233.887 -1376 214 216 234
-189.944 -232.993 -1371 215 217 234
-186.326 -231.93 -1365 215 217 233
-183.138 -231.377 -1362 211 215 229
-179.964 -230.826 -1359 207 212 225
-176.673 -230.105 -1355 207 210 221
-173.4 -229.385 -1351 207 210 220
-170.524 -229.176 -1350 210 213 222
-167.404 -228.627 -1347 210 213 224
-164.421 -228.25 -1345 210 213 224
-161.567 -228.042 -1344 206 209 220
-158.837 -228.005 -1344 208 211 222
-155.875 -227.63 -1342 217 220 231
-153.266 -227.764 -1343 217 220 231
-150.429 -227.559 -1342 206 209 220
-147.708 -227.525 -1342 211 212 224
-144.772 -227.152 -1340 215 216 229
-142.269 -227.458 -1342 210 211 223
-139.344 -227.086 -1340 205 206 220
-136.631 -227.055 -1340 213 213 227
-134.02 -227.193 -1341 221 220 234
-131.406 -227.332 -1342 217 216 228
-128.693 -227.302 -1342 209 208 220
-126.169 -227.611 -1344 204 203 215
-123.637 -227.921 -1346 201 200 211
-120.74 -227.554 -1344 199 198 208
-117.763 -227.019 -1341 199 198 208
-115.057 -226.992 -1341 199 198 208
-112.352 -226.966 -1341 199 198 208
-109.73 -227.11 -1342 198 197 207
-107.104 -227.254 -1343 198 197 207
-104.553 -227.568 -1345 196 195 204
-101.844 -227.545 -1345 195 194 203
-99.135 -227.522 -1345 195 194 202
-96.3555 -227.33 -1344 196 193 203
-93.7897 -227.647 -1346 196 194 203
-91.0137 -227.456 -1345 196 195 203
-88.3081 -227.436 -1345 198 197 205
-85.6032 -227.416 -1345 202 201 209
-82.899 -227.396 -1345 204 204 212
-80.1956 -227.378 -1345 204 204 212
-77.5503 -227.529 -1346 208 207 215
-74.9573 -227.849 -1348 212 211 219
-72.3033 -228.002 -1349 214 213 221
-69.5426 -227.816 -1348 217 216 224
-66.7866 -227.632 -1347 221 220 228
-63.9875 -227.279 -1345 225 224 231
-61.3337 -227.433 -1346 222 221 227
-58.6764 -227.589 -1347 234 234 239
-56.0987 -228.082 -1350 245 245 249
-53.5885 -228.914 -1355 249 249 252
-50.9459 -229.24 -1357 249 249 253
-48.2959 -229.567 -1359 240 240 244
-45.6382 -229.894 -1361 246 245 250
-42.9098 -229.884 -1361 253 251 255
-40.1817 -229.874 -1361 251 251 254
-37.5365 -230.372 -1364 245 245 248
-34.8796 -230.871 -1367 250 250 251
-32.1875 -231.201 -1369 250 250 251
-29.5306 -231.869 -1373 239 238 240
-26.8774 -232.707 -1378 246 246 248
-24.2044 -233.546 -1383 247 247 249
-21.4961 -234.216 -1387 246 246 248
-18.7989 -235.224 -1393 252 252 254
-16.0664 -236.065 -1398 253 253 255
-13.3329 -237.244 -1405 252 252 254
-10.5715 -238.423 -1412 252 252 254
-7.7712 -239.265 -1417 247 247 249
-4.94045 -239.601 -1419 254 254 254
-2.09729 -239.432 -1418 246 246 247
0.73871 -238.249 -1411 153 153 157
3.50626 -234.366 -1388 70 69 75
-227.355 -237.309 -1376 184 190 206
-227.461 -240.36 -1394 199 203 219
-225.721 -241.513 -1401 200 203 220
-223.637 -242.322 -1406 206 208 226
-220.592 -242.097 -1405 207 209 229
-216.933 -241.184 -1400 208 210 230
-213.144 -240.1 -1394 209 211 231
-209.683 -239.362 -1390 206 210 230
-206.388 -238.796 -1387 201 205 225
-203.402 -238.576 -1386 201 205 225
-199.987 -237.84 -1382 207 210 229
-196.732 -237.277 -1379 211 213 231
-193.492 -236.715 -1376 213 215 233
-189.85 -235.638 -1370 215 217 234
-186.506 -234.906 -1366 215 217 233
-183.316 -234.347 -1363 211 216 229
-180.139 -233.788 -1360 205 210 223
-176.714 -232.887 -1355 206 209 220
-173.569 -232.331 -1352 206 209 220
-170.564 -231.947 -1350 209 212 221
-167.443 -231.392 -1347 210 213 224
-164.459 -231.009 -1345 207 210 221
-161.604 -230.8 -1344 206 209 220
-158.992 -230.934 -1345 208 211 222
-156.028 -230.554 -1343 216 219 230
-153.301 -230.518 -1343 218 221 232
-150.576 -230.482 -1343 209 211 223
-147.632 -230.104 -1341 207 208 222
-144.806 -229.898 -1340 214 215 229
-142.196 -230.036 -1341 211 212 226
-139.376 -229.832 -1340 202 203 217
-136.561 -229.628 -1339 206 206 220
-134.051 -229.94 -1341 219 218 232
-131.436 -230.08 -1342 220 219 231
-128.819 -230.221 -1343 211 210 222
-126.198 -230.363 -1344 204 203 215
-123.574 -230.506 -1345 202 201 212
-120.768 -230.306 -1344 199 198 208
-117.966 -230.107 -1343 199 198 208
-115.084 -229.737 -1341 199 198 208
-112.462 -229.882 -1342 197 196 206
-109.755 -229.856 -1342 195 194 204
-107.209 -230.173 -1344 194 193 203
-104.733 -230.662 -1347 193 192 200
-102.095 -230.81 -1348 192 191 199
-99.3054 -230.615 -1347 193 192 200
-96.5211 -230.421 -1346 193 192 200
-93.881 -230.57 -1347 192 191 199
-91.0347 -230.206 -1345 193 192 200
-88.2628 -230.014 -1344 199 198 206
-85.5593 -229.994 -1344 208 207 215
-82.9182 -230.146 -1345 211 210 218
