ply
format ascii 1.0
comment Created by Open3D
element vertex 720
property double x
property double y
property double z
property double nx
property double ny
property double nz
property uchar red
property uchar green
property uchar blue
end_header
307.849 125.426 -1636.68 -0.0523594 0.698819 -0.663849 212 52 44
318.296 124.569 -1638.28 -0.0529998 0.694751 -0.675168 220 41 35
324.295 124.796 -1637.31 -0.0607104 0.569354 -0.757893 198 109 89
335.462 121.293 -1639.61 -0.0636118 0.569034 -0.756558 198 111 90
340.838 119.867 -1640.45 -0.0662643 0.559385 -0.765446 198 112 91
-89.4127 -205.855 -1647.79 -0.223062 -0.0124347 -0.468916 124 124 139
-88.222 -193.913 -1647.17 -0.231616 0.0623552 -0.503084 128 128 143
-86.7742 -188.601 -1650.53 -0.233672 0.118187 -0.472869 133 134 149
-89.4489 -176.907 -1643.43 -0.228019 0.0230918 -0.46506 123 123 138
-152.545 372.723 -1644.57 -0.559384 0.150219 0.650834 86 65 57
-185.603 -1152.93 -1630.53 -0.0723297 -0.426237 0.779979 216 161 132
-270.255 -1099.31 -1631.18 0.880594 -0.000245825 -0.44698 162 123 95
-268.747 -1105.34 -1635.55 0.877209 0.000585552 -0.450845 162 123 95
-274.174 -1091.3 -1633.37 0.893005 0.0204538 -0.452596 165 125 97
-282.258 -1072.54 -1631.37 0.7308 0.128885 -0.490283 174 129 97
-213.548 -1108.53 -1628.98 -0.126712 -0.236797 0.0203248 171 128 93
-200.32 -1108.57 -1631.02 -0.12935 -0.339322 0.12914 168 125 92
-192.091 -1110.11 -1633.14 -0.187716 -0.237735 0.0306308 163 121 92
-189.145 -1099.49 -1630.22 -0.654833 -0.261276 -0.434034 146 110 84
-187.161 -1098.05 -1631.24 -0.628995 -0.240999 -0.410928 145 109 84
-181.42 -1098.44 -1634.63 -0.393178 -0.22804 -0.133911 153 114 87
-183.484 -1087.57 -1631.53 -0.509881 -0.210361 -0.486462 137 104 81
-176.055 -1089.56 -1631.18 -0.360194 -0.182155 -0.0457096 145 113 91
-187.936 -1078.36 -1631.2 -0.555354 -0.202447 -0.599076 125 91 68
-179.045 -1081.83 -1631.32 -0.471516 -0.198593 -0.145958 144 110 86
-175.769 -1077.09 -1629.99 -0.370588 -0.222148 0.446241 147 114 91
-190.124 -1070.61 -1631.04 -0.665314 -0.250085 -0.362725 137 100 73
-72.2431 -1193.31 -1635.24 -0.437478 -0.497285 -0.0694429 157 113 94
-86.6063 -1168.49 -1631.53 -0.362164 -0.813413 0.406389 178 120 88
-76.1426 -1180.48 -1633.16 -0.753304 -0.320796 0.491784 194 141 113
-134.899 -1163.72 -1633.24 0.535793 0.0429222 0.815349 216 168 134
-135.52 -1155.82 -1634.74 0.516282 -0.000281909 0.836901 214 166 132
-139.52 -1152.23 -1629.81 0.584478 -0.139053 0.705439 201 151 117
-137.466 -1145.91 -1629.74 0.652955 -0.328468 0.671074 206 156 118
-131.131 -1146.27 -1635.32 0.342358 -0.407794 0.855158 212 163 127
-166.97 -1128.06 -1629.67 0.292159 -0.334875 0.722176 153 110 87
-158.229 -1135.77 -1633.05 0.280778 -0.325123 0.798334 164 120 98
-153.78 -1130.47 -1631.47 0.310069 -0.315475 0.764396 157 113 89
-171.803 -1124.43 -1630.25 0.287963 -0.35811 0.424819 130 101 87
-143.203 -1127.86 -1633.82 0.12585 -0.309808 0.788586 152 119 97
-123.192 -1138.23 -1629.96 0.0628489 -0.379649 0.888636 200 154 115
-140.361 -1125.27 -1633.71 0.0005681 -0.347785 0.720211 152 118 94
-137.877 -1120.53 -1632.28 0.0976433 -0.311948 0.651787 168 130 99
-120.699 -1121.43 -1630.03 0.0422917 -0.301272 0.907488 191 149 110
-122.45 -1119.66 -1630.51 0.047959 -0.323277 0.875641 189 148 110
-107.376 -1167.17 -1634.82 -0.24739 -0.246409 0.789479 194 144 114
-94.5524 -1163.66 -1631.52 -0.460702 -0.613127 0.29914 175 119 88
-97.4712 -1149.2 -1630.19 -0.845986 -0.197047 0.414981 164 108 76
-97.3509 -1144.23 -1629.74 -0.785739 -0.149192 0.379382 169 113 81
-98.3653 -1135.62 -1633.42 -0.731513 -0.0613797 0.417182 173 117 87
-96.0876 -1125.88 -1632.32 -0.847767 -0.0126585 0.386228 170 116 87
-145.254 -557.342 -1631.72 -0.868129 -0.31009 -0.333167 50 49 62
-149.334 -543.71 -1628.91 -0.920868 -0.295982 -0.276588 47 47 60
-168.968 -522.062 -1629.22 0.651936 -0.432302 -0.670034 43 42 54
-153.088 -525.906 -1633.76 -0.858219 -0.363266 -0.33947 41 40 53
-162.603 -517.284 -1628.78 0.227303 -0.467134 -0.684903 33 32 44
-159.106 -512.514 -1632.26 0.0379013 -0.413226 -0.661277 34 33 45
-1.96442 -560.771 -1631.91 -0.910857 0.0757029 0.393388 66 65 79
20.274 -557.417 -1630.79 -0.844064 -0.0266862 0.484045 66 65 77
-2.9811 -537.365 -1632.35 -0.889964 -0.0282331 0.440575 68 67 81
-3.00046 -531.25 -1632.73 -0.88644 -0.00332124 0.451619 68 67 81
-3.30606 -523.632 -1633.64 -0.855518 -0.0155323 0.504566 65 64 78
-5.1367 -509.878 -1633.47 -0.809197 -0.0245027 0.56013 64 64 77
-347.949 -1.66021 -1633.52 -0.711879 -0.470326 -0.521266 102 106 119
-354.232 7.87554 -1630.84 -0.847082 -0.273862 -0.438266 107 111 124
-354.251 21.0315 -1631.68 -0.849218 0.0155996 -0.515164 108 113 126
-358.829 36.0126 -1634.68 -0.75387 -0.483596 -0.440271 119 124 137
-359.605 39.0874 -1635.81 -0.760551 -0.454969 -0.448246 121 126 139
-321.666 -7.84998 -1632.98 -0.668914 -0.166183 -0.67573 148 150 160
-310.339 -1.7278 -1629.97 -0.57091 -0.0758283 -0.79456 245 245 246
-326.427 12.0907 -1635.09 -0.633666 -0.171751 -0.712088 133 136 148
-312.677 14.9563 -1632.13 -0.619402 -0.284959 -0.696502 252 252 252
-300.378 -10.4729 -1633.6 -0.418691 -0.12173 -0.867103 197 197 205
-302.487 1.61818 -1634.07 -0.50271 -0.178115 -0.811222 197 197 206
-303.369 6.19024 -1634.99 -0.526119 -0.237818 -0.787843 186 186 197
-331.273 29.0159 -1635.16 -0.478991 -0.0492211 -0.853993 146 151 161
-313.674 18.8263 -1632.77 -0.632896 -0.248631 -0.697492 255 255 255
-313.543 24.2534 -1634.14 -0.595392 -0.081146 -0.774962 255 255 255
-337.458 37.3857 -1630.52 -0.878521 -0.131898 -0.321761 108 111 125
-314.67 35.825 -1630.82 -0.460388 0.0911522 -0.843771 250 250 251
-309.151 38.799 -1630.53 -0.355515 0.297175 -0.85293 218 218 224
-295.525 43.2415 -1635.28 -0.639788 0.210778 -0.688269 135 137 155
-358.981 56.7626 -1633.45 -0.868703 0.17114 -0.443837 119 124 137
-358.125 58.5783 -1634.11 -0.859193 0.195357 -0.456919 120 125 138
-339.443 68.1891 -1629.68 -0.688647 -0.0680513 -0.591908 141 124 158
56.6119 26.8946 -1632.09 -0.681526 0.471322 0.391268 110 105 114
61.3445 38.3515 -1634.14 -0.735113 0.268487 0.571042 112 107 116
66.6374 49.6525 -1631.14 -0.640292 0.399406 0.050813 103 102 114
98.4903 72.494 -1629.81 -0.25505 0.883681 -0.220951 95 97 108
134.896 73.087 -1634.59 -0.324338 0.795698 -0.231864 80 83 94
141.506 75.352 -1634.09 -0.481238 0.729614 -0.1999 83 86 98
154.131 84.7223 -1632.59 -0.63131 0.648018 -0.192949 88 90 103
158.468 92.5217 -1628.76 -0.802134 0.559012 -0.183721 95 98 110
-36.0251 282.089 -1632.03 -0.0396817 -0.144864 -0.197807 162 165 173
-37.1495 288.604 -1628.48 -0.0794259 -0.291956 -0.120277 163 165 172
-29.9919 273.505 -1634.78 -0.0122942 -0.0337706 -0.231647 161 165 174
-31.2616 286.367 -1630.13 -0.0699512 -0.316678 -0.0685381 165 168 176
-8.6577 284.311 -1629.29 -0.301487 -0.888543 0.283723 158 163 170
-291.626 -792.53 -1622.9 -0.690188 -0.448117 -0.479932 60 61 73
-288.48 -784.027 -1627.34 -0.702939 -0.325969 -0.54009 61 62 73
-311.724 -775.748 -1625.66 -0.819736 0.155813 -0.551338 57 59 68
-311.51 -764.631 -1625.64 -0.824266 -0.0698043 -0.544583 60 60 71
-287.699 -781.315 -1628.91 -0.695785 -0.238494 -0.593274 64 64 74
-308.641 -768.488 -1629.29 -0.807587 0.00137256 -0.570929 59 60 71
-293.832 -758.374 -1624.35 -0.686384 -0.133713 -0.662958 58 59 70
-231.831 -670.421 -1627.27 0.176162 -0.179958 -0.964269 54 54 66
-218.548 -672.501 -1623.08 0.397048 -0.0834766 -0.885935 56 55 67
-218.77 -662.905 -1623.98 0.449031 -0.0863952 -0.866681 56 56 67
-214.898 -657.456 -1622.06 0.571502 -0.131258 -0.806162 57 57 68
-212.16 -645.416 -1621.67 0.600053 -0.056036 -0.794362 53 52 64
-213.942 -643.495 -1623.02 0.570163 -0.0342528 -0.816414 53 53 64
-213.22 -631.71 -1623.02 0.574465 -0.0675527 -0.808128 53 52 64
-213.864 -617.965 -1626.48 0.485142 -0.257503 -0.826067 52 50 63
-103.612 -1068.82 -1626.58 -0.913716 0.0646768 0.330913 182 128 91
-100.627 -1059.87 -1625.06 -0.736617 0.0428702 0.173385 181 129 90
-163.079 -1045.37 -1628.05 0.930675 -0.112823 -0.52465 135 106 88
-163.538 -1042.67 -1628.11 0.956169 -0.0848215 -0.538449 138 108 90
-162.383 -1032.97 -1624.35 0.764932 0.0317361 -0.558938 149 113 90
-162.938 -1025.04 -1624.17 0.724671 0.0861415 -0.588522 149 111 87
-161.927 -1017.1 -1622.99 0.754399 0.109225 -0.615371 149 110 85
-164.175 -1010.35 -1622.87 0.576937 0.123543 -0.608497 144 106 82
-164.788 -1004.37 -1621.98 0.776658 0.109615 -0.647692 143 107 84
-100.534 -1046.81 -1626.03 -0.819489 0.0106249 0.177124 176 122 85
-103.063 -1043.22 -1628.58 -0.897175 0.0288585 0.365321 174 120 85
-99.6897 -1033.72 -1628.24 -0.938476 0.229319 0.287366 169 115 80
-79.4663 -1030.5 -1622.02 -0.208631 0.0683356 -0.516991 179 130 90
-93.8264 -1021.45 -1627.33 -0.867058 0.263422 0.19318 168 115 78
-92.4008 -1007.15 -1628.58 -0.886172 0.234734 0.429779 166 113 76
-86.1526 -1020.89 -1623.84 -0.535833 0.129831 -0.22438 174 122 83
-72.8421 -1023.44 -1621.69 0.0144125 -0.0715311 -0.848351 182 132 89
-76.1408 -1011.75 -1623.24 -0.382619 0.0680408 -0.392149 175 124 84
-88.2736 -1002.81 -1625.66 -0.880159 0.289001 0.375581 166 113 77
-134.297 -595.881 -1623.67 -0.903943 -0.207997 -0.370932 47 47 59
-135.97 -588.519 -1623.54 -0.892777 -0.256221 -0.358672 48 46 60
-139.764 -575.546 -1626.87 -0.866628 -0.39435 -0.310201 49 48 61
-13.5873 -671.34 -1628.24 -0.84375 0.0469038 0.534175 59 60 70
-9.11599 -652.576 -1622.97 -0.900341 0.087713 0.421193 58 59 71
-8.91813 -644.813 -1625.13 -0.895867 0.180035 0.378402 60 61 73
7.88865 -667.036 -1626.58 -0.92048 0.100175 0.343452 58 58 70
8.22805 -658.62 -1627.07 -0.889581 0.112582 0.385183 58 58 70
17.6391 -664.582 -1625.82 -0.704606 0.115725 0.699333 62 61 72
17.7151 -657.481 -1628.59 -0.665022 0.144502 0.729783 62 61 73
22.7944 -659.892 -1623.14 -0.667061 0.172699 0.721642 63 62 72
20.9797 -650.792 -1628.36 -0.617166 0.171172 0.762972 63 62 74
-6.8878 -636.748 -1626.78 -0.874312 0.315356 0.335472 62 63 75
15.7045 -632.994 -1624.08 -0.878253 0.126298 0.40609 63 63 77
-1.96 -622.946 -1621.3 -0.916323 0.138713 0.290562 63 64 78
17.9133 -618.171 -1622.84 -0.901656 0.0627412 0.383751 64 63 78
29.3634 -644.533 -1622.48 -0.656836 0.13361 0.734245 63 62 71
27.4699 -634.384 -1624.18 -0.692774 0.0964122 0.706693 63 62 72
-355.936 5.5868 -1624.42 -0.876602 -0.262628 -0.368225 103 106 120
-358.606 17.201 -1625.75 -0.887666 -0.137278 -0.432181 103 107 120
-358.359 24.9921 -1626.15 -0.877356 -0.0608353 -0.448155 105 109 122
-359.81 36.8334 -1629.14 -0.860701 -0.368118 -0.259568 113 117 130
-338.281 35.6087 -1622.1 -0.691193 -0.240462 -0.525596 118 120 135
-325.469 -8.92047 -1626.62 -0.697204 -0.10034 -0.653161 180 180 188
-317.977 -4.49561 -1623.17 -0.730799 -0.129211 -0.649797 154 155 165
-318.134 -2.74543 -1622.93 -0.736912 -0.103593 -0.650565 153 154 163
-330.716 7.78316 -1627.54 -0.711251 -0.0660313 -0.643802 179 180 188
-317.178 5.74477 -1622.93 -0.734571 -0.115582 -0.639366 202 202 207
-316.357 12.7855 -1626.41 -0.691755 -0.211418 -0.644424 248 248 249
-324.483 29.8593 -1622.39 -0.459825 -0.269426 -0.754328 173 173 184
-331.413 36.3811 -1622.47 -0.437722 -0.393916 -0.762075 132 134 149
-332.623 41.4529 -1625.18 -0.568248 -0.277402 -0.656022 124 127 142
-322.052 34.1032 -1627.11 -0.527331 -0.174278 -0.762823 208 208 214
-309.047 42.3819 -1628.07 -0.286012 0.366977 -0.846638 211 213 218
-361.48 55.4144 -1625.55 -0.955779 0.0890178 -0.331572 116 122 135
-360.922 59.5693 -1626.45 -0.933489 0.117344 -0.405768 117 123 137
-361.559 70.5608 -1623.71 -0.868133 -0.0265804 -0.539538 122 128 142
-341.784 65.0672 -1626.11 -0.796986 0.0131078 -0.484957 129 122 146
-209.17 386.827 -1625.24 0.874766 -0.102623 0.335299 30 28 37
-209.436 396.137 -1627.37 0.851058 0.00732674 0.324325 30 29 37
-222.468 407.016 -1627.97 0.598127 0.545657 -0.13551 37 33 38
11.5162 -339.496 -1622.31 -0.752136 -0.0221477 0.41102 129 134 149
6.43402 -320.171 -1622.09 -0.910578 -0.130334 -0.325843 114 116 132
7.26155 -310.627 -1624.29 -0.863252 -0.126034 0.0958268 115 117 133
10.2748 -296.515 -1623.42 -0.896961 0.0371996 0.208614 118 120 136
9.48635 -290.639 -1624.07 -0.884157 -0.0699163 0.270712 123 125 141
323.806 132.916 -1625.26 -0.0630411 0.854567 -0.517119 191 55 47
325.182 135.243 -1622.52 -0.0627048 0.821896 -0.562001 192 59 49
347.933 132.893 -1623.34 0.0614044 0.819966 -0.537265 164 105 89
356.64 131.98 -1622.77 0.015967 0.802554 -0.559642 157 115 96
364.08 129.145 -1627.13 -0.0282335 0.775524 -0.576847 162 109 91
370.298 133.506 -1622.32 -0.138928 0.788303 -0.588157 149 110 91
384.766 134.842 -1626.15 -0.157679 0.682758 -0.704275 163 120 96
394.546 137.015 -1625.31 -0.0590705 0.630017 -0.761266 171 126 100
403.99 137.643 -1624.31 0.0077463 0.652945 -0.745444 165 121 99
410.119 138.419 -1624.45 -0.102048 0.713329 -0.678773 167 122 100
427.051 138.32 -1626.87 -0.156198 0.785841 -0.600791 167 122 98
433.375 145.256 -1622.07 -0.282776 0.633236 -0.714691 182 134 108
483.785 118.489 -1624.41 0.0122311 0.185776 -0.844495 158 117 96
482.684 120.842 -1624.58 0.0489218 0.0596176 -0.834009 148 110 92
-56.0694 -639.102 -1634.91 -0.318597 -0.0583004 -0.0196905 57 58 69
-56.7363 -644.283 -1632.25 -0.325403 -0.0497417 -0.01356 57 58 69
-57.8736 -626.858 -1632.8 -0.478381 -0.0234148 0.120027 58 59 70
-61.4801 -618.993 -1626.84 -0.573968 -0.0343262 0.0503924 59 59 70
-58.7902 -611.044 -1634.79 -0.657343 -0.00164217 0.296615 61 61 73
-62.7342 -614.788 -1625.56 -0.588357 -0.0502397 0.00514329 59 59 70
-61.7051 -596.722 -1633.79 -0.671118 -0.0885597 0.00581709 60 59 71
-77.8596 -110.784 -1631.22 -0.224497 0.0235372 -0.479113 124 125 142
-82.3345 -119.69 -1635.25 -0.241105 0.0248413 -0.498402 124 124 141
-72.3642 -98.6777 -1626.89 -0.222711 0.0208067 -0.45932 125 126 142
-71.0554 -98.719 -1630.49 -0.233449 0.031009 -0.438881 124 125 142
-63.7487 -86.2176 -1630.79 -0.348003 0.123947 0.0274914 117 117 131
-63.4576 -80.1754 -1624.37 -0.374508 0.10044 0.227295 117 117 130
-127.13 286.565 -1622.48 -0.121383 -0.376431 -0.213287 150 141 138
-119.523 287.474 -1622.53 -0.111463 -0.329073 -0.226653 151 143 140
-157.22 310.625 -1625.65 -0.286502 -0.340234 0.354957 159 134 121
-169.78 313.627 -1630.1 -0.18549 -0.171319 0.373824 158 132 121
-151.489 308.734 -1624.87 -0.273114 -0.53538 0.196661 154 137 127
-136.761 303.82 -1623.97 -0.303046 -0.757759 0.197205 150 137 128
-139.704 298.628 -1623.9 -0.245631 -0.646643 0.0575333 150 138 131
-118.179 298.55 -1624.04 -0.23208 -0.58414 0.0500716 153 141 133
-117.523 293.428 -1623.88 -0.16147 -0.427194 -0.11141 153 142 138
-107.231 286.252 -1622.43 -0.0205919 -0.0831046 -0.412149 154 149 151
-99.7816 287.868 -1622.43 -0.0131977 -0.0926293 -0.416362 158 153 155
-91.3923 285.795 -1622.37 0.0186908 -0.0321823 -0.457999 160 157 159
-74.9049 274.898 -1623.61 0.0275831 0.234992 -0.652314 154 155 163
-71.8248 265.396 -1622.05 -0.0487069 0.36285 -0.771439 150 149 162
-83.1084 290.83 -1623.5 -0.0452142 -0.282531 -0.272629 165 161 161
-78.045 288.062 -1623.85 -0.00853625 -0.176902 -0.348598 163 162 164
-64.6767 286.388 -1626.49 -0.0288766 -0.121859 -0.353027 162 162 166
-73.4682 285.459 -1624.74 -0.0104867 -0.103028 -0.396233 161 161 164
-103.97 299.914 -1622.66 -0.212937 -0.609627 -0.0349422 167 149 139
-112.592 297.105 -1623.55 -0.195547 -0.53705 -0.0527496 159 145 138
-94.8038 296.656 -1622.39 -0.153944 -0.50992 -0.109816 166 154 148
-83.203 292.73 -1623.46 -0.0735637 -0.386079 -0.19701 166 162 161
-73.3073 292.029 -1624.28 -0.0598643 -0.381548 -0.19344 167 166 166
-15.3788 236.126 -1623.12 0.0459936 0.261628 -0.778625 146 145 156
-37.3357 247.612 -1624 -0.00208353 0.0851416 -0.622039 148 147 157
-51.2717 252.954 -1622.86 0.0129307 0.251132 -0.74298 147 146 157
-40.9468 259.059 -1627.31 -0.0808044 -0.150526 -0.39592 151 151 161
-47.7884 253.239 -1623.71 0.00466578 0.161042 -0.670392 148 147 157
-31.1456 244.451 -1623.92 -0.00351149 0.0916066 -0.628155 147 146 156
-25.6095 248.435 -1626.83 0.00639818 0.0977036 -0.604205 148 148 158
-6.27728 240.502 -1626.13 0.0733435 0.264332 -0.791678 146 147 158
-12.2964 240.508 -1625.32 0.0699342 0.275188 -0.782109 146 147 157
-20.8454 248.697 -1627.8 0.030364 0.152868 -0.639345 148 149 159
-28.0214 262.145 -1632.12 -0.0460487 -0.135519 -0.292881 154 157 166
-32.8985 256.912 -1628.78 -0.0533855 -0.133873 -0.377869 151 153 162
-21.1614 257.658 -1632.2 0.0866379 0.351558 -0.627162 152 155 165
-16.3425 263.328 -1635.36 0.178675 0.52441 -0.690959 154 159 170
13.8538 222.071 -1625.35 0.0481594 0.152101 -0.829589 152 140 150
17.8389 210.85 -1624.4 -0.020232 0.0416321 -0.871015 183 112 119
0.739777 234.945 -1625.37 0.063119 0.228691 -0.801742 144 147 158
-0.381214 225.116 -1621.76 0.0589686 0.216184 -0.796778 143 148 160
15.6313 235.3 -1629.38 0.0820344 0.211772 -0.820584 147 147 158
7.53807 228.573 -1624.88 0.0614168 0.193524 -0.813753 145 147 158
29.697 222.416 -1632.92 0.0577075 0.163022 -0.829374 152 140 151
24.0726 217.429 -1628.76 0.0257516 0.0924897 -0.86323 177 114 122
36.6577 213.056 -1635.13 0.0681859 0.107263 -0.885319 192 92 98
25.1403 227.197 -1632.01 0.0535348 0.159799 -0.829657 152 140 151
22.4979 232.452 -1631.98 0.067366 0.18211 -0.826866 150 143 154
0.496876 240.072 -1627.03 0.0972676 0.270998 -0.807443 146 149 160
-4.20515 250.262 -1630.36 0.145799 0.32886 -0.796543 148 152 162
18.1435 243.93 -1633.03 0.156258 0.305673 -0.822328 148 152 164
7.6252 250.533 -1631.86 0.199126 0.365425 -0.833559 149 154 166
-6.72925 252.293 -1630.85 0.152233 0.336586 -0.790836 149 152 163
-3.02044 258.215 -1633.34 0.23833 0.413523 -0.819952 151 156 167
8.99488 252.558 -1632.97 0.226887 0.399622 -0.83272 150 156 167
-54.3133 265.684 -1626.18 -0.0666853 0.132601 -0.581563 151 151 163
-56.9993 265.318 -1625.52 -0.0671556 0.203344 -0.640629 150 150 163
-59.5243 268.858 -1625.82 -0.0518908 0.23651 -0.648144 151 151 164
-42.8957 270.903 -1629.78 -0.0736768 -0.146327 -0.304568 155 157 166
-45.3789 275.943 -1630.4 -0.0519109 -0.091396 -0.318738 157 159 167
-49.7259 285.606 -1630.41 -0.0125318 -0.0244962 -0.329245 160 161 169
-56.2362 278.362 -1628.65 -0.0139333 0.0662889 -0.461426 157 158 166
-50.0957 294.061 -1624.11 -0.124585 -0.459213 -0.094727 166 166 170
48.963 98.4677 -1631.46 -0.239792 0.244477 -0.548968 122 124 137
-258.404 -888.196 -1618.18 -0.77879 0.0672732 -0.140062 165 128 97
-263.845 -885.589 -1621.58 -0.658815 0.0972654 -0.178512 163 127 97
-257.984 -858.325 -1615.37 -0.750898 -0.216397 -0.484489 150 118 92
-258.643 -852.038 -1620.39 -0.628306 -0.141217 -0.694838 152 119 94
-262.721 -844.811 -1616.59 -0.761961 -0.175344 -0.607874 129 101 84
-279.114 -724.201 -1617.03 -0.31019 -0.0694076 -0.938932 55 56 66
-279.359 -714.565 -1617.37 -0.327509 -0.100631 -0.9211 56 57 67
-269.532 -720.128 -1619.74 -0.142192 -0.193195 -0.952138 54 55 65
-259.811 -727.115 -1617.79 0.00578547 -0.266835 -0.957186 55 55 65
-279.427 -712.521 -1617.37 -0.334329 -0.119876 -0.91328 56 57 67
-278.072 -705.7 -1621.42 -0.317846 -0.329808 -0.872066 55 56 66
-242.397 -727.242 -1615.65 0.0631574 -0.215446 -0.972548 56 55 66
-245.402 -715.664 -1618.32 0.117257 -0.205545 -0.960544 55 55 66
-230.378 -722.436 -1615.1 0.228285 -0.147802 -0.938527 55 54 65
-249.492 -712.253 -1619.74 0.16453 -0.214001 -0.950135 54 54 65
-250.036 -705.702 -1621.09 0.223893 -0.183266 -0.946306 54 54 65
-236.707 -712.727 -1617.45 0.0894277 -0.148054 -0.974588 55 54 66
-237.232 -706.514 -1618.4 0.156501 -0.194482 -0.953487 54 54 66
-229.233 -695.9 -1620.15 0.277346 -0.316761 -0.896889 55 53 65
-224.327 -699.467 -1615.67 0.417391 -0.276083 -0.851147 54 53 65
-219.834 -691.563 -1617.59 0.436894 -0.383008 -0.808195 55 53 66
-213.686 -673.552 -1619.24 0.577288 -0.0801872 -0.800485 55 54 67
-63.6667 -911.184 -1615.95 -0.662582 0.116505 -0.156709 182 132 94
-61.9772 -896.695 -1617.78 -0.452477 0.00664153 -0.76284 190 142 102
-51.1933 -995.147 -1615.78 0.0977856 -0.206364 -0.819491 175 127 93
-47.1296 -983.53 -1620.21 0.133192 -0.10786 -0.979807 175 127 92
-46.5556 -971.404 -1619.49 0.063561 -0.0339171 -0.976191 173 128 93
-40.4872 -957.315 -1618.35 0.180999 0.155497 -0.945484 173 127 93
-38.0985 -943.128 -1614.51 -0.258412 0.0348978 -0.816436 168 125 94
-38.2974 -933.119 -1621.19 -0.649741 -0.0550595 -0.687826 162 122 94
-40.7343 -920.508 -1618.58 -0.38542 -0.21749 -0.870559 167 124 94
-61.3306 -911.969 -1617.1 -0.690509 0.138934 -0.0762419 182 132 94
-50.1614 -908.033 -1619.42 -0.228676 -0.16158 -0.847711 188 140 103
-46.7545 -912.431 -1618.53 -0.212317 -0.220561 -0.911667 182 135 100
-54.9119 -906.141 -1619.74 -0.342178 -0.0725978 -0.692768 191 141 103
-57.4199 -895.427 -1619.13 -0.324425 0.0647106 -0.841727 194 146 106
-45.3822 -904.074 -1620.29 -0.152588 -0.154494 -0.948672 186 139 103
-39.8005 -894.417 -1621.55 -0.278126 0.152986 -0.826305 181 138 102
-92.7748 -881.52 -1618.08 -0.27717 -0.167733 -0.926201 213 163 118
2.12825 -538.94 -1618.96 -0.927965 -0.0672473 0.344161 67 66 80
28.5222 -556.788 -1621.53 -0.779854 -0.0412614 0.617863 67 68 75
2.98192 -527.147 -1618.12 -0.938769 0.0557017 0.326882 67 66 80
3.7995 -512.026 -1616.34 -0.935721 -0.0111914 0.333684 66 65 79
2.6557 -497.025 -1617.74 -0.921274 -0.0344462 0.372983 66 65 79
0.262247 -487.015 -1620.9 -0.868476 -0.123071 0.44895 65 64 78
4.43683 -476.888 -1614.68 -0.797992 -0.0447318 0.592557 64 63 77
2.01252 -464.222 -1619.51 -0.896091 0.150099 0.36784 62 61 75
-323.282 -91.6172 -1615.23 -0.635147 0.272747 -0.70779 110 114 129
-314.658 -71.4952 -1621.87 -0.783891 -0.315941 -0.081725 74 77 87
-296.798 -85.4513 -1616.98 -0.399879 -0.0372744 -0.86794 235 235 238
-288.903 -91.117 -1620.72 -0.541912 -0.100858 -0.816117 203 204 212
-293.711 -74.6835 -1614.47 -0.567273 0.40635 -0.71757 245 245 247
-282.38 -74.995 -1621.37 -0.344976 0.349727 -0.855224 151 153 168
-339.366 -48.1417 -1619.23 -0.711719 -0.531872 -0.1654 96 100 112
-344.553 -43.2568 -1617.32 -0.709254 -0.524041 -0.16644 100 104 116
-348.52 -32.8851 -1620.98 -0.740277 -0.296207 -0.565894 121 125 137
-345.777 -20.2127 -1621.14 -0.816679 0.076711 -0.464242 111 114 128
-330.582 -59.7757 -1619.47 -0.678696 -0.699842 0.0580344 81 84 96
-331.475 -57.9445 -1614.74 -0.657726 -0.72301 0.145849 73 76 87
-314.685 -63.022 -1617.67 -0.721985 -0.496375 -0.0879394 83 86 97
-319.437 -46.9954 -1614.52 -0.708411 -0.477836 -0.224399 91 94 105
-321.287 -40.6725 -1615.36 -0.688 -0.423749 -0.391159 111 114 126
-290.208 -57.8122 -1616.82 -0.648761 -0.358813 -0.646389 161 162 171
-297.271 -45.8832 -1616.24 -0.763345 -0.290284 -0.562554 230 230 232
-294.918 -42.0601 -1621.69 -0.732431 -0.325546 -0.580996 184 185 192
-320.849 -36.9757 -1617.76 -0.695281 -0.364109 -0.514401 126 129 140
-327.016 -20.2823 -1617.98 -0.669955 -0.434273 -0.595406 157 158 167
-312.325 -21.5798 -1618.98 -0.732243 -0.402942 -0.53438 183 184 191
-316.664 -12.3438 -1620.41 -0.742233 -0.352815 -0.553872 157 158 168
-307.292 -30.2808 -1617.06 -0.653857 -0.493476 -0.56914 195 195 201
-193.619 -1045.08 -1610.88 -0.820616 0.226514 -0.336734 141 99 70
-181.839 -1055.08 -1608.49 -0.879981 0.122581 -0.346518 135 95 67
-179.64 -1050.63 -1610.51 -0.868483 0.158895 -0.391254 133 94 66
-193.229 -1040.71 -1613.27 -0.912628 0.202123 -0.32281 135 95 67
-174.773 -1006.03 -1613.32 -0.68324 0.185443 -0.480584 144 103 74
-321.736 -778.349 -1610.23 -0.883945 0.0871467 -0.450747 58 60 69
-319.411 -767.409 -1612.51 -0.838866 -0.0782878 -0.532641 60 61 73
-322.195 -754.839 -1614.01 -0.842365 -0.145735 -0.508295 60 61 72
-298.757 -771.987 -1614.42 -0.793485 -0.0451746 -0.590524 60 60 71
-302.951 -766.988 -1611.6 -0.799144 -0.0324996 -0.587983 60 60 71
-323.602 -751.51 -1612.56 -0.86753 -0.0879607 -0.475265 60 61 72
-325.035 -739.252 -1609.04 -0.909702 -0.00673975 -0.411278 60 61 74
-323.203 -734.31 -1614.16 -0.930396 -0.0826142 -0.346937 60 61 72
-306.224 -746.293 -1613.21 -0.643453 -0.165949 -0.679236 58 59 69
-308.604 -739.447 -1611.37 -0.757375 -0.131754 -0.560686 59 60 69
-289.45 -740.266 -1608.53 -0.381285 -0.327512 -0.86242 54 55 65
-290.193 -731.82 -1610.93 -0.439492 -0.205966 -0.861408 56 57 67
-325.778 -721.886 -1613.4 -0.926595 -0.135903 -0.342178 58 59 71
-311.355 -724.582 -1608.57 -0.869093 -0.120342 -0.427317 59 61 71
-328.537 -706.939 -1610.82 -0.913379 -0.103793 -0.375306 57 59 72
-312.742 -711.831 -1611.2 -0.771369 -0.113321 -0.575677 59 61 72
-309.98 -721.423 -1612.81 -0.76414 -0.110714 -0.544369 58 60 71
-301.464 -714.879 -1608.33 -0.510084 -0.083733 -0.845755 60 62 71
-72.2109 -891.727 -1608.96 -0.292757 -0.0488113 -0.675233 200 152 110
-64.6279 -865.493 -1608.45 -0.358349 0.00666149 -0.503682 202 156 114
-110.175 -854.446 -1608.19 -0.538019 0.0268031 -0.824355 217 172 132
-99.3762 -851.864 -1612.33 -0.362663 0.18937 -0.899206 219 174 133
-103.285 -845.697 -1609.59 -0.352253 0.210607 -0.90939 218 175 134
-101.501 -841.576 -1609 -0.3592 0.2603 -0.894503 218 176 134
-62.8731 -859.235 -1614.31 -0.434397 0.0644362 -0.34627 206 161 118
-65.9735 -856.912 -1614.4 -0.318644 0.26364 -0.613268 210 165 122
-82.0774 -848.204 -1614.68 -0.0962457 0.145145 -0.980472 220 174 131
-77.612 -840.462 -1612.24 -0.0402518 0.252025 -0.973434 213 167 124
-66.0521 -846.069 -1611.2 -0.25203 0.227133 -0.738419 207 160 116
-63.0312 -841.774 -1611.02 -0.262397 0.160623 -0.756071 199 152 110
-90.619 -818.532 -1608.78 -0.290422 -0.0965522 -0.916767 104 89 86
-88.968 -832.101 -1610.29 -0.261644 0.305975 -0.91341 204 160 123
-86.4351 -826.777 -1609.14 -0.198759 0.228039 -0.949256 169 134 108
-73.1804 -835.151 -1610.51 -0.0138383 0.24339 -0.978845 195 150 112
-74.5874 -828.179 -1610.11 -0.0226046 0.168244 -0.975873 155 122 97
-85.9617 -822.561 -1608.93 -0.195236 0.107435 -0.956654 138 112 97
-89.1129 -809.853 -1614.2 -0.322123 -0.442242 -0.831888 69 67 76
-71.9596 -818.274 -1610.83 -0.117023 -0.181334 -0.844769 84 76 77
-72.8265 -813.552 -1613.81 -0.170962 -0.437065 -0.836542 69 67 74
-64.6897 -810.91 -1612.3 -0.203205 -0.314053 -0.552827 66 65 73
-95.603 -808.871 -1612.1 -0.476821 -0.35873 -0.786502 67 64 73
-103.749 -789.247 -1611.81 -0.791548 -0.0838094 -0.579036 56 54 63
5.40049 -450.783 -1611.27 -0.931372 -0.090578 0.287819 59 58 72
3.51879 -436.517 -1611.31 -0.970997 -0.0602367 0.182837 59 58 72
4.37411 -422.204 -1612.49 -0.985084 0.115486 0.117238 60 59 73
6.06218 -408.819 -1614.81 -0.970466 0.0987163 0.196121 60 59 73
8.62286 -399.462 -1610.97 -0.929888 0.167097 0.291362 57 56 70
9.5511 -384.499 -1611.45 -0.946958 0.0491329 0.28962 83 84 98
12.1554 -370.518 -1614.37 -0.920252 0.313895 0.230242 124 129 144
15.7385 -356.634 -1610.71 -0.93676 -0.00240929 0.180092 125 131 146
-316.717 -92.701 -1615.53 -0.639405 0.28612 -0.682449 99 103 116
-305.799 -86.063 -1612.35 -0.477776 0.116412 -0.771954 157 159 171
-297.564 -74.8838 -1610.88 -0.577806 0.399009 -0.68991 244 244 246
-289.482 -66.8552 -1613.72 -0.550989 0.301153 -0.73576 198 198 205
-344.621 -43.5899 -1611.12 -0.682186 -0.553974 0.0849639 92 95 107
-353.052 -31.2271 -1614.96 -0.794733 -0.194764 -0.499312 125 129 142
-354.576 -24.8455 -1612.11 -0.827832 0.00471449 -0.474404 120 123 137
-358.376 -13.2938 -1608.06 -0.803207 -0.151372 -0.563414 113 115 131
-326.191 -56.7438 -1609.12 -0.696191 -0.59502 0.0915062 63 65 76
-322.008 -53.5462 -1608.46 -0.744959 -0.448239 -0.152318 71 73 85
-321.334 -46.3887 -1611.98 -0.702451 -0.437874 -0.267269 94 97 109
-295.935 -60.8515 -1609.65 -0.587935 -0.207003 -0.750139 228 229 231
-292.507 -62.0201 -1612.09 -0.587495 -0.146732 -0.730608 201 202 207
-301.569 -46.1567 -1609.18 -0.745336 -0.13735 -0.626724 255 255 255
-324.615 -36.1972 -1613.12 -0.676689 -0.437991 -0.428185 127 129 140
-322.561 -38.539 -1614.74 -0.680271 -0.420708 -0.428851 118 120 132
-331.66 -23.2748 -1609.66 -0.663905 -0.461325 -0.550362 147 148 158
-324.775 -11.1204 -1610.27 -0.778843 -0.2875 -0.542632 123 123 137
-321.085 -16.1946 -1610.32 -0.732373 -0.369631 -0.541093 128 129 142
-308.254 -35.0948 -1609.38 -0.636916 -0.366906 -0.634883 165 165 174
234.512 136.338 -1611.41 0.216152 0.844423 -0.449428 149 107 90
216.81 143.469 -1611.46 0.208731 0.805991 -0.543556 155 115 97
245.7 138.295 -1610.08 -0.107622 0.768183 -0.600165 213 40 35
261.103 139.226 -1612.2 -0.103537 0.742647 -0.660233 197 81 68
256.471 140.384 -1610.64 -0.140307 0.701734 -0.69446 211 66 55
355.977 146.032 -1611.27 -0.143868 0.411738 -0.878908 193 142 113
355.039 147.52 -1610.63 -0.140047 0.373053 -0.897368 199 147 118
367.634 146.35 -1614.51 -0.255085 0.336533 -0.911518 194 150 118
359.181 154.22 -1608.55 -0.10885 0.277682 -0.946969 216 174 143
378.809 154.904 -1612.53 -0.14518 0.462402 -0.87625 217 174 145
307.686 251.127 -1611.19 -0.158821 -0.386636 -0.858146 231 199 187
313.42 245.514 -1608.48 -0.156883 -0.332898 -0.866757 232 198 185
326.758 222.187 -1608.9 0.00476278 -0.367346 -0.91956 255 226 200
335.072 223.569 -1608.13 0.20987 -0.422953 -0.875504 250 219 197
330.333 234.821 -1612.17 0.0153047 -0.38552 -0.896969 230 206 191
337.641 231.582 -1610.05 0.218795 -0.403398 -0.87978 214 192 181
355.332 232.902 -1608.28 0.0261325 -0.393239 -0.859155 196 177 171
365.352 229.205 -1609.54 -0.242658 -0.480813 -0.818359 192 176 172
370.307 233.481 -1612.89 -0.325188 -0.556553 -0.773264 174 162 163
329.432 237.064 -1612.57 -0.0145722 -0.383161 -0.894727 228 204 191
328.115 245.709 -1613.32 -0.0529462 -0.39568 -0.875039 226 202 190
342.951 243.799 -1612.47 0.106282 -0.394932 -0.883724 213 188 177
346.636 246.279 -1612.86 0.0584398 -0.392681 -0.884642 219 193 180
385.689 212.445 -1613.6 -0.118683 -0.511205 -0.822288 255 220 195
397.605 214.34 -1614.16 -0.0279135 -0.538398 -0.831247 236 206 183
400.771 216.949 -1614.64 -0.0367579 -0.554976 -0.824695 228 200 178
415.992 212.111 -1610.33 -0.137292 -0.272845 -0.881255 240 208 186
417.606 222.524 -1609.72 -0.164546 -0.575194 -0.777749 222 195 176
429.209 214.793 -1608.78 -0.118987 -0.422816 -0.845863 225 196 177
434.516 211.918 -1608.38 -0.0165154 -0.155473 -0.856645 220 191 174
539.874 153.911 -1609.33 0.664712 0.295602 -0.624825 168 120 91
544.013 128.434 -1611.96 0.507459 -0.176291 -0.532876 118 87 75
-11.5295 -1208.91 -1611.15 -0.322475 -0.707107 0.186414 122 93 80
-365.118 90.5862 -1621.65 -0.792259 -0.0963779 -0.531345 119 124 138
-364.746 92.4434 -1610.46 -0.186806 -0.267235 -0.495418 146 130 137
295.665 251.883 -1615.38 -0.214322 -0.498871 -0.786905 212 200 197
306.128 253.24 -1612.67 -0.168945 -0.416604 -0.845286 228 201 191
318.664 252.336 -1612.91 -0.137049 -0.411421 -0.854224 230 206 193
356.715 241.113 -1611.66 -0.0255521 -0.446739 -0.851616 201 181 173
366.545 241.283 -1613.98 -0.234645 -0.510325 -0.800531 187 170 168
411.02 236.283 -1613.77 -0.171149 -0.593308 -0.771745 220 194 176
411.377 229.401 -1613.21 -0.148344 -0.584722 -0.780303 222 195 176
417.752 230.245 -1609.99 -0.161465 -0.588622 -0.775341 220 193 175
384.415 238.203 -1618.81 -0.18821 -0.554796 -0.782718 212 188 174
510.996 120.785 -1620.65 0.16699 -0.128307 -0.753122 115 85 75
514.921 121.842 -1620.9 0.154853 -0.232893 -0.730058 108 81 73
533.903 112.334 -1618.64 0.24967 0.0164837 -0.722861 126 92 78
525.535 116.25 -1620.52 0.206846 -0.183735 -0.718018 111 82 72
526.465 122.621 -1620.05 0.203176 -0.408084 -0.66623 95 72 66
534.67 119.15 -1617.5 0.340902 -0.314712 -0.612582 110 83 74
544.308 124.354 -1612.21 0.447842 -0.111883 -0.576892 124 91 78
545.652 116.97 -1614.05 0.329293 0.0592875 -0.643478 135 99 83
560.909 119.041 -1609.78 0.210637 0.366644 -0.655594 159 116 94
574.09 119.584 -1613.11 0.0275934 0.662131 -0.5318 166 122 99
576.754 118.249 -1615.7 0.0455366 0.678192 -0.52888 166 123 100
574.327 124.059 -1609.54 -0.0445719 0.625252 -0.523904 164 120 98
-315.068 -796.338 -1601.91 -0.660632 -0.663966 -0.15686 64 62 71
-319.605 -795.878 -1603.99 -0.748225 -0.51712 -0.243053 63 61 71
-308.451 -791.451 -1603.78 -0.710066 -0.444802 -0.340434 64 63 73
-305.326 -787.899 -1606.61 -0.702034 -0.364885 -0.496874 62 62 73
-274.65 -884.651 -1603.34 -0.93972 -0.00874278 -0.285981 178 134 99
-258.462 -889.616 -1605.12 -0.781596 0.0147424 -0.36818 183 138 101
-270.03 -874.306 -1603.18 -0.797595 0.335173 -0.448239 182 137 99
-261.378 -877.927 -1601.78 -0.681256 0.122147 -0.494442 189 141 102
-227.477 -887.995 -1603.17 -0.116619 -0.125376 -0.961134 210 165 119
-235.06 -877.478 -1601.66 -0.234021 0.190302 -0.941168 213 169 122
-262.165 -854.243 -1606.81 -0.802327 -0.214858 -0.466087 165 124 91
-264.984 -844.471 -1603.7 -0.685954 -0.125912 -0.57881 153 117 91
-226.018 -887.778 -1603.03 -0.0806895 -0.108934 -0.96502 211 165 120
-225.644 -880.337 -1603.05 -0.0804518 0.116681 -0.952267 212 167 123
-208.96 -884.469 -1601.17 0.190652 -0.118926 -0.978455 213 168 128
-215.511 -874.898 -1601.73 0.0539434 0.170656 -0.956103 216 171 131
-68.7615 -1190.92 -1607.35 -0.264224 -0.73164 0.354354 122 92 83
-166.981 -1128.88 -1606.59 -0.384682 -0.403561 0.695706 164 119 99
-153.67 -1129.11 -1606.14 0.376101 -0.503804 0.600724 113 76 58
-170.097 -1124.31 -1606.82 -0.402872 -0.331049 0.55713 160 116 95
-171.35 -1119.4 -1602.41 -0.598504 -0.310259 0.551932 152 110 91
-157.535 -1123.85 -1601.55 0.149096 -0.542878 0.144934 128 93 75
-156.006 -1115.63 -1605.87 0.589683 -0.322731 -0.0165367 143 105 81
-75.4782 -1163.18 -1602.72 -0.595309 -0.750879 0.135886 161 118 91
-69.1742 -1166.85 -1604.33 -0.595796 -0.759662 0.150002 201 151 115
-86.1843 -1145.45 -1605.23 -0.948711 -0.270872 0.0780511 180 127 93
-78.2497 -885.551 -1602.85 -0.883039 0.23896 -0.0905361 185 138 100
-71.8617 -889.389 -1607.24 -0.537557 0.0596174 -0.464441 194 146 106
-71.4252 -884.42 -1606.46 -0.737864 0.146386 -0.294167 190 142 103
-71.5869 -874.257 -1604.2 -0.866091 0.219717 -0.118817 188 140 101
-72.6491 -867.345 -1603.26 -0.824511 0.220286 -0.152032 190 142 103
-116.647 -860.996 -1602.33 -0.656934 -0.0313169 -0.734769 215 170 128
-115.775 -856.148 -1603.81 -0.663036 -0.0369814 -0.729468 216 170 130
-115.739 -845.162 -1600.38 -0.643209 0.267625 -0.671729 215 171 132
-106.318 -843.145 -1607.19 -0.397763 0.256176 -0.868733 217 175 134
-66.8402 -861.841 -1607.79 -0.474713 0.0147931 -0.41915 197 151 109
-65.4996 -850.81 -1602 -0.945283 -0.0984975 -0.00942065 182 134 93
-104.544 -824.836 -1601.25 -0.616317 0.263554 -0.759867 208 165 135
-98.0599 -826.836 -1605.65 -0.454371 0.259045 -0.836525 196 155 124
-95.7731 -822.711 -1606.23 -0.417801 0.0985954 -0.864613 153 123 106
-100.365 -816.129 -1604.17 -0.591919 -0.106329 -0.772295 73 67 72
-65.0971 -816.89 -1603 -0.243464 0.0844556 -0.543616 98 86 82
-106.911 -798.867 -1602.6 -0.800756 -0.143907 -0.568813 58 57 65
-107.927 -794.386 -1601.64 -0.81919 -0.110077 -0.555258 56 55 64
-62.351 -800.038 -1600.96 -0.650732 0.437405 -0.159674 96 83 82
-241.525 420.6 -1605.52 0.475248 0.0583977 -0.104941 38 32 38
-240.103 426.296 -1605.73 0.615039 -0.278458 0.234685 42 35 41
-213.378 386.262 -1606.22 0.84949 0.49209 0.139328 63 47 45
-220.306 401.43 -1602.82 0.834403 0.478351 -0.00982796 57 45 44
-221.37 403.306 -1601.2 0.828904 0.479909 -0.00796535 60 47 46
-234.421 437.336 -1606.56 0.87237 -0.229816 -0.0722063 69 51 54
-232.703 443.829 -1606.75 0.853512 -0.119867 0.0312402 73 53 55
-237.344 459.504 -1601.82 0.803528 -0.087147 0.256979 49 38 45
-239.239 476.165 -1602.82 0.780869 -0.275077 0.134958 51 40 49
63.919 290.888 -1601.06 -0.490793 -0.557719 -0.644365 206 213 224
95.1666 277.75 -1602.64 -0.420525 -0.699861 -0.547425 204 212 222
88.1038 285.345 -1605.57 -0.401981 -0.638971 -0.58892 200 204 216
87.8225 287.622 -1606.61 -0.386334 -0.610293 -0.609985 198 199 212
237.835 234.918 -1601.66 -0.201924 -0.274269 -0.901755 239 214 195
262.082 213.378 -1601.16 -0.21272 -0.13747 -0.962485 255 185 161
241.662 229.763 -1602.11 -0.1485 -0.327762 -0.893993 246 217 195
242.935 231.852 -1602.08 -0.146301 -0.29784 -0.908532 244 215 194
258.4 224.481 -1601.79 -0.194275 -0.105207 -0.965924 253 225 198
258.009 233.098 -1603.03 -0.240009 -0.183305 -0.926294 242 215 195
242.165 241.634 -1602.74 -0.146511 -0.228973 -0.943819 224 206 196
250.851 238.747 -1603.26 -0.176098 -0.231302 -0.933859 228 207 195
249.911 244.219 -1604.82 -0.19999 -0.258203 -0.920115 208 200 198
257.535 243.986 -1607.57 -0.3826 -0.344626 -0.833582 201 199 200
-214.037 -1050.17 -1599.07 -0.599729 -0.0373796 -0.522383 186 138 93
-221.633 -1040.86 -1596.55 -0.530027 -0.165699 -0.657733 179 132 91
-224.167 -1035.79 -1596.68 -0.55389 -0.297562 -0.634488 177 131 90
-214.901 -1036.59 -1599.32 -0.476768 -0.0830529 -0.740988 187 139 94
-188.402 -1051.46 -1600.87 0.0996539 -0.0221321 -0.523077 179 130 90
-183.977 -1047.5 -1594.96 0.59294 0.0236992 -0.752651 189 136 95
-187.983 -1032.33 -1598.6 0.427633 0.0371205 -0.890236 192 140 98
-182.774 -1036.8 -1594.34 0.605193 0.0120612 -0.769672 190 138 98
-214.307 -1029.38 -1599.29 -0.270035 -0.0338098 -0.900941 190 142 96
-218.281 -1022.89 -1598.26 -0.173893 0.000191528 -0.938374 190 142 97
-212.377 -1020.21 -1598.69 -0.0874043 0.0227459 -0.982047 193 144 98
-225.928 -1013.34 -1596.31 -0.321672 0.139689 -0.86259 185 139 92
-227.011 -1007.5 -1595.64 -0.189255 0.170351 -0.8902 186 139 91
-210.767 -1013.86 -1599.24 -0.138743 0.0303396 -0.974832 189 140 95
-202.025 -1012.91 -1600.61 -0.126318 -0.0132643 -0.949454 189 139 96
-190.317 -1027.28 -1599.09 0.292925 0.0842865 -0.894757 193 142 100
-190.442 -1019.01 -1598.34 0.240866 0.0999368 -0.936945 196 145 101
-185.122 -1021.4 -1596.15 0.411538 0.0911942 -0.88151 194 143 101
-186.668 -1015.82 -1596.53 0.347127 0.0848278 -0.917743 195 143 100
-189.019 -1008.01 -1596.64 0.338082 0.025728 -0.88897 192 141 98
-233.965 -998.175 -1594.5 -0.314465 -0.0709284 -0.78428 183 135 89
-238.494 -991.739 -1595.71 -0.524946 -0.247517 -0.539335 173 125 86
-247.515 -982.03 -1598.48 -0.843112 -0.155037 -0.396479 162 115 82
-249.536 -977.068 -1599.62 -0.882625 -0.153571 -0.429322 160 113 81
-238.934 -986.54 -1597.97 -0.508252 -0.208996 -0.570115 172 125 86
-239.64 -977.749 -1600.65 -0.408055 -0.104664 -0.736812 174 127 88
-255.951 -969.436 -1595.5 -0.825001 -0.115037 -0.488484 174 124 86
-252.444 -972.575 -1598.8 -0.859993 -0.137025 -0.466747 166 118 83
-252.018 -963.774 -1599.43 -0.677985 0.026749 -0.530549 175 128 89
-231.885 -973.234 -1599.26 0.0059709 -0.0936703 -0.988983 187 138 93
-234.464 -961.287 -1598.22 0.0226204 0.125394 -1.00888 192 143 97
-178.588 -588.344 -1599.18 0.687601 -0.303693 -0.65944 43 42 55
-343.926 -559.812 -1599.78 -0.861693 0.0655892 -0.449364 61 62 76
-346.33 -548.003 -1597.2 -0.920544 0.0463811 -0.355031 60 61 75
-348.061 -532.407 -1600.03 -0.932363 -0.246936 -0.223887 62 63 77
-350.393 -521.767 -1595.48 -0.968222 0.00155797 -0.0823976 60 61 75
-348.772 -509.43 -1598.13 -0.967385 0.149027 -0.00938538 62 63 77
-347.272 -494.308 -1600.49 -0.966018 0.044711 -0.090177 62 62 77
-349.52 -480.807 -1598.92 -0.971447 -0.127605 -0.139409 61 61 76
-350.467 -478.761 -1597.04 -0.980078 -0.118666 -0.112405 60 61 76
-352.594 -454.129 -1598.45 -0.965257 -0.112151 -0.15198 60 61 76
-60.3548 -864.966 -1596.29 -0.937068 0.0891608 -0.0860176 188 141 102
-61.5641 -848.707 -1597.8 -0.990411 -0.016856 0.10643 178 131 93
-55.1056 -836.436 -1594.6 -0.908341 0.326456 0.292463 145 110 86
-52.4882 -825.665 -1596.44 -0.878421 0.414576 0.342027 117 95 84
-44.9331 -816.769 -1600.04 -0.633998 0.70613 0.199047 79 73 82
-31.8536 -807.744 -1597.08 -0.613573 0.60403 -0.11294 81 74 79
-23.708 -801.413 -1600.04 -0.722941 0.69418 0.134262 80 73 80
-13.35 -793.76 -1596.14 -0.695567 0.672069 0.230511 78 72 80
-3.73286 -721.725 -1598.39 -0.933377 0.0245377 0.280795 64 61 75
-3.81777 -708.065 -1597.84 -0.950344 -0.00630847 0.238347 65 62 76
23.9983 -722.959 -1600.67 -0.682578 0.312293 0.572553 65 62 71
25.6683 -719.004 -1599.58 -0.637473 0.366029 0.610861 65 63 71
28.8354 -713.914 -1599.52 -0.599178 0.41035 0.647853 66 64 72
1.67678 -690.908 -1594.04 -0.909405 0.214896 0.352158 66 63 77
-0.540271 -673.228 -1600.05 -0.823455 -0.0439516 0.562895 66 65 77
34.7934 -674.019 -1599.99 -0.775483 0.0197309 0.513027 70 69 78
-133.969 -664.842 -1597.04 -0.934085 -0.0740135 -0.349072 42 43 54
-133.507 -656.231 -1599.39 -0.931944 -0.0537497 -0.353813 44 45 56
-134.666 -642.444 -1597.05 -0.93156 -0.0496176 -0.354989 43 44 55
-137.214 -628.526 -1594.61 -0.917611 -0.161837 -0.359548 40 41 53
-365.285 -277.191 -1595.66 -0.947121 -0.233411 0.0655098 121 126 142
-366.187 -264.462 -1593.38 -0.921182 9.35657e-05 -0.283206 129 134 151
-364.964 -263.576 -1598.35 -0.905437 0.0432144 -0.384816 130 135 152
-358.594 -248.242 -1598.13 -0.910937 0.312359 -0.172302 122 128 145
-353.81 -234.209 -1598.59 -0.889651 0.011403 0.0405974 122 127 144
-352.509 -231.779 -1595.87 -0.848479 -0.0164222 0.0845226 123 128 145
-363.625 -213.573 -1597.85 -0.902395 0.0716274 -0.311111 123 128 145
-359.834 -201.634 -1598.68 -0.943004 0.15295 -0.129779 129 134 151
14.9577 -244.997 -1600.69 -0.913636 -0.132412 0.107772 129 131 147
16.6405 -233.792 -1598.38 -0.866446 0.00496764 0.313773 128 131 147
14.8668 -222.449 -1594.75 -0.85955 -0.31966 0.193757 131 133 149
12.7721 -208.749 -1594.56 -0.96344 -0.0548409 0.0635937 130 132 148
14.009 -190.918 -1598.91 -0.921458 -0.039439 0.130446 118 120 136
15.7775 -178.468 -1594.86 -0.888344 -0.0567415 0.388566 117 120 136
12.1471 -166.181 -1599.53 -0.89889 -0.0665104 0.358229 132 134 150
12.8762 -152.467 -1597.74 -0.920927 0.0206123 0.338805 129 131 146
14.125 -145.388 -1595.05 -0.930627 -0.0279384 0.284297 124 126 141
13.3311 -131.978 -1594.96 -0.832071 -0.00349252 0.428341 100 103 115
142.921 263.462 -1595.25 -0.23383 -0.655417 -0.615047 191 196 207
75.0626 278.581 -1596.22 -0.482707 -0.6913 -0.526533 206 214 224
64.9023 288.978 -1598.89 -0.492125 -0.556788 -0.64492 206 213 224
78.9039 276.101 -1596.52 -0.446231 -0.728109 -0.506219 205 213 223
90.5346 270.626 -1596.89 -0.419736 -0.749116 -0.501312 205 213 222
97.1767 273.42 -1598.19 -0.436531 -0.693599 -0.551204 205 213 223
212.811 240.851 -1595.79 -0.490958 -0.377467 -0.774247 201 207 214
231.246 213.559 -1595.37 -0.311198 -0.241306 -0.877644 252 221 196
233.738 222.281 -1600.49 -0.180365 -0.45625 -0.842753 251 223 199
221.536 228.222 -1594.44 -0.241736 -0.267393 -0.891776 238 214 196
231.934 226.001 -1599.93 -0.217052 -0.339074 -0.873066 243 217 197
230.796 233.739 -1600.66 -0.241052 -0.268843 -0.891576 239 214 196
253.497 214.863 -1599.68 -0.114074 -0.2516 -0.937626 255 212 184
256.922 214.87 -1600.3 -0.179337 -0.162434 -0.956115 255 209 182
213.445 240.035 -1595.95 -0.49385 -0.370615 -0.77576 203 208 214
225.625 239.532 -1599.72 -0.248881 -0.272755 -0.889228 237 213 197
225.107 245.347 -1600.29 -0.225072 -0.261795 -0.902237 237 212 196
32.365 -592.24 -1607.53 -0.803436 0.0255827 0.471566 68 67 78
74.1387 64.9998 -1604.56 -0.576488 0.597432 -0.144889 111 111 125
74.3291 64.9699 -1598.43 -0.702504 0.520163 -0.128364 120 120 136
43.5088 103.219 -1596.94 -0.566935 0.0835484 -0.321125 116 76 115
43.6664 107.132 -1602.82 -0.376186 0.0825072 -0.521668 125 97 129
39.0316 123.414 -1599.11 -0.525518 0.171288 -0.378574 124 80 122
40.804 119.451 -1601.88 -0.391784 0.141646 -0.515151 128 95 131
39.8764 122.247 -1604.53 -0.289431 0.124499 -0.620195 133 108 138
25.8777 132.37 -1601.44 -0.780037 0.214252 -0.112272 116 50 108
25.2393 133.33 -1607.14 -0.605694 0.182551 -0.287865 123 71 120
37.2688 126.89 -1602.54 -0.402272 0.149047 -0.504457 129 95 131
-225.71 -1049.07 -1591.37 -0.543892 -0.207336 -0.69531 176 130 91
-177.775 -1054.54 -1587.86 0.790224 0.108457 -0.665317 183 131 94
-179.027 -1037.05 -1589.59 0.744707 -0.000932518 -0.658955 190 136 99
-179.881 -1025.28 -1592.02 0.632916 0.00621595 -0.740794 191 138 100
-176.163 -1021.06 -1587.39 0.705647 0.0043486 -0.666728 186 133 97
-185.157 -1003.92 -1592.99 0.583003 0.0631209 -0.7765 190 138 97
-255.265 -979.226 -1592.5 -0.857793 -0.216494 -0.473574 168 119 82
-246.642 -991.94 -1593.39 -0.864506 -0.384145 -0.203064 161 113 81
-251.487 -845.079 -1588.68 -0.29757 0.298103 -0.908332 208 161 117
-249.692 -839.517 -1588.14 -0.341436 0.263547 -0.899161 203 157 115
-237.292 -844.819 -1593.19 -0.259928 0.348187 -0.897747 219 174 130
-228.955 -841.794 -1593.58 -0.00709767 0.305882 -0.935593 225 180 137
-189.091 -890.288 -1592.85 -0.293524 -0.0527772 -0.814499 164 121 89
-187.559 -883.037 -1592.54 -0.320211 0.0134432 -0.776833 160 118 88
-177.177 -879.156 -1592.23 -0.0541446 0.155012 -0.747388 147 112 87
-186.075 -877.181 -1591.78 -0.148787 0.10362 -0.799465 166 125 95
-187.664 -869.886 -1590.03 0.0647046 0.165482 -0.856808 182 142 109
-179.176 -876.206 -1592.61 -0.140626 0.149831 -0.775903 145 111 87
-183.121 -866.088 -1590.4 -0.0499 0.188795 -0.849488 159 124 97
-215.417 -853.975 -1594.14 0.294544 0.421125 -0.853595 223 179 140
-210.184 -855.174 -1592.86 0.294693 0.394049 -0.857918 222 180 141
-216.27 -845.815 -1592.47 0.240701 0.248622 -0.924922 226 182 142
-219.895 -842.747 -1592.95 0.210832 0.233816 -0.943191 226 182 141
-202.9 -849.132 -1589.66 0.196264 0.151709 -0.956939 223 182 143
-207.791 -842.893 -1590.17 0.140522 0.105464 -0.979029 224 183 144
-194.354 -861.258 -1589.01 0.238465 0.185412 -0.900132 205 164 128
-193.735 -852.92 -1588.16 0.205401 0.12785 -0.942628 213 172 135
-176.126 -865.356 -1588.68 0.289525 0.196991 -0.789044 172 134 103
-195.58 -840.098 -1588.81 0.274229 0.205353 -0.917411 220 177 140
-279.823 -812.533 -1590.86 -0.169995 -0.487078 -0.856121 64 62 71
-275.189 -812.826 -1590.72 -0.142489 -0.580472 -0.80224 62 61 69
-259.343 -816.533 -1587.7 -0.0932822 -0.496647 -0.847065 63 59 67
-243.28 -833.616 -1589.38 -0.27686 0.176937 -0.932705 199 155 116
-237.692 -832.242 -1589.88 -0.17919 0.178164 -0.961002 204 161 120
-238.571 -829.909 -1589.57 -0.178912 0.140987 -0.967813 196 154 117
-249.268 -819.206 -1588.66 -0.223767 -0.175364 -0.915738 106 87 79
-254.716 -815.367 -1589.16 -0.138496 -0.43058 -0.862998 65 60 67
-237.037 -817.872 -1589.95 -0.0761017 -0.0709981 -0.976244 119 98 84
-241.032 -814.343 -1590.59 -0.0696029 -0.197794 -0.948086 86 74 72
-270.036 -809.135 -1594.12 -0.079238 -0.609946 -0.789468 64 62 70
-52.7308 -832.613 -1589.08 -0.928773 0.277519 0.202405 138 106 84
-48.8798 -822.051 -1590.43 -0.848269 0.421533 0.138894 99 83 78
-35.0683 -810.051 -1592.64 -0.727571 0.702151 0.0890765 77 71 81
-30.4662 -806.913 -1592.3 -0.71438 0.714077 0.106993 78 72 80
-17.0384 -796.517 -1593.99 -0.683306 0.710675 0.198941 78 72 80
-7.9534 -788.578 -1594.08 -0.739193 0.635063 0.241687 79 72 81
10.8477 -796.981 -1590.36 -0.642414 0.471217 0.530994 71 68 76
-4.7983 -786.471 -1590.2 -0.764785 0.565693 0.280081 80 73 82
10.1719 -784.535 -1592.31 -0.780282 0.22847 0.37001 71 67 76
25.3663 -803.041 -1587.68 -0.703215 0.225248 0.610603 69 68 75
34.7422 -797.145 -1588.62 -0.735783 0.153638 0.644585 67 67 74
38.4551 -782.18 -1590.22 -0.742501 -0.178497 0.632514 68 68 76
-120.9 -768.858 -1588.44 -0.839516 -0.111569 -0.525422 54 53 63
135.236 99.0647 -1589.03 0.144185 0.214508 -0.938866 95 97 110
152.75 105.08 -1590.35 -0.668404 0.449031 -0.557908 106 105 122
159.717 115.985 -1592.17 -0.75336 0.454155 -0.438714 123 122 137
164.451 126.686 -1588.67 -0.782818 0.477598 -0.392799 121 122 136
169.653 138.556 -1587.4 -0.787935 0.389202 -0.466095 131 132 147
175.033 149.298 -1589.17 -0.705857 0.401701 -0.56455 137 138 153
564.854 185.162 -1589.35 0.562601 0.026186 -0.79628 249 206 179
568.3 189.03 -1588.51 0.512799 -0.0973629 -0.837504 250 207 181
571.725 190.49 -1587.96 0.432585 -0.178055 -0.855234 251 208 182
587.226 188.589 -1589.27 -0.0204451 -0.567488 -0.840487 254 214 190
592.562 194.446 -1591.52 -0.0311551 -0.613989 -0.792305 249 211 190
601.181 157.964 -1589.27 -0.067464 0.808894 -0.572593 195 142 112
618.847 159.222 -1593.73 -0.206014 0.761045 -0.500336 203 153 122
624.976 181.111 -1588.96 0.129337 -0.482009 -0.773647 247 202 174
635.194 164.498 -1588.26 -0.0904772 0.763172 -0.558017 206 153 119
650.738 169.552 -1588.59 -0.256365 0.805669 -0.488976 228 178 155
609.605 186.6 -1591.92 -0.0894466 -0.638577 -0.743988 236 204 187
608.477 190.173 -1593.99 -0.0658006 -0.615102 -0.750955 228 199 185
622.364 182.535 -1590.77 0.038288 -0.569959 -0.762119 251 209 185
628.275 185.925 -1592.61 0.148733 -0.536525 -0.765215 250 212 193
635.123 198.591 -1589.66 0.391266 -0.573204 -0.681985 241 208 195
656.48 172.376 -1589.57 -0.328529 0.743177 -0.50613 239 196 180
