ply
format ascii 1.0
comment Created by Open3D
element vertex 727
property double x
property double y
property double z
property double nx
property double ny
property double nz
property uchar red
property uchar green
property uchar blue
end_header
-163.878 -1089.15 -1510.1 -0.429598 -0.157922 -0.564792 160 118 86
-169.63 -1081.11 -1505.96 -0.522107 -0.307867 -0.583621 156 111 79
-139.57 -1100.48 -1507.46 0.621124 0.107334 -0.383705 146 115 91
-140.185 -1085.69 -1504.77 0.689799 0.18972 -0.614215 139 106 86
-140.863 -1081.77 -1504.93 0.688374 0.209632 -0.65481 144 109 88
-174.644 -1070.48 -1505.45 -0.74264 -0.256591 -0.43664 161 115 83
-174.858 -1065.32 -1507.58 -0.654473 -0.505921 -0.319101 159 112 82
-158.566 -1070.58 -1510.43 -0.241631 -0.0188546 -0.80669 159 115 84
-158.796 -1063.73 -1511.39 -0.116366 -0.045388 -0.799196 156 112 82
-175.719 -1058.63 -1509.9 -0.582608 -0.390001 -0.407432 156 109 78
-150.902 -1058.64 -1508.09 0.241057 0.038424 -0.941473 166 122 94
-145.411 -1070.85 -1505.72 0.395722 0.289491 -0.825601 166 124 98
-150.339 -1066.04 -1507.94 0.120861 0.17692 -0.939528 169 126 96
-148.548 -1063.11 -1506.41 0.2577 0.144943 -0.896615 165 123 95
-145.996 -1056.55 -1504.87 0.505464 0.0275435 -0.829671 158 118 93
-109.271 -1103.09 -1508.22 -0.756779 0.249921 -0.575003 150 103 69
-112.423 -1088.17 -1504.71 -0.795253 0.0989822 -0.590779 137 93 65
-108.031 -1087.96 -1509.76 -0.804143 0.0945921 -0.584019 142 96 65
-96.7784 -1097.91 -1504.79 -0.786524 0.207341 0.009304 144 108 82
-84.3167 -1090.46 -1505.09 -0.360999 0.11197 0.37548 185 142 106
-80.8698 -1092.46 -1506.85 -0.195682 0.0964848 0.136817 179 135 99
-79.2297 -1085.88 -1508.38 0.0673634 -0.408335 -0.31174 178 134 99
-74.4648 -1084.01 -1508.95 0.211339 -0.548451 -0.60253 178 133 98
-168.994 -698.993 -1509.48 0.313601 0.211979 -0.919894 208 153 117
-172.965 -695.941 -1510.17 0.160318 0.25897 -0.937129 211 157 120
-162.714 -703.807 -1507.26 0.454439 0.202219 -0.865764 202 147 112
-171.082 -685.998 -1505.03 0.267893 0.340886 -0.886717 215 160 124
-172.69 -679.289 -1504.45 0.289432 0.116585 -0.914479 214 158 124
-89.9819 -724.707 -1506.85 -0.6775 0.0846509 -0.719495 201 151 112
-88.6459 -717.811 -1506.45 -0.605295 0.0738684 -0.76829 198 150 112
-85.8273 -713.197 -1507.73 -0.597089 0.199839 -0.727939 201 151 114
-83.6129 -710.68 -1508.06 -0.585604 0.248843 -0.719525 202 152 115
-87.5289 -699.954 -1505.78 -0.502055 0.033666 -0.862321 207 158 122
-89.4944 -696.285 -1504.99 -0.56822 0.0159222 -0.824612 207 158 122
-78.2783 -700.776 -1509.31 -0.579395 0.114006 -0.74491 206 156 120
-90.8686 -687.894 -1504.38 -0.506326 -0.0548973 -0.850255 204 154 118
-89.8136 -681.242 -1505.47 -0.428858 -0.0606545 -0.899752 203 155 119
-83.8563 -690.69 -1508.37 -0.506687 -0.0510491 -0.846982 205 155 118
-19.7276 -759.379 -1510.69 0.843058 0.296002 -0.399215 214 163 118
-19.8708 -755.334 -1510.75 0.84751 0.188552 -0.415471 214 162 117
-21.0977 -733.769 -1511.4 0.476086 0.25268 -0.732756 213 165 124
-139.272 -490.946 -1506.06 0.679572 -0.0991082 -0.726922 139 141 157
-136.459 -486.937 -1504.26 0.674713 -0.0948557 -0.731605 136 138 154
-138.097 -470.653 -1508.23 0.680866 -0.142527 -0.714363 134 135 151
-94.4445 -516.542 -1507.31 -0.857791 0.0732963 -0.499587 154 159 172
-93.586 -510.318 -1508.43 -0.849076 0.0633984 -0.515289 156 160 174
-95.3188 -499.988 -1505.93 -0.791548 -0.0125278 -0.606358 145 150 164
-95.4276 -494.65 -1506.07 -0.763658 -0.0369745 -0.6416 143 147 161
-95.4396 -486.617 -1506.07 -0.742891 0.0205035 -0.665249 140 143 158
-93.7567 -482.33 -1507.69 -0.782555 0.0275634 -0.611409 144 148 162
-93.313 -471.78 -1510.64 -0.775574 -0.181753 -0.589925 130 136 150
34.2517 -494.417 -1508.63 0.700597 0.186984 -0.646364 179 184 197
35.705 -489.698 -1505.51 0.605891 0.214433 -0.725585 184 189 202
30.6991 -480.75 -1509.1 0.787828 0.0928016 -0.574845 178 182 195
-277.029 -323.157 -1505.55 -0.799729 -0.238549 -0.551103 31 32 42
-270.931 -324.324 -1510.68 -0.635122 -0.412985 -0.652735 28 29 40
-277.977 -312.978 -1503.93 -0.866532 0.0296437 -0.446615 29 30 41
-274.753 -305.471 -1509.25 -0.894659 0.0554004 -0.392231 29 30 39
-274.182 -300.127 -1506.14 -0.92592 0.142447 -0.239581 28 28 38
-274.743 -288.072 -1505.16 -0.936568 -0.0792364 -0.173253 28 29 39
-276.329 -280.103 -1505.1 -0.91987 -0.0990153 -0.310629 31 32 42
-277.034 -270.147 -1504.29 -0.892686 0.0221715 -0.384981 31 32 42
-273.241 -262.488 -1509.06 -0.886627 0.00816262 -0.342265 29 30 40
-272.412 -256.073 -1511.14 -0.919412 -0.136351 -0.195014 28 29 39
-277.815 -239.895 -1510.07 -0.96315 -0.263908 0.0392481 29 30 40
-277.878 -231.89 -1506.25 -0.937664 -0.0658429 0.215536 28 29 39
-278.553 -221.626 -1509.51 -0.941049 0.023347 0.0871344 30 31 41
-277.631 -210.572 -1509.54 -0.9046 0.267155 -0.0857819 35 36 45
-277.143 -200.461 -1504.27 -0.84592 0.305127 -0.270891 40 41 50
-276.138 72.4684 -1510.23 -0.231964 0.100574 -0.941666 31 30 37
-280.885 86.9262 -1510.26 -0.305432 -0.313011 -0.876991 29 29 35
-306.611 220.63 -1510.36 -0.404916 0.140927 -0.898461 35 37 44
-303.039 230.458 -1511.04 -0.37309 0.101508 -0.889283 36 37 44
-5.79995 -142.588 -1508.52 0.729472 0.502185 -0.202272 35 35 43
-13.7549 -126.745 -1506.94 0.585272 0.494297 -0.625314 40 38 47
-15.5855 -125.328 -1508.6 0.520477 0.474593 -0.708813 38 36 45
17.9137 -145.728 -1506.14 0.524394 0.407544 -0.484387 33 32 42
12.752 -127.906 -1507.05 0.014378 0.407668 -0.849937 28 27 39
10.238 -120.936 -1505.45 0.131563 0.275273 -0.91476 26 25 37
18.4089 -125.545 -1509.98 -0.261679 0.359546 -0.871802 26 24 36
31.7482 -126.78 -1504.82 0.348027 0.606793 -0.639275 40 36 49
27.5765 -124.967 -1508.16 0.0611755 0.514426 -0.763117 36 31 44
-16.033 -114.622 -1508.11 0.450497 0.22682 -0.728654 52 49 60
9.17882 -118.16 -1504.36 0.183254 0.230052 -0.927065 28 26 38
-9.35387 -105.538 -1505.24 0.551332 -0.134628 -0.61214 43 41 50
13.7767 -116.531 -1505.58 -0.0357014 0.236655 -0.938499 29 26 39
12.814 -111.991 -1504.53 -0.0264573 0.191626 -0.972364 32 29 42
-0.562719 -87.0228 -1506.19 0.584488 -0.582034 -0.454222 22 20 29
3.12522 -82.5274 -1507.96 0.530372 -0.682097 -0.417237 21 19 28
-209.876 -1048.03 -1502.41 -0.398288 -0.056042 0.945285 170 127 101
-212.045 -1043.81 -1503.62 -0.437851 -0.103878 0.902106 168 125 100
-218.7 -1027.02 -1503.6 -0.664959 -0.108377 0.731052 158 116 94
-211.916 -1030.52 -1501.99 -0.449087 -0.154519 0.88367 163 120 96
-184.44 -1049.68 -1502.94 -0.695867 0.0578338 -0.589851 165 116 87
-185.902 -1040.28 -1499.57 -0.538101 0.0367599 -0.403398 163 114 86
-188.737 -1033.9 -1498.63 -0.365814 -0.120275 -0.338026 162 114 85
-180.826 -1032.34 -1504.19 -0.664106 0.0910756 -0.710136 156 108 80
-180.935 -1029.11 -1504.2 -0.684894 0.0210559 -0.681622 156 107 79
-215.112 -1018.62 -1502.67 -0.596504 0.0193464 0.777814 157 115 91
-199.1 -1017.2 -1497.95 -0.466488 -0.17041 -0.663115 160 114 87
-198.717 -1012.72 -1498.66 -0.493455 -0.11541 -0.712943 162 114 88
-188.556 -1019.12 -1501.78 -0.592106 -0.211464 -0.75663 158 111 84
-184.716 -1016.59 -1503.94 -0.765554 -0.276159 -0.526357 156 110 84
-192.003 -1007.99 -1501.32 -0.511751 -0.0916073 -0.800512 162 113 86
-194.419 -998.517 -1498.65 -0.487942 -0.0220004 -0.390289 161 111 84
-189.127 -997.492 -1500.81 -0.543295 0.0143045 -0.671709 162 112 84
-204.698 -972.638 -1503.16 -0.901795 -0.140395 -0.115965 152 103 79
-187.263 -993.474 -1501.08 -0.590957 0.0123367 -0.662926 160 110 81
-187.931 -988.718 -1500.17 -0.607082 -0.0350869 -0.615648 159 110 80
-197.759 -982.437 -1497.87 -0.552948 -0.135233 -0.0389392 161 113 86
-192.356 -978.752 -1503.21 -0.539629 -0.240619 -0.469451 161 111 82
-205.741 -968.694 -1503.68 -0.904999 -0.169207 -0.204346 153 105 81
-208.671 -960.694 -1501.32 -0.917608 -0.249263 -0.191337 162 111 87
-137.734 -994.258 -1500.15 0.555276 -0.199315 -0.80881 126 92 75
-124.938 -994.235 -1499.47 0.236672 -0.1323 -0.728046 124 89 72
-130.581 -988.157 -1500.93 0.535931 -0.232619 -0.795214 113 84 71
-132.231 -983.053 -1502.91 0.575457 -0.229768 -0.769697 107 80 69
-132.365 -971.947 -1502.55 0.790951 -0.127661 -0.646883 82 67 63
-132.772 -967.023 -1502.23 0.825991 -0.0293951 -0.620058 87 70 65
-133.908 -958.133 -1502.5 0.794569 0.144485 -0.578792 109 81 72
-126.869 -956.808 -1500.62 0.498554 0.155212 -0.557897 108 81 72
-130.987 -955.868 -1500.85 0.746764 0.117048 -0.599826 107 81 73
-134.901 -948.252 -1502.48 0.594787 0.0617185 -0.735646 115 88 80
-124.787 -948.083 -1502.49 0.417606 0.0754854 -0.620804 111 83 74
-122.538 -971.809 -1501.05 0.488964 -0.00229175 -0.669376 106 79 68
-117.658 -964.842 -1501.76 -0.167797 0.199169 -0.589392 128 93 76
-121.455 -959.324 -1500.94 0.0045539 0.197324 -0.531243 115 85 73
-121.249 -950.781 -1503.12 -0.0101874 0.20227 -0.519912 113 84 72
-74.4916 -866.474 -1502.7 0.278726 0.234862 -0.907652 140 98 74
-71.2483 -859.57 -1498.54 0.40253 0.252693 -0.870057 145 104 79
-76.9936 -857.496 -1501.13 0.465051 0.190703 -0.841129 139 98 75
-78.2776 -846.045 -1500.8 0.649139 0.0279425 -0.746726 137 97 74
-77.4239 -837.804 -1501.37 0.699304 -0.0975929 -0.705705 135 95 73
-172.336 -836.094 -1496.89 0.792607 0.157184 0.572294 144 99 70
-166.63 -826.021 -1504.01 0.668423 -0.050523 0.746205 133 89 63
-166.542 -822.762 -1503.27 0.661404 -0.108507 0.750514 133 89 63
-162.179 -811.176 -1503.03 0.589359 -0.249935 0.767001 119 80 59
-148.048 -835.4 -1503.75 0.420845 0.13167 -0.256901 114 86 71
-148.378 -820.521 -1503.85 0.380429 0.112997 -0.108948 109 84 70
-125.796 -815.358 -1503.75 0.601129 0.316072 -0.71491 88 74 70
-165.384 -808.374 -1498.99 0.683108 -0.244911 0.665463 128 87 62
-162.35 -805.997 -1500.6 0.577247 -0.299932 0.762119 119 80 59
-161.768 -800.593 -1498.16 0.578928 -0.300533 0.758466 116 78 58
-155.255 -800.863 -1500.06 0.540261 -0.228396 0.674557 100 71 57
-156.072 -795.864 -1499.01 0.626781 -0.19821 0.668653 100 68 54
-131.906 -804.675 -1498.9 0.796456 0.341415 -0.43993 98 83 76
-133.4 -800.676 -1500.5 0.831742 0.293192 -0.426856 107 88 80
-134.79 -797.064 -1501.89 0.873006 0.296284 -0.406914 119 96 83
-121.721 -814.71 -1501.15 0.212224 0.465254 -0.616046 92 79 75
-78.3812 -835.693 -1503.28 0.698108 -0.129617 -0.703421 133 93 71
-71.6847 -824.928 -1497.49 0.767167 -0.00559748 -0.657381 142 101 77
55.75 -644.534 -1501.22 0.572181 -0.663977 -0.484993 183 178 192
59.7547 -641.913 -1499.81 0.60004 -0.630816 -0.475569 180 176 190
64.6215 -637.789 -1499.11 0.645957 -0.538399 -0.493888 179 175 189
65.3961 -630.021 -1503.38 0.699894 -0.281554 -0.656727 179 176 190
68.6568 -621.166 -1501.6 0.742943 -0.128094 -0.673459 177 173 188
70.6822 -610.88 -1500.03 0.784834 -0.0523143 -0.634628 180 178 192
71.4339 -610.072 -1498.89 0.791758 -0.0408528 -0.624099 180 178 192
67.1365 -591.904 -1504.06 0.664865 0.0809848 -0.723669 185 185 199
69.0596 -588.125 -1502.52 0.6865 0.0575049 -0.720292 186 184 198
69.9254 -578.461 -1501.36 0.697622 0.00957523 -0.719598 189 186 201
69.3556 -578.093 -1502.37 0.682974 0.0115259 -0.737562 190 187 202
32.9686 -456.577 -1503 0.788976 0.10844 -0.609402 173 178 191
33.9511 -443.134 -1501.76 0.78407 0.0167193 -0.585107 167 172 185
34.4422 -436.907 -1501.21 0.805137 0.0136304 -0.558064 164 169 183
32.2 -418.275 -1500.07 0.801984 0.0561656 -0.54276 159 164 176
35.2359 -413.106 -1497.53 0.74187 0.00820027 -0.627138 156 161 175
35.3224 -405.025 -1499.35 0.756563 0.00196523 -0.525162 166 171 186
33.2799 -402.602 -1502.64 0.82347 0.0877131 -0.442883 168 173 187
34.0559 -398.004 -1499.75 0.825114 0.160635 -0.48509 167 172 186
28.2376 -378.724 -1503.35 0.908259 0.101349 -0.408599 182 187 200
29.1401 -378.078 -1501.54 0.895153 0.109346 -0.432293 181 187 200
26.7998 -370.277 -1504.57 0.922803 0.102427 -0.372192 180 185 199
62.2189 -563.432 -1504.08 0.682234 0.148267 -0.717628 185 187 200
62.3502 -550.167 -1501.28 0.608662 0.128347 -0.788009 186 187 201
70.4333 -570.326 -1498.38 0.736079 0.111678 -0.606648 186 184 199
66.2861 -557.029 -1497.59 0.71655 0.176209 -0.645418 183 183 197
59.2909 -543.648 -1502.06 0.58607 0.100747 -0.799722 189 189 204
59.9914 -537.096 -1501.66 0.655803 0.00506222 -0.704201 185 186 200
60.8786 -526.714 -1501.62 0.72057 0.103481 -0.560004 178 182 195
-276.523 34.2892 -1503.8 -0.0640837 0.0213565 -0.966728 33 32 38
-302.559 69.9078 -1502.3 -0.294443 -0.0925006 -0.947606 29 30 37
-305.775 77.6298 -1502.34 -0.305613 -0.0902062 -0.94238 29 31 37
-303.714 81.9138 -1502.71 -0.310523 -0.125864 -0.933669 29 31 37
42.4085 -138.973 -1498.95 0.577604 0.725391 -0.352561 34 32 45
40.2228 -136.18 -1502.68 0.524707 0.658816 -0.405113 34 32 45
41.939 -59.8396 -1500.84 0.641051 -0.644026 0.29635 19 19 26
40.6649 -57.5493 -1497.77 0.662065 -0.607691 0.416611 19 18 25
48.2207 -45.4076 -1498.07 0.665134 -0.498848 0.597379 19 18 25
49.7833 -45.7636 -1499.44 0.663526 -0.518021 0.573169 20 19 26
57.667 -39.8324 -1499.41 0.631346 -0.610208 0.404095 22 21 28
63.7435 -38.2951 -1503.02 0.715584 -0.563378 0.228015 24 23 31
76.1758 -25.706 -1502.86 0.715731 -0.428278 -0.420279 37 39 46
78.1664 -22.4652 -1501.41 0.669928 -0.380731 -0.455041 36 38 45
83.2112 -14.7543 -1503.24 0.649413 -0.286679 -0.52652 38 40 47
-44.7708 294.481 -1497.46 0.447254 0.819057 0.041128 185 172 166
-37.5904 292.381 -1501.91 0.483715 0.602914 -0.323573 165 162 164
-27.5935 283.04 -1502.43 0.528994 0.473565 -0.584184 121 120 125
-30.1984 287.909 -1500.95 0.49497 0.575632 -0.404055 166 165 169
-30.2299 -1094.89 -1499.51 -0.51569 0.0797101 -0.241224 173 130 97
-31.3174 -1096.94 -1510.11 -0.284705 0.120856 -0.43047 180 138 104
-28.9758 -1091.71 -1502.18 -0.58883 0.0234632 -0.349401 167 124 92
-25.0162 -1081.05 -1498.29 -0.769777 -0.0140853 -0.283512 160 116 86
-27.7768 -1088.16 -1505.09 -0.622851 -0.00394172 -0.426262 165 121 89
-21.7068 -1070.74 -1501.74 -0.715069 0.0134707 -0.362101 161 117 86
-22.4061 -1070.77 -1510.2 -0.609184 0.0321976 -0.509299 164 120 89
-23.1787 -1073.17 -1509.92 -0.611413 0.0238539 -0.506238 164 120 89
-18.3165 -1058.58 -1507.87 -0.58805 0.0570394 -0.500729 162 118 88
-18.2909 -1061.33 -1499.6 -0.629713 0.0248458 -0.386553 161 117 87
30.0027 -159.392 -1510.25 0.368153 0.487995 -0.531444 35 33 44
47.5338 -162.263 -1506.32 0.505248 0.645429 -0.433924 54 55 69
54.797 -164.016 -1510.35 0.346959 0.557589 -0.629231 54 53 67
90.8136 128.253 -1510.48 0.350985 -0.120266 -0.914156 77 76 86
78.7212 225.584 -1509.94 0.368777 0.127131 -0.888604 35 37 43
76.108 219.36 -1509.23 0.362579 0.0310694 -0.921613 32 34 41
78.8343 233.005 -1510.94 0.328655 0.328875 -0.847862 41 42 49
35.212 256.505 -1506.56 0.24668 0.556051 -0.718778 48 47 54
51.7433 254.058 -1507.31 0.289811 0.491232 -0.79069 46 45 52
-172.897 291.614 -1500.74 -0.210864 0.509439 -0.131402 113 99 93
-163.457 291.473 -1499.83 -0.165954 0.300868 -0.553581 131 111 98
-155.481 291.188 -1502.92 -0.14229 0.166054 -0.590318 131 108 90
-143.831 292.113 -1505.85 -0.0791281 0.0758864 -0.639835 134 106 85
-137.835 294.497 -1501.78 -0.135967 0.136542 -0.751814 139 112 89
-133.345 296.191 -1506.5 -0.059612 0.0675719 -0.643753 130 104 85
-128.815 298.903 -1506.09 -0.05192 0.121448 -0.697105 133 110 93
-125.89 303.237 -1498.9 -0.0888659 0.234113 -0.840916 150 123 100
-119.926 304.723 -1507.82 0.0929906 0.205007 -0.692653 139 121 109
-94.0901 306.193 -1497.26 0.606761 0.576499 -0.411733 195 167 145
-86.7138 304.105 -1496.96 0.579577 0.639874 -0.366569 194 173 159
-77.1852 305.488 -1504.88 0.497159 0.465433 -0.51656 167 154 146
-73.0307 304.667 -1503.87 0.514575 0.488389 -0.451979 167 154 147
-114.98 310.001 -1505.54 0.374973 0.313166 -0.624202 161 137 119
-112.666 311.706 -1500.95 0.529291 0.362395 -0.582619 179 145 117
-108.683 308.711 -1509.63 0.320236 0.291837 -0.634017 149 133 124
-101.884 308.855 -1506.28 0.410803 0.363784 -0.589006 164 142 127
-105.48 309.247 -1502.93 0.471834 0.355839 -0.58865 171 143 122
-91.3752 307.902 -1505.71 0.447515 0.457116 -0.523824 172 152 139
-90.8554 308.331 -1508.64 0.38406 0.418534 -0.559612 163 147 138
-155.374 355.284 -1499.01 -0.713286 -0.354356 -0.188892 67 52 47
-146.186 352.907 -1498.57 -0.615171 -0.326709 -0.421278 62 50 47
-132.097 353.691 -1500.65 -0.386873 -0.20077 -0.601466 60 48 47
-236.541 -805.35 -1495.89 -0.978456 0.10447 -0.0897092 186 133 98
-235.643 -797.316 -1495.38 -0.971877 0.15083 -0.148557 188 134 99
-233.24 -783.881 -1492.85 -0.980042 0.160843 0.0351498 187 133 98
-232.455 -776.387 -1493.53 -0.950883 0.0991051 0.115985 185 133 99
-231.648 -763.029 -1497.47 -0.855588 0.175532 -0.213443 183 134 101
-230.088 -758.565 -1492.19 -0.900468 0.240568 0.21672 187 137 103
-229.019 -746.356 -1495.86 -0.88617 0.129925 -0.193078 177 128 95
-228.223 -737.791 -1496.12 -0.857075 0.0797707 -0.306548 186 134 98
-277.164 -571.134 -1492.54 -0.421566 0.0610501 -0.896479 176 181 196
-273.335 -562.025 -1494.14 -0.415568 0.0327125 -0.902063 177 182 198
-270.319 -558.3 -1495.47 -0.395578 0.051598 -0.88723 177 181 197
-274.24 -554.599 -1493.26 -0.375986 0.0809144 -0.899953 176 181 196
-270.817 -550.417 -1493.64 -0.306353 0.145618 -0.893511 175 179 195
-263.055 -553.305 -1496.51 -0.28834 0.116374 -0.853816 175 179 195
-265.854 -549.54 -1494.29 -0.254459 0.206402 -0.887387 175 179 195
-254.804 -553.451 -1497.46 -0.301547 0.14701 -0.862955 176 178 196
-269.771 -543.302 -1490.91 -0.132354 0.28119 -0.936214 173 178 193
-257.767 -518.465 -1491.02 -0.315258 0.0493777 -0.933171 173 178 194
-254.809 -537.698 -1492.85 -0.320519 0.251679 -0.887133 179 181 199
-256.153 -528.433 -1490.83 -0.330404 0.100509 -0.913551 173 177 193
-252.796 -524.425 -1494.21 -0.498889 0.0142365 -0.825074 177 180 196
-254.348 -512.404 -1495.47 -0.612324 0.00421491 -0.737793 171 174 192
-254.108 -505.626 -1494.64 -0.687131 0.00154064 -0.675651 169 171 190
-109.047 -1045.22 -1494.73 -0.915102 -0.015988 -0.401071 123 86 61
-110.777 -1031.72 -1495.55 -0.916898 -0.00711809 -0.418392 117 81 58
-81.5363 -1044.28 -1495.36 -0.50645 0.0170198 -0.371204 140 101 75
-80.293 -1042.78 -1496.1 -0.515488 0.0231957 -0.390787 139 100 74
-118.978 -1010.96 -1491.46 -0.505634 -0.0753455 -0.56508 122 85 64
-68.1374 -1102.34 -1494.16 -0.924707 -0.251412 -0.0306164 160 117 85
-68.9652 -1067.89 -1491.93 -0.726078 0.141834 -0.0861481 161 116 85
-66.8327 -1057.93 -1493.03 -0.852437 0.190321 -0.106294 158 113 83
-63.3533 -1048.55 -1494.57 -0.949325 0.289281 -0.106978 153 107 77
-60.567 -1039.73 -1493.57 -0.947065 0.294664 -0.0923423 151 105 75
-57.551 -1030.68 -1494.97 -0.963845 0.229881 -0.0900532 153 107 77
-57.857 -1013.86 -1496.23 -0.904737 -0.11702 -0.117452 161 114 83
-56.4726 -1022.8 -1496.76 -0.947031 0.081156 -0.147446 157 110 80
-59.4074 -1005.73 -1495.64 -0.741135 -0.122593 -0.102307 161 114 83
53.6716 -1183.81 -1493.98 0.203315 0.983795 0.00677468 56 54 52
73.8516 -1191.21 -1496.9 0.177705 0.974389 0.0138752 59 57 55
70.7845 -1189.63 -1494.8 0.181877 0.97515 0.0105193 57 55 53
47.814 -1182.24 -1491.14 0.201745 0.979488 -0.00685092 90 86 83
-147.86 -702.381 -1496.87 0.406332 -0.0470095 -0.710041 172 124 98
-138.463 -702.023 -1491.41 0.253458 -0.157576 -0.783146 195 144 116
-138.819 -691.916 -1493.9 0.431262 -0.127085 -0.66306 173 130 107
-135.675 -700.605 -1491.48 0.230795 -0.156182 -0.608252 188 139 115
-132.23 -698.065 -1491.99 0.231344 -0.152959 -0.277118 169 124 106
-146.464 -690.853 -1497.13 0.343939 -0.0269914 -0.814597 184 135 108
-141.044 -681.381 -1495.89 0.234579 -0.12824 -0.938923 191 142 116
-132.432 -689.428 -1490.88 0.45559 -0.10957 -0.309907 139 106 93
-104.07 -729.384 -1492.11 -0.668567 -0.0579312 -0.120949 140 100 77
-101.832 -718.412 -1491.45 -0.564269 0.177556 -0.561715 165 123 97
-98.0981 -713.369 -1496.77 -0.735052 0.142688 -0.645686 192 142 108
-121.986 -698.623 -1491.19 -0.101872 -0.168313 -0.0533539 135 95 82
-97.0643 -700.841 -1496.05 -0.67845 0.041824 -0.594852 188 140 108
-99.7029 -692.783 -1496.62 -0.399677 -0.15544 -0.705406 172 128 101
-114.073 -683.67 -1490.46 -0.0529172 0.141183 -0.949472 116 81 66
-106.7 -684.892 -1495.51 -0.335923 -0.0462061 -0.846061 166 124 99
-96.5162 -697.653 -1497.38 -0.577496 -0.0439068 -0.631004 179 134 104
-61.0507 -775.308 -1496.8 0.546685 -0.0262057 -0.139181 153 107 82
-64.3972 -768.134 -1494.19 0.514026 -0.0859933 -0.356686 148 104 81
-61.1253 -767.995 -1491.49 0.518234 -0.0979884 -0.466013 147 104 81
-18.7701 -761.011 -1495.65 0.90346 0.31524 0.0221192 197 145 108
-19.5606 -756.566 -1491.86 0.932074 0.221035 0.0456311 190 138 103
42.1258 -445.402 -1496.72 0.582442 0.0613403 -0.799115 179 185 198
44.0692 -438.66 -1496.88 0.614221 0.0573225 -0.770264 174 181 194
62.7123 -440.892 -1490.82 0.720878 0.0814512 -0.323248 192 199 213
67.2315 -454.499 -1491.38 0.725414 0.0836658 -0.613609 180 183 197
64.0326 -446.296 -1492.95 0.653569 0.125352 -0.394255 178 186 199
43.6371 -434.094 -1496.73 0.631525 0.0820552 -0.750303 171 178 192
45.1679 -428.868 -1496.95 0.63319 0.123679 -0.747551 170 177 191
61.6867 -436.744 -1492.87 0.604175 0.142328 -0.627671 185 193 207
60.6276 -431.008 -1494.16 0.550383 0.145518 -0.718944 178 185 199
43.3081 -421.634 -1496.24 0.58811 0.104587 -0.801711 165 170 184
41.6349 -417.252 -1495.61 0.581032 0.0899156 -0.812693 161 165 179
50.4999 -419.118 -1495.89 0.51773 0.0730041 -0.810326 169 174 188
50.3218 -413.693 -1494.73 0.454148 0.0064148 -0.836096 166 170 184
57.3871 -416.946 -1493.07 0.446561 0.0303384 -0.736258 170 176 190
36.9198 -406.975 -1497.3 0.702522 -0.0156505 -0.61958 163 168 183
38.2732 -401.09 -1496.23 0.723792 0.0680354 -0.611956 166 171 185
46.6524 -400.615 -1492.82 0.628286 0.115877 -0.79845 172 177 190
56.1754 -406.609 -1492.99 0.309154 -0.0159025 -0.718447 166 172 186
54.06 -399.314 -1492.45 0.396955 0.0774594 -0.719822 170 175 189
37.6416 -398.21 -1495.98 0.771777 0.136587 -0.578959 165 171 184
44.726 -397.053 -1492.61 0.656172 0.143223 -0.75664 171 176 189
54.0636 -394.648 -1491.59 0.501797 0.0748545 -0.560934 174 180 195
63.0635 -394.949 -1492.4 0.257264 0.129429 -0.885545 155 162 176
64.447 -408.737 -1492.15 0.277793 -0.0447069 -0.856623 160 168 180
64.2161 -400.084 -1492.54 0.250626 0.0838828 -0.877791 159 166 179
67.3106 -391.709 -1491.61 0.303093 0.167517 -0.939041 142 150 163
39.9002 -377.994 -1491.14 0.694956 0.124785 -0.711387 174 178 191
59.1803 -385.13 -1491.56 0.381114 0.120736 -0.822581 150 158 171
94.9443 45.3359 -1493.18 -0.0339663 0.719003 -0.71353 33 35 42
95.7997 49.4629 -1493.14 -0.00789742 0.679688 -0.677826 33 35 42
104.367 46.0043 -1493.87 -0.00466107 0.361117 -0.520412 34 36 43
112.011 44.6217 -1493.13 -0.0330427 -0.230952 -0.117809 35 37 44
104.67 53.1956 -1495.49 -0.00968564 0.223097 -0.413745 34 36 43
121.251 47.2827 -1495.85 -0.0448496 -0.711929 0.0533343 36 38 44
121.052 49.782 -1497.68 0.042443 -0.52774 -0.0893576 36 37 43
132.417 47.3526 -1493.83 0.0711296 -0.716497 -0.0708138 36 38 44
136.941 49.8465 -1496.71 0.175592 -0.588464 -0.123619 36 37 43
-10.2098 279.604 -1493.98 0.405681 0.49713 -0.323681 113 107 107
75.2593 68.2935 -1496.71 0.302999 0.0151086 -0.912256 29 29 36
79.2843 71.517 -1497.17 0.350206 -0.111183 -0.898926 29 29 35
-154.181 294.919 -1491.75 -0.147663 0.316458 -0.955218 154 132 112
-145.777 294.883 -1492.71 -0.207134 0.291144 -0.935167 154 128 104
-230.228 -883.715 -1489.58 -0.935171 -0.318345 0.164019 172 119 89
-235.688 -867.529 -1490.82 -0.966359 -0.219905 0.0608683 170 117 88
-235.106 -858.602 -1487.1 -0.991573 0.0466133 0.126687 171 119 86
-233.099 -847.985 -1490.96 -0.987515 0.173577 0.0846266 174 122 90
-232.844 -837.773 -1490.37 -0.98911 -0.053283 0.0767308 178 125 92
-184.138 -885.242 -1486.5 0.743698 -0.188395 0.637248 168 120 85
-182.944 -879.166 -1486.66 0.69735 -0.149354 0.684647 167 119 84
-184.835 -873.532 -1484.26 0.673522 -0.0723596 0.716484 172 124 89
-178.029 -867.748 -1486.96 0.539662 -0.180231 0.819587 157 110 77
-178.248 -844.326 -1485.68 0.608824 0.0716779 0.754649 152 107 75
-233.503 -835.397 -1486.89 -0.995929 -0.0942211 0.0189407 177 123 90
-234.452 -827.292 -1488.09 -0.99109 -0.140763 0.0463083 179 125 91
-235.737 -815.353 -1486.19 -0.99106 -0.0551312 -0.0212612 179 126 92
-302.317 -512.238 -1485.39 -0.636852 -0.00172264 -0.729631 162 167 179
-300.543 -508.274 -1484.94 -0.577012 0.0576716 -0.767462 164 169 182
-287.613 -516.198 -1484.89 0.01458 0.165145 -0.981958 172 177 191
-280.011 -564.097 -1490.8 -0.395705 0.0360487 -0.913857 176 181 197
-277.449 -545.082 -1490.59 -0.281015 0.14079 -0.93113 174 179 194
-274.091 -539.951 -1489.77 -0.11134 0.200657 -0.960432 174 179 194
-279.038 -531.853 -1488.09 -0.0366967 0.143137 -0.990312 173 178 193
-266.588 -538.092 -1489.36 -0.0594105 0.278334 -0.955944 174 178 194
-269.333 -532.192 -1488.09 -0.00638293 0.211016 -0.981719 173 178 193
-278.746 -526.655 -1487.08 0.0100202 0.184958 -0.990551 172 177 192
-279.584 -519.369 -1485.14 0.0477982 0.26653 -0.974328 170 175 190
-272.102 -523.193 -1486.6 -0.0108197 0.196834 -0.975002 170 175 190
-262.039 -526.753 -1488.93 -0.131359 0.125468 -0.968492 172 177 192
-264.907 -523.95 -1488.08 -0.0896872 0.1379 -0.977617 172 177 192
-282.324 -515.485 -1484.21 0.0669998 0.254596 -0.977944 172 177 192
-265.629 -514.865 -1487.23 -0.242706 0.123756 -0.925319 169 174 190
-269.079 -511.342 -1484.4 -0.439586 -0.00778643 -0.810502 159 162 177
-259.389 -511.461 -1489.75 -0.399603 0.0920299 -0.902801 175 180 196
-263.103 -500.288 -1486.22 -0.363169 0.156728 -0.893378 173 177 194
-261.478 -498.386 -1486.45 -0.392164 0.160821 -0.868173 174 178 196
-44.9571 -995.026 -1487.42 0.693057 -0.355582 -0.0687162 162 115 85
-46.0513 -987.926 -1488.75 0.904354 -0.434887 -0.0403806 162 114 84
-34.7356 -996.794 -1488.87 0.392013 -0.181693 -0.326028 157 113 87
-38.3725 -972.695 -1490.1 0.883652 -0.434953 -0.182598 161 114 84
-36.7551 -970.532 -1487.52 0.872586 -0.456462 -0.158577 161 114 85
-32.8357 -955.17 -1484.56 0.94578 -0.111257 -0.251239 163 116 87
-33.0371 -949.351 -1487.1 0.959298 -0.0337563 -0.281866 164 117 86
-30.9497 -934.733 -1484.65 0.882077 -0.187665 -0.254945 167 119 89
-30.0475 -927.672 -1489.37 0.899268 -0.190695 -0.266581 165 118 88
75.5392 -614.367 -1490.19 0.864903 0.0485755 -0.457092 178 174 189
76.5118 -616.169 -1485.39 0.935766 0.0665386 -0.229578 173 170 184
74.8505 -599.828 -1488.86 0.921243 0.044112 -0.308922 183 179 194
75.1588 -594.191 -1484.44 0.970828 0.0316427 -0.145538 181 178 192
74.6295 -580.116 -1490.18 0.891277 0.00134969 -0.380442 183 180 195
-129.808 -570.356 -1490.58 0.818022 -0.0326855 -0.57512 138 142 156
-127.153 -561.224 -1486.09 0.851774 -0.0250173 -0.571501 130 134 148
-127.597 -557.782 -1487.25 0.853853 -0.0210366 -0.557887 131 134 148
-127.252 -541.583 -1487.44 0.835861 -0.0153683 -0.577123 126 130 144
-126.752 -535.812 -1486.7 0.846496 -0.0274855 -0.582559 124 128 141
-125.277 -530.174 -1484.2 0.870705 -0.0463304 -0.613937 121 123 137
-106.569 -569.371 -1488.77 -0.860228 -0.00647583 -0.535502 127 131 144
-106.021 -557.706 -1488.37 -0.856586 0.0429911 -0.508756 130 135 148
-105.613 -549.515 -1489.17 -0.855944 0.00591852 -0.465619 132 135 149
-106.732 -538.307 -1487.03 -0.897469 -0.0085346 -0.471286 119 122 134
-282.04 -262.195 -1487.78 -0.800853 0.187059 -0.454594 38 39 49
-279.235 -254.59 -1487.04 -0.857281 0.248723 -0.389004 37 38 48
-274.867 -241.548 -1488.85 -0.939171 0.181139 -0.118605 35 36 44
-272.264 -232.803 -1487.56 -0.950688 0.194038 0.0871363 33 34 41
-271.459 -223.833 -1488.16 -0.94238 0.0607315 0.244674 30 31 38
-273.429 -212.757 -1486.48 -0.944327 -0.222671 0.198295 31 31 39
-276.851 -200.523 -1487.39 -0.929787 -0.238584 0.240591 35 34 42
-277.619 -196.62 -1490.14 -0.949373 -0.00313521 0.0657713 38 37 46
-272.715 -185.013 -1489.06 -0.718868 0.524603 -0.184192 39 40 48
-264.112 -175.528 -1486.68 -0.525632 0.631915 -0.535327 39 39 48
-261.001 -175.542 -1490.07 -0.542197 0.623128 -0.514439 37 37 46
-255.956 -167.876 -1487.33 -0.711903 0.502327 -0.4755 32 32 41
12.2749 -170.205 -1484.54 0.918891 0.241098 -0.324336 34 35 42
38.8669 -353.705 -1487.64 0.610048 0.048094 -0.768908 139 142 153
38.3672 -348.523 -1488.49 0.623325 -0.0818621 -0.754745 100 102 112
63.1308 -358.115 -1486.96 0.0408759 0.177676 -0.969926 138 146 159
40.4272 -344.21 -1488.11 0.62094 -0.19391 -0.739565 67 69 79
45.2028 -333.86 -1485.48 0.751959 -0.0926529 -0.557632 40 40 48
67.1343 -355.289 -1484.02 0.269846 0.261442 -0.874718 137 146 159
39.9401 -322.761 -1490.45 0.815911 0.213047 -0.344529 47 47 56
37.6301 -313.249 -1487.43 0.846453 0.335472 -0.289628 31 30 38
40.7556 -299.276 -1487.25 0.745148 -0.2992 -0.607515 28 27 35
40.7568 -296.589 -1488.82 0.73183 -0.311843 -0.614574 29 28 37
45.1517 -287.42 -1486.58 0.77977 -0.176897 -0.569033 31 30 39
45.2473 -283.286 -1486.77 0.772767 -0.0257448 -0.581269 32 31 40
43.4598 -278.084 -1489.31 0.713474 0.144499 -0.64213 35 34 42
43.2881 -266.27 -1489.04 0.565678 -0.110762 -0.769342 29 28 35
43.6263 -264.206 -1490.83 0.552007 -0.154365 -0.767896 29 28 36
57.7251 -264.47 -1489.02 0.620434 -0.0383878 -0.740513 34 35 46
-28.6413 -993.228 -1494.18 0.470779 -0.165118 -0.463617 154 113 88
-28.3416 -997.802 -1490.19 0.175893 -0.0748717 -0.371558 153 112 87
-145.4 -845.741 -1491.24 0.267645 0.113846 -0.0400384 102 78 66
-145.391 -850.431 -1491.74 0.246738 0.102388 0.0889161 96 73 63
-146.579 -837.197 -1496.68 0.279863 0.21184 -0.532575 112 88 75
-144.674 -834.651 -1487.25 0.302252 0.304345 -0.315945 113 87 73
-144.389 -825.509 -1487.48 0.283762 0.351763 -0.671889 116 91 78
-174.549 360.382 -1493.94 -0.71264 -0.368722 -0.181099 67 52 47
-113.574 355.994 -1485.98 0.509254 0.0704788 -0.79021 64 53 53
-122.202 353.854 -1496.13 -0.276477 -0.170714 -0.728878 57 47 47
-120.589 347.902 -1490.03 0.15991 0.0786287 -0.885968 60 50 49
-119.599 347.622 -1487.99 0.269149 0.114383 -0.885834 65 53 51
-101.614 364.658 -1487.55 0.59182 -0.168218 -0.544703 70 56 53
-97.626 371.03 -1496.92 0.619929 -0.173779 -0.448661 78 60 54
-106.42 363.286 -1490.56 0.551898 -0.107766 -0.635087 76 60 56
-86.7177 370.305 -1487.13 0.739528 -0.294264 0.125682 46 37 40
-93.1939 372.581 -1495.91 0.652832 -0.210761 -0.294977 70 54 50
-94.5023 365.584 -1483.92 0.689448 -0.275887 -0.0794249 52 42 43
-86.3459 374.34 -1493.12 0.652389 -0.230506 -0.18967 64 50 48
-76.6261 382.25 -1495.41 0.513761 -0.174787 -0.249542 76 60 55
-78.9723 377.165 -1490.75 0.572673 -0.271189 0.0321018 58 46 45
-2.02744 287.789 -1484.17 0.519304 0.341043 -0.188086 144 135 131
5.93841 282.742 -1490.1 0.406221 0.410892 -0.326268 110 105 105
5.87004 281.056 -1492.91 0.374513 0.428372 -0.368317 100 96 97
9.81887 284.987 -1486.2 0.413125 0.406704 -0.306851 114 108 108
19.3762 283.219 -1489.44 0.301123 0.450574 -0.360587 88 85 88
-63.178 385.195 -1486.84 0.363327 -0.350481 0.466547 51 41 44
-69.1681 381.377 -1487.4 0.412783 -0.325034 0.374562 51 41 43
-63.7303 390.27 -1493.48 0.40554 -0.290409 0.212489 75 61 59
-59.236 389.49 -1488.35 0.356666 -0.406128 0.609693 57 46 49
-46.7723 399.402 -1486.12 0.302897 -0.491664 0.746092 63 52 55
-51.659 392.055 -1484.33 0.253651 -0.485497 0.785186 50 41 45
-43.9275 404.027 -1487.03 0.336571 -0.479176 0.728442 69 57 59
-49.6483 402.334 -1491.62 0.372562 -0.472893 0.708553 79 66 67
-48.1052 401.265 -1489.08 0.352973 -0.47581 0.720002 74 61 63
-40.9281 412.682 -1489.44 0.459281 -0.428713 0.66969 105 87 86
-198.757 -1020.75 -1479.75 -0.825232 -0.253486 0.36756 163 114 87
-200.995 -1011.12 -1480.74 -0.92337 -0.0514339 0.299111 161 113 85
-199.807 -1001.34 -1480.29 -0.874525 0.113983 0.20939 158 109 82
-231.576 -950.202 -1483.96 0.0385344 -0.411832 0.906406 160 117 92
-204.508 -970.819 -1480.07 -0.93968 -0.223485 0.039794 154 105 78
-200.947 -987.572 -1483.58 -0.827342 -0.0400012 0.11739 156 107 80
-202.563 -976.3 -1477.85 -0.931451 -0.269655 0.162911 154 106 78
-207.357 -961.846 -1481.62 -0.671471 -0.218066 0.178052 157 109 79
-217.821 -949.296 -1483.56 -0.0931928 -0.196963 0.945729 159 115 88
-213.443 -952.359 -1482.35 -0.0398567 -0.260931 0.916595 159 114 85
-215.122 -948.499 -1481.3 -0.151936 -0.185784 0.891147 160 114 86
-188.191 -944.142 -1482.04 -0.115592 -0.176128 0.598729 164 113 79
-232.504 -940.594 -1481.39 -0.172515 -0.245355 0.877625 155 114 90
-231.109 -931.903 -1479.34 -0.306535 -0.158232 0.87901 156 114 90
-232.83 -927.218 -1482.3 -0.483222 -0.0981024 0.835222 150 111 88
-236.143 -917.767 -1479.74 -0.322212 -0.238681 0.945445 151 111 88
-232.11 -911.86 -1482.25 -0.332241 -0.317662 0.64505 154 113 88
-230.765 -907.177 -1481.75 -0.433932 -0.502882 0.27815 159 116 90
-153.289 -1187.05 -1484.03 0.982413 0.115382 0.177619 77 62 51
-137.151 -1197.18 -1481.81 0.792436 0.369269 0.0875324 100 80 62
-156.74 -1179.86 -1479.83 0.923206 0.237792 0.250741 154 123 93
-157.553 -1175.3 -1480.58 0.932327 0.179528 0.298524 162 129 97
-160.651 -1158.57 -1480.15 0.930992 0.206897 0.31742 192 152 111
-119.155 -1189.45 -1477.74 -0.835934 0.546692 0.337843 46 42 43
-107.245 -1182.02 -1480.09 -0.686698 0.531917 0.403103 86 74 70
-103.191 -1178.69 -1481.24 -0.616178 0.648358 0.396025 104 87 80
-93.8297 -1171.1 -1480.05 -0.647053 0.537454 0.491983 177 143 120
-90.2346 -1163.67 -1479.45 -0.764928 0.337326 0.547045 193 153 124
-163.741 -1144.97 -1481.49 0.916852 0.253398 0.375225 205 164 119
-162.826 -1146.31 -1483.34 0.930373 0.229155 0.364503 201 161 115
-161.685 -1136.91 -1482.91 0.774959 0.218451 0.372061 203 161 116
-123.596 -1151.14 -1479.16 -0.91973 0.179142 -0.050469 94 73 58
-125.252 -1142.92 -1479.26 -0.991968 0.046557 -0.0131593 83 65 55
-125.489 -1131.68 -1478.61 -0.888149 -0.0297168 0.0113231 89 72 63
-144.6 -853.817 -1478.74 0.424589 0.306259 0.376691 118 84 64
-174.673 -805.965 -1484.13 0.831378 -0.157226 0.529248 144 101 72
-175.879 -793.448 -1481.11 0.818676 -0.0758726 0.566159 149 105 76
-126.712 -784.878 -1482.82 0.875899 0.080056 -0.248482 102 85 79
-119.456 -796.475 -1483.3 0.0495125 0.361653 -0.4791 108 86 77
-116.754 -788.537 -1482.07 -0.200244 0.2768 -0.483263 116 87 74
-19.6234 -880.287 -1481.7 0.918166 -0.212798 0.111387 173 124 92
-19.0136 -877.798 -1480.53 0.939263 -0.192403 0.0820256 173 125 92
-14.9626 -820.539 -1477.91 0.964127 -0.171215 -0.0126499 190 137 104
-14.3114 -808.712 -1479.34 0.974083 -0.0806983 0.118336 192 138 105
-15.0213 -803.771 -1476.66 0.96133 0.00134522 0.220313 192 137 103
-16.7679 -787.571 -1479.55 0.811699 0.282405 -0.0109625 185 130 97
-171.995 -771.434 -1482.51 0.628775 -0.10409 0.763085 129 83 60
-171.266 -770.326 -1482.73 0.609185 -0.116916 0.775486 128 83 59
-171.95 -760.251 -1478.39 0.571696 -0.295211 0.727856 136 90 66
-168.963 -760.572 -1480.09 0.56503 -0.291135 0.736021 130 85 63
-141.829 -784.588 -1479.46 0.758068 0.256494 -0.483718 112 91 84
-128.237 -781.74 -1484.37 0.891838 0.0761312 -0.349872 98 85 81
-129.398 -773.158 -1478.92 0.908256 0.238332 -0.290629 100 85 81
-149.441 -759.533 -1484.02 0.718735 0.173655 -0.548564 171 125 101
-133.14 -766.579 -1481.19 0.855474 0.269132 -0.370853 109 90 84
-135.064 -763.601 -1482.57 0.814933 0.357632 -0.383907 121 97 87
-157.614 -756.07 -1483.76 0.649572 -0.318031 0.642666 119 79 59
-155.591 -746.584 -1481.82 0.799376 -0.19613 0.460841 125 86 67
-151.868 -739.526 -1483.64 0.747903 -0.0311986 -0.0366892 148 105 83
-153.817 -735.773 -1480.81 0.783856 -0.131628 0.304894 133 92 72
-146.495 -754.825 -1478.76 0.741153 0.0773758 -0.542051 140 107 92
-145.596 -750.099 -1478.82 0.739586 -0.0295143 -0.546082 137 104 90
-137.395 -744.926 -1482.65 0.726192 -0.0104738 -0.613639 159 117 98
-147.873 -742.997 -1483.03 0.724137 0.0357341 -0.497213 156 115 95
-148.816 -736.358 -1482.32 0.691955 -0.0397717 -0.320091 147 108 88
-135.283 -741.059 -1482.05 0.690523 -0.0417455 -0.654547 154 115 97
-129.663 -734.201 -1480.32 0.64051 -0.184577 -0.753707 128 101 90
-113.184 -783.647 -1483.79 -0.290349 0.204753 -0.459747 114 87 73
-107.615 -771.244 -1481.89 -0.596848 0.162761 -0.439928 104 85 76
-104.131 -759.786 -1483.76 -0.875442 0.122837 -0.444316 105 84 75
-103.166 -756.896 -1482.02 -0.895546 0.090544 -0.419311 105 83 74
-99.0164 -748.309 -1482.4 -0.818121 -0.104186 0.00342118 113 84 69
-89.1388 -749.981 -1478.07 -0.577857 -0.344198 0.564015 116 82 67
-85.5622 -749.884 -1477.77 -0.541469 -0.43566 0.689022 121 85 69
-261.131 71.9463 -1480.77 0.535532 -0.331795 -0.581791 24 21 24
-258.77 77.463 -1483.16 0.231879 -0.192332 -0.726406 26 24 28
-263.594 88.9721 -1477.97 0.664617 -0.0154322 -0.688211 23 21 23
-252.267 73.7006 -1477.72 0.62542 -0.0795413 -0.476288 24 21 23
-252.255 83.4694 -1481.94 0.389036 -0.0703731 -0.588517 26 23 26
-250.874 90.6575 -1481.86 0.504619 0.00974471 -0.482102 26 22 25
-248.336 90.9731 -1479.52 0.611851 0.0194952 -0.425486 25 21 23
-265.743 102.637 -1477.33 0.66467 0.177227 -0.674641 22 20 21
-269.678 115.519 -1480.17 0.601034 0.219997 -0.630157 22 18 20
-265.097 118.998 -1482.24 0.645394 0.261492 -0.488089 22 18 20
-262.274 115.566 -1484.38 0.646444 0.0841972 -0.44909 24 20 22
-247.695 99.455 -1478.21 0.726769 0.0661642 -0.292795 25 21 22
-248.637 101.938 -1478.89 0.746861 0.0731668 -0.277887 25 21 21
-250.685 112.408 -1478.02 0.752676 0.0983309 -0.276493 25 21 21
-264.415 126.718 -1477.65 0.645167 0.612352 -0.435821 19 13 15
-266.797 279.394 -1479.72 -0.124909 0.652895 0.370047 155 161 171
-256.098 280.347 -1480.08 -0.0862821 0.568126 0.483119 156 163 172
-257.959 282.057 -1483.06 -0.275109 0.20976 0.393511 118 121 129
-246.371 281.917 -1480.68 -0.141954 0.0862443 0.551661 96 99 107
-157.33 304.424 -1481.89 -0.332621 0.0512935 -0.75212 152 122 99
-144.964 305.63 -1483.86 -0.268631 0.279525 -0.907971 160 127 102
-150.314 308.908 -1480.61 -0.442675 -0.138 -0.647797 154 117 91
-140.374 309.988 -1484.12 -0.360528 0.246669 -0.899761 158 125 100
-141.026 316.175 -1482.33 -0.511048 0.133085 -0.760895 154 118 95
-143.455 332.668 -1477.14 -0.582811 -0.38619 -0.634558 87 64 55
-136.621 327.544 -1482.74 -0.652958 0.0407691 -0.701239 129 100 82
-87.4307 302.437 -1478.69 0.605325 0.744795 -0.257394 194 160 136
-79.0233 298.523 -1479.19 0.547325 0.783413 -0.226597 196 164 140
-110.808 319.44 -1484.01 0.593329 0.376417 -0.637057 195 154 118
-106.032 318.047 -1480.6 0.568233 0.374409 -0.688972 196 156 121
-111.35 323.656 -1482.13 0.581822 0.325722 -0.686203 190 151 116
-106.92 324.154 -1477.5 0.536956 0.288799 -0.784159 188 151 117
-238.069 -900.658 -1474.43 -0.274274 -0.664798 0.0790452 154 115 90
-238.449 -895.046 -1472.48 -0.256927 -0.513276 0.22797 154 115 90
-209.801 -940.964 -1477.71 -0.465739 0.112796 0.628201 164 115 84
-223.801 -926.033 -1473.15 -0.2093 -0.303367 0.930738 156 112 85
-219.838 -928.735 -1474.05 -0.0889201 -0.256189 0.816317 160 114 86
-230.635 -919.955 -1474.72 -0.331082 -0.300553 0.862405 154 111 85
-215.55 -925.019 -1471.73 0.130385 -0.221252 0.642445 165 116 86
-208.753 -920.204 -1476 0.392089 -0.181982 0.564601 168 119 87
-194.275 -942.117 -1473.6 -0.183142 -0.0823506 0.600528 164 115 83
-184.987 -941.234 -1473.26 0.000168691 -0.101628 0.7288 167 118 85
-178.674 -939.543 -1475.2 0.12011 -0.0848325 0.618764 161 114 82
-210.805 -917.031 -1472.72 0.489326 -0.0868225 0.608984 165 116 85
-204.61 -907.246 -1472.6 0.339516 -0.246181 0.797213 165 117 84
-201.438 -905.083 -1473.81 0.375908 -0.282651 0.810773 167 120 86
-198.584 -899.63 -1473.36 0.447685 -0.279589 0.771616 172 124 90
-192.776 -894.892 -1475.94 0.653554 -0.252563 0.675801 176 128 93
-239.564 -888.99 -1476.12 -0.355445 -0.502715 0.124 156 118 93
-234.339 -876.958 -1472.37 -0.498006 -0.143783 0.528035 166 121 92
-233.14 -865.854 -1473.53 -0.704322 -0.184587 0.227247 169 120 89
-233.587 -859.084 -1475.52 -0.83628 -0.0348251 0.243946 170 119 86
-249.654 -846.786 -1472.21 -0.0676223 -0.157004 0.727988 155 116 91
-248.734 -838.938 -1472.65 -0.50742 0.0105733 0.537039 163 119 89
-234.093 -851.458 -1471.44 -0.735204 -0.0492172 0.418 167 119 86
-239.436 -843.917 -1473.21 -0.687411 -0.133996 0.275832 166 118 85
-71.5582 -1050 -1473.06 -0.638499 0.164745 -0.417762 149 106 79
-74.5914 -1000.15 -1476.17 -0.753722 0.19345 -0.437342 148 108 87
-63.5031 -1103.08 -1475.75 -0.967329 0.0623481 -0.124456 173 126 93
-45.1994 -1100.36 -1472.92 -0.655572 -0.00634962 -0.20003 157 117 90
-64.6989 -1085.89 -1471.68 -0.927112 -0.121232 -0.0436957 167 121 89
-67.4304 -1079.31 -1472.73 -0.850346 -0.19214 -0.0157265 164 118 86
-39.9185 -1084.39 -1471.47 -0.528984 0.0207998 -0.314333 155 113 85
-33.2852 -1084.58 -1478.36 -0.835102 -0.0154132 -0.172947 159 114 84
-68.8148 -1076.38 -1471.95 -0.812705 -0.195052 -0.123674 165 119 87
-69.6649 -1049.8 -1476.59 -0.681276 0.180165 -0.338421 149 105 78
-64.9305 -1033.88 -1473.49 -0.806513 0.306185 -0.501288 150 104 74
-61.3554 -1029.98 -1476.92 -0.857673 0.302748 -0.409952 150 104 75
-58.5818 -1018.94 -1475.33 -0.877926 0.178351 -0.409055 154 108 80
-57.4457 -1009.05 -1474.79 -0.952551 0.0790661 -0.290525 156 110 82
-66.7125 -999.608 -1476.62 -0.765566 0.0960809 -0.32014 153 109 84
-56.4832 -1004.8 -1477.37 -0.934025 0.0813263 -0.214974 156 109 82
-43.7467 -1001.08 -1476.61 -0.0401417 -0.10093 -0.07091 156 110 83
65.8003 -1187.13 -1470.67 0.20774 0.975796 0.00910742 75 73 70
72.8402 -1190.61 -1474.94 0.182101 0.973784 0.0122313 60 58 56
44.061 -1180.99 -1473.65 0.21395 0.961565 0.0346281 43 42 41
52.4044 -1181.96 -1471.23 0.176847 0.986951 -0.0113314 57 55 54
65.6018 -453.322 -1476.48 0.9228 0.0802547 -0.17408 175 178 191
65.8925 -447.04 -1477.09 0.925028 0.0725399 -0.261112 173 175 189
60.38 -419.561 -1473.55 0.897978 0.361065 -0.0452859 178 182 195
57.5648 -415.564 -1475.9 0.857994 0.424363 -0.18405 182 187 201
63.4909 -426.756 -1473.48 0.949828 0.229988 0.0568997 179 182 195
54.974 -409.918 -1472.13 0.879162 0.453253 -0.111726 173 179 193
46.6839 -389.972 -1477.17 0.859551 0.359166 -0.209754 160 164 175
46.835 -387.002 -1473.49 0.860145 0.302747 -0.275007 154 158 169
44.2027 -381.694 -1474.65 0.889643 0.244437 -0.195697 144 148 158
43.7195 -368.816 -1476.27 0.965454 -0.0580359 -0.0371537 148 151 161
46.0598 -365.076 -1473.17 0.896812 -0.0706185 -0.269207 145 147 157
-342.675 31.6836 -1473.43 -0.723928 -0.565824 -0.369728 40 38 44
-345.029 34.4823 -1474.1 -0.720512 -0.553279 -0.398069 39 38 45
-358.923 41.1237 -1471.21 -0.734254 -0.596665 -0.308117 39 37 44
-330.831 18.5107 -1470.69 -0.736245 -0.611226 -0.284646 37 36 43
-332.415 22.5502 -1477.26 -0.722969 -0.621111 -0.305308 37 36 43
-265.597 58.967 -1471.4 0.574557 -0.693395 -0.240646 22 19 22
-269.89 62.6409 -1472.85 0.6053 -0.635073 -0.461074 21 19 21
-259.177 65.1811 -1476.86 0.652352 -0.486021 -0.442639 22 19 22
49.1876 -294.186 -1477.86 0.832997 -0.187268 -0.514599 32 31 39
51.4216 -296.161 -1472.47 0.862436 -0.0989549 -0.47375 31 30 37
53.3447 -279.234 -1473.67 0.862599 -0.107023 -0.466038 27 26 34
55.9109 -275.945 -1471.2 0.832301 -0.210894 -0.465853 26 25 33
60.098 -268.075 -1474.13 0.720696 -0.416962 -0.524307 31 30 38
64.3009 -260.721 -1472.44 0.810987 -0.240158 -0.298116 41 40 48
63.0905 -249.109 -1475.03 0.815498 0.370906 -0.136884 43 43 51
56.9619 -242.182 -1473.48 0.63178 0.697068 -0.11495 43 43 51
49.6453 -236.777 -1471.41 0.607192 0.66513 -0.346521 41 41 49
45.9937 -229.725 -1471.58 0.743207 0.329058 -0.485587 39 40 48
40.5102 -221.682 -1476.12 0.816175 0.279639 -0.363686 38 40 47
41.6661 -217.333 -1473.51 0.762517 0.209133 -0.565959 37 39 46
42.3526 -210.949 -1471.13 0.670504 0.273954 -0.682928 37 39 46
-158.204 339.221 -1473.62 -0.586998 -0.616522 -0.522128 58 46 42
-156.514 338.73 -1474.68 -0.55001 -0.621781 -0.569464 61 47 43
-167.008 347.392 -1477.6 -0.691072 -0.563701 -0.131608 32 30 32
-172.156 355.498 -1476.47 -0.700939 -0.396804 0.335765 35 31 33
-176.227 362.089 -1474.97 -0.53305 -0.542766 0.474178 28 25 30
-113.411 346.854 -1476.47 0.579235 0.213387 -0.798109 80 63 56
-106.194 337.183 -1471.1 0.619151 0.269393 -0.736516 119 93 75
-110.579 349.538 -1473.39 0.591524 0.179237 -0.79455 70 55 52
-104.656 357.521 -1475.36 0.502992 -0.15518 -0.830757 57 47 49
-100.951 359.354 -1475.74 0.487987 -0.233908 -0.818253 59 48 50
-91.4792 363.134 -1477.83 0.635129 -0.319678 -0.255651 49 41 43
-80.5393 364.555 -1474.07 0.741151 -0.412038 0.178058 36 30 37
-71.2989 372.885 -1475.87 0.578174 -0.379257 0.527343 35 29 35
-62.977 293.08 -1472.53 0.36482 0.922659 0.00920218 208 167 130
-43.7634 283.506 -1474.79 0.673911 0.0985703 0.720033 128 115 101
-48.181 287.91 -1473.81 0.642714 0.111123 0.601093 207 172 137
-42.9564 281.552 -1473.78 0.63219 0.216247 0.716555 85 85 83
-23.7956 282.46 -1477.55 0.237842 0.555111 0.0558595 124 120 119
-12.7236 285.544 -1471.87 0.403191 0.39185 -0.0776865 141 134 131
-141.142 -809.261 -1475.06 0.53827 0.167749 -0.292643 121 93 77
-139.886 -803.656 -1472.29 0.600582 0.143383 -0.18815 119 91 77
-140.882 -797.962 -1477.51 0.685418 0.205729 -0.3545 116 92 80
-142.417 -793.024 -1481.3 0.755246 0.21334 -0.416058 116 94 83
-143.426 -785.62 -1483.1 0.777299 0.25323 -0.508365 116 95 86
-225.004 439.523 -1472.47 -0.598131 -0.0804455 -0.67675 67 60 63
-205.533 430.741 -1473.85 -0.496782 0.0737869 -0.84664 30 28 34
-210.834 432.532 -1474.63 -0.524435 0.00167243 -0.826367 30 29 35
-213.765 439.055 -1480.37 -0.536209 -0.0129887 -0.782639 33 31 37
-227.928 -911.513 -1470.61 -0.286467 -0.312502 0.599707 160 113 86
-223.47 -906.536 -1467.5 0.0345892 -0.113697 0.821988 158 113 86
-220.764 -905.253 -1466.49 0.182171 -0.0300107 0.842524 159 113 85
-212.519 -910.317 -1469.79 0.488766 -0.023553 0.666621 162 114 83
-223.112 -902.258 -1466.41 0.124906 -0.0369379 0.890043 157 113 86
-221.212 -897.31 -1464.44 0.0225034 0.0401587 0.829022 159 113 85
-220.261 -892.918 -1464.39 0.0141442 -0.0145567 0.895294 161 115 85
-206.971 -899.988 -1468.44 0.301314 -0.169552 0.836102 166 119 87
-212.106 -897.254 -1463.73 0.284894 -0.00415233 0.875178 166 119 87
-200.706 -893.928 -1469.07 0.3575 -0.233974 0.831012 174 126 93
-234.618 -888.538 -1468.36 -0.296559 -0.0622234 0.740932 158 116 90
-233.311 -877.554 -1469.67 -0.442279 -0.0742372 0.65386 165 119 91
-248.81 -850.638 -1470.74 0.260768 -0.205434 0.866848 147 113 92
-250.657 -849.611 -1471.04 0.218374 -0.198417 0.858828 147 113 92
-242.986 -845.547 -1469.6 -0.143702 -0.10138 0.784816 154 115 90
-241.845 -848.735 -1470.58 -0.1098 -0.154175 0.723874 156 116 90
-242.366 -838.78 -1467.62 -0.342666 -0.0639569 0.806842 157 118 91
-224.819 -889.1 -1464.79 -0.210763 -0.0625037 0.966952 159 112 84
-212.419 -890.652 -1464.35 0.182662 -0.067786 0.949743 169 123 91
-228.639 -872.566 -1466.06 -0.427954 -0.0147474 0.647306 165 117 87
-201.734 -887.637 -1465.65 0.280265 -0.216851 0.900907 175 128 95
-198.272 -878.585 -1466.37 0.441867 -0.080232 0.836898 176 129 95
-194.565 -877.419 -1470.2 0.626136 -0.029087 0.71291 178 130 96
-193.839 -876.367 -1471.24 0.679928 0.00941911 0.673917 179 131 96
-196.086 -870.541 -1469.95 0.672491 0.165359 0.685557 179 132 97
-22.3798 -753.525 -1466.34 0.949122 0.0697849 0.156934 181 126 94
-22.7157 -750.732 -1466.58 0.913148 0.0189837 0.244452 175 122 90
-24.0063 -735.558 -1464.49 0.915859 -0.0175547 0.354235 155 108 82
-21.5609 -725.349 -1469.19 0.964416 -0.0588879 0.235321 162 114 88
-21.5826 -721.046 -1467.95 0.966116 -0.0681786 0.229354 158 112 87
-16.9935 -705.003 -1471.3 0.903075 -0.426461 -0.105188 167 140 134
-14.117 -699.276 -1470.22 0.883586 -0.444027 -0.0212679 162 139 137
-13.188 -697.615 -1470.07 0.878581 -0.449732 -0.00334648 162 140 138
-2.15481 -685.928 -1470.2 0.693176 -0.705336 -0.0173496 176 175 189
7.92224 -678.689 -1468.62 0.586548 -0.804494 0.0587922 176 178 191
-276.011 -179.109 -1468.83 -0.866399 0.101152 -0.0662045 36 35 44
-276.824 -171.161 -1469.36 -0.841961 0.290962 -0.315223 38 38 47
-270.024 -165.391 -1470.11 -0.601052 0.5884 -0.489117 36 37 47
-266.225 -157.804 -1464.37 -0.632623 0.521327 -0.407862 37 38 47
-256.967 -149.061 -1470.52 -0.883106 0.27697 -0.361483 35 35 44
-467.942 45.0846 -1468.65 -0.106865 -0.974222 0.19247 32 34 42
-454.323 45.177 -1465.81 -0.103964 -0.977631 0.184219 30 33 41
-447.441 44.1626 -1466.32 -0.123033 -0.974428 0.18941 28 31 38
-416.987 38.2979 -1466.04 -0.170448 -0.934948 0.301419 35 37 49
-416.388 38.2868 -1464.8 -0.169681 -0.93438 0.303482 35 38 49
-395.774 34.9177 -1465.64 -0.189951 -0.894988 0.281042 33 35 46
-439.682 42.5088 -1468.67 -0.152405 -0.963507 0.214073 29 31 40
-427.955 40.6803 -1465.7 -0.178582 -0.942929 0.271259 32 33 44
