ply
format ascii 1.0
comment Created by Open3D
element vertex 729
property double x
property double y
property double z
property double nx
property double ny
property double nz
property uchar red
property uchar green
property uchar blue
end_header
1274.67 -395.56 -1370.97 -0.173778 0.0890396 0.943672 52 52 63
1292.05 -403.329 -1371.23 0.0551866 0.117079 0.979923 47 46 55
1296.3 -401.411 -1371.61 0.115656 0.116423 0.97178 48 47 55
1288.59 -393.81 -1371.82 0.055267 0.0908596 0.989208 51 50 59
1299.09 -396.287 -1372.66 0.156947 0.10921 0.967943 49 48 57
1276.21 -387.809 -1373.15 -0.0372969 0.199561 0.964744 51 50 61
1283.95 -388.33 -1372.9 0.0244063 0.129408 0.983399 49 48 57
1280.38 -382.605 -1374.15 0.017269 0.0411115 0.981945 42 40 50
1287.66 -385.71 -1373.27 0.0145016 0.0984154 0.990119 47 45 53
1294.25 -391.154 -1372.64 0.0646762 0.100923 0.987306 50 49 58
1298.68 -390.031 -1373.24 0.102405 0.0732926 0.982903 50 49 58
1289.69 -380.797 -1373.93 0.000677345 0.0702499 0.997173 42 40 48
1297.91 -380.957 -1373.93 0.04133 0.0454613 0.99228 43 41 49
1267.11 0.754037 -1374.8 -0.39892 -0.0907342 0.913664 233 231 249
1265.96 8.71639 -1374.42 -0.389959 -0.0766007 0.916591 232 230 248
1269.13 7.92263 -1373.61 -0.340885 -0.0611326 0.934207 231 229 248
1270.51 14.2662 -1373.45 -0.284295 0.0078901 0.951526 230 228 248
1269.21 21.0113 -1374.52 -0.264238 0.148386 0.947143 230 228 247
746.32 252.957 -1372.43 -0.113055 -0.629824 0.755496 197 172 161
749.539 251.598 -1373.11 -0.113743 -0.651788 0.732761 193 169 158
758.529 248.949 -1374.23 -0.0844202 -0.708093 0.687378 188 167 154
742.01 259.445 -1368.55 -0.0982009 -0.571771 0.825086 216 187 174
746.94 254.973 -1370.92 -0.105144 -0.586991 0.794317 204 178 166
750.816 257.621 -1369.21 -0.061784 -0.497874 0.855894 215 187 175
756.883 255.326 -1370.33 -0.0647437 -0.514627 0.836787 210 184 172
807.137 240.034 -1372.75 -0.195655 -0.635775 0.736586 191 164 152
766.199 251.464 -1370.86 -0.126503 -0.638258 0.745562 203 179 167
768.679 246.55 -1374.81 -0.127865 -0.755643 0.638087 183 163 150
774.583 246.446 -1373.3 -0.134034 -0.757334 0.651815 186 167 152
784.11 245.722 -1373.46 -0.0734178 -0.637909 0.752028 192 173 157
776.153 246.542 -1372.95 -0.117022 -0.749125 0.661961 188 168 154
782.08 246.824 -1372.51 -0.0491052 -0.659483 0.736823 196 176 160
789.971 253.64 -1370.12 0.116011 -0.407726 0.894393 225 199 184
794.534 245.861 -1373.29 -0.100105 -0.459763 0.866267 199 177 161
796.342 243.788 -1373.77 -0.136476 -0.50381 0.829969 192 169 153
791.319 246.701 -1372.92 -0.060284 -0.490387 0.851975 201 180 164
802.108 253.019 -1370.53 -0.111152 -0.279424 0.953953 224 198 183
803.47 242.888 -1372.63 -0.188959 -0.535855 0.799715 193 168 153
810.188 242.441 -1371.08 -0.209914 -0.538471 0.794887 205 179 167
812.568 246.443 -1368.15 -0.265715 -0.423155 0.869777 220 194 182
795.165 254.236 -1370.53 0.0360468 -0.343454 0.936575 227 201 185
795.337 259.027 -1369.13 0.114442 -0.318295 0.938085 239 211 197
798.159 260.672 -1368.74 0.109893 -0.268286 0.945108 243 215 201
804.472 259.679 -1368.86 0.00342776 -0.167921 0.952658 243 214 200
802.289 264.422 -1368.47 0.274142 -0.139494 0.922956 252 225 210
812.015 262.084 -1369.35 6.27237e-05 0.0991061 0.942269 248 219 205
731.551 279.972 -1368.06 0.0580771 0.326169 0.920325 240 211 197
717.154 290.293 -1370.1 0.413474 0.438177 0.792532 236 207 193
722.373 281.798 -1368.47 0.440418 0.386009 0.815911 240 210 196
729.308 284.996 -1370.7 0.125089 0.406439 0.885116 240 211 197
721.548 290.092 -1372.9 0.439729 0.424513 0.788404 240 211 197
734.951 291.554 -1373.2 -0.0641648 0.499844 0.854701 228 201 188
735.408 283.022 -1368.44 -0.0903965 0.396502 0.913717 240 211 197
740.527 290.208 -1372.32 0.0262246 0.568984 0.801477 233 204 191
736.118 292.664 -1373.8 -0.0446738 0.531289 0.830399 226 199 186
746.835 289.386 -1372.21 0.121376 0.65192 0.73909 234 205 191
758.397 282.542 -1369.31 0.214818 0.474557 0.835634 248 219 205
752.786 288.424 -1372.91 0.176777 0.694537 0.693844 236 207 193
759.735 288.563 -1374.89 0.163379 0.715522 0.679954 240 211 197
712.341 293.649 -1369.01 0.345971 0.428147 0.815813 229 201 187
1162.53 -1165.4 -1372.42 -0.217185 -0.778143 0.0130045 99 94 93
1163.83 -1164.34 -1379.52 -0.126799 -0.793346 0.0524224 102 96 95
1183.9 -1170.14 -1365.59 -0.358141 -0.888481 -0.125153 96 95 93
1191.42 -1173.61 -1366.75 -0.297292 -0.892176 -0.151856 102 101 99
1199.75 -1175.11 -1365.44 0.056997 -0.98842 -0.0279785 108 106 104
1207.43 -1173.88 -1367.54 0.146853 -0.993817 -0.0950791 173 169 167
1211.38 -1173.33 -1365.12 0.153642 -0.986886 -0.0969034 187 181 179
1216.96 -1172.65 -1362 0.175074 -0.976823 -0.112212 182 172 167
1222.31 -1171.48 -1360.99 0.243583 -0.954412 -0.129801 176 161 156
1231.99 -1167.1 -1364.21 0.461465 -0.868721 -0.131444 187 165 157
1239.79 -1163.6 -1361.86 0.468036 -0.837923 -0.239214 186 165 156
1241.58 -1162.03 -1363.03 0.464387 -0.836924 -0.232264 187 166 157
1284.87 -1174.48 -1365.26 0.00790305 -0.978101 -0.0209123 153 145 139
1279.14 -1172.82 -1366.73 -0.140832 -0.95766 0.00707136 153 145 140
1285.44 -1169.53 -1362.04 0.0453895 -0.980674 0.0191907 145 140 136
1283.75 -1164.96 -1367.2 0.156708 -0.903116 -0.124914 152 135 127
1288.96 -1171.3 -1361.85 0.0630557 -0.979756 -0.0118476 152 147 142
1295.99 -1172.84 -1368.38 0.215689 -0.904991 -0.28451 164 145 135
1292.54 -1162.85 -1363.52 0.238046 -0.905035 -0.156175 162 147 139
1251.03 -1158.66 -1364.06 0.344525 -0.896851 -0.244303 188 167 158
1259.19 -1156.23 -1364.15 0.339732 -0.893456 -0.26098 187 166 156
1264.64 -1154.93 -1362.09 0.482619 -0.800252 -0.340098 185 165 154
1271.18 -1148.66 -1365.87 0.463449 -0.803583 -0.347135 179 158 149
1273.59 -1147.32 -1365.31 0.392869 -0.842729 -0.326395 175 154 145
1286.4 -296.129 -1366.79 -0.22228 0.0214016 0.962061 23 21 29
1286.61 -285.841 -1367.87 -0.181703 0.205822 0.961504 22 20 28
1294.22 -299.132 -1365.55 -0.158524 0.0430991 0.974007 23 22 29
1295.12 -293.514 -1365.65 -0.123963 0.0379124 0.983086 23 22 29
1294.04 -287.205 -1366.57 -0.15985 0.12421 0.970203 24 22 29
1299 -286.471 -1365.12 -0.212496 0.0746275 0.957491 24 23 30
1290.3 -284.692 -1367.57 -0.184861 0.195779 0.96098 23 21 29
1296.65 -281.897 -1366.69 -0.253226 0.160913 0.944678 25 24 31
1294.45 -273.572 -1367.45 -0.36884 0.0602577 0.916882 24 23 30
1302.61 -324.786 -1364.22 -0.0312813 0.0418282 0.982092 20 19 27
1308.08 -321.722 -1363.32 -0.017574 0.0267416 0.991543 20 19 26
1301.51 -318.624 -1363.87 -0.0265263 -0.0375674 0.996648 21 20 27
1308.47 -313.921 -1363.21 -0.0309734 0.0266384 0.996558 21 20 27
1315.88 -320.514 -1362.23 -0.0753487 -0.00216014 0.988586 20 19 26
1316.01 -318.469 -1362.17 -0.0886762 -0.0286577 0.993316 20 19 26
1306.61 -305.643 -1363.38 -0.118336 0.0480488 0.979531 22 21 28
1311.2 -307.525 -1362.63 -0.137329 0.0264982 0.980154 22 21 28
1304.56 -304.851 -1363.75 -0.111469 0.0547733 0.980035 22 21 28
1307.66 -299.236 -1362.91 -0.198903 -0.0236017 0.964515 22 21 28
1331.08 -325.812 -1361.92 -0.0413364 0.0460684 0.983371 20 19 26
1306.29 -298.01 -1363.24 -0.191058 -0.0208024 0.96569 22 21 28
1307.41 -290.388 -1361.66 -0.358941 -0.111265 0.924572 22 21 28
1301.55 -288.405 -1364.22 -0.221898 0.0221743 0.956318 23 22 29
1302.13 -282.788 -1363.91 -0.30912 0.0550909 0.931357 24 23 30
1286.6 -258.689 -1367.69 -0.416522 -0.120724 0.872244 18 18 25
1299.34 -270.379 -1365.33 -0.341134 0.0278702 0.9284 23 22 29
1290.87 -264.389 -1367.67 -0.424872 -0.0665704 0.889865 20 20 27
1298.74 -261.148 -1365.19 -0.286578 -0.0129643 0.943075 21 20 27
1291.29 -255.777 -1366.44 -0.345714 -0.0396496 0.907396 18 18 25
1297.32 -256.779 -1365.43 -0.283736 -0.00894042 0.938449 20 19 26
1293.38 -249.346 -1366.28 -0.282474 0.0911895 0.940835 20 19 27
1295.86 -250.321 -1365.63 -0.264657 0.0522399 0.945995 20 19 26
792.033 267.478 -1365.8 0.179073 -0.20642 0.950336 252 223 210
800.524 269.152 -1367.34 0.341338 -0.0966895 0.914296 255 229 215
794.098 273.671 -1365.42 0.218749 -0.0518939 0.932128 255 227 213
797.688 279.67 -1367.3 0.305147 0.238485 0.834165 253 225 210
821.894 242.275 -1367.07 -0.166838 -0.589239 0.794753 221 194 184
823.586 244.08 -1366.41 -0.125266 -0.496229 0.818117 224 197 186
817.405 249.81 -1366.76 -0.228661 -0.211746 0.901975 230 202 190
827.666 248.036 -1366.08 0.0435966 -0.296907 0.83939 231 203 191
831.738 247.397 -1366.7 0.283234 -0.407079 0.77378 230 202 189
816.953 256.428 -1367.82 -0.155155 0.135573 0.949887 241 211 197
833.595 253.583 -1367.39 0.384658 -0.0530696 0.815661 238 209 197
1351.27 322.285 -1367.72 -0.0917172 -0.313852 0.935298 132 91 83
1343.69 328.075 -1365.1 0.00676351 -0.505692 0.860333 163 120 111
1351.54 332.799 -1362.8 0.113819 -0.440774 0.866877 149 105 97
1330.57 336.762 -1363.67 -0.455422 -0.270325 0.808144 129 93 80
1332.41 342.671 -1362.01 -0.3985 -0.0736879 0.856293 135 97 85
1353.1 336.508 -1361.53 0.145308 -0.420545 0.884408 143 98 91
1317.88 353.108 -1366.89 -0.435035 -0.19814 0.83337 186 150 139
1325.76 352.126 -1365.8 -0.194765 -0.124738 0.933981 179 142 132
1316.2 358.799 -1366.55 -0.451942 -0.158075 0.830941 186 150 139
1321.11 354.806 -1366.17 -0.270593 -0.167269 0.900891 185 149 139
1312.42 371.544 -1366.2 -0.357467 -0.193 0.893367 185 150 137
1319.72 364.281 -1365.52 -0.246524 -0.116828 0.918221 181 145 135
1327.98 364.588 -1364.71 -0.0588825 -0.0991428 0.980387 185 146 136
1319.25 369.788 -1364.94 -0.196034 -0.123797 0.950476 177 140 130
1326.91 370.975 -1363.75 -0.132434 -0.119176 0.964911 166 127 119
1333.26 347.452 -1362.9 -0.293338 0.124857 0.904389 158 119 107
1339.65 352.329 -1361.66 -0.264067 0.130394 0.915722 180 138 126
1328.52 356.96 -1365.09 -0.085578 -0.0669423 0.968894 188 149 139
1336.41 361.624 -1362.9 -0.260203 -0.098138 0.919835 185 142 130
1328.68 363.935 -1364.65 -0.0681086 -0.0978984 0.977226 186 147 136
1329.83 367.151 -1363.99 -0.123241 -0.128989 0.96363 179 139 129
1299.96 419.264 -1364.45 -0.718644 -0.3945 0.561649 108 81 72
1297.7 421.75 -1365.68 -0.70851 -0.382479 0.585191 103 76 68
1306.29 376.445 -1367.46 -0.400731 -0.207787 0.892376 199 165 148
1308.56 375.614 -1366.74 -0.373105 -0.202526 0.902965 194 160 144
1312.69 384.164 -1365.18 -0.289917 -0.0401454 0.947653 176 142 130
1320.32 380.701 -1363.58 -0.163395 -0.0847302 0.967281 157 121 114
1323.22 376.721 -1363.45 -0.146048 -0.115652 0.967449 157 121 113
1319.17 382.744 -1363.86 -0.182694 -0.0499962 0.965707 159 124 116
1325.09 383.06 -1363.37 -0.106949 -0.00988433 0.974209 149 112 108
1312.79 387.679 -1365.46 -0.281254 0.0280045 0.951707 174 140 129
1310.18 394.637 -1367.46 -0.270679 0.14638 0.948121 178 143 130
1319.55 389.071 -1364.41 -0.173324 0.0672358 0.968365 157 122 116
1324.1 392.332 -1363.37 -0.172882 0.0217255 0.954722 148 113 109
1318.27 397.279 -1364.95 -0.258561 0.0624744 0.934225 157 123 116
1331.26 376.791 -1362.31 -0.192325 -0.0716297 0.951124 146 105 100
1335.11 380.893 -1362.29 -0.157836 0.0474211 0.953246 143 100 97
1334.32 381.319 -1362.6 -0.120918 0.0513662 0.961662 142 100 97
1330.56 391.229 -1362.3 -0.085314 -0.124731 0.953198 145 107 106
1313.45 402.398 -1365.63 -0.329011 -0.0537185 0.861417 159 125 117
1308.03 410.015 -1363.13 -0.549844 -0.492593 0.624872 134 104 93
1304.91 410.556 -1366.22 -0.550069 -0.328623 0.70236 138 107 95
1301.62 418.053 -1363.07 -0.719123 -0.416388 0.542098 110 83 74
1179.88 -1169.85 -1358.74 -0.0604374 -0.958743 -0.0121303 13 12 12
1191.43 -1173.15 -1357.73 0.00802191 -0.994315 0.0129554 34 34 34
1195.6 -1173.63 -1355.1 0.0564809 -1.00732 0.0497556 56 56 55
1199.59 -1174.27 -1357.18 0.0891392 -1.00713 0.0711249 110 109 106
1209.18 -1173.9 -1356.45 0.100918 -0.998117 0.0153233 176 172 168
1218.21 -1172.65 -1359.45 0.17104 -0.976569 -0.101706 177 166 161
1220.4 -1172.29 -1359.31 0.195269 -0.969969 -0.119646 173 160 155
1231.83 -1168.74 -1359.13 0.397418 -0.89363 -0.187992 178 157 149
1234.34 -1167.11 -1360.53 0.457184 -0.861667 -0.198686 185 163 154
1244.11 -1162.07 -1360.92 0.416658 -0.855487 -0.297836 187 166 157
1287.99 -1168.36 -1360.16 0.0605923 -0.990412 0.0406247 149 146 143
1294.37 -1170.95 -1360.19 0.0826106 -0.970034 -0.0535814 168 162 157
1293.53 -1164.09 -1360.28 0.178624 -0.942934 -0.0851892 166 155 149
1299.13 -1163.37 -1357.12 0.137022 -0.945714 -0.0920328 174 164 156
1248.71 -1160.86 -1359.63 0.362918 -0.881538 -0.305053 186 165 156
1264.93 -1156.34 -1357.39 0.446577 -0.817992 -0.329661 182 162 150
1266.88 -1154.57 -1360.25 0.534192 -0.76515 -0.367452 184 163 152
1270.01 -1153.92 -1357.13 0.509302 -0.776181 -0.365829 180 159 147
1324.84 -320.003 -1361.22 -0.0902806 -0.0992325 0.994524 19 17 24
1323.32 -318.634 -1361.16 -0.113178 -0.0937493 0.991893 19 18 25
1318.61 -310.226 -1361.19 -0.165453 -0.0253961 0.98285 21 20 27
1322.47 -311.71 -1360.68 -0.134192 -0.0580673 0.986475 20 19 26
1326.07 -302.263 -1359.11 -0.167406 -0.0615458 0.974387 21 20 26
1328.08 -320.369 -1361.22 -0.0543493 -0.108286 1.00026 18 17 24
1330.13 -313.191 -1360.04 -0.068633 -0.11991 0.99097 20 19 25
1340.8 -319.127 -1360.51 -0.0574302 -0.0912458 0.990207 19 18 26
1344.52 -325.773 -1360.43 -0.154861 0.234041 0.91224 22 21 30
1351.77 -321.747 -1358.22 -0.190142 0.112845 0.910591 20 19 29
1347.73 -316.453 -1358.97 -0.136114 -0.0795412 0.965664 19 18 28
1354.95 -316.449 -1357.07 -0.237838 -0.0905794 0.947716 19 18 29
1333.3 -305.622 -1358.25 -0.12041 -0.144288 0.974974 21 20 27
1339.07 -311.801 -1359.04 -0.0598497 -0.17786 0.988821 20 19 27
1330.12 -304.302 -1358.62 -0.140724 -0.108186 0.974734 21 20 27
1337.45 -302.583 -1357.57 -0.104238 -0.132983 0.97474 21 20 28
1344.54 -310.058 -1358.34 -0.0781757 -0.18132 0.987558 20 19 28
1353.75 -306.289 -1356 -0.219317 -0.123489 0.966801 21 20 30
1345.17 -300.061 -1356.53 -0.0706694 -0.133927 0.981033 21 20 30
1349.19 -303.395 -1356.65 -0.113105 -0.14985 0.981527 21 20 30
1313.76 -291.644 -1360.17 -0.226601 -0.113927 0.953767 21 20 27
1319.88 -298.188 -1359.95 -0.178442 -0.0481308 0.973575 21 20 26
1324.34 -296.437 -1359.33 -0.155745 -0.0154048 0.973699 20 19 26
1317.43 -286.09 -1359.4 -0.143435 -0.0556435 0.956404 21 20 27
1324.96 -286.18 -1359.21 -0.0433952 0.00383122 0.974513 20 19 26
1314.36 -283.879 -1359.54 -0.222259 -0.0498723 0.935521 22 21 28
1313.97 -276.262 -1359.55 -0.246689 0.0801097 0.912438 23 22 29
1317.27 -284.272 -1359.34 -0.138997 -0.0426771 0.950893 22 21 28
1326.7 -282.437 -1359.31 -0.0262806 0.0380729 0.966876 21 20 27
1315.68 -276.779 -1359.31 -0.195313 0.0720084 0.92136 23 22 29
1326.34 -273.033 -1359.77 0.0052272 0.110083 0.958552 22 21 29
1328.16 -295.777 -1358.65 -0.142285 -0.0181504 0.972034 20 19 26
1335.38 -298.927 -1357.36 -0.131624 -0.0755188 0.968923 21 20 27
1330.43 -286.724 -1358.89 -0.0928876 0.0631973 0.968756 20 19 27
1337.2 -289.356 -1357.6 -0.142034 0.0749339 0.964482 20 19 28
1353.46 -297.594 -1355.22 -0.14735 -0.0789936 0.978625 21 20 30
1346.72 -286.333 -1356.21 -0.137024 0.0589858 0.971642 21 20 31
1351.09 -290.57 -1355.25 -0.104812 -0.00311818 0.981129 21 20 30
1332.77 -282.411 -1359.06 -0.0867664 0.0796039 0.967215 21 20 28
1342.34 -278.99 -1357.74 -0.181237 0.100575 0.963639 23 22 31
1334.67 -277.72 -1359.32 -0.0793132 0.0863915 0.967964 22 21 29
1338.55 -278.115 -1358.58 -0.134096 0.0924135 0.965924 22 21 30
1346.83 -279.92 -1356.85 -0.163951 0.0978843 0.970069 22 21 32
1349.92 -279.566 -1356.4 -0.148467 0.103348 0.97482 22 21 32
1344.4 -276.444 -1357.64 -0.186537 0.0961562 0.966979 23 22 31
1352 -277.888 -1356.32 -0.144884 0.102421 0.977745 22 21 31
1324.6 498.703 -1359.92 -0.111316 0.409452 0.905409 107 80 67
1356.22 -319.635 -1357.02 -0.248741 0.00422911 0.926574 20 19 29
1359.28 -317.911 -1355.9 -0.290985 -0.0893879 0.938931 20 19 29
1356.29 -312.731 -1355.97 -0.267798 -0.158047 0.952959 20 19 29
1399.97 -319.97 -1356.72 0.395483 -0.0195425 0.905935 19 18 29
1406.42 -320.039 -1359.85 0.430594 -0.0605376 0.894149 18 17 29
1407.5 -326.174 -1361.08 0.406174 0.0237026 0.891 16 15 27
1398.32 -315.504 -1355.54 0.363884 -0.040773 0.925394 17 16 28
1402.57 -318.161 -1357.83 0.403905 -0.0164051 0.902166 19 18 29
1400.18 -310.296 -1356.05 0.364337 -0.0460416 0.924811 17 16 28
1404.07 -306.533 -1357.67 0.382854 -0.0333016 0.909498 19 18 29
1396.85 -303.512 -1354.91 0.231871 0.0310499 0.962732 19 18 30
1403.41 -301.717 -1356.51 0.309721 -0.0920202 0.9281 20 19 30
1357.59 -282.293 -1355.1 -0.13133 0.117912 0.979469 22 21 31
1357.71 -272.42 -1355.86 -0.150394 0.0531212 0.984008 21 20 30
1366.95 -275.367 -1354.72 -0.104353 0.0673462 0.987723 22 21 31
1406.4 -295.573 -1356.33 0.292419 -0.163208 0.924014 20 19 30
1402.98 -286.584 -1354.97 0.211265 -0.0176383 0.964746 26 25 34
1383.09 -274.994 -1354.72 0.0594482 0.0681074 0.990831 20 19 29
1400.22 -282.051 -1354.8 0.185163 0.0695063 0.964131 24 23 32
1407.62 -282.738 -1357.8 0.324746 0.0679747 0.928523 23 22 32
1398.38 -274.914 -1355.68 0.152429 0.131498 0.959183 20 19 29
1407.63 -277.801 -1358.73 0.338587 0.128607 0.924912 21 20 31
1415.39 -300.128 -1360.6 0.325869 -0.279963 0.90446 20 19 30
1413 -295.518 -1359.09 0.3473 -0.194133 0.902247 19 18 30
1418.62 -292.082 -1361.55 0.429751 -0.0454177 0.88145 18 17 29
1414.48 -292.306 -1359.73 0.396624 -0.0838391 0.89066 19 18 29
1411.05 -282.307 -1359.51 0.363913 0.0860139 0.915708 22 21 31
1410.56 -272.696 -1360.82 0.345163 0.124671 0.927022 19 18 29
1177.13 -1168.87 -1361.86 -0.170774 -0.909014 -0.035823 37 36 35
1175.09 -1167.4 -1366.87 -0.427542 -0.825594 -0.0984976 88 86 85
1253.35 -366.421 -1353.06 -0.583015 -0.241022 0.726973 20 19 30
1247.77 -360.49 -1354.03 -0.63696 0.146993 0.718883 16 14 25
1257.5 -360.19 -1348.99 -0.586305 0.185707 0.749603 18 17 27
1253.76 -358.741 -1351.65 -0.611312 0.231854 0.705891 18 17 26
1257.62 -355.463 -1349.61 -0.625483 0.350985 0.684118 17 16 25
1261.57 -353.111 -1346.97 -0.658516 0.336745 0.673981 14 13 23
612.098 312.833 -1349.25 0.251143 0.813291 0.487188 179 162 146
613.594 317.085 -1353.19 0.295179 0.666428 0.527602 186 167 151
617.373 313.192 -1350.4 0.261509 0.781612 0.50413 184 165 149
624.277 310.562 -1348.43 0.280491 0.715962 0.571289 200 178 163
619.393 315.811 -1353.02 0.289154 0.697427 0.534415 189 169 153
640.079 304.338 -1348.66 0.52835 0.324863 0.720866 228 199 185
644.22 298.921 -1349.47 0.521192 0.257414 0.748162 231 201 187
643.259 303.551 -1352.44 0.500727 0.463407 0.680886 226 198 183
628.917 310.037 -1348.3 0.334778 0.589138 0.635744 209 185 170
636.643 311.368 -1353.79 0.512433 0.373127 0.686934 222 194 179
631.023 314.89 -1354.6 0.435362 0.446769 0.648311 212 186 171
1360.55 -105.819 -1353.65 0.0164184 -0.0747012 0.984583 31 30 41
1364.34 -104.396 -1353.43 0.0183155 -0.0832071 0.984172 34 33 44
1358.61 -97.8373 -1352.91 0.0345632 -0.0546184 0.98009 85 82 97
1366.95 -97.2902 -1353.22 0.0517739 -0.0500083 0.979433 91 88 104
1369.54 -106.446 -1353.29 -0.00832755 -0.0620234 0.981665 31 29 41
1373.17 -103.812 -1353.4 0.0356494 -0.0845291 0.982066 32 31 43
1370.49 -99.9175 -1353.33 0.0249995 -0.0482335 0.977441 70 67 82
1360.01 -91.5043 -1353.76 0.038544 0.133948 0.974195 182 178 197
1365.04 -94.9069 -1353.51 0.0621156 0.0275546 0.975869 130 127 145
1361.05 -88.3938 -1354.54 0.0451796 0.210035 0.972057 225 220 242
1369.39 -91.6642 -1354.48 0.0761053 0.185477 0.963906 201 196 218
1383.92 -103.453 -1354.46 0.208722 -0.0566866 0.972576 13 12 23
1184.9 -1170.48 -1347.04 0.0803948 -0.987547 0.0198041 0 0 0
1189.57 -1171.18 -1345.9 0.066957 -0.990443 0.0368587 10 9 9
1195.59 -1171.4 -1342.82 0.0480949 -0.9608 0.0678182 67 66 65
1195.85 -1172.29 -1346.68 0.0429157 -0.993672 0.0622984 51 51 51
1211.71 -1173.44 -1346.53 0.0267746 -0.991161 0.092714 176 174 171
1218.49 -1172.99 -1345.32 0.106895 -0.985125 0.0781175 171 164 161
1223.15 -1172.19 -1347.51 0.18655 -0.97494 0.0163147 157 144 139
1229.49 -1169.91 -1344.71 0.281086 -0.952777 0.0316666 160 142 134
1239.95 -1165.55 -1344.92 0.39131 -0.913311 -0.0204601 170 150 140
1246.92 -1162.3 -1345.94 0.385626 -0.917891 -0.0379051 175 154 144
1247.46 -1161.99 -1345.35 0.382566 -0.91924 -0.0357184 174 154 144
1257.63 -1159.77 -1346.4 0.239336 -0.962006 -0.0720615 176 155 145
1266.75 -1158.2 -1346.17 0.276433 -0.923643 -0.163836 178 158 146
1270.51 -1157.3 -1346.36 0.359028 -0.879929 -0.217699 180 159 147
1273.97 -1156.33 -1344.42 0.417583 -0.851134 -0.228183 181 160 149
1286.31 -1148.17 -1345.94 0.450048 -0.803514 -0.34466 174 153 141
1293.55 -1148.84 -1342.41 0.20082 -0.896409 -0.348264 173 151 141
1298.36 -1149.08 -1341.41 0.105422 -0.928949 -0.340816 167 144 135
1396.81 366.976 -1344.34 0.9645 -0.0774806 0.163571 136 98 96
1397.91 373.156 -1342.94 0.951723 -0.137944 0.0823856 129 91 88
1359.93 377.018 -1344.28 -0.121112 0.132139 0.727955 183 140 132
1362.4 374.564 -1341.47 0.169861 0.158613 0.809912 174 131 123
1360.18 386.315 -1347.32 -0.30762 0.359595 0.901275 209 162 150
1367.52 374.961 -1346.26 0.574413 -0.000190086 0.587229 134 97 94
1376.08 380.794 -1347.69 0.605165 0.0550214 0.654388 118 87 86
1376.57 386.937 -1342.39 0.570298 0.0705579 0.611433 125 93 91
1377.16 393.18 -1346.32 0.561727 0.031137 0.678841 120 90 88
1377.56 395.901 -1341.77 0.526523 -0.0193316 0.6329 123 93 91
1398.15 376.771 -1345.39 0.964717 -0.036141 -0.0318941 136 96 93
1399.24 380.638 -1342.25 0.958904 -0.065899 -0.104931 145 107 104
1389.46 400.206 -1347.03 0.847796 0.490267 -0.362719 181 139 136
1397.91 392.825 -1341.18 0.885965 0.315502 -0.223972 172 133 131
1357.14 405.912 -1347.11 -0.0381409 -0.308602 0.812712 128 100 92
1360.41 411.611 -1346.55 0.401516 -0.377079 0.725195 94 70 64
1373.75 406.617 -1346.94 0.434925 -0.438027 0.623925 92 71 73
1371.66 411.003 -1346.37 0.457811 -0.570812 0.580092 80 62 63
1357.54 415.222 -1342.04 0.429652 -0.370921 0.706739 94 70 65
1362.57 415.792 -1344.44 0.471097 -0.48953 0.685626 87 64 59
1370.02 418.071 -1342.94 0.422132 -0.610472 0.616891 84 63 64
1375.71 421.299 -1341.57 0.377436 -0.451856 0.563009 79 59 61
1373.85 425.04 -1341.6 0.312045 -0.476017 0.702546 92 69 69
1376.94 428.485 -1343.05 0.322723 -0.420294 0.769131 95 72 70
1387.39 403.84 -1342.03 0.627995 0.286782 -0.038783 145 113 112
1384.1 412.537 -1345.01 0.703353 0.151667 0.12754 116 87 86
1382.38 416.345 -1344.43 0.640025 -0.0021584 0.248521 92 68 68
1376.06 433.037 -1341.38 0.290646 -0.2873 0.876338 126 96 92
1378.87 437.929 -1342.42 0.362645 -0.143172 0.885313 133 103 99
1380.86 445.826 -1343.75 0.474663 -0.0038448 0.857111 130 103 98
1377.3 448.457 -1341.7 0.441797 0.0418821 0.896862 141 113 106
1382.57 432.45 -1344.94 0.379371 -0.330682 0.805773 93 71 68
1383.2 438.778 -1344.7 0.424581 -0.118594 0.861567 114 89 86
1384.19 444.302 -1345.85 0.523695 0.0109751 0.814811 124 98 94
1383.62 451.605 -1345.7 0.602351 -0.0525888 0.753598 102 82 80
1172.92 -1167.04 -1349.71 0.0412373 -0.863574 -0.0051637 51 47 46
1177.01 -1169 -1353.84 0.0146107 -0.943068 0.00276855 11 10 10
1341.87 504.071 -1354.21 -0.0701577 0.222442 0.84193 104 80 71
1185.19 -1169.04 -1339.72 0.181181 -0.873256 0.00974098 50 45 44
1189.11 -1169.5 -1339 0.168535 -0.874714 0.0234965 59 54 53
1199.11 -1169.9 -1335.84 -0.00169732 -0.936027 0.176211 125 124 122
1197.5 -1169.69 -1335.85 0.0435133 -0.913896 0.146195 114 112 110
1212.88 -1171.84 -1338.04 -0.0148703 -0.974469 0.217029 192 191 189
1218.36 -1172.25 -1340.06 0.0776913 -0.978899 0.163168 181 175 173
1225.8 -1170.83 -1339.65 0.194154 -0.969665 0.106382 169 155 150
1231.2 -1169.06 -1341.19 0.303116 -0.947731 0.0586581 169 149 141
1240.09 -1165.81 -1337.16 0.345098 -0.925457 -0.0440685 170 149 139
1246.28 -1162.98 -1336.39 0.358938 -0.904284 -0.124569 167 146 136
1247.97 -1161.98 -1337.97 0.355888 -0.91137 -0.0976717 168 147 137
1257.64 -1159.81 -1338.07 0.221931 -0.943101 -0.138861 168 146 137
1266.71 -1158.87 -1335.27 0.166338 -0.973211 -0.0928021 176 154 145
1269.36 -1157.99 -1340.02 0.230097 -0.954916 -0.0882013 177 156 146
1277.09 -1155.66 -1337.18 0.352512 -0.892186 -0.181408 174 153 144
1285.89 -1150.93 -1341.26 0.423085 -0.812875 -0.34852 174 154 143
1292.94 -1150.09 -1339.65 0.227576 -0.878538 -0.377903 173 151 141
1295.57 -1151.79 -1335.21 0.162636 -0.896005 -0.391893 170 149 139
1304.66 -1152.44 -1331.7 0.109422 -0.912339 -0.397928 163 141 132
1312.35 -1152.32 -1330.19 0.0820511 -0.915367 -0.38893 171 152 146
1318.9 -1151.78 -1331.9 -0.00960456 -0.930022 -0.343523 183 169 165
1327.63 -1152.89 -1332.68 -0.156999 -0.934835 -0.289902 192 182 180
1332.08 -1154.71 -1329.11 -0.206865 -0.925215 -0.304977 191 184 181
1330.37 -1153.35 -1332.78 -0.19572 -0.935222 -0.276702 192 183 181
1344.74 -1157.24 -1332.99 -0.266429 -0.930712 -0.242399 189 180 178
1351.45 -1158.88 -1334.49 -0.26939 -0.93919 -0.206825 190 180 178
1173.16 -1162.8 -1327.37 0.32427 -0.745419 0.00979177 107 98 95
1174.63 -1164.26 -1331.66 0.300854 -0.763575 0.0108637 99 91 88
1174.14 -1166.04 -1339.86 0.204171 -0.827922 0.00924124 71 65 63
1177.82 -1166.31 -1336.06 0.249531 -0.80666 0.0106742 81 74 72
1182.99 -1164.61 -1325.09 0.324122 -0.746263 0.00562689 102 93 90
1187.94 -1166.01 -1327.56 0.299928 -0.758536 0.0252306 98 90 87
1206.34 -1167.57 -1326.73 -0.0853054 -0.959434 0.292256 180 179 176
1215.71 -1168.14 -1325.94 -0.0753755 -0.971975 0.198475 187 186 184
1209.62 -1167.75 -1326.52 -0.0900577 -0.966121 0.269343 184 184 181
1226.91 -1169.23 -1324.86 0.0510777 -0.982766 0.0795752 175 160 156
1232.87 -1168.73 -1326.55 0.181979 -0.965549 -0.0195833 167 146 138
1235.72 -1168.53 -1325.9 0.18579 -0.96172 -0.0891372 167 143 135
1239.63 -1168.12 -1326.37 0.188525 -0.953253 -0.172569 167 143 134
1252.43 -1168.09 -1321.26 0.231781 -0.899419 -0.356167 163 137 130
1258.22 -1165.43 -1321.3 0.305924 -0.881058 -0.347346 163 137 129
1254.55 -1164.72 -1325.78 0.268931 -0.86875 -0.409609 163 138 130
1266.68 -1160.45 -1326.52 0.249698 -0.912959 -0.278315 172 147 138
1276.64 -1158.29 -1326.74 0.198339 -0.944769 -0.223645 170 147 140
1286.36 -1157.58 -1324.28 0.174288 -0.920123 -0.324202 178 157 150
1293.43 -1155.57 -1326.89 0.127271 -0.903388 -0.393765 177 156 147
1296.59 -1155.77 -1326.06 0.109712 -0.900321 -0.405941 172 152 143
1295.47 -1156.87 -1324.04 0.111676 -0.905982 -0.386378 174 154 146
1303.39 -1156.33 -1323.76 0.105714 -0.896214 -0.410664 162 141 133
1310.2 -1156.03 -1322.51 0.106119 -0.885109 -0.448982 163 142 135
1317.58 -1156.07 -1321.53 0.0495638 -0.884938 -0.458335 179 164 158
1317.17 -1153.26 -1327.35 0.0480538 -0.90749 -0.406661 180 165 160
1184.86 -1163.3 -1318.1 0.283184 -0.771333 0.00601469 99 91 88
1190.66 -1163.65 -1315.56 0.180453 -0.827538 0.034526 94 88 86
1194.07 -1164.88 -1319.71 0.169979 -0.830506 0.0759518 90 84 82
1200.38 -1165.7 -1320.41 0.0160261 -0.915323 0.148181 107 105 103
1207.25 -1166.22 -1317.81 -0.103323 -0.985368 0.134706 146 146 144
1215.58 -1167.51 -1318.43 -0.106153 -0.991076 0.0838664 180 180 179
1223.87 -1168.86 -1315.6 -0.0904439 -0.993282 -0.0044486 187 182 181
1227.19 -1169.15 -1319.66 -0.0180708 -0.990106 0.0253084 178 164 162
1233.88 -1169.54 -1320.73 0.0576797 -0.979269 -0.0681193 172 152 146
1243.01 -1169.74 -1320.08 0.0553884 -0.965229 -0.232135 172 149 142
1254.84 -1168.48 -1315.63 0.315112 -0.911668 -0.217291 158 131 124
1258.01 -1166.83 -1315.6 0.368694 -0.896876 -0.217054 158 131 124
1272.71 -1162.22 -1315.78 0.198749 -0.946239 -0.222334 163 135 127
1276.47 -1161.79 -1316.09 0.13664 -0.956325 -0.243387 167 139 132
1280.75 -1160.22 -1319.59 0.123789 -0.946306 -0.291175 172 149 142
1283.82 -1161.36 -1316.05 0.0866798 -0.949083 -0.306899 179 157 151
1290.16 -1161.31 -1315.43 0.0927322 -0.935473 -0.332154 186 167 161
1294.36 -1159.33 -1319.42 0.117055 -0.918348 -0.341827 177 157 150
1343.5 -1161.75 -1318.45 -0.194476 -0.912957 -0.359615 192 185 181
1352.11 -1162.49 -1320.25 -0.179947 -0.940843 -0.262985 191 182 180
1304.87 -1158.25 -1319.83 0.0854605 -0.896792 -0.393015 154 133 126
1308.62 -1159.05 -1317.26 0.0879876 -0.886277 -0.424779 149 128 121
1318.47 -1159.26 -1315.24 0.0713295 -0.887457 -0.451069 178 161 154
1324.04 -1158.04 -1318.48 -0.0351871 -0.895888 -0.423515 190 178 173
1197.77 -1164.12 -1312.04 -0.0174286 -0.939825 0.0558709 108 106 104
1204.43 -1165.4 -1313.67 -0.0972004 -0.982531 0.0777439 131 130 129
1213.25 -1167.49 -1310.67 -0.128209 -0.993526 -0.0169194 169 169 168
1217.58 -1167.85 -1314.23 -0.125155 -0.993796 -0.00208439 189 190 191
1221.19 -1168.92 -1309.48 -0.127147 -0.991524 -0.0396001 162 161 161
1228.28 -1170.12 -1309.58 -0.104681 -0.992463 -0.0514724 166 160 158
1235.51 -1171.06 -1310.74 -0.0807703 -0.994852 -0.078626 182 171 166
1242.6 -1171.09 -1313.53 -0.0158161 -0.984846 -0.152028 180 161 155
1255.57 -1168.8 -1309.91 0.314436 -0.931123 -0.115373 163 137 131
1262.81 -1165.92 -1308.74 0.370983 -0.912821 -0.144401 163 136 129
1262.19 -1165.85 -1310.24 0.379235 -0.908654 -0.153193 162 135 128
1268.06 -1164.71 -1307.27 0.287154 -0.930031 -0.177925 163 137 130
1286.32 -1163.07 -1310.68 0.0545094 -0.950393 -0.306634 188 168 161
1285.08 -1161.88 -1314.4 0.0758982 -0.950181 -0.307105 183 162 155
1292.89 -1162.49 -1312.93 0.0982647 -0.940432 -0.28897 184 163 157
1295.15 -1162.16 -1313.96 0.109506 -0.937755 -0.278806 179 159 152
1313.8 -1162.7 -1309.08 0.114584 -0.900942 -0.425602 163 141 133
1314.45 -1162.13 -1310.05 0.117038 -0.895986 -0.436871 164 142 134
1332.51 -1161.42 -1314.3 -0.152718 -0.909949 -0.380222 193 188 183
1336.98 -1162.58 -1312.93 -0.173434 -0.914444 -0.366854 192 188 183
1343.76 -1163.24 -1313.27 -0.160403 -0.927102 -0.324471 191 187 183
1353.35 -1163.95 -1313.55 -0.101527 -0.962169 -0.19726 190 183 180
1321.24 -1159.95 -1313.9 0.0502392 -0.896285 -0.434755 185 170 164
1328.81 -1161.31 -1312.61 -0.0628198 -0.918466 -0.369494 194 186 181
1194.74 -1162.85 -1305.81 -0.0214906 -0.953743 -0.0154307 109 106 104
1200.4 -1163.89 -1301.78 -0.10964 -0.991962 -0.037061 121 119 118
1208.65 -1166.48 -1303.68 -0.138502 -0.993787 -0.0533284 135 133 132
1225.06 -1169.97 -1303.12 -0.127347 -0.990725 -0.0579801 117 116 115
1233.22 -1171.28 -1303.24 -0.119959 -0.994941 -0.0578044 145 142 141
1237.75 -1171.59 -1306.43 -0.0938302 -0.997997 -0.0672734 177 169 165
1241.26 -1171.85 -1303.41 -0.0612623 -0.999186 -0.0541468 166 158 154
1247.62 -1171.47 -1301.91 0.0413225 -0.993212 -0.0508364 175 161 156
1254.32 -1169.59 -1306.14 0.244275 -0.952905 -0.0835478 171 147 141
1261.99 -1167.36 -1302.17 0.320183 -0.927981 -0.155297 177 152 147
1269.19 -1165.35 -1304.56 0.245773 -0.936167 -0.193917 164 138 132
1278.03 -1164.42 -1306.06 0.0858597 -0.960321 -0.246689 174 149 143
1281.01 -1164.91 -1304.92 0.0378724 -0.963939 -0.264743 179 154 149
1288.22 -1166.01 -1302.79 -0.0110026 -0.95954 -0.289066 195 173 170
1295.13 -1166.67 -1301.94 -0.00697419 -0.957896 -0.26917 194 173 170
1304.71 -1164.81 -1306.89 0.0392735 -0.924924 -0.351019 165 142 137
1307.97 -1164.45 -1306.95 0.0636553 -0.917568 -0.376881 162 139 133
1315.77 -1164.06 -1304.33 0.113608 -0.928785 -0.326017 174 153 147
1320.93 -1163.06 -1307.19 0.100875 -0.924645 -0.37951 184 167 160
1328.35 -1163.35 -1305.7 0.0157543 -0.950117 -0.293778 193 183 178
1335.42 -1164.01 -1304.88 -0.0896836 -0.956868 -0.250818 194 188 184
1354.25 -1164.86 -1305.4 -0.0334539 -0.982688 -0.131979 189 183 180
1188.66 -1162.65 -1311.29 0.155317 -0.849952 -0.00351593 101 95 93
1190.27 -1163.31 -1313.94 0.162099 -0.839413 0.0245643 97 91 89
1186.59 -1161.72 -1308.64 0.149586 -0.861719 -0.015624 101 95 93
1214.56 -1168.19 -1298.68 -0.135204 -0.989449 -0.0537715 69 69 68
1208.05 -1166.03 -1299.12 -0.135839 -0.993082 -0.0523662 111 110 109
1223.19 -1169.76 -1299.57 -0.131869 -0.989903 -0.0596956 93 93 93
1240.4 -1172.31 -1293.78 -0.0456786 -0.998762 -0.0497064 100 98 96
1233.43 -1171.41 -1299.83 -0.116287 -0.994757 -0.0537162 119 117 116
1242.5 -1172.17 -1296.99 -0.0329925 -0.999876 -0.0462116 133 128 125
1259.82 -1168.82 -1297.83 0.251651 -0.948767 -0.155372 182 159 156
1257.8 -1168.86 -1300.65 0.255084 -0.949663 -0.119476 183 160 155
1265.97 -1167.05 -1300.39 0.252764 -0.935182 -0.201634 170 144 140
1269.11 -1167.58 -1298.03 0.171356 -0.944876 -0.248302 165 138 134
1275.45 -1167.81 -1296.75 0.0521615 -0.957444 -0.290153 159 131 127
1285.24 -1168.24 -1296.26 -0.00732269 -0.974395 -0.234652 180 156 153
1292.81 -1167.85 -1297.85 -0.00122346 -0.974908 -0.187074 196 174 173
1294.29 -1167.75 -1298.22 0.00167754 -0.974289 -0.178932 198 177 176
1313.69 -1165.14 -1297.71 0.112654 -0.956046 -0.142369 178 157 153
1319.28 -1164.7 -1299 0.0943302 -0.961401 -0.180377 184 167 163
1326.82 -1164.43 -1297.73 0.0248725 -0.978369 -0.142964 193 183 180
1333.81 -1164.93 -1296.79 -0.0674003 -0.984505 -0.11877 194 187 184
1340.56 -1165.65 -1298.26 -0.115204 -0.978172 -0.159665 193 186 184
1342.69 -1165.43 -1300.62 -0.107619 -0.975195 -0.179258 192 186 183
1352.04 -1165.71 -1299.18 -0.0416446 -0.984632 -0.135178 190 183 181
1356.27 -1164.78 -1300.72 0.0198374 -0.987307 -0.107241 189 182 180
1363.76 -1163.39 -1299.72 0.0991341 -0.984797 -0.0831799 188 183 180
1210.54 -1166.44 -1293.47 -0.130509 -0.990735 -0.0540574 125 124 123
1214.69 -1167.35 -1290.02 -0.123353 -0.990387 -0.0530243 131 129 128
1223.35 -1169.5 -1290.69 -0.117828 -0.990975 -0.0554793 91 90 89
1231.34 -1171.07 -1292.3 -0.101817 -0.994194 -0.0511449 72 71 71
1234.67 -1171.58 -1290.05 -0.0780751 -0.995733 -0.0500386 66 65 64
1241.99 -1172.41 -1292.43 -0.0275375 -0.99805 -0.0563735 104 101 99
1252.18 -1171.93 -1288.59 0.100611 -0.985312 -0.124734 150 139 137
1257.44 -1170.8 -1291.3 0.148471 -0.974144 -0.161343 169 152 149
1269.77 -1169.98 -1288.12 0.103786 -0.971229 -0.167229 163 141 140
1278.33 -1169.2 -1288.88 0.0705229 -0.976424 -0.107084 158 134 133
1281.82 -1168.84 -1291.27 0.0422914 -0.977907 -0.140831 162 136 134
1289.34 -1168.66 -1294.33 0.0144899 -0.98672 -0.131274 188 165 164
1298.28 -1167.28 -1293.1 0.0674092 -0.979921 0.00243166 194 172 173
1308 -1165.4 -1293.02 0.0997274 -0.964367 0.000114398 182 160 157
1313.7 -1164.02 -1289.22 0.084121 -0.974594 0.0948338 187 169 166
1319.18 -1164.44 -1292.18 0.06928 -0.980997 0.00364392 188 173 170
1326.5 -1164.45 -1292.79 -0.0019754 -0.990038 -0.0358046 194 185 182
1334.56 -1165.62 -1289.11 -0.123144 -0.989569 -0.0403694 195 187 185
1340.22 -1166.69 -1290.68 -0.133878 -0.985555 -0.0915994 193 185 183
1354.25 -1168.31 -1289.56 -0.000645076 -0.969528 -0.178217 193 185 182
1347.56 -1167.07 -1293.87 -0.0986735 -0.983429 -0.148737 193 184 182
1360.26 -1166.19 -1291.11 0.136092 -0.957694 -0.172101 192 185 182
1365.99 -1164.65 -1289.7 0.199797 -0.950181 -0.18224 192 187 183
1224.63 -1168.5 -1282.63 -0.0791677 -0.992539 -0.0574802 113 109 108
1231.47 -1169.98 -1282.58 -0.0705033 -0.994035 -0.056157 96 93 91
1236.94 -1171.49 -1285.54 -0.0566816 -0.995311 -0.0568678 75 73 72
1240.43 -1171.98 -1285.59 -0.0340453 -0.995021 -0.0647907 83 81 80
1247.65 -1172.01 -1283.08 0.0356893 -0.989386 -0.0978149 127 123 121
1254.54 -1171.8 -1283.79 0.117502 -0.98195 -0.133785 155 146 145
1261.21 -1171.14 -1285.23 0.141099 -0.974997 -0.167991 169 154 153
1269.15 -1170.14 -1284.92 0.114037 -0.975895 -0.114436 158 140 139
1275.32 -1169.17 -1283.26 0.125369 -0.977554 0.00630234 147 132 131
1282.49 -1167.2 -1280.5 0.195949 -0.972153 0.124262 138 125 124
1293.01 -1165.28 -1282.74 0.149895 -0.97121 0.0890739 167 146 146
1296.48 -1164.8 -1283.8 0.149747 -0.968468 0.123432 175 155 155
1301.86 -1164 -1284.58 0.111763 -0.968227 0.139518 186 167 166
1308.9 -1163.39 -1284.89 0.0724841 -0.971836 0.138399 189 173 170
1317.74 -1163.64 -1286.8 0.0349763 -0.985476 0.102007 192 179 176
1341.09 -1168.36 -1281.99 -0.198034 -0.97906 -0.0437523 196 190 186
1335.91 -1166.5 -1282.09 -0.180148 -0.983139 -0.0302014 195 188 185
1344.55 -1169 -1284.15 -0.146563 -0.981693 -0.0906716 194 187 184
1352.08 -1170.25 -1281.76 -0.0561095 -0.970004 -0.145715 195 189 185
1357.77 -1169.29 -1284.12 0.0959089 -0.948891 -0.211152 195 189 185
1367.63 -1166.18 -1283.52 0.225459 -0.929348 -0.269875 178 174 170
1374.53 -1164.98 -1280.47 0.203787 -0.933214 -0.272716 111 109 106
1381.43 -1163.07 -1282.23 0.120896 -0.954152 -0.210705 113 111 109
1385.92 -1162.74 -1287.57 -0.0168322 -0.983505 -0.122725 170 166 163
1392.68 -1162.69 -1284.01 0.0249873 -0.975479 -0.150387 170 166 162
1232.84 -1169.65 -1280 -0.0688187 -0.993846 -0.0579822 109 105 103
1230.73 -1167.73 -1275.67 -0.0677152 -0.993026 -0.0601757 141 137 134
1237.66 -1169.41 -1276.77 -0.0570392 -0.99326 -0.0585962 123 119 117
1241.44 -1170.94 -1279.74 -0.0329519 -0.992632 -0.0693404 113 109 108
1247.65 -1171.47 -1279.15 0.0266293 -0.988026 -0.0950695 135 131 130
1256.53 -1170.56 -1275.55 0.119054 -0.982239 -0.0862136 149 143 143
1263.43 -1170.68 -1279.57 0.134151 -0.980189 -0.0923256 154 144 144
1268.25 -1169.74 -1277.17 0.130977 -0.983447 -0.0174573 134 127 127
1277.49 -1167.48 -1274.26 0.167706 -0.981977 0.0945295 106 101 100
1284 -1166.31 -1273.95 0.2026 -0.976736 0.0612492 108 101 100
1289.68 -1165.55 -1277.94 0.186609 -0.972717 0.0540569 145 130 129
1304.55 -1162.7 -1278.69 0.0936016 -0.971108 0.0905069 186 173 171
1313.43 -1162.83 -1279.08 0.00196713 -0.983293 0.0611456 195 186 182
1321.02 -1163.39 -1280.32 -0.0550295 -0.993651 0.0374702 197 191 186
1327.84 -1164.57 -1277.44 -0.129933 -0.991511 -0.0283541 189 185 181
1332.67 -1165.64 -1279.32 -0.166898 -0.986036 -0.0218752 190 185 181
1339.93 -1167.97 -1275.21 -0.210535 -0.978301 -0.0326951 186 181 177
1348.09 -1170.34 -1276.91 -0.154431 -0.982047 -0.0780773 189 184 180
1351.87 -1171.08 -1274.53 -0.107651 -0.975983 -0.104337 188 183 179
1360.59 -1170.28 -1279.12 0.139254 -0.932197 -0.274883 189 185 180
1365.47 -1168.66 -1278.92 0.220026 -0.917811 -0.320518 169 166 161
1375.29 -1165.44 -1277.43 0.221224 -0.926929 -0.293383 87 85 83
1380.92 -1163.72 -1278.18 0.172476 -0.939792 -0.254675 92 90 88
1388.02 -1162 -1273.62 0.123993 -0.952699 -0.212618 147 144 141
1393.31 -1161.39 -1278.34 0.0787495 -0.964672 -0.176746 167 163 159
1250.68 -1169.01 -1270.39 0.115572 -0.982766 -0.0453408 144 138 137
1260.38 -1168.28 -1267.61 0.139465 -0.981991 -0.0179975 135 129 129
1261.47 -1169.09 -1270.57 0.139361 -0.981994 -0.039437 140 133 133
1268.96 -1168.17 -1269.36 0.139264 -0.983991 0.0119313 128 123 122
1279.81 -1166.79 -1271.4 0.183008 -0.980425 0.0562106 88 84 83
1287.61 -1165.66 -1270.32 0.205273 -0.976435 0.00194103 97 91 90
1290.35 -1165.29 -1271.89 0.203055 -0.974666 -0.00333548 124 116 115
1298.61 -1163.75 -1272.34 0.156123 -0.972368 -0.0354282 168 159 157
1304.43 -1163.88 -1268.07 0.0801719 -0.972361 -0.161492 187 184 181
1309.08 -1163.05 -1272.88 0.0262173 -0.978281 -0.0704266 193 188 184
1316.47 -1164.06 -1269.53 -0.0454568 -0.982458 -0.141586 189 188 184
1324.47 -1164.95 -1268.01 -0.0976464 -0.987323 -0.127596 166 166 162
1330.16 -1165.29 -1271.22 -0.146974 -0.987664 -0.0720837 162 160 156
1339.4 -1167.63 -1270.63 -0.199785 -0.980632 -0.0509642 148 145 142
1341.63 -1168.47 -1273.03 -0.211667 -0.978349 -0.0351867 179 175 171
1353.52 -1171.38 -1272.46 -0.0969799 -0.974399 -0.110744 186 183 179
1357.75 -1171.01 -1268.67 -0.00644065 -0.958517 -0.170919 178 175 171
1364.64 -1170.21 -1271.26 0.164774 -0.927564 -0.297925 152 150 145
1373.48 -1167.17 -1272.8 0.243165 -0.916607 -0.329096 83 82 79
1378.47 -1165.05 -1273.45 0.220803 -0.925421 -0.297453 82 80 78
1249.91 -1164.04 -1260.03 0.106221 -0.978917 -0.0249303 130 123 122
1260.77 -1165.81 -1262.27 0.131639 -0.978855 -0.0223587 137 130 129
1267.47 -1167.72 -1266.69 0.138804 -0.98248 -0.0159506 135 128 128
1272.19 -1165.64 -1262.2 0.142417 -0.978984 -0.0229958 115 109 108
1279.04 -1165.71 -1263.34 0.162521 -0.978781 -0.0188579 80 75 75
1286.72 -1165.24 -1261.77 0.170421 -0.974996 -0.0577801 79 75 74
1292.62 -1165.21 -1266.56 0.183378 -0.975748 -0.0877895 118 114 113
1295.99 -1164.8 -1267.03 0.166276 -0.974524 -0.112449 143 139 137
1307.46 -1164.28 -1262.61 0.0521618 -0.964486 -0.228838 190 187 184
1309.71 -1164.33 -1261.39 0.0364344 -0.962473 -0.235999 190 186 184
1314.54 -1164.42 -1265.18 -0.0162916 -0.972426 -0.209269 188 187 183
1324.26 -1165.14 -1265.92 -0.0877812 -0.983985 -0.147687 163 162 159
1334.36 -1165.91 -1260.3 -0.0888241 -0.975856 -0.112559 115 110 109
1336.89 -1166.53 -1265.27 -0.161246 -0.980255 -0.0823885 125 123 121
1353.42 -1170.3 -1265.83 -0.123281 -0.975659 -0.0841923 184 182 178
1341.53 -1167.78 -1266.65 -0.200911 -0.979195 -0.0581704 102 101 99
1365.04 -1168.49 -1260.38 0.24712 -0.91368 -0.34344 142 139 135
1369.76 -1168.66 -1266.53 0.224105 -0.917844 -0.327631 127 125 121
1377.72 -1165.45 -1267.05 0.219914 -0.921958 -0.307281 112 110 107
1232.98 -1163.39 -1265.2 -0.0650952 -0.992936 -0.0601726 142 137 135
1242.27 -1164.19 -1262.56 0.0471144 -0.985643 -0.0333552 135 129 128
1236.63 -1163.22 -1262.99 -0.0290462 -0.990964 -0.0506128 138 133 132
1237.48 -1166.49 -1269.56 -0.0388345 -0.991575 -0.0508717 138 133 131
1238.82 -1168.21 -1272.56 -0.0288891 -0.99108 -0.0477209 138 133 131
1233.96 -1161.37 -1260.43 -0.062671 -0.992749 -0.0596891 139 134 132
1299.61 -1164.29 -1258.51 0.112586 -0.964494 -0.163331 161 154 152
1295.82 -1164.65 -1258.97 0.137192 -0.967841 -0.130491 135 129 127
1304.05 -1163.56 -1255.94 0.0907542 -0.960023 -0.169331 176 167 164
1321.17 -1164.03 -1255.16 0.0277132 -0.964737 -0.14327 162 153 151
1327.64 -1164.28 -1254.49 0.021904 -0.966495 -0.11736 145 135 133
1334.34 -1164.46 -1253.54 0.0142571 -0.965482 -0.109287 135 125 123
1340.78 -1165.76 -1256.39 -0.0623256 -0.970607 -0.0944564 136 129 127
1294.04 -1161.83 -1250.65 0.0914881 -0.959166 -0.101075 161 148 145
1297.71 -1161.17 -1249.2 0.0831484 -0.957427 -0.102135 171 156 153
1304.26 -1162.85 -1252.87 0.0853698 -0.957527 -0.145305 175 163 160
1309.41 -1161.4 -1249.18 0.0821397 -0.95713 -0.113486 172 158 155
1315.1 -1161.56 -1248.73 0.0796527 -0.957407 -0.109382 171 156 153
1323.2 -1162.17 -1249.23 0.0703242 -0.959647 -0.106936 166 153 150
1336.29 -1164.28 -1252.49 0.0207031 -0.964255 -0.106713 142 130 128
1335.53 -1164.05 -1252.02 0.0315327 -0.963478 -0.108705 142 130 128
1165.89 -1170.38 -1247.43 0.0995278 -0.990289 0.010901 13 12 12
1156.77 -1170.98 -1250.5 0.0903162 -0.987429 0.000792892 24 22 22
1245.21 -1163.26 -1259.87 0.0679319 -0.981874 -0.0320805 130 124 123
1256.16 -1163.48 -1257.85 0.114567 -0.975608 -0.0324447 135 127 126
1269.35 -1163.83 -1257.64 0.126722 -0.974319 -0.0401167 134 125 124
1264.07 -1164.53 -1259.3 0.126858 -0.976228 -0.0322289 139 130 130
1281.83 -1162.55 -1253.27 0.114476 -0.965086 -0.0765097 129 118 116
1283.32 -1164.56 -1259.04 0.151665 -0.973098 -0.0522077 86 80 79
1277.18 -1162.78 -1255.03 0.124429 -0.968721 -0.061908 122 113 111
1349.94 -1167.62 -1258.57 -0.11915 -0.974468 -0.0678865 183 179 175
1347.96 -1165.79 -1254.08 -0.0139604 -0.962809 -0.109047 166 158 155
1342.31 -1164.99 -1253.22 -0.0181688 -0.965961 -0.0964425 148 139 136
1150.23 -1173.71 -1241.27 0.103162 -0.994119 0.0117656 1 1 1
1157.92 -1173.01 -1240.72 0.105215 -0.99368 0.0153216 2 2 1
1163.77 -1171.18 -1245.38 0.101752 -0.991431 0.0128666 9 8 8
1172.61 -1169.91 -1242.7 0.106949 -0.993061 0.0183051 3 3 3
1178.41 -1168.18 -1245.02 0.109415 -0.993757 0.0198961 0 0 0
1141.77 -1173.53 -1235.93 0.103893 -0.995544 0.0137788 0 0 0
1148.09 -1173.98 -1239 0.103773 -0.994975 0.0126932 0 0 0
1154.08 -1173.87 -1235.68 0.105315 -0.995125 0.0161727 0 0 0
1163.15 -1172.72 -1235.34 0.107784 -0.994585 0.0200976 0 0 0
1167.37 -1171.84 -1236.48 0.108253 -0.994342 0.0209445 0 0 0
1174.88 -1169.91 -1238.64 0.10839 -0.994025 0.0207055 0 0 0
1151 -1173.99 -1233.22 0.104907 -0.995777 0.0165487 0 0 0
1159.02 -1173.31 -1229.36 0.105016 -0.99528 0.0199082 0 0 0
1164.79 -1172.58 -1231.06 0.106386 -0.994678 0.021167 0 0 0
1170.56 -1171.55 -1231.38 0.106625 -0.994683 0.022364 0 0 0
1176.12 -1170.19 -1227.99 0.103349 -0.994451 0.022338 0 0 0
1144.76 -1171.27 -1223.41 0.106161 -0.98884 0.0158032 6 5 5
1151.03 -1172.81 -1225.73 0.1044 -0.994811 0.0193474 0 0 0
1155.11 -1172.02 -1220.53 0.103739 -0.995934 0.0219643 0 0 0
1163.43 -1172.13 -1221.41 0.102574 -0.99543 0.0224526 0 0 0
1166.2 -1172 -1222.29 0.102561 -0.994918 0.0226185 0 0 0
1176.85 -1169.93 -1223.12 0.10057 -0.994699 0.0232815 0 0 0
1157.62 -1171.38 -1218.02 0.103657 -0.995277 0.0219698 0 0 0
1161.25 -1170.55 -1214.77 0.103071 -0.996132 0.0227354 0 0 0
1169.96 -1170.89 -1218.32 0.100969 -0.995012 0.0234431 0 0 0
1177.4 -1169.53 -1219.67 0.098906 -0.994732 0.0235098 0 0 0
1166.04 -1170.19 -1213.74 0.10196 -0.9954 0.0228896 0 0 0
1171.29 -1168.94 -1211.57 0.100529 -0.994988 0.0233382 0 0 0
1170.03 -1167.52 -1207.57 0.101769 -0.994722 0.0224457 0 0 0
2108.47 260.373 -1611.98 0.164701 -0.968296 0.090846 109 85 79
2101.47 259.275 -1613.66 0.146513 -0.982825 0.0838067 111 86 80
2122.38 263.096 -1613.04 0.220568 -0.927606 0.109107 108 85 77
2116.94 262.12 -1619.64 0.188861 -0.833357 0.17322 112 89 82
2111.55 260.913 -1613.15 0.175691 -0.947827 0.102566 109 85 79
2133.55 266.279 -1612.27 0.280492 -0.976623 0.0625524 109 83 68
2132.44 265.809 -1621.95 0.260394 -0.951866 0.0826569 108 84 72
2133.59 266.086 -1620.15 0.269839 -0.99037 0.0563794 107 83 70
2125.94 264.218 -1617.44 0.229545 -0.836741 0.163839 111 88 79
1270.5 -1027.14 -1609.07 -0.667721 -0.132801 0.50686 126 98 84
1277.96 -1050.64 -1608.95 -0.79347 -0.182045 0.461124 127 98 84
1276.56 -1045.24 -1610.02 -0.78587 -0.178287 0.466745 126 98 83
1279.59 -1038.84 -1604.78 -0.863701 -0.210054 0.438506 126 98 82
1276.95 -1032.99 -1606.62 -0.764677 -0.164347 0.476501 126 97 83
1349.61 -1076.41 -1606.37 0.939493 0.316873 -0.0514464 82 66 63
1345.51 -1068.37 -1603.75 0.938473 0.323898 -0.0350545 79 62 59
1346.64 -1070.6 -1610.1 0.956213 0.266363 0.0102454 75 59 56
1344.61 -1066.35 -1604.91 0.946542 0.29658 -0.00325628 78 61 58
1342.15 -1054.23 -1610.55 0.9669 0.198871 0.0707609 76 58 55
1341.67 -1052.68 -1609.79 0.971348 0.181108 0.0788277 75 58 55
1340.9 -1042.38 -1611.18 0.991812 0.0714537 0.108037 69 54 51
1342.21 -1034.01 -1611.04 0.981257 0.0517321 0.13201 70 55 52
1266.1 -1022.66 -1607.21 -0.571624 -0.201052 0.614951 123 95 81
1261.62 -1021.27 -1605.78 -0.559667 -0.219146 0.637 122 94 80
1270.66 -1022.26 -1605.31 -0.598834 -0.195697 0.596744 123 95 81
1344.3 -1025.59 -1608.07 0.946391 0.079602 0.244891 73 56 54
1345.37 -1015.14 -1605.22 0.906725 0.140305 0.36149 75 58 55
1360.4 -314.557 -1603.91 0.129048 -0.0562169 -0.988302 21 20 29
1362.38 -315.276 -1603.82 0.0951948 -0.0641035 -0.988369 22 21 30
1373.95 -316.895 -1604.71 -0.0701757 -0.121268 -0.986034 24 23 32
1376.7 -316.873 -1604.87 -0.0653278 -0.118837 -0.986787 24 23 31
1356.6 -308.912 -1605.18 0.065479 -0.0442185 -0.98886 22 21 30
1363.23 -312.578 -1604.52 0.0552742 -0.104106 -0.984678 22 21 29
1360.68 -304.569 -1606 -0.0366055 -0.0768083 -0.98253 23 22 31
1368.72 -302.214 -1607.15 -0.0997367 -0.116287 -0.977736 24 23 32
1372.81 -310.283 -1606.2 -0.0765321 -0.183078 -0.97777 24 23 31
1380.24 -308.701 -1606.76 -0.0356822 -0.185105 -0.980164 23 22 30
1373.74 -299.525 -1607.65 -0.0662423 -0.0726941 -0.982484 24 23 31
1379.9 -303.157 -1607.81 -0.0389229 -0.165465 -0.979142 23 22 30
1382.19 -321.536 -1604.49 -0.0866985 -0.00166402 -0.990155 24 23 31
1384.84 -316.534 -1605.4 -0.0719403 -0.0835942 -0.98563 24 23 31
1383.78 -313.251 -1605.88 -0.0496415 -0.151894 -0.982609 24 23 31
1398.51 -323.175 -1606.43 -0.0916345 0.0240202 -0.980367 24 23 32
1402.61 -322.697 -1606.54 -0.0493902 -0.0460881 -0.978643 25 24 32
1399.26 -318.811 -1606.68 -0.112513 -0.0527756 -0.980682 25 24 32
1404.24 -316.001 -1607.34 -0.0986702 -0.0978285 -0.980281 24 23 31
1383.83 -308.083 -1607 -0.0328114 -0.196406 -0.979149 23 22 30
1394.2 -309.763 -1607.33 -0.10502 -0.156126 -0.976819 23 22 30
1388.89 -301.191 -1608.84 -0.0882471 -0.177286 -0.975157 22 22 30
1392.75 -305.247 -1608.15 -0.0901876 -0.192452 -0.973801 22 22 29
1397.93 -311.557 -1607.29 -0.118945 -0.12345 -0.978666 24 23 31
1408.94 -307.535 -1608.21 -0.0545983 -0.0972317 -0.983203 24 23 31
1398.53 -304.606 -1608.69 -0.0958787 -0.199927 -0.968745 23 22 30
1406.99 -301.686 -1609.39 -0.00597253 -0.215976 -0.964967 23 22 30
1359.88 -296.586 -1605.84 -0.0860608 0.0403325 -0.975668 23 22 32
1366.91 -294.91 -1606.8 -0.124137 0.0376906 -0.975479 25 24 32
1361.07 -287.329 -1604.58 -0.205039 0.137879 -0.952703 25 24 33
