ply
format ascii 1.0
comment Created by Open3D
element vertex 1458
property double x
property double y
property double z
property uchar red
property uchar green
property uchar blue
end_header
-333.355 -87.299 -1714 55 57 57
-329.245 -87.1233 -1711 56 58 58
-325.341 -86.9987 -1709 58 60 60
-321.259 -86.8237 -1706 58 61 56
-317.192 -86.649 -1703 58 61 57
-313.509 -86.5765 -1702 57 60 57
-309.65 -86.4532 -1700 58 61 56
-305.982 -86.381 -1699 57 60 53
-302.499 -86.3601 -1699 54 57 54
-299.194 -86.3903 -1700 49 52 49
-295.192 -86.2173 -1697 45 48 45
-291.72 -86.1972 -1697 47 50 47
-288.251 -86.1772 -1697 63 66 63
-284.784 -86.1574 -1697 63 63 61
-281.32 -86.1381 -1697 61 61 59
-278.021 -86.1695 -1698 60 60 58
-274.398 -86.0999 -1697 58 58 56
-270.78 -86.0305 -1696 55 55 53
-267.012 -85.9104 -1694 55 55 53
-263.409 -85.8417 -1693 56 56 54
-259.967 -85.8238 -1693 56 56 54
-256.374 -85.7554 -1692 56 56 54
-252.788 -85.6872 -1691 55 55 53
-249.061 -85.5686 -1689 56 56 54
-245.635 -85.5518 -1689 56 55 53
-242.497 -85.6362 -1691 54 54 52
-239.071 -85.6199 -1691 54 52 50
-235.647 -85.6037 -1691 51 49 47
-232.224 -85.5877 -1691 50 48 46
-228.669 -85.5214 -1690 50 48 46
-224.852 -85.3541 -1687 51 49 47
-221.443 -85.3389 -1687 51 49 46
-217.778 -85.2227 -1685 51 49 46
-214.25 -85.1574 -1684 45 45 41
-210.978 -85.1934 -1685 47 47 44
-207.457 -85.1287 -1684 51 51 49
-203.942 -85.064 -1683 49 49 47
-200.671 -85.1009 -1684 47 47 45
-197.397 -85.1378 -1685 44 45 43
-194.122 -85.175 -1686 43 44 42
-190.73 -85.162 -1686 46 46 44
-187.563 -85.25 -1688 47 47 47
-184.279 -85.2879 -1689 49 49 48
-180.886 -85.2755 -1689 50 50 48
-177.6 -85.3139 -1690 50 50 48
-174.414 -85.4029 -1692 52 52 50
-171.02 -85.3911 -1692 54 54 52
-167.627 -85.3796 -1692 55 55 54
-164.429 -85.4692 -1694 56 56 56
-161.129 -85.5086 -1695 55 57 57
-157.827 -85.5484 -1696 55 57 57
-154.796 -85.7395 -1700 56 60 59
-151.482 -85.7795 -1701 58 61 61
-148.166 -85.8199 -1702 58 60 60
-144.846 -85.8604 -1703 58 59 59
-141.69 -86.0018 -1706 61 61 61
-138.362 -86.0429 -1707 63 63 61
-135.03 -86.0839 -1708 63 63 61
-131.772 -86.1758 -1710 61 61 59
-128.508 -86.2677 -1712 52 52 50
-125.017 -86.2088 -1711 53 53 51
-121.815 -86.3515 -1714 58 56 54
-118.396 -86.3434 -1714 60 59 56
-115.178 -86.4867 -1717 58 58 54
-111.69 -86.4286 -1716 56 56 52
-108.584 -86.673 -1721 56 56 52
-105.154 -86.6658 -1721 55 55 51
-101.902 -86.8098 -1724 58 58 54
-98.5252 -86.8534 -1725 58 58 54
-95.2551 -86.9979 -1728 58 58 54
-91.8145 -86.9917 -1728 58 58 54
-88.5279 -87.1364 -1731 58 58 56
-85.2793 -87.332 -1735 57 57 55
-82.0155 -87.5277 -1739 53 53 51
-78.7365 -87.7236 -1743 55 55 52
-75.3125 -87.7688 -1744 52 52 50
-72.0088 -87.9651 -1748 51 52 50
-68.6113 -88.0611 -1750 50 53 50
-65.3181 -88.308 -1755 53 56 53
-62.0055 -88.5553 -1760 56 59 56
-58.8731 -89.1047 -1771 62 65 64
-55.8222 -89.8555 -1786 62 64 64
-368.922 -92.7549 -1748 52 54 57
-362.37 -91.9857 -1734 51 53 54
-357.947 -91.7475 -1730 52 54 54
-353.954 -91.6159 -1728 50 52 54
-350.175 -91.5374 -1727 49 51 53
-345.6 -91.2474 -1722 50 52 52
-341.049 -90.9578 -1717 51 53 54
-337.111 -90.8274 -1715 53 55 57
-332.795 -90.5914 -1711 56 58 58
-328.691 -90.409 -1708 57 59 59
-324.792 -90.2795 -1706 58 60 60
-320.716 -90.0976 -1703 58 60 56
-316.842 -89.969 -1701 58 61 56
-313.346 -89.9464 -1701 56 59 56
-309.672 -89.8711 -1700 57 60 56
-306.183 -89.849 -1700 56 59 53
-302.876 -89.8801 -1701 51 54 51
-299.215 -89.8056 -1700 44 47 44
-295.386 -89.6787 -1698 41 44 41
-291.741 -89.605 -1697 49 52 49
-288.271 -89.5842 -1697 62 65 62
-284.972 -89.6165 -1698 62 62 60
-281.505 -89.5962 -1698 62 62 60
-278.041 -89.5761 -1698 60 60 58
-274.255 -89.451 -1696 59 59 57
-270.64 -89.3787 -1695 57 57 55
-267.031 -89.3069 -1694 56 56 54
-263.116 -89.1299 -1691 58 58 56
-259.677 -89.1113 -1691 60 60 58
-256.241 -89.0929 -1691 59 59 57
-252.507 -88.9694 -1689 55 55 53
-248.931 -88.8988 -1688 56 55 53
-245.797 -88.9867 -1690 57 56 54
-242.371 -88.9692 -1690 56 56 54
-239.088 -89.0048 -1691 56 54 52
-235.663 -88.9878 -1691 52 50 48
-232.24 -88.9713 -1691 51 49 47
-228.82 -88.9549 -1691 50 48 46
-225.001 -88.7811 -1688 50 48 46
-221.59 -88.7652 -1688 51 49 45
-218.052 -88.697 -1687 50 49 45
-214.392 -88.5765 -1685 45 45 41
-211.118 -88.614 -1686 47 47 45
-207.594 -88.5467 -1685 50 50 48
-204.077 -88.4795 -1684 48 48 46
-200.685 -88.4651 -1684 46 46 44
-197.645 -88.6087 -1687 44 46 43
-194.135 -88.5424 -1686 44 44 42
-190.97 -88.6337 -1688 46 46 44
-187.687 -88.6729 -1689 48 48 48
-184.292 -88.6596 -1689 48 48 47
-181.006 -88.6992 -1690 49 49 47
-177.717 -88.739 -1691 50 50 48
-174.426 -88.7791 -1692 52 52 50
-171.032 -88.7669 -1692 54 54 52
-167.737 -88.8074 -1693 55 55 54
-164.537 -88.9006 -1695 56 56 56
-161.331 -88.994 -1697 56 58 58
-158.024 -89.0351 -1698 56 58 58
-154.806 -89.1291 -1700 57 61 60
-151.403 -89.1183 -1700 60 62 62
-148.176 -89.2125 -1702 60 62 62
-144.686 -89.1499 -1701 60 63 61
-141.451 -89.2446 -1703 64 66 63
-138.128 -89.287 -1704 65 65 63
-134.96 -89.4348 -1707 65 65 63
-131.627 -89.4777 -1708 63 63 61
-128.441 -89.6258 -1711 52 52 50
-125.099 -89.6692 -1712 52 52 50
-121.824 -89.7653 -1714 57 55 53
-118.473 -89.8091 -1715 59 58 55
-115.119 -89.8533 -1716 59 59 55
-111.827 -89.9502 -1718 57 57 53
-108.718 -90.204 -1723 56 56 52
-105.406 -90.3013 -1725 56 56 52
-102.028 -90.3464 -1726 57 57 53
-98.5892 -90.3392 -1726 58 58 54
-95.1515 -90.3325 -1726 58 58 54
-91.8208 -90.4306 -1728 58 58 55
-88.3294 -90.372 -1727 58 58 56
-85.1378 -90.6276 -1732 55 57 54
-81.8796 -90.8309 -1736 53 55 52
-78.6515 -91.0869 -1741 55 55 52
-75.2744 -91.1862 -1743 53 54 51
-72.0549 -91.4949 -1749 50 53 50
-68.6553 -91.5946 -1751 49 52 49
-65.3225 -91.7992 -1755 48 51 48
-62.0098 -92.0563 -1760 50 53 50
-58.7774 -92.4703 -1768 61 63 62
-55.6699 -93.1462 -1781 71 73 73
-52.7453 -94.2407 -1802 56 56 58
-375.564 -97.0825 -1762 40 43 49
-367.472 -95.8978 -1741 45 47 49
-361.769 -95.3198 -1731 41 43 44
-357.767 -95.1826 -1729 46 48 48
-353.57 -94.9908 -1726 44 46 48
-349.998 -94.9646 -1726 45 47 49
-345.224 -94.6084 -1720 50 52 52
-341.074 -94.4178 -1717 52 54 56
-336.939 -94.2276 -1714 55 57 59
-332.431 -93.9275 -1709 58 60 60
-327.945 -93.6283 -1704 60 62 62
-324.245 -93.549 -1703 58 60 60
-320.363 -93.415 -1701 55 57 53
-316.492 -93.2815 -1699 54 57 52
-312.817 -93.2032 -1698 52 55 51
-309.694 -93.2898 -1700 52 55 50
-306.386 -93.3217 -1701 49 52 47
-303.076 -93.3538 -1702 47 50 47
-299.589 -93.3313 -1702 43 46 43
-295.756 -93.1997 -1700 41 44 41
-292.106 -93.1231 -1699 51 54 51
-288.462 -93.0465 -1698 60 63 60
-284.993 -93.0253 -1698 61 61 59
-281.526 -93.0043 -1698 63 63 61
-277.733 -92.8741 -1696 60 60 58
-274.113 -92.7989 -1695 60 60 58
-270.34 -92.6691 -1693 58 58 56
-267.05 -92.7041 -1694 55 55 53
-263.136 -92.5203 -1691 57 57 55
-259.85 -92.5557 -1692 60 60 58
-256.259 -92.4818 -1691 60 60 58
-252.974 -92.5176 -1692 57 57 55
-249.097 -92.3352 -1689 59 57 55
-246.106 -92.4809 -1692 57 56 54
-242.532 -92.4081 -1691 54 54 52
-239.246 -92.4449 -1692 54 52 50
-235.68 -92.3729 -1691 52 50 48
-232.395 -92.4103 -1692 52 50 48
-228.566 -92.2293 -1689 49 48 46
-225.017 -92.1581 -1688 48 47 45
-221.344 -92.0325 -1686 51 49 45
-217.809 -91.9617 -1685 51 49 45
-214.28 -91.8912 -1684 46 46 42
-210.882 -91.8756 -1684 48 48 45
-207.61 -91.9147 -1685 50 50 48
-204.334 -91.9542 -1686 48 48 46
-200.938 -91.9393 -1686 46 47 45
-197.542 -91.9246 -1686 43 46 43
-194.264 -91.9648 -1687 43 44 41
-190.983 -92.0053 -1688 46 46 44
-187.7 -92.0457 -1689 46 46 46
-184.414 -92.0866 -1690 46 46 46
-181.126 -92.1277 -1691 48 48 46
-177.835 -92.1689 -1692 49 49 47
-174.439 -92.156 -1692 52 52 50
-171.145 -92.1978 -1693 55 55 53
-167.749 -92.1855 -1693 55 55 53
-164.549 -92.2822 -1695 55 55 54
-161.437 -92.4335 -1698 53 56 54
-158.129 -92.4765 -1699 54 57 55
-154.726 -92.465 -1699 58 62 60
-151.503 -92.5626 -1701 60 63 61
-148.186 -92.606 -1702 60 63 61
-144.782 -92.5952 -1702 62 65 62
-141.544 -92.6937 -1704 63 66 63
-138.138 -92.6834 -1704 64 64 62
-134.891 -92.7821 -1706 65 65 63
-131.636 -92.8813 -1708 64 64 62
-128.451 -93.0348 -1711 53 53 51
-125.181 -93.1344 -1713 51 50 48
-121.904 -93.234 -1715 55 53 51
-118.481 -93.2253 -1715 57 56 53
-115.195 -93.3256 -1717 60 60 56
-111.835 -93.3715 -1718 58 58 54
-108.473 -93.4179 -1719 56 56 52
-105.169 -93.5187 -1721 57 57 53
-101.917 -93.6742 -1724 57 57 53
-98.4819 -93.667 -1724 56 56 52
-95.1582 -93.7686 -1726 57 57 53
-91.7742 -93.816 -1727 57 57 54
-88.4381 -93.9181 -1729 58 58 56
-85.193 -94.1291 -1733 55 58 55
-81.9799 -94.3946 -1738 55 58 55
-78.7023 -94.6061 -1742 56 56 52
-75.3663 -94.7632 -1745 55 56 53
-72.1012 -95.0294 -1750 52 55 52
-68.7386 -95.1872 -1753 51 54 51
-65.4016 -95.3995 -1757 49 52 49
-62.0142 -95.5578 -1760 48 51 48
-58.715 -95.8792 -1766 56 58 57
-55.5801 -96.5266 -1778 72 74 74
-52.5734 -97.4996 -1796 69 69 70
-374.953 -100.47 -1759 36 39 45
-367.5 -99.413 -1741 40 42 44
-362.006 -98.8707 -1732 39 41 42
-358.208 -98.7857 -1731 42 44 44
-354.007 -98.5867 -1728 44 46 48
-350.025 -98.4453 -1726 46 48 49
-345.25 -98.0761 -1720 50 52 52
-340.305 -97.6506 -1713 53 55 57
-335.785 -97.3393 -1708 55 57 59
-332.261 -97.3135 -1708 58 60 60
-327.778 -97.0031 -1703 61 63 63
-324.079 -96.9209 -1702 58 60 60
-320.199 -96.7821 -1700 55 58 54
-316.889 -96.8145 -1701 54 57 52
-313.209 -96.7331 -1700 53 56 51
-310.082 -96.8229 -1702 51 54 49
-306.769 -96.856 -1703 47 50 45
-303.455 -96.8894 -1704 42 45 42
-299.611 -96.7524 -1702 41 44 41
-295.952 -96.6725 -1701 43 46 43
-292.128 -96.5363 -1699 53 56 53
-288.654 -96.5138 -1699 60 63 60
-284.846 -96.3782 -1697 62 62 60
-281.381 -96.3565 -1697 62 62 60
-277.591 -96.2214 -1695 61 61 59
-273.811 -96.0867 -1693 61 61 59
-270.201 -96.0092 -1692 59 59 57
-266.912 -96.0452 -1693 57 57 55
-263.155 -95.9115 -1691 57 57 55
-260.023 -96.0048 -1693 58 58 56
-256.582 -95.985 -1693 59 59 57
-253.142 -95.9655 -1693 57 57 55
-249.41 -95.8329 -1691 58 56 54
-246.27 -95.9272 -1693 56 55 53
-242.837 -95.9085 -1693 51 51 49
-239.406 -95.8899 -1693 51 50 48
-235.837 -95.8153 -1692 49 47 45
-232.549 -95.8539 -1693 49 47 45
-228.854 -95.7231 -1691 48 47 45
-225.434 -95.7058 -1691 46 46 44
-221.623 -95.5188 -1688 51 49 45
-218.084 -95.4455 -1687 50 48 44
-214.551 -95.3724 -1686 46 46 42
-211.274 -95.4127 -1687 48 48 45
-207.748 -95.3404 -1686 49 49 47
-204.471 -95.3812 -1687 47 47 45
-200.833 -95.2526 -1685 45 46 44
-197.44 -95.2373 -1685 43 46 43
-194.048 -95.2226 -1685 44 44 42
-190.885 -95.3208 -1687 46 46 44
-187.492 -95.3065 -1687 47 47 47
-184.647 -95.5747 -1692 46 46 45
-181.247 -95.5608 -1692 46 46 44
-177.954 -95.6037 -1693 47 47 45
-174.555 -95.5904 -1693 51 51 49
-171.259 -95.6337 -1694 53 53 51
-167.861 -95.6206 -1694 54 54 52
-164.658 -95.7209 -1696 54 54 52
-161.449 -95.8214 -1698 52 55 52
-158.047 -95.8095 -1698 53 57 54
-154.738 -95.854 -1699 56 61 58
-151.425 -95.8988 -1700 58 62 59
-148.11 -95.9438 -1701 60 64 61
-144.792 -95.989 -1702 59 62 59
-141.472 -96.0345 -1703 61 64 61
-138.148 -96.0805 -1704 62 62 60
-134.901 -96.1828 -1706 63 63 61
-131.569 -96.2292 -1707 63 63 61
-128.385 -96.3884 -1710 52 52 50
-125.19 -96.548 -1713 49 49 47
-121.913 -96.6513 -1715 54 52 50
-118.559 -96.6986 -1716 57 56 53
-115.069 -96.6333 -1715 60 60 56
-111.779 -96.7375 -1717 59 59 55
-108.481 -96.8417 -1719 55 55 51
-105.177 -96.9464 -1721 56 56 52
-101.924 -97.1077 -1724 56 56 52
-98.6035 -97.2126 -1726 55 55 51
-95.1653 -97.2053 -1726 55 55 51
-91.781 -97.2546 -1727 56 56 53
-88.4958 -97.4168 -1730 57 57 55
-85.1993 -97.579 -1733 55 58 55
-81.8916 -97.7417 -1736 55 58 55
-78.6177 -97.9608 -1740 57 57 53
-75.2854 -98.124 -1743 56 58 54
-72.0242 -98.3997 -1748 53 56 53
-68.7044 -98.6196 -1752 49 53 50
-65.2949 -98.7272 -1754 47 51 48
-61.9835 -99.0038 -1759 49 52 49
-58.6196 -99.2244 -1763 54 56 55
-55.4904 -99.8955 -1775 66 68 68
-52.4602 -100.848 -1792 74 74 74
-49.7996 -102.701 -1825 107 107 109
-374.77 -103.964 -1758 42 45 50
-367.529 -102.929 -1741 40 42 44
-362.453 -102.486 -1734 41 43 44
-358.236 -102.279 -1731 44 46 46
-354.035 -102.073 -1728 48 50 52
-349.849 -101.868 -1725 50 52 54
-345.077 -101.486 -1719 53 55 55
-340.928 -101.281 -1716 55 57 58
-335.418 -100.664 -1706 56 58 60
-332.093 -100.696 -1707 57 59 59
-327.996 -100.493 -1704 58 60 60
-324.295 -100.408 -1703 58 58 58
-320.601 -100.323 -1702 54 57 53
-317.1 -100.297 -1702 52 55 50
-313.602 -100.272 -1702 49 52 47
-310.289 -100.306 -1703 47 50 44
-307.154 -100.399 -1705 44 47 41
-303.479 -100.316 -1704 40 43 40
-299.635 -100.174 -1702 40 43 40
-295.975 -100.091 -1701 45 48 45
-292.323 -100.009 -1700 55 58 55
-288.676 -99.9273 -1699 60 63 60
-284.869 -99.7867 -1697 63 63 61
-281.403 -99.7642 -1697 59 59 57
-277.612 -99.6244 -1695 60 60 58
-273.832 -99.4849 -1693 60 60 58
-270.222 -99.4045 -1692 57 57 55
-266.933 -99.4419 -1693 57 57 55
-263.176 -99.3033 -1691 58 58 56
-260.043 -99.4 -1693 57 57 55
-256.602 -99.3796 -1693 56 56 54
-253.013 -99.3005 -1692 53 52 50
-249.577 -99.2806 -1692 53 51 49
-246.289 -99.3196 -1693 51 50 48
-242.856 -99.3002 -1693 46 46 44
-239.283 -99.2224 -1692 46 44 42
-235.577 -99.0865 -1690 45 43 41
-232.43 -99.1852 -1692 47 45 43
-228.601 -98.9912 -1689 48 47 45
-225.185 -98.9731 -1689 47 47 45
-221.377 -98.7797 -1686 52 50 46
-218.101 -98.821 -1687 49 48 44
-214.313 -98.6282 -1684 45 45 41
-211.165 -98.7286 -1686 47 47 44
-207.888 -98.7706 -1687 49 49 47
-204.608 -98.8128 -1688 47 47 45
-200.849 -98.6212 -1685 44 45 43
-197.573 -98.6639 -1686 43 46 43
-193.833 -98.4729 -1683 44 45 43
-190.786 -98.6334 -1686 46 46 44
-187.618 -98.7354 -1688 46 46 46
-184.661 -98.9547 -1692 46 46 45
-181.261 -98.9404 -1692 45 45 43
-177.967 -98.9846 -1693 47 47 45
-174.465 -98.9123 -1692 48 48 46
-171.272 -99.0157 -1694 50 50 48
-167.973 -99.0608 -1695 53 53 51
-164.768 -99.1646 -1697 54 54 52
-161.462 -99.2102 -1698 54 57 54
-158.153 -99.2561 -1699 56 60 57
-154.75 -99.2438 -1699 55 61 58
-151.437 -99.2901 -1700 57 62 59
-148.209 -99.3952 -1702 58 62 59
-144.804 -99.3836 -1702 60 63 60
-141.483 -99.4307 -1703 62 64 61
-138.24 -99.5367 -1705 62 63 61
-134.911 -99.5843 -1706 62 62 60
-131.579 -99.6321 -1707 63 63 61
-128.395 -99.7971 -1710 52 52 50
-125.273 -100.021 -1714 48 48 46
-121.922 -100.069 -1715 54 52 50
-118.499 -100.06 -1715 55 55 51
-115.145 -100.109 -1716 59 59 55
-111.722 -100.1 -1716 59 59 55
-108.363 -100.15 -1717 56 56 52
-105.063 -100.258 -1719 56 56 52
-101.814 -100.425 -1722 56 58 53
-98.3825 -100.417 -1722 54 56 51
-95.1174 -100.584 -1725 54 54 50
-91.735 -100.636 -1726 55 55 51
-88.4514 -100.803 -1729 55 55 53
-85.1075 -100.913 -1731 54 55 53
-81.8035 -101.082 -1734 55 56 54
-78.5334 -101.308 -1738 56 56 52
-75.2048 -101.477 -1741 56 58 54
-71.9473 -101.763 -1746 54 57 54
-68.7098 -102.107 -1752 49 53 51
-65.2999 -102.219 -1754 45 49 47
-61.9883 -102.505 -1759 47 50 47
-58.6241 -102.733 -1763 49 51 50
-55.4321 -103.312 -1773 60 62 62
-52.2886 -104.065 -1786 74 74 74
-49.585 -105.867 -1817 84 85 86
-374.374 -107.394 -1756 41 45 48
-367.559 -106.446 -1741 39 41 43
-362.691 -106.048 -1735 40 42 43
-358.472 -105.835 -1732 43 45 46
-354.064 -105.561 -1728 50 52 54
-349.675 -105.287 -1724 54 56 57
-344.302 -104.709 -1715 56 58 58
-339.963 -104.436 -1711 55 57 58
-335.446 -104.103 -1706 55 57 59
-331.731 -104.015 -1705 56 58 58
-327.83 -103.865 -1703 55 57 56
-324.322 -103.838 -1703 56 56 56
-320.816 -103.811 -1703 52 55 51
-317.312 -103.785 -1703 47 50 46
-313.627 -103.698 -1702 43 46 42
-310.678 -103.855 -1705 42 45 40
-307.359 -103.89 -1706 42 45 39
-303.504 -103.743 -1704 41 44 41
-299.835 -103.658 -1703 40 43 40
-296.174 -103.572 -1702 48 51 48
-292.346 -103.426 -1700 56 59 56
-288.36 -103.22 -1697 60 63 60
-284.724 -103.135 -1696 60 60 58
-280.928 -102.99 -1694 58 58 56
-277.143 -102.846 -1692 57 57 55
-273.692 -102.823 -1692 57 57 55
-269.924 -102.679 -1690 56 56 54
-266.482 -102.657 -1690 56 56 54
-263.042 -102.635 -1690 57 57 55
-259.604 -102.614 -1690 56 56 53
-256.319 -102.654 -1691 54 54 51
-252.883 -102.633 -1691 52 51 49
-249.45 -102.612 -1691 50 48 46
-246.309 -102.713 -1693 45 44 42
-242.732 -102.632 -1692 42 41 39
-239.302 -102.613 -1692 42 40 38
-235.735 -102.532 -1691 43 41 39
-232.174 -102.453 -1690 47 44 43
-228.484 -102.313 -1688 47 45 43
-224.936 -102.233 -1687 47 47 44
-221.264 -102.094 -1685 53 51 48
-218.118 -102.197 -1687 48 47 43
-214.585 -102.119 -1686 43 43 40
-211.558 -102.283 -1689 46 46 44
-208.151 -102.266 -1689 49 49 47
-204.867 -102.31 -1690 48 48 46
-200.865 -101.991 -1685 45 46 43
-197.471 -101.974 -1685 42 44 42
-193.849 -101.837 -1683 44 44 42
-190.915 -102.064 -1687 46 46 44
-187.521 -102.048 -1687 46 46 45
-184.566 -102.275 -1691 46 46 45
-181.382 -102.381 -1693 45 46 43
-178.087 -102.427 -1694 46 46 44
-174.582 -102.352 -1693 46 46 44
-171.488 -102.519 -1696 48 48 46
-168.086 -102.506 -1696 51 51 49
-164.782 -102.552 -1697 53 54 52
-161.475 -102.6 -1698 54 57 55
-158.165 -102.647 -1699 56 59 57
-154.671 -102.574 -1698 55 60 58
-151.36 -102.622 -1699 56 60 58
-148.134 -102.731 -1701 57 60 58
-144.815 -102.779 -1702 58 60 58
-141.411 -102.767 -1702 60 62 60
-138.008 -102.756 -1702 59 61 59
-134.685 -102.805 -1703 59 60 58
-131.436 -102.915 -1705 60 61 59
-128.255 -103.086 -1708 53 53 51
-125.136 -103.317 -1712 46 46 44
-121.861 -103.428 -1714 52 50 49
-118.44 -103.418 -1714 54 53 51
-115.154 -103.529 -1716 58 58 55
-111.796 -103.58 -1717 59 59 55
-108.309 -103.511 -1716 58 58 54
-105.071 -103.683 -1719 58 58 54
-101.822 -103.856 -1722 57 59 54
-98.4475 -103.908 -1723 54 57 52
-95.0699 -103.961 -1724 54 54 50
-91.7954 -104.134 -1727 54 54 50
-88.4073 -104.187 -1728 54 53 51
-85.016 -104.24 -1729 53 53 51
-81.7157 -104.414 -1732 55 55 53
-78.404 -104.589 -1735 56 57 53
-75.1676 -104.884 -1740 56 57 54
-71.9118 -105.179 -1745 57 60 57
-68.676 -105.535 -1751 54 57 56
-65.3423 -105.771 -1755 49 53 51
-62.0285 -106.067 -1760 49 52 49
-58.6953 -106.364 -1765 49 51 50
-55.3739 -106.721 -1771 55 57 57
-52.1756 -107.379 -1782 73 73 73
-49.1796 -108.58 -1802 70 71 72
-382.147 -112.176 -1775 41 43 47
-374.406 -110.943 -1756 39 41 44
-368.224 -110.153 -1744 42 44 46
-363.14 -109.679 -1737 42 44 46
-358.71 -109.396 -1733 48 50 51
-353.684 -108.923 -1726 56 58 60
-348.893 -108.514 -1720 57 59 61
-343.93 -108.043 -1713 56 58 58
-339.793 -107.824 -1710 55 57 57
-335.474 -107.543 -1706 56 58 58
-331.759 -107.452 -1705 57 59 59
-327.665 -107.234 -1702 55 57 56
-324.349 -107.269 -1703 54 57 54
-320.654 -107.179 -1702 50 53 50
-317.339 -107.215 -1703 45 48 45
-313.838 -107.188 -1703 43 46 43
-310.522 -107.224 -1704 43 46 42
-307.024 -107.198 -1704 43 46 42
-303.529 -107.172 -1704 41 44 41
-299.684 -107.02 -1702 38 41 38
-295.85 -106.869 -1700 48 51 48
-292.027 -106.718 -1698 56 59 56
-288.044 -106.505 -1695 59 62 59
-284.244 -106.355 -1693 59 59 57
-280.62 -106.268 -1692 58 59 57
-276.675 -106.056 -1689 54 57 54
-273.392 -106.095 -1690 55 54 52
-269.947 -106.072 -1690 55 54 52
-266.819 -106.175 -1692 56 54 52
-263.375 -106.152 -1692 56 55 53
-259.932 -106.13 -1692 54 54 50
-256.492 -106.108 -1692 53 51 47
-253.054 -106.087 -1692 51 50 46
-249.766 -106.128 -1693 47 45 45
-246.33 -106.107 -1693 43 41 40
-242.752 -106.024 -1692 41 39 37
-239.181 -105.941 -1691 41 39 37
-235.615 -105.858 -1690 43 40 39
-232.056 -105.775 -1689 48 44 43
-228.367 -105.631 -1687 50 47 45
-224.955 -105.612 -1687 50 49 45
-221.282 -105.468 -1685 53 51 49
-218.136 -105.574 -1687 49 47 45
-214.602 -105.493 -1686 43 43 41
-211.575 -105.663 -1689 46 46 42
-208.045 -105.583 -1688 49 49 45
-204.884 -105.69 -1690 48 48 44
-200.882 -105.361 -1685 46 46 42
-197.488 -105.344 -1685 44 44 42
-193.865 -105.202 -1683 42 42 40
-190.817 -105.374 -1686 43 43 41
-187.537 -105.42 -1687 47 47 45
-184.582 -105.654 -1691 46 47 44
-181.397 -105.764 -1693 44 47 42
-178.102 -105.811 -1694 45 46 42
-174.7 -105.797 -1694 46 46 42
-171.502 -105.907 -1696 47 47 45
-168.099 -105.893 -1696 48 49 48
-164.698 -105.879 -1696 50 52 52
-161.393 -105.927 -1697 54 56 55
-157.899 -105.852 -1696 54 56 56
-154.593 -105.901 -1697 54 58 57
-151.373 -106.013 -1699 56 59 58
-147.972 -106 -1699 57 59 59
-144.657 -106.05 -1700 59 60 59
-141.339 -106.101 -1701 60 60 60
-137.938 -106.089 -1701 60 60 60
-134.537 -106.078 -1701 58 60 58
-131.292 -106.191 -1703 57 59 57
-128.115 -106.367 -1706 52 54 51
-125.001 -106.606 -1710 45 47 44
-121.729 -106.721 -1712 48 48 48
-118.38 -106.773 -1713 52 52 50
-115.029 -106.825 -1714 56 56 54
-111.675 -106.878 -1715 57 57 53
-108.191 -106.807 -1714 58 58 54
-104.835 -106.86 -1715 59 59 55
-101.653 -107.101 -1719 58 58 54
-98.2842 -107.155 -1720 57 57 53
-94.9675 -107.271 -1722 56 56 52
-91.6966 -107.45 -1725 56 56 52
-88.3634 -107.567 -1727 57 55 52
-84.9738 -107.623 -1728 55 55 52
-81.6752 -107.802 -1731 55 55 53
-78.3654 -107.982 -1734 54 56 53
-75.0874 -108.225 -1738 54 57 54
-71.8353 -108.53 -1743 57 60 57
-68.6423 -108.96 -1750 55 58 56
-65.2732 -109.141 -1753 52 55 52
-61.963 -109.447 -1758 51 54 51
-58.5671 -109.629 -1761 51 53 52
-55.2535 -109.998 -1767 53 55 55
-52.0042 -110.554 -1776 67 67 67
-49.0198 -111.794 -1796 70 70 71
-382.181 -115.765 -1775 38 40 43
-374.012 -114.362 -1754 39 41 43
-369.101 -113.938 -1748 42 44 46
-363.381 -113.254 -1738 45 47 49
-358.948 -112.961 -1734 50 52 54
-353.51 -112.343 -1725 58 60 63
-348.518 -111.856 -1718 59 61 63
-343.357 -111.305 -1710 56 58 58
-339.623 -111.209 -1709 54 56 56
-335.11 -110.854 -1704 54 56 56
-331.593 -110.825 -1704 55 57 56
-327.886 -110.731 -1703 55 57 55
-324.377 -110.702 -1703 50 53 50
-320.682 -110.608 -1702 45 48 45
-317.367 -110.645 -1703 42 45 42
-314.05 -110.682 -1704 41 44 41
-310.367 -110.59 -1703 41 44 41
-306.871 -110.563 -1703 40 43 40
-303.021 -110.406 -1701 40 43 40
-299.534 -110.379 -1701 38 41 38
-295.702 -110.223 -1699 50 53 50
-291.88 -110.068 -1697 56 59 56
-287.899 -109.848 -1694 57 60 57
-283.933 -109.628 -1691 57 57 55
-280.313 -109.539 -1690 56 57 55
-276.699 -109.449 -1689 53 56 53
-273.254 -109.425 -1689 53 53 51
-269.81 -109.401 -1689 52 51 49
-266.842 -109.572 -1692 54 53 51
-263.242 -109.484 -1691 53 52 50
-259.801 -109.461 -1691 50 50 47
-256.211 -109.374 -1690 48 46 42
-252.777 -109.352 -1690 47 45 41
-249.345 -109.33 -1690 44 41 42
-246.06 -109.373 -1691 42 39 39
-242.63 -109.351 -1691 42 40 38
-239.201 -109.33 -1691 44 42 40
-235.775 -109.309 -1691 46 43 42
-232.213 -109.224 -1690 51 47 46
-228.522 -109.075 -1688 54 51 48
-225.241 -109.12 -1689 53 51 47
-221.827 -109.1 -1689 53 51 49
-218.414 -109.081 -1689 51 49 47
-215.13 -109.127 -1690 43 43 41
-211.844 -109.173 -1691 43 43 40
-208.186 -109.026 -1689 46 46 42
-204.78 -109.007 -1689 45 45 42
-201.018 -108.796 -1686 45 45 43
-197.622 -108.779 -1686 46 46 44
-194.112 -108.697 -1685 44 44 42
-190.834 -108.745 -1686 44 44 42
-187.664 -108.858 -1688 47 47 45
-184.597 -109.035 -1691 46 47 45
-181.413 -109.148 -1693 44 47 44
-178.117 -109.197 -1694 45 45 42
-174.715 -109.182 -1694 45 45 42
-171.416 -109.231 -1695 47 47 45
-168.015 -109.216 -1695 48 49 48
-164.615 -109.202 -1695 49 51 51
-161.121 -109.123 -1694 52 54 54
-157.633 -109.045 -1693 53 55 55
-154.333 -109.096 -1694 53 57 56
-151.118 -109.212 -1696 56 59 59
-147.723 -109.199 -1696 57 59 59
-144.414 -109.25 -1697 61 61 61
-141.185 -109.367 -1699 59 59 59
-137.706 -109.29 -1698 59 60 60
-134.47 -109.407 -1700 58 60 59
-131.303 -109.589 -1703 55 58 55
-128.201 -109.835 -1707 51 52 50
-125.011 -110.017 -1710 46 47 45
-121.81 -110.199 -1713 47 47 46
-118.39 -110.189 -1713 50 50 48
-114.972 -110.179 -1713 52 52 49
-111.554 -110.169 -1713 54 54 50
-108.074 -110.095 -1712 57 57 54
-104.783 -110.215 -1714 58 58 55
-101.543 -110.399 -1717 58 58 54
-98.2354 -110.519 -1719 58 58 54
-94.9755 -110.703 -1722 58 58 54
-91.5981 -110.76 -1723 59 59 55
-88.2686 -110.88 -1725 60 59 56
-84.9318 -111.001 -1727 57 57 55
-81.5877 -111.123 -1729 54 55 53
-78.3268 -111.373 -1733 54 57 54
-75.0074 -111.559 -1736 54 57 54
-71.759 -111.874 -1741 55 58 55
-68.5306 -112.254 -1747 53 56 53
-65.2415 -112.569 -1752 53 56 53
-61.8979 -112.821 -1756 51 54 51
-58.6053 -113.201 -1762 51 53 52
-55.2268 -113.453 -1766 54 55 55
-51.9208 -113.898 -1773 64 64 64
-48.9148 -115.114 -1792 71 71 71
-380.924 -118.952 -1769 39 41 44
-373.619 -117.775 -1752 40 42 44
-368.712 -117.337 -1746 42 44 46
-363.205 -116.699 -1737 48 50 52
-358.152 -116.196 -1730 54 56 58
-352.722 -115.559 -1721 56 58 62
-347.332 -114.923 -1712 57 59 63
-343.187 -114.69 -1709 55 57 57
-339.257 -114.524 -1707 53 55 55
-335.534 -114.427 -1706 52 54 54
-331.818 -114.329 -1705 50 53 50
-328.108 -114.232 -1704 50 53 50
-324.406 -114.135 -1703 45 48 45
-320.711 -114.039 -1702 42 45 42
-316.836 -113.876 -1700 40 43 40
-313.525 -113.914 -1701 40 43 40
-310.212 -113.952 -1702 40 43 40
-306.538 -113.858 -1701 41 44 41
-302.514 -113.629 -1698 41 44 41
-299.209 -113.669 -1699 41 44 41
-295.38 -113.508 -1697 54 57 54
-291.218 -113.214 -1693 56 59 56
-287.415 -113.054 -1691 56 59 56
-283.622 -112.894 -1689 57 57 55
-279.84 -112.735 -1687 56 56 54
-276.396 -112.71 -1687 53 56 53
-273.278 -112.819 -1689 52 53 50
-269.994 -112.861 -1690 51 51 49
-266.866 -112.97 -1692 52 52 50
-263.421 -112.946 -1692 49 49 47
-259.978 -112.923 -1692 47 47 45
-256.385 -112.833 -1691 45 44 40
-252.799 -112.743 -1690 45 43 39
-249.514 -112.787 -1691 45 42 43
-246.082 -112.765 -1691 44 42 41
-242.651 -112.742 -1691 44 42 40
-239.223 -112.721 -1691 47 45 43
-235.935 -112.766 -1692 50 48 46
-232.097 -112.545 -1689 55 51 50
-228.542 -112.458 -1688 57 54 51
-225.128 -112.437 -1688 55 53 49
-221.583 -112.351 -1687 55 53 50
-218.174 -112.331 -1687 51 49 47
-214.767 -112.311 -1687 42 42 40
-211.612 -112.425 -1689 44 44 41
-208.081 -112.34 -1688 46 46 42
-204.556 -112.255 -1687 45 45 43
-201.155 -112.237 -1687 45 45 43
-197.756 -112.219 -1687 47 47 45
-194.359 -112.201 -1687 45 45 43
-191.077 -112.251 -1688 47 47 45
-187.681 -112.234 -1688 47 47 45
-184.505 -112.35 -1690 46 47 45
-181.322 -112.466 -1692 45 48 45
-178.027 -112.517 -1693 45 45 43
-174.627 -112.501 -1693 45 45 43
-171.33 -112.552 -1694 47 47 45
-168.129 -112.67 -1696 47 48 47
-164.532 -112.522 -1694 48 50 50
-161.041 -112.441 -1693 51 53 53
-157.833 -112.56 -1695 52 54 54
-154.346 -112.479 -1694 52 56 55
-150.953 -112.465 -1694 55 58 58
-147.649 -112.519 -1695 57 59 59
-144.342 -112.572 -1696 60 61 61
-141.115 -112.692 -1698 57 57 57
-137.556 -112.547 -1696 57 59 59
-134.402 -112.734 -1699 56 58 57
-131.161 -112.855 -1701 53 56 53
-127.987 -113.042 -1704 52 52 50
-124.73 -113.163 -1706 48 48 46
-121.607 -113.418 -1710 46 46 44
-118.194 -113.407 -1710 48 48 45
-114.915 -113.529 -1712 51 51 47
-111.499 -113.519 -1712 54 54 50
-108.084 -113.51 -1712 56 56 53
-104.792 -113.633 -1714 57 57 55
-101.611 -113.889 -1718 59 59 55
-98.2441 -113.946 -1719 59 59 55
-94.9286 -114.07 -1721 59 59 55
-91.5529 -114.128 -1722 59 59 56
-88.2251 -114.253 -1724 59 59 57
-84.8408 -114.311 -1725 56 59 56
-81.5477 -114.502 -1728 54 57 54
-78.2432 -114.694 -1731 54 57 54
-74.9707 -114.952 -1735 53 56 53
-71.7241 -115.277 -1740 54 57 54
-68.4973 -115.668 -1746 53 56 53
-65.21 -115.994 -1751 53 56 53
-61.868 -116.253 -1755 51 54 51
-58.5107 -116.513 -1759 52 53 52
-55.1691 -116.839 -1764 54 54 54
-51.896 -117.364 -1772 58 58 58
-48.8099 -118.419 -1788 71 71 71
-380.098 -122.254 -1765 40 42 45
-373.227 -121.18 -1750 44 46 48
-367.69 -120.522 -1741 46 48 50
-362.402 -119.934 -1733 53 55 57
-357.357 -119.415 -1726 58 60 62
-351.935 -118.759 -1717 58 60 63
-347.567 -118.45 -1713 58 60 64
-342.617 -117.933 -1706 56 58 58
-339.288 -117.97 -1707 52 54 54
-335.565 -117.869 -1706 50 52 52
-332.043 -117.838 -1706 48 51 48
-328.139 -117.669 -1704 46 49 46
-324.627 -117.638 -1704 43 46 43
-321.306 -117.677 -1705 41 44 41
-317.052 -117.371 -1701 41 44 41
-313.922 -117.479 -1703 41 44 41
-310.059 -117.312 -1701 44 47 44
-306.566 -117.283 -1701 44 47 44
-302.542 -117.048 -1698 44 47 44
-299.06 -117.02 -1698 46 49 46
-295.233 -116.854 -1696 56 59 56
-291.073 -116.551 -1692 56 59 56
-287.271 -116.387 -1690 55 58 55
-283.144 -116.085 -1686 57 57 55
-279.534 -115.989 -1685 56 56 54
-276.094 -115.963 -1685 53 56 53
-272.817 -116.007 -1686 51 52 50
-269.859 -116.188 -1689 49 49 47
-266.891 -116.369 -1692 48 48 46
-263.601 -116.413 -1693 45 45 43
-260.156 -116.389 -1693 43 43 41
-256.257 -116.159 -1690 45 43 40
-252.822 -116.135 -1690 44 42 38
-249.39 -116.112 -1690 44 42 41
-246.104 -116.157 -1691 45 43 41
-242.817 -116.203 -1692 45 43 41
-239.527 -116.25 -1693 48 46 44
-236.236 -116.296 -1694 51 49 47
-232.393 -116.068 -1691 57 55 53
-228.834 -115.978 -1690 58 56 53
-225.148 -115.82 -1688 57 55 51
-221.735 -115.799 -1688 56 54 52
-218.194 -115.71 -1687 49 47 45
-214.914 -115.759 -1688 40 40 38
-211.757 -115.876 -1690 45 45 42
-208.347 -115.857 -1690 47 47 43
-204.817 -115.77 -1689 46 46 44
-201.293 -115.682 -1688 46 46 44
-198.009 -115.732 -1689 47 47 45
-194.492 -115.646 -1688 45 45 43
-191.207 -115.696 -1689 48 48 46
-187.92 -115.747 -1690 48 48 46
-184.521 -115.73 -1690 47 48 45
-181.446 -115.918 -1693 44 47 44
-178.254 -116.039 -1695 44 45 42
-174.849 -116.023 -1695 45 45 43
-171.446 -116.007 -1695 46 46 45
-168.045 -115.991 -1695 46 47 46
-164.45 -115.839 -1693 46 48 48
-160.96 -115.756 -1692 49 51 51
-157.755 -115.878 -1694 51 53 53
-154.451 -115.932 -1695 53 55 55
-150.967 -115.849 -1694 55 57 57
-147.662 -115.904 -1695 56 58 58
-144.27 -115.891 -1695 58 59 59
-141.044 -116.014 -1697 57 58 58
-137.569 -115.933 -1696 57 59 59
-134.415 -116.125 -1699 55 57 56
-131.173 -116.25 -1701 53 56 53
-128.074 -116.511 -1705 53 53 51
-124.814 -116.637 -1707 49 49 47
-121.761 -116.967 -1712 47 47 45
-118.342 -116.956 -1712 47 47 44
-115.06 -117.082 -1714 50 50 46
-111.639 -117.071 -1714 55 55 51
-108.157 -116.993 -1713 56 56 52
-104.863 -117.12 -1715 56 56 54
-101.68 -117.383 -1719 57 57 54
-98.2528 -117.374 -1719 57 57 53
-94.9372 -117.502 -1721 57 57 53
-91.6144 -117.63 -1723 58 58 54
-88.2843 -117.758 -1725 58 58 56
-84.8977 -117.818 -1726 56 58 55
-81.555 -117.947 -1728 55 58 55
-78.3408 -118.281 -1733 54 57 54
-75.0207 -118.479 -1736 52 55 52
-71.7305 -118.745 -1740 53 56 53
-68.3858 -118.944 -1743 54 57 54
-65.1786 -119.415 -1750 55 58 55
-61.8736 -119.751 -1755 52 55 52
-58.5492 -120.086 -1760 51 53 51
-55.1429 -120.286 -1763 52 52 51
-51.8128 -120.69 -1769 59 59 59
-48.6232 -121.504 -1781 69 69 69
-378.842 -125.399 -1759 41 43 46
-372.623 -124.507 -1747 50 52 54
-367.091 -123.829 -1738 54 56 58
-362.437 -123.438 -1733 57 59 61
-356.77 -122.691 -1723 57 59 61
-351.969 -122.229 -1717 57 59 62
-347.195 -121.768 -1711 58 60 63
-342.248 -121.237 -1704 56 58 58
-339.122 -121.346 -1706 51 53 53
-335.4 -121.242 -1705 47 49 49
-331.685 -121.139 -1704 47 49 47
-328.555 -121.249 -1706 45 48 46
-325.229 -121.288 -1707 42 45 42
-321.525 -121.186 -1706 41 44 41
-317.827 -121.084 -1705 40 43 40
-313.952 -120.912 -1703 42 45 42
-310.27 -120.811 -1702 44 47 44
-306.595 -120.71 -1701 46 49 46
-302.748 -120.539 -1699 49 52 49
-298.912 -120.368 -1697 50 53 50
-295.087 -120.198 -1695 56 59 56
-291.1 -119.957 -1692 55 58 55
-287.129 -119.716 -1689 54 57 54
-283.339 -119.547 -1687 53 54 52
-279.892 -119.52 -1687 51 52 50
-276.284 -119.422 -1686 50 53 50
-273.329 -119.609 -1689 49 50 48
-270.044 -119.653 -1690 47 47 45
-267.074 -119.84 -1693 43 43 41
-263.782 -119.885 -1694 40 40 38
-260.334 -119.86 -1694 41 41 39
-256.736 -119.765 -1693 43 42 38
-253.145 -119.67 -1692 42 40 36
-249.708 -119.645 -1692 42 40 38
-246.273 -119.622 -1692 45 43 41
-242.983 -119.669 -1693 48 46 44
-239.691 -119.717 -1694 51 50 48
-236.537 -119.835 -1696 55 54 52
-232.689 -119.601 -1693 59 57 55
-228.991 -119.438 -1691 59 57 55
-225.303 -119.275 -1689 56 54 51
-221.887 -119.253 -1689 56 55 53
-218.215 -119.091 -1687 46 45 43
-214.934 -119.141 -1688 37 37 35
-211.651 -119.191 -1689 45 45 43
-208.243 -119.171 -1689 48 48 45
-204.715 -119.081 -1688 47 47 45
-201.431 -119.132 -1689 47 47 45
-198.145 -119.184 -1690 46 46 44
-194.741 -119.165 -1690 45 45 43
-191.339 -119.147 -1690 46 46 44
-188.049 -119.199 -1691 48 48 46
-184.648 -119.182 -1691 48 49 46
-181.462 -119.305 -1693 44 47 44
-178.165 -119.359 -1694 44 45 42
-174.969 -119.483 -1696 44 44 42
-171.462 -119.396 -1695 45 45 45
-168.06 -119.38 -1695 45 46 46
-164.465 -119.223 -1693 45 47 47
-161.165 -119.278 -1694 48 49 49
-157.676 -119.193 -1693 51 52 52
-154.466 -119.319 -1695 52 54 54
-151.07 -119.304 -1695 54 56 56
-147.676 -119.29 -1695 55 57 57
-144.368 -119.347 -1696 57 58 58
-141.14 -119.474 -1698 57 58 58
-137.582 -119.32 -1696 57 59 59
-134.348 -119.448 -1698 56 59 57
-131.108 -119.576 -1700 57 60 57
-128.011 -119.845 -1704 56 57 55
-124.679 -119.903 -1705 50 51 49
-121.701 -120.314 -1711 47 48 46
-118.353 -120.373 -1712 47 47 45
-115.003 -120.432 -1713 49 49 46
-111.519 -120.351 -1712 51 51 47
-108.23 -120.481 -1714 52 52 49
-104.872 -120.541 -1715 53 53 50
-101.63 -120.742 -1718 54 54 50
-98.3192 -120.874 -1720 55 55 51
-95.0564 -121.075 -1723 56 57 53
-91.6229 -121.067 -1723 57 58 55
-88.2925 -121.198 -1725 57 57 55
-84.9548 -121.331 -1727 55 57 54
-81.6098 -121.464 -1729 53 56 53
-78.348 -121.737 -1733 54 57 54
-75.0276 -121.941 -1736 53 56 53
-71.7372 -122.215 -1740 54 57 54
-68.3921 -122.419 -1743 53 56 53
-65.0357 -122.623 -1746 55 58 55
-61.7736 -123.038 -1752 54 57 54
-58.4549 -123.384 -1757 51 53 50
-55.1166 -123.73 -1762 50 50 48
-51.8177 -124.216 -1769 55 55 54
-48.655 -125.124 -1782 63 63 62
-45.5676 -126.384 -1800 79 79 79
-386.021 -130.171 -1775 44 46 50
-377.371 -128.446 -1752 46 48 51
-371.593 -127.676 -1742 59 61 63
-365.86 -126.906 -1732 59 61 63
-360.59 -126.284 -1724 57 59 61
-355.977 -125.882 -1719 57 59 61
-351.183 -125.407 -1713 57 59 61
-347.229 -125.226 -1711 56 58 60
-342.683 -124.826 -1706 54 56 56
-339.155 -124.792 -1706 48 50 50
-335.236 -124.612 -1704 44 46 46
-332.302 -124.798 -1707 42 44 44
-328.78 -124.765 -1707 44 46 45
-325.642 -124.879 -1709 43 46 43
-321.745 -124.7 -1707 40 43 40
-317.859 -124.523 -1705 42 45 42
-314.167 -124.418 -1704 46 49 46
-310.301 -124.241 -1702 48 51 48
-306.625 -124.138 -1701 50 53 50
-302.778 -123.962 -1699 51 54 51
-298.942 -123.786 -1697 50 53 50
-294.942 -123.538 -1694 55 58 55
-290.785 -123.217 -1690 55 58 55
-286.986 -123.043 -1688 54 57 54
-283.535 -123.015 -1688 50 53 50
-279.919 -122.914 -1687 46 49 46
-276.474 -122.886 -1687 43 46 43
-273.355 -123.005 -1689 44 45 43
-270.071 -123.051 -1690 46 46 44
-266.942 -123.17 -1692 43 43 41
-263.807 -123.289 -1694 40 40 38
-260.513 -123.336 -1695 41 41 39
-256.913 -123.238 -1694 43 42 38
-253.469 -123.213 -1694 43 41 37
-249.88 -123.115 -1693 42 40 38
-246.733 -123.236 -1695 46 44 42
-243.294 -123.213 -1695 52 50 48
-239.856 -123.189 -1695 56 56 54
-236.699 -123.311 -1697 60 59 57
-232.712 -122.997 -1693 60 58 56
-228.878 -122.756 -1690 60 58 56
-225.325 -122.661 -1689 56 54 51
-221.909 -122.64 -1689 53 53 51
-218.236 -122.473 -1687 42 41 39
-214.955 -122.524 -1688 36 36 34
-211.672 -122.576 -1689 47 47 45
-208.263 -122.555 -1689 47 47 45
-204.734 -122.462 -1688 46 46 44
-201.57 -122.588 -1690 46 46 44
-198.281 -122.641 -1691 45 45 43
-194.875 -122.621 -1691 43 43 41
-191.357 -122.53 -1690 45 45 43
-188.178 -122.657 -1692 47 47 45
-184.666 -122.566 -1691 48 49 47
-181.48 -122.693 -1693 44 47 44
-178.288 -122.82 -1695 44 45 42
-174.883 -122.803 -1695 44 44 42
-171.378 -122.714 -1694 44 44 44
-167.977 -122.697 -1694 44 45 45
-164.578 -122.681 -1694 44 46 46
-161.181 -122.665 -1694 49 50 50
-157.784 -122.65 -1694 51 51 51
-154.572 -122.779 -1696 52 54 54
-151.085 -122.692 -1695 53 55 55
-147.777 -122.75 -1696 54 56 56
-144.382 -122.735 -1696 58 58 58
-141.154 -122.866 -1698 60 60 60
-137.676 -122.78 -1697 59 61 61
-134.361 -122.839 -1698 59 62 60
-131.043 -122.899 -1699 61 64 61
-127.948 -123.176 -1703 58 61 58
-124.765 -123.38 -1706 51 54 51
-121.712 -123.73 -1711 46 49 46
-118.434 -123.863 -1713 45 48 45
-115.081 -123.924 -1714 45 48 45
-111.66 -123.913 -1714 47 47 43
-108.24 -123.902 -1714 49 49 45
-104.882 -123.964 -1715 52 52 48
-101.64 -124.171 -1718 53 53 49
-98.3286 -124.306 -1720 56 56 52
-95.0103 -124.441 -1722 57 60 55
-91.6317 -124.504 -1723 57 59 55
-88.3009 -124.64 -1725 58 58 56
-84.9629 -124.776 -1727 55 57 54
-81.6177 -124.912 -1729 53 56 53
-78.3103 -125.121 -1732 54 57 54
-74.9484 -125.258 -1734 55 58 55
-71.7028 -125.612 -1739 55 58 55
-68.2417 -125.606 -1739 52 55 52
-65.0046 -126.033 -1745 55 58 55
-61.7089 -126.388 -1750 56 59 56
-58.4271 -126.815 -1756 53 56 53
-55.1219 -127.243 -1762 50 53 50
-51.7054 -127.454 -1765 53 53 51
-48.4958 -128.244 -1776 60 60 59
-45.496 -129.756 -1797 73 73 73
-384.321 -133.164 -1767 46 48 52
-375.902 -131.467 -1745 53 55 57
-370.778 -130.901 -1738 57 59 61
-365.263 -130.185 -1729 56 58 60
-360.626 -129.772 -1724 57 59 61
-356.013 -129.359 -1719 58 60 62
-351.424 -128.946 -1714 56 58 59
-347.67 -128.835 -1713 56 58 58
-343.119 -128.424 -1708 54 56 56
-339.388 -128.314 -1707 49 51 51
-335.663 -128.204 -1706 45 47 47
-332.53 -128.32 -1708 43 45 44
-328.62 -128.136 -1706 44 46 44
-325.866 -128.403 -1710 47 50 47
-321.966 -128.22 -1708 44 47 44
-318.077 -128.037 -1706 43 46 43
-314.015 -127.78 -1703 51 54 51
-310.332 -127.673 -1702 54 57 54
-306.476 -127.491 -1700 54 57 54
-302.452 -127.235 -1697 52 55 52
-298.619 -127.055 -1695 49 52 49
-294.623 -126.8 -1692 53 56 53
-290.47 -126.471 -1688 52 55 52
-286.845 -126.366 -1687 50 53 50
-283.227 -126.263 -1686 48 50 49
-279.947 -126.309 -1687 43 45 44
-276.666 -126.355 -1688 42 44 44
-273.383 -126.402 -1689 41 42 41
-269.938 -126.375 -1689 40 42 39
-266.811 -126.497 -1691 41 43 41
-263.522 -126.545 -1692 40 41 39
-260.539 -126.743 -1695 40 40 38
-256.787 -126.567 -1693 40 39 36
-253.794 -126.766 -1696 38 36 34
-250.348 -126.74 -1696 43 41 39
-246.904 -126.715 -1696 48 46 44
-243.462 -126.69 -1696 56 54 51
-240.163 -126.74 -1697 58 58 56
-236.584 -126.642 -1696 59 59 57
-232.598 -126.319 -1692 61 59 57
-228.901 -126.147 -1690 60 58 56
-225.08 -125.9 -1687 54 52 50
-221.668 -125.877 -1687 50 50 48
-218.128 -125.781 -1686 41 41 39
-214.849 -125.833 -1687 38 38 36
-211.567 -125.887 -1688 47 47 45
-208.284 -125.94 -1689 47 47 45
-204.755 -125.845 -1688 44 44 42
-201.709 -126.048 -1691 45 45 43
-198.418 -126.102 -1692 45 45 43
-194.894 -126.008 -1691 44 44 42
-191.489 -125.989 -1691 43 43 41
-188.197 -126.044 -1692 46 46 44
-184.793 -126.025 -1692 47 47 45
-181.391 -126.007 -1692 45 48 45
-178.305 -126.212 -1695 41 42 41
-174.9 -126.195 -1695 41 41 41
-171.395 -126.103 -1694 44 44 44
-168.192 -126.235 -1696 43 44 44
-164.789 -126.218 -1696 44 46 46
-161.292 -126.127 -1695 50 50 50
-157.986 -126.186 -1696 51 51 51
-154.769 -126.319 -1698 50 52 52
-151.278 -126.229 -1697 50 52 52
-147.966 -126.288 -1698 52 54 54
-144.567 -126.274 -1698 55 56 56
-141.168 -126.26 -1698 56 57 57
-137.608 -126.097 -1696 56 58 58
-134.137 -126.009 -1695 57 60 58
-130.825 -126.07 -1696 60 63 60
-127.735 -126.354 -1700 57 60 57
-124.704 -126.713 -1705 49 52 49
-121.653 -127.073 -1710 44 47 44
-118.376 -127.209 -1712 44 47 44
-115.227 -127.495 -1716 44 47 44
-111.671 -127.335 -1714 47 48 45
-108.314 -127.398 -1715 49 50 47
-105.015 -127.536 -1717 51 51 47
-101.768 -127.749 -1720 53 53 49
-98.3954 -127.813 -1721 57 57 54
-95.0197 -127.878 -1722 58 61 57
-91.6407 -127.943 -1723 58 60 57
-88.2585 -128.008 -1724 57 58 56
-84.922 -128.148 -1726 55 57 54
-81.5312 -128.214 -1727 53 56 53
-78.318 -128.577 -1732 54 57 54
-74.999 -128.792 -1735 55 58 55
-71.6686 -129.007 -1738 54 57 54
-68.2876 -129.149 -1740 55 58 55
-64.9365 -129.365 -1743 54 57 54
-61.6445 -129.73 -1748 56 59 56
-58.3663 -130.169 -1754 57 60 57
-55.0335 -130.534 -1759 53 56 53
-51.769 -131.123 -1767 49 49 47
-48.5006 -131.786 -1776 56 56 54
-45.4751 -133.265 -1796 65 65 65
-383.708 -136.512 -1764 54 56 60
-376.803 -135.311 -1749 59 61 64
-370.176 -134.189 -1735 58 60 62
-364.668 -133.454 -1726 55 57 59
-359.618 -132.875 -1719 55 57 59
-355.843 -132.76 -1718 55 57 59
-351.665 -132.491 -1715 53 55 55
-347.706 -132.299 -1713 52 54 54
-343.155 -131.877 -1708 49 51 51
-340.02 -131.995 -1710 46 48 48
-335.698 -131.651 -1706 44 46 46
-332.37 -131.693 -1707 43 46 43
-328.847 -131.658 -1707 44 47 44
-325.709 -131.778 -1709 46 49 46
-321.999 -131.667 -1708 46 49 46
-318.296 -131.557 -1707 48 51 48
-314.047 -131.215 -1703 53 56 53
-310.546 -131.183 -1703 55 58 55
-306.688 -130.996 -1701 56 59 56
-302.84 -130.81 -1699 53 56 53
-298.65 -130.471 -1695 51 54 51
-295.002 -130.363 -1694 53 56 53
-290.844 -130.025 -1690 51 54 52
-287.045 -129.841 -1688 49 51 49
-283.76 -129.888 -1689 47 49 49
-280.308 -129.858 -1689 41 43 43
-276.858 -129.829 -1689 38 40 40
-273.896 -130.031 -1692 37 39 38
-270.285 -129.926 -1691 37 39 37
-266.996 -129.975 -1692 38 41 38
-263.705 -130.024 -1693 38 40 37
-260.565 -130.15 -1695 38 39 37
-256.813 -129.97 -1693 41 40 38
-253.82 -130.174 -1696 42 40 38
-250.226 -130.071 -1695 48 46 44
-246.783 -130.045 -1695 53 52 49
-243.63 -130.173 -1697 59 57 53
-240.046 -130.071 -1696 60 59 57
-236.608 -130.046 -1696 61 61 59
-232.621 -129.716 -1692 62 60 58
-229.059 -129.615 -1691 59 57 56
-225.237 -129.362 -1688 53 51 49
-221.953 -129.415 -1689 49 48 46
-218.409 -129.316 -1688 37 37 35
-214.871 -129.217 -1687 34 34 32
-211.589 -129.271 -1688 44 44 42
-208.428 -129.403 -1690 46 46 44
-205.018 -129.381 -1690 46 46 44
-201.729 -129.437 -1691 45 45 43
-198.555 -129.569 -1693 45 45 43
-195.029 -129.472 -1692 45 45 43
-191.509 -129.376 -1691 45 45 43
-188.216 -129.433 -1692 46 46 44
-184.921 -129.49 -1693 46 47 45
-181.516 -129.471 -1693 45 47 45
-178.324 -129.606 -1695 44 45 44
-174.814 -129.511 -1694 44 44 44
-171.412 -129.493 -1694 44 44 44
-168.011 -129.476 -1694 41 42 42
-164.806 -129.611 -1696 42 44 44
-161.403 -129.595 -1696 47 47 47
-158.189 -129.731 -1698 48 48 48
-154.876 -129.791 -1699 48 50 50
-151.382 -129.699 -1698 51 53 53
-147.894 -129.607 -1697 53 55 55
-144.411 -129.516 -1696 52 54 54
-141.016 -129.501 -1696 54 56 56
-137.541 -129.411 -1695 56 58 58
-134.071 -129.32 -1694 58 61 59
-130.915 -129.536 -1697 59 62 59
-127.823 -129.828 -1701 58 61 58
-124.789 -130.196 -1706 54 57 54
-121.808 -130.642 -1712 48 51 48
-118.596 -130.858 -1715 47 50 47
-115.306 -130.999 -1717 45 48 45
-111.748 -130.834 -1715 46 49 46
-108.388 -130.9 -1716 48 50 47
-105.026 -130.965 -1717 50 51 47
-101.66 -131.031 -1718 52 52 49
-98.3481 -131.173 -1720 55 55 53
-95.0293 -131.315 -1722 56 59 56
-91.6499 -131.382 -1723 56 59 56
-88.1649 -131.297 -1722 55 58 55
-84.8814 -131.517 -1725 55 58 55
-81.5867 -131.737 -1728 54 57 54
-78.3259 -132.034 -1732 54 57 54
-75.0065 -132.254 -1735 54 57 54
-71.7171 -132.552 -1739 53 56 53
-68.3338 -132.697 -1741 54 57 54
-64.943 -132.843 -1743 54 57 54
-61.5448 -132.989 -1745 55 58 55
-58.3389 -133.592 -1753 57 60 57
-54.9138 -133.739 -1755 58 60 57
-51.7157 -134.495 -1765 53 52 50
-48.5327 -135.405 -1777 54 54 52
-45.3531 -136.467 -1791 54 54 52
-382.661 -139.69 -1759 58 60 63
-374.688 -138.061 -1739 61 63 65
-369.149 -137.306 -1730 57 59 61
-364.918 -137.029 -1727 55 57 59
-359.447 -136.275 -1718 55 57 59
-355.26 -135.999 -1715 56 58 58
-351.087 -135.723 -1712 52 54 56
-347.337 -135.606 -1711 50 52 54
-342.991 -135.252 -1707 46 48 48
-339.658 -135.294 -1708 44 46 46
-335.931 -135.178 -1707 44 46 46
-332.405 -135.142 -1707 45 48 45
-328.882 -135.107 -1707 47 50 47
-325.362 -135.072 -1707 46 49 46
-321.656 -134.958 -1706 48 51 48
-317.771 -134.765 -1704 51 54 51
-313.896 -134.573 -1702 56 59 56
-310.032 -134.381 -1700 57 60 57
-306.54 -134.348 -1700 57 60 57
-302.693 -134.157 -1698 55 58 55
-298.682 -133.888 -1695 51 54 51
-294.859 -133.698 -1693 51 54 51
-290.875 -133.43 -1690 49 51 49
-287.245 -133.32 -1689 46 48 48
-284.126 -133.447 -1691 45 47 47
-280.836 -133.496 -1692 40 42 42
-277.215 -133.387 -1691 37 39 39
-274.249 -133.594 -1694 36 38 38
-270.474 -133.408 -1692 36 38 38
-267.182 -133.458 -1693 35 38 35
-263.733 -133.429 -1693 36 39 36
-260.9 -133.717 -1697 37 40 37
-257.144 -133.532 -1695 43 42 40
-253.996 -133.662 -1697 47 45 43
-250.4 -133.556 -1696 52 50 48
-246.809 -133.451 -1695 56 55 52
-243.369 -133.425 -1695 59 58 54
-239.647 -133.242 -1693 59 59 57
-236.354 -133.295 -1694 60 60 58
-232.646 -133.113 -1692 60 57 58
-229.084 -133.009 -1691 56 53 53
-225.26 -132.749 -1688 51 49 47
-221.845 -132.726 -1688 46 46 44
-218.173 -132.545 -1686 36 36 34
-214.766 -132.522 -1686 32 32 30
-211.36 -132.499 -1686 42 42 40
-208.08 -132.556 -1687 46 46 44
-204.797 -132.613 -1688 47 47 45
-201.631 -132.748 -1690 46 46 44
-198.342 -132.805 -1691 46 46 44
-194.934 -132.785 -1691 47 47 45
-191.642 -132.843 -1692 48 48 46
-188.347 -132.901 -1693 47 47 45
-184.94 -132.881 -1693 47 47 46
-181.535 -132.862 -1693 46 48 47
-178.237 -132.921 -1694 45 46 46
-174.626 -132.746 -1692 45 45 45
-171.228 -132.727 -1692 44 44 44
-167.731 -132.631 -1691 41 41 41
-164.726 -132.927 -1695 39 41 41
-161.325 -132.91 -1695 43 43 43
-158.019 -132.971 -1696 45 45 45
-154.71 -133.033 -1697 48 50 50
-151.487 -133.174 -1699 51 53 53
-147.822 -132.923 -1696 52 54 54
-144.341 -132.829 -1695 51 54 53
-140.864 -132.736 -1694 53 56 55
-137.393 -132.643 -1693 55 57 57
-133.927 -132.55 -1692 57 60 58
-130.774 -132.771 -1695 59 62 59
-127.836 -133.228 -1701 58 61 58
-124.729 -133.528 -1705 56 59 56
-121.678 -133.906 -1710 51 54 51
-118.47 -134.128 -1713 49 52 49
-115.183 -134.273 -1715 48 51 48
-111.694 -134.182 -1714 47 50 47
-108.273 -134.171 -1714 47 49 46
-104.975 -134.316 -1716 47 50 47
-101.73 -134.54 -1719 51 52 50
-98.3584 -134.608 -1720 53 53 51
-94.9839 -134.676 -1721 53 56 53
-91.6594 -134.823 -1723 54 57 54
-88.174 -134.735 -1722 55 58 55
-84.7918 -134.804 -1723 54 58 55
-81.5479 -135.109 -1727 53 56 53
-78.2888 -135.413 -1731 54 57 54
-74.971 -135.64 -1734 54 57 54
-71.6832 -135.945 -1738 53 56 53
-68.3015 -136.094 -1740 54 57 54
-64.9125 -136.243 -1742 53 56 53
-61.5512 -136.471 -1745 53 56 53
-58.3116 -137.013 -1752 57 59 55
-55.0134 -137.476 -1758 59 59 56
-51.6917 -137.939 -1764 55 54 52
-48.5105 -138.872 -1776 55 54 52
-45.4591 -140.353 -1795 53 53 51
-381.833 -142.931 -1755 58 60 62
-375.376 -141.83 -1742 59 61 63
-368.549 -140.568 -1727 57 59 61
-364.113 -140.202 -1723 56 58 60
-358.859 -139.511 -1715 52 54 56
-354.884 -139.308 -1713 51 53 53
-350.716 -139.025 -1710 53 55 55
-347.172 -138.987 -1710 50 52 53
-343.229 -138.786 -1708 46 48 48
-339.695 -138.748 -1708 44 46 46
-336.361 -138.792 -1709 45 47 47
-332.636 -138.674 -1708 45 48 45
-329.111 -138.637 -1708 47 50 47
-325.398 -138.52 -1707 47 50 47
-321.691 -138.403 -1706 49 52 49
-317.619 -138.124 -1703 51 54 51
-313.93 -138.009 -1702 55 58 55
-309.701 -137.65 -1698 57 60 57
-306.032 -137.535 -1697 58 61 58
-302.37 -137.42 -1696 55 59 56
-298.538 -137.225 -1694 49 53 50
-294.543 -136.95 -1691 49 52 49
-291.078 -136.917 -1691 46 49 47
-287.446 -136.805 -1690 42 44 44
-284.325 -136.935 -1692 43 45 45
-281.032 -136.985 -1693 42 44 44
-277.573 -136.955 -1693 39 41 41
-274.279 -137.005 -1694 36 38 38
-270.503 -136.814 -1692 35 37 37
-267.369 -136.946 -1694 36 39 36
-263.917 -136.917 -1694 37 40 37
-260.929 -137.13 -1697 37 40 37
-257.172 -136.94 -1695 44 43 41
-253.874 -136.993 -1696 52 50 48
-250.279 -136.885 -1695 56 54 52
-246.545 -136.696 -1693 58 57 54
-243.108 -136.669 -1693 58 58 54
-239.531 -136.562 -1692 60 60 57
-236.239 -136.617 -1693 60 60 58
-232.533 -136.43 -1691 56 53 54
-229.379 -136.566 -1693 51 48 48
-225.551 -136.3 -1690 46 44 42
-222.132 -136.275 -1690 43 43 41
-218.326 -136.009 -1687 36 36 34
-214.789 -135.905 -1686 35 35 33
-211.383 -135.882 -1686 43 43 41
-208.102 -135.94 -1687 46 46 44
-204.819 -135.998 -1688 46 46 44
-201.653 -136.137 -1690 46 46 44
-198.363 -136.196 -1691 46 46 44
-194.955 -136.174 -1691 47 47 46
-191.662 -136.234 -1692 50 50 48
-188.367 -136.294 -1693 48 48 46
-185.069 -136.354 -1694 46 46 45
-181.555 -136.254 -1693 44 46 46
-178.256 -136.315 -1694 45 46 47
-174.645 -136.135 -1692 46 46 47
-171.347 -136.196 -1693 45 45 45
-167.848 -136.097 -1692 42 43 43
