ply
format ascii 1.0
comment Created by Open3D
element vertex 1458
property double x
property double y
property double z
property uchar red
property uchar green
property uchar blue
end_header
-81.4966 -49.2209 -1729 58 58 58
-78.4198 -49.4454 -1737 63 63 63
-75.1393 -49.5563 -1741 61 61 61
-71.8847 -49.6958 -1746 58 58 58
-68.7283 -49.9209 -1754 54 54 54
-65.4291 -50.0606 -1759 54 54 54
-62.1809 -50.2574 -1766 56 56 56
-58.9718 -50.5112 -1775 54 55 55
-55.7587 -50.7936 -1785 51 53 53
-52.5941 -51.1615 -1798 55 55 50
-49.4873 -51.6433 -1815 55 55 50
-46.2123 -52.0113 -1828 51 51 47
-43.0259 -52.5502 -1847 27 27 27
-247.418 -53.6427 -1751 58 60 60
-242.203 -53.265 -1739 52 54 53
-237.176 -52.9183 -1728 54 57 54
-232.871 -52.7247 -1722 53 56 52
-228.592 -52.5315 -1716 52 55 50
-224.471 -52.3691 -1711 53 56 53
-220.243 -52.1763 -1705 54 57 54
-216.167 -52.0143 -1700 53 56 53
-212.614 -51.9749 -1699 52 55 50
-208.821 -51.8744 -1696 51 54 49
-205.163 -51.8049 -1694 52 55 52
-201.633 -51.766 -1693 53 56 53
-198.109 -51.7271 -1692 53 56 53
-194.361 -51.6273 -1689 52 55 52
-190.852 -51.5887 -1688 50 53 50
-187.349 -51.5505 -1687 48 52 49
-183.961 -51.5428 -1687 50 53 50
-180.36 -51.4744 -1685 49 52 49
-176.978 -51.467 -1685 48 51 48
-173.289 -51.3681 -1682 46 49 46
-169.815 -51.3306 -1681 49 52 49
-166.347 -51.2933 -1680 49 52 48
-163.078 -51.3169 -1681 48 51 46
-159.807 -51.3409 -1682 45 48 45
-156.532 -51.3648 -1683 45 48 45
-153.073 -51.3281 -1682 45 49 46
-149.798 -51.3523 -1683 45 48 45
-146.432 -51.3463 -1683 45 48 45
-143.153 -51.3709 -1684 45 48 45
-139.87 -51.3955 -1685 46 49 46
-136.747 -51.4814 -1688 44 47 44
-133.613 -51.5674 -1691 43 45 42
-130.468 -51.6535 -1694 45 45 43
-127.238 -51.7091 -1696 45 45 43
-124 -51.765 -1698 44 44 42
-120.755 -51.821 -1700 45 45 43
-117.296 -51.7857 -1699 44 44 42
-113.976 -51.8115 -1700 44 44 42
-110.718 -51.8678 -1702 36 36 34
-107.453 -51.9242 -1704 37 37 36
-104.059 -51.9199 -1704 57 57 57
-100.725 -51.9462 -1705 58 58 58
-97.4444 -52.0031 -1707 59 59 59
-94.1568 -52.0601 -1709 59 59 59
-90.9682 -52.1782 -1713 58 58 58
-87.7644 -52.2964 -1717 58 58 58
-84.6929 -52.5061 -1724 58 58 58
-81.4527 -52.6246 -1728 57 57 57
-78.2876 -52.8041 -1734 60 60 60
-75.1853 -53.0443 -1742 60 60 60
-71.7228 -53.0414 -1742 58 58 58
-68.6134 -53.3126 -1751 55 55 55
-65.3944 -53.5229 -1758 56 56 56
-62.2538 -53.8248 -1768 56 56 56
-58.9741 -54.0354 -1775 56 57 57
-55.8546 -54.4289 -1788 54 56 56
-52.7717 -54.9137 -1804 58 59 53
-49.5165 -55.2769 -1816 59 60 54
-46.3911 -55.8533 -1835 53 53 49
-43.2605 -56.5211 -1857 29 29 28
-246.44 -56.9134 -1744 52 54 53
-241.378 -56.5438 -1733 60 61 60
-236.774 -56.2721 -1725 59 60 58
-232.475 -56.0661 -1719 56 57 54
-228.069 -55.8278 -1712 55 56 52
-223.824 -55.6222 -1706 55 58 55
-219.735 -55.4495 -1701 55 58 55
-215.922 -55.3422 -1698 53 56 53
-212.248 -55.2674 -1696 52 55 50
-208.584 -55.1932 -1694 52 55 50
-204.929 -55.1189 -1692 53 56 53
-201.523 -55.11 -1692 53 56 53
-197.884 -55.0361 -1690 53 56 53
-194.139 -54.9298 -1687 53 56 53
-190.747 -54.9213 -1687 51 54 51
-187.468 -54.9457 -1688 50 54 51
-183.969 -54.905 -1687 51 54 51
-180.474 -54.8644 -1686 50 53 50
-177.091 -54.8567 -1686 51 54 51
-173.296 -54.7188 -1682 48 51 48
-169.722 -54.6464 -1680 50 53 50
-166.255 -54.6064 -1679 50 53 49
-162.988 -54.6319 -1680 47 50 45
-159.718 -54.6572 -1681 44 47 44
-156.353 -54.6504 -1681 45 48 45
-152.989 -54.6435 -1681 45 49 46
-149.715 -54.6695 -1682 46 49 46
-146.351 -54.6629 -1682 45 48 45
-143.074 -54.6892 -1683 45 48 45
-139.793 -54.7156 -1684 45 48 45
-136.834 -54.8721 -1689 45 48 45
-133.54 -54.8985 -1690 46 47 45
-130.397 -54.9903 -1693 48 48 46
-127.243 -55.0822 -1696 48 48 46
-124.005 -55.1415 -1698 47 47 45
-120.618 -55.1362 -1698 45 45 43
-117.301 -55.1635 -1699 44 44 42
-113.914 -55.1585 -1699 42 42 40
-110.593 -55.1861 -1700 36 36 34
-107.269 -55.2139 -1701 40 40 39
-103.941 -55.2416 -1702 57 57 57
-100.611 -55.2696 -1703 54 54 54
-97.3914 -55.3627 -1706 56 56 56
-94.0505 -55.391 -1707 58 58 58
-90.8658 -55.5168 -1711 58 58 58
-87.666 -55.6427 -1715 59 59 59
-84.4999 -55.8012 -1720 59 59 59
-81.2676 -55.9274 -1724 60 60 60
-78.1102 -56.1186 -1730 59 59 59
-74.9296 -56.3097 -1736 59 59 59
-71.8082 -56.566 -1744 57 57 57
-68.5771 -56.7576 -1750 55 55 55
-65.2484 -56.8844 -1754 55 55 55
-62.1859 -57.2708 -1766 54 54 54
-58.9434 -57.5276 -1774 55 55 55
-55.9194 -58.044 -1790 56 57 57
-52.7446 -58.4632 -1803 55 56 49
-49.5731 -58.9474 -1818 58 59 52
-46.3931 -59.4965 -1835 52 52 47
-43.1924 -60.1106 -1854 31 32 30
-251.129 -60.6875 -1752 81 84 91
-245.603 -60.1911 -1738 61 63 61
-240.971 -59.9026 -1730 66 69 67
-236.922 -59.7531 -1726 64 66 63
-232.215 -59.4307 -1717 61 62 59
-228.346 -59.3159 -1714 58 59 56
-223.966 -59.0632 -1707 56 58 56
-219.874 -58.8799 -1702 55 57 55
-215.805 -58.6968 -1697 55 57 54
-212.132 -58.6177 -1695 55 58 54
-208.224 -58.4696 -1691 55 58 53
-204.575 -58.3909 -1689 54 56 55
-201.055 -58.3468 -1688 52 55 53
-197.541 -58.303 -1687 52 54 53
-193.918 -58.2247 -1685 52 55 52
-190.53 -58.2158 -1685 51 54 51
-187.144 -58.2071 -1685 53 57 54
-183.868 -58.233 -1686 53 56 53
-180.268 -58.1554 -1684 52 55 52
-176.994 -58.1816 -1685 51 54 51
-173.201 -58.0355 -1681 50 53 50
-169.729 -57.9929 -1680 50 53 50
-166.164 -57.9162 -1678 51 54 50
-162.898 -57.943 -1679 46 49 44
-159.536 -57.9357 -1679 46 48 44
-156.36 -57.9972 -1681 47 48 45
-152.996 -57.9902 -1681 47 50 47
-149.633 -57.983 -1681 48 51 48
-146.271 -57.9763 -1681 46 49 46
-143.08 -58.0386 -1683 47 50 47
-139.799 -58.0664 -1684 48 51 48
-136.759 -58.198 -1688 47 50 47
-133.546 -58.2608 -1690 49 50 47
-130.48 -58.3924 -1694 50 50 48
-127.249 -58.4555 -1696 49 49 47
-124.011 -58.5186 -1698 49 49 47
-120.623 -58.5128 -1698 49 49 47
-117.306 -58.5418 -1699 45 45 44
-113.785 -58.4676 -1697 42 42 41
-110.468 -58.4969 -1698 34 34 32
-107.147 -58.5264 -1699 41 41 39
-103.885 -58.5904 -1701 56 56 56
-100.438 -58.5511 -1700 53 53 53
-97.3957 -58.7532 -1706 54 54 54
-93.8895 -58.68 -1704 56 56 56
-90.7637 -58.8479 -1709 57 57 58
-87.5676 -58.9815 -1713 59 59 60
-84.4545 -59.1842 -1719 60 60 60
-81.224 -59.3181 -1723 60 60 60
-78.1137 -59.5554 -1730 59 60 60
-74.8467 -59.6896 -1734 59 60 60
-71.5231 -59.7895 -1737 57 57 58
-68.5802 -60.2336 -1750 57 57 57
-65.3629 -60.4714 -1757 54 54 54
-62.1535 -60.7438 -1765 55 55 55
-59.1454 -61.2572 -1780 55 55 55
-55.8908 -61.5643 -1789 58 58 57
-52.8932 -62.2157 -1808 55 56 49
-49.6844 -62.6951 -1822 59 60 53
-46.5468 -63.3466 -1841 51 52 45
-43.2643 -63.8951 -1857 28 30 28
-249.995 -63.8971 -1744 65 69 68
-245.332 -63.5919 -1736 69 71 70
-240.982 -63.3601 -1730 69 71 70
-236.796 -63.1653 -1725 62 66 63
-232.091 -62.824 -1716 58 61 58
-227.957 -62.6297 -1711 55 58 55
-223.583 -62.3625 -1704 56 56 54
-219.756 -62.2416 -1701 56 56 54
-215.688 -62.048 -1696 57 57 55
-211.892 -61.9277 -1693 56 58 55
-208.234 -61.8442 -1691 54 57 54
-204.585 -61.7609 -1689 54 56 56
-200.946 -61.6778 -1687 54 56 56
-197.316 -61.5949 -1685 53 55 54
-193.812 -61.5487 -1684 52 55 52
-190.539 -61.5758 -1685 51 54 51
-187.041 -61.5299 -1684 53 56 53
-183.659 -61.521 -1684 53 56 53
-180.277 -61.512 -1684 52 55 52
-176.792 -61.4666 -1683 51 54 51
-173.106 -61.3486 -1680 50 53 50
-169.838 -61.3767 -1681 49 52 47
-166.172 -61.2588 -1678 47 50 45
-162.906 -61.2874 -1679 43 46 41
-159.638 -61.3159 -1680 47 48 43
-156.367 -61.3447 -1681 49 49 45
-152.912 -61.3006 -1680 47 50 47
-149.64 -61.3297 -1681 48 51 48
-146.278 -61.3224 -1681 48 51 48
-142.917 -61.3154 -1681 47 50 47
-139.806 -61.4179 -1684 47 50 47
-136.604 -61.484 -1686 46 49 46
-133.552 -61.6233 -1690 47 48 46
-130.486 -61.7627 -1694 49 49 47
-127.105 -61.7563 -1694 49 49 47
-123.87 -61.8231 -1696 50 50 48
-120.7 -61.9266 -1699 48 48 46
-117.243 -61.8843 -1698 44 44 44
-113.723 -61.8056 -1696 41 41 41
-110.473 -61.8731 -1698 31 31 29
-107.089 -61.8678 -1698 46 46 44
-103.768 -61.8991 -1699 55 55 55
-100.384 -61.8942 -1699 53 53 53
-97.2291 -62.0349 -1703 54 54 54
-93.894 -62.0667 -1704 55 55 55
-90.7148 -62.2079 -1708 57 57 58
-87.5206 -62.3493 -1712 58 58 60
-84.4094 -62.5636 -1718 58 58 58
-81.1336 -62.6688 -1721 58 58 58
-78.0271 -62.9199 -1728 58 60 60
-74.7639 -63.0618 -1732 57 59 60
-71.65 -63.3495 -1740 56 58 59
-68.3483 -63.4917 -1744 58 58 58
-65.4404 -64.0344 -1759 55 55 55
-62.1564 -64.2497 -1765 54 56 54
-58.9488 -64.5743 -1774 54 56 53
-55.9559 -65.1904 -1791 53 56 52
-52.8372 -65.7337 -1806 58 58 53
-49.7686 -66.4227 -1825 57 57 53
-46.5996 -67.0755 -1843 50 50 45
-43.1731 -67.4373 -1853 25 27 27
-255.286 -67.8613 -1756 82 85 85
-249.434 -67.23 -1740 65 68 66
-245.344 -67.0625 -1736 69 71 71
-240.298 -66.6249 -1725 62 64 63
-236.396 -66.4967 -1722 59 62 59
-231.697 -66.1369 -1713 57 60 57
-227.702 -65.9706 -1709 56 59 56
-223.201 -65.65 -1701 57 57 55
-219.637 -65.6 -1700 57 58 56
-215.572 -65.3958 -1695 58 60 58
-211.903 -65.3076 -1693 57 60 57
-208.121 -65.1808 -1690 55 58 55
-204.474 -65.093 -1688 55 57 56
-200.956 -65.0439 -1687 55 57 56
-197.326 -64.9564 -1685 54 56 55
-193.706 -64.8692 -1683 52 55 52
-190.322 -64.8592 -1683 51 54 51
-186.829 -64.8109 -1682 52 55 52
-183.341 -64.763 -1681 52 55 52
-179.965 -64.7535 -1681 51 54 51
-176.801 -64.8212 -1683 50 53 50
-173.012 -64.6581 -1679 49 52 49
-169.746 -64.6879 -1680 49 52 47
-166.18 -64.6021 -1678 45 48 43
-162.914 -64.632 -1679 41 45 40
-159.551 -64.6238 -1679 45 47 42
-156.282 -64.654 -1680 46 49 44
-152.829 -64.6076 -1679 46 49 46
-149.558 -64.6382 -1680 47 50 47
-146.111 -64.5922 -1679 46 49 46
-142.754 -64.5846 -1679 46 49 46
-139.647 -64.6928 -1682 45 48 45
-136.529 -64.8011 -1685 45 48 45
-133.48 -64.9478 -1689 46 47 45
-130.415 -65.0949 -1693 47 47 45
-127.261 -65.2037 -1696 49 49 47
-124.096 -65.3124 -1699 49 49 47
-120.777 -65.3446 -1700 47 47 45
-117.387 -65.3385 -1700 43 43 42
-113.796 -65.2173 -1697 38 38 37
-110.413 -65.2113 -1697 34 34 32
-106.969 -65.1673 -1696 51 51 50
-103.651 -65.2004 -1697 51 51 51
-100.389 -65.272 -1699 52 52 52
-97.1769 -65.3822 -1702 53 53 53
-93.8435 -65.4155 -1703 55 55 55
-90.6663 -65.5645 -1707 57 57 58
-87.4228 -65.6751 -1710 58 58 60
-84.3154 -65.9012 -1716 58 58 59
-81.0905 -66.0505 -1720 58 58 58
-77.9407 -66.2769 -1726 57 59 58
-74.7677 -66.5033 -1732 56 58 58
-71.7361 -66.8836 -1742 56 58 59
-68.4301 -67.0335 -1746 57 57 57
-65.4064 -67.4908 -1758 55 55 55
-62.23 -67.8331 -1767 54 56 55
-59.0515 -68.2136 -1777 54 57 54
-55.865 -68.6329 -1788 55 58 54
-52.7522 -69.2059 -1803 59 59 55
-49.7439 -70.0093 -1824 57 57 53
-46.4755 -70.5442 -1838 51 51 47
-43.2452 -71.2328 -1856 21 24 24
-253.846 -70.9674 -1746 63 66 67
-248.587 -70.4659 -1734 65 67 67
-244.51 -70.2898 -1730 65 67 67
-240.032 -69.9921 -1723 61 63 63
-235.997 -69.8167 -1719 61 64 61
-231.033 -69.3571 -1708 61 64 61
-227.448 -69.3041 -1707 62 65 62
-222.688 -68.8857 -1697 61 61 59
-219.262 -68.8737 -1697 59 60 58
-215.201 -68.6588 -1692 58 61 58
-211.789 -68.6472 -1692 57 60 57
-208.132 -68.5546 -1690 57 60 57
-204.485 -68.4622 -1688 55 58 55
-200.848 -68.3699 -1686 55 58 55
-197.103 -68.2374 -1683 55 58 55
-193.602 -68.1862 -1682 53 56 53
-190.332 -68.2163 -1683 52 55 52
-186.839 -68.1655 -1682 52 55 52
-183.35 -68.115 -1681 50 53 50
-179.868 -68.0646 -1680 49 52 49
-176.6 -68.0953 -1681 49 52 49
-172.918 -67.9642 -1678 49 52 49
-169.452 -67.9144 -1677 49 52 47
-166.09 -67.9054 -1677 45 49 44
-162.826 -67.9369 -1678 42 46 41
-159.37 -67.8875 -1677 44 47 42
-156.105 -67.9195 -1678 46 49 44
-152.837 -67.9515 -1679 45 48 45
-149.477 -67.9434 -1679 45 48 45
-146.119 -67.9353 -1679 45 48 45
-142.847 -67.968 -1680 45 48 45
-139.738 -68.0816 -1683 44 47 44
-136.537 -68.1551 -1685 44 47 44
-133.487 -68.3096 -1689 45 46 43
-130.422 -68.4641 -1693 46 46 44
-127.193 -68.538 -1695 49 49 47
-123.81 -68.5313 -1695 47 47 45
-120.499 -68.5649 -1696 44 44 42
-117.117 -68.5585 -1696 40 40 38
-113.601 -68.4715 -1694 35 35 33
-110.289 -68.5059 -1695 43 43 41
-106.911 -68.4999 -1695 53 53 51
-103.534 -68.4942 -1695 49 49 48
-100.335 -68.6099 -1698 52 52 51
-97.1249 -68.7258 -1701 53 53 53
-93.8485 -68.8015 -1703 55 55 55
-90.6711 -68.9581 -1707 57 57 58
-87.4785 -69.1147 -1711 60 60 61
-84.2707 -69.2717 -1715 61 61 61
-81.0948 -69.4692 -1720 60 60 60
-77.9899 -69.7476 -1727 59 61 59
-74.6852 -69.8647 -1730 60 62 61
-71.7399 -70.3453 -1742 58 60 60
-68.5904 -70.6646 -1750 57 58 58
-65.4843 -71.0648 -1760 57 57 57
-62.1628 -71.2632 -1765 55 57 57
-59.0213 -71.7041 -1776 54 57 55
-55.7117 -71.9834 -1783 58 61 58
-52.7842 -72.8283 -1804 56 56 52
-49.7465 -73.6329 -1824 57 57 53
-46.478 -74.1954 -1838 47 47 43
-43.1775 -74.7985 -1853 14 17 16
-258.433 -74.7737 -1753 74 78 78
-253.134 -74.2472 -1741 61 64 63
-248.314 -73.8489 -1732 65 67 67
-244.241 -73.6642 -1728 61 63 63
-239.767 -73.3519 -1721 64 66 65
-235.873 -73.2105 -1718 62 65 62
-231.181 -72.8135 -1709 62 65 62
-227.194 -72.6299 -1705 62 65 62
-222.963 -72.3615 -1699 61 63 60
-219.403 -72.3061 -1698 59 61 59
-215.341 -72.0808 -1693 58 61 58
-211.801 -72.0259 -1692 58 61 58
-208.021 -71.8862 -1689 58 61 58
-204.496 -71.8319 -1688 56 59 56
-200.621 -71.6501 -1684 55 58 55
-196.997 -71.5537 -1682 56 59 56
-193.382 -71.4574 -1680 55 58 53
-190.004 -71.4463 -1680 51 54 50
-186.516 -71.393 -1679 51 54 51
-183.142 -71.3826 -1679 50 53 50
-179.878 -71.4147 -1680 49 52 49
-176.4 -71.362 -1679 48 51 48
-172.825 -71.267 -1677 49 52 49
-169.461 -71.2572 -1677 49 52 47
-166 -71.205 -1676 46 49 44
-162.738 -71.2383 -1677 44 48 43
-159.188 -71.1441 -1675 46 49 44
-155.927 -71.1775 -1676 47 50 45
-152.663 -71.2113 -1677 46 49 46
-149.396 -71.245 -1678 45 48 45
-146.04 -71.2367 -1678 45 48 45
-143.025 -71.3981 -1682 45 48 45
-139.994 -71.56 -1686 45 48 45
-136.706 -71.5944 -1687 44 47 44
-133.573 -71.7141 -1690 45 46 43
-130.43 -71.8339 -1693 46 46 44
-127.05 -71.8265 -1693 47 47 45
-123.671 -71.8194 -1693 45 45 43
-120.435 -71.8974 -1695 41 41 39
-116.985 -71.8481 -1694 36 36 34
-113.473 -71.7567 -1692 36 36 34
-110.165 -71.7929 -1693 51 51 49
-106.854 -71.8291 -1694 50 50 48
-103.601 -71.9078 -1696 49 49 48
-100.282 -71.9444 -1697 52 52 51
-97.1304 -72.1084 -1701 54 54 54
-93.9088 -72.2302 -1704 56 56 56
-90.6761 -72.3522 -1707 57 57 57
-87.4834 -72.5167 -1711 60 60 60
-84.2753 -72.6811 -1715 62 62 62
-81.005 -72.8036 -1718 61 61 61
-77.9039 -73.0958 -1725 60 61 59
-74.8189 -73.4304 -1733 61 62 61
-71.6202 -73.6805 -1739 58 60 60
-68.6334 -74.185 -1751 60 60 60
-65.4879 -74.5625 -1760 58 59 59
-62.2014 -74.8131 -1766 54 56 56
-58.8917 -75.0638 -1772 54 57 55
-55.6522 -75.4418 -1781 54 57 54
-52.553 -76.0741 -1796 54 54 50
-49.6129 -77.0455 -1819 55 55 52
-46.4047 -77.7202 -1835 42 42 39
-43.1799 -78.48 -1853 12 14 14
-258.006 -78.1481 -1750 65 69 68
-252.712 -77.597 -1738 62 65 64
-247.756 -77.1355 -1728 66 68 67
-243.69 -76.9421 -1724 64 66 65
-239.363 -76.6598 -1718 62 64 63
-235.338 -76.467 -1714 59 62 59
-230.789 -76.0961 -1706 59 62 59
-226.808 -75.9039 -1702 59 62 59
-222.713 -75.6675 -1697 59 62 59
-219.158 -75.6096 -1696 59 62 59
-215.353 -75.4629 -1693 59 62 59
-211.688 -75.3608 -1691 60 63 60
-208.156 -75.3037 -1690 58 61 58
-204.508 -75.2021 -1688 57 60 57
-200.632 -75.0118 -1684 57 60 57
-197.008 -74.9108 -1682 56 59 56
-193.163 -74.721 -1678 54 57 52
-189.789 -74.7096 -1678 51 54 49
-186.416 -74.6983 -1678 50 53 50
-183.044 -74.6873 -1678 51 54 51
-179.567 -74.6319 -1677 49 52 49
-176.095 -74.5767 -1676 48 51 47
-172.732 -74.5663 -1676 49 52 48
-169.168 -74.467 -1674 49 52 47
-165.812 -74.457 -1674 48 51 46
-162.554 -74.4918 -1675 47 50 45
-159.198 -74.4821 -1675 47 49 44
-155.75 -74.4282 -1674 49 51 46
-152.581 -74.508 -1676 47 50 47
-149.316 -74.5433 -1677 48 51 48
-146.135 -74.6235 -1679 46 49 46
-142.948 -74.7037 -1681 47 50 47
-139.92 -74.8729 -1685 47 50 47
-136.633 -74.9092 -1686 45 48 45
-133.581 -75.0789 -1690 45 46 44
-130.36 -75.1598 -1692 46 46 44
-126.982 -75.1522 -1692 44 44 42
-123.605 -75.1446 -1692 42 42 40
-120.229 -75.1374 -1692 40 40 37
-116.854 -75.1304 -1692 32 32 30
-113.346 -75.0346 -1690 43 43 41
-110.106 -75.1168 -1692 52 52 50
-106.734 -75.1104 -1692 48 48 46
-103.485 -75.193 -1694 50 50 48
-100.228 -75.2755 -1696 51 51 51
-97.0218 -75.4028 -1699 54 54 54
-93.8591 -75.5747 -1703 56 56 55
-90.6282 -75.7024 -1706 56 56 55
-87.4373 -75.8746 -1710 57 57 57
-84.2312 -76.047 -1714 58 58 58
-80.9625 -76.175 -1717 59 59 58
-77.7278 -76.3478 -1721 60 60 59
-74.6938 -76.7425 -1730 58 59 58
-71.7891 -77.3149 -1743 57 59 59
-68.5591 -77.5769 -1749 61 61 61
-65.4174 -77.9721 -1758 54 55 54
-62.1346 -78.2344 -1764 52 54 53
-58.7953 -78.4526 -1769 57 60 58
-55.4992 -78.7597 -1776 54 57 53
-52.6439 -79.7764 -1799 58 58 54
-49.6158 -80.6603 -1819 55 55 52
-46.5592 -81.6329 -1841 36 36 34
-262.62 -81.9941 -1757 73 77 83
-256.843 -81.2779 -1742 60 64 63
-252.001 -80.8418 -1733 63 67 65
-247.484 -80.4997 -1726 65 68 65
-242.715 -80.0645 -1717 59 62 59
-238.263 -79.723 -1710 61 64 61
-234.391 -79.5683 -1707 59 63 60
-230.533 -79.4139 -1704 57 61 58
-226.422 -79.1665 -1699 58 62 59
-222.596 -79.0127 -1696 61 64 61
-218.913 -78.9056 -1694 60 63 60
-215.112 -78.7522 -1691 59 62 59
-211.701 -78.7389 -1691 59 62 59
-207.799 -78.5394 -1687 57 60 57
-204.158 -78.4334 -1685 57 60 57
-200.406 -78.2812 -1682 58 61 58
-196.786 -78.1755 -1680 56 59 56
-193.06 -78.0238 -1677 54 57 52
-189.574 -77.9653 -1676 53 56 51
-186.316 -78.0001 -1677 50 53 50
-182.946 -77.9885 -1677 51 54 51
-179.578 -77.9772 -1677 49 52 49
-176.316 -78.0126 -1678 49 52 48
-172.846 -77.9551 -1677 50 53 48
-169.279 -77.8515 -1675 49 52 47
-165.921 -77.8409 -1675 48 51 46
-162.466 -77.7842 -1674 47 50 45
-159.112 -77.7743 -1674 49 49 45
-155.76 -77.7644 -1674 50 50 46
-152.499 -77.8011 -1675 47 50 47
-149.236 -77.8383 -1676 50 53 50
-146.057 -77.9219 -1678 50 53 50
-143.042 -78.0987 -1682 49 52 49
-139.928 -78.2291 -1685 48 51 48
-136.642 -78.267 -1686 45 48 45
-133.51 -78.3977 -1689 46 47 45
-130.137 -78.3896 -1689 45 45 43
-126.765 -78.3815 -1689 42 42 40
-123.393 -78.3738 -1689 40 40 38
-120.094 -78.4125 -1690 37 37 33
-116.723 -78.4052 -1690 31 31 28
-113.285 -78.3517 -1689 48 48 46
-109.983 -78.391 -1690 50 50 48
-106.614 -78.3843 -1690 48 48 46
-103.369 -78.4706 -1692 50 50 48
-100.116 -78.5571 -1694 52 52 52
-96.9134 -78.6899 -1697 56 56 56
-93.6995 -78.8231 -1700 57 57 55
-90.5275 -79.0029 -1704 55 55 54
-87.1869 -79.0438 -1705 53 53 53
-84.0397 -79.2703 -1710 53 53 53
-80.7788 -79.4042 -1713 54 54 54
-77.5971 -79.6311 -1718 57 57 57
-74.5256 -79.997 -1726 58 58 58
-71.5463 -80.5023 -1737 58 60 60
-68.524 -81.0078 -1748 58 59 57
-65.3469 -81.3744 -1756 43 43 42
-61.9976 -81.5558 -1760 51 51 49
-58.666 -81.7838 -1765 64 65 62
-55.3775 -82.1046 -1772 61 64 59
-52.4715 -83.0742 -1793 59 59 55
-49.5369 -84.1367 -1816 59 59 55
-46.5873 -85.3383 -1842 32 32 30
-268.175 -86.1628 -1770 88 90 96
-261.74 -85.2205 -1751 65 68 73
-256.122 -84.5221 -1737 65 68 68
-251.29 -84.0676 -1728 66 69 67
-246.353 -83.5649 -1718 63 66 62
-242.165 -83.3055 -1713 60 63 59
-238 -83.0466 -1708 61 64 60
-233.994 -82.8367 -1704 59 63 60
-230.277 -82.7242 -1702 59 63 60
-226.703 -82.6606 -1701 56 60 57
-222.741 -82.4517 -1697 57 60 57
-218.927 -82.2914 -1694 58 61 58
-215.253 -82.18 -1692 56 59 55
-211.464 -82.0205 -1689 58 61 58
-207.936 -81.9581 -1688 58 61 58
-204.171 -81.7989 -1685 60 63 60
-200.3 -81.5916 -1681 59 62 58
-196.799 -81.5301 -1680 54 57 53
-193.188 -81.4202 -1678 52 55 50
-189.586 -81.3107 -1676 50 53 48
-186.106 -81.2499 -1675 51 54 51
-182.849 -81.2864 -1676 51 54 51
-179.589 -81.3231 -1677 51 54 50
-176.117 -81.263 -1676 51 54 49
-172.857 -81.3001 -1677 51 54 49
-169.29 -81.192 -1675 50 53 48
-165.832 -81.1326 -1674 47 50 45
-162.477 -81.1218 -1674 46 49 44
-159.123 -81.1113 -1674 48 49 44
-155.77 -81.1012 -1674 50 50 46
-152.6 -81.188 -1676 50 53 50
-149.246 -81.1781 -1676 51 54 51
-146.067 -81.2655 -1678 50 53 50
-142.966 -81.4013 -1681 49 52 49
-139.854 -81.5375 -1684 49 52 49
-136.407 -81.48 -1683 47 50 47
-133.282 -81.6166 -1686 45 46 44
-129.837 -81.5595 -1685 46 46 44
-126.397 -81.5029 -1684 40 40 38
-123.036 -81.4946 -1684 38 38 35
-119.746 -81.5352 -1685 36 36 32
-116.454 -81.5758 -1686 40 40 37
-113.024 -81.5201 -1685 48 48 46
-109.86 -81.658 -1688 50 50 48
-106.558 -81.6995 -1689 49 49 47
-103.375 -81.8376 -1692 50 50 48
-100.063 -81.8794 -1693 52 52 52
-96.9196 -82.0665 -1697 55 55 55
-93.7055 -82.2054 -1700 55 55 53
-90.3739 -82.2477 -1701 52 52 51
-87.2436 -82.4837 -1706 51 51 51
-83.9958 -82.6232 -1709 49 49 49
-80.6897 -82.7146 -1711 51 51 51
-77.5116 -82.9512 -1716 54 54 54
-74.4871 -83.3814 -1725 57 58 58
-71.4686 -83.86 -1735 59 61 60
-68.4499 -84.387 -1746 55 56 54
-65.2394 -84.721 -1753 37 37 35
-61.9662 -85.0069 -1759 40 40 38
-58.7029 -85.3413 -1766 67 68 64
-55.4748 -85.7725 -1775 66 68 63
-52.7089 -87.0254 -1801 61 61 57
-49.6764 -87.9885 -1821 57 57 54
-46.6155 -89.0484 -1843 27 27 25
-266.375 -89.1004 -1758 73 76 80
-260.562 -88.3222 -1743 61 63 67
-255.992 -87.9497 -1736 61 63 65
-250.58 -87.274 -1723 64 67 65
-246.083 -86.9023 -1716 62 65 60
-241.475 -86.4806 -1708 57 60 55
-237.598 -86.3124 -1705 59 62 57
-233.872 -86.1951 -1703 58 61 58
-230.157 -86.0781 -1701 57 61 58
-226.318 -85.9107 -1698 56 60 57
-222.887 -85.8953 -1698 58 61 58
-218.941 -85.6779 -1694 57 60 57
-215.013 -85.4608 -1690 55 58 53
-211.228 -85.2945 -1687 58 61 57
-207.58 -85.1792 -1685 58 61 58
-203.942 -85.064 -1683 59 62 58
-200.194 -84.8988 -1680 57 60 56
-196.695 -84.8346 -1679 54 57 52
-193.085 -84.7204 -1677 52 55 50
-189.486 -84.6064 -1675 50 53 48
-186.118 -84.5935 -1675 50 53 50
-182.861 -84.6315 -1676 51 54 50
-179.387 -84.5687 -1675 51 54 49
-176.024 -84.5566 -1675 51 54 49
-172.765 -84.5953 -1676 49 52 47
-169.2 -84.4827 -1674 48 51 46
-165.645 -84.3704 -1672 46 49 44
-162.39 -84.4097 -1673 46 49 44
-159.038 -84.3988 -1673 47 49 44
-155.687 -84.3883 -1673 48 49 45
-152.428 -84.4282 -1674 50 53 50
-149.167 -84.4683 -1675 51 54 51
-145.989 -84.5593 -1677 49 52 49
-142.805 -84.6503 -1679 48 51 48
-139.614 -84.7415 -1681 50 53 50
-136.335 -84.7827 -1682 52 55 52
-133.132 -84.8743 -1684 49 51 48
-129.691 -84.8151 -1683 49 49 47
-126.256 -84.756 -1682 42 42 40
-122.971 -84.798 -1683 40 40 37
-119.612 -84.7897 -1683 40 40 36
-116.324 -84.8322 -1684 46 46 44
-112.965 -84.8245 -1684 50 50 48
-109.802 -84.9679 -1687 50 50 48
-106.565 -85.0614 -1689 52 52 50
-103.321 -85.1551 -1691 51 51 49
-100.129 -85.2991 -1694 50 50 50
-96.9831 -85.494 -1698 51 51 51
-93.6014 -85.4876 -1698 49 49 47
-90.3799 -85.6324 -1701 47 47 46
-87.2494 -85.878 -1706 47 47 47
-83.9522 -85.9729 -1708 48 48 48
-80.8365 -86.2694 -1714 50 50 50
-77.6072 -86.4654 -1718 54 54 53
-74.3624 -86.6616 -1722 57 59 57
-71.4321 -87.2606 -1734 58 61 58
-68.2584 -87.6082 -1741 55 55 53
-65.1692 -88.1067 -1751 36 36 34
-61.8998 -88.4043 -1757 35 35 33
-58.6071 -88.7022 -1763 64 64 61
-55.5722 -89.453 -1778 68 68 64
-52.6831 -90.5562 -1800 65 65 61
-49.6524 -91.559 -1820 55 55 51
-46.5933 -92.6625 -1842 24 24 22
-265.636 -92.3594 -1753 67 70 72
-260.132 -91.6558 -1740 63 65 67
-255.567 -91.2687 -1733 63 65 67
-250.452 -90.6716 -1722 61 63 62
-245.669 -90.18 -1713 56 59 54
-241.067 -89.7417 -1705 55 58 53
-237.336 -89.6193 -1703 58 61 56
-233.339 -89.3922 -1699 56 59 56
-229.902 -89.3758 -1699 53 57 54
-226.067 -89.2018 -1696 53 57 54
-222.378 -89.0807 -1694 58 61 57
-218.569 -88.9073 -1691 57 60 55
-214.774 -88.7342 -1688 56 59 54
-210.992 -88.5614 -1685 57 60 56
-207.471 -88.4942 -1684 54 57 54
-203.835 -88.3744 -1682 54 57 52
-200.208 -88.255 -1680 54 57 53
-196.708 -88.1885 -1679 55 58 53
-193.214 -88.1223 -1678 56 59 54
-189.499 -87.9511 -1675 54 57 52
-186.242 -87.9904 -1676 51 54 51
-182.983 -88.0297 -1677 50 53 49
-179.507 -87.9644 -1676 49 52 47
-176.036 -87.8994 -1675 49 52 47
-172.674 -87.8871 -1675 49 52 47
-169.212 -87.8226 -1674 48 51 46
-165.558 -87.6534 -1671 47 50 45
-162.208 -87.6418 -1671 45 49 44
-158.954 -87.6829 -1672 45 48 43
-155.791 -87.7767 -1674 46 48 44
-152.439 -87.766 -1674 50 53 50
-149.177 -87.8077 -1675 50 53 50
-145.825 -87.7973 -1675 48 51 48
-142.645 -87.8921 -1677 48 51 48
-139.208 -87.8297 -1676 51 54 51
-135.939 -87.8723 -1677 54 57 54
-132.746 -87.9678 -1679 54 55 53
-129.392 -87.9584 -1679 54 54 52
-126.039 -87.9496 -1679 47 47 45
-122.76 -87.9931 -1680 46 46 43
-119.478 -88.037 -1681 45 45 41
-116.124 -88.0286 -1681 49 49 46
-112.838 -88.073 -1682 46 46 44
-109.679 -88.2224 -1685 48 48 46
-106.446 -88.3193 -1687 49 49 47
-103.389 -88.5738 -1692 48 48 46
-100.195 -88.7237 -1695 47 47 46
-96.8756 -88.769 -1696 47 47 47
-93.663 -88.9194 -1699 45 45 43
-90.4923 -89.1223 -1703 47 47 46
-87.3065 -89.3254 -1707 49 49 49
-84.1055 -89.5288 -1711 52 52 52
-80.8891 -89.7321 -1715 56 56 56
-77.6576 -89.9359 -1719 57 57 56
-74.5403 -90.2968 -1726 58 59 57
-71.437 -90.7102 -1734 56 59 56
-68.3024 -91.1238 -1742 51 53 51
-65.1364 -91.5377 -1750 34 36 33
-61.8689 -91.8471 -1756 32 32 30
-58.6776 -92.3134 -1765 58 58 56
-55.6074 -93.0416 -1779 69 69 67
-52.7453 -94.2407 -1802 67 67 64
-49.7104 -95.2831 -1822 59 59 56
-46.7229 -96.5871 -1847 29 29 28
-270.293 -96.2755 -1760 73 77 80
-263.836 -95.2163 -1741 65 67 69
-259.104 -94.7595 -1733 64 66 68
-254.406 -94.3033 -1725 62 64 64
-249.742 -93.8474 -1717 58 60 58
-245.4 -93.5011 -1711 56 59 54
-240.802 -93.0459 -1703 57 60 55
-236.935 -92.8645 -1700 58 61 55
-233.081 -92.6834 -1697 56 59 56
-229.648 -92.6662 -1697 53 57 54
-225.684 -92.431 -1693 53 57 54
-221.737 -92.1962 -1689 55 59 54
-218.067 -92.0709 -1687 53 57 52
-214.28 -91.8912 -1684 56 59 54
-210.632 -91.7665 -1682 56 59 56
-207.363 -91.8056 -1683 53 56 53
-203.85 -91.7361 -1682 54 57 52
-200.223 -91.6121 -1680 54 57 51
-196.722 -91.5429 -1679 54 57 50
-193.228 -91.4742 -1678 55 58 52
-189.626 -91.3512 -1676 53 56 51
-186.255 -91.3373 -1676 51 54 51
-183.105 -91.4328 -1678 52 55 51
-179.627 -91.365 -1677 49 52 47
-176.154 -91.2974 -1676 47 50 45
-172.583 -91.1757 -1674 47 50 45
-169.022 -91.0542 -1672 47 50 45
-165.371 -90.8786 -1669 46 50 45
-162.025 -90.8666 -1669 45 49 44
-158.68 -90.8549 -1669 45 48 43
-155.616 -91.0068 -1672 46 49 44
-152.358 -91.05 -1673 49 52 49
-149.099 -91.0933 -1674 49 52 49
-145.749 -91.0825 -1674 48 51 48
-142.57 -91.1807 -1676 50 53 50
-139.052 -91.0618 -1674 49 52 49
-135.787 -91.106 -1675 52 55 52
-132.519 -91.1506 -1676 53 55 52
-129.17 -91.1411 -1676 54 54 52
-125.823 -91.1317 -1676 46 46 44
-122.477 -91.1227 -1676 46 46 44
-119.274 -91.2225 -1678 50 50 46
-115.994 -91.2684 -1679 51 51 48
-112.779 -91.3688 -1681 47 47 45
-109.557 -91.4693 -1683 46 46 44
-106.454 -91.6789 -1687 44 44 42
-103.336 -91.8885 -1691 45 45 43
-100.084 -91.9898 -1693 46 46 45
-96.8253 -92.0914 -1695 45 45 45
-93.6145 -92.2475 -1698 44 44 42
-90.3926 -92.4036 -1701 49 49 47
-87.2616 -92.6688 -1706 54 54 53
-84.1115 -92.9342 -1711 57 57 56
-80.9422 -93.1998 -1716 59 59 59
-77.8439 -93.5742 -1723 60 60 58
-74.6752 -93.8943 -1729 58 59 57
-71.4832 -94.2149 -1735 55 58 55
-68.4249 -94.7528 -1745 49 52 49
-65.1783 -95.0738 -1751 34 37 33
-61.9437 -95.4492 -1758 33 33 31
-58.715 -95.8792 -1766 53 53 50
-55.5488 -96.4723 -1777 70 70 67
-52.7197 -97.7711 -1801 64 64 62
-49.7685 -99.0159 -1824 63 63 62
-46.6757 -100.152 -1845 41 41 41
-268.931 -99.2938 -1751 69 73 74
-262.795 -98.3095 -1734 66 69 70
-258.376 -97.9494 -1728 65 67 69
-253.982 -97.5897 -1722 61 64 61
-249.907 -97.3437 -1718 59 62 59
-245.419 -96.9282 -1711 59 62 57
-241.103 -96.5696 -1705 59 62 55
-237.231 -96.3815 -1702 56 59 52
-233.511 -96.2502 -1700 56 59 56
-229.53 -96.0061 -1696 54 58 55
-225.567 -95.7624 -1692 53 57 54
-221.754 -95.5754 -1689 54 58 53
-217.954 -95.3889 -1686 53 57 52
-214.169 -95.2027 -1683 55 58 53
-210.773 -95.1865 -1683 55 58 54
-207.625 -95.2838 -1685 53 56 53
-204.107 -95.2115 -1684 53 56 51
-200.595 -95.1395 -1683 54 57 51
-196.971 -95.0113 -1681 54 57 50
-193.242 -94.827 -1678 54 57 51
-189.64 -94.6993 -1676 51 54 49
-186.269 -94.6851 -1676 51 54 51
-182.9 -94.6709 -1676 51 54 51
-179.426 -94.6007 -1675 50 53 48
-176.062 -94.5872 -1675 48 51 46
-172.493 -94.4611 -1673 48 51 46
-168.934 -94.3353 -1671 47 50 45
-165.185 -94.0966 -1667 46 49 44
-162.037 -94.1971 -1669 46 50 45
-158.502 -94.072 -1667 47 50 45
-155.441 -94.2296 -1670 48 50 46
-152.097 -94.2179 -1670 49 52 49
-149.02 -94.3757 -1673 49 52 49
-145.585 -94.3081 -1672 48 51 48
-142.496 -94.4663 -1675 47 50 47
-139.063 -94.3992 -1674 47 50 47
-135.797 -94.4453 -1675 49 52 49
-132.37 -94.3787 -1674 50 52 49
-129.103 -94.4253 -1675 48 48 46
-125.832 -94.4719 -1676 40 40 38
-122.486 -94.4626 -1676 42 42 40
-119.211 -94.5097 -1677 46 46 42
-115.934 -94.5573 -1678 44 44 42
-112.855 -94.7739 -1682 44 44 42
-109.565 -94.8219 -1683 45 45 43
-106.525 -95.0953 -1688 42 42 40
-103.282 -95.2001 -1690 42 42 40
-100.151 -95.4178 -1694 43 43 42
-96.9468 -95.5792 -1697 44 44 44
-93.6766 -95.6847 -1699 45 45 43
-90.4524 -95.8468 -1702 51 51 49
-87.4215 -96.2343 -1709 56 56 54
-84.1178 -96.3403 -1711 59 59 58
-81.0896 -96.7845 -1719 61 61 61
-77.8948 -97.0601 -1724 61 61 59
-74.8103 -97.5047 -1732 58 59 57
-71.6122 -97.8368 -1738 55 58 55
-68.4691 -98.2819 -1746 50 53 49
-65.2949 -98.7272 -1754 36 38 34
-61.9483 -98.9475 -1758 35 35 33
-58.6196 -99.2244 -1763 48 48 45
-55.4591 -99.8393 -1774 67 67 64
-52.6066 -101.13 -1797 65 65 63
-49.745 -102.589 -1823 66 67 65
-273.759 -103.297 -1759 72 75 80
-268.031 -102.453 -1745 68 72 73
-262.513 -101.669 -1732 67 69 72
-258.545 -101.472 -1729 63 65 68
-253.707 -100.924 -1720 60 63 59
-249.635 -100.669 -1716 59 62 58
-244.864 -100.121 -1707 56 59 54
-240.98 -99.9261 -1704 57 60 53
-237.11 -99.7315 -1701 55 58 52
-233.117 -99.4783 -1697 56 59 56
-229.413 -99.3428 -1695 55 59 56
-225.452 -99.0903 -1691 51 57 54
-221.64 -98.8969 -1688 52 56 51
-217.584 -98.5867 -1683 54 57 52
-214.058 -98.5111 -1682 54 57 52
-210.664 -98.4943 -1682 54 57 53
-207.518 -98.5949 -1684 53 56 53
-204.123 -98.5787 -1684 52 55 50
-200.611 -98.5041 -1683 53 56 50
-196.869 -98.3128 -1680 53 56 49
-193.257 -98.1803 -1678 54 57 51
-189.541 -97.9899 -1675 51 54 49
-186.173 -97.975 -1675 52 55 52
-182.805 -97.9605 -1675 52 55 51
-179.44 -97.9463 -1675 51 54 49
-175.865 -97.8152 -1673 49 52 46
-172.3 -97.6847 -1671 47 50 44
-168.643 -97.4959 -1668 47 50 45
-165 -97.3075 -1665 47 50 45
-161.661 -97.2947 -1665 48 51 46
-158.324 -97.2821 -1665 50 51 46
-155.174 -97.3866 -1667 50 50 46
-152.017 -97.4914 -1669 48 51 48
-148.943 -97.6548 -1672 50 53 50
-145.597 -97.6432 -1672 49 52 49
-142.421 -97.7486 -1674 47 50 47
-139.073 -97.7375 -1674 47 50 47
-135.726 -97.7269 -1674 49 52 49
-132.38 -97.7164 -1674 49 50 47
-129.036 -97.706 -1674 46 46 44
-125.842 -97.8129 -1676 40 40 38
-122.495 -97.803 -1676 44 44 41
-119.292 -97.9104 -1678 43 43 39
-116.012 -97.9594 -1679 41 41 38
-112.863 -98.1256 -1682 42 42 40
-109.574 -98.1751 -1683 42 42 40
-106.407 -98.3417 -1686 43 43 41
-103.168 -98.4502 -1688 44 44 42
-100.04 -98.6754 -1692 46 46 45
-96.8399 -98.8428 -1695 48 48 48
-93.6286 -99.0101 -1698 49 49 47
-90.4594 -99.2362 -1702 54 54 52
-87.2237 -99.4042 -1705 58 58 56
-84.2225 -99.8639 -1713 58 58 58
-81.0958 -100.207 -1719 61 61 61
-77.9008 -100.492 -1724 60 60 59
-74.8592 -101.011 -1733 56 57 56
-71.6177 -101.297 -1738 50 53 50
-68.5137 -101.816 -1747 46 49 44
-65.2626 -102.16 -1753 36 39 34
-61.9179 -102.388 -1757 38 38 35
-58.6241 -102.733 -1763 48 48 45
-55.307 -103.079 -1769 67 67 63
-52.4057 -104.298 -1790 68 68 66
-49.5305 -105.751 -1815 67 67 66
-273.314 -106.644 -1756 72 75 79
-267.745 -105.832 -1743 68 71 73
-262.079 -104.96 -1729 65 67 70
-257.968 -104.696 -1725 62 64 67
-253.58 -104.311 -1719 61 64 60
-249.364 -103.987 -1714 59 62 58
-245.171 -103.664 -1709 55 58 54
-241.141 -103.401 -1705 56 59 53
-237.129 -103.139 -1701 56 59 54
-233.273 -102.938 -1698 54 58 55
-229.431 -102.737 -1695 54 59 56
-225.47 -102.476 -1691 52 58 54
-221.658 -102.276 -1688 53 57 53
-217.73 -102.015 -1684 54 58 53
-214.203 -101.937 -1683 55 58 53
-210.806 -101.92 -1683 54 57 54
-207.535 -101.963 -1684 53 56 53
-204.139 -101.947 -1684 52 55 50
-200.508 -101.809 -1682 52 55 50
-196.768 -101.611 -1679 52 55 49
-193.042 -101.414 -1676 52 55 49
-189.33 -101.217 -1673 51 54 49
-185.965 -101.201 -1673 51 54 50
-182.711 -101.247 -1674 52 55 50
-179.347 -101.232 -1674 52 55 50
-175.774 -101.097 -1672 50 53 47
-172.108 -100.901 -1669 49 52 45
-168.657 -100.827 -1668 49 52 47
-165.112 -100.692 -1666 48 51 46
-161.771 -100.679 -1666 47 50 45
-158.432 -100.666 -1666 48 50 45
-155.279 -100.774 -1668 49 51 45
-152.03 -100.822 -1669 49 52 48
-148.777 -100.87 -1670 50 53 50
-145.434 -100.858 -1670 48 51 48
-142.348 -101.028 -1673 47 50 47
-138.918 -100.956 -1672 49 52 49
-135.494 -100.885 -1671 47 50 47
-132.154 -100.874 -1671 44 45 43
-128.815 -100.863 -1671 44 44 42
-125.552 -100.913 -1672 45 45 43
-122.286 -100.963 -1673 44 44 42
-119.23 -101.195 -1677 43 43 39
-116.021 -101.306 -1679 43 43 41
-112.805 -101.417 -1681 45 45 44
-109.517 -101.469 -1682 44 44 42
-106.479 -101.762 -1687 43 43 41
-103.176 -101.814 -1688 44 44 42
-99.9298 -101.926 -1690 48 48 48
-96.7334 -102.099 -1693 53 53 53
-93.581 -102.332 -1697 55 55 53
-90.3602 -102.506 -1700 56 56 55
-87.1794 -102.74 -1704 59 59 57
-84.0817 -103.095 -1710 59 59 58
-81.008 -103.51 -1717 58 58 57
-77.8166 -103.805 -1722 57 58 57
-74.7788 -104.341 -1731 52 54 52
-71.7057 -104.878 -1740 46 49 46
-68.5975 -105.415 -1749 44 47 43
-65.1933 -105.53 -1751 39 41 37
-61.9227 -105.886 -1757 42 42 38
-58.529 -106.062 -1760 48 48 45
-55.3114 -106.6 -1769 66 66 63
-52.1756 -107.379 -1782 70 70 68
-49.4525 -109.183 -1812 69 69 68
-280.223 -111.509 -1777 72 74 77
-272.247 -109.729 -1749 69 71 74
-267.153 -109.078 -1739 64 66 70
-261.798 -108.303 -1727 63 65 65
-258.139 -108.218 -1726 62 65 64
-253.159 -107.57 -1716 62 65 61
-249.24 -107.36 -1713 58 61 57
-244.904 -106.964 -1707 55 58 54
-240.878 -106.692 -1703 55 58 54
-236.87 -106.422 -1699 54 57 54
-233.293 -106.339 -1698 54 58 55
-229.586 -106.194 -1696 54 58 55
-225.488 -105.862 -1691 54 58 55
-221.939 -105.78 -1690 54 57 54
-217.878 -105.449 -1685 53 56 53
-214.093 -105.243 -1682 54 57 54
-210.573 -105.163 -1681 54 57 54
-207.429 -105.27 -1683 52 55 52
-203.914 -105.19 -1682 51 54 49
-200.405 -105.111 -1681 52 55 50
-196.667 -104.906 -1678 53 56 51
-192.943 -104.702 -1675 52 55 50
-189.346 -104.561 -1673 50 53 48
-185.869 -104.483 -1672 49 52 47
-182.508 -104.467 -1672 51 54 49
-179.255 -104.515 -1673 52 55 50
-175.789 -104.437 -1672 51 54 49
-172.328 -104.36 -1671 49 52 47
-168.671 -104.159 -1668 48 51 46
-165.324 -104.144 -1668 47 50 45
-161.882 -104.068 -1667 47 50 45
-158.54 -104.055 -1667 49 52 45
-155.199 -104.042 -1667 50 53 46
-151.951 -104.091 -1668 47 50 45
-148.7 -104.141 -1669 47 50 46
-145.533 -104.253 -1671 47 50 47
-142.359 -104.366 -1673 47 50 47
-138.93 -104.292 -1672 48 51 48
-135.586 -104.281 -1672 43 46 43
-132.086 -104.145 -1670 40 41 39
-128.825 -104.196 -1671 42 42 40
-125.487 -104.185 -1671 45 45 43
-122.369 -104.362 -1674 43 43 41
-119.24 -104.539 -1677 44 44 40
-116.1 -104.716 -1680 44 44 43
-112.882 -104.831 -1682 48 48 48
-109.591 -104.884 -1683 48 48 46
-106.361 -105 -1685 47 47 45
-103.062 -105.053 -1686 46 46 44
-99.8789 -105.232 -1689 50 50 49
-96.6271 -105.348 -1691 55 55 55
-93.4784 -105.589 -1695 57 57 57
-90.3145 -105.831 -1699 57 57 57
-87.1866 -106.135 -1704 60 60 58
-83.9903 -106.377 -1708 60 60 58
-80.8258 -106.681 -1713 57 57 55
-77.7778 -107.173 -1721 52 55 52
-74.7849 -107.789 -1731 50 53 50
-71.5468 -108.094 -1736 46 49 46
-68.5247 -108.773 -1747 47 47 45
-65.1987 -109.017 -1751 43 43 41
-61.8926 -109.323 -1756 45 45 42
-58.434 -109.38 -1757 47 48 45
-55.2222 -109.936 -1766 60 62 59
-52.0042 -110.554 -1776 69 69 67
-49.3746 -112.604 -1809 68 68 66
-279.144 -114.623 -1770 72 74 76
-271.648 -112.98 -1745 65 67 70
-266.561 -112.309 -1735 59 61 65
-261.82 -111.769 -1727 59 62 61
-257.413 -111.357 -1721 60 63 60
-253.181 -111.012 -1716 60 63 60
-249.261 -110.796 -1713 56 59 56
-244.782 -110.321 -1706 53 56 53
-240.899 -110.106 -1703 53 56 53
-236.89 -109.827 -1699 54 57 54
-233.175 -109.677 -1697 54 58 55
-229.335 -109.463 -1694 53 57 54
-225.641 -109.314 -1692 53 57 54
-221.958 -109.165 -1690 54 57 54
-218.155 -108.952 -1687 54 57 54
-214.239 -108.675 -1683 53 57 54
-210.716 -108.592 -1682 53 57 54
-207.323 -108.574 -1682 52 55 52
-203.568 -108.362 -1679 52 55 50
-200.184 -108.345 -1679 53 56 51
-196.567 -108.198 -1677 53 56 51
-192.729 -107.923 -1673 52 55 50
-189.249 -107.842 -1672 50 53 48
-185.663 -107.697 -1670 49 52 47
-182.305 -107.681 -1670 50 53 48
-179.056 -107.73 -1671 51 54 49
-175.593 -107.65 -1670 50 53 48
-172.033 -107.506 -1668 50 53 48
-168.584 -107.427 -1667 47 50 45
-165.239 -107.412 -1667 46 49 44
-161.896 -107.398 -1667 46 49 44
-158.553 -107.384 -1667 46 49 42
-155.306 -107.435 -1668 49 52 45
-152.055 -107.486 -1669 47 50 47
-148.802 -107.537 -1670 48 51 47
-145.458 -107.525 -1670 48 51 48
-142.286 -107.641 -1672 47 50 47
-138.858 -107.564 -1671 43 46 43
-135.598 -107.617 -1672 38 41 38
-132.176 -107.541 -1671 39 40 38
-128.836 -107.53 -1671 45 45 43
-125.498 -107.519 -1671 45 45 43
-122.452 -107.765 -1675 44 44 41
-119.25 -107.884 -1677 43 43 39
-116.11 -108.066 -1680 42 42 41
-112.958 -108.249 -1683 45 45 45
-109.666 -108.304 -1684 48 48 46
-106.433 -108.423 -1686 47 47 45
-103.071 -108.414 -1686 47 47 45
-99.9465 -108.663 -1690 52 52 50
-96.8639 -108.976 -1695 57 57 56
-93.5967 -109.096 -1697 59 59 58
-90.3754 -109.281 -1700 58 58 57
-87.194 -109.53 -1704 59 59 57
-83.9974 -109.78 -1708 60 60 58
-80.7384 -109.966 -1711 57 57 55
-77.6036 -110.345 -1717 51 54 50
-74.6185 -110.981 -1727 50 53 50
-71.5117 -111.489 -1735 47 50 47
-68.4129 -112.061 -1744 49 49 47
-65.0553 -112.248 -1747 48 48 46
-61.7216 -112.499 -1751 49 49 48
-58.2727 -112.558 -1752 46 48 46
-55.1018 -113.196 -1762 57 60 57
-51.9794 -114.027 -1775 66 66 64
-49.2423 -115.885 -1804 70 70 68
-277.749 -117.577 -1761 68 70 72
-271.361 -116.351 -1743 60 62 65
-266.124 -115.592 -1732 58 60 64
-261.692 -115.168 -1726 57 60 58
-257.436 -114.811 -1721 59 62 59
-253.203 -114.454 -1716 56 59 56
-249.138 -114.165 -1712 52 55 52
-244.66 -113.676 -1705 51 54 51
-240.496 -113.321 -1700 53 56 53
-236.633 -113.099 -1697 54 57 54
-232.921 -112.945 -1695 52 56 53
-229.219 -112.791 -1693 52 56 53
-225.661 -112.704 -1692 53 57 54
-221.977 -112.55 -1690 54 57 54
-218.045 -112.264 -1686 54 57 54
-214.13 -111.979 -1682 54 58 55
-210.61 -111.893 -1681 54 57 54
-206.972 -111.741 -1679 53 56 53
-203.343 -111.59 -1677 53 56 51
-199.844 -111.505 -1676 53 56 51
-196.584 -111.554 -1677 53 56 51
-192.977 -111.403 -1675 53 56 51
-189.379 -111.253 -1673 52 55 50
-185.902 -111.17 -1672 51 54 49
-182.539 -111.153 -1672 50 53 48
-179.179 -111.137 -1672 50 53 48
-175.609 -110.988 -1670 50 53 48
-172.152 -110.906 -1669 49 52 47
-168.599 -110.758 -1667 46 49 44
-165.254 -110.743 -1667 46 49 44
-161.813 -110.662 -1666 44 47 42
-158.662 -110.781 -1668 40 43 37
-155.319 -110.767 -1668 42 45 38
-152.068 -110.819 -1669 45 48 45
-148.726 -110.806 -1669 47 50 47
-145.558 -110.925 -1671 45 48 45
-142.214 -110.913 -1671 45 48 45
-138.871 -110.9 -1671 39 42 39
-135.61 -110.954 -1672 36 39 36
-132.188 -110.876 -1671 40 41 39
-128.848 -110.864 -1671 43 43 41
-125.584 -110.919 -1672 42 42 40
-122.463 -111.107 -1675 43 43 40
-119.403 -111.362 -1679 43 43 39
-116.189 -111.484 -1681 42 42 41
-112.901 -111.54 -1682 45 45 44
-109.675 -111.663 -1684 49 49 47
-106.506 -111.852 -1687 49 49 47
-103.141 -111.843 -1687 49 49 47
-99.9553 -112.033 -1690 53 53 51
-96.7581 -112.223 -1693 57 57 55
-93.5496 -112.413 -1696 59 59 57
-90.2769 -112.537 -1698 58 58 56
-87.1504 -112.861 -1703 58 58 56
-83.9064 -113.052 -1706 59 59 57
-80.6982 -113.31 -1710 58 58 56
-77.4296 -113.502 -1713 50 53 48
-74.4953 -114.224 -1724 49 52 48
-71.4355 -114.814 -1733 47 50 47
-68.3403 -115.403 -1742 49 49 47
-64.9865 -115.596 -1745 52 52 50
-61.6565 -115.856 -1749 51 51 51
-58.2113 -115.917 -1750 43 45 43
-54.9189 -116.309 -1756 56 59 56
-51.7789 -117.099 -1768 68 68 66
-49.0556 -119.015 -1797 69 69 67
-276.67 -120.633 -1754 65 67 69
-270.296 -119.37 -1736 61 63 66
-265.38 -118.726 -1727 59 61 65
-261.261 -118.427 -1723 58 61 59
-257.161 -118.128 -1719 58 61 58
-253.374 -117.967 -1717 54 57 54
-249.015 -117.531 -1711 50 53 50
-245.113 -117.302 -1708 51 54 51
-240.659 -116.799 -1701 53 56 53
-236.654 -116.502 -1697 54 57 54
-232.805 -116.274 -1694 53 57 54
-229.105 -116.116 -1692 53 57 54
-225.415 -115.957 -1690 53 57 54
-221.735 -115.799 -1688 53 56 53
-217.936 -115.573 -1685 53 56 53
-214.15 -115.348 -1682 54 58 55
-210.504 -115.191 -1680 54 57 54
-206.744 -114.966 -1677 53 56 53
-203.24 -114.878 -1676 53 56 51
-199.742 -114.791 -1675 53 56 51
-196.485 -114.841 -1676 54 57 52
-192.879 -114.686 -1674 53 56 51
-189.283 -114.532 -1672 52 55 50
-185.807 -114.446 -1671 52 55 50
-182.447 -114.429 -1671 51 54 49
-178.981 -114.344 -1670 52 55 50
-175.625 -114.327 -1670 51 54 49
-172.27 -114.311 -1670 48 51 46
-168.816 -114.227 -1669 45 48 43
-165.467 -114.212 -1669 46 49 44
-161.925 -114.06 -1667 43 46 41
-158.677 -114.114 -1668 40 43 38
-155.333 -114.099 -1668 40 43 37
-152.082 -114.153 -1669 41 44 41
-148.65 -114.071 -1668 42 45 42
-145.484 -114.194 -1670 41 44 41
-142.142 -114.181 -1670 42 45 42
-138.883 -114.237 -1671 40 43 40
-135.703 -114.361 -1673 39 42 39
-132.199 -114.212 -1671 42 43 41
-128.936 -114.268 -1672 41 41 39
-125.595 -114.256 -1672 40 40 38
-122.328 -114.313 -1673 43 43 40
-119.129 -114.439 -1675 44 44 40
-116.061 -114.701 -1679 45 45 43
-112.911 -114.896 -1682 48 48 46
-109.685 -115.022 -1684 51 51 49
-106.452 -115.149 -1686 52 52 50
-103.151 -115.208 -1687 52 52 50
-99.9643 -115.403 -1690 54 54 52
-96.7667 -115.599 -1693 56 56 54
-93.5581 -115.795 -1696 58 58 56
-90.2319 -115.855 -1697 59 59 57
-87.1071 -116.188 -1702 57 57 55
-83.8156 -116.317 -1704 56 56 54
-80.6111 -116.582 -1708 56 56 54
-77.4819 -116.985 -1714 49 52 47
-74.3725 -117.455 -1721 49 52 48
-71.3595 -118.131 -1731 47 50 47
-68.2681 -118.739 -1740 49 50 48
-64.9551 -119.006 -1744 53 53 51
-61.5916 -119.205 -1747 52 52 52
-58.1832 -119.336 -1749 44 45 44
-54.8301 -119.603 -1753 54 57 54
-51.6078 -120.213 -1762 65 65 63
-49.0054 -122.46 -1795 67 67 65
-283.626 -125.671 -1775 68 72 75
-275.277 -123.521 -1745 64 66 68
-270.01 -122.716 -1734 60 62 65
-265.098 -122.054 -1725 58 60 63
-260.983 -121.745 -1721 58 60 59
-256.736 -121.367 -1716 56 59 56
-253.103 -121.272 -1715 53 56 53
-248.747 -120.824 -1709 50 53 50
-244.849 -120.588 -1706 52 55 52
-240.399 -120.07 -1699 55 58 55
-236.398 -119.765 -1695 55 58 55
-232.415 -119.46 -1691 53 57 54
-228.856 -119.367 -1690 52 56 53
-225.303 -119.275 -1689 51 55 52
-221.625 -119.112 -1687 52 56 53
-217.827 -118.879 -1684 53 57 54
-214.17 -118.718 -1682 54 58 55
-210.523 -118.556 -1680 53 57 54
-206.763 -118.325 -1677 53 56 53
-203.259 -118.235 -1676 54 57 52
-199.761 -118.145 -1675 54 57 52
-196.503 -118.197 -1676 54 57 52
-192.782 -117.966 -1673 53 56 51
-189.301 -117.878 -1672 52 55 50
-185.825 -117.789 -1671 52 55 50
-182.355 -117.702 -1670 52 55 50
-178.997 -117.685 -1670 54 57 52
-175.536 -117.597 -1669 52 55 50
-172.183 -117.581 -1669 47 50 45
-168.832 -117.564 -1669 45 48 43
-165.482 -117.549 -1669 46 49 44
-162.037 -117.463 -1668 43 46 41
-158.692 -117.447 -1668 40 43 38
-155.348 -117.433 -1668 40 43 38
-152.096 -117.489 -1669 39 42 39
-148.753 -117.474 -1669 37 40 37
-145.498 -117.531 -1670 37 40 37
-142.155 -117.517 -1670 36 39 36
-138.896 -117.574 -1671 38 41 38
-135.553 -117.561 -1671 41 44 41
-132.291 -117.619 -1672 41 43 40
-128.948 -117.606 -1672 41 41 39
-125.607 -117.594 -1672 43 43 41
-122.413 -117.723 -1674 45 45 43
-119.14 -117.782 -1675 48 48 44
-116.003 -117.982 -1678 50 50 47
-112.788 -118.112 -1680 52 52 50
-109.565 -118.242 -1682 52 52 50
-106.399 -118.443 -1685 53 53 51
-103.099 -118.503 -1686 54 54 52
-99.8553 -118.634 -1688 56 56 54
-96.6043 -118.765 -1690 56 56 54
-93.4013 -118.967 -1693 57 57 55
-90.1871 -119.169 -1696 57 57 55
-87.0129 -119.442 -1700 55 55 53
-83.725 -119.574 -1702 53 53 51
-80.5242 -119.848 -1706 52 52 50
-77.1725 -119.911 -1707 50 53 48
-74.3793 -120.887 -1721 49 51 48
-71.3661 -121.582 -1731 47 49 46
-68.1566 -121.997 -1737 52 52 50
-64.8867 -122.342 -1742 56 56 54
-61.5267 -122.547 -1745 54 54 53
-58.1554 -122.752 -1748 46 48 46
-54.8038 -123.028 -1752 51 54 51
-51.554 -123.584 -1760 62 62 60
-48.9826 -125.967 -1794 65 65 63
-46.6815 -129.473 -1844 50 50 48
-281.417 -128.221 -1761 68 72 75
-274.515 -126.664 -1740 64 66 68
-269.569 -125.982 -1731 58 60 62
-264.662 -125.301 -1722 57 59 61
-260.856 -125.13 -1720 58 60 59
-256.163 -124.522 -1712 57 60 57
-253.127 -124.715 -1715 54 57 54
-248.626 -124.182 -1708 52 55 52
-244.586 -123.867 -1704 54 57 54
-240.139 -123.334 -1697 56 59 56
-236.421 -123.165 -1695 53 56 53
-232.3 -122.779 -1690 52 56 53
-228.607 -122.611 -1688 52 56 53
-225.191 -122.589 -1688 53 57 54
-221.515 -122.422 -1686 53 57 54
-217.848 -122.255 -1684 53 57 54
-214.191 -122.089 -1682 53 57 54
-210.544 -121.923 -1680 53 57 54
-206.906 -121.757 -1678 54 57 54
-203.279 -121.592 -1676 53 56 51
-199.661 -121.427 -1674 53 56 51
-196.405 -121.48 -1675 54 57 52
-192.8 -121.316 -1673 54 57 52
-189.432 -121.298 -1673 52 55 50
-185.62 -120.989 -1669 52 55 50
-182.482 -121.116 -1671 54 57 52
-178.907 -120.954 -1669 54 57 52
-175.553 -120.936 -1669 51 54 49
-171.994 -120.774 -1667 47 50 45
-168.747 -120.83 -1668 46 49 44
-165.3 -120.742 -1667 47 50 45
-161.955 -120.725 -1667 44 47 42
-158.612 -120.71 -1667 40 43 38
-155.27 -120.695 -1667 41 44 39
-152.02 -120.752 -1668 41 44 41
-148.678 -120.737 -1668 39 42 39
-145.338 -120.723 -1668 37 40 37
-141.998 -120.709 -1668 34 37 34
-138.743 -120.768 -1669 41 44 41
-135.485 -120.827 -1670 44 47 44
-132.224 -120.886 -1671 42 43 41
-128.961 -120.946 -1672 42 42 40
-125.619 -120.933 -1672 46 46 44
-122.278 -120.921 -1672 48 48 46
-119.08 -121.054 -1674 47 47 43
-116.014 -121.332 -1678 49 49 46
-112.798 -121.465 -1680 51 51 49
-109.641 -121.672 -1683 50 50 48
-106.472 -121.878 -1686 52 52 50
-103.17 -121.94 -1687 54 54 52
-99.924 -122.075 -1689 55 55 53
-96.6707 -122.21 -1691 55 55 53
-93.4654 -122.417 -1694 54 54 52
-90.1958 -122.553 -1696 54 54 52
-86.97 -122.761 -1699 54 54 52
-83.7821 -123.042 -1703 53 53 51
-80.6264 -123.395 -1708 52 52 50
-77.406 -123.676 -1712 49 52 49
-74.3 -124.175 -1719 48 50 47
-71.2492 -124.818 -1728 48 48 46
-68.0847 -125.317 -1735 55 55 53
-64.7811 -125.599 -1739 58 58 56
-61.4973 -125.954 -1744 59 59 57
-58.0944 -126.093 -1746 51 52 50
-54.7777 -126.448 -1751 52 55 52
-51.7933 -127.671 -1768 62 62 60
-49.2331 -130.193 -1803 63 63 61
-46.8378 -133.583 -1850 50 50 48
-280.007 -131.088 -1752 65 69 72
-273.753 -129.789 -1735 64 66 68
-269.596 -129.462 -1731 56 58 60
-264.535 -128.687 -1721 54 56 58
-260.882 -128.586 -1720 55 58 56
-256.038 -127.887 -1711 55 58 55
-252.709 -127.936 -1712 54 57 54
-248.505 -127.537 -1707 55 58 55
-244.467 -127.213 -1703 55 58 55
-240.022 -126.666 -1696 53 56 53
-236.165 -126.418 -1693 53 56 53
-232.048 -126.021 -1688 51 55 52
-228.63 -125.998 -1688 52 56 53
-224.947 -125.825 -1686 52 56 53
-221.405 -125.728 -1685 53 57 54
-217.74 -125.557 -1683 54 58 55
-214.085 -125.386 -1681 52 56 53
-210.565 -125.29 -1680 53 57 53
-206.927 -125.12 -1678 53 56 52
-203.542 -125.099 -1678 53 56 51
-199.92 -124.93 -1676 53 56 51
-196.424 -124.835 -1675 55 58 53
-192.935 -124.741 -1674 54 57 52
-189.451 -124.648 -1673 50 53 48
-185.861 -124.48 -1671 51 54 49
-182.499 -124.461 -1671 53 56 51
-178.925 -124.294 -1669 53 56 51
-175.465 -124.202 -1668 51 54 49
-171.907 -124.035 -1666 46 49 44
-168.764 -124.167 -1668 45 48 43
-165.217 -124.002 -1666 48 51 46
-161.971 -124.06 -1667 47 50 45
-158.723 -124.118 -1668 42 45 40
-155.471 -124.177 -1669 43 46 41
-152.126 -124.161 -1669 44 47 44
-148.693 -124.072 -1668 40 43 40
-145.439 -124.132 -1669 37 40 37
-141.927 -123.968 -1667 40 43 40
-138.757 -124.103 -1669 42 45 42
-135.418 -124.089 -1669 43 46 43
