ply
format ascii 1.0
comment Created by Open3D
element vertex 1463
property double x
property double y
property double z
property uchar red
property uchar green
property uchar blue
end_header
-240.782 -764.167 -1787 41 43 43
-237.224 -764.877 -1789 40 42 42
-233.399 -764.734 -1789 39 41 41
-230.09 -766.302 -1793 40 42 42
-226.387 -766.591 -1794 41 43 43
-222.806 -767.309 -1796 40 44 43
-219.218 -768.029 -1798 37 41 40
-215.863 -769.606 -1802 34 37 34
-212.376 -770.757 -1805 33 36 33
-209.455 -774.045 -1813 32 35 32
-206.616 -777.761 -1822 31 34 31
-203.963 -782.331 -1833 28 29 28
-200.937 -785.623 -1841 17 17 17
-197.451 -787.209 -1845 17 17 17
-193.53 -787.09 -1845 19 21 21
-189.406 -786.121 -1843 25 27 27
-185.09 -784.302 -1839 27 29 29
-180.892 -782.912 -1836 28 30 30
-176.611 -781.098 -1832 28 30 30
-172.538 -780.14 -1830 30 32 32
-168.29 -778.331 -1826 32 35 34
-164.241 -777.378 -1824 33 35 35
-160.114 -776.001 -1821 35 37 37
-156.173 -775.48 -1820 38 40 40
-152.07 -774.108 -1817 38 40 40
-148.144 -773.592 -1816 39 41 41
-144.065 -772.226 -1813 40 42 42
-140.077 -771.288 -1811 40 42 42
-135.798 -768.649 -1805 40 42 42
-131.619 -766.439 -1800 39 41 42
-127.746 -765.935 -1799 39 41 43
-123.74 -764.582 -1796 40 42 42
-119.949 -764.509 -1796 39 41 41
-116.288 -765.289 -1798 37 39 39
-112.62 -766.071 -1800 37 40 37
-108.763 -765.579 -1799 39 42 38
-104.852 -764.663 -1797 38 41 37
-101.12 -765.027 -1798 38 40 39
-97.3308 -764.967 -1798 38 40 40
-93.49 -764.484 -1797 37 39 38
-89.7542 -764.854 -1798 37 39 38
-86.0628 -765.652 -1800 37 39 38
-82.318 -766.027 -1801 38 40 40
-78.6134 -766.829 -1803 38 40 40
-74.984 -768.484 -1807 34 36 36
-71.4172 -770.991 -1813 33 35 35
-67.7139 -772.225 -1816 35 37 37
-64.2098 -776.013 -1825 36 38 38
-60.6022 -778.951 -1832 35 37 37
-56.9347 -781.467 -1838 31 33 33
-53.2135 -783.56 -1843 33 35 35
-49.3648 -783.954 -1844 35 37 37
-45.5617 -785.201 -1847 36 38 38
-41.7688 -786.875 -1851 38 40 40
-37.8982 -787.276 -1852 39 41 41
-34.0603 -788.53 -1855 38 40 40
-30.194 -789.361 -1857 37 39 39
-26.3479 -791.044 -1861 39 41 41
-22.4488 -791.454 -1862 38 40 40
-18.5459 -791.867 -1863 39 41 41
-14.639 -792.282 -1864 37 41 38
-10.728 -792.7 -1865 37 40 38
-6.80549 -792.269 -1864 37 39 38
-2.89189 -793.117 -1866 37 40 38
1.0312 -794.816 -1870 39 42 39
4.96845 -796.093 -1873 38 41 38
8.9086 -796.523 -1874 38 41 38
12.8601 -797.379 -1876 41 44 41
16.8112 -797.813 -1877 43 46 43
20.7776 -798.675 -1879 41 43 43
24.7132 -798.263 -1878 39 41 41
28.7212 -799.98 -1882 38 40 40
32.7461 -801.699 -1886 38 41 38
36.8661 -805.12 -1894 40 43 40
40.8906 -805.994 -1896 38 41 38
45.1605 -811.121 -1908 50 50 50
49.6616 -819.227 -1927 59 59 59
-423.597 -822.151 -1892 59 59 63
-416.98 -817.109 -1881 52 54 56
-411.732 -814.68 -1876 42 44 46
-408.031 -815.293 -1878 41 43 45
-403.681 -814.606 -1877 40 42 44
-398.912 -813.054 -1874 41 44 44
-394.371 -811.94 -1872 39 43 42
-390.26 -811.696 -1872 39 43 42
-385.739 -810.588 -1870 42 46 45
-381.64 -810.35 -1870 42 46 45
-377.544 -810.114 -1870 41 45 44
-373.651 -810.314 -1871 41 44 43
-369.56 -810.084 -1871 44 47 46
-365.276 -809.423 -1870 43 47 46
-361.001 -808.765 -1869 42 45 44
-356.161 -806.813 -1865 40 43 42
-351.718 -805.729 -1863 41 43 43
-347.288 -804.648 -1861 40 42 42
-343.423 -804.867 -1862 40 42 42
-339.375 -804.656 -1862 39 41 41
-335.15 -804.015 -1861 38 40 40
-331.11 -803.81 -1861 37 39 39
-326.722 -802.743 -1859 36 38 39
-322.519 -802.111 -1858 36 38 38
-317.809 -800.187 -1854 35 37 37
-313.458 -799.129 -1852 35 37 37
-308.951 -797.643 -1849 35 37 37
-304.79 -797.023 -1848 34 36 36
-300.31 -795.543 -1845 33 35 35
-296.007 -794.497 -1843 32 34 33
-291.399 -792.593 -1839 30 33 30
-286.185 -788.968 -1831 33 35 35
-280.546 -784.054 -1820 34 36 36
-275.26 -780.007 -1811 35 37 37
-270.166 -776.394 -1803 36 38 38
-265.552 -774.077 -1798 37 39 39
-261.253 -772.624 -1795 38 40 40
-256.826 -770.743 -1791 38 40 40
-252.7 -769.727 -1789 37 39 39
-248.447 -768.282 -1786 38 40 40
-244.482 -767.701 -1785 38 40 40
-240.794 -767.983 -1786 39 41 41
-237.236 -768.696 -1788 37 39 39
-233.411 -768.552 -1788 37 39 39
-230.102 -770.13 -1792 39 41 41
-226.525 -770.85 -1794 40 42 42
-222.817 -771.142 -1795 40 43 41
-219.352 -772.295 -1798 36 40 37
-215.755 -773.022 -1800 34 37 34
-212.623 -775.467 -1806 35 38 35
-209.352 -777.485 -1811 34 37 34
-206.742 -782.08 -1822 31 34 31
-203.975 -786.247 -1832 26 27 26
-200.732 -788.698 -1838 15 15 15
-197.357 -790.722 -1843 17 17 17
-193.438 -790.603 -1843 21 22 22
-189.315 -789.629 -1841 26 28 28
-185.001 -787.799 -1837 28 30 30
-180.804 -786.401 -1834 29 31 31
-176.526 -784.577 -1830 29 31 31
-172.643 -784.471 -1830 31 33 33
-168.392 -782.653 -1826 32 34 34
-164.251 -781.266 -1823 32 34 34
-160.211 -780.31 -1821 34 36 36
-156.182 -779.357 -1819 37 39 39
-152.162 -778.406 -1817 37 39 39
-148.234 -777.886 -1816 39 41 41
-144.152 -776.513 -1813 41 43 43
-140.085 -775.141 -1810 42 44 44
-136.031 -773.773 -1807 40 42 42
-131.845 -771.55 -1802 37 39 40
-127.894 -770.615 -1800 38 40 42
-124.022 -770.111 -1799 40 42 42
-120.222 -770.037 -1799 39 41 41
-116.294 -769.109 -1797 37 39 39
-112.625 -769.895 -1799 36 39 36
-108.829 -769.828 -1799 37 40 37
-104.974 -769.335 -1798 38 41 38
-101.182 -769.273 -1798 39 41 40
-97.3896 -769.213 -1798 40 42 41
-93.5466 -768.727 -1797 39 42 39
-89.9084 -769.955 -1800 37 40 37
-86.1627 -770.329 -1801 36 39 36
-82.4135 -770.706 -1802 35 37 37
-78.6608 -771.085 -1803 36 38 38
-75.0293 -772.749 -1807 35 37 37
-71.4209 -774.842 -1812 35 37 37
-67.8294 -777.366 -1818 36 38 38
-64.3189 -781.174 -1827 36 38 38
-60.5725 -782.419 -1830 35 37 37
-56.9381 -785.376 -1837 32 34 34
-53.2168 -787.48 -1842 35 37 37
-49.4749 -789.587 -1847 36 38 38
-45.5891 -789.558 -1847 36 38 38
-41.7488 -790.387 -1849 38 40 40
-37.921 -791.645 -1852 38 40 40
-34.0625 -792.478 -1854 35 37 37
-30.2121 -793.741 -1857 37 39 39
-26.3636 -795.434 -1861 39 41 41
-22.4745 -796.274 -1863 38 40 40
-18.557 -796.261 -1863 38 40 39
-14.6556 -797.106 -1865 35 39 36
-10.7343 -797.098 -1865 37 40 37
-6.8096 -796.666 -1864 38 41 38
-2.89509 -797.945 -1867 41 44 41
1.03121 -798.8 -1869 41 44 41
4.97414 -800.938 -1874 42 45 42
8.9141 -800.943 -1874 42 45 42
12.8541 -800.949 -1874 43 46 43
16.8035 -801.386 -1875 42 45 42
20.7682 -802.252 -1877 42 44 43
24.7018 -801.838 -1876 41 43 43
28.6773 -802.709 -1878 38 40 40
32.7139 -804.865 -1883 40 43 40
36.791 -807.451 -1889 41 44 41
40.872 -809.612 -1894 39 42 39
45.0693 -813.485 -1903 52 52 52
-423.19 -825.4 -1889 59 59 62
-417.019 -821.205 -1880 50 52 54
-411.55 -818.324 -1874 41 43 45
-407.852 -818.941 -1876 41 43 45
-403.502 -818.25 -1875 42 44 46
-399.374 -817.999 -1875 42 45 46
-394.617 -816.442 -1872 42 46 45
-390.294 -815.76 -1871 39 43 42
-385.773 -814.646 -1869 41 45 44
-381.265 -813.535 -1867 42 46 45
-377.375 -813.734 -1868 43 47 46
-373.084 -813.064 -1867 42 46 45
-369.196 -813.268 -1868 42 44 44
-364.917 -812.604 -1867 41 45 44
-360.646 -811.943 -1866 40 44 43
-355.809 -809.979 -1862 41 45 44
-351.37 -808.889 -1860 42 44 44
-347.13 -808.237 -1859 41 43 43
-343.267 -808.457 -1860 40 42 42
-339.221 -808.245 -1860 40 42 42
-335.177 -808.035 -1860 38 40 40
-330.959 -807.394 -1859 36 38 38
-326.22 -805.453 -1855 36 38 38
-322.197 -805.252 -1855 36 38 38
-317.662 -803.751 -1852 36 38 38
-313.651 -803.556 -1852 35 37 37
-309.142 -802.061 -1849 34 36 36
-305.143 -801.871 -1849 34 36 36
-300.659 -800.382 -1846 33 35 35
-296.19 -798.897 -1843 32 34 33
-291.578 -796.982 -1839 31 34 31
-286.205 -792.903 -1830 33 35 34
-280.564 -787.962 -1819 34 36 36
-275.126 -783.459 -1809 34 36 36
-270.482 -781.126 -1804 34 36 36
-265.715 -778.363 -1798 36 38 38
-261.122 -776.036 -1793 39 41 41
-256.696 -774.145 -1789 39 41 41
-252.29 -772.257 -1785 39 41 41
-248.321 -771.67 -1784 38 40 40
-244.496 -771.518 -1784 39 41 41
-240.807 -771.801 -1785 40 42 42
-237.116 -772.086 -1786 39 41 41
-233.554 -772.806 -1788 37 39 39
-230.115 -773.96 -1791 39 41 41
-226.664 -775.116 -1794 41 43 42
-223.327 -776.705 -1798 38 41 39
-219.852 -777.865 -1801 35 39 36
-216.367 -779.027 -1804 36 39 36
-212.871 -780.19 -1807 37 40 37
-209.711 -782.651 -1813 37 40 37
-206.982 -786.839 -1823 32 35 32
-204.1 -790.597 -1832 25 27 25
-201.291 -794.788 -1842 16 16 16
-197.478 -795.097 -1843 17 17 17
-193.556 -794.977 -1843 21 22 22
-189.225 -793.135 -1839 28 30 30
-185.013 -791.726 -1836 28 30 30
-180.816 -790.32 -1833 29 31 31
-176.73 -789.349 -1831 29 31 31
-172.748 -788.81 -1830 30 32 32
-168.495 -786.982 -1826 31 33 33
-164.261 -785.156 -1822 30 32 32
-160.045 -783.333 -1818 33 35 35
-156.019 -782.375 -1816 36 38 38
-152.087 -781.85 -1815 37 39 39
-148.079 -780.897 -1813 39 41 41
-144.24 -780.807 -1813 41 43 43
-140.015 -778.567 -1808 39 41 41
-136.415 -779.774 -1811 36 38 38
-132.071 -776.679 -1804 36 38 38
-128.327 -777.03 -1805 37 39 41
-124.304 -775.661 -1802 39 41 42
-120.496 -775.586 -1802 39 41 41
-116.559 -774.653 -1800 38 40 40
-112.819 -775.013 -1801 37 40 38
-108.895 -774.085 -1799 38 41 38
-104.921 -772.729 -1796 38 41 38
-101.243 -773.527 -1798 37 40 38
-97.4489 -773.466 -1798 36 39 37
-93.6556 -773.408 -1798 38 41 38
-89.9131 -773.782 -1799 39 42 39
-86.1193 -773.728 -1799 36 39 36
-82.372 -774.107 -1800 36 38 38
-78.5777 -774.058 -1800 36 38 38
-74.9918 -776.161 -1805 35 37 37
-71.3854 -778.267 -1810 33 35 35
-67.8707 -781.664 -1818 33 35 35
-64.3229 -785.063 -1826 35 37 37
-60.7418 -788.465 -1834 34 36 36
-57.0656 -791.008 -1840 34 36 36
-53.3068 -792.694 -1844 36 38 38
-49.4782 -793.522 -1846 37 39 39
-45.6167 -793.923 -1847 36 38 38
-41.7741 -794.756 -1849 37 39 39
-37.9235 -795.592 -1851 37 39 39
-34.0648 -796.43 -1853 37 39 39
-30.2142 -797.699 -1856 37 39 39
-26.3088 -797.682 -1856 38 40 40
-22.4398 -798.957 -1859 39 42 40
-18.5484 -799.804 -1861 39 42 39
-14.633 -799.794 -1861 37 41 39
-10.7294 -800.646 -1863 39 42 40
-6.82079 -801.93 -1866 42 45 42
-2.89365 -801.497 -1865 43 46 43
1.03257 -803.645 -1870 43 46 43
4.97188 -804.507 -1872 44 47 44
8.90536 -804.081 -1871 44 47 44
12.8622 -805.377 -1874 42 45 42
16.8227 -806.246 -1876 41 44 41
20.7807 -806.687 -1877 42 45 42
24.7565 -807.561 -1879 42 44 43
28.7865 -809.726 -1884 39 41 41
32.7858 -810.604 -1886 41 44 41
36.8523 -812.775 -1891 41 44 41
40.9401 -814.948 -1896 39 42 39
45.2391 -820.562 -1909 52 52 52
49.8767 -830.907 -1933 60 60 60
-423.232 -829.522 -1888 57 57 59
-417.059 -825.303 -1879 48 50 52
-411.809 -822.846 -1874 40 42 44
-407.238 -821.71 -1872 41 43 44
-403.54 -822.332 -1874 42 44 46
-398.772 -820.763 -1871 42 44 45
-394.654 -820.514 -1871 39 43 42
-390.748 -820.705 -1872 39 43 42
-386.222 -819.584 -1870 40 44 43
-381.912 -818.905 -1869 42 46 45
-377.611 -818.228 -1868 42 47 46
-373.517 -817.992 -1868 43 47 46
-369.427 -817.759 -1868 42 45 44
-364.95 -816.653 -1866 40 44 43
-360.678 -815.989 -1865 40 44 43
-356.222 -814.889 -1863 41 45 44
-351.778 -813.792 -1861 42 44 44
-347.534 -813.136 -1860 42 44 44
-343.297 -812.483 -1859 41 43 43
-339.432 -812.707 -1860 39 41 41
-334.845 -811.185 -1857 38 40 40
-330.987 -811.414 -1858 37 39 39
-326.072 -809.026 -1853 34 36 36
-321.876 -808.387 -1852 34 36 36
-317.688 -807.751 -1851 35 37 37
-313.677 -807.554 -1851 36 38 38
-309.501 -806.923 -1850 36 38 38
-305.168 -805.86 -1848 35 37 37
-301.008 -805.235 -1847 33 36 33
-296.535 -803.741 -1844 32 35 32
-291.759 -801.379 -1839 30 33 30
-287.165 -799.456 -1835 31 33 32
-281.819 -795.358 -1826 33 35 35
-275.905 -789.523 -1813 34 36 36
-270.8 -785.87 -1805 36 38 38
-265.732 -782.221 -1797 37 39 39
-261.284 -780.316 -1793 39 41 41
-256.568 -777.545 -1787 39 41 41
-252.588 -776.951 -1786 39 41 41
-248.196 -775.056 -1782 38 40 40
-244.372 -774.904 -1782 39 41 41
-240.551 -774.753 -1782 40 42 42
-236.864 -775.04 -1783 40 42 42
-233.437 -776.198 -1786 39 41 41
-229.742 -776.49 -1787 40 42 41
-226.551 -778.521 -1792 39 42 39
-223.091 -779.685 -1795 36 40 37
-219.988 -782.154 -1801 35 39 36
-216.14 -782.019 -1801 36 39 36
-213.474 -786.228 -1811 38 41 38
-209.725 -786.531 -1812 36 39 36
-207.109 -791.177 -1823 33 36 33
-204.003 -794.088 -1830 27 29 27
-201.197 -798.301 -1840 16 16 16
-197.492 -799.046 -1842 17 17 17
-193.465 -798.492 -1841 22 23 23
-189.341 -797.506 -1839 26 28 28
-185.026 -795.656 -1835 27 29 29
-180.829 -794.243 -1832 30 32 32
-176.742 -793.266 -1830 30 32 32
-172.665 -792.291 -1828 32 34 34
-168.414 -790.453 -1824 33 35 35
-164.271 -789.05 -1821 31 33 33
-160.143 -787.65 -1818 32 34 34
-155.943 -785.82 -1814 34 36 36
-152.013 -785.292 -1813 35 37 37
-147.925 -783.9 -1810 38 40 40
-144.09 -783.811 -1810 40 42 42
-139.946 -781.991 -1806 39 41 41
-136.197 -782.339 -1807 38 40 40
-132.299 -781.824 -1806 38 40 41
-128.548 -782.177 -1807 37 39 41
-124.381 -779.935 -1802 39 41 41
-120.503 -779.427 -1801 38 40 40
-116.565 -778.488 -1799 38 40 40
-112.825 -778.851 -1800 38 41 39
-108.78 -777.052 -1796 37 40 37
-105.102 -777.851 -1798 37 40 36
-101.418 -778.653 -1800 36 39 36
-97.5627 -778.16 -1799 36 39 36
-93.7128 -777.669 -1798 37 40 37
-89.968 -778.045 -1799 37 39 38
-86.172 -777.991 -1799 36 38 37
-82.3766 -777.939 -1799 35 37 37
-78.6258 -778.322 -1800 35 37 37
-74.9129 -779.14 -1802 35 37 37
-71.3502 -781.689 -1808 35 37 37
-67.8001 -784.673 -1815 35 37 37
-64.362 -789.388 -1826 36 38 38
-60.7127 -791.943 -1832 35 37 37
-57.0695 -794.933 -1839 36 38 38
-53.2816 -796.196 -1842 37 39 39
-49.5084 -797.893 -1846 36 38 38
-45.6694 -798.729 -1848 36 38 38
-41.8449 -799.998 -1851 37 39 39
-37.9876 -800.838 -1853 39 41 41
-34.0856 -800.816 -1853 39 41 41
-30.2327 -802.093 -1856 40 42 42
-26.339 -802.508 -1857 40 43 40
-22.4293 -802.493 -1857 40 43 41
-18.5398 -803.345 -1859 40 43 40
-14.6341 -803.767 -1860 39 43 42
-10.73 -804.623 -1862 40 43 41
-6.82128 -805.915 -1865 44 47 44
-2.90022 -807.208 -1868 44 47 44
1.0326 -807.64 -1869 44 47 44
4.97229 -808.506 -1871 42 45 42
8.91091 -808.51 -1871 42 45 43
12.87 -809.813 -1874 42 45 42
16.824 -810.255 -1875 42 45 42
20.8046 -811.562 -1878 43 46 43
24.7848 -812.441 -1880 41 44 42
28.7738 -813.322 -1882 39 41 41
32.806 -815.069 -1886 40 43 40
36.836 -816.387 -1889 40 43 40
40.9436 -819.004 -1895 38 41 37
45.2431 -824.649 -1908 50 50 50
49.9848 -836.781 -1936 59 59 59
-422.603 -832.323 -1884 58 58 60
-416.435 -828.081 -1875 49 50 52
-411.41 -826.052 -1871 40 42 44
-407.495 -826.234 -1872 40 42 42
-403.149 -825.535 -1871 40 44 44
-399.024 -825.281 -1871 40 44 45
-394.692 -824.589 -1870 38 42 41
-390.577 -824.341 -1870 39 43 42
-386.259 -823.654 -1869 40 44 43
-381.744 -822.53 -1867 41 45 44
-377.444 -821.85 -1866 40 46 45
-372.952 -820.732 -1864 40 46 45
-369.264 -821.378 -1866 42 46 45
-364.788 -820.267 -1864 41 45 44
-360.711 -820.038 -1864 41 45 44
-356.254 -818.932 -1862 41 45 44
-352.188 -818.709 -1862 42 44 44
-347.752 -817.609 -1860 42 44 44
-343.512 -816.952 -1859 42 44 44
-339.645 -817.177 -1860 40 42 42
-335.055 -815.647 -1857 39 41 41
-330.838 -814.998 -1856 37 39 39
-326.1 -813.036 -1852 36 38 38
-321.73 -811.954 -1850 35 37 37
-317.715 -811.754 -1850 35 37 37
-313.873 -811.994 -1851 37 39 39
-309.527 -810.922 -1849 37 39 39
-305.523 -810.729 -1849 36 38 38
-301.196 -809.662 -1847 32 35 32
-296.237 -806.845 -1841 30 33 30
-291.307 -804.032 -1835 29 32 29
-286.718 -802.098 -1831 29 31 30
-281.377 -797.978 -1822 31 33 33
-275.925 -793.425 -1812 35 37 37
-270.969 -790.189 -1805 38 40 40
-266.046 -786.958 -1798 39 41 41
-261.301 -784.167 -1792 39 41 41
-256.441 -780.942 -1785 38 40 40
-252.462 -780.346 -1784 37 39 39
-248.35 -779.315 -1782 37 39 39
-244.661 -779.599 -1783 39 41 41
-240.97 -779.885 -1784 41 43 43
-237.144 -779.736 -1784 40 42 42
-233.582 -780.463 -1786 40 42 40
-230.142 -781.629 -1789 40 43 40
-226.818 -783.235 -1793 39 42 39
-223.354 -784.405 -1796 37 40 37
-220.246 -786.887 -1802 35 39 36
-216.515 -787.188 -1803 37 40 37
-213.252 -789.237 -1808 38 41 38
-210.202 -792.161 -1815 36 39 36
-207.124 -795.086 -1822 32 35 32
-204.352 -799.322 -1832 28 29 28
-201.321 -802.686 -1840 16 16 16
-197.614 -803.435 -1842 17 17 17
-193.585 -802.877 -1841 25 25 25
-189.356 -801.45 -1838 27 27 27
-185.141 -800.026 -1835 25 27 27
-180.94 -798.604 -1832 29 31 31
-176.851 -797.622 -1830 32 34 34
-172.866 -797.078 -1829 34 36 36
-168.611 -795.229 -1825 35 37 37
-164.283 -792.947 -1820 34 35 35
-160.242 -791.975 -1818 32 34 34
-155.953 -789.699 -1813 32 34 34
-152.023 -789.168 -1812 34 36 36
-147.853 -787.334 -1808 37 39 39
-144.019 -787.243 -1808 39 41 41
-139.955 -785.849 -1805 39 41 41
-136.13 -785.764 -1805 39 41 41
-132.234 -785.246 -1804 40 42 42
-128.485 -785.6 -1805 39 41 43
-124.457 -784.216 -1802 39 41 41
-120.644 -784.14 -1802 38 40 40
-116.767 -783.632 -1801 38 40 40
-112.707 -781.821 -1797 38 40 38
-108.968 -782.187 -1798 37 40 37
-105.167 -782.121 -1798 37 40 35
-101.424 -782.492 -1799 37 40 37
-97.6228 -782.431 -1799 37 40 37
-93.8749 -782.807 -1800 37 40 37
-90.1235 -783.185 -1801 36 39 38
-86.3208 -783.131 -1801 34 36 36
-82.4273 -782.209 -1799 34 36 36
-78.6304 -782.159 -1799 35 37 37
-74.9589 -783.416 -1802 34 36 36
-71.394 -785.979 -1808 35 37 37
-67.8791 -789.414 -1816 36 38 38
-64.2958 -792.416 -1823 36 38 38
-60.7831 -796.724 -1833 36 38 38
-57.1045 -799.296 -1839 36 38 38
-53.2854 -800.131 -1841 36 38 38
-49.4852 -801.403 -1844 35 37 37
-45.6726 -802.678 -1847 36 38 38
-41.8253 -803.52 -1849 40 42 42
-38.011 -805.233 -1853 39 41 41
-34.088 -804.777 -1852 41 43 43
-30.2349 -806.061 -1855 42 44 44
-26.341 -806.478 -1856 41 44 41
-22.4068 -805.594 -1854 40 43 40
-18.5211 -806.45 -1856 40 43 40
-14.6351 -807.743 -1859 37 41 40
-10.7367 -809.039 -1862 39 42 40
-6.81447 -809.034 -1862 41 44 41
-2.89879 -810.769 -1866 42 45 40
1.03341 -812.072 -1869 42 45 41
4.9727 -812.508 -1870 39 42 39
8.91147 -812.513 -1870 40 42 42
12.8643 -813.388 -1872 42 44 42
16.8254 -814.267 -1874 42 45 42
20.8064 -815.582 -1877 41 44 41
24.8265 -817.768 -1882 40 42 41
28.8221 -818.654 -1884 39 41 41
32.8436 -819.977 -1887 38 41 38
36.8976 -821.737 -1891 39 42 38
40.9257 -822.63 -1893 38 41 36
45.0812 -825.698 -1900 51 51 50
-422.199 -835.557 -1881 58 58 60
-416.7 -832.624 -1875 50 51 52
-411.672 -830.583 -1871 41 43 43
-407.101 -829.435 -1869 40 42 42
-403.189 -829.62 -1870 41 44 45
-399.064 -829.365 -1870 39 43 44
-394.942 -829.112 -1870 38 42 41
-390.616 -828.418 -1869 39 43 42
-386.504 -828.171 -1869 40 44 43
-382.395 -827.926 -1869 41 45 44
-377.683 -826.356 -1866 41 47 46
-373.589 -826.118 -1866 41 47 46
-369.498 -825.881 -1866 42 46 45
-365.019 -824.763 -1864 41 45 44
-361.132 -824.975 -1865 42 46 45
-356.862 -824.306 -1864 42 46 45
-352.6 -823.639 -1863 42 44 44
-348.533 -823.416 -1863 42 44 44
-343.729 -821.43 -1859 42 44 44
-339.859 -821.655 -1860 42 44 44
-335.086 -819.675 -1856 40 42 42
-330.868 -819.023 -1855 37 39 39
-325.953 -816.608 -1850 38 40 40
-322.107 -816.845 -1851 39 41 41
-317.571 -815.319 -1848 38 40 40
-313.731 -815.561 -1849 37 39 39
-309.387 -814.482 -1847 37 39 39
-305.22 -813.848 -1846 36 38 38
-300.733 -812.334 -1843 33 36 34
-296.423 -811.264 -1841 31 34 31
-291.807 -809.317 -1837 29 32 29
-286.898 -806.492 -1831 28 30 29
-282.635 -805.431 -1829 30 32 32
-276.555 -799.091 -1815 34 36 34
-271.74 -796.277 -1809 36 39 38
-266.212 -791.267 -1798 37 39 39
-261.756 -789.341 -1794 38 40 40
-256.889 -786.099 -1787 38 40 40
-252.62 -784.619 -1784 37 39 39
-248.645 -784.022 -1783 38 40 40
-244.952 -784.307 -1784 40 42 42
-240.851 -783.275 -1782 41 43 43
-237.16 -783.565 -1783 41 43 43
-233.728 -784.736 -1786 40 43 41
-230.157 -785.469 -1788 40 43 40
-226.833 -787.083 -1792 39 42 39
-223.245 -787.82 -1794 37 41 38
-220.139 -790.316 -1800 35 39 36
-216.529 -791.057 -1802 38 41 38
-213.503 -793.996 -1809 38 41 38
-209.985 -795.18 -1812 35 38 35
-207.253 -799.437 -1822 32 35 31
-204.033 -801.942 -1828 30 31 28
-201.337 -806.64 -1839 18 16 17
-197.523 -806.954 -1840 17 17 17
-193.705 -807.27 -1841 25 25 25
-189.577 -806.274 -1839 27 27 27
-185.256 -804.403 -1835 26 28 28
-181.053 -802.974 -1832 30 32 32
-177.058 -802.424 -1831 32 34 34
-172.879 -801 -1828 33 35 35
-168.715 -799.58 -1825 33 35 35
-164.475 -797.723 -1821 37 37 37
-160.165 -795.432 -1816 35 37 37
-155.964 -793.581 -1812 33 35 35
-151.781 -791.734 -1808 34 36 36
-147.535 -789.451 -1803 36 38 38
-143.71 -789.361 -1803 38 40 40
-139.654 -787.959 -1800 39 41 41
-135.988 -788.749 -1802 40 42 42
-132.096 -788.228 -1801 39 41 41
-128.351 -788.584 -1802 39 41 43
-124.465 -788.068 -1801 39 41 41
-120.518 -787.117 -1799 40 42 42
-116.58 -786.168 -1797 38 40 40
-112.777 -786.097 -1797 37 40 38
-108.914 -785.591 -1796 37 40 37
-105.174 -785.962 -1797 37 40 35
-101.43 -786.335 -1798 38 41 37
-97.6832 -786.71 -1799 37 40 37
-93.9851 -787.525 -1801 36 39 36
-90.2294 -787.905 -1802 37 39 38
-86.3743 -787.413 -1801 36 38 38
-82.57 -787.361 -1801 36 38 38
-78.7664 -787.311 -1801 35 37 37
-75.0469 -788.137 -1803 33 35 35
-71.3987 -789.84 -1807 33 35 35
-67.8463 -792.857 -1814 34 36 36
-64.4062 -797.623 -1825 32 34 34
-60.7875 -800.644 -1832 34 36 36
-57.0466 -802.355 -1836 34 36 36
-53.2604 -803.632 -1839 35 37 37
-49.462 -804.911 -1842 35 37 37
-45.6513 -806.193 -1845 36 38 38
-41.8285 -807.477 -1848 38 40 40
-38.0344 -809.637 -1853 40 42 42
-34.1459 -810.051 -1854 42 44 44
-30.2861 -811.342 -1857 42 44 44
-26.3714 -811.325 -1857 42 45 42
-22.4568 -811.309 -1857 41 44 41
-18.5525 -811.734 -1858 38 41 38
-14.6441 -812.16 -1859 37 41 39
-10.7489 -813.9 -1863 38 41 39
-6.81132 -812.584 -1860 38 41 38
-2.90047 -815.202 -1866 40 43 38
1.03399 -816.512 -1869 41 44 40
4.97579 -816.951 -1870 40 43 40
8.92184 -817.392 -1871 39 41 41
12.879 -818.273 -1873 41 43 41
16.854 -819.593 -1876 41 44 41
20.8304 -820.478 -1878 40 43 40
24.8288 -821.803 -1881 38 41 40
28.8552 -823.567 -1885 39 41 41
32.864 -824.461 -1887 40 43 40
36.9205 -826.23 -1891 39 42 38
41.0375 -828.876 -1897 39 42 37
45.204 -831.961 -1904 54 52 50
-421.571 -838.338 -1877 59 59 61
-416.744 -836.729 -1874 48 50 50
-411.715 -834.677 -1870 41 45 44
-407.143 -833.522 -1868 42 44 44
-403.016 -833.262 -1868 43 45 46
-398.892 -833.005 -1868 40 42 44
-394.138 -831.414 -1865 38 42 41
-390.028 -831.162 -1865 40 44 43
-386.129 -831.359 -1866 41 45 44
-382.025 -831.114 -1866 42 46 45
-377.924 -830.871 -1866 41 46 45
-373.426 -829.74 -1864 41 47 46
-369.337 -829.503 -1864 42 46 45
-365.251 -829.269 -1864 42 46 45
-361.556 -829.926 -1866 43 47 46
-357.473 -829.697 -1866 42 46 45
-353.014 -828.581 -1864 42 44 44
-348.754 -827.914 -1863 42 44 44
-344.132 -826.36 -1860 42 44 44
-339.709 -825.254 -1858 43 45 45
-335.118 -823.707 -1855 42 44 44
-330.899 -823.051 -1854 38 40 40
-326.159 -821.067 -1850 36 38 38
-321.614 -819.529 -1847 38 40 40
-317.601 -819.327 -1847 39 41 41
-313.59 -819.126 -1847 37 39 39
-309.08 -817.598 -1844 37 39 39
-304.916 -816.96 -1843 36 38 38
-300.76 -816.325 -1842 35 38 36
-295.805 -813.477 -1836 34 37 34
-291.038 -811.076 -1831 30 33 30
-286.608 -809.564 -1828 27 30 29
-282.195 -808.056 -1825 28 30 30
-277.034 -804.337 -1817 33 36 33
-272.362 -801.95 -1812 35 37 36
-266.825 -796.912 -1801 35 37 37
-261.921 -793.648 -1794 35 37 37
-257.05 -790.387 -1787 37 39 39
-252.921 -789.342 -1785 38 40 40
-248.941 -788.741 -1784 38 40 40
-245.381 -789.47 -1786 39 41 41
-241.543 -789.316 -1786 41 43 43
-237.708 -789.165 -1786 42 44 44
-234.137 -789.9 -1788 41 44 43
-230.431 -790.195 -1789 39 42 39
-226.975 -791.376 -1792 39 42 39
-223.385 -792.117 -1794 38 41 38
-220.278 -794.627 -1800 35 39 36
-216.545 -794.93 -1801 36 39 36
-213.283 -797.002 -1806 37 40 37
-210.117 -799.516 -1812 36 39 36
-207.041 -802.474 -1819 32 35 30
-204.161 -806.314 -1828 28 29 26
-201.244 -810.156 -1837 19 16 17
-197.754 -811.795 -1841 16 16 16
-193.827 -811.672 -1841 22 22 22
-189.798 -811.111 -1840 28 28 28
-185.372 -808.789 -1835 28 30 30
-181.067 -806.911 -1831 31 33 33
-176.975 -805.918 -1829 31 33 33
-172.893 -804.927 -1827 33 34 34
-168.821 -803.938 -1825 34 34 34
-164.397 -801.191 -1819 36 36 36
-160.265 -799.768 -1816 36 38 38
-155.975 -797.467 -1811 35 37 37
-151.876 -796.05 -1808 35 37 37
-147.791 -794.635 -1805 36 38 38
-143.8 -793.663 -1803 37 39 39
-139.818 -792.694 -1801 39 41 41
-136.073 -793.048 -1802 39 41 41
-132.105 -792.084 -1800 38 40 40
-128.431 -792.882 -1802 40 42 44
-124.405 -791.483 -1799 40 42 42
-120.459 -790.527 -1797 38 40 40
-116.588 -790.013 -1796 37 39 39
-112.973 -791.261 -1799 38 40 38
-109.164 -791.191 -1799 36 39 36
-105.356 -791.124 -1799 38 41 38
-101.663 -791.939 -1801 38 41 38
-97.8527 -791.876 -1801 39 42 39
-94.0437 -791.817 -1801 38 41 36
-90.3357 -792.638 -1803 36 39 36
-86.4761 -792.144 -1802 35 38 35
-82.7132 -792.53 -1803 36 38 38
-78.9031 -792.48 -1803 35 37 37
-75.1353 -792.871 -1804 34 36 36
-71.6012 -795.902 -1811 32 34 34
-68.0757 -799.374 -1819 32 34 34
-64.5169 -802.848 -1827 31 33 33
-60.8253 -805.006 -1832 31 33 33
-57.0821 -806.727 -1836 32 34 34
-53.3224 -808.45 -1840 32 34 34
-49.4658 -808.858 -1841 35 37 37
-45.7045 -811.025 -1846 38 40 40
-41.8318 -811.437 -1847 40 42 42
-38.0786 -814.487 -1854 40 42 42
-34.1303 -813.586 -1852 41 43 43
-30.2887 -815.323 -1856 41 43 43
-26.3593 -814.866 -1855 42 44 41
-22.4828 -816.169 -1858 42 44 42
-18.564 -816.156 -1858 42 45 42
-14.6453 -816.146 -1858 39 42 39
-10.744 -817.456 -1861 39 42 39
-6.81551 -817.011 -1860 40 43 40
-2.89594 -817.886 -1862 40 43 39
1.03205 -818.764 -1864 41 44 41
4.97357 -820.524 -1868 42 45 42
8.92269 -821.406 -1870 39 41 40
12.8734 -821.853 -1871 41 43 41
16.8645 -824.058 -1876 42 45 42
20.8434 -824.948 -1878 41 43 42
24.8705 -827.159 -1883 39 41 41
28.9192 -829.372 -1888 41 43 43
32.9715 -831.149 -1892 39 42 39
37.0022 -832.05 -1894 39 42 39
41.1281 -834.71 -1900 36 39 36
45.3509 -838.691 -1909 53 52 52
-421.168 -841.558 -1874 57 58 60
-416.79 -840.838 -1873 47 49 51
-412.421 -840.121 -1872 42 44 46
-407.842 -838.959 -1870 41 43 44
-403.491 -838.249 -1869 43 45 46
-398.935 -837.093 -1867 42 44 46
-394.18 -835.493 -1864 41 45 44
-390.07 -835.24 -1864 42 46 45
-385.756 -834.542 -1863 43 47 46
-382.065 -835.191 -1865 43 47 46
-377.761 -834.499 -1864 43 48 47
-373.866 -834.705 -1865 43 48 47
-369.573 -834.018 -1864 42 46 45
-365.289 -833.335 -1863 42 46 45
-361.012 -832.655 -1862 42 46 45
-357.318 -833.319 -1864 42 46 45
-353.05 -832.644 -1863 42 44 44
-348.79 -831.972 -1862 42 44 43
-344.352 -830.857 -1860 42 44 43
-339.926 -829.744 -1858 42 44 43
-335.512 -828.635 -1856 42 44 43
-330.932 -827.083 -1853 39 41 41
-326.72 -826.426 -1852 36 38 38
-322.342 -825.326 -1850 36 38 37
-317.975 -824.23 -1848 35 37 37
-313.62 -823.136 -1846 35 37 36
-308.773 -820.708 -1841 36 38 38
-304.945 -820.958 -1842 36 38 38
-300.624 -819.874 -1840 36 39 37
-296.154 -818.347 -1837 35 38 35
-291.7 -816.823 -1834 32 35 32
-287.732 -816.638 -1834 27 30 28
-282.993 -814.231 -1829 27 29 29
-278.431 -812.272 -1825 31 34 32
-272.986 -807.646 -1815 34 36 35
-267.587 -803.024 -1805 34 36 36
-262.526 -799.297 -1797 34 37 36
-257.789 -796.463 -1791 36 39 38
-253.506 -794.967 -1788 38 41 40
-249.378 -793.918 -1786 38 40 41
-245.673 -794.206 -1787 39 41 42
-242.102 -794.939 -1789 40 42 42
-238.125 -794.343 -1788 41 43 43
-234.416 -794.637 -1789 41 43 42
-230.576 -794.49 -1789 41 43 41
-226.992 -795.233 -1791 40 42 40
-223.152 -795.09 -1791 39 41 39
-220.172 -798.057 -1798 37 41 38
-216.562 -798.807 -1800 38 39 36
-213.417 -801.333 -1806 39 41 38
-210.018 -802.974 -1810 36 39 36
-207.058 -806.39 -1818 31 34 30
-203.955 -809.365 -1825 27 28 26
-201.371 -814.559 -1837 17 16 16
-197.771 -815.762 -1840 16 16 16
-193.843 -815.639 -1840 21 22 22
-189.505 -813.745 -1836 28 29 29
-185.185 -811.854 -1832 30 32 32
-180.885 -809.966 -1828 31 33 33
-176.893 -809.409 -1827 31 33 33
-172.718 -807.97 -1824 34 35 35
-168.649 -806.977 -1822 35 36 36
-164.501 -805.543 -1819 36 37 37
-160.366 -804.112 -1816 33 35 35
-155.901 -800.913 -1809 33 35 35
-151.804 -799.488 -1806 36 38 38
-147.638 -797.623 -1802 35 37 37
-143.651 -796.646 -1800 36 38 38
-139.751 -796.114 -1799 38 40 40
-136.083 -796.913 -1801 38 40 40
-132.041 -795.501 -1798 37 39 39
-128.298 -795.861 -1799 41 41 42
-124.275 -794.455 -1796 40 42 41
-120.467 -794.378 -1796 38 41 39
-116.661 -794.303 -1796 36 39 35
-112.855 -794.231 -1796 34 37 33
-109.233 -795.488 -1799 35 38 34
-105.481 -795.862 -1800 36 39 36
-101.726 -796.239 -1801 37 40 37
-97.9141 -796.176 -1801 39 42 39
-94.1026 -796.116 -1801 39 42 38
-90.3421 -796.5 -1802 37 40 37
-86.5302 -796.445 -1802 35 38 35
-82.7649 -796.833 -1803 36 38 38
-78.9963 -797.225 -1804 36 38 38
-75.3907 -799.386 -1809 35 37 37
-71.8439 -802.433 -1816 35 37 37
-68.3429 -806.365 -1825 35 37 36
-64.6279 -808.091 -1829 33 36 34
-60.7637 -808.052 -1829 34 36 36
-57.0556 -810.224 -1834 32 34 35
-53.2689 -811.514 -1837 32 34 36
-49.443 -812.366 -1839 34 36 36
-45.6835 -814.544 -1844 37 39 39
-41.8354 -815.4 -1846 41 43 43
-38.0613 -818.025 -1852 41 43 43
-34.1516 -818.003 -1852 41 42 42
-30.2912 -819.308 -1855 42 42 42
-26.4042 -820.173 -1857 42 42 40
-22.509 -821.041 -1859 41 42 40
-18.5956 -821.47 -1860 41 44 41
-14.6779 -821.901 -1861 40 43 40
-10.7565 -822.335 -1862 41 44 41
-6.82338 -821.888 -1861 41 44 41
-2.89787 -822.327 -1862 41 44 41
1.03208 -822.768 -1863 41 44 41
4.97159 -824.095 -1866 40 43 40
8.91878 -824.982 -1868 39 42 39
12.8885 -826.756 -1872 41 44 41
16.8752 -828.532 -1876 42 45 42
20.8675 -829.869 -1879 41 43 43
24.8862 -831.65 -1883 40 42 42
28.8915 -832.55 -1885 40 42 42
32.8877 -833.011 -1886 38 41 38
36.9471 -834.8 -1890 37 41 38
41.0672 -837.475 -1896 35 39 36
45.1892 -839.71 -1901 52 52 52
-422.341 -847.932 -1878 56 57 59
-417.283 -845.854 -1874 47 48 50
-413.349 -846.035 -1875 44 44 47
-408.542 -844.415 -1872 42 44 46
-403.536 -842.347 -1868 44 46 48
-399.407 -842.087 -1868 43 45 47
-394.435 -840.027 -1864 40 44 43
-390.112 -839.322 -1863 40 44 43
-385.798 -838.62 -1862 42 46 45
-382.107 -839.272 -1864 44 48 47
-377.802 -838.576 -1863 45 48 47
-373.906 -838.783 -1864 44 46 46
-369.415 -837.643 -1862 41 45 44
-365.524 -837.855 -1863 41 45 44
-361.05 -836.721 -1861 42 46 45
-356.972 -836.49 -1861 43 47 46
-352.708 -835.811 -1860 43 47 45
-348.639 -835.585 -1860 43 46 43
-344.203 -834.464 -1858 44 47 44
-339.595 -832.896 -1855 45 46 44
-335.547 -832.679 -1855 42 42 41
-331.323 -832.015 -1854 42 42 42
-326.93 -830.906 -1852 39 41 39
-322.548 -829.8 -1850 36 39 36
-318.006 -828.249 -1847 35 38 35
-313.821 -827.598 -1846 35 37 35
-309.139 -825.605 -1842 36 38 38
-304.808 -824.511 -1840 35 38 35
-300.163 -822.525 -1836 36 39 36
-295.86 -821.438 -1834 35 38 35
-291.727 -820.802 -1833 32 35 32
-287.288 -819.273 -1830 27 30 27
-283.173 -818.643 -1829 26 29 26
-278.456 -816.225 -1824 30 32 32
-273.612 -813.364 -1818 33 35 35
-268.647 -810.059 -1811 36 38 38
-263.57 -806.311 -1803 36 40 39
-258.241 -801.672 -1793 36 40 39
-254.093 -800.614 -1791 36 40 39
-249.956 -799.559 -1789 37 39 41
-246.243 -799.848 -1790 38 40 41
-242.256 -799.245 -1789 39 41 41
-238.543 -799.538 -1790 39 41 41
-234.696 -799.388 -1790 40 41 41
-230.723 -798.793 -1789 41 41 41
-226.883 -798.647 -1789 42 42 40
-223.294 -799.396 -1791 41 42 40
-219.944 -801.04 -1795 39 42 39
-216.458 -802.24 -1798 40 40 36
-213.316 -804.78 -1804 39 40 36
-210.151 -807.322 -1810 35 38 35
-207.303 -811.203 -1819 32 35 32
-204.419 -815.085 -1828 27 30 28
-201.499 -818.968 -1837 13 15 15
-197.896 -820.179 -1840 14 16 18
-194.072 -820.5 -1841 20 22 23
-189.832 -819.041 -1838 27 29 29
-185.1 -815.357 -1830 30 32 32
-180.999 -814.35 -1828 32 34 34
-177.005 -813.791 -1827 30 32 32
-172.637 -811.453 -1822 31 33 33
-168.663 -810.899 -1821 33 35 35
-164.514 -809.458 -1818 35 37 37
-160.291 -807.574 -1814 35 37 37
-156 -805.248 -1809 36 38 38
-152.068 -804.705 -1808 37 39 39
-147.813 -802.385 -1803 37 39 39
-143.901 -801.847 -1802 37 39 39
-139.839 -800.423 -1799 37 39 39
-136.018 -800.335 -1799 38 40 40
-132.051 -799.361 -1797 38 40 40
-128.308 -799.723 -1798 41 41 41
-124.353 -798.754 -1796 40 42 40
-120.476 -798.231 -1795 38 41 39
-116.734 -798.601 -1796 38 41 36
-112.989 -798.973 -1797 37 40 35
-109.301 -799.792 -1799 36 39 34
-105.548 -800.169 -1800 37 40 37
-101.734 -800.103 -1800 36 39 36
-97.9213 -800.04 -1800 36 39 36
-94.162 -800.424 -1801 38 41 38
-90.3489 -800.365 -1801 37 40 37
-86.6327 -801.198 -1803 34 37 34
-82.863 -801.589 -1804 35 37 37
-79.2213 -803.315 -1808 37 39 39
-75.5216 -804.599 -1811 36 38 38
-71.8891 -806.774 -1816 34 37 35
-68.3484 -810.284 -1824 33 36 34
-64.6686 -812.463 -1829 34 37 34
-60.9349 -814.2 -1833 33 35 35
-57.1226 -815.051 -1835 32 34 35
-53.3023 -815.904 -1837 33 35 37
-49.5548 -818.093 -1842 33 35 35
-45.7371 -819.395 -1845 37 39 39
-41.8843 -820.256 -1847 39 41 41
-38.0441 -821.563 -1850 40 42 42
-34.0993 -820.652 -1848 41 42 41
-30.2939 -823.296 -1854 42 42 40
-26.3781 -823.278 -1854 40 42 40
-22.511 -825.039 -1858 40 43 40
-18.5872 -825.026 -1858 40 43 40
-14.6951 -826.792 -1862 42 45 42
-10.7575 -826.34 -1861 44 47 44
-6.83128 -826.778 -1862 42 45 42
-2.89957 -826.775 -1862 41 44 41
1.03211 -826.775 -1862 41 44 41
4.96938 -827.665 -1864 41 44 41
8.91967 -829.001 -1867 40 43 40
12.8829 -830.34 -1870 42 45 42
16.8587 -831.682 -1873 42 45 42
20.8587 -833.47 -1877 40 42 42
24.9418 -837.481 -1886 41 43 43
28.9095 -837.054 -1885 40 42 42
32.9609 -838.85 -1889 38 41 38
37.0293 -840.648 -1893 38 41 38
41.1798 -843.782 -1900 36 39 37
45.3129 -846.03 -1905 50 50 50
-429.972 -859.155 -1892 61 61 65
-423.067 -853.427 -1880 56 56 59
-417.555 -850.429 -1874 47 47 49
-413.178 -849.704 -1873 43 43 45
-408.371 -848.075 -1870 42 44 46
-404.015 -847.356 -1869 42 44 46
-399.452 -846.187 -1867 43 45 47
-394.479 -844.116 -1863 40 44 43
-389.737 -842.501 -1860 39 43 42
-386.256 -843.607 -1863 41 45 44
-382.56 -844.262 -1865 42 46 45
-377.641 -842.204 -1861 43 46 45
-373.747 -842.412 -1862 42 44 44
-369.059 -840.814 -1859 41 45 44
-364.975 -840.575 -1859 42 46 45
-360.313 -838.984 -1856 43 47 46
-356.244 -838.751 -1856 44 48 47
-351.987 -838.069 -1855 45 49 47
-348.302 -838.746 -1857 46 49 46
-343.869 -837.618 -1855 47 50 47
-339.631 -836.945 -1854 46 48 46
-335.582 -836.726 -1854 43 45 44
-331.358 -836.059 -1853 42 44 44
-326.787 -834.493 -1850 39 41 40
-322.756 -834.283 -1850 36 39 36
-318.211 -832.723 -1847 35 38 35
-314.023 -832.068 -1846 37 39 37
-309.002 -829.163 -1840 37 39 39
-304.673 -828.063 -1838 35 38 35
-300.356 -826.967 -1836 36 39 36
-296.211 -826.324 -1835 35 38 35
-292.074 -825.684 -1834 33 36 33
-287.786 -824.597 -1832 30 33 30
-283.51 -823.513 -1830 28 31 28
-278.94 -821.532 -1826 29 31 31
-274.239 -819.105 -1821 31 33 33
-268.82 -814.432 -1811 37 39 39
-264.178 -812.012 -1806 39 41 41
-259.127 -808.248 -1798 37 40 39
-254.398 -805.386 -1792 35 39 38
-250.256 -804.325 -1790 36 38 38
-246.263 -803.716 -1789 39 41 41
-242.276 -803.11 -1788 38 40 40
-238.562 -803.405 -1789 39 41 41
-234.715 -803.253 -1789 41 43 43
-230.999 -803.553 -1790 42 42 42
-227.028 -802.957 -1789 42 42 40
-223.312 -803.261 -1790 40 41 39
-219.839 -804.465 -1793 39 42 39
-216.596 -806.569 -1798 40 40 36
-213.334 -808.674 -1803 39 39 36
-210.401 -812.126 -1811 35 38 35
-207.436 -815.579 -1819 32 35 32
-204.662 -819.931 -1829 27 30 28
-201.627 -823.387 -1837 14 16 16
-198.022 -824.604 -1840 14 16 18
-194.09 -824.478 -1840 21 23 24
-189.746 -822.564 -1836 27 29 29
-185.117 -819.308 -1829 30 32 32
-180.817 -817.399 -1825 31 33 33
-176.827 -816.837 -1824 30 32 32
-172.747 -815.83 -1822 32 34 34
-168.585 -814.378 -1819 33 35 35
-164.438 -812.928 -1816 34 36 36
-160.393 -811.93 -1814 37 39 39
-156.185 -810.039 -1810 39 41 41
-152.08 -808.598 -1807 36 38 38
-147.743 -805.817 -1801 36 38 38
-143.753 -804.83 -1799 37 39 39
-139.772 -803.845 -1797 38 40 40
-136.104 -804.651 -1799 40 42 42
-132.061 -803.224 -1796 40 41 41
-128.318 -803.588 -1797 40 40 40
-124.571 -803.955 -1798 38 40 40
-120.553 -802.536 -1795 38 40 40
-116.808 -802.907 -1796 39 42 37
-113.187 -804.175 -1799 39 42 38
-109.431 -804.551 -1800 39 42 37
-105.732 -805.377 -1802 37 40 37
-101.912 -805.311 -1802 36 39 36
-98.0379 -804.8 -1801 36 39 36
-94.1693 -804.292 -1800 37 40 37
-90.4062 -804.68 -1801 37 40 37
-86.5915 -804.624 -1801 36 39 36
-82.9156 -805.911 -1804 36 38 38
-79.2715 -807.646 -1808 36 38 38
-75.5694 -808.937 -1811 36 38 38
-72.0534 -812.463 -1819 34 37 34
-68.3917 -814.652 -1824 33 36 33
-64.6742 -816.396 -1828 33 36 33
-60.9402 -818.143 -1832 33 35 35
-57.0653 -818.105 -1832 34 36 37
-53.3361 -820.303 -1837 36 38 39
-49.5862 -822.503 -1842 36 38 38
-45.766 -823.812 -1845 38 40 40
-41.8654 -823.785 -1845 39 41 41
-38.0063 -824.652 -1847 39 41 41
-34.1208 -825.076 -1848 41 42 40
-30.2967 -827.288 -1853 43 43 41
-26.3805 -827.27 -1853 43 46 43
-22.5252 -829.487 -1858 44 47 44
-18.6089 -829.92 -1859 43 46 43
-14.7044 -831.249 -1862 43 46 43
-10.7701 -831.241 -1862 43 46 43
-6.84287 -832.128 -1864 43 46 43
-2.90128 -831.232 -1862 42 45 42
1.03294 -831.232 -1862 41 44 41
4.97518 -832.573 -1865 41 44 41
8.92536 -833.47 -1867 40 43 40
12.8843 -834.37 -1869 42 45 42
16.8605 -835.719 -1872 44 47 44
20.8718 -837.963 -1877 43 45 45
24.8914 -839.763 -1881 41 43 43
28.8974 -840.673 -1883 40 42 42
32.9467 -842.479 -1887 39 42 39
36.9941 -843.841 -1890 39 42 39
41.1627 -847.437 -1898 37 40 37
45.4132 -851.93 -1908 52 52 52
-424.695 -860.767 -1886 55 55 58
-418.275 -855.926 -1876 43 43 45
-413.669 -854.74 -1874 42 42 44
-407.546 -850.366 -1865 43 44 46
-403.414 -850.1 -1865 43 45 47
-399.072 -849.381 -1864 43 45 47
-394.737 -848.665 -1863 40 44 45
-390.201 -847.496 -1861 41 45 45
-386.301 -847.697 -1862 42 46 45
-382.605 -848.356 -1864 42 46 45
-377.888 -846.742 -1861 41 45 44
-373.79 -846.496 -1861 41 43 43
-369.299 -845.343 -1859 41 45 44
-364.624 -843.739 -1856 42 46 45
-360.159 -842.594 -1854 43 47 46
-356.091 -842.36 -1854 44 48 47
-351.837 -841.674 -1853 45 49 47
-347.59 -840.992 -1852 45 48 45
-343.721 -841.221 -1853 47 50 47
-339.302 -840.09 -1851 45 48 46
-335.257 -839.871 -1851 43 45 45
-331.215 -839.654 -1851 42 44 44
-326.823 -838.532 -1849 39 41 41
-322.616 -837.867 -1848 39 41 40
-318.418 -837.206 -1847 37 40 37
-313.886 -835.641 -1844 37 39 37
-309.202 -833.626 -1840 37 39 39
-305.036 -832.974 -1839 35 38 35
-300.55 -831.418 -1836 37 40 37
-296.08 -829.866 -1833 37 40 37
-292.103 -829.675 -1833 37 40 37
-287.815 -828.582 -1831 35 38 35
-283.538 -827.492 -1829 30 33 30
-278.967 -825.5 -1825 29 31 30
-274.717 -824.417 -1823 30 32 31
-269.736 -821.075 -1816 34 36 36
-264.934 -818.189 -1810 37 39 39
-259.727 -813.952 -1801 38 40 40
-254.988 -811.074 -1795 36 39 38
-250.138 -807.748 -1788 36 38 38
-246.146 -807.136 -1787 39 41 41
-242.432 -807.43 -1788 39 41 41
-238.716 -807.726 -1789 40 42 42
-234.866 -807.573 -1789 42 43 43
-231.277 -808.326 -1791 43 43 43
-227.301 -807.726 -1790 42 43 41
-223.456 -807.581 -1790 41 43 41
-219.735 -807.889 -1791 38 41 38
-216.615 -810.455 -1797 38 39 35
-213.353 -812.571 -1802 39 40 36
-210.536 -816.493 -1811 36 39 36
-207.569 -819.965 -1819 32 35 32
-205.017 -825.241 -1831 27 29 27
-201.757 -827.814 -1837 15 16 16
-198.365 -829.938 -1842 16 16 18
-194.109 -828.461 -1839 22 22 24
-189.868 -826.986 -1836 28 29 29
-185.236 -823.712 -1829 32 32 32
-181.131 -822.694 -1827 31 32 32
-176.746 -820.328 -1822 32 34 34
-172.858 -820.215 -1822 32 34 34
-168.6 -818.305 -1818 32 34 34
-164.362 -816.398 -1814 33 35 35
-160.584 -816.744 -1815 37 39 39
-156.285 -814.392 -1810 38 40 40
-152.262 -813.394 -1808 37 39 39
-148.002 -811.048 -1803 37 39 39
-144.005 -810.055 -1801 38 40 40
-139.862 -808.165 -1797 39 41 41
-136.04 -808.076 -1797 40 42 42
-132.145 -807.541 -1796 38 40 40
-128.4 -807.907 -1797 40 40 40
-124.581 -807.826 -1797 38 40 40
-120.63 -806.848 -1795 39 41 41
-116.948 -807.671 -1797 39 42 37
-113.322 -808.946 -1800 38 41 38
-109.562 -809.324 -1801 37 40 37
-105.858 -810.154 -1803 37 40 37
-102.033 -810.087 -1803 37 40 37
-98.2639 -810.472 -1804 38 41 38
-94.3864 -809.961 -1803 38 41 38
-90.5643 -809.902 -1803 37 40 37
-86.6948 -809.397 -1802 36 39 36
-83.0144 -810.69 -1805 37 39 39
-79.2343 -811.087 -1806 37 39 39
-75.6593 -813.732 -1812 36 38 38
-71.9805 -815.481 -1816 33 36 33
-68.3603 -818.131 -1822 32 35 32
-64.5383 -818.537 -1823 33 36 33
-60.9125 -821.64 -1830 34 36 36
-57.1016 -822.5 -1832 35 37 37
-53.3991 -825.159 -1838 34 36 36
-49.5638 -826.024 -1840 36 38 38
-45.7703 -827.789 -1844 39 41 40
-41.892 -828.21 -1845 39 41 40
-38.0923 -830.429 -1850 38 40 39
-34.124 -829.059 -1847 41 42 41
-30.2505 -829.936 -1849 43 44 42
-26.3973 -831.714 -1853 43 46 43
-22.5274 -833.494 -1857 43 46 43
-18.5906 -833.032 -1856 43 46 43
-14.7058 -835.265 -1861 40 43 40
-10.7709 -835.257 -1861 42 45 42
-6.8398 -835.7 -1862 42 45 42
-2.903 -835.697 -1862 42 45 42
1.03354 -835.697 -1862 41 44 41
4.97566 -836.596 -1864 41 44 41
8.91672 -836.601 -1864 41 44 41
12.8716 -837.506 -1866 43 46 43
16.8534 -839.31 -1870 43 46 43
20.863 -841.567 -1875 44 46 44
24.8675 -842.928 -1878 42 44 43
28.9005 -844.74 -1882 38 40 40
32.9853 -847.454 -1888 39 42 39
37.0567 -849.272 -1892 38 41 38
41.2325 -852.888 -1900 41 43 41
45.5374 -858.302 -1912 55 55 55
-431.676 -870.723 -1897 61 59 63
-423.624 -862.638 -1880 54 54 57
-417.882 -859.148 -1873 41 42 44
-414.163 -859.79 -1875 41 41 43
-408.033 -855.392 -1866 43 44 46
-403.68 -854.666 -1865 45 46 48
-398.906 -853.026 -1862 44 46 48
-394.785 -852.765 -1862 43 45 47
-390.458 -852.048 -1861 42 45 46
-386.347 -851.791 -1861 43 47 46
-382.445 -851.996 -1862 43 47 46
-378.136 -851.288 -1861 42 46 45
-373.232 -849.211 -1857 42 44 44
-368.746 -848.053 -1855 42 46 45
-363.88 -845.983 -1851 42 46 45
-359.618 -845.289 -1850 42 46 45
-355.364 -844.597 -1849 43 47 46
-351.687 -845.278 -1851 44 48 47
-347.442 -844.592 -1850 45 48 45
-343.575 -844.822 -1851 44 47 44
-339.157 -843.686 -1849 45 48 45
-335.114 -843.465 -1849 45 47 47
-331.252 -843.703 -1850 46 48 48
-326.682 -842.119 -1847 41 43 43
-322.652 -841.907 -1847 39 41 41
-318.108 -840.33 -1844 37 40 38
-313.75 -839.212 -1842 38 41 38
-309.404 -838.097 -1840 38 40 40
-305.401 -837.897 -1840 37 40 37
-300.746 -835.877 -1836 38 41 38
-296.757 -835.682 -1836 39 42 39
-292.453 -834.58 -1834 37 40 37
-288.16 -833.481 -1832 37 40 37
-283.878 -832.384 -1830 33 36 33
-279.454 -830.836 -1827 28 31 28
-275.197 -829.746 -1825 28 30 28
-270.506 -827.296 -1820 30 32 31
-265.838 -824.848 -1815 32 34 34
-260.184 -819.224 -1803 37 39 39
-255.722 -817.239 -1799 38 40 40
-250.86 -813.895 -1792 36 38 38
-246.443 -811.917 -1788 37 39 39
-242.317 -810.85 -1786 38 40 40
-238.87 -812.056 -1789 36 38 38
-234.887 -811.448 -1788 40 41 41
-231.168 -811.751 -1789 42 43 43
-227.321 -811.602 -1789 40 42 40
-223.6 -811.909 -1790 39 42 39
-219.877 -812.219 -1791 38 41 38
-216.876 -815.252 -1798 38 40 35
-213.728 -817.832 -1804 37 39 34
-210.905 -821.775 -1813 36 39 36
-207.703 -824.358 -1819 33 36 33
-205.037 -829.209 -1830 28 30 28
-201.777 -831.796 -1836 17 17 17
-198.062 -832.573 -1838 16 16 17
-194.023 -831.993 -1837 20 20 22
-189.887 -830.963 -1835 29 29 29
-185.254 -827.672 -1828 33 33 33
-180.95 -825.743 -1824 33 33 33
-176.763 -824.27 -1821 32 34 34
-172.779 -823.704 -1820 34 36 36
-168.802 -823.141 -1819 32 34 34
-164.83 -822.581 -1818 31 33 33
-160.776 -821.571 -1816 32 34 34
-156.472 -819.207 -1811 33 35 35
-152.36 -817.75 -1808 36 38 38
-148.015 -814.94 -1802 37 39 39
-143.937 -813.489 -1799 39 41 41
-139.952 -812.493 -1797 41 43 43
-136.051 -811.952 -1796 40 42 42
-132.157 -811.413 -1795 39 41 41
-128.339 -811.329 -1795 38 40 40
-124.592 -811.7 -1796 38 40 40
-120.707 -811.169 -1795 38 40 40
-117.023 -811.996 -1797 38 41 37
-113.332 -812.826 -1799 37 40 37
-109.511 -812.754 -1799 36 39 36
-105.926 -814.492 -1803 36 39 36
-101.986 -813.521 -1801 38 41 38
-98.2179 -813.909 -1802 39 42 39
-94.2898 -812.943 -1800 39 42 39
-90.6726 -814.69 -1804 38 41 38
-86.7022 -813.278 -1801 36 39 36
-83.0676 -815.03 -1805 36 38 38
-79.3728 -816.333 -1808 37 39 39
-75.7078 -818.089 -1812 37 39 39
-72.0662 -820.299 -1817 34 37 34
-68.4417 -822.962 -1823 31 34 31
-64.6505 -823.822 -1825 31 34 31
-60.8848 -825.136 -1828 34 36 36
-57.1381 -826.904 -1832 33 35 35
-53.346 -828.222 -1835 32 34 34
-49.5147 -829.092 -1837 36 39 36
-45.7499 -831.318 -1842 38 41 38
-41.8507 -831.29 -1842 38 41 38
-38.0137 -832.618 -1845 38 41 38
-34.0904 -832.144 -1844 41 44 41
-30.2699 -834.379 -1849 41 44 41
-26.3572 -834.361 -1849 40 43 40
-22.4932 -836.151 -1853 41 44 41
-18.5825 -836.589 -1854 41 44 41
-14.6914 -838.383 -1858 40 43 40
-10.7661 -838.826 -1859 40 43 40
-6.84432 -840.174 -1862 40 43 40
-2.90496 -840.171 -1862 41 44 41
1.03493 -840.622 -1863 42 45 42
4.97372 -840.173 -1862 41 44 41
8.93226 -841.982 -1866 40 43 40
12.8868 -842.44 -1867 41 44 41
16.855 -843.352 -1869 43 46 43
20.8431 -844.718 -1872 42 45 42
24.8836 -847.44 -1878 40 43 41
28.8729 -847.909 -1879 38 41 39
32.9542 -850.637 -1885 37 40 37
37.0612 -853.367 -1891 38 41 38
41.3241 -858.807 -1903 42 44 41
45.5905 -863.348 -1913 56 54 55
50.7819 -883.237 -1957 59 56 57
-431.736 -874.924 -1896 61 61 63
-424.581 -868.641 -1883 55 56 58
-418.605 -864.67 -1875 42 44 46
-413.553 -862.549 -1871 43 43 45
-408.085 -859.511 -1865 44 44 46
-403.731 -858.78 -1864 46 46 48
-399.17 -857.592 -1862 43 45 47
-395.046 -857.328 -1862 45 47 49
-390.716 -856.608 -1861 42 44 46
-387.018 -857.27 -1863 45 48 48
-382.492 -856.095 -1861 43 47 46
-378.182 -855.383 -1860 39 43 42
-373.679 -854.215 -1858 42 44 44
-368.989 -852.59 -1855 43 46 45
-364.12 -850.509 -1851 44 48 47
-360.244 -850.729 -1852 43 46 45
-355.213 -848.197 -1847 41 45 44
-351.728 -849.34 -1850 42 46 45
-347.106 -847.733 -1847 43 47 45
-343.429 -848.423 -1849 44 48 46
-338.829 -846.822 -1846 45 49 46
-334.971 -847.058 -1847 47 49 49
-331.111 -847.297 -1848 47 49 49
-326.543 -845.706 -1845 44 46 46
-322.34 -845.034 -1844 40 42 42
-317.971 -843.907 -1842 38 41 39
-313.615 -842.783 -1840 38 41 39
-309.27 -841.662 -1838 39 41 41
-305.601 -842.376 -1840 37 39 37
-300.943 -840.346 -1836 38 41 38
-297.275 -841.064 -1838 38 41 38
-292.484 -838.583 -1833 37 40 37
-288.348 -837.935 -1832 35 38 35
-284.219 -837.29 -1831 33 36 33
-279.637 -835.276 -1827 29 32 29
-275.226 -833.723 -1824 27 30 27
-270.831 -832.173 -1821 28 31 28
-265.718 -828.342 -1813 30 33 32
-261.076 -825.885 -1808 35 37 37
-255.747 -821.149 -1798 40 42 42
-251.163 -818.7 -1793 38 40 40
-246.328 -815.341 -1786 37 39 39
-242.34 -814.725 -1785 36 38 38
-238.625 -815.024 -1786 36 39 38
-234.646 -814.414 -1785 39 41 41
-231.19 -815.63 -1788 40 42 42
-227.214 -815.024 -1787 38 41 39
-223.871 -816.702 -1791 37 40 37
-220.266 -817.469 -1793 37 40 37
-217.017 -819.606 -1798 38 41 36
-213.63 -821.288 -1802 36 39 35
-210.693 -824.796 -1810 35 38 35
-207.495 -827.394 -1816 32 35 32
-204.946 -832.726 -1828 28 31 28
-201.358 -833.961 -1831 18 18 18
-197.975 -836.108 -1836 15 15 16
-194.043 -835.98 -1836 20 20 22
-190.01 -835.4 -1835 28 28 28
-185.475 -832.546 -1829 31 31 31
-181.068 -830.151 -1824 32 32 32
-177.071 -829.58 -1823 32 34 34
-172.891 -828.101 -1820 33 35 35
-168.911 -827.535 -1819 33 35 35
-164.937 -826.972 -1818 34 36 36
-160.88 -825.957 -1816 34 36 36
-156.746 -824.489 -1813 33 35 35
-152.627 -823.025 -1810 34 36 36
-148.357 -820.653 -1805 37 39 39
-144.271 -819.195 -1802 37 39 39
-140.198 -817.739 -1799 38 40 40
-136.139 -816.285 -1796 39 41 41
-132.242 -815.744 -1795 39 41 41
-128.422 -815.66 -1795 38 40 40
-124.672 -816.032 -1796 40 42 42
-120.785 -815.498 -1795 39 41 41
-117.033 -815.875 -1796 38 41 38
-113.342 -816.709 -1798 38 41 38
-109.46 -816.183 -1797 41 44 41
-105.759 -817.021 -1799 40 43 40
-101.938 -816.954 -1799 38 41 38
-98.1176 -816.89 -1799 40 43 40
-94.2982 -816.827 -1799 41 44 41
-90.6808 -818.583 -1803 40 43 40
-86.7582 -817.618 -1801 38 41 38
-83.1672 -819.833 -1806 37 39 39
-79.424 -820.688 -1808 36 39 38
-75.8402 -823.361 -1814 37 39 37
-72.1524 -825.129 -1818 34 37 34
-68.5984 -828.714 -1826 32 35 32
-64.7631 -829.125 -1827 34 37 34
-61.0574 -831.354 -1832 35 37 35
-57.2062 -831.769 -1833 35 37 36
-53.4386 -833.549 -1837 34 36 36
-49.6275 -834.877 -1840 36 39 36
