ply
format ascii 1.0
comment Created by Open3D
element vertex 1418
property double x
property double y
property double z
property uchar red
property uchar green
property uchar blue
end_header
-79.3482 321.317 -1154 84 61 50
-77.1225 321.844 -1156 85 62 53
-74.6954 321.536 -1155 86 62 58
-72.2102 320.951 -1153 87 62 58
-69.7945 320.645 -1152 90 60 55
-67.325 320.062 -1150 92 61 55
-64.7512 318.924 -1146 98 67 60
-62.3031 318.343 -1144 106 71 65
-59.8113 317.485 -1141 107 71 65
-57.433 317.184 -1140 107 69 64
-55.1559 317.441 -1141 110 66 62
-52.7827 317.142 -1140 110 65 61
-50.5025 317.4 -1141 123 74 67
-48.2187 317.659 -1142 147 99 90
-45.8508 317.363 -1141 173 126 115
-43.3729 316.234 -1137 174 123 116
-41.0561 316.218 -1137 170 118 110
-38.7056 315.924 -1136 165 112 103
-36.4557 316.466 -1138 164 110 109
-34.2878 317.843 -1143 177 126 126
-301.089 499.575 -1794 214 222 228
-295.68 496.676 -1784 209 217 222
-291.296 495.449 -1780 204 213 216
-287.901 495.893 -1782 204 192 186
-284.022 495.505 -1781 207 190 181
-281.251 497.065 -1787 216 194 177
-277.06 496.123 -1784 211 185 170
-274.109 497.407 -1789 205 176 161
-270.234 497.024 -1788 192 163 149
-266.066 496.086 -1785 181 150 135
-262.355 495.985 -1785 181 144 127
-258.935 496.44 -1787 182 141 121
-254.795 495.508 -1784 173 131 111
-250.951 495.133 -1783 165 125 108
-247.669 495.87 -1786 142 108 93
-243.556 494.943 -1783 117 88 75
-238.651 492.352 -1774 90 68 61
-234.845 491.983 -1773 67 47 43
-230.914 491.339 -1771 51 37 38
-226.481 489.587 -1765 36 27 33
-223.337 490.61 -1769 32 25 32
-220.054 491.357 -1772 31 24 31
-217.127 492.936 -1778 29 26 32
-214.297 494.794 -1785 26 25 32
-212.974 500.256 -1805 25 24 30
-125.332 316.306 -1142 234 207 191
-123.089 316.535 -1143 227 197 177
-121.159 317.596 -1147 210 178 158
-118.283 316.166 -1142 199 162 141
-115.529 315.014 -1138 183 139 118
-112.793 313.863 -1134 160 112 90
-110.463 313.821 -1134 156 101 81
-108.135 313.779 -1134 155 101 81
-106.274 315.121 -1139 157 102 84
-104.667 317.294 -1147 139 95 79
-102.761 318.638 -1152 113 72 57
-101.097 320.811 -1160 95 60 47
-98.8046 321.05 -1161 90 59 45
-96.5092 321.289 -1162 89 60 45
-94.0485 320.976 -1161 87 60 46
-91.7507 321.217 -1162 88 61 47
-89.2188 320.63 -1160 90 64 51
-87.0702 321.426 -1163 88 64 51
-84.4002 320.287 -1159 86 62 49
-82.3136 321.361 -1163 89 61 49
-79.7302 320.501 -1160 88 62 52
-77.4265 320.748 -1161 87 62 54
-74.9254 320.166 -1159 88 63 60
-72.5583 320.138 -1159 91 65 62
-70.0707 319.558 -1157 95 65 60
-67.6503 319.256 -1156 98 66 60
-65.0653 318.126 -1152 105 71 65
-62.6604 317.826 -1151 108 70 65
-60.1029 316.698 -1147 110 72 67
-57.6629 316.123 -1145 109 69 65
-55.3282 316.102 -1145 111 67 64
-52.994 316.081 -1145 109 65 62
-50.6603 316.062 -1145 115 68 63
-48.4113 316.595 -1147 119 74 66
-45.9538 315.749 -1144 119 75 65
-43.5851 315.456 -1143 129 79 75
-41.1849 314.888 -1141 134 83 78
-38.8271 314.597 -1140 138 86 80
-36.5378 314.858 -1141 141 97 94
-34.3347 315.949 -1145 144 102 99
-32.1436 317.316 -1150 165 134 130
-306.935 499.411 -1807 199 212 219
-300.47 494.873 -1791 186 206 209
-295.731 493.101 -1785 196 216 220
-291.511 492.16 -1782 197 217 221
-287.79 492.049 -1782 208 199 192
-283.753 491.387 -1780 205 190 181
-280.514 492.107 -1783 214 188 173
-276.798 492 -1783 213 185 170
-273.851 493.274 -1788 207 179 164
-269.979 492.895 -1787 197 168 154
-265.815 491.965 -1784 189 158 143
-261.96 491.588 -1783 188 152 135
-258.401 491.764 -1784 186 145 125
-254.555 491.391 -1783 182 140 120
-250.574 490.743 -1781 174 134 117
-247.158 491.199 -1783 159 122 107
-243.19 490.555 -1781 140 104 91
-238.56 488.535 -1774 120 92 82
-234.49 487.619 -1771 96 71 64
-230.435 486.705 -1768 74 55 52
-226.651 486.342 -1767 49 38 41
-222.999 486.257 -1767 35 26 30
-219.846 487.273 -1771 35 27 35
-217.166 489.391 -1779 32 28 35
-214.095 490.684 -1784 30 27 34
-127.411 313.353 -1140 216 187 172
-125.503 314.404 -1144 213 184 166
-123.472 315.181 -1147 205 173 154
-121.113 315.135 -1147 186 153 133
-118.238 313.716 -1142 174 139 119
-115.282 312.024 -1136 167 125 104
-112.949 311.98 -1136 150 103 82
-110.519 311.663 -1135 135 87 70
-108.285 311.896 -1136 130 82 66
-106.607 313.778 -1143 130 83 66
-104.81 315.385 -1149 118 81 66
-103.435 318.364 -1160 107 72 57
-101.494 319.698 -1165 95 65 51
-99.4477 320.757 -1169 89 60 47
-97.3028 321.543 -1172 86 58 44
-94.7416 320.958 -1170 82 57 44
-92.5052 321.471 -1172 82 57 44
-89.8 320.34 -1168 84 60 47
-87.4862 320.58 -1169 85 62 49
-84.8778 319.725 -1166 84 61 49
-82.5654 319.968 -1167 91 63 51
-79.8374 318.566 -1162 92 65 56
-77.5971 319.085 -1164 90 65 57
-75.0909 318.508 -1162 89 64 62
-72.7186 318.48 -1162 91 65 62
-70.2863 318.179 -1161 93 62 57
-67.9173 318.153 -1161 96 62 56
-65.3794 317.306 -1158 102 67 61
-62.9087 316.733 -1156 105 66 61
-60.4468 316.162 -1154 106 65 61
-57.9432 315.318 -1151 108 66 62
-55.5971 315.296 -1151 109 66 63
-53.2053 315.002 -1150 104 61 58
-50.818 314.709 -1149 107 64 60
-48.393 314.142 -1147 109 66 59
-46.0569 314.124 -1147 113 70 62
-43.5687 313.012 -1143 119 72 69
-41.2054 312.722 -1142 117 71 68
-38.9486 313.255 -1144 122 77 75
-36.588 312.967 -1143 122 95 92
-34.5316 315.417 -1152 151 125 121
-305.46 493.319 -1799 184 207 212
-300.02 490.462 -1789 186 216 218
-295.287 488.704 -1783 188 218 222
-291.073 487.77 -1780 182 212 219
-287.358 487.66 -1780 211 207 201
-283.645 487.552 -1780 196 185 176
-280.25 487.992 -1782 212 182 169
-276.538 487.887 -1782 215 187 173
-273.134 488.33 -1784 208 181 167
-269.423 488.227 -1784 201 172 158
-265.565 487.852 -1783 200 169 154
-261.714 487.478 -1782 193 159 143
-258.013 487.38 -1782 189 149 131
-254.601 487.83 -1784 184 144 125
-250.619 487.187 -1782 182 142 125
-246.926 487.093 -1782 173 132 117
-243.098 486.727 -1781 161 119 105
-238.872 485.543 -1777 138 103 91
-234.931 484.907 -1775 117 86 77
-231.26 484.819 -1775 88 63 58
-227.463 484.459 -1774 60 45 43
-223.924 484.647 -1775 49 36 36
-221.251 486.747 -1783 40 29 36
-218.792 489.394 -1793 36 28 36
-216.293 492.041 -1803 35 29 37
-129.71 310.957 -1140 197 164 147
-127.587 311.454 -1142 199 167 150
-125.456 311.952 -1144 191 161 142
-123.533 312.995 -1148 188 155 137
-121.279 313.222 -1149 180 147 129
-118.607 312.359 -1146 165 131 114
-116.253 312.315 -1146 151 111 92
-113.502 311.182 -1142 135 92 72
-111.158 311.139 -1142 118 78 64
-108.815 311.098 -1142 115 76 62
-107.126 312.964 -1149 117 79 64
-105.5 315.103 -1157 106 76 62
-103.842 317.242 -1165 100 70 56
-102.065 319.11 -1172 95 66 51
-100.005 320.161 -1176 91 62 48
-98.0131 321.485 -1181 88 57 44
-95.4345 320.904 -1179 83 57 43
-93.2594 321.685 -1182 85 59 46
-90.7653 321.379 -1181 85 61 48
-88.351 321.345 -1181 85 63 51
-85.7191 320.496 -1178 85 63 52
-83.1709 319.92 -1176 92 65 54
-80.2881 317.986 -1169 93 67 59
-77.9678 318.228 -1170 90 65 59
-75.3856 317.383 -1167 90 65 63
-73.004 317.356 -1167 92 65 63
-70.502 316.785 -1165 93 62 57
-68.1841 317.031 -1166 97 63 59
-65.637 316.19 -1163 94 59 55
-63.1571 315.622 -1161 99 60 56
-60.5812 314.512 -1157 94 54 50
-58.173 314.218 -1156 99 57 53
-55.8659 314.468 -1157 101 61 57
-53.3241 313.361 -1153 105 65 61
-50.8874 312.798 -1151 108 68 62
-48.5857 313.051 -1152 110 70 62
-46.1199 312.218 -1149 111 71 62
-43.819 312.473 -1150 107 67 62
-41.4424 312.185 -1149 108 72 70
-39.1722 312.713 -1151 127 97 99
-36.7343 311.884 -1148 157 145 150
-311.169 492.824 -1811 160 188 193
-305.514 489.714 -1800 166 197 201
-300.242 487.152 -1791 161 198 200
-296.003 486.224 -1788 170 206 210
-291.616 485.025 -1784 174 210 217
-287.41 484.1 -1781 203 207 200
-283.379 483.449 -1779 192 188 179
-279.515 483.071 -1778 214 183 170
-276.123 483.51 -1780 215 189 175
-272.878 484.222 -1783 211 187 173
-269.321 484.391 -1784 206 177 163
-265.018 483.205 -1780 205 174 159
-261.908 484.191 -1784 199 165 149
-257.916 483.551 -1782 191 152 133
-253.934 482.912 -1780 184 145 127
-250.103 482.546 -1779 185 146 129
-246.833 483.267 -1782 180 139 122
-243.279 483.446 -1783 171 128 112
-239.051 482.271 -1779 160 121 107
-235.636 482.724 -1781 144 109 97
-232.215 483.179 -1783 111 81 71
-228.531 483.092 -1783 77 53 47
-225.101 483.549 -1785 62 40 35
-222.037 484.82 -1790 52 36 37
-219.686 487.716 -1801 44 31 34
-217.411 490.884 -1813 40 29 33
-129.32 307.702 -1137 188 154 133
-128.544 311.443 -1151 186 153 135
-126.176 311.395 -1151 177 145 128
-123.917 311.619 -1152 171 138 121
-121.339 311.032 -1150 164 132 115
-119.183 311.528 -1152 152 120 105
-116.716 311.214 -1151 137 102 85
-113.957 310.089 -1147 119 82 65
-111.603 310.047 -1147 108 74 64
-109.537 310.817 -1150 108 74 63
-107.645 312.128 -1155 114 80 68
-106.099 314.52 -1164 106 77 65
-104.516 316.912 -1173 98 70 56
-102.636 318.495 -1179 95 66 51
-100.393 318.997 -1181 93 62 49
-98.3913 320.311 -1186 88 57 44
-96.0462 320.545 -1187 83 56 42
-93.7767 321.049 -1189 86 60 46
-91.1924 320.475 -1187 85 60 47
-88.6919 320.172 -1186 84 61 49
-86.1235 319.599 -1184 86 63 52
-83.4933 318.758 -1181 91 65 55
-80.6702 317.108 -1175 91 67 59
-78.2718 317.079 -1175 90 66 60
-75.6158 315.971 -1171 88 65 63
-73.1644 315.673 -1170 90 65 62
-70.7177 315.377 -1169 96 66 61
-68.3341 315.351 -1169 101 69 64
-65.8382 314.786 -1167 96 63 59
-63.4598 314.762 -1167 101 63 60
-60.9773 314.2 -1165 95 57 53
-58.4532 313.369 -1162 97 58 53
-56.0382 313.078 -1161 101 65 59
-53.4891 311.979 -1157 106 71 64
-51.0452 311.42 -1155 107 72 65
-48.6941 311.402 -1155 104 71 64
-46.1428 310.036 -1150 105 74 66
-43.879 310.559 -1152 103 74 70
-41.4631 310.004 -1150 124 101 100
-310.709 488.385 -1809 143 180 184
-305.399 485.84 -1800 156 195 198
-300.296 483.568 -1792 155 198 200
-295.892 482.377 -1788 155 196 200
-291.344 480.918 -1783 167 206 213
-287.141 480.001 -1780 190 202 196
-283.272 479.625 -1779 195 197 189
-279.567 479.52 -1779 211 182 169
-276.019 479.686 -1780 214 190 177
-272.776 480.391 -1783 211 188 175
-269.371 480.829 -1785 210 181 167
-265.514 480.46 -1784 205 173 159
-261.81 480.362 -1784 200 166 150
-257.964 479.996 -1783 195 157 139
-253.839 479.093 -1780 188 150 132
-250.01 478.73 -1779 186 148 131
-246.879 479.713 -1783 188 146 128
-242.779 478.815 -1780 179 135 117
-239.231 478.995 -1781 182 142 124
-235.68 479.175 -1782 165 127 111
-232.258 479.626 -1784 125 89 76
-228.574 479.541 -1784 97 64 53
-225.395 480.531 -1788 87 56 47
-222.326 481.792 -1793 71 49 44
-219.726 484.128 -1802 63 43 40
-217.45 487.271 -1814 52 35 32
-129.954 306.88 -1143 175 140 118
-128.161 308.175 -1148 172 138 119
-126.02 308.665 -1150 163 130 114
-123.656 308.618 -1150 150 117 102
-121.399 308.841 -1151 140 107 92
-119.242 309.333 -1153 124 95 81
-116.977 309.558 -1154 115 85 70
-114.709 309.783 -1155 108 77 62
-112.535 310.278 -1157 106 76 67
-110.543 311.309 -1161 106 75 66
-108.537 312.341 -1165 109 78 68
-106.606 313.642 -1170 105 77 65
-104.923 315.747 -1178 98 71 58
-102.947 317.049 -1183 95 66 51
-100.781 317.815 -1186 93 62 49
-98.5207 318.314 -1188 89 58 45
-96.415 319.35 -1192 87 60 46
-94.215 320.119 -1195 90 63 49
-91.6194 319.549 -1193 89 62 48
-89.1824 319.515 -1193 87 63 50
-86.5279 318.679 -1190 90 66 53
-83.8865 317.845 -1187 88 65 54
-81.0521 316.208 -1181 88 67 58
-78.5092 315.643 -1179 89 68 61
-75.9106 314.811 -1176 87 67 64
-73.5124 314.784 -1176 90 67 64
-71.0544 314.489 -1175 100 70 65
-68.6594 314.464 -1175 100 70 65
-66.0395 313.368 -1171 102 71 66
-63.5995 313.077 -1170 100 65 61
-61.1641 312.786 -1169 97 63 58
-58.6327 311.962 -1166 97 63 57
-56.2105 311.673 -1165 100 71 64
-53.608 310.315 -1160 102 73 66
-51.1589 309.761 -1158 109 80 74
-48.7183 309.208 -1156 114 90 86
-46.2863 308.655 -1154 130 108 105
-44.0532 309.441 -1157 152 135 133
-315.768 486.754 -1817 139 182 188
-309.048 482.084 -1800 136 182 185
-304.267 480.364 -1794 152 198 201
-300.017 479.448 -1791 162 209 212
-295.617 478.267 -1787 167 211 215
-291.725 477.891 -1786 173 213 219
-287.518 476.98 -1783 177 201 198
-283.326 476.072 -1780 193 203 198
-279.463 475.701 -1779 210 186 173
-275.762 475.598 -1779 212 189 176
-272.522 476.298 -1782 212 189 176
-269.271 477 -1785 214 185 171
-265.118 476.099 -1782 207 176 161
-261.86 476.803 -1785 202 169 153
-257.724 475.906 -1782 199 162 145
-253.888 475.544 -1781 189 152 135
-250.058 475.184 -1780 187 150 133
-246.511 475.36 -1781 190 148 129
-242.962 475.536 -1782 189 146 126
-239.679 476.248 -1785 189 149 130
-235.99 476.16 -1785 154 114 97
-232.302 476.074 -1785 141 102 85
-228.745 476.256 -1786 128 87 72
-225.564 477.238 -1790 114 75 61
-222.12 477.689 -1792 98 67 55
-219.523 480.007 -1801 86 58 47
-217.25 483.124 -1813 76 50 41
-128.783 307.319 -1154 152 117 99
-126.302 307.006 -1153 144 110 94
-124.148 307.492 -1155 131 98 84
-121.776 307.447 -1155 119 87 74
-119.509 307.669 -1156 107 80 67
-117.339 308.158 -1158 103 78 65
-115.163 308.647 -1160 101 76 63
-113.076 309.404 -1163 103 75 65
-111.169 310.693 -1168 107 77 68
-109.335 312.248 -1174 108 77 68
-107.66 314.336 -1182 103 75 63
-105.507 315.095 -1185 98 70 57
-103.518 316.386 -1190 96 67 53
-101.338 317.146 -1193 92 62 50
-99.1477 317.907 -1196 90 60 49
-96.703 317.871 -1196 88 61 47
-94.4167 318.367 -1198 88 61 47
-91.9696 318.333 -1198 90 62 47
-89.3738 317.769 -1196 92 63 49
-86.7869 317.205 -1194 94 66 52
-84.2089 316.643 -1192 88 67 56
-81.3654 315.019 -1186 89 68 59
-78.8798 314.724 -1185 87 68 61
-76.2699 313.899 -1182 85 67 64
-73.7354 313.34 -1180 90 70 66
-71.2701 313.048 -1179 98 72 66
-68.7511 312.492 -1177 101 72 66
-66.2972 312.202 -1176 102 71 66
-63.7935 311.647 -1174 103 68 63
-61.2986 311.093 -1172 100 68 62
-58.8625 310.806 -1171 101 72 64
-56.3828 310.254 -1169 94 73 65
-53.8194 309.172 -1165 123 103 96
-51.3168 308.357 -1162 151 134 132
-309.448 479.015 -1803 121 174 177
-304.494 477.042 -1796 148 200 203
-300.074 475.868 -1792 157 207 211
-295.838 474.962 -1789 174 219 223
-291.944 474.589 -1788 180 223 227
-288.379 474.747 -1789 174 207 207
-284.176 473.846 -1786 192 210 206
-280.145 473.212 -1784 205 189 178
-276.28 472.845 -1783 209 187 174
-273.033 473.539 -1786 216 192 178
-269.323 473.44 -1786 214 186 172
-265.467 473.077 -1785 211 181 166
-261.764 472.98 -1785 206 175 158
-257.918 472.62 -1784 193 158 140
-253.937 471.996 -1782 194 158 141
-250.106 471.639 -1781 195 158 141
-246.697 472.078 -1783 199 160 139
-243.145 472.253 -1784 209 169 147
-239.86 472.959 -1787 178 139 118
-236.3 473.136 -1788 167 127 106
-232.738 473.315 -1789 158 117 97
-229.045 473.231 -1789 154 110 91
-225.985 474.47 -1794 136 93 74
-222.41 474.653 -1795 118 80 61
-219.564 476.423 -1802 101 66 50
-217.17 479.251 -1813 96 62 48
-128.625 304.591 -1153 134 103 85
-126.803 305.865 -1158 119 90 74
-124.21 305.292 -1156 107 79 65
-122.153 306.039 -1159 98 71 57
-120.085 306.787 -1162 96 72 58
-118.006 307.536 -1165 97 73 58
-116.113 308.813 -1170 100 76 61
-113.91 309.299 -1172 104 76 64
-112.08 310.841 -1178 108 79 68
-109.854 311.328 -1180 109 80 68
-107.985 312.872 -1186 104 75 63
-105.914 313.888 -1190 100 72 59
-103.567 314.114 -1191 97 68 55
-101.386 314.868 -1194 91 62 50
-99.1944 315.622 -1197 90 60 49
-96.9102 316.114 -1199 87 60 46
-94.4612 316.079 -1199 88 60 46
-92.1664 316.573 -1201 89 61 46
-89.7148 316.54 -1201 90 62 47
-87.1186 315.981 -1199 91 64 50
-84.6019 315.686 -1198 88 67 56
-81.8159 314.338 -1193 87 68 58
-79.3169 314.046 -1192 84 67 59
-76.6937 313.227 -1189 85 69 64
-74.0834 312.41 -1186 88 69 65
-71.3651 311.066 -1181 96 72 68
-68.9013 310.777 -1180 104 74 71
-66.3294 309.963 -1177 102 70 68
-63.7161 308.886 -1173 103 73 70
-61.3808 309.127 -1174 101 75 71
-58.9417 308.842 -1173 105 82 78
-56.507 308.557 -1172 120 107 102
-53.8922 307.221 -1167 170 159 157
-309.163 474.882 -1802 115 174 177
-304.213 472.926 -1795 142 200 203
-299.964 472.025 -1792 151 206 210
-296.226 471.917 -1792 168 216 220
-292.164 471.283 -1790 187 231 235
-288.435 471.177 -1790 190 230 233
-284.39 470.546 -1788 200 224 223
-280.357 469.917 -1786 201 194 185
-276.799 470.078 -1787 211 187 174
-272.78 469.452 -1785 217 190 175
-269.526 470.143 -1788 213 186 171
-265.518 469.519 -1786 209 181 165
-261.815 469.424 -1786 205 175 158
-257.68 468.541 -1783 205 171 153
-253.844 468.185 -1782 200 165 147
-249.875 467.568 -1780 201 164 147
-246.607 468.266 -1783 207 170 147
-242.92 468.177 -1783 192 155 132
-239.638 468.877 -1786 183 146 122
-236.214 469.316 -1788 184 144 121
-232.523 469.231 -1788 172 130 106
-228.578 468.623 -1786 167 122 99
-225.273 469.328 -1789 153 108 85
-222.081 470.296 -1793 139 94 69
-218.754 471.003 -1796 130 89 67
-216.134 473.284 -1805 122 81 61
-214.537 477.926 -1823 134 97 82
-128.913 302.918 -1156 134 104 87
-127.195 304.444 -1162 112 84 69
-124.917 304.661 -1163 102 77 64
-122.952 305.664 -1167 93 70 56
-120.661 305.882 -1168 93 72 56
-118.57 306.624 -1171 97 74 58
-116.468 307.367 -1174 102 78 62
-114.257 307.849 -1176 107 78 64
-112.325 309.117 -1181 109 81 67
-110.186 309.862 -1184 108 81 67
-108.492 311.916 -1192 104 77 63
-106.232 312.401 -1194 101 74 61
-104.138 313.41 -1198 97 70 58
-101.859 313.896 -1200 94 65 49
-99.5728 314.383 -1202 92 62 45
-97.1177 314.347 -1202 86 60 43
-94.9783 315.359 -1206 88 61 45
-92.3632 314.802 -1204 90 63 48
-89.8318 314.508 -1203 85 62 50
-87.3777 314.476 -1203 86 64 52
-84.9244 314.445 -1203 89 67 54
-82.1976 313.37 -1199 85 64 55
-79.6874 313.079 -1198 86 67 60
-76.9885 312.006 -1194 87 71 66
-74.3064 310.933 -1190 89 71 67
-71.7018 310.123 -1187 97 74 73
-69.1099 309.314 -1184 104 74 74
-66.4182 307.984 -1179 106 75 76
-64.0732 308.222 -1180 102 79 79
-61.5156 307.415 -1177 107 89 91
-59.0711 307.133 -1176 137 124 127
-308.708 470.497 -1800 115 177 180
-304.102 469.08 -1795 146 207 211
-299.855 468.186 -1792 149 205 210
-296.118 468.078 -1792 159 207 212
-292.384 467.972 -1792 180 224 228
-288.491 467.606 -1791 190 234 239
-284.923 467.763 -1792 204 232 232
-280.726 466.878 -1789 197 201 194
-277.163 467.038 -1790 211 186 173
-272.987 466.156 -1787 213 184 170
-269.88 467.102 -1791 212 185 170
-265.72 466.223 -1788 210 182 167
-262.013 466.128 -1788 204 175 160
-258.02 465.513 -1786 204 171 153
-253.895 464.639 -1783 201 167 149
-250.065 464.287 -1782 211 174 157
-246.656 464.719 -1784 201 164 143
-242.969 464.631 -1784 193 156 134
-239.283 464.544 -1784 189 152 128
-235.864 464.98 -1786 190 150 126
-232.179 464.895 -1786 185 143 119
-228.624 465.073 -1787 176 132 107
-225.318 465.772 -1790 166 121 95
-221.63 465.692 -1790 159 111 83
-218.675 467.174 -1796 159 115 90
-215.936 469.177 -1804 155 112 88
-213.754 472.48 -1817 159 120 101
-127.478 302.749 -1165 116 86 69
-125.516 303.743 -1169 102 75 62
-123.329 304.218 -1171 98 73 59
-121.134 304.694 -1173 96 74 59
-119.135 305.69 -1177 97 74 59
-117.121 306.687 -1181 101 77 62
-114.799 306.905 -1182 107 78 63
-112.95 308.422 -1188 109 81 67
-110.705 308.901 -1190 110 83 69
-108.635 309.9 -1194 108 81 67
-106.282 310.121 -1195 103 76 62
-104.535 312.16 -1203 96 69 57
-102.247 312.642 -1205 93 65 49
-99.7027 312.346 -1204 92 63 46
-97.4867 313.089 -1207 86 61 45
-95.2592 313.833 -1210 85 60 44
-92.867 314.059 -1211 87 61 46
-90.0235 312.73 -1206 82 61 50
-87.7821 313.476 -1209 86 64 53
-85.2469 313.186 -1208 87 65 52
-82.5794 312.378 -1205 89 68 59
-79.9913 311.831 -1203 89 68 61
-77.2832 310.766 -1199 89 73 69
-74.4672 309.184 -1193 88 72 69
-71.9177 308.639 -1191 94 77 77
-68.7351 305.246 -1178 114 94 95
-66.5071 305.999 -1181 132 111 112
-63.996 305.457 -1179 157 144 145
-308.768 466.903 -1801 110 175 179
-304.162 465.496 -1796 141 205 209
-300.081 464.87 -1794 150 209 214
-295.846 463.985 -1791 159 207 211
-292.279 464.139 -1792 182 225 228
-288.548 464.035 -1792 191 236 242
-284.662 463.673 -1791 207 238 239
-280.154 462.278 -1786 193 204 200
-276.908 462.954 -1789 209 184 171
-273.194 462.856 -1789 211 183 169
-269.784 463.276 -1791 211 184 169
-265.624 462.405 -1788 211 182 167
-262.066 462.569 -1789 205 176 161
-258.361 462.476 -1789 203 170 153
-254.231 461.609 -1786 212 178 161
-250.256 461.002 -1784 203 168 150
-246.706 461.172 -1785 199 163 143
-242.882 460.826 -1784 197 161 140
-239.332 460.999 -1785 193 156 132
-235.78 461.172 -1786 195 155 130
-231.966 460.831 -1785 193 151 125
-228.414 461.007 -1786 176 135 108
-225.111 461.7 -1789 173 130 102
-221.675 462.137 -1791 174 126 95
-218.597 463.349 -1796 178 134 106
-215.62 464.819 -1802 166 123 97
-213.09 467.322 -1812 165 125 103
-211.792 472.662 -1833 177 140 118
-129.182 304.394 -1181 141 109 93
-127.082 305.122 -1184 118 90 76
-124.233 304.047 -1180 106 80 65
-122.02 304.518 -1182 97 74 59
-119.801 304.991 -1184 97 72 57
-117.674 305.721 -1187 102 76 62
-115.244 305.68 -1187 108 79 64
-113.1 306.412 -1190 110 82 67
-111.038 307.402 -1194 109 82 68
-108.96 308.393 -1198 108 81 67
-106.867 309.384 -1202 102 75 62
-104.585 309.862 -1204 97 70 58
-102.719 311.626 -1211 95 67 53
-100.412 312.105 -1213 92 63 48
-97.9365 312.07 -1213 86 62 47
-95.4616 312.036 -1213 87 63 50
-92.9106 311.745 -1212 87 63 50
-90.3647 311.456 -1211 80 59 48
-87.9687 311.681 -1212 87 66 55
-85.4282 311.393 -1211 86 65 54
-82.8927 311.107 -1210 87 66 58
-80.0959 309.792 -1205 92 71 64
-77.3847 308.736 -1201 101 84 82
-74.4408 306.653 -1193 120 105 105
-71.8318 305.856 -1190 145 134 135
-315.714 468.047 -1820 129 191 197
-309.686 464.593 -1807 114 182 185
-304.392 462.17 -1798 135 201 204
-300.308 461.549 -1796 152 214 218
-295.906 460.415 -1792 171 219 222
-292.337 460.567 -1793 203 245 247
-287.641 458.923 -1787 206 252 255
-284.402 459.592 -1790 213 245 246
-280.211 458.721 -1787 188 204 202
-276.81 459.136 -1789 208 183 169
-272.944 458.782 -1788 208 181 167
-269.838 459.712 -1792 210 183 168
-265.678 458.847 -1789 210 182 167
-261.826 458.497 -1788 206 177 162
-257.98 458.149 -1787 215 182 166
-254.14 457.802 -1786 207 173 156
-250.307 457.456 -1785 198 163 145
-246.757 457.624 -1786 199 162 145
-243.068 457.538 -1786 197 160 142
-239.381 457.453 -1786 198 161 137
-235.828 457.625 -1787 198 158 132
-232.274 457.798 -1788 192 150 122
-228.461 457.461 -1787 181 144 115
-225.157 458.149 -1790 178 138 108
-221.844 458.838 -1793 184 138 105
-218.398 459.272 -1795 188 146 117
-215.184 460.219 -1799 180 138 111
-213.015 463.468 -1812 169 130 107
-211.833 469.02 -1834 169 131 109
-131.761 308.019 -1205 160 127 111
-129.075 307.462 -1203 141 110 97
-125.873 305.628 -1196 123 96 82
-123.216 305.073 -1194 110 86 71
-120.972 305.541 -1196 109 81 67
-118.821 306.265 -1199 109 80 66
-116.271 305.969 -1198 110 81 66
-114.01 306.439 -1200 109 81 67
-111.835 307.165 -1203 108 81 67
-109.649 307.893 -1206 106 79 65
-107.451 308.62 -1209 103 76 62
-105.243 309.349 -1212 100 73 61
-103.107 310.333 -1216 100 71 58
-100.625 310.297 -1216 101 72 58
-98.467 311.283 -1220 93 69 57
-95.8213 310.739 -1218 91 68 57
-93.3378 310.705 -1218 94 71 61
-90.4821 309.398 -1213 86 65 57
-88.1555 309.877 -1215 89 68 60
-85.3982 308.826 -1211 93 73 66
-82.7266 308.032 -1208 99 78 72
-79.802 306.218 -1201 125 104 99
-77.0999 305.171 -1197 163 149 151
-315.775 464.413 -1821 122 188 192
-310.261 461.752 -1811 82 148 151
-304.792 459.094 -1801 124 190 193
-300.369 457.968 -1797 172 235 238
-295.471 456.079 -1790 191 238 243
-292.071 456.485 -1792 199 240 246
-287.378 454.855 -1786 202 252 255
-283.824 455.009 -1787 211 243 244
-280.269 455.164 -1788 182 196 192
-276.712 455.321 -1789 213 180 168
-273.458 455.988 -1792 211 180 167
-269.592 455.638 -1791 209 184 169
-266.327 456.307 -1794 209 183 166
-262.173 455.451 -1791 214 187 170
-258.322 455.105 -1790 221 188 170
-254.335 454.507 -1788 200 163 145
-250.079 453.402 -1784 202 162 144
-246.531 453.569 -1785 201 162 145
-242.846 453.483 -1785 199 160 142
-239.297 453.653 -1786 197 163 138
-235.614 453.569 -1786 194 158 131
-232.192 453.995 -1788 188 150 123
-228.125 453.153 -1785 184 147 120
-225.204 454.597 -1791 185 145 117
-221.518 454.519 -1791 191 148 118
-218.321 455.457 -1795 190 154 127
-215.348 456.903 -1801 187 152 125
-213.528 460.887 -1817 179 143 120
-136.962 317.628 -1253 166 133 117
-132.999 314.286 -1240 151 120 107
-129.511 311.959 -1231 136 108 94
-125.958 309.381 -1221 125 101 86
-123.256 308.831 -1219 121 92 78
-120.365 307.775 -1215 116 87 73
-117.782 307.48 -1214 111 82 67
-115.3 307.439 -1214 104 77 62
-113.097 308.159 -1217 100 75 60
-110.52 307.867 -1216 100 74 60
-108.48 309.095 -1221 100 74 60
-106.334 310.07 -1225 100 74 61
-104.173 311.046 -1229 103 75 62
-101.583 310.757 -1228 109 81 68
-99.3201 311.481 -1231 106 84 73
-96.5743 310.688 -1228 115 93 84
-93.8415 309.896 -1225 125 104 96
-90.7488 307.84 -1217 93 73 67
-88.3423 308.062 -1218 71 51 46
-85.3685 306.262 -1211 80 61 58
-82.4924 304.715 -1205 82 65 60
-79.6413 303.17 -1199 107 92 87
-321.923 464.178 -1835 106 169 172
-315.664 460.525 -1821 52 121 124
-310.666 458.646 -1814 64 130 133
-304.346 454.746 -1799 133 199 201
-300.264 454.135 -1797 169 233 235
-295.037 451.757 -1788 182 230 235
-291.48 451.907 -1789 194 238 245
-287.438 451.301 -1787 199 248 255
-284.043 451.706 -1789 209 240 240
-279.857 450.85 -1786 173 187 182
-277.234 452.52 -1793 208 177 164
-273.515 452.424 -1793 210 182 169
-269.95 452.581 -1794 205 182 169
-266.382 452.74 -1795 209 185 169
-262.374 452.144 -1793 233 209 193
-258.52 451.801 -1792 201 170 152
-253.962 450.199 -1786 196 161 143
-250.412 450.364 -1787 200 160 142
-246.998 450.781 -1789 197 158 139
-243.033 450.192 -1787 197 158 138
-239.481 450.36 -1788 191 157 132
-235.927 450.529 -1789 187 151 125
-232.371 450.7 -1790 187 150 123
-228.684 450.62 -1790 188 151 124
-225.377 451.296 -1793 189 150 123
-221.688 451.219 -1793 193 153 125
-218.61 452.401 -1798 191 157 131
-215.871 454.338 -1806 189 156 130
-141.932 320.55 -1275 174 141 126
-139.755 321.507 -1279 165 133 118
-136.383 319.699 -1272 155 124 111
-132.516 316.637 -1260 146 118 104
-128.905 314.079 -1250 135 108 94
-125.841 312.779 -1245 127 97 82
-122.403 310.475 -1236 122 93 78
-119.584 309.68 -1233 110 83 68
-117.159 309.89 -1234 102 76 61
-114.73 310.101 -1235 99 75 60
-112.026 309.56 -1233 100 75 60
-109.952 310.777 -1238 99 75 60
-107.339 310.488 -1237 99 74 60
-105.069 311.205 -1240 103 76 63
-102.209 310.165 -1236 110 83 71
-99.7697 310.381 -1237 115 94 84
-97.0126 309.595 -1234 134 113 106
-94.2684 308.809 -1231 139 118 113
-91.0156 306.269 -1221 84 65 62
-88.3117 305.485 -1218 53 35 32
-84.9161 302.195 -1205 64 48 48
-322.337 461.016 -1838 62 125 128
-316.768 458.397 -1828 59 127 130
-311.585 456.283 -1820 104 170 173
-305.255 452.416 -1805 128 194 196
-300.994 451.559 -1802 126 192 193
-295.594 448.95 -1792 162 214 219
-291.216 447.846 -1788 196 245 250
-287.66 447.996 -1789 200 248 255
-284.261 448.398 -1791 205 234 234
-280.387 448.05 -1790 166 180 175
-276.828 448.204 -1791 202 179 166
-273.573 448.86 -1794 208 187 174
-270.157 449.266 -1796 212 193 181
-266.141 448.673 -1794 234 214 201
-262.137 448.082 -1792 211 190 177
-258.142 447.492 -1790 199 170 153
-253.874 446.404 -1786 193 161 142
-250.045 446.067 -1785 192 156 136
-246.636 446.481 -1787 193 156 132
-242.813 446.147 -1786 192 155 130
-239.666 447.063 -1790 189 153 127
-235.977 446.981 -1790 187 151 124
-232.68 447.65 -1793 188 151 124
-228.733 447.071 -1791 190 150 124
-225.425 447.742 -1794 189 151 124
-221.859 447.914 -1795 193 156 129
-218.899 449.336 -1801 190 157 132
-215.916 450.758 -1807 191 158 133
-143.664 321.837 -1291 172 140 125
-141.345 322.536 -1294 163 130 116
-138.266 321.491 -1290 156 125 112
-134.783 319.45 -1282 151 122 108
-131.334 317.411 -1274 139 112 98
-127.92 315.374 -1266 131 101 86
-124.143 312.342 -1254 125 95 80
-121.094 311.054 -1249 115 88 73
-118.447 310.764 -1248 105 80 65
-115.898 310.724 -1248 100 76 61
-113.168 310.187 -1246 100 76 61
-110.891 310.896 -1249 100 76 61
-108.343 310.858 -1249 99 75 60
-106.134 311.817 -1253 103 77 66
-103.331 311.035 -1250 109 84 73
-100.864 311.249 -1251 120 99 90
-97.7652 309.473 -1244 140 121 113
-94.772 307.948 -1238 130 112 105
-90.9844 303.688 -1221 67 51 48
-87.6291 300.673 -1209 57 43 41
-322.225 457.1 -1838 85 148 151
-316.485 454.255 -1827 102 169 172
-311.82 452.903 -1822 116 182 184
-305.826 449.566 -1809 92 158 159
-301.225 448.219 -1804 122 188 188
-295.822 445.633 -1794 173 228 230
-291.766 445.035 -1792 199 250 251
-287.4 443.942 -1788 201 246 250
-284.163 444.589 -1791 201 229 229
-280.76 444.989 -1793 164 179 177
-277.196 445.141 -1794 200 189 177
-273.784 445.543 -1796 212 202 191
-269.613 444.706 -1793 232 224 214
-265.902 444.614 -1793 227 215 205
-262.047 444.276 -1792 202 189 179
-257.91 443.443 -1789 198 174 158
-254.071 443.108 -1788 187 158 139
-250.239 442.774 -1787 186 153 131
-246.552 442.689 -1787 187 150 123
-243.138 443.101 -1789 186 149 122
-239.718 443.514 -1791 187 149 123
-236.424 444.176 -1794 188 149 123
-232.989 444.591 -1796 187 148 121
-229.165 444.264 -1795 191 150 124
-225.85 444.929 -1798 191 153 126
-222.278 445.1 -1799 190 155 127
-219.553 447.004 -1807 194 161 135
-146.714 320.142 -1295 173 144 127
-144.616 321.328 -1300 170 137 123
-141.734 320.785 -1298 163 130 116
-138.861 320.244 -1296 157 126 113
-135.683 318.961 -1291 152 123 109
-132.423 317.434 -1285 142 115 101
-129.088 315.66 -1278 135 105 90
-125.783 313.888 -1271 126 97 82
-122.41 311.87 -1263 116 89 74
-119.64 311.335 -1261 106 82 67
-117.158 311.542 -1262 100 76 61
-114.31 310.762 -1259 99 75 60
-112.185 311.958 -1264 100 76 61
-109.347 311.18 -1261 105 81 66
-106.945 311.637 -1263 106 83 71
-104.288 311.355 -1262 117 94 83
-101.958 312.06 -1265 128 109 99
-98.9104 310.546 -1259 143 125 116
-96.0407 309.526 -1255 118 101 93
-321.94 452.941 -1837 111 173 176
-316.896 451.106 -1830 106 172 175
-311.884 449.273 -1823 83 149 150
-306.397 446.704 -1813 83 148 149
-301.789 445.369 -1808 150 214 214
-296.875 443.543 -1801 169 226 225
-291.992 441.719 -1794 154 208 207
-288.105 441.374 -1793 158 201 201
-284.225 441.03 -1792 186 213 212
-280.821 441.427 -1794 196 214 213
-277.102 441.332 -1794 219 219 211
-273.69 441.73 -1796 218 219 210
-269.521 440.9 -1793 210 213 205
-265.515 440.318 -1791 188 184 177
-261.811 440.228 -1791 183 177 170
-258.254 440.386 -1792 170 149 133
-254.411 440.054 -1791 169 141 122
-250.294 439.231 -1788 173 141 118
-246.882 439.638 -1790 176 139 108
-242.92 439.064 -1788 179 141 112
-239.904 440.21 -1793 185 144 117
-236.212 440.13 -1793 183 142 116
-233.04 441.032 -1797 184 144 118
-229.343 440.954 -1797 193 152 126
-226.15 441.858 -1801 193 156 129
-222.82 442.518 -1804 188 154 126
-147.797 319.854 -1305 170 141 124
-145.456 320.54 -1308 167 136 121
-142.668 320.246 -1307 162 130 116
-139.457 318.974 -1302 155 126 112
-136.163 317.457 -1296 147 120 106
-132.997 316.187 -1291 139 114 99
-129.65 314.429 -1284 133 104 89
-126.235 312.427 -1276 123 95 80
-123.241 311.406 -1272 114 89 72
-120.453 310.875 -1270 108 84 68
-117.954 311.08 -1271 105 81 66
-114.997 310.062 -1267 102 78 63
-112.502 310.268 -1268 101 77 62
-109.743 309.742 -1266 105 81 66
-107.755 311.418 -1273 111 91 80
-104.831 310.403 -1269 118 98 88
-102.649 311.592 -1274 131 115 105
-100.134 311.802 -1275 144 128 118
-97.0029 310.057 -1268 97 80 70
-322.181 449.523 -1839 104 166 168
-316.616 446.971 -1829 76 142 144
-311.265 444.666 -1820 69 133 135
-305.618 441.875 -1809 107 169 170
-301.854 441.772 -1809 139 200 200
-296.61 439.473 -1800 97 153 149
-292.382 438.642 -1797 92 145 140
-288.168 437.812 -1794 123 164 159
-284.605 437.959 -1795 139 168 166
-280.726 437.62 -1794 151 174 173
-277.008 437.526 -1794 152 163 157
-273.293 437.434 -1794 145 157 152
-269.129 436.611 -1791 135 148 145
-265.425 436.521 -1791 140 145 141
-261.723 436.433 -1791 159 160 155
-258.167 436.589 -1792 146 127 111
-254.325 436.259 -1791 154 127 107
-250.77 436.418 -1792 162 130 107
-246.799 435.847 -1790 167 131 97
-243.245 436.009 -1791 173 134 102
-239.556 435.928 -1791 180 137 110
-236.395 436.822 -1795 180 140 113
-232.961 437.23 -1797 188 148 122
-229.521 437.639 -1799 192 152 127
-226.2 438.292 -1802 191 153 127
-223.115 439.433 -1807 190 154 127
-148.427 318.555 -1311 171 143 126
-145.63 318.262 -1310 168 138 121
-142.73 317.728 -1308 164 134 118
-139.839 317.196 -1306 156 127 113
-136.327 315.207 -1298 144 118 103
-133.261 314.19 -1294 135 111 96
-130.313 313.418 -1291 128 102 87
-126.786 311.19 -1282 119 93 77
-124.168 311.148 -1282 112 88 70
-121.361 310.622 -1280 107 83 68
-118.657 310.34 -1279 105 81 66
-115.594 309.087 -1274 102 78 63
-113.174 309.535 -1276 103 80 65
-110.486 309.255 -1275 108 85 70
-107.973 309.461 -1276 112 94 83
-105.292 309.183 -1275 123 107 96
-102.856 309.633 -1277 139 124 113
-100.493 310.327 -1280 134 118 108
-97.3529 308.597 -1273 74 58 48
-322.248 445.859 -1840 85 144 146
-316.163 442.602 -1827 71 135 136
-310.99 440.559 -1819 66 128 129
-306.022 438.761 -1812 107 166 166
-301.586 437.691 -1808 87 143 143
-297.004 436.38 -1803 77 132 127
-292.609 435.314 -1799 86 137 132
-288.714 434.975 -1798 135 175 167
-284.668 434.395 -1796 150 181 179
-280.632 433.817 -1794 153 181 180
-276.761 433.483 -1793 155 174 171
-272.897 433.149 -1792 143 162 159
-268.889 432.576 -1790 135 154 152
-265.336 432.728 -1791 142 152 150
-261.781 432.882 -1792 163 168 164
-257.937 432.554 -1791 137 120 103
-254.382 432.71 -1792 147 121 101
-250.686 432.626 -1792 154 124 101
-247.267 433.026 -1794 163 126 95
-243.3 432.462 -1792 168 130 100
-239.877 432.864 -1794 177 135 107
-236.317 433.027 -1795 180 141 114
-233.273 434.155 -1800 186 148 121
-229.572 434.078 -1800 186 147 123
-226.376 434.967 -1804 189 152 127
-224.275 438.026 -1817 192 156 130
-152.907 319.691 -1327 175 144 126
-149.509 318.196 -1321 170 142 125
-146.36 317.184 -1317 165 137 119
-143.446 316.654 -1315 161 133 116
-140.435 315.885 -1312 152 125 111
-137.122 314.394 -1306 138 113 99
-133.835 312.905 -1300 129 105 90
-130.876 312.139 -1297 122 98 82
-127.634 310.653 -1291 115 91 75
-124.901 310.371 -1290 109 85 67
-121.984 309.608 -1287 105 82 66
-119.452 309.809 -1288 105 81 66
-116.644 309.289 -1286 105 81 66
-113.934 309.01 -1285 107 84 69
-111.143 308.492 -1283 113 90 75
-108.783 309.177 -1286 117 100 87
-106.412 309.863 -1289 132 116 103
-103.789 309.828 -1289 139 125 113
-101.715 311.477 -1296 116 102 91
-322.49 442.434 -1842 82 141 142
-316.403 439.206 -1829 79 140 142
-310.715 436.461 -1818 98 157 158
-305.751 434.678 -1811 111 166 166
-301.152 433.378 -1806 105 156 156
-296.905 432.559 -1803 87 139 135
-292.837 431.981 -1801 90 139 134
-288.939 431.645 -1800 130 170 162
-284.573 430.591 -1796 147 182 179
-280.695 430.258 -1795 145 178 177
-276.824 429.926 -1794 144 169 166
-272.959 429.596 -1793 144 168 166
-269.401 429.746 -1794 142 164 163
-265.545 429.418 -1793 149 162 160
-262.133 429.81 -1795 158 165 160
-258.571 429.964 -1796 137 121 104
-255.008 430.118 -1797 147 122 102
-251.162 429.795 -1796 151 122 99
-247.186 429.235 -1794 158 121 94
-243.491 429.154 -1794 166 128 101
-239.664 428.835 -1793 172 132 105
-236.239 429.235 -1795 179 142 115
-232.807 429.636 -1797 185 148 122
-229.496 430.278 -1800 186 149 125
-226.301 431.159 -1804 189 153 128
-156.279 318.376 -1333 178 146 125
-153.087 317.37 -1329 171 143 124
-150.026 316.604 -1326 163 137 120
-146.867 315.601 -1322 159 133 115
-143.944 315.076 -1320 152 127 110
-140.923 314.313 -1317 145 119 104
-137.811 313.313 -1313 132 108 93
-134.511 311.836 -1307 122 99 84
-131.539 311.077 -1304 117 94 77
-128.481 310.08 -1300 114 90 73
-125.441 309.085 -1296 110 86 68
-122.513 308.329 -1293 104 81 65
-120.154 309.004 -1296 104 81 66
-117.331 308.489 -1294 108 84 69
-114.606 308.212 -1293 113 89 74
-112.232 308.89 -1296 119 96 81
-109.931 309.807 -1300 124 106 91
-107.45 310.248 -1302 137 121 106
-104.801 310.214 -1302 136 123 109
-102.937 312.562 -1312 99 87 75
-322.909 439.243 -1845 116 171 173
-316.472 435.567 -1830 108 165 167
-311.125 433.322 -1821 121 177 178
-305.65 430.842 -1811 110 160 161
-301.219 429.791 -1807 105 152 152
-297.301 429.454 -1806 87 136 134
-292.903 428.407 -1802 96 143 140
-289.165 428.311 -1802 120 162 154
-284.955 427.504 -1799 131 168 164
-280.603 426.461 -1795 133 168 165
-276.733 426.132 -1794 137 167 162
-272.869 425.805 -1793 145 171 168
-269.462 426.191 -1795 144 166 164
-265.753 426.103 -1795 155 167 165
-262.339 426.492 -1797 152 158 152
-258.774 426.644 -1798 137 121 103
-255.491 427.272 -1801 147 123 102
-251.499 426.714 -1799 150 122 100
-248.207 427.344 -1802 156 122 97
-244.089 426.553 -1799 164 129 103
-240.521 426.711 -1800 169 133 106
-236.556 426.159 -1798 179 143 117
-232.99 426.319 -1799 180 144 118
-229.549 426.718 -1801 188 151 127
-157.4 317.935 -1343 173 143 123
-153.843 316.227 -1336 165 138 120
-150.768 315.468 -1333 157 133 116
-147.596 314.472 -1329 152 128 110
-144.442 313.479 -1325 144 119 102
-141.305 312.486 -1321 136 112 97
-138.081 311.258 -1316 126 104 89
-135.084 310.504 -1313 116 96 80
-131.798 309.042 -1307 113 91 72
-128.834 308.29 -1304 111 89 70
-125.884 307.54 -1301 108 86 67
-123.136 307.263 -1300 105 82 67
-120.579 307.46 -1301 108 85 70
-117.928 307.421 -1301 113 89 74
-115.277 307.383 -1301 116 93 78
-112.975 308.292 -1305 124 101 86
-110.572 308.964 -1308 132 113 96
-107.993 309.165 -1309 141 124 108
-105.089 308.422 -1306 170 157 143
-317.752 433.58 -1838 118 169 171
-311.195 429.703 -1822 114 166 168
-306.056 427.716 -1814 102 151 150
-301.621 426.674 -1810 101 147 146
-297.698 426.341 -1809 99 145 145
-292.97 424.831 -1803 101 146 144
-289.392 424.972 -1804 113 155 149
-284.862 423.701 -1799 125 162 157
-280.98 423.374 -1798 124 160 155
-276.951 422.812 -1796 134 165 159
-273.084 422.488 -1795 145 171 165
-269.525 422.635 -1796 140 161 155
-265.963 422.784 -1797 158 170 167
-262.691 423.404 -1800 149 153 146
-258.834 423.084 -1799 139 120 103
-255.976 424.412 -1805 147 121 101
-252.116 424.095 -1804 149 121 99
-248.677 424.484 -1806 154 121 99
-244.688 423.934 -1804 159 125 103
-240.309 422.681 -1799 166 132 109
-236.874 423.073 -1801 171 136 113
-233.561 423.702 -1804 180 145 122
-230.239 424.332 -1807 188 152 128
-161.173 317.27 -1352 178 147 127
-158.169 316.75 -1350 167 138 121
-154.714 315.292 -1344 158 132 116
-151.624 314.539 -1341 149 126 110
-148.659 314.021 -1339 145 121 103
-145.158 312.332 -1332 138 114 97
-142.115 311.583 -1329 129 106 91
-138.876 310.365 -1324 120 99 83
-135.761 309.384 -1320 111 91 74
-132.562 308.169 -1315 110 88 69
-129.682 307.658 -1313 110 88 68
-126.424 306.211 -1307 107 83 63
-123.759 306.171 -1307 108 85 69
-121.003 305.897 -1306 108 85 70
-118.343 305.859 -1306 111 88 74
-115.595 305.587 -1305 117 96 82
-113.371 306.721 -1310 125 105 90
-111.212 308.09 -1316 137 122 106
-108.7 308.523 -1318 157 143 127
-317.994 430.159 -1840 128 174 177
-312.118 427.252 -1828 111 161 161
-307.138 425.517 -1821 100 147 147
-301.856 423.316 -1812 100 147 146
-297.931 422.985 -1811 103 147 149
-294.012 422.656 -1810 111 155 154
-289.94 422.096 -1808 118 160 155
-285.403 420.836 -1803 122 159 153
-281.202 420.044 -1800 122 158 152
-277.324 419.721 -1799 129 162 155
-273.605 419.633 -1799 140 165 156
-270.038 419.779 -1800 141 160 151
-266.617 420.159 -1802 165 175 173
-263.19 420.54 -1804 145 146 140
-259.326 420.223 -1803 137 116 100
-256.035 420.84 -1806 143 116 95
-252.874 421.69 -1810 144 116 94
-249.423 422.076 -1812 147 114 96
-245.694 421.996 -1812 149 117 98
-241.434 420.987 -1808 157 125 105
-237.324 420.212 -1805 170 136 117
-234.263 421.3 -1810 174 141 120
-161.955 316.054 -1359 173 144 125
-158.586 314.84 -1354 161 137 121
-155.125 313.395 -1348 153 131 117
-152.141 312.881 -1346 143 122 109
-149.277 312.601 -1345 138 116 97
-145.438 310.23 -1335 130 109 90
-142.925 310.649 -1337 121 101 84
-139.251 308.513 -1328 116 96 78
-136.128 307.54 -1324 111 91 72
-133.024 306.568 -1320 109 87 68
-130.035 305.829 -1317 108 85 64
-126.963 304.859 -1313 107 81 60
-124.098 304.355 -1311 106 83 66
-121.15 303.62 -1308 110 87 71
-118.667 304.046 -1310 114 93 80
-116.089 304.24 -1311 118 99 85
-113.854 305.364 -1316 128 111 97
-312.871 424.548 -1833 110 159 160
-307.545 422.365 -1824 99 147 146
-302.759 420.878 -1818 96 145 142
-298.822 420.551 -1817 116 158 159
-294.243 419.299 -1812 122 165 163
-290.648 419.437 -1813 122 164 159
-285.628 417.494 -1805 119 156 150
-281.893 417.404 -1805 116 152 146
-277.852 416.852 -1803 126 160 154
-274.277 416.996 -1804 136 162 153
-270.401 416.678 -1803 141 160 149
-266.68 416.592 -1803 167 177 173
-263.106 416.739 -1804 136 136 128
-260.106 417.811 -1809 130 107 91
-256.52 417.96 -1810 138 109 89
-253.072 418.341 -1812 138 107 86
-249.481 418.492 -1813 144 111 95
-245.752 418.413 -1813 149 117 101
-241.491 417.413 -1809 155 125 109
-237.905 417.568 -1810 168 134 116
-165.172 314.172 -1363 171 142 123
-162.38 314.12 -1363 166 138 119
-159.122 313.148 -1359 157 133 117
-155.42 311.254 -1351 151 128 114
-152.657 311.206 -1351 142 120 106
-149.563 310.467 -1348 132 111 93
-146.155 309.039 -1342 125 105 87
-143.093 308.302 -1339 118 98 81
-140.15 307.797 -1337 114 92 73
-137.01 306.832 -1333 110 88 68
-133.888 305.869 -1329 108 86 67
-130.685 304.676 -1324 107 84 64
-127.6 303.715 -1320 106 82 61
-124.816 303.445 -1319 108 84 68
-121.945 302.947 -1317 113 89 73
-119.173 302.678 -1316 117 94 80
-117.026 304.021 -1322 121 102 88
-115.202 306.284 -1332 133 116 102
-134.775 395.324 -1720 126 115 104
-131.588 396.201 -1724 88 77 67
-129.202 399.607 -1739 80 71 61
-313.113 421.138 -1835 111 157 157
-307.448 418.515 -1824 97 146 144
-303.162 417.731 -1821 96 146 143
-299.221 417.406 -1820 114 161 159
-294.312 415.707 -1813 121 168 163
-290.556 415.615 -1813 120 165 159
-285.854 414.148 -1807 113 152 146
-281.96 413.83 -1806 105 142 136
-277.764 413.054 -1803 120 152 147
-274.495 413.654 -1806 135 158 152
-270.616 413.339 -1805 137 155 148
-267.335 413.941 -1808 163 171 167
-263.606 413.858 -1808 128 125 116
-260.311 414.462 -1811 126 102 85
-256.864 414.838 -1813 129 101 80
-253.132 414.758 -1813 131 101 80
-249.815 415.365 -1816 141 108 92
-245.809 414.83 -1814 147 116 100
-242.749 415.896 -1819 154 125 108
-239.67 416.964 -1824 167 134 115
-169.021 313.418 -1372 175 143 122
-166.089 313.137 -1371 166 137 118
-162.925 312.4 -1368 158 130 111
-159.891 311.893 -1366 150 126 109
-156.292 310.245 -1359 143 120 104
-152.948 309.055 -1354 134 111 96
-150.403 309.464 -1356 124 104 87
-147.089 308.277 -1351 118 98 81
-143.689 306.862 -1345 112 92 74
-140.839 306.59 -1344 110 87 67
-137.892 306.09 -1342 107 85 64
-134.551 304.679 -1336 107 85 66
-131.433 303.725 -1332 107 84 64
-128.43 303.001 -1329 108 84 65
-125.628 302.733 -1328 111 87 71
-122.832 302.466 -1327 116 92 76
-120.131 302.428 -1327 122 98 83
-117.963 303.758 -1333 127 108 93
-116.981 308.279 -1353 133 116 101
-133.793 388.99 -1708 244 238 218
-130.783 390.315 -1714 171 164 144
-125.561 395.7 -1738 79 70 62
-308.362 416.034 -1830 102 149 147
-303.566 414.574 -1824 95 144 142
-299.455 414.025 -1822 111 167 161
-294.544 412.342 -1815 122 175 168
-290.785 412.25 -1815 117 167 160
-286.239 411.024 -1810 108 149 144
-282.339 410.709 -1809 105 143 138
-278.293 410.167 -1807 124 152 148
-274.712 410.307 -1808 131 151 151
-270.531 409.542 -1805 141 157 158
-267.546 410.592 -1810 158 165 159
-264.107 410.963 -1812 118 114 103
-260.517 411.108 -1813 122 98 80
-257.35 411.934 -1817 117 91 68
-253.751 412.081 -1818 126 99 76
-249.874 411.776 -1817 135 101 85
-246.004 411.472 -1816 144 112 95
-242.406 411.623 -1817 155 125 106
-173.657 313.987 -1387 176 144 125
-169.83 312.123 -1379 170 140 120
-167.369 312.75 -1382 162 133 114
-163.945 311.567 -1377 153 125 107
-160.777 310.838 -1374 143 119 102
-157.278 309.431 -1368 134 111 95
-153.917 308.252 -1363 126 103 87
-150.689 307.3 -1359 118 98 81
-147.914 307.254 -1359 110 90 73
-144.606 306.078 -1354 106 86 68
-142.053 306.486 -1356 108 85 65
-139.185 306.216 -1355 108 85 64
-132.379 303.195 -1342 107 84 65
-126.346 301.759 -1336 114 90 74
-123.627 301.721 -1336 121 97 81
-121.18 302.36 -1339 128 104 88
-119.519 305.033 -1351 132 112 96
-136.734 374.668 -1660 221 213 194
-135.291 380.043 -1684 253 250 226
-132.969 383.161 -1698 254 251 226
-129.98 384.474 -1704 244 239 215
-127.414 387.142 -1716 176 171 148
-124.8 389.81 -1728 89 84 72
-123.262 396.088 -1756 64 59 52
-304.303 411.859 -1829 103 146 146
-299.526 410.415 -1823 104 153 148
-294.776 408.972 -1817 113 159 153
-290.855 408.656 -1816 112 156 149
-286.15 407.217 -1810 106 144 138
-282.252 406.904 -1809 109 145 140
-278.668 407.042 -1810 123 151 149
-274.779 406.731 -1809 132 149 150
-270.896 406.422 -1808 141 154 157
-267.907 407.463 -1813 155 159 157
-264.753 408.279 -1817 110 105 98
-261.298 408.647 -1819 111 93 77
-257.837 409.017 -1821 110 87 69
-253.812 408.488 -1819 120 95 77
-249.797 407.962 -1817 136 102 86
-245.792 407.436 -1815 143 112 96
-242.731 408.483 -1820 154 125 109
-174.855 313.322 -1397 172 139 121
-171.009 311.475 -1389 166 136 117
-168.286 311.647 -1390 158 130 110
-165.085 310.923 -1387 149 123 103
-161.78 309.976 -1383 138 114 96
-158.034 308.134 -1375 128 104 88
-154.66 306.966 -1370 122 99 83
-151.418 306.022 -1366 117 96 78
-148.086 304.856 -1361 111 90 71
-145.415 305.035 -1362 106 85 65
-142.637 304.991 -1362 109 85 64
-139.963 305.172 -1363 109 85 64
-127.536 301.874 -1349 116 92 76
-124.791 301.835 -1349 125 100 84
-123.224 304.706 -1362 133 108 92
-136.363 370.304 -1656 246 241 220
-134.446 374.288 -1674 255 253 228
-132.38 378.048 -1691 251 247 222
-129.483 379.572 -1698 252 249 224
-126.707 381.545 -1707 245 242 218
-123.967 383.742 -1717 164 161 142
-122.031 388.621 -1739 109 106 90
-301.241 409.034 -1834 106 144 142
-295.821 406.712 -1824 104 141 137
-291.886 406.399 -1823 102 139 134
-286.852 404.527 -1815 101 135 129
-282.633 403.771 -1812 104 137 132
-278.736 403.462 -1811 116 143 141
-274.998 403.377 -1811 129 146 147
-270.963 402.848 -1809 136 149 151
-267.677 403.434 -1812 150 154 153
-265.109 405.133 -1820 102 99 92
-261.792 405.72 -1823 100 87 73
-258.607 406.531 -1827 103 83 69
-254.71 406.23 -1826 116 93 79
-250.545 405.485 -1823 134 103 86
-246.393 404.742 -1820 140 111 95
-177.409 310.005 -1395 177 143 127
-175.177 311.062 -1400 168 136 118
-171.572 309.676 -1394 160 130 111
-168.719 309.624 -1394 149 123 103
-165.629 309.129 -1392 140 115 96
-162.082 307.747 -1386 129 107 88
-158.56 306.366 -1380 120 97 80
-155.289 305.43 -1376 115 92 76
-152.148 304.718 -1373 112 89 70
-148.802 303.562 -1368 109 87 67
-146.118 303.739 -1369 106 84 63
-143.536 304.139 -1371 105 81 59
-140.742 304.096 -1371 106 82 61
-128.915 302.38 -1364 118 94 78
-126.418 303.006 -1367 124 99 84
-125.538 307.623 -1388 135 109 93
-134.538 353.373 -1595 224 217 199
-135.004 363.302 -1640 253 250 228
-133.362 367.913 -1661 253 251 224
-131.087 370.974 -1675 254 250 224
-129.062 374.921 -1693 250 246 220
-126.149 376.432 -1700 244 243 216
-123.713 379.494 -1714 248 247 219
-121.573 383.664 -1733 225 223 197
-119.697 388.94 -1757 236 234 211
-117.857 394.659 -1783 246 245 225
-115.721 399.715 -1806 249 249 232
-112.686 401.894 -1816 253 251 239
-292.757 403.895 -1829 109 137 134
-287.238 401.378 -1818 105 137 132
-283.17 400.85 -1816 104 133 129
-279.267 400.544 -1815 113 137 136
-274.914 399.577 -1811 128 147 145
-271.03 399.273 -1810 132 149 148
-268.186 400.515 -1816 144 148 147
-265.319 401.758 -1822 94 93 86
-262.574 403.221 -1829 95 87 75
-259.519 404.244 -1834 98 83 71
-255.748 404.166 -1834 108 89 77
-251.293 402.987 -1829 133 104 87
-247.537 402.912 -1829 141 116 101
-178.118 308.405 -1401 171 138 124
-175.875 309.452 -1406 164 133 117
-172.258 308.079 -1400 156 127 109
-169.273 307.808 -1399 141 116 96
-166.412 307.757 -1399 133 109 89
-163.085 306.828 -1395 124 102 82
-159.66 305.679 -1390 120 97 79
-156.145 304.312 -1384 112 90 72
-153.209 304.046 -1383 110 86 66
-149.953 303.121 -1379 107 84 64
-146.927 302.637 -1377 105 83 62
-144.225 302.813 -1378 103 81 58
-141.725 303.429 -1381 106 83 60
-130.199 302.606 -1378 120 96 80
-127.951 303.885 -1384 124 100 84
-128.755 312.629 -1424 135 108 93
