ply
format ascii 1.0
comment Created by Open3D
element vertex 730
property double x
property double y
property double z
property double nx
property double ny
property double nz
property uchar red
property uchar green
property uchar blue
end_header
-116.622 -942.26 -1741.09 -0.579002 0.072824 -0.448071 175 126 88
-117.564 -940.349 -1740.68 -0.540142 0.0559675 -0.474547 176 126 88
-109.141 -939.932 -1740.83 -0.971901 0.269492 -0.162173 165 119 84
-114.211 -933.399 -1742.36 -0.574099 0.120007 -0.456382 176 127 89
0.898667 -560.286 -1737.76 0.99344 0.0952796 -0.0719978 65 64 78
-1.90722 -543.414 -1741.9 0.97778 0.113174 -0.102567 66 65 79
-1.2154 -536.173 -1736.54 0.975115 0.0502103 -0.154842 68 67 80
-1.37963 -528.287 -1737.32 0.963799 0.0563937 -0.193049 68 67 79
-2.23409 -513.487 -1737.31 0.93873 0.0770675 -0.252397 66 65 77
-3.14062 -497.71 -1740.42 0.970469 -0.0449733 -0.183881 66 65 77
-1.34342 -483.039 -1738.24 0.95571 -0.103336 -0.0563822 70 69 81
-0.873013 -480.922 -1739.86 0.94227 -0.100437 -0.0966234 70 69 81
-0.86036 -463.938 -1736.6 0.985779 0.0257627 0.0493614 62 61 73
-2.89212 -447.487 -1740.64 0.902148 0.256778 -0.266897 53 52 64
-2.20726 -447.031 -1738.89 0.905301 0.200898 -0.260587 53 52 64
-5.92782 -436.116 -1741.47 0.814201 0.232139 -0.452358 51 50 63
2.32211 -432.14 -1735.49 0.681754 -0.033741 -0.702893 55 54 66
-372.559 -248 -1738.06 -0.774284 0.530767 0.0560346 132 137 152
-358.444 -257.762 -1741.71 -0.821417 0.272807 -0.0265716 131 137 151
-371.068 -242.248 -1737.23 -0.831895 0.309673 -0.142569 134 139 154
-352.857 -268.929 -1741.65 -0.870677 0.155537 -0.437868 144 146 163
-351.918 -251.183 -1737.47 -0.886737 0.285455 -0.284654 144 146 164
-372.118 -228.927 -1740.48 -0.908366 -0.135499 0.116625 135 140 155
-369.902 -214.67 -1741.88 -0.908256 0.211682 0.176902 125 129 144
-367.625 -199.056 -1741.15 -0.970962 -0.0367603 -0.276474 130 135 150
-367.007 -200.637 -1742.27 -0.946585 0.0805296 -0.255293 127 132 146
-362.715 -182.233 -1738.96 -0.915006 0.192248 -0.00678278 138 141 154
-344.103 -205.057 -1741.97 -0.707596 0.264264 -0.623216 138 140 157
-340.624 -201.967 -1741.49 -0.647009 0.375292 -0.650797 138 141 158
-337.455 -198.458 -1741.67 -0.64342 0.405228 -0.642819 142 144 162
-382.184 122.868 -1739.29 0.68485 -0.170167 -0.583647 82 55 61
-378.965 126.428 -1737.85 0.602528 -0.149367 -0.603184 76 53 55
-370.412 140.682 -1738.59 -0.221927 0.146014 -0.564052 112 62 83
-363.748 146.123 -1738.63 -0.221122 0.153165 -0.560251 98 66 67
-347.801 102.643 -1739.19 -0.814406 -0.261325 -0.511383 177 106 189
-349.475 110.645 -1737.23 -0.865935 -0.210708 -0.448303 154 121 170
-349.001 127.141 -1738.94 -0.815656 0.0214856 -0.500661 158 155 174
-349.447 140.234 -1738.86 -0.653866 0.074602 -0.559525 175 166 173
-358.594 183.936 -1742.52 -0.137256 -0.0275157 -0.513816 186 126 146
-354.495 186.804 -1742.92 -0.553868 -0.0519152 -0.512757 226 149 158
-4.26115 -165.867 -1739.32 0.879449 0.2564 -0.318118 126 129 145
-2.66367 -148.376 -1736.05 0.845698 -0.0194762 -0.435523 124 126 142
-4.59464 -141.984 -1739.08 0.843447 0.000293758 -0.486963 120 122 138
-6.52587 -125.369 -1742.41 0.951188 0.043845 -0.244973 91 95 109
-2.9799 -123.667 -1735.97 0.850627 0.113103 -0.467331 103 106 121
-6.24924 -107.882 -1742.99 0.930295 -0.331977 0.110228 89 92 106
-4.34553 -99.5573 -1740.45 0.891973 -0.317653 0.297413 91 94 109
-0.345449 -92.9257 -1738.81 0.830057 -0.41267 0.397495 93 95 111
3.82779 -83.9371 -1738.01 0.839405 -0.280378 0.291926 99 101 116
0.82173 -65.1614 -1737.02 0.906566 -0.158168 -0.336523 77 78 91
-179.764 350.922 -1740.3 -0.547455 0.625099 -0.0127918 146 111 92
-170.85 360.304 -1740.3 -0.732668 0.512721 0.426141 101 74 60
-186.599 373.704 -1738.12 -0.755512 0.174133 0.0393856 72 52 46
-160.186 372.146 -1738.32 -0.649195 0.706646 0.102587 67 48 40
-172.368 401.211 -1740.64 0.0849997 0.480058 -0.313092 50 39 40
-153.431 383.795 -1737.56 -0.776249 0.599858 -0.197031 47 37 36
-150.206 388.277 -1741.65 -0.723262 0.611456 -0.318566 42 34 34
-152.952 402.939 -1738.23 -0.538213 0.578406 -0.309274 46 37 37
-143.975 401.612 -1742.73 -0.735824 0.624976 -0.311683 44 36 35
-132.437 414.824 -1741.1 0.347416 0.405625 -0.407921 42 33 36
-134.752 421.329 -1738.97 0.797303 0.378523 -0.343714 40 32 37
-121.415 405.968 -1740.68 -0.220514 0.304888 -0.859662 41 33 34
-110.498 405.736 -1740.14 -0.0796254 0.346549 -0.87624 40 31 35
-127.078 411.016 -1740.04 -0.00279457 0.40532 -0.583945 42 33 36
-128.562 418.03 -1736.03 0.602008 0.441531 -0.42723 40 31 36
-348.5 3.8995 -1741.59 -0.609561 -0.218124 -0.717863 169 169 180
-341.607 -0.331391 -1747.55 -0.61538 -0.215544 -0.706848 169 169 181
-340.403 -4.26415 -1747.3 -0.600803 -0.177633 -0.690699 166 166 178
-367.022 95.476 -1747.63 -0.767371 -0.0446576 -0.667017 124 131 144
-7.82886 297.311 -1739.83 0.17094 0.67266 0.687083 181 69 97
-262.672 -1168.28 -1730.3 -0.913188 0.184802 -0.384158 150 98 72
-259.04 -1160.52 -1734.6 -0.908895 0.20202 -0.401835 154 102 76
-256.493 -1144.12 -1730.31 -0.684962 0.347981 -0.112377 171 119 89
-256.064 -1122.48 -1732.44 -0.813178 -0.167456 -0.23579 168 116 85
-253.119 -1128.34 -1733.84 -0.360527 -0.119816 -0.182583 179 127 93
-211.218 -1166.54 -1730.75 0.942073 0.164155 0.359339 187 140 104
-212.096 -1157.64 -1730.01 0.907288 0.207716 0.382212 200 150 108
-230.087 -1137.95 -1729.33 0.379885 0.804407 0.555806 222 173 125
-225.874 -1137.56 -1733.67 0.423826 0.746724 0.560404 221 172 124
-236.755 -1132.27 -1731.41 0.305168 0.426947 0.174031 214 164 118
-236.937 -1120.5 -1729.29 0.527217 -0.0711177 -0.247678 187 132 95
-225.319 -1122.15 -1735.4 0.310692 0.270545 0.217657 215 166 118
-219.639 -1122.45 -1732.64 0.381551 0.428328 0.375066 213 164 118
-203.044 -1131.07 -1731.86 0.4212 0.352663 -0.133957 173 125 93
-199.376 -1134.28 -1735.03 0.45911 0.398275 -0.421626 151 106 80
-228.249 -761.469 -1732.62 0.572857 -0.0700494 -0.805756 56 53 61
-188.281 -781.043 -1735.09 0.379762 0.00824605 0.136353 34 30 42
-228.24 -747.715 -1735.57 0.553278 -0.177908 -0.809127 56 53 61
-222.673 -750.98 -1731.28 0.559777 -0.216234 -0.806162 55 52 60
-224.911 -741.159 -1734.54 0.563727 -0.141981 -0.812488 54 51 59
-220.334 -733.419 -1732.03 0.604336 -0.118706 -0.785275 51 49 59
-218.83 -729.843 -1731.44 0.628753 -0.13573 -0.761442 50 49 58
-219.135 -716.759 -1735.57 0.649384 -0.20342 -0.732387 50 49 59
-214.094 -712.597 -1731.58 0.676265 -0.146067 -0.71817 48 47 57
-215.742 -695.811 -1733.77 0.699035 -0.0491324 -0.709731 51 50 60
-212.635 -691.441 -1731.07 0.719348 -0.109813 -0.682437 52 51 61
-157.696 -1088.93 -1730.89 -0.751136 -0.397901 -0.440619 164 113 83
-156.701 -1066.22 -1732.5 -0.754682 0.121359 -0.51765 164 115 82
-100.189 -1110.38 -1732.79 -0.780279 -0.0720822 0.519181 165 118 91
-100.244 -1097.82 -1729.62 -0.848793 -0.045213 0.516094 161 116 91
-101.51 -1088.49 -1731.29 -0.787515 -0.0099469 0.570578 158 113 87
-101.037 -1084.02 -1730.19 -0.789582 0.00554755 0.55621 157 111 85
-100.283 -1065.64 -1732.05 -0.582184 0.138071 0.468206 168 119 88
-154.782 -1055.08 -1729.6 -0.830844 0.0913272 -0.408448 164 117 82
-148.993 -1041.11 -1729.98 -0.782423 0.231052 -0.351371 164 119 83
-144.841 -1036.4 -1732.79 -0.796057 0.268998 -0.289443 164 118 82
-146.939 -1017.09 -1735.79 -0.817462 0.102846 -0.508977 192 144 99
-151.009 -1011.89 -1734.95 -0.761594 -0.0248836 -0.63171 196 148 100
-147.355 -725.464 -1735.56 -0.924691 -0.0502783 -0.365192 53 53 63
-147.101 -715.524 -1735.55 -0.937258 -0.00715486 -0.344366 53 53 63
-149.56 -702.603 -1729.42 -0.909117 -0.0357702 -0.407814 51 52 62
-150.108 -690.369 -1730.74 -0.899111 -0.0817986 -0.424611 48 50 61
-150.184 -681.636 -1732.55 -0.894588 -0.0656197 -0.434258 47 49 61
-9.67818 -775.645 -1732.65 0.865729 -0.172991 -0.209014 70 65 73
-9.7316 -771.96 -1733.72 0.950634 -0.188608 -0.220887 69 64 73
-10.2678 -754.983 -1734.73 0.880702 0.0629356 -0.295902 63 59 69
-6.93457 -747.215 -1733.39 0.852718 -0.210315 -0.343817 66 63 73
-5.82098 -737.93 -1729.56 0.962694 -0.10003 -0.15319 69 65 75
-359.164 -146.892 -1730.78 -0.799616 -0.262955 0.456087 93 95 108
-367.767 -122.049 -1729.66 -0.876343 0.0516503 -0.0725694 120 122 136
-342.95 -172.599 -1735.5 -0.687524 0.354522 -0.472791 140 141 159
-342.695 -167.141 -1732.27 -0.644329 0.380818 -0.366137 133 135 152
-332.738 -164.35 -1731.07 -0.824489 0.102995 -0.525248 132 134 152
-342.247 -161.287 -1732.24 -0.589688 0.3536 -0.430459 133 134 151
-332.207 -160.814 -1730.82 -0.81073 0.0717924 -0.546779 131 133 151
-331.817 -148.881 -1728.65 -0.662361 0.138781 -0.710503 133 134 152
-340.465 -138.184 -1734.1 -0.656446 0.282068 -0.454308 115 118 134
-326.683 -139.89 -1735.93 -0.821275 0.219471 -0.501888 139 140 158
-336.949 -130.376 -1736.42 -0.66346 0.235037 -0.506934 122 124 141
-324.516 -130.44 -1729.58 -0.736554 0.410781 -0.491198 139 140 159
-314.121 -124.26 -1733.74 -0.449072 0.570611 -0.647339 143 144 161
-299.911 -121.217 -1736.36 -0.481128 0.29302 -0.690472 236 236 239
-362.462 -107.939 -1731.23 -0.791298 0.321616 -0.38172 124 127 141
-358.676 -100.978 -1733.09 -0.837216 0.108016 -0.416205 101 105 119
-359.027 -89.711 -1732.23 -0.920455 -0.141537 -0.253072 89 94 107
-360.421 -85.2667 -1730.51 -0.910291 -0.289337 -0.245014 85 90 103
-359.317 -65.9607 -1734.25 -0.826836 -0.0628508 -0.466939 112 116 131
73.6939 106.573 -1729.6 0.893361 -0.161294 0.405224 178 89 190
74.5921 116.575 -1729.8 0.860352 -0.180554 0.454452 207 62 215
82.5794 126.524 -1732.47 0.560707 -0.459888 0.668937 144 129 160
85.6051 133.636 -1731.74 0.601542 -0.343118 0.708145 133 134 151
89.5762 140.083 -1730.93 0.616582 -0.444583 0.604597 122 127 141
102.188 149.971 -1733.84 0.612271 -0.570396 0.483501 110 114 126
103.639 151.888 -1733.9 0.599427 -0.524239 0.511309 111 115 128
171.393 239.661 -1735 0.135877 -0.284484 0.866979 252 252 253
-180.812 354.029 -1733.24 -0.539151 0.613119 -0.28339 158 117 93
-177.494 356.656 -1730.86 -0.530629 0.651654 -0.318704 171 125 97
-169.271 360.166 -1732.84 -0.657449 0.672163 0.134638 149 107 82
-184.652 372.285 -1731.52 -0.644039 0.470841 -0.0339296 116 82 66
-162.687 368.471 -1734.88 -0.679494 0.644376 0.269139 90 62 48
-156.602 379.408 -1732.87 -0.757894 0.568195 0.0306957 61 46 42
-164.223 398.094 -1730.79 0.0508672 0.459155 -0.301314 52 40 42
-153.756 385.912 -1732.44 -0.710094 0.547959 -0.102379 53 42 40
-155.963 396.399 -1731.8 -0.351999 0.525357 -0.201441 54 41 41
-269.926 -971.689 -1723.81 -0.563801 -0.150256 -0.40144 177 127 87
-273.697 -966.777 -1727.5 -0.487826 -0.180054 -0.603449 179 129 87
-266.957 -978.858 -1724.85 -0.763877 -0.0719417 -0.0149318 172 121 83
-202.362 -996.45 -1724.03 0.721752 0.258163 -0.640326 186 131 89
-200.172 -1001.29 -1722.59 0.736673 0.329904 -0.590894 184 128 87
-206.715 -986.121 -1726.99 0.714362 0.0855558 -0.698609 186 132 91
-204.902 -976.474 -1724.54 0.651393 0.0282527 -0.747302 186 132 92
-206.102 -970.864 -1726.16 0.646113 -0.00924949 -0.7591 189 135 94
-203.238 -959.615 -1727.11 0.540101 -0.181764 -0.81967 190 136 95
-198.423 -958.969 -1723.56 0.539301 -0.211872 -0.816361 186 131 92
-274.496 -946.794 -1726.01 -0.503322 0.163939 -0.519158 182 130 91
-291.511 -928.379 -1726.94 -0.404509 -0.00588984 -0.112177 166 120 87
-273.824 -935.897 -1726.29 -0.630444 -0.0195659 -0.36471 183 131 93
-223.137 -769.097 -1728.02 0.644295 0.060887 -0.766123 54 51 59
-217.654 -759.522 -1724.69 0.584155 -0.128596 -0.686908 52 49 58
-218.818 -756.301 -1726.69 0.600179 -0.161368 -0.765109 54 50 59
-215.852 -743.999 -1727.39 0.601634 -0.136684 -0.786321 53 50 58
-214.119 -751.666 -1724.7 0.604282 -0.175762 -0.754323 52 49 58
-212.335 -735.524 -1724.72 0.662872 -0.0677781 -0.749429 51 49 58
-212.001 -730.877 -1724.87 0.660999 -0.08852 -0.744615 50 48 58
-209.934 -716.085 -1727 0.681332 -0.162751 -0.709967 47 46 56
-209.658 -709.684 -1727.13 0.710953 -0.0937654 -0.691235 47 46 56
-206.794 -701.187 -1723.64 0.744148 -0.0323714 -0.664356 49 48 58
-361.393 -421.645 -1728.47 -0.97244 -0.130842 -0.164539 63 64 76
-362.18 -417.928 -1727.66 -0.970698 -0.155541 -0.155408 63 64 76
-365.013 -398.215 -1725.8 -0.984735 -0.0262199 -0.0637462 64 65 79
-364.856 -384.265 -1724.84 -0.98918 0.0314866 -0.044704 58 59 73
-365.241 -374.344 -1722.75 -0.981863 0.00373041 -0.109216 59 60 74
-364.118 -368.192 -1728.87 -0.967739 -0.0125889 -0.158506 68 70 84
-368.301 -355.691 -1728.12 -0.840853 -0.433871 -0.22194 124 128 143
-186.269 -1191.57 -1722.94 -0.428288 0.846093 0.100395 41 27 27
-181.788 -1181.51 -1725.14 -0.810231 0.498008 0.219556 98 71 59
-109.75 -1215.79 -1723.95 -0.0790072 -0.415334 0.199624 145 106 87
-119.552 -966.606 -1728.09 -0.926921 0.301085 -0.131123 157 109 77
-116.924 -954.721 -1728.01 -0.944242 0.254156 -0.248911 161 113 80
-175.262 -945.949 -1723.26 -0.0638566 -0.347488 -0.915272 123 90 73
-163.112 -952.347 -1724.05 -0.228977 -0.078076 -0.930701 137 101 73
-161.17 -941.673 -1724.97 -0.0826694 -0.000492437 -0.911429 151 109 78
-179.699 -936.92 -1728.14 -0.171212 -0.328586 -0.897656 130 95 77
-183.508 -929.817 -1728.72 -0.181783 -0.171708 -0.915094 145 105 83
-167.442 -939.695 -1725.27 0.0849519 -0.08723 -0.927222 134 96 71
-169.791 -930.557 -1723.82 0.140075 0.198677 -0.848957 126 92 70
-158.466 -950.282 -1725.6 -0.312829 -0.0238886 -0.914598 159 116 82
-154.486 -943.272 -1727.91 -0.50499 0.0193439 -0.788909 185 136 95
-133.471 -945.916 -1722.53 -0.666323 0.0440207 -0.701306 190 140 98
-154.924 -929.169 -1727.67 -0.534279 0.0972298 -0.757574 185 136 95
-182.997 -920.64 -1726.2 -0.0203905 0.131055 -0.921757 156 110 84
-185.93 -914.776 -1725.26 0.0528737 0.123356 -0.971143 175 123 91
-181.709 -904.898 -1722.98 0.222026 0.170394 -0.962113 161 111 82
-179.942 -905.112 -1722.72 0.242505 0.177045 -0.95811 153 104 77
-154.334 -925.771 -1727.44 -0.630633 0.102528 -0.740222 191 141 99
-153.685 -916.246 -1728.04 -0.755802 -0.045715 -0.664173 198 147 104
-158.034 -901.883 -1728.95 -0.780397 -0.137046 -0.59706 200 147 105
-116.378 -953.225 -1728.05 -0.9378 0.253366 -0.253587 161 113 81
-131.052 -935.871 -1724.59 -0.697311 0.054811 -0.627271 186 137 96
-111.169 -939.03 -1726.33 -0.92241 0.310768 -0.206347 164 116 83
-106.683 -928.392 -1724.95 -0.882339 0.36933 -0.235524 167 119 84
-99.3617 -912.365 -1723.82 -0.936858 0.32507 -0.158994 170 122 86
-97.2824 -902.606 -1723.09 -0.94805 0.129712 -0.208908 173 125 89
-356.9 -148.179 -1728.06 -0.792432 -0.200554 0.299735 99 100 115
-367.175 -125.824 -1723.61 -0.872568 -0.138393 0.212161 109 110 124
-365.934 -132.132 -1727.83 -0.868616 -0.210273 0.304716 102 104 117
-341.058 -163.87 -1727.85 -0.598883 0.366346 -0.358357 130 132 149
-338.504 -166.362 -1724.82 -0.691337 0.255611 -0.36205 129 131 149
-341.372 -153.725 -1728.08 -0.44105 0.272145 -0.648027 133 135 152
-337.624 -154.697 -1727.51 -0.506473 0.210143 -0.652675 133 134 152
-345.349 -134.018 -1724.31 -0.390525 0.214033 -0.67026 125 126 143
-334.331 -143.573 -1723.04 -0.507313 0.393955 -0.681937 134 135 153
-329.31 -137.043 -1725.85 -0.708376 0.311853 -0.561059 136 137 154
-342.921 -124.59 -1722.78 -0.36741 0.131712 -0.716448 126 127 144
-323.614 -128.084 -1728.07 -0.728573 0.419333 -0.502714 140 141 159
-367.69 -118.59 -1728.85 -0.863 0.136266 -0.06976 123 126 140
-365.429 -108.65 -1726.78 -0.863667 0.232931 -0.136337 133 136 149
-362.994 -97.6262 -1725.89 -0.847563 0.0744965 -0.475494 114 117 130
-360.332 -88.0102 -1727.5 -0.911475 -0.149679 -0.231437 83 88 101
-360.265 -77.6782 -1725.55 -0.866799 -0.100867 0.111129 88 92 107
-360.875 -66.0485 -1724.18 -0.869127 -0.090737 0.0417931 100 102 118
-90.6264 299.189 -1722.61 0.56151 0.692905 0.447614 141 135 137
-92.8821 304.57 -1726.57 0.620191 0.678713 0.399454 144 137 133
-82.8529 298.016 -1726.2 0.504928 0.721755 0.474779 142 142 153
-95.0873 311.391 -1729.5 0.617163 0.683256 0.406815 146 138 132
17.6813 267.701 -1722.29 -0.0173238 0.667309 0.739823 7 13 255
-73.379 296.442 -1727.54 0.344055 0.762526 0.500147 133 136 150
-53.7094 296.42 -1724.95 0.0772438 0.815738 0.5429 124 127 144
-43.5171 294.19 -1724.57 0.174994 0.782133 0.576306 133 136 152
-25.8531 287.564 -1724.71 0.329012 0.702887 0.62677 148 153 169
-27.3642 292.427 -1729.22 0.30864 0.707199 0.63315 149 153 169
-43.4902 297.09 -1727.91 0.191407 0.761784 0.584527 133 134 154
-10.1705 280.413 -1725.56 0.142473 0.719987 0.673167 166 120 132
0.554531 276.616 -1725.1 0.13851 0.707865 0.688954 202 77 79
4.20334 279.037 -1727.54 0.177207 0.677386 0.708594 219 43 47
12.2429 275.522 -1728.37 0.209515 0.647738 0.726224 251 5 5
17.8422 274.768 -1729.28 0.176136 0.642274 0.736485 222 0 31
29.5326 273.585 -1727.11 -0.0671866 0.695062 0.714652 1 0 254
-391.854 106.257 -1735.6 0.289138 -0.15073 -0.587975 89 73 82
-92.015 325.778 -1725.19 0.53873 0.609377 0.369337 147 135 130
-173.872 389.167 -1727.73 -0.100593 0.503688 -0.204864 67 50 47
-180.284 384.61 -1734.42 -0.417375 0.511817 0.013722 80 58 49
-175.785 393.384 -1735.63 -0.0679417 0.505691 -0.197706 56 43 42
-103.412 409.801 -1726.24 0.495424 0.290363 -0.622876 50 37 39
-289.746 -895.748 -1717.94 -0.658718 -0.0858768 0.213145 181 133 95
-291.637 -881.642 -1718.68 -0.691232 -0.047206 0.169441 186 138 98
-292.047 -871.871 -1718.8 -0.786464 0.0215843 0.0433913 188 139 98
-292.384 -860.999 -1715.33 -0.738848 0.121259 -0.0676961 189 140 99
-287.852 -845.597 -1721.57 -0.86802 0.0912156 -0.0908985 183 135 97
-188.563 -894.203 -1720.34 0.24947 0.265354 -0.920974 193 140 103
-187.734 -888.449 -1717.68 0.317414 0.310577 -0.885638 192 139 103
-186.551 -874.947 -1715.12 0.594735 0.0824454 -0.757404 191 139 102
-189.207 -870.606 -1718.48 0.684731 -0.0445698 -0.730286 201 149 109
-188.101 -862.783 -1715.65 0.769676 0.144101 -0.617771 199 148 109
-212.848 -785.835 -1720.81 0.708431 0.0221338 -0.702107 55 50 59
-213.06 -779.857 -1719.81 0.696958 0.0821612 -0.716681 53 48 57
-212.481 -761.341 -1720.33 0.583963 -0.107907 -0.678616 51 48 57
-207.01 -754.831 -1718.07 0.623369 -0.15564 -0.74413 52 49 59
-202.981 -749.386 -1715.26 0.65088 -0.150096 -0.623963 51 48 58
-208.659 -732.616 -1721.51 0.685061 -0.0647865 -0.735855 50 48 58
-201.226 -727.47 -1716.54 0.682334 -0.127518 -0.724875 47 46 56
-200.463 -720.565 -1716.77 0.708379 -0.0856357 -0.700683 45 44 54
-203.491 -704.241 -1719.54 0.763864 -0.00106393 -0.648192 47 46 56
-201.729 -702.493 -1717.36 0.774127 0.00507945 -0.638244 47 46 56
-198.935 -693.392 -1716.37 0.734872 -0.143472 -0.668256 48 47 57
-197.331 -686.688 -1716.9 0.707803 -0.209637 -0.681303 48 47 57
-156.808 -1046.09 -1722.39 -0.733269 0.234227 -0.498589 155 113 80
-160.444 -1012.53 -1714.77 -0.486796 -0.282427 -0.717265 118 87 64
-157.258 -1028.35 -1715.45 -0.586548 0.126581 -0.719803 144 103 75
-152.196 -1018.65 -1720.98 -0.849422 0.0118875 -0.226825 167 118 83
-93.1979 -1060.78 -1721.12 -0.726332 0.271436 0.640308 164 115 86
-93.7597 -1052.98 -1717.78 -0.668865 0.275396 0.561077 168 118 86
-163.488 -1004.46 -1715.82 -0.609972 -0.0927116 -0.614649 125 92 66
-165.206 -999.341 -1717.5 -0.677991 0.00708355 -0.561142 120 89 65
-163.22 -983.041 -1721.06 -0.71455 0.352313 -0.618353 124 90 66
-139.315 -995.054 -1721.1 -0.790609 0.437055 -0.339499 161 114 81
-139.417 -984.746 -1719.18 -0.710005 0.296436 -0.523048 174 126 88
-163.719 -979.641 -1720.5 -0.668645 0.303536 -0.654051 122 89 65
-164.91 -971.248 -1720.17 -0.570559 0.0941675 -0.741947 126 92 66
-184.459 -956.028 -1717.83 0.218515 -0.242944 -0.908081 145 106 82
-178.481 -960.062 -1715.73 -0.0475741 -0.208685 -0.983042 117 91 78
-172.726 -957.053 -1719.63 -0.141794 -0.201177 -0.924362 122 91 73
-137.197 -970.682 -1717.05 -0.641016 0.058956 -0.766252 195 146 100
-135.817 -967.33 -1718.51 -0.666717 0.0678096 -0.737816 194 145 100
2.80129 -505.94 -1719.01 0.96779 0.0948883 -0.203321 67 66 78
1.32417 -489.937 -1717.83 0.938439 0.139496 -0.312397 70 69 81
0.941255 -477.265 -1715.6 0.933703 0.0702333 -0.329951 69 68 80
0.606896 -472.291 -1715.91 0.951602 0.0121164 -0.260546 69 68 80
0.72428 -457.973 -1719.38 0.959335 -0.112889 -0.230688 58 57 69
6.74167 -443.434 -1721.32 0.896017 -0.337354 -0.299597 60 59 71
9.24606 -435.336 -1716.63 0.933564 -0.167307 -0.245987 61 61 72
8.51565 -424.743 -1719.89 0.971592 0.0141088 -0.267809 66 65 76
9.0425 -409.759 -1720.66 0.940682 0.0118953 -0.312311 67 66 78
8.24915 -396.439 -1718.18 0.915177 0.111262 -0.328159 64 63 75
7.69529 -378.811 -1719.7 0.90042 -0.0445793 -0.255837 53 52 64
9.11635 -374.818 -1716.11 0.881263 -0.0560005 -0.146828 57 57 69
12.0174 -359.874 -1715.77 0.902305 -0.240309 -0.279645 119 121 136
-249.933 445.306 -1718.83 -0.742167 -0.144655 0.567321 40 32 39
-243.176 458.083 -1716.66 -0.698078 -0.0223878 0.282464 41 35 43
-237.001 468.079 -1719.57 -0.75584 0.21628 -0.425429 45 37 46
-233.197 477.683 -1719.1 -0.761825 0.293186 -0.56928 47 39 48
15.3829 -340.846 -1718.92 0.957692 -0.160632 -0.0439469 134 136 152
19.1149 -323.05 -1715.26 0.948234 -0.0417412 -0.0910939 137 139 155
18.6504 -320.742 -1719.78 0.935142 0.0358118 -0.11852 139 141 157
18.3074 -305.189 -1715.99 0.913187 0.00923188 -0.316722 134 137 152
17.6905 -300.471 -1718.3 0.912609 -0.0323669 -0.333541 129 132 147
13.0094 -281.362 -1717.1 0.881054 0.245581 -0.260641 135 139 154
11.3295 -271.429 -1716.43 0.939295 0.171429 -0.178754 132 136 151
11.183 -261.114 -1716.36 0.976305 0.00812585 0.0234283 136 139 155
71.9129 128.043 -1720.1 0.804311 -0.253874 0.500609 178 117 192
77.1448 138.913 -1716.66 0.67574 -0.4964 0.529335 148 155 167
88.0055 150.377 -1714.87 0.596428 -0.552818 0.583301 127 133 147
90.8675 149.681 -1717.66 0.567646 -0.607241 0.558044 122 128 141
89.3626 170.282 -1719.37 0.714859 -0.00335458 0.666891 124 130 145
87.9809 175.593 -1718.56 0.605055 -0.0597963 0.745464 126 134 148
80.4974 205.633 -1715.34 0.119928 0.123428 0.98217 211 65 61
82.9919 210.434 -1717.51 0.175835 0.21919 0.940194 195 67 80
92.2315 158.601 -1716.51 0.639251 -0.239386 0.652227 126 132 147
98.85 178.881 -1720.85 0.432233 -0.611757 0.691847 132 137 152
100.285 179.492 -1721.45 0.438514 -0.602847 0.693964 131 136 151
-253.981 -994.699 -1709.08 -0.874193 -0.216131 0.298979 173 122 83
-259.701 -978.386 -1713.83 -0.908019 -0.179933 0.417487 174 123 86
-263.642 -963.352 -1709.82 -0.847352 -0.354203 0.255091 176 125 88
-268.884 -957.062 -1711.23 -0.679964 -0.316469 -0.175851 177 126 87
-187.96 -1007.56 -1709.02 0.482513 0.0243124 -0.543907 155 112 84
-187.692 -969.553 -1714.37 0.389721 -0.0453536 -0.926411 167 116 85
-273.55 -947.361 -1710.78 -0.717591 -0.229618 -0.0595885 179 128 89
-276.368 -933.971 -1709.34 -0.76456 -0.206318 0.157486 183 131 93
-279.039 -923.099 -1709.14 -0.836901 -0.247164 0.246855 187 136 95
-285.594 -907.123 -1714.37 -0.501818 -0.0735546 0.368477 191 140 99
-284.372 -904.974 -1711.64 -0.542139 -0.107789 0.531132 193 142 101
-345.29 -670.013 -1711.56 -0.932151 -0.260352 -0.0119671 60 59 69
-346.314 -657.913 -1708.19 -0.941417 -0.0767942 0.157263 62 61 71
-347.77 -646.375 -1710.61 -0.967779 -0.0248387 0.0489509 61 61 71
-346.171 -633.279 -1709.18 -0.904286 0.126222 -0.0932433 60 60 70
-354.497 -602.701 -1709.42 -0.889628 -0.356168 -0.0303833 63 64 74
-355.64 -593.324 -1710.07 -0.947352 -0.0962646 -0.0245192 63 63 74
-355.991 -579.47 -1712.14 -0.992142 -0.0465422 0.00031597 61 61 73
-356.191 -568.002 -1710.64 -0.986537 -0.0154335 -0.0108034 59 60 73
-349.657 -613.163 -1713.59 -0.906293 -0.237013 -0.0345062 62 63 72
-101.931 -905.43 -1709.65 -0.953334 0.177915 -0.210369 170 120 83
-179.19 -889.507 -1714.48 0.337186 0.457298 -0.846896 169 116 83
-181.96 -879.672 -1710.88 0.463886 0.285771 -0.815888 183 131 95
-176.286 -883.76 -1711.04 0.205403 0.413445 -0.839087 163 112 79
-172.324 -883.125 -1710.71 -0.0490252 0.41293 -0.824781 153 102 71
-164.932 -875.54 -1712.18 -0.711729 0.316935 -0.611415 161 111 76
-186.069 -862.038 -1711.88 0.779193 0.17085 -0.603864 195 143 105
-161.451 -861.998 -1713.22 -0.918813 0.147791 -0.417565 183 134 93
-161.692 -853.226 -1708.51 -0.893818 0.171719 -0.439082 172 125 85
-101.168 -896.141 -1712.49 -0.963693 0.0241513 -0.26803 171 122 85
-100.905 -880.859 -1710.26 -0.962874 0.0969035 -0.207648 167 118 81
-130.252 -853.005 -1713.99 -0.326471 -0.255613 0.388654 155 114 87
-97.6884 -870.704 -1710.68 -0.942207 0.297385 -0.111236 163 112 77
-93.9256 -861.655 -1709.68 -0.930619 0.375932 -0.0854592 159 109 76
-86.3337 -847.995 -1714.55 -0.855448 0.381662 -0.0429984 133 98 75
-158.881 -835.142 -1710.37 -0.898351 0.137128 -0.435791 183 141 98
3.33337 -499.959 -1712.15 0.975314 0.108554 -0.15929 68 67 79
2.47777 -488.241 -1709.04 0.970156 0.0920453 -0.107305 70 69 81
1.47409 -469.403 -1710.08 0.97052 0.0174332 -0.145215 68 67 79
2.01149 -456.982 -1711.33 0.96748 -0.0780992 -0.146454 58 57 69
3.93648 -451.885 -1708.39 0.948082 -0.200703 -0.0454659 56 55 67
9.25265 -439.175 -1711.38 0.917888 -0.267707 -0.123254 59 59 71
10.0692 -423.654 -1714.14 0.984104 0.019066 -0.202005 64 64 75
11.0614 -407.491 -1711.82 0.975919 0.0186329 -0.188792 68 67 79
10.0298 -404.655 -1716.04 0.944191 0.0473144 -0.283852 67 66 78
8.13966 -388.81 -1714.82 0.971642 0.0981949 -0.135113 64 63 75
9.66227 -374.756 -1708.82 0.870751 -0.0177588 0.0191718 58 57 70
11.8172 -361.375 -1713.54 0.911954 -0.215319 -0.197956 107 108 122
-351.963 90.252 -1713.49 -0.801732 -0.139893 -0.543357 138 126 156
-556.219 117.517 -1712.2 0.167869 0.190285 0.79511 69 62 66
-559.46 123.346 -1711.93 0.155869 0.106345 0.77933 79 65 67
-543.439 105.208 -1709.67 0.118879 0.401326 0.785881 74 74 81
-520.855 115.504 -1709.4 -0.168595 0.6266 0.736352 87 90 99
-541.712 130.334 -1711.24 0.514457 0.396359 0.663048 68 63 68
-525.112 122.31 -1712.01 0.0844417 0.496434 0.771829 79 79 87
-530.987 128.229 -1713.43 0.292098 0.432223 0.801348 71 68 75
-557.178 135.467 -1708.98 0.616729 -0.00838627 0.554193 54 46 48
-558.411 137.749 -1708.53 0.71675 -0.0563752 0.503295 49 41 43
-551.804 145.613 -1713.73 0.867612 -0.0921684 0.437823 42 35 36
-551.983 150.919 -1714.3 0.879721 -0.131626 0.432161 42 34 35
-534.663 130.039 -1714.01 0.382645 0.483569 0.780355 70 64 71
-524.195 133.808 -1714.05 -0.114672 0.16503 0.934824 70 67 75
-523.526 137.895 -1713.07 -0.249564 0.0798889 0.921783 68 66 75
-525.2 149.832 -1711.05 -0.596561 -0.157608 0.716345 87 85 93
-550.656 160.108 -1708.42 0.689214 -0.531297 0.397703 49 40 40
-539.77 160.91 -1716.11 0.252897 -0.519511 0.624052 51 43 46
-532.078 159.027 -1713.08 -0.336065 -0.482523 0.670813 72 67 73
-518.568 130.306 -1710.59 -0.318074 0.148419 0.824221 85 85 94
-362.128 108.107 -1709.36 0.522855 -0.489222 -0.568835 49 44 46
-361.571 118.473 -1715.17 0.696449 -0.296721 -0.622735 46 39 38
-358.636 128.618 -1711.05 0.869222 -0.0872758 -0.484537 84 67 55
-135.786 -950.373 -1713.1 -0.597256 0.0358518 -0.77021 192 143 99
-135.193 -952.65 -1717.93 -0.624314 0.0403916 -0.772635 193 144 100
-132.325 -930.592 -1719.89 -0.689565 0.0495006 -0.630692 186 137 96
-134.152 -936.213 -1713.67 -0.617595 0.0293682 -0.709388 189 139 97
-134.284 -939.299 -1713.95 -0.614892 0.0280914 -0.716129 189 140 97
-134.373 -917.381 -1709.98 -0.660329 0.0924597 -0.547326 182 133 93
-133.585 -901.701 -1710.8 -0.625953 0.119876 -0.461273 179 131 93
-134.14 -904.589 -1709.02 -0.62369 0.106503 -0.508749 180 131 93
-130.97 -902.76 -1720.39 -0.67236 0.154589 -0.274508 177 129 92
-133.621 -890.938 -1710.07 -0.588651 0.107602 -0.468937 182 134 96
-131.927 -871.238 -1711.57 -0.551427 0.0474822 -0.231173 180 133 97
-131.383 -862.5 -1711.46 -0.509475 -0.0459212 -0.0311874 177 132 97
-338.678 104.203 -1709.94 -0.698547 -0.128579 -0.551907 148 132 164
-336.402 117.168 -1712.04 -0.333836 -0.0795517 -0.538909 159 125 169
-338.386 125.679 -1716.24 -0.39427 -0.0589849 -0.593175 160 139 171
-172.264 373.916 -1721.09 -0.666956 0.597701 0.0891186 125 88 68
-96.8634 325.302 -1718.65 0.559291 0.593013 0.379141 149 135 129
-100.779 325.406 -1710.71 0.622692 0.359999 0.442667 158 137 125
-94.1056 404.177 -1719.99 0.428453 0.284411 -0.616092 56 41 42
-331.699 -747.247 -1705.2 -0.943501 -0.0739313 0.140854 62 61 71
-336.829 -732.882 -1708.03 -0.945295 -0.28615 -0.026274 60 60 70
-340.639 -722.509 -1706.51 -0.945294 -0.160878 -0.136894 58 58 68
-341.412 -711.748 -1707.13 -0.963926 -0.0686792 -0.174339 59 58 68
-342.144 -696.993 -1707.19 -0.957578 -0.0257829 -0.191398 60 59 69
-344.632 -687.073 -1701.76 -0.933834 -0.101378 -0.158941 62 61 71
-345.519 -677.651 -1704.94 -0.941604 -0.190884 -0.124931 61 60 69
-198.738 -773.771 -1705.19 0.682286 0.165917 -0.702997 50 47 58
-195.812 -773.17 -1701.5 0.705887 0.174889 -0.690659 48 45 55
-196.451 -752.576 -1704.85 0.755866 -0.256636 -0.150821 45 43 53
-194.277 -749.477 -1702.16 0.824793 -0.301261 -0.170155 42 41 51
-363.305 -428.537 -1706.09 -0.926327 0.289012 0.094072 60 60 74
-362.842 -413.301 -1706.98 -0.969299 -0.0687341 0.154528 59 60 74
-364.418 -402.959 -1708.17 -0.975324 -0.108638 0.123883 60 61 75
-364.692 -394.501 -1702.6 -0.975549 -0.0641607 0.113782 60 61 75
-365.382 -376.513 -1703.21 -0.979466 -0.0560025 0.0979404 50 50 65
-367.738 -363.12 -1705.51 -0.956285 -0.193971 0.145299 75 77 91
-366.751 -368.598 -1704.2 -0.974451 -0.127696 0.148081 54 55 70
-373.362 -353.51 -1704.63 -0.813908 -0.535654 0.0426133 121 124 138
-183.936 -1192.25 -1708.14 -0.335131 0.695591 0.157605 34 23 23
-178.341 -1181.16 -1705.72 -0.864321 0.448255 0.280547 78 59 53
-75.5322 -1216.66 -1703.3 0.208679 -0.311341 -0.03406 58 40 36
-73.1343 -814.043 -1704.74 -0.291422 -0.145082 0.233601 80 72 74
-65.0115 -810.04 -1706.6 -0.426959 0.372196 0.233059 75 68 73
-56.7287 -805.735 -1707.41 -0.472905 0.497479 0.276236 71 66 72
-51.3142 -802.742 -1706.35 -0.456201 0.420286 0.284994 71 66 72
-42.755 -803.064 -1706.97 -0.542423 0.805643 0.117945 70 66 73
-34.2828 -800.947 -1702.51 -0.558887 0.83901 0.0469365 68 66 73
-13.2767 -796.131 -1705.76 0.0479529 0.116245 -0.00181898 69 67 75
-13.7662 -791.543 -1706.33 0.413294 -0.0725347 -0.00956668 67 66 73
-156.52 -777.584 -1707.37 -0.911747 0.117723 -0.171001 49 47 56
-157.379 -764.275 -1702.27 -0.845596 -0.0746515 0.173431 43 42 52
-160.857 -752.063 -1705.13 -0.727078 -0.205819 0.506565 37 35 49
-162.211 -742.995 -1705.91 -0.653961 -0.245512 0.51034 37 35 49
-164.138 -727.383 -1704.37 -0.298894 -0.10694 -0.209459 37 37 50
-370.848 -202.415 -1707.74 -0.858356 0.315916 -0.0027916 134 138 154
-363.629 -188.052 -1704.58 -0.75618 0.396102 -0.140491 138 141 157
-360.712 -176.193 -1701.91 -0.829584 0.223977 0.360734 155 157 173
-358.726 -164.398 -1706.88 -0.711138 0.45068 0.301419 130 132 149
-357.47 -151.05 -1703.4 -0.813942 0.0668942 0.0839935 129 130 146
-354.647 -139.88 -1705.37 -0.737181 0.253005 0.247909 122 123 139
-354.02 -124.827 -1702.34 -0.79008 -0.294779 0.107481 113 113 129
-489.751 94.3526 -1708.11 -0.624576 -0.212939 0.452671 197 54 203
-482.902 95.099 -1707.22 -0.622209 -0.199027 0.454047 195 55 201
-465.756 95.2662 -1706.88 -0.629987 -0.204257 0.467869 197 53 203
-461.889 96.0671 -1704.11 -0.613344 -0.26587 0.541753 193 47 199
21.0493 -330.582 -1703.36 0.915787 -0.228758 -0.267862 135 137 153
22.6451 -326.124 -1701.73 0.931469 -0.208406 -0.271131 130 133 149
25.9816 -312.533 -1701.53 0.906653 -0.146454 -0.369517 133 137 152
25.3097 -304.799 -1703.8 0.871126 -0.0179228 -0.394921 138 142 157
25.4836 -298.242 -1702.64 0.898597 0.137748 -0.229623 136 141 156
18.9363 -284.043 -1706.21 0.885769 0.351583 -0.203232 132 137 152
15.0844 -270.955 -1705.89 0.880043 0.263447 -0.245125 128 134 149
13.2528 -264.175 -1708.3 0.907834 0.170354 -0.170988 132 137 152
10.8561 -245.86 -1705.94 0.885094 -0.049738 -0.130228 137 141 157
12.3804 -234.555 -1704.93 0.877376 -0.116363 -0.125593 137 141 156
6.19135 -211.232 -1706.05 0.939958 0.0957844 0.206007 136 140 155
10.0462 -228.122 -1704.79 0.914622 -0.00615089 0.083182 138 142 157
79.5064 160.137 -1706.16 0.620731 -0.052534 0.72945 133 138 155
74.0162 172.173 -1705.86 0.553234 0.184907 0.738305 141 138 153
63.3433 189.406 -1701.34 0.701577 0.367705 0.589806 143 38 129
61.7763 202.364 -1706.92 0.589649 0.329078 0.720794 86 13 177
65.0596 191.662 -1705.07 0.641052 0.319813 0.664486 141 33 127
47.1006 222.102 -1702.8 0.443026 0.225718 0.689677 55 8 207
52.1471 217.628 -1706.12 0.513855 0.398276 0.714753 188 10 76
45.1127 227.602 -1704.07 0.560011 0.375535 0.658567 54 10 210
-331.558 -753.21 -1696.63 -0.971722 -0.0395341 -0.0846222 62 60 71
-333.956 -740.327 -1697.22 -0.931013 -0.249293 -0.028987 63 62 72
-337.211 -732.264 -1697.02 -0.91755 -0.307181 0.0530646 62 61 71
-338.494 -726.416 -1694.48 -0.905623 -0.227467 0.254501 63 62 73
-342.457 -704.336 -1701.07 -0.977008 -0.0531103 -0.00915523 61 60 70
-343.164 -690.7 -1696.72 -0.936331 -0.0972636 0.0361112 60 59 70
-346.632 -676.588 -1698.79 -0.975466 -0.0969209 -0.0556485 61 59 69
-188.303 -785.666 -1696.86 0.67366 0.0990138 -0.711142 42 39 50
-193.147 -772.846 -1698.08 0.706626 0.175972 -0.700613 46 43 53
-191.743 -766.218 -1694.29 0.772474 0.0626399 -0.471324 47 45 54
-192.372 -745.487 -1700.89 0.869957 -0.329468 -0.229 41 40 50
-82.0174 -1192.39 -1695.19 0.610446 0.414306 -0.0142446 210 164 133
-90.318 -1178.35 -1696.9 0.713689 0.552523 0.287082 225 185 146
-88.3946 -1182.85 -1695.26 0.807336 0.390018 0.198823 223 183 146
-171.425 -1166.7 -1695.59 -0.81179 0.477847 0.322242 182 138 111
-163.769 -1154.51 -1695.2 -0.656657 0.644989 0.33411 203 153 117
-136.133 -1150.17 -1695.59 0.2052 0.795997 0.419193 218 170 125
-181.868 -1145.21 -1699.36 -0.197772 0.640451 0.600668 194 147 110
-171.737 -1141.88 -1700.72 -0.145441 0.687279 0.636766 198 151 112
-163.018 -1139.97 -1701.18 -0.377566 0.725418 0.540253 211 162 122
-183.242 -1122.67 -1698.35 0.0684624 0.586481 0.79715 181 134 98
-170.146 -1129.66 -1695.11 -0.0381894 0.622911 0.777458 193 146 107
-164.142 -1124.82 -1696.78 -0.0956515 0.586859 0.805855 196 150 111
-158.883 -1144.73 -1695.44 -0.300641 0.752335 0.500311 212 164 123
-139.724 -1141.4 -1699.59 0.220577 0.682192 0.471663 218 170 125
-141.266 -1134.45 -1694.05 0.580529 0.540188 0.359045 202 154 110
-142.909 -1127.48 -1695.24 0.563794 0.611086 0.469178 189 141 103
-103.234 -1169.96 -1695.86 0.626854 0.706184 0.342284 231 188 148
-122.078 -1157.1 -1697.33 0.43414 0.857596 0.276683 220 172 127
-115.714 -1159.86 -1695.86 0.490691 0.811358 0.265267 222 175 133
-97.1529 -1173.55 -1695.72 0.594236 0.72916 0.356619 229 188 148
-354.147 -117.251 -1700.55 -0.756696 -0.114479 0.502894 110 111 127
-369.495 -97.0209 -1700.84 -0.605037 -0.559459 0.478503 109 110 125
-360.366 -93.6519 -1695.2 -0.250621 -0.552683 0.768766 113 115 130
-357.793 -95.1891 -1695.92 -0.30107 -0.47512 0.752397 111 112 127
-370.285 -82.2626 -1701.33 -0.86248 0.309842 -0.184549 119 121 138
-369.799 -73.8335 -1694.99 -0.851956 0.0257747 -0.178497 119 120 136
-355.106 -65.4624 -1695.2 -0.794194 0.00668184 -0.502915 134 135 152
-353.026 -112.009 -1698.23 -0.717493 -0.0690295 0.601284 110 111 128
-345.98 -80.3093 -1695.23 -0.569334 0.430312 -0.689153 131 134 150
-353.166 -73.1252 -1697.68 -0.718281 0.187879 -0.589645 137 138 155
-341.043 -65.2625 -1694.13 -0.70649 0.0509496 -0.558349 123 124 142
-338.101 -67.6693 -1699.58 -0.750845 0.0263426 -0.497079 123 125 143
-365.141 -59.1658 -1699.44 -0.883052 -0.18959 -0.39459 132 134 150
-367.416 -47.6525 -1697.6 -0.946774 -0.126982 -0.143325 112 114 130
-367.027 -30.8147 -1698.79 -0.918215 -0.215157 0.263911 93 94 108
-366.577 -31.6021 -1694.95 -0.911855 -0.254378 0.210131 97 98 112
-360.56 -16.4639 -1699.56 -0.819364 -0.296971 -0.402324 120 122 139
-351.198 -62.2827 -1700.41 -0.756648 -0.0555929 -0.484304 128 129 146
-342.057 -58.9662 -1699 -0.809796 -0.260586 -0.472866 123 124 143
38.5532 38.8437 -1699.29 0.879768 -0.402982 0.235236 145 146 163
39.942 45.143 -1696.28 0.915316 -0.325846 0.230546 148 150 167
43.1653 55.5982 -1698.4 0.930755 -0.232245 0.279439 150 146 169
47.2182 72.1349 -1697.78 0.870531 -0.301337 0.377009 213 61 221
51.2345 79.5963 -1699.18 0.81193 -0.381734 0.426452 178 117 193
52.9109 87.5582 -1694.14 0.810672 -0.371549 0.443751 157 145 175
57.2141 98.155 -1694.51 0.825271 -0.260997 0.488092 150 156 169
28.337 207.461 -1695.28 0.682513 0.0781085 0.682014 0 0 255
-79.7128 267.729 -1695.87 0.025577 0.595588 0.75691 137 140 155
-107.873 293.58 -1697.77 0.581101 0.454309 0.660043 174 147 128
-96.6843 277.328 -1694.83 0.56969 0.55625 0.600612 154 148 151
-85.2034 275.044 -1700.77 0.358312 0.565501 0.72663 137 137 148
-99.6185 284.985 -1698.4 0.56753 0.513676 0.643902 156 144 141
-114.645 301.438 -1697.61 0.714914 0.171375 0.627517 196 158 125
-115.128 304.85 -1697.91 0.743733 0.00413057 0.624686 198 158 125
-564.797 141.554 -1705.68 0.742812 -0.241927 0.440035 48 41 42
-403.062 301.779 -1699.02 -0.0150403 0.588325 0.470841 200 159 190
-395.2 303.512 -1695.27 0.106391 0.621016 0.649709 204 162 197
-389.966 301.825 -1704.76 -0.0929551 0.625001 0.270829 206 177 199
-383.861 304.367 -1695.37 0.161875 0.702647 0.568745 219 221 237
-374.191 302.981 -1707.07 -0.0506353 0.665507 0.386129 212 201 218
-369.862 304.639 -1698.13 0.119685 0.665828 0.680645 218 221 237
-277.571 -1164.06 -1688.74 -0.669904 0.598212 -0.226052 213 164 128
-270.985 -1155.87 -1689.54 -0.618849 0.602734 -0.383017 200 149 114
-265.839 -1149.41 -1688.54 -0.638033 0.555603 -0.444948 204 149 112
-259.238 -1146.59 -1691.61 -0.579342 0.582903 -0.291199 204 150 112
-252.523 -1139.04 -1692.02 -0.697378 0.538549 -0.123281 210 154 116
-247.573 -1132.52 -1690.9 -0.677943 0.611496 0.185322 214 156 118
-225.786 -1165.61 -1689.4 0.755999 0.619496 0.158451 218 172 131
-229.554 -1157.27 -1691.12 0.653147 0.682329 0.227497 223 179 136
-222.797 -1149.21 -1692.49 0.646016 0.586015 0.343965 219 173 131
-209.417 -1153.69 -1688.79 0.30566 0.669623 0.366246 206 160 121
-205.37 -1154.68 -1688.45 0.153069 0.690225 0.401104 200 154 116
-187.441 -1153.71 -1687.73 -0.13585 0.64484 0.401015 198 151 115
-236.359 -1125.16 -1689.31 -0.41193 0.715247 0.487734 203 151 113
-225.167 -1120.72 -1690.22 -0.29627 0.795001 0.478086 197 146 107
-214.082 -1124.38 -1688.52 0.00257261 0.669043 0.649906 197 149 109
-201.815 -1128.1 -1691.27 0.147807 0.682309 0.690717 198 151 110
-193.321 -1131.2 -1690.42 0.114942 0.729701 0.665164 193 146 109
-185.469 -697.807 -1688.54 0.587752 -0.202171 0.680848 41 40 51
-182.599 -696.126 -1692.21 0.427334 -0.215873 0.477588 38 37 48
-169.987 -698.455 -1690.88 -0.469503 -0.167357 0.564022 32 30 43
-173.904 -686.489 -1689.36 -0.105718 -0.300435 0.664215 33 30 43
-14.4958 -786.044 -1690.56 0.889255 -0.349964 0.0908804 67 66 74
-10.0922 -769.263 -1691.5 0.959557 -0.0662478 0.0813241 61 60 68
-10.3307 -762.467 -1688.88 0.975196 0.00951827 0.0538305 60 59 67
-9.06315 -750.96 -1688.12 0.976035 -0.10353 0.0286269 60 59 68
-7.24003 -737.841 -1688.3 0.957247 -0.00980389 0.213507 63 63 72
-7.15604 -721.311 -1688.27 0.898926 -0.105599 0.39612 66 66 76
2.52534 -499.274 -1692.89 0.936538 0.328991 -0.0886539 68 67 79
1.37075 -482.626 -1691.22 0.987466 0.055177 -0.00851135 69 68 80
1.14338 -479.799 -1688.25 0.980797 0.110242 -0.00507547 69 68 80
-0.175 -464.583 -1691.88 0.971813 0.0703544 0.153282 64 63 75
2.30721 -451.684 -1690.43 0.962966 -0.236737 0.0756967 56 55 67
6.63225 -433.483 -1691.3 0.943753 -0.221846 0.22971 63 62 73
8.21885 -422.707 -1690.55 0.948161 -0.149861 0.259408 65 64 76
8.73919 -422.313 -1692.13 0.95319 -0.134786 0.243715 65 64 76
9.67947 -406.925 -1694.01 0.966553 0.0866826 0.157467 64 63 75
7.84313 -386.235 -1691.07 0.921851 0.0145016 0.225634 66 64 79
6.44152 -375.984 -1688.43 0.957006 0.104303 0.192029 58 56 69
-219.948 394.941 -1690.09 -0.799795 -0.430048 -0.25985 162 99 71
-229.753 408.102 -1693.07 -0.860159 -0.328599 -0.128706 173 111 83
-236.34 415.119 -1693.92 -0.688091 -0.648162 -0.296892 174 113 89
-235.032 425.834 -1687.94 -0.691585 -0.208836 0.554833 206 140 115
-244.091 455.312 -1690.04 -0.724881 -0.624253 0.122898 74 53 52
-249.085 458.639 -1690.73 -0.739667 -0.627622 -0.0251387 55 40 44
-247.332 474.988 -1689.61 -0.731343 0.386486 -0.0167616 49 39 46
-236.329 440.294 -1688.82 -0.780775 -0.145528 0.406467 172 110 91
-239.815 444.306 -1693.54 -0.88016 -0.189306 0.119297 122 85 76
-239.009 488.577 -1693.75 -0.679348 0.483771 0.216193 57 45 50
-66.5425 260.299 -1688.63 -0.0824917 0.551532 0.821332 123 126 143
-65.7415 267.441 -1692.42 -0.22172 0.597793 0.750149 132 137 152
-52.9421 266.07 -1688.72 -0.246273 0.448702 0.834736 108 111 125
-20.1734 243.975 -1690.21 0.410027 0.603656 0.655514 181 98 113
-25.9045 250.082 -1690.85 0.42639 0.595033 0.648186 166 120 139
-38.0233 258.589 -1690.88 0.258389 0.585729 0.728389 146 145 165
-39.9125 262.376 -1692.22 0.274785 0.555466 0.727655 140 141 159
-7.15327 237.834 -1689.63 0.238542 0.596384 0.759457 118 0 136
-4.59067 240.991 -1693.48 0.17687 0.563495 0.801795 154 0 97
21.0017 214.653 -1687.88 0.50804 0.232107 0.791774 0 0 255
27.5122 213.203 -1692.58 0.631917 -0.0943591 0.738491 0 0 255
28.9707 215.179 -1692.93 0.540884 -0.163944 0.773138 0 0 255
29.9248 220.127 -1691.15 0.298387 -0.130157 0.853958 0 0 255
21.3062 229.415 -1690.29 0.132703 0.216043 0.924404 10 0 245
20.8132 238.982 -1693.23 -0.00888947 0.444286 0.836676 78 0 177
23.3742 229.708 -1690.61 0.164891 0.210288 0.911897 6 0 249
-15.5625 242.323 -1690.8 0.328632 0.603831 0.702789 184 46 89
-64.5579 269.764 -1693.21 -0.256926 0.623583 0.721948 130 134 149
-53.8101 272.923 -1692.46 -0.173656 0.630243 0.723536 105 109 124
58.6086 105.33 -1693.95 0.764361 -0.198076 0.591411 154 158 174
57.742 109.77 -1691.41 0.69167 -0.173441 0.680099 158 156 177
59.1694 125.6 -1689.18 0.665933 -0.13705 0.686165 202 80 212
-282.625 -845.626 -1686.87 -0.924803 -0.147327 0.354766 175 128 90
-286.18 -835.405 -1685.3 -0.877807 -0.388863 0.259622 130 99 77
-292.455 -826.343 -1685.6 -0.789788 -0.544898 0.243911 90 73 70
-205.268 -801.722 -1680.7 0.686125 -0.321976 0.228938 60 56 62
-198.4 -794.573 -1681.65 0.707545 -0.17113 -0.0196614 58 52 59
-198.354 -786.263 -1681.54 0.813289 -0.0464082 -0.185517 50 47 56
-186.994 -748.364 -1684.93 0.851207 -0.177363 -0.16649 45 45 54
-189.175 -734.554 -1682.92 0.894169 -0.183078 0.137036 46 45 55
-188.04 -717.509 -1687.21 0.955184 -0.150135 0.115811 43 42 53
-189.381 -715.78 -1683.61 0.934605 -0.138594 0.217347 46 45 56
-189.305 -703.931 -1681.36 0.865832 -0.130856 0.405339 47 46 57
-340.291 -673.226 -1680.82 -0.926171 -0.0327644 0.342967 63 61 75
-341.86 -656.125 -1685.62 -0.941716 0.0529198 0.253445 62 61 74
-339.202 -649.771 -1680.84 -0.941022 0.0878839 0.272091 59 58 72
-338.908 -646.455 -1681.6 -0.924019 0.0660509 0.313872 57 55 70
-343.662 -622.988 -1681.83 -0.905418 -0.225345 0.333263 58 57 71
-346.244 -617.359 -1685.38 -0.928798 -0.252915 0.26322 61 60 74
-348.936 -601.189 -1685.1 -0.942267 -0.119876 0.25475 63 63 76
-88.0064 -899.52 -1683.24 -0.758759 0.0456193 0.405039 154 111 84
-87.9603 -886.813 -1685.36 -0.472569 -0.242983 0.755852 141 108 89
-94.3355 -874.679 -1680.82 -0.863889 -0.178084 0.261882 138 103 81
-97.8911 -865.955 -1687.19 -0.962592 0.012809 0.0174517 140 102 79
-97.0009 -856.047 -1681.53 -0.935337 0.286985 0.0074256 114 93 80
-88.9043 -844.785 -1682.5 -0.808417 0.560557 0.0155836 86 76 74
-170.262 -837.088 -1687.58 0.0783023 0.548065 -0.709227 106 80 64
-180.133 -827.558 -1685.68 0.447695 0.36869 -0.768096 111 84 70
-177.815 -821.48 -1683.58 0.42956 0.182884 -0.802595 110 84 71
-168.317 -822.306 -1682.84 -0.230285 0.179028 -0.751801 95 77 69
-167.793 -817.001 -1682.81 -0.263307 0.0542115 -0.779427 90 76 69
-173.342 -814.708 -1682.19 0.205239 0.00631122 -0.850502 94 77 69
-177.947 -803.541 -1684.69 0.496674 -0.13658 -0.8336 65 57 57
-162.848 -811.403 -1686.49 -0.673153 0.00451083 -0.668454 83 73 71
-162.323 -800.358 -1687.9 -0.626885 -0.0620503 -0.705459 66 59 63
-176.245 -791.259 -1685.95 0.458136 0.000481425 -0.838646 41 39 47
-165.318 -798.385 -1685.42 -0.348859 -0.0588907 -0.82417 63 56 60
-162.616 -788.559 -1686.47 -0.405238 0.0471036 -0.636934 52 48 56
-146.279 -805.734 -1685.86 -0.606697 -0.308473 0.327487 57 53 59
-148.196 -800.859 -1686.4 -0.601182 -0.343277 0.402404 56 53 59
-375.767 -258.235 -1684.53 -0.844145 -0.352985 0.360554 133 135 151
-380.193 -251.857 -1686.77 -0.869577 -0.333289 0.246153 128 130 146
-372.804 -241.679 -1682.49 -0.735924 0.511255 0.307981 142 145 161
-364.028 -230.981 -1682.46 -0.844609 0.30145 0.284963 137 139 155
-362.464 -217.455 -1682.79 -0.892052 0.0807867 0.305472 135 137 153
-364.213 -206.328 -1686.46 -0.819168 -0.012472 0.414976 139 141 157
-365.223 -195.602 -1684.8 -0.883891 -0.0548128 0.253867 143 145 161
-360.659 -184.59 -1680.75 -0.808806 0.410686 0.221645 143 145 161
-357.988 -170.862 -1684.56 -0.931673 0.183283 -0.051089 151 153 168
-357.09 -158.895 -1683.7 -0.942917 0.0129108 -0.147256 139 140 156
-356.209 -150.054 -1685.19 -0.949264 0.0151856 -0.169395 134 135 151
-356.173 -135.537 -1682.34 -0.929473 0.0396959 -0.0196126 122 123 140
-388.295 48.9961 -1686.85 0.429544 -0.588935 -0.191452 84 55 76
-357.917 85.4617 -1686.02 0.578476 -0.602313 -0.220601 80 45 72
-361.688 88.6707 -1683.28 0.708353 -0.723684 -0.0605626 80 32 68
-341.176 91.6595 -1682.79 -0.615087 -0.144405 -0.616797 158 126 170
-617.018 144.461 -1682.62 0.131238 -0.0803228 0.892606 130 91 83
-598.332 149.068 -1685.57 0.120314 -0.111541 0.884768 134 92 84
-602.002 150.463 -1682.97 0.119301 -0.0980174 0.888104 132 92 84
-585.194 154.217 -1682.45 0.113922 -0.106189 0.889291 135 93 85
-581.135 155.953 -1681.62 0.106118 -0.111281 0.898759 133 93 85
-561.864 163.709 -1682.16 0.265491 -0.566104 0.740036 109 84 70
-555.167 166.769 -1682.33 0.260001 -0.697931 0.619502 108 83 73
-542.479 169.539 -1685.7 0.121157 -0.865453 0.444727 101 80 76
-229.146 402.827 -1682.74 -0.806325 -0.394851 -0.0938692 190 123 92
-227.757 400.619 -1686.73 -0.736965 -0.58324 -0.330459 173 106 75
-229.93 416.199 -1684.82 -0.756515 -0.0500737 0.423561 210 142 116
-220.826 421.115 -1681.69 -0.64974 0.293224 0.732974 200 132 107
-223.535 425.632 -1683.3 -0.611538 0.0526244 0.754053 201 133 108
-224.25 433.109 -1682.71 -0.572994 -0.153067 0.759992 193 123 98
-242.607 459.679 -1682.4 -0.632134 -0.488389 0.454876 76 56 54
-244.024 464.409 -1681.15 -0.637347 -0.246643 0.574909 63 48 50
-245.223 474.933 -1686.5 -0.706081 0.37216 0.29494 51 41 47
-237.038 448.703 -1686.08 -0.814368 -0.291548 0.380145 149 102 88
-238.605 454.866 -1682.32 -0.73379 -0.495483 0.358244 103 73 66
-239.034 477.751 -1683.24 -0.691093 0.427188 0.435704 51 43 48
-237.818 485.2 -1687.55 -0.660061 0.604979 0.301592 49 41 46
-62.3034 256.343 -1684.63 -0.0955818 0.551693 0.805888 118 121 138
-50.6711 259.161 -1685.77 -0.241889 0.439797 0.860285 114 116 132
-43.2707 251.065 -1683.84 0.098041 0.636799 0.740629 149 153 170
-35.3526 251.65 -1687.13 0.252966 0.659325 0.697742 160 151 169
-24.1985 244.111 -1685.52 0.487763 0.607001 0.607607 190 93 104
-3.52083 226.449 -1680.59 0.263299 0.447514 0.811922 9 0 246
-14.3101 228.801 -1680.73 0.392599 0.395308 0.807747 110 0 144
-17.6576 236.937 -1685.06 0.447288 0.547114 0.685488 188 24 77
-2.69253 230.238 -1684.34 0.314664 0.533568 0.757526 60 0 195
12.2797 216.464 -1683.63 0.553118 0.373913 0.74293 0 0 255
9.17221 223.461 -1685.82 0.496963 0.408653 0.763356 2 0 253
47.6639 109.746 -1683.04 0.669765 -0.0180226 0.733468 198 95 209
48.1126 118.9 -1681.88 0.512121 -0.0986937 0.838553 184 108 198
52.1212 121.776 -1683.66 0.484657 -0.121914 0.854182 186 103 199
57.4849 123.246 -1686.81 0.584933 -0.147378 0.774021 206 74 215
-5.25323 -825.33 -1681.73 0.736648 -0.282553 0.0169838 69 66 73
-4.34651 -827.163 -1682.7 0.689368 -0.241073 0.0212719 69 66 73
-243.832 513.594 -1681.88 -0.689633 0.0132801 0.309244 104 79 74
-243.637 518.452 -1682.52 -0.662995 0.0639069 0.337254 107 81 76
-238.685 492.727 -1685.81 -0.651079 0.415706 0.286737 64 51 54
-240.48 502.952 -1692.22 -0.675499 0.193708 0.336198 92 70 68
-338.547 -668.877 -1675.31 -0.956203 0.0129189 0.262165 63 60 74
-338.918 -658.958 -1674.65 -0.951683 0.00977265 0.268236 61 59 73
-337.959 -642.869 -1679.32 -0.917028 0.0728069 0.32594 54 52 67
-342.234 -622.926 -1675.03 -0.911327 -0.306758 0.218241 62 61 74
-338.824 -633.2 -1680.6 -0.865674 -0.0896071 0.480945 51 49 65
-345.656 -609.814 -1676.45 -0.951241 -0.167869 0.202625 66 65 78
