ply
format ascii 1.0
comment Created by Open3D
element vertex 1397
property double x
property double y
property double z
property uchar red
property uchar green
property uchar blue
end_header
-497.532 106.208 -1284 114 105 135
-494.199 106.067 -1283 135 127 160
-491.259 106.01 -1283 134 127 160
-488.323 105.953 -1283 144 135 166
-486.148 106.061 -1285 156 150 181
-482.841 105.923 -1284 160 155 186
-479.543 105.784 -1283 174 169 198
-476.997 105.811 -1284 156 151 182
-474.081 105.756 -1284 136 131 162
-471.171 105.702 -1284 124 119 149
-467.9 105.565 -1283 111 110 141
-465.363 105.593 -1284 129 129 159
-462.825 105.622 -1285 113 113 143
-460.288 105.651 -1286 108 108 140
-457.751 105.68 -1287 107 108 140
-455.566 105.792 -1289 109 109 141
-453.026 105.822 -1290 120 121 152
-450.835 105.934 -1292 106 107 138
-447.945 105.883 -1292 101 100 133
-445.404 105.913 -1293 105 104 137
-442.863 105.944 -1294 117 116 149
-440.321 105.976 -1295 123 122 155
-437.104 105.844 -1294 110 109 141
-434.23 105.794 -1294 105 104 135
-431.361 105.745 -1294 112 109 140
-428.496 105.696 -1294 108 104 135
-424.647 105.402 -1291 112 107 138
-421.47 105.273 -1290 118 110 141
-418.3 105.143 -1289 147 140 172
-415.461 105.096 -1289 168 162 195
-412.306 104.967 -1288 166 161 192
-409.795 105.002 -1289 156 151 182
-407.599 105.119 -1291 129 124 155
-405.398 105.236 -1293 115 111 143
-402.88 105.271 -1294 129 125 157
-401.29 105.551 -1298 113 106 138
-398.764 105.587 -1299 106 99 131
-396.238 105.624 -1300 101 94 126
-393.408 105.579 -1300 108 103 133
-390.582 105.535 -1300 116 110 141
-387.461 105.41 -1299 97 91 123
-384.941 105.448 -1300 108 103 132
-382.125 105.405 -1300 134 128 158
-379.605 105.443 -1301 157 150 180
-376.794 105.401 -1301 176 169 201
-374.274 105.44 -1302 160 153 185
-370.897 105.236 -1300 130 123 154
-368.664 105.357 -1302 114 106 137
-365.583 105.235 -1301 102 93 124
-362.789 105.194 -1301 105 97 129
-360.275 105.234 -1302 105 96 129
-357.759 105.275 -1303 102 93 126
-354.97 105.235 -1303 107 97 129
-351.914 105.115 -1302 112 102 134
-349.133 105.076 -1302 125 116 148
-346.089 104.957 -1301 105 96 128
-343.053 104.838 -1300 90 81 113
-340.286 104.8 -1300 92 84 116
-338.041 104.924 -1302 103 97 129
-335.275 104.886 -1302 136 131 163
-332.513 104.849 -1302 141 133 163
-330.512 105.054 -1305 149 141 171
-328.503 105.259 -1308 166 157 187
-325.985 105.303 -1309 178 170 200
-323.713 105.428 -1311 143 135 164
-321.435 105.554 -1313 108 99 130
-318.909 105.599 -1314 99 88 121
-316.141 105.564 -1314 114 101 136
-313.375 105.529 -1314 118 105 138
-310.613 105.494 -1314 96 83 116
-307.853 105.46 -1314 125 113 146
-305.095 105.427 -1314 145 132 163
-302.571 105.474 -1315 114 101 132
-299.816 105.44 -1315 110 97 128
-297.065 105.408 -1315 139 126 156
-294.092 105.295 -1314 128 115 144
-291.126 105.183 -1313 175 161 189
-287.727 104.911 -1310 117 102 130
-284.778 104.799 -1309 121 104 132
-281.62 104.608 -1307 165 151 178
-278.26 104.338 -1304 182 169 196
-275.126 104.147 -1302 120 107 134
-272.212 104.038 -1301 112 99 126
-269.304 103.928 -1300 111 97 124
-266.403 103.819 -1299 146 133 160
-263.711 103.79 -1299 135 122 149
-261.222 103.841 -1300 99 85 112
-258.334 103.733 -1299 102 89 114
-255.648 103.705 -1299 147 135 159
-252.771 103.598 -1298 124 112 136
-249.899 103.49 -1297 91 79 103
-246.652 103.224 -1294 108 96 120
-243.609 103.038 -1292 151 141 166
-240.576 102.852 -1290 141 131 157
-237.921 102.826 -1290 97 84 115
-235.087 102.721 -1289 109 96 126
-232.258 102.616 -1288 145 131 160
-229.436 102.511 -1287 155 141 170
-226.62 102.407 -1286 109 95 125
-223.809 102.303 -1285 106 93 122
-221.005 102.199 -1284 137 123 151
-218.206 102.096 -1283 184 170 195
-215.414 101.993 -1282 135 116 142
-212.627 101.89 -1281 128 109 134
-209.682 101.708 -1279 134 115 141
-206.909 101.606 -1278 173 153 178
-203.982 101.425 -1276 202 182 207
-201.065 101.244 -1274 165 147 169
-198.314 101.143 -1273 141 122 145
-195.568 101.043 -1272 147 127 152
-193.283 101.18 -1274 169 149 175
-190.842 101.239 -1275 209 190 216
-188.546 101.378 -1277 196 180 204
-185.806 101.278 -1276 148 131 156
-183.503 101.417 -1278 153 133 159
-180.769 101.318 -1277 153 133 159
-178.179 101.299 -1277 200 181 207
-175.316 101.121 -1275 210 191 217
-172.87 101.182 -1276 173 154 180
-170.153 101.084 -1275 154 135 161
-167.705 101.145 -1276 150 129 158
-165.125 101.127 -1276 197 176 205
-162.546 101.11 -1276 215 194 223
-159.968 101.093 -1276 180 159 188
-157.269 100.996 -1275 157 138 166
-154.696 100.98 -1275 152 131 160
-151.886 100.805 -1273 188 167 195
-149.437 100.868 -1274 211 195 220
-146.754 100.773 -1273 175 158 183
-144.19 100.757 -1273 158 139 165
-141.516 100.663 -1272 153 134 161
-138.957 100.648 -1272 172 153 181
-136.291 100.554 -1271 215 196 224
-133.736 100.54 -1271 191 171 198
-131.181 100.525 -1271 152 132 158
-128.628 100.512 -1271 165 145 171
-126.076 100.498 -1271 154 134 160
-123.525 100.485 -1271 204 184 209
-120.975 100.472 -1271 210 190 215
-118.333 100.38 -1270 164 145 170
-115.786 100.367 -1270 165 145 170
-113.33 100.434 -1271 157 137 162
-110.784 100.422 -1271 190 170 195
-108.239 100.411 -1271 217 197 222
-105.777 100.478 -1272 175 155 180
-103.15 100.388 -1271 149 131 159
-100.608 100.377 -1271 154 135 163
-97.9883 100.288 -1270 168 147 176
-95.5242 100.356 -1271 206 187 216
-92.9837 100.346 -1271 197 180 208
-90.5863 100.495 -1273 151 132 158
-88.0433 100.485 -1273 154 135 161
-85.6354 100.634 -1275 147 128 154
-83.2201 100.783 -1277 182 163 189
-80.7343 100.853 -1278 168 149 174
-78.2453 100.923 -1279 117 95 118
-75.7529 100.994 -1280 134 114 136
-73.1427 100.907 -1279 179 161 183
-70.5923 100.9 -1279 158 139 164
-67.9892 100.813 -1278 107 88 113
-65.4419 100.806 -1278 119 100 128
-62.8951 100.799 -1278 127 110 136
-60.396 100.872 -1279 179 163 188
-57.8483 100.865 -1279 189 173 198
-55.3442 100.938 -1280 116 100 125
-52.7953 100.933 -1280 121 105 130
-50.2076 100.848 -1279 116 100 125
-47.6243 100.764 -1278 163 147 172
-45.01 100.602 -1276 186 172 199
-42.4041 100.439 -1274 147 133 161
-39.8691 100.435 -1274 120 106 135
-37.3344 100.431 -1274 114 100 130
-34.8 100.427 -1274 139 125 156
-32.2658 100.424 -1274 181 168 197
-29.7553 100.499 -1275 158 145 174
-27.1771 100.338 -1273 116 103 132
-24.665 100.415 -1274 118 104 132
-22.1318 100.412 -1274 129 115 142
-19.5987 100.41 -1274 185 173 199
-17.0658 100.408 -1274 174 162 188
-14.5331 100.406 -1274 126 113 140
-12.0004 100.405 -1274 123 109 136
-9.48279 100.561 -1276 104 90 117
-6.94631 100.56 -1276 168 149 177
-4.41342 100.639 -1277 189 170 198
-1.87658 100.717 -1278 137 118 146
0.664221 100.796 -1279 125 106 134
3.20649 100.796 -1279 125 106 133
5.75329 100.875 -1280 144 125 152
8.29114 100.797 -1279 185 167 195
10.8422 100.877 -1280 155 138 166
13.3867 100.878 -1280 112 98 125
15.9437 100.959 -1281 121 107 133
18.5048 101.039 -1282 130 114 139
21.0537 101.042 -1282 178 163 190
23.6211 101.123 -1283 185 171 198
26.1724 101.125 -1283 125 106 134
28.7462 101.207 -1284 128 110 138
31.2998 101.21 -1284 125 108 138
33.9064 101.371 -1286 177 163 192
36.493 101.454 -1287 166 152 180
39.0838 101.537 -1288 119 105 132
41.7435 101.778 -1291 115 100 129
44.3468 101.861 -1292 131 115 145
46.9546 101.945 -1293 184 165 193
49.5283 101.95 -1293 163 144 172
52.1831 102.113 -1295 120 103 131
54.7616 102.119 -1295 124 109 136
57.4291 102.282 -1297 127 112 139
60.1514 102.525 -1300 179 165 192
62.8862 102.768 -1303 147 133 160
65.5327 102.854 -1304 120 106 133
68.1839 102.94 -1305 114 97 127
70.8937 103.105 -1307 155 140 169
73.556 103.192 -1308 173 160 187
76.2811 103.357 -1310 120 107 132
79.0147 103.523 -1312 122 108 133
81.6948 103.611 -1313 122 108 135
84.4437 103.778 -1315 170 155 182
87.135 103.866 -1316 159 142 170
89.6946 103.796 -1315 112 95 123
92.3212 103.806 -1315 115 98 126
95.0207 103.895 -1316 138 121 149
97.725 103.984 -1317 176 162 191
100.358 103.994 -1317 140 127 156
103.226 104.242 -1320 107 97 126
106.027 104.411 -1322 106 96 124
108.837 104.581 -1324 142 132 160
111.487 104.592 -1324 169 160 190
114.224 104.684 -1325 128 119 148
117.055 104.854 -1327 109 99 127
119.894 105.025 -1329 111 98 129
122.466 104.958 -1328 164 151 182
125.506 105.288 -1332 138 125 156
128.178 105.301 -1332 107 96 127
130.851 105.315 -1332 96 85 116
133.526 105.329 -1332 150 140 168
136.61 105.66 -1336 142 133 162
139.607 105.912 -1339 106 97 127
142.617 106.164 -1342 114 105 135
145.749 106.496 -1346 167 157 188
148.678 106.67 -1348 131 119 152
151.616 106.845 -1350 157 146 179
154.448 106.94 -1351 151 140 172
157.286 107.036 -1352 104 93 124
160.13 107.132 -1353 111 100 132
162.978 107.229 -1354 177 167 199
165.833 107.326 -1355 181 174 204
168.692 107.423 -1356 174 166 197
171.431 107.441 -1356 157 148 179
174.427 107.618 -1358 137 128 162
177.173 107.637 -1358 138 129 163
179.92 107.656 -1358 120 111 145
182.668 107.675 -1358 116 107 141
185.554 107.774 -1359 113 104 138
188.446 107.874 -1360 114 105 139
191.484 108.053 -1362 142 136 172
194.532 108.232 -1364 143 137 173
197.3 108.253 -1364 131 125 161
200.07 108.275 -1364 134 128 164
202.544 108.138 -1362 163 157 193
205.313 108.16 -1362 174 168 204
208.084 108.182 -1362 172 162 199
211.166 108.363 -1364 168 158 195
214.415 108.625 -1367 154 144 182
217.996 109.045 -1372 159 149 186
221.277 109.308 -1375 138 128 165
224.409 109.491 -1377 113 102 140
227.551 109.674 -1379 112 102 141
230.704 109.858 -1381 118 109 148
233.528 109.883 -1381 131 125 161
236.354 109.909 -1381 139 132 168
239.182 109.934 -1381 119 113 149
241.837 109.881 -1380 115 109 145
244.312 109.748 -1378 112 106 143
247.499 109.934 -1380 133 127 164
250.333 109.961 -1380 139 132 169
253.353 110.068 -1381 127 117 155
256.379 110.175 -1382 122 112 150
259.599 110.363 -1384 118 111 148
262.45 110.391 -1384 146 139 176
265.878 110.659 -1387 147 140 177
268.739 110.688 -1387 140 133 170
271.799 110.797 -1388 138 132 170
274.668 110.827 -1388 133 128 166
278.138 111.097 -1391 114 109 148
281.421 111.287 -1393 108 103 141
284.715 111.478 -1395 142 137 175
288.226 111.749 -1398 163 158 195
291.543 111.94 -1400 166 163 199
294.661 112.052 -1401 170 167 203
298.21 112.325 -1404 164 161 197
301.774 112.598 -1407 152 146 183
305.137 112.791 -1409 132 126 163
308.292 112.905 -1410 126 120 157
311.233 112.939 -1410 118 112 149
313.732 112.813 -1408 111 105 143
316.674 112.847 -1408 105 99 138
319.392 112.802 -1407 121 115 152
322.109 112.757 -1406 125 119 156
325.286 112.873 -1407 119 113 149
327.771 112.748 -1405 131 124 161
330.25 112.624 -1403 146 143 176
332.724 112.5 -1401 152 149 181
335.192 112.376 -1399 148 145 176
336.929 112.011 -1394 169 164 195
339.38 111.888 -1392 190 185 214
341.334 111.604 -1388 181 177 204
343.769 111.481 -1386 184 182 205
346.449 111.439 -1385 188 186 208
349.885 111.638 -1387 202 200 222
353.078 111.758 -1388 182 177 203
356.535 111.958 -1390 172 170 194
359.486 111.998 -1390 175 172 196
362.701 112.119 -1391 185 180 205
366.449 112.401 -1394 188 186 211
370.479 112.764 -1398 178 174 200
375.33 113.371 -1405 174 169 196
381.291 114.3 -1416 160 158 184
386.217 114.908 -1423 152 149 181
391.176 115.517 -1430 139 136 170
394.79 115.722 -1432 124 121 157
398.139 115.848 -1433 115 112 148
401.215 115.892 -1433 107 104 153
404.013 115.856 -1432 102 98 155
406.526 115.74 -1430 91 89 148
409.034 115.624 -1428 95 94 153
411.537 115.508 -1426 96 94 154
414.325 115.473 -1425 100 97 157
417.113 115.439 -1424 103 99 164
419.31 115.242 -1421 109 105 171
421.796 115.127 -1419 104 100 167
424.276 115.013 -1417 114 110 177
426.45 114.817 -1414 136 134 197
428.919 114.703 -1412 170 168 220
431.383 114.589 -1410 161 159 207
434.458 114.638 -1410 161 159 211
437.227 114.605 -1409 194 191 224
440.307 114.655 -1409 246 243 255
444.022 114.868 -1411 254 252 255
448.298 114.48 -1405 253 252 254
-848.37 103.86 -1160 0 0 0
-846.204 103.924 -1162 0 0 0
-841.862 103.72 -1161 253 232 210
-839.704 103.785 -1163 253 230 209
-836.826 103.761 -1164 249 227 206
-833.237 103.648 -1164 248 224 203
-830.372 103.625 -1165 250 224 203
-828.932 103.78 -1168 249 223 202
-824.658 103.581 -1167 250 222 200
-819.698 103.293 -1165 250 221 199
-816.862 103.272 -1166 251 223 201
-810.544 102.81 -1162 252 224 202
-809.122 102.967 -1165 253 226 204
-803.543 102.595 -1162 252 228 202
-802.813 102.841 -1166 254 231 205
-799.327 102.735 -1166 255 234 210
-796.534 102.718 -1167 255 238 215
-793.067 102.613 -1167 255 240 218
-790.962 102.684 -1169 255 239 217
-786.835 102.492 -1168 255 238 219
-785.407 102.652 -1171 255 243 217
-782.636 102.637 -1172 255 245 219
-781.199 102.797 -1175 255 246 221
-777.768 102.695 -1175 255 245 219
-775.007 102.681 -1176 255 245 218
-771.593 102.58 -1176 255 245 214
-768.842 102.567 -1177 255 241 214
-765.445 102.468 -1177 253 235 211
-763.352 102.543 -1179 250 228 206
-759.968 102.444 -1179 251 224 204
-755.952 102.259 -1178 251 219 201
-753.868 102.335 -1180 248 217 197
-751.145 102.325 -1181 246 208 189
-749.06 102.402 -1183 241 195 180
-746.972 102.479 -1185 232 183 171
-744.882 102.556 -1187 227 179 166
-742.165 102.547 -1188 224 181 162
-740.074 102.625 -1190 221 178 163
-737.361 102.617 -1191 151 120 108
-734.652 102.609 -1192 87 85 84
-731.946 102.601 -1193 92 99 102
-729.854 102.681 -1195 94 100 106
-727.152 102.674 -1196 93 102 109
-725.663 102.839 -1199 91 96 106
-723.564 102.919 -1201 67 68 77
-720.863 102.914 -1202 106 92 99
-717.567 102.823 -1202 196 154 157
-715.469 102.904 -1204 236 187 179
-711.594 102.728 -1203 247 201 188
-708.322 102.639 -1203 252 204 189
-705.644 102.636 -1204 253 204 189
-702.968 102.633 -1205 251 205 190
-699.135 102.46 -1204 248 206 189
-696.471 102.458 -1205 246 206 187
-693.809 102.456 -1206 248 207 187
-692.295 102.625 -1209 251 206 187
-689.064 102.539 -1209 249 206 186
-688.109 102.793 -1213 247 206 186
-685.447 102.792 -1214 247 205 184
-682.788 102.792 -1215 246 204 182
-679.013 102.623 -1214 243 203 182
-676.363 102.624 -1215 241 200 181
-673.717 102.625 -1216 237 197 176
-669.97 102.458 -1215 233 192 171
-667.882 102.545 -1217 232 188 168
-664.152 102.379 -1216 234 188 164
-662.066 102.466 -1218 233 185 161
-658.895 102.385 -1218 231 183 159
-656.27 102.388 -1219 230 180 157
-653.647 102.392 -1220 229 178 153
-652.092 102.565 -1223 229 176 150
-649.468 102.569 -1224 229 173 147
-646.846 102.574 -1225 231 172 146
-644.751 102.663 -1227 229 170 141
-642.653 102.752 -1229 229 170 142
-639.512 102.674 -1229 231 172 145
-636.895 102.681 -1230 229 175 144
-634.795 102.771 -1232 231 175 144
-631.666 102.694 -1232 227 168 138
-628.544 102.619 -1232 224 163 133
-626.445 102.71 -1234 220 155 126
-623.837 102.717 -1235 199 145 120
-621.23 102.726 -1236 189 141 122
-617.626 102.569 -1235 175 134 121
-614.032 102.412 -1234 160 128 125
-609.46 102.09 -1231 119 99 107
-604.91 101.769 -1228 96 80 90
-599.891 101.365 -1224 95 84 96
-596.361 101.211 -1223 95 86 98
-592.842 101.058 -1222 100 92 103
-589.817 100.987 -1222 86 79 90
-587.759 101.083 -1224 73 65 79
-585.697 101.178 -1226 78 69 85
-583.156 101.191 -1227 86 78 92
-580.144 101.123 -1227 179 170 182
-577.607 101.137 -1228 250 238 248
-574.605 101.069 -1228 232 220 230
-571.142 100.919 -1227 196 185 195
-567.691 100.77 -1226 106 92 114
-565.171 100.785 -1227 99 85 107
-562.652 100.801 -1228 110 97 119
-560.59 100.899 -1230 120 108 129
-557.618 100.834 -1230 141 129 150
-555.102 100.85 -1231 115 103 125
-551.241 100.622 -1229 115 103 126
-548.288 100.558 -1229 134 122 146
-544.896 100.412 -1228 174 164 190
-542.398 100.431 -1229 179 170 196
-539.901 100.449 -1230 165 155 181
-537.404 100.468 -1231 142 132 160
-534.907 100.488 -1232 128 118 146
-532.412 100.507 -1233 108 98 126
-530.346 100.609 -1235 106 96 124
-527.849 100.629 -1236 119 109 136
-525.353 100.649 -1237 116 106 132
-522.857 100.67 -1238 119 111 139
-520.362 100.691 -1239 136 126 154
-517.867 100.713 -1240 125 115 143
-515.788 100.816 -1242 153 140 171
-514.117 101 -1245 172 159 192
-512.849 101.265 -1249 184 171 204
-511.974 101.612 -1254 176 165 196
-511.488 102.039 -1260 155 144 175
-510.979 102.466 -1266 134 123 154
-510.045 102.812 -1271 113 102 135
-509.093 103.159 -1276 91 82 113
-507.727 103.424 -1280 81 73 103
-505.952 103.608 -1283 76 72 105
-503.776 103.712 -1285 83 76 108
-501.207 103.736 -1286 97 89 120
-498.25 103.679 -1286 108 99 129
-495.683 103.703 -1287 121 114 146
-492.351 103.566 -1286 131 123 156
-489.789 103.591 -1287 130 121 154
-487.605 103.697 -1289 130 124 159
-484.289 103.562 -1288 126 121 155
-480.609 103.346 -1286 131 125 158
-478.056 103.372 -1287 119 113 148
-475.135 103.319 -1287 110 104 139
-471.851 103.185 -1286 104 99 130
-468.576 103.052 -1285 103 104 135
-466.035 103.08 -1286 130 131 162
-463.133 103.027 -1286 121 122 152
-460.594 103.056 -1287 105 105 137
-457.699 103.004 -1287 107 106 139
-455.868 103.193 -1290 113 114 146
-453.326 103.222 -1291 146 147 179
-450.784 103.251 -1292 145 146 178
-448.241 103.281 -1293 141 140 173
-445.698 103.311 -1294 148 147 180
-443.155 103.341 -1295 156 155 188
-440.272 103.292 -1295 164 163 198
-437.055 103.163 -1294 152 151 184
-434.182 103.115 -1294 141 140 173
-431.646 103.147 -1295 140 137 168
-428.778 103.099 -1295 145 141 172
-425.586 102.972 -1294 152 147 178
-422.076 102.766 -1292 160 155 186
-418.902 102.64 -1291 162 156 189
-415.737 102.514 -1290 171 165 199
-412.58 102.389 -1289 141 136 167
-410.067 102.423 -1290 105 99 130
-407.869 102.536 -1292 97 90 122
-405.98 102.729 -1295 109 103 137
-403.458 102.764 -1296 124 118 152
-401.554 102.958 -1299 112 105 137
-399.334 103.072 -1301 98 91 123
-396.499 103.028 -1301 105 98 130
-393.667 102.985 -1301 112 107 136
-391.14 103.021 -1302 139 134 164
-388.015 102.899 -1301 158 153 184
-385.49 102.936 -1302 157 152 183
-382.671 102.894 -1302 159 153 184
-380.438 103.01 -1304 156 149 179
-377.331 102.89 -1303 145 138 170
-374.232 102.77 -1302 115 108 139
-371.426 102.729 -1302 92 87 116
-368.907 102.768 -1303 91 83 113
-365.824 102.649 -1302 93 84 114
-363.307 102.688 -1303 105 96 128
-360.512 102.648 -1303 114 105 138
-357.994 102.688 -1304 105 96 130
-355.203 102.649 -1304 108 98 130
-351.875 102.454 -1302 105 95 128
-349.363 102.494 -1303 120 112 143
-346.317 102.378 -1302 112 104 136
-343.279 102.262 -1301 116 108 140
-340.51 102.225 -1301 135 130 161
-338.004 102.267 -1302 145 140 170
-335.238 102.23 -1302 170 165 195
-332.731 102.273 -1303 177 171 197
-330.223 102.316 -1304 147 140 168
-328.216 102.515 -1307 126 118 150
-325.7 102.559 -1308 122 114 147
-323.678 102.759 -1311 113 105 138
-321.645 102.959 -1314 98 89 123
-319.117 103.003 -1315 101 89 125
-316.347 102.969 -1315 103 89 127
-313.58 102.935 -1315 119 107 139
-311.052 102.98 -1316 145 133 164
-308.054 102.868 -1315 162 152 180
-305.527 102.914 -1316 149 137 166
-302.998 102.959 -1317 92 79 108
-300.24 102.927 -1317 109 97 128
-297.258 102.817 -1316 137 124 154
-294.284 102.707 -1315 129 116 145
-291.094 102.52 -1313 181 167 196
-287.476 102.176 -1309 125 110 139
-284.095 101.912 -1306 135 117 146
-280.944 101.726 -1304 180 166 193
-277.803 101.54 -1302 184 171 198
-274.674 101.354 -1300 118 105 132
-271.973 101.325 -1300 115 101 128
-268.861 101.141 -1298 113 99 126
-266.374 101.19 -1299 161 148 176
-263.479 101.084 -1298 158 145 173
-260.993 101.134 -1299 112 98 125
-258.306 101.106 -1299 106 93 118
-255.621 101.079 -1299 148 135 160
-252.743 100.975 -1298 143 130 155
-249.872 100.87 -1297 98 85 110
-246.435 100.533 -1293 109 97 121
-243.583 100.429 -1292 149 138 163
-240.55 100.248 -1290 152 142 168
-237.896 100.223 -1290 101 88 119
-234.879 100.042 -1288 106 93 123
-232.053 99.94 -1287 134 120 149
-229.411 99.9156 -1287 156 142 171
-226.595 99.8139 -1286 112 98 127
-223.785 99.7125 -1285 105 92 121
-221.153 99.6891 -1285 123 110 137
-218.523 99.6659 -1285 170 156 182
-215.559 99.4879 -1283 118 100 126
-212.604 99.3103 -1281 114 95 121
-209.824 99.2106 -1280 117 98 124
-206.725 98.9562 -1277 158 138 164
-203.801 98.7796 -1275 190 170 194
-200.886 98.6034 -1273 139 120 143
-198.137 98.505 -1272 117 98 122
-195.393 98.4069 -1271 121 101 126
-193.111 98.5413 -1273 146 127 152
-190.522 98.5212 -1273 190 172 197
-188.378 98.7335 -1276 170 154 178
-185.786 98.7139 -1276 118 100 125
-183.196 98.6945 -1276 125 105 132
-180.749 98.7528 -1277 125 106 132
-178.439 98.8886 -1279 184 165 191
-175.71 98.7928 -1278 192 174 200
-173.122 98.7745 -1278 145 127 153
-170.535 98.7565 -1278 129 110 136
-167.819 98.6616 -1277 120 100 127
-165.366 98.7215 -1278 175 155 183
-162.656 98.627 -1277 195 175 203
-159.952 98.533 -1276 154 134 161
-157.252 98.4392 -1275 133 114 141
-154.801 98.5001 -1276 126 105 134
-151.989 98.3298 -1274 169 149 178
-149.421 98.314 -1274 190 175 200
-146.623 98.1443 -1272 149 132 157
-143.949 98.052 -1271 127 108 135
-141.279 97.96 -1270 119 100 128
-138.724 97.9454 -1270 145 126 154
-136.062 97.854 -1269 193 174 202
-133.511 97.8399 -1269 162 142 169
-131.064 97.9033 -1270 123 102 128
-128.513 97.8898 -1270 140 120 146
-125.964 97.8766 -1270 133 113 139
-123.512 97.9406 -1271 191 171 196
-121.057 98.005 -1272 195 176 201
-118.413 97.9155 -1271 144 125 150
-115.865 97.9034 -1271 141 121 146
-113.318 97.8914 -1271 130 110 135
-110.772 97.8798 -1271 177 157 182
-108.227 97.8685 -1271 206 186 211
-105.683 97.8574 -1271 163 144 169
-103.058 97.7695 -1270 142 124 153
-100.518 97.759 -1270 147 129 158
-97.9008 97.6717 -1269 162 143 171
-95.439 97.7387 -1270 204 186 215
-92.9739 97.8059 -1271 193 176 205
-90.5768 97.9502 -1273 150 131 157
-88.034 97.941 -1273 156 137 163
-85.6936 98.1628 -1276 153 134 160
-83.2114 98.231 -1277 192 173 199
-80.7891 98.3763 -1279 184 165 190
-78.2371 98.3681 -1279 133 111 134
-75.7449 98.437 -1280 153 133 156
-73.135 98.3524 -1279 197 178 202
-70.5848 98.345 -1279 175 156 181
-68.0353 98.3378 -1279 126 107 132
-65.435 98.2541 -1278 136 117 146
-62.9377 98.3243 -1279 139 121 149
-60.3898 98.318 -1279 189 171 198
-57.8874 98.3887 -1280 193 176 202
-55.3384 98.3828 -1280 129 112 137
-52.7485 98.3004 -1279 130 114 139
-50.1631 98.2182 -1278 125 109 134
-47.6192 98.2131 -1278 171 156 180
-45.0406 98.1316 -1277 193 179 206
-42.433 97.9733 -1275 160 146 173
-39.8962 97.9691 -1275 129 115 144
-37.3598 97.9651 -1275 123 109 139
-34.7964 97.8846 -1274 150 136 166
-32.2372 97.8042 -1273 196 182 211
-29.7289 97.8779 -1274 172 158 187
-27.1955 97.875 -1274 132 118 147
-24.6624 97.8723 -1274 133 119 147
-22.1468 97.9467 -1275 142 128 156
-19.5967 97.8677 -1274 196 183 209
-17.0775 97.9427 -1275 186 172 199
-14.543 97.9411 -1275 138 124 151
-12.018 98.0164 -1276 132 118 145
-9.48917 98.0922 -1277 117 103 130
-6.95648 98.1681 -1278 174 156 183
-4.41296 98.0908 -1277 197 178 205
-1.87639 98.1672 -1278 146 128 155
0.663628 98.1672 -1278 129 110 138
3.20616 98.2442 -1279 130 111 139
5.75718 98.3983 -1281 148 129 157
8.29675 98.3222 -1280 191 174 202
10.858 98.4768 -1282 162 145 173
13.4062 98.4782 -1282 121 107 134
15.942 98.4028 -1281 126 112 138
18.5029 98.4814 -1282 136 119 145
21.0515 98.4835 -1282 181 167 194
23.6002 98.4857 -1282 188 174 202
26.1697 98.5651 -1283 122 104 132
28.7656 98.7217 -1285 126 109 138
31.321 98.7248 -1285 124 107 137
33.9293 98.8818 -1287 180 165 194
36.5175 98.9623 -1288 166 152 181
39.1101 99.043 -1289 118 103 130
41.7391 99.2009 -1291 115 99 127
44.3422 99.2821 -1292 132 115 145
46.986 99.4406 -1294 181 162 190
49.5614 99.4456 -1294 160 141 169
52.2581 99.6814 -1297 118 101 129
54.8405 99.687 -1297 117 103 130
57.5559 99.9234 -1300 124 110 137
60.2377 100.083 -1302 174 160 187
62.9278 100.243 -1304 140 126 153
65.5762 100.327 -1305 110 96 123
68.2289 100.411 -1306 106 89 119
70.8321 100.418 -1306 153 137 166
73.4921 100.502 -1307 170 157 184
76.273 100.741 -1310 113 99 125
78.9462 100.826 -1311 124 110 135
81.6862 100.988 -1313 119 105 132
84.4348 101.15 -1315 169 154 181
87.1921 101.313 -1317 156 139 167
89.6852 101.168 -1315 107 90 118
92.3817 101.255 -1316 115 98 126
95.155 101.418 -1318 135 118 146
97.7148 101.351 -1317 175 161 189
100.423 101.439 -1318 136 122 152
103.215 101.603 -1320 104 93 124
106.016 101.768 -1322 103 93 122
108.825 101.933 -1324 145 135 163
111.56 102.021 -1325 167 158 187
114.385 102.187 -1327 119 110 138
117.131 102.276 -1328 102 92 120
119.972 102.443 -1330 112 100 130
122.638 102.455 -1330 162 149 180
125.587 102.699 -1333 138 125 156
128.261 102.712 -1333 110 99 130
130.936 102.726 -1333 97 88 118
133.612 102.74 -1333 158 148 176
136.493 102.908 -1335 143 134 163
139.592 103.231 -1339 108 99 129
142.602 103.477 -1342 118 109 139
145.734 103.8 -1346 170 160 191
148.662 103.97 -1348 134 122 155
151.712 104.217 -1351 129 118 151
154.546 104.31 -1352 170 159 191
157.386 104.403 -1353 131 120 151
159.994 104.343 -1352 134 123 155
162.961 104.514 -1354 169 159 191
165.815 104.608 -1355 129 121 152
168.674 104.703 -1356 152 142 174
171.792 104.952 -1359 159 149 181
174.794 105.125 -1361 172 163 196
177.545 105.143 -1361 180 172 205
180.165 105.085 -1360 143 135 169
182.783 105.026 -1359 112 104 138
185.535 105.046 -1359 106 98 132
188.426 105.143 -1360 122 114 148
191.183 105.163 -1360 132 126 162
194.369 105.415 -1363 105 99 135
197.279 105.513 -1364 95 89 125
200.196 105.611 -1365 110 104 140
202.671 105.477 -1363 141 135 171
205.744 105.653 -1365 138 132 168
208.52 105.675 -1365 162 152 189
211.608 105.852 -1367 174 164 202
214.863 106.107 -1370 186 177 215
218.608 106.594 -1376 185 177 213
221.736 106.772 -1378 143 134 170
225.037 107.028 -1381 119 108 146
228.187 107.207 -1383 111 100 140
231.013 107.232 -1383 122 112 151
233.503 107.101 -1381 147 141 177
236.329 107.126 -1381 158 150 187
238.983 107.073 -1380 156 147 184
241.636 107.021 -1379 155 149 185
244.463 107.047 -1379 150 145 181
247.652 107.228 -1381 164 158 195
250.669 107.332 -1382 145 138 175
253.876 107.514 -1384 129 121 158
256.722 107.541 -1384 124 116 153
260.134 107.801 -1387 131 124 161
263.37 107.985 -1389 147 141 178
266.616 108.168 -1391 125 118 155
269.679 108.274 -1392 110 102 139
272.553 108.303 -1392 112 106 144
275.825 108.488 -1394 109 103 142
278.908 108.595 -1395 103 99 138
282.199 108.781 -1397 115 113 149
285.5 108.967 -1399 134 130 166
289.225 109.309 -1403 123 117 154
292.761 109.574 -1406 139 136 172
295.891 109.683 -1407 159 156 192
299.24 109.871 -1409 156 153 189
302.6 110.059 -1411 132 126 163
305.537 110.091 -1411 117 111 148
308.478 110.124 -1411 122 116 153
311.2 110.079 -1410 129 123 160
313.475 109.878 -1407 139 133 171
316.19 109.834 -1406 150 144 183
318.904 109.789 -1405 144 138 175
321.616 109.746 -1404 127 121 157
324.789 109.858 -1405 126 120 156
327.269 109.737 -1403 139 132 168
329.979 109.694 -1402 146 142 176
332.45 109.573 -1400 138 135 168
334.916 109.452 -1398 140 137 168
336.651 109.097 -1393 162 159 188
338.856 108.898 -1390 163 159 188
341.05 108.7 -1387 153 148 176
343.484 108.58 -1385 165 163 188
346.412 108.617 -1385 184 182 206
350.351 108.968 -1389 209 207 230
353.294 109.006 -1389 204 202 228
357.778 109.516 -1395 205 203 223
360.74 109.555 -1395 210 208 226
364.226 109.751 -1397 225 221 240
367.723 109.948 -1399 227 226 243
373.353 110.774 -1409 220 218 235
378.761 111.522 -1418 210 207 226
384.749 112.429 -1429 189 187 207
388.345 112.628 -1431 171 168 195
392.774 113.064 -1436 156 153 183
395.85 113.107 -1436 132 129 163
399.206 113.229 -1437 126 123 158
401.731 113.115 -1435 118 116 161
404.533 113.08 -1434 115 113 164
406.765 112.888 -1431 103 102 158
409.275 112.775 -1429 107 105 166
411.78 112.662 -1427 105 102 164
414.279 112.549 -1425 106 103 166
416.774 112.436 -1423 123 120 184
419.264 112.324 -1421 125 121 187
421.452 112.133 -1418 129 125 191
424.229 112.1 -1417 135 131 197
426.704 111.989 -1415 160 158 220
429.175 111.877 -1413 175 173 226
431.946 111.845 -1412 168 166 216
435.025 111.893 -1412 178 176 228
437.488 111.783 -1410 227 224 252
439.633 111.593 -1407 248 245 253
442.084 111.483 -1405 255 253 255
444.847 111.453 -1404 252 252 252
-846.794 100.986 -1158 0 0 0
-842.45 100.787 -1157 0 0 0
-838.125 100.589 -1156 253 229 206
-833.817 100.392 -1155 252 228 206
-831.683 100.456 -1157 251 226 202
-829.548 100.52 -1159 253 225 200
-826.699 100.498 -1160 251 225 201
-824.565 100.564 -1162 252 224 203
-823.136 100.715 -1165 254 224 201
-814.665 100.004 -1158 254 225 202
-811.851 99.9842 -1159 254 227 205
-806.95 99.7066 -1157 255 230 207
-804.154 99.6882 -1158 255 234 209
-802.055 99.7562 -1160 255 237 207
-799.954 99.8246 -1162 255 239 209
-797.852 99.8932 -1164 255 243 217
-793.701 99.7049 -1163 255 242 218
-790.245 99.603 -1163 255 243 218
-788.83 99.7584 -1166 255 243 217
-785.386 99.6575 -1166 255 246 221
-782.623 99.6426 -1167 255 243 220
-780.532 99.7134 -1169 255 244 220
-778.439 99.7845 -1171 255 244 221
-774.359 99.6005 -1170 255 244 221
-772.271 99.6723 -1172 255 243 218
-770.182 99.7444 -1174 255 240 210
-767.437 99.7319 -1175 252 233 207
-764.697 99.7198 -1176 249 225 203
-761.96 99.7082 -1177 249 221 200
-759.871 99.7815 -1179 252 220 202
-755.856 99.6015 -1178 251 217 200
-753.772 99.6756 -1180 247 214 195
-751.05 99.6656 -1181 248 207 187
-748.965 99.7403 -1183 242 194 180
-747.508 99.8995 -1186 236 188 178
-745.415 99.9747 -1188 235 188 177
-743.321 100.05 -1190 232 191 174
-741.224 100.126 -1192 236 197 180
-739.126 100.202 -1194 185 153 139
-735.792 100.11 -1194 88 90 88
-733.694 100.186 -1196 90 96 100
-730.984 100.18 -1197 83 86 93
-727.669 100.089 -1197 79 88 94
-724.967 100.083 -1198 89 94 105
-721.666 99.9942 -1198 82 83 95
-718.374 99.9057 -1198 84 73 83
-716.881 100.068 -1201 161 134 140
-715.381 100.23 -1204 212 169 161
-712.098 100.142 -1204 227 181 171
-708.234 99.9722 -1203 233 186 173
-706.143 100.052 -1205 237 190 176
-702.882 99.966 -1205 235 191 177
-699.629 99.8806 -1205 232 192 177
-698.118 100.044 -1208 232 194 178
-693.724 99.7941 -1206 232 192 175
-693.928 100.206 -1212 238 193 175
-690.689 100.122 -1212 235 192 174
-688.025 100.122 -1213 234 192 173
-685.928 100.204 -1215 233 192 172
-683.267 100.204 -1216 231 190 170
-680.048 100.121 -1216 230 191 171
-676.281 99.9577 -1215 228 188 172
-674.743 100.123 -1218 223 183 166
-670.991 99.9604 -1217 218 177 160
-669.447 100.126 -1220 217 175 157
-666.256 100.047 -1220 216 173 152
-663.617 100.049 -1221 215 171 149
-659.898 99.8883 -1220 214 168 147
-656.729 99.8099 -1220 212 166 145
-654.104 99.8138 -1221 209 161 139
-652.014 99.8996 -1223 210 159 137
-649.39 99.9041 -1224 208 156 133
-647.824 100.072 -1227 211 155 132
-645.725 100.159 -1229 211 154 128
-643.622 100.245 -1231 210 154 129
-640.476 100.17 -1231 208 153 128
-637.854 100.176 -1232 206 153 124
-635.234 100.182 -1233 211 155 127
-632.104 100.107 -1233 206 149 121
-628.98 100.033 -1233 203 144 116
-627.386 100.203 -1236 209 146 118
-624.268 100.13 -1236 193 140 116
-621.66 100.138 -1237 185 137 118
-618.052 99.9847 -1236 172 129 115
-615.452 99.9935 -1237 151 118 114
-611.369 99.7604 -1235 108 89 95
-607.301 99.528 -1233 95 80 89
-601.78 99.0544 -1228 122 112 124
-597.753 98.8235 -1226 136 127 139
-593.743 98.5932 -1224 138 130 144
-590.713 98.5247 -1224 142 134 149
-587.69 98.4566 -1224 108 99 115
-585.629 98.5496 -1226 102 93 106
-583.563 98.6429 -1228 103 94 106
-580.549 98.5758 -1228 122 113 124
-578.481 98.6696 -1230 235 224 234
-575.473 98.6033 -1230 229 218 228
-571.541 98.3771 -1228 229 218 229
-568.088 98.2317 -1227 156 144 162
-565.566 98.2468 -1228 82 71 89
-563.045 98.2622 -1229 112 101 121
-560.981 98.3579 -1231 139 128 149
-558.46 98.3739 -1232 160 148 171
-555.939 98.3902 -1233 120 109 133
-552.523 98.2473 -1232 124 114 137
-549.563 98.1846 -1232 167 158 182
-545.721 97.963 -1230 200 193 219
-543.218 97.9808 -1231 154 147 174
-539.839 97.8399 -1230 111 104 131
-537.779 97.9379 -1232 90 82 108
-535.28 97.9567 -1233 92 83 110
-533.214 98.0551 -1235 112 100 128
-532.003 98.3125 -1239 105 97 124
-529.497 98.332 -1240 100 93 121
-526.992 98.3518 -1241 92 87 114
-524.909 98.4511 -1243 100 94 123
-522.822 98.5506 -1245 124 115 145
-519.896 98.4921 -1245 131 121 152
-517.805 98.5921 -1247 148 135 169
-515.711 98.6923 -1249 157 144 178
-514.022 98.8717 -1252 153 141 175
-512.325 99.0511 -1255 143 133 165
-511.43 99.3884 -1260 134 123 156
-510.114 99.6469 -1264 114 103 136
-509.586 100.063 -1270 117 106 140
-509.435 100.558 -1277 109 101 133
-507.669 100.737 -1280 82 75 107
-505.895 100.917 -1283 88 86 120
-504.112 101.097 -1286 99 93 125
-501.151 101.041 -1286 104 97 129
-498.194 100.986 -1286 109 100 132
-496.013 101.088 -1288 98 91 125
-493.444 101.112 -1289 93 86 120
-490.876 101.136 -1290 97 88 122
-489.064 101.317 -1293 94 89 124
-485.739 101.185 -1292 101 97 130
-482.05 100.975 -1290 113 110 142
-479.117 100.922 -1290 110 108 139
-475.82 100.791 -1289 109 107 138
-472.532 100.661 -1288 106 103 133
-469.253 100.531 -1287 98 100 130
-466.345 100.48 -1287 127 129 158
-463.442 100.429 -1287 136 139 169
-460.901 100.457 -1288 131 131 162
-458.359 100.484 -1289 145 145 176
-455.818 100.513 -1290 153 153 183
-453.276 100.541 -1291 175 176 206
-450.734 100.57 -1292 177 178 208
-448.538 100.676 -1294 157 158 190
-445.649 100.628 -1294 152 152 184
-443.106 100.657 -1295 144 144 175
-440.563 100.687 -1296 149 148 182
-437.344 100.562 -1295 135 133 166
-434.469 100.514 -1295 115 113 145
-431.598 100.467 -1295 119 116 146
-428.732 100.421 -1295 129 125 154
-425.869 100.375 -1295 134 129 157
-422.683 100.251 -1294 129 124 154
-419.505 100.129 -1293 120 115 146
-416.658 100.083 -1293 124 120 153
-413.175 99.8841 -1291 116 110 140
-410.658 99.9171 -1292 103 97 127
-408.456 100.028 -1294 106 99 130
-406.249 100.139 -1296 106 100 133
-403.726 100.172 -1297 117 111 143
-402.129 100.438 -1301 133 126 159
-399.597 100.472 -1302 135 129 161
-396.761 100.43 -1302 144 138 170
-393.927 100.387 -1302 150 144 177
-391.398 100.422 -1303 157 151 183
-388.271 100.304 -1302 166 159 191
-385.448 100.262 -1302 142 136 168
-382.923 100.298 -1303 124 118 149
-380.397 100.335 -1304 105 98 129
-377.291 100.218 -1303 95 86 118
-374.479 100.177 -1303 106 96 128
-371.671 100.138 -1303 106 96 126
-368.867 100.098 -1303 102 91 122
-366.066 100.06 -1303 99 89 119
-363.546 100.098 -1304 108 98 130
-361.026 100.136 -1305 129 120 153
-358.23 100.098 -1305 131 123 156
-355.982 100.213 -1307 133 125 156
-352.648 100.023 -1305 134 128 158
-349.862 99.9856 -1305 143 140 170
-346.546 99.7956 -1303 150 147 179
-343.506 99.6826 -1302 158 155 187
-340.736 99.6466 -1302 156 158 187
-338.227 99.6873 -1303 145 143 174
-335.46 99.6518 -1303 143 137 169
-333.207 99.7696 -1305 142 135 166
-330.948 99.8876 -1307 109 102 134
-328.432 99.9293 -1308 92 88 119
-325.915 99.9714 -1309 99 92 124
-323.89 100.166 -1312 118 110 143
-321.366 100.209 -1313 112 103 137
-319.083 100.328 -1315 104 94 128
-316.313 100.295 -1315 114 102 137
-313.547 100.262 -1315 145 133 165
-311.019 100.305 -1316 164 152 184
-308.255 100.273 -1316 141 129 159
-305.494 100.241 -1316 139 127 156
-302.966 100.285 -1317 115 103 132
-300.436 100.33 -1318 125 114 146
-297.227 100.147 -1316 141 129 159
-294.029 99.9637 -1314 140 129 156
-290.62 99.7051 -1311 193 177 207
-287.007 99.3709 -1307 145 128 158
-283.63 99.1132 -1304 156 138 167
-280.699 99.0079 -1303 196 181 209
-277.774 98.9029 -1302 190 177 204
-274.856 98.7982 -1301 140 127 156
-271.945 98.694 -1300 145 132 159
-269.04 98.59 -1299 147 134 159
-266.346 98.5623 -1299 191 178 207
-263.452 98.459 -1298 187 174 202
-260.765 98.4319 -1298 131 118 143
-258.08 98.405 -1298 117 104 130
-255.397 98.3785 -1298 149 135 162
-252.328 98.2007 -1296 158 144 171
-249.461 98.099 -1295 100 87 113
-246.219 97.8462 -1292 107 95 119
-243.369 97.7453 -1291 145 135 160
-240.338 97.5689 -1289 161 151 177
-237.687 97.5443 -1289 107 96 125
-235.037 97.52 -1289 103 91 120
-232.209 97.4203 -1288 130 116 145
-229.388 97.3209 -1287 165 151 178
-226.924 97.3731 -1288 114 101 128
-224.11 97.2743 -1287 97 86 113
-221.302 97.1758 -1286 116 105 131
-218.67 97.1533 -1286 165 151 178
-215.704 96.9799 -1284 122 104 130
-212.914 96.8824 -1283 119 100 126
-209.966 96.7097 -1281 123 102 131
-207.028 96.5373 -1279 161 141 166
-203.94 96.2899 -1276 192 172 195
-201.023 96.1183 -1274 140 120 143
-198.272 96.0223 -1273 119 99 122
-195.373 95.8514 -1271 121 101 127
-193.091 95.9823 -1273 149 132 156
-190.652 96.0381 -1274 191 175 199
-188.358 96.1696 -1276 174 155 180
-185.767 96.1504 -1276 127 108 134
-183.321 96.207 -1277 132 113 141
-180.589 96.113 -1276 131 112 138
-178.281 96.2454 -1278 188 169 195
-175.692 96.2273 -1278 189 173 198
-173.104 96.2096 -1278 138 121 147
-170.518 96.192 -1278 126 107 133
-168.064 96.2501 -1279 119 100 126
-165.349 96.1578 -1278 177 158 184
-162.639 96.0659 -1277 190 170 196
-160.06 96.0496 -1277 144 124 150
-157.483 96.0334 -1277 128 108 134
-154.664 95.8671 -1275 119 98 127
-151.854 95.7012 -1273 172 151 180
-149.171 95.6107 -1272 187 173 198
-146.493 95.5206 -1271 147 130 157
-143.821 95.4307 -1270 126 107 135
-141.153 95.3411 -1269 123 104 132
-138.709 95.402 -1270 148 129 157
-136.155 95.3881 -1270 189 170 198
-133.603 95.3744 -1270 158 137 164
-131.051 95.361 -1270 122 99 126
-128.601 95.4229 -1271 134 114 140
-125.951 95.335 -1270 127 107 133
-123.499 95.3974 -1271 182 162 187
-120.95 95.385 -1271 178 158 183
-118.308 95.2979 -1270 124 104 129
-115.762 95.2861 -1270 125 105 130
-113.218 95.2744 -1270 116 96 121
-110.674 95.2631 -1270 161 141 166
-108.046 95.1771 -1269 189 170 196
-105.589 95.2413 -1270 139 120 146
-102.967 95.1558 -1269 111 94 124
-100.507 95.2205 -1270 119 101 130
-97.968 95.2105 -1270 137 118 146
-95.5795 95.3506 -1272 180 162 191
-93.0376 95.3411 -1272 172 155 185
-90.6387 95.4818 -1274 119 99 125
-88.0251 95.3978 -1273 125 106 132
-85.6848 95.6138 -1276 125 106 132
-83.1377 95.6053 -1276 172 153 178
-80.7177 95.7469 -1278 169 150 175
-78.168 95.7389 -1278 127 105 128
-75.678 95.806 -1279 155 134 158
-73.1276 95.7986 -1279 207 188 213
-70.6328 95.8662 -1280 188 169 195
-68.0815 95.8592 -1280 150 131 157
-65.4796 95.7776 -1279 163 144 174
-62.9805 95.846 -1280 166 147 176
-60.3836 95.7649 -1279 210 191 219
-57.8815 95.8338 -1280 215 196 222
-55.2895 95.7533 -1279 166 147 173
-52.7431 95.7479 -1279 160 144 169
-50.1972 95.7427 -1279 155 140 165
-47.6144 95.6628 -1278 192 178 202
-45.0007 95.5085 -1276 214 200 227
-42.3954 95.3544 -1274 184 170 197
-39.8609 95.3503 -1274 161 147 176
-37.3267 95.3464 -1274 155 141 170
-34.7928 95.3428 -1274 178 164 193
-32.2592 95.3394 -1274 219 205 234
-29.7725 95.486 -1276 195 181 210
-27.2141 95.4083 -1275 161 147 176
-24.6793 95.4057 -1275 160 147 176
-22.1445 95.4034 -1275 161 148 177
-19.6101 95.4012 -1275 209 197 221
-17.0624 95.3246 -1274 203 190 214
-14.5301 95.323 -1274 161 147 172
-12.0168 95.4713 -1276 159 145 172
-9.48822 95.5451 -1277 146 132 159
-6.95034 95.5443 -1277 191 175 199
-4.41598 95.6185 -1278 210 194 218
-1.87767 95.693 -1279 173 157 182
0.663556 95.6181 -1278 158 139 167
3.20583 95.6932 -1279 153 135 163
5.75659 95.8432 -1281 166 148 176
8.29591 95.7691 -1280 209 192 220
10.8569 95.9197 -1282 185 168 196
13.4153 95.9958 -1283 144 131 158
15.9653 95.9972 -1283 148 134 161
18.5299 96.0738 -1284 159 142 169
21.0986 96.1507 -1285 199 185 213
23.6347 96.0781 -1284 202 188 217
26.1873 96.0806 -1284 148 133 162
28.7851 96.233 -1286 144 129 159
31.3422 96.2361 -1286 144 129 159
33.9522 96.389 -1288 191 177 204
36.5421 96.4674 -1289 181 167 194
39.1363 96.5461 -1290 146 130 155
41.7349 96.6249 -1291 141 124 152
44.372 96.779 -1293 151 134 162
46.9811 96.8584 -1294 200 181 208
49.5564 96.8633 -1294 179 161 188
52.2126 97.0181 -1296 138 121 149
54.8348 97.0984 -1297 135 121 148
57.5059 97.2538 -1299 139 125 152
60.1852 97.4095 -1301 190 176 203
62.9214 97.6403 -1304 162 147 175
65.5694 97.7217 -1305 135 120 148
68.222 97.8033 -1306 127 108 138
70.9333 97.9601 -1308 169 152 181
73.4846 97.8925 -1307 188 174 201
76.3235 98.1997 -1311 136 121 148
78.9382 98.2075 -1311 141 125 152
81.6778 98.3654 -1313 140 126 155
84.4261 98.5236 -1315 188 172 200
87.1831 98.6822 -1317 178 161 189
89.7442 98.6161 -1316 129 112 140
92.5126 98.7753 -1318 138 122 150
95.2177 98.8597 -1319 160 145 172
97.8531 98.8694 -1319 194 180 207
100.489 98.8794 -1319 154 140 168
103.283 99.0397 -1321 131 119 149
106.005 99.1252 -1322 126 115 144
108.732 99.2111 -1323 169 159 187
111.548 99.3722 -1325 185 175 202
114.373 99.5337 -1327 138 128 155
117.119 99.6203 -1328 125 115 143
119.96 99.7824 -1330 136 124 154
122.717 99.8697 -1331 183 171 201
125.574 100.032 -1333 156 144 175
128.248 100.045 -1333 129 119 149
130.922 100.058 -1333 129 119 148
133.598 100.072 -1333 182 172 200
136.683 100.386 -1337 157 147 176
139.578 100.55 -1339 125 116 146
142.375 100.639 -1340 126 117 147
145.719 101.105 -1346 173 163 194
148.867 101.42 -1350 137 126 158
151.808 101.586 -1352 123 112 145
154.645 101.676 -1353 165 154 186
157.37 101.692 -1353 129 118 149
160.096 101.708 -1353 119 108 141
162.944 101.8 -1354 167 156 189
165.92 101.967 -1356 123 113 145
168.781 102.059 -1357 112 102 134
171.9 102.302 -1360 115 105 137
174.905 102.47 -1362 159 150 182
177.527 102.413 -1361 172 164 197
180.147 102.356 -1360 173 166 200
182.899 102.374 -1360 159 151 186
185.652 102.393 -1360 134 127 161
188.545 102.488 -1361 137 131 165
191.163 102.432 -1360 124 118 154
194.206 102.602 -1362 104 98 134
197.259 102.773 -1364 106 99 135
200.175 102.868 -1365 129 122 159
202.799 102.813 -1364 132 125 162
206.024 103.061 -1367 115 108 144
208.957 103.157 -1368 118 108 145
212.206 103.405 -1371 123 113 150
215.468 103.653 -1374 151 144 181
218.903 103.977 -1378 143 135 170
221.874 104.075 -1379 119 111 146
225.177 104.325 -1382 108 98 136
228.164 104.423 -1383 103 92 131
230.989 104.447 -1383 111 100 140
233.648 104.395 -1382 124 117 154
236.475 104.419 -1382 120 110 148
238.958 104.293 -1380 139 128 166
241.611 104.242 -1379 159 152 189
244.615 104.342 -1380 181 177 213
247.985 104.595 -1383 194 190 226
251.187 104.772 -1385 173 167 204
254.216 104.873 -1386 162 156 193
257.438 105.051 -1388 151 145 182
260.669 105.229 -1390 144 138 175
263.721 105.332 -1391 134 127 166
266.971 105.511 -1393 117 109 148
270.039 105.614 -1394 120 110 148
272.721 105.566 -1393 126 119 158
275.994 105.746 -1395 124 118 157
279.278 105.927 -1397 118 115 152
282.573 106.108 -1399 134 133 169
286.287 106.44 -1403 138 136 172
290.019 106.774 -1407 125 121 158
293.355 106.956 -1409 116 113 149
296.701 107.138 -1411 112 109 145
300.058 107.321 -1413 105 102 138
302.997 107.352 -1413 108 103 140
306.155 107.46 -1414 103 98 135
308.882 107.416 -1413 102 98 134
311.388 107.296 -1411 116 110 147
313.887 107.177 -1409 135 129 167
316.157 106.981 -1406 170 164 203
318.643 106.862 -1404 173 167 204
321.353 106.819 -1403 170 164 200
324.292 106.853 -1403 172 166 202
326.535 106.658 -1400 174 168 203
329.238 106.617 -1399 155 152 184
331.703 106.499 -1397 145 141 173
334.401 106.457 -1396 152 148 179
336.374 106.187 -1392 175 171 201
339.063 106.146 -1391 162 158 186
340.768 105.8 -1386 158 153 180
343.447 105.76 -1385 156 154 178
346.375 105.796 -1385 169 168 190
350.819 106.291 -1391 182 181 202
354.274 106.481 -1393 188 186 206
358.509 106.901 -1398 211 209 220
362.511 107.245 -1402 231 229 239
367.055 107.742 -1408 248 245 253
370.838 108.011 -1411 250 249 255
377.817 109.199 -1426 250 249 255
381.925 109.545 -1430 249 247 255
387.131 110.199 -1438 238 237 247
391.017 110.47 -1441 204 202 222
394.373 110.588 -1442 168 166 190
396.91 110.477 -1440 146 143 174
400.274 110.596 -1441 127 124 159
402.527 110.408 -1438 127 125 167
404.771 110.22 -1435 131 130 176
407.006 110.033 -1432 122 121 174
409.517 109.923 -1430 113 111 173
411.735 109.736 -1427 113 110 173
414.235 109.626 -1425 116 112 177
416.729 109.516 -1423 122 120 184
419.219 109.407 -1421 129 126 190
422.001 109.375 -1420 132 128 193
424.782 109.343 -1419 146 142 207
427.563 109.311 -1418 170 168 228
430.343 109.28 -1417 171 170 226
433.735 109.403 -1418 168 167 221
436.21 109.296 -1416 184 183 235
439.302 109.343 -1416 224 222 244
442.264 107.939 -1396 254 254 253
-842.296 97.7825 -1152 0 0 0
-840.884 97.9286 -1155 0 0 0
-837.291 97.8208 -1155 252 227 204
-832.265 97.5444 -1153 251 226 204
-830.137 97.607 -1155 251 225 202
-828.009 97.67 -1157 251 224 198
-825.88 97.7332 -1159 250 227 203
-822.33 97.6282 -1159 254 227 209
-818.085 97.4397 -1158 255 226 207
-815.264 97.4202 -1159 255 229 207
-809.646 97.0652 -1156 255 232 211
-806.846 97.0468 -1157 255 236 213
-803.357 96.9452 -1157 255 241 212
-799.879 96.8441 -1157 255 244 218
-797.099 96.8273 -1158 255 245 216
-795.009 96.8944 -1160 255 244 218
-792.235 96.8784 -1161 255 244 218
-788.787 96.7794 -1161 255 244 218
-788.054 97.0142 -1165 255 243 218
-783.94 96.8329 -1164 255 242 218
-781.854 96.9016 -1166 255 242 221
-779.098 96.8876 -1167 255 242 221
-777.676 97.0399 -1170 255 240 218
-774.262 96.9437 -1170 255 238 212
-772.833 97.0965 -1173 253 233 206
-770.741 97.1666 -1175 250 224 199
-768.647 97.2369 -1177 250 222 204
-765.901 97.225 -1178 252 219 205
-762.512 97.1311 -1178 249 219 204
-760.421 97.2025 -1180 249 216 200
-755.762 96.9449 -1178 251 215 197
-753.678 97.0171 -1180 251 211 189
-751.593 97.0895 -1182 252 205 182
-750.138 97.2442 -1185 245 194 174
-748.676 97.399 -1188 245 194 180
-746.578 97.472 -1190 250 200 186
-744.479 97.5452 -1192 251 203 185
-741.133 97.4552 -1192 245 207 192
-739.035 97.5291 -1194 211 183 175
-735.702 97.44 -1194 86 81 79
-733.605 97.5145 -1196 85 86 87
-731.505 97.5892 -1198 80 83 88
-728.795 97.5827 -1199 85 91 99
-726.694 97.6581 -1201 82 87 96
-724.59 97.7336 -1203 85 83 93
-720.086 97.4847 -1201 74 66 76
-716.198 97.3177 -1200 114 101 110
-715.294 97.5564 -1204 165 138 140
-712.012 97.4714 -1204 192 157 154
-708.737 97.3869 -1204 202 165 160
-705.472 97.3028 -1204 206 171 164
-702.797 97.3 -1205 210 177 168
-701.287 97.4589 -1208 213 180 172
-699.191 97.5373 -1210 215 180 171
-695.366 97.3744 -1209 216 181 170
-694.417 97.6143 -1213 217 182 168
-690.606 97.4523 -1212 214 180 166
-688.51 97.5319 -1214 214 180 165
-686.975 97.692 -1217 216 181 167
-683.747 97.6115 -1217 215 181 168
-680.527 97.5316 -1217 215 183 172
-679.54 97.7725 -1221 215 182 170
-676.325 97.6932 -1221 208 175 163
-674.22 97.7744 -1223 202 170 158
-671.014 97.696 -1223 200 167 155
-667.816 97.6181 -1223 202 164 150
-664.082 97.4609 -1222 200 162 146
-659.82 97.2247 -1220 195 157 142
-656.652 97.1483 -1220 194 155 141
-654.027 97.152 -1221 188 150 136
-654.07 97.5537 -1227 190 147 132
-650.906 97.4784 -1227 189 144 129
-650.388 97.8004 -1232 188 143 126
-649.327 98.043 -1236 190 142 124
-646.684 98.0477 -1237 188 140 122
-642.482 97.8153 -1235 185 136 117
-639.333 97.7418 -1235 185 135 112
-635.676 97.5896 -1234 187 134 110
-632.03 97.4381 -1233 181 128 103
-629.417 97.445 -1234 179 127 101
-627.313 97.5312 -1236 184 129 104
-625.206 97.6176 -1238 173 125 103
-622.09 97.5466 -1238 166 121 104
-619.481 97.5548 -1239 161 118 104
-617.869 97.7206 -1242 145 114 109
-614.268 97.5722 -1241 110 92 97
-610.679 97.4242 -1240 100 86 94
-604.651 96.8843 -1234 129 120 132
-600.122 96.5807 -1231 116 109 120
-595.615 96.278 -1228 118 110 125
-591.611 96.0544 -1226 133 124 142
-588.583 95.9879 -1226 106 97 115
-586.517 96.0784 -1228 104 93 104
-584.447 96.1691 -1230 111 101 111
-581.428 96.1037 -1230 101 92 103
-578.886 96.1168 -1231 155 146 159
-575.876 96.0522 -1231 231 221 232
-571.942 95.8321 -1229 245 234 245
-568.486 95.6905 -1228 204 191 208
-565.502 95.6273 -1228 114 105 120
-562.982 95.6423 -1229 80 71 87
-560.462 95.6576 -1230 124 115 134
-558.397 95.7509 -1232 173 160 186
-556.328 95.8445 -1234 166 156 180
-552.909 95.7053 -1233 175 168 190
-550.393 95.7219 -1234 166 160 183
-546.991 95.5837 -1233 151 145 171
-544.923 95.6784 -1235 101 95 121
-541.534 95.541 -1234 73 68 95
-539.901 95.7136 -1237 81 76 101
-537.825 95.809 -1239 90 82 108
-536.177 95.9818 -1242 109 98 124
-534.52 96.1547 -1245 103 97 124
-532.854 96.3279 -1248 84 79 107
-530.754 96.4239 -1250 74 70 99
-528.229 96.443 -1251 79 75 104
