ply
format ascii 1.0
comment Created by Open3D
element vertex 1422
property double x
property double y
property double z
property uchar red
property uchar green
property uchar blue
end_header
-84.962 -616.458 -1249 54 63 91
-82.4087 -617.385 -1251 50 58 87
-79.7202 -617.328 -1251 54 61 90
-77.1556 -618.259 -1253 52 60 87
-74.286 -616.725 -1250 48 56 82
-71.659 -617.167 -1251 53 61 87
-68.8631 -616.13 -1249 56 65 91
-66.3943 -618.056 -1253 54 63 90
-63.858 -619.489 -1256 54 63 89
-61.3583 -621.417 -1260 53 65 91
-58.7022 -621.868 -1261 59 69 95
-56.1757 -623.8 -1265 64 73 99
-53.3788 -622.775 -1263 70 79 105
-50.7115 -623.231 -1264 74 83 109
-48.0403 -623.689 -1265 80 89 115
-45.3295 -623.656 -1265 85 93 117
-42.619 -623.625 -1265 86 94 118
-39.909 -623.596 -1265 87 95 119
-37.2287 -624.062 -1266 89 98 121
-34.4899 -623.543 -1265 97 106 130
-31.781 -623.52 -1265 101 111 134
-29.0492 -623.005 -1264 97 109 130
-26.3638 -623.479 -1265 97 109 130
-23.6555 -623.461 -1265 104 116 137
-20.9641 -623.938 -1266 103 115 134
-18.2254 -622.938 -1264 101 109 129
-15.4953 -621.941 -1262 103 109 129
-12.6928 -617.003 -1252 97 100 118
-192.623 -648.103 -1299 82 75 84
-189.926 -648.464 -1300 78 75 86
-187.083 -648.329 -1300 75 74 86
-184.384 -648.694 -1301 70 76 91
-180.984 -646.568 -1297 74 80 98
-177.74 -644.943 -1294 77 83 103
-174.782 -644.318 -1293 77 87 108
-171.697 -643.197 -1291 76 88 111
-168.491 -641.58 -1288 73 85 108
-165.815 -641.958 -1289 74 83 107
-162.629 -640.346 -1286 72 80 104
-159.708 -639.732 -1285 70 78 102
-156.547 -638.125 -1282 71 80 104
-153.161 -635.525 -1277 73 82 106
-150.034 -633.924 -1274 68 77 101
-146.922 -632.325 -1271 62 74 97
-144.164 -632.22 -1271 60 74 97
-141.185 -631.123 -1269 66 80 103
-138.216 -630.028 -1267 66 80 105
-135.578 -630.428 -1268 64 78 103
-132.622 -629.337 -1266 59 73 98
-129.881 -629.243 -1266 59 73 98
-127.142 -629.151 -1266 62 76 101
-124.207 -628.067 -1264 65 79 104
-121.378 -627.483 -1263 64 78 103
-118.461 -626.403 -1261 62 76 103
-115.278 -623.836 -1256 58 72 99
-112.477 -623.258 -1255 56 70 97
-109.33 -620.696 -1250 54 69 96
-106.463 -619.626 -1248 57 72 99
-103.522 -618.061 -1245 62 76 103
-100.675 -616.995 -1243 58 71 98
-97.9962 -616.924 -1243 52 64 91
-95.4714 -617.848 -1245 51 62 90
-92.9389 -618.773 -1247 54 64 93
-90.3262 -619.204 -1248 53 62 92
-87.5696 -618.644 -1247 51 60 90
-84.9544 -619.079 -1248 57 66 94
-82.4014 -620.011 -1250 51 59 88
-79.7769 -620.449 -1251 54 61 90
-77.2105 -621.385 -1253 52 58 85
-74.7551 -623.314 -1257 50 57 83
-72.0539 -623.262 -1257 51 59 85
-69.1879 -621.724 -1254 51 60 86
-66.6536 -623.163 -1257 54 63 89
-64.0561 -624.108 -1259 56 65 91
-61.4019 -624.559 -1260 56 68 93
-58.7439 -625.012 -1261 61 71 96
-56.0823 -625.467 -1262 69 78 104
-53.5014 -626.914 -1265 72 81 107
-50.8278 -627.373 -1266 75 84 109
-48.1124 -627.338 -1266 79 88 112
-45.3975 -627.304 -1266 85 93 117
-42.7504 -628.264 -1268 89 97 121
-40.032 -628.234 -1268 90 99 122
-37.314 -628.207 -1268 94 104 125
-34.569 -627.686 -1267 103 113 134
-31.8286 -627.167 -1266 103 113 134
-29.0699 -626.155 -1264 100 112 133
-26.3616 -626.135 -1264 101 113 134
-23.6349 -625.622 -1263 104 116 136
-20.9955 -627.587 -1267 104 114 133
-18.2527 -626.583 -1265 98 106 126
-15.5185 -625.58 -1263 98 104 123
-12.6917 -619.626 -1251 93 95 110
-193.059 -652.379 -1301 86 79 87
-190.794 -654.245 -1305 80 78 89
-187.65 -653.105 -1303 77 78 91
-184.517 -651.968 -1301 69 77 94
-181.254 -650.333 -1298 72 79 98
-178.006 -648.7 -1295 77 83 104
-175.043 -648.071 -1294 72 84 106
-171.954 -646.944 -1292 72 84 107
-169.005 -646.32 -1291 72 84 107
-165.934 -645.198 -1289 72 81 105
-163 -644.578 -1288 72 81 105
-160.071 -643.961 -1287 73 82 106
-156.538 -640.845 -1281 71 80 104
-153.032 -637.732 -1275 72 81 105
-150.142 -637.122 -1274 68 78 102
-147.143 -636.015 -1272 63 77 100
-143.927 -633.91 -1268 59 73 96
-141.509 -635.307 -1271 64 78 101
-138.534 -634.206 -1269 63 77 102
-135.675 -633.608 -1268 62 76 101
-132.927 -633.511 -1268 58 72 97
-130.18 -633.416 -1268 58 72 97
-127.133 -631.825 -1265 61 75 100
-124.493 -632.234 -1266 63 77 102
-121.369 -630.148 -1262 62 76 101
-118.452 -629.063 -1260 58 72 99
-115.545 -627.981 -1258 55 69 96
-112.378 -625.403 -1253 55 69 96
-109.409 -623.826 -1250 55 70 97
-106.283 -621.253 -1245 56 70 97
-103.429 -620.18 -1243 58 72 98
-100.828 -620.605 -1244 56 67 95
-98.0664 -620.035 -1243 55 66 94
-95.5398 -620.963 -1245 56 67 95
-92.9308 -621.394 -1246 60 69 97
-90.5358 -623.323 -1250 55 64 93
-87.7026 -622.262 -1248 53 62 92
-85.1514 -623.197 -1250 59 68 95
-82.6583 -624.632 -1253 53 61 89
-79.8979 -624.076 -1252 52 60 87
-77.6357 -627.508 -1259 51 57 85
-74.6896 -625.46 -1255 50 57 84
-72.2202 -627.401 -1259 50 58 83
-69.5135 -627.35 -1259 51 60 86
-67.0196 -629.294 -1263 53 62 88
-64.3055 -629.247 -1263 54 63 89
-61.7871 -631.195 -1267 56 66 93
-58.9724 -630.155 -1265 63 72 98
-56.2112 -629.616 -1264 69 78 103
-53.5396 -630.075 -1265 73 82 107
-50.8239 -630.037 -1265 78 86 111
-48.1848 -630.998 -1267 80 88 112
-45.5375 -631.96 -1269 83 91 115
-42.8484 -632.427 -1270 87 95 119
-40.1238 -632.397 -1270 92 100 124
-37.4289 -632.867 -1271 98 108 129
-34.6482 -631.846 -1269 104 114 133
-31.9017 -631.324 -1268 101 111 131
-29.1136 -629.808 -1265 101 111 132
-26.4012 -629.788 -1265 101 113 132
-23.6892 -629.771 -1265 101 112 131
-20.994 -630.252 -1266 105 113 133
-18.2657 -629.741 -1265 106 116 135
-15.5296 -628.733 -1263 101 108 126
-12.721 -623.745 -1253 83 84 97
-194.536 -660.199 -1310 84 77 86
-191.226 -658.546 -1307 80 78 90
-188.075 -657.401 -1305 76 77 92
-184.651 -655.25 -1301 69 79 97
-181.386 -653.606 -1298 71 78 98
-177.998 -651.461 -1294 73 79 99
-174.358 -648.313 -1288 69 81 104
-171.812 -649.193 -1290 71 83 107
-168.735 -648.063 -1288 70 82 107
-165.926 -647.941 -1288 72 81 105
-162.991 -647.319 -1287 72 82 107
-159.938 -646.196 -1285 72 82 107
-156.529 -643.567 -1280 73 82 106
-153.383 -641.946 -1277 72 83 106
-150.251 -640.328 -1274 68 79 102
-147.25 -639.215 -1272 63 77 100
-144.258 -638.104 -1270 60 74 99
-141.277 -636.996 -1268 62 76 100
-138.743 -637.899 -1270 61 75 100
-135.666 -636.293 -1267 61 75 100
-132.813 -635.693 -1266 59 73 98
-130.171 -636.1 -1267 59 73 98
-127.325 -635.505 -1266 62 76 101
-124.386 -634.41 -1264 62 76 101
-121.553 -633.819 -1263 63 76 101
-118.161 -630.22 -1256 60 74 101
-115.352 -629.634 -1255 55 69 96
-112.279 -627.544 -1251 53 67 94
-109.313 -625.96 -1248 54 69 96
-106.445 -624.879 -1246 57 71 98
-103.587 -623.8 -1244 59 71 96
-100.982 -624.227 -1245 54 65 93
-98.137 -623.152 -1243 58 68 96
-95.7622 -625.088 -1247 62 71 99
-92.9978 -624.518 -1246 61 70 98
-90.5285 -625.956 -1249 53 61 90
-87.6251 -624.388 -1246 52 59 88
-85.1445 -625.829 -1249 53 62 88
-82.5198 -626.269 -1250 50 59 85
-80.0831 -628.215 -1254 53 61 87
-77.383 -628.158 -1254 49 57 85
-74.8624 -629.606 -1257 50 58 84
-72.4443 -632.057 -1262 52 60 84
-69.7844 -632.507 -1263 53 61 87
-67.1209 -632.958 -1264 53 62 88
-64.4536 -633.411 -1265 56 65 91
-61.7827 -633.867 -1266 61 70 98
-59.0148 -633.322 -1265 67 76 101
-56.3406 -633.781 -1266 71 80 104
-53.6204 -633.742 -1266 75 84 108
-50.8604 -633.204 -1265 80 89 113
-48.2194 -634.169 -1267 84 92 116
-45.5703 -635.136 -1269 86 94 118
-42.8454 -635.105 -1269 91 99 123
-40.1525 -635.575 -1270 94 102 125
-37.4558 -636.048 -1271 100 110 131
-34.7004 -635.521 -1270 103 113 133
-31.8993 -633.996 -1267 103 113 132
-29.2035 -634.475 -1268 102 112 133
-26.4201 -632.953 -1265 103 115 134
-23.7062 -632.936 -1265 104 115 134
-21.0089 -633.42 -1266 105 113 133
-18.2643 -632.405 -1264 107 116 135
-15.5407 -631.893 -1263 97 103 120
-194.678 -663.513 -1310 83 77 87
-191.073 -660.839 -1305 83 81 94
-187.924 -659.688 -1303 80 82 98
-184.786 -658.539 -1301 72 82 102
-181.099 -655.368 -1295 70 77 98
-177.852 -653.719 -1292 65 70 92
-174.756 -652.578 -1290 68 80 104
-171.937 -652.451 -1290 70 82 106
-168.858 -651.315 -1288 68 80 105
-166.047 -651.193 -1288 68 77 101
-163.11 -650.567 -1287 67 78 102
-159.806 -648.427 -1283 67 79 104
-156.888 -647.806 -1282 70 79 103
-153.374 -644.661 -1276 70 81 105
-150.242 -643.035 -1273 66 78 101
-147.357 -642.421 -1272 62 76 99
-144.477 -641.81 -1271 58 72 96
-141.603 -641.201 -1270 57 71 96
-138.735 -640.594 -1269 62 76 101
-135.872 -639.989 -1268 62 76 101
-133.015 -639.386 -1267 60 74 99
-130.163 -638.786 -1266 59 73 98
-127.317 -638.188 -1265 61 75 101
-124.28 -636.583 -1262 61 75 101
-121.449 -635.989 -1261 62 74 99
-118.53 -634.893 -1259 58 72 99
-115.436 -632.791 -1255 57 71 98
-112.541 -631.7 -1253 56 70 97
-109.567 -630.106 -1250 54 69 96
-106.608 -628.516 -1247 56 70 97
-103.746 -627.431 -1245 59 71 96
-101.055 -627.357 -1245 56 67 95
-98.2872 -626.781 -1244 58 69 97
-95.7547 -627.718 -1246 61 70 98
-93.1398 -628.153 -1247 60 69 97
-90.594 -629.093 -1249 51 60 88
-87.8293 -628.525 -1248 54 61 90
-85.4108 -630.477 -1252 57 66 92
-82.9097 -631.926 -1255 51 60 86
-80.2688 -632.371 -1256 52 60 86
-77.439 -631.307 -1254 52 60 86
-74.8569 -632.258 -1256 54 62 87
-72.4392 -634.722 -1261 56 64 88
-69.669 -634.167 -1260 57 65 91
-67.1162 -635.627 -1263 56 64 90
-64.6022 -637.592 -1267 59 68 94
-61.8762 -637.546 -1267 65 74 101
-59.0574 -636.496 -1265 69 78 104
-56.3813 -636.958 -1266 73 82 106
-53.6591 -636.918 -1266 78 86 110
-50.9776 -637.383 -1267 83 91 115
-48.2162 -636.844 -1266 86 94 118
-45.6031 -638.319 -1269 90 98 122
-42.8763 -638.287 -1269 95 102 126
-40.1815 -638.76 -1270 96 104 127
-37.4828 -639.235 -1271 100 110 131
-34.8075 -640.215 -1273 102 112 132
-32.0483 -639.688 -1272 102 112 132
-29.3168 -639.666 -1272 103 113 133
-26.5228 -638.137 -1269 103 116 136
-23.7795 -637.616 -1268 108 120 140
-21.0407 -637.097 -1267 108 116 137
-18.263 -635.071 -1263 106 116 134
-193.929 -663.78 -1304 87 82 93
-190.92 -663.129 -1303 84 82 96
-187.773 -661.972 -1301 81 83 101
-184.495 -660.309 -1298 74 83 104
-181.371 -659.157 -1296 71 79 101
-177.983 -656.99 -1292 70 77 99
-174.885 -655.844 -1290 70 82 107
-171.93 -655.208 -1289 71 84 109
-168.85 -654.066 -1287 68 80 105
-166.039 -653.943 -1287 68 77 101
-162.976 -652.806 -1285 65 75 100
-160.172 -652.687 -1285 61 72 97
-157.002 -651.047 -1282 64 73 98
-153.727 -648.902 -1278 68 79 102
-150.943 -648.79 -1278 65 77 100
-148.044 -648.173 -1277 61 75 98
-144.924 -646.543 -1274 58 72 96
-142.041 -645.93 -1273 59 73 98
-138.945 -644.305 -1270 58 74 98
-135.971 -643.19 -1268 59 73 98
-133.112 -642.584 -1267 59 73 98
-130.052 -640.966 -1264 60 74 99
-127.309 -640.872 -1264 58 72 99
-124.37 -639.766 -1262 58 72 99
-121.441 -638.662 -1260 59 72 97
-118.145 -635.533 -1254 56 70 96
-115.428 -635.448 -1254 53 67 94
-112.533 -634.351 -1252 54 68 95
-109.647 -633.257 -1250 52 66 93
-106.771 -632.164 -1248 55 68 95
-103.905 -631.074 -1246 59 71 96
-101.292 -631.506 -1247 55 66 94
-98.5959 -631.433 -1247 56 67 95
-95.7475 -630.349 -1245 59 68 96
-93.0581 -630.28 -1245 59 68 96
-90.5874 -631.732 -1248 56 65 94
-87.7523 -630.655 -1246 57 66 95
-85.3364 -632.616 -1250 54 63 89
-82.7056 -633.061 -1251 50 58 84
-80.2632 -635.025 -1255 49 57 83
-77.8043 -636.992 -1259 51 56 83
-75.0306 -636.43 -1258 53 60 86
-72.4344 -637.388 -1260 55 63 89
-69.8856 -638.854 -1263 56 64 90
-67.3246 -640.321 -1266 57 65 91
-64.5981 -640.273 -1266 60 69 95
-61.9211 -640.733 -1267 65 74 100
-59.1937 -640.689 -1267 69 78 103
-56.4223 -640.141 -1266 72 81 105
-53.7404 -640.606 -1267 78 86 110
-51.0146 -640.568 -1267 87 95 119
-48.2511 -640.027 -1266 90 99 123
-45.6002 -641.003 -1268 93 101 125
-42.8398 -640.466 -1267 104 111 133
-40.2107 -641.952 -1270 110 117 139
-37.4804 -641.924 -1270 111 121 142
-34.8327 -643.414 -1273 107 117 138
-32.0968 -643.389 -1273 104 114 134
-29.3842 -643.873 -1274 102 112 131
-26.6466 -643.852 -1274 99 112 132
-23.8343 -641.812 -1270 105 117 138
-21.1058 -641.796 -1270 108 116 136
-18.3341 -640.266 -1267 99 109 125
-194.221 -667.606 -1305 88 82 93
-191.501 -667.974 -1306 83 80 93
-187.768 -664.765 -1300 84 86 104
-184.347 -662.582 -1296 78 85 105
-181.085 -660.913 -1293 73 81 102
-178.114 -660.269 -1292 74 82 106
-174.742 -658.095 -1288 70 84 109
-171.923 -657.966 -1288 73 86 111
-169.106 -657.84 -1288 68 80 105
-166.162 -657.206 -1287 68 77 101
-163.096 -656.063 -1285 69 78 103
-160.041 -654.922 -1283 66 75 101
-156.995 -653.785 -1281 66 75 101
-153.84 -652.139 -1278 67 78 102
-151.29 -653.047 -1280 62 74 97
-148.269 -651.916 -1278 57 73 95
-145.258 -650.788 -1276 59 74 97
-142.481 -650.682 -1276 62 76 101
-139.485 -649.558 -1274 56 72 97
-136.286 -647.417 -1270 59 73 98
-133.104 -645.279 -1266 61 75 100
-130.148 -644.163 -1264 62 76 101
-127.302 -643.558 -1263 60 75 101
-124.067 -640.918 -1258 62 77 103
-121.337 -640.828 -1258 60 73 98
-118.326 -639.212 -1255 53 66 93
-115.605 -639.126 -1255 49 62 89
-112.525 -637.005 -1251 52 66 93
-109.64 -635.905 -1249 47 61 89
-106.849 -635.316 -1248 50 64 92
-104.148 -635.239 -1248 56 68 93
-101.447 -635.163 -1248 56 66 93
-98.7473 -635.09 -1248 55 65 92
-95.7407 -632.983 -1244 56 65 93
-93.1262 -633.422 -1245 57 66 93
-90.581 -634.372 -1247 58 67 94
-87.887 -634.307 -1247 58 66 94
-85.2622 -634.752 -1248 52 60 86
-83.1631 -639.268 -1257 51 59 86
-80.7699 -641.75 -1262 48 56 83
-77.9849 -641.183 -1261 51 59 85
-75.3243 -641.636 -1262 53 62 88
-72.7175 -642.598 -1264 55 64 90
-70.0475 -643.054 -1265 58 67 94
-67.3205 -643.004 -1265 60 69 96
-64.6453 -643.464 -1266 63 72 98
-62.0153 -644.434 -1268 70 79 104
-59.1902 -643.373 -1266 74 83 107
-56.508 -643.839 -1267 76 85 109
-53.7797 -643.799 -1267 79 87 109
-51.0518 -643.76 -1267 89 97 121
-48.3626 -644.232 -1268 94 103 127
-45.6695 -644.706 -1269 95 103 125
-42.8372 -643.149 -1266 100 108 131
-40.1766 -644.135 -1268 103 111 135
-37.5078 -645.122 -1270 105 115 136
-34.776 -645.096 -1270 104 114 135
-32.1454 -647.103 -1274 102 112 132
-29.4286 -647.589 -1275 99 109 128
-26.7079 -648.076 -1276 96 108 127
-23.8892 -646.026 -1272 100 110 129
-21.1544 -646.01 -1272 103 111 130
-18.3474 -643.456 -1267 102 109 124
-199.654 -679.302 -1321 64 47 51
-195.557 -675.041 -1313 84 74 90
-192.084 -672.841 -1309 86 79 98
-188.196 -669.102 -1302 85 85 107
-184.484 -665.88 -1296 77 83 103
-181.22 -664.202 -1293 71 78 99
-177.97 -662.528 -1290 72 82 103
-174.872 -661.369 -1288 70 84 111
-171.917 -660.727 -1287 73 86 113
-168.969 -660.087 -1286 70 82 107
-166.285 -660.476 -1287 69 78 104
-163.09 -658.814 -1284 68 77 103
-160.034 -657.668 -1282 67 76 102
-156.866 -656.011 -1279 66 75 101
-154.315 -656.922 -1281 66 77 101
-151.521 -656.808 -1281 63 75 98
-148.843 -657.209 -1282 58 74 96
-145.821 -656.075 -1280 60 75 98
-142.698 -654.43 -1277 62 76 101
-139.369 -651.764 -1272 58 73 100
-136.171 -649.612 -1268 61 75 101
-132.992 -647.463 -1264 64 78 103
-130.038 -646.342 -1262 62 77 104
-127.194 -645.734 -1261 60 75 100
-123.961 -643.081 -1256 59 74 99
-121.427 -644.014 -1258 58 70 95
-118.413 -642.39 -1255 53 64 91
-115.414 -640.768 -1252 51 62 90
-112.608 -640.172 -1251 53 67 94
-109.72 -639.067 -1249 50 64 93
-107.271 -640.521 -1252 52 65 94
-104.558 -640.443 -1252 52 63 90
-101.766 -639.855 -1251 53 62 89
-99.2159 -640.804 -1253 58 67 94
-96.1963 -638.686 -1249 55 64 92
-93.4942 -638.616 -1249 54 63 89
-90.575 -637.014 -1246 57 65 91
-87.9517 -637.46 -1247 55 63 88
-85.53 -639.44 -1251 50 58 84
-83.1581 -641.934 -1256 49 57 84
-80.6372 -643.407 -1259 46 53 82
-78.1041 -644.881 -1262 48 57 84
-75.5588 -646.358 -1265 53 62 88
-73.0588 -648.346 -1269 58 67 93
-70.1543 -646.761 -1266 61 70 97
-67.4233 -646.71 -1266 63 72 99
-64.7439 -647.173 -1267 65 74 100
-62.0119 -647.126 -1267 70 79 103
-59.2804 -647.081 -1267 76 85 108
-56.5942 -647.549 -1268 78 87 110
-53.8616 -647.509 -1268 82 90 112
-51.1296 -647.47 -1268 88 96 120
-48.3981 -647.433 -1268 91 100 124
-45.631 -646.888 -1267 95 103 126
-42.8348 -645.834 -1265 99 107 130
-40.1427 -646.314 -1266 100 108 130
-37.4762 -647.307 -1268 99 109 128
-34.7741 -647.791 -1269 101 111 130
-32.0932 -648.787 -1271 102 112 131
-29.4502 -650.806 -1275 100 110 129
-26.7065 -650.786 -1275 95 105 123
-23.9255 -649.746 -1273 96 105 123
-18.3753 -647.163 -1268 99 104 116
-201.014 -686.809 -1329 64 47 51
-196.15 -679.943 -1316 83 73 89
-192.668 -677.73 -1312 84 77 96
-188.771 -673.972 -1305 81 82 103
-185.334 -671.766 -1301 76 82 102
-181.776 -669.048 -1296 70 76 97
-178.379 -666.848 -1292 70 78 100
-175.274 -665.684 -1290 70 82 109
-172.313 -665.038 -1289 72 84 111
-169.358 -664.394 -1288 70 82 107
-166.538 -664.269 -1288 70 79 105
-163.466 -663.114 -1286 67 77 103
-160.278 -661.446 -1283 65 76 102
-157.106 -659.781 -1280 68 77 103
-154.31 -659.665 -1280 67 78 102
-151.515 -659.551 -1280 65 77 100
-148.722 -659.439 -1280 59 73 98
-145.702 -658.299 -1278 59 73 98
-142.692 -657.162 -1276 63 77 102
-139.912 -657.056 -1276 62 77 104
-136.488 -653.864 -1270 65 79 105
-133.512 -652.734 -1268 67 81 106
-130.444 -651.091 -1265 64 79 106
-127.289 -648.937 -1261 63 77 104
-124.547 -648.843 -1261 60 74 101
-121.324 -646.179 -1256 60 72 97
-118.407 -645.061 -1254 57 68 95
-115.499 -643.945 -1252 56 67 95
-112.782 -643.86 -1252 56 70 97
-110.066 -643.777 -1252 54 68 96
-107.436 -644.211 -1253 52 65 94
-104.803 -644.646 -1254 49 60 88
-102.248 -645.597 -1256 50 59 87
-99.4479 -645.009 -1255 57 66 94
-96.4216 -642.88 -1251 54 63 91
-93.4885 -641.268 -1248 51 60 86
-90.8603 -641.713 -1249 50 58 84
-88.3697 -643.188 -1252 45 53 77
-85.867 -644.665 -1255 44 52 78
-83.5509 -647.684 -1261 47 55 81
-81.0814 -649.677 -1265 45 52 81
-78.5334 -651.159 -1268 48 57 85
-75.8538 -651.615 -1269 54 63 90
-73.1704 -652.073 -1270 60 69 95
-70.2616 -650.48 -1267 63 72 98
-67.5797 -650.942 -1268 64 73 99
-64.7917 -650.38 -1267 69 78 104
-62.1067 -650.846 -1268 74 83 107
-59.3242 -650.288 -1267 75 84 107
-56.5913 -650.245 -1267 75 85 106
-53.8164 -649.691 -1266 82 90 112
-51.1674 -650.678 -1268 87 95 118
-48.4721 -651.155 -1269 88 96 118
-45.7368 -651.12 -1269 91 99 123
-43.0019 -651.087 -1269 97 105 127
-40.204 -650.03 -1267 99 107 129
-37.5334 -651.027 -1269 98 108 127
-34.7723 -650.488 -1268 100 110 129
-32.1169 -652.002 -1271 100 110 129
-29.4719 -654.031 -1275 98 108 127
-26.7891 -655.549 -1278 96 105 122
-23.9807 -653.992 -1275 95 105 121
-21.3188 -656.539 -1280 93 103 121
-18.4904 -653.96 -1275 91 91 102
-200.559 -688.132 -1325 59 43 48
-196.298 -683.309 -1316 79 70 85
-192.666 -680.567 -1311 81 75 93
-188.912 -677.308 -1305 78 80 101
-185.473 -675.092 -1301 76 81 102
-181.772 -671.84 -1295 71 77 98
-178.651 -670.667 -1293 69 77 99
-175.677 -670.015 -1292 70 81 108
-172.71 -669.366 -1291 73 84 111
-169.748 -668.719 -1290 70 82 107
-166.792 -668.074 -1289 73 82 108
-163.588 -666.395 -1286 69 79 105
-160.398 -664.719 -1283 65 77 102
-157.469 -664.082 -1282 68 77 103
-154.546 -663.447 -1281 67 77 102
-151.747 -663.332 -1281 64 76 99
-148.949 -663.219 -1281 58 72 97
-145.811 -661.556 -1278 59 73 99
-142.687 -659.894 -1275 63 77 103
-139.467 -657.719 -1271 65 79 106
-136.159 -655.028 -1266 66 80 106
-133.401 -654.927 -1266 68 82 107
-130.335 -653.277 -1263 68 82 109
-127.485 -652.663 -1262 67 81 108
-124.442 -651.018 -1259 64 78 105
-121.414 -649.374 -1256 63 75 100
-118.4 -647.734 -1253 61 72 99
-115.401 -646.096 -1250 59 70 98
-112.505 -644.977 -1248 59 70 98
-110.323 -647.994 -1254 57 70 99
-107.516 -647.396 -1253 52 66 95
-105.216 -649.9 -1258 49 60 88
-102.569 -650.339 -1259 50 59 87
-99.7598 -649.747 -1258 51 60 88
-96.5705 -646.575 -1252 49 58 86
-93.8579 -646.504 -1252 48 57 83
-91.1463 -646.435 -1252 45 54 80
-88.8593 -649.465 -1258 44 52 76
-85.8624 -647.335 -1254 45 53 79
-83.613 -650.885 -1261 48 56 83
-81.1417 -652.888 -1265 52 59 88
-78.5918 -654.377 -1268 56 65 93
-75.7905 -653.804 -1267 60 69 96
-73.2248 -655.296 -1270 63 72 98
-70.5358 -655.759 -1271 64 73 99
-67.6832 -654.675 -1269 66 75 101
-64.8399 -653.594 -1267 73 82 107
-62.1528 -654.063 -1268 73 82 106
-59.4151 -654.017 -1268 72 81 104
-56.5886 -652.943 -1266 81 91 113
-53.8138 -652.386 -1265 88 96 118
-51.1246 -652.862 -1266 87 95 117
-48.4698 -653.857 -1268 84 92 114
-45.7707 -654.337 -1269 89 97 121
-42.966 -653.273 -1267 100 108 130
-40.2974 -654.273 -1269 102 110 132
-37.5909 -654.76 -1270 103 113 132
-34.7706 -653.187 -1267 100 110 129
-32.1407 -655.224 -1271 97 107 126
-29.4938 -657.263 -1275 95 105 123
-26.8299 -659.304 -1279 98 105 122
-24.0361 -658.254 -1277 96 104 121
-21.3346 -659.784 -1280 92 102 120
-18.5186 -657.707 -1276 82 78 86
-207.169 -703.69 -1348 55 31 32
-201.771 -695.183 -1332 58 45 51
-197.192 -689.291 -1321 75 68 82
-193.546 -686.535 -1316 75 71 88
-189.49 -682.217 -1308 76 79 100
-186.041 -679.988 -1304 76 81 103
-182.33 -676.721 -1298 73 79 101
-179.063 -675.02 -1295 71 79 101
-175.946 -673.843 -1293 72 82 109
-172.706 -672.148 -1290 73 84 111
-169.612 -670.977 -1288 73 85 110
-166.788 -670.85 -1288 77 87 113
-163.711 -669.683 -1286 72 81 107
-160.519 -667.999 -1283 69 79 105
-157.465 -666.838 -1281 68 77 103
-154.662 -666.72 -1281 67 76 101
-151.624 -665.564 -1279 63 74 97
-148.596 -664.41 -1277 57 71 96
-145.578 -663.258 -1275 56 70 96
-142.682 -662.63 -1274 63 77 104
-139.462 -660.443 -1270 65 79 106
-136.262 -658.259 -1266 66 80 107
-133.501 -658.158 -1266 66 80 105
-130.536 -657.019 -1264 65 79 106
-127.479 -655.362 -1261 63 77 104
-124.338 -653.189 -1257 61 75 102
-121.022 -649.979 -1251 60 72 97
-118.395 -650.409 -1252 59 71 96
-115.21 -647.723 -1247 59 71 97
-112.59 -648.157 -1248 58 69 97
-110.318 -650.67 -1253 59 70 98
-107.94 -652.665 -1257 57 69 97
-105.546 -654.662 -1261 50 61 89
-102.89 -655.103 -1262 50 60 86
-100.073 -654.507 -1261 49 58 84
-96.9516 -651.838 -1256 46 55 83
-94.2283 -651.767 -1256 44 53 79
-91.5059 -651.697 -1256 43 51 77
-89.0671 -653.705 -1260 45 53 79
-86.2692 -653.12 -1259 49 57 83
-83.9409 -656.169 -1265 49 56 83
-81.3308 -657.144 -1267 54 61 90
-78.7746 -658.64 -1270 57 66 92
-75.9669 -658.064 -1269 60 69 95
-73.2795 -658.526 -1270 64 73 99
-70.5886 -658.991 -1271 67 76 102
-67.8939 -659.457 -1272 73 82 107
-65.0419 -658.371 -1270 79 89 113
-62.2483 -657.805 -1269 77 87 111
-59.4595 -657.241 -1268 77 86 110
-56.7203 -657.197 -1268 88 96 119
-53.854 -655.601 -1265 89 96 118
-51.1224 -655.562 -1265 90 97 119
-48.506 -657.079 -1268 90 98 120
-45.8049 -657.562 -1269 99 106 128
-43.0659 -657.529 -1269 107 115 136
-40.3274 -657.498 -1269 103 111 132
-37.5596 -656.951 -1268 104 114 133
-34.8515 -657.442 -1269 101 111 130
-32.1899 -658.971 -1272 98 108 126
-29.4926 -659.984 -1274 98 108 126
-26.8289 -662.035 -1278 100 106 123
-24.0541 -661.498 -1277 102 108 125
-21.3004 -661.481 -1277 96 103 121
-205.942 -702.433 -1339 59 35 36
-201.621 -697.557 -1330 61 50 59
-197.193 -692.161 -1320 75 69 82
-193.546 -689.391 -1315 74 70 87
-189.924 -686.624 -1310 74 78 99
-186.325 -683.86 -1305 74 79 101
-182.609 -680.576 -1299 71 77 99
-179.199 -678.343 -1295 73 81 103
-176.079 -677.16 -1293 74 84 110
-172.837 -675.457 -1290 72 84 111
-169.741 -674.28 -1288 74 86 111
-166.655 -673.105 -1286 79 89 115
-163.708 -672.456 -1285 77 86 112
-160.39 -670.24 -1281 74 83 109
-157.338 -669.073 -1279 68 77 103
-154.537 -668.955 -1279 68 77 102
-151.501 -667.793 -1277 62 71 95
-148.592 -667.156 -1276 58 71 97
-145.345 -664.953 -1272 57 71 97
-142.454 -664.322 -1271 62 76 103
-139.348 -662.647 -1268 65 79 106
-136.149 -660.452 -1264 67 81 107
-133.286 -659.828 -1263 67 80 105
-130.221 -658.161 -1260 66 80 107
-127.171 -656.497 -1257 62 76 103
-124.036 -654.313 -1253 58 72 99
-121.016 -652.654 -1250 59 69 95
-117.916 -650.475 -1246 58 69 94
-115.112 -649.865 -1245 57 69 94
-113.036 -653.432 -1252 56 67 95
-110.313 -653.348 -1252 53 64 92
-108.021 -655.875 -1257 55 66 94
-105.709 -658.403 -1262 50 61 89
-102.641 -656.237 -1258 50 60 86
-100.148 -657.726 -1261 50 59 85
-97.2563 -656.608 -1259 49 58 85
-94.5996 -657.057 -1260 47 55 81
-91.8664 -656.987 -1260 43 51 77
-89.2756 -657.961 -1262 45 54 79
-86.6084 -658.416 -1263 49 57 83
-84.1369 -660.437 -1267 49 56 83
-81.3919 -660.375 -1267 54 61 90
-78.7097 -660.835 -1268 57 68 94
-76.0838 -661.82 -1270 58 70 95
-73.45 -662.805 -1272 60 71 97
-70.586 -661.709 -1270 66 78 101
-67.9449 -662.699 -1272 73 84 107
-65.2445 -663.17 -1273 79 91 114
-62.3932 -662.08 -1271 81 93 116
-59.5041 -660.471 -1268 90 100 123
-56.7629 -660.428 -1268 94 102 124
-53.8944 -658.823 -1265 91 97 117
-51.2416 -659.825 -1267 95 102 123
-48.5423 -660.309 -1268 99 107 129
-45.8392 -660.794 -1269 107 113 134
-43.0982 -660.761 -1269 108 116 136
-40.3894 -661.25 -1270 102 110 130
-37.6768 -661.741 -1271 103 113 131
-34.9325 -661.714 -1271 105 115 133
-32.2394 -662.73 -1273 104 114 132
-29.6074 -665.31 -1278 101 111 128
-26.891 -666.329 -1280 104 111 128
-24.0908 -665.269 -1278 103 109 126
-21.3831 -666.814 -1281 92 98 112
-206.715 -707.992 -1343 62 38 41
-201.775 -700.983 -1330 67 60 71
-197.493 -696.087 -1321 74 69 83
-193.694 -692.776 -1315 74 72 89
-190.069 -689.995 -1310 71 75 96
-186.467 -687.218 -1305 73 78 100
-183.03 -684.97 -1301 73 79 101
-179.612 -682.726 -1297 71 79 101
-176.486 -681.537 -1295 71 81 105
-172.969 -678.772 -1290 72 84 109
-169.607 -676.537 -1286 75 87 112
-166.523 -675.357 -1284 79 91 116
-163.45 -674.179 -1282 77 88 114
-160.387 -673.004 -1280 76 86 111
-157.334 -671.831 -1278 71 80 106
-154.413 -671.187 -1277 69 78 104
-151.142 -668.968 -1273 62 71 97
-148.238 -668.328 -1272 62 72 100
-145.455 -668.216 -1272 62 74 101
-142.337 -666.531 -1269 65 79 106
-139.234 -664.848 -1266 67 81 108
-136.36 -664.218 -1265 69 82 109
-133.281 -662.54 -1262 71 82 108
-130.216 -660.865 -1259 65 79 106
-127.166 -659.193 -1256 59 73 100
-123.932 -656.473 -1251 52 66 93
-121.011 -655.331 -1249 55 64 90
-118.005 -653.666 -1246 54 64 90
-115.292 -653.577 -1246 57 67 93
-112.941 -655.589 -1250 53 64 92
-110.661 -658.126 -1255 50 61 89
-108.275 -660.14 -1259 52 63 91
-105.537 -660.059 -1259 46 56 84
-102.882 -660.504 -1260 43 52 79
-100.224 -660.951 -1261 42 51 77
-97.4072 -660.352 -1260 47 56 82
-94.5959 -659.755 -1259 48 57 83
-92.0088 -660.732 -1261 44 52 78
-89.4847 -662.235 -1264 45 54 78
-86.8798 -663.216 -1266 50 58 83
-84.2005 -663.675 -1267 55 63 88
-81.4534 -663.612 -1267 60 67 96
-78.8313 -664.599 -1269 60 71 97
-76.0814 -664.541 -1269 57 69 94
-73.39 -665.008 -1270 59 71 96
-70.695 -665.477 -1271 66 78 101
-68.0497 -666.471 -1273 72 84 106
-65.0373 -663.803 -1268 76 88 109
-62.4403 -665.326 -1271 78 90 112
-59.502 -663.185 -1267 86 97 117
-56.7161 -662.618 -1266 91 99 119
-53.8924 -661.53 -1264 92 98 118
-51.2803 -663.06 -1267 98 104 125
-48.5789 -663.545 -1268 103 110 132
-45.9099 -664.556 -1270 107 113 134
-43.1987 -665.046 -1271 106 113 134
-40.4835 -665.538 -1272 101 109 129
-37.8238 -667.077 -1275 102 112 130
-35.0414 -666.527 -1274 106 116 134
-32.3144 -667.024 -1275 108 118 136
-29.676 -669.617 -1280 105 115 131
-26.9113 -669.595 -1280 104 111 129
-24.0524 -666.961 -1275 104 109 126
-205.488 -706.693 -1334 67 45 51
-201.475 -702.828 -1327 72 68 82
-197.346 -698.438 -1319 71 70 85
-193.548 -695.11 -1313 73 75 91
-189.779 -691.787 -1307 65 73 94
-186.61 -690.583 -1305 68 75 97
-182.889 -687.267 -1299 72 78 100
-179.75 -686.069 -1297 72 78 100
-176.622 -684.874 -1295 72 80 104
-173.101 -682.096 -1290 74 83 109
-169.868 -680.378 -1287 73 85 110
-166.78 -679.192 -1285 72 84 109
-163.192 -675.894 -1279 70 82 107
-160.008 -674.185 -1276 72 84 107
-157.208 -674.063 -1276 74 84 109
-154.168 -672.887 -1274 69 78 104
-151.138 -671.714 -1272 66 75 101
-148.235 -671.071 -1271 64 74 102
-145.109 -669.375 -1268 66 78 106
-142.222 -668.737 -1267 68 82 109
-139.23 -667.574 -1265 69 83 110
-136.356 -666.941 -1264 70 83 110
-133.277 -665.255 -1261 74 85 113
-130.419 -664.626 -1260 68 82 109
-127.162 -661.89 -1255 60 73 100
-124.125 -660.212 -1252 53 64 92
-121.006 -658.009 -1248 53 62 88
-118.475 -658.972 -1250 53 62 88
-115.565 -657.829 -1248 54 63 89
-113.117 -659.322 -1251 49 59 87
-110.745 -661.345 -1255 44 55 83
-108.185 -662.315 -1257 42 53 81
-105.534 -662.761 -1258 43 52 80
-102.797 -662.681 -1258 41 50 77
-100.141 -663.13 -1259 43 52 78
-97.5587 -664.108 -1261 47 56 82
-94.8935 -664.562 -1262 49 57 83
-92.2248 -665.017 -1263 48 56 82
-89.6944 -666.527 -1266 48 57 81
-87.0831 -667.513 -1268 50 58 82
-84.2645 -666.921 -1267 53 61 85
-81.5796 -667.384 -1268 59 66 95
-78.8912 -667.849 -1269 62 73 99
-76.0192 -666.738 -1267 62 74 99
-73.2144 -666.155 -1266 63 75 100
-70.7486 -668.731 -1271 64 76 99
-68.0478 -669.204 -1272 72 84 106
-65.1894 -668.101 -1270 78 90 111
-62.4877 -668.579 -1271 81 93 114
-59.6882 -668.006 -1270 87 97 118
-56.9385 -667.962 -1270 90 98 118
-54.1039 -666.868 -1268 92 98 118
-51.4407 -667.879 -1270 96 102 123
-48.6925 -667.841 -1270 104 110 131
-46.0171 -668.857 -1272 105 111 133
-43.2995 -669.349 -1273 106 113 134
-40.6098 -670.368 -1275 101 109 129
-37.8822 -670.864 -1276 101 111 129
-35.1505 -671.362 -1277 102 112 130
-32.3642 -670.811 -1276 104 114 132
-29.5825 -670.262 -1275 101 111 127
-26.8896 -671.817 -1278 104 110 130
-205.338 -709.081 -1332 72 52 62
-201.479 -705.729 -1326 80 77 93
-197.498 -701.85 -1319 80 79 95
-193.845 -699.038 -1314 72 77 92
-190.361 -696.761 -1310 59 67 89
-186.754 -693.956 -1305 67 73 96
-183.452 -692.218 -1302 71 76 101
-180.305 -691.014 -1300 71 75 98
-176.894 -688.75 -1296 73 80 104
-173.235 -685.427 -1290 74 83 109
-169.867 -683.169 -1286 72 84 109
-166.129 -679.321 -1279 72 84 109
-163.062 -678.132 -1277 72 84 109
-160.006 -676.945 -1275 73 85 108
-157.083 -676.292 -1274 73 83 108
-154.287 -676.172 -1274 68 77 103
-151.254 -674.993 -1272 68 76 102
-148.232 -673.816 -1270 67 76 105
-145.22 -672.642 -1268 72 81 111
-142.331 -672.001 -1267 69 83 110
-139.447 -671.362 -1266 70 81 109
-136.677 -671.256 -1266 68 79 107
-133.485 -669.031 -1262 69 80 108
-130.623 -668.4 -1261 68 79 107
-127.462 -666.18 -1257 64 75 103
-124.419 -664.494 -1254 61 72 100
-121.099 -661.22 -1248 59 68 94
-118.376 -661.128 -1248 57 66 92
-115.746 -661.568 -1249 54 63 89
-113.294 -663.069 -1252 51 60 88
-110.742 -664.042 -1254 46 56 84
-108.441 -666.605 -1259 42 53 81
-105.699 -666.523 -1259 44 53 81
-103.121 -667.502 -1261 43 52 78
-100.218 -666.365 -1259 44 53 78
-97.7881 -668.406 -1263 45 54 80
-95.1165 -668.862 -1264 46 54 80
-92.3684 -668.79 -1264 47 55 81
-89.763 -669.778 -1266 47 56 80
-87.0809 -670.239 -1267 47 55 80
-84.462 -671.231 -1269 51 59 84
-81.7064 -671.168 -1269 59 66 95
-78.9515 -671.106 -1269 62 73 98
-76.1973 -671.047 -1269 64 76 100
-73.444 -670.99 -1269 66 78 103
-70.6912 -670.935 -1269 71 83 106
-67.9927 -671.41 -1270 85 97 119
-65.1877 -670.83 -1269 88 100 121
-62.4369 -670.782 -1269 86 98 119
-59.6396 -670.206 -1268 87 97 118
-56.8922 -670.162 -1268 89 97 118
-54.1025 -669.591 -1267 89 95 115
-51.5204 -671.664 -1271 93 99 119
-48.7679 -671.626 -1271 103 109 129
-46.197 -674.232 -1276 104 110 130
-43.3665 -673.141 -1274 104 111 131
-40.7045 -674.694 -1277 96 104 123
-37.9407 -674.664 -1277 96 106 124
-35.1222 -673.579 -1275 97 107 125
-32.3635 -673.553 -1275 102 112 130
-29.6051 -673.53 -1275 101 111 127
-26.8889 -674.565 -1277 99 108 127
-210.172 -718.583 -1343 63 36 37
-204.881 -710.396 -1328 72 57 68
-201.027 -707.029 -1322 76 74 91
-197.352 -704.2 -1317 79 80 97
-194.143 -702.978 -1315 73 78 93
-190.654 -700.691 -1311 61 69 91
-186.899 -697.337 -1305 66 73 96
-183.877 -696.659 -1304 71 76 101
-180.583 -694.914 -1301 71 77 99
-177.304 -693.173 -1298 71 79 103
-173.772 -690.367 -1293 73 83 109
-170.131 -687.03 -1287 72 86 111
-166.778 -684.764 -1283 73 86 111
-163.316 -681.968 -1278 73 85 110
-160.13 -680.242 -1275 71 81 105
-157.328 -680.119 -1275 71 80 105
-154.285 -678.931 -1273 66 75 101
-151.252 -677.746 -1271 69 77 103
-148.23 -676.564 -1269 68 77 106
-144.989 -674.318 -1265 71 80 110
-142.216 -674.207 -1265 70 82 109
-139.334 -673.565 -1264 68 79 107
-136.675 -673.991 -1265 65 76 104
-133.588 -672.288 -1262 65 76 104
-131.035 -673.251 -1264 66 77 105
-127.763 -670.488 -1259 61 72 100
-124.713 -668.793 -1256 59 70 98
-121.484 -666.036 -1251 62 71 97
-118.847 -666.475 -1252 57 66 92
-115.928 -665.32 -1250 53 62 88
-113.834 -668.957 -1257 52 61 89
-111.004 -668.338 -1256 48 58 86
-108.524 -669.849 -1259 47 58 86
-105.696 -669.234 -1258 49 58 85
-103.119 -670.218 -1260 47 56 82
-100.374 -670.139 -1260 47 56 80
-97.9409 -672.19 -1264 47 56 82
-95.265 -672.647 -1265 47 56 82
-92.6588 -673.638 -1267 48 56 82
-90.1158 -675.163 -1270 48 57 81
-87.2855 -674.563 -1269 52 61 86
-84.7267 -676.091 -1272 56 65 91
-81.898 -675.496 -1271 61 69 97
-79.1989 -675.965 -1272 63 75 99
-76.316 -674.843 -1270 66 79 102
-73.3845 -673.191 -1267 70 83 108
-70.5782 -672.604 -1266 76 89 111
-67.8305 -672.551 -1266 83 95 117
-65.1349 -673.031 -1267 86 97 118
-62.3372 -672.451 -1266 86 98 119
-59.6855 -673.466 -1268 87 98 119
-56.9359 -673.421 -1268 87 95 116
-54.2295 -673.909 -1269 90 97 116
-51.5599 -674.931 -1271 96 102 122
-48.9205 -676.485 -1274 102 108 128
-46.1599 -676.449 -1274 104 111 131
-43.5701 -679.069 -1279 101 111 130
-40.8633 -680.098 -1281 95 106 124
-38.059 -679.537 -1280 93 105 123
-35.2318 -678.447 -1278 99 109 124
-32.4391 -677.891 -1277 103 111 125
-29.6509 -677.336 -1276 103 112 127
-26.9306 -678.376 -1278 102 109 124
-24.183 -678.887 -1279 92 93 106
-208.613 -716.162 -1332 65 36 37
-204.115 -710.624 -1322 79 69 81
-200.575 -708.316 -1318 85 81 98
-197.206 -706.548 -1315 81 79 97
-193.851 -704.783 -1312 77 79 95
-190.512 -703.021 -1309 63 70 92
-187.188 -701.263 -1306 66 73 95
-184.161 -700.581 -1305 71 76 100
-180.863 -698.828 -1302 71 77 99
-177.579 -697.078 -1299 72 79 102
-174.042 -694.258 -1294 73 82 107
-169.999 -689.295 -1285 71 84 109
-166.648 -687.018 -1281 74 87 111
-163.188 -684.208 -1276 70 83 107
-160.128 -683.01 -1274 69 78 104
-157.45 -683.422 -1275 67 76 102
-154.526 -682.764 -1274 69 78 104
-151.489 -681.573 -1272 71 80 106
-148.462 -680.385 -1270 73 82 110
-145.331 -678.664 -1267 72 82 111
-142.326 -677.48 -1265 68 79 107
-139.222 -675.764 -1262 65 76 104
-136.564 -676.192 -1263 68 79 107
-133.586 -675.017 -1261 68 79 108
-130.929 -675.449 -1262 65 76 104
-127.659 -672.673 -1257 63 75 102
-125.009 -673.11 -1258 60 72 98
-121.675 -669.804 -1252 60 69 95
-118.939 -669.71 -1252 56 65 91
-116.203 -669.619 -1252 50 59 85
-113.922 -672.204 -1257 47 56 84
-111.267 -672.651 -1258 46 55 83
-108.781 -674.169 -1261 45 55 83
-105.862 -673.017 -1259 48 57 81
-103.444 -675.074 -1263 46 55 81
-100.691 -674.995 -1263 47 56 84
-98.2492 -677.055 -1267 46 58 83
-95.5647 -677.515 -1268 47 57 83
-92.8768 -677.976 -1269 50 59 85
-90.1145 -677.905 -1269 49 58 82
-87.4906 -678.905 -1271 54 60 87
-84.7255 -678.838 -1271 61 66 93
-81.8323 -677.705 -1269 62 74 97
-79.2601 -679.245 -1272 64 79 100
-76.3148 -677.583 -1269 67 83 104
-73.4411 -676.457 -1267 71 86 111
-70.6327 -675.867 -1266 74 89 110
-67.9901 -676.881 -1268 81 94 115
-65.1337 -675.762 -1266 88 98 119
-62.3359 -675.179 -1265 89 101 122
-59.6373 -675.666 -1266 92 103 123
-56.8899 -675.621 -1266 90 98 118
-54.143 -675.578 -1266 92 100 119
-51.5591 -677.671 -1270 97 104 123
-48.8814 -678.7 -1272 100 106 126
-46.413 -682.931 -1280 101 109 129
-43.6377 -682.896 -1280 97 108 126
-40.9266 -683.931 -1282 94 107 124
-38.118 -683.367 -1281 92 106 123
-35.3141 -682.805 -1280 98 107 121
-32.5403 -682.779 -1280 102 110 123
-29.7667 -682.755 -1280 102 111 127
-27.099 -685.4 -1285 107 111 125
-208.307 -718.014 -1329 70 41 48
-203.348 -710.829 -1316 79 78 92
-200.124 -709.59 -1314 89 85 102
-196.91 -708.354 -1312 87 82 100
-193.56 -706.58 -1309 79 77 96
-190.516 -705.89 -1308 66 73 94
-187.335 -704.662 -1306 62 70 92
-184.164 -703.437 -1304 65 71 93
-180.726 -701.136 -1300 66 72 94
-177.308 -698.838 -1296 72 77 100
-173.909 -696.544 -1292 72 77 102
-170.397 -693.713 -1287 69 81 106
-166.648 -689.808 -1280 71 84 108
-163.699 -689.14 -1279 65 79 102
-160.631 -687.935 -1277 64 74 100
-157.45 -686.194 -1274 64 73 99
-154.161 -683.918 -1270 66 75 101
-151.011 -682.183 -1267 71 80 106
-147.993 -680.989 -1265 72 82 109
-145.1 -680.336 -1264 70 81 109
-142.1 -679.147 -1262 67 78 106
-139.22 -678.499 -1261 64 75 103
-136.779 -680.005 -1264 68 79 107
-133.584 -677.748 -1260 68 79 109
-131.135 -679.258 -1263 64 75 103
-127.962 -677.006 -1259 62 73 101
-124.808 -674.756 -1255 60 72 97
-121.77 -673.047 -1252 54 65 90
-119.221 -674.028 -1254 49 60 86
-116.758 -675.548 -1257 45 56 81
-114.193 -676.533 -1259 45 54 82
-111.353 -675.907 -1258 45 54 82
-108.693 -676.359 -1259 44 53 81
-106.112 -677.349 -1261 41 50 74
-103.525 -678.342 -1263 42 51 77
-100.849 -678.799 -1264 45 54 82
-98.6361 -682.48 -1271 45 57 82
-95.8653 -682.405 -1271 47 58 83
-93.0956 -682.331 -1271 50 59 85
-90.3266 -682.259 -1271 53 62 86
-87.4897 -681.654 -1270 57 63 89
-84.7913 -682.123 -1271 63 68 95
-81.8958 -680.985 -1269 64 76 99
-79.2593 -681.996 -1271 65 80 100
-76.3138 -680.325 -1268 67 83 104
-73.6142 -680.803 -1269 70 85 112
-70.7433 -679.674 -1267 74 88 109
-67.8819 -678.548 -1265 81 94 115
-65.1328 -678.496 -1265 88 98 119
-62.4829 -679.519 -1267 91 101 120
-59.7778 -680.008 -1268 95 104 123
-57.0239 -679.962 -1268 93 101 121
-54.2706 -679.919 -1268 94 102 121
-51.6397 -681.486 -1271 96 103 123
-48.9962 -683.056 -1274 100 106 126
-46.3765 -685.163 -1278 100 108 128
-43.808 -688.345 -1284 99 108 126
-40.8945 -686.168 -1280 96 106 122
-38.2667 -688.817 -1285 93 105 122
-35.4243 -687.717 -1283 101 111 126
-32.6164 -687.154 -1282 105 114 128
-29.9062 -688.738 -1285 104 112 128
-27.2887 -693.003 -1293 111 114 127
-215.563 -735.771 -1355 58 33 37
-208.315 -720.943 -1328 76 50 56
-203.663 -714.809 -1317 81 79 96
-199.824 -711.393 -1311 89 84 103
-196.615 -710.151 -1309 90 85 105
-193.565 -709.455 -1308 77 78 96
-190.375 -708.218 -1306 68 74 95
-186.908 -705.9 -1302 62 69 91
-183.885 -705.211 -1301 62 68 90
-180.591 -703.441 -1298 62 68 90
-176.9 -700.049 -1292 70 75 98
-173.507 -697.744 -1288 73 78 103
-169.868 -694.358 -1282 71 82 107
-166.649 -692.601 -1279 69 82 106
-163.444 -690.846 -1276 65 79 102
-160.38 -689.635 -1274 64 76 101
-157.078 -687.345 -1270 63 73 99
-154.039 -686.141 -1268 65 74 100
-151.011 -684.938 -1266 69 78 104
-147.992 -683.738 -1264 70 79 106
-144.984 -682.541 -1262 68 78 106
-142.324 -682.969 -1263 66 77 105
-139.329 -681.777 -1261 66 77 105
-136.67 -682.209 -1262 64 75 103
-133.477 -679.941 -1258 63 74 104
-130.822 -680.377 -1259 62 73 101
-127.757 -678.655 -1256 59 70 97
-124.707 -676.935 -1253 55 67 92
-122.06 -677.378 -1254 50 62 87
-119.886 -680.524 -1260 44 56 81
-116.943 -679.351 -1258 41 53 78
-114.554 -681.42 -1262 43 52 80
-111.795 -681.331 -1262 45 54 82
-109.123 -681.784 -1263 44 53 81
-106.616 -683.319 -1266 47 56 80
-104.016 -684.316 -1268 49 58 83
-101.407 -685.315 -1270 49 58 85
-98.8685 -686.855 -1273 49 59 85
-96.1667 -687.318 -1274 51 60 86
-93.3149 -686.704 -1273 51 60 86
-90.4683 -686.093 -1272 56 65 89
-87.558 -684.944 -1270 58 65 91
-84.7907 -684.877 -1270 62 67 94
-81.8952 -683.733 -1268 59 72 95
-79.1339 -683.67 -1268 60 77 99
-76.3131 -683.07 -1267 63 81 103
-73.5555 -683.012 -1267 71 87 111
-70.8544 -683.494 -1268 75 89 110
-68.0423 -682.901 -1267 79 92 113
-65.2866 -682.849 -1267 87 97 118
-62.5316 -682.799 -1267 90 100 119
-59.8244 -683.29 -1268 93 101 121
-57.0684 -683.244 -1268 96 102 122
-54.3985 -684.278 -1270 95 103 122
-51.8832 -687.469 -1276 95 103 122
-49.1883 -688.507 -1278 98 104 124
-46.5215 -690.086 -1281 101 107 127
-43.7397 -690.051 -1281 99 108 125
-41.1182 -692.711 -1286 96 106 122
-38.2965 -692.141 -1285 96 109 124
-35.4795 -691.574 -1284 102 112 127
-32.8455 -694.779 -1290 103 112 126
-30.1158 -696.37 -1293 108 114 128
-215.416 -738.229 -1353 60 35 39
-208.637 -724.967 -1329 78 56 63
-203.361 -716.621 -1314 79 77 94
-199.22 -712.099 -1306 84 81 99
-196.17 -711.396 -1305 87 83 102
-192.681 -709.061 -1301 79 81 99
-189.65 -708.364 -1300 67 73 94
-186.482 -707.125 -1298 62 70 92
-183.182 -705.344 -1295 65 69 92
-179.759 -703.022 -1291 63 68 91
-176.492 -701.247 -1288 66 72 95
-173.24 -699.475 -1285 70 75 100
-169.87 -697.162 -1281 68 79 104
-167.041 -697.028 -1281 64 76 101
-163.445 -693.632 -1275 61 74 98
-160.002 -690.784 -1270 60 72 97
-156.831 -689.027 -1267 60 71 97
-153.675 -687.273 -1264 63 72 98
-150.533 -685.521 -1261 67 76 102
-147.64 -684.86 -1260 71 80 107
-144.753 -684.201 -1259 70 79 107
-142.211 -685.174 -1261 67 78 106
-139.439 -685.062 -1261 68 79 107
-136.778 -685.497 -1262 66 77 105
-133.794 -684.303 -1260 63 74 104
-131.029 -684.199 -1260 61 72 100
-127.756 -681.382 -1255 55 66 94
-125.303 -682.91 -1258 50 62 87
-122.448 -682.27 -1257 51 62 87
-119.79 -682.717 -1258 49 59 85
-117.221 -683.709 -1260 47 57 83
-114.735 -685.245 -1263 50 59 87
-112.149 -686.241 -1265 52 61 89
-109.296 -685.611 -1264 51 60 88
-106.616 -686.068 -1265 50 60 85
-104.344 -689.239 -1271 50 60 85
-101.806 -690.784 -1274 49 58 84
-99.0239 -690.705 -1274 49 58 84
-96.1667 -690.086 -1273 52 61 87
-93.4615 -690.553 -1274 52 61 87
-90.6817 -690.481 -1274 55 64 89
-87.6957 -688.785 -1271 59 66 92
-84.8573 -688.175 -1270 62 68 95
-81.8949 -686.484 -1267 55 69 92
-79.196 -686.962 -1268 58 74 96
-76.4332 -686.901 -1268 65 82 104
-73.6132 -686.3 -1267 71 87 110
-70.7982 -685.702 -1266 75 89 110
-68.0419 -685.647 -1266 77 90 111
-65.3378 -686.136 -1267 89 99 120
-62.5807 -686.086 -1267 96 106 125
-60.0602 -688.745 -1272 94 103 122
-57.3383 -689.241 -1273 96 102 122
-54.7841 -691.904 -1278 94 102 121
-51.9645 -691.32 -1277 93 100 119
-49.2654 -692.363 -1279 96 102 122
-46.6306 -694.491 -1283 102 108 128
-43.8423 -694.455 -1283 102 111 128
-41.1184 -695.505 -1285 99 109 125
-38.3563 -696.015 -1286 100 110 126
-35.6179 -697.068 -1288 101 111 126
-32.9476 -699.747 -1293 100 110 124
-30.3258 -704.052 -1301 102 107 120
-215.747 -742.331 -1354 62 37 42
-208.49 -727.36 -1327 77 61 70
-203.213 -718.974 -1312 81 77 96
-199.227 -714.978 -1305 84 81 99
-195.875 -713.176 -1302 87 85 104
-191.946 -709.187 -1295 80 82 100
-188.925 -708.487 -1294 65 71 91
-185.624 -706.695 -1291 57 65 87
-182.196 -704.359 -1287 62 68 90
-179.205 -703.667 -1286 64 71 93
-175.809 -701.337 -1282 64 72 94
-172.838 -700.651 -1281 67 75 99
-169.474 -698.327 -1277 65 76 101
-166.391 -697.1 -1275 64 76 101
-162.933 -694.235 -1270 61 73 98
-159.878 -693.013 -1268 57 69 94
-156.584 -690.701 -1264 60 71 96
-153.31 -688.392 -1260 65 74 100
-150.533 -688.271 -1260 69 78 104
-147.64 -687.606 -1259 70 79 106
-144.983 -688.036 -1260 70 79 107
-142.323 -688.468 -1261 69 78 106
-139.439 -687.81 -1260 67 77 105
-137.103 -689.883 -1264 65 76 104
-134.007 -688.138 -1261 61 72 102
-131.029 -686.942 -1259 56 67 96
-128.061 -685.748 -1257 51 62 90
-125.302 -685.647 -1257 47 59 84
-122.74 -686.639 -1259 51 61 85
-120.075 -687.088 -1260 50 59 84
-117.5 -688.085 -1262 50 59 85
-114.826 -688.538 -1263 53 62 90
-111.971 -687.903 -1262 52 61 89
-109.468 -689.45 -1265 50 59 86
-107.038 -691.544 -1269 50 62 87
-104.344 -692.005 -1270 49 60 85
-101.727 -693.013 -1272 50 59 85
-98.9465 -692.934 -1272 51 60 86
-96.167 -692.857 -1272 52 61 87
-93.4619 -693.326 -1273 53 62 88
-90.7533 -693.798 -1274 57 66 92
-87.5578 -690.46 -1268 62 71 97
-84.6569 -689.303 -1266 65 74 100
-81.8301 -688.692 -1265 62 76 99
-79.0085 -688.085 -1264 63 79 101
-76.1919 -687.479 -1263 69 86 108
-73.6131 -689.052 -1266 76 90 113
-70.9099 -689.54 -1267 75 89 109
-68.1493 -689.485 -1267 80 94 113
-65.5441 -691.064 -1270 90 102 123
-62.8771 -692.102 -1272 96 106 125
-60.202 -693.141 -1274 94 103 122
-57.5638 -694.727 -1277 92 98 117
-54.7844 -694.683 -1277 88 96 115
-52.2091 -697.36 -1282 92 99 119
-49.3813 -696.776 -1281 95 101 121
-46.7765 -699.458 -1286 99 105 125
-43.911 -698.334 -1284 100 110 127
-41.1828 -699.388 -1286 100 112 128
-38.3865 -699.357 -1286 101 110 125
-35.7843 -703.134 -1293 102 112 127
-33.203 -708.001 -1302 100 109 124
-30.6763 -715.045 -1315 102 107 120
-215.123 -743.141 -1349 63 37 42
-207.871 -728.098 -1322 79 68 78
-202.601 -719.673 -1307 84 81 102
-198.775 -716.208 -1301 85 84 103
-194.978 -712.747 -1295 82 83 101
-191.655 -710.94 -1292 77 79 99
-188.492 -709.687 -1290 66 71 92
-185.053 -707.337 -1286 56 64 86
-181.917 -706.09 -1284 59 63 86
-178.651 -704.295 -1281 61 69 91
-175.264 -701.954 -1277 63 73 94
-172.841 -703.463 -1280 67 75 99
-169.477 -701.128 -1276 66 77 101
-166.132 -698.796 -1272 66 78 103
-162.935 -697.016 -1269 64 76 101
-159.753 -695.239 -1266 61 73 98
-156.585 -693.465 -1263 63 74 100
-153.433 -691.694 -1260 69 77 103
-150.534 -691.023 -1259 71 80 106
-147.641 -690.355 -1258 70 79 105
-144.984 -690.787 -1259 69 78 106
-142.437 -691.769 -1261 68 77 105
-139.772 -692.205 -1262 65 75 103
-137.321 -693.74 -1265 61 72 100
-134.326 -692.534 -1263 58 69 99
-131.654 -692.977 -1264 53 64 93
-128.571 -691.228 -1261 47 58 86
-125.602 -690.03 -1259 47 59 84
-122.74 -689.383 -1258 50 60 84
-120.266 -690.93 -1261 48 57 81
-117.593 -691.383 -1262 47 56 82
-114.917 -691.838 -1263 50 59 87
-112.327 -692.843 -1265 48 57 85
-109.729 -693.85 -1267 46 55 81
-107.123 -694.859 -1269 45 56 81
-104.345 -694.774 -1269 43 54 80
-101.488 -694.145 -1268 44 53 79
-98.8695 -695.16 -1270 43 52 78
-96.1678 -695.63 -1271 48 57 83
-93.3157 -695.007 -1270 53 62 88
-90.6115 -695.481 -1271 62 71 97
-87.6964 -694.316 -1269 68 77 103
-84.7909 -693.153 -1267 66 75 101
-81.895 -691.993 -1265 59 76 98
-79.0711 -691.382 -1264 64 81 103
-76.3731 -691.867 -1265 67 85 107
-73.6133 -691.807 -1265 75 89 112
-70.9102 -692.297 -1266 77 92 112
-68.1495 -692.241 -1266 84 99 118
-65.5445 -693.828 -1269 92 104 125
-62.8775 -694.871 -1271 94 104 122
-60.297 -697.009 -1275 93 102 120
-57.7447 -699.695 -1280 95 101 120
-55.0425 -700.744 -1282 92 100 119
-52.2912 -701.248 -1283 91 99 118
-49.5361 -701.754 -1284 93 99 119
-46.85 -703.355 -1287 98 104 124
-44.0142 -702.772 -1286 100 109 126
-41.2795 -703.832 -1288 103 114 128
-38.5064 -704.346 -1289 108 115 128
-35.868 -707.595 -1295 104 113 128
-33.3313 -713.578 -1306 101 111 127
-213.541 -740.611 -1338 66 39 43
-206.937 -727.712 -1315 80 71 82
-201.834 -719.799 -1301 85 82 102
-198.018 -716.319 -1295 82 81 102
-194.834 -715.053 -1293 76 79 99
-191.364 -712.686 -1289 74 79 98
-187.474 -708.663 -1282 69 75 96
-184.482 -707.96 -1281 64 73 96
-181.212 -706.154 -1278 66 70 93
-178.516 -706.562 -1279 63 69 93
-175.268 -704.762 -1276 63 71 95
-172.304 -704.069 -1275 71 79 103
-168.816 -701.171 -1270 72 83 107
-165.351 -698.276 -1265 73 85 110
-162.295 -697.04 -1263 64 77 102
-159.376 -696.359 -1262 61 75 100
-156.463 -695.68 -1261 62 75 100
-153.678 -695.555 -1261 71 79 105
-150.894 -695.433 -1261 72 80 106
-148.112 -695.312 -1261 70 78 105
-145.331 -695.194 -1261 66 75 103
-142.777 -696.181 -1263 63 72 100
-140.216 -697.17 -1265 58 68 96
-137.431 -697.058 -1265 54 65 93
-134.221 -694.745 -1261 53 64 94
-131.551 -695.189 -1262 50 61 90
-128.572 -693.983 -1260 43 54 82
-125.902 -694.432 -1261 42 54 79
-123.132 -694.332 -1261 44 54 78
-120.458 -694.785 -1262 45 54 78
-117.687 -694.69 -1262 44 53 79
-115.009 -695.146 -1263 41 50 78
-112.328 -695.606 -1264 38 47 75
-109.73 -696.617 -1266 43 51 77
-107.039 -697.081 -1267 42 53 78
-104.593 -699.197 -1271 40 51 76
-101.729 -698.564 -1270 43 52 78
-98.9484 -698.484 -1270 43 52 76
-96.1689 -698.406 -1270 50 59 84
-93.5373 -699.429 -1272 57 66 93
-90.6838 -698.806 -1271 63 72 98
-87.7664 -697.635 -1269 67 76 102
-84.7916 -695.917 -1266 67 76 102
-81.9604 -695.3 -1265 60 78 100
-79.1341 -694.686 -1264 64 82 104
-76.4945 -695.723 -1266 68 87 109
-73.6719 -695.114 -1265 76 90 113
-71.0227 -696.155 -1267 81 95 116
-68.3654 -697.198 -1269 87 101 121
-65.7517 -698.792 -1272 94 106 127
-63.0761 -699.84 -1274 94 104 122
-60.3923 -700.889 -1276 90 98 117
-57.6553 -701.391 -1277 92 96 116
-55.0004 -702.994 -1280 90 98 117
-52.2512 -703.5 -1281 90 97 116
-49.4983 -704.009 -1282 92 98 117
-46.8507 -706.167 -1286 98 104 124
-44.0492 -706.131 -1286 101 109 125
-41.2481 -706.097 -1286 102 112 125
-38.5371 -707.712 -1289 106 112 124
-35.9242 -711.526 -1296 105 113 129
-33.4856 -719.733 -1311 104 114 130
-213.714 -744.15 -1338 65 37 38
-206.475 -728.964 -1311 79 73 86
