ply
format ascii 1.0
comment Created by Open3D
element vertex 1429
property double x
property double y
property double z
property uchar red
property uchar green
property uchar blue
end_header
-110.687 241.549 -1228 182 169 185
-106.613 237.98 -1210 178 165 182
-103.475 236.378 -1202 152 139 156
-100.538 235.171 -1196 151 135 153
-97.7076 234.161 -1191 164 148 167
-95.1386 233.742 -1189 202 186 206
-92.5005 233.128 -1186 164 149 173
-89.8753 232.513 -1183 155 141 165
-87.0412 231.311 -1177 162 148 172
-84.232 230.109 -1171 203 189 210
-81.238 228.318 -1162 210 197 216
-78.7563 227.904 -1160 156 142 167
-76.0197 226.704 -1154 162 148 173
-73.6273 226.488 -1153 169 155 180
-71.0541 225.683 -1149 213 199 224
-68.3778 224.486 -1143 222 207 231
-65.7842 223.486 -1138 158 142 166
-63.4345 223.272 -1137 154 137 161
-61.0355 222.863 -1135 169 150 175
-58.8521 223.239 -1137 220 204 229
-56.4125 222.635 -1134 241 227 252
-54.224 223.013 -1136 209 193 218
-51.845 222.606 -1134 184 169 194
-49.6057 222.789 -1135 184 170 194
-47.2793 222.58 -1134 171 157 182
-45.1558 223.352 -1138 203 189 214
-42.9035 223.537 -1139 212 198 222
-40.7189 224.114 -1142 171 157 181
-38.5224 224.693 -1145 150 136 160
-36.3459 225.468 -1149 161 145 170
-34.1241 226.047 -1152 163 147 172
-31.9732 227.215 -1158 206 190 215
-29.7984 228.384 -1164 199 185 209
-27.5998 229.554 -1170 159 146 169
-25.291 229.939 -1172 156 144 167
-22.9743 230.325 -1174 157 146 169
-20.6673 230.908 -1177 129 119 142
-18.3485 231.491 -1180 120 110 133
-16.0584 232.664 -1186 139 129 152
-13.7673 234.229 -1194 187 173 198
-11.5585 238.149 -1214 175 161 186
-9.24676 241.481 -1231 175 161 186
-6.86137 244.618 -1247 181 169 193
-4.3873 246.382 -1256 173 161 185
-1.87709 248.146 -1265 175 163 187
-182.69 276.972 -1419 100 81 83
-177.132 272.826 -1398 125 104 106
-173.157 271.023 -1389 160 135 137
-169.22 269.221 -1380 129 104 106
-165.321 267.421 -1371 89 64 65
-161.46 265.622 -1362 70 46 48
-157.986 264.41 -1356 73 50 53
-154.768 263.588 -1352 132 114 119
-150.892 261.598 -1342 151 132 139
-147.39 260.194 -1335 95 73 84
-143.808 258.596 -1327 74 58 69
-139.836 256.22 -1315 82 69 81
-135.6 253.261 -1300 85 76 88
-132.142 251.667 -1292 111 100 115
-128.517 249.684 -1282 133 117 139
-125.131 248.093 -1274 159 142 160
-121.874 246.697 -1267 205 187 204
-118.081 244.134 -1254 217 201 221
-113.882 240.599 -1236 195 180 199
-109.576 236.676 -1216 209 195 213
-106.056 234.312 -1204 195 182 199
-103.017 232.922 -1197 133 120 137
-100.259 232.117 -1193 147 131 149
-97.5995 231.507 -1190 183 167 186
-94.8733 230.704 -1186 215 199 219
-92.164 229.901 -1182 174 160 185
-89.4717 229.099 -1178 159 145 171
-86.5744 227.714 -1171 159 145 169
-83.6343 226.136 -1163 206 192 214
-80.797 224.753 -1156 204 191 211
-78.2601 224.149 -1153 143 129 154
-75.6044 223.157 -1148 170 156 181
-73.2247 222.943 -1147 171 157 182
-70.6024 221.952 -1142 208 194 218
-68.0606 221.156 -1138 208 193 217
-65.5356 220.361 -1134 157 142 166
-63.1945 220.15 -1133 155 139 163
-60.7504 219.55 -1130 161 142 167
-58.526 219.729 -1131 202 187 212
-56.1488 219.325 -1129 216 201 226
-53.9232 219.505 -1130 173 159 184
-51.557 219.103 -1128 155 140 164
-49.3741 219.478 -1130 161 146 170
-47.1 219.465 -1130 160 146 171
-44.9851 220.23 -1134 214 200 225
-42.7415 220.412 -1135 219 205 229
-40.6011 221.178 -1139 183 169 193
-38.344 221.362 -1140 165 151 175
-36.1466 221.935 -1143 158 142 167
-33.8781 222.119 -1144 157 141 166
-31.6886 222.887 -1148 200 183 208
-29.5346 224.044 -1154 205 190 214
-27.4274 225.784 -1163 157 143 167
-25.1333 226.165 -1165 157 145 168
-22.89 227.13 -1170 172 161 184
-20.5741 227.512 -1172 171 161 183
-18.2503 227.895 -1174 113 102 125
-15.9323 228.473 -1177 115 104 127
-13.6599 230.022 -1185 183 169 194
-11.4221 232.931 -1200 177 163 188
-9.17669 237.198 -1222 161 147 172
-6.82114 240.69 -1240 180 166 196
-4.40366 244.765 -1261 172 159 186
-168.194 264.821 -1372 66 47 53
-164.071 262.654 -1361 62 45 54
-160.469 261.261 -1354 69 51 58
-156.547 259.29 -1344 61 43 49
-153.468 258.67 -1341 76 65 74
-149.503 256.509 -1330 63 51 62
-145.916 254.927 -1322 69 56 73
-142.47 253.539 -1315 71 61 76
-138.736 251.574 -1305 82 73 88
-135.043 249.611 -1295 150 139 156
-131.596 248.034 -1287 148 135 155
-128.082 246.265 -1278 142 127 152
-124.607 244.498 -1269 176 159 181
-121.072 242.539 -1259 192 175 196
-116.92 239.233 -1242 190 174 196
-112.47 235.158 -1221 175 159 181
-108.556 232.048 -1205 195 179 199
-105.588 230.864 -1199 195 181 200
-102.646 229.682 -1193 150 137 155
-99.8962 228.885 -1189 142 126 144
-97.1638 228.089 -1185 181 165 185
-94.6084 227.679 -1183 220 204 226
-91.8279 226.693 -1178 160 146 173
-89.0684 225.707 -1173 156 142 169
-86.256 224.529 -1167 171 157 181
-83.4685 223.353 -1161 206 193 215
-80.5661 221.792 -1153 208 196 217
-77.8324 220.618 -1147 156 142 167
-75.3211 220.021 -1144 161 147 172
-72.6949 219.04 -1139 156 142 167
-70.1512 218.252 -1135 199 184 208
-67.684 217.657 -1132 175 160 184
-65.2295 217.063 -1129 146 132 156
-62.9548 217.046 -1129 148 132 156
-60.5733 216.645 -1127 156 137 162
-58.4072 217.014 -1129 200 185 210
-56.0843 216.807 -1128 208 194 219
-53.8614 216.985 -1129 164 150 175
-51.4978 216.587 -1127 152 137 162
-49.2737 216.766 -1128 150 134 159
-47.0043 216.753 -1128 143 129 154
-44.8146 217.125 -1130 204 190 215
-42.6173 217.498 -1132 209 195 218
-40.4479 218.064 -1135 171 157 181
-38.1658 218.054 -1135 165 151 175
-35.979 218.62 -1138 177 161 186
-33.6619 218.419 -1137 179 162 187
-31.5424 219.563 -1143 215 196 222
-29.3222 220.131 -1146 203 188 212
-27.2552 222.045 -1156 154 140 164
-25.0404 222.999 -1161 162 150 173
-22.7862 223.761 -1165 172 161 183
-20.4985 224.331 -1168 189 178 199
-18.199 224.902 -1171 134 122 144
-15.8875 225.474 -1174 111 99 121
-13.5987 226.622 -1180 177 163 188
-11.324 228.54 -1190 173 159 185
-9.08424 232.378 -1210 156 142 168
-6.7863 236.985 -1234 170 156 188
-165.821 258.356 -1353 66 53 60
-161.015 255.067 -1336 69 57 70
-157.939 254.453 -1333 69 55 65
-153.944 252.313 -1322 83 68 75
-151.254 252.273 -1322 99 89 102
-148.003 251.28 -1317 60 50 63
-144.774 250.288 -1312 69 59 74
-141.567 249.297 -1307 80 70 87
-138.062 247.735 -1299 157 148 165
-134.695 246.365 -1292 171 157 180
-131.255 244.805 -1284 133 119 144
-127.648 242.865 -1274 164 150 177
-124.083 240.926 -1264 160 144 169
-119.791 237.463 -1246 189 173 198
-115.196 233.24 -1224 166 150 174
-111.612 230.924 -1212 144 128 151
-107.987 228.419 -1199 183 167 188
-104.856 226.867 -1191 192 178 198
-102.103 226.079 -1187 149 136 155
-99.5342 225.672 -1185 168 152 172
-96.5647 224.313 -1178 194 178 198
-93.9441 223.717 -1175 219 203 225
-91.2585 222.932 -1171 174 160 186
-88.4379 221.766 -1165 157 143 170
-85.7163 220.792 -1160 161 147 172
-82.8717 219.438 -1153 208 195 218
-80.2657 218.655 -1149 212 200 221
-77.5408 217.493 -1143 146 132 157
-74.7749 216.142 -1136 159 145 170
-72.2931 215.552 -1133 196 182 207
-69.8858 215.153 -1131 213 199 223
-67.4273 214.565 -1128 153 139 163
-65.0392 214.167 -1126 145 131 155
-62.7713 214.15 -1126 145 130 154
-60.3963 213.754 -1124 162 143 168
-58.1852 213.929 -1125 208 193 218
-55.9206 213.914 -1125 211 197 222
-53.609 213.71 -1124 172 158 183
-51.3017 213.506 -1123 165 150 175
-49.0862 213.683 -1124 166 150 175
-46.7838 213.481 -1123 168 154 179
-44.6444 214.039 -1126 217 203 227
-42.4557 214.408 -1128 204 190 212
-40.2236 214.588 -1129 158 144 167
-38.0215 214.958 -1131 151 137 161
-35.78 215.138 -1132 156 140 165
-33.5053 215.129 -1132 169 152 177
-31.3686 216.071 -1137 214 195 221
-29.0843 216.063 -1137 206 191 216
-27.0124 217.766 -1146 158 144 168
-24.9045 219.47 -1155 160 148 171
-22.6825 220.414 -1160 176 163 185
-20.388 220.788 -1162 201 188 209
-18.1166 221.543 -1166 153 141 162
-15.7887 221.729 -1167 115 102 124
-13.4915 222.485 -1171 168 154 179
-11.2069 223.812 -1178 179 165 191
7.1697 159.213 -838 130 120 145
12.1446 158.271 -833 121 113 125
13.7345 157.324 -828 110 101 112
15.3601 156.948 -826 113 102 110
16.9573 156.382 -823 118 106 117
18.633 156.577 -824 114 101 114
22.13 157.918 -831 108 98 107
24.0001 159.254 -838 108 98 108
29.3645 160.985 -847 107 97 106
31.2872 162.133 -853 108 100 106
-159.889 250.608 -1327 72 64 78
-156.595 249.623 -1322 77 65 77
-152.856 247.884 -1313 97 83 93
-150.3 248.033 -1314 87 78 92
-146.954 246.863 -1308 61 51 65
-143.965 246.259 -1305 103 93 107
-140.989 245.656 -1302 163 153 171
-137.707 244.488 -1296 196 185 205
-134.347 243.133 -1289 151 136 161
-130.71 241.213 -1279 159 144 169
-127.215 239.482 -1270 159 145 170
-123.07 236.433 -1254 162 146 172
-118.51 232.443 -1233 182 165 193
-114.507 229.397 -1217 149 133 158
-110.662 226.541 -1202 132 116 140
-107.419 224.817 -1193 164 148 170
-104.477 223.659 -1187 191 178 197
-101.56 222.502 -1181 165 152 172
-98.9207 221.911 -1178 171 155 175
-96.13 220.944 -1173 186 170 192
-93.3604 219.978 -1168 220 204 227
-90.6896 219.202 -1164 165 151 178
-88.0357 218.425 -1160 158 144 170
-85.251 217.274 -1154 175 161 186
-82.4911 216.122 -1148 209 196 219
-79.8959 215.349 -1144 205 193 214
-77.0461 213.823 -1136 155 141 167
-74.4267 212.862 -1131 185 171 197
-71.828 211.902 -1126 228 214 239
-69.4972 211.696 -1125 223 209 233
-67.0514 211.114 -1122 175 161 185
-64.7915 211.097 -1122 179 165 189
-62.5322 211.081 -1122 183 167 191
-60.1659 210.689 -1120 203 184 209
-57.9633 210.862 -1121 229 214 239
-55.6578 210.66 -1120 216 202 227
-53.4521 210.834 -1121 173 159 184
-51.1515 210.632 -1120 170 155 179
-48.8553 210.431 -1119 162 146 170
-46.5219 210.043 -1117 181 167 191
-44.3555 210.408 -1119 230 215 239
-42.1062 210.397 -1119 219 204 226
-39.9284 210.762 -1121 182 167 190
-37.6756 210.752 -1121 169 155 179
-35.5181 211.307 -1124 153 137 162
-33.3191 211.674 -1126 169 152 178
-31.1675 212.418 -1130 212 193 219
-28.9746 212.974 -1133 203 188 213
-26.8406 214.095 -1139 161 147 171
-24.6395 214.84 -1143 150 138 161
-22.4812 216.15 -1150 165 152 175
-20.2073 216.52 -1152 206 192 214
-17.9566 217.267 -1156 168 155 177
-15.6494 217.451 -1157 126 113 135
-13.2807 216.695 -1153 140 126 151
0.431883 154.668 -823 194 176 201
2.0914 155.232 -826 178 162 186
3.76742 155.985 -830 156 144 163
5.45953 156.738 -834 160 148 167
7.16783 157.491 -838 141 129 155
8.84991 157.493 -838 134 123 147
10.5196 157.308 -837 192 182 204
12.1561 156.747 -834 186 174 190
13.7476 155.81 -829 172 160 175
15.3747 155.438 -827 167 154 168
16.9941 155.066 -825 156 143 157
18.6508 155.071 -825 149 135 150
20.3568 155.452 -827 136 122 133
22.0976 156.021 -830 125 112 123
23.8508 156.591 -833 121 109 120
25.6467 157.349 -837 124 112 122
27.4263 157.92 -840 115 104 114
29.1489 158.115 -841 109 100 109
31.0225 159.063 -846 106 99 106
34.2203 158.14 -841 113 105 113
-163.531 249.404 -1335 83 73 82
-160.571 248.989 -1333 80 74 87
-157.265 248.015 -1328 76 66 78
-153.516 246.294 -1319 68 55 66
-150.376 245.509 -1315 52 40 57
-147.029 244.351 -1309 77 65 82
-143.707 243.194 -1303 143 131 147
-140.736 242.598 -1300 186 174 194
-137.566 241.63 -1295 152 139 161
-134.104 240.102 -1287 156 139 166
-130.37 238.017 -1276 175 158 184
-126.281 235.186 -1261 157 141 166
-122.155 232.171 -1245 190 173 200
-117.615 228.225 -1224 163 146 174
-113.443 224.839 -1206 137 118 146
-110.082 222.947 -1196 155 137 163
-106.942 221.428 -1188 204 188 210
-104.011 220.283 -1182 218 203 225
-101.191 219.325 -1177 160 146 168
-98.3918 218.368 -1172 165 149 169
-95.6959 217.598 -1168 189 173 195
-92.8571 216.457 -1162 214 198 222
-90.1991 215.688 -1158 168 154 180
-87.3304 214.362 -1151 170 156 183
-84.7861 213.782 -1148 161 147 172
-81.8954 212.271 -1140 193 180 203
-79.317 211.506 -1136 197 185 206
-76.4163 209.81 -1127 145 130 156
-73.9472 209.233 -1124 168 153 179
-71.4908 208.656 -1121 213 198 223
-69.2325 208.638 -1121 201 187 212
-66.7954 208.063 -1118 157 143 168
-64.5441 208.046 -1118 171 157 181
-62.2377 207.844 -1117 170 155 179
-59.8821 207.456 -1115 201 184 208
-57.5867 207.255 -1114 214 199 223
-55.2959 207.055 -1113 189 174 198
-53.1049 207.227 -1114 155 140 165
-50.8645 207.214 -1114 172 157 181
-48.581 207.016 -1113 166 151 175
-46.3436 207.004 -1113 189 175 199
-44.1065 206.992 -1113 223 208 232
-41.8698 206.981 -1113 209 194 217
-39.6689 207.157 -1114 172 158 181
-37.4309 207.147 -1114 162 148 172
-35.3195 207.882 -1118 159 144 170
-33.0739 207.873 -1118 195 179 205
-30.8839 208.237 -1120 227 209 234
-28.5837 207.858 -1118 204 189 213
-4.5555 154.095 -829 239 222 243
-2.88503 153.722 -827 221 202 222
-1.2241 153.536 -826 200 182 206
0.433868 153.721 -827 198 181 204
2.09585 153.908 -828 194 178 201
3.77104 154.466 -831 178 164 182
5.45165 154.839 -833 170 156 174
7.14888 155.398 -836 160 146 171
8.81598 155.214 -835 162 147 171
10.4791 155.031 -834 180 166 188
12.1385 154.848 -833 193 180 197
13.7938 154.665 -832 210 196 213
15.4452 154.483 -831 221 205 223
17.0722 154.115 -829 223 207 225
18.7816 154.492 -831 216 200 218
20.4993 154.869 -833 202 187 200
22.2518 155.432 -836 204 189 202
23.9879 155.809 -838 200 185 198
25.824 156.745 -843 176 162 173
27.5826 157.124 -845 160 147 158
29.2455 156.945 -844 151 140 150
31.0145 157.325 -846 129 120 128
32.792 157.705 -848 110 102 110
34.4556 157.527 -847 111 103 111
36.2009 157.722 -848 114 104 113
38.3081 159.406 -857 110 99 108
-167.081 247.985 -1342 86 74 83
-163.367 246.465 -1334 71 60 70
-160.41 246.055 -1332 55 51 64
-157.462 245.645 -1330 51 42 54
-154.291 244.867 -1326 45 33 45
-150.909 243.721 -1320 56 44 59
-147.328 242.207 -1312 113 101 117
-144.001 241.062 -1306 169 157 174
-140.484 239.55 -1298 160 146 168
-137.106 238.223 -1291 129 115 139
-133.341 236.16 -1280 169 150 175
-129.622 234.097 -1269 171 153 177
-125.348 230.929 -1252 176 159 181
-121.438 228.316 -1238 190 173 200
-116.817 224.229 -1216 177 160 188
-112.851 221.25 -1200 170 152 178
-109.502 219.379 -1190 173 156 181
-106.645 218.43 -1185 211 196 219
-103.632 217.113 -1178 213 199 221
-100.993 216.535 -1175 152 137 159
-98.0312 215.22 -1168 167 151 171
-95.3441 214.459 -1164 185 169 190
-92.5141 213.33 -1158 217 201 223
-90.0207 212.938 -1156 170 155 179
-87.005 211.258 -1147 150 136 159
-84.4694 210.684 -1144 149 135 159
-81.3003 208.454 -1132 174 160 184
-78.7386 207.697 -1128 168 154 178
-75.9903 206.389 -1121 134 118 142
-73.4024 205.45 -1116 178 162 186
-71.0266 205.064 -1114 219 203 227
-68.7211 204.862 -1113 181 167 192
-66.3007 204.293 -1110 158 144 169
-64.0085 204.093 -1109 161 147 172
-61.665 203.709 -1107 160 146 171
-59.1691 202.774 -1102 196 182 207
-56.9004 202.575 -1101 218 202 227
-54.7357 202.745 -1102 212 196 220
-52.5196 202.732 -1102 184 168 192
-50.2584 202.535 -1101 178 163 187
-48.2197 203.259 -1105 150 136 160
-45.9573 203.063 -1104 156 142 166
-43.7388 203.052 -1104 208 194 218
-41.4832 202.857 -1103 196 182 206
-39.1962 202.479 -1101 157 143 167
-36.9512 202.286 -1100 142 128 152
-34.6789 201.909 -1098 156 145 176
-32.5925 202.636 -1102 180 168 197
-11.5182 156.63 -852 188 175 194
-9.67059 154.421 -840 197 183 203
-7.93775 153.499 -835 203 189 209
-6.24754 153.13 -833 218 206 228
-4.5709 152.945 -832 228 213 232
-2.89132 152.392 -829 220 203 222
-1.22825 152.392 -829 214 198 220
0.434805 152.392 -829 214 198 220
2.09787 152.392 -829 223 207 228
3.77002 152.761 -831 232 215 232
5.43714 152.762 -831 236 219 236
7.1214 153.131 -833 224 207 227
8.78208 152.949 -832 202 185 205
10.4388 152.768 -831 182 165 184
12.1063 152.771 -831 171 153 170
13.7406 152.406 -829 170 151 168
15.4227 152.594 -830 188 169 187
17.109 152.781 -831 198 182 201
18.8447 153.338 -834 208 193 212
20.5925 153.894 -837 238 223 237
22.3526 154.451 -840 252 238 252
24.1249 155.009 -843 219 204 218
25.9401 155.75 -847 143 128 141
27.6735 155.941 -848 129 115 127
29.3767 155.948 -848 157 145 155
31.1534 156.323 -850 164 154 164
32.8997 156.515 -851 138 129 137
34.5689 156.34 -850 134 125 134
36.2345 156.165 -849 134 124 134
38.1644 157.094 -854 119 108 117
-169.773 245.26 -1342 93 79 83
-166.665 244.67 -1339 96 85 94
-163.326 243.715 -1334 92 82 92
-160.49 243.492 -1333 55 51 63
-157.541 243.087 -1331 50 42 54
-154.951 243.231 -1332 62 52 64
-151.672 242.28 -1327 91 80 95
-148.189 240.964 -1320 148 137 153
-144.186 238.738 -1308 173 161 182
-140.341 236.695 -1297 143 131 153
-136.541 234.653 -1286 161 148 171
-132.371 231.883 -1271 163 148 173
-128.875 230.208 -1262 130 115 140
-124.416 226.711 -1243 155 140 164
-120.525 224.128 -1229 183 167 194
-116.212 220.633 -1210 221 204 232
-112.54 218.235 -1197 201 185 209
-109.107 216.202 -1186 165 150 174
-106.348 215.446 -1182 183 169 193
-103.343 214.144 -1175 212 198 220
-100.452 213.026 -1169 167 153 175
-97.6712 212.09 -1164 159 144 164
-94.9928 211.337 -1160 180 164 185
-92.0119 209.857 -1152 219 203 225
-89.4533 209.288 -1149 172 158 180
-86.5284 207.809 -1141 152 138 161
-83.784 206.695 -1135 170 156 180
-80.7774 204.854 -1125 142 128 152
-78.0909 203.741 -1119 156 142 167
-75.497 202.812 -1114 152 136 160
-72.9896 202.065 -1110 192 177 201
-70.6902 201.866 -1109 211 196 220
-68.3953 201.666 -1108 164 149 174
-65.8662 200.74 -1103 141 127 152
-63.3001 199.632 -1097 197 181 206
-60.8701 198.889 -1093 215 199 224
-58.5102 198.328 -1090 205 189 213
-56.1113 197.586 -1086 186 170 194
-54.0765 198.118 -1089 196 180 205
-51.8871 198.105 -1089 163 147 171
-49.8808 198.82 -1093 160 145 169
-47.8151 199.354 -1096 149 136 159
-45.6129 199.342 -1096 133 119 143
-43.3715 199.15 -1095 159 145 169
-41.1344 198.957 -1094 174 160 184
-38.7949 198.22 -1090 151 137 160
-36.4719 197.483 -1086 118 104 127
-20.651 159.447 -877 210 192 214
-18.525 156.351 -860 234 216 235
-16.6236 154.711 -851 224 206 224
-14.7935 153.434 -844 212 199 214
-12.9917 152.158 -837 204 191 207
-11.2721 151.61 -834 205 192 210
-9.5531 150.88 -830 211 199 217
-7.86924 150.515 -828 207 195 213
-6.19348 150.149 -826 195 185 204
-4.53676 150.148 -826 186 174 192
-2.88018 150.147 -826 184 171 188
-1.22501 150.328 -827 190 175 196
0.433645 150.328 -827 201 185 206
2.09483 150.51 -828 208 192 211
3.76004 150.693 -829 213 195 212
5.42276 150.694 -829 220 202 218
7.09396 150.877 -830 231 215 232
8.74823 150.698 -829 233 217 234
10.4237 150.882 -830 224 208 225
12.0741 150.703 -829 207 189 205
13.7206 150.524 -828 177 158 175
15.4189 150.891 -830 181 160 179
17.1253 151.259 -832 188 173 193
18.8626 151.809 -835 202 190 209
20.6366 152.541 -839 207 192 207
22.4534 153.455 -844 191 176 191
24.2048 153.825 -846 127 112 127
25.9948 154.376 -849 82 67 82
27.7319 154.565 -850 92 77 91
29.4387 154.572 -850 110 97 108
31.1823 154.761 -851 123 112 121
32.9689 155.133 -853 141 130 139
34.6417 154.959 -852 148 137 147
36.3108 154.786 -851 138 127 137
38.0656 154.977 -852 132 121 133
39.8713 155.351 -854 101 93 99
41.4907 154.997 -852 113 105 111
-174.78 245.79 -1360 92 79 86
-169.731 242.494 -1342 88 75 84
-166.748 242.092 -1340 118 111 121
-163.53 241.328 -1336 135 128 138
-160.811 241.288 -1336 70 64 75
-158.094 241.249 -1336 52 45 56
-155.377 241.211 -1336 60 52 64
-152.091 240.27 -1331 71 62 79
-148.377 238.609 -1322 92 82 101
-144.26 236.226 -1309 97 87 110
-139.873 233.304 -1293 103 92 115
-135.658 230.564 -1278 181 169 192
-131.401 227.645 -1262 128 115 142
-127.822 225.809 -1252 132 118 145
-123.785 223.073 -1237 153 139 164
-119.809 220.338 -1222 187 171 199
-115.319 216.523 -1201 220 203 232
-112.231 215.234 -1194 196 180 204
-108.896 213.404 -1184 145 130 154
-106.142 212.657 -1180 170 156 180
-103.141 211.37 -1173 215 201 223
-100.256 210.263 -1167 159 145 166
-97.3115 208.978 -1160 153 139 158
-94.6419 208.234 -1156 174 160 180
-91.7497 206.95 -1149 212 196 218
-89.0421 206.028 -1144 187 173 197
-86.2037 204.746 -1137 185 171 195
-83.2468 203.104 -1128 201 187 211
-80.255 201.284 -1118 161 147 171
-77.7228 200.544 -1114 152 138 163
-75.0719 199.446 -1108 140 124 149
-72.5115 198.528 -1103 179 163 188
-70.163 198.15 -1101 178 164 188
-67.5763 197.054 -1095 162 148 173
-65.1336 196.317 -1091 153 139 164
-62.5923 195.222 -1085 201 186 211
-60.0199 193.948 -1078 209 194 219
-57.6909 193.394 -1075 175 160 184
-55.5293 193.38 -1075 141 126 150
-53.2689 193.007 -1073 154 139 163
-51.2075 193.354 -1075 134 119 144
-49.2298 194.061 -1079 179 165 190
-47.1492 194.409 -1081 208 196 219
-45.1441 195.117 -1085 192 180 204
-42.7669 194.207 -1080 142 130 154
-40.5981 194.197 -1080 149 135 159
-29.5478 168.28 -936 208 188 214
-26.5459 161.442 -898 181 161 187
-24.055 156.941 -873 185 165 189
-21.92 154.239 -858 222 202 224
-20.0103 152.796 -850 243 225 245
-18.2189 152.072 -846 238 220 238
-16.4438 151.349 -842 234 216 234
-14.7198 150.986 -840 234 221 234
-12.9885 150.443 -837 229 216 231
-11.2964 150.26 -836 214 201 217
-9.58528 149.719 -833 207 198 214
-7.90536 149.537 -832 212 203 219
-6.21446 148.996 -829 213 204 221
-4.55217 148.995 -829 223 212 229
-2.89336 149.173 -830 233 222 238
-1.23065 149.353 -831 245 232 251
0.436156 149.532 -832 236 222 241
2.10698 149.712 -833 213 197 215
3.77719 149.713 -833 189 171 188
5.43445 149.355 -831 178 161 177
7.09228 149.177 -830 186 173 188
8.74606 148.999 -829 205 193 208
10.3834 148.642 -827 214 202 217
12.042 148.644 -827 224 209 224
13.7007 148.648 -827 238 223 238
15.4151 149.19 -830 244 226 244
17.1418 149.734 -833 216 204 224
18.9032 150.457 -837 165 154 175
20.7053 151.361 -842 130 118 133
22.5011 152.085 -846 93 80 95
24.2274 152.27 -847 78 64 79
26.019 152.816 -850 75 63 78
27.7904 153.182 -852 86 73 87
29.4661 153.009 -851 93 80 91
31.2113 153.196 -852 96 84 95
32.922 153.204 -852 87 76 86
34.6331 153.213 -852 94 82 93
36.3019 153.041 -851 132 120 132
37.9222 152.691 -849 149 138 150
39.6281 152.7 -849 108 98 105
41.1884 152.171 -846 114 105 112
42.5341 150.922 -839 145 137 145
-178.162 243.925 -1365 97 85 90
-173.195 240.845 -1348 94 82 90
-169.437 239.374 -1340 97 85 96
-166.708 239.333 -1340 158 153 163
-163.735 238.935 -1338 107 101 112
-161.133 239.074 -1339 41 33 46
-158.41 239.036 -1339 38 31 43
-155.688 238.997 -1339 36 29 40
-152.397 238.067 -1334 50 41 58
-149.126 237.139 -1329 62 52 71
-144.666 234.248 -1313 75 65 88
-139.947 230.824 -1294 150 138 162
-134.882 226.688 -1271 160 148 172
-130.744 223.981 -1256 128 115 142
-127.076 221.988 -1245 132 118 144
-123.254 219.64 -1232 143 129 154
-118.996 216.402 -1214 157 141 170
-115.099 213.7 -1199 186 169 199
-111.733 211.89 -1189 167 151 176
-108.685 210.616 -1182 140 125 149
-105.756 209.521 -1176 171 157 181
-102.765 208.248 -1169 211 197 219
-99.6302 206.621 -1160 164 151 172
-96.9524 205.885 -1156 150 137 156
-94.0459 204.615 -1149 153 139 160
-91.2484 203.524 -1143 204 190 212
-88.5535 202.612 -1138 200 186 211
-85.6522 201.167 -1130 214 200 225
-82.7101 199.544 -1121 204 190 214
-79.8767 198.1 -1113 144 130 155
-77.1459 196.836 -1106 145 131 156
-74.5117 195.749 -1100 193 177 202
-71.9681 194.842 -1095 205 189 214
-69.4451 193.935 -1090 177 163 187
-66.8812 192.851 -1084 167 153 178
-64.0435 190.879 -1073 155 141 166
-61.712 190.33 -1070 165 151 177
-59.1704 189.07 -1063 199 185 210
-56.8184 188.345 -1059 222 208 232
-54.4313 187.442 -1054 217 203 227
-52.3129 187.429 -1054 177 163 187
-50.3855 188.128 -1058 166 151 176
-48.5793 189.361 -1065 180 166 190
-46.5708 189.883 -1068 194 181 204
-33.013 164.956 -928 174 160 184
-29.5392 156.417 -880 200 186 209
-27.5208 154.988 -872 207 190 215
-25.5347 153.56 -864 223 205 230
-23.6359 152.487 -858 244 226 246
-21.736 151.238 -851 254 239 255
-19.9348 150.522 -847 246 229 248
-18.193 150.162 -845 229 213 231
-16.4593 149.802 -843 222 207 224
-14.7688 149.799 -843 225 211 223
-13.0629 149.618 -842 194 181 194
-11.3612 149.437 -841 168 155 169
-9.65203 149.079 -839 162 153 168
-7.95092 148.722 -837 158 149 164
-6.25045 148.187 -834 166 158 174
-4.57857 148.186 -834 201 191 209
-2.90315 148.007 -833 231 221 234
-1.2363 148.362 -835 221 210 226
0.438143 148.539 -836 196 184 202
2.11902 148.895 -838 196 183 200
3.79897 148.896 -838 197 182 198
5.45933 148.364 -835 176 161 176
7.11615 148.01 -833 161 153 168
8.76511 147.657 -831 159 151 166
10.406 147.304 -829 171 163 178
12.0682 147.306 -829 197 186 202
13.747 147.487 -830 232 221 237
15.4485 147.846 -832 242 230 246
17.1581 148.205 -834 191 180 201
18.9663 149.276 -840 100 90 111
20.7741 150.169 -845 72 59 74
22.5489 150.708 -848 65 52 66
24.3073 151.069 -850 63 50 64
26.074 151.43 -852 60 49 64
27.8162 151.615 -853 73 61 75
29.5281 151.621 -853 87 74 85
31.277 151.807 -854 90 78 89
32.9527 151.637 -853 87 76 86
34.6654 151.645 -853 95 82 95
36.293 151.298 -851 129 117 130
38.0469 151.485 -852 147 135 148
39.5718 150.783 -848 114 103 111
40.9836 149.726 -842 114 104 111
43.5252 146.901 -826 149 141 149
-184.614 246.106 -1393 95 83 85
-176.814 239.349 -1355 98 86 91
-172.639 237.364 -1344 106 95 104
-169.649 236.97 -1342 164 153 165
-166.916 236.929 -1342 122 114 128
-164.062 236.713 -1341 51 43 57
-161.455 236.85 -1342 38 30 45
-158.608 236.635 -1341 34 27 39
-155.767 236.421 -1340 52 45 57
-152.588 235.678 -1336 78 69 85
-148.305 233.172 -1322 83 74 93
-143.75 230.139 -1305 127 117 141
-138.291 225.52 -1279 193 181 205
-134.213 223.019 -1265 151 139 163
-130.4 220.872 -1253 144 131 158
-126.536 218.55 -1240 143 130 156
-122.424 215.7 -1224 141 127 152
-118.281 212.676 -1207 139 125 153
-114.687 210.534 -1195 150 135 164
-111.425 208.921 -1186 164 148 173
-108.291 207.486 -1178 143 128 152
-105.551 206.755 -1174 158 144 168
-102.564 205.498 -1167 203 189 212
-99.4345 203.889 -1158 189 175 197
-96.5099 202.633 -1151 149 136 155
-93.6141 201.378 -1144 152 138 159
-90.8273 200.3 -1138 199 185 207
-87.7543 198.519 -1128 176 162 186
-84.8738 197.09 -1120 198 185 208
-82.2476 196.19 -1115 180 167 190
-79.3552 194.587 -1106 162 149 173
-76.709 193.513 -1100 147 133 158
-73.8844 191.912 -1091 201 186 211
-71.2937 190.839 -1085 205 191 215
-68.5367 189.24 -1076 169 155 180
-65.6932 187.289 -1065 144 130 155
-63.1927 186.219 -1059 152 138 163
-60.6016 184.797 -1051 163 149 176
-58.3771 184.431 -1049 186 172 198
-55.732 182.66 -1039 194 180 205
-53.4373 181.943 -1035 202 188 212
-51.4072 182.107 -1036 211 197 221
-48.8975 180.513 -1027 216 200 224
-46.6979 179.974 -1024 204 189 213
-43.4208 175.042 -996 181 167 190
-39.4248 166.597 -948 200 186 209
-35.424 157.274 -895 219 205 229
-32.8385 153.576 -874 238 222 244
-30.9067 152.69 -869 236 220 242
-28.9952 151.804 -864 229 214 236
-27.1355 151.095 -860 214 198 220
-25.2331 150.034 -854 210 194 215
-23.4375 149.502 -851 222 204 222
-21.6286 148.793 -847 213 197 215
-19.9301 148.789 -847 199 184 201
-18.2101 148.608 -846 170 157 173
-16.4944 148.429 -845 147 134 150
-14.8178 148.6 -846 131 116 127
-13.1064 148.421 -845 98 84 96
-11.399 148.243 -844 79 66 78
-9.69572 148.065 -843 78 70 84
-7.98704 147.711 -841 80 72 87
-6.27894 147.183 -838 90 82 98
-4.59938 147.182 -838 114 106 124
-2.91991 147.181 -838 145 137 155
-1.24184 147.356 -839 108 99 118
0.44013 147.531 -840 80 71 88
2.12864 147.883 -842 94 82 100
3.81168 147.708 -841 114 101 117
5.48411 147.358 -839 103 91 106
7.14003 146.832 -836 85 80 95
8.79462 146.483 -834 87 82 97
10.4286 145.958 -831 102 97 111
12.0799 145.785 -830 145 137 152
13.7271 145.613 -829 178 170 186
15.4262 145.968 -831 153 145 164
17.1745 146.674 -835 108 98 119
18.9617 147.557 -840 77 67 88
20.7199 148.089 -843 67 54 67
22.4903 148.621 -846 60 47 60
24.2728 149.153 -849 65 52 65
26.0064 149.335 -850 62 52 66
27.7769 149.693 -852 77 66 80
29.4865 149.7 -852 97 84 96
31.2328 149.883 -853 99 86 99
32.9062 149.715 -852 94 82 94
34.6164 149.723 -852 85 70 85
36.2417 149.38 -850 104 90 104
37.9486 149.388 -850 130 117 130
39.4224 148.519 -845 119 107 116
40.8278 147.474 -839 113 102 111
41.6014 144.32 -821 145 137 145
-179.535 236.604 -1355 99 87 89
-175.728 235.165 -1347 111 99 104
-172.213 234.076 -1341 160 149 159
-169.355 233.861 -1340 118 107 121
-167 234.345 -1343 39 31 45
-164.146 234.131 -1342 44 36 50
-161.416 234.092 -1342 39 31 46
-158.57 233.88 -1341 46 38 52
-155.497 233.319 -1338 80 72 86
-151.867 231.888 -1330 90 81 98
-147.933 229.934 -1319 111 102 122
-142.284 225.194 -1292 176 166 190
-137.502 221.675 -1272 199 187 211
-133.226 218.854 -1256 158 146 170
-129.849 217.429 -1248 154 141 168
-125.791 214.786 -1233 148 134 161
-121.495 211.621 -1215 147 133 159
-117.665 209.155 -1201 147 133 161
-114.372 207.56 -1192 166 152 180
-111.21 206.14 -1184 188 172 197
-108.174 204.896 -1177 158 143 168
-105.077 203.478 -1169 148 134 158
-102.276 202.583 -1164 196 182 206
-98.9817 200.645 -1153 194 180 203
-96.0677 199.404 -1146 144 131 150
-93.1828 198.163 -1139 164 149 170
-90.1674 196.576 -1130 180 164 186
-87.2667 195.163 -1122 128 114 138
-84.5506 194.1 -1116 127 114 138
-81.7119 192.689 -1108 154 142 165
-78.8343 191.105 -1099 155 142 166
-76.0633 189.695 -1091 156 142 167
-73.1898 187.939 -1081 209 195 220
-69.9629 185.141 -1065 225 211 236
-67.3105 183.734 -1057 199 185 210
-64.6908 182.327 -1049 161 147 172
-62.2232 181.27 -1043 149 135 160
-59.8379 180.386 -1038 143 129 155
-57.2505 178.809 -1029 164 150 175
-54.968 178.1 -1025 163 149 174
-52.3923 176.35 -1015 150 136 161
-50.006 175.122 -1008 173 159 184
-46.8391 170.941 -984 209 193 217
-44.0424 167.804 -966 231 216 240
-39.793 158.587 -913 185 171 195
-36.4635 152.325 -877 194 180 204
-34.3472 150.754 -868 235 221 245
-32.4175 149.878 -863 215 199 221
-30.5794 149.349 -860 182 166 188
-28.6864 148.474 -855 182 166 188
-26.9083 148.12 -853 186 170 191
-25.1385 147.767 -851 188 172 192
-23.3769 147.414 -849 192 178 195
-21.649 147.235 -848 171 157 175
-19.9724 147.404 -849 137 125 142
-18.2489 147.225 -848 91 78 94
-16.5491 147.221 -848 70 57 72
-14.8493 147.218 -848 50 35 46
-13.1498 147.214 -848 42 28 38
-11.4368 147.038 -847 44 32 42
-9.73941 147.035 -847 43 35 49
-8.03265 146.86 -846 46 38 53
-6.32241 146.511 -844 50 44 60
-4.62578 146.336 -843 52 46 63
-2.93319 146.161 -842 63 58 75
-1.246 146.161 -842 55 49 68
0.44107 146.161 -842 52 45 64
2.13067 146.335 -843 51 43 62
3.81977 146.336 -843 52 42 59
5.49593 145.989 -841 49 39 55
7.16401 145.644 -839 48 43 58
8.83468 145.472 -838 52 47 61
10.4638 144.78 -834 58 53 66
12.0916 144.262 -831 79 72 83
13.7239 143.918 -829 93 86 98
15.3668 143.748 -828 79 71 86
17.0883 144.272 -831 63 53 71
18.7315 144.103 -830 65 53 72
20.5184 144.975 -835 68 53 65
22.2723 145.501 -838 63 48 60
24.0098 145.854 -840 63 47 59
25.8168 146.555 -844 62 50 63
27.6074 147.082 -847 59 48 61
29.3411 147.262 -848 79 66 80
31.1156 147.617 -850 91 78 92
32.7825 147.451 -849 97 84 98
34.4863 147.458 -849 84 69 84
36.1479 147.293 -848 89 74 89
37.8056 147.128 -847 112 98 112
39.2731 146.269 -842 121 109 119
40.5749 144.888 -834 117 106 115
41.1356 141.076 -812 139 131 139
-182.525 234.206 -1357 93 81 82
-178.433 232.438 -1347 109 97 100
-175.165 231.706 -1343 152 140 146
-172.044 231.148 -1340 125 113 124
-169.442 231.28 -1341 59 48 62
-166.837 231.413 -1342 49 41 54
-164.229 231.547 -1343 45 37 51
-161.378 231.336 -1342 45 37 53
-158.651 231.299 -1342 63 55 70
-155.112 230.055 -1335 112 103 119
-151.032 227.952 -1323 108 98 118
-145.768 223.954 -1300 149 139 160
-141.149 220.82 -1282 183 173 197
-136.929 218.204 -1267 155 144 168
-132.983 215.934 -1254 131 119 143
-129.298 214.009 -1243 138 125 152
-125.252 211.397 -1228 147 134 161
-121.167 208.614 -1212 140 126 153
-117.245 206.004 -1197 132 118 145
-113.865 204.256 -1187 175 161 188
-110.808 203.025 -1180 200 184 209
-107.964 202.139 -1175 166 152 177
-104.872 200.738 -1167 138 124 149
-102.076 199.854 -1162 184 170 195
-98.8725 198.111 -1152 193 179 203
-95.7937 196.541 -1143 156 143 163
-92.752 194.971 -1134 167 153 174
-89.7473 193.402 -1125 131 117 139
-86.8575 192.007 -1117 146 134 157
-84.0005 190.612 -1109 174 161 185
-81.1765 189.217 -1101 170 158 182
-78.3138 187.652 -1092 156 143 167
-75.209 185.4 -1079 141 127 152
-72.0219 182.806 -1064 183 169 194
-69.0927 180.728 -1052 220 206 231
-66.2124 178.651 -1040 214 200 225
-63.8125 177.777 -1035 201 187 212
-61.5525 177.247 -1032 179 165 190
-59.0169 175.859 -1024 158 144 168
-56.5696 174.643 -1017 162 148 172
-54.0973 173.256 -1009 162 148 173
-51.1415 170.154 -991 152 138 163
-48.804 168.94 -984 157 143 168
-45.6859 164.809 -960 182 168 192
-40.8414 153.812 -896 185 171 195
-38.0843 150.026 -874 200 186 210
-35.9561 148.473 -865 198 184 208
-33.9831 147.435 -859 200 185 209
-32.1471 146.912 -856 182 166 188
-30.3589 146.562 -854 190 174 196
-28.579 146.211 -852 195 179 201
-26.8705 146.205 -852 198 183 203
-25.1622 146.199 -852 208 193 213
-23.3989 145.85 -850 175 162 180
-21.6695 145.673 -849 108 96 113
-20.0148 146.012 -851 70 60 77
-18.2877 145.836 -850 48 37 51
-16.5842 145.832 -850 43 32 45
-14.8984 145.999 -851 49 35 46
-13.1932 145.996 -851 51 38 48
-11.4881 145.993 -851 59 47 55
-9.78311 145.991 -851 57 48 62
-8.06871 145.817 -850 56 49 63
-6.35834 145.644 -849 51 47 61
-4.65207 145.471 -848 46 43 59
-2.94984 145.299 -847 46 44 61
-1.25165 145.127 -846 52 48 68
0.443057 145.127 -846 56 51 71
2.14029 145.299 -847 57 50 71
3.84155 145.471 -848 60 52 68
5.53378 145.3 -847 66 57 73
7.21351 144.959 -845 66 59 74
8.87474 144.446 -842 67 60 73
10.4738 143.247 -835 68 59 71
12.0451 142.049 -828 78 67 77
13.6214 141.194 -823 81 69 78
15.1406 139.997 -816 79 67 75
16.5497 138.113 -805 78 65 80
17.8923 136.058 -793 77 64 83
19.4572 135.891 -792 90 71 82
21.0448 135.896 -792 89 70 81
23.004 138.132 -805 81 61 72
25.0156 140.368 -818 79 63 75
27.1122 142.776 -832 72 57 70
28.8844 143.298 -835 68 55 69
30.8155 144.506 -842 83 69 84
32.5432 144.685 -843 94 81 96
34.2346 144.693 -843 92 76 92
35.9263 144.701 -843 91 76 91
37.5737 144.538 -842 100 85 100
38.9375 143.345 -835 109 98 107
39.9817 141.123 -822 124 113 123
40.4675 137.183 -799 143 134 144
-182.079 230.906 -1354 96 85 87
-177.861 228.989 -1343 138 127 130
-174.863 228.607 -1341 119 107 114
-171.875 228.226 -1339 67 56 66
-169.402 228.527 -1341 75 64 76
-166.798 228.658 -1342 54 47 58
-164.313 228.961 -1344 44 36 49
-161.461 228.752 -1343 60 52 68
-158.26 228.034 -1339 87 78 95
-154.495 226.465 -1330 119 110 128
-150.198 224.046 -1316 136 126 147
-144.725 219.756 -1291 152 142 165
-140.016 216.489 -1272 180 170 195
-136.033 214.245 -1259 140 129 153
-132.528 212.682 -1250 129 117 141
-128.54 210.27 -1236 143 130 157
-124.509 207.689 -1221 143 130 157
-120.439 204.94 -1205 162 148 175
-116.533 202.361 -1190 147 133 160
-113.455 201.144 -1183 141 127 154
-110.595 200.268 -1178 192 178 203
-107.664 199.223 -1172 169 155 180
-104.488 197.669 -1163 144 130 155
-101.526 196.456 -1156 169 155 179
-98.5922 195.243 -1149 202 188 211
-95.3525 193.351 -1138 191 178 200
-92.3216 191.801 -1129 163 149 171
-89.4873 190.591 -1122 130 116 138
-86.6041 189.211 -1114 174 162 184
-83.6782 187.663 -1105 194 182 205
-80.7892 186.116 -1096 195 183 207
-77.5786 183.72 -1082 159 145 170
-74.1463 180.647 -1064 145 131 156
-71.1254 178.423 -1051 160 146 173
-68.2887 176.54 -1040 179 166 192
-65.7515 175.336 -1033 184 171 196
-63.3663 174.472 -1028 203 189 214
-60.942 173.44 -1022 213 199 224
-58.5423 172.408 -1016 203 189 213
-55.8892 170.528 -1005 169 155 179
-53.0663 167.971 -990 145 131 156
-50.2009 165.074 -973 160 146 171
-46.115 157.768 -930 162 148 173
-42.1545 150.294 -886 175 161 185
-39.7383 147.91 -872 179 165 189
-37.5527 146.205 -862 175 159 182
-35.6985 145.688 -859 191 175 199
-33.817 145.001 -855 191 175 199
-32.027 144.655 -853 191 175 197
-30.3164 144.647 -853 210 194 216
-28.5725 144.471 -852 210 194 216
-26.8643 144.465 -852 191 177 197
-25.1563 144.459 -852 158 145 164
-23.4211 144.284 -851 111 98 117
-21.7155 144.278 -851 54 44 62
-20.0337 144.443 -852 45 37 55
-18.3265 144.439 -852 45 35 48
-16.6194 144.435 -852 50 38 51
-14.9125 144.431 -852 51 38 51
-13.2212 144.597 -853 52 40 50
-11.499 144.425 -852 61 49 56
-9.79238 144.423 -852 65 56 70
-8.07636 144.251 -851 70 62 76
-6.35693 143.91 -849 72 68 81
-4.65104 143.74 -848 69 69 84
-2.94571 143.4 -846 57 59 75
-1.2499 143.23 -845 55 53 75
0.442428 143.23 -845 59 56 78
2.13728 143.4 -846 59 53 75
3.83163 143.4 -846 60 51 68
5.53254 143.571 -847 67 58 74
7.22043 143.403 -846 81 72 85
8.83061 142.049 -838 95 85 96
10.3837 140.356 -828 99 88 97
11.766 137.138 -809 101 85 93
13.006 133.242 -786 114 97 105
14.3395 131.041 -773 147 126 135
15.5388 128.162 -756 157 136 142
16.8505 126.64 -747 154 133 137
18.2737 126.136 -744 184 163 167
19.8179 126.479 -746 247 235 239
21.3988 126.993 -749 237 226 231
23.1448 128.354 -757 207 192 199
25.0208 130.225 -768 169 152 162
27.944 137.014 -808 84 70 83
29.3447 136.003 -802 88 74 86
31.648 139.062 -820 91 76 89
33.577 140.257 -827 93 77 95
35.4067 140.943 -831 83 68 85
37.0295 140.782 -830 83 70 85
38.4157 139.773 -824 108 96 106
39.1944 136.729 -806 153 141 151
39.6987 133.006 -784 159 148 161
39.9569 128.773 -759 155 145 157
-181.096 226.947 -1347 94 85 88
-177.555 225.895 -1341 138 128 132
-174.693 225.686 -1340 77 65 73
-171.964 225.646 -1340 82 71 81
-169.363 225.775 -1341 80 69 81
-166.759 225.905 -1342 50 42 55
-164.031 225.867 -1342 43 35 49
-160.943 225.325 -1339 75 67 84
-157.75 224.616 -1335 105 96 115
-153.53 222.393 -1322 133 123 143
-148.68 219.162 -1303 168 158 180
-143.459 215.26 -1280 161 151 174
-139.543 213.21 -1268 175 165 191
-135.785 211.329 -1257 126 114 139
-132.179 209.617 -1247 133 121 145
-128.407 207.571 -1235 142 129 156
-124.174 204.685 -1218 146 132 159
-120.111 201.968 -1202 183 169 196
-116.212 199.421 -1187 177 163 191
-113.237 198.387 -1181 134 120 148
-110.194 197.186 -1174 171 157 184
-107.364 196.321 -1169 180 166 192
-104.285 194.953 -1161 148 134 159
-101.151 193.419 -1152 166 154 177
-98.1406 192.053 -1144 198 185 208
-94.9119 190.184 -1133 157 145 168
-91.9734 188.82 -1125 116 103 126
-89.068 187.457 -1117 110 96 118
-86.1179 185.927 -1108 107 94 116
-83.2805 184.565 -1100 175 163 185
-80.1074 182.365 -1087 186 174 198
-76.5573 179.16 -1068 148 135 159
-73.2236 176.291 -1051 148 134 159
-70.2973 174.262 -1039 158 144 171
-67.6166 172.737 -1030 127 114 141
-65.291 172.051 -1026 132 119 145
-62.9204 171.198 -1021 180 166 191
-60.5107 170.178 -1015 213 199 224
-57.78 168.153 -1003 217 203 227
-55.098 166.128 -991 216 202 226
-50.9642 159.411 -951 231 217 242
-46.2692 150.349 -897 211 197 221
-43.2292 146.148 -872 181 166 189
-41.2887 145.468 -868 166 154 177
-39.228 144.286 -861 165 153 176
-37.3263 143.607 -857 172 158 182
-35.4826 143.096 -854 191 177 200
-33.6907 142.753 -852 207 192 215
-32.0197 142.913 -853 212 196 219
-30.3095 142.906 -853 197 181 204
-28.5995 142.9 -853 151 134 156
-26.8897 142.893 -853 91 75 91
-25.2096 143.055 -854 70 55 68
-23.4433 142.714 -852 57 43 62
-21.7106 142.542 -851 60 46 65
-20.0291 142.704 -852 56 43 60
-18.3008 142.533 -851 50 36 51
-16.5766 142.361 -850 53 38 54
-14.8741 142.358 -850 56 44 64
-13.1562 142.187 -849 59 49 67
-11.4424 142.017 -848 64 56 73
-9.74416 142.014 -848 78 68 82
-8.03659 141.845 -847 96 85 99
-6.33298 141.676 -846 104 93 106
-4.63357 141.507 -845 101 94 111
-2.93811 141.339 -844 84 78 97
-1.24815 141.338 -844 64 57 82
0.441276 141.171 -843 64 56 79
2.12923 141.171 -843 72 61 81
3.82162 141.339 -844 74 61 77
5.49203 140.838 -841 70 57 71
7.14193 140.169 -837 78 67 76
8.67052 137.827 -823 97 85 93
10.093 134.814 -805 124 112 119
11.298 130.128 -777 160 148 155
12.6225 127.786 -763 156 144 151
13.8911 125.444 -749 150 129 134
15.2065 123.94 -740 137 115 118
16.6212 123.441 -737 133 111 113
18.0731 123.277 -736 200 178 178
19.5478 123.282 -736 255 248 248
21.0226 123.286 -736 255 246 246
22.5588 123.626 -738 255 248 247
24.1682 124.302 -742 255 247 247
25.7593 124.81 -745 253 243 250
27.509 125.989 -752 218 204 213
29.5571 128.341 -766 168 153 162
31.7021 130.861 -781 135 123 130
33.6095 132.209 -789 119 105 112
35.0585 131.714 -786 112 92 102
36.9153 132.728 -792 127 112 125
37.9214 130.725 -780 154 141 152
38.7277 128.22 -765 162 150 161
39.4741 125.715 -750 157 146 156
42.3734 125.398 -748 156 150 162
43.7589 125.072 -746 156 151 162
45.8646 126.759 -756 161 155 165
-180.248 223.184 -1341 94 86 90
-176.985 222.478 -1337 133 124 129
-174.653 222.937 -1340 90 79 89
-171.925 222.898 -1340 84 73 84
-169.324 223.026 -1341 56 46 58
-166.845 223.32 -1343 42 34 48
-163.993 223.117 -1342 55 47 63
-160.666 222.249 -1337 93 85 104
-157.006 220.883 -1329 130 120 141
-152.566 218.355 -1314 170 160 182
-147.163 214.333 -1290 169 159 182
-142.53 211.31 -1272 172 162 186
-138.741 209.451 -1261 177 167 193
-134.999 207.593 -1250 145 133 157
-131.513 206.068 -1241 158 146 170
-127.65 203.881 -1228 140 127 154
-123.432 201.03 -1211 150 136 163
-119.485 198.513 -1196 188 174 201
-115.892 196.495 -1184 168 154 183
-113.02 195.639 -1179 148 134 163
-110.169 194.784 -1174 152 138 165
-107.156 193.599 -1167 184 171 197
-104.081 192.248 -1159 161 149 174
-100.689 190.234 -1147 154 142 165
-97.6038 188.719 -1138 145 133 156
-94.6391 187.371 -1130 97 85 108
-91.7074 186.024 -1122 108 95 117
-88.8087 184.677 -1114 105 91 113
-85.943 183.331 -1106 103 91 113
-82.7318 181.157 -1093 186 174 197
-79.1314 177.99 -1074 193 181 205
-75.7516 175.156 -1057 149 136 160
-72.4409 172.322 -1040 143 129 154
-69.8755 171.146 -1033 148 134 160
-67.3388 169.971 -1026 140 127 153
-64.8945 168.962 -1020 142 129 156
-62.5365 168.12 -1015 148 134 160
-59.9606 166.615 -1006 177 163 188
-56.7879 163.29 -986 206 193 217
-53.418 159.138 -961 226 214 238
-48.5417 150.019 -906 192 175 198
-45.2789 145.372 -878 188 170 192
-43.0211 143.706 -868 169 153 173
-40.899 142.373 -860 181 172 194
-39.0825 142.033 -858 175 165 187
-37.2744 141.693 -856 189 178 201
-35.5161 141.519 -855 210 197 220
-33.7226 141.18 -853 213 200 221
-32.05 141.339 -854 157 142 166
-30.3737 141.497 -855 103 88 111
-28.66 141.491 -855 82 66 88
-26.9467 141.484 -855 59 42 56
-25.2334 141.478 -855 63 45 56
-23.4655 141.142 -853 66 50 70
-21.7312 140.971 -852 74 59 77
-20.0246 140.967 -852 76 62 78
-18.2537 140.466 -849 75 58 77
-16.5339 140.297 -848 75 58 78
-14.8182 140.128 -847 79 67 91
-13.1067 139.959 -846 87 77 100
-11.3993 139.791 -845 84 76 98
-9.70754 139.789 -845 80 68 83
-8.00629 139.621 -844 88 74 89
-6.31664 139.62 -844 106 89 102
-4.62151 139.453 -843 113 99 115
-2.93052 139.287 -842 117 104 122
-1.24493 139.286 -842 95 82 106
0.440126 139.121 -841 77 63 84
2.11855 138.79 -839 84 68 83
3.79362 138.626 -838 85 68 81
5.42554 137.469 -831 88 70 83
6.95259 134.823 -815 99 86 93
8.36308 131.351 -794 149 137 144
9.72714 128.375 -776 157 148 153
11.0047 125.234 -757 112 99 103
12.388 123.913 -749 100 86 89
13.7952 123.089 -744 108 83 84
15.1413 121.934 -737 111 87 88
16.5723 121.607 -735 112 89 90
18.0445 121.611 -735 202 180 178
19.4902 121.45 -734 255 241 238
20.9607 121.454 -734 254 244 238
22.4313 121.459 -734 254 246 239
23.9348 121.63 -735 254 248 241
25.4424 121.801 -736 254 250 242
26.9907 122.138 -738 254 249 245
28.586 122.64 -741 255 248 250
30.1935 123.144 -744 255 247 253
31.8984 123.978 -749 253 248 252
33.7128 125.144 -756 195 183 189
35.2294 125.152 -756 127 113 118
36.5032 124.332 -751 105 91 95
37.8585 123.844 -748 133 121 130
39.2021 123.356 -745 162 152 161
40.6432 123.199 -744 160 153 161
41.9674 122.712 -741 157 152 162
43.397 122.556 -740 158 152 163
-186.352 224.585 -1366 102 89 92
-180.207 220.434 -1341 97 89 93
-177.342 220.23 -1340 135 127 133
-174.744 220.355 -1341 101 92 102
-172.142 220.48 -1342 74 65 77
-169.412 220.442 -1342 64 55 68
-166.808 220.569 -1343 52 44 61
-163.834 220.204 -1341 66 58 76
-160.389 219.182 -1335 110 102 123
-156.262 217.177 -1323 147 137 160
-151.487 214.188 -1305 183 173 196
-146.103 210.216 -1281 171 161 184
-141.938 207.886 -1267 185 175 199
-138.38 206.378 -1258 172 162 188
-134.752 204.708 -1248 157 145 169
-131.166 203.038 -1238 176 164 188
-127.413 201.041 -1226 146 133 160
-123.201 198.226 -1209 147 133 161
-119.458 196.067 -1196 160 146 174
-116.062 194.402 -1186 160 146 175
-112.899 193.065 -1178 148 134 163
-109.957 192.057 -1172 137 123 150
-106.764 190.558 -1163 174 161 188
-103.43 188.732 -1152 173 160 186
-100.228 187.072 -1142 153 141 164
-97.1532 185.576 -1133 114 102 125
-94.283 184.408 -1126 122 110 132
-91.4418 183.241 -1119 102 89 111
-88.5498 181.911 -1111 106 92 114
-85.4577 180.09 -1100 128 116 139
-81.9565 177.289 -1083 189 177 200
-78.5245 174.488 -1066 197 186 210
-74.9465 171.198 -1046 176 163 188
-71.9372 169.054 -1033 177 163 188
-69.3189 167.729 -1025 146 132 157
-66.8645 166.732 -1019 144 130 156
-64.4348 165.736 -1013 154 141 168
-61.7218 163.922 -1002 146 132 157
-58.8746 161.619 -988 157 142 167
-53.6658 152.446 -932 147 131 156
-49.905 146.873 -898 159 143 167
-46.656 142.447 -871 192 173 196
-44.547 141.292 -864 204 188 209
-42.7142 140.955 -862 202 188 208
-40.8898 140.619 -860 205 198 218
-39.0738 140.283 -858 196 189 209
-37.2661 139.948 -856 163 153 174
-35.5497 139.939 -856 144 134 155
-33.7942 139.768 -855 117 106 127
-32.0804 139.761 -855 70 59 82
-30.4024 139.918 -856 54 42 65
-28.6872 139.911 -856 53 39 61
-26.9407 139.741 -855 56 39 55
-25.1984 139.572 -854 64 45 60
-23.4053 139.077 -851 82 68 87
-21.6754 138.908 -850 102 89 108
-19.9262 138.577 -848 128 116 135
-18.2066 138.409 -847 144 128 151
-16.4912 138.242 -846 134 118 141
-14.7625 137.912 -844 115 100 122
-13.0574 137.745 -843 101 87 108
-11.3429 137.416 -841 97 85 104
-9.64793 137.25 -840 86 71 86
-7.9571 137.085 -839 87 71 86
-6.27777 137.083 -839 115 96 108
-4.5986 137.082 -839 137 119 131
-2.91935 137.081 -839 143 125 138
-1.24023 137.081 -839 144 126 141
0.438977 137.08 -839 135 115 129
2.11052 136.591 -836 133 110 121
3.76564 135.938 -832 144 122 132
5.24802 131.364 -804 154 132 136
6.77198 129.731 -794 157 139 144
8.18216 126.955 -777 129 112 115
9.61216 125.323 -767 96 82 84
10.9731 123.365 -755 97 77 78
12.3853 122.387 -749 96 74 75
13.7921 121.573 -744 104 75 73
15.1585 120.596 -738 107 76 75
16.5686 120.109 -735 121 89 89
18.0405 120.113 -735 222 193 190
19.4859 119.954 -734 254 233 229
20.956 119.958 -734 252 235 228
22.4263 119.963 -734 253 238 231
23.8969 119.968 -734 255 241 234
25.3676 119.974 -734 255 245 234
26.8751 120.143 -735 255 246 237
28.3482 120.149 -735 255 246 239
29.8621 120.319 -736 255 247 245
31.4228 120.653 -738 255 245 245
32.9028 120.66 -738 255 245 250
34.5227 121.158 -741 241 229 234
36.1549 121.656 -744 183 169 173
37.5971 121.501 -743 137 126 134
38.9829 121.182 -741 152 142 150
40.4156 121.027 -740 161 153 160
41.6749 120.382 -736 161 155 163
44.6918 120.565 -737 168 158 164
45.9846 120.084 -734 211 205 212
-180.57 218.173 -1344 101 93 97
-177.171 217.322 -1339 124 115 121
-174.705 217.608 -1341 95 86 96
-172.233 217.894 -1343 71 62 75
-169.501 217.856 -1343 74 65 79
-166.771 217.819 -1343 57 49 67
-163.676 217.296 -1340 82 74 93
-160.114 216.126 -1333 133 125 147
-155.164 213.01 -1314 154 144 167
-149.945 209.411 -1292 191 181 204
-145.387 206.623 -1275 163 153 176
-141.122 204.161 -1260 169 159 184
-137.58 202.672 -1251 136 126 152
-134.075 201.184 -1242 138 126 151
-130.396 199.373 -1231 182 170 194
-126.658 197.401 -1219 147 134 161
-122.97 195.431 -1207 141 127 155
-119.132 193.138 -1193 164 150 179
-115.743 191.493 -1183 195 181 210
-112.682 190.335 -1176 153 139 167
-109.651 189.178 -1169 124 110 137
-106.465 187.697 -1160 155 141 168
-102.958 185.571 -1147 188 175 202
-99.7672 183.931 -1137 161 149 173
-96.8746 182.777 -1130 151 139 162
-94.0947 181.786 -1124 154 142 164
-91.1764 180.472 -1116 136 123 146
-88.3708 179.32 -1109 152 138 161
-84.9728 176.876 -1094 138 126 149
-81.1819 173.462 -1073 178 166 189
-77.5497 170.212 -1053 192 181 205
-74.4286 167.932 -1039 201 188 213
-71.6429 166.3 -1029 220 205 231
-68.8979 164.669 -1019 199 185 210
-66.1281 162.876 -1008 167 153 178
-63.5303 161.408 -999 144 130 155
-60.4149 158.486 -981 165 150 174
-56.1807 152.335 -943 148 132 156
-51.0634 143.277 -887 160 146 171
-48.4494 140.843 -872 199 185 209
-46.378 139.864 -866 237 220 242
-44.4856 139.369 -863 228 214 234
-42.6553 139.037 -861 185 172 191
