ply
format ascii 1.0
comment Created by Open3D
element vertex 1396
property double x
property double y
property double z
property uchar red
property uchar green
property uchar blue
end_header
337.696 90.8113 -1517 136 135 173
341.537 91.0187 -1520 140 139 177
345.166 91.1667 -1522 139 138 175
349.036 91.3749 -1525 140 139 176
352.69 91.5235 -1527 131 129 167
356.123 91.6125 -1528 134 126 168
358.858 91.522 -1526 122 118 160
362.062 91.5517 -1526 116 112 153
364.79 91.4616 -1524 115 109 148
367.754 91.4317 -1523 105 102 138
370.23 91.282 -1520 117 116 154
372.943 91.1925 -1518 131 132 173
375.65 91.1032 -1516 151 156 189
378.352 91.0142 -1514 140 141 178
382.057 91.1659 -1516 128 128 165
385.52 91.2577 -1517 143 140 174
390.015 91.5906 -1522 153 152 188
394.018 91.8037 -1525 179 177 212
397.777 91.9569 -1527 159 156 189
400.76 91.9298 -1526 107 108 142
404.537 92.0836 -1528 97 98 135
407.524 92.0571 -1527 100 100 140
410.243 91.9705 -1525 116 114 157
413.769 92.0651 -1526 149 147 192
417.577 92.2204 -1528 143 141 188
420.571 92.1949 -1527 134 132 183
423.842 92.2301 -1527 147 139 199
427.117 92.2656 -1527 145 137 197
430.113 92.2409 -1526 136 129 188
433.109 92.2166 -1525 148 147 198
436.677 92.3134 -1526 146 141 197
439.389 92.229 -1524 151 148 201
443.257 92.387 -1526 199 197 242
661.745 97.0137 -1555 241 214 212
663.28 96.7604 -1550 245 218 213
665.658 96.632 -1547 249 219 213
668.462 96.5664 -1545 252 218 212
671.263 96.5008 -1543 255 212 206
673.624 96.3731 -1540 255 212 205
678.176 96.5586 -1542 255 213 206
683.629 96.8699 -1546 0 0 0
687.774 96.9938 -1547 0 0 0
694.614 97.4947 -1554 0 0 0
-638.099 82.8288 -1358 254 254 254
-636.185 82.956 -1361 251 252 255
-636.122 83.3271 -1368 213 213 220
-634.182 83.4544 -1371 89 85 100
-630.854 83.3993 -1371 77 71 91
-627.074 83.2838 -1370 87 80 101
-624.671 83.351 -1372 76 68 90
-621.36 83.2969 -1372 78 70 90
-617.604 83.1825 -1371 85 81 104
-613.411 83.008 -1369 118 115 138
-610.571 83.0157 -1370 139 135 156
-605.516 82.7208 -1366 151 145 165
-601.369 82.5478 -1364 160 156 174
-595.482 82.1332 -1358 220 217 233
-592.248 82.0821 -1358 249 247 252
-588.151 81.9105 -1356 192 194 215
-584.933 81.8601 -1356 182 189 211
-581.292 81.7498 -1355 185 199 227
-578.514 81.7604 -1356 198 213 243
-578.708 82.1931 -1364 203 219 248
-558.57 81.3489 -1354 248 252 255
-554.997 81.2414 -1353 251 253 255
-545.725 80.2942 -1338 255 252 252
-549.91 81.3276 -1356 254 253 253
-553.614 82.3002 -1373 253 253 254
-544.015 81.2949 -1357 253 253 253
-540.119 81.9955 -1371 250 252 255
-538.479 82.6218 -1383 250 252 255
-536.464 82.7558 -1386 252 254 255
-530.592 82.2931 -1379 253 254 255
-516.98 81.5053 -1368 251 251 254
-513.864 81.4622 -1368 249 249 253
-508.885 81.1217 -1363 244 244 248
-507.274 81.3173 -1367 233 232 239
-506.019 81.5723 -1372 216 218 230
-502.546 81.4708 -1371 196 201 220
-501.268 81.726 -1376 177 182 204
-498.162 81.6844 -1376 172 175 198
-496.5 81.8804 -1380 167 169 192
-493.037 81.78 -1379 155 160 184
-490.294 81.7985 -1380 148 153 178
-486.492 81.6395 -1378 147 152 177
-483.756 81.6585 -1379 140 146 173
-479.625 81.441 -1376 134 140 167
-476.551 81.4014 -1376 133 140 166
-474.17 81.4805 -1378 134 142 169
-470.417 81.3233 -1376 132 140 168
-465.998 81.0483 -1372 132 141 169
-462.951 81.0099 -1372 137 144 174
-459.908 80.972 -1372 136 143 174
-456.204 80.8163 -1370 136 142 174
-453.504 80.8379 -1371 139 145 177
-450.476 80.8008 -1371 147 152 184
-447.126 80.705 -1370 149 156 186
-443.46 80.5507 -1368 149 156 185
-440.773 80.5734 -1369 152 158 187
-437.446 80.4786 -1368 152 159 190
-433.809 80.3254 -1366 159 167 198
-430.817 80.29 -1366 158 167 199
-427.828 80.255 -1366 154 160 194
-424.221 80.1027 -1364 153 160 194
-421.553 80.127 -1365 158 167 200
-418.578 80.0928 -1365 159 166 197
-415.606 80.0589 -1365 145 151 182
-412.336 79.9666 -1364 141 148 179
-409.375 79.9332 -1364 135 141 173
-406.119 79.8415 -1363 148 154 186
-403.462 79.8673 -1364 132 139 170
-400.512 79.8347 -1364 126 131 163
-397.856 79.8609 -1365 126 129 161
-394.91 79.8288 -1365 132 134 168
-391.681 79.7385 -1364 129 132 165
-389.029 79.7655 -1365 116 121 154
-386.377 79.7926 -1366 117 117 152
-383.443 79.7616 -1366 121 120 155
-380.512 79.7307 -1366 135 135 169
-377.585 79.7002 -1366 131 127 161
-375.21 79.7866 -1368 115 110 144
-372.285 79.7566 -1368 119 116 149
-369.093 79.6685 -1367 127 124 157
-366.445 79.6972 -1368 140 137 168
-363.264 79.6097 -1367 124 119 150
-360.091 79.5225 -1366 120 115 146
-356.663 79.3774 -1364 113 108 139
-354.026 79.4071 -1365 130 123 156
-351.13 79.3789 -1365 135 128 162
-348.747 79.4673 -1367 116 107 136
-345.599 79.3814 -1366 120 111 140
-342.961 79.412 -1367 128 119 147
-340.073 79.3847 -1367 154 144 172
-336.694 79.2416 -1365 149 139 168
-333.327 79.0988 -1363 169 158 189
-329.971 78.9564 -1361 154 143 174
-327.107 78.9303 -1361 123 112 143
-324.484 78.9624 -1362 141 128 161
-321.624 78.9366 -1362 159 145 176
-318.766 78.9113 -1362 196 182 211
-316.143 78.944 -1363 172 159 187
-313.289 78.919 -1363 132 119 147
-310.21 78.8365 -1362 141 127 156
-307.363 78.812 -1362 161 148 177
-304.742 78.8456 -1363 193 180 209
-301.899 78.8216 -1363 156 143 172
-299.057 78.7979 -1363 128 115 144
-296.219 78.7743 -1363 126 113 142
-293.168 78.6933 -1362 159 146 173
-290.123 78.6125 -1361 189 175 202
-287.085 78.532 -1360 141 125 150
-284.053 78.4518 -1359 119 101 127
-281.029 78.3718 -1358 114 95 121
-278.42 78.4074 -1359 169 155 184
-275.607 78.3857 -1359 174 160 189
-272.997 78.4218 -1360 127 114 143
-270.186 78.4004 -1360 118 104 133
-267.378 78.3793 -1360 107 94 123
-264.377 78.3008 -1359 168 155 180
-261.575 78.2802 -1359 172 159 183
-258.966 78.3173 -1360 120 104 128
-255.979 78.2396 -1359 124 106 131
-253.183 78.2197 -1359 113 94 120
-250.206 78.1424 -1358 169 155 182
-247.417 78.1229 -1358 160 146 173
-244.45 78.0462 -1357 115 101 128
-241.845 78.0847 -1358 121 107 136
-238.886 78.0084 -1357 119 105 133
-235.934 77.9324 -1356 170 156 183
-232.987 77.8566 -1355 162 147 172
-230.216 77.8386 -1355 106 90 114
-227.447 77.8207 -1355 128 109 137
-224.846 77.8605 -1356 114 96 123
-222.079 77.8431 -1356 169 153 178
-219.152 77.7685 -1355 164 149 177
-216.071 77.6368 -1353 114 100 129
-213.158 77.5627 -1352 131 112 140
-210.406 77.5463 -1352 130 111 139
-207.502 77.4727 -1351 178 159 187
-204.908 77.5139 -1352 171 152 178
-202.161 77.4981 -1352 111 92 118
-199.416 77.4826 -1352 124 107 135
-196.382 77.3526 -1350 127 110 138
-193.788 77.3948 -1351 177 160 188
-190.908 77.3226 -1350 176 159 187
-188.174 77.3079 -1350 115 98 126
-185.303 77.2362 -1349 123 106 134
-182.438 77.1647 -1348 131 113 141
-179.579 77.0934 -1347 177 158 186
-176.857 77.0797 -1347 171 157 184
-174.265 77.1232 -1348 117 103 130
-171.416 77.0527 -1347 123 109 136
-168.698 77.0395 -1347 126 113 141
-166.105 77.0838 -1348 171 158 187
-163.387 77.0711 -1348 181 167 196
-160.552 77.0014 -1347 126 112 141
-158.074 77.1034 -1349 117 103 132
-155.358 77.0914 -1349 120 105 134
-152.531 77.0224 -1348 167 150 180
-149.82 77.0107 -1348 186 169 199
-147.11 76.9992 -1348 135 118 148
-144.616 77.1022 -1350 120 103 131
-141.8 77.0341 -1349 116 99 127
-138.988 76.9662 -1348 162 145 173
-136.384 77.0127 -1349 185 168 196
-133.678 77.0023 -1349 146 129 158
-130.876 76.9351 -1348 120 103 135
-128.269 76.9821 -1349 118 101 132
-125.66 77.0294 -1350 154 137 167
-122.956 77.0199 -1350 187 173 202
-120.431 77.1246 -1352 152 139 168
-117.9 77.2296 -1354 118 105 136
-115.276 77.2776 -1355 119 103 138
-112.483 77.2119 -1354 128 111 147
-109.614 77.0892 -1352 139 124 158
-106.595 76.8529 -1348 125 110 141
-103.748 76.7308 -1346 145 131 156
-100.984 76.666 -1345 183 168 191
-98.2985 76.6583 -1345 144 128 150
-95.8268 76.8219 -1348 118 104 129
-93.275 76.9286 -1350 124 109 134
-90.6487 76.9785 -1351 163 147 172
-88.0844 77.0856 -1353 197 183 207
-85.3233 77.022 -1352 154 139 164
-82.6281 77.0155 -1352 133 114 146
-79.9927 77.0663 -1353 135 117 148
-77.2968 77.0603 -1353 167 150 180
-74.6016 77.0544 -1353 200 185 214
-71.9601 77.1058 -1354 161 147 176
-69.3152 77.1573 -1355 126 109 141
-66.5685 77.0952 -1354 123 106 138
-63.9678 77.2041 -1356 150 133 165
-61.2242 77.1424 -1355 192 175 205
-58.5282 77.1378 -1355 167 150 180
-55.7915 77.0765 -1354 122 108 137
-53.0592 77.0154 -1353 129 113 143
-50.3313 76.9545 -1352 150 133 163
-47.7136 77.0646 -1354 184 167 197
-45.0549 77.118 -1355 176 159 189
-42.3927 77.1716 -1356 139 122 152
-39.6976 77.1685 -1356 131 116 145
-37.0028 77.1654 -1356 128 114 143
-34.3082 77.1627 -1356 185 168 198
-31.6373 77.2171 -1357 175 159 188
-28.984 77.3286 -1359 131 117 146
-26.3036 77.3835 -1360 131 117 146
-23.6021 77.3816 -1360 135 121 150
-20.9162 77.4368 -1361 189 172 202
-18.2264 77.4921 -1362 168 152 182
-15.5328 77.5477 -1363 133 119 148
-12.8354 77.6035 -1364 132 116 146
-10.1341 77.6595 -1365 150 134 163
-7.43434 77.7727 -1367 190 176 203
-4.72326 77.8291 -1368 157 143 168
-2.01118 77.9995 -1371 140 126 152
0.712275 78.1133 -1373 131 117 144
3.44118 78.1703 -1374 172 158 186
6.17408 78.2276 -1375 181 167 196
8.91748 78.342 -1377 141 128 158
11.6435 78.2859 -1376 135 121 152
14.397 78.4006 -1378 149 135 166
17.1586 78.5156 -1380 193 179 209
19.8993 78.5171 -1380 152 139 168
22.6731 78.6325 -1382 135 122 151
25.4734 78.8051 -1385 117 104 133
28.2452 78.864 -1386 180 166 195
31.021 78.9232 -1387 173 159 189
33.8011 78.9825 -1388 135 121 152
36.5591 78.9852 -1388 126 111 144
39.3457 79.0451 -1389 161 147 179
42.1669 79.162 -1391 181 167 196
44.9963 79.2792 -1393 139 125 153
47.9027 79.5104 -1397 122 108 135
50.8254 79.7418 -1401 146 132 161
53.6497 79.8028 -1402 170 156 186
56.599 80.0347 -1406 134 121 151
59.438 80.096 -1407 127 114 145
62.3256 80.2146 -1409 155 142 173
65.1757 80.2763 -1410 178 165 200
68.1747 80.5092 -1414 142 129 164
70.9894 80.5146 -1414 125 112 147
73.9092 80.634 -1416 140 129 162
76.7831 80.6967 -1417 182 170 203
79.6056 80.7027 -1417 144 132 165
82.4288 80.7089 -1417 135 124 156
85.3728 80.8293 -1419 123 111 144
88.2634 80.8929 -1420 182 167 200
91.2228 81.0138 -1422 173 159 191
94.1249 81.0778 -1423 121 108 139
96.8954 81.0281 -1422 120 106 137
99.9433 81.2067 -1425 134 121 152
102.715 81.1574 -1424 151 140 171
105.781 81.3364 -1427 111 99 130
108.859 81.5157 -1430 104 91 122
111.95 81.6951 -1433 160 148 181
114.734 81.6469 -1432 123 112 144
117.925 81.8839 -1436 114 103 135
120.88 81.9501 -1437 115 105 136
123.841 82.0165 -1438 136 126 157
126.895 82.1403 -1440 153 142 174
130.048 82.3212 -1443 129 120 150
133.121 82.4455 -1445 124 115 145
136.11 82.5129 -1446 127 117 149
139.2 82.6377 -1448 145 134 166
142.201 82.7056 -1449 121 110 142
145.207 82.7737 -1450 118 109 141
148.015 82.7279 -1449 116 109 141
151.131 82.8536 -1451 130 124 156
154.151 82.9225 -1452 122 113 145
157.176 82.9916 -1453 110 102 134
160.427 83.1753 -1456 103 96 128
163.579 83.302 -1458 124 117 149
166.512 83.3147 -1458 122 115 147
169.33 83.2706 -1457 109 102 134
172.618 83.4552 -1460 109 101 135
175.439 83.4115 -1459 122 114 148
178.38 83.4252 -1459 128 120 157
181.322 83.439 -1459 114 107 144
184.518 83.5676 -1461 113 107 143
187.338 83.5248 -1460 124 119 156
190.417 83.5966 -1461 133 128 165
193.766 83.7831 -1464 112 106 143
196.726 83.7983 -1464 116 116 152
199.824 83.8708 -1465 120 121 156
202.789 83.8865 -1465 142 143 178
205.896 83.9596 -1466 120 119 155
208.582 83.8611 -1464 132 130 166
211.839 83.992 -1466 139 137 173
214.959 84.0659 -1467 160 160 194
218.382 84.2546 -1470 152 152 186
221.519 84.3291 -1471 154 153 188
225.271 84.633 -1476 157 157 192
228.427 84.7081 -1477 175 176 211
231.433 84.726 -1477 165 165 201
234.44 84.7441 -1477 162 161 196
237.288 84.7051 -1476 161 160 195
240.298 84.7236 -1476 172 171 207
243.638 84.8573 -1478 160 159 196
246.989 84.9913 -1480 141 140 178
250.858 85.2979 -1485 134 133 171
254.064 85.375 -1486 141 138 177
257.45 85.5099 -1488 121 118 157
260.321 85.4727 -1487 114 114 154
263.899 85.6656 -1490 111 113 155
266.953 85.6864 -1490 112 114 156
270.191 85.7649 -1491 103 103 147
273.252 85.7861 -1491 103 110 152
276.501 85.8652 -1492 106 114 156
279.944 86.0021 -1494 103 109 152
283.397 86.1394 -1496 99 105 146
287.052 86.3345 -1499 103 109 149
290.335 86.4147 -1500 111 118 156
293.429 86.4377 -1500 105 112 150
296.723 86.5184 -1501 102 109 147
300.023 86.5996 -1502 114 118 159
302.927 86.5657 -1501 121 124 169
306.441 86.705 -1503 128 129 174
309.759 86.7869 -1504 131 131 174
313.293 86.9269 -1506 133 133 173
316.417 86.9518 -1506 133 133 173
319.968 87.0923 -1508 133 133 173
323.316 87.1755 -1509 137 137 176
327.537 87.49 -1514 145 146 183
331.344 87.6895 -1517 150 151 187
334.946 87.8314 -1519 150 149 185
338.336 87.9159 -1520 161 160 194
342.857 88.29 -1526 163 162 195
346.272 88.3751 -1527 162 161 193
350.61 88.6922 -1532 157 157 189
353.817 88.7201 -1532 146 145 178
357.027 88.7483 -1532 145 139 175
359.77 88.6608 -1530 132 128 167
362.744 88.6317 -1529 124 120 160
365.239 88.4866 -1526 119 115 154
368.449 88.5159 -1526 113 112 148
370.688 88.3132 -1522 123 125 162
373.404 88.2268 -1520 153 158 196
376.115 88.1405 -1518 149 153 187
379.321 88.1707 -1518 124 125 163
382.782 88.2592 -1519 127 125 166
386.251 88.3481 -1520 137 137 172
390.752 88.6698 -1525 185 184 215
394.503 88.8175 -1527 185 184 214
398.526 89.0237 -1530 121 120 150
402.041 89.114 -1531 103 104 138
405.562 89.2046 -1532 107 108 144
408.292 89.1208 -1530 108 108 146
411.285 89.0954 -1529 110 110 150
415.091 89.2452 -1531 147 145 189
418.09 89.2204 -1530 154 152 199
421.363 89.2541 -1530 145 143 195
424.362 89.2298 -1529 167 161 219
427.641 89.2642 -1529 169 161 218
430.36 89.182 -1527 169 162 218
432.79 89.0416 -1524 176 177 230
436.355 89.1351 -1525 164 162 217
439.064 89.0536 -1523 179 178 225
441.768 88.9723 -1521 230 230 252
628.91 93.2399 -1555 236 233 232
664.506 93.6709 -1553 228 195 195
666.461 93.4867 -1549 234 201 200
668.404 93.3025 -1545 236 203 200
670.334 93.1183 -1541 248 206 204
674.002 93.1762 -1541 253 208 204
678.117 93.2949 -1542 255 212 205
685.338 93.8378 -1550 0 0 0
690.382 94.079 -1553 0 0 0
-636.172 79.338 -1347 255 255 254
-634.755 79.5199 -1351 250 250 251
-633.326 79.7019 -1355 221 223 229
-633.743 80.1189 -1363 140 140 149
-632.278 80.3008 -1367 95 91 106
-629.419 80.3065 -1368 103 97 117
-626.105 80.2538 -1368 89 82 103
-623.252 80.2601 -1369 86 78 100
-619.495 80.1494 -1368 96 88 108
-615.299 79.9806 -1366 137 133 154
-611.567 79.8708 -1365 170 168 189
-607.846 79.7615 -1364 178 174 192
-602.362 79.4188 -1359 197 192 205
-597.35 79.1352 -1355 233 231 239
-592.801 78.9106 -1352 252 252 254
-590.017 78.9198 -1353 242 243 251
-584.632 78.5795 -1348 192 198 215
-583.59 78.8225 -1353 179 189 210
-579.956 78.7161 -1352 188 202 229
-505.977 78.7196 -1372 248 249 253
-505.437 79.0804 -1379 233 237 248
-504.141 79.3265 -1384 215 219 236
-502.104 79.458 -1387 205 208 225
-498.618 79.3606 -1386 197 199 217
-494.785 79.2063 -1384 185 188 208
-490.254 78.9379 -1380 175 180 201
-486.805 78.8417 -1379 170 178 201
-483.365 78.7457 -1378 166 177 200
-480.632 78.7643 -1379 158 168 192
-477.552 78.7261 -1379 151 161 185
-474.476 78.6881 -1379 149 161 187
-471.405 78.6504 -1379 146 158 184
-467.998 78.556 -1378 141 150 176
-463.251 78.234 -1373 138 146 174
-460.877 78.3112 -1375 137 145 174
-457.166 78.161 -1373 139 147 175
-454.129 78.1248 -1373 136 142 171
-451.097 78.0889 -1373 133 138 167
-448.722 78.167 -1375 130 140 170
-444.721 77.9612 -1372 129 138 167
-441.703 77.9261 -1372 122 131 159
-438.689 77.8914 -1372 119 128 158
-435.045 77.7434 -1370 124 135 166
-432.043 77.7092 -1370 126 137 169
-428.733 77.6186 -1369 117 123 157
-425.12 77.4716 -1367 119 126 160
-422.445 77.495 -1368 125 135 168
-419.464 77.4619 -1368 132 138 170
-416.182 77.3725 -1367 119 126 157
-413.21 77.3399 -1367 119 125 157
-410.242 77.3076 -1367 117 122 155
-407.278 77.2756 -1367 130 135 168
-404.318 77.2439 -1367 117 123 154
-401.361 77.2124 -1367 109 114 145
-398.407 77.1811 -1367 111 114 146
-395.457 77.1501 -1367 114 115 149
-392.224 77.063 -1366 118 121 154
-389.568 77.0889 -1367 108 113 146
-386.629 77.0587 -1367 105 105 140
-383.693 77.0287 -1367 107 106 141
-380.761 76.999 -1367 118 117 152
-378.108 77.0259 -1368 121 116 151
-375.454 77.0529 -1369 100 94 129
-372.528 77.0239 -1369 106 103 136
-369.604 76.9951 -1369 108 105 137
-366.416 76.9104 -1368 119 116 147
-362.97 76.7697 -1366 110 105 136
-359.799 76.6855 -1365 108 103 134
-356.635 76.6017 -1364 109 104 135
-353.738 76.5742 -1364 120 113 148
-351.102 76.6032 -1365 130 123 158
-348.974 76.7444 -1368 105 96 129
-346.078 76.7177 -1368 105 96 127
-343.436 76.7472 -1369 103 94 124
-340.295 76.6648 -1368 125 114 145
-336.915 76.5268 -1366 131 120 151
-333.546 76.3889 -1364 166 155 186
-330.188 76.2515 -1362 150 139 170
-327.322 76.2262 -1362 123 112 143
-324.459 76.2012 -1362 128 115 148
-321.599 76.1764 -1362 140 126 157
-318.741 76.1519 -1362 187 173 202
-316.119 76.1835 -1363 170 157 186
-313.265 76.1594 -1363 131 118 147
-310.413 76.1356 -1363 145 131 160
-307.565 76.1119 -1363 167 154 183
-304.942 76.1444 -1364 203 190 219
-302.097 76.1212 -1364 171 158 187
-299.254 76.0983 -1364 148 135 164
-295.979 75.964 -1362 148 135 164
-293.145 75.9416 -1362 181 167 194
-290.1 75.8636 -1361 209 194 221
-287.063 75.7859 -1360 170 154 179
-284.031 75.7085 -1359 154 137 162
-281.007 75.6313 -1358 151 132 158
-278.194 75.61 -1358 191 177 205
-275.383 75.5891 -1358 199 185 213
-272.574 75.5683 -1358 156 143 172
-269.967 75.6033 -1359 143 130 159
-267.161 75.5829 -1359 134 121 150
-264.357 75.5628 -1359 192 180 204
-261.555 75.5429 -1359 195 181 205
-258.946 75.5788 -1360 152 136 160
-255.959 75.5038 -1359 147 128 153
-252.978 75.429 -1358 141 122 147
-250.187 75.41 -1358 189 175 202
-247.398 75.3912 -1358 182 168 195
-244.611 75.3726 -1358 136 122 149
-242.005 75.4097 -1359 136 122 151
-238.868 75.2807 -1357 137 123 151
-235.916 75.2073 -1356 186 172 197
-232.969 75.1342 -1355 181 165 190
-230.198 75.1167 -1355 130 114 138
-227.598 75.155 -1356 137 118 146
-224.995 75.1933 -1357 130 112 139
-221.898 75.0657 -1355 182 166 191
-218.973 74.9938 -1354 174 160 187
-216.054 74.9221 -1353 125 111 140
-212.984 74.7952 -1351 136 117 145
-210.234 74.7794 -1351 137 118 146
-207.333 74.7084 -1350 186 167 195
-204.892 74.8035 -1352 172 153 180
-202.145 74.7883 -1352 113 94 120
-199.548 74.8286 -1353 132 115 143
-196.658 74.7585 -1352 131 114 142
-193.916 74.7438 -1352 181 164 192
-191.035 74.6741 -1351 174 157 185
-188.299 74.66 -1351 122 105 133
-185.426 74.5907 -1350 125 108 136
-182.56 74.5218 -1349 136 118 146
-179.832 74.5082 -1349 184 165 193
-177.106 74.4949 -1349 173 158 185
-174.381 74.4818 -1349 116 102 129
-171.658 74.4689 -1349 118 104 131
-168.811 74.4009 -1348 124 111 139
-166.092 74.3885 -1348 174 161 190
-163.375 74.3762 -1348 181 167 196
-160.421 74.2537 -1346 123 109 138
-157.828 74.2971 -1347 118 104 133
-155.231 74.3406 -1348 123 107 137
-152.293 74.2188 -1346 172 155 185
-149.586 74.2076 -1346 182 166 196
-147.099 74.3068 -1348 131 115 145
-144.498 74.3511 -1349 121 104 132
-141.789 74.3405 -1349 117 100 128
-139.184 74.3852 -1350 160 143 171
-136.576 74.43 -1351 182 165 193
-133.767 74.3649 -1350 141 124 153
-131.06 74.355 -1350 120 103 135
-128.355 74.3454 -1350 122 105 135
-125.836 74.4461 -1352 156 139 169
-123.038 74.3818 -1351 185 171 200
-120.422 74.4278 -1352 146 132 162
-117.804 74.4741 -1353 116 103 134
-115.182 74.5204 -1354 111 95 129
-112.391 74.457 -1353 126 109 145
-109.524 74.3388 -1351 147 132 166
-106.587 74.1656 -1348 147 132 163
-103.74 74.0478 -1346 163 149 176
-100.977 73.9852 -1345 200 185 208
-98.3641 74.0329 -1346 170 154 176
-95.8196 74.1357 -1348 145 131 156
-93.2679 74.2387 -1350 148 132 158
-90.6419 74.2869 -1351 178 160 186
-88.0126 74.3353 -1352 213 197 221
-85.3801 74.3838 -1353 184 168 193
-82.683 74.3776 -1353 156 137 169
-79.9867 74.3716 -1353 158 139 171
-77.291 74.3658 -1353 182 163 195
-74.596 74.3602 -1353 211 197 226
-71.9547 74.4097 -1354 190 176 205
-69.2588 74.4045 -1354 162 145 175
-66.5634 74.3995 -1354 161 144 175
-63.9159 74.4497 -1355 177 160 192
-61.2196 74.445 -1355 215 198 228
-58.5238 74.4406 -1355 202 185 215
-55.7874 74.3815 -1354 155 141 169
-53.0945 74.3774 -1354 158 142 171
-50.3648 74.3187 -1353 162 145 175
-47.7804 74.4798 -1356 202 185 215
-45.0848 74.4764 -1356 199 182 212
-42.3896 74.4732 -1356 166 149 179
-39.6946 74.4701 -1356 154 139 168
-37 74.4673 -1356 149 135 164
-34.2804 74.4098 -1355 203 186 216
-31.5883 74.4074 -1355 192 176 205
-28.9392 74.5149 -1357 152 138 167
-26.263 74.5678 -1358 149 134 163
-23.583 74.6209 -1359 151 135 165
-20.9146 74.7291 -1361 209 192 222
-18.2117 74.7276 -1361 191 174 204
-15.5316 74.8362 -1363 154 138 168
-12.825 74.8352 -1363 150 133 163
-10.1333 74.9442 -1365 162 145 175
-7.43379 75.0533 -1367 199 185 212
-4.72636 75.1627 -1369 168 154 180
-2.0125 75.3271 -1372 151 137 162
0.713255 75.4918 -1375 139 125 152
3.44342 75.492 -1375 177 162 190
6.1781 75.5472 -1376 186 172 201
8.91681 75.6027 -1377 144 131 161
11.6426 75.5485 -1376 137 124 155
14.3855 75.6044 -1377 152 138 169
17.1448 75.7154 -1379 190 176 207
19.8979 75.7717 -1380 148 135 165
22.6714 75.883 -1382 134 121 150
25.4715 76.0495 -1385 117 104 133
28.2429 76.1064 -1386 187 173 201
31.0409 76.2184 -1388 170 156 186
33.8229 76.2758 -1389 127 113 144
36.6354 76.3882 -1391 118 103 137
39.4277 76.4459 -1392 160 146 178
42.2546 76.5588 -1394 171 157 186
45.1222 76.7268 -1397 122 108 135
47.9677 76.84 -1399 104 90 117
50.8578 77.0085 -1402 145 131 160
53.6838 77.0673 -1403 152 139 169
56.5948 77.2361 -1406 119 106 137
59.3913 77.2405 -1406 111 98 129
62.321 77.4098 -1409 154 141 173
65.2168 77.5244 -1411 161 147 183
68.2178 77.7491 -1415 122 109 144
71.0343 77.7542 -1415 106 93 128
74.0078 77.9245 -1418 134 123 156
76.8316 77.93 -1418 170 159 192
79.6558 77.9358 -1418 127 116 149
82.4224 77.8869 -1417 121 110 143
85.3062 77.948 -1418 113 102 135
88.1947 78.0094 -1419 177 162 196
91.2801 78.236 -1423 175 161 193
94.1179 78.2428 -1423 119 106 137
97.0243 78.3049 -1424 120 106 137
100.006 78.4222 -1426 135 122 153
102.78 78.3747 -1425 141 130 161
105.773 78.4924 -1427 107 94 125
108.775 78.6104 -1429 121 108 139
111.863 78.7836 -1432 165 154 187
114.885 78.902 -1434 120 109 142
117.998 79.0757 -1437 101 90 123
121.039 79.1947 -1439 109 102 134
124.09 79.3138 -1441 159 151 183
127.149 79.4333 -1443 163 154 186
130.308 79.6079 -1446 136 128 158
133.388 79.7279 -1448 138 131 161
136.288 79.7379 -1448 152 145 175
139.382 79.8583 -1450 161 151 182
142.289 79.8687 -1450 157 146 177
145.196 79.8795 -1450 155 146 178
148.106 79.8903 -1450 158 151 182
151.224 80.0116 -1452 163 158 189
154.352 80.1332 -1454 150 143 175
157.489 80.2551 -1456 145 138 170
160.635 80.3771 -1458 145 138 170
163.791 80.4995 -1460 162 155 187
166.956 80.6221 -1462 149 142 174
169.666 80.5243 -1460 137 130 162
172.605 80.5371 -1460 132 125 159
175.546 80.5501 -1460 146 138 173
178.244 80.4529 -1458 140 130 168
181.308 80.5215 -1459 122 115 152
184.251 80.5351 -1459 116 110 146
187.324 80.6042 -1460 126 122 158
190.403 80.6735 -1461 126 123 159
193.619 80.7983 -1463 107 104 140
196.443 80.7577 -1462 107 105 141
199.672 80.8829 -1464 118 115 151
202.635 80.898 -1464 131 129 165
205.88 81.0238 -1466 109 106 142
208.423 80.8735 -1463 122 120 156
211.823 81.0551 -1466 128 126 162
214.65 81.0158 -1465 143 139 174
218.217 81.2532 -1469 126 121 157
221.351 81.325 -1470 123 118 154
225.254 81.6737 -1476 129 128 163
228.41 81.7461 -1477 145 144 180
231.572 81.8187 -1478 131 130 166
234.422 81.7809 -1477 131 131 166
237.592 81.854 -1478 140 140 175
240.605 81.8719 -1478 148 148 184
243.62 81.8901 -1478 138 138 175
247.304 82.1303 -1482 133 133 171
251.007 82.3707 -1486 135 137 174
254.216 82.4451 -1487 130 131 169
257.603 82.5753 -1489 125 125 164
260.651 82.5949 -1489 141 143 182
263.878 82.6701 -1490 150 153 193
267.112 82.7456 -1491 135 138 178
270.895 82.9879 -1495 130 130 173
273.781 82.953 -1494 130 136 177
277.592 83.196 -1498 129 137 178
280.859 83.2727 -1499 119 125 168
284.322 83.4052 -1501 110 117 159
287.796 83.5379 -1503 113 120 162
291.474 83.7266 -1506 116 124 164
294.384 83.6932 -1505 119 125 165
297.688 83.7713 -1506 125 129 170
300.599 83.7383 -1505 128 132 174
303.912 83.817 -1506 117 120 166
307.64 84.0071 -1509 120 123 168
311.177 84.142 -1511 122 124 168
314.933 84.3329 -1514 126 127 167
317.863 84.3012 -1513 131 131 171
322.065 84.6042 -1518 138 138 177
325.862 84.7962 -1521 146 147 181
328.377 84.6538 -1518 153 154 187
331.755 84.7347 -1519 163 164 195
335.14 84.816 -1520 169 169 196
338.755 84.9533 -1522 182 182 206
343.055 85.2585 -1527 184 184 207
347.606 85.62 -1533 183 183 205
351.498 85.8142 -1536 179 179 203
354.944 85.8971 -1537 169 168 194
358.397 85.9803 -1538 151 149 178
360.447 85.7283 -1533 134 132 168
363.19 85.6443 -1531 124 122 159
366.168 85.6163 -1530 120 118 156
368.903 85.5325 -1528 117 116 153
371.633 85.449 -1526 120 123 159
374.357 85.3657 -1524 148 155 190
377.077 85.2825 -1522 134 138 173
380.041 85.2557 -1521 125 125 165
383.76 85.3972 -1523 128 127 168
387.491 85.5391 -1525 149 151 186
391.746 85.7936 -1529 176 176 204
395.505 85.9362 -1531 146 146 174
398.755 85.9668 -1531 111 111 141
402.271 86.054 -1532 106 107 142
405.795 86.1415 -1533 134 135 170
408.793 86.1167 -1532 122 123 158
412.06 86.1486 -1532 122 123 161
415.872 86.2931 -1534 124 123 165
418.876 86.2693 -1533 122 121 166
421.88 86.2456 -1532 122 120 171
425.161 86.2786 -1532 137 133 188
428.166 86.2554 -1531 147 141 195
430.608 86.1197 -1528 161 155 209
433.323 86.0406 -1526 173 174 230
667.265 90.3336 -1551 199 172 172
670.078 90.2726 -1549 209 182 183
672.452 90.1533 -1546 215 180 183
674.82 90.0342 -1543 218 181 184
679.379 90.2073 -1545 228 188 186
687.048 90.7898 -1554 0 0 0
691.212 90.9057 -1555 0 0 0
-633.758 76.1797 -1342 247 245 248
-631.884 76.2984 -1345 190 192 196
-630.002 76.4173 -1348 153 156 163
-629.971 76.7629 -1355 127 128 138
-628.988 76.995 -1360 133 129 142
-627.067 77.1139 -1363 128 122 142
-624.223 77.1199 -1364 122 115 136
-621.38 77.1261 -1365 134 126 148
-618.086 77.0761 -1365 145 137 157
-614.348 76.97 -1364 167 164 183
-609.725 76.7514 -1361 190 187 205
-606.459 76.7026 -1361 218 214 228
-600.984 76.3724 -1356 249 247 251
-597.301 76.268 -1355 253 253 254
-592.314 75.9953 -1351 252 254 254
-589.533 76.0042 -1352 242 246 250
-584.151 75.6763 -1347 190 197 212
-584.836 76.1351 -1356 179 189 208
-506.496 76.3812 -1382 250 253 255
-505.922 76.7288 -1389 246 249 255
-501.816 76.9821 -1395 232 234 244
-499.75 77.1089 -1398 219 221 236
-494.123 76.6845 -1391 209 214 230
-490.297 76.5363 -1389 198 208 227
-484.38 76.058 -1381 191 203 223
-481.639 76.0759 -1382 185 196 216
-477.86 75.9289 -1380 180 191 211
-474.783 75.8923 -1380 176 189 211
-473.077 76.0758 -1384 175 187 209
-469.66 75.9847 -1383 172 182 204
-464.564 75.6193 -1377 167 176 200
-461.846 75.6388 -1378 165 174 198
-457.796 75.439 -1375 164 173 198
-455.086 75.4589 -1376 161 167 192
-451.719 75.3694 -1375 156 161 187
-449.992 75.5543 -1379 150 160 190
-446.307 75.4106 -1377 149 159 187
-443.6 75.4314 -1378 137 146 174
-439.615 75.2336 -1375 126 137 167
-436.281 75.1456 -1374 127 139 169
-432.641 75.0033 -1372 129 143 174
-429.953 75.0252 -1373 123 130 164
-426.642 74.938 -1372 120 129 162
-423.957 74.9604 -1373 122 133 166
-420.351 74.8193 -1371 130 139 170
-417.368 74.7876 -1371 123 132 162
-414.085 74.7017 -1370 120 127 160
-411.111 74.6704 -1370 121 126 159
-407.843 74.5851 -1369 126 131 164
-404.878 74.5544 -1369 124 129 160
-401.917 74.524 -1369 114 118 150
-398.668 74.4395 -1368 114 117 149
-395.716 74.4096 -1368 113 114 148
-392.481 74.3256 -1367 123 126 159
-389.823 74.3505 -1368 118 124 157
-386.882 74.3213 -1368 114 114 149
-384.225 74.3468 -1369 111 110 145
-381.01 74.2638 -1368 118 118 153
-378.355 74.2896 -1369 127 123 158
-375.426 74.2615 -1369 109 104 139
-372.771 74.2877 -1370 105 102 135
-369.576 74.2058 -1369 109 106 138
-366.924 74.2324 -1370 120 117 148
-363.474 74.0969 -1368 110 105 136
-360.299 74.0157 -1367 100 95 126
-357.131 73.9348 -1366 100 95 125
-353.971 73.8543 -1365 113 107 142
-351.333 73.8821 -1366 126 119 155
-349.458 74.0724 -1370 103 94 130
-346.305 73.9925 -1369 105 95 129
-343.41 73.9668 -1369 96 87 119
-340.021 73.8335 -1367 103 92 125
-337.136 73.8084 -1367 103 92 124
-333.52 73.6216 -1364 135 124 155
-330.405 73.5431 -1363 149 138 169
-328.018 73.6266 -1365 107 96 127
-325.149 73.6024 -1365 113 100 133
-322.283 73.5785 -1365 124 110 141
-319.185 73.5009 -1364 166 152 181
-316.559 73.5313 -1365 150 137 165
-313.241 73.4004 -1363 103 90 118
-310.618 73.4313 -1364 113 99 128
-307.542 73.3546 -1363 140 126 155
-304.919 73.3859 -1364 180 167 196
-301.852 73.3098 -1363 141 128 157
-299.231 73.3415 -1364 111 98 127
-295.956 73.2121 -1362 113 100 129
-292.908 73.1367 -1361 159 145 173
-289.652 73.0079 -1359 185 170 197
-287.041 73.0405 -1360 143 127 152
-284.01 72.9658 -1359 124 106 132
-280.779 72.8378 -1357 122 103 129
-278.378 72.9247 -1359 166 152 179
-275.362 72.8507 -1358 183 170 197
-272.353 72.7771 -1357 139 126 155
-269.549 72.7572 -1357 129 116 146
-266.944 72.7913 -1358 127 114 143
-264.143 72.7719 -1358 184 171 196
-261.536 72.8063 -1359 191 178 202
-258.927 72.8409 -1360 148 132 156
-255.94 72.7685 -1359 143 124 149
-253.145 72.75 -1359 138 119 144
-250.352 72.7317 -1359 187 173 200
-247.38 72.6601 -1358 185 171 198
-244.593 72.6422 -1358 143 129 156
-242.165 72.7314 -1360 148 133 163
-239.026 72.607 -1358 145 131 159
-236.072 72.5363 -1357 193 178 203
-233.124 72.4658 -1356 193 177 202
-230.351 72.4491 -1356 146 130 154
-227.413 72.379 -1355 154 136 164
-224.812 72.416 -1356 152 134 161
-222.046 72.3999 -1356 199 183 208
-219.119 72.3305 -1355 191 176 204
-216.198 72.2613 -1354 144 130 159
-213.126 72.1391 -1352 154 135 163
-210.374 72.1237 -1352 157 138 166
-207.471 72.0554 -1351 202 183 211
-204.877 72.0937 -1352 191 172 199
-201.981 72.0257 -1351 145 126 152
-199.386 72.0646 -1352 158 141 169
-196.643 72.0503 -1352 157 140 168
-193.758 71.9829 -1351 201 184 212
-190.879 71.9157 -1350 194 177 205
-188.145 71.9021 -1350 146 129 157
-185.138 71.7821 -1348 148 131 159
-182.411 71.7689 -1348 158 140 168
-179.686 71.7559 -1348 204 185 213
-176.962 71.743 -1348 193 179 206
-174.368 71.7836 -1349 143 129 156
-171.645 71.7712 -1349 144 130 157
-168.798 71.7057 -1348 149 135 163
-166.326 71.8 -1350 194 181 210
-163.484 71.735 -1349 199 185 214
-160.528 71.6171 -1347 145 131 160
-157.933 71.6588 -1348 141 127 156
-155.22 71.6476 -1348 148 132 162
-152.395 71.5834 -1347 194 177 207
-149.575 71.5195 -1346 203 189 218
-147.088 71.615 -1348 158 143 172
-144.487 71.6577 -1349 150 133 161
-141.884 71.7006 -1350 148 131 159
-139.174 71.6905 -1350 188 171 199
-136.566 71.7337 -1351 202 186 213
-133.857 71.7241 -1351 166 150 179
-131.051 71.6615 -1350 150 133 165
-128.345 71.6522 -1350 147 130 161
-125.827 71.7493 -1352 181 164 194
-123.029 71.6873 -1351 206 192 221
-120.324 71.6787 -1351 169 155 185
-117.795 71.7762 -1353 146 133 164
-115.089 71.7679 -1353 137 121 156
-112.3 71.7068 -1352 156 139 175
-109.435 71.5928 -1350 161 146 180
-106.579 71.479 -1348 134 120 151
-103.655 71.3124 -1345 143 129 156
-100.969 71.3051 -1345 186 170 194
-98.357 71.351 -1346 160 144 167
-95.7416 71.3971 -1347 116 102 127
-93.3303 71.6024 -1351 122 106 131
-90.7024 71.6488 -1352 154 135 161
-88.1364 71.7485 -1354 189 173 198
-85.4369 71.7423 -1354 164 148 174
-82.7993 71.7893 -1355 122 103 135
-80.0992 71.7835 -1355 124 105 136
-77.3426 71.7248 -1354 147 128 160
-74.6457 71.7195 -1354 189 175 204
-71.9494 71.7142 -1354 169 155 184
-69.3049 71.7622 -1355 130 113 143
-66.5586 71.7044 -1354 127 110 141
-63.9584 71.8056 -1356 143 126 158
-61.2603 71.8012 -1356 193 176 207
-58.5627 71.7969 -1356 176 160 189
-55.7833 71.687 -1354 123 109 136
-53.0906 71.6831 -1354 123 107 136
-50.3983 71.6795 -1354 127 110 140
-47.7418 71.7289 -1355 177 160 190
-45.0816 71.7785 -1356 174 157 187
-42.449 71.8813 -1358 132 115 145
-39.721 71.8254 -1357 118 103 132
-36.9973 71.7698 -1356 116 102 131
-34.3032 71.7672 -1356 180 163 193
-31.6094 71.7649 -1356 168 152 182
-28.9371 71.8157 -1357 125 111 140
-26.2804 71.9195 -1359 124 108 137
-23.5987 71.9707 -1360 125 108 138
-20.9131 72.022 -1361 184 167 197
-18.2237 72.0736 -1362 169 152 182
-15.5305 72.1253 -1363 126 109 139
-12.8241 72.1243 -1363 120 103 133
-10.1326 72.2293 -1365 130 114 143
-7.43326 72.3345 -1367 178 164 191
-4.72603 72.4399 -1369 140 126 152
-2.01383 72.6514 -1373 122 108 133
0.7132 72.7571 -1375 112 95 123
3.44317 72.7573 -1375 156 140 168
6.17316 72.7577 -1375 161 147 176
8.91616 72.864 -1377 116 103 133
11.6418 72.8118 -1376 107 93 124
14.3844 72.8657 -1377 122 108 139
17.1436 72.9726 -1379 167 153 184
19.9108 73.0798 -1381 124 111 142
22.6698 73.1342 -1382 110 97 127
25.4696 73.2947 -1385 104 91 120
28.2409 73.3495 -1386 164 150 179
31.061 73.5104 -1389 145 131 161
33.8448 73.5656 -1390 105 91 122
36.6327 73.621 -1391 98 83 117
39.4532 73.7296 -1393 149 135 167
42.2819 73.8384 -1395 150 136 165
45.1512 74.0003 -1398 106 92 120
47.9985 74.1095 -1400 97 83 110
50.8542 74.2189 -1402 154 140 171
53.6416 74.2226 -1402 152 138 169
56.5907 74.4383 -1406 112 99 130
59.4292 74.4954 -1407 104 91 122
62.3607 74.6585 -1410 154 141 173
65.2584 74.769 -1412 153 139 177
68.2127 74.9326 -1415 118 106 142
71.0793 74.9906 -1416 107 95 130
73.9503 75.0487 -1417 141 130 163
76.7717 75.0541 -1417 173 162 195
79.65 75.1126 -1418 132 121 154
82.4746 75.1184 -1418 123 112 145
85.3001 75.1243 -1418 116 105 138
88.2503 75.2365 -1420 174 159 193
91.2094 75.3488 -1422 179 165 197
94.2432 75.5145 -1425 122 109 140
97.0854 75.5213 -1425 121 107 138
100.069 75.6343 -1427 137 124 155
102.844 75.5886 -1426 128 117 147
105.765 75.6491 -1427 113 101 132
108.614 75.6567 -1427 129 116 148
111.777 75.8767 -1431 164 153 186
114.877 76.0438 -1434 121 110 143
117.989 76.2112 -1437 95 84 117
121.115 76.3789 -1440 134 123 156
124.339 76.5998 -1444 145 133 165
127.404 76.7149 -1446 117 104 136
130.479 76.8302 -1448 103 91 122
133.562 76.9458 -1450 99 88 119
136.561 77.0086 -1451 118 107 137
139.372 76.9653 -1450 115 103 132
142.376 77.0285 -1451 113 101 131
145.286 77.0389 -1451 112 102 134
148.095 76.9963 -1450 124 116 148
151.213 77.1132 -1452 132 125 157
154.553 77.3366 -1456 127 119 151
157.586 77.4009 -1457 132 124 156
160.954 77.6249 -1461 144 137 169
164.003 77.6896 -1462 150 144 176
167.286 77.861 -1465 146 140 172
169.77 77.6605 -1461 150 143 175
172.711 77.6728 -1461 155 148 182
175.533 77.6321 -1460 168 160 195
178.353 77.5916 -1459 161 151 189
181.419 77.6577 -1460 157 150 186
184.364 77.6709 -1460 158 152 188
187.439 77.7375 -1461 166 163 199
190.389 77.751 -1461 156 153 189
193.738 77.9245 -1464 146 143 179
196.563 77.8854 -1463 132 133 168
199.794 78.0061 -1465 143 144 179
202.759 78.0207 -1465 134 135 170
206.146 78.1952 -1468 116 115 151
208.835 78.1036 -1466 124 123 159
212.096 78.2253 -1468 133 134 169
214.927 78.1875 -1467 136 135 170
218.201 78.3097 -1469 123 121 156
221.485 78.4323 -1471 119 118 153
225.085 78.6617 -1475 128 130 165
228.548 78.8381 -1478 131 133 168
231.868 78.9614 -1480 120 122 157
234.881 78.9784 -1480 120 122 157
238.056 79.0489 -1481 131 134 169
240.913 79.0128 -1480 122 125 160
244.096 79.0838 -1481 113 115 152
247.62 79.2618 -1484 118 120 157
250.988 79.3867 -1486 122 126 163
254.368 79.5119 -1488 110 114 153
257.93 79.6908 -1491 110 114 153
261.157 79.7632 -1492 122 128 166
264.744 79.9427 -1495 126 132 170
267.988 80.0155 -1496 114 120 158
271.419 80.1422 -1498 121 123 165
274.677 80.2155 -1499 127 134 174
278.312 80.3962 -1502 129 137 177
281.587 80.4702 -1503 131 138 181
285.627 80.7585 -1508 133 141 183
288.923 80.8331 -1509 127 135 177
292.033 80.8543 -1509 124 132 174
294.949 80.8221 -1508 133 138 179
298.061 80.8438 -1508 138 142 183
300.976 80.812 -1507 140 144 186
304.495 80.9415 -1509 139 143 187
308.229 81.1248 -1512 147 151 193
312.389 81.4158 -1517 148 152 193
315.533 81.4388 -1517 151 154 191
319.1 81.5695 -1519 167 169 205
322.253 81.5931 -1519 171 171 207
325.838 81.7242 -1521 173 174 204
329.65 81.9096 -1524 183 183 211
332.167 81.7727 -1521 199 199 223
336.658 82.1199 -1527 216 217 234
339.842 82.1447 -1527 234 235 248
345.051 82.6541 -1536 241 242 253
349.167 82.895 -1540 241 242 252
352.844 83.0285 -1542 238 237 250
355.379 82.8931 -1539 231 229 247
359.069 83.0272 -1541 193 195 216
361.125 82.7843 -1536 156 160 188
364.349 82.8112 -1536 135 137 169
367.097 82.7304 -1534 129 128 166
370.082 82.7037 -1533 123 123 161
372.335 82.5153 -1529 135 138 174
375.312 82.4891 -1528 129 136 170
378.039 82.409 -1526 116 119 154
381.012 82.3832 -1525 131 132 170
384.739 82.5197 -1527 136 136 176
388.224 82.6024 -1528 156 161 194
392.229 82.7936 -1531 146 149 177
395.992 82.9312 -1533 108 111 139
399.506 83.0149 -1534 116 117 148
403.291 83.1531 -1536 109 112 148
406.823 83.2374 -1537 148 150 186
410.096 83.2679 -1537 161 162 197
412.566 83.1361 -1534 132 135 170
416.653 83.3296 -1537 119 119 157
419.391 83.2524 -1535 121 120 161
422.124 83.1754 -1533 131 129 175
424.851 83.0986 -1531 125 122 172
428.134 83.1306 -1531 131 126 179
430.293 82.9456 -1527 143 138 192
432.155 82.7062 -1522 142 143 197
433.14 82.304 -1514 182 190 218
428.042 80.7595 -1485 236 247 252
603.665 86.3801 -1555 254 250 251
610.033 86.3641 -1553 254 251 252
668.071 87.1731 -1553 237 225 227
671.753 87.2266 -1553 231 212 216
673.267 86.9994 -1548 194 170 179
675.639 86.8847 -1545 179 154 165
679.763 86.9952 -1546 179 151 157
-635.122 73.8129 -1352 133 135 139
-629.952 73.5452 -1348 121 123 132
-629.456 73.8232 -1354 151 151 162
-627.089 73.8832 -1356 152 148 161
-623.797 73.8345 -1356 123 117 137
-621.428 73.8948 -1358 126 119 140
-618.6 73.9011 -1359 156 148 170
-615.773 73.9075 -1360 181 173 193
-611.147 73.697 -1357 186 184 197
-608.333 73.704 -1358 226 225 235
-603.292 73.4401 -1354 253 251 254
-601.823 73.6104 -1358 254 251 254
-596.814 73.3474 -1354 252 251 252
-590.076 72.8684 -1346 251 252 251
-585.127 72.6066 -1342 240 246 250
-578.034 72.0751 -1333 195 203 216
-489.907 73.6069 -1388 238 244 253
-486.447 73.5176 -1387 229 236 248
-482.3 73.3227 -1384 223 229 241
-480.941 73.552 -1389 212 219 230
-478.531 73.6223 -1391 200 208 222
-475.434 73.5871 -1391 195 204 218
-470.643 73.2877 -1386 188 198 216
-466.216 73.0417 -1382 177 187 206
-462.147 72.8489 -1379 170 180 199
-457.761 72.6039 -1375 168 180 199
-456.044 72.7814 -1379 168 176 198
-452.014 72.5897 -1376 168 175 198
-450.611 72.8203 -1381 162 172 202
-446.273 72.5765 -1377 164 174 203
-443.889 72.6493 -1379 164 173 202
-440.541 72.5642 -1378 159 168 198
-436.884 72.4268 -1376 159 169 200
-433.239 72.2898 -1374 160 171 203
-430.547 72.3108 -1375 161 170 202
-428.165 72.3846 -1377 154 164 196
-425.16 72.3535 -1377 150 162 194
-421.547 72.2176 -1375 152 164 195
-418.554 72.187 -1375 149 160 191
-415.263 72.1042 -1374 141 151 183
-411.681 71.9692 -1372 141 151 183
-408.706 71.9394 -1372 143 153 184
-405.735 71.9098 -1372 157 168 198
-402.474 71.8281 -1371 153 163 193
-399.221 71.7467 -1370 148 158 188
-396.266 71.7179 -1370 147 154 187
-393.026 71.637 -1369 157 165 198
-390.365 71.6609 -1370 159 168 201
-387.419 71.6329 -1370 154 159 193
-384.477 71.605 -1370 149 153 187
-381.261 71.5251 -1369 150 156 189
-378.604 71.55 -1370 161 164 197
-375.398 71.4706 -1369 152 155 187
-372.744 71.4959 -1370 150 148 182
-370.089 71.5214 -1371 149 147 180
-367.433 71.5471 -1372 164 161 192
-363.713 71.3644 -1369 162 157 187
-360.536 71.2862 -1368 151 146 176
-357.367 71.2084 -1367 149 143 173
-354.204 71.1309 -1366 151 145 175
-351.307 71.1056 -1366 164 157 188
-349.178 71.2367 -1369 149 140 171
-346.28 71.2118 -1369 137 128 158
-343.134 71.1351 -1368 109 100 129
-339.996 71.0588 -1367 97 86 117
-337.358 71.0866 -1368 97 86 117
-333.985 70.9587 -1366 136 124 155
-330.866 70.8831 -1365 167 154 185
-327.995 70.8597 -1365 111 98 129
-325.126 70.8365 -1365 114 101 134
-321.787 70.7097 -1363 121 108 139
-318.928 70.6869 -1363 162 148 177
-316.072 70.6643 -1363 156 142 170
-312.989 70.5902 -1362 110 96 123
-310.368 70.6199 -1363 115 101 129
-307.519 70.598 -1363 136 123 151
-304.674 70.5763 -1363 177 164 193
-301.831 70.5548 -1363 141 130 158
-298.99 70.5336 -1363 112 100 129
-295.935 70.4608 -1362 112 99 128
-292.887 70.3883 -1361 151 137 165
-289.845 70.316 -1360 179 165 192
-287.232 70.3473 -1361 134 118 143
-284.199 70.2755 -1360 112 94 119
-281.173 70.2039 -1359 108 89 115
-278.563 70.2358 -1360 157 143 170
-275.545 70.1646 -1359 173 159 186
-272.334 70.0421 -1357 124 111 140
-269.53 70.0231 -1357 115 102 132
-266.925 70.0558 -1358 111 98 128
-264.124 70.0371 -1358 168 155 181
-261.325 70.0187 -1358 173 159 185
-258.718 70.052 -1359 122 106 130
-255.733 69.9824 -1358 121 103 128
-253.127 70.0161 -1359 116 97 123
-250.335 69.9985 -1359 169 155 182
-247.544 69.981 -1359 165 151 178
-244.756 69.9638 -1359 120 106 133
-241.97 69.9468 -1359 125 109 138
-238.833 69.827 -1357 122 106 135
-236.055 69.8104 -1357 174 159 184
-233.107 69.7426 -1356 174 158 183
-230.335 69.7264 -1356 117 101 125
-227.565 69.7105 -1356 132 115 143
-224.796 69.6946 -1356 127 110 138
-222.03 69.6791 -1356 179 163 188
-219.265 69.6637 -1356 170 156 183
-216.502 69.6485 -1356 118 104 133
-213.583 69.5822 -1355 131 112 140
-210.515 69.4647 -1353 136 117 145
-207.61 69.3989 -1352 185 166 194
-205.014 69.4359 -1353 173 154 180
-201.967 69.3191 -1351 126 107 133
-199.372 69.3564 -1352 130 113 141
-196.629 69.3427 -1352 136 119 147
-193.888 69.3291 -1352 186 169 197
-190.866 69.2132 -1350 174 157 185
-188.132 69.2 -1350 124 107 135
-185.262 69.1359 -1349 129 112 140
-182.534 69.1231 -1349 143 125 153
-179.806 69.1106 -1349 189 170 198
-177.212 69.1495 -1350 178 163 190
-174.485 69.1373 -1350 122 108 135
-171.76 69.1253 -1350 124 110 137
-169.037 69.1135 -1350 132 118 146
-166.438 69.1531 -1351 183 170 199
-163.473 69.0393 -1349 182 168 197
-160.517 68.9258 -1347 129 115 144
-157.922 68.966 -1348 128 115 144
-155.209 68.9551 -1348 131 115 145
-152.384 68.8933 -1347 184 167 197
-149.676 68.883 -1347 192 178 207
-147.187 68.9749 -1349 138 123 152
-144.584 69.0161 -1350 135 118 146
-141.979 69.0573 -1351 131 114 142
-139.267 69.0476 -1351 177 160 188
-136.658 69.0892 -1352 186 172 199
-133.946 69.0799 -1352 145 130 158
-131.139 69.0196 -1351 133 116 146
-128.527 69.0618 -1352 132 115 145
-125.818 69.053 -1352 173 156 186
-123.111 69.0445 -1352 189 175 204
-120.494 69.0872 -1353 149 136 165
-117.874 69.1301 -1354 131 118 149
-115.166 69.122 -1354 122 106 141
-112.375 69.0631 -1353 152 135 171
-109.509 68.9535 -1351 155 141 172
-106.572 68.7929 -1348 123 109 139
-103.725 68.6837 -1346 129 115 142
-100.962 68.6256 -1345 178 163 187
-98.277 68.6187 -1345 154 138 162
-95.6638 68.6631 -1346 108 94 119
-93.1856 68.8096 -1349 117 101 127
-90.5619 68.8544 -1350 145 126 154
-88.0001 68.9502 -1352 182 165 191
-85.3678 68.9953 -1353 157 141 166
-82.7324 69.0406 -1354 113 94 126
-80.0344 69.0349 -1354 118 99 131
-77.3371 69.0295 -1354 140 121 153
-74.6405 69.0243 -1354 179 164 194
-71.9444 69.0193 -1354 162 148 177
-69.3512 69.1164 -1356 121 104 134
-66.6032 69.0608 -1355 118 101 132
-63.9539 69.1073 -1356 129 112 144
-61.2561 69.103 -1356 182 165 195
-58.5587 69.0989 -1356 168 152 181
-55.8206 69.044 -1355 119 105 132
-53.1262 69.0403 -1355 117 101 130
-50.4321 69.0368 -1355 120 103 133
-47.7384 69.0334 -1355 173 156 186
-45.1117 69.1322 -1357 168 151 181
-42.4148 69.1291 -1357 128 111 141
-39.7182 69.1263 -1357 114 99 129
-36.9947 69.0728 -1356 113 99 128
-34.3008 69.0703 -1356 177 160 190
-31.5838 69.0172 -1355 166 150 179
-28.9351 69.117 -1357 122 108 137
-26.2979 69.2679 -1360 122 106 136
-23.6143 69.3171 -1361 118 101 130
-20.9423 69.4174 -1363 176 159 189
-18.2492 69.4669 -1364 165 148 178
-15.5408 69.4659 -1364 123 106 136
-12.8232 69.4139 -1363 119 102 132
-10.1393 69.5659 -1366 130 114 143
-7.43274 69.6163 -1367 178 164 191
-4.72916 69.7686 -1370 139 125 151
-2.01223 69.8703 -1372 124 110 135
0.713665 70.0739 -1376 108 91 119
3.44293 70.0232 -1375 158 142 170
6.17273 70.0235 -1375 158 144 173
8.90906 70.0749 -1376 116 102 132
11.641 70.0756 -1376 111 97 128
14.373 70.0765 -1376 126 112 143
17.1424 70.2304 -1379 173 159 190
19.9094 70.3336 -1381 129 116 147
22.6846 70.4368 -1383 113 101 131
25.4863 70.5913 -1386 112 100 130
28.2797 70.695 -1388 167 153 182
31.0812 70.7989 -1390 147 133 163
33.891 70.903 -1392 113 99 130
36.6828 70.9564 -1393 105 90 124
39.5071 71.0608 -1395 153 138 171
42.3699 71.2165 -1398 136 122 151
45.1804 71.2705 -1399 113 99 127
47.9952 71.3246 -1400 99 85 112
50.8506 71.4299 -1402 160 146 177
53.6379 71.4334 -1402 149 135 166
56.5061 71.5391 -1404 110 97 128
59.3406 71.5941 -1405 104 91 122
62.2679 71.7511 -1408 158 144 176
65.1614 71.8574 -1410 154 140 178
68.1598 72.0658 -1414 114 102 139
71.0742 72.1725 -1416 103 92 128
73.9452 72.2284 -1417 142 131 164
76.8206 72.2846 -1418 176 165 198
79.6445 72.2899 -1418 136 125 158
82.4689 72.2956 -1418 133 122 155
85.2339 72.2503 -1417 137 126 158
88.1821 72.3583 -1419 187 172 205
91.2029 72.5174 -1422 198 184 216
94.1705 72.6257 -1424 143 130 161
97.0787 72.6833 -1425 132 118 149
100.062 72.7921 -1427 143 131 162
102.837 72.7481 -1426 133 122 153
105.684 72.7552 -1426 137 124 155
108.683 72.8646 -1428 155 143 174
111.691 72.9742 -1430 172 161 194
114.869 73.1862 -1434 125 114 146
117.981 73.3473 -1437 115 104 136
121.022 73.4577 -1439 145 133 165
124.244 73.6703 -1443 120 107 139
127.395 73.8321 -1446 104 90 121
130.47 73.9431 -1448 99 86 117
133.553 74.0543 -1450 99 86 117
136.645 74.1658 -1452 126 113 144
139.362 74.0731 -1450 114 101 130
142.268 74.0828 -1450 102 89 119
145.276 74.1438 -1451 106 94 127
148.084 74.1029 -1450 116 105 137
151.202 74.2154 -1452 105 94 127
154.542 74.4304 -1456 94 84 116
157.575 74.4923 -1457 94 85 117
161.053 74.759 -1462 108 101 133
164.216 74.8724 -1464 107 102 133
167.161 74.8839 -1464 101 96 127
169.99 74.8443 -1463 107 100 132
172.935 74.8562 -1463 115 108 142
175.641 74.7659 -1461 122 115 149
178.585 74.7782 -1461 125 116 154
181.779 74.8931 -1463 129 122 158
184.604 74.8545 -1462 141 135 171
187.81 74.9698 -1464 159 156 192
190.636 74.9317 -1463 152 149 185
193.856 75.0475 -1465 154 151 187
196.683 75.0098 -1464 156 160 195
199.916 75.126 -1466 175 179 214
203.021 75.1912 -1467 167 171 206
206.272 75.308 -1469 166 169 204
209.248 75.3224 -1469 166 169 204
212.37 75.3883 -1470 171 174 209
215.205 75.3519 -1469 163 166 200
218.483 75.4696 -1471 155 158 192
221.62 75.5361 -1472 152 155 189
225.221 75.757 -1476 155 161 195
228.686 75.9268 -1479 141 148 182
232.165 76.0969 -1482 132 136 171
235.182 76.1131 -1482 131 135 170
238.2 76.1296 -1482 142 146 181
241.058 76.0949 -1481 129 133 168
244.408 76.2146 -1483 121 125 162
247.936 76.3861 -1486 132 136 173
251.309 76.5063 -1488 129 136 172
254.862 76.6782 -1491 124 131 169
258.604 76.9018 -1495 122 129 168
261.664 76.9201 -1495 121 130 168
264.725 76.9385 -1495 114 124 162
267.969 77.0086 -1496 116 125 163
271.58 77.1819 -1499 122 127 168
275.207 77.3555 -1502 124 131 172
279.033 77.581 -1506 119 127 167
282.504 77.7038 -1508 119 126 169
286.553 77.9814 -1513 119 128 170
290.243 78.1563 -1516 116 125 167
293.366 78.1768 -1516 120 128 170
296.101 78.0943 -1514 127 132 172
299.226 78.1153 -1514 131 135 175
302.353 78.1365 -1514 138 142 182
305.482 78.1578 -1514 145 149 186
309.226 78.3344 -1517 151 155 191
313.191 78.5629 -1521 160 165 194
316.134 78.5334 -1520 170 174 199
319.917 78.7109 -1523 180 183 207
322.654 78.6301 -1521 188 190 212
325.386 78.5497 -1519 206 208 224
329.626 78.8314 -1524 223 225 238
333.672 79.0618 -1528 237 239 249
343.378 79.8861 -1543 253 254 255
346.374 79.8587 -1542 252 254 255
349.142 79.7798 -1540 252 254 254
353.963 80.1675 -1547 252 252 255
356.97 80.1408 -1546 252 252 255
359.975 80.1144 -1545 229 235 241
