ply
format ascii 1.0
comment Created by Open3D
element vertex 740
property double x
property double y
property double z
property double nx
property double ny
property double nz
property uchar red
property uchar green
property uchar blue
end_header
22.3642 -632.17 -1800.96 0.718666 -0.674705 -0.177658 62 58 68
25.4169 -626.876 -1799.05 0.851103 -0.415204 -0.122374 61 57 67
24.3348 -612.011 -1798.12 0.94771 0.158611 0.217838 58 53 64
24.9195 -614.618 -1797.44 0.954082 0.104938 0.152532 58 54 64
23.7429 -610.488 -1797.11 0.937859 0.190599 0.287812 58 53 64
25.5492 -598.438 -1801.7 0.967019 0.0070964 0.12888 58 55 65
25.9836 -591.442 -1802.43 0.977955 0.00160902 0.0364271 59 56 65
25.7372 -587.778 -1801.17 0.976826 0.04917 0.0440024 59 56 65
24.3517 -578.842 -1795.78 0.962 0.0871937 -0.0475752 57 54 63
24.409 -571.197 -1797.01 0.964275 0.0168942 -0.0967159 56 53 63
22.8875 -558.363 -1800.02 0.976044 0.121793 -0.0142728 54 51 61
20.4844 -549.226 -1800.56 0.960167 0.213575 -0.0104837 53 50 59
-110.673 -547.482 -1797.93 -0.70483 -0.266555 -0.650276 28 27 34
-111.957 -543.084 -1798.63 -0.657722 -0.364034 -0.65344 27 26 32
-113.147 -537.827 -1801.43 -0.604523 -0.464335 -0.632505 27 26 32
-115.202 -531.88 -1802.53 -0.694208 -0.393219 -0.55702 26 25 32
-117.298 -528.241 -1799.26 -0.826093 -0.255921 -0.440881 25 24 31
-255.306 13.9992 -1798.77 -0.706195 0.0328265 -0.696494 23 23 27
-256.903 17.507 -1797.15 -0.702708 0.0398241 -0.700746 23 23 27
-256.327 22.7348 -1798.65 -0.66729 0.0131613 -0.72052 22 22 26
-274.461 32.6046 -1800.67 -0.847705 0.121824 -0.51286 21 20 25
-272.292 38.1249 -1802.71 -0.851011 0.151975 -0.504864 21 21 25
-271.1 45.7541 -1802.26 -0.814324 0.118302 -0.565735 21 21 25
-271.349 52.0306 -1799.68 -0.834722 0.0387513 -0.552085 21 21 25
-260.273 37.638 -1796.91 -0.512782 -0.0957617 -0.811478 18 17 22
-256.489 31.6472 -1800.15 -0.551396 -0.0729788 -0.784126 19 18 23
-259.757 44.8663 -1799.09 -0.59759 -0.0434265 -0.766509 20 20 24
-258.942 52.1496 -1801.41 -0.624714 -0.0309958 -0.75149 21 21 25
-261.504 48.3451 -1797.67 -0.564341 -0.10244 -0.78827 18 17 23
-271.465 57.1943 -1799.1 -0.822459 -0.0378017 -0.552662 21 21 25
-272.405 63.2584 -1798.75 -0.810638 -0.113259 -0.552168 22 22 26
-273.641 69.8044 -1798.07 -0.765056 -0.0998067 -0.578766 21 21 25
-266.513 60.9166 -1798.14 -0.49035 -0.1746 -0.818001 17 16 21
-259.187 56.9009 -1802 -0.612679 -0.0447837 -0.757572 21 21 25
-265.782 60.7278 -1796.7 -0.432999 -0.191563 -0.85754 15 15 20
-263.842 67.2484 -1801.56 -0.557269 -0.075413 -0.79586 19 19 23
-248.891 57.0596 -1796.9 -0.340731 -0.208129 -0.909991 15 14 20
-253.78 65.7621 -1796.75 -0.338129 -0.151143 -0.925291 14 14 19
-268.918 71.4817 -1796.77 -0.548379 -0.0286331 -0.788671 18 18 21
-263.516 68.1537 -1803.17 -0.596311 -0.0519914 -0.772737 20 20 24
-250.102 69.4243 -1798.41 -0.325035 -0.127906 -0.933268 14 13 18
-249.339 68.0145 -1798.66 -0.319999 -0.137457 -0.934546 14 13 18
-250.019 77.0432 -1798.84 -0.345532 -0.14036 -0.91504 12 12 16
-244.965 80.7566 -1801.08 -0.348841 -0.212812 -0.90123 12 11 15
-267.789 94.408 -1796.69 -0.538966 -0.336703 -0.752896 12 11 16
-261.557 94.2723 -1800.02 -0.557619 -0.229929 -0.777428 16 15 19
-253.378 85.8758 -1799.81 -0.425174 -0.261434 -0.837512 13 12 17
-243.962 81.6358 -1801.6 -0.345723 -0.235119 -0.897622 12 11 15
-248.837 88.9152 -1802.62 -0.34985 -0.404137 -0.833167 12 11 16
-266.007 101.341 -1798.54 -0.426013 -0.178334 -0.841369 14 14 18
-259.297 97.7384 -1802.2 -0.572194 -0.0936395 -0.787677 21 20 23
-269.307 106.486 -1797.04 -0.283464 -0.183886 -0.902114 12 12 16
34.3624 -26.6963 -1802.79 0.481056 0.214013 -0.715508 14 13 19
38.7018 -24.2762 -1799.32 0.446694 0.184013 -0.749687 15 14 20
36.376 -15.7944 -1797.75 0.531775 0.212358 -0.690358 14 13 19
39.5632 -17.5868 -1796.31 0.449016 0.183566 -0.732373 15 14 20
30.9052 -9.77565 -1800.46 0.670914 0.223685 -0.591553 12 11 18
-19.8253 0.365767 -1801.57 0.608912 -0.119093 -0.760487 15 15 19
-14.912 1.87159 -1796.88 0.599179 -0.149389 -0.771169 16 16 19
-16.4219 11.8339 -1800.72 0.638692 -0.192618 -0.73819 16 16 18
-14.4247 20.3197 -1803.31 0.483431 -0.25745 -0.830757 17 18 20
-12.768 13.3649 -1798.58 0.530091 -0.261012 -0.784434 16 16 18
-7.21453 18.0783 -1798.39 0.369615 -0.278316 -0.872156 17 17 19
-8.47447 21.623 -1800.1 0.436915 -0.279264 -0.8442 17 17 20
-4.40153 27.1315 -1799.87 0.453063 -0.273698 -0.842163 18 18 21
14.9569 6.30139 -1802.07 0.490057 -0.0204359 -0.754548 13 13 17
18.966 2.30117 -1800.88 0.453725 0.026171 -0.741122 14 13 18
25.254 1.58864 -1801.2 0.654989 0.0885069 -0.620464 12 11 16
20.8957 10.7869 -1797.03 0.733626 -0.0294877 -0.601161 12 11 15
28.7975 11.3732 -1802.54 0.840124 0.0265285 -0.534762 11 10 16
14.9718 13.5336 -1801.08 0.603758 -0.0351009 -0.71303 13 12 16
12.0005 23.5193 -1802.58 0.62814 0.0172663 -0.702643 12 12 17
19.6986 18.0833 -1796.79 0.684013 -0.00763641 -0.659323 12 11 15
20.074 21.2317 -1796.33 0.670711 0.00126472 -0.683094 12 11 15
29.8241 25.3905 -1799.31 0.76957 0.151851 -0.614278 10 10 14
-242.017 -1133.92 -1792.46 -0.595129 0.567738 -0.535008 152 130 120
-239.642 -1128.56 -1791.43 -0.602938 0.430367 -0.533341 145 123 111
-222.789 -1131.27 -1795.9 -0.120381 -0.510981 0.732221 145 116 106
-217.913 -1136.62 -1792.54 -0.224689 -0.275442 0.245539 153 126 115
-219.181 -1127.18 -1789.78 -0.152245 -0.464614 0.346265 151 120 106
-196.768 -1145.82 -1789.94 0.63634 -0.458363 0.146536 175 147 127
-198.679 -1149.87 -1795.77 0.454469 -0.570479 0.213649 181 159 141
-193.941 -1143.2 -1790.99 0.619181 -0.504162 0.175716 171 141 121
-209.708 -1137.37 -1790.37 -0.36087 -0.480156 0.377424 165 141 129
-206.347 -1129.32 -1789.93 -0.316346 -0.42434 0.150607 164 139 123
-237.186 -1123.83 -1790.48 -0.645915 0.45047 -0.518994 143 118 105
-231.15 -1118.6 -1792.11 -0.6327 0.516909 -0.449903 144 117 103
-215.059 -1122.76 -1794.65 -0.173442 -0.384094 0.630638 152 125 111
-228.961 -1113.55 -1791.24 -0.402035 0.24994 -0.459578 148 121 106
-224.593 -1110.96 -1794.74 -0.239455 0.243359 -0.27962 146 117 103
-217.968 -1105.05 -1794.44 -0.0955625 0.369413 -0.395753 137 110 93
-213.259 -1122.68 -1795.27 -0.194475 -0.36155 0.650939 154 128 114
-214.906 -1101.45 -1792.18 -0.0265332 0.236949 -0.56607 135 107 89
-188.386 -1139.71 -1794.42 0.60515 -0.588605 0.263702 165 132 112
-162.68 -1146.11 -1792.21 -0.114859 -0.931268 0.180104 86 83 80
-171.853 -1139.8 -1791.2 -0.0625471 -0.79576 0.218708 128 122 116
-185.437 -1134.24 -1794.17 0.734579 -0.545991 0.302705 159 119 97
-182.529 -1125.79 -1789.32 0.884047 -0.430058 0.115461 148 103 80
-184.4 -1131.48 -1793.39 0.782696 -0.518192 0.279393 157 114 90
-167.18 -1137.57 -1792.46 0.0171087 -0.811681 0.21114 121 112 105
-155.133 -1146.31 -1790.69 -0.0420517 -0.880447 0.085588 98 92 87
-153.574 -1145.73 -1792.74 -0.00380516 -0.862359 0.0612528 98 92 86
-156.141 -1143.22 -1795.23 -0.00918445 -0.867275 0.078799 91 85 79
-141.292 -1148.58 -1791.62 -0.0500815 -0.939885 -0.0540638 107 103 98
-140.684 -1148.15 -1795.76 -0.0558019 -0.953384 -0.0731308 86 82 78
-160.905 -1135.73 -1792.79 0.0870746 -0.802739 0.142886 122 111 103
-154.848 -1133.82 -1794.85 0.0441903 -0.84614 0.0246927 110 102 96
-153.388 -1131.38 -1794.4 0.0434485 -0.861521 0.00657889 109 101 95
-181.926 -1124.31 -1789.51 0.911974 -0.391193 0.0840471 147 101 78
-180.037 -1114.96 -1792.64 0.953173 -0.179079 0.127922 158 114 92
-178.534 -1105.64 -1793.27 0.932345 -0.182165 0.0707108 167 125 105
-176.22 -1100.4 -1790.77 0.915902 -0.289598 -0.10351 162 122 103
-265.104 -419.877 -1789.98 -0.660598 -0.688691 -0.05993 23 20 25
-257.334 -424.943 -1791.28 -0.807048 -0.493851 -0.232357 22 19 24
-261.074 -420.794 -1789.54 -0.720327 -0.638073 -0.0816118 22 19 24
-284.953 -408.452 -1794.71 -0.695942 -0.169616 -0.66204 23 22 28
-289.104 -402.323 -1791.13 -0.776064 -0.151659 -0.551719 24 22 29
-292.941 -393.119 -1790.84 -0.793752 -0.225807 -0.47295 24 22 28
-293.128 -391.483 -1791.8 -0.79003 -0.211528 -0.488793 24 22 28
-290.585 -388.417 -1796.34 -0.769655 -0.15242 -0.555633 22 21 27
-318.425 -378.379 -1789.77 -0.897106 0.0950481 -0.383827 27 24 30
-312.941 -371.407 -1796.1 -0.804628 0.277564 -0.523029 24 23 27
-312.15 -366.709 -1794.81 -0.843915 0.207198 -0.486135 22 21 26
-311.687 -361.352 -1795.42 -0.888808 0.0904042 -0.438008 23 23 28
-312.016 -347.854 -1791.71 -0.909506 0.0939513 -0.37861 22 22 26
-310.12 -345.994 -1793.96 -0.870757 0.138098 -0.440229 23 23 27
-312.073 -335.874 -1789.72 -0.831078 0.173515 -0.494479 23 23 27
-311.324 -334.687 -1790.1 -0.820006 0.196553 -0.505145 23 23 27
-309.055 -329.969 -1789.51 -0.838856 0.219013 -0.427412 24 24 28
-55.0451 -830.764 -1789.15 0.247868 -0.00647543 0.667241 150 115 99
-42.0739 -847.446 -1790.29 0.865716 -0.130615 0.167522 150 112 91
-39.4351 -838.691 -1794.4 0.722164 -0.193573 0.202118 150 112 93
-50.2004 -831.468 -1795.17 0.236478 -0.00121162 0.606777 152 115 100
-50.8937 -827.001 -1794.02 0.161968 0.0350798 0.675527 153 117 101
-36.6517 -832.394 -1789.95 0.818574 -0.21354 0.115967 151 113 94
-35.4982 -829.011 -1789.35 0.896496 -0.214214 0.0782266 151 114 93
-97.7545 -817.974 -1792.52 0.840493 -0.291256 0.449742 111 81 68
-96.19 -811.383 -1791.21 0.876825 -0.256189 0.388709 111 80 67
-96.5048 -808.622 -1788.87 0.893145 -0.215888 0.361607 110 79 66
-94.6142 -797.739 -1795.7 0.865504 0.0220532 0.427433 117 86 73
-96.7195 -791.406 -1791.44 0.885294 0.0386153 0.421047 109 79 66
-97.8167 -784.067 -1790.63 0.899821 0.0263493 0.423312 105 77 64
-96.275 -781.316 -1794.6 0.877178 -0.0198723 0.44608 110 80 67
-98.0231 -769.74 -1789.75 0.915394 -0.0536543 0.402028 99 71 58
-53.8164 -821.788 -1790.64 0.107694 0.0493511 0.7929 154 119 104
-51.3686 -814.164 -1794.17 0.265903 0.0338583 0.684816 161 124 108
-49.7939 -822.626 -1795.2 0.185438 0.0405334 0.667486 155 118 103
-34.1657 -819.68 -1789.54 0.993875 -0.1289 0.102819 155 116 96
-34.071 -813.306 -1791.26 0.934749 -0.0344828 0.149373 158 119 98
-33.8246 -806.033 -1794.59 0.921693 0.0627399 0.111733 163 123 101
-34.8448 -800.828 -1792.83 0.954315 0.14231 0.157385 165 125 104
-54.2926 -791.108 -1793.4 0.337432 -0.118283 0.785499 156 120 104
-57.1851 -785.399 -1789.14 0.378988 -0.135989 0.805666 154 118 102
-57.541 -782.163 -1788.38 0.374026 -0.13994 0.82325 153 118 102
-52.2478 -774.448 -1795.21 0.312845 -0.14518 0.830876 155 119 105
-35.9123 -791.399 -1796.34 0.952823 0.134191 0.143492 165 125 102
-35.7596 -785.491 -1790.89 0.980969 -0.0336769 0.157073 165 125 102
-35.9246 -786.774 -1795.9 0.963882 0.0479847 0.164851 164 124 100
-31.6286 -774.379 -1793.71 0.980909 -0.1903 -0.0109612 162 122 98
-30.5483 -770.43 -1794.49 0.977514 -0.109754 -0.0490434 161 121 96
-119.278 -512.002 -1791.11 -0.923463 -0.124307 -0.312853 22 21 29
-121.582 -502.135 -1790.51 -0.844802 -0.301752 -0.400121 19 18 28
-121.386 -499.643 -1792.58 -0.842973 -0.317749 -0.409031 18 17 28
-119.1 -501.369 -1796.2 -0.907644 -0.22889 -0.340134 18 17 28
-125.713 -494.396 -1791.14 -0.808581 -0.349983 -0.467785 18 17 29
-133.398 -482.929 -1791.93 -0.306166 -0.418859 -0.845925 21 20 27
-126.42 -485.612 -1794.57 -0.596131 -0.319403 -0.704442 21 20 29
-131.756 -477.239 -1794.49 -0.342378 -0.405256 -0.83097 21 20 28
21.3509 -546.416 -1794.42 0.936027 0.122274 -0.206357 51 48 57
23.3062 -541.548 -1790.07 0.916522 0.0307711 -0.37056 49 47 55
22.5156 -530.254 -1793.39 0.938656 -0.0771325 -0.214781 47 44 53
23.5794 -523.568 -1793.37 0.953937 -0.0117797 -0.10925 47 44 52
22.2138 -514.751 -1792.22 0.917634 0.237361 -0.16987 47 44 52
19.2614 -508.197 -1795.39 0.882042 0.295116 -0.0788669 47 44 53
20.0988 -502.708 -1793.84 0.86387 0.0762266 -0.190229 43 40 48
22.0966 -497.133 -1791.65 0.858365 -0.129244 -0.291434 38 36 45
23.4662 -493.852 -1790.57 0.863599 -0.235818 -0.328078 38 36 45
22.8821 -481.268 -1794.41 0.922085 -0.0153662 -0.186126 31 29 38
22.5889 -479.367 -1795.39 0.932638 0.016733 -0.158752 31 30 38
25.6947 -475.328 -1791.9 0.834433 -0.0559908 -0.440864 37 36 44
27.5102 -473.014 -1791.48 0.779691 -0.114592 -0.526011 40 39 46
26.8323 -465.875 -1794.44 0.806121 -0.137448 -0.498157 49 49 55
28.9353 -455.56 -1793.17 0.75946 -0.00651989 -0.552908 44 43 50
-279.585 29.6947 -1791.59 -0.881917 0.0794693 -0.455434 20 20 24
-278.231 40.4349 -1791.54 -0.843463 0.0935632 -0.548485 21 21 25
-276.438 43.1934 -1793.25 -0.836833 0.0944796 -0.558787 21 21 25
-276.099 48.3616 -1790.52 -0.801547 0.0770642 -0.594374 21 21 25
-271.961 49.9987 -1794.32 -0.808029 0.0230074 -0.552796 20 20 24
-260.638 26.0497 -1794.3 -0.570039 -0.0479582 -0.779308 20 19 24
-264.523 34.6983 -1790.6 -0.502775 -0.130052 -0.812711 17 17 21
-245.752 32.98 -1790.28 -0.477262 -0.420874 -0.760983 10 10 16
-249.309 39.978 -1792.15 -0.491272 -0.331398 -0.792444 11 11 17
-258.607 44.2338 -1789.76 -0.489816 -0.289586 -0.815641 12 11 17
-264.78 45.3766 -1792.83 -0.55496 -0.142064 -0.779654 16 16 21
-270.776 51.0554 -1790.13 -0.733305 -0.028259 -0.59725 18 18 22
-260.541 53.2288 -1790.78 -0.436754 -0.261496 -0.860148 13 12 18
-252.532 41.768 -1791.45 -0.478391 -0.316012 -0.808102 12 11 17
-245.232 41.5128 -1794.5 -0.529632 -0.285076 -0.782798 12 12 17
-253.782 49.4463 -1793.25 -0.444762 -0.248027 -0.850868 13 12 18
-248.211 52.4873 -1795.8 -0.374279 -0.218666 -0.890094 14 13 19
-272.373 57.6571 -1795.61 -0.840289 -0.0596436 -0.509432 21 21 25
-277.714 62.8915 -1791.4 -0.915382 -0.145301 -0.362685 21 21 25
-277.788 68.0176 -1795.46 -0.860573 -0.193583 -0.440475 22 22 26
-275.587 70.5694 -1795.57 -0.800407 -0.0956551 -0.511809 21 21 25
-273.936 78.093 -1790.34 -0.617648 0.0131908 -0.599 18 18 21
-263.826 54.7362 -1791.68 -0.442728 -0.250424 -0.857274 13 12 18
-260.441 55.0319 -1791.7 -0.417601 -0.251652 -0.870694 13 12 18
-261.133 60.4666 -1795.21 -0.356075 -0.216626 -0.914096 14 14 19
-257.38 66.0742 -1795.61 -0.33357 -0.153258 -0.930492 14 14 19
-253.182 55.9375 -1795.2 -0.371172 -0.226073 -0.893881 14 13 19
-266.504 74.0174 -1794.86 -0.463771 0.001965 -0.834241 16 16 20
-262.069 68.7945 -1795.13 -0.327546 -0.118806 -0.935904 14 14 18
-267.978 80.1258 -1790.4 -0.396702 0.0497171 -0.812698 15 15 18
-261.774 80.9993 -1794.23 -0.422465 -0.0734881 -0.850273 13 13 17
-277.932 94.2973 -1791.06 -0.658189 -0.162916 -0.618736 15 15 18
-272.874 95.3513 -1794.35 -0.588038 -0.277775 -0.692214 12 12 16
-281.946 98.1212 -1789.65 -0.577353 -0.199367 -0.651127 15 15 18
-273.152 100.098 -1794.64 -0.470439 -0.190481 -0.766908 12 12 16
-283.96 104.648 -1789.92 -0.443003 -0.352239 -0.640996 15 15 18
-271.8 102.611 -1795.59 -0.373525 -0.200183 -0.837267 11 11 16
-268.259 87.0842 -1790.72 -0.377423 -0.261979 -0.813841 12 11 16
-256.846 81.9392 -1795.85 -0.422723 -0.103976 -0.869747 12 11 17
-269.853 99.3078 -1796.23 -0.441185 -0.246189 -0.811509 11 11 16
-222.146 0.466475 -1789.57 -0.316976 -0.12208 -0.90357 12 12 17
-227.323 12.4426 -1791.21 -0.48476 -0.359196 -0.77206 10 10 16
-219.071 7.03958 -1793.18 -0.395795 -0.221804 -0.86308 11 11 16
-216.784 8.35894 -1794.63 -0.420057 -0.256194 -0.847064 11 11 15
-216.859 -1130.31 -1784.12 -0.272129 -0.703154 -0.173577 159 126 105
-202.708 -1152.13 -1785.02 0.606429 -0.494857 0.32696 176 146 130
-201.47 -1149.27 -1783.37 0.630924 -0.481995 0.331139 171 137 120
-194.788 -1139.81 -1784.72 0.789465 -0.411271 0.27675 160 124 105
-209.494 -1133.37 -1783.99 -0.440183 -0.664181 -0.184955 153 123 103
-210.187 -1127.56 -1784.43 -0.319778 -0.531228 -0.315574 153 122 100
-207.549 -1127.26 -1786.98 -0.274094 -0.404412 -0.165185 157 130 110
-193.277 -1137.83 -1783.83 0.790709 -0.440421 0.326683 158 120 101
-237.895 -1122.02 -1788.08 -0.620948 0.454865 -0.522471 144 119 105
-235.542 -1118.95 -1786.65 -0.679862 0.539755 -0.505258 145 120 106
-233.405 -1111.51 -1782.57 -0.575558 0.497683 -0.485648 146 121 107
-227.632 -1108.73 -1788.25 -0.347357 0.29398 -0.523102 148 122 108
-226.749 -1103.19 -1783.4 -0.53178 0.618228 -0.576544 141 117 104
-217.611 -1099.29 -1783.73 -0.228751 0.687536 -0.73729 110 86 73
-216.806 -1099.77 -1784.69 -0.195665 0.661334 -0.721128 111 87 73
-215.276 -1098.56 -1783.62 -0.163993 0.606368 -0.769135 108 83 68
-207.748 -1096.42 -1788.02 0.134662 -0.0631752 -0.678732 139 110 89
-162.723 -1146.31 -1783.48 -0.159244 -0.948825 0.180588 143 141 137
-172.07 -1143.23 -1784.46 -0.058639 -0.867643 0.180414 164 160 154
-185.979 -1132.44 -1788.4 0.73937 -0.55833 0.291636 160 117 95
-183.547 -1127.07 -1783.17 0.819377 -0.523722 0.135932 150 105 86
-173.873 -1137.07 -1786.83 0.0903793 -0.692675 0.204252 151 138 130
-168.092 -1132.17 -1784.11 0.106767 -0.801816 0.160376 166 153 145
-163.257 -1129.98 -1784.85 0.126896 -0.816277 0.125617 157 144 136
-149.301 -1148 -1786.56 -0.0598802 -0.905283 0.0302177 94 89 85
-142.638 -1148.71 -1789.2 -0.0474282 -0.929915 -0.0360363 113 109 104
-147.509 -1147.56 -1789.67 -0.012201 -0.882716 0.00629143 103 97 91
-159.693 -1130.32 -1788.96 0.181218 -0.770901 0.116174 139 125 116
-156.318 -1125.77 -1786.36 0.0499761 -0.900433 0.0422383 130 123 117
-181.181 -1122.13 -1785.57 0.913608 -0.388536 0.0470462 146 101 80
-180.044 -1117.53 -1788.94 0.955515 -0.242114 0.0222477 154 109 88
-132.257 -1078.41 -1785.48 0.435693 -0.290529 -0.0586532 117 91 71
-131.714 -1070.75 -1787.31 0.313488 -0.123972 0.183406 118 91 71
-98.4244 -1096.73 -1785.9 0.543489 -0.597801 0.495588 113 84 60
-92.519 -1074.79 -1788.17 -0.394114 -0.358174 0.301541 127 95 76
-132.206 -1064.19 -1787.32 0.303368 -0.0412851 0.310954 115 90 70
-132.132 -1052.08 -1787.39 0.34163 -0.042873 0.281138 114 90 71
-132.203 -1046.69 -1785.76 0.36578 -0.0608531 0.290597 115 90 71
-92.7361 -1052.82 -1783.97 0.582176 0.0268307 0.295429 135 103 85
-90.869 -1052.48 -1783.78 0.1795 0.0351383 0.40868 130 99 83
-130.448 -1036.21 -1787.81 0.409343 -0.0979751 0.697296 118 93 74
-131.351 -1035.47 -1784.02 0.415658 -0.0869356 0.661295 117 92 73
-129.831 -1025.8 -1783.55 0.416436 -0.1393 0.890625 116 91 72
-128.943 -1021.37 -1783.8 0.447627 -0.155743 0.817033 116 91 72
-84.9145 -1038.15 -1789.38 0.700799 -0.187625 0.274569 120 89 69
-82.8778 -1030.98 -1788.55 0.573482 -0.177126 0.371111 117 87 68
-85.0072 -1023.32 -1787.76 0.586049 -0.187118 0.523975 117 87 67
-84.5117 -1016.71 -1787.78 0.724688 -0.25177 0.469386 123 93 72
-126.461 -1011.72 -1786.84 0.646976 -0.272645 0.410475 118 92 75
-125.461 -1004.95 -1788.64 0.741989 -0.307888 0.154921 120 93 76
-119.03 -543.521 -1787.62 -0.838101 -0.2324 -0.447928 24 23 30
-120.103 -533.865 -1786.78 -0.901027 -0.182321 -0.327781 22 21 29
-119.5 -527.094 -1784.13 -0.964707 -0.0773773 -0.185691 22 21 28
-122.288 -508.101 -1784.71 -0.783619 -0.376801 -0.43093 18 17 26
-119.254 -517.868 -1788.3 -0.909022 -0.179482 -0.290988 20 19 27
-124.431 -503.729 -1784.5 -0.707037 -0.467609 -0.478853 18 17 27
-127.683 -497.968 -1785.65 -0.631857 -0.4977 -0.522957 19 18 28
-126.661 -498.209 -1786.39 -0.698576 -0.468795 -0.495317 18 17 28
24.2353 -547.293 -1787.34 0.902343 -0.00290417 -0.471648 49 47 55
23.8204 -536.052 -1789.06 0.909635 0.0140024 -0.418319 45 42 50
24.7501 -540.268 -1787.18 0.908736 0.0117234 -0.420352 48 45 53
25.1335 -531.703 -1786.21 0.905906 -0.0293372 -0.413732 45 42 50
24.1186 -528.308 -1787.85 0.914337 -0.0532748 -0.383408 44 41 49
26.6593 -521.401 -1784.69 0.863709 -0.0307525 -0.447418 44 40 49
24.8961 -511.873 -1786 0.842763 0.130092 -0.451547 44 41 49
23.3501 -505.909 -1786.92 0.805376 0.11706 -0.505785 42 39 47
24.4786 -506.521 -1785.6 0.796574 0.131221 -0.533188 42 38 47
26.774 -500.193 -1783.33 0.774218 -0.0185379 -0.599994 38 35 43
27.3051 -494.052 -1784.2 0.83379 -0.182964 -0.464012 37 35 43
26.4033 -481.042 -1789.45 0.828671 -0.0956058 -0.470051 35 33 41
-253.389 292.202 -1789.71 -0.524905 0.331712 0.742824 19 16 20
-249.781 294.38 -1786.28 -0.662433 0.286132 0.686153 19 17 21
-247.711 299.066 -1786.21 -0.617628 0.271718 0.690197 19 17 22
-243.194 304.949 -1786.31 -0.401334 0.332033 0.666213 23 20 25
-241.023 308.485 -1788.96 -0.347154 0.309683 0.643814 27 23 29
-233.933 311.61 -1783.45 -0.675964 0.212197 0.517701 35 30 35
65.7347 -327.827 -1786.33 0.848275 0.302588 -0.387789 17 16 22
62.4431 -316.734 -1787.19 0.811119 0.195826 -0.527581 17 16 22
62.8598 -312.645 -1785.34 0.851663 0.162488 -0.474757 16 16 21
61.7867 -303.832 -1782.72 0.873536 0.20015 -0.386067 17 16 22
57.9138 -294.953 -1788.58 0.886103 0.124865 -0.392375 16 15 22
57.7037 -275.776 -1786.85 0.814633 0.127686 -0.496751 17 16 23
59.0395 -299.913 -1788.38 0.854048 0.162275 -0.423798 16 16 22
59.3776 -284.769 -1783.9 0.888685 0.0757453 -0.386997 17 16 23
56.4751 -275.239 -1788.57 0.805639 0.164865 -0.508399 16 15 22
56.6234 -264.683 -1785.97 0.765376 0.141865 -0.593529 16 15 22
56.2213 -257.965 -1784.51 0.768018 0.092955 -0.611796 15 14 21
51.6167 -248.201 -1788.99 0.748397 0.15521 -0.613368 18 18 23
59.4969 -270.458 -1782.92 0.789533 0.120404 -0.55393 17 16 23
228.163 220.438 -1784.73 0.406628 -0.324947 0.707709 32 28 33
236.588 230.216 -1787.43 0.336748 -0.360474 0.703492 45 39 43
235.158 225.678 -1789.04 0.351348 -0.369596 0.694869 42 37 41
580.273 287.256 -1785.04 0.303592 -0.870676 0.283467 101 84 72
589.358 289.218 -1787.03 0.318237 -0.89418 0.258894 99 83 72
596.372 291.425 -1784.21 0.343063 -0.895647 0.259322 98 82 70
601.259 292.305 -1788.5 0.32189 -0.889304 0.267996 99 82 71
611.878 296.123 -1787.8 0.351294 -0.894777 0.267824 98 82 71
613.597 298.669 -1781.32 0.360285 -0.895748 0.264955 97 81 70
620.956 299.528 -1788.73 0.3383 -0.905687 0.259592 97 81 71
632.988 304.106 -1785.34 0.261223 -0.939309 0.209694 98 77 68
639.795 305.489 -1785.65 0.213271 -0.958927 0.17014 99 77 67
643.68 306.059 -1786.34 0.195835 -0.966769 0.15127 99 77 66
650.324 307.243 -1786.33 0.179856 -0.975275 0.127709 97 76 61
659.05 308.748 -1787.92 0.200925 -0.972207 0.120325 94 74 56
664.409 310.189 -1787.55 0.225756 -0.96594 0.118005 93 72 55
662.576 310.05 -1782.43 0.215977 -0.969536 0.109489 95 73 54
672.513 312.703 -1788.28 0.260524 -0.957626 0.113805 93 70 53
675.887 314.294 -1782.37 0.317472 -0.932863 0.159896 96 72 56
681.834 316.835 -1784.67 0.310409 -0.929011 0.173748 99 74 61
738.895 299.302 -1784.2 -0.765706 -0.422962 0.133171 104 86 80
700.083 322.443 -1786.1 0.19332 -0.94659 0.244771 104 78 70
709.085 322.998 -1787.98 -0.125244 -0.905436 0.21163 109 85 77
710.734 322.756 -1788.47 -0.214827 -0.875693 0.207714 110 88 79
-188.683 -821.719 -1775.42 0.658544 0.00571147 -0.701313 159 129 111
-203.967 -805.225 -1776.54 0.886132 0.211704 -0.225668 152 116 95
-208.099 -797.481 -1780.68 0.849313 0.439834 -0.233668 157 117 98
-215.804 -777.594 -1779.03 0.907883 0.037369 -0.208911 154 114 93
-208.927 -795.606 -1780.33 0.858457 0.427783 -0.246799 158 117 98
-213.152 -786.03 -1782.26 0.778689 0.157745 -0.346425 162 122 101
-214.568 -781.1 -1780.9 0.846022 0.0756211 -0.295303 159 119 98
-213.852 -772.792 -1781.28 0.86115 -0.298949 -0.0760418 157 117 95
-275.829 -763.864 -1775.88 -0.761968 0.452804 -0.441429 105 75 64
-273.038 -765.65 -1781.84 -0.682983 0.466538 -0.464389 112 80 69
-269.603 -757.197 -1776.23 -0.655056 0.54911 -0.532851 114 82 71
-268.322 -751.779 -1776.2 -0.648526 0.29634 -0.643203 118 85 73
-264.659 -748.094 -1780.26 -0.640837 0.0802194 -0.720804 129 93 80
-268.97 -743.701 -1777.46 -0.678742 -0.0948952 -0.724511 116 84 72
-267.428 -735.082 -1780.32 -0.554362 0.13741 -0.765344 115 82 70
-270.133 -732.614 -1777.18 -0.712366 0.114561 -0.652771 105 77 66
-261.468 -729.141 -1781.15 -0.336948 0.330559 -0.852516 122 86 73
-256.34 -730.119 -1782.26 -0.224138 0.405528 -0.865497 129 92 78
-266.481 -721.259 -1776 -0.360933 0.348746 -0.849144 106 76 66
-257.623 -725.104 -1780.26 -0.299726 0.353509 -0.860288 126 90 76
-256.304 -723.793 -1780.4 -0.327915 0.327743 -0.858664 128 91 77
-251.313 -726.88 -1782.21 -0.37445 0.389208 -0.813607 137 99 84
-253.016 -719.614 -1780.77 -0.449249 0.222518 -0.844856 132 95 79
-17.434 -1168.65 -1776.45 -0.306256 -0.780122 0.514562 162 133 118
-14.8104 -1169.65 -1776.74 -0.267566 -0.820479 0.463056 156 130 116
1.94527 -1173.28 -1781.39 -0.0458014 -0.983816 0.191808 165 162 156
-9.34408 -1170.83 -1776.46 -0.208637 -0.876712 0.38638 149 128 116
-1.79552 -1153.02 -1779.27 -0.310099 -0.742202 0.00258007 155 132 118
1.88604 -1155.93 -1779.56 -0.269067 -0.816289 0.141586 157 137 125
12.8211 -1166.56 -1776.19 -0.0687397 -0.988451 0.0600272 152 146 143
8.99234 -1160.8 -1777.66 -0.170611 -0.929543 0.0766289 156 141 133
3.45829 -1156.47 -1775.3 -0.298677 -0.819013 0.0526413 158 137 124
21.4618 -1152.74 -1781.3 -0.0892172 -0.973852 -0.112357 162 143 129
25.9609 -1152.96 -1780.82 -0.0302062 -0.988002 -0.132269 165 146 130
-12.9169 -1144.3 -1776.15 -0.076452 -0.754169 -0.29953 105 99 93
-9.71216 -1146.63 -1777.42 -0.132063 -0.736053 -0.301577 115 104 96
-3.3318 -1151.64 -1780.92 -0.320134 -0.716101 -0.0775502 152 127 112
-0.067605 -1139.58 -1779.23 -0.408656 -0.66572 -0.463289 147 119 102
-18.8876 -1137.4 -1781.97 -0.100049 -0.812101 -0.26611 116 102 92
-18.7228 -1125.52 -1779.04 -0.139422 -0.825099 -0.455947 143 113 93
-14.08 -1126.55 -1781.99 -0.276575 -0.809967 -0.4618 142 112 94
-5.44371 -1134.77 -1779.28 -0.408594 -0.693735 -0.455305 145 117 99
-6.83035 -1133.4 -1776.5 -0.396134 -0.714689 -0.457143 145 117 98
8.02134 -1146.64 -1778.14 -0.424788 -0.773919 -0.30789 152 125 108
15.3743 -1150.61 -1781.9 -0.290931 -0.91181 -0.111446 156 134 120
3.73086 -1143.5 -1775.5 -0.40774 -0.679578 -0.483759 150 121 103
33.0569 -1151.91 -1780.04 0.0130334 -0.974023 -0.152642 160 139 125
37.1021 -1150.9 -1781.9 0.013997 -0.944185 -0.123133 154 133 121
48.7757 -1149.79 -1775.84 0.114937 -0.969806 -0.154471 156 139 132
51.8992 -1149.43 -1778.01 0.0729767 -0.959673 -0.132455 159 144 137
62.2331 -1149.35 -1777.77 0.0393761 -0.944905 -0.154998 157 141 135
65.7732 -1149.23 -1776.66 0.0455382 -0.944839 -0.176749 154 138 131
-119.928 -627.652 -1782.37 -0.0512088 -0.0338119 0.38632 43 40 45
-117.388 -620.823 -1775.46 0.248727 0.084087 0.450939 46 41 46
-114.413 -613.335 -1780.8 0.00107939 0.0502489 0.528968 43 41 46
-108.773 -613.116 -1775.25 0.541934 0.263738 0.34111 37 34 40
-110.99 -608.077 -1778.48 -0.087279 0.129358 0.279069 39 36 42
-102.77 -625.867 -1779.76 -0.288449 -0.162073 0.487877 48 45 49
-99.9933 -630.668 -1780.49 0.107718 -0.00253079 0.602852 65 56 57
-105.258 -619.62 -1777.02 0.378829 0.0813176 0.502914 40 38 44
-94.3523 -618.783 -1776.97 0.0342545 -0.192497 0.562726 45 41 46
-80.8349 -627.139 -1779.39 0.729884 0.521542 0.519284 68 56 61
-90.2254 -621.879 -1778.56 0.298095 0.116494 0.515861 51 46 52
-101.708 -616.249 -1776.43 0.245867 -0.0218133 0.528499 40 37 42
-96.6625 -617.237 -1776.63 -0.0185861 -0.256442 0.576465 42 40 44
-73.7568 -636.591 -1776.21 0.485264 0.233469 0.705631 92 72 69
-66.855 -633.506 -1779.51 0.190347 -0.0859077 0.717455 84 66 63
-61.6716 -641.444 -1774.95 0.0653559 -0.346991 0.716214 81 64 61
-56.8337 -641.347 -1777.33 -0.0143394 -0.497344 0.700022 76 61 59
-59.9774 -635.242 -1780.41 0.0155169 -0.363214 0.712557 81 64 60
-50.4402 -646.042 -1776.47 -0.0834354 -0.715956 0.66267 68 56 56
-41.7447 -645.405 -1779.09 -0.114576 -0.598837 0.658284 69 56 56
-30.3851 -652.714 -1781.93 -0.428155 0.351492 0.810189 61 53 56
-33.5685 -647.918 -1781.85 -0.297015 0.0201 0.752396 64 54 57
-48.089 -641.293 -1781.04 -0.124648 -0.540076 0.679262 69 57 57
-76.705 -629.039 -1779.71 0.590446 0.378715 0.584251 74 60 63
-73.6534 -627.794 -1781.5 0.299579 0.129123 0.628174 69 57 59
-110.321 -602.413 -1781.15 -0.474351 0.0121494 0.0331592 38 36 42
-111.545 -593.11 -1775.6 -0.716002 0.00428633 -0.289891 32 30 37
-112.47 -588.744 -1776.74 -0.779342 -0.12273 -0.261103 33 32 37
-115.012 -580.005 -1777.33 -0.859335 -0.268575 -0.295938 33 32 37
-116.199 -575.57 -1776.69 -0.882733 -0.242735 -0.303559 32 31 37
-116.335 -568.894 -1779.54 -0.876998 -0.194742 -0.403704 29 28 35
-118.037 -565.404 -1777.29 -0.898587 -0.191072 -0.379955 29 28 35
-118.272 -562.841 -1778.13 -0.898287 -0.183183 -0.407329 28 27 34
-119.162 -555.036 -1780.52 -0.910042 -0.176251 -0.339769 26 25 32
-210.934 152.498 -1777.64 0.887385 0.13618 -0.0683193 9 9 13
-212.146 160.982 -1775.31 0.909317 0.161729 -0.0141779 8 8 12
-194.563 151.469 -1780.83 0.925672 0.0375484 0.00558585 9 8 12
-194.99 161.506 -1778.58 0.944379 0.0443714 0.00885811 9 8 12
-217.13 180.38 -1779.39 0.528616 0.732535 -0.121034 10 8 13
-213.014 165.732 -1779.38 0.895824 0.22943 -0.256147 8 7 11
-201.713 175.509 -1782.23 0.713546 0.11648 -0.349464 10 8 13
-215.459 183.942 -1776.38 0.486593 0.701666 0.0343976 10 8 14
-207.208 180.084 -1782.07 0.614045 0.266685 -0.308593 10 8 13
-282.226 269.9 -1775.98 0.380755 0.671254 0.614358 16 15 20
-274.852 267.499 -1776.54 0.267048 0.701175 0.653228 16 15 21
-268.387 268.897 -1777.53 0.0377814 0.713925 0.678014 16 14 20
-262.801 271.205 -1778.06 -0.185657 0.717364 0.661378 19 16 21
-324.403 301.042 -1778.86 0.61394 0.543389 0.49342 12 12 14
-314.842 298.15 -1777.15 0.671796 0.57192 0.467215 12 12 12
-300.405 289.322 -1780.69 0.574164 0.637692 0.507331 12 12 13
-300.454 287.68 -1778.49 0.598999 0.635458 0.488708 11 11 12
-323.694 301.065 -1775.55 0.590679 0.539031 0.506511 13 12 14
-286.41 278.228 -1781.25 0.439645 0.627602 0.634557 12 12 17
-291.547 282.007 -1780.83 0.486667 0.640052 0.593682 11 11 15
-284.41 276.277 -1780.72 0.415477 0.628734 0.642815 13 13 18
-262.136 273.71 -1780.61 -0.235182 0.712516 0.659603 19 16 21
-254.027 279.35 -1780.32 -0.455304 0.584627 0.647247 20 17 20
-252.738 283.575 -1782.46 -0.571407 0.45579 0.639019 20 17 20
-157.245 -1124.57 -1782.75 0.0438496 -0.746968 0.171386 146 135 126
-158.84 -1123.61 -1778.44 0.129856 -0.557595 0.287836 161 142 129
-153.231 -1120.53 -1781.19 -0.0506702 -0.127457 0.606798 147 125 105
-148.149 -1114.53 -1780.75 -0.0146344 -0.223812 0.622713 148 123 102
-144.411 -1113.72 -1785.36 0.0101938 -0.250629 0.608276 149 123 103
-146.304 -1111.38 -1779.35 -0.0494206 -0.142359 0.717203 153 125 101
-198.743 -1023.32 -1776.41 0.2682 0.0882564 -0.899158 132 106 96
-200.129 -1023.96 -1781 0.246641 0.088766 -0.905252 132 107 96
-201.381 -1017.83 -1783.65 0.227814 0.0953545 -0.913908 131 106 95
-198.81 -1018.63 -1776.22 0.260815 0.0940746 -0.905396 131 106 95
-201.345 -1012.68 -1783.5 0.210622 0.104771 -0.92567 130 106 94
-200.183 -1003.87 -1780.89 0.171141 0.111776 -0.944543 129 105 92
-204.233 -994.341 -1786.45 0.140852 0.0507102 -0.899718 130 105 91
-201.367 -991.137 -1782.72 0.0725322 0.0260044 -0.962169 131 106 93
-203.994 -999.479 -1786.68 0.169998 0.0816692 -0.891398 128 104 91
-201.052 -998.781 -1782.79 0.135475 0.0869835 -0.950553 129 105 92
-200.524 -994.848 -1781.31 0.108319 0.0605758 -0.958029 130 105 92
-184.188 -1121.62 -1773.96 0.675976 -0.557335 0.390485 159 116 99
-185.131 -1116.12 -1769.39 0.57462 -0.587127 0.522687 165 123 106
-181.463 -1117.49 -1773.26 0.702574 -0.553745 0.344587 157 114 97
-163.275 -1124.4 -1771.19 0.174655 -0.48622 0.226007 168 144 128
-177.86 -1109.48 -1772.23 0.737895 -0.510446 0.227354 162 120 103
-172.766 -1099.15 -1771.55 0.860546 -0.405087 0.127712 156 116 99
-156.063 -1119.69 -1774.56 0.00581668 0.138702 0.773762 169 137 113
-148.352 -1111.97 -1769.21 -0.115286 0.319275 0.902568 166 134 107
-145.513 -1109.86 -1769.17 -0.127876 0.299543 0.917396 164 132 105
-143.246 -1105.94 -1775.6 -0.102776 -0.0344204 0.812244 155 125 100
-136.372 -1099.02 -1773.01 0.0305917 0.0214006 0.710667 148 118 92
-234.337 -1094.78 -1771.02 -0.521255 0.422298 -0.677139 127 103 89
-230.83 -1090.41 -1769.79 -0.415416 0.567921 -0.671793 126 103 89
-223.44 -1088.39 -1771.1 -0.342216 0.656648 -0.648767 119 95 83
-219.635 -1088.27 -1771.38 -0.225928 0.682695 -0.665583 112 88 75
-214.573 -1084.05 -1770.09 -0.253735 0.58939 -0.685409 109 85 72
-211.37 -1090.1 -1775.2 0.118747 0.638527 -0.733111 120 95 81
-212.613 -1080.29 -1768.96 -0.213911 0.448312 -0.790305 124 99 85
-206.484 -1081.99 -1774.83 0.0973332 0.512161 -0.790199 132 107 93
-207.673 -1072.05 -1771.67 -0.127213 0.1927 -0.897552 144 117 103
-216.365 -1058.32 -1769.52 -0.507896 -0.113579 -0.831841 111 86 73
-217.8 -1044.34 -1769.38 -0.379105 0.092337 -0.875307 117 91 77
-209.926 -1068.2 -1770.59 -0.255842 0.0523829 -0.890844 137 111 97
-202.351 -1065.12 -1774.44 -0.10104 -0.0255728 -0.914494 143 117 102
-211.891 -1056.86 -1771.66 -0.377088 -0.102251 -0.882333 124 99 85
-206.206 -1057.09 -1773.31 -0.199097 -0.0910675 -0.923958 136 110 95
-214.315 -1055.89 -1770.96 -0.444657 -0.0971396 -0.862231 118 92 79
-207.745 -1053.71 -1772.8 -0.186149 -0.0540283 -0.926787 134 108 94
-212.97 -1047.5 -1771.31 -0.243803 0.035562 -0.913142 126 99 86
-202.552 -1044.79 -1770.51 0.215325 0.130542 -0.920286 141 115 102
-200.331 -1053.17 -1775.62 0.0270213 -0.0104022 -0.943598 142 116 101
-170.22 -1095.37 -1773.65 0.879722 -0.371763 -0.0825739 157 115 99
-163.019 -1084.68 -1771.35 0.68992 -0.329261 -0.389941 131 99 83
-166.857 -1090.22 -1771.52 0.823538 -0.413915 -0.264575 149 110 93
-63.8889 -1172.4 -1772.89 -0.721184 0.62254 0.253589 162 147 134
-27.4139 -1152.78 -1769.53 -0.650097 -0.470272 0.55684 168 139 124
-27.9544 -1158.43 -1774.18 -0.621856 -0.453624 0.596447 163 131 115
-134 -1149.82 -1771.63 0.0316621 -0.99485 0.0978196 150 145 140
-122.531 -1147.95 -1774.1 0.179413 -0.91978 0.20441 114 104 98
-116.716 -1140.25 -1771.75 0.614268 -0.670415 0.210837 91 76 67
-113.703 -1133.41 -1769.7 0.851117 -0.464147 0.124071 97 80 69
-111.729 -1127.18 -1772.89 0.947877 -0.340559 0.0991691 99 82 66
-110.511 -1121.98 -1773.27 0.961054 -0.31484 0.0985167 98 80 62
-107.88 -1112.22 -1774.05 0.902888 -0.291266 0.0881732 103 83 60
-106.948 -1107.43 -1769.42 0.901778 -0.26898 0.197525 119 94 69
-102.827 -1097.08 -1769.33 0.84745 -0.314109 0.251309 105 81 56
-102.4 -1097.48 -1774.35 0.824171 -0.377594 0.320039 103 79 54
-122.62 -976.147 -1769.37 0.666463 -0.00608442 0.658217 103 80 67
-123.172 -975.249 -1775.44 0.692805 -0.0433453 0.496318 106 82 69
-92.1615 -982.48 -1770.14 0.765757 -0.0968514 0.627385 125 99 81
-90.8819 -979.519 -1771.6 0.737865 -0.0573956 0.657825 119 93 77
-90.0334 -967.298 -1771.92 0.675192 -0.0238265 0.701557 99 77 66
-90.078 -962.441 -1771 0.711566 -0.0631362 0.66376 101 79 67
-87.7772 -964.645 -1774.61 0.646917 -0.0276257 0.751705 96 75 65
-91.0418 -958.191 -1768.54 0.707157 -0.0491909 0.656719 102 80 68
-88.7063 -951.156 -1771.92 0.624568 0.0206461 0.724589 100 78 67
-90.9557 -943.554 -1769.07 0.716306 0.0822885 0.65768 96 77 65
-86.6282 -933.114 -1774.52 0.61425 5.1194e-05 0.758299 101 80 66
-91.0253 -936.167 -1770.36 0.769992 0.113793 0.613929 89 72 61
-56.2301 -982.638 -1769.71 -0.63319 0.0514284 0.723214 115 89 75
-55.9374 -977.276 -1769.89 -0.590612 0.0501567 0.740816 116 90 76
-59.4369 -968.91 -1774.75 -0.193693 0.0169506 0.733091 119 93 78
-52.7273 -967.418 -1770.03 -0.464511 0.203023 0.792712 117 92 78
-54.1956 -966.434 -1771.61 -0.367773 0.165029 0.777042 118 92 78
-51.9412 -960.182 -1773.12 -0.333087 0.222159 0.769893 118 92 78
-48.1119 -956.482 -1772.27 -0.468988 0.299464 0.781525 118 93 78
-45.414 -950.799 -1772.83 -0.545115 0.291287 0.789254 119 94 79
-43.9853 -951.137 -1771.26 -0.570579 0.310514 0.761462 119 94 80
-43.5627 -944.089 -1773.81 -0.559862 0.216085 0.813713 120 94 80
-38.8126 -936.624 -1772.53 -0.526734 0.233985 0.814649 120 94 80
-33.9451 -934.045 -1769.88 -0.56686 0.314288 0.796802 118 93 78
-93.2546 -920.496 -1769.03 0.73888 0.0672326 0.670963 97 76 64
-89.849 -929.186 -1771.61 0.709943 0.0530395 0.6732 93 75 61
-90.132 -925.402 -1771.33 0.711376 -0.0118622 0.695473 98 78 64
-93.7773 -915.051 -1769.6 0.711273 0.158948 0.680032 99 78 66
-94.3654 -909.641 -1770.51 0.691473 0.249106 0.676055 101 79 67
-89.7642 -914.15 -1773.12 0.65996 0.192246 0.720087 105 82 69
37.3895 -489.289 -1768.96 0.795852 -0.107908 -0.569282 41 38 47
33.4103 -494.256 -1774.61 0.843079 -0.116281 -0.471509 38 35 43
38.7196 -484.288 -1769.26 0.807655 -0.188611 -0.527285 40 37 47
39.6122 -477.653 -1773.49 0.815548 -0.322964 -0.456159 40 38 47
41.1176 -472.867 -1774.89 0.83157 -0.305751 -0.437536 41 39 47
44.682 -461.458 -1771.4 0.880782 -0.0310022 -0.428912 39 36 44
42.1794 -458.19 -1774.99 0.838476 0.11187 -0.498263 38 35 44
42.3987 -450.087 -1772.8 0.831699 0.0974301 -0.5247 35 33 41
42.2433 -441.645 -1774.58 0.795657 -0.136953 -0.570879 33 30 38
46.2213 -440.043 -1770.77 0.765018 -0.204296 -0.623682 33 30 38
51.7246 -433.874 -1768.72 0.734691 -0.231529 -0.623787 33 30 38
45.6526 -432.365 -1774.83 0.776412 -0.273193 -0.433897 39 37 44
47.2432 -422.384 -1772.51 0.836568 -0.0233266 -0.276339 35 33 41
46.495 -415.847 -1773.02 0.838623 0.101277 -0.212366 32 29 37
44.4045 -404.889 -1770.39 0.943166 0.0437255 0.247353 21 18 26
45.6252 -407.187 -1774.05 0.872771 0.0213928 0.0170006 27 24 32
47.2306 -402.935 -1775.07 0.838509 -0.23077 0.0108258 27 24 32
52.1867 -396.354 -1775 0.702618 -0.669181 -0.0441815 24 21 30
59.3084 -392.153 -1769.55 0.573437 -0.82649 -0.0942712 20 17 26
60.3613 -391.236 -1773.5 0.611306 -0.793484 -0.0981687 20 17 27
71.0617 -380.77 -1773.39 0.805902 -0.510006 -0.140694 19 17 26
72.5905 -374.427 -1775.13 0.938648 -0.243522 -0.125822 18 17 26
73.5732 -366.439 -1774.04 0.981328 0.00242889 -0.155393 18 17 25
73.9061 -360.708 -1769.13 0.987513 0.0590354 -0.116179 19 18 25
72.7541 -352.174 -1770.53 0.977667 0.104327 -0.08301 18 17 24
71.9544 -345.921 -1774.17 0.965759 0.116302 -0.186399 18 17 24
53.3919 -79.0991 -1771.1 0.85526 -0.0332387 -0.475747 15 14 21
55.1304 -70.4428 -1771.26 0.842278 -0.186166 -0.474716 14 13 20
53.7144 -74.0867 -1771.52 0.875752 -0.106517 -0.44002 15 14 21
55.0569 -68.2779 -1771.97 0.805003 -0.18098 -0.518532 15 14 21
52.9462 -56.6758 -1774.92 0.843047 -0.0955424 -0.451385 15 15 21
54.7214 -52.3051 -1770.31 0.891491 0.0626045 -0.379384 15 14 21
51.9816 -44.0621 -1774.65 0.959212 0.070354 -0.218309 15 14 21
53.4869 -37.4474 -1768.88 0.944094 0.0375554 -0.28963 15 14 21
52.413 -29.5497 -1772.24 0.910837 -0.0760522 -0.37418 15 14 21
54.0562 -23.5615 -1770.03 0.909965 -0.104051 -0.372762 14 13 21
52.8092 -15.4826 -1772.87 0.891184 0.0320939 -0.425963 14 13 20
51.5816 -13.8215 -1774.95 0.88455 0.0889085 -0.450534 14 13 20
51.5483 -2.54041 -1774.98 0.91962 -0.0259661 -0.405494 11 10 18
-106.024 304.916 -1769.41 0.523806 0.434558 0.726166 16 12 16
-105.166 302.945 -1768.78 0.515095 0.428071 0.737736 13 10 15
-99.4113 307.815 -1774.49 0.515608 0.474965 0.715504 9 8 12
-78.8254 290.054 -1771.86 -0.411858 0.584545 0.645381 9 8 17
-69.4289 298.662 -1772.51 -0.405472 0.647987 0.664915 8 7 16
-64.7314 302.149 -1773.45 -0.40353 0.674498 0.619273 10 9 17
-61.9504 303.881 -1773.94 -0.406859 0.692865 0.586757 11 10 18
-52.1163 306.526 -1768.54 -0.431867 0.745588 0.504132 15 14 23
-47.5013 309.203 -1769.8 -0.388714 0.780879 0.397695 17 16 24
-42.5705 310.676 -1772.49 -0.315154 0.82322 0.217349 19 17 25
-30.4795 306.907 -1775.28 -0.184281 0.862472 -0.0971424 22 20 28
-33.826 309.528 -1771.11 -0.207977 0.866335 -0.045188 21 20 27
30.8271 263.551 -1774.99 0.290704 0.24836 -0.852383 13 11 18
29.7155 272.179 -1773.47 0.342379 0.316722 -0.865138 14 11 19
44.0797 220.868 -1774.49 0.41957 0.129808 -0.90081 10 9 16
43.8751 231.377 -1774.65 0.331837 0.0707932 -0.944035 11 10 17
50.3074 221.536 -1774.4 0.286671 0.0613702 -0.892815 11 11 18
45.1555 224.356 -1774.5 0.362775 0.111996 -0.923201 11 10 17
52.2562 227.785 -1774.7 0.228937 0.0376254 -0.911809 12 11 18
42.3274 236.392 -1775.09 0.291483 0.046955 -0.909558 11 10 17
50.8836 232.038 -1774.66 0.252328 0.0270548 -1.0059 12 11 18
47.1828 241.773 -1774.99 0.258927 0.0530851 -0.929774 12 11 18
36.2439 258.901 -1775.24 0.237573 0.223579 -0.848034 13 12 18
44.2414 253.654 -1775.09 0.234917 0.195178 -0.859815 12 11 18
-258.651 -693.544 -1764.34 -0.725522 0.377591 -0.570796 126 92 80
-256.198 -687.422 -1765.69 -0.740989 0.14536 -0.614475 127 93 80
-258.343 -681.988 -1763.86 -0.736778 -0.0105174 -0.657217 118 86 77
-260.451 -673.236 -1763.8 -0.691907 -0.103324 -0.703304 109 80 73
-256.838 -679.324 -1766.54 -0.72345 -0.0772908 -0.680442 116 84 74
-259.797 -668.064 -1764.43 -0.602875 0.000588902 -0.738362 106 77 71
-256.62 -668.485 -1768.04 -0.536485 0.0607473 -0.80537 108 78 71
-251.634 -660.637 -1767.92 -0.310398 0.208255 -0.898901 104 75 67
-204.582 -766.414 -1764.08 0.817794 -0.284024 -0.257922 137 100 81
-202.816 -759.401 -1765.7 0.825041 -0.24259 -0.224155 144 105 86
-200.199 -749.557 -1766.55 0.853104 -0.169401 -0.319512 145 107 87
-199 -746.007 -1764.64 0.843507 -0.14721 -0.340391 143 107 87
-198.965 -740.524 -1764.62 0.834607 -0.0292938 -0.298064 141 106 88
-198.587 -720.416 -1764 0.899509 -0.15135 -0.221789 124 93 81
-199.901 -726.442 -1762.25 0.881012 -0.00359489 -0.227055 125 94 82
-197.746 -717.09 -1764.38 0.907929 -0.17971 -0.190084 122 91 80
-196.675 -709.392 -1764.2 0.93961 -0.098723 -0.146258 117 87 79
-197.124 -705.33 -1764.98 0.963126 0.000768761 -0.136146 117 87 79
-198.164 -696.202 -1765.66 0.930835 0.116672 -0.305615 114 88 79
-199.391 -686.339 -1766.09 0.586784 -0.0212721 -0.428595 116 90 81
-187.246 -656.658 -1766.95 0.189783 -0.158588 -0.938758 146 111 99
-177.104 -652.127 -1764.19 0.410693 -0.212745 -0.848331 153 120 110
-183.818 -652.062 -1767.26 0.156323 -0.275805 -0.939998 136 106 98
-179.759 -650.016 -1766.87 0.267729 -0.262389 -0.899883 140 110 102
-176.814 -640.099 -1765.41 0.499265 -0.0391753 -0.747137 137 109 97
-175.467 -636.445 -1764.02 0.613041 0.0211786 -0.68773 130 104 92
-174.259 -644.198 -1762.97 0.584908 -0.0876222 -0.789392 158 125 111
-168.024 -624.789 -1762.31 0.43179 -0.380145 -0.784665 56 51 55
-171.067 -619.174 -1767.71 0.682342 -0.296928 -0.407403 43 39 45
-166.195 -621.801 -1762.16 0.486757 -0.345818 -0.703235 53 49 53
-168.338 -612.681 -1766.94 0.764848 -0.118976 -0.445 44 41 46
-168.339 -606.606 -1767.29 0.794001 -0.0267236 -0.396123 41 38 44
-166.708 -609.687 -1765.36 0.777931 -0.0620532 -0.402794 43 40 45
-164.789 -602.258 -1762.21 0.756941 -0.0122208 -0.226781 39 37 43
-167.542 -593.28 -1763.74 0.797411 -0.0252795 -0.114922 33 32 38
-167.843 -586.806 -1764.26 0.772444 -0.0872195 -0.156917 34 33 38
-167.472 -582.357 -1764.02 0.73521 -0.148758 -0.214384 36 34 40
-164.652 -569.019 -1764.12 0.675844 -0.268394 -0.0214181 37 35 40
-162.514 -565.847 -1766.78 0.705537 -0.247988 -0.125798 37 35 41
-115.165 -889.75 -1762.49 0.637486 0.195367 0.667577 108 83 71
-108.743 -887.144 -1766.04 0.66394 0.223869 0.663151 105 81 69
-118.83 -882.04 -1765.27 0.649076 0.209452 0.644861 103 79 67
-113.288 -879.526 -1766.32 0.652748 0.215655 0.68047 103 79 67
-101.876 -903.242 -1766.23 0.69309 0.281998 0.647141 101 77 67
-105.098 -892.388 -1766.95 0.69214 0.253382 0.6458 103 79 69
-68.9887 -892.985 -1767.33 0.759755 -0.144188 0.581388 132 104 88
-72.3659 -889.697 -1768.09 0.785181 -0.146153 0.543758 132 104 88
-70.2756 -890.795 -1766.05 0.797711 -0.138021 0.526016 132 104 88
-73.507 -878.6 -1768.37 0.874681 -0.117051 0.402013 134 105 89
-64.3283 -880.725 -1763.32 0.884308 -0.146402 0.341419 134 106 90
-117.335 -876.739 -1766.48 0.666487 0.232774 0.653298 98 74 63
-120.936 -871.071 -1767.73 0.685742 0.255332 0.603199 91 67 58
-119.164 -828.06 -1764.16 0.788079 -0.0633415 0.546948 90 65 55
-107.108 -823.946 -1765.36 0.83991 -0.217588 0.355954 87 63 51
-73.1042 -872.452 -1764.47 0.859023 -0.233837 0.35169 137 108 90
-72.3037 -868.107 -1765.66 0.843543 -0.299058 0.375337 141 111 92
39.23 -490.127 -1766.08 0.818312 -0.0994567 -0.528795 42 39 49
42.1897 -481.533 -1765.07 0.830222 -0.174577 -0.515138 39 36 46
44.7729 -474.768 -1764.33 0.875604 -0.263956 -0.398196 35 32 41
46.1885 -467.815 -1764.88 0.916956 -0.222181 -0.299135 35 32 41
47.4837 -461.18 -1762.82 0.936112 -0.113364 -0.256365 35 31 41
46.4791 -455.827 -1765.56 0.899997 0.0177204 -0.355467 36 33 42
50.0716 -449.301 -1761.64 0.874299 -0.157181 -0.326793 32 29 39
51.4097 -445.779 -1762.06 0.837664 -0.190486 -0.423786 31 28 37
48.7443 -439.753 -1768.09 0.771549 -0.22184 -0.609581 32 29 37
52.2971 -434.65 -1766.29 0.773241 -0.203392 -0.556393 31 28 37
52.2749 -426.675 -1764.58 0.849755 0.130016 -0.300518 30 27 35
43.8616 -413.269 -1763.67 0.884508 0.282788 0.122803 20 17 26
48.4624 -420.608 -1766.58 0.866136 0.235867 -0.0909196 28 26 34
46.3454 -417.733 -1767.69 0.869492 0.259794 0.000590094 26 23 31
43.338 -410.605 -1762.1 0.919046 0.139369 0.0696787 20 17 25
47.8297 -399.607 -1768.56 0.799477 -0.410391 0.0975477 20 18 26
57.8238 -393.089 -1768.14 0.577973 -0.817527 -0.0905295 20 17 26
57.8666 -393.472 -1764.18 0.570972 -0.818949 -0.112497 20 17 26
71.4224 -386.111 -1763.44 0.588679 -0.772197 -0.18427 22 19 27
73.6811 -384.528 -1762.1 0.633519 -0.695575 -0.207401 22 19 27
74.108 -382.726 -1763.52 0.693582 -0.597303 -0.219765 22 19 27
75.6612 -376.516 -1764.99 0.860299 -0.24453 -0.274241 21 18 26
75.2073 -370.497 -1766.77 0.949711 -0.0395677 -0.232296 20 18 26
75.0757 -362.453 -1764.06 0.971493 0.101362 -0.183567 20 18 25
73.7373 -353.83 -1764.53 0.975644 0.109893 -0.0853002 19 18 24
72.4311 -347.163 -1767.63 0.978277 0.103315 -0.0850678 18 17 23
56.5551 0.896381 -1762.04 0.910704 0.131643 -0.389247 13 12 20
54.2841 8.14578 -1765.73 0.938857 0.0808377 -0.345755 11 10 18
54.9377 15.2836 -1765.27 0.934875 -0.0357273 -0.357245 11 10 18
57.0934 26.4564 -1762.11 0.939252 -0.0923147 -0.367339 10 9 16
80.2861 16.991 -1769 0.699104 -0.27651 -0.655423 22 21 28
74.1417 25.7096 -1767.97 0.737721 -0.0652421 -0.51783 15 14 22
56.8997 32.8166 -1764.13 0.952542 -0.00398702 -0.344915 9 8 15
56.705 29.1509 -1767.66 0.860208 -0.0368819 -0.40262 10 9 16
55.1329 46.1281 -1768.59 0.900248 0.167819 -0.385025 9 8 15
55.0626 49.8045 -1766.91 0.873472 0.163196 -0.418151 10 9 16
56.7984 50.8791 -1761.73 0.929912 0.0960946 -0.383957 10 8 16
69.1227 35.9047 -1768.32 0.087207 0.202078 -0.873313 20 19 26
74.0306 32.2701 -1766.91 0.293212 0.139803 -0.756239 18 17 24
80.6832 30.1838 -1766.34 0.358284 0.0158505 -0.759699 20 19 27
74.4827 39.3771 -1764.77 0.0236962 0.242022 -0.908135 20 19 27
83.2498 38.3475 -1764 0.0206171 0.257091 -0.913143 21 20 28
68.0585 44.6502 -1765.54 0.0412951 0.230383 -0.898379 20 19 26
63.8539 50.2587 -1765.59 0.138416 0.206937 -0.848226 19 18 25
62.255 53.6634 -1764.53 0.274975 0.18093 -0.774905 17 16 23
74.6549 42.9967 -1763.13 0.0890899 0.248071 -0.853844 19 19 26
57.1317 60.5865 -1767.81 0.515264 0.0195971 -0.707564 14 13 20
52.7426 56.5563 -1767.7 0.847741 0.0664046 -0.458818 10 9 16
55.7098 72.3756 -1764.55 0.789922 0.0477739 -0.557907 10 9 16
51.9914 78.8328 -1767.28 0.838122 -0.00736027 -0.525754 9 8 15
55.631 76.3077 -1762.44 0.89338 0.0137626 -0.473679 8 7 15
61.7753 69.4632 -1767 0.389158 0.181038 -0.80687 15 14 21
68.6841 73.5853 -1765.65 0.153012 0.332844 -0.91913 19 18 25
69.952 76.2539 -1762.37 0.171356 0.314101 -0.661823 18 17 24
77.7953 76.3344 -1764.17 -0.0174447 0.275777 -0.732857 19 18 26
81.5046 76.3992 -1765.24 -0.199826 0.224805 -0.760913 20 19 27
54.0359 86.6223 -1764.13 0.889364 -0.00661691 -0.466345 9 8 15
51.8612 90.8682 -1767.12 0.846984 0.0380957 -0.526511 10 9 16
49.9285 98.7093 -1768.29 0.829546 0.111599 -0.569345 9 9 15
51.863 98.9679 -1765.76 0.841576 0.0715593 -0.577446 9 8 15
54.8162 108.149 -1763.37 0.803221 -0.0606896 -0.524111 10 9 16
-121.459 -767.892 -1762.45 0.827561 -0.103557 0.33223 105 77 64
-123.199 -757.882 -1763.26 0.805517 -0.108203 0.348763 107 79 65
-126.609 -758.839 -1775.39 0.738938 -0.126761 0.428589 110 81 68
-125.541 -748.982 -1771.86 0.755611 -0.126019 0.40118 110 81 68
-125.73 -742.176 -1772.97 0.752737 -0.131619 0.400602 110 82 68
-125.704 -747.559 -1772.56 0.752164 -0.127901 0.404364 110 81 68
-124.117 -749.627 -1766.18 0.786408 -0.116778 0.366255 108 80 66
-124.133 -748.071 -1766.21 0.785235 -0.117559 0.366992 108 80 66
-123.654 -737.687 -1763.73 0.789575 -0.116384 0.360182 108 80 66
-123.84 -740.396 -1764.73 0.786503 -0.118161 0.363316 108 80 66
-125.225 -736.537 -1770.7 0.760139 -0.128468 0.392107 110 81 68
-124.08 -730.737 -1765.64 0.778632 -0.119274 0.372772 109 80 67
-123.87 -721.628 -1772.26 0.731888 -0.0804243 0.449272 110 81 69
-123.819 -721.288 -1772.2 0.731148 -0.0770221 0.451647 110 81 69
-122.55 -714.196 -1764.51 0.678218 -0.0316779 0.522634 111 81 70
-122.971 -713.399 -1772.48 0.691647 -0.00991186 0.526752 110 81 70
