ply
format ascii 1.0
comment Created by Open3D
element vertex 1335
property double x
property double y
property double z
property uchar red
property uchar green
property uchar blue
end_header
-512.015 -453.714 -1074 199 178 183
-509.87 -453.322 -1073 207 186 189
-508.202 -453.353 -1073 209 188 191
-505.589 -452.539 -1071 209 191 193
-502.983 -451.725 -1069 211 193 195
-500.851 -451.333 -1068 212 194 196
-498.722 -450.941 -1067 211 193 195
-496.596 -450.549 -1066 208 190 192
-494.937 -450.58 -1066 207 189 191
-492.815 -450.188 -1065 205 188 190
-491.157 -450.218 -1065 202 185 187
-488.58 -449.403 -1063 197 180 184
-486.466 -449.011 -1062 199 182 186
-484.356 -448.618 -1061 203 188 194
-482.703 -448.648 -1061 206 191 197
-481.05 -448.679 -1061 206 194 201
-479.397 -448.709 -1061 211 199 206
-477.743 -448.739 -1061 210 198 205
-476.538 -449.192 -1062 211 199 206
-474.882 -449.222 -1062 208 197 206
-473.672 -449.675 -1063 205 194 203
-472.458 -450.128 -1064 204 193 203
-470.799 -450.159 -1064 204 193 203
-469.58 -450.612 -1065 202 193 203
-468.358 -451.065 -1066 203 194 204
-466.694 -451.095 -1066 202 193 205
-465.03 -451.125 -1066 202 193 205
-463.801 -451.578 -1067 202 193 203
-462.568 -452.031 -1068 202 193 203
-460.901 -452.061 -1068 200 191 203
-459.233 -452.091 -1068 201 192 204
-457.565 -452.121 -1068 202 194 208
-456.75 -452.998 -1070 203 195 209
-454.653 -452.604 -1069 200 195 210
-453.406 -453.058 -1070 204 199 214
-452.156 -453.511 -1071 206 201 216
-450.481 -453.541 -1071 206 201 216
-449.645 -454.417 -1073 207 202 217
-447.55 -454.024 -1072 205 200 215
-446.289 -454.477 -1073 200 195 210
-444.196 -454.083 -1072 196 191 206
-442.519 -454.112 -1072 194 189 204
-440.842 -454.142 -1072 199 194 209
-439.164 -454.172 -1072 202 197 212
-437.894 -454.625 -1073 201 196 211
-436.214 -454.654 -1073 198 193 208
-434.939 -455.107 -1074 197 192 207
-433.661 -455.561 -1075 198 193 208
-431.977 -455.59 -1075 199 194 209
-429.893 -455.196 -1074 199 194 209
-427.812 -454.801 -1073 201 196 211
-426.13 -454.83 -1073 199 194 210
-424.449 -454.859 -1073 198 193 209
-422.373 -454.465 -1072 201 193 209
-420.692 -454.493 -1072 199 191 207
-419.011 -454.522 -1072 199 191 208
-417.719 -454.975 -1073 202 194 211
-416.036 -455.004 -1073 204 196 214
-414.353 -455.033 -1073 207 199 217
-413.054 -455.486 -1074 208 200 218
-411.369 -455.515 -1074 208 200 218
-409.683 -455.544 -1074 207 199 217
-408.377 -455.997 -1075 205 197 215
-406.689 -456.025 -1075 203 195 213
-405.378 -456.478 -1076 204 196 214
-403.313 -456.083 -1075 207 198 216
-401.625 -456.111 -1075 206 197 215
-400.308 -456.564 -1076 201 195 214
-398.988 -457.017 -1077 201 195 214
-397.295 -457.045 -1077 200 196 215
-395.97 -457.498 -1078 200 196 215
-394.641 -457.951 -1079 198 194 213
-393.673 -458.828 -1081 196 192 211
-393.061 -460.129 -1084 196 194 216
-391.717 -460.582 -1085 196 194 216
-390.37 -461.035 -1086 199 197 219
-389.378 -461.913 -1088 201 199 221
-388.022 -462.365 -1089 200 197 218
-386.663 -462.818 -1090 198 195 216
-384.947 -462.846 -1090 197 195 216
-383.583 -463.299 -1091 197 195 216
-382.215 -463.752 -1092 197 195 216
-380.844 -464.205 -1093 195 193 214
-379.47 -464.657 -1094 194 192 213
-377.401 -464.261 -1093 195 193 214
-376.023 -464.713 -1094 195 193 214
-374.642 -465.166 -1095 197 195 216
-372.916 -465.194 -1095 201 199 220
-371.529 -465.646 -1096 204 202 223
-369.801 -465.674 -1096 202 200 221
-368.745 -466.551 -1098 197 195 216
-367.682 -467.429 -1100 195 193 214
-366.613 -468.306 -1102 196 194 215
-365.206 -468.759 -1103 198 196 217
-364.125 -469.637 -1105 199 197 218
-363.365 -470.939 -1108 198 196 217
-362.269 -471.817 -1110 196 194 215
-361.167 -472.694 -1112 195 193 214
-360.058 -473.572 -1114 195 193 214
-358.943 -474.45 -1116 193 191 212
-358.141 -475.753 -1119 191 189 210
-357.329 -477.056 -1122 188 186 207
-356.507 -478.359 -1125 187 185 206
-355.991 -480.087 -1129 188 186 207
-354.835 -480.965 -1131 188 186 207
-354.297 -482.694 -1135 187 185 206
-353.434 -483.997 -1138 187 185 206
-352.563 -485.3 -1141 184 182 204
-551.278 -468.51 -1106 207 191 188
-545.588 -465.154 -1098 207 191 188
-540.912 -462.644 -1092 206 190 187
-536.749 -460.557 -1087 205 187 187
-533.586 -459.318 -1084 201 183 183
-530.922 -458.502 -1082 202 181 184
-528.265 -457.686 -1080 204 183 186
-525.613 -456.87 -1078 200 182 182
-523.939 -456.901 -1078 199 181 181
-522.265 -456.932 -1078 195 177 179
-520.108 -456.54 -1077 192 174 176
-517.953 -456.147 -1076 197 176 179
-516.282 -456.178 -1076 198 177 180
-514.131 -455.786 -1075 199 178 183
-511.507 -454.969 -1073 200 179 184
-509.839 -455 -1073 202 181 184
-507.697 -454.607 -1072 206 185 188
-505.558 -454.214 -1071 207 189 191
-502.952 -453.396 -1069 209 191 193
-500.82 -453.003 -1068 209 191 193
-498.691 -452.61 -1067 209 191 193
-496.565 -452.216 -1066 209 191 193
-494.442 -451.822 -1065 209 191 193
-492.322 -451.429 -1064 208 191 193
-490.204 -451.035 -1063 205 188 190
-488.09 -450.641 -1062 202 185 189
-486.436 -450.671 -1062 204 187 191
-484.325 -450.277 -1061 207 192 198
-482.673 -450.308 -1061 209 194 200
-481.02 -450.338 -1061 207 195 202
-479.366 -450.368 -1061 209 197 204
-478.163 -450.823 -1062 210 198 205
-476.508 -450.853 -1062 211 199 206
-475.299 -451.308 -1063 209 198 207
-474.087 -451.763 -1064 208 197 206
-472.428 -451.793 -1064 208 197 207
-471.211 -452.248 -1065 208 197 207
-469.991 -452.702 -1066 205 196 206
-468.767 -453.157 -1067 203 194 204
-467.102 -453.187 -1067 203 194 206
-465.437 -453.218 -1067 203 194 206
-464.206 -453.672 -1068 203 194 204
-462.538 -453.702 -1068 203 194 204
-460.871 -453.732 -1068 202 193 205
-459.203 -453.762 -1068 203 194 206
-457.963 -454.217 -1069 202 194 208
-456.72 -454.672 -1070 202 194 208
-454.623 -454.277 -1069 202 197 212
-453.376 -454.732 -1070 204 199 214
-452.126 -455.187 -1071 206 201 216
-450.872 -455.642 -1072 207 202 217
-449.615 -456.096 -1073 209 204 219
-447.52 -455.701 -1072 209 204 219
-446.259 -456.156 -1073 205 200 215
-444.167 -455.761 -1072 201 196 211
-442.489 -455.79 -1072 200 195 210
-440.812 -455.82 -1072 202 197 212
-439.544 -456.275 -1073 203 198 213
-437.865 -456.304 -1073 201 196 211
-436.185 -456.334 -1073 199 194 209
-434.91 -456.788 -1074 198 193 208
-433.228 -456.818 -1074 199 194 209
-431.546 -456.847 -1074 201 196 211
-429.863 -456.877 -1074 205 200 215
-427.782 -456.481 -1073 204 199 214
-426.498 -456.935 -1074 201 196 211
-424.419 -456.539 -1073 200 195 210
-422.344 -456.143 -1072 203 195 211
-420.663 -456.172 -1072 202 194 210
-419.373 -456.626 -1073 200 192 208
-417.69 -456.655 -1073 202 194 210
-416.007 -456.684 -1073 202 194 212
-414.324 -456.713 -1073 204 196 214
-413.025 -457.168 -1074 205 197 215
-411.723 -457.622 -1075 205 197 215
-409.654 -457.225 -1074 206 198 216
-407.969 -457.254 -1074 205 197 215
-406.661 -457.709 -1075 206 198 216
-404.973 -457.737 -1075 207 199 217
-403.66 -458.192 -1076 207 198 216
-401.97 -458.22 -1076 205 196 214
-400.279 -458.249 -1076 201 195 215
-398.959 -458.703 -1077 201 195 215
-397.636 -459.158 -1078 200 196 215
-395.942 -459.186 -1078 200 196 215
-394.979 -460.066 -1080 198 194 213
-394.009 -460.947 -1082 197 193 212
-393.395 -462.253 -1085 196 194 216
-392.05 -462.708 -1086 197 195 217
-391.061 -463.588 -1088 199 197 219
-390.065 -464.469 -1090 200 198 220
-388.35 -464.497 -1090 201 197 218
-386.635 -464.525 -1090 199 195 216
-385.272 -464.98 -1091 197 195 216
-383.555 -465.008 -1091 198 196 217
-382.187 -465.462 -1092 199 197 218
-380.816 -465.917 -1093 196 194 215
-379.442 -466.371 -1094 195 193 214
-377.373 -465.973 -1093 196 194 215
-375.995 -466.427 -1094 197 195 216
-374.272 -466.455 -1094 198 196 217
-372.888 -466.909 -1095 201 199 220
-371.84 -467.79 -1097 204 202 223
-369.774 -467.391 -1096 200 198 219
-369.053 -468.698 -1099 195 193 214
-367.989 -469.579 -1101 193 191 212
-366.918 -470.46 -1103 195 193 214
-365.509 -470.914 -1104 196 194 215
-364.427 -471.795 -1106 198 196 217
-363.665 -473.102 -1109 198 196 217
-362.242 -473.556 -1110 196 194 215
-361.14 -474.437 -1112 197 195 216
-360.031 -475.318 -1114 196 194 215
-358.915 -476.199 -1116 194 192 213
-357.793 -477.079 -1118 192 190 211
-357.301 -478.814 -1122 190 188 209
-356.48 -480.122 -1125 189 187 208
-355.964 -481.856 -1129 190 188 209
-355.121 -483.164 -1132 190 188 209
-354.269 -484.472 -1135 189 187 208
-353.096 -485.353 -1137 187 185 206
-352.226 -486.662 -1140 183 181 203
-549.252 -468.538 -1102 207 191 188
-544.562 -466.019 -1096 205 189 186
-540.385 -463.925 -1091 202 186 183
-536.718 -462.256 -1087 199 182 182
-534.047 -461.437 -1085 195 178 178
-531.381 -460.618 -1083 198 177 180
-528.233 -459.374 -1080 202 181 184
-526.069 -458.98 -1079 199 181 182
-524.394 -459.011 -1079 198 180 181
-522.718 -459.043 -1079 196 178 180
-520.559 -458.649 -1078 199 181 183
-518.403 -458.254 -1077 205 186 188
-516.25 -457.86 -1076 205 186 188
-514.1 -457.466 -1075 203 182 186
-511.476 -456.646 -1073 202 181 185
-509.808 -456.677 -1073 206 185 188
-507.666 -456.282 -1072 207 186 189
-505.528 -455.888 -1071 206 188 190
-502.921 -455.067 -1069 205 187 189
-500.789 -454.672 -1068 203 185 187
-498.661 -454.278 -1067 204 186 188
-496.069 -453.457 -1065 208 190 192
-493.947 -453.062 -1064 211 193 195
-491.829 -452.666 -1063 212 195 197
-489.713 -452.271 -1062 213 196 198
-488.059 -452.302 -1062 210 193 197
-486.405 -452.332 -1062 208 191 195
-484.751 -452.362 -1062 207 192 198
-483.097 -452.393 -1062 210 195 201
-481.443 -452.423 -1062 209 197 204
-479.788 -452.454 -1062 209 197 204
-478.583 -452.91 -1063 209 197 204
-476.926 -452.94 -1063 210 198 205
-475.716 -453.397 -1064 210 199 208
-474.057 -453.427 -1064 211 200 209
-472.398 -453.457 -1064 211 200 210
-471.181 -453.913 -1065 211 200 210
-469.961 -454.37 -1066 206 197 207
-468.737 -454.826 -1067 201 192 202
-467.072 -454.856 -1067 203 194 206
-464.97 -454.46 -1066 203 194 206
-464.176 -455.343 -1068 203 194 204
-462.941 -455.799 -1069 203 194 204
-461.272 -455.83 -1069 204 195 207
-459.603 -455.86 -1069 205 196 208
-458.361 -456.316 -1070 203 195 209
-457.544 -457.199 -1072 202 194 208
-455.444 -456.803 -1071 201 196 210
-453.77 -456.832 -1071 201 196 210
-452.518 -457.289 -1072 202 197 212
-450.842 -457.319 -1072 203 198 213
-449.585 -457.775 -1073 205 200 215
-447.49 -457.378 -1072 206 201 216
-446.229 -457.835 -1073 205 200 216
-444.551 -457.865 -1073 202 197 213
-442.873 -457.895 -1073 202 197 212
-441.194 -457.924 -1073 202 197 212
-439.514 -457.954 -1073 202 197 212
-438.243 -458.41 -1074 200 195 210
-436.562 -458.44 -1074 199 194 209
-434.88 -458.469 -1074 199 194 209
-433.199 -458.499 -1074 201 196 211
-431.517 -458.528 -1074 202 197 212
-429.834 -458.558 -1074 206 201 215
-427.753 -458.16 -1073 203 198 212
-426.469 -458.616 -1074 200 195 210
-424.39 -458.219 -1073 200 195 210
-422.708 -458.248 -1073 204 196 212
-421.026 -458.277 -1073 203 195 211
-419.344 -458.306 -1073 202 194 210
-417.661 -458.335 -1073 203 195 211
-415.978 -458.364 -1073 202 194 212
-414.295 -458.393 -1073 201 193 211
-412.996 -458.849 -1074 203 195 213
-411.311 -458.878 -1074 205 197 215
-409.244 -458.48 -1073 205 197 215
-407.94 -458.936 -1074 203 195 213
-406.632 -459.392 -1075 202 194 212
-404.944 -459.42 -1075 202 194 212
-403.631 -459.876 -1076 202 193 211
-401.941 -459.905 -1076 202 193 211
-400.623 -460.361 -1077 199 193 213
-399.301 -460.817 -1078 199 193 213
-397.976 -461.273 -1079 197 193 212
-396.648 -461.729 -1080 197 193 212
-395.681 -462.613 -1082 197 193 212
-394.345 -463.069 -1083 197 193 212
-394.092 -464.808 -1087 196 194 215
-392.744 -465.264 -1088 198 196 217
-391.392 -465.72 -1089 199 197 218
-390.037 -466.176 -1090 199 197 218
-388.322 -466.204 -1090 200 196 217
-386.961 -466.66 -1091 198 194 215
-385.597 -467.116 -1092 196 194 215
-383.878 -467.144 -1092 197 195 216
-382.159 -467.173 -1092 196 194 215
-381.137 -468.056 -1094 196 194 215
-379.414 -468.085 -1094 196 194 215
-377.691 -468.113 -1094 197 195 216
-375.967 -468.141 -1094 199 197 218
-374.586 -468.596 -1095 199 197 218
-373.201 -469.052 -1096 199 197 218
-371.813 -469.508 -1097 201 199 220
-370.421 -469.964 -1098 199 197 218
-369.361 -470.848 -1100 196 194 215
-367.961 -471.303 -1101 196 194 215
-366.89 -472.187 -1103 197 195 216
-365.482 -472.643 -1104 196 194 215
-364.399 -473.527 -1106 196 194 215
-362.982 -473.983 -1107 197 195 216
-362.214 -475.295 -1110 197 195 216
-361.112 -476.179 -1112 199 197 218
-360.003 -477.063 -1114 198 196 217
-358.888 -477.947 -1116 196 194 215
-358.086 -479.259 -1119 195 193 214
-357.274 -480.572 -1122 194 192 213
-356.769 -482.313 -1126 193 191 212
-356.252 -484.054 -1130 192 190 211
-355.408 -485.366 -1133 193 191 212
-354.242 -486.251 -1135 187 185 206
-353.069 -487.135 -1137 184 182 203
-352.508 -488.876 -1141 181 179 201
-547.725 -468.979 -1099 204 188 185
-543.536 -466.877 -1094 202 186 183
-540.353 -465.629 -1091 198 182 179
-536.686 -463.954 -1087 195 179 178
-534.507 -463.559 -1086 194 178 177
-531.84 -462.737 -1084 198 177 180
-529.18 -461.915 -1082 202 181 184
-527.013 -461.519 -1081 198 180 182
-524.848 -461.124 -1080 199 181 183
-522.687 -460.729 -1079 201 183 185
-520.528 -460.333 -1078 204 186 188
-518.372 -459.937 -1077 206 188 190
-516.699 -459.969 -1077 205 187 189
-513.591 -458.719 -1074 205 184 187
-511.445 -458.323 -1073 206 185 188
-509.302 -457.927 -1072 206 185 188
-507.162 -457.531 -1071 208 187 190
-505.025 -457.134 -1070 210 192 194
-502.89 -456.738 -1069 212 194 196
-500.759 -456.342 -1068 208 190 192
-498.63 -455.945 -1067 205 187 189
-496.038 -455.121 -1065 205 187 189
-493.917 -454.725 -1064 206 188 190
-492.261 -454.755 -1064 206 189 191
-490.143 -454.359 -1063 210 193 195
-488.488 -454.389 -1063 211 194 198
-486.833 -454.42 -1063 208 191 195
-484.721 -454.023 -1062 207 192 198
-483.067 -454.053 -1062 211 196 202
-481.412 -454.084 -1062 209 197 204
-480.209 -454.542 -1063 206 194 201
-478.553 -454.572 -1063 209 198 205
-476.896 -454.602 -1063 209 198 205
-475.686 -455.06 -1064 210 199 208
-474.027 -455.091 -1064 209 198 207
-472.368 -455.121 -1064 207 196 206
-470.708 -455.151 -1064 207 196 206
-469.489 -455.609 -1065 206 197 207
-468.267 -456.067 -1066 205 196 206
-466.604 -456.097 -1066 206 197 209
-464.94 -456.127 -1066 206 197 209
-464.146 -457.013 -1068 205 196 206
-462.911 -457.471 -1069 205 196 206
-461.242 -457.502 -1069 206 197 209
-459.573 -457.532 -1069 206 197 209
-458.331 -457.99 -1070 204 196 210
-457.513 -458.876 -1072 203 195 209
-455.839 -458.906 -1072 201 196 209
-454.163 -458.936 -1072 200 195 208
-452.488 -458.966 -1072 200 195 210
-451.233 -459.424 -1073 201 196 211
-449.556 -459.454 -1073 201 196 211
-447.46 -459.056 -1072 203 198 213
-446.2 -459.514 -1073 204 199 216
-444.521 -459.544 -1073 203 198 215
-442.843 -459.573 -1073 203 198 213
-441.164 -459.603 -1073 203 198 213
-440.304 -460.489 -1075 203 198 213
-438.621 -460.519 -1075 202 197 212
-436.939 -460.549 -1075 200 195 210
-435.256 -460.578 -1075 200 195 210
-433.572 -460.608 -1075 202 197 212
-431.889 -460.637 -1075 203 198 213
-429.805 -460.238 -1074 201 196 209
-427.724 -459.839 -1073 199 194 207
-426.042 -459.868 -1073 198 193 208
-423.965 -459.469 -1072 200 195 210
-422.285 -459.498 -1072 203 195 211
-420.997 -459.956 -1073 202 194 210
-418.924 -459.557 -1072 203 195 211
-417.243 -459.586 -1072 207 199 215
-415.562 -459.615 -1072 205 197 215
-413.88 -459.644 -1072 201 193 211
-412.583 -460.101 -1073 200 192 210
-411.282 -460.559 -1074 203 195 213
-409.597 -460.588 -1074 203 195 213
-407.911 -460.617 -1074 201 193 211
-406.603 -461.074 -1075 200 192 210
-405.292 -461.532 -1076 200 192 210
-403.978 -461.99 -1077 201 192 210
-402.286 -462.018 -1077 200 191 209
-400.966 -462.476 -1078 197 191 211
-399.643 -462.934 -1079 197 191 211
-398.685 -463.82 -1081 196 192 211
-397.354 -464.278 -1082 196 192 211
-396.384 -465.165 -1084 197 193 212
-394.68 -465.193 -1084 198 194 213
-394.063 -466.509 -1087 195 193 214
-392.715 -466.967 -1088 198 196 217
-391.363 -467.425 -1089 199 197 218
-390.008 -467.882 -1090 199 197 218
-388.293 -467.911 -1090 200 196 217
-386.933 -468.368 -1091 199 195 216
-385.569 -468.826 -1092 196 194 216
-383.85 -468.854 -1092 197 195 217
-382.481 -469.312 -1093 197 195 216
-381.108 -469.77 -1094 196 194 215
-379.732 -470.227 -1095 193 191 212
-377.663 -469.826 -1094 193 191 212
-376.283 -470.283 -1095 195 193 214
-374.558 -470.311 -1095 197 195 216
-373.513 -471.198 -1097 198 196 217
-372.124 -471.656 -1098 201 199 220
-370.73 -472.113 -1099 199 197 218
-369.334 -472.57 -1100 198 196 217
-368.268 -473.457 -1102 199 197 218
-366.862 -473.915 -1103 201 199 220
-365.454 -474.372 -1104 199 197 218
-364.371 -475.259 -1106 197 195 216
-362.954 -475.717 -1107 198 196 217
-361.86 -476.604 -1109 198 196 217
-360.76 -477.491 -1111 195 193 214
-359.976 -478.808 -1114 195 193 214
-358.86 -479.695 -1116 195 193 214
-358.058 -481.012 -1119 195 193 214
-357.565 -482.759 -1123 195 193 214
-356.742 -484.076 -1126 194 192 213
-356.224 -485.824 -1130 193 191 212
-355.38 -487.141 -1133 192 190 211
-354.526 -488.459 -1136 183 181 202
-353.352 -489.346 -1138 181 179 200
-554.395 -474.946 -1109 201 185 182
-546.197 -469.41 -1096 203 187 184
-543.007 -468.158 -1093 202 185 184
-539.826 -466.905 -1090 197 180 179
-536.654 -465.652 -1087 195 179 178
-534.475 -465.255 -1086 196 180 179
-531.809 -464.43 -1084 200 181 183
-529.148 -463.605 -1082 200 181 183
-526.981 -463.208 -1081 200 182 184
-525.302 -463.24 -1081 203 185 187
-523.14 -462.843 -1080 206 188 190
-520.979 -462.446 -1079 206 188 190
-518.822 -462.049 -1078 205 186 188
-516.667 -461.652 -1077 203 184 186
-514.038 -460.826 -1075 205 184 187
-511.89 -460.428 -1074 206 185 188
-509.271 -459.602 -1072 207 187 188
-507.131 -459.204 -1071 212 192 193
-504.993 -458.806 -1070 212 194 196
-503.33 -458.838 -1070 209 191 193
-501.196 -458.44 -1069 204 186 188
-498.599 -457.613 -1067 203 185 187
-496.473 -457.215 -1066 203 186 188
-494.35 -456.817 -1065 204 187 189
-493.155 -457.277 -1066 199 184 186
-490.574 -456.449 -1064 203 188 190
-488.917 -456.48 -1064 208 191 195
-487.26 -456.51 -1064 209 192 196
-485.147 -456.112 -1063 207 192 198
-483.491 -456.142 -1063 206 191 197
-481.835 -456.173 -1063 205 193 200
-480.631 -456.633 -1064 208 196 203
-478.973 -456.663 -1064 205 194 202
-477.763 -457.123 -1065 205 194 202
-476.103 -457.153 -1065 207 196 204
-473.997 -456.754 -1064 209 198 206
-472.338 -456.784 -1064 210 199 209
-470.678 -456.815 -1064 210 199 209
-469.459 -457.274 -1065 207 198 210
-467.798 -457.305 -1065 205 196 208
-466.574 -457.764 -1066 205 196 207
-464.474 -457.365 -1065 203 194 205
-464.115 -458.683 -1068 203 194 205
-462.881 -459.143 -1069 202 193 204
-461.643 -459.603 -1070 202 193 205
-460.832 -460.492 -1072 204 195 207
-459.158 -460.522 -1072 204 196 209
-457.91 -460.982 -1073 204 196 209
-456.234 -461.012 -1073 202 197 211
-454.557 -461.042 -1073 203 198 212
-452.88 -461.072 -1073 204 199 214
-451.203 -461.102 -1073 202 197 212
-449.526 -461.132 -1073 200 195 210
-447.848 -461.162 -1073 202 197 212
-446.17 -461.192 -1073 204 199 215
-444.906 -461.652 -1074 203 198 214
-443.226 -461.682 -1074 203 199 214
-441.956 -462.141 -1075 202 198 213
-440.684 -462.601 -1076 202 197 212
-439 -462.631 -1076 200 195 210
-437.722 -463.09 -1077 200 195 210
-435.631 -462.69 -1076 201 196 211
-433.946 -462.72 -1076 201 196 211
-431.859 -462.319 -1075 201 196 211
-429.775 -461.919 -1074 200 195 209
-427.694 -461.518 -1073 199 194 208
-426.013 -461.547 -1073 198 191 207
-423.936 -461.147 -1072 200 193 209
-422.256 -461.176 -1072 201 193 209
-420.576 -461.205 -1072 201 193 209
-418.895 -461.234 -1072 207 199 215
-417.214 -461.263 -1072 209 201 217
-415.533 -461.292 -1072 205 198 215
-413.851 -461.321 -1072 201 194 211
-412.554 -461.781 -1073 201 193 211
-411.636 -462.67 -1075 204 196 214
-409.568 -462.269 -1074 206 197 215
-407.882 -462.298 -1074 205 196 214
-406.575 -462.757 -1075 201 193 211
-405.263 -463.216 -1076 200 192 210
-403.949 -463.675 -1077 202 193 211
-402.257 -463.704 -1077 200 191 209
-400.566 -463.733 -1077 197 189 208
-399.614 -464.623 -1079 198 190 209
-398.657 -465.512 -1081 197 193 211
-397.325 -465.972 -1082 197 193 211
-396.356 -466.862 -1084 196 192 212
-395.016 -467.321 -1085 196 192 212
-394.035 -468.211 -1087 197 195 216
-392.326 -468.24 -1087 197 195 216
-390.975 -468.699 -1088 198 196 217
-389.622 -469.158 -1089 198 196 217
-387.909 -469.186 -1089 199 196 217
-386.904 -470.077 -1091 199 196 217
-385.188 -470.105 -1091 198 196 217
-383.822 -470.564 -1092 197 195 216
-382.103 -470.592 -1092 195 193 214
-380.732 -471.051 -1093 197 195 216
-379.358 -471.511 -1094 197 195 216
-377.635 -471.539 -1094 195 193 214
-376.255 -471.998 -1095 196 194 215
-374.872 -472.457 -1096 199 197 218
-373.486 -472.916 -1097 200 198 219
-372.096 -473.375 -1098 199 197 218
-370.702 -473.834 -1099 197 195 216
-369.642 -474.724 -1101 197 195 216
-368.24 -475.183 -1102 198 196 217
-366.835 -475.642 -1103 198 196 217
-365.426 -476.101 -1104 197 195 216
-364.344 -476.991 -1106 196 194 215
-362.927 -477.45 -1107 197 195 216
-361.833 -478.341 -1109 200 198 219
-360.732 -479.231 -1111 197 195 216
-359.948 -480.552 -1114 194 192 213
-359.154 -481.874 -1117 194 192 213
-358.351 -483.196 -1120 195 193 214
-357.537 -484.518 -1123 194 192 213
-357.348 -486.703 -1128 194 192 213
-356.512 -488.025 -1131 192 190 210
-355.039 -488.484 -1132 190 188 208
-354.187 -489.806 -1135 181 179 200
-353.324 -491.129 -1138 182 180 201
-352.453 -492.451 -1141 184 182 204
-550.364 -473.239 -1101 203 187 183
-546.663 -471.552 -1097 203 187 183
-542.478 -469.435 -1092 201 183 183
-538.803 -467.747 -1088 197 179 179
-536.622 -467.349 -1087 193 177 176
-534.443 -466.951 -1086 192 176 175
-531.777 -466.123 -1084 195 177 179
-529.116 -465.295 -1082 199 181 183
-527.437 -465.327 -1082 200 182 184
-525.271 -464.928 -1081 200 182 184
-523.592 -464.96 -1081 198 180 182
-521.431 -464.562 -1080 197 179 181
-519.272 -464.163 -1079 199 178 181
-517.116 -463.764 -1078 199 178 181
-514.484 -462.935 -1076 201 180 183
-511.859 -462.106 -1074 202 181 184
-509.715 -461.707 -1073 204 184 184
-507.573 -461.308 -1072 203 183 183
-504.962 -460.478 -1070 200 182 184
-503.299 -460.51 -1070 200 182 184
-501.165 -460.11 -1069 201 183 185
-499.035 -459.711 -1068 203 185 187
-496.442 -458.881 -1066 202 185 187
-494.783 -458.912 -1066 202 185 187
-493.125 -458.943 -1066 200 186 189
-491.004 -458.543 -1065 200 186 189
-489.346 -458.573 -1065 203 186 190
-487.688 -458.604 -1065 205 188 192
-485.573 -458.204 -1064 204 189 195
-484.37 -458.665 -1065 203 188 194
-482.258 -458.265 -1064 202 190 197
-480.6 -458.296 -1064 203 191 198
-479.392 -458.757 -1065 203 192 201
-477.732 -458.787 -1065 204 193 202
-476.072 -458.818 -1065 206 195 202
-474.412 -458.848 -1065 206 195 202
-472.751 -458.879 -1065 206 195 205
-470.648 -458.478 -1064 207 196 206
-469.429 -458.939 -1065 205 196 210
-467.768 -458.97 -1065 204 195 209
-466.543 -459.431 -1066 199 190 200
-464.88 -459.461 -1066 198 189 199
-464.085 -460.353 -1068 198 189 201
-463.284 -461.246 -1070 200 191 203
-462.045 -461.707 -1071 201 192 204
-460.802 -462.169 -1072 202 193 205
-459.128 -462.199 -1072 201 194 205
-457.88 -462.66 -1073 201 194 205
-456.204 -462.69 -1073 200 195 210
-454.104 -462.289 -1072 203 198 213
-452.428 -462.319 -1072 205 200 215
-450.752 -462.349 -1072 201 196 211
-449.496 -462.81 -1073 198 193 208
-447.818 -462.84 -1073 198 193 208
-446.14 -462.87 -1073 198 193 208
-444.462 -462.9 -1073 197 192 207
-443.196 -463.362 -1074 199 195 210
-442.338 -464.254 -1076 200 196 211
-440.654 -464.284 -1076 201 196 211
-439.378 -464.745 -1077 201 196 211
-438.099 -465.207 -1078 200 195 210
-436.006 -464.805 -1077 199 194 209
-434.32 -464.835 -1077 199 194 209
-432.231 -464.433 -1076 200 195 210
-430.146 -464.031 -1075 200 195 210
-428.462 -464.06 -1075 200 195 210
-426.778 -464.09 -1075 201 193 209
-424.698 -463.687 -1074 203 195 211
-422.621 -463.285 -1073 202 194 210
-420.546 -462.882 -1072 200 192 208
-418.866 -462.911 -1072 204 196 212
-417.185 -462.941 -1072 207 199 215
-415.504 -462.97 -1072 206 201 216
-413.822 -462.999 -1072 206 201 216
-412.525 -463.46 -1073 209 201 219
-411.607 -464.352 -1075 209 201 219
-409.539 -463.949 -1074 209 200 218
-408.233 -464.41 -1075 207 198 216
-406.546 -464.439 -1075 202 194 212
-404.858 -464.468 -1075 199 191 209
-403.545 -464.929 -1076 199 191 209
-402.229 -465.39 -1077 198 190 208
-400.537 -465.418 -1077 199 190 208
-399.586 -466.311 -1079 199 190 208
-398.628 -467.204 -1081 197 193 210
-397.297 -467.665 -1082 198 194 211
-396.327 -468.558 -1084 198 194 215
-394.987 -469.019 -1085 197 193 214
-394.369 -470.345 -1088 195 193 214
-393.019 -470.806 -1089 197 195 216
-391.306 -470.834 -1089 198 196 217
-389.951 -471.295 -1090 198 196 217
-388.593 -471.756 -1091 197 195 216
-386.876 -471.784 -1091 198 196 217
-385.159 -471.813 -1091 198 196 217
-383.442 -471.841 -1091 196 194 215
-381.725 -471.869 -1091 193 191 212
-380.355 -472.33 -1092 195 193 214
-379.329 -473.223 -1094 195 193 214
-377.261 -472.819 -1093 195 193 214
-375.883 -473.279 -1094 196 194 215
-374.844 -474.173 -1096 198 196 217
-373.458 -474.633 -1097 198 196 217
-372.407 -475.527 -1099 198 196 217
-370.675 -475.554 -1099 196 194 215
-369.614 -476.448 -1101 197 195 216
-368.212 -476.908 -1102 198 196 218
-366.807 -477.369 -1103 198 196 218
-365.399 -477.83 -1104 197 195 217
-364.316 -478.723 -1106 195 193 215
-362.571 -478.751 -1106 194 192 214
-361.479 -479.644 -1108 194 192 214
-361.029 -481.403 -1112 196 194 216
-360.244 -482.73 -1115 195 193 215
-359.127 -483.623 -1117 195 193 214
-358.323 -484.95 -1120 195 193 214
-357.51 -486.276 -1123 193 191 212
-357.003 -488.036 -1127 192 190 211
-356.169 -489.363 -1130 192 190 209
-354.698 -489.824 -1131 189 187 206
-353.847 -491.151 -1134 184 182 204
-352.986 -492.478 -1137 183 181 203
-352.425 -494.238 -1141 183 181 203
-559.559 -481.396 -1116 205 189 186
-549.332 -474.095 -1099 202 186 182
-545.136 -471.97 -1094 198 182 178
-541.949 -470.708 -1091 194 177 177
-539.267 -469.878 -1089 195 178 178
-537.084 -469.478 -1088 196 180 179
-534.411 -468.647 -1086 193 177 176
-532.235 -468.248 -1085 193 175 177
-529.574 -467.416 -1083 198 180 182
-527.892 -467.448 -1083 194 176 178
-525.725 -467.048 -1082 192 174 176
-523.561 -466.648 -1081 191 173 175
-521.882 -466.68 -1081 191 173 175
-519.721 -466.28 -1080 195 174 177
-517.564 -465.88 -1079 198 177 180
-514.931 -465.048 -1077 199 178 181
-512.781 -464.648 -1076 200 179 182
-510.158 -463.815 -1074 203 183 183
-508.015 -463.415 -1073 203 183 183
-505.403 -462.582 -1071 201 183 185
-503.267 -462.181 -1070 200 182 184
-501.603 -462.212 -1070 201 183 185
-499.004 -461.379 -1068 203 185 187
-497.343 -461.41 -1068 204 187 189
-495.217 -461.009 -1067 206 189 191
-493.556 -461.04 -1067 202 188 192
-491.434 -460.639 -1066 199 185 189
-489.775 -460.67 -1066 200 183 187
-488.115 -460.701 -1066 202 185 189
-485.998 -460.299 -1065 203 188 194
-484.34 -460.33 -1065 204 189 195
-482.681 -460.36 -1065 203 191 198
-481.021 -460.391 -1065 204 192 199
-479.362 -460.421 -1065 204 193 203
-477.702 -460.452 -1065 205 194 204
-476.489 -460.915 -1066 206 195 203
-474.827 -460.945 -1066 205 194 202
-472.721 -460.543 -1065 206 195 205
-470.617 -460.141 -1064 208 197 207
-469.399 -460.604 -1065 205 196 209
-467.737 -460.635 -1065 204 195 208
-466.513 -461.097 -1066 199 190 201
-464.85 -461.128 -1066 197 188 199
-464.055 -462.023 -1068 196 187 199
-463.254 -462.919 -1070 199 190 202
-462.014 -463.381 -1071 201 192 204
-460.772 -463.844 -1072 201 192 204
-459.098 -463.875 -1072 200 193 204
-457.85 -464.338 -1073 200 193 204
-456.174 -464.368 -1073 202 197 212
-454.497 -464.398 -1073 206 201 216
-452.398 -463.995 -1072 206 201 216
-451.143 -464.458 -1073 202 197 212
-449.466 -464.488 -1073 199 194 209
-447.788 -464.518 -1073 199 194 209
-446.11 -464.548 -1073 199 194 209
-444.846 -465.011 -1074 198 193 208
-443.579 -465.474 -1075 197 193 208
-442.308 -465.937 -1076 197 193 208
-441.034 -466.4 -1077 200 195 210
-439.348 -466.43 -1077 201 196 211
-438.069 -466.893 -1078 201 196 211
-436.381 -466.923 -1078 200 195 210
-434.29 -466.519 -1077 201 196 211
-432.604 -466.549 -1077 202 197 212
-430.517 -466.145 -1076 202 197 211
-428.831 -466.175 -1076 199 194 208
-427.145 -466.204 -1076 197 189 205
-425.064 -465.8 -1075 196 188 204
-422.591 -464.963 -1073 195 187 203
-420.909 -464.993 -1073 194 186 202
-418.837 -464.588 -1072 199 191 207
-417.156 -464.617 -1072 204 196 212
-415.475 -464.647 -1072 203 198 213
-413.793 -464.676 -1072 208 203 218
-412.496 -465.138 -1073 212 204 222
-411.578 -466.034 -1075 209 201 219
-409.892 -466.063 -1075 208 199 217
-408.584 -466.526 -1076 207 198 216
-406.895 -466.555 -1076 202 194 212
-405.206 -466.584 -1076 197 189 207
-403.516 -466.612 -1076 198 190 208
-402.2 -467.075 -1077 199 191 209
-400.508 -467.104 -1077 201 192 210
-399.557 -468 -1079 202 193 211
-398.231 -468.462 -1080 199 195 212
-397.268 -469.358 -1082 200 196 213
-396.664 -470.688 -1085 199 196 217
-394.959 -470.717 -1085 197 194 215
-393.978 -471.613 -1087 198 196 217
-392.629 -472.076 -1088 198 196 217
-391.278 -472.538 -1089 196 194 215
-389.565 -472.567 -1089 194 192 213
-388.208 -473.029 -1090 196 194 215
-386.848 -473.492 -1091 198 196 217
-385.131 -473.52 -1091 198 196 217
-383.414 -473.548 -1091 196 194 215
-382.046 -474.011 -1092 194 192 213
-380.676 -474.473 -1093 194 192 213
-379.301 -474.935 -1094 193 191 212
-377.578 -474.964 -1094 195 193 214
-375.855 -474.992 -1094 198 196 217
-374.816 -475.888 -1096 200 198 219
-373.43 -476.35 -1097 200 198 219
-372.04 -476.813 -1098 199 197 218
-370.984 -477.709 -1100 199 197 218
-369.586 -478.171 -1101 198 196 217
-368.184 -478.633 -1102 198 196 218
-367.112 -479.53 -1104 197 195 217
-365.702 -479.992 -1105 196 194 216
-364.288 -480.454 -1106 195 193 215
-362.544 -480.482 -1106 194 192 214
-361.777 -481.813 -1109 195 193 215
-361.002 -483.144 -1112 195 193 214
-360.216 -484.475 -1115 194 192 213
-359.099 -485.372 -1117 194 192 213
-358.295 -486.703 -1120 193 191 212
-357.482 -488.035 -1123 192 190 211
-356.659 -489.366 -1126 193 191 212
-355.826 -490.698 -1129 192 190 210
-354.67 -491.594 -1131 189 187 207
-353.507 -492.491 -1133 187 185 206
-352.648 -493.823 -1136 185 183 204
-352.397 -496.024 -1141 183 181 203
-556.518 -480.54 -1110 202 186 183
-549.799 -476.244 -1100 198 182 178
-544.605 -473.246 -1093 195 179 175
-541.42 -471.979 -1090 191 175 174
-539.234 -471.578 -1089 193 177 176
-537.051 -471.177 -1088 195 179 178
-534.871 -470.776 -1087 189 173 172
-532.203 -469.942 -1085 186 168 170
-530.031 -469.541 -1084 189 171 173
-527.861 -469.139 -1083 192 174 176
-525.693 -468.738 -1082 194 176 178
-524.013 -468.77 -1082 196 178 180
-521.85 -468.368 -1081 198 180 182
-520.171 -468.4 -1081 200 179 182
-518.012 -467.999 -1080 201 180 183
-515.378 -467.163 -1078 202 181 184
-512.749 -466.328 -1076 202 181 184
-510.602 -465.926 -1075 202 182 182
-508.457 -465.524 -1074 205 185 185
-505.844 -464.688 -1072 205 187 189
-503.707 -464.286 -1071 204 186 188
-501.572 -463.884 -1070 202 184 186
-499.908 -463.915 -1070 202 184 186
-497.777 -463.512 -1069 205 188 190
-495.65 -463.11 -1068 209 192 194
-493.988 -463.141 -1068 209 194 200
-492.325 -463.172 -1068 205 190 196
-490.203 -462.769 -1067 205 188 192
-488.542 -462.8 -1067 206 189 193
-486.424 -462.397 -1066 205 190 196
-484.764 -462.428 -1066 206 191 197
-483.103 -462.458 -1066 203 192 199
-480.991 -462.055 -1065 202 191 198
-479.331 -462.086 -1065 207 196 206
-477.671 -462.116 -1065 208 197 207
-476.458 -462.581 -1066 208 197 206
-474.351 -462.177 -1065 208 197 206
-472.69 -462.208 -1065 210 199 209
-470.587 -461.804 -1064 210 199 209
-469.368 -462.269 -1065 206 197 209
-467.707 -462.299 -1065 204 195 207
-466.483 -462.763 -1066 204 195 207
-465.255 -463.228 -1067 202 193 205
-464.025 -463.692 -1068 200 191 203
-463.223 -464.591 -1070 200 191 203
-461.984 -465.056 -1071 203 194 206
-460.742 -465.52 -1072 205 196 208
-459.067 -465.551 -1072 205 198 209
-457.82 -466.015 -1073 207 200 211
-456.143 -466.045 -1073 207 202 217
-454.043 -465.641 -1072 208 203 218
-452.79 -466.106 -1073 206 201 216
-451.113 -466.136 -1073 202 197 212
-449.435 -466.166 -1073 201 196 211
-447.341 -465.762 -1072 201 196 211
-446.08 -466.226 -1073 200 195 210
-444.816 -466.691 -1074 200 195 210
-443.549 -467.155 -1075 197 193 208
-442.278 -467.62 -1076 197 193 208
-441.004 -468.084 -1077 200 195 210
-439.318 -468.114 -1077 203 198 213
-438.445 -469.013 -1079 204 199 214
-436.756 -469.043 -1079 203 198 213
-434.664 -468.638 -1078 203 198 213
-432.574 -468.233 -1077 204 199 214
-430.887 -468.263 -1077 203 198 211
-428.802 -467.858 -1076 201 196 209
-427.116 -467.887 -1076 198 190 206
-425.034 -467.482 -1075 194 186 202
-422.956 -467.076 -1074 192 184 200
-420.88 -466.671 -1073 191 183 199
-418.417 -465.83 -1071 195 187 203
-416.738 -465.859 -1071 199 191 207
-415.058 -465.889 -1071 202 197 212
-413.764 -466.353 -1072 208 203 218
-412.467 -466.817 -1073 211 203 221
-411.166 -467.281 -1074 208 200 218
-409.863 -467.745 -1075 206 198 216
-408.555 -468.209 -1076 205 197 215
-406.866 -468.238 -1076 202 194 212
-405.177 -468.267 -1076 197 189 207
-403.488 -468.296 -1076 197 189 207
-402.171 -468.76 -1077 198 190 208
-400.48 -468.788 -1077 201 192 210
-399.529 -469.688 -1079 202 193 211
-398.571 -470.587 -1081 198 194 211
-397.606 -471.487 -1083 199 195 212
-396.27 -471.951 -1084 197 195 216
-394.93 -472.415 -1085 194 192 213
-393.949 -473.314 -1087 195 193 214
-392.601 -473.778 -1088 197 195 216
-391.249 -474.242 -1089 197 195 216
-389.894 -474.706 -1090 196 194 215
-388.18 -474.735 -1090 198 196 217
-387.174 -475.635 -1092 198 196 217
-385.455 -475.663 -1092 196 194 215
-383.737 -475.691 -1092 194 192 213
-382.018 -475.72 -1092 196 194 215
-380.647 -476.184 -1093 195 193 214
-379.273 -476.647 -1094 193 191 212
-377.205 -476.24 -1093 194 192 213
-376.171 -477.14 -1095 197 195 216
-375.13 -478.039 -1097 200 198 219
-373.742 -478.503 -1098 200 198 219
-372.012 -478.531 -1098 199 197 218
-371.293 -479.867 -1101 199 197 218
-369.894 -480.33 -1102 198 196 217
-368.49 -480.794 -1103 197 195 217
-367.084 -481.258 -1104 197 195 217
-365.674 -481.722 -1105 196 194 216
-364.261 -482.186 -1106 195 193 215
-362.516 -482.213 -1106 194 192 214
-361.75 -483.549 -1109 194 192 214
-360.974 -484.885 -1112 194 192 213
-360.188 -486.221 -1115 194 192 213
-359.071 -487.12 -1117 194 192 213
-358.588 -488.893 -1121 193 191 212
-357.136 -489.357 -1122 192 190 211
-356.315 -490.693 -1125 192 190 211
-355.483 -492.029 -1128 191 189 210
-354.642 -493.365 -1131 188 186 207
-353.48 -494.265 -1133 188 186 207
-352.931 -496.038 -1137 187 185 206
-555.482 -481.404 -1108 197 181 178
-549.266 -477.526 -1099 192 176 172
-545.071 -475.386 -1094 194 178 174
-541.388 -473.68 -1090 195 179 178
-539.202 -473.278 -1089 196 180 179
-537.019 -472.876 -1088 196 179 180
-534.347 -472.038 -1086 191 174 175
-531.681 -471.201 -1084 191 174 176
-529.51 -470.798 -1083 196 179 181
-527.341 -470.396 -1082 197 179 181
-525.661 -470.428 -1082 201 183 185
-523.981 -470.459 -1082 204 186 188
-521.818 -470.056 -1081 205 187 189
-520.139 -470.088 -1081 205 184 187
-517.98 -469.685 -1080 203 182 185
-515.346 -468.847 -1078 202 181 184
-513.194 -468.443 -1077 202 181 184
-510.571 -467.605 -1075 201 181 181
-508.426 -467.202 -1074 203 183 183
-506.284 -466.798 -1073 202 184 186
-504.146 -466.394 -1072 202 184 186
-502.01 -465.99 -1071 203 185 187
-500.344 -466.021 -1071 204 186 188
-497.746 -465.182 -1069 205 188 190
-496.083 -465.213 -1069 205 188 190
-493.957 -464.809 -1068 206 191 197
-492.295 -464.84 -1068 205 190 196
-490.632 -464.871 -1068 207 191 196
-488.969 -464.902 -1068 208 192 197
-487.306 -464.933 -1068 207 194 199
-485.188 -464.528 -1067 209 196 201
-483.073 -464.124 -1066 208 197 204
-481.412 -464.155 -1066 207 196 203
-479.301 -463.75 -1065 208 197 207
-477.641 -463.78 -1065 209 198 208
-475.981 -463.811 -1065 209 198 207
-474.32 -463.841 -1065 210 199 208
-472.66 -463.872 -1065 211 200 210
-470.999 -463.902 -1065 209 198 208
-469.779 -464.369 -1066 206 197 209
-468.116 -464.399 -1066 206 197 209
-466.89 -464.865 -1067 207 198 210
-465.661 -465.331 -1068 206 197 209
-464.429 -465.797 -1069 204 195 208
-463.193 -466.263 -1070 203 194 207
-461.954 -466.73 -1071 206 197 209
-460.281 -466.76 -1071 209 200 212
-458.609 -466.79 -1071 209 203 215
-456.936 -466.821 -1071 211 205 217
-455.263 -466.851 -1071 209 204 219
-454.013 -467.317 -1072 209 204 219
-452.338 -467.347 -1072 207 202 217
-450.662 -467.377 -1072 204 199 214
-449.405 -467.843 -1073 203 198 213
-447.728 -467.873 -1073 202 197 212
-446.05 -467.903 -1073 199 194 209
-444.786 -468.369 -1074 199 194 209
-443.931 -469.272 -1076 197 193 208
-442.659 -469.738 -1077 197 193 208
-440.974 -469.768 -1077 200 195 210
-439.288 -469.798 -1077 203 198 213
-438.415 -470.7 -1079 204 199 214
-436.322 -470.294 -1078 205 200 215
-434.634 -470.324 -1078 204 199 214
-432.544 -469.917 -1077 203 198 213
-430.857 -469.947 -1077 203 198 211
-428.772 -469.54 -1076 203 198 211
-427.086 -469.57 -1076 203 195 211
-425.005 -469.163 -1075 198 190 206
-422.926 -468.756 -1074 195 187 203
-420.851 -468.349 -1073 194 186 202
-418.778 -467.942 -1072 195 187 203
-416.708 -467.534 -1071 199 191 207
-415.029 -467.563 -1071 202 197 212
-413.735 -468.029 -1072 205 200 215
-412.054 -468.058 -1072 208 200 218
-411.137 -468.961 -1074 206 198 216
-410.215 -469.863 -1076 206 198 216
-408.906 -470.329 -1077 205 197 215
-407.215 -470.358 -1077 201 193 211
-405.525 -470.387 -1077 198 190 208
-403.834 -470.416 -1077 197 189 207
-402.516 -470.881 -1078 197 189 207
-400.451 -470.473 -1077 199 190 208
-399.5 -471.376 -1079 199 190 208
-398.542 -472.278 -1081 195 191 209
-397.21 -472.744 -1082 195 191 209
-395.876 -473.209 -1083 193 191 212
-394.537 -473.675 -1084 193 191 212
-393.558 -474.578 -1086 193 191 212
-392.211 -475.043 -1087 196 194 215
-390.861 -475.509 -1088 198 196 217
-389.866 -476.412 -1090 198 196 217
-388.507 -476.877 -1091 198 196 217
-387.145 -477.343 -1092 197 195 216
-385.427 -477.371 -1092 196 194 215
-383.709 -477.4 -1092 196 194 215
-381.99 -477.428 -1092 200 198 219
-380.619 -477.894 -1093 200 198 219
-378.898 -477.922 -1093 198 196 217
-377.177 -477.95 -1093 196 194 215
-376.143 -478.853 -1095 195 193 214
-374.76 -479.318 -1096 198 196 217
-373.714 -480.221 -1098 200 198 219
-371.984 -480.249 -1098 200 198 219
-370.928 -481.152 -1100 203 201 222
-369.866 -482.055 -1102 200 198 219
-368.462 -482.52 -1103 198 196 218
-367.056 -482.986 -1104 197 195 217
-365.977 -483.889 -1106 197 195 217
-364.891 -484.791 -1108 197 195 217
-363.144 -484.819 -1108 195 193 215
-361.722 -485.285 -1109 193 191 213
-360.946 -486.625 -1112 195 193 214
-359.837 -487.528 -1114 194 192 213
-358.722 -488.431 -1116 195 193 214
-358.24 -490.209 -1120 194 192 213
-357.108 -491.112 -1122 191 189 210
-356.287 -492.453 -1125 191 189 210
-355.456 -493.794 -1128 190 188 209
-354.615 -495.135 -1131 188 186 207
-353.764 -496.476 -1134 188 186 207
-353.214 -498.255 -1138 187 185 206
-554.446 -482.261 -1106 197 181 178
-549.234 -479.241 -1099 195 179 175
-545.039 -477.094 -1094 197 181 177
-541.356 -475.382 -1090 196 180 179
-539.17 -474.978 -1089 194 178 177
-536.493 -474.138 -1087 194 177 179
-533.823 -473.298 -1085 193 176 178
-531.159 -472.457 -1083 194 177 179
-528.989 -472.053 -1082 199 182 184
-526.822 -471.648 -1081 200 182 184
-525.63 -472.117 -1082 200 182 184
-523.95 -472.149 -1082 201 183 185
-521.787 -471.744 -1081 202 184 186
-520.589 -472.212 -1082 205 184 187
-517.949 -471.371 -1080 206 185 188
-515.793 -470.967 -1079 205 184 187
-513.163 -470.125 -1077 202 181 184
-510.539 -469.284 -1075 202 182 182
-508.395 -468.879 -1074 203 183 183
-506.253 -468.473 -1073 202 184 186
-504.114 -468.068 -1072 203 185 187
-501.978 -467.663 -1071 205 187 189
-500.313 -467.694 -1071 206 188 190
-498.181 -467.289 -1070 204 187 189
-496.052 -466.883 -1069 203 186 188
-493.926 -466.477 -1068 204 189 195
-492.264 -466.508 -1068 206 191 197
-490.142 -466.102 -1067 208 193 199
-488.48 -466.133 -1067 208 193 199
-487.275 -466.601 -1068 206 194 199
-485.157 -466.195 -1067 207 195 200
-483.042 -465.789 -1066 206 195 202
-481.381 -465.82 -1066 204 193 200
-479.72 -465.85 -1066 208 197 207
-478.059 -465.881 -1066 207 196 206
-476.397 -465.912 -1066 208 197 206
-474.29 -465.505 -1065 209 198 207
-473.073 -465.973 -1066 209 198 208
-471.411 -466.004 -1066 207 196 206
-469.748 -466.034 -1066 204 195 207
-468.524 -466.502 -1067 205 196 208
-467.297 -466.969 -1068 206 197 209
-465.631 -467 -1068 207 198 210
-464.398 -467.468 -1069 206 197 211
-463.163 -467.935 -1070 205 196 210
-461.923 -468.403 -1071 206 199 210
-460.251 -468.434 -1071 208 201 212
-458.579 -468.464 -1071 207 202 215
-456.906 -468.494 -1071 207 202 215
-455.233 -468.524 -1071 205 200 215
-453.983 -468.992 -1072 203 198 213
-452.308 -469.023 -1072 203 198 213
-450.632 -469.053 -1072 204 199 214
-449.794 -469.958 -1074 205 200 215
-447.698 -469.551 -1073 203 198 213
-446.436 -470.018 -1074 200 195 210
-445.17 -470.486 -1075 198 193 208
-443.901 -470.954 -1076 194 190 205
-443.04 -471.859 -1078 195 191 206
-440.944 -471.451 -1077 198 193 208
-439.258 -471.481 -1077 201 196 211
-437.979 -471.949 -1078 204 199 214
-436.292 -471.979 -1078 204 199 214
-434.201 -471.571 -1077 203 198 213
-432.514 -471.601 -1077 201 196 211
-430.828 -471.631 -1077 201 196 209
-428.742 -471.222 -1076 202 197 210
-427.057 -471.252 -1076 205 197 213
-425.371 -471.282 -1076 203 195 211
-423.291 -470.873 -1075 202 194 210
-421.214 -470.465 -1074 203 195 211
-419.14 -470.056 -1073 202 194 210
-417.068 -469.647 -1072 203 195 211
-415.387 -469.676 -1072 199 194 209
-413.706 -469.705 -1072 200 195 210
-412.409 -470.173 -1073 203 195 213
-411.491 -471.078 -1075 205 197 215
-410.567 -471.984 -1077 206 198 216
-409.256 -472.451 -1078 205 197 215
-407.564 -472.48 -1078 202 194 212
-405.872 -472.509 -1078 201 193 211
-403.805 -472.1 -1077 202 194 212
-402.487 -472.567 -1078 202 194 212
-400.794 -472.596 -1078 202 193 211
-399.471 -473.063 -1079 201 192 210
-398.144 -473.53 -1080 196 192 211
-397.182 -474.436 -1082 196 192 211
-395.847 -474.903 -1083 195 193 214
-394.509 -475.371 -1084 195 193 214
-393.529 -476.276 -1086 196 194 215
-392.183 -476.744 -1087 198 196 217
-390.833 -477.211 -1088 198 196 217
-389.837 -478.117 -1090 197 195 216
-388.835 -479.023 -1092 196 194 215
-387.471 -479.49 -1093 195 193 214
-385.752 -479.518 -1093 196 194 215
-383.68 -479.108 -1092 198 196 217
-381.961 -479.137 -1092 202 200 221
-380.591 -479.604 -1093 203 201 222
-378.87 -479.632 -1093 201 199 220
-377.149 -479.66 -1093 198 196 217
-376.115 -480.566 -1095 196 194 215
-375.074 -481.472 -1097 198 196 217
-373.686 -481.939 -1098 200 198 219
-371.956 -481.967 -1098 201 199 220
-370.9 -482.873 -1100 204 202 223
-369.502 -483.34 -1101 202 200 221
-368.435 -484.246 -1103 199 197 219
-366.696 -484.274 -1103 197 195 217
-365.949 -485.619 -1106 197 195 217
-364.534 -486.086 -1107 197 195 217
-362.788 -486.114 -1107 197 195 217
-361.368 -486.581 -1108 196 194 216
-360.594 -487.926 -1111 195 193 214
-359.81 -489.271 -1114 194 192 213
-358.694 -490.177 -1116 195 193 214
-358.212 -491.962 -1120 194 192 213
-357.399 -493.308 -1123 192 190 211
-356.576 -494.653 -1126 192 190 211
-355.743 -495.999 -1129 191 189 210
-354.901 -497.345 -1132 188 186 207
-354.048 -498.69 -1135 187 185 206
-353.497 -500.476 -1139 188 186 207
-563.67 -490.517 -1121 197 181 178
-553.912 -483.549 -1105 196 180 177
-548.701 -480.519 -1098 196 181 177
-544.508 -478.363 -1093 195 180 176
-540.827 -476.645 -1089 194 178 177
-538.147 -475.802 -1087 194 178 177
-535.968 -475.396 -1086 197 180 182
-533.299 -474.553 -1084 198 181 183
-531.126 -474.147 -1083 199 182 184
-528.957 -473.742 -1082 200 183 185
-527.277 -473.774 -1082 198 180 182
-525.112 -473.368 -1081 198 180 182
-523.433 -473.4 -1081 196 179 181
-521.755 -473.432 -1081 197 180 182
-520.557 -473.901 -1082 203 184 186
-518.396 -473.495 -1081 207 188 190
-515.761 -472.651 -1079 208 187 190
-513.131 -471.807 -1077 205 184 187
-510.508 -470.962 -1075 202 183 183
-508.363 -470.555 -1074 204 185 185
-506.222 -470.149 -1073 205 188 190
-504.083 -469.742 -1072 205 188 190
-501.947 -469.335 -1071 204 187 189
-500.281 -469.366 -1071 202 185 187
-498.15 -468.959 -1070 201 184 186
-496.021 -468.552 -1069 201 184 186
-493.895 -468.145 -1068 200 185 191
-491.772 -467.738 -1067 202 187 193
-490.111 -467.769 -1067 204 189 195
-488.449 -467.8 -1067 205 190 196
-487.244 -468.269 -1068 206 194 200
-485.581 -468.3 -1068 207 195 201
-483.464 -467.892 -1067 207 196 204
-481.802 -467.923 -1067 207 196 204
-479.689 -467.516 -1066 207 196 206
-478.028 -467.546 -1066 207 196 206
-476.366 -467.577 -1066 207 196 205
-474.705 -467.608 -1066 208 197 206
-473.486 -468.077 -1067 206 196 207
-471.822 -468.108 -1067 205 195 206
-470.599 -468.577 -1068 203 194 207
-469.372 -469.046 -1069 203 194 207
-467.704 -469.077 -1069 205 196 208
-466.908 -469.985 -1071 206 197 209
-465.237 -470.016 -1071 206 197 211
-463.998 -470.485 -1072 205 196 210
-462.324 -470.515 -1072 204 197 208
-460.221 -470.107 -1071 205 198 209
-458.548 -470.137 -1071 203 198 211
-457.302 -470.607 -1072 203 198 211
-455.627 -470.637 -1072 199 194 209
-453.953 -470.667 -1072 197 192 207
-452.278 -470.698 -1072 198 193 208
-451.022 -471.167 -1073 200 195 210
-449.764 -471.636 -1074 203 198 213
-447.668 -471.227 -1073 203 198 213
-445.99 -471.257 -1073 201 196 211
-444.726 -471.727 -1074 199 194 209
-443.871 -472.635 -1076 195 191 206
-443.01 -473.544 -1078 195 191 206
-441.323 -473.574 -1078 198 193 208
-439.636 -473.604 -1078 202 197 212
-438.356 -474.073 -1079 204 199 214
-436.262 -473.664 -1078 203 198 213
-434.574 -473.694 -1078 202 197 212
-432.886 -473.724 -1078 202 197 212
-430.798 -473.314 -1077 200 194 207
-429.111 -473.344 -1077 201 195 208
-427.424 -473.374 -1077 207 199 215
-425.341 -472.964 -1076 208 200 216
-423.261 -472.554 -1075 211 203 219
-421.184 -472.144 -1074 212 204 220
-419.501 -472.173 -1074 208 200 216
-417.428 -471.763 -1073 206 198 214
-415.746 -471.792 -1073 199 192 208
-414.063 -471.821 -1073 198 191 207
-412.38 -471.85 -1073 200 192 210
-411.079 -472.319 -1074 203 195 213
-410.157 -473.228 -1076 204 196 214
-408.848 -473.697 -1077 203 195 213
-407.535 -474.166 -1078 203 195 213
-405.843 -474.195 -1078 203 195 213
-404.526 -474.664 -1079 205 197 215
-403.205 -475.133 -1080 205 197 215
-401.137 -474.722 -1079 204 195 214
-399.812 -475.191 -1080 202 193 212
-398.484 -475.659 -1081 198 194 213
-397.153 -476.128 -1082 200 196 215
-395.818 -476.597 -1083 198 196 217
-394.844 -477.506 -1085 198 196 217
-393.501 -477.975 -1086 196 194 215
-392.154 -478.444 -1087 198 196 217
-391.163 -479.353 -1089 200 198 219
-389.808 -479.821 -1090 199 197 218
-388.806 -480.73 -1092 197 195 216
-387.443 -481.199 -1093 197 195 216
-385.723 -481.228 -1093 196 194 215
-384.003 -481.256 -1093 195 193 214
-382.283 -481.285 -1093 199 197 218
-380.911 -481.754 -1094 199 197 218
-378.842 -481.342 -1093 198 196 217
-377.811 -482.251 -1095 197 195 216
-376.43 -482.719 -1096 197 195 216
-375.046 -483.188 -1097 198 196 217
-373.658 -483.657 -1098 199 197 218
-371.928 -483.685 -1098 200 198 219
-370.872 -484.594 -1100 198 196 216
-369.474 -485.062 -1101 198 196 216
-367.739 -485.09 -1101 199 197 218
-366.668 -485.999 -1103 197 195 216
-365.26 -486.468 -1104 196 194 215
-364.177 -487.377 -1106 196 194 215
-362.433 -487.405 -1106 196 194 215
-361.34 -488.314 -1108 195 193 214
-360.566 -489.664 -1111 196 194 215
-359.459 -490.573 -1113 195 193 214
-358.667 -491.923 -1116 194 192 213
-357.865 -493.273 -1119 194 192 213
-357.371 -495.065 -1123 193 191 212
-356.548 -496.415 -1126 194 192 213
-355.4 -497.324 -1128 192 190 211
-355.186 -499.557 -1133 188 186 207
-353.709 -500.025 -1134 187 185 206
