ply
format ascii 1.0
comment Created by Open3D
element vertex 1404
property double x
property double y
property double z
property uchar red
property uchar green
property uchar blue
end_header
-531.484 -139.868 -985 102 65 52
-535.88 -141.442 -996 102 59 43
-539.169 -142.733 -1005 102 59 43
-541.895 -143.882 -1013 102 58 42
-543.529 -144.747 -1019 101 57 41
-543.549 -145.187 -1022 100 56 38
-542.499 -145.342 -1023 97 53 35
-540.388 -145.213 -1022 97 50 33
-538.279 -145.084 -1021 97 50 33
-536.174 -144.955 -1020 96 49 32
-534.071 -144.826 -1019 94 47 30
-532.494 -144.839 -1019 93 46 29
-530.395 -144.709 -1018 91 44 27
-528.299 -144.58 -1017 85 42 26
-526.724 -144.593 -1017 84 41 25
-524.633 -144.464 -1016 80 37 23
-522.544 -144.335 -1015 81 38 24
-520.971 -144.348 -1015 74 37 22
-518.886 -144.219 -1014 71 34 19
-516.804 -144.09 -1013 71 32 23
-514.216 -143.818 -1011 72 33 24
-512.141 -143.689 -1010 69 35 27
-510.069 -143.559 -1009 67 33 25
-508.504 -143.572 -1009 65 30 22
-506.436 -143.443 -1008 66 31 23
-504.371 -143.314 -1007 67 32 22
-502.808 -143.327 -1007 70 35 25
-501.742 -143.482 -1008 71 36 26
-500.177 -143.495 -1008 71 36 26
-498.612 -143.508 -1008 68 33 23
-497.539 -143.663 -1009 66 31 21
-496.463 -143.819 -1010 73 35 30
-495.384 -143.974 -1011 75 37 32
-494.301 -144.13 -1012 75 37 32
-492.241 -144 -1011 75 37 32
-490.183 -143.871 -1010 77 40 32
-488.129 -143.741 -1009 77 40 32
-486.56 -143.754 -1009 77 38 31
-484.029 -143.482 -1007 77 38 31
-481.504 -143.21 -1005 78 41 33
-479.462 -143.081 -1004 83 46 38
-477.424 -142.951 -1003 82 44 39
-474.439 -142.537 -1000 80 42 37
-470.044 -141.694 -994 80 43 35
-464.726 -140.566 -986 87 50 42
-457.553 -138.868 -974 97 63 63
-449.949 -137.027 -961 123 89 89
-441.451 -134.901 -946 155 127 127
-434.861 -133.344 -935 194 166 166
-430.159 -132.358 -928 212 201 208
-427.788 -132.084 -926 224 213 220
-427.264 -132.382 -928 229 221 225
-428.111 -133.107 -933 233 225 229
-428.942 -133.832 -938 233 222 229
-429.757 -134.558 -943 233 222 229
-429.648 -134.998 -946 229 221 229
-429.529 -135.438 -949 225 217 225
-428.95 -135.736 -951 224 213 222
-427.914 -135.891 -952 221 210 219
-426.427 -135.903 -952 218 211 222
-425.386 -136.058 -953 219 212 223
-424.342 -136.214 -954 211 210 224
-423.294 -136.369 -955 213 212 226
-421.801 -136.381 -955 215 214 228
-420.748 -136.536 -956 219 218 232
-419.692 -136.691 -957 226 225 239
-419.506 -137.132 -960 229 228 242
-418.44 -137.287 -961 214 213 227
-417.37 -137.442 -962 197 196 210
-416.729 -137.741 -964 187 185 202
-415.22 -137.753 -964 185 183 200
-413.711 -137.765 -964 195 194 208
-412.202 -137.778 -964 206 205 219
-410.692 -137.79 -964 209 205 222
-409.182 -137.802 -964 201 197 214
-407.671 -137.815 -964 197 193 210
-406.16 -137.827 -964 197 193 210
-404.649 -137.839 -964 198 194 211
-403.556 -137.995 -965 201 197 214
-402.043 -138.007 -965 209 205 222
-400.115 -137.877 -964 213 209 226
-398.602 -137.889 -964 215 211 228
-396.678 -137.758 -963 217 213 230
-395.166 -137.77 -963 223 219 236
-394.064 -137.926 -964 229 225 242
-392.957 -138.081 -965 226 227 243
-393.065 -138.666 -969 226 227 243
-393.563 -139.394 -974 222 223 239
-394.85 -140.408 -981 220 221 237
-397.318 -141.852 -991 219 221 237
-399.754 -143.296 -1001 217 219 235
-400.965 -144.311 -1008 213 214 230
-402.154 -145.326 -1015 212 213 229
-402.926 -146.198 -1021 212 214 230
-402.892 -146.784 -1025 212 214 230
-509.182 -131.996 -920 183 164 159
-507.763 -132.008 -920 170 151 146
-506.894 -132.163 -921 160 135 127
-507.668 -132.749 -925 153 128 120
-509.524 -133.622 -931 153 123 116
-512.452 -134.782 -939 144 114 107
-515.9 -136.086 -948 132 97 89
-521.491 -137.965 -961 122 87 79
-525.958 -139.556 -972 112 75 62
-530.931 -141.292 -984 104 67 54
-535.329 -142.884 -995 104 61 46
-538.62 -144.19 -1004 102 59 44
-540.812 -145.208 -1011 102 58 42
-542.45 -146.083 -1017 102 58 42
-543.004 -146.671 -1021 101 57 39
-541.956 -146.827 -1022 98 54 36
-539.846 -146.697 -1021 97 52 34
-537.739 -146.566 -1020 96 51 33
-536.161 -146.58 -1020 95 48 32
-534.058 -146.449 -1019 94 47 31
-531.958 -146.319 -1018 92 45 28
-529.861 -146.188 -1017 89 42 25
-528.806 -146.345 -1018 83 40 24
-527.229 -146.358 -1018 82 39 23
-525.136 -146.227 -1017 76 34 20
-523.045 -146.097 -1016 76 34 20
-520.958 -145.966 -1015 72 34 20
-519.385 -145.979 -1015 71 33 19
-516.791 -145.705 -1013 71 33 23
-514.712 -145.574 -1012 74 36 26
-512.635 -145.443 -1011 71 37 29
-510.562 -145.313 -1010 70 36 28
-508.995 -145.326 -1010 69 34 26
-506.925 -145.195 -1009 69 34 26
-504.859 -145.064 -1008 71 35 25
-503.793 -145.221 -1009 73 37 27
-502.725 -145.378 -1010 74 38 28
-501.156 -145.391 -1010 74 38 28
-499.588 -145.404 -1010 71 36 26
-498.512 -145.562 -1011 69 34 24
-497.433 -145.719 -1012 76 37 31
-495.86 -145.732 -1012 78 39 33
-494.288 -145.745 -1012 79 40 35
-492.228 -145.614 -1011 78 39 34
-490.17 -145.483 -1010 79 40 33
-488.116 -145.352 -1009 79 40 33
-487.029 -145.51 -1010 78 38 30
-484.496 -145.235 -1008 78 38 30
-482.449 -145.104 -1007 77 38 32
-480.404 -144.973 -1006 81 42 36
-477.411 -144.553 -1003 81 42 36
-473.951 -143.99 -999 81 42 36
-469.559 -143.138 -993 80 42 37
-462.828 -141.565 -982 91 53 48
-455.191 -139.704 -969 110 79 81
-447.127 -137.698 -955 150 119 121
-438.639 -135.547 -940 184 162 165
-432.988 -134.262 -931 215 193 196
-429.683 -133.697 -927 225 217 222
-428.7 -133.853 -928 228 220 225
-428.173 -134.154 -930 231 223 227
-429.476 -135.031 -936 232 224 228
-430.302 -135.765 -941 231 221 229
-430.656 -136.354 -945 233 223 231
-430.998 -136.944 -949 230 220 229
-430.422 -137.245 -951 226 216 225
-429.839 -137.546 -953 223 212 221
-428.801 -137.703 -954 218 207 216
-427.311 -137.715 -954 215 209 220
-426.267 -137.872 -955 218 212 223
-425.219 -138.029 -956 209 208 221
-423.725 -138.041 -956 209 208 221
-422.672 -138.198 -957 213 212 226
-422.056 -138.499 -959 221 220 234
-420.557 -138.512 -959 229 228 242
-420.368 -138.958 -962 229 228 242
-419.298 -139.115 -963 207 204 219
-418.225 -139.272 -964 190 187 202
-417.149 -139.429 -965 182 180 197
-415.208 -139.297 -964 187 185 202
-413.699 -139.309 -964 197 196 210
-411.762 -139.177 -963 207 206 220
-410.253 -139.19 -963 209 205 223
-408.745 -139.202 -963 201 197 215
-407.236 -139.215 -963 196 192 209
-405.727 -139.227 -963 193 189 206
-404.217 -139.239 -963 195 191 208
-403.126 -139.396 -964 200 196 213
-401.614 -139.409 -964 200 196 213
-399.687 -139.277 -963 207 203 220
-398.59 -139.434 -964 211 207 224
-396.665 -139.302 -963 215 211 228
-395.154 -139.314 -963 221 218 235
-394.051 -139.471 -964 227 224 241
-393.352 -139.773 -966 228 229 245
-393.052 -140.22 -969 232 233 249
-393.955 -141.1 -975 226 227 243
-394.838 -141.981 -981 220 221 237
-397.306 -143.441 -991 217 219 235
-399.342 -144.757 -1000 216 218 234
-400.953 -145.928 -1008 213 214 230
-402.537 -147.099 -1016 211 212 228
-403.307 -147.981 -1022 211 213 229
-403.272 -148.573 -1026 211 213 229
-521.24 -135.454 -934 215 196 182
-519.243 -135.321 -933 210 193 183
-511.938 -134.185 -925 184 167 161
-509.959 -134.052 -924 170 153 147
-508.533 -134.064 -924 161 138 129
-508.753 -134.511 -927 152 129 120
-509.512 -135.103 -931 153 123 116
-512.44 -136.276 -939 148 118 111
-516.432 -137.74 -949 137 102 94
-520.393 -139.204 -959 124 89 81
-524.864 -140.813 -970 113 76 63
-529.84 -142.568 -982 106 69 56
-534.24 -144.178 -993 106 63 49
-537.534 -145.498 -1002 103 60 46
-540.264 -146.672 -1010 102 58 42
-541.903 -147.557 -1016 103 59 43
-542.459 -148.151 -1020 102 58 40
-541.942 -148.455 -1022 100 56 38
-539.833 -148.323 -1021 97 53 35
-537.726 -148.191 -1020 95 51 33
-536.148 -148.204 -1020 94 47 32
-534.569 -148.218 -1020 92 45 30
-532.468 -148.086 -1019 90 43 26
-530.369 -147.954 -1018 88 41 24
-529.312 -148.112 -1019 83 40 24
-527.216 -147.98 -1018 82 39 23
-525.123 -147.848 -1017 73 32 18
-523.547 -147.862 -1017 72 31 17
-521.458 -147.73 -1016 71 33 20
-519.883 -147.743 -1016 72 34 21
-517.288 -147.465 -1014 72 35 25
-515.207 -147.333 -1013 73 36 26
-513.636 -147.346 -1013 71 37 29
-511.054 -147.069 -1011 71 37 29
-509.486 -147.082 -1011 70 35 27
-507.415 -146.95 -1010 70 35 27
-505.346 -146.818 -1009 73 36 26
-504.279 -146.976 -1010 75 38 28
-503.209 -147.135 -1011 76 39 29
-501.639 -147.148 -1011 75 38 28
-500.564 -147.307 -1012 71 36 26
-498.992 -147.321 -1012 70 35 25
-497.42 -147.334 -1012 75 36 29
-495.847 -147.347 -1012 79 40 33
-494.274 -147.36 -1012 81 42 37
-492.214 -147.228 -1011 80 41 36
-490.157 -147.096 -1010 80 41 34
-488.587 -147.109 -1010 79 40 33
-487.016 -147.122 -1010 80 39 30
-484.964 -146.99 -1009 81 40 31
-482.915 -146.858 -1008 81 42 37
-480.391 -146.579 -1006 81 42 37
-476.922 -146.01 -1002 81 40 33
-472.99 -145.294 -997 82 41 34
-467.181 -143.996 -988 81 43 40
-459.987 -142.26 -976 100 62 59
-452.36 -140.377 -963 129 103 107
-443.369 -138.058 -947 178 152 156
-435.827 -136.175 -934 204 189 195
-432.046 -135.458 -929 225 210 216
-430.134 -135.324 -928 229 222 226
-429.149 -135.482 -929 229 222 226
-429.082 -135.932 -932 230 222 226
-430.381 -136.82 -938 229 221 225
-431.204 -137.561 -943 229 221 229
-432.011 -138.303 -948 231 223 231
-431.44 -138.607 -950 230 219 228
-431.315 -139.058 -953 226 215 224
-430.278 -139.216 -954 223 212 221
-429.238 -139.375 -955 216 205 214
-428.194 -139.533 -956 213 208 219
-426.7 -139.546 -956 216 211 222
-425.651 -139.704 -957 208 207 219
-424.599 -139.863 -958 207 206 218
-423.543 -140.021 -959 214 213 227
-422.044 -140.034 -959 226 225 239
-421.421 -140.339 -961 233 232 246
-420.792 -140.643 -963 226 225 239
-419.286 -140.656 -963 202 198 213
-418.213 -140.815 -964 187 183 198
-417.136 -140.973 -965 181 179 196
-415.195 -140.84 -964 191 189 206
-413.686 -140.853 -964 202 201 215
-411.749 -140.719 -963 210 209 223
-410.241 -140.732 -963 211 207 226
-408.732 -140.744 -963 203 199 218
-406.801 -140.611 -962 197 193 210
-405.714 -140.77 -963 193 189 206
-404.205 -140.782 -963 193 189 206
-403.113 -140.941 -964 197 193 210
-401.601 -140.954 -964 198 194 211
-400.09 -140.966 -964 205 201 218
-398.577 -140.979 -964 210 206 223
-397.065 -140.991 -964 215 211 228
-395.962 -141.15 -965 220 218 235
-394.448 -141.163 -965 226 224 241
-393.747 -141.468 -967 227 228 244
-393.445 -141.919 -970 232 233 249
-393.538 -142.517 -974 226 227 243
-395.228 -143.701 -982 220 221 237
-397.293 -145.03 -991 215 217 233
-399.329 -146.361 -1000 215 217 233
-401.337 -147.691 -1009 212 213 229
-402.524 -148.729 -1016 210 211 227
-402.9 -149.474 -1021 210 212 228
-403.259 -150.219 -1026 212 214 230
-539.644 -141.777 -967 218 198 184
-530.362 -139.737 -953 214 195 183
-522.787 -138.137 -942 201 182 170
-515.246 -136.536 -931 185 169 163
-512.154 -136.108 -928 172 156 150
-510.172 -135.973 -927 165 143 135
-509.29 -136.132 -928 156 134 126
-509.5 -136.585 -931 158 128 122
-511.882 -137.624 -938 156 126 120
-515.331 -138.957 -947 146 111 103
-519.295 -140.437 -957 129 94 86
-523.769 -142.063 -968 117 79 65
-528.748 -143.837 -980 111 73 59
-532.075 -145.171 -989 109 66 51
-535.375 -146.506 -998 104 61 46
-538.112 -147.693 -1006 102 58 42
-539.756 -148.587 -1012 102 58 42
-540.85 -149.335 -1017 100 57 40
-540.338 -149.642 -1019 98 55 38
-539.291 -149.802 -1020 97 52 34
-537.185 -149.669 -1019 95 50 32
-536.134 -149.829 -1020 93 46 30
-534.032 -149.696 -1019 91 44 28
-531.932 -149.562 -1018 89 42 25
-530.356 -149.576 -1018 88 41 24
-529.299 -149.736 -1019 82 40 25
-527.203 -149.603 -1018 81 39 24
-525.626 -149.616 -1018 72 34 20
-524.048 -149.63 -1018 70 32 18
-521.958 -149.496 -1017 73 33 21
-520.381 -149.509 -1017 75 35 23
-517.785 -149.229 -1015 72 35 25
-515.702 -149.095 -1014 72 35 25
-513.623 -148.962 -1013 71 38 28
-511.546 -148.828 -1012 70 37 27
-510.48 -148.989 -1013 72 37 29
-507.904 -148.708 -1011 72 37 29
-506.335 -148.721 -1011 73 37 27
-505.265 -148.882 -1012 74 38 28
-503.694 -148.895 -1012 75 38 28
-502.618 -149.056 -1013 75 38 28
-501.045 -149.069 -1013 75 39 29
-498.979 -148.935 -1012 76 40 30
-497.406 -148.949 -1012 79 39 32
-495.834 -148.962 -1012 83 43 36
-494.261 -148.976 -1012 83 43 37
-492.201 -148.842 -1011 81 41 35
-490.144 -148.708 -1010 81 42 35
-488.573 -148.721 -1010 84 45 38
-487.002 -148.735 -1010 88 46 37
-484.951 -148.601 -1009 88 46 37
-482.423 -148.32 -1007 83 41 37
-479.9 -148.039 -1005 84 42 38
-476.432 -147.463 -1001 86 44 35
-471.553 -146.445 -994 89 47 38
-464.804 -144.837 -983 95 57 55
-457.146 -142.935 -970 127 89 87
-448.59 -140.737 -955 160 136 143
-439.611 -138.392 -939 204 180 187
-433.948 -137.078 -930 217 207 214
-431.569 -136.795 -928 228 218 225
-430.122 -136.807 -928 228 221 225
-429.599 -137.115 -930 228 221 225
-430.451 -137.864 -935 230 222 227
-431.745 -138.761 -941 230 222 227
-432.563 -139.511 -946 230 221 231
-432.454 -139.966 -949 229 220 230
-432.336 -140.422 -952 228 217 226
-431.755 -140.729 -954 225 214 223
-430.716 -140.889 -955 224 213 222
-429.674 -141.05 -956 217 206 215
-428.629 -141.21 -957 213 208 219
-427.134 -141.223 -957 216 211 222
-426.084 -141.383 -958 209 207 219
-424.586 -141.396 -958 211 209 221
-423.531 -141.556 -959 217 216 230
-422.911 -141.864 -961 229 228 242
-421.847 -142.024 -962 234 231 246
-421.216 -142.332 -964 218 215 230
-419.708 -142.345 -964 194 190 205
-418.634 -142.506 -965 184 180 195
-417.556 -142.666 -966 183 181 198
-415.613 -142.531 -965 194 192 209
-414.103 -142.544 -965 208 207 221
-412.164 -142.409 -964 216 215 229
-410.228 -142.274 -963 216 212 231
-408.72 -142.287 -963 206 202 221
-406.788 -142.152 -962 200 196 213
-405.702 -142.312 -963 196 192 209
-404.192 -142.325 -963 194 190 207
-403.101 -142.485 -964 194 190 207
-401.589 -142.498 -964 203 199 216
-400.077 -142.511 -964 209 205 222
-398.565 -142.523 -964 212 208 225
-397.052 -142.536 -964 216 212 229
-395.95 -142.697 -965 222 220 237
-394.435 -142.709 -965 226 224 241
-393.734 -143.018 -967 225 226 242
-393.433 -143.474 -970 228 229 245
-394.333 -144.375 -976 224 225 241
-395.617 -145.423 -983 219 220 236
-396.879 -146.472 -990 215 217 233
-399.316 -147.964 -1000 214 216 232
-401.324 -149.309 -1009 212 213 229
-402.511 -150.358 -1016 209 210 226
-403.281 -151.259 -1022 209 211 227
-403.246 -151.865 -1026 212 214 230
-546.886 -145.242 -980 216 195 182
-537.584 -143.18 -966 216 195 182
-528.324 -141.117 -952 210 189 176
-518.554 -138.906 -937 188 172 166
-513.798 -138.029 -931 175 159 153
-510.71 -137.596 -928 170 149 142
-509.278 -137.609 -928 159 138 131
-509.487 -138.066 -931 161 131 126
-511.324 -138.968 -937 158 128 123
-514.231 -140.167 -945 147 112 104
-518.197 -141.663 -955 129 94 86
-522.133 -143.159 -965 121 83 68
-526.037 -144.655 -975 115 77 62
-529.91 -146.152 -985 112 69 53
-533.216 -147.501 -994 107 64 48
-535.959 -148.701 -1002 103 59 43
-537.61 -149.605 -1008 100 56 40
-538.71 -150.361 -1013 96 53 37
-538.734 -150.819 -1016 95 52 36
-538.22 -151.13 -1018 98 51 34
-536.645 -151.143 -1018 97 50 33
-535.069 -151.157 -1018 94 47 30
-532.97 -151.022 -1017 91 44 27
-531.396 -151.036 -1017 89 42 25
-529.821 -151.049 -1017 88 41 24
-529.285 -151.36 -1019 80 39 25
-527.707 -151.373 -1019 78 37 23
-526.128 -151.387 -1019 71 34 21
-524.035 -151.252 -1018 69 32 19
-522.457 -151.266 -1018 74 33 21
-520.368 -151.131 -1017 76 35 23
-518.281 -150.996 -1016 71 34 24
-516.197 -150.86 -1015 71 34 24
-514.116 -150.725 -1014 71 38 27
-512.544 -150.739 -1014 71 38 27
-510.467 -150.604 -1013 72 37 29
-508.895 -150.617 -1013 73 38 30
-506.822 -150.482 -1012 76 41 31
-505.75 -150.645 -1013 79 44 34
-504.178 -150.658 -1013 81 44 34
-502.605 -150.672 -1013 80 43 33
-501.032 -150.685 -1013 80 43 33
-498.965 -150.55 -1012 81 44 34
-497.884 -150.712 -1013 80 39 32
-495.82 -150.577 -1012 85 44 37
-494.248 -150.591 -1012 85 44 37
-492.188 -150.456 -1011 84 43 36
-490.13 -150.32 -1010 85 46 39
-488.076 -150.185 -1009 88 49 42
-486.507 -150.199 -1009 91 47 39
-483.976 -149.914 -1007 89 45 37
-481.451 -149.63 -1005 89 45 41
-477.977 -149.048 -1001 89 45 41
-473.563 -148.168 -995 91 48 37
-468.694 -147.139 -988 100 57 46
-461.954 -145.514 -977 116 78 77
-453.363 -143.293 -962 160 122 121
-444.819 -141.071 -947 190 169 178
-437.258 -139.147 -934 224 203 212
-433.936 -138.564 -930 221 216 224
-432.021 -138.427 -929 227 222 230
-431.037 -138.589 -930 228 221 225
-430.972 -139.048 -933 228 221 225
-431.819 -139.806 -938 229 221 227
-433.109 -140.713 -944 229 221 227
-433.465 -141.322 -948 230 221 231
-433.353 -141.782 -951 227 218 228
-432.777 -142.093 -953 227 216 225
-432.195 -142.404 -955 224 213 222
-431.155 -142.566 -956 224 213 222
-430.111 -142.728 -957 218 207 216
-428.616 -142.741 -957 212 207 218
-427.121 -142.753 -957 216 211 222
-426.071 -142.915 -958 212 208 221
-424.574 -142.928 -958 216 212 225
-423.959 -143.239 -960 220 219 233
-423.339 -143.551 -962 230 229 243
-422.273 -143.713 -963 230 226 241
-422.077 -144.174 -966 209 205 220
-420.131 -144.037 -965 188 184 199
-419.055 -144.199 -966 183 179 194
-417.543 -144.212 -966 184 182 199
-415.6 -144.076 -965 195 193 210
-414.09 -144.089 -965 212 211 225
-412.151 -143.952 -964 221 220 234
-410.215 -143.816 -963 220 216 235
-408.707 -143.829 -963 208 204 223
-407.198 -143.842 -963 201 197 214
-405.689 -143.854 -963 199 195 212
-404.179 -143.867 -963 196 192 209
-403.088 -144.03 -964 195 191 208
-401.576 -144.042 -964 206 202 219
-400.064 -144.055 -964 213 209 226
-398.552 -144.068 -964 215 211 228
-397.451 -144.23 -965 218 214 231
-395.937 -144.243 -965 223 221 238
-394.831 -144.405 -966 227 225 242
-394.129 -144.717 -968 225 226 242
-393.825 -145.179 -971 227 228 244
-394.32 -145.939 -976 225 226 242
-395.604 -146.999 -983 220 221 237
-397.668 -148.358 -992 216 218 234
-399.303 -149.568 -1000 214 216 232
-401.311 -150.927 -1009 212 213 229
-402.498 -151.988 -1016 209 210 226
-403.268 -152.899 -1022 207 209 225
-403.232 -153.511 -1026 209 211 227
-564.611 -151.13 -1009 217 197 184
-558.592 -149.945 -1001 216 196 183
-548.701 -147.712 -986 218 198 185
-533.306 -143.979 -961 214 194 181
-522.416 -141.445 -944 196 179 172
-516.545 -140.259 -936 181 164 157
-512.899 -139.672 -932 174 153 147
-510.912 -139.534 -931 166 145 139
-510.022 -139.697 -932 162 136 130
-511.857 -140.609 -938 159 133 127
-514.218 -141.67 -945 153 119 113
-516.557 -142.733 -952 130 96 90
-519.956 -144.095 -961 125 88 76
-523.866 -145.607 -971 120 83 71
-527.207 -146.97 -980 117 75 61
-529.984 -148.183 -988 114 72 58
-532.201 -149.246 -995 108 65 50
-534.396 -150.31 -1002 102 59 44
-536.037 -151.223 -1008 101 58 40
-537.13 -151.987 -1013 98 55 37
-536.62 -152.301 -1015 99 54 36
-535.577 -152.464 -1016 100 55 37
-534.53 -152.628 -1017 97 49 32
-532.956 -152.642 -1017 90 42 25
-530.86 -152.505 -1016 87 40 24
-529.287 -152.519 -1016 86 39 23
-528.752 -152.833 -1018 78 37 23
-527.175 -152.847 -1018 77 36 22
-525.598 -152.861 -1018 72 35 21
-524.021 -152.874 -1018 70 33 19
-522.444 -152.888 -1018 72 32 19
-520.866 -152.902 -1018 74 34 21
-518.778 -152.765 -1017 72 35 24
-516.184 -152.479 -1015 71 34 23
-514.103 -152.342 -1014 70 36 28
-512.53 -152.356 -1014 73 39 31
-510.957 -152.369 -1014 72 36 28
-508.881 -152.233 -1013 74 38 30
-506.808 -152.096 -1012 76 41 33
-505.737 -152.26 -1013 79 44 36
-504.164 -152.274 -1013 83 46 36
-503.087 -152.438 -1014 82 45 35
-501.513 -152.452 -1014 83 45 33
-499.445 -152.315 -1013 83 45 33
-497.871 -152.329 -1013 89 45 39
-496.297 -152.342 -1013 89 45 39
-494.234 -152.206 -1012 84 44 38
-492.174 -152.069 -1011 86 46 40
-490.602 -152.083 -1011 86 47 40
-488.546 -151.946 -1010 87 48 41
-486.493 -151.809 -1009 90 50 43
-483.482 -151.372 -1006 86 46 39
-480.479 -150.934 -1003 93 49 44
-476.053 -150.044 -997 92 48 43
-470.694 -148.854 -989 92 54 48
-465.834 -147.814 -982 110 72 66
-457.213 -145.569 -967 134 106 110
-449.109 -143.474 -953 184 156 160
-441.518 -141.53 -940 209 193 203
-435.841 -140.187 -931 230 214 224
-434.39 -140.2 -931 229 221 227
-432.939 -140.213 -931 229 221 227
-432.415 -140.526 -933 230 222 226
-432.807 -141.142 -937 230 222 226
-433.648 -141.908 -942 231 223 229
-434.473 -142.674 -947 228 220 226
-434.824 -143.289 -951 231 223 231
-434.252 -143.603 -953 226 218 226
-433.672 -143.918 -955 227 219 227
-432.634 -144.081 -956 226 218 226
-431.142 -144.094 -956 225 215 224
-430.098 -144.258 -957 220 210 219
-428.603 -144.271 -957 215 208 218
-427.109 -144.284 -957 216 209 219
-426.058 -144.448 -958 216 212 224
-425.004 -144.611 -959 218 214 226
-424.388 -144.926 -961 222 219 233
-423.766 -145.241 -963 232 229 243
-422.26 -145.254 -963 225 219 232
-422.065 -145.719 -966 200 194 207
-420.553 -145.732 -966 187 183 198
-419.042 -145.745 -966 185 181 196
-417.53 -145.758 -966 185 183 200
-415.587 -145.621 -965 196 194 211
-414.077 -145.634 -965 211 210 225
-411.711 -145.345 -963 218 217 232
-409.776 -145.207 -962 214 210 228
-408.694 -145.371 -963 205 201 219
-407.185 -145.384 -963 206 202 219
-405.676 -145.397 -963 203 199 216
-404.166 -145.41 -963 197 193 210
-403.075 -145.574 -964 200 196 213
-401.563 -145.587 -964 207 203 219
-400.051 -145.6 -964 209 205 221
-398.539 -145.613 -964 213 209 226
-397.027 -145.625 -964 219 215 232
-395.924 -145.79 -965 223 220 237
-394.818 -145.954 -966 227 224 241
-394.116 -146.269 -968 227 227 243
-393.812 -146.735 -971 228 228 244
-394.307 -147.504 -976 225 226 243
-395.591 -148.575 -983 220 221 238
-396.853 -149.646 -990 216 217 234
-399.29 -151.171 -1000 215 216 233
-400.9 -152.394 -1008 212 214 229
-402.088 -153.466 -1015 208 210 225
-403.254 -154.537 -1022 207 209 225
-402.826 -155.005 -1025 207 209 225
-570.194 -154.248 -1019 215 196 184
-563.6 -152.899 -1010 213 194 182
-552.583 -150.339 -993 215 196 184
-538.288 -146.87 -970 212 193 181
-527.384 -144.309 -953 201 181 174
-519.843 -142.656 -942 187 167 160
-514.537 -141.608 -935 176 156 151
-511.448 -141.167 -932 167 147 142
-510.01 -141.179 -932 161 137 131
-510.753 -141.798 -936 157 133 127
-513.117 -142.871 -943 154 123 118
-515.459 -143.944 -950 134 103 98
-518.32 -145.169 -958 126 91 81
-521.156 -146.395 -966 121 86 76
-523.967 -147.62 -974 122 81 69
-526.216 -148.695 -981 121 80 68
-528.444 -149.769 -988 116 73 59
-531.183 -150.995 -996 107 64 50
-532.301 -151.767 -1001 105 61 41
-533.935 -152.69 -1007 99 55 35
-534.492 -153.31 -1011 96 52 34
-534.509 -153.779 -1014 98 54 36
-533.465 -153.944 -1015 97 49 32
-532.418 -154.11 -1016 89 41 24
-530.846 -154.124 -1016 83 36 21
-529.273 -154.138 -1016 82 35 20
-528.738 -154.455 -1018 77 36 22
-527.162 -154.469 -1018 76 35 21
-525.585 -154.483 -1018 71 34 19
-524.007 -154.496 -1018 71 34 19
-522.43 -154.51 -1018 72 34 19
-520.852 -154.524 -1018 74 36 21
-518.254 -154.234 -1016 73 36 24
-516.17 -154.096 -1015 72 35 23
-514.089 -153.958 -1014 71 37 31
-512.516 -153.972 -1014 73 39 33
-510.943 -153.986 -1014 76 39 31
-508.867 -153.848 -1013 76 39 31
-506.795 -153.71 -1012 76 41 35
-505.723 -153.876 -1013 80 45 39
-504.648 -154.042 -1014 84 47 37
-503.074 -154.055 -1014 84 47 37
-501.004 -153.917 -1013 86 48 35
-499.431 -153.931 -1013 87 49 36
-497.857 -153.945 -1013 90 45 39
-496.283 -153.959 -1013 93 48 42
-494.22 -153.821 -1012 88 49 44
-492.16 -153.682 -1011 87 48 43
-490.103 -153.544 -1010 86 49 41
-488.049 -153.406 -1009 88 51 43
-485.515 -153.116 -1007 91 53 48
-482.507 -152.673 -1004 87 49 44
-478.55 -151.927 -999 97 52 46
-473.653 -150.876 -992 96 51 45
-467.349 -149.368 -982 96 64 62
-461.077 -147.861 -972 128 96 94
-452.944 -145.744 -958 160 141 152
-444.855 -143.627 -944 204 185 196
-439.627 -142.423 -936 220 209 219
-435.828 -141.675 -931 232 221 231
-434.377 -141.687 -931 233 222 227
-433.856 -142.004 -933 233 222 227
-433.792 -142.474 -936 232 221 226
-434.642 -143.248 -941 234 223 228
-435.477 -144.022 -946 235 227 233
-435.836 -144.644 -950 233 225 231
-435.268 -144.961 -952 232 225 231
-434.694 -145.279 -954 226 219 225
-433.205 -145.292 -954 226 221 229
-432.621 -145.61 -956 225 220 228
-431.129 -145.623 -956 226 218 226
-430.085 -145.788 -957 223 215 223
-428.59 -145.801 -957 221 212 222
-427.542 -145.967 -958 220 211 221
-426.49 -146.132 -959 218 215 225
-425.434 -146.298 -960 221 218 228
-424.375 -146.463 -961 222 218 231
-423.753 -146.781 -963 219 215 228
-422.685 -146.947 -964 208 199 211
-422.051 -147.265 -966 192 183 195
-420.54 -147.278 -966 188 183 198
-419.029 -147.291 -966 190 185 200
-417.517 -147.304 -966 189 187 204
-416.005 -147.318 -966 200 198 215
-414.064 -147.178 -965 211 209 226
-412.125 -147.039 -964 218 216 233
-410.189 -146.9 -963 215 211 228
-408.681 -146.913 -963 209 205 222
-407.172 -146.926 -963 210 205 222
-405.663 -146.939 -963 204 199 216
-404.153 -146.952 -963 197 193 210
-402.644 -146.965 -963 200 196 213
-401.134 -146.978 -963 208 203 218
-399.623 -146.991 -963 210 205 220
-398.526 -147.157 -964 212 208 225
-397.014 -147.17 -964 216 212 229
-395.911 -147.336 -965 221 217 234
-394.805 -147.501 -966 227 223 240
-393.696 -147.667 -967 228 226 243
-393.394 -148.138 -970 228 226 243
-393.89 -148.915 -975 225 226 244
-395.176 -149.998 -982 220 221 239
-396.439 -151.08 -989 216 217 235
-398.877 -152.621 -999 214 215 233
-400.886 -154.01 -1008 210 215 228
-402.074 -155.093 -1015 208 213 226
-403.24 -156.176 -1022 208 210 226
-402.812 -156.649 -1025 207 209 225
-569.061 -155.562 -1017 216 197 185
-563.029 -154.352 -1009 214 195 183
-556.465 -152.989 -1000 215 197 185
-545.489 -150.401 -983 212 194 182
-534.012 -147.66 -965 207 186 178
-523.693 -145.225 -949 196 175 167
-515.625 -143.401 -937 182 162 156
-511.984 -142.802 -933 171 151 145
-509.997 -142.662 -932 162 140 134
-510.195 -143.134 -935 157 135 129
-511.472 -143.912 -940 156 125 120
-513.818 -144.996 -947 142 111 106
-516.684 -146.234 -955 134 97 85
-518.984 -147.319 -962 125 88 76
-521.263 -148.405 -969 124 84 72
-523.521 -149.49 -976 126 86 74
-525.221 -150.422 -982 123 81 69
-526.903 -151.355 -988 114 72 60
-529.097 -152.441 -995 107 64 49
-530.74 -153.374 -1001 98 55 40
-531.834 -154.154 -1006 96 52 34
-532.386 -154.781 -1010 96 52 34
-531.875 -155.101 -1012 96 47 29
-531.357 -155.421 -1014 89 40 22
-530.832 -155.742 -1016 82 34 18
-529.78 -155.909 -1017 82 34 18
-528.724 -156.076 -1018 77 35 21
-527.148 -156.09 -1018 76 34 20
-525.571 -156.105 -1018 73 35 21
-523.993 -156.118 -1018 72 34 20
-522.416 -156.132 -1018 71 33 19
-520.326 -155.993 -1017 71 33 19
-518.24 -155.854 -1016 70 33 21
-516.156 -155.714 -1015 72 35 23
-514.075 -155.575 -1014 73 38 29
-513.008 -155.742 -1015 76 41 32
-510.929 -155.603 -1014 78 43 33
-508.854 -155.463 -1013 76 41 31
-507.281 -155.477 -1013 78 42 34
-505.709 -155.491 -1013 82 46 38
-504.634 -155.659 -1014 86 48 38
-503.06 -155.673 -1014 87 49 39
-500.99 -155.533 -1013 88 50 38
-499.417 -155.547 -1013 89 51 39
-497.843 -155.561 -1013 93 50 44
-495.779 -155.421 -1012 91 48 42
-493.718 -155.282 -1011 88 49 43
-491.659 -155.142 -1010 92 53 47
-489.604 -155.003 -1009 92 53 45
-487.068 -154.709 -1007 89 50 42
-484.537 -154.416 -1005 88 49 42
-480.571 -153.661 -1000 87 48 41
-476.141 -152.753 -994 89 50 47
-470.297 -151.384 -985 98 59 56
-463.529 -149.707 -974 114 87 87
-456.795 -148.029 -963 159 132 132
-448.676 -145.89 -949 192 176 184
-442.957 -144.52 -940 223 207 215
-439.144 -143.764 -935 225 215 223
-436.283 -143.315 -932 229 219 227
-435.764 -143.636 -934 232 223 227
-434.773 -143.803 -935 233 224 228
-434.706 -144.277 -938 233 222 227
-435.553 -145.059 -943 237 226 231
-435.924 -145.687 -947 236 228 233
-436.282 -146.316 -951 235 227 232
-435.713 -146.637 -953 231 223 230
-434.681 -146.804 -954 228 220 227
-433.192 -146.817 -954 228 223 232
-432.608 -147.138 -956 226 221 230
-431.115 -147.151 -956 227 219 227
-430.072 -147.318 -957 226 218 226
-429.025 -147.486 -958 224 215 225
-427.529 -147.499 -958 223 214 224
-426.921 -147.82 -960 220 216 227
-425.421 -147.833 -960 222 218 229
-424.362 -148.001 -961 222 218 231
-423.739 -148.322 -963 210 206 219
-422.672 -148.489 -964 197 188 200
-421.601 -148.656 -965 189 180 192
-420.092 -148.67 -965 189 184 199
-419.016 -148.837 -966 191 186 201
-417.504 -148.85 -966 193 191 208
-415.992 -148.864 -966 207 205 222
-414.479 -148.877 -966 215 213 230
-412.112 -148.582 -964 217 215 232
-410.176 -148.441 -963 214 210 227
-409.092 -148.609 -964 208 204 221
-407.582 -148.622 -964 207 203 220
-405.65 -148.481 -963 202 198 215
-404.14 -148.494 -963 198 194 211
-403.049 -148.661 -964 202 198 215
-401.537 -148.675 -964 208 203 218
-400.025 -148.688 -964 210 205 220
-398.926 -148.855 -965 211 207 224
-397.412 -148.869 -965 213 209 226
-395.898 -148.882 -965 219 215 232
-394.792 -149.049 -966 226 222 239
-394.09 -149.371 -968 228 226 243
-393.786 -149.847 -971 228 226 243
-393.877 -150.478 -975 224 225 243
-394.76 -151.417 -981 221 222 240
-395.624 -152.357 -987 217 218 236
-398.864 -154.223 -999 215 216 234
-400.873 -155.626 -1008 212 216 230
-402.061 -156.72 -1015 210 214 228
-403.227 -157.815 -1022 210 212 228
-402.798 -158.292 -1025 208 210 226
-573.42 -157.937 -1022 216 197 183
-570.166 -157.488 -1019 217 198 186
-564.689 -156.42 -1012 216 197 185
-558.12 -155.042 -1003 216 199 187
-548.805 -152.892 -989 213 196 184
-537.872 -150.277 -972 211 190 181
-526.991 -147.662 -955 203 182 173
-517.814 -145.51 -941 189 169 162
-513.069 -144.595 -935 177 157 150
-509.984 -144.144 -932 166 145 140
-509.091 -144.311 -933 158 137 132
-509.827 -144.943 -937 158 127 122
-512.177 -146.039 -944 146 115 110
-515.047 -147.29 -952 136 98 85
-517.353 -148.386 -959 126 88 75
-519.098 -149.328 -965 122 84 71
-520.825 -150.269 -971 125 87 74
-522.534 -151.212 -977 125 84 73
-523.689 -151.999 -982 120 79 68
-525.361 -152.941 -988 115 72 61
-527.014 -153.884 -994 106 63 52
-528.12 -154.672 -999 100 56 38
-530.264 -155.769 -1006 94 50 32
-530.284 -156.248 -1009 95 45 26
-530.295 -156.726 -1012 90 40 21
-530.295 -157.205 -1015 85 37 20
-529.766 -157.529 -1017 85 37 20
-528.71 -157.698 -1018 81 38 24
-527.134 -157.712 -1018 80 37 23
-525.557 -157.726 -1018 76 35 23
-523.979 -157.74 -1018 76 35 23
-522.402 -157.755 -1018 74 36 23
-520.312 -157.614 -1017 75 37 24
-518.226 -157.473 -1016 75 38 26
-516.651 -157.487 -1016 75 38 26
-514.568 -157.346 -1015 73 38 26
-512.994 -157.36 -1015 74 39 27
-511.419 -157.374 -1015 78 45 32
-509.342 -157.233 -1014 77 44 31
-507.768 -157.247 -1014 81 44 34
-505.695 -157.106 -1013 84 47 37
-504.62 -157.276 -1014 88 49 40
-503.046 -157.29 -1014 89 50 41
-500.976 -157.149 -1013 88 51 39
-498.91 -157.008 -1012 88 51 39
-497.338 -157.022 -1012 90 51 44
-495.275 -156.881 -1011 90 51 44
-493.215 -156.74 -1010 91 52 45
-491.159 -156.599 -1009 94 55 48
-488.619 -156.302 -1007 96 55 46
-486.086 -156.006 -1005 96 55 46
-482.113 -155.244 -1000 98 59 50
-477.674 -154.326 -994 102 63 54
-472.774 -153.253 -987 94 60 60
-465.986 -151.559 -976 124 90 90
-459.232 -149.864 -965 154 132 135
-452.038 -148.014 -953 196 174 177
-446.299 -146.629 -944 216 204 209
-442.001 -145.71 -938 230 218 223
-438.662 -145.102 -934 226 218 222
-436.738 -144.959 -933 227 219 223
-436.684 -145.439 -936 229 221 225
-436.155 -145.762 -938 231 223 227
-437.01 -146.553 -943 232 221 226
-436.926 -147.032 -946 238 227 232
-436.831 -147.512 -949 236 228 232
-437.186 -148.147 -953 235 227 231
-436.156 -148.315 -954 229 221 229
-434.668 -148.329 -954 228 220 228
-433.633 -148.497 -955 228 223 232
-432.595 -148.666 -956 226 221 230
-431.102 -148.68 -956 225 218 226
-430.059 -148.848 -957 224 217 225
-429.012 -149.017 -958 224 215 225
-427.962 -149.186 -959 224 215 225
-426.908 -149.355 -960 221 216 227
-425.408 -149.369 -960 221 216 227
-424.349 -149.538 -961 219 215 228
-423.726 -149.862 -963 206 202 215
-422.22 -149.876 -963 197 188 200
-421.588 -150.2 -965 191 182 194
-420.078 -150.214 -965 188 183 198
-418.568 -150.227 -965 188 183 198
-417.49 -150.396 -966 194 192 209
-415.978 -150.41 -966 209 207 224
-414.037 -150.267 -965 216 214 231
-412.526 -150.281 -965 218 216 233
-411.015 -150.294 -965 216 212 229
-409.503 -150.307 -965 211 207 224
-407.991 -150.321 -965 209 205 222
-406.058 -150.178 -964 206 202 219
-404.547 -150.192 -964 203 199 216
-403.035 -150.205 -964 205 201 218
-401.524 -150.218 -964 209 204 219
-400.427 -150.388 -965 210 205 220
-398.913 -150.401 -965 211 207 224
-397.399 -150.414 -965 213 209 226
-396.295 -150.583 -966 218 214 231
-394.779 -150.597 -966 225 221 238
-394.076 -150.922 -968 227 225 242
-393.367 -151.247 -970 228 226 243
-393.864 -152.04 -975 223 224 242
-393.942 -152.677 -979 221 222 240
-395.61 -153.939 -987 218 219 237
-398.85 -155.824 -999 216 217 235
-400.461 -157.086 -1007 214 216 232
-402.047 -158.347 -1015 212 214 230
-403.607 -159.609 -1023 210 212 228
-403.177 -160.092 -1026 209 211 227
-574.528 -159.874 -1024 216 197 183
-571.271 -159.419 -1021 218 199 187
-565.791 -158.34 -1014 218 199 187
-559.776 -157.105 -1006 218 200 188
-551.011 -155.089 -993 215 197 185
-541.179 -152.759 -978 213 192 181
-530.841 -150.274 -962 208 187 176
-520.002 -147.631 -945 194 174 166
-513.605 -146.238 -936 182 162 154
-510.518 -145.782 -933 172 151 146
-509.078 -145.795 -933 162 141 136
-509.269 -146.277 -936 161 131 127
-511.079 -147.228 -942 148 118 114
-513.411 -148.335 -949 136 99 86
-515.182 -149.286 -955 125 88 75
-516.933 -150.238 -961 123 85 73
-518.666 -151.189 -967 126 88 76
-519.846 -151.984 -972 125 86 78
-520.476 -152.624 -976 124 85 77
-522.157 -153.575 -982 124 83 76
-523.289 -154.371 -987 119 78 71
-524.406 -155.167 -992 106 63 48
-526.561 -156.276 -999 98 55 40
-527.642 -157.072 -1004 98 49 32
-528.709 -157.869 -1009 97 48 31
-528.714 -158.352 -1012 93 45 27
-529.231 -158.992 -1016 91 43 25
-528.696 -159.319 -1018 87 44 29
-527.119 -159.334 -1018 85 42 27
-526.059 -159.504 -1019 82 40 27
-524.48 -159.519 -1019 80 38 25
-522.901 -159.533 -1019 78 38 26
-520.81 -159.391 -1018 79 39 27
-519.232 -159.405 -1018 80 42 30
-517.145 -159.263 -1017 79 41 29
-515.061 -159.12 -1016 77 40 28
-513.485 -159.135 -1016 77 40 28
-511.405 -158.992 -1015 79 45 32
-509.83 -159.007 -1015 79 45 32
-508.255 -159.021 -1015 82 45 34
-506.18 -158.878 -1014 85 48 37
-504.606 -158.893 -1014 90 50 40
-503.032 -158.907 -1014 92 52 42
-501.457 -158.921 -1014 90 52 40
-499.389 -158.779 -1013 89 51 39
-497.323 -158.636 -1012 90 51 43
-495.261 -158.494 -1011 93 54 46
-492.713 -158.194 -1009 94 55 47
-490.171 -157.895 -1007 93 54 46
-486.665 -157.282 -1003 99 58 49
-483.17 -156.669 -999 103 62 53
-478.724 -155.742 -993 98 62 54
-474.296 -154.814 -987 96 60 52
-468.449 -153.417 -978 119 92 93
-461.198 -151.548 -966 162 135 136
-453.984 -149.679 -954 195 178 184
-448.23 -148.28 -945 221 204 210
-443.922 -147.352 -939 227 216 220
-441.517 -147.051 -937 233 222 226
-439.118 -146.75 -935 229 221 222
-437.662 -146.763 -935 229 221 222
-437.604 -147.248 -938 228 220 225
-438.467 -148.046 -943 229 221 226
-437.924 -148.373 -945 231 220 225
-438.298 -149.014 -949 238 227 232
-437.739 -149.342 -951 237 229 234
-437.173 -149.669 -953 236 228 233
-436.143 -149.84 -954 229 220 230
-435.11 -150.01 -955 229 220 230
-433.62 -150.024 -955 228 223 232
-432.581 -150.194 -956 226 221 230
-431.089 -150.208 -956 227 219 228
-429.596 -150.221 -956 225 217 226
-428.998 -150.549 -958 225 216 227
-427.502 -150.562 -958 225 216 227
-426.45 -150.733 -959 219 214 225
-425.394 -150.904 -960 216 211 222
-424.335 -151.074 -961 209 205 218
-423.713 -151.402 -963 201 197 210
-422.207 -151.416 -963 193 184 196
-421.138 -151.587 -964 188 179 191
-419.63 -151.6 -964 183 178 193
-418.121 -151.614 -964 185 180 195
-417.045 -151.784 -965 192 190 207
-415.534 -151.798 -965 206 204 221
-414.024 -151.812 -965 214 212 229
-412.513 -151.825 -965 218 216 233
-411.001 -151.839 -965 219 215 232
-409.914 -152.009 -966 212 208 225
-408.4 -152.023 -966 208 204 221
-406.465 -151.879 -965 207 203 220
-404.533 -151.735 -964 207 203 220
-403.44 -151.906 -965 208 204 221
-401.927 -151.919 -965 210 205 220
-400.413 -151.933 -965 211 206 221
-398.9 -151.946 -965 212 208 225
-397.386 -151.96 -965 214 210 227
-396.282 -152.131 -966 219 215 232
-394.765 -152.144 -966 225 221 238
-394.063 -152.473 -968 227 225 242
-393.354 -152.801 -970 229 227 244
-393.042 -153.287 -973 225 226 244
-393.526 -154.089 -978 222 223 241
-395.196 -155.363 -986 218 219 237
-398.038 -157.11 -997 217 218 236
-400.447 -158.7 -1007 214 216 232
-402.429 -160.132 -1016 212 214 230
-403.593 -161.249 -1023 210 212 228
-403.163 -161.736 -1026 209 211 227
-575.075 -161.659 -1025 216 197 183
-571.257 -161.042 -1021 218 199 187
-565.777 -159.952 -1014 219 200 188
-559.205 -158.546 -1005 219 200 188
-552.662 -157.14 -996 218 199 187
-545.038 -155.419 -985 215 194 181
-536.345 -153.381 -972 212 191 178
-526.041 -150.87 -956 197 178 168
-515.787 -148.358 -940 187 168 158
-511.6 -147.582 -935 178 157 152
-509.611 -147.437 -934 168 147 142
-509.256 -147.766 -936 166 136 133
-509.981 -148.411 -940 152 122 119
-512.316 -149.529 -947 140 106 92
-513.55 -150.332 -952 129 95 81
-515.306 -151.293 -958 128 91 79
-517.044 -152.254 -964 128 91 79
-518.228 -153.057 -969 126 91 85
-517.796 -153.387 -971 128 93 87
-518.421 -154.033 -975 130 91 88
-519.564 -154.836 -980 128 89 86
-520.163 -155.482 -984 120 77 65
-522.857 -156.76 -992 110 67 55
-524.475 -157.722 -998 103 55 40
-526.075 -158.685 -1004 97 49 34
-527.132 -159.489 -1009 94 46 27
-528.175 -160.294 -1014 93 45 26
-527.643 -160.624 -1016 89 46 30
-526.587 -160.797 -1017 88 45 29
-526.044 -161.128 -1019 86 43 29
-524.466 -161.142 -1019 84 41 27
-523.4 -161.315 -1020 80 39 27
-521.307 -161.171 -1019 82 41 29
-519.217 -161.027 -1018 82 43 32
-517.13 -160.883 -1017 82 43 32
-515.046 -160.739 -1016 83 45 32
-513.976 -160.912 -1017 84 46 33
-511.894 -160.768 -1016 83 49 35
-510.318 -160.783 -1016 83 49 35
-508.741 -160.797 -1016 85 48 36
-506.665 -160.653 -1015 86 49 37
-505.089 -160.668 -1015 91 50 39
-503.513 -160.682 -1015 93 52 41
-501.442 -160.538 -1014 89 50 39
-499.374 -160.394 -1013 87 48 37
-497.309 -160.25 -1012 91 52 43
-494.757 -159.948 -1010 89 50 41
-491.722 -159.487 -1007 90 51 42
-488.21 -158.868 -1003 94 55 46
-484.224 -158.09 -998 99 58 49
-478.803 -156.837 -990 99 58 49
-474.371 -155.9 -984 100 66 60
-468.996 -154.647 -976 116 82 76
-462.209 -152.917 -965 157 136 139
-455.933 -151.346 -955 197 176 179
-450.164 -149.933 -946 218 206 215
-445.845 -148.996 -940 227 215 224
-443.436 -148.692 -938 225 217 219
-441.504 -148.547 -937 229 221 223
-440.044 -148.56 -937 227 221 218
-439.053 -148.732 -938 228 222 219
-439.457 -149.38 -942 231 223 229
-439.384 -149.869 -945 228 220 226
-439.301 -150.358 -948 231 220 225
-439.208 -150.848 -951 237 226 231
-438.646 -151.178 -953 238 230 236
-437.618 -151.351 -954 236 228 234
-436.587 -151.523 -955 230 221 231
-435.097 -151.536 -955 230 221 231
-433.606 -151.55 -955 227 222 231
-432.568 -151.722 -956 226 221 230
-431.075 -151.736 -956 228 219 229
-430.032 -151.908 -957 227 218 228
-428.985 -152.08 -958 226 217 229
-427.935 -152.253 -959 224 215 227
-426.881 -152.425 -960 217 212 223
-425.824 -152.597 -961 213 208 219
-425.205 -152.929 -963 204 199 212
-423.699 -152.942 -963 198 193 206
-422.193 -152.956 -963 190 181 193
-421.124 -153.128 -964 184 175 187
-419.616 -153.142 -964 181 176 191
-418.108 -153.156 -964 187 182 197
-416.599 -153.169 -964 197 195 212
-415.09 -153.183 -964 205 203 220
-413.581 -153.197 -964 215 213 230
-412.072 -153.21 -964 218 216 233
-410.988 -153.383 -965 218 214 231
-409.476 -153.397 -965 211 207 224
-407.964 -153.41 -965 206 202 219
-406.452 -153.424 -965 206 202 219
-404.939 -153.437 -965 206 202 219
-403.426 -153.451 -965 206 202 219
-401.913 -153.465 -965 209 204 219
-400.4 -153.478 -965 211 206 221
-398.886 -153.492 -965 213 209 226
-397.784 -153.664 -966 215 211 228
-396.268 -153.678 -966 219 215 232
-394.752 -153.692 -966 224 220 237
-393.642 -153.864 -967 226 224 241
-392.935 -154.196 -969 228 226 243
-392.625 -154.687 -972 227 228 246
-393.11 -155.496 -977 223 224 242
-394.38 -156.624 -984 219 220 238
-397.625 -158.548 -996 216 217 235
-400.036 -160.154 -1006 212 214 230
-402.415 -161.76 -1016 210 212 228
-403.973 -163.048 -1024 209 211 227
-403.149 -163.381 -1026 209 211 227
-571.242 -162.664 -1021 219 200 188
-565.763 -161.563 -1014 219 200 188
-559.748 -160.303 -1006 218 199 186
-554.867 -159.361 -1000 218 199 186
-548.344 -157.941 -991 217 197 181
-540.194 -156.042 -979 214 194 178
-529.88 -153.506 -963 201 182 171
-519.066 -150.809 -946 193 174 163
-513.228 -149.547 -938 185 164 159
-510.689 -149.241 -936 173 152 147
-509.243 -149.255 -936 168 140 139
-509.425 -149.746 -939 154 126 125
-510.68 -150.557 -944 145 113 103
-512.458 -151.527 -950 134 102 92
-514.217 -152.498 -956 132 97 88
-514.885 -153.15 -960 131 96 87
-516.075 -153.961 -965 130 95 90
-515.649 -154.294 -967 130 95 90
-516.281 -154.946 -971 132 93 91
-516.9 -155.598 -975 132 93 91
-516.977 -156.091 -978 129 89 81
-518.627 -157.062 -984 121 81 73
-520.783 -158.194 -991 110 64 53
-522.916 -159.325 -998 95 49 38
-524.506 -160.298 -1004 90 44 29
-525.556 -161.11 -1009 91 45 30
-525.551 -161.604 -1012 88 48 31
-526.055 -162.257 -1016 88 48 31
-525.514 -162.591 -1018 87 45 31
-523.936 -162.605 -1018 87 45 31
-523.385 -162.939 -1020 86 45 33
-521.293 -162.794 -1019 88 47 35
-519.203 -162.649 -1018 88 48 37
-517.625 -162.664 -1018 88 48 37
-515.539 -162.518 -1017 90 49 37
-513.961 -162.533 -1017 90 49 37
-512.384 -162.547 -1017 90 52 40
-510.304 -162.402 -1016 90 52 40
-509.227 -162.576 -1017 90 52 40
-507.15 -162.431 -1016 90 52 40
-505.572 -162.446 -1016 93 52 41
-503.499 -162.3 -1015 93 52 41
-501.428 -162.155 -1014 92 50 39
-499.36 -162.01 -1013 90 48 37
-496.803 -161.704 -1011 92 52 42
-493.273 -161.079 -1007 92 52 42
-489.755 -160.453 -1003 91 54 45
-485.762 -159.668 -998 91 54 45
-480.814 -158.562 -991 89 54 48
-474.92 -157.136 -982 96 61 55
-469.536 -155.87 -974 121 94 93
-462.735 -154.123 -963 166 139 138
-456.926 -152.697 -954 197 180 183
-451.145 -151.27 -945 223 206 209
-447.771 -150.643 -941 227 216 225
-444.883 -150.176 -938 228 217 226
-442.95 -150.029 -937 226 218 221
-441.491 -150.043 -937 228 220 223
-440.501 -150.216 -938 227 220 218
-440.443 -150.71 -941 228 221 219
-440.843 -151.365 -945 224 214 222
-440.765 -151.859 -948 216 206 214
-440.214 -152.193 -950 219 208 215
-440.118 -152.687 -953 224 213 220
-439.092 -152.861 -954 230 222 229
-438.522 -153.195 -956 232 224 231
-437.03 -153.209 -956 231 223 232
-435.539 -153.222 -956 231 223 232
-434.047 -153.236 -956 227 221 230
-433.007 -153.41 -957 226 220 229
-431.513 -153.424 -957 227 218 228
-430.917 -153.758 -959 226 217 227
-429.867 -153.932 -960 224 215 227
-428.813 -154.106 -961 220 211 223
-427.756 -154.281 -962 212 207 219
-426.696 -154.455 -963 209 204 216
-425.191 -154.469 -963 202 197 210
-424.125 -154.643 -964 197 192 205
-422.618 -154.656 -964 189 180 192
-421.11 -154.67 -964 185 176 188
-419.602 -154.684 -964 185 180 195
-418.094 -154.698 -964 194 189 204
-416.585 -154.712 -964 203 201 218
-415.077 -154.725 -964 209 207 224
-413.567 -154.739 -964 213 211 228
-412.058 -154.753 -964 215 213 230
-410.548 -154.767 -964 216 212 229
-409.462 -154.941 -965 212 208 225
-407.95 -154.955 -965 209 205 222
-406.438 -154.968 -965 207 203 220
-404.926 -154.982 -965 204 200 217
-403.413 -154.996 -965 202 198 215
-401.9 -155.01 -965 208 203 219
-400.386 -155.023 -965 211 206 222
-398.873 -155.037 -965 213 209 226
-397.358 -155.051 -965 214 210 227
-396.254 -155.225 -966 216 213 230
-394.738 -155.239 -966 222 219 236
-393.629 -155.413 -967 225 225 241
-392.516 -155.588 -968 227 227 243
-392.611 -156.244 -972 228 229 247
-393.096 -157.062 -977 225 226 244
-394.367 -158.201 -984 220 221 239
-397.211 -159.983 -995 215 216 234
-400.022 -161.766 -1006 210 212 228
-402.797 -163.549 -1017 208 210 226
-403.564 -164.529 -1023 208 210 226
-575.046 -164.916 -1025 217 198 186
-570.109 -163.965 -1019 220 201 189
-565.19 -163.014 -1013 218 199 187
-559.733 -161.902 -1006 215 196 182
-555.408 -161.111 -1001 216 197 183
-549.99 -159.999 -994 218 198 181
-542.939 -158.403 -984 216 196 179
-535.918 -156.807 -974 204 185 173
-523.99 -153.762 -955 198 179 167
-517.045 -152.166 -945 189 169 164
-511.767 -151.052 -938 175 155 150
-509.23 -150.743 -936 168 142 142
-508.869 -151.079 -938 154 128 128
-509.584 -151.736 -942 146 116 111
-510.826 -152.555 -947 135 105 100
-512.052 -153.374 -952 132 101 94
-512.726 -154.033 -956 130 99 92
-513.387 -154.691 -960 129 95 91
-513.503 -155.188 -963 128 94 90
-514.14 -155.846 -967 130 92 91
-514.235 -156.344 -970 133 95 94
-513.792 -156.68 -972 127 89 86
-514.923 -157.5 -977 129 91 88
-516.564 -158.482 -983 125 81 73
-517.663 -159.302 -988 109 65 57
-520.835 -160.767 -997 100 57 45
-522.937 -161.91 -1004 97 54 42
-523.979 -162.731 -1009 88 50 33
-525.005 -163.552 -1014 85 47 30
-524.983 -164.051 -1017 89 48 34
-523.407 -164.066 -1017 90 49 35
-523.37 -164.564 -1020 90 49 37
-521.278 -164.418 -1019 89 48 36
-519.188 -164.271 -1018 88 47 35
-517.61 -164.286 -1018 89 48 36
-515.524 -164.139 -1017 92 49 37
-513.947 -164.153 -1017 92 49 37
-512.369 -164.168 -1017 94 53 42
-510.791 -164.183 -1017 93 52 41
-509.714 -164.359 -1018 92 53 42
-507.634 -164.212 -1017 93 54 43
-506.055 -164.227 -1017 95 54 43
-503.98 -164.08 -1016 94 53 42
-501.413 -163.772 -1014 95 50 40
-498.852 -163.463 -1012 94 49 39
-495.806 -162.993 -1009 90 49 38
-491.789 -162.2 -1004 99 58 47
-487.787 -161.407 -999 96 61 53
-481.854 -159.967 -990 96 61 53
-475.463 -158.365 -980 109 79 76
-470.07 -157.087 -972 139 109 106
-463.255 -155.323 -961 169 148 151
-457.436 -153.882 -952 206 185 188
-452.123 -152.603 -944 217 205 208
-449.222 -152.131 -941 230 218 221
-446.33 -151.66 -938 224 216 224
-443.921 -151.35 -936 223 215 223
-442.464 -151.363 -936 225 218 222
-441.948 -151.7 -938 227 220 224
-441.426 -152.037 -940 224 216 216
-441.366 -152.536 -943 224 216 216
-441.762 -153.197 -947 206 195 204
-441.681 -153.696 -950 193 182 191
-441.127 -154.033 -952 195 184 193
-440.104 -154.209 -953 202 191 200
-439.539 -154.546 -955 215 207 215
-438.508 -154.722 -956 223 215 223
-437.474 -154.898 -957 226 219 228
-435.98 -154.912 -957 227 220 229
-434.487 -154.926 -957 226 219 228
-433.445 -155.101 -958 225 218 227
-432.401 -155.277 -959 225 216 226
-431.352 -155.453 -960 223 214 224
-430.301 -155.629 -961 220 211 223
-429.246 -155.804 -962 214 205 217
-428.187 -155.98 -963 207 202 215
-426.682 -155.994 -963 205 200 213
-425.619 -156.17 -964 200 195 208
-424.551 -156.346 -965 195 190 203
-422.604 -156.198 -964 188 179 191
-421.533 -156.374 -965 186 177 189
-419.588 -156.226 -964 189 184 199
-418.08 -156.24 -964 199 194 209
-417.004 -156.416 -965 207 205 222
-415.063 -156.267 -964 210 208 225
-413.125 -156.119 -963 210 208 225
-412.044 -156.295 -964 210 208 225
-410.534 -156.309 -964 211 207 224
-409.448 -156.485 -965 208 204 221
-407.937 -156.499 -965 206 202 219
-406.424 -156.513 -965 204 200 217
-404.912 -156.527 -965 203 199 216
-402.981 -156.378 -964 204 200 217
-401.886 -156.554 -965 207 202 219
-399.958 -156.406 -964 211 206 223
-398.445 -156.42 -964 212 208 225
-397.345 -156.596 -965 212 208 225
-395.83 -156.61 -965 213 211 228
-394.724 -156.786 -966 219 217 234
-393.208 -156.8 -966 223 224 240
-392.907 -157.3 -969 225 226 242
-392.597 -157.801 -972 229 230 248
-393.082 -158.627 -977 226 227 245
-394.353 -159.777 -984 220 221 239
-397.197 -161.578 -995 214 215 233
-400.405 -163.541 -1007 210 212 228
-402.386 -165.017 -1016 209 211 227
-403.156 -166.006 -1022 207 209 225
-403.12 -166.67 -1026 206 208 224
-574.47 -166.382 -1024 217 198 186
-569.535 -165.421 -1018 219 200 188
-564.618 -164.461 -1012 218 199 187
-560.275 -163.663 -1007 218 198 184
-555.948 -162.865 -1002 217 197 183
-551.083 -161.904 -996 216 196 180
-545.684 -160.78 -989 212 192 176
-540.306 -159.656 -982 210 191 178
-530.561 -157.232 -967 207 188 175
-521.408 -154.969 -953 198 177 171
-515.026 -153.519 -944 189 168 162
-511.937 -153.045 -941 179 154 153
-509.398 -152.733 -939 163 138 137
-509.03 -153.072 -941 151 124 123
-509.733 -153.736 -945 141 114 113
-510.425 -154.401 -949 135 105 101
-510.567 -154.902 -952 136 106 102
-510.7 -155.404 -955 137 105 102
