ply
format ascii 1.0
comment Created by Open3D
element vertex 740
property double x
property double y
property double z
property double nx
property double ny
property double nz
property uchar red
property uchar green
property uchar blue
end_header
-206.48 212.357 -2057.57 -0.651361 -0.535603 -0.531827 118 92 80
-210.191 214.517 -2055.89 -0.659901 -0.541274 -0.520168 125 95 80
-222.715 231.705 -2055.09 -0.72983 -0.504555 -0.456147 142 102 88
-233.352 241.217 -2055.04 -0.759943 -0.520347 -0.349244 176 133 117
-229.274 237.462 -2055.02 -0.687307 -0.605088 -0.391931 157 115 100
-213.798 221.519 -2058.29 -0.672353 -0.516212 -0.519763 118 91 79
47.9365 0.0149983 -2056.5 0.607918 -0.194095 0.700441 43 45 54
46.6084 2.60909 -2054.43 0.535766 -0.0914641 0.795626 41 44 53
45.6494 9.55292 -2053.7 0.325853 0.00139944 0.92663 34 36 47
47.2002 15.8548 -2054.3 0.333749 -0.0955532 0.920941 32 33 45
48.8281 25.3544 -2054.24 0.387717 -0.10094 0.908789 31 32 44
50.5864 21.5107 -2055.54 0.410114 -0.133836 0.88875 32 33 45
56.6421 30.2456 -2056.11 0.295595 -0.200829 0.925487 31 33 43
45.0211 43.1046 -2053.23 0.248126 0.0592623 0.959065 41 41 51
51.8425 33.9876 -2054.15 0.284266 -0.0821031 0.947322 33 34 45
55.2241 40.6282 -2054.07 0.189221 -0.0827696 0.975722 34 36 47
-93.0716 87.5877 -2053.67 0.0459861 0.660273 0.709214 171 150 140
-97.5458 88.9872 -2054.56 0.190875 0.689248 0.659033 195 170 157
-87.3632 90.0298 -2054.45 -0.175185 0.586106 0.780699 99 86 81
-80.569 94.4996 -2054.55 -0.211298 0.555719 0.800304 43 35 33
-290.627 -1193.6 -2048.52 -0.526116 0.619137 0.591813 134 100 77
-280.898 -1186.04 -2047.89 -0.529824 0.743378 0.346869 128 90 67
-275.371 -1183.32 -2048.47 -0.578974 0.782006 0.164439 153 113 90
-267.584 -1163.21 -2047.52 -0.666733 0.0483565 0.0433441 97 84 72
-271.509 -1153.9 -2051.16 -0.821039 -0.574531 -0.0538914 41 47 42
-265.947 -1169.68 -2051.16 -0.76624 0.331931 -0.0247435 139 113 93
-225.721 -1191.81 -2051.16 0.701682 -0.509404 0.465863 101 73 55
-231.266 -1177.43 -2048.54 0.683088 -0.436602 0.428694 108 80 63
-228.924 -1187.13 -2049.46 0.639545 -0.440376 0.455696 104 76 59
-217.817 -1188.24 -2047.23 0.541993 -0.3253 0.445862 116 87 69
-228.419 -1166.8 -2051.77 0.793919 -0.460595 0.404258 115 85 67
-227.494 -1163.95 -2047.37 0.785942 -0.445025 0.380097 120 89 71
-221.914 -1157.54 -2053.05 0.788196 -0.420345 0.463966 134 97 77
-201.564 -1174.37 -2049.35 0.699107 -0.47919 0.547255 183 138 114
-201.383 -1165.99 -2048.94 0.69764 -0.471226 0.544114 182 137 113
-208.436 -1154.82 -2046.12 0.599302 -0.0370167 0.489339 187 148 123
-199.647 -1160.47 -2050.11 0.702119 -0.258309 0.514272 165 125 102
-202.118 -1156.55 -2049.47 0.69497 -0.196345 0.50352 169 131 107
-194.046 -1156.83 -2051.33 0.727964 0.243732 0.43531 112 84 65
-174.69 -1180.92 -2048.7 0.497397 0.779657 0.284394 66 54 49
-165.045 -1182.68 -2047.86 -0.186727 0.78643 0.418279 62 53 50
-316.565 -879.132 -2049.23 -0.708928 0.133686 -0.679843 43 48 45
-314.988 -874.38 -2050.64 -0.7489 0.0800015 -0.639096 42 48 45
-314.181 -867.474 -2052.25 -0.794969 0.00719938 -0.581235 42 48 45
-316.544 -854.938 -2049.01 -0.724315 -0.0345506 -0.666119 40 47 44
-209.111 -949.682 -2048.23 0.787088 -0.0323429 0.615743 41 48 43
-205.964 -946.276 -2051.78 0.741803 -0.0845421 0.665788 41 48 44
-207.276 -930.093 -2047.02 0.727932 -0.107438 0.672011 40 45 42
-207.042 -926.258 -2046.74 0.737467 -0.0889748 0.661422 39 44 42
-204.689 -923.735 -2049.82 0.746062 -0.0376724 0.657029 38 42 40
-206.419 -902.825 -2047.58 0.837356 -0.021936 0.541944 37 43 42
-196.174 -711.027 -2047.6 -0.2675 -0.135365 0.708441 28 33 37
-200.408 -708.557 -2051.96 -0.603876 -0.127062 0.777315 27 31 35
-155.479 -749.026 -2048.2 -0.756564 -0.108986 0.331906 27 30 35
-158.778 -744.612 -2052.3 -0.75372 -0.136774 0.349198 27 29 35
-160.01 -735.295 -2049.73 -0.796455 -0.235188 0.509083 28 30 36
-162.595 -726.168 -2049.7 -0.666062 -0.233191 0.51368 26 29 35
-165.653 -718.16 -2052.81 -0.494898 -0.119348 0.321242 21 25 30
-164.081 -712.911 -2048.95 -0.589672 -0.0416788 0.251726 22 26 31
-203.918 -699.612 -2049.13 -0.720787 -0.034182 0.789161 26 30 35
-201.475 -693.762 -2046.99 -0.454161 -0.05221 0.728954 26 30 34
-170.055 -687.62 -2050.08 -0.564303 -0.123403 0.540175 40 43 49
-168.118 -684.587 -2048.08 -0.532179 -0.102811 0.406341 31 35 40
-164.736 -697.279 -2047.13 -0.558518 -0.0708781 0.351101 27 31 36
-167.736 -688.071 -2048.55 -0.521267 -0.0945746 0.414307 33 37 42
-179.132 -674.041 -2052.7 -0.76321 -0.197575 0.621052 26 32 38
-179.801 -670.299 -2051.64 -0.770825 -0.16904 0.610638 24 29 36
-14.5099 -1109.77 -2048.32 0.59386 -0.783152 -0.0768627 48 54 46
-7.06595 -1104.57 -2047.1 0.606129 -0.765507 0.0841815 47 52 46
-1.81785 -1101.29 -2047.19 0.637703 -0.684811 0.0363039 46 51 46
2.96457 -1095.43 -2046.79 0.701739 -0.592663 -0.139091 47 53 46
12.0671 -1084.69 -2051.41 0.832815 -0.528476 -0.113478 57 59 58
16.8236 -1077.05 -2050.77 0.838379 -0.505206 -0.144618 54 57 54
17.8349 -1076.01 -2047.95 0.851825 -0.500759 -0.0959419 53 57 53
24.3806 -1060.46 -2049.27 0.936065 -0.23043 -0.222543 46 54 46
-111.186 -1050.08 -2047.42 -0.657658 0.085977 0.753054 31 35 34
-111.412 -1046.44 -2048 -0.656221 0.0894024 0.754935 31 34 33
-112.14 -1037.87 -2050.36 -0.576342 0.147065 0.796368 33 36 35
-111.471 -1030.45 -2051.15 -0.461384 0.246499 0.84154 34 39 38
-102.471 -1029.13 -2046.89 -0.349549 0.33148 0.915201 32 36 35
12.8933 -966.693 -2051.24 0.959915 0.215834 -0.155038 47 54 48
11.3742 -960.708 -2050.45 0.968341 0.234736 -0.138755 47 54 49
-131.751 -941.65 -2051.52 -0.591845 -0.240399 0.773759 32 38 37
-126.861 -950.253 -2051.36 -0.514858 -0.223095 0.820137 35 39 38
-127.343 -944.38 -2049.82 -0.527942 -0.248095 0.811184 34 39 38
-135.384 -938.567 -2052.58 -0.630504 -0.22053 0.739529 31 37 36
-131.72 -933.934 -2049 -0.590749 -0.183762 0.785506 32 38 37
-128.96 -931.553 -2046.5 -0.535212 -0.152915 0.827952 33 39 38
-133.218 -922.469 -2049.03 -0.637576 -0.0125201 0.772305 33 39 38
-129.931 -918.877 -2046.58 -0.608055 0.0049618 0.794616 34 40 39
-130.782 -904.287 -2047.62 -0.594423 -0.0224541 0.804634 35 41 40
-129.672 -907.213 -2047.04 -0.595416 -0.000310951 0.806835 35 41 40
-135.855 -896.462 -2050.25 -0.612354 -0.0646314 0.78144 33 39 39
-131.367 -893.656 -2047.2 -0.543255 -0.0353823 0.838719 33 39 39
-132.32 -889.609 -2047.55 -0.579037 -0.0188178 0.808478 31 37 37
-134.659 -882.613 -2049.01 -0.637553 -0.000295187 0.765296 29 35 36
10.2143 -465.925 -2050.21 0.958671 0.138111 -0.143227 52 58 60
-347.116 -449.713 -2047.97 -0.965592 0.149168 -0.20026 53 59 57
-346.218 -444.527 -2047.24 -0.952757 0.187175 -0.206287 53 59 56
-343.157 -434.994 -2047.04 -0.866437 0.352547 -0.317865 51 57 53
-338.848 -428.381 -2050.39 -0.823082 0.327758 -0.443241 50 57 53
-337.427 -420.25 -2050.24 -0.886717 0.147826 -0.412659 50 57 53
-336.602 -409.235 -2047.59 -0.920626 0.209342 -0.315366 49 56 52
-332.651 -400.163 -2051.64 -0.903764 0.243478 -0.342889 52 59 54
-332.912 -396.753 -2047.67 -0.92308 0.239011 -0.290563 51 58 54
-328.165 -383.797 -2052.15 -0.911874 0.172662 -0.364162 52 59 54
-326.44 -367.739 -2046.42 -0.946712 0.201788 -0.250398 47 54 50
-323.968 -361.221 -2050.23 -0.958498 0.20146 -0.20664 47 55 50
-322.848 -349.937 -2051.69 -0.975123 0.0649572 -0.196539 44 52 48
-323.152 -346.41 -2048.88 -0.979643 -0.00325001 -0.142522 45 53 49
-320.065 -330.28 -2050.66 -0.89629 0.338559 -0.21759 51 58 55
-229.702 106.874 -2047 -0.0573215 0.756413 0.623088 85 78 76
-231.512 109.582 -2049.89 -0.029367 0.791886 0.594374 71 67 66
-226.782 110.256 -2049.19 -0.101769 0.741201 0.643404 109 97 90
-223.223 113.817 -2052.2 -0.209453 0.741083 0.63409 156 135 121
-211.963 125.069 -2047.4 -0.701402 0.38364 0.54386 165 146 132
-215.491 131.667 -2052.22 -0.546601 0.484058 0.492932 138 126 116
-211.876 140.244 -2047.62 -0.745212 0.412729 0.433151 162 149 138
-206.092 145.462 -2047.09 -0.673149 0.560732 0.36899 178 159 139
-193.842 155.913 -2048.31 -0.813962 0.551473 0.0764329 204 160 124
-44.1071 -269.756 -2048.52 0.905474 0.377336 -0.090975 59 57 58
-45.9315 -265.513 -2051.11 0.915864 0.327516 -0.150753 59 57 58
-18.5506 -343.335 -2048.48 0.860661 0.468599 -0.0829054 53 57 56
-20.8963 -334.562 -2050.92 0.960328 0.195886 0.046431 54 58 57
-11.9922 -351.123 -2045.84 0.804975 0.582071 -0.06487 55 59 58
-22.9051 -324.565 -2050.99 0.939599 0.253492 0.112067 59 63 63
-24.0982 -320.735 -2050.81 0.92713 0.299672 0.132051 60 64 64
-28.6287 -306.812 -2049.74 0.960653 0.215118 0.00895826 56 59 59
-30.4455 -295.385 -2049.9 0.948603 0.235626 -0.193501 56 58 59
-33.7586 -286.669 -2051.56 0.888427 0.349475 -0.246916 57 58 59
-34.4754 -284.685 -2050.21 0.871467 0.392409 -0.2247 57 58 58
-38.5457 -278.504 -2051.55 0.851244 0.44823 -0.245943 58 59 59
-51.5273 -244.852 -2047.5 0.93276 0.318308 -0.0239845 66 63 63
-57.9841 -230.168 -2048.22 0.938424 0.273933 0.060924 104 101 100
-58.7074 -225.967 -2046.4 0.945339 0.129608 0.0649731 87 84 84
-56.4552 -218.205 -2046.98 0.940115 -0.234799 -0.086393 40 41 46
-83.2668 301.834 -2050.51 0.68576 0.0671501 0.645994 39 34 37
-81.0469 308.418 -2051.51 0.72124 -0.000133105 0.66329 39 34 37
-79.5146 316.19 -2049.96 0.783942 -0.305598 0.490263 41 38 44
-75.1694 329.405 -2046.81 0.655588 -0.4354 0.185561 37 33 38
-230.285 -543.654 -2053.27 -0.688583 0.279025 0.541073 24 27 36
-226.942 -543.322 -2050.55 -0.623169 0.265858 0.600235 24 27 37
-230.168 -539.36 -2055.12 -0.697051 0.292549 0.552285 23 26 36
-221.336 -535.677 -2050.22 -0.574811 0.247426 0.631535 25 28 37
-223.123 -532.886 -2053.38 -0.661353 0.299431 0.619592 23 26 36
-228.96 -537.199 -2055.2 -0.69189 0.303705 0.59728 22 25 36
-218.049 -530.766 -2050.65 -0.573022 0.249555 0.646357 25 28 37
-219.068 -523.506 -2056.05 -0.66779 0.311207 0.624335 22 25 36
-211.83 -525.475 -2050.6 -0.561855 0.246095 0.646794 25 28 37
-211.436 -526.177 -2049.63 -0.539801 0.215056 0.652923 26 29 38
-211.9 -522.911 -2053.05 -0.610483 0.320003 0.630385 23 26 36
-203.385 -520.478 -2050.68 -0.505122 0.361148 0.619679 22 26 35
-193.178 -520.536 -2048.12 -0.306427 0.654901 0.585739 17 20 28
-205.881 -515.64 -2055.43 -0.623662 0.330256 0.613831 22 26 35
-196.137 -512.231 -2055.86 -0.54534 0.429417 0.595024 21 24 33
-203.924 -516.263 -2054.29 -0.608077 0.329135 0.61734 23 26 35
-189.049 -511.988 -2056.21 -0.306407 0.639314 0.578295 17 20 28
-182.343 -514.171 -2055.03 -0.244171 0.696021 0.578843 16 19 27
-344.039 -939.383 -2040.53 -0.45531 0.124591 -0.88323 45 53 49
-374.222 -923.531 -2043.33 -0.891253 0.217095 -0.384761 43 51 49
-371.289 -913.966 -2042.33 -0.916543 0.27163 -0.20934 43 51 49
-367.241 -903.404 -2041.31 -0.955246 0.184486 0.0937489 44 52 50
-354.184 -926.405 -2043.71 -0.441617 0.104887 -0.633622 43 50 47
-349.777 -909.471 -2044.29 -0.594613 0.0244434 -0.756409 40 47 44
-349.691 -909.098 -2042.65 -0.54898 0.00813658 -0.78726 41 49 45
-369.027 -895.011 -2042.79 -0.965916 -0.125343 -0.0508664 43 52 50
-371.972 -883.655 -2040.81 -0.957784 -0.122122 -0.0719249 42 51 49
-349.428 -899.493 -2043.4 -0.578789 -0.00211822 -0.782483 41 48 45
-349.798 -891.351 -2041.05 -0.539278 0.0439824 -0.817049 44 51 47
-349.206 -883.678 -2045.07 -0.653015 0.0353947 -0.73783 38 45 44
-348.738 -879.856 -2044.58 -0.608884 0.0461846 -0.756332 40 47 45
-371.479 -871.821 -2044.56 -0.908953 -0.00380983 -0.303128 41 50 48
-371.193 -869.072 -2045.88 -0.888924 0.0144416 -0.389985 41 50 48
-371.562 -855.329 -2044.14 -0.910545 0.0671071 -0.359367 43 52 49
-348.511 -877.495 -2046.11 -0.613456 0.049747 -0.755411 40 47 45
-348.121 -859.816 -2043.7 -0.602867 0.124349 -0.60608 41 49 46
-348.07 -856.259 -2042.96 -0.631922 0.127743 -0.241404 43 50 47
-339.489 -968.971 -2044.84 -0.504553 0.170189 -0.828923 46 52 48
-356.906 -572.344 -2041.42 -0.904354 0.180265 -0.375567 45 51 52
-355.572 -559.663 -2040.07 -0.87758 0.218186 -0.433676 44 50 51
-352.459 -557.738 -2044.34 -0.883487 0.191984 -0.427154 44 50 51
-348.687 -543.622 -2043.47 -0.885196 0.173817 -0.419071 46 52 53
-350.549 -535.798 -2040.02 -0.901641 -0.0138831 -0.384193 48 54 55
-348.95 -531.645 -2045.48 -0.91464 -0.172228 -0.353734 49 55 57
-352.41 -522.644 -2041.91 -0.943034 -0.0982705 -0.293066 48 54 56
-351.377 -509.995 -2044.27 -0.90945 0.0415084 -0.395041 48 54 55
-351.669 -501.007 -2046.15 -0.933567 -0.074397 -0.28006 47 54 54
-351.11 -492.338 -2039.94 -0.969652 0.0218529 0.119639 47 53 53
-352.379 -484.408 -2043.95 -0.965925 -0.0345426 0.126675 47 53 52
-351.991 -473.611 -2042.46 -0.94641 0.0964724 0.0946775 48 54 53
-349.55 -461.998 -2044.87 -0.937145 0.277069 -0.060765 50 56 55
-348.536 -455.354 -2041.67 -0.975194 0.184082 -0.0612208 50 56 55
-65.9359 -1135.95 -2041.76 0.435866 -0.647138 -0.389024 50 53 49
-61.0542 -1133.25 -2044.13 0.458172 -0.7719 -0.222291 49 53 48
-48.2305 -1128.89 -2043.39 0.469812 -0.827008 -0.164157 50 54 47
-91.4314 -1118.37 -2044.32 -0.000987768 -0.112904 -0.0712684 51 50 47
-92.3037 -1106.17 -2045.32 -0.493312 -0.583184 0.570721 42 41 39
-93.2409 -1097.56 -2041.29 -0.554601 -0.489386 0.648986 41 41 40
-96.2546 -1091.04 -2040.27 -0.565883 -0.442635 0.690178 38 40 39
-105.637 -1077.73 -2043.5 -0.615724 -0.240269 0.742153 37 41 39
-97.2452 -1087.77 -2039.74 -0.599902 -0.388582 0.692951 38 40 40
-105.334 -1072.72 -2041.88 -0.631616 -0.157575 0.752385 39 42 39
-108.544 -1068.98 -2043.88 -0.594877 -0.0663634 0.794252 39 42 38
-105.885 -1059.62 -2041 -0.665328 -0.0516677 0.74369 47 47 45
-107.974 -1054.48 -2043.35 -0.679275 0.0496815 0.730263 36 39 38
-37.1687 -1123.98 -2043.44 0.455689 -0.763191 -0.255772 49 53 46
-32.7909 -1122.17 -2043.02 0.440881 -0.812527 -0.284414 48 53 45
-14.7271 -1109.93 -2042.25 0.593214 -0.77985 0.0461937 45 51 44
-5.95887 -1103.46 -2045.54 0.612131 -0.75493 0.112317 47 52 46
8.39033 -698.78 -2043.03 0.826783 0.0950676 -0.0724636 48 54 53
7.09709 -674.428 -2041.22 0.950003 -0.283951 -0.189784 49 56 54
9.93564 -663.711 -2041.15 0.946981 -0.116142 -0.226561 45 51 50
8.48294 -656.019 -2045.7 0.976609 -0.036803 -0.219075 44 50 49
8.41268 -646.557 -2041.2 0.999832 -0.0245704 -0.0658944 44 50 49
9.65279 -632.212 -2045.26 0.986443 -0.001101 -0.0650859 43 51 49
9.16915 -626.393 -2044.88 0.970372 0.0577969 -0.111793 44 52 50
9.29667 -611.701 -2043.56 0.972506 -0.03051 0.0162698 44 52 51
9.60627 -608.851 -2044.73 0.973941 -0.0628878 0.0449711 44 52 51
-872.734 41.1968 -2046.06 -0.195285 -0.685457 0.573613 198 166 152
-861.997 38.5241 -2042.91 -0.0639637 -0.39124 0.700779 214 182 165
-861.151 40.0754 -2040.46 -0.0323199 -0.281689 0.748219 220 187 170
-851.141 34.1951 -2044.24 -0.135624 -0.535565 0.641108 205 173 158
-798.381 34.5073 -2044.38 0.21665 -0.82868 0.361053 166 143 125
-793.339 36.8556 -2042.89 0.249579 -0.804447 0.372545 164 141 122
-788.812 39.0571 -2044.72 0.227042 -0.691254 0.425204 171 146 128
-882.158 51.0504 -2044.99 -0.559475 -0.475154 0.665259 227 179 168
-883.905 55.0291 -2044.1 -0.615705 -0.396541 0.694239 232 183 172
-888.456 63.2198 -2045.7 -0.631694 -0.282433 0.721806 220 181 167
-885.085 69.0394 -2042.22 -0.586966 -0.131207 0.759085 219 181 167
-890.562 76.8445 -2046.25 -0.537585 -0.479133 0.636921 224 183 170
-884.124 79.5489 -2042.5 -0.482406 0.0435799 0.750297 232 194 184
-214.771 210.571 -2044.88 -0.668542 -0.547178 -0.492572 133 93 71
-226.059 221.615 -2039.77 -0.832961 -0.29303 -0.433505 230 181 154
-227.379 231.34 -2045.83 -0.789987 -0.470292 -0.352568 210 157 134
-233.049 239.683 -2041.69 -0.827643 -0.52585 -0.00429635 216 160 138
-229.865 234.105 -2042.89 -0.809365 -0.517669 -0.189702 223 165 141
-250.69 266.235 -2045.92 -0.642552 -0.508935 -0.476266 35 24 27
-259.46 274.092 -2045.55 -0.74081 -0.457216 -0.244981 35 24 27
-259.596 275.869 -2041.76 -0.796055 -0.507076 0.168115 35 25 28
-262.525 289.628 -2044.95 -0.821963 0.0539372 -0.391071 39 27 31
-256.071 298.515 -2044.04 -0.795211 0.380604 -0.395196 39 30 34
-250.462 305.956 -2042.93 -0.781657 0.405752 -0.463956 41 33 37
-247.013 308.242 -2045.63 -0.754014 0.315687 -0.554896 39 32 36
-246.481 322.307 -2040.61 -0.788046 0.0963526 -0.296718 44 39 43
-245.604 327.324 -2041.85 -0.766365 0.0874138 -0.238673 43 38 42
-237.911 247.329 -2043.64 -0.89762 -0.375618 -0.0715554 201 153 137
-241.979 258.575 -2044.32 -0.855458 -0.43861 -0.201621 115 87 83
-108.463 216.768 -2040.32 0.900501 -0.381422 -0.169745 145 99 75
-105.44 226.964 -2045.75 0.886135 -0.42156 -0.145679 93 65 53
-93.5557 236.38 -2041.36 0.64548 -0.675739 0.157808 98 68 57
-91.4548 236.841 -2043.93 0.641628 -0.671445 0.177385 85 61 54
-85.411 241.594 -2043.82 0.731322 -0.560635 0.290481 76 57 54
-82.7025 252.479 -2041.85 0.810025 -0.28628 0.465267 57 43 44
-81.7791 258.053 -2042.41 0.829762 -0.148597 0.540942 44 33 37
-81.2798 269.977 -2042.9 0.876286 -0.0669731 0.240474 38 30 34
-78.6136 277.018 -2041.38 0.940946 -0.105515 -0.107249 38 30 36
-76.9704 288.179 -2040.61 0.843033 0.093283 -0.17171 37 29 35
-78.848 288.419 -2045.97 0.91594 0.160108 -0.176812 36 30 33
-21.4969 -1115.42 -2040.04 0.494269 -0.784308 0.0200154 33 37 32
-30.038 -1120.98 -2040.25 0.409623 -0.898766 -0.183337 47 54 44
-28.8862 -1119.84 -2037.57 0.429883 -0.875409 -0.0559021 39 45 36
-332.91 123.001 -2043.14 -0.195593 0.481852 0.470742 58 58 66
-340.51 122.665 -2046.62 -0.218233 0.461926 0.341422 68 65 72
-324.503 124.79 -2042.63 -0.20269 0.462072 0.552356 55 55 64
-320.544 126.088 -2042.11 -0.152002 0.400877 0.68979 55 56 65
-323.984 122.605 -2036.1 -0.0929587 0.255112 0.943179 54 57 69
-363.721 -908.449 -2033 -0.707473 0.398354 0.366728 45 54 51
-367.789 -888.988 -2032.69 -0.891491 -0.235128 0.349499 44 52 51
-362.477 -902.045 -2033.18 -0.738535 0.129885 0.512325 45 53 51
-363.188 -893.439 -2029.39 -0.81723 -0.221553 0.513726 45 53 51
-363.484 -885.283 -2027.76 -0.728431 -0.146072 0.51083 43 51 49
-368.762 -875.965 -2032.14 -0.852623 -0.106455 0.415455 42 50 49
-368.498 -863.083 -2028.26 -0.854264 -0.0886455 0.435151 46 53 52
-371.451 -854.223 -2031 -0.929846 0.0402876 0.256431 47 54 52
-366.182 -868.868 -2028.5 -0.746838 -0.115443 0.549391 44 52 50
-211.351 -845.952 -2029.02 0.85415 -0.0495171 0.521454 40 46 45
-210.641 -835.466 -2030.4 0.850647 -0.0297324 0.528414 39 45 44
-207.931 -831.323 -2033.31 0.829883 -0.0567444 0.554226 39 45 44
-209.602 -823.569 -2030.77 0.797595 -0.0181012 0.598086 39 45 44
-209.819 -817.549 -2030.98 0.758743 -0.0101804 0.646554 40 46 45
-210.67 -809.524 -2029.65 0.726272 -0.0510785 0.683754 39 45 44
-206.643 -798.076 -2030.87 0.736952 -0.076679 0.667187 37 43 42
-205.982 -790.818 -2031.67 0.768858 0.0248474 0.632142 36 42 41
-208.501 -788.188 -2029.84 0.781987 0.0342251 0.611341 37 43 42
-210.756 -782.134 -2028.11 0.814997 0.082737 0.568789 37 43 42
-209.285 -767.134 -2030.63 0.851962 -0.0319508 0.52032 39 45 44
-208.231 -762.03 -2032.18 0.83281 -0.0735669 0.547167 38 44 44
-209.945 -754.727 -2028.52 0.790816 -0.107349 0.593422 38 44 44
7.34875 -1085.71 -2033.49 0.740333 -0.563469 0.36074 47 52 48
12.2837 -1077.07 -2029.26 0.708119 -0.533031 0.392234 48 53 47
18.8521 -1068.95 -2027.8 0.778233 -0.456548 0.360358 46 52 47
21.3968 -1059.84 -2032.28 0.939043 -0.0890558 0.226797 47 53 46
20.5612 -1054.47 -2032.36 0.901824 0.0944751 0.278956 46 52 46
-93.4776 -1044.29 -2031.17 -0.535047 0.541622 0.600916 29 32 33
-88.454 -1042.54 -2029.89 -0.441674 0.687983 0.536137 29 32 32
-79.8255 -1039.76 -2028.01 -0.411572 0.789993 0.439188 29 33 32
-72.5923 -1031.64 -2030.94 -0.678788 0.430025 0.565857 33 37 36
-69.4647 -1023.47 -2029.23 -0.794666 0.246715 0.534925 34 38 37
-69.6021 -1012.31 -2032.87 -0.784281 0.129958 0.58736 32 37 36
-66.7884 -1006.01 -2028.31 -0.875899 0.105702 0.458622 34 38 38
-66.4109 -1001.01 -2028.12 -0.891321 0.101953 0.442438 34 38 38
-65.4476 -987.866 -2030.18 -0.813159 0.12193 0.553409 32 37 36
6.21044 -462.071 -2028.52 0.959441 0.15001 0.233778 56 63 62
6.36823 -459.948 -2032.37 0.964191 0.153583 0.227915 55 61 61
11.737 -496.951 -2027.82 0.984098 -0.0637431 0.0777034 51 58 60
11.8758 -481.304 -2032.9 0.977648 0.0418325 0.0707409 53 59 60
10.54 -477.588 -2027.9 0.955274 0.0759224 0.184698 52 59 59
8.18305 -466.5 -2032.25 0.964102 0.166325 0.153732 55 62 61
-347.6 -447.298 -2032.51 -0.982838 0.18622 -0.00678123 52 58 54
-346.029 -436.798 -2030 -0.987322 0.151668 0.000516954 50 57 53
-344.636 -427.948 -2033.09 -0.970078 0.179966 -0.126044 50 57 52
-342.255 -418.334 -2029.31 -0.935099 0.328099 -0.12497 50 57 53
-338.953 -409.654 -2033.8 -0.955482 0.263267 -0.130418 50 57 52
-337.156 -399.005 -2032.64 -0.971653 0.157809 -0.172349 47 54 50
-337.087 -391.508 -2030.26 -0.963135 0.105451 -0.205362 47 54 50
-335.118 -381.72 -2032.03 -0.927164 0.2042 -0.30454 49 56 51
-332.478 -368.528 -2027.24 -0.900444 0.341514 -0.26548 48 54 50
-469.008 93.866 -2028.1 0.0999556 0.341565 0.926636 248 244 239
-447.666 94.6587 -2029.03 0.0676521 0.373919 0.923176 246 241 237
-485.513 98.8652 -2029.77 0.120617 0.0141627 0.922559 246 230 221
-486.848 103.512 -2033.51 0.119291 -0.106339 0.920124 244 224 213
-478.405 96.3739 -2028.89 0.121163 0.240145 0.924133 249 241 233
-478.745 103.019 -2033.55 0.120021 -0.0792211 0.920439 245 225 215
-436.066 46.5467 -2028.12 0.220253 -0.28792 0.909881 226 196 186
-432.208 54.8845 -2027.79 0.271481 -0.136952 0.958996 230 204 195
-419.339 47.4114 -2030.28 0.0233511 -0.208124 0.956518 228 200 189
-420.025 56.5408 -2028.63 0.0209057 -0.143813 0.989407 223 200 191
-427.42 60.3233 -2028.08 0.138576 -0.191648 0.959555 222 199 189
-412.426 50.5046 -2028.97 -0.0548329 -0.130205 0.997883 225 201 189
-407.563 50.7171 -2028.54 -0.0694021 -0.129281 0.997734 204 183 171
-406.984 51.5065 -2028.35 -0.0701644 -0.125334 0.999076 200 180 168
-392.271 48.3557 -2027.83 -0.157855 -0.109563 0.97656 40 38 39
-390.891 45.8259 -2027.58 -0.219125 -0.0579542 0.971651 36 34 36
-33.2242 -291.611 -2032.48 0.902764 0.292671 0.245816 57 57 57
-33.4388 -290.467 -2033.02 0.891127 0.328114 0.247907 57 57 57
-42.3499 -276.938 -2033.8 0.83223 0.506353 0.214871 58 58 58
-55.12 -243.063 -2028.87 0.910153 0.376918 0.139559 73 72 68
-57.0411 -239.834 -2032.46 0.893129 0.405753 0.171947 87 83 79
-62.1059 -226.269 -2032.46 0.948952 -0.0229743 0.174334 73 67 65
-61.7222 -221.995 -2030.53 0.955013 -0.281333 0.172357 39 36 38
-55.7672 -210.243 -2028.49 0.911257 -0.35972 0.16928 34 36 43
-55.3245 -192.959 -2031.91 0.989858 0.0821022 0.123291 26 28 34
-55.8154 -188.835 -2030.97 0.986239 0.053348 0.144407 27 29 35
-56.0202 -180.578 -2030.3 0.984671 -0.0407883 0.160914 29 30 37
-370.381 -998.531 -2026.7 -0.887384 0.0949229 0.39478 50 55 53
-367.203 -985.644 -2024.96 -0.769236 0.211673 0.515429 49 55 53
-365.73 -988.005 -2023.2 -0.740332 0.235201 0.536924 48 53 51
-368.133 -973.465 -2022.06 -0.834474 0.0917083 0.359597 46 52 50
-368.435 -966.863 -2025.63 -0.821607 0.00513723 0.312119 48 54 51
-367.248 -957.537 -2026.05 -0.849688 0.127447 0.190197 49 56 53
-368.705 -935.653 -2021.47 -0.861762 -0.203368 0.301104 44 51 49
-364.963 -948.059 -2024.52 -0.761855 0.0606031 0.123629 46 53 50
-367.061 -939.029 -2023.59 -0.797501 -0.164864 0.399197 45 52 49
-372.948 -921.507 -2026.12 -0.868153 0.313997 0.320158 45 53 50
-366.735 -918.019 -2020.83 -0.700079 0.537807 0.405507 48 56 52
-214.648 -840.612 -2023.5 0.798436 -0.0374736 0.591186 40 47 46
-212.877 -835.893 -2026.69 0.833532 -0.0259167 0.550342 40 46 45
-215.002 -833.644 -2022.88 0.781404 -0.0383186 0.61081 40 47 46
-214.881 -826.131 -2023.74 0.76579 -0.0195651 0.63135 40 47 45
-216.605 -820.257 -2023.02 0.765815 -0.0594647 0.632862 39 45 44
-213.551 -806.668 -2025.88 0.730702 -0.0886439 0.675401 39 44 43
-211.559 -800.719 -2026.1 0.719262 -0.132218 0.683055 38 44 43
-210.583 -795.258 -2026.57 0.741197 -0.0953243 0.659788 38 44 43
-209.769 -790.613 -2027.57 0.766929 -0.0246311 0.630847 37 43 42
-212.232 -772.501 -2025.54 0.867309 0.00570178 0.495503 40 46 45
-214.422 -770.054 -2021.05 0.870331 -0.0011952 0.490799 40 46 46
-211.932 -757.485 -2025.7 0.829671 -0.0571873 0.551526 38 44 45
-59.6861 -974.201 -2022.28 -0.865996 0.0533246 0.478168 33 38 37
-59.4921 -965.794 -2022.73 -0.843829 0.018677 0.520069 30 36 35
-59.5878 -957.811 -2023.18 -0.821572 -0.0239358 0.5519 27 33 32
5.41364 -1013.7 -2021.31 0.680815 -0.0429587 0.567505 44 50 46
16.1904 -1051.09 -2021.96 0.913473 0.167173 0.315584 48 51 47
16.404 -1045.08 -2027.52 0.872137 0.25342 0.267798 45 49 45
11.7119 -1029.73 -2026.95 0.926948 0.235528 0.219415 42 46 42
10.504 -1025.9 -2026.44 0.89518 0.174456 0.252934 42 46 43
7.00172 -1006.88 -2027 0.735992 -0.00623579 0.683195 45 51 47
6.73481 -981.582 -2021.64 0.87156 0.0391687 0.448689 42 49 45
8.46108 -756.097 -2021.55 0.974288 0.0470812 0.200148 44 52 50
-131.784 -753.04 -2024.46 -0.664555 -0.242245 0.703301 28 33 37
-133.308 -745.759 -2022.53 -0.690047 -0.23419 0.682278 28 34 38
-135.131 -740.425 -2022.84 -0.721353 -0.164722 0.666974 28 33 38
-136.666 -727.461 -2023.78 -0.73321 -0.0846168 0.672986 27 32 38
-138.714 -719.336 -2025.1 -0.661518 -0.155929 0.72612 28 33 39
-139.564 -713.744 -2024.4 -0.623642 -0.20936 0.750328 28 34 39
-139.634 -704.693 -2021.34 -0.633083 -0.214305 0.745837 27 33 39
7.0111 -725.042 -2024.79 0.998126 -0.0216548 0.0453653 46 52 51
10.0704 -752.39 -2026.39 0.980953 0.067729 0.0996492 45 52 50
9.18839 -744.957 -2026.4 0.980544 0.137634 0.0533069 46 52 51
7.02293 -735.295 -2026.86 0.982877 0.182228 -0.00835009 46 52 51
7.96472 -715.644 -2025.58 0.99738 -0.0457667 0.11708 46 52 51
-674.954 57.7406 -2027.48 -0.363237 -0.289178 0.86164 227 198 181
-672.862 63.8899 -2025.17 -0.344969 -0.197692 0.901975 235 207 190
-669.434 66.3248 -2023.72 -0.315642 -0.182176 0.914802 238 210 194
-659.857 53.9653 -2026.35 -0.171378 -0.534437 0.824858 208 178 158
-643.567 48.4963 -2024.66 -0.266243 -0.504726 0.793761 200 170 154
-650.813 56.6765 -2023.5 -0.186946 -0.405733 0.892292 220 191 172
-664.903 57.9125 -2024.94 -0.226841 -0.409111 0.871224 220 190 172
-661.937 63.3904 -2022.26 -0.197974 -0.305751 0.923554 233 205 187
-649.323 58.3412 -2022.73 -0.185288 -0.385358 0.904006 226 197 179
-676.406 71.0173 -2026.72 -0.371426 -0.100695 0.908275 242 214 199
-671.527 72.7682 -2024.86 -0.363758 -0.02833 0.919766 246 221 208
-672.072 76.9865 -2025.66 -0.371458 0.0455808 0.923761 249 227 216
-671.683 85.9375 -2026.44 -0.355669 0.0313927 0.925252 249 229 219
-669.526 93.2537 -2026.32 -0.334028 -0.0391955 0.924446 248 227 217
-662.559 80.5409 -2022.1 -0.316251 0.00518056 0.947314 253 231 220
-660.125 84.9521 -2021.94 -0.296174 -0.0234841 0.948725 253 229 218
-653.003 91.2774 -2021.55 -0.248444 -0.0874947 0.945699 249 225 213
-641.497 49.6662 -2022.99 -0.253712 -0.469754 0.814596 204 175 158
-638.758 93.3252 -2021.98 -0.183892 -0.0280422 0.95083 249 226 214
-594.248 86.9433 -2021.71 0.0168045 0.676568 0.742791 255 238 227
-593.239 93.7558 -2026.79 0.00655083 0.658003 0.747814 254 237 226
-234.98 79.4971 -2023.04 0.503247 0.652486 0.535542 223 210 203
-224.373 71.8262 -2022.52 0.205517 0.720538 0.640422 216 198 186
-219.98 75.5599 -2026.24 -0.0202813 0.730439 0.669474 208 187 172
-241.213 87.5566 -2024.84 0.574133 0.650151 0.511237 112 109 119
-210.683 75.0923 -2021.97 -0.217517 0.714856 0.674482 209 185 170
-206.013 80.7832 -2024.51 -0.321997 0.60404 0.713029 204 180 165
-200.977 83.4781 -2022.98 -0.408285 0.422178 0.783409 202 178 162
-200.344 90.044 -2025.29 -0.552434 0.282041 0.75817 198 172 155
-30.3641 -315.544 -2023.02 0.912243 0.399269 0.00270043 63 66 64
-35.76 -292.776 -2024.92 0.926613 0.247029 0.242617 60 61 60
-38.2444 -288.859 -2021.75 0.897174 0.348042 0.230691 62 62 62
-56.197 -244.712 -2023 0.914024 0.357639 0.151228 68 68 63
-54.3489 -248.259 -2027.06 0.934098 0.325123 0.148262 52 54 50
-56.3509 -241.012 -2026.87 0.908459 0.383175 0.119059 89 86 80
-63.469 -227.588 -2022.49 0.906175 0.0386744 0.291787 91 84 78
-59.7649 -217.229 -2022.69 0.900842 -0.420298 0.178944 31 32 36
-58.2565 -215.407 -2026.45 0.896346 -0.422961 0.178164 33 34 40
-55.598 -200.606 -2025.65 0.983203 0.019315 0.146007 30 32 38
-56.7821 -189.833 -2025.68 0.975365 0.0763922 0.202209 29 31 37
-58.2112 -184.646 -2022.13 0.949829 0.0231578 0.283595 28 30 36
-55.6131 -169.792 -2022.72 0.955776 -0.166388 0.211093 30 32 38
-248.992 321.564 -2022.87 -0.74025 0.0473269 0.178215 45 36 41
-247.408 326.859 -2030.99 -0.744723 0.159514 0.125765 44 36 40
-363.366 -997.459 -2019.24 -0.755427 0.260868 0.542449 45 50 48
-358.049 -993.439 -2016.37 -0.657987 0.219089 0.722109 40 46 47
-360.186 -988.039 -2018 -0.580811 0.15288 0.725615 42 47 47
-364.266 -983.858 -2019.82 -0.585746 0.139381 0.652957 44 50 49
-368.376 -972.755 -2019.18 -0.75897 0.0254218 0.409251 44 50 49
-368.345 -964.043 -2015.69 -0.877923 0.00228386 0.136111 39 46 46
-364.961 -955.802 -2016.7 -0.781856 0.227745 0.253383 41 48 47
-369.423 -932.702 -2017.89 -0.85586 -0.0885494 0.221544 43 50 48
-361.634 -949.289 -2014.75 -0.683173 0.173364 0.473834 40 46 46
-366.614 -937.832 -2018.67 -0.793648 -0.163834 0.260675 43 50 48
-369.269 -921.842 -2015.34 -0.796681 0.262924 0.297942 45 52 49
-363.101 -915.848 -2018.86 -0.695834 0.515566 0.51672 50 57 53
-359.45 -911.872 -2021.07 -0.605075 0.423251 0.434574 49 57 53
-359.631 -907.539 -2018.77 -0.634308 0.247969 0.0917773 48 56 52
-359.105 -899.961 -2016.82 -0.750931 -0.0481582 -0.0604946 50 57 53
-358.119 -897.848 -2020.37 -0.73631 -0.0782676 0.284272 47 55 52
-360.762 -891.472 -2020.87 -0.75772 -0.212879 -0.0810744 50 57 54
-355.025 -662.033 -2017.11 -0.950489 -0.0496003 0.280899 47 53 52
-354.799 -656.415 -2015.02 -0.941239 -0.0328976 0.308599 46 52 51
-218.128 -840.925 -2018.45 0.709836 -0.0572568 0.690247 40 48 46
-217.852 -832.565 -2018.51 0.720039 -0.0595019 0.676987 41 48 46
-216.364 -836.322 -2020.6 0.752599 -0.0499028 0.64316 41 48 46
-220.001 -826.329 -2016.15 0.729669 -0.0389053 0.665115 41 48 46
-219.188 -814.181 -2020.53 0.788419 -0.0435978 0.607157 39 45 44
-219.737 -803.81 -2017.54 0.792473 -0.115136 0.594654 38 44 43
-219.139 -793.897 -2014.85 0.815581 -0.170059 0.554188 39 45 44
-217.238 -797.062 -2018.57 0.788283 -0.161732 0.592605 39 45 44
-215.263 -780.912 -2019.87 0.848273 -0.0151311 0.522582 39 45 44
-123.768 -1153.35 -2016.48 0.229688 0.578829 0.779391 218 181 147
-104.794 -1159.41 -2017.61 0.283927 0.813581 0.438237 162 125 96
-109.314 -1156.37 -2020.31 0.383087 0.750671 0.477615 167 129 99
-98.1907 -1159.49 -2018.58 0.526163 0.74574 0.208749 132 101 77
-73.827 -1184.15 -2020.48 0.39057 0.924355 -0.0631547 164 133 108
-77.8414 -1181.86 -2017.76 0.513505 0.83164 -0.133434 146 119 97
-58.4184 -1197.5 -2015.61 0.737159 0.549479 -0.298127 134 101 83
-66.5356 -1187.88 -2017.61 0.636547 0.675857 -0.143292 150 118 96
-85.3182 -1176.42 -2018.8 0.767399 0.596513 -0.173424 192 158 126
-89.2635 -1166.81 -2020.53 0.870513 0.365292 -0.0743191 131 114 86
-130.487 -1145.99 -2020.82 -0.10571 0.71359 0.647207 217 182 155
-129.923 -1152.11 -2015.46 0.189216 0.54531 0.838218 217 180 144
-120.558 -1149.46 -2020.59 0.354707 0.70066 0.594017 203 166 133
-80.3097 -1149.88 -2017.14 0.724185 -0.504391 -0.00892333 59 59 48
-79.4489 -1149.84 -2016.67 0.721319 -0.516218 -0.0135515 59 59 49
-69.4072 -1142.67 -2016.98 0.715549 -0.615541 -0.031696 56 58 49
-86.737 -1134.29 -2018.27 0.72039 -0.601541 0.0397062 57 56 47
6.71584 -586.392 -2017.37 0.974558 0.0109505 0.167289 48 56 56
6.95638 -567.667 -2020.56 0.987054 0.136876 0.122321 45 53 53
6.66556 -557.944 -2019.25 0.978674 -0.0275667 0.170576 49 56 56
7.34742 -592.39 -2021.3 0.974459 0.0546804 0.0870156 47 55 54
8.20157 -577.091 -2021.12 0.986051 0.00453112 0.129942 46 54 54
6.76252 -523.68 -2018.88 0.953271 0.0839927 0.26131 51 58 58
6.74983 -520.693 -2020 0.963447 0.0631942 0.22659 52 58 58
5.79198 -504.958 -2015 0.917992 -0.0132008 0.39083 54 60 59
7.97103 -546.827 -2016.1 0.968404 -0.0967119 0.214713 51 58 58
7.52915 -531.333 -2017.81 0.941588 0.114287 0.291567 53 59 59
-641.582 56.7724 -2020.68 -0.249543 -0.312746 0.912874 228 200 182
-651.139 66.9125 -2020.12 -0.156136 -0.29087 0.942151 245 220 205
-642.266 66.8197 -2018.75 -0.135799 -0.243054 0.952318 247 223 208
-657.23 73.4472 -2019.91 -0.220469 -0.139321 0.955586 251 227 214
-658.958 77.2586 -2020.24 -0.265722 -0.0576598 0.958354 254 231 219
-642.345 74.2749 -2017.78 -0.0922067 -0.117427 0.974054 253 230 217
-649.716 80.6872 -2018.61 -0.176419 -0.0775121 0.969657 254 230 219
-656.114 84.8296 -2020.61 -0.254012 -0.0497387 0.957279 253 229 218
-642.351 87.2348 -2020.05 -0.14996 -0.0184458 0.96942 253 229 217
-645.832 88.816 -2020.42 -0.191967 -0.0504667 0.961496 252 227 216
-638.339 51.8147 -2020.64 -0.222728 -0.38169 0.865111 214 185 168
-623.259 46.5596 -2021.08 -0.138922 -0.572093 0.791105 200 171 156
-615.849 50.9817 -2017.72 -0.148082 -0.463297 0.846734 211 180 164
-619.875 53.2378 -2017.44 -0.144716 -0.369156 0.897569 219 189 173
-640.286 61.9346 -2019.37 -0.19141 -0.25067 0.941884 240 214 197
-637.703 65.3377 -2018.41 -0.146049 -0.168148 0.962405 245 220 205
-635.218 66.4871 -2017.83 -0.128708 -0.10766 0.974015 246 222 207
-617.865 58.9328 -2015.53 -0.169836 -0.208151 0.959015 237 208 192
-626.551 66.66 -2016.9 -0.112552 -0.0156808 0.990494 247 222 208
-611.9 49.6738 -2017.42 -0.154275 -0.497109 0.830053 207 176 161
-610.023 52.4141 -2015.68 -0.173724 -0.40726 0.887755 220 189 172
-600.38 48.7912 -2016.1 -0.104788 -0.510616 0.841046 214 181 164
-614.546 58.5475 -2014.81 -0.193463 -0.23381 0.951754 238 209 193
-632.204 72.4012 -2017.74 -0.0857701 0.0141637 0.988812 252 229 217
-637.535 81.6705 -2018.89 -0.0694605 0.0594571 0.989114 255 232 221
-624.127 70.6427 -2016.52 -0.141021 0.0392329 0.987456 252 229 216
-628.224 81.6109 -2018.6 -0.106825 0.116459 0.987307 254 233 221
-635.419 85.2813 -2019.81 -0.0802707 0.0746878 0.983563 254 232 220
-633.379 83.7157 -2019.39 -0.0789778 0.0958151 0.987295 254 233 221
-634.859 89.6743 -2020.86 -0.10199 0.0526875 0.972379 252 230 218
-618.405 85.4806 -2017.65 -0.159267 0.133417 0.958931 254 233 220
-619.02 92.125 -2020.68 -0.0957007 0.0708221 0.96414 251 229 217
-592.951 79.6144 -2015.04 0.0102554 0.640779 0.7851 255 240 227
-610.742 89.8764 -2019.57 -0.0977014 0.284473 0.88352 252 232 219
-616.285 90.7485 -2019.61 -0.115613 0.110339 0.949583 252 230 218
-601.939 86.8301 -2019.5 -0.041153 0.533731 0.801266 253 235 222
-592.617 84.0484 -2019.34 0.0229335 0.676379 0.748987 255 239 227
-580.944 47.3513 -2015.46 -0.11741 -0.553392 0.815177 216 182 166
-237.426 280.433 -2021.1 -0.708171 0.481214 0.0378605 40 30 34
-231.225 287.287 -2020.74 -0.512855 -0.115398 0.172651 41 33 37
-236.236 291.268 -2019.05 -0.486811 -0.318605 0.141702 44 34 39
2.02893 -454.106 -2014.95 0.951796 0.229974 0.157182 56 62 61
-0.0950981 -435.047 -2018.95 0.977282 0.0486148 0.199716 48 54 53
0.00727989 -431.991 -2020.1 0.975278 0.0419076 0.214727 46 52 51
-1.55949 -418.808 -2017.3 0.964697 0.100413 0.168324 48 54 52
-2.44895 -414.166 -2014.83 0.954791 0.0753017 0.204681 49 55 52
-8.18052 -392.37 -2017.04 0.851866 0.286247 -0.37168 47 54 52
-3.46725 -403.974 -2019.49 0.828898 0.289442 -0.230738 48 53 52
-13.9815 -379.114 -2020.88 0.924847 0.204541 -0.19043 52 57 55
-18.2347 -363.407 -2017.47 0.9573 0.215914 0.0895471 51 56 55
-15.6985 -372.567 -2020.58 0.942929 0.18728 -0.0540855 56 61 59
-16.0657 -371.169 -2018.17 0.93247 0.255013 -0.0747543 55 61 59
-240.109 -1087.57 -2013.55 0.700749 -0.439814 0.554473 47 48 46
-235.733 -1079.88 -2014.06 0.712055 -0.334785 0.610037 46 49 46
-234.698 -1076.85 -2013.83 0.700414 -0.320163 0.627073 46 50 46
-231.209 -1061.08 -2013.42 0.760919 -0.181866 0.624747 45 49 46
-230.255 -1057.58 -2014.04 0.762493 -0.132844 0.633424 44 50 46
-367.931 -1036.06 -2010.44 -0.745824 -0.0940031 0.558928 47 50 50
-370.017 -1028.55 -2013.11 -0.807423 -0.102654 0.393191 51 54 53
-359.954 -1049.36 -2008.86 -0.611771 -0.112143 0.681951 42 46 47
-367.568 -1024.37 -2009.46 -0.629607 0.0379733 0.663909 44 48 48
-368.129 -1018.88 -2011.73 -0.622254 0.134036 0.635268 44 48 48
-364.564 -1018.37 -2008.98 -0.476821 0.196376 0.810376 40 46 46
-358.634 -1010.6 -2009.56 -0.415871 0.349401 0.823578 39 46 47
-359.307 -1007.47 -2011.15 -0.481316 0.346677 0.776747 40 46 47
-351.892 -677.741 -2013.63 -0.878125 -0.103188 0.443856 46 52 51
-353.13 -670.188 -2013.73 -0.891474 -0.134513 0.426993 47 53 52
-354.04 -660.458 -2013.99 -0.930881 -0.035173 0.346176 47 54 52
-230.832 -850.64 -2009.22 0.650998 -0.0769373 0.755195 42 50 48
-223.581 -852.796 -2013.89 0.63324 -0.0576443 0.772665 39 47 45
-222.105 -844.953 -2014.89 0.628877 -0.0622158 0.773207 39 48 45
-223.111 -837.277 -2013.13 0.627658 -0.10211 0.769814 41 49 47
-223.146 -831.646 -2012.35 0.65718 -0.0904561 0.738507 41 49 47
-223.629 -823.732 -2011.68 0.744652 -0.00923486 0.64911 41 48 47
-223.737 -809.748 -2012.93 0.82953 -0.024725 0.554361 39 44 43
-221.617 -804.39 -2014.9 0.812988 -0.101642 0.567867 38 44 43
-221.855 -800.88 -2013.46 0.813663 -0.140229 0.561288 38 44 43
-219.876 -783.807 -2011.51 0.842419 -0.081664 0.530876 39 45 44
-219.811 -779.26 -2011.53 0.858517 -0.0357631 0.507991 38 44 44
-129.674 -1160.19 -2011.52 0.0228236 0.520007 0.838418 234 197 166
-128.495 -1156.15 -2013.66 0.128678 0.525863 0.849883 226 188 154
-111.951 -1161.57 -2013.27 0.0848251 0.747612 0.614246 196 158 125
-110.907 -1161.1 -2013.6 0.0985608 0.763666 0.594731 191 153 121
-100.455 -1160.08 -2014.95 0.332829 0.842635 0.316838 149 115 88
-80.5373 -1178.14 -2009.32 0.677805 0.696332 -0.208149 192 154 120
-71.1486 -1183.3 -2012.06 0.455308 0.84837 -0.20432 129 105 85
-58.2365 -1191.98 -2010.57 0.70987 0.5823 -0.379633 145 113 93
-51.5249 -1198.73 -2012.69 0.638379 0.656087 -0.360281 140 106 87
-47.9755 -1198.91 -2011.3 0.590732 0.723143 -0.277753 148 113 92
-66.3876 -1185.08 -2010.88 0.523009 0.759995 -0.298509 153 122 99
-83.5596 -1176.69 -2014.43 0.748401 0.62348 -0.179957 190 156 123
-91.4566 -1163.47 -2014.75 0.684169 0.60788 0.0408282 123 101 76
-84.9233 -1146.84 -2010.06 0.695301 -0.626673 0.160349 52 51 42
-76.9665 -1146.85 -2009.32 0.711353 -0.640904 0.027566 53 54 45
-71.8869 -1144.35 -2012.86 0.712774 -0.630902 -0.029588 55 57 48
-86.971 -1138.2 -2010.05 0.708934 -0.620229 0.202882 52 50 40
-92.4138 -785.796 -2013.4 -0.306931 -0.259996 0.913284 36 42 42
-98.4211 -778.696 -2013.92 -0.307881 -0.251996 0.91681 35 41 42
-99.3316 -777.355 -2013.78 -0.304307 -0.253958 0.917467 35 41 42
-96.5126 -776.115 -2012.35 -0.309097 -0.256089 0.915329 35 41 42
-96.7784 -771.454 -2010.86 -0.305555 -0.271361 0.912575 35 41 42
-105.485 -760.476 -2010.72 -0.40564 -0.242246 0.879252 36 42 43
-117.209 -753.383 -2014.49 -0.511059 -0.236684 0.823837 32 38 39
-102.989 -764.005 -2010.51 -0.368596 -0.253207 0.892852 36 42 43
-82.1296 -791.715 -2013.36 -0.144028 -0.36534 0.914371 33 41 39
-76.8834 -794.486 -2014.12 -0.171477 -0.377578 0.903616 32 41 39
-72.975 -794.286 -2012.83 -0.263861 -0.364762 0.880773 32 40 38
-81.0459 -785.77 -2011 -0.175687 -0.296467 0.932008 34 42 40
-92.2647 -780.236 -2012.13 -0.291935 -0.255205 0.919308 36 42 42
-77.1311 -788.944 -2011.29 -0.184316 -0.326056 0.918091 33 41 39
-74.0901 -785.334 -2009.38 -0.189534 -0.251788 0.942706 33 41 38
-65.417 -799.068 -2009.63 -0.550818 -0.22654 0.777957 31 38 36
-92.5526 -776.003 -2011.14 -0.281043 -0.253723 0.923167 36 41 42
-292.097 -254.1 -2009.67 -0.826123 0.304848 0.449161 52 56 55
-288.436 -242.038 -2010.49 -0.870142 0.333931 0.350796 87 84 77
-284.244 -233.005 -2011.31 -0.771728 0.480726 0.375785 126 114 101
-277.303 -227.225 -2012.12 -0.622786 0.611148 0.427747 172 151 132
-267.554 -223.692 -2009.32 -0.582425 0.601266 0.549519 197 167 142
-281.564 -206.299 -2014.94 -0.704073 -0.653734 0.228898 56 47 47
-271.58 -212.078 -2011.95 -0.699813 -0.247747 0.512344 132 108 96
-272.003 -210.403 -2010.13 -0.66986 -0.449777 0.472516 111 90 81
-294.164 -195.989 -2014.03 -0.828413 -0.516037 0.128302 39 37 42
-297.079 -185.891 -2008.3 -0.931964 -0.230217 0.120026 35 34 40
-297.782 -179.351 -2011.28 -0.973782 -0.0377347 0.0711268 36 36 44
-296.029 -168.653 -2011.95 -0.978918 0.11769 -0.00766796 33 32 39
-320.168 20.0825 -2011.34 -0.602515 -0.318806 0.716149 35 34 46
-314.399 0.302283 -2011.35 -0.685224 -0.450971 0.550167 28 28 37
-315.984 9.19874 -2009.7 -0.743413 -0.26842 0.590235 30 29 41
-326.442 23.1343 -2013.75 -0.497266 -0.347463 0.782928 36 34 46
-321.213 25.1053 -2009.78 -0.56092 -0.269961 0.760979 37 36 48
-330.705 33.6622 -2013.8 -0.43533 -0.151429 0.880907 37 37 49
-326.329 32.6433 -2010.98 -0.503023 -0.161402 0.844935 36 36 48
-328.35 44.1181 -2012.82 -0.384107 -0.0298149 0.918698 35 34 46
-335.643 50.0918 -2014.92 -0.227571 -0.119639 0.964862 34 33 45
-332.294 57.0275 -2013.6 -0.192894 -0.0407657 0.974668 40 39 51
-321.45 46.0775 -2009.55 -0.422977 0.053616 0.902423 33 33 45
-327.637 54.4561 -2012.68 -0.255217 -0.000224932 0.960849 40 39 51
-337.188 62.9152 -2014.48 -0.122326 0.0125011 0.982895 39 38 50
-341.278 66.1651 -2014.68 -0.117079 0.0515062 0.981074 38 37 49
-45.6816 -279.724 -2011.55 0.837725 0.43333 0.292172 63 64 64
-46.2939 -276.523 -2013.95 0.869157 0.406431 0.231369 62 62 62
-52.0094 -261.967 -2009.85 0.883398 0.311862 0.298492 58 58 56
-21.5173 -349.539 -2010.89 0.941363 0.254687 0.179499 54 60 58
-22.7222 -345.456 -2010.49 0.915962 0.324368 0.194089 58 64 62
-24.7667 -340.458 -2009.63 0.889255 0.403054 0.208125 62 68 66
-31.1046 -321.634 -2009.34 0.907845 0.20794 0.367133 67 69 70
-29.8057 -318.509 -2013.54 0.914853 0.264443 0.27313 67 69 70
-33.3999 -309.063 -2014.3 0.915523 0.295357 0.203927 66 68 68
-34.8271 -303.674 -2015.17 0.933948 0.246489 0.182018 63 65 65
-39.4959 -293.718 -2009.61 0.873487 0.286157 0.366586 64 67 67
-68.6117 -239.046 -2008.94 0.624538 0.565874 0.469404 185 169 151
-119.682 150.885 -2013.56 0.974627 -0.172971 -0.123541 200 166 140
-118.704 153.553 -2007.61 0.975732 -0.195682 -0.0641365 192 160 136
-111.632 168.668 -2011.78 0.91957 -0.383477 -0.0566507 201 164 141
-111.1 171.303 -2010.96 0.919037 -0.337491 -0.119971 202 165 141
-111.885 188.424 -2014.38 0.93051 0.0142227 -0.348224 201 163 140
-110.682 190.619 -2012.12 0.914625 -0.0436418 -0.37254 203 164 142
-109.858 194.804 -2012.01 0.890013 -0.17725 -0.377617 202 162 141
-101.123 211.737 -2011.86 0.89116 -0.427377 -0.0225187 210 172 151
-98.5168 217.526 -2012.05 0.898588 -0.370612 0.0869133 215 174 153
-98.3029 230.429 -2009.85 0.949005 0.157963 -0.0296784 199 152 131
-99.7621 233.099 -2013.91 0.945247 0.288419 -0.0108625 183 131 106
-106.036 249.291 -2009.43 0.992229 0.123986 -0.0225372 93 68 63
-103.548 256.609 -2013.29 0.928267 -0.0933981 0.0543649 78 61 62
-245.345 -1087.86 -2007.37 0.640637 -0.412806 0.623385 47 48 46
-244.93 -1082.99 -2003.94 0.628315 -0.377387 0.657111 47 48 46
-241.442 -1145.57 -2002.23 -0.639838 0.417655 0.661308 141 110 85
-226.709 -1149.04 -2008.54 -0.335365 0.542941 0.546846 156 130 110
-218.163 -1144.23 -2006.59 -0.361847 0.72369 0.49205 204 168 142
-208.805 -1141.6 -2003.62 -0.0261264 0.695823 0.544691 228 191 163
-198.492 -1148.68 -2006.19 0.621928 0.676523 0.307848 202 166 135
-207.32 -1139.87 -2006.64 0.0667408 0.799904 0.373561 237 199 171
-245.198 -1025.62 -2006.26 0.762256 0.192844 0.605443 39 45 41
-247.501 -1009.26 -2004.29 0.890724 0.0713862 0.455093 39 46 42
-246.987 -1007.15 -2007.42 0.910676 0.0954583 0.410885 38 46 42
-330.287 -999.473 -2005.91 -0.222801 0.20457 0.939565 33 39 37
-330.072 -992.001 -2008.06 -0.166726 0.0583249 0.961019 36 41 39
-323.523 -997.081 -2004.85 -0.262824 0.166645 0.911259 34 42 39
-326.998 -993.675 -2006.24 -0.235241 0.134032 0.933513 35 41 39
-317.373 -990.265 -2002.69 -0.453162 -0.0785901 0.872846 42 49 43
-329.623 -987.498 -2008.13 -0.162635 -0.0220697 0.968929 36 41 39
-337.377 -980.206 -2007.68 -0.173875 -0.0575573 0.973096 35 41 39
-333.36 -983.922 -2007.77 -0.146048 -0.0194697 0.979412 35 40 38
-318.07 -984.771 -2003.16 -0.474534 0.0183885 0.869795 42 49 44
-324.512 -979.614 -2005.24 -0.300249 -0.0495128 0.92783 38 43 40
-337.712 -974.697 -2006.89 -0.182783 -0.126888 0.969027 35 40 39
-332.309 -972.721 -2005.46 -0.231815 -0.131881 0.939691 35 40 38
-333.774 -967.622 -2004.68 -0.247957 -0.133026 0.945962 35 40 39
-326.465 -971.92 -2004.33 -0.350138 -0.110928 0.879821 37 42 40
-324.076 -970.922 -2003.85 -0.402225 -0.0902012 0.855968 39 44 41
-319.041 -969.69 -2002.7 -0.615335 -0.111265 0.698833 39 44 41
-330.456 -963.378 -2003.29 -0.323829 -0.0926269 0.922585 37 41 40
-341.343 -958.62 -2005.91 -0.252658 -0.0259018 0.964612 37 42 41
-327.148 -959.68 -2003.28 -0.331813 -0.0410831 0.925478 39 45 42
-324.805 -952.979 -2003.06 -0.331532 -0.0876757 0.935516 42 49 44
-248.436 -1001.79 -2005.4 0.937825 0.0596042 0.364438 38 45 41
-249.105 -989.064 -2004.52 0.927422 -0.0193237 0.377277 39 46 42
-246.847 -979.566 -2007.43 0.894047 -0.0843124 0.438985 39 46 42
-246.726 -968.924 -2004.84 0.895325 -0.0945923 0.435298 38 45 41
-245.484 -961.79 -2006.06 0.870994 -0.133356 0.471775 38 45 41
-245.476 -956.819 -2004.36 0.856196 -0.155867 0.489337 39 46 42
-238.377 -1041.99 -2005.66 0.732956 0.263585 0.613997 39 43 39
-92.518 -764.349 -2006.98 -0.2623 -0.313894 0.909272 36 42 43
-101.991 -759.085 -2008.33 -0.401619 -0.289203 0.86939 36 42 43
-69.4489 -786.754 -2008.35 -0.278778 -0.254675 0.911297 33 41 38
-72.3083 -779.394 -2008.14 -0.182266 -0.127625 0.97271 33 41 38
-61.3051 -797.328 -2005.78 -0.667824 -0.185906 0.724307 30 36 35
-62.1402 -787.215 -2004.75 -0.533465 -0.162453 0.812622 32 39 38
-63.2801 -782.427 -2004.84 -0.451439 -0.105029 0.867556 33 40 38
-81.607 -772.408 -2008.25 -0.125912 -0.189674 0.970502 36 43 42
-85.572 -766.87 -2007.13 -0.131262 -0.246731 0.950424 36 43 43
-72.4157 -776.989 -2008.1 -0.160492 -0.0929876 0.984308 33 41 38
-77.7114 -769.446 -2007.65 -0.0670576 -0.140067 0.983536 35 43 41
-88.096 -765.159 -2006.63 -0.161294 -0.282294 0.935325 36 43 43
-87.1729 -762.429 -2005.66 -0.102759 -0.28382 0.938605 37 43 43
-81.2624 -756.681 -2005.1 0.140042 -0.24349 0.957438 37 43 43
-79.3152 -761.442 -2006.46 0.0715956 -0.187845 0.973954 36 43 42
-77.2577 -754.375 -2005.82 0.182089 -0.239365 0.955374 36 43 42
-72.5564 -756.924 -2007.46 0.135687 -0.18484 0.971889 36 43 42
-59.4945 -773.721 -2003.2 -0.486727 0.0533012 0.863142 33 40 38
-60.5336 -770.698 -2004.3 -0.405309 0.0835965 0.897741 33 39 38
-67.081 -764 -2007.76 -0.0768358 -0.0105201 0.984284 34 42 39
-65.2492 -754.522 -2006.81 -0.0300998 -0.16931 0.955289 36 43 41
3.11457 -849.562 -2004.05 0.911083 -0.122208 0.386138 43 50 47
3.93423 -845.361 -2004.96 0.919572 -0.100194 0.359759 43 50 48
4.62704 -832.513 -2004.66 0.968025 -0.00750936 0.14909 43 49 47
5.25086 -824.156 -2003.64 0.982898 -0.00683557 0.0402597 43 49 47
5.67116 -809.322 -2005.45 0.977893 -0.0497631 0.112361 43 49 47
5.49869 -807.94 -2005.12 0.974927 -0.0312058 0.136084 43 49 48
-328.01 -359.329 -2009.44 -0.887943 0.353075 0.19774 49 56 52
-324.092 -348.028 -2005.19 -0.918206 0.239909 0.262002 53 60 57
-322.603 -341.24 -2008.14 -0.932588 0.313299 0.144694 49 57 54
-318.343 -331.641 -2004.62 -0.908771 0.311895 0.22866 54 61 59
-314.191 -321.711 -2004.56 -0.903277 0.315117 0.251446 53 59 57
-312.234 -311.788 -2005.9 -0.928741 0.1862 0.283541 54 60 58
-309.753 -307.169 -2002.56 -0.874626 0.202606 0.40475 55 61 61
-311.156 -301.703 -2007.57 -0.909213 0.262011 0.261147 53 58 56
-302.632 -290.642 -2003.68 -0.799057 0.387509 0.445507 53 59 58
-300.371 -284.033 -2001.6 -0.884381 0.295305 0.34306 55 59 57
-297.486 -273.345 -2003.93 -0.886821 0.306304 0.336896 56 58 55
-296.054 -265.716 -2007.22 -0.87325 0.32205 0.340549 54 57 55
-263.433 71.9476 -2006.37 0.0928907 0.358941 0.924984 57 59 73
-260.914 71.6362 -2006.56 0.0804311 0.349522 0.930962 56 58 72
-253.041 73.9552 -2007.91 0.0795399 0.398691 0.911393 53 56 70
-231.464 53.6703 -2003.02 0.387817 0.486679 0.783641 248 245 247
-226.055 54.5475 -2006.06 0.275251 0.545697 0.787607 251 246 244
-217.169 57.1816 -2007.48 0.0649732 0.552042 0.828556 231 218 210
-233.398 60.1009 -2005.35 0.410826 0.499952 0.761082 233 229 231
-238.42 64.5248 -2004.99 0.397023 0.524769 0.748211 201 199 203
-217.381 49.2436 -2003.49 0.140888 0.509365 0.845472 237 226 220
-208.293 49.0571 -2005.61 0.248456 0.416537 0.856779 224 205 194
