ply
format ascii 1.0
comment Created by Open3D
element vertex 1496
property double x
property double y
property double z
property uchar red
property uchar green
property uchar blue
end_header
-450.314 161.228 -2012 38 50 97
-445.668 161.019 -2010 39 51 98
-441.913 161.13 -2012 39 51 99
-437.936 161.162 -2013 38 50 99
-434.82 161.515 -2018 35 47 96
-430.407 161.387 -2017 32 44 93
-427.058 161.66 -2021 35 47 96
-423.278 161.774 -2023 42 54 104
-419.493 161.888 -2025 45 57 108
-415.088 161.762 -2024 54 66 117
-410.284 161.478 -2021 47 59 110
-405.095 161.034 -2016 43 55 106
-399.93 160.591 -2011 46 57 111
-395.97 160.627 -2012 49 60 114
-391.814 160.584 -2012 50 61 117
-387.854 160.622 -2013 51 61 118
-384.084 160.739 -2015 50 59 117
-380.309 160.857 -2017 47 58 116
-375.969 160.736 -2016 41 52 109
-372.006 160.775 -2017 44 53 105
-368.041 160.815 -2018 43 52 103
-363.896 160.775 -2018 40 49 100
-359.575 160.657 -2017 38 48 90
-355.613 160.697 -2018 37 47 88
-351.302 160.58 -2017 37 45 85
-347.515 160.701 -2019 38 46 87
-343.382 160.663 -2019 37 45 85
-339.252 160.627 -2019 34 42 80
-335.456 160.749 -2021 35 43 77
-331 160.554 -2019 30 39 65
-327.364 160.757 -2022 28 37 66
-323.718 160.961 -2025 27 36 66
-320.694 161.482 -2032 30 37 70
-317.021 161.686 -2035 29 36 71
-313.185 161.811 -2037 30 37 73
-309.495 162.016 -2040 31 38 72
-305.347 161.983 -2040 30 37 71
-301.791 162.268 -2044 28 35 69
-297.639 162.235 -2044 29 36 70
-294.208 162.6 -2049 30 37 71
-290.051 162.569 -2049 29 36 72
-286.175 162.697 -2051 28 35 71
-282.294 162.825 -2053 31 38 76
-278.542 163.033 -2056 39 47 83
-273.846 162.686 -2052 48 56 92
-269.826 162.736 -2053 50 60 100
-265.157 162.39 -2049 43 51 91
-260.889 162.283 -2048 41 48 86
-257.003 162.414 -2050 42 47 87
-253.234 162.624 -2053 45 49 89
-249.455 162.835 -2056 44 48 87
-245.666 163.046 -2059 39 44 83
-241.515 163.02 -2059 31 38 75
-237.827 163.311 -2063 255 255 255
-234.352 163.76 -2069 255 255 255
-230.631 164.052 -2073 255 255 255
-227.006 164.423 -2078 255 255 255
-223.255 164.716 -2082 255 255 255
-219.385 164.929 -2085 32 37 68
-215.092 164.827 -2084 30 35 67
-211.209 165.042 -2087 30 35 68
-207.118 165.098 -2088 30 34 65
-203.704 165.709 -2096 29 33 62
-199.594 165.766 -2097 26 30 53
-195.668 165.982 -2100 28 32 55
-191.822 166.278 -2104 29 33 60
-187.606 166.258 -2104 29 34 62
-183.652 166.475 -2107 28 33 62
-179.262 166.298 -2105 27 32 60
-175.048 166.279 -2105 27 32 60
-170.916 166.339 -2106 27 33 62
-166.624 166.242 -2105 28 33 62
-162.491 166.304 -2106 29 34 63
-158.355 166.366 -2107 29 34 64
-154.29 166.507 -2109 27 33 62
-150.147 166.57 -2110 26 33 62
-145.863 166.475 -2109 27 34 63
-141.584 166.381 -2108 27 34 63
-137.114 166.051 -2104 30 38 64
-132.852 165.957 -2103 30 38 63
-128.533 165.786 -2101 27 35 59
-124.519 166.009 -2104 25 33 58
-120.665 166.469 -2110 25 33 59
-116.679 166.772 -2114 24 32 58
-112.571 166.918 -2116 23 31 57
-108.609 167.3 -2121 22 30 56
-104.333 167.21 -2120 20 28 53
-100.251 167.436 -2123 18 26 51
-96.0218 167.426 -2123 16 24 48
-91.7503 167.337 -2122 20 28 52
-87.566 167.406 -2123 20 28 52
-83.2606 167.239 -2121 21 29 55
-79.0384 167.231 -2121 21 29 56
-74.8168 167.223 -2121 21 28 57
-70.6625 167.373 -2123 20 28 56
-66.5007 167.523 -2125 25 33 59
-62.2435 167.437 -2124 23 32 64
-58.1002 167.667 -2127 31 39 70
-53.8692 167.662 -2127 38 46 68
-49.919 168.602 -2139 73 79 93
1.12746 171.093 -2171 78 62 57
5.44026 171.014 -2170 77 61 57
9.67271 169.597 -2152 255 0 0
13.9504 169.598 -2152 255 0 0
18.203 169.363 -2149 255 0 0
22.4331 169.05 -2145 255 0 0
26.6599 168.816 -2142 255 0 0
30.9905 169.213 -2147 255 0 0
35.3084 169.453 -2150 255 0 0
39.6201 169.615 -2152 255 0 0
43.8791 169.541 -2151 255 0 0
48.2014 169.703 -2153 97 67 58
52.3614 169.314 -2148 97 66 57
56.6074 169.241 -2147 101 67 55
60.9635 169.484 -2150 100 66 53
65.3622 169.806 -2154 99 65 52
69.7449 170.05 -2157 96 68 54
74.1401 170.294 -2160 255 0 0
78.4392 170.302 -2160 255 0 0
82.5854 169.995 -2156 255 0 0
87.039 170.32 -2160 97 68 56
91.2552 170.171 -2158 99 67 57
95.5085 170.102 -2157 99 69 59
149.65 173.178 -2194 99 74 68
397.268 174.503 -2190 200 163 143
405.16 174.112 -2184 208 170 153
410.406 174.475 -2188 216 179 162
-1154.43 174.477 -2064 170 125 102
-1153.44 175.01 -2072 166 127 105
-1146.32 174.615 -2069 165 122 101
-1141.43 174.559 -2070 156 111 92
-1136 174.419 -2070 144 101 83
-1132.23 174.532 -2073 127 92 76
-1126.82 174.394 -2073 126 92 76
-1123.58 174.592 -2077 119 88 73
-1119.27 174.623 -2079 115 87 76
-1119.24 175.326 -2089 114 99 89
-1099.37 174.334 -2082 109 107 98
-1092.98 174.033 -2080 113 112 98
-1078.76 172.48 -2063 110 94 79
-1070.36 171.848 -2057 115 94 75
-1065.63 171.803 -2058 130 104 75
-1062.97 172.091 -2063 141 105 74
-1055.68 171.63 -2059 144 105 74
-1053.02 171.919 -2064 148 106 76
-1050.34 172.209 -2069 150 103 71
-1042.09 171.584 -2063 152 100 70
-1033.88 170.96 -2057 154 101 73
-1028.21 170.754 -2056 157 103 76
-1020.57 170.216 -2051 156 103 73
-1014.45 169.928 -2049 158 104 74
-1007.36 169.476 -2045 160 105 74
-1003.74 169.605 -2048 158 102 69
-998.648 169.485 -2048 160 103 70
-990.658 168.87 -2042 159 100 65
-985.12 168.67 -2041 160 100 64
-979.118 168.389 -2039 162 101 64
-973.136 168.108 -2037 156 98 68
-970.501 168.405 -2042 156 98 69
-966.906 168.538 -2045 152 95 67
-961.895 168.424 -2045 146 90 64
-958.766 168.64 -2049 146 91 66
-951.438 168.116 -2044 141 86 63
-943.218 167.429 -2037 137 85 68
-937.345 167.154 -2035 133 84 64
-932.866 167.126 -2036 255 0 0
-926.569 166.771 -2033 255 0 0
-923.469 166.99 -2037 255 0 0
-919.908 167.128 -2040 123 76 57
-914.997 167.021 -2040 120 75 54
-910.541 166.996 -2041 121 76 57
-905.203 166.809 -2040 121 73 55
-898.995 166.458 -2037 255 0 0
-894.128 166.354 -2037 255 0 0
-889.706 166.332 -2038 255 0 0
-883.986 166.066 -2036 255 0 0
-879.58 166.045 -2037 255 0 0
-876.896 166.351 -2042 255 0 0
-872.061 166.249 -2042 255 0 0
-865.537 165.823 -2038 255 0 0
-860.729 165.724 -2038 255 0 0
-855.51 165.543 -2037 255 0 0
-849.051 165.12 -2033 255 0 0
-843.865 164.942 -2032 255 0 0
-840.757 165.169 -2036 255 0 0
-834.765 164.83 -2033 255 0 0
-830.836 164.896 -2035 255 0 0
-826.094 164.801 -2035 255 0 0
-822.167 164.869 -2037 255 0 0
-816.634 164.613 -2035 255 0 0
-811.118 164.358 -2033 255 0 0
-806.413 164.266 -2033 51 41 54
-801.715 164.174 -2033 42 37 54
-796.633 164.003 -2032 33 35 54
-792.733 164.073 -2034 33 35 56
-787.281 163.822 -2032 255 0 0
-782.232 163.653 -2031 255 0 0
-776.429 163.323 -2028 255 0 0
-772.169 163.315 -2029 33 34 57
-766.777 163.067 -2027 31 35 60
-761.778 162.9 -2026 34 37 62
-757.912 162.975 -2028 35 36 62
-753.672 162.97 -2029 32 33 59
-749.436 162.966 -2030 31 33 59
-745.201 162.962 -2031 28 31 56
-739.511 162.638 -2028 28 31 62
-735.291 162.635 -2029 29 31 61
-729.993 162.392 -2027 32 35 63
-726.5 162.551 -2030 31 32 58
-721.578 162.389 -2029 32 33 60
-717.374 162.389 -2030 33 34 64
-712.821 162.309 -2030 30 34 63
-708.624 162.309 -2031 27 31 59
-703.735 162.15 -2030 27 31 58
-700.236 162.312 -2033 29 33 58
-696.045 162.314 -2034 30 34 60
-691.175 162.156 -2033 30 35 62
-686.993 162.159 -2034 30 35 62
-682.813 162.163 -2035 29 34 61
-678.3 162.087 -2035 27 31 58
-673.464 161.933 -2034 24 28 54
-669.624 162.017 -2036 23 27 52
-665.455 162.023 -2037 25 30 59
-660.964 161.949 -2037 28 33 59
-657.123 162.035 -2039 28 33 58
-652.958 162.043 -2040 26 30 57
-649.432 162.209 -2043 25 28 58
-643.688 161.82 -2039 25 28 60
-639.536 161.829 -2040 24 28 54
-635.696 161.917 -2042 26 29 54
-632.471 162.164 -2046 31 32 58
-628.314 162.174 -2047 32 37 67
-623.244 161.947 -2045 255 0 0
-618.188 161.72 -2043 255 0 0
-611.944 161.178 -2037 255 0 0
-605.733 160.637 -2031 255 0 0
-600.145 160.254 -2027 255 0 0
-594.873 159.952 -2024 255 0 0
-589.329 159.571 -2020 255 0 0
-584.386 159.349 -2018 255 0 0
-580.031 159.285 -2018 255 0 0
-575.111 159.064 -2016 255 0 0
-570.772 159.002 -2016 255 0 0
-565.875 158.782 -2014 255 0 0
-562.108 158.878 -2016 255 0 0
-557.506 158.739 -2015 255 0 0
-553.463 158.757 -2016 255 0 0
-548.604 158.54 -2014 37 44 81
-544.028 158.402 -2013 40 47 85
-539.461 158.264 -2012 40 46 86
-534.371 157.97 -2009 39 45 86
-530.091 157.913 -2009 41 47 89
-526.076 157.934 -2010 40 46 88
-521.284 157.72 -2008 34 41 84
-516.762 157.586 -2007 33 40 83
-512.248 157.451 -2006 40 47 90
-507.743 157.318 -2005 44 52 95
-503.247 157.185 -2004 42 50 93
-499.009 157.131 -2004 41 49 92
-494.775 157.077 -2004 40 47 91
-490.3 156.946 -2003 40 47 93
-486.805 157.129 -2006 41 49 92
-482.098 156.92 -2004 41 49 92
-477.643 156.79 -2003 40 50 96
-473.432 156.739 -2003 41 51 97
-469.46 156.767 -2004 39 49 95
-465.951 156.951 -2007 37 48 94
-461.974 156.98 -2008 37 48 94
-457.769 156.93 -2008 37 49 96
-454.019 157.038 -2010 37 49 96
-450.042 157.068 -2011 37 49 96
-445.398 156.864 -2009 38 50 97
-441.646 156.972 -2011 39 51 99
-437.889 157.081 -2013 37 49 98
-433.911 157.113 -2014 33 45 94
-429.72 157.067 -2014 34 46 95
-426.589 157.411 -2019 39 51 101
-422.395 157.366 -2019 46 57 109
-418.826 157.555 -2022 50 62 114
-413.813 157.199 -2018 51 61 112
-409.631 157.155 -2018 45 55 106
-404.65 156.801 -2014 44 54 106
-400.086 156.602 -2012 46 57 111
-395.73 156.482 -2011 50 61 115
-391.772 156.518 -2012 52 63 118
-387.812 156.555 -2013 52 62 118
-384.233 156.747 -2016 50 60 117
-380.268 156.784 -2017 45 56 112
-376.302 156.822 -2018 40 51 105
-371.782 156.627 -2016 46 53 103
-367.82 156.666 -2017 46 53 101
-363.676 156.627 -2017 43 50 98
-359.358 156.511 -2016 38 46 86
-355.046 156.396 -2015 37 44 83
-351.439 156.591 -2018 37 43 81
-347.65 156.71 -2020 37 45 83
-343.855 156.828 -2022 35 43 80
-339.719 156.792 -2022 32 40 75
-336.084 156.989 -2025 30 39 71
-331.948 156.954 -2025 28 37 64
-328.138 157.074 -2027 28 37 66
-324.483 157.273 -2030 28 37 67
-320.976 157.549 -2034 31 38 71
-316.988 157.592 -2035 31 37 71
-313.152 157.714 -2037 30 36 71
-309.614 157.991 -2041 30 37 72
-305.314 157.882 -2040 29 36 71
-301.464 158.005 -2042 29 36 71
-297.462 158.051 -2043 28 35 70
-294.177 158.484 -2049 28 35 70
-290.02 158.453 -2049 29 36 71
-286.284 158.655 -2052 28 35 70
-282.126 158.625 -2052 29 36 73
-278.106 158.673 -2053 40 48 85
-273.417 158.335 -2049 50 58 95
-269.141 158.229 -2048 46 56 96
-265 158.202 -2048 41 50 89
-261.116 158.328 -2050 42 49 86
-256.975 158.302 -2050 42 47 86
-253.577 158.738 -2056 43 47 87
-249.307 158.635 -2055 42 46 84
-245.282 158.686 -2056 36 41 78
-241.724 159.046 -2061 29 36 70
-237.802 159.176 -2063 255 255 255
-234.44 159.691 -2070 255 255 255
-230.718 159.976 -2074 255 255 255
-227.419 160.569 -2082 255 255 255
-223.232 160.545 -2082 255 255 255
-219.257 160.676 -2084 32 38 69
-215.379 160.885 -2087 30 36 67
-211.491 161.094 -2090 31 36 69
-207.195 160.995 -2089 31 36 66
-203.488 161.359 -2094 29 33 62
-199.763 161.724 -2099 27 31 54
-195.834 161.934 -2102 27 31 55
-191.984 162.222 -2106 27 31 58
-187.943 162.357 -2108 27 31 60
-183.807 162.414 -2109 26 31 60
-179.584 162.395 -2109 27 32 59
-175.196 162.223 -2107 27 32 60
-170.898 162.128 -2106 27 32 61
-166.685 162.111 -2106 29 34 63
-162.705 162.324 -2109 31 36 65
-158.414 162.231 -2108 30 35 64
-154.493 162.522 -2112 28 34 63
-150.202 162.43 -2111 27 35 62
-145.986 162.414 -2111 25 33 60
-141.636 162.246 -2109 26 34 61
-137.426 162.231 -2109 30 38 64
-133.09 162.063 -2107 27 35 61
-128.886 162.05 -2107 25 33 58
-124.861 162.267 -2110 22 30 56
-120.767 162.408 -2112 23 31 57
-116.777 162.704 -2116 24 32 58
-112.718 162.923 -2119 23 31 57
-108.649 163.142 -2122 20 28 54
-104.421 163.131 -2122 17 25 50
-100.24 163.197 -2123 18 26 50
-96.1926 163.494 -2127 17 25 50
-91.8704 163.331 -2125 20 28 52
-87.6393 163.322 -2125 21 29 53
-83.3696 163.236 -2124 22 30 56
-79.1791 163.304 -2125 22 30 56
-75.0207 163.45 -2127 22 29 57
-70.7216 163.289 -2125 22 29 56
-66.6188 163.589 -2129 23 31 56
-62.4422 163.736 -2131 25 34 64
-58.3399 164.114 -2136 29 38 65
44.3845 167.169 -2176 89 63 58
57.1288 166.493 -2167 97 65 58
61.5807 166.884 -2172 99 66 59
406.972 170.48 -2194 182 148 134
-1157.81 171.804 -2090 136 102 88
-1151.77 171.584 -2089 129 96 83
-1148.49 171.774 -2093 124 93 81
-1145.74 172.047 -2098 111 87 77
-1138.64 171.665 -2095 111 90 81
-1134.27 171.693 -2097 104 86 79
-1059.01 168.426 -2076 126 95 72
-1055.79 168.627 -2080 131 95 70
-1048.53 168.179 -2076 134 93 69
-1037.27 167.085 -2064 135 92 71
-1030.59 166.722 -2061 141 97 77
-1022.93 166.198 -2056 140 96 73
-1017.3 165.998 -2055 142 95 72
-1010.69 165.638 -2052 143 95 70
-1007.05 165.763 -2055 145 97 68
-1000.97 165.485 -2053 148 98 68
-991.996 164.725 -2045 148 95 63
-986.453 164.53 -2044 147 93 60
-980.444 164.255 -2042 145 91 56
-973.978 163.901 -2039 146 93 67
-969.912 163.95 -2041 145 93 67
-967.266 164.24 -2046 142 90 65
-962.724 164.209 -2047 137 86 62
-959.122 164.339 -2050 137 87 64
-952.724 163.989 -2047 135 85 63
-945.887 163.559 -2043 129 80 64
-940 163.291 -2041 131 83 66
-934.591 163.104 -2040 255 0 0
-928.74 162.838 -2038 255 0 0
-924.269 162.812 -2039 255 0 0
-920.704 162.946 -2042 116 74 57
-915.789 162.842 -2042 111 71 53
-911.329 162.817 -2043 108 70 55
-905.986 162.635 -2042 108 66 53
-899.774 162.293 -2039 255 0 0
-895.342 162.271 -2040 255 0 0
-890.477 162.17 -2040 255 0 0
-885.622 162.069 -2040 255 0 0
-881.207 162.049 -2041 255 0 0
-878.084 162.267 -2045 255 0 0
-871.962 161.931 -2042 255 0 0
-865.438 161.516 -2038 255 0 0
-859.786 161.26 -2036 255 0 0
-854.993 161.164 -2036 255 0 0
-848.955 160.831 -2033 255 0 0
-843.77 160.657 -2032 255 0 0
-840.249 160.8 -2035 255 0 0
-835.081 160.627 -2034 255 0 0
-830.742 160.613 -2035 255 0 0
-826.406 160.599 -2036 255 0 0
-821.671 160.507 -2036 255 0 0
-816.943 160.416 -2036 255 0 0
-812.223 160.325 -2036 255 0 0
-806.718 160.078 -2034 64 49 56
-801.625 159.91 -2033 44 39 54
-796.936 159.821 -2033 32 34 53
-791.475 159.576 -2031 31 33 53
-787.193 159.567 -2032 255 0 0
-782.144 159.402 -2031 255 0 0
-777.49 159.316 -2031 255 0 0
-772.083 159.073 -2029 32 32 54
-768.205 159.145 -2031 32 34 58
-763.573 159.061 -2031 32 34 59
-759.322 159.055 -2032 32 33 59
-754.703 158.972 -2032 30 31 57
-750.829 159.046 -2034 30 32 57
-746.219 158.963 -2034 30 33 56
-741.252 158.804 -2033 30 31 60
-736.659 158.723 -2033 30 31 60
-732.432 158.72 -2034 33 34 62
-727.493 158.563 -2033 29 30 56
-722.565 158.405 -2032 29 31 58
-718.354 158.405 -2033 30 34 63
-713.796 158.327 -2033 29 33 61
-709.243 158.249 -2033 27 31 58
-705.391 158.328 -2035 27 31 58
-701.536 158.407 -2037 28 32 57
-697.337 158.409 -2038 30 34 60
-692.799 158.333 -2038 31 35 62
-688.269 158.258 -2038 31 36 63
-684.751 158.417 -2041 30 34 61
-679.559 158.188 -2039 26 30 57
-675.045 158.114 -2039 26 30 55
-670.866 158.119 -2040 29 33 58
-666.362 158.047 -2040 27 32 60
-661.216 157.821 -2038 26 31 57
-657.373 157.904 -2040 25 30 55
-653.207 157.911 -2041 26 30 57
-649.361 157.996 -2043 25 28 58
-643.934 157.694 -2040 24 27 59
-641.66 158.166 -2047 25 29 56
-636.249 157.866 -2044 24 27 54
-633.329 158.184 -2049 29 30 56
-628.246 157.962 -2047 33 38 66
-623.176 157.741 -2045 31 36 66
-617.516 157.366 -2041 27 32 64
-611.878 156.992 -2037 32 35 69
-606.264 156.619 -2033 34 37 71
-599.784 156.015 -2026 255 0 0
-594.809 155.797 -2024 255 0 0
-589.848 155.58 -2022 255 0 0
-584.612 155.287 -2019 255 0 0
-580.543 155.302 -2020 255 0 0
-575.905 155.164 -2019 255 0 0
-572.126 155.256 -2021 255 0 0
-567.219 155.042 -2019 255 0 0
-562.605 154.906 -2018 255 255 255
-558 154.77 -2017 255 255 255
-553.679 154.711 -2017 44 49 80
-548.273 154.346 -2013 38 45 81
-544.24 154.365 -2014 40 47 84
-538.867 154.001 -2010 41 48 86
-534.314 153.868 -2009 40 46 87
-530.034 153.811 -2009 41 47 88
-525.759 153.756 -2009 40 46 87
-521.228 153.624 -2008 35 43 85
-516.706 153.493 -2007 37 45 87
-512.194 153.362 -2006 41 49 91
-507.689 153.232 -2005 43 51 93
-502.943 153.026 -2003 42 50 92
-498.956 153.05 -2004 39 47 89
-494.722 152.998 -2004 38 46 89
-490.493 152.946 -2004 40 48 92
-486.268 152.895 -2004 42 50 92
-481.807 152.768 -2003 42 50 93
-477.592 152.718 -2003 41 51 97
-473.146 152.592 -2002 42 52 98
-469.878 152.848 -2006 41 51 97
-466.366 153.027 -2009 37 47 93
-461.925 152.903 -2008 38 48 95
-458.404 153.083 -2011 37 49 96
-454.423 153.112 -2012 35 47 94
-450.218 153.065 -2012 33 45 92
-445.795 152.942 -2011 35 47 94
-441.819 152.972 -2012 37 49 97
-438.495 153.23 -2016 37 49 98
-434.512 153.261 -2017 35 47 96
-430.315 153.216 -2017 38 50 99
-426.545 153.323 -2019 42 54 105
-421.933 153.128 -2017 48 59 112
-417.747 153.084 -2017 54 65 119
-413.154 152.889 -2015 52 61 111
-409.183 152.922 -2016 46 55 106
-404.005 152.501 -2011 46 55 107
-399.447 152.308 -2009 47 58 112
-395.295 152.267 -2009 50 61 115
-391.341 152.302 -2010 51 62 116
-387.579 152.413 -2012 51 62 117
-383.621 152.449 -2013 51 62 117
-380.04 152.637 -2016 46 57 111
-375.89 152.598 -2016 40 51 103
-371.927 152.635 -2017 44 51 99
-367.964 152.673 -2018 44 51 97
-363.819 152.635 -2018 43 48 94
-359.677 152.598 -2018 34 41 79
-355.714 152.637 -2019 36 42 79
-352.099 152.827 -2022 37 41 77
-347.958 152.791 -2022 35 41 77
-343.819 152.756 -2022 33 39 75
-339.348 152.57 -2020 30 38 72
-335.883 152.837 -2024 30 38 70
-331.913 152.878 -2025 28 37 65
-328.266 153.071 -2028 28 37 67
-324.609 153.264 -2031 29 38 69
-321.258 153.608 -2036 31 38 71
-317.266 153.651 -2037 31 37 70
-313.273 153.694 -2038 30 34 69
-309.734 153.964 -2042 28 35 71
-305.432 153.857 -2041 29 36 72
-301.58 153.977 -2043 29 36 72
-297.431 153.946 -2043 29 36 72
-294.146 154.368 -2049 28 35 71
-289.99 154.338 -2049 29 36 70
-286.115 154.46 -2051 28 35 70
-282.235 154.581 -2053 29 36 72
-278.348 154.703 -2055 44 52 90
-273.522 154.299 -2050 54 62 100
-269.244 154.196 -2049 46 56 96
-264.843 154.018 -2047 40 49 87
-260.834 154.067 -2048 38 45 81
-256.824 154.116 -2049 38 43 81
-253.181 154.39 -2053 38 42 80
-249.524 154.666 -2057 37 41 78
-245.495 154.716 -2058 33 38 73
-241.934 155.067 -2063 28 35 68
-238.008 155.193 -2065 255 255 255
-234.416 155.545 -2070 255 255 255
-230.695 155.821 -2074 255 255 255
-227.068 156.174 -2079 255 255 255
-222.887 156.151 -2079 255 255 255
-218.919 156.279 -2081 30 37 68
-215.15 156.557 -2085 29 36 67
-211.469 156.911 -2090 33 38 69
-207.571 157.115 -2093 32 37 67
-203.759 157.394 -2097 30 34 63
-200.124 157.824 -2103 28 32 55
-196.279 158.104 -2107 27 31 54
-192.147 158.16 -2108 25 29 56
-188.102 158.291 -2110 24 28 56
-183.701 158.122 -2108 25 30 59
-179.651 158.254 -2110 26 31 58
-175.344 158.161 -2109 26 31 59
-171.287 158.293 -2111 26 31 60
-167.064 158.276 -2111 29 34 63
-162.92 158.334 -2112 30 35 64
-158.623 158.243 -2111 28 33 62
-154.77 158.602 -2116 26 32 60
-150.472 158.512 -2115 26 34 60
-146.178 158.422 -2114 25 33 59
-141.823 158.257 -2112 25 33 59
-137.672 158.318 -2113 27 35 61
-133.266 158.08 -2110 23 31 57
-128.934 157.917 -2108 22 30 56
-125.321 158.653 -2118 21 29 55
-121.155 158.716 -2119 22 30 56
-117.262 159.153 -2125 23 31 55
-113.079 159.216 -2126 21 29 54
-108.894 159.28 -2127 16 24 50
-104.607 159.194 -2126 15 23 47
-100.372 159.184 -2126 17 25 49
-96.2732 159.399 -2129 19 27 53
-92.0339 159.389 -2129 19 27 52
-87.8365 159.455 -2130 19 27 51
-83.5182 159.297 -2128 23 31 55
-79.3947 159.513 -2131 23 31 55
-75.0835 159.356 -2129 22 30 56
-70.8476 159.348 -2129 20 28 54
-66.6746 159.491 -2131 26 34 58
-62.553 159.784 -2135 28 37 63
-58.5797 160.526 -2145 37 45 69
-1009.88 161.814 -2061 130 92 66
-1006.22 161.936 -2064 136 95 69
-995.763 160.96 -2053 137 94 65
-989.235 160.613 -2050 134 91 60
-984.173 160.502 -2050 133 89 57
-977.688 160.157 -2047 132 87 63
-971.703 159.891 -2045 130 85 61
-971.41 160.564 -2055 130 85 61
-965.906 160.377 -2054 130 85 62
-960.417 160.191 -2053 130 85 63
-953.081 159.694 -2048 129 84 64
-947.169 159.432 -2046 129 83 68
-940.354 159.015 -2042 127 81 67
-934.943 158.833 -2041 255 0 0
-930.003 158.729 -2041 255 0 0
-925.978 158.782 -2043 255 0 0
-921.051 158.679 -2043 113 75 60
-917.479 158.81 -2046 106 70 56
-913.457 158.864 -2048 104 69 57
-908.102 158.686 -2047 103 67 57
-901.439 158.276 -2043 255 0 0
-897.436 158.332 -2045 255 0 0
-891.251 158.001 -2042 255 0 0
-885.089 157.671 -2039 255 0 0
-881.972 157.883 -2043 255 0 0
-878.415 158.018 -2046 255 0 0
-871.865 157.613 -2042 255 0 0
-865.342 157.209 -2038 255 0 0
-860.536 157.115 -2038 255 0 0
-854.898 156.867 -2036 255 0 0
-849.278 156.62 -2034 255 0 0
-844.092 156.451 -2033 255 0 0
-839.744 156.436 -2034 255 0 0
-834.578 156.268 -2033 255 0 0
-830.242 156.254 -2034 255 0 0
-826.315 156.317 -2036 255 0 0
-822.791 156.458 -2039 255 0 0
-818.458 156.446 -2040 255 0 0
-813.73 156.358 -2040 255 0 0
-808.613 156.193 -2039 72 54 58
-803.114 155.953 -2037 50 44 56
-798.416 155.866 -2037 36 38 55
-793.337 155.704 -2036 33 35 54
-788.269 155.542 -2035 255 0 0
-783.214 155.381 -2034 255 0 0
-778.554 155.297 -2034 255 0 0
-773.521 155.138 -2033 32 31 53
-769.256 155.131 -2034 30 32 56
-766.121 155.354 -2038 29 31 56
-760.734 155.12 -2036 28 29 55
-756.106 155.038 -2036 29 30 57
-751.116 154.882 -2035 29 30 56
-746.505 154.802 -2035 30 31 56
-742.63 154.874 -2037 31 32 59
-739.115 155.023 -2040 30 31 59
-733.793 154.793 -2038 32 33 61
-729.561 154.791 -2039 30 30 56
-723.909 154.486 -2036 30 31 58
-719.337 154.409 -2036 30 32 61
-714.772 154.333 -2036 28 32 59
-710.213 154.258 -2036 27 31 58
-707.048 154.486 -2040 27 31 57
-703.182 154.562 -2042 27 31 55
-699.315 154.64 -2044 29 33 58
-693.745 154.339 -2041 30 34 60
-689.208 154.266 -2041 32 36 62
-684.006 154.043 -2039 32 36 62
-679.154 153.895 -2038 29 33 59
-674.973 153.9 -2039 29 33 58
-669.808 153.678 -2037 30 34 59
-665.965 153.759 -2039 29 34 61
-661.47 153.689 -2039 26 31 56
-657.625 153.77 -2041 24 29 54
-653.458 153.777 -2042 26 30 57
-649.292 153.784 -2043 25 29 58
-645.128 153.792 -2044 24 28 58
-640.652 153.724 -2044 25 29 56
-636.493 153.733 -2045 24 27 54
-632.336 153.742 -2046 29 30 56
-628.179 153.751 -2047 31 36 64
-623.415 153.611 -2046 29 34 64
-617.753 153.246 -2042 28 33 64
-610.612 152.507 -2033 30 34 67
-605.305 152.219 -2030 32 35 69
-600.609 152.081 -2029 30 33 67
-595.334 151.794 -2026 33 36 71
-590.662 151.658 -2025 36 39 74
-585.419 151.372 -2022 37 41 76
-581.057 151.312 -2022 37 43 79
-576.415 151.177 -2021 255 255 255
-572.066 151.118 -2021 255 255 255
-566.598 150.76 -2017 255 255 255
-562.546 150.777 -2018 255 255 255
-557.942 150.644 -2017 255 255 255
-552.797 150.363 -2014 44 49 80
-548.76 150.381 -2015 39 46 82
-544.183 150.25 -2014 39 46 83
-539.347 150.045 -2012 40 47 85
-534.791 149.915 -2011 40 46 86
-529.451 149.563 -2007 41 47 87
-525.442 149.583 -2008 40 46 87
-520.914 149.455 -2007 37 45 87
-516.653 149.402 -2007 40 48 90
-511.885 149.2 -2005 41 49 91
-507.13 148.999 -2003 40 48 90
-502.388 148.799 -2001 40 48 90
-497.909 148.673 -2000 39 47 89
-494.177 148.771 -2002 37 45 88
-490.198 148.795 -2003 40 48 90
-485.975 148.746 -2003 42 50 92
-481.997 148.771 -2004 43 51 93
-477.543 148.648 -2003 41 51 97
-473.569 148.673 -2004 41 51 97
-469.361 148.625 -2004 39 49 95
-465.854 148.8 -2007 36 46 92
-462.338 148.976 -2010 37 47 94
-458.357 149.003 -2011 36 48 95
-454.151 148.957 -2011 35 47 94
-449.948 148.911 -2011 34 46 93
-445.971 148.939 -2012 35 47 94
-441.774 148.895 -2012 36 48 96
-438.233 149.072 -2015 35 47 96
-434.037 149.028 -2015 36 48 97
-429.844 148.984 -2015 39 51 100
-425.656 148.941 -2015 42 54 105
-421.471 148.898 -2015 47 59 112
-417.29 148.856 -2015 53 64 118
-412.497 148.593 -2012 53 62 112
-408.329 148.551 -2012 49 58 109
-403.562 148.289 -2009 47 56 108
-399.407 148.248 -2009 47 58 111
-395.255 148.208 -2009 48 59 113
-391.496 148.316 -2011 50 61 115
-387.347 148.277 -2011 51 62 116
-383.582 148.386 -2013 52 63 117
-380.001 148.569 -2016 48 60 111
-375.665 148.457 -2015 40 51 101
-371.705 148.493 -2016 41 48 94
-367.562 148.456 -2016 42 47 90
-363.601 148.493 -2017 41 46 88
-359.64 148.531 -2018 35 42 76
-355.854 148.642 -2020 33 40 74
-351.889 148.68 -2021 33 37 71
-348.094 148.792 -2023 32 37 72
-344.295 148.905 -2025 33 37 72
-339.986 148.797 -2024 30 38 69
-336.513 149.058 -2028 30 38 69
-332.536 149.098 -2029 30 38 68
-328.718 149.212 -2031 29 36 69
-325.056 149.399 -2034 30 37 71
-321.068 149.441 -2035 30 37 70
-317.39 149.629 -2038 30 36 69
-313.242 149.598 -2038 30 35 68
-309.551 149.787 -2041 29 36 72
-305.401 149.756 -2041 30 37 73
-301.55 149.873 -2043 30 37 73
-297.401 149.843 -2043 29 36 72
-294.116 150.254 -2049 29 36 72
-290.102 150.298 -2050 29 36 70
-286.086 150.343 -2051 32 39 73
-282.069 150.388 -2052 38 45 81
-277.372 150.067 -2048 50 58 97
-272.961 149.893 -2046 51 59 100
-268.692 149.793 -2045 39 52 89
-264.558 149.767 -2045 36 46 83
-260.808 149.96 -2048 36 43 78
-257.174 150.228 -2052 36 41 78
-253.279 150.349 -2054 35 39 77
-249.256 150.397 -2055 34 38 73
-245.59 150.665 -2059 31 36 71
-242.144 151.08 -2065 28 35 68
-238.33 151.276 -2068 255 255 255
-234.959 151.765 -2075 255 255 255
-230.672 151.669 -2074 255 255 255
-226.936 151.938 -2078 255 255 255
-222.865 151.989 -2079 255 255 255
-219.318 152.406 -2085 29 36 67
-215.335 152.531 -2087 31 38 69
-211.549 152.802 -2091 33 38 69
-207.748 153.074 -2095 31 36 66
-204.03 153.419 -2100 29 33 62
-200.294 153.764 -2105 29 32 57
-196.353 153.964 -2108 27 30 54
-192.31 154.091 -2110 25 29 56
-188.261 154.218 -2112 24 29 57
-183.944 154.127 -2111 24 29 58
-179.888 154.255 -2113 24 29 56
-175.493 154.091 -2111 24 29 56
-171.513 154.293 -2114 25 30 59
-167.206 154.204 -2113 27 32 61
-163.135 154.333 -2115 26 31 60
-158.908 154.317 -2115 25 30 59
-155.047 154.667 -2120 26 32 60
-150.599 154.433 -2117 26 34 60
-146.371 154.418 -2117 26 34 60
-142.145 154.404 -2117 24 32 58
-137.854 154.318 -2116 25 33 58
-133.695 154.377 -2117 24 32 56
-129.594 154.51 -2119 23 31 56
-125.723 154.935 -2125 21 29 54
-121.543 154.996 -2126 19 27 53
-117.471 155.203 -2129 19 27 51
-113.227 155.192 -2129 19 27 52
-109.036 155.254 -2130 20 28 54
-105.039 155.608 -2135 20 28 52
-100.692 155.452 -2133 20 28 52
-96.4445 155.442 -2133 21 30 56
-92.2841 155.579 -2135 21 29 54
-88.034 155.57 -2135 21 29 52
-83.7845 155.561 -2135 22 31 55
-79.4985 155.48 -2134 22 31 55
-75.2524 155.473 -2134 23 31 57
-71.0401 155.538 -2135 23 32 57
-66.8871 155.75 -2138 27 36 60
-62.9276 156.472 -2148 26 35 59
-1005.35 158.077 -2073 115 85 64
-996.845 157.434 -2066 114 83 61
-991.264 157.249 -2065 117 85 63
-981.878 156.456 -2056 117 81 62
-973.496 155.816 -2049 116 81 62
-971.776 156.243 -2056 117 82 63
-966.27 156.061 -2055 117 81 63
-960.779 155.88 -2054 116 81 64
-953.907 155.473 -2050 116 80 64
-948.916 155.369 -2050 118 78 63
-942.553 155.04 -2047 115 76 65
-936.673 154.786 -2045 255 0 0
-930.812 154.534 -2043 255 0 0
-926.33 154.509 -2044 255 0 0
-920.951 154.334 -2043 255 0 0
-916.034 154.235 -2043 102 68 55
-911.573 154.212 -2044 101 69 58
-906.673 154.114 -2044 102 68 58
-901.341 153.942 -2043 255 0 0
-896.9 153.921 -2044 255 0 0
-891.59 153.75 -2043 255 0 0
-885.427 153.429 -2040 255 0 0
-882.74 153.71 -2045 255 0 0
-878.32 153.691 -2046 255 0 0
-873.478 153.598 -2046 255 0 0
-867.796 153.355 -2044 255 0 0
-863.398 153.338 -2045 255 0 0
-859.424 153.396 -2047 255 0 0
-854.614 153.305 -2047 255 0 0
-848.567 152.99 -2044 255 0 0
-842.956 152.751 -2042 255 0 0
-838.183 152.662 -2042 255 0 0
-831.786 152.274 -2038 255 0 0
-827.85 152.336 -2040 255 0 0
-824.72 152.547 -2044 255 0 0
-820.778 152.61 -2046 255 0 0
-816.036 152.524 -2046 255 0 0
-811.302 152.438 -2046 73 54 57
-806.182 152.278 -2045 54 47 56
-800.291 151.971 -2042 36 39 52
-794.421 151.664 -2039 255 0 0
-789.735 151.581 -2039 255 0 0
-784.286 151.35 -2037 255 0 0
-779.62 151.268 -2037 255 0 0
-775.721 151.335 -2039 33 31 53
-772.578 151.551 -2043 29 30 56
-767.544 151.397 -2042 27 28 54
-763.269 151.391 -2043 27 28 54
-757.883 151.164 -2041 27 28 56
-753.252 151.085 -2041 28 28 56
-748.261 150.933 -2040 29 29 57
-744.375 151.004 -2042 31 32 58
-740.124 151 -2043 31 32 59
-736.237 151.072 -2045 33 34 62
-730.916 150.848 -2043 31 31 57
-725.611 150.625 -2041 31 31 58
-719.615 150.255 -2037 30 31 59
-715.048 150.181 -2037 27 31 58
-711.534 150.329 -2040 27 31 57
-708.014 150.477 -2043 26 30 55
-703.109 150.331 -2042 26 30 53
-699.926 150.553 -2046 26 30 54
-694.692 150.334 -2044 25 29 54
-691.162 150.484 -2047 29 33 58
-685.277 150.119 -2043 31 35 60
-681.415 150.196 -2045 29 33 58
-676.227 149.98 -2043 27 31 55
-671.712 149.911 -2043 26 30 55
-667.202 149.842 -2043 27 32 59
-662.699 149.774 -2043 27 32 58
-658.524 149.78 -2044 27 32 57
-654.67 149.86 -2046 25 29 56
-650.814 149.94 -2048 25 28 57
-646.008 149.801 -2047 27 31 60
-641.84 149.808 -2048 24 28 55
-637.672 149.817 -2049 23 26 53
-633.198 149.752 -2049 29 30 56
-627.808 149.469 -2046 30 35 63
-623.046 149.332 -2045 29 34 63
-617.387 148.978 -2041 29 34 66
-612.051 148.697 -2038 30 34 67
-606.138 148.27 -2033 33 36 69
-600.843 147.99 -2030 31 34 67
-595.567 147.711 -2027 31 34 69
-590.601 147.506 -2025 32 35 70
-585.36 147.228 -2022 38 42 77
-580.711 147.097 -2021 40 45 81
-576.071 146.966 -2020 255 255 255
-572.008 146.981 -2021 255 255 255
-566.54 146.633 -2017 255 255 255
-562.21 146.576 -2017 255 255 255
-557.055 146.302 -2014 255 255 255
-552.741 146.246 -2014 43 48 80
-547.615 145.973 -2011 40 47 83
-543.588 145.991 -2012 41 48 85
-539.025 145.865 -2011 41 48 86
-534.736 145.811 -2011 41 48 86
-529.662 145.54 -2008 41 48 87
-525.389 145.488 -2008 40 46 87
-520.602 145.291 -2006 36 43 85
-516.343 145.239 -2006 40 48 90
-511.323 144.971 -2003 43 51 93
-506.32 144.703 -2000 40 47 90
-501.585 144.508 -1998 39 47 89
-497.858 144.603 -2000 41 49 92
-493.387 144.482 -1999 41 49 91
-489.659 144.577 -2001 41 49 91
-485.441 144.529 -2001 42 50 93
-481.228 144.481 -2001 43 51 94
-477.257 144.506 -2002 43 53 98
-473.286 144.531 -2003 41 51 96
-469.549 144.629 -2005 38 48 93
-466.039 144.799 -2008 35 46 92
-462.292 144.897 -2010 36 47 93
-458.083 144.852 -2010 36 48 95
-453.879 144.807 -2010 37 49 96
-449.679 144.762 -2010 38 50 97
-445.704 144.79 -2011 39 50 97
-441.949 144.891 -2013 38 49 98
-438.406 145.063 -2016 38 50 99
-433.993 144.948 -2015 39 51 101
-430.015 144.978 -2016 43 55 105
-425.825 144.936 -2016 49 61 112
-421.22 144.75 -2014 53 65 117
-416.42 144.494 -2011 54 66 118
-412.251 144.453 -2011 49 60 109
-407.883 144.341 -2010 48 58 109
-403.12 144.086 -2007 46 56 108
-399.168 144.118 -2008 45 55 109
-395.019 144.079 -2008 46 57 111
-390.873 144.041 -2008 48 59 113
-386.924 144.075 -2009 49 60 114
-383.163 144.181 -2011 49 61 113
-379.587 144.358 -2014 46 58 107
-375.255 144.25 -2013 37 48 96
-371.3 144.285 -2014 38 46 89
-367.343 144.321 -2015 39 44 84
-363.566 144.428 -2017 38 42 82
-359.605 144.465 -2018 36 43 76
-356.172 144.716 -2022 32 38 71
-352.202 144.753 -2023 29 34 67
-348.404 144.862 -2025 31 36 69
-344.261 144.829 -2025 33 38 71
-339.952 144.724 -2024 30 36 66
-335.982 144.763 -2025 30 36 67
-332.011 144.802 -2026 30 37 69
-328.686 145.127 -2031 28 35 69
-324.704 145.167 -2032 29 36 70
-321.51 145.564 -2038 30 37 71
-317.359 145.533 -2038 30 36 70
-313.211 145.503 -2038 31 36 69
-309.521 145.687 -2041 29 36 72
-305.371 145.657 -2041 30 37 73
-301.668 145.842 -2044 31 38 74
-297.518 145.813 -2044 30 37 73
-293.801 145.998 -2047 29 36 72
-290.074 146.184 -2050 31 38 73
-286.058 146.227 -2051 35 42 77
-281.766 146.129 -2050 43 50 86
-277.752 146.173 -2051 50 58 99
-272.934 145.79 -2046 47 55 98
-268.665 145.693 -2045 39 52 88
-264.661 145.738 -2046 37 48 84
-260.783 145.856 -2048 37 44 78
-256.898 145.973 -2050 36 40 76
-253.131 146.162 -2053 35 39 75
-249.111 146.209 -2054 32 36 71
-245.447 146.47 -2058 31 36 70
-242.589 147.229 -2069 30 36 69
-238.653 147.349 -2071 255 255 255
-235.162 147.753 -2077 255 255 255
-230.649 147.517 -2074 255 255 255
-226.805 147.708 -2077 255 255 255
-223.058 147.971 -2081 255 255 255
-218.876 147.95 -2081 30 37 68
-215.005 148.142 -2084 32 38 69
-211.427 148.548 -2090 33 38 69
-207.629 148.813 -2094 31 35 65
-204.108 149.29 -2101 29 33 62
-200.275 149.555 -2105 31 32 58
-196.427 149.82 -2109 28 29 55
-192.656 150.157 -2114 26 29 56
-188.332 150.068 -2113 25 29 58
-184.101 150.05 -2113 25 30 59
-179.956 150.103 -2114 23 28 55
-175.725 150.086 -2114 22 27 54
-171.658 150.212 -2116 24 29 58
-167.664 150.408 -2119 27 31 60
-163.505 150.464 -2120 26 30 59
-159.268 150.448 -2120 25 30 59
-155.032 150.433 -2120 27 33 61
-150.727 150.348 -2119 27 35 61
-146.634 150.475 -2121 25 33 59
-142.467 150.532 -2122 22 30 56
-138.167 150.448 -2121 25 33 57
-134.251 150.79 -2126 25 33 57
-130.071 150.848 -2127 23 31 55
-126.125 151.19 -2132 19 27 52
-121.817 151.108 -2131 17 25 51
-117.79 151.38 -2135 18 26 50
-113.482 151.298 -2134 20 28 53
-109.384 151.5 -2137 22 30 56
-105.177 151.561 -2138 22 30 55
-100.918 151.551 -2138 22 30 55
-96.7516 151.683 -2140 22 31 57
-92.4913 151.674 -2140 23 31 55
-88.2316 151.666 -2140 23 31 53
-83.8549 151.445 -2137 24 33 57
-79.6026 151.437 -2137 25 34 58
-75.3509 151.43 -2137 25 33 59
-71.1331 151.494 -2138 24 33 58
-66.9744 151.7 -2141 26 35 59
-63.1266 152.685 -2155 32 39 59
-963.11 152.571 -2070 103 75 62
-956.683 152.249 -2067 106 73 59
-948.438 151.633 -2060 105 72 64
-940.695 151.092 -2054 107 74 64
-933.446 150.626 -2049 255 0 0
-928.95 150.601 -2050 255 0 0
-922.656 150.284 -2047 255 0 0
-917.282 150.114 -2046 98 66 53
-913.706 150.238 -2049 97 67 55
-908.351 150.07 -2048 99 67 55
-902.127 149.756 -2045 97 65 53
-896.366 149.515 -2043 255 0 0
-891.496 149.422 -2043 255 0 0
-884.899 149.037 -2039 255 0 0
-882.215 149.311 -2044 255 0 0
-877.799 149.293 -2045 255 0 0
-874.24 149.421 -2048 255 0 0
-868.554 149.185 -2046 255 0 0
-863.73 149.095 -2046 255 0 0
-859.754 149.152 -2048 255 0 0
-855.36 149.136 -2049 255 0 0
-849.309 148.83 -2046 255 0 0
-845.344 148.888 -2048 255 0 0
-838.916 148.51 -2044 255 0 0
-833.739 148.352 -2043 255 0 0
-830.604 148.557 -2047 255 0 0
-827.862 148.834 -2052 255 0 0
-822.698 148.677 -2051 255 0 0
-821.136 149.173 -2059 77 54 55
-814.39 148.727 -2054 74 57 61
-809.646 148.644 -2054 63 55 63
-802.951 148.2 -2049 45 46 59
-796.676 147.829 -2045 255 0 0
-790.04 147.387 -2040 255 0 0
-786.13 147.451 -2042 255 0 0
-781.453 147.372 -2042 32 31 56
-777.924 147.509 -2045 32 31 55
-774.011 147.574 -2047 29 30 57
-769.72 147.568 -2048 27 28 55
-764.685 147.419 -2047 27 28 55
-759.291 147.197 -2045 27 27 55
-755.389 147.265 -2047 26 25 55
-750.751 147.189 -2047 24 24 54
-746.85 147.257 -2049 27 29 52
-743.309 147.398 -2052 28 30 55
-740.481 147.682 -2057 29 30 58
-733.345 147.105 -2050 29 29 56
-728.381 146.96 -2049 31 31 58
-722.014 146.529 -2044 30 30 58
-717.784 146.528 -2045 28 30 58
-712.508 146.313 -2043 27 30 57
-709.674 146.6 -2048 27 31 56
-704.415 146.386 -2046 27 31 54
-700.539 146.459 -2048 26 30 53
-694.622 146.104 -2044 25 29 54
-690.755 146.177 -2046 28 32 57
-685.879 146.037 -2045 30 34 59
-681.347 145.969 -2045 27 31 56
-676.159 145.759 -2043 25 28 52
-671.973 145.763 -2044 26 29 52
-667.788 145.768 -2045 26 31 58
-663.281 145.702 -2045 27 31 57
-659.746 145.85 -2048 28 33 58
-655.885 145.928 -2050 29 30 58
-651.385 145.863 -2050 28 31 59
-646.89 145.799 -2050 28 32 61
-642.089 145.664 -2049 24 28 54
-637.609 145.601 -2049 24 27 52
-632.207 145.325 -2046 28 30 53
-628.052 145.334 -2047 28 33 62
-622.679 145.059 -2044 28 33 63
-617.93 144.927 -2043 30 35 68
-612.291 144.583 -2039 33 36 69
-606.077 144.098 -2033 34 37 69
-601.08 143.897 -2031 31 34 67
-596.389 143.767 -2030 33 36 70
-591.709 143.638 -2029 33 36 71
-585.88 143.227 -2024 36 40 76
-581.515 143.17 -2024 36 41 77
-577.155 143.113 -2024 255 255 255
-572.517 142.986 -2023 255 255 255
-567.327 142.719 -2020 255 255 255
-562.433 142.522 -2018 255 255 255
-557 142.185 -2014 255 255 255
-551.863 141.919 -2011 43 47 82
-547.561 141.866 -2011 40 47 83
-543.804 141.954 -2013 42 49 86
-539.239 141.831 -2012 41 48 86
-534.684 141.708 -2011 43 50 88
-529.609 141.445 -2008 42 49 88
-525.338 141.394 -2008 39 45 86
-520.292 141.132 -2005 36 42 83
-516.035 141.082 -2005 41 47 88
-510.507 140.681 -2000 46 52 95
-506.017 140.561 -1999 42 49 91
-501.034 140.301 -1996 38 46 88
-496.814 140.253 -1996 41 48 93
-493.092 140.346 -1998 41 48 93
-489.366 140.439 -2000 42 49 94
-485.394 140.462 -2001 42 49 94
-481.181 140.416 -2001 44 51 96
-477.21 140.44 -2002 45 55 99
-473.003 140.394 -2002 44 54 98
-469.269 140.489 -2004 41 51 95
-465.762 140.654 -2007 37 49 95
-461.787 140.68 -2008 38 50 96
-457.583 140.636 -2008 37 49 96
-453.609 140.662 -2009 38 50 97
-449.412 140.619 -2009 40 52 99
-445.44 140.646 -2010 42 52 99
-441.248 140.604 -2010 41 52 101
-437.711 140.772 -2013 42 54 105
-433.305 140.66 -2012 45 57 108
-429.333 140.689 -2013 48 60 111
-424.728 140.508 -2011 54 66 117
-420.552 140.468 -2011 56 68 119
-416.173 140.358 -2010 51 63 114
-412.006 140.319 -2010 47 59 108
-407.843 140.28 -2010 48 60 110
-403.081 140.032 -2007 47 59 110
-398.931 139.994 -2007 46 57 111
-394.981 140.026 -2008 47 58 112
-390.836 139.988 -2008 48 59 113
-386.886 140.021 -2009 45 57 109
-383.317 140.194 -2012 43 55 106
-379.362 140.227 -2013 40 52 99
-374.846 140.052 -2011 33 44 89
-371.448 140.295 -2015 34 42 82
-367.49 140.33 -2016 35 40 78
-363.531 140.365 -2017 35 39 76
-359.749 140.47 -2019 31 38 71
-356.137 140.645 -2022 33 39 71
-351.995 140.611 -2022 31 36 67
-348.371 140.787 -2025 31 36 68
-344.568 140.893 -2027 31 36 69
-340.423 140.861 -2027 31 36 65
-336.614 140.968 -2029 32 38 69
-332.635 141.006 -2030 32 39 72
-328.655 141.044 -2031 28 35 69
-325.312 141.36 -2036 28 35 69
-321.637 141.538 -2039 29 36 70
-317.64 141.577 -2040 30 35 70
-313.488 141.548 -2040 30 34 69
-309.643 141.657 -2042 31 38 72
-305.342 141.559 -2041 30 37 72
-301.344 141.6 -2042 31 38 74
-297.489 141.71 -2044 31 38 74
-293.773 141.89 -2047 31 38 74
-289.905 142.002 -2049 31 38 74
-285.613 141.905 -2048 35 42 78
-281.465 141.879 -2048 44 51 87
-276.913 141.645 -2045 51 58 100
-272.375 141.411 -2042 47 54 99
-268.246 141.386 -2042 40 53 88
-264.765 141.707 -2047 37 48 83
-261.012 141.89 -2050 37 44 78
-256.874 141.866 -2050 36 41 76
-253.107 142.05 -2053 36 40 75
-249.451 142.303 -2057 34 38 73
-246.139 142.764 -2064 32 36 71
-242.801 143.225 -2071 32 36 71
-239.206 143.549 -2076 255 255 255
-235.367 143.734 -2079 255 255 255
-231.183 143.712 -2079 255 255 255
-227.439 143.967 -2083 255 255 255
-223.144 143.877 -2082 255 255 255
-219.486 144.202 -2087 30 37 68
-215.397 144.251 -2088 30 37 68
-211.61 144.507 -2092 32 37 68
-207.907 144.833 -2097 31 35 65
-203.894 144.952 -2099 29 33 62
-200.351 145.416 -2106 30 31 58
-196.595 145.743 -2111 28 29 56
-192.729 146.001 -2115 28 29 57
-188.493 145.983 -2115 26 30 58
-184.345 146.035 -2116 27 32 61
-180.194 146.087 -2117 23 28 55
-176.041 146.14 -2118 22 27 55
-171.967 146.262 -2120 25 30 59
-167.727 146.246 -2120 28 32 61
-163.721 146.437 -2123 27 31 60
-159.253 146.215 -2120 26 31 60
-155.31 146.477 -2124 26 32 60
-151.139 146.531 -2125 25 33 59
-146.827 146.449 -2124 25 33 59
-142.856 146.711 -2128 25 33 59
-138.935 147.043 -2133 23 31 55
-134.932 147.306 -2137 20 28 52
-130.731 147.362 -2138 18 26 50
-126.586 147.488 -2140 18 26 51
-122.263 147.408 -2139 16 24 50
-117.889 147.259 -2137 18 26 50
-113.578 147.179 -2136 20 28 53
-109.527 147.444 -2140 20 28 54
-105.314 147.503 -2141 19 27 51
-101.051 147.494 -2141 20 28 52
-97.0139 147.829 -2146 21 30 54
-92.6987 147.751 -2145 21 30 53
-88.3057 147.536 -2142 21 29 51
-84.1217 147.666 -2144 22 31 55
-79.7813 147.521 -2142 22 31 55
-75.5554 147.582 -2143 23 31 57
-71.3925 147.782 -2146 27 36 62
-67.4999 148.602 -2158 22 33 58
-917.625 146.53 -2058 95 67 53
-912.692 146.437 -2058 93 63 50
-906.887 146.202 -2056 92 62 50
-901.1 145.969 -2054 255 0 0
-897.077 146.02 -2056 255 0 0
-889.148 145.433 -2049 255 0 0
-886.872 145.769 -2055 255 0 0
-881.572 145.609 -2054 255 0 0
-877.139 145.591 -2055 255 0 0
-871.437 145.361 -2053 255 0 0
-866.597 145.274 -2053 255 0 0
-863.444 145.47 -2057 255 0 0
-860.282 145.667 -2061 255 0 0
-853.788 145.298 -2057 255 0 0
-848.148 145.072 -2055 255 0 0
-842.114 144.775 -2052 255 0 0
-837.328 144.692 -2052 255 0 0
-836.2 145.243 -2061 255 0 0
-791.897 143.471 -2045 255 0 0
-788.361 143.604 -2048 255 0 0
-784.053 143.596 -2049 31 31 55
-779.748 143.589 -2050 29 29 55
-775.824 143.652 -2052 29 30 57
-771.147 143.576 -2052 27 28 55
-765.729 143.361 -2050 28 29 56
-759.958 143.076 -2047 27 27 55
-756.789 143.281 -2051 25 25 54
-752.51 143.277 -2052 22 22 52
-748.598 143.343 -2054 23 25 48
-745.046 143.479 -2057 24 26 51
-740.768 143.477 -2058 26 27 55
-735.777 143.335 -2057 27 27 55
-730.086 143.054 -2054 30 30 58
-725.475 142.983 -2054 31 31 58
-721.924 143.122 -2057 29 30 57
-714.879 142.565 -2050 27 29 55
-711.684 142.773 -2054 26 30 55
-706.067 142.496 -2051 27 31 54
-701.838 142.497 -2052 26 29 53
-695.573 142.082 -2047 27 30 54
-691.362 142.085 -2048 29 32 58
-686.482 141.949 -2047 29 33 59
-683.279 142.16 -2051 27 31 57
-677.747 141.886 -2048 25 28 53
-673.222 141.821 -2048 27 30 55
-668.376 141.687 -2047 25 30 58
-663.865 141.623 -2047 24 28 56
-659.682 141.628 -2048 26 30 57
-656.14 141.772 -2051 29 31 60
-651.639 141.71 -2051 28 31 60
-647.458 141.716 -2052 26 30 60
-642.653 141.585 -2051 25 29 55
-637.858 141.455 -2050 25 29 54
-633.382 141.394 -2050 29 31 55
-628.298 141.196 -2048 29 33 62
-622.619 140.86 -2044 28 33 63
-618.778 140.939 -2046 31 35 69
-613.132 140.604 -2042 33 36 69
-607.807 140.34 -2039 31 34 67
-601.909 139.938 -2034 32 35 68
-596.332 139.606 -2030 34 37 71
-590.777 139.274 -2026 35 38 72
-585.534 139.012 -2023 34 38 74
-580.884 138.888 -2022 35 39 75
-576.814 138.902 -2023 255 255 255
-572.462 138.847 -2023 255 255 255
-566.991 138.519 -2019 255 255 255
-562.658 138.465 -2019 255 255 255
-556.947 138.07 -2014 255 255 255
-552.085 137.88 -2012 47 51 86
-547.781 137.828 -2012 41 48 85
-543.752 137.845 -2013 42 49 86
-539.724 137.862 -2014 40 47 85
-535.164 137.743 -2013 41 47 87
-529.823 137.419 -2009 40 46 86
-524.764 137.165 -2006 42 48 89
-520.242 137.047 -2005 41 48 89
-514.957 136.725 -2001 41 48 90
-510.458 136.608 -2000 43 49 90
-505.969 136.493 -1999 38 45 87
-500.735 136.172 -1995 36 43 86
-496.767 136.194 -1996 40 47 92
-492.799 136.216 -1997 40 48 92
-488.831 136.238 -1998 41 51 93
-484.863 136.26 -1999 45 54 97
-481.135 136.352 -2001 46 56 99
-476.926 136.307 -2001 47 57 102
-473.195 136.399 -2003 42 52 97
-469.458 136.491 -2005 39 49 94
-465.95 136.651 -2008 38 49 94
-461.973 136.676 -2009 39 50 96
-457.996 136.701 -2010 38 50 96
-453.792 136.659 -2010 38 49 95
-449.146 136.481 -2008 40 51 97
-444.954 136.439 -2008 41 53 100
-440.986 136.466 -2009 41 53 103
-437.235 136.561 -2011 43 57 109
-433.049 136.521 -2011 48 60 114
-429.293 136.617 -2013 51 63 116
-424.477 136.373 -2010 54 65 120
-420.722 136.47 -2012 54 66 118
-415.72 136.16 -2008 52 64 115
-411.353 136.054 -2007 50 59 114
-406.993 135.948 -2006 50 60 114
-402.642 135.843 -2005 51 61 113
-398.297 135.738 -2004 46 58 110
-394.354 135.77 -2005 45 56 108
-390.021 135.666 -2004 45 56 104
-386.08 135.698 -2005 46 55 98
-382.329 135.798 -2007 46 53 93
-378.573 135.898 -2009 42 49 88
-374.438 135.863 -2009 36 43 81
-370.861 136.032 -2012 32 38 75
-367.091 136.133 -2014 32 37 72
-363.497 136.302 -2017 31 36 70
-359.715 136.404 -2019 34 38 72
-356.104 136.574 -2022 35 40 73
-352.31 136.676 -2024 32 37 70
-348.51 136.779 -2026 32 37 70
-344.196 136.68 -2025 28 33 67
-340.224 136.716 -2026 29 35 66
-336.085 136.685 -2026 31 38 68
-332.276 136.789 -2028 30 39 67
-328.948 137.096 -2033 28 35 68
-325.602 137.404 -2038 27 34 67
-321.922 137.576 -2041 27 35 69
-317.766 137.547 -2041 28 35 69
-313.767 137.586 -2042 30 36 69
-309.462 137.49 -2041 28 35 69
-305.464 137.529 -2042 27 34 69
-301.464 137.569 -2043 31 38 74
-297.462 137.609 -2044 31 38 73
-293.746 137.784 -2047 29 36 71
-289.878 137.892 -2049 34 41 77
-285.586 137.798 -2048 39 46 82
-281.439 137.772 -2048 45 52 91
-276.752 137.478 -2044 50 57 98
-272.483 137.386 -2043 49 56 97
-268.484 137.428 -2044 42 51 87
-264.612 137.539 -2046 42 49 85
-260.988 137.784 -2050 38 44 78
-257.226 137.962 -2053 35 39 74
-253.33 138.073 -2055 35 39 74
-249.549 138.252 -2058 34 38 74
-246.593 138.901 -2068 33 38 73
-243.013 139.214 -2073 32 38 72
-239.184 139.394 -2076 255 255 255
-235.345 139.574 -2079 255 255 255
-231.496 139.754 -2082 255 255 255
-227.199 139.666 -2081 255 255 255
-223.123 139.713 -2082 255 255 255
-219.15 139.827 -2084 32 38 69
-215.481 140.143 -2089 30 36 67
-211.489 140.258 -2091 32 37 68
-207.689 140.507 -2095 33 37 67
-204.07 140.891 -2101 31 34 65
-200.428 141.275 -2107 30 32 60
-196.39 141.391 -2109 25 27 55
-192.347 141.507 -2111 25 28 54
-188.386 141.691 -2114 27 31 58
-184.328 141.809 -2116 26 31 60
-180.178 141.859 -2117 23 28 54
-176.191 142.044 -2120 26 31 57
-172.194 142.229 -2123 28 33 61
-168.187 142.415 -2126 27 32 60
-164.091 142.534 -2128 27 32 60
-159.689 142.386 -2126 26 32 59
-155.515 142.438 -2127 23 29 55
-151.268 142.424 -2127 24 32 55
-147.159 142.545 -2129 28 36 59
-143.313 142.933 -2135 28 36 59
-139.248 143.122 -2138 21 29 49
-135.425 143.578 -2145 16 23 44
-131.27 143.7 -2147 18 25 46
-126.989 143.688 -2147 19 27 51
-122.481 143.409 -2143 18 25 50
-118.044 143.198 -2140 21 29 53
-113.834 143.254 -2141 23 30 55
-109.671 143.378 -2143 21 29 54
-105.501 143.502 -2145 19 27 51
-101.372 143.693 -2148 20 28 52
-97.231 143.885 -2151 20 29 52
-92.863 143.743 -2149 20 28 51
-88.6275 143.802 -2150 20 28 51
-84.2317 143.593 -2147 22 31 55
-79.9603 143.586 -2147 21 30 54
-75.6542 143.512 -2146 24 32 57
-71.6854 144.107 -2155 23 33 57
-787.803 139.996 -2059 28 31 51
-782.335 139.785 -2057 28 31 57
-778.017 139.779 -2058 29 30 56
-772.199 139.501 -2055 23 24 50
-766.776 139.292 -2053 27 28 55
-761.74 139.151 -2052 31 31 60
-758.192 139.282 -2055 28 28 56
-753.904 139.278 -2056 24 24 49
-749.984 139.342 -2058 24 25 50
-745.699 139.339 -2059 25 26 52
-741.416 139.336 -2060 24 25 52
-737.137 139.333 -2061 22 22 49
-732.504 139.264 -2061 26 26 52
-727.525 139.127 -2060 29 29 56
-723.609 139.194 -2062 28 29 55
-717.949 138.923 -2059 25 28 53
-714.387 139.058 -2062 25 29 54
-708.409 138.721 -2058 29 32 55
-704.165 138.722 -2059 29 31 54
-697.545 138.252 -2053 28 30 53
-692.984 138.187 -2053 27 30 57
-687.423 137.92 -2050 27 31 59
-682.881 137.856 -2050 26 30 59
-677.683 137.658 -2048 24 28 57
-673.815 137.729 -2050 26 30 59
-668.312 137.465 -2047 26 29 61
-664.775 137.604 -2050 25 28 60
-659.619 137.408 -2048 25 28 60
-656.398 137.614 -2052 27 30 59
-652.212 137.621 -2053 26 29 60
-647.397 137.493 -2052 26 29 61
-642.592 137.366 -2051 26 30 59
-638.731 137.44 -2053 25 29 56
-633.322 137.181 -2050 28 32 57
-629.159 137.189 -2051 29 33 60
-624.083 136.997 -2049 29 32 61
-619.324 136.872 -2048 31 34 68
-612.774 136.348 -2041 30 33 67
-608.347 136.291 -2041 31 34 68
-602.149 135.835 -2035 33 36 70
-597.157 135.646 -2033 35 38 72
-591.305 135.257 -2028 34 37 71
-586.058 135.003 -2025 32 37 70
-581.118 134.816 -2023 33 37 71
-577.331 134.896 -2025 32 35 70
-572.408 134.71 -2023 255 255 255
-567.5 134.524 -2021 255 255 255
-562.606 134.339 -2019 255 255 255
-557.724 134.155 -2017 255 255 255
-552.857 133.971 -2015 255 255 255
-549.091 134.053 -2017 45 52 89
-544.512 133.936 -2016 44 51 88
-540.21 133.887 -2016 41 48 86
-535.381 133.705 -2014 41 47 88
-530.301 133.457 -2011 40 46 87
-524.977 133.143 -2007 41 47 88
-520.194 132.963 -2005 41 49 91
-515.166 132.717 -2002 41 48 90
-510.666 132.604 -2001 39 45 85
-505.922 132.425 -1999 35 41 83
-501.191 132.247 -1997 35 41 84
-496.97 132.201 -1997 39 46 91
-492.506 132.09 -1996 42 50 94
-488.541 132.112 -1997 43 52 94
-484.818 132.2 -1999 44 54 96
-480.85 132.222 -2000 43 52 95
-476.883 132.245 -2001 43 53 99
-472.915 132.268 -2002 41 51 97
-468.947 132.291 -2003 38 48 94
-465.211 132.381 -2005 41 51 95
-461.241 132.405 -2006 42 53 97
-457.498 132.496 -2008 41 53 99
-453.299 132.455 -2008 42 52 98
-449.105 132.414 -2008 43 53 99
