ply
format ascii 1.0
comment Created by Open3D
element vertex 1426
property double x
property double y
property double z
property uchar red
property uchar green
property uchar blue
end_header
-171.888 -659.469 -2052 35 46 108
-167.649 -659.393 -2052 38 43 105
-163.492 -659.641 -2053 41 46 108
-159.099 -658.926 -2051 49 54 116
-155.017 -659.498 -2053 63 70 132
-150.562 -658.466 -2050 83 90 150
-146.191 -657.758 -2048 71 78 130
-142.108 -658.336 -2050 38 42 80
-137.95 -658.595 -2051 34 36 68
-133.072 -655.323 -2041 30 35 61
-329.261 -666.233 -2046 56 63 123
-325.588 -667.386 -2050 38 45 112
-321.745 -668.215 -2053 29 38 96
-316.5 -666.117 -2047 33 43 103
-312.198 -665.974 -2047 53 64 128
-307.899 -665.833 -2047 49 58 123
-303.751 -666.02 -2048 46 54 122
-299.455 -665.883 -2048 52 61 137
-295.306 -666.073 -2049 53 62 137
-290.445 -664.64 -2045 33 42 114
-286.304 -664.834 -2046 26 36 79
-281.747 -664.055 -2044 28 37 75
-276.929 -662.629 -2040 32 40 75
-272.665 -662.505 -2040 36 36 64
-268.009 -661.408 -2037 35 35 64
-263.238 -659.989 -2033 38 39 69
-258.868 -659.546 -2032 43 46 99
-254.129 -658.132 -2028 39 43 101
-249.409 -656.72 -2024 45 49 120
-244.95 -655.959 -2022 63 75 149
-240.144 -654.228 -2017 36 49 123
-235.712 -653.471 -2015 25 36 96
-231.061 -652.069 -2011 24 37 100
-226.767 -651.641 -2010 33 47 111
-223.143 -653.161 -2015 66 79 173
-218.74 -652.413 -2013 67 82 176
-215.093 -653.935 -2018 49 66 162
-211.009 -654.163 -2019 63 84 184
-207.537 -656.337 -2026 72 94 193
-203.236 -655.92 -2025 79 100 199
-199.628 -657.772 -2031 49 65 164
-195.997 -659.626 -2037 47 63 160
-192.249 -661.158 -2042 53 70 161
-188.113 -661.396 -2043 45 65 154
-184.335 -662.931 -2048 52 73 162
-180.538 -664.467 -2053 51 68 157
-176.378 -664.71 -2054 40 54 129
-172.132 -664.632 -2054 31 42 105
-167.888 -664.556 -2054 29 34 93
-163.644 -664.481 -2054 28 34 91
-159.17 -663.438 -2051 37 42 97
-155.087 -664.014 -2053 45 54 106
-150.85 -663.945 -2053 56 64 116
-146.757 -664.525 -2055 47 54 104
-142.657 -665.107 -2057 33 37 77
-138.617 -666.014 -2060 35 37 73
-133.849 -663.366 -2052 31 37 67
-328.768 -669.462 -2042 47 53 106
-324.943 -670.296 -2045 35 41 102
-321.421 -671.786 -2050 27 36 94
-316.49 -670.329 -2046 34 44 104
-312.188 -670.185 -2046 56 68 133
-307.738 -669.716 -2045 79 89 159
-303.889 -670.558 -2048 48 58 129
-299.445 -670.093 -2047 31 41 112
-295.008 -669.63 -2046 41 49 120
-290.578 -669.169 -2045 70 77 148
-286.154 -668.71 -2044 46 55 113
-281.875 -668.58 -2044 33 42 88
-277.327 -667.798 -2042 34 42 80
-273.19 -667.999 -2043 39 39 65
-268.526 -666.895 -2040 35 36 67
-263.746 -665.466 -2036 58 61 98
-259.241 -664.693 -2034 90 95 164
-254.495 -663.269 -2030 62 66 137
-249.769 -661.847 -2026 47 48 120
-245.546 -661.734 -2026 72 81 159
-240.849 -660.317 -2022 39 50 128
-236.053 -658.576 -2017 19 30 90
-231.855 -658.47 -2017 22 36 99
-227.321 -657.386 -2014 46 61 126
-222.69 -655.978 -2010 88 101 195
-218.839 -656.857 -2013 89 104 198
-215.297 -658.716 -2019 79 96 191
-211 -658.293 -2018 80 98 197
-207.324 -659.828 -2023 84 102 201
-203.328 -660.388 -2025 78 96 193
-199.817 -662.579 -2032 35 49 138
-195.989 -663.793 -2036 28 41 129
-192.147 -665.009 -2040 46 63 153
-188.751 -667.856 -2049 57 76 167
-184.779 -668.749 -2052 65 85 176
-181.148 -670.947 -2059 63 80 174
-176.544 -669.563 -2055 51 65 147
-172.378 -669.81 -2056 27 39 108
-167.963 -669.081 -2054 27 34 88
-163.798 -669.332 -2055 24 31 82
-159.242 -667.956 -2051 25 32 74
-155.157 -668.536 -2053 29 38 76
-150.991 -668.792 -2054 25 35 73
-146.894 -669.376 -2056 28 34 81
-142.652 -669.31 -2056 31 34 79
-138.612 -670.223 -2059 33 36 80
-133.909 -667.883 -2052 31 38 74
-328.597 -673.34 -2040 29 36 85
-325.092 -674.839 -2045 28 34 90
-321.569 -676.34 -2050 29 37 97
-316.79 -675.203 -2047 49 59 120
-312.637 -675.388 -2048 60 72 137
-308.181 -674.915 -2047 59 69 140
-304.029 -675.103 -2048 39 49 120
-299.876 -675.294 -2049 33 43 112
-295.721 -675.486 -2050 36 44 112
-290.853 -674.033 -2046 66 74 141
-286.705 -674.23 -2047 82 90 160
-282.142 -673.44 -2045 66 75 130
-277.318 -671.994 -2041 40 49 92
-273.182 -672.197 -2042 34 35 58
-268.649 -671.414 -2040 36 38 67
-263.737 -669.646 -2035 66 69 109
-259.487 -669.526 -2035 91 98 173
-254.863 -668.421 -2032 75 81 158
-250.253 -667.319 -2029 40 42 117
-246.022 -667.204 -2029 45 54 129
-241.435 -666.107 -2026 59 70 146
-236.278 -663.367 -2018 39 52 129
-231.961 -662.931 -2017 50 65 143
-227.312 -661.511 -2013 53 68 147
-223.013 -661.079 -2012 84 100 188
-218.939 -661.307 -2013 86 102 192
-215.075 -662.193 -2016 84 100 191
-210.887 -662.096 -2016 85 101 197
-207.213 -663.642 -2021 86 101 197
-203.119 -663.876 -2022 66 80 174
-199.613 -666.082 -2029 31 44 126
-195.79 -667.305 -2033 28 42 122
-192.518 -670.498 -2043 45 65 152
-188.837 -672.38 -2049 57 76 168
-185.223 -674.591 -2056 56 75 171
-181.23 -675.492 -2059 55 72 169
-177.054 -675.739 -2060 52 67 155
-172.54 -674.675 -2057 31 44 121
-167.958 -673.285 -2053 26 35 87
-163.553 -672.553 -2051 20 29 75
-159.159 -671.824 -2049 24 33 65
-155 -672.08 -2050 21 30 58
-151.06 -673.322 -2054 24 32 62
-146.961 -673.909 -2056 28 32 79
-142.647 -673.516 -2055 30 34 85
-138.406 -673.452 -2055 42 46 98
-133.448 -669.785 -2044 40 46 86
-325.879 -680.718 -2049 25 33 88
-322.189 -681.896 -2053 24 32 93
-317.401 -680.751 -2050 43 52 114
-312.934 -680.273 -2049 59 69 134
-308.022 -678.801 -2045 55 64 134
-304.17 -679.654 -2048 35 44 114
-300.014 -679.846 -2049 43 52 120
-295.713 -679.708 -2049 53 61 128
-290.988 -678.577 -2046 62 70 136
-287.258 -679.769 -2050 80 87 161
-282.686 -678.974 -2048 82 91 150
-277.854 -677.518 -2044 48 58 104
-273.575 -677.391 -2044 33 35 55
-269.036 -676.602 -2042 32 34 60
-263.989 -674.491 -2036 50 52 89
-259.862 -674.701 -2037 89 94 164
-255.231 -673.588 -2034 68 74 147
-250.368 -671.816 -2029 32 38 111
-246.257 -672.032 -2030 46 56 130
-241.904 -671.588 -2029 81 92 167
-236.621 -668.499 -2020 80 95 182
-231.953 -667.067 -2016 84 99 184
-227.529 -666.3 -2014 69 84 168
-223.338 -666.195 -2014 65 79 166
-218.822 -665.101 -2011 78 92 180
-215.067 -666.324 -2015 86 100 189
-211.193 -667.218 -2018 84 98 191
-207.308 -668.113 -2021 61 75 167
-203.313 -668.68 -2023 34 47 135
-199.901 -671.231 -2031 25 39 120
-196.265 -673.123 -2037 33 48 127
-192.7 -675.346 -2044 51 71 160
-188.924 -676.91 -2049 56 75 169
-185.128 -678.476 -2054 59 78 175
-181.137 -679.383 -2057 57 73 171
-176.963 -679.63 -2058 58 74 165
-172.703 -679.55 -2058 44 58 141
-167.871 -677.16 -2051 40 50 107
-163.549 -676.754 -2050 20 30 80
-159.309 -676.68 -2050 21 31 63
-155.147 -676.938 -2051 23 32 61
-151.276 -678.518 -2056 24 33 62
-147.314 -679.769 -2060 30 34 73
-142.851 -678.713 -2057 46 52 108
-138.537 -678.318 -2056 69 75 141
-133.639 -674.957 -2046 50 56 117
-325.236 -683.611 -2044 29 38 95
-322.339 -686.469 -2053 29 37 100
-317.704 -685.651 -2051 24 32 96
-313.844 -686.506 -2054 29 37 102
-308.618 -684.355 -2048 31 39 106
-304.46 -684.546 -2049 39 47 114
-300.154 -684.405 -2049 54 62 130
-295.851 -684.265 -2049 45 53 120
-290.696 -682.125 -2043 59 67 133
-287.252 -683.993 -2049 70 77 146
-283.094 -684.194 -2050 56 64 123
-278.255 -682.728 -2046 35 44 91
-273.569 -681.598 -2043 34 35 56
-269.029 -680.805 -2041 31 33 57
-264.111 -679.013 -2036 32 33 66
-259.855 -678.891 -2036 51 52 109
-255.224 -677.77 -2033 56 58 120
-250.731 -676.986 -2031 51 61 128
-246.735 -677.537 -2033 70 81 151
-242.016 -676.09 -2029 77 89 160
-236.614 -672.647 -2019 68 82 172
-232.751 -673.537 -2022 80 95 179
-228.087 -672.098 -2018 67 82 161
-223.663 -671.327 -2016 49 60 141
-219.358 -670.891 -2015 46 57 139
-215.273 -671.123 -2016 49 62 145
-211.186 -671.357 -2017 55 68 156
-207.199 -671.925 -2019 32 46 134
-203.306 -672.829 -2022 27 40 126
-199.895 -675.397 -2030 31 47 131
-196.259 -677.301 -2036 45 62 145
-192.695 -679.539 -2043 61 80 172
-189.288 -682.444 -2052 58 77 173
-185.394 -683.688 -2056 62 81 179
-181.397 -684.6 -2059 52 67 163
-177.131 -684.517 -2059 49 65 157
-172.615 -683.439 -2056 43 58 145
-168.112 -682.363 -2053 46 57 120
-163.704 -681.621 -2051 20 31 87
-159.46 -681.547 -2051 21 31 71
-155.294 -681.806 -2052 25 34 69
-151.272 -682.732 -2055 24 32 65
-147.239 -683.659 -2058 28 33 66
-142.778 -682.596 -2055 40 47 107
-138.398 -681.867 -2053 52 59 136
-133.44 -678.151 -2042 55 61 136
-325.866 -689.182 -2047 38 46 106
-322.805 -691.722 -2055 44 51 119
-318.783 -692.244 -2057 48 56 125
-314.603 -692.431 -2058 39 47 116
-309.215 -689.929 -2051 27 34 100
-305.197 -690.457 -2053 31 38 102
-300.441 -689.306 -2050 33 43 109
-295.7 -688.157 -2047 48 58 124
-290.69 -686.338 -2042 63 73 139
-286.965 -687.547 -2046 56 62 121
-282.398 -686.741 -2044 38 43 97
-277.841 -685.938 -2042 32 35 81
-273.563 -685.808 -2042 35 34 58
-269.023 -685.009 -2040 34 33 58
-264.235 -683.541 -2036 32 32 61
-260.104 -683.754 -2037 35 34 78
-255.594 -682.961 -2035 69 68 117
-250.972 -681.836 -2032 73 82 138
-246.971 -682.39 -2034 57 65 131
-242.368 -681.269 -2031 53 61 132
-237.193 -678.474 -2023 53 65 139
-232.629 -677.358 -2020 52 65 130
-228.306 -676.914 -2019 35 50 107
-223.878 -676.138 -2017 34 43 100
-219.569 -675.699 -2016 28 38 97
-215.48 -675.933 -2017 22 34 98
-211.389 -676.168 -2018 30 46 123
-207.296 -676.405 -2019 56 73 153
-203.3 -676.979 -2021 65 81 169
-199.692 -678.895 -2027 58 74 163
-196.158 -681.147 -2034 62 79 168
-192.69 -683.735 -2042 71 87 179
-189.468 -687.328 -2053 61 79 175
-185.57 -688.58 -2057 66 85 184
-181.657 -689.833 -2061 51 68 160
-177.299 -689.415 -2060 28 45 135
-172.947 -688.998 -2059 22 39 127
-168.354 -687.58 -2055 44 56 126
-164.019 -687.169 -2054 28 38 104
-159.768 -687.093 -2054 26 35 86
-155.518 -687.02 -2054 28 36 80
-151.195 -686.614 -2053 28 36 78
-147.093 -687.213 -2055 39 43 79
-142.566 -685.808 -2051 60 67 131
-138.058 -684.405 -2047 60 69 150
-133.24 -681.333 -2038 55 62 147
-325.861 -693.416 -2046 50 57 117
-323.272 -696.99 -2057 63 70 141
-318.934 -696.838 -2057 81 88 161
-314.446 -696.349 -2056 74 82 157
-309.361 -694.507 -2051 44 50 119
-305.193 -694.7 -2052 31 36 102
-300.29 -693.203 -2048 26 35 100
-295.695 -692.385 -2046 35 44 109
-290.827 -690.892 -2042 50 61 125
-286.96 -691.77 -2045 38 45 95
-282.669 -691.635 -2045 34 38 84
-278.108 -690.826 -2043 37 36 75
-273.557 -690.02 -2041 40 35 62
-269.018 -689.215 -2039 39 35 61
-264.229 -687.737 -2035 35 35 63
-259.588 -686.6 -2032 33 32 68
-255.086 -685.802 -2030 50 49 87
-250.719 -685.345 -2029 54 59 99
-246.723 -685.903 -2031 31 36 83
-242.363 -685.45 -2030 27 32 84
-237.539 -683.649 -2025 29 37 88
-232.623 -681.513 -2019 34 45 90
-228.526 -681.742 -2020 29 42 82
-223.983 -680.623 -2017 27 34 80
-219.89 -680.855 -2018 27 36 86
-215.582 -680.415 -2017 22 34 92
-211.488 -680.652 -2018 38 55 130
-207.29 -680.553 -2018 80 98 178
-203.295 -681.131 -2020 82 100 192
-199.49 -682.385 -2024 72 89 181
-195.96 -684.652 -2031 71 88 181
-192.403 -686.92 -2038 70 84 177
-189.095 -690.201 -2048 63 81 176
-185.477 -692.472 -2055 67 88 186
-181.566 -693.733 -2059 56 74 167
-177.555 -694.66 -2062 43 61 152
-173.112 -693.904 -2060 33 53 140
-168.597 -692.813 -2057 34 47 123
-164.416 -693.072 -2058 27 39 111
-160.076 -692.659 -2057 28 39 99
-155.59 -691.575 -2054 26 34 85
-151.487 -692.176 -2056 28 35 83
-147.161 -691.769 -2055 41 44 94
-142.772 -691.028 -2053 61 68 135
-138.325 -689.953 -2050 65 74 153
-133.564 -687.196 -2042 62 72 156
-326.654 -699.359 -2050 47 53 111
-323.898 -702.614 -2060 59 66 137
-319.861 -703.143 -2062 69 76 151
-315.055 -701.968 -2059 75 84 162
-309.508 -699.092 -2051 64 70 141
-305.338 -699.286 -2052 50 54 121
-300.286 -697.437 -2047 42 50 114
-295.258 -695.592 -2042 30 39 104
-290.68 -694.771 -2040 37 47 111
-286.676 -695.315 -2042 32 38 81
-282.388 -695.179 -2042 32 36 75
-278.376 -695.726 -2044 38 36 66
-273.955 -695.254 -2043 41 36 61
-269.409 -694.444 -2041 39 35 60
-264.744 -693.296 -2038 35 35 63
-259.838 -691.471 -2033 31 31 63
-255.207 -690.328 -2030 31 30 64
-250.714 -689.528 -2028 37 37 74
-246.597 -689.75 -2029 31 34 75
-241.761 -687.934 -2024 25 31 75
-237.417 -687.48 -2023 30 37 82
-232.849 -686.349 -2020 29 37 82
-228.521 -685.9 -2019 31 41 84
-223.867 -684.434 -2015 33 41 100
-219.885 -685.008 -2017 35 44 105
-215.683 -684.905 -2017 48 62 130
-211.798 -685.822 -2020 76 92 174
-207.696 -686.062 -2021 90 108 193
-203.693 -686.643 -2023 69 88 183
-199.979 -688.245 -2028 51 69 164
-196.149 -689.508 -2032 66 83 178
-192.021 -689.756 -2033 65 78 171
-189.092 -694.415 -2047 60 77 171
-185.654 -697.379 -2056 63 83 180
-181.652 -698.31 -2059 58 77 172
-177.638 -699.242 -2062 53 72 165
-173.362 -699.159 -2062 49 69 158
-168.923 -698.4 -2060 42 57 140
-164.653 -698.321 -2060 41 54 134
-160.151 -697.228 -2057 49 60 129
-155.739 -696.475 -2055 43 51 109
-151.484 -696.403 -2055 42 48 103
-147.231 -696.332 -2055 36 39 98
-142.909 -695.925 -2054 37 44 113
-138.66 -695.858 -2054 58 67 145
-134.085 -694.1 -2049 84 96 185
-326.97 -704.296 -2051 36 42 99
-323.896 -706.886 -2059 46 52 122
-320.17 -708.104 -2063 51 58 133
-315.512 -707.265 -2061 59 68 144
-310.261 -705.055 -2055 61 67 138
-305.782 -704.564 -2054 74 78 145
-300.723 -702.703 -2049 81 89 155
-295.544 -700.503 -2043 71 79 146
-290.962 -699.676 -2041 58 66 134
-286.672 -699.537 -2041 33 40 76
-282.523 -699.744 -2042 33 38 69
-278.237 -699.609 -2042 36 37 56
-273.818 -699.134 -2041 36 33 52
-269.538 -699.004 -2041 39 36 56
-265.131 -698.533 -2040 33 33 59
-260.09 -696.353 -2034 32 33 63
-255.455 -695.203 -2031 43 44 76
-251.205 -695.081 -2031 76 74 124
-246.836 -694.62 -2030 49 53 105
-242.115 -693.134 -2026 32 41 96
-237.882 -693.019 -2026 28 34 96
-233.305 -691.881 -2023 47 54 118
-228.857 -691.086 -2021 66 74 141
-224.196 -689.61 -2017 81 91 179
-220.099 -689.846 -2018 67 78 168
-216 -690.084 -2019 65 78 169
-211.899 -690.323 -2020 79 95 190
-207.589 -689.882 -2019 81 98 194
-203.991 -691.833 -2025 65 83 179
-199.679 -691.395 -2024 61 79 175
-195.856 -692.668 -2028 67 84 180
-192.491 -695.649 -2037 47 64 156
-188.997 -698.289 -2045 57 74 167
-185.381 -700.591 -2052 58 77 171
-181.826 -703.234 -2060 54 73 169
-177.636 -703.49 -2061 57 77 172
-173.36 -703.406 -2061 51 73 167
-169.085 -703.325 -2061 53 67 157
-164.571 -702.222 -2058 41 53 142
-160.227 -701.803 -2057 47 56 135
-155.889 -701.387 -2056 39 46 113
-151.556 -700.973 -2055 33 39 102
-147.229 -700.561 -2054 33 37 101
-143.116 -701.173 -2056 35 42 113
-138.793 -700.766 -2055 59 68 145
-134.148 -698.655 -2049 79 92 187
-327.288 -709.244 -2052 33 41 99
-324.525 -712.542 -2062 35 42 108
-320.791 -713.767 -2066 35 42 113
-315.664 -711.886 -2061 37 46 115
-310.411 -709.662 -2055 33 40 108
-306.227 -709.858 -2056 48 53 120
-301.015 -707.64 -2050 64 72 140
-295.976 -705.769 -2045 85 92 162
-291.673 -705.627 -2045 65 70 145
-286.81 -704.107 -2041 30 38 75
-282.521 -703.97 -2041 30 38 67
-278.371 -704.179 -2042 33 39 48
-273.816 -703.356 -2040 34 36 45
-269.536 -703.225 -2040 36 36 47
-265.388 -703.441 -2041 33 34 56
-260.215 -700.901 -2034 30 32 60
-255.703 -700.088 -2032 36 39 69
-251.202 -699.277 -2030 61 65 114
-246.59 -698.123 -2027 65 75 133
-242.351 -698.006 -2027 59 74 142
-237.879 -697.201 -2025 32 45 112
-233.071 -695.367 -2020 55 67 136
-228.74 -694.911 -2019 76 88 160
-224.192 -693.77 -2016 76 92 183
-219.877 -693.319 -2015 76 93 186
-215.996 -694.246 -2018 53 71 164
-211.895 -694.487 -2019 52 69 166
-207.483 -693.699 -2017 68 85 183
-203.787 -695.319 -2022 79 95 193
-199.676 -695.566 -2023 80 95 195
-195.853 -696.846 -2027 70 86 186
-192.394 -699.503 -2035 25 43 137
-188.995 -702.505 -2044 38 56 148
-185.379 -704.821 -2051 41 58 149
-181.825 -707.482 -2059 42 60 156
-177.894 -708.77 -2063 51 70 166
-173.443 -707.999 -2061 44 67 165
-169.248 -708.26 -2062 44 59 155
-164.97 -708.18 -2062 41 55 149
-160.538 -707.415 -2060 48 58 144
-156.115 -706.653 -2058 37 43 119
-151.924 -706.922 -2059 32 37 108
-147.658 -706.85 -2059 40 45 118
-143.393 -706.781 -2059 50 58 131
-139.129 -706.713 -2059 68 78 151
-134.671 -705.618 -2056 72 87 180
-327.926 -714.899 -2055 57 64 125
-324.682 -717.174 -2062 65 74 138
-320.325 -717.017 -2062 66 75 142
-315.664 -716.166 -2060 61 71 139
-310.259 -713.58 -2053 38 47 114
-306.078 -713.777 -2054 29 37 101
-301.161 -712.239 -2050 29 39 103
-295.974 -710.009 -2044 48 58 124
-291.672 -709.867 -2044 47 54 125
-286.949 -708.684 -2041 30 37 73
-282.935 -709.24 -2043 31 37 67
-278.642 -709.103 -2043 30 37 53
-274.083 -708.274 -2041 32 34 46
-269.534 -707.448 -2039 35 35 46
-265.517 -708.012 -2041 34 35 56
-260.341 -705.456 -2034 33 35 61
-255.953 -704.984 -2033 31 33 62
-251.695 -704.861 -2033 37 41 83
-247.317 -704.393 -2032 56 65 123
-242.946 -703.928 -2031 69 84 161
-238.464 -703.118 -2029 52 65 134
-233.646 -701.271 -2024 48 61 133
-229.19 -700.466 -2022 74 84 165
-224.523 -698.97 -2018 79 95 184
-220.202 -698.516 -2017 82 99 190
-216.101 -698.757 -2018 69 86 181
-211.892 -698.653 -2018 63 77 172
-207.583 -698.206 -2017 75 89 184
-203.683 -699.145 -2020 88 101 197
-200.069 -701.123 -2026 91 105 196
-196.141 -702.066 -2029 70 85 172
-192.486 -704.048 -2035 26 43 131
-189.178 -707.415 -2045 28 45 133
-185.288 -708.708 -2049 29 46 135
-181.559 -710.695 -2055 42 59 152
-177.375 -710.954 -2056 51 69 163
-173.358 -711.906 -2059 50 71 169
-169.083 -711.824 -2059 37 55 149
-164.889 -712.089 -2060 40 56 149
-160.537 -711.665 -2059 48 60 148
-156.418 -712.28 -2061 43 52 133
-152.366 -713.242 -2064 37 45 122
-147.944 -712.478 -2062 60 64 142
-143.741 -712.753 -2063 52 57 131
-139.669 -713.722 -2066 68 74 144
-134.997 -711.583 -2060 55 68 149
-328.406 -720.223 -2057 53 59 120
-324.527 -721.113 -2060 72 81 144
-320.637 -722.005 -2063 80 92 157
-315.972 -721.148 -2061 74 86 157
-310.411 -718.196 -2053 51 63 130
-306.377 -718.744 -2055 33 45 106
-301.896 -718.245 -2054 36 48 109
-296.554 -715.65 -2047 52 63 125
-292.385 -715.856 -2048 41 51 114
-287.934 -715.364 -2047 32 37 71
-283.489 -714.874 -2046 32 36 66
-278.778 -713.689 -2043 32 35 68
-274.619 -713.902 -2044 34 34 56
-269.798 -712.372 -2040 37 35 52
-265.776 -712.94 -2042 33 33 57
-261.109 -711.763 -2039 33 34 60
-256.708 -711.288 -2038 31 32 60
-252.189 -710.465 -2036 37 38 72
-247.438 -708.948 -2032 62 67 120
-242.825 -707.781 -2029 69 80 159
-238.227 -706.617 -2026 47 57 125
-233.413 -704.759 -2021 33 43 114
-229.075 -704.297 -2020 55 64 146
-224.521 -703.141 -2017 83 95 174
-220.309 -703.032 -2017 85 98 177
-216.099 -702.926 -2017 69 84 170
-211.995 -703.17 -2018 58 71 156
-207.581 -702.371 -2016 54 66 150
-203.883 -704.012 -2021 41 53 139
-200.166 -705.656 -2026 37 51 131
-196.43 -707.3 -2031 30 45 121
-192.769 -709.295 -2037 29 46 130
-189.363 -712.336 -2046 42 58 144
-185.649 -714.333 -2052 39 55 144
-181.912 -716.333 -2058 48 64 153
-177.807 -716.941 -2060 57 74 165
-173.863 -718.248 -2064 58 76 171
-169.657 -718.512 -2065 44 61 152
-164.969 -716.691 -2060 42 59 148
-160.927 -717.656 -2063 63 76 164
-156.797 -718.274 -2065 66 77 160
-152.513 -718.199 -2065 50 59 139
-148.087 -717.431 -2063 38 41 120
-143.81 -717.36 -2063 43 47 121
-139.737 -718.334 -2066 47 52 121
-134.8 -714.791 -2056 35 44 119
-324.687 -725.755 -2060 39 47 111
-320.329 -725.595 -2060 46 57 132
-315.668 -724.733 -2058 37 51 120
-310.564 -722.818 -2053 29 41 111
-306.528 -723.369 -2055 28 38 108
-302.045 -722.867 -2054 31 43 109
-296.989 -720.96 -2049 50 62 129
-292.957 -721.518 -2051 49 59 131
-288.357 -720.671 -2049 31 36 78
-283.905 -720.178 -2048 33 36 70
-278.915 -718.281 -2043 33 37 67
-274.216 -717.09 -2040 34 36 59
-269.401 -715.55 -2036 35 35 55
-265.516 -716.472 -2039 31 31 54
-260.98 -715.64 -2037 31 32 56
-256.707 -715.513 -2037 30 31 58
-252.437 -715.387 -2037 32 33 67
-247.559 -713.509 -2032 50 55 102
-242.705 -711.633 -2027 41 53 121
-238.109 -710.461 -2024 31 42 101
-233.296 -708.59 -2019 24 35 94
-229.187 -708.828 -2020 32 43 103
-224.965 -708.716 -2020 57 67 120
-220.635 -708.256 -2019 66 77 127
-216.526 -708.5 -2020 45 58 111
-212.414 -708.745 -2021 28 41 99
-207.991 -707.941 -2019 28 40 102
-204.285 -709.592 -2024 28 42 105
-200.264 -710.194 -2026 24 40 112
-196.719 -712.551 -2033 49 66 147
-192.958 -714.208 -2038 53 69 159
-189.455 -716.917 -2046 58 74 164
-185.74 -718.928 -2052 48 64 156
-182.089 -721.29 -2059 43 59 148
-177.98 -721.902 -2061 56 72 161
-173.779 -722.167 -2062 55 72 164
-169.74 -723.133 -2065 53 70 158
-165.37 -722.701 -2064 46 64 150
-161.005 -722.271 -2063 50 63 147
-157.026 -723.594 -2067 41 50 128
-152.883 -724.218 -2069 68 76 151
-148.447 -723.444 -2067 51 54 128
-144.229 -723.723 -2068 41 45 118
-140.143 -724.703 -2071 52 57 128
-135.522 -722.886 -2066 41 50 126
-324.848 -730.403 -2060 51 59 125
-320.177 -729.533 -2058 59 69 151
-315.518 -728.666 -2056 57 69 141
-310.718 -727.447 -2053 49 60 134
-306.978 -728.711 -2057 41 50 128
-302.342 -727.851 -2055 77 86 156
-297.282 -725.931 -2050 88 98 168
-292.96 -725.784 -2050 72 81 156
-288.64 -725.64 -2050 39 46 91
-283.768 -724.082 -2046 31 37 72
-279.189 -723.234 -2044 33 38 63
-274.756 -722.743 -2043 34 36 60
-269.931 -721.193 -2039 33 33 56
-265.908 -721.767 -2041 31 31 53
-261.238 -720.576 -2038 32 32 56
-256.834 -720.094 -2037 31 31 57
-252.437 -719.614 -2036 35 34 70
-247.803 -718.43 -2033 49 52 98
-243.064 -716.895 -2029 46 58 123
-238.461 -715.716 -2026 28 40 101
-233.527 -713.48 -2020 22 33 93
-229.527 -714.072 -2022 23 35 87
-224.964 -712.9 -2019 29 41 95
-220.744 -712.79 -2019 25 37 92
-216.525 -712.682 -2019 30 44 98
-212.624 -713.634 -2022 27 41 100
-208.094 -712.472 -2019 26 39 102
-204.588 -714.84 -2026 35 50 124
-200.758 -716.151 -2030 48 64 143
-197.009 -717.816 -2035 70 86 173
-193.147 -719.131 -2039 68 85 178
-189.919 -722.916 -2050 52 68 160
-186.193 -724.939 -2056 24 40 131
-182.444 -726.964 -2062 24 40 126
-178.413 -727.932 -2065 42 58 144
-174.37 -728.903 -2068 43 58 146
-170.235 -729.523 -2070 35 52 135
-165.772 -728.735 -2068 47 64 146
-161.474 -728.654 -2068 43 54 132
-157.407 -729.633 -2071 43 50 123
-153.254 -730.261 -2073 68 73 141
-148.879 -729.834 -2072 51 55 120
-144.439 -729.058 -2070 48 52 121
-140.28 -729.692 -2072 57 62 136
-135.72 -728.216 -2068 54 63 140
-324.221 -733.274 -2055 57 64 135
-319.403 -732.043 -2052 71 80 162
-314.907 -731.527 -2051 77 87 163
-310.267 -730.657 -2049 79 89 166
-306.236 -731.215 -2051 60 69 150
-301.904 -731.063 -2051 71 81 151
-296.85 -729.131 -2046 77 87 155
-292.677 -729.34 -2047 79 89 162
-288.502 -729.551 -2048 47 56 103
-283.632 -727.983 -2044 28 36 72
-279.328 -727.843 -2044 32 39 61
-275.027 -727.704 -2044 34 37 60
-270.463 -726.856 -2042 33 33 57
-266.171 -726.721 -2042 32 32 55
-261.624 -725.878 -2040 34 34 59
-256.836 -724.326 -2036 33 33 59
-252.439 -723.843 -2035 33 32 69
-247.683 -722.296 -2031 42 44 89
-242.825 -720.395 -2026 63 75 140
-238.462 -719.92 -2025 53 63 130
-233.643 -718.025 -2020 37 47 112
-229.528 -718.265 -2021 29 40 94
-225.187 -717.796 -2020 39 53 112
-221.181 -718.396 -2022 61 77 137
-216.955 -718.287 -2022 58 75 145
-212.94 -718.89 -2024 44 60 133
-208.506 -718.075 -2022 42 57 134
-204.992 -720.458 -2029 66 83 171
-201.154 -721.777 -2033 77 93 182
-197.591 -724.163 -2040 77 93 183
-193.622 -725.131 -2043 70 87 182
-190.105 -727.875 -2051 54 70 164
-186.376 -729.911 -2057 21 37 126
-182.534 -731.593 -2062 14 31 113
-178.415 -732.213 -2064 29 45 126
-174.372 -733.19 -2067 36 50 133
-170.154 -733.459 -2068 33 47 127
-165.693 -732.666 -2066 34 49 128
-161.632 -733.649 -2069 39 49 121
-157.408 -733.925 -2070 31 38 104
-153.182 -734.202 -2071 33 36 99
-148.808 -733.773 -2070 38 42 102
-144.58 -734.055 -2071 49 53 121
-140.417 -734.693 -2073 50 55 131
-135.524 -731.435 -2064 60 69 147
-324.858 -739.003 -2058 60 66 144
-320.031 -737.763 -2055 76 85 161
-315.22 -736.525 -2052 75 84 163
-310.878 -736.367 -2052 83 93 172
-306.539 -736.212 -2052 50 61 138
-302.35 -736.417 -2053 36 47 111
-297.434 -734.831 -2049 34 45 107
-293.253 -735.041 -2050 36 46 112
-288.929 -734.894 -2050 34 42 89
-284.191 -733.674 -2047 29 37 73
-279.879 -733.533 -2047 31 40 64
-275.569 -733.393 -2047 31 36 60
-270.864 -732.181 -2044 32 34 57
-266.174 -730.971 -2041 32 32 56
-261.755 -730.48 -2040 36 36 62
-256.965 -728.918 -2036 36 36 64
-252.317 -727.716 -2033 37 36 71
-247.44 -725.801 -2028 42 44 88
-242.827 -724.604 -2025 68 79 149
-238.346 -723.768 -2023 68 78 150
-233.412 -721.503 -2017 44 54 124
-229.301 -721.745 -2018 37 48 110
-225.188 -721.989 -2019 40 59 122
-221.182 -722.592 -2021 72 94 158
-216.848 -722.125 -2020 60 82 173
-213.046 -723.447 -2024 49 68 162
-208.92 -723.699 -2025 59 76 171
-205.196 -725.382 -2030 58 74 176
-201.353 -726.709 -2034 57 73 172
-197.981 -729.825 -2043 66 81 176
-194.003 -730.798 -2046 68 83 180
-190.664 -734.273 -2056 58 73 168
-187.103 -737.036 -2064 20 36 124
-183.245 -738.729 -2069 15 32 111
-178.936 -738.638 -2069 18 35 113
-174.965 -739.978 -2073 19 32 111
-170.815 -740.606 -2075 24 37 113
-166.257 -739.451 -2072 31 44 119
-162.025 -739.725 -2073 26 34 100
-157.867 -740.359 -2075 24 28 90
-153.554 -740.282 -2075 28 30 89
-149.026 -739.136 -2072 41 45 103
-144.582 -738.349 -2070 57 61 128
-140.419 -738.992 -2072 70 74 153
-135.591 -736.07 -2064 69 78 157
-325.813 -745.474 -2063 43 50 125
-320.193 -742.419 -2055 47 56 126
-315.225 -740.813 -2051 47 56 134
-311.035 -741.015 -2052 43 52 130
-306.545 -740.497 -2051 23 34 106
-302.209 -740.343 -2051 24 34 97
-297.73 -739.83 -2050 22 31 91
-293.687 -740.401 -2052 34 43 105
-289.357 -740.253 -2052 45 54 106
-284.751 -739.386 -2050 32 41 87
-280.294 -738.883 -2049 27 39 72
-275.842 -738.381 -2048 29 37 65
-270.868 -736.44 -2043 32 35 58
-266.177 -735.223 -2040 34 33 58
-261.502 -734.009 -2037 35 34 61
-256.589 -732.076 -2032 36 36 66
-252.072 -731.227 -2030 37 37 64
-247.443 -730.02 -2027 44 46 81
-242.709 -728.456 -2023 50 61 131
-238.348 -727.974 -2022 45 55 123
-233.645 -726.415 -2018 41 51 118
-229.417 -726.298 -2018 36 44 110
-225.413 -726.903 -2020 40 57 125
-221.294 -727.15 -2021 84 105 176
-217.064 -727.04 -2021 66 88 181
-213.153 -728.01 -2024 65 85 177
-209.025 -728.264 -2025 60 77 168
-205.096 -729.238 -2028 55 71 174
-201.355 -730.934 -2033 67 83 185
-197.595 -732.631 -2038 65 80 180
-194.1 -735.408 -2046 70 85 185
-190.667 -738.546 -2055 55 70 167
-187.106 -741.325 -2063 18 34 123
-183.16 -742.67 -2067 27 45 128
-179.112 -743.656 -2070 36 53 134
-174.884 -743.926 -2071 19 32 111
-170.983 -745.635 -2076 20 32 108
-166.34 -744.114 -2072 30 42 116
-162.185 -744.75 -2074 32 39 99
-157.87 -744.669 -2074 29 33 91
-153.779 -745.668 -2077 34 37 93
-148.957 -743.079 -2070 49 51 113
-144.585 -742.646 -2069 58 61 131
-140.489 -743.652 -2072 63 67 150
-135.659 -740.711 -2064 43 54 131
-325.189 -748.339 -2058 30 38 106
-320.357 -747.084 -2055 22 30 96
-315.232 -745.103 -2050 25 35 107
-311.194 -745.67 -2052 24 34 107
-306.701 -745.149 -2051 26 37 105
-302.363 -744.993 -2051 32 40 104
-297.881 -744.476 -2050 30 39 99
-293.837 -745.052 -2052 45 53 115
-289.504 -744.903 -2052 67 76 136
-285.174 -744.756 -2052 47 58 116
-280.71 -744.249 -2051 32 44 90
-276.522 -744.47 -2052 28 37 74
-271.271 -741.791 -2045 31 35 59
-266.443 -740.203 -2041 33 31 58
-261.763 -738.98 -2038 34 31 60
-256.845 -737.036 -2033 33 32 63
-252.2 -735.818 -2030 32 31 59
-247.935 -735.691 -2030 41 42 77
-243.552 -735.204 -2029 63 74 145
-239.294 -735.081 -2029 38 49 114
-234.575 -733.512 -2025 22 33 96
-230.102 -732.669 -2023 28 36 101
-225.639 -731.829 -2021 37 49 119
-221.296 -731.353 -2020 83 98 171
-216.852 -730.518 -2018 75 92 182
-212.945 -731.495 -2021 66 82 173
-208.614 -731.026 -2020 73 87 180
-204.694 -732.007 -2023 63 78 175
-200.962 -733.713 -2028 66 81 179
-197.404 -736.144 -2035 63 78 179
-194.009 -739.301 -2044 70 86 187
-190.856 -743.543 -2056 60 76 176
-187.473 -747.064 -2066 37 53 145
-183.607 -748.777 -2071 51 68 156
-179.635 -750.132 -2075 62 79 166
-175.31 -750.042 -2075 58 72 153
-170.905 -749.593 -2074 49 62 138
-166.906 -750.953 -2078 37 49 123
-162.423 -750.147 -2076 29 35 93
-158.178 -750.427 -2077 26 31 86
-153.93 -750.709 -2078 35 39 93
-149.392 -749.549 -2075 48 51 117
-144.797 -748.03 -2071 44 48 120
-140.628 -748.68 -2073 45 50 132
-135.53 -744.276 -2061 60 71 148
-325.198 -752.653 -2057 26 34 94
-320.053 -750.657 -2052 21 29 92
-315.548 -750.128 -2051 31 41 107
-311.202 -749.966 -2051 59 69 137
-306.709 -749.442 -2050 64 74 141
-302.517 -749.65 -2051 39 47 111
-298.18 -749.496 -2051 44 51 114
-293.987 -749.709 -2052 38 46 111
-289.935 -750.29 -2054 52 62 131
-285.737 -750.507 -2055 65 76 149
-280.717 -748.536 -2050 46 58 120
-276.259 -748.028 -2049 29 39 88
-270.878 -744.967 -2041 31 35 63
-266.057 -743.37 -2037 33 31 59
-261.383 -742.14 -2034 33 30 60
-256.724 -740.912 -2031 31 30 63
-252.328 -740.417 -2030 48 45 81
-248.061 -740.289 -2030 64 63 103
-243.797 -740.163 -2030 64 75 149
-239.652 -740.404 -2031 49 60 126
-235.042 -739.189 -2028 27 39 101
-230.105 -736.883 -2022 25 33 97
-225.977 -737.131 -2023 29 37 106
-221.628 -736.652 -2022 47 56 129
-216.855 -734.718 -2017 53 64 152
-212.632 -734.609 -2017 62 73 162
-208.514 -734.865 -2018 59 70 161
-204.292 -734.76 -2018 56 69 156
-200.667 -736.841 -2024 60 74 164
-196.922 -738.559 -2029 65 81 180
-193.632 -742.1 -2039 75 92 191
-190.581 -746.733 -2052 63 79 178
-187.478 -751.367 -2065 45 60 154
-183.523 -752.727 -2069 52 67 160
-179.727 -754.818 -2075 49 65 157
-175.569 -755.455 -2077 41 59 142
-171.239 -755.366 -2077 42 57 136
-166.75 -754.553 -2075 29 42 118
-162.662 -755.56 -2078 24 30 88
-158.258 -755.115 -2077 26 32 88
-153.934 -755.035 -2077 33 38 92
-149.396 -753.867 -2074 41 45 113
-144.941 -753.065 -2072 45 50 121
-140.767 -753.72 -2074 57 64 141
-135.862 -750.379 -2065 48 58 136
-325.841 -758.441 -2060 32 39 101
-320.687 -756.433 -2055 26 33 95
-315.865 -755.164 -2052 38 46 111
-311.363 -754.633 -2051 66 76 142
-307.166 -754.841 -2052 70 80 150
-303.116 -755.418 -2054 46 54 122
-298.479 -754.527 -2052 36 42 109
-294.426 -755.109 -2054 48 55 127
-290.367 -755.693 -2056 68 78 154
-286.163 -755.912 -2057 77 89 171
-280.861 -753.193 -2050 66 81 155
-276.536 -753.049 -2050 41 52 113
-270.885 -749.234 -2040 30 35 67
-266.324 -748.361 -2038 35 34 61
-261.646 -747.123 -2035 32 30 58
-257.362 -746.989 -2035 32 29 64
-252.831 -746.123 -2033 36 31 78
-248.922 -747.095 -2036 68 65 116
-244.282 -745.867 -2033 71 82 156
-239.539 -744.275 -2029 55 66 134
-235.279 -744.153 -2029 31 43 108
-230.337 -741.833 -2023 32 40 102
-226.093 -741.715 -2023 32 38 108
-221.522 -740.5 -2020 41 46 122
-217.181 -740.021 -2019 30 40 122
-212.846 -739.544 -2018 35 45 124
-208.827 -740.168 -2020 35 46 121
-204.802 -740.794 -2022 38 49 124
-200.969 -742.156 -2026 51 63 142
-197.12 -743.519 -2030 63 80 168
-193.636 -746.348 -2038 70 87 179
-190.493 -750.644 -2050 58 75 167
-187.574 -756.039 -2065 50 66 159
-183.706 -757.774 -2070 60 75 170
-179.905 -759.877 -2076 56 71 166
-175.743 -760.518 -2078 55 73 159
-171.244 -759.697 -2076 56 71 153
-167.157 -760.708 -2079 44 58 137
-162.745 -760.257 -2078 29 38 96
-158.415 -760.175 -2078 23 30 86
-154.236 -760.826 -2080 29 34 89
-149.76 -760.017 -2078 45 49 114
-145.365 -759.576 -2077 53 58 124
-141.11 -759.868 -2078 56 64 132
-136.656 -759.066 -2076 40 50 129
-131.764 -755.706 -2067 65 74 146
-325.535 -762.028 -2057 48 55 133
-320.698 -760.748 -2054 35 41 102
-315.721 -759.101 -2050 27 35 101
-311.221 -758.567 -2049 38 47 117
-307.026 -758.776 -2050 59 69 140
-302.683 -758.617 -2050 60 67 138
-298.052 -757.72 -2048 35 40 111
-294.005 -758.306 -2050 50 57 132
-289.811 -758.524 -2051 56 65 144
-285.337 -758.004 -2050 71 84 167
-280.321 -756.008 -2045 86 100 183
-276.139 -756.233 -2046 67 78 148
-270.893 -753.504 -2039 40 44 79
-266.724 -753.734 -2040 35 34 61
-262.296 -753.227 -2039 34 32 60
-258.128 -753.461 -2040 36 33 70
-253.833 -753.328 -2040 42 38 88
-249.418 -752.828 -2039 48 43 98
-244.77 -751.593 -2036 41 52 120
-240.017 -749.99 -2032 43 55 121
-235.748 -749.867 -2032 35 47 112
-230.684 -747.163 -2025 39 47 107
-226.322 -746.675 -2024 44 54 119
-221.308 -743.978 -2017 75 86 158
-216.971 -743.495 -2016 75 88 177
-212.64 -743.015 -2015 39 52 134
-208.728 -744.012 -2018 25 38 109
-204.604 -744.274 -2019 21 33 100
-200.774 -745.643 -2023 24 37 106
-196.93 -747.015 -2027 29 47 123
-193.451 -749.862 -2035 44 62 144
-189.94 -752.711 -2043 37 55 139
-186.852 -757.403 -2056 32 48 135
-183.268 -760.254 -2064 49 66 155
-179.738 -763.475 -2073 61 78 168
-175.495 -763.751 -2074 57 73 160
-171.167 -763.662 -2074 54 70 154
-167.082 -764.679 -2077 42 56 138
-162.986 -765.698 -2080 26 37 97
-158.497 -764.879 -2078 25 34 93
-154.463 -766.271 -2082 31 38 94
-150.126 -766.192 -2082 54 57 115
-145.859 -766.484 -2083 65 69 129
-141.455 -766.042 -2082 68 75 136
-136.923 -764.866 -2079 62 71 151
-132.151 -762.222 -2072 77 87 160
-326.181 -767.845 -2060 64 76 165
-320.865 -765.439 -2054 44 52 123
-315.733 -763.408 -2049 27 36 109
-310.776 -761.754 -2045 35 45 118
-306.888 -762.709 -2048 56 68 137
-302.398 -762.177 -2047 55 66 136
-297.771 -761.275 -2045 33 41 113
-293.441 -761.12 -2045 29 37 114
-289.255 -761.339 -2046 49 59 137
-284.79 -760.817 -2045 78 91 171
-279.919 -759.181 -2041 79 90 169
-275.743 -759.407 -2042 67 76 145
-271.3 -758.892 -2041 44 48 85
-267.255 -759.495 -2043 35 33 63
-262.819 -758.984 -2042 37 34 65
-258.642 -759.219 -2043 33 34 78
-254.588 -759.829 -2045 53 55 109
-250.16 -759.325 -2044 78 80 138
-245.498 -758.081 -2041 34 47 110
-240.851 -756.84 -2038 28 39 102
-236.684 -757.087 -2039 27 38 101
-231.146 -752.881 -2028 38 48 108
-226.44 -751.277 -2024 53 65 133
-221.423 -748.562 -2017 76 91 169
-216.976 -747.705 -2015 83 96 186
-212.644 -747.222 -2014 58 70 157
-208.837 -748.596 -2018 32 45 122
-204.913 -749.601 -2021 27 42 118
-201.077 -750.979 -2025 20 35 110
-197.227 -752.359 -2029 19 35 108
-193.361 -753.74 -2033 26 42 120
-189.946 -756.977 -2042 19 36 115
-186.676 -760.956 -2053 34 51 132
-183.274 -764.566 -2063 50 67 152
-179.657 -767.437 -2071 50 66 154
-175.67 -768.827 -2075 43 57 143
-171.338 -768.736 -2075 52 65 149
-167.088 -769.019 -2076 44 56 139
-162.913 -769.674 -2078 39 50 117
-158.732 -770.331 -2080 41 50 113
-154.543 -770.991 -2082 33 42 99
-150.348 -771.652 -2084 38 40 100
-146.215 -772.686 -2087 48 50 111
-141.732 -771.87 -2085 47 50 116
-137.39 -771.798 -2085 58 65 141
-132.857 -770.618 -2082 74 81 151
-321.504 -771.261 -2057 67 79 170
-316.516 -769.593 -2053 34 46 128
-311.7 -768.302 -2050 20 31 106
-307.349 -768.139 -2050 23 37 100
-302.705 -767.228 -2048 42 56 121
-298.219 -766.695 -2047 61 75 145
-293.595 -765.79 -2045 68 81 159
-289.266 -765.636 -2045 71 83 161
-284.939 -765.485 -2045 49 60 134
-280.203 -764.213 -2042 40 44 107
-276.023 -764.441 -2043 32 36 92
-271.309 -763.174 -2040 29 32 67
-267.265 -763.78 -2042 33 30 64
-262.828 -763.267 -2041 36 31 66
-258.524 -763.129 -2041 45 54 108
-254.348 -763.369 -2042 59 72 130
-250.046 -763.236 -2042 60 76 135
-245.627 -762.732 -2041 49 63 126
-240.859 -761.109 -2037 25 36 98
-236.575 -760.984 -2037 26 35 94
-231.039 -756.752 -2026 43 55 118
-226.446 -755.511 -2023 70 84 157
-221.758 -753.9 -2019 83 99 187
-217.628 -754.158 -2020 82 94 183
-213.178 -753.298 -2018 60 72 160
-209.36 -754.68 -2022 52 62 150
-205.426 -755.691 -2025 58 77 166
-201.083 -755.212 -2024 60 79 167
-196.843 -755.107 -2024 59 74 153
-193.272 -757.616 -2031 51 65 146
-189.673 -760.127 -2038 31 44 126
-186.41 -764.131 -2049 35 53 132
-182.925 -767.391 -2058 55 70 153
-179.577 -771.397 -2069 54 68 153
-175.762 -773.541 -2075 46 58 143
-171.593 -774.196 -2077 55 65 149
-167.175 -773.734 -2076 57 66 148
-163.233 -775.511 -2081 44 51 124
-158.814 -775.055 -2080 53 61 128
-154.549 -775.345 -2081 33 42 100
-150.282 -775.638 -2082 39 41 105
-145.941 -775.561 -2082 46 48 113
-141.465 -774.741 -2080 48 48 119
-137.131 -774.668 -2080 47 51 123
-132.416 -772.363 -2074 62 68 133
-328.745 -782.56 -2074 72 85 172
-322.456 -777.86 -2062 67 77 166
-316.838 -774.672 -2054 34 45 126
-311.713 -772.619 -2049 22 32 105
-307.212 -772.077 -2048 22 33 96
-302.718 -771.539 -2047 45 57 123
-297.939 -770.248 -2044 74 89 161
-293.751 -770.468 -2045 75 91 165
-289.278 -769.936 -2044 55 69 141
-284.811 -769.407 -2043 28 36 103
-280.214 -768.504 -2041 29 34 81
-275.899 -768.357 -2041 34 38 81
-271.453 -767.835 -2040 34 34 72
-267.275 -768.069 -2041 30 30 61
-262.967 -767.928 -2041 38 37 67
-259.168 -769.295 -2045 73 82 136
-254.856 -769.159 -2045 79 93 156
-250.423 -768.649 -2044 46 64 131
-245.877 -767.765 -2042 46 60 132
-241.223 -766.508 -2039 41 52 121
-236.584 -765.254 -2036 24 32 98
-231.275 -761.748 -2027 28 37 100
-226.677 -760.5 -2024 53 63 132
-222.095 -759.254 -2021 77 89 168
-217.958 -759.514 -2022 89 101 188
-213.502 -758.649 -2020 65 77 164
-209.781 -760.414 -2025 35 49 131
-205.737 -761.056 -2027 57 74 160
-201.387 -760.573 -2026 80 98 186
-197.142 -760.468 -2026 80 96 198
-193.278 -761.866 -2030 76 91 188
-189.773 -764.767 -2038 39 54 148
-186.326 -768.045 -2047 30 50 133
-183.021 -772.075 -2058 50 67 151
-179.498 -775.356 -2067 48 64 149
-175.77 -777.888 -2074 43 54 132
-171.765 -779.297 -2078 41 50 126
-167.424 -779.207 -2078 48 55 129
-163.319 -780.245 -2081 39 47 112
-158.974 -780.16 -2081 30 39 100
-154.779 -780.827 -2083 28 37 93
-150.433 -780.747 -2083 32 34 99
-145.947 -779.92 -2081 34 37 101
-141.54 -779.469 -2080 32 37 97
-137.203 -779.396 -2080 37 44 109
-132.549 -777.452 -2075 58 66 127
-127.669 -774.011 -2066 71 76 105
-335.911 -793.573 -2090 65 71 130
-328.604 -786.561 -2072 67 76 154
-322.785 -782.971 -2063 53 62 146
-317.316 -780.143 -2056 30 39 118
-311.879 -777.318 -2049 21 31 103
-307.676 -777.532 -2050 21 31 97
-303.027 -776.61 -2048 54 65 131
-298.39 -775.691 -2046 79 93 163
-294.195 -775.911 -2047 82 97 165
-289.715 -775.376 -2046 43 56 122
-285.102 -774.465 -2044 24 31 92
-280.501 -773.556 -2042 29 36 79
-276.181 -773.407 -2042 36 42 79
-271.597 -772.504 -2040 33 33 72
-267.417 -772.738 -2041 30 30 61
-262.849 -771.84 -2039 30 31 59
-259.052 -773.215 -2043 56 63 113
-254.991 -773.834 -2045 81 94 156
-250.556 -773.321 -2044 64 83 154
-246.007 -772.433 -2042 33 45 119
-241.588 -771.924 -2041 58 69 141
-236.709 -769.906 -2036 44 54 124
-231.397 -766.379 -2027 28 36 101
-226.573 -764.367 -2022 31 39 107
-222.103 -763.491 -2020 51 60 133
-218.073 -764.13 -2022 56 68 139
-213.615 -763.26 -2020 59 71 144
-209.892 -765.036 -2025 53 67 147
-205.642 -764.926 -2025 48 63 152
-201.395 -764.818 -2025 67 83 175
-197.051 -764.334 -2024 71 90 186
-193.285 -766.119 -2029 70 88 186
-189.5 -767.905 -2034 62 79 178
-185.969 -770.825 -2042 51 73 165
-182.851 -775.635 -2055 39 58 142
-179.419 -779.313 -2065 33 50 129
-175.947 -782.992 -2075 40 50 121
-172.022 -784.786 -2080 31 41 107
-167.915 -785.828 -2083 22 30 91
-163.562 -785.74 -2083 30 37 94
-159.517 -787.163 -2087 29 36 92
-155.009 -786.326 -2085 29 38 93
-150.657 -786.245 -2085 36 40 106
-146.305 -786.166 -2085 32 38 103
-141.887 -785.713 -2084 30 38 98
-137.342 -784.508 -2081 45 54 115
-132.746 -782.929 -2077 58 65 123
-128.169 -781.352 -2073 70 75 102
-337.699 -802.199 -2100 45 47 100
-329.891 -793.997 -2079 37 41 110
-322.802 -787.33 -2062 39 48 128
-317.023 -783.721 -2053 46 56 134
-311.894 -781.643 -2048 30 41 116
-307.841 -782.239 -2050 17 28 96
-303.19 -781.312 -2048 40 51 118
-298.55 -780.387 -2046 53 65 128
-294.353 -780.609 -2047 49 62 123
-290.012 -780.451 -2047 36 48 108
-285.116 -778.772 -2043 41 48 106
-280.789 -778.62 -2043 47 57 104
-276.193 -777.708 -2041 33 43 87
-271.609 -776.799 -2039 34 35 76
-267.167 -776.273 -2038 32 33 66
-262.473 -774.988 -2035 29 30 58
-258.556 -775.991 -2038 35 38 81
-254.254 -775.853 -2038 52 61 117
-250.077 -776.099 -2039 53 67 135
-245.898 -776.346 -2040 37 47 119
-241.598 -776.216 -2040 36 47 119
-236.836 -774.565 -2036 53 65 137
-231.864 -772.158 -2030 51 61 129
-226.919 -769.753 -2024 40 49 118
-222.771 -770.012 -2025 27 36 105
-218.621 -770.275 -2026 26 37 97
-214.046 -769.018 -2023 30 41 103
-210.004 -769.665 -2025 54 66 141
-205.752 -769.554 -2025 74 87 177
-201.203 -768.305 -2022 73 87 182
-196.864 -767.819 -2021 71 90 183
-193.198 -769.994 -2027 60 80 176
-189.415 -771.791 -2032 70 89 188
-186.068 -775.489 -2042 68 89 188
-182.681 -779.188 -2052 36 54 141
-179.341 -783.268 -2063 32 48 124
-175.871 -786.97 -2073 40 51 114
-172.03 -789.154 -2079 30 39 97
-167.843 -789.823 -2081 24 33 83
-163.885 -791.632 -2086 29 36 84
-159.525 -791.546 -2086 37 45 94
-154.943 -790.323 -2083 46 53 107
-150.664 -790.622 -2084 60 68 133
-146.312 -790.542 -2084 43 52 118
-141.894 -790.086 -2083 38 51 116
-137.547 -790.012 -2083 58 66 126
-133.137 -789.561 -2082 62 68 125
-336.113 -802.808 -2089 36 35 79
-329.276 -796.863 -2074 43 45 106
-322.663 -791.308 -2060 53 65 144
-317.04 -788.061 -2052 66 79 159
-312.52 -787.507 -2051 53 67 148
-308.458 -788.106 -2053 28 42 116
-303.798 -787.172 -2051 25 39 108
-298.857 -785.474 -2047 28 37 89
-294.799 -786.081 -2049 22 30 83
-290.027 -784.771 -2046 38 46 100
-285.409 -783.849 -2044 74 85 146
-280.665 -782.545 -2041 79 93 158
-276.478 -782.778 -2042 33 49 115
-271.756 -781.48 -2039 33 37 80
-267.18 -780.568 -2037 31 33 68
-262.615 -779.658 -2035 35 35 65
-258.695 -780.667 -2038 31 28 61
-254.391 -780.528 -2038 35 36 81
-250.211 -780.775 -2039 38 43 102
-245.789 -780.258 -2038 28 38 104
-241.61 -780.509 -2039 36 48 116
-236.497 -777.701 -2032 50 65 136
-231.874 -776.427 -2029 58 69 143
-227.041 -774.39 -2024 48 60 132
-222.891 -774.651 -2025 37 49 115
-218.739 -774.915 -2026 28 39 99
-214.584 -775.181 -2027 27 37 98
-210.117 -774.302 -2025 34 41 113
-206.066 -774.954 -2027 64 75 163
-201.61 -774.08 -2025 88 101 195
-197.067 -772.826 -2022 86 104 200
-193.396 -775.014 -2028 82 101 196
-189.609 -776.822 -2033 76 94 189
-186.077 -779.778 -2041 73 93 195
-182.512 -782.735 -2049 42 60 147
-179.263 -787.221 -2061 27 42 114
-176.05 -792.091 -2074 32 45 102
-172.288 -794.671 -2081 34 44 96
-168.336 -796.488 -2086 29 36 81
-164.208 -797.545 -2089 24 30 75
-159.687 -796.694 -2087 31 37 84
-155.175 -795.847 -2085 53 58 111
-150.889 -796.146 -2086 63 75 138
-146.531 -796.066 -2086 51 63 129
-142.31 -796.752 -2088 47 62 134
-138.083 -797.44 -2090 52 60 119
-133.528 -796.223 -2087 45 50 103
-336.296 -807.627 -2089 35 35 78
-329.138 -800.873 -2072 45 49 114
-322.682 -795.671 -2059 58 72 155
-316.594 -791.246 -2048 69 85 171
-312.08 -790.688 -2047 73 89 179
-308.326 -792.064 -2051 49 68 147
-303.963 -791.896 -2051 24 42 116
-299.02 -790.188 -2047 24 33 81
-295.247 -791.57 -2051 24 30 84
-290.468 -790.252 -2048 36 39 97
-285.704 -788.938 -2045 62 75 141
-281.23 -788.398 -2044 82 97 171
-276.763 -787.86 -2043 70 86 166
-272.036 -786.554 -2040 51 55 101
-267.587 -786.022 -2039 34 35 74
-263.015 -785.106 -2037 35 32 65
-259.216 -786.506 -2041 36 31 61
-254.778 -785.981 -2040 35 32 69
-250.47 -785.844 -2040 40 40 88
-246.163 -785.709 -2040 41 54 119
-241.859 -785.576 -2040 54 68 136
-236.509 -781.981 -2031 58 75 148
-232.228 -781.854 -2031 64 75 150
-227.163 -779.035 -2024 73 84 160
-222.791 -778.528 -2023 60 73 151
-218.425 -778.024 -2022 37 48 119
-214.383 -778.676 -2024 30 40 110
-209.815 -777.407 -2021 28 35 110
-205.668 -777.679 -2022 39 50 134
-201.52 -777.953 -2023 75 88 177
-197.173 -777.461 -2022 71 88 184
-193.406 -779.277 -2027 70 86 179
-189.712 -781.48 -2033 74 90 181
-186.086 -784.069 -2040 74 89 189
-182.521 -787.044 -2048 40 54 134
-179.272 -791.557 -2060 16 28 85
-176.06 -796.457 -2073 16 28 81
-172.464 -799.82 -2082 22 32 79
-168.427 -801.264 -2086 27 34 73
-164.297 -802.327 -2089 28 33 78
-159.849 -801.855 -2088 29 34 81
-155.482 -801.77 -2088 46 51 104
-151.26 -802.455 -2090 63 75 137
-147.102 -803.526 -2093 55 68 132
-142.864 -804.216 -2095 47 61 127
-138.95 -806.827 -2102 35 41 94
-134.624 -807.137 -2103 43 47 94
-329.477 -806.048 -2073 48 55 129
-322.075 -798.482 -2054 62 77 162
-316.304 -794.808 -2045 70 86 174
-312.099 -795.024 -2046 75 91 183
-308.043 -795.631 -2048 69 87 171
-303.537 -795.074 -2047 28 46 126
-299.183 -794.909 -2047 23 35 87
-295.265 -795.911 -2050 29 37 96
-290.769 -795.362 -2049 42 48 111
-286.419 -795.204 -2049 43 57 127
-282.072 -795.048 -2049 70 83 158
-277.592 -794.507 -2048 74 87 165
-272.452 -792.028 -2042 47 50 98
-268.127 -791.881 -2042 36 36 77
-263.546 -790.959 -2040 35 33 66
-259.104 -790.429 -2039 33 31 65
-254.667 -789.901 -2038 34 32 70
-250.238 -789.375 -2037 41 40 84
-245.935 -789.239 -2037 70 85 153
-241.635 -789.106 -2037 68 83 154
-236.521 -786.264 -2030 74 90 167
-232.354 -786.523 -2031 48 57 133
-227.399 -784.075 -2025 49 58 134
-222.912 -783.177 -2023 69 79 162
-218.652 -783.057 -2023 58 68 144
-214.711 -784.1 -2026 54 64 139
-210.137 -782.823 -2023 54 64 150
-205.882 -782.709 -2023 48 61 149
-201.629 -782.598 -2023 36 51 140
-197.476 -782.876 -2024 24 43 129
-193.51 -783.93 -2027 29 47 132
-189.815 -786.146 -2033 46 62 147
-186.278 -789.137 -2041 62 76 170
-182.531 -791.356 -2047 44 56 129
-179.195 -795.511 -2058 21 30 77
-175.816 -799.665 -2069 13 24 72
-172.308 -803.436 -2079 14 22 66
-168.357 -805.275 -2084 22 27 64
-164.386 -807.117 -2089 41 45 89
-160.166 -807.801 -2091 39 43 90
-155.789 -807.715 -2091 46 50 103
-151.704 -809.177 -2095 62 72 131
-147.463 -809.868 -2097 38 49 107
-143.283 -810.948 -2100 29 39 88
-139.091 -812.029 -2103 31 36 77
-134.889 -813.113 -2106 55 59 96
-331.09 -814.365 -2082 52 63 145
-322.723 -804.406 -2057 65 79 164
-316.478 -799.537 -2045 72 87 174
-312.118 -799.364 -2045 62 74 164
-307.912 -799.583 -2046 40 56 142
-303.259 -798.632 -2044 35 53 137
-299.202 -799.247 -2046 31 46 110
-295.283 -800.255 -2049 37 50 118
-290.929 -800.093 -2049 43 55 126
-286.716 -800.324 -2050 49 63 138
-282.64 -800.948 -2052 51 62 134
-277.745 -799.232 -2048 48 57 126
-273.536 -799.471 -2049 38 40 87
-268.931 -798.541 -2047 37 38 80
-263.95 -796.444 -2042 36 35 68
-259.373 -795.52 -2040 35 35 74
-255.057 -795.378 -2040 53 53 94
-250.129 -793.29 -2035 51 53 99
-246.191 -794.323 -2038 58 71 142
-242.123 -794.968 -2040 69 82 156
-237.35 -793.277 -2036 57 71 150
-232.939 -792.758 -2035 35 44 118
-228.31 -791.463 -2032 29 37 111
-223.365 -789.002 -2026 48 57 136
-218.771 -787.713 -2023 67 79 159
-214.723 -788.373 -2025 76 89 169
-209.94 -786.31 -2020 81 94 187
-205.587 -785.806 -2019 78 94 186
-201.54 -786.473 -2021 58 75 166
-197.486 -787.142 -2023 20 41 125
-193.712 -788.98 -2028 15 34 117
-190.012 -791.209 -2034 23 41 122
-186.654 -794.995 -2044 43 58 146
-182.72 -796.45 -2048 45 57 129
-179.38 -800.628 -2059 21 29 77
-175.827 -804.03 -2068 16 25 69
-172.32 -807.823 -2078 16 24 65
-168.287 -809.284 -2082 25 30 64
-164.475 -811.914 -2089 43 46 90
-160.176 -812.214 -2090 47 50 97
-155.8 -812.127 -2090 36 39 90
-151.859 -814.375 -2096 48 55 110
-147.614 -815.07 -2098 38 45 99
-143.429 -816.156 -2101 30 35 71
-139.3 -817.632 -2105 31 34 66
-135.218 -819.499 -2110 55 58 88
-323.845 -811.533 -2063 57 69 149
-317.892 -807.421 -2053 56 67 147
-313.208 -806.458 -2051 34 43 121
-308.233 -804.713 -2047 30 45 128
-303.872 -804.543 -2047 64 82 168
-299.66 -804.768 -2048 49 67 146
-295.591 -805.388 -2050 51 69 148
-291.232 -805.225 -2050 49 67 146
-287.155 -805.85 -2052 45 58 139
-282.797 -805.692 -2052 53 63 132
-277.898 -803.966 -2048 31 37 94
-273.286 -803.028 -2046 26 30 72
-269.08 -803.27 -2047 34 36 75
-264.483 -802.337 -2045 34 33 68
-260.025 -801.8 -2044 43 43 83
-255.698 -801.657 -2044 71 72 116
-250.882 -799.948 -2040 60 64 119
-246.689 -800.202 -2041 34 43 111
-242.494 -800.459 -2042 36 46 117
-237.481 -797.974 -2036 38 49 123
-233.068 -797.452 -2035 32 42 111
-228.773 -797.325 -2035 24 34 102
-223.378 -793.282 -2025 30 42 109
-218.784 -791.984 -2022 57 70 152
-214.629 -792.257 -2023 84 97 186
-210.055 -790.964 -2020 81 98 190
-205.802 -790.85 -2020 84 101 194
-201.751 -791.52 -2022 84 101 195
-197.692 -792.193 -2024 60 82 173
-193.914 -794.042 -2029 40 61 149
-190.21 -796.284 -2035 18 38 122
-186.665 -799.31 -2043 24 42 122
-182.999 -801.946 -2050 42 57 131
-179.74 -806.541 -2062 22 30 94
-176.264 -810.354 -2072 15 23 63
