ply
format ascii 1.0
comment Created by Open3D
element vertex 1441
property double x
property double y
property double z
property uchar red
property uchar green
property uchar blue
end_header
-277.003 -537.886 -1882 39 42 93
-273.086 -537.776 -1882 40 42 93
-269.029 -537.383 -1881 40 41 91
-265.119 -537.277 -1881 38 38 84
-261.35 -537.459 -1882 36 37 81
-257.443 -537.356 -1882 40 38 84
-253.807 -537.826 -1884 48 50 99
-250.298 -538.583 -1887 87 92 142
-247.3 -540.482 -1894 87 98 161
-243.891 -541.526 -1898 55 63 123
-241.099 -543.998 -1907 40 42 97
-238.147 -546.185 -1915 30 35 80
-234.798 -547.518 -1920 28 33 79
-230.949 -547.711 -1921 45 48 100
-227.334 -548.476 -1924 50 68 137
-223.477 -548.672 -1925 71 96 172
-219.503 -548.585 -1925 49 69 138
-214.971 -547.074 -1920 34 49 107
-209.913 -544.141 -1910 34 45 91
-431.601 -537.122 -1845 28 34 56
-430.414 -540.439 -1857 29 34 59
-427.802 -542.01 -1863 33 34 56
-424.258 -542.418 -1865 34 35 57
-420.71 -542.828 -1867 34 33 57
-416.487 -542.367 -1866 34 36 78
-412.493 -542.198 -1866 45 48 93
-407.846 -541.16 -1863 49 53 103
-403.865 -540.995 -1863 50 50 93
-400.103 -541.122 -1864 36 35 77
-396.128 -540.961 -1864 35 34 73
-392.998 -541.961 -1868 38 37 81
-387.564 -539.772 -1861 64 62 109
-383.399 -539.326 -1860 63 64 124
-379.039 -538.592 -1858 53 54 120
-375.093 -538.439 -1858 42 43 113
-370.752 -537.709 -1856 50 54 124
-367.411 -538.429 -1859 59 64 128
-363.864 -538.86 -1861 46 52 109
-359.733 -538.425 -1860 38 40 90
-355.226 -537.412 -1857 34 36 87
-351.68 -537.848 -1859 43 45 97
-347.756 -537.707 -1859 42 45 92
-343.834 -537.568 -1859 32 35 80
-339.367 -536.563 -1856 38 39 73
-336 -537.294 -1859 35 37 73
-332.087 -537.16 -1859 36 39 76
-328.53 -537.605 -1861 33 36 74
-325.143 -538.34 -1864 32 35 70
-321.4 -538.499 -1865 31 34 66
-317.316 -538.082 -1864 32 36 61
-313.407 -537.955 -1864 32 36 58
-309.667 -538.119 -1865 33 38 53
-306.089 -538.572 -1867 32 37 56
-302.668 -539.316 -1870 35 39 60
-298.917 -539.483 -1871 33 37 66
-295.164 -539.653 -1872 34 37 69
-291.255 -539.535 -1872 31 34 68
-287.961 -540.572 -1876 36 40 75
-284.351 -541.034 -1878 53 55 91
-280.586 -541.209 -1879 52 52 90
-277.26 -542.249 -1883 46 47 102
-273.195 -541.851 -1882 46 47 100
-269.136 -541.455 -1881 48 48 94
-264.801 -540.485 -1878 40 41 87
-261.176 -540.956 -1880 34 36 82
-257.271 -540.852 -1880 38 37 82
-253.773 -541.613 -1883 37 39 85
-250.264 -542.376 -1886 54 57 106
-247.137 -544.002 -1892 62 71 130
-243.345 -544.192 -1893 50 57 111
-240.562 -546.682 -1902 36 38 87
-237.495 -548.599 -1909 34 38 78
-234.157 -549.942 -1914 34 38 80
-230.68 -550.999 -1918 37 42 94
-227.542 -552.918 -1925 52 74 151
-223.681 -553.116 -1926 60 89 178
-219.704 -553.028 -1926 34 58 138
-215.728 -552.941 -1926 35 53 125
-210.106 -548.55 -1911 43 56 118
-431.544 -540.877 -1844 31 37 59
-430.591 -544.513 -1857 30 35 60
-427.518 -545.509 -1861 31 36 56
-423.977 -545.92 -1863 30 33 54
-420.656 -546.626 -1866 35 37 58
-416.88 -546.747 -1867 34 35 51
-412.44 -545.992 -1865 35 36 54
-408.669 -546.116 -1866 34 34 59
-404.03 -545.072 -1863 32 33 61
-400.696 -545.785 -1866 33 34 63
-396.29 -545.037 -1864 36 36 67
-393.158 -546.045 -1868 36 36 72
-387.305 -543.255 -1859 47 47 86
-383.143 -542.806 -1858 64 65 125
-378.988 -542.358 -1857 63 66 137
-375.246 -542.496 -1858 49 52 134
-371.102 -542.052 -1857 52 58 143
-367.56 -542.486 -1859 51 57 137
-364.012 -542.92 -1861 53 60 133
-360.072 -542.773 -1861 43 47 112
-355.944 -542.336 -1860 38 41 105
-352.201 -542.483 -1861 55 55 117
-347.709 -541.466 -1858 52 55 108
-343.788 -541.326 -1858 33 36 85
-338.772 -539.44 -1852 32 33 68
-336.135 -541.342 -1859 33 35 71
-331.506 -540.041 -1855 33 36 73
-328.84 -541.945 -1862 34 37 75
-324.925 -541.813 -1862 35 39 73
-321.53 -542.555 -1865 32 36 65
-317.955 -543.007 -1867 31 35 61
-313.87 -542.588 -1866 33 37 60
-310.29 -543.044 -1868 34 39 55
-306.377 -542.919 -1868 33 37 56
-303.276 -544.249 -1873 34 38 58
-299.357 -544.127 -1873 35 38 69
-295.756 -544.588 -1875 38 41 74
-292.15 -545.05 -1877 35 38 72
-288.231 -544.933 -1877 37 40 75
-284.465 -545.108 -1878 52 54 94
-280.848 -545.574 -1880 53 53 100
-277.371 -546.332 -1883 48 49 99
-273.014 -545.351 -1880 49 50 101
-269.387 -545.822 -1882 52 51 102
-265.048 -544.845 -1879 44 43 94
-261.559 -545.608 -1882 36 36 86
-257.1 -544.345 -1878 35 36 81
-253.74 -545.401 -1882 32 33 80
-250.099 -545.88 -1884 31 32 81
-247.236 -548.097 -1892 31 37 87
-243.571 -548.578 -1894 35 40 86
-240.658 -550.798 -1902 32 35 75
-237.466 -552.439 -1908 35 37 74
-233.639 -552.634 -1909 42 44 82
-230.29 -553.989 -1914 49 54 108
-227.042 -555.634 -1920 65 85 166
-223.422 -556.411 -1923 64 93 188
-219.563 -556.612 -1924 47 72 160
-215.927 -557.393 -1927 54 75 158
-210.189 -552.68 -1911 58 75 152
-432.658 -546.111 -1848 35 41 63
-431 -548.887 -1858 32 37 62
-427.464 -549.3 -1860 26 34 60
-423.468 -549.124 -1860 27 34 59
-420.829 -550.72 -1866 29 36 58
-416.828 -550.547 -1866 32 34 54
-412.831 -550.376 -1866 34 35 56
-409.056 -550.501 -1867 37 37 63
-405.064 -550.333 -1867 37 38 69
-401.075 -550.167 -1867 36 37 70
-396.452 -549.118 -1864 37 38 71
-392.688 -549.25 -1865 40 41 76
-388.089 -548.206 -1862 49 51 87
-383.919 -547.753 -1861 55 55 111
-379.552 -547.008 -1859 60 63 131
-375.197 -546.264 -1857 69 75 155
-371.454 -546.405 -1858 73 80 166
-367.512 -546.253 -1858 60 67 151
-363.769 -546.397 -1859 59 67 145
-360.025 -546.542 -1860 75 82 155
-356.089 -546.396 -1860 51 57 129
-352.534 -546.838 -1862 48 48 116
-347.289 -544.639 -1855 46 48 106
-344.484 -546.259 -1861 30 33 87
-339.642 -544.651 -1856 35 35 72
-336.091 -545.1 -1858 33 35 73
-331.999 -544.67 -1857 28 32 71
-329.15 -546.295 -1863 30 33 71
-325.406 -546.454 -1864 35 38 73
-321.833 -546.908 -1866 34 38 68
-318.425 -547.657 -1869 34 36 64
-314.502 -547.528 -1869 32 34 61
-310.25 -546.815 -1867 33 37 59
-306.501 -546.982 -1868 33 36 59
-302.913 -547.444 -1870 33 36 59
-298.839 -547.028 -1869 33 36 69
-295.245 -547.493 -1871 39 42 75
-292.113 -548.836 -1876 39 42 76
-288.04 -548.426 -1875 39 42 78
-284.429 -548.894 -1877 43 45 86
-280.513 -548.779 -1877 38 38 89
-277.336 -550.128 -1882 44 46 96
-273.124 -549.432 -1880 49 50 102
-269.496 -549.906 -1882 47 46 101
-265.155 -548.921 -1879 39 38 91
-261.386 -549.106 -1880 38 37 89
-257.478 -549.001 -1880 34 36 82
-253.977 -549.774 -1883 32 33 80
-250.333 -550.255 -1885 34 32 81
-247.336 -552.198 -1892 33 35 78
-243.926 -553.266 -1896 35 38 78
-240.882 -555.21 -1903 33 36 70
-237.686 -556.864 -1909 36 35 72
-233.855 -557.06 -1910 60 59 98
-230.503 -558.424 -1915 66 71 127
-227.252 -560.081 -1921 73 92 173
-223.512 -560.573 -1923 72 100 197
-219.537 -560.484 -1923 57 82 174
-215.565 -560.396 -1923 59 81 173
-209.614 -555.065 -1905 62 80 173
-432.37 -549.581 -1846 42 47 74
-431.18 -552.973 -1858 32 37 65
-427.182 -552.794 -1858 26 35 63
-423.644 -553.211 -1860 27 35 62
-420.553 -554.225 -1864 29 36 57
-416.778 -554.348 -1865 33 35 55
-413.223 -554.769 -1867 32 33 54
-409.445 -554.895 -1868 35 35 60
-405.015 -554.132 -1866 38 38 71
-401.241 -554.261 -1867 37 37 72
-397.042 -553.799 -1866 37 38 72
-392.85 -553.338 -1865 43 44 79
-388.666 -552.879 -1864 54 54 90
-384.284 -552.126 -1862 49 47 105
-379.709 -551.078 -1859 52 53 119
-375.756 -550.921 -1859 66 72 151
-371.607 -550.47 -1858 63 71 157
-368.06 -550.91 -1860 64 72 157
-364.115 -550.758 -1860 41 51 133
-360.561 -551.201 -1862 61 71 147
-356.427 -550.757 -1861 64 72 147
-352.679 -550.906 -1862 37 38 108
-347.807 -549.283 -1857 42 44 105
-344.069 -549.435 -1858 41 43 100
-338.867 -547.225 -1851 45 47 87
-335.506 -547.973 -1854 39 41 82
-331.42 -547.54 -1853 36 39 80
-328.578 -549.177 -1859 33 35 75
-325.016 -549.633 -1861 31 33 71
-321.965 -550.976 -1866 32 35 67
-318.555 -551.73 -1869 32 35 66
-314.463 -551.305 -1868 28 31 62
-310.876 -551.767 -1870 31 35 65
-306.462 -550.755 -1867 32 35 64
-302.874 -551.22 -1869 35 36 66
-298.801 -550.802 -1868 35 38 72
-295.208 -551.269 -1870 38 41 75
-291.92 -552.328 -1874 39 42 76
-288.004 -552.209 -1874 42 45 81
-284.545 -552.976 -1877 44 47 87
-280.478 -552.566 -1876 39 41 88
-277.302 -553.924 -1881 47 48 103
-273.235 -553.517 -1880 55 56 113
-269.749 -554.289 -1883 50 49 108
-265.546 -553.591 -1881 41 40 95
-262.049 -554.366 -1884 43 42 94
-257.72 -553.377 -1881 39 41 87
-254.215 -554.155 -1884 39 38 84
-250.434 -554.346 -1885 36 33 79
-247.044 -555.421 -1889 33 32 70
-243.639 -556.497 -1893 36 36 72
-240.22 -557.574 -1897 30 34 63
-237.035 -559.24 -1903 37 35 73
-233.215 -559.438 -1904 40 36 78
-230.236 -561.694 -1912 53 56 115
-227.107 -563.658 -1919 76 91 173
-223.37 -564.153 -1921 70 96 193
-219.741 -564.944 -1924 65 88 181
-215.764 -564.855 -1924 60 83 178
-209.588 -558.898 -1904 53 74 174
-432.786 -553.947 -1847 61 65 96
-432.289 -558.263 -1862 32 36 67
-428.051 -557.783 -1861 27 34 63
-424.049 -557.604 -1861 27 34 61
-421.406 -559.223 -1867 30 34 55
-416.952 -558.448 -1865 34 33 53
-412.953 -558.274 -1865 34 32 51
-409.177 -558.401 -1866 33 33 55
-405.184 -558.231 -1866 37 37 67
-400.764 -557.464 -1864 42 41 77
-397.207 -557.895 -1866 41 42 74
-393.014 -557.43 -1865 39 38 72
-388.828 -556.968 -1864 45 42 78
-384.444 -556.209 -1862 43 41 105
-380.275 -555.751 -1861 47 47 116
-376.115 -555.294 -1860 47 50 131
-371.762 -554.541 -1858 50 57 146
-368.014 -554.685 -1859 75 84 172
-364.07 -554.533 -1859 52 64 153
-360.129 -554.382 -1859 45 56 133
-355.808 -553.636 -1857 57 68 141
-352.068 -553.787 -1858 39 45 108
-347.576 -552.748 -1855 36 40 96
-344.027 -553.2 -1857 46 49 101
-339.373 -551.866 -1853 46 53 101
-335.825 -552.322 -1855 42 45 91
-332.272 -552.778 -1857 41 41 83
-328.714 -553.237 -1859 36 33 77
-325.499 -554.291 -1863 31 30 72
-322.098 -555.049 -1866 31 35 69
-318.687 -555.809 -1869 36 45 86
-314.929 -555.975 -1870 36 46 87
-311.17 -556.143 -1871 31 39 70
-306.917 -555.42 -1869 32 37 66
-302.675 -554.7 -1867 34 37 65
-298.764 -554.576 -1867 33 36 69
-295.171 -555.047 -1869 38 40 73
-291.884 -556.113 -1873 42 44 76
-287.815 -555.697 -1872 40 41 75
-284.207 -556.172 -1874 36 38 75
-280.444 -556.353 -1875 40 42 87
-277.268 -557.721 -1880 54 60 127
-273.057 -557.014 -1878 67 74 146
-270.146 -558.978 -1885 64 71 141
-266.361 -559.164 -1886 44 50 106
-262.435 -559.055 -1886 43 47 95
-258.374 -558.652 -1885 44 46 92
-254.724 -559.139 -1887 44 45 90
-250.803 -559.035 -1887 42 42 86
-247.276 -559.821 -1890 39 39 77
-243.868 -560.905 -1894 38 37 74
-240.445 -561.99 -1898 35 35 65
-237.007 -563.076 -1902 37 34 78
-233.31 -563.572 -1904 40 36 85
-230.45 -566.14 -1913 47 50 102
-227.2 -567.822 -1919 61 73 152
-223.577 -568.617 -1922 60 80 180
-220.287 -570.301 -1928 66 89 179
-216.526 -570.803 -1930 69 91 181
-210.225 -564.505 -1909 53 73 161
-434.141 -559.532 -1852 64 69 99
-433.4 -563.577 -1866 36 41 72
-429.382 -563.394 -1866 29 36 65
-424.912 -562.609 -1864 27 34 62
-422.035 -563.939 -1869 29 33 54
-417.351 -562.856 -1866 34 33 54
-413.791 -563.283 -1868 34 32 53
-409.569 -562.808 -1867 33 33 55
-405.571 -562.636 -1867 39 36 64
-401.362 -562.164 -1866 44 40 72
-397.374 -561.996 -1866 37 37 68
-392.968 -561.227 -1864 37 36 70
-388.991 -561.062 -1864 50 48 85
-384.398 -559.996 -1861 47 48 113
-380.23 -559.535 -1860 48 50 119
-376.272 -559.375 -1860 53 58 139
-371.917 -558.617 -1858 65 74 160
-368.564 -559.363 -1861 60 69 156
-364.223 -558.608 -1859 46 55 143
-360.668 -559.057 -1861 32 42 116
-356.149 -558.005 -1858 35 45 114
-352.025 -557.557 -1857 41 47 109
-347.909 -557.109 -1856 39 42 101
-343.985 -556.965 -1856 35 36 93
-339.698 -556.221 -1854 31 35 79
-335.784 -556.08 -1854 32 35 79
-331.874 -555.94 -1854 32 32 75
-328.674 -557.001 -1858 40 34 76
-325.285 -557.764 -1861 42 38 81
-322.405 -559.427 -1867 54 59 104
-319.502 -561.09 -1873 79 90 146
-315.229 -560.359 -1871 68 82 140
-311.466 -560.528 -1872 28 36 71
-307.537 -560.399 -1872 29 35 64
-303.611 -560.271 -1872 32 36 61
-299.208 -559.248 -1869 33 36 67
-295.452 -559.423 -1870 36 39 70
-291.85 -559.899 -1872 38 40 72
-287.934 -559.779 -1872 36 37 70
-284.173 -559.959 -1873 35 37 72
-280.111 -559.542 -1872 35 37 79
-276.793 -560.622 -1876 62 68 135
-272.588 -559.91 -1874 87 95 171
-269.541 -561.59 -1880 69 79 151
-266.047 -562.375 -1883 41 48 107
-262.682 -563.46 -1887 35 39 87
-258.755 -563.352 -1887 44 44 89
-255.1 -563.842 -1889 45 46 90
-250.773 -562.842 -1886 37 38 80
-247.64 -564.529 -1892 34 35 74
-243.968 -565.024 -1894 35 36 74
-240.29 -565.52 -1896 36 36 68
-237.23 -567.509 -1903 33 31 75
-233.529 -568.008 -1905 33 30 80
-230.425 -569.999 -1912 39 42 90
-227.057 -571.395 -1917 58 68 143
-223.67 -572.792 -1922 70 86 186
-220.378 -574.488 -1928 72 97 186
-216.503 -574.696 -1929 72 95 182
-210.311 -568.65 -1909 63 83 165
-434.091 -563.317 -1851 49 55 83
-433.817 -568 -1867 34 39 68
-430.486 -568.728 -1870 31 38 67
-426.233 -568.241 -1869 29 36 65
-423.118 -569.276 -1873 31 35 57
-417.976 -567.577 -1868 34 34 56
-414.189 -567.703 -1869 35 33 54
-409.962 -567.224 -1868 33 33 55
-405.743 -566.747 -1867 36 34 58
-401.317 -565.969 -1865 39 34 60
-397.968 -566.709 -1868 33 33 62
-393.345 -565.631 -1865 34 34 66
-389.573 -565.768 -1866 51 50 86
-385.181 -564.997 -1864 66 68 129
-380.8 -564.229 -1862 72 75 141
-376.431 -563.462 -1860 63 70 149
-372.675 -563.606 -1861 65 74 159
-368.324 -562.844 -1859 59 68 155
-364.572 -562.991 -1860 40 48 136
-360.819 -563.14 -1861 34 43 118
-356.299 -562.081 -1858 42 51 118
-352.553 -562.234 -1859 54 58 122
-348.805 -562.388 -1860 48 49 112
-344.871 -562.242 -1860 38 36 97
-340.94 -562.097 -1860 30 32 71
-336.831 -561.652 -1859 34 35 76
-333.088 -561.813 -1860 35 35 79
-329.166 -561.673 -1860 37 31 71
-325.771 -562.441 -1863 48 43 85
-322.713 -563.814 -1868 80 85 141
-319.124 -564.282 -1870 90 102 171
-314.686 -563.244 -1867 65 80 154
-311.596 -564.621 -1872 31 38 81
-306.844 -562.983 -1867 31 37 69
-303.089 -563.156 -1868 31 36 59
-299.173 -563.03 -1868 33 36 66
-294.943 -562.302 -1866 31 35 65
-291.504 -563.083 -1869 29 33 63
-287.901 -563.564 -1871 31 35 64
-284.292 -564.047 -1873 34 37 67
-280.527 -564.229 -1874 31 34 69
-276.761 -564.414 -1875 51 57 115
-273.138 -564.901 -1877 82 89 156
-269.94 -566.292 -1882 50 57 124
-266.441 -567.082 -1885 30 35 92
-263.07 -568.175 -1889 34 36 84
-259.411 -568.667 -1891 42 40 85
-255.746 -569.16 -1893 46 44 88
-251.277 -567.852 -1889 37 37 79
-247.612 -568.349 -1891 34 36 78
-244.07 -569.148 -1894 34 37 78
-240.263 -569.348 -1895 32 35 69
-236.829 -570.45 -1899 32 34 73
-233.381 -571.553 -1903 32 32 74
-230.279 -573.559 -1910 31 33 79
-226.914 -574.965 -1915 40 49 116
-223.646 -576.672 -1921 71 88 179
-220.355 -578.381 -1927 68 94 186
-216.592 -578.89 -1929 62 86 176
-210.178 -572.2 -1907 63 81 165
-434.468 -572.739 -1869 34 39 66
-431.361 -573.779 -1873 32 38 66
-426.872 -572.981 -1871 29 36 65
-423.073 -573.105 -1872 32 36 59
-417.707 -571.088 -1866 34 35 58
-413.701 -570.909 -1866 36 34 56
-409.039 -569.815 -1863 33 33 55
-404.612 -569.029 -1861 33 32 54
-400.627 -568.857 -1861 32 30 51
-397.499 -569.908 -1865 33 33 61
-393.513 -569.739 -1865 37 37 67
-389.948 -570.182 -1867 38 37 72
-385.758 -569.711 -1866 48 49 104
-381.371 -568.936 -1864 69 72 133
-377.401 -568.774 -1864 80 87 163
-372.834 -567.699 -1861 77 84 170
-369.273 -568.151 -1863 70 78 167
-365.315 -567.994 -1863 65 71 161
-361.167 -567.534 -1862 68 74 153
-357.409 -567.686 -1863 49 56 127
-353.081 -566.925 -1861 42 47 113
-349.516 -567.385 -1863 49 50 116
-345.388 -566.933 -1862 44 41 104
-340.901 -565.873 -1859 36 35 75
-336.43 -564.816 -1856 39 39 80
-333.408 -566.196 -1861 36 36 80
-328.774 -564.838 -1857 37 36 77
-326.434 -567.436 -1866 42 41 83
-322.676 -567.602 -1867 52 61 118
-319.6 -568.986 -1872 61 74 145
-315.325 -568.244 -1870 59 73 151
-311.395 -568.111 -1870 34 42 104
-306.974 -567.069 -1867 32 39 82
-303.055 -566.94 -1867 33 40 62
-299.139 -566.813 -1867 36 39 73
-295.541 -567.294 -1869 31 35 66
-291.938 -567.777 -1871 28 33 55
-288.33 -568.261 -1873 32 36 62
-284.563 -568.443 -1874 32 36 63
-281.094 -569.234 -1877 32 36 61
-277.172 -569.116 -1877 34 40 75
-272.962 -568.394 -1875 37 44 85
-269.623 -569.492 -1879 38 44 82
-266.128 -570.288 -1882 34 38 76
-262.763 -571.388 -1886 37 38 76
-259.383 -572.49 -1890 47 42 86
-255.853 -573.29 -1893 47 43 86
-251.382 -571.972 -1889 40 38 81
-247.716 -572.473 -1891 35 38 80
-243.914 -572.672 -1892 33 37 79
-240.364 -573.478 -1895 31 36 76
-236.928 -574.588 -1899 31 37 76
-233.601 -576.002 -1904 27 33 72
-230.255 -577.417 -1909 32 34 82
-227.127 -579.438 -1916 36 44 105
-223.972 -581.46 -1923 68 84 163
-220.676 -583.181 -1929 53 79 172
-216.907 -583.694 -1931 61 84 177
-210.817 -577.862 -1912 70 87 178
-434.656 -576.876 -1869 32 37 62
-431.778 -578.231 -1874 32 37 65
-427.513 -577.736 -1873 31 36 65
-423.256 -577.243 -1872 31 35 58
-418.111 -575.52 -1867 32 34 56
-413.879 -575.032 -1866 32 32 54
-409.215 -573.929 -1863 31 31 55
-405.004 -573.446 -1862 32 33 55
-401.015 -573.271 -1862 34 35 55
-397.883 -574.33 -1866 30 30 56
-394.315 -574.775 -1868 32 32 60
-390.324 -574.606 -1868 34 34 64
-386.13 -574.131 -1867 32 35 80
-382.149 -573.966 -1867 43 45 96
-377.968 -573.495 -1866 52 57 127
-373.394 -572.411 -1863 60 65 145
-369.233 -571.944 -1862 47 52 137
-364.883 -571.172 -1860 63 69 159
-360.933 -571.017 -1860 74 82 162
-357.37 -571.476 -1862 61 70 141
-353.232 -571.017 -1861 47 53 123
-350.041 -572.093 -1865 38 41 108
-345.907 -571.637 -1864 49 49 112
-341.414 -570.57 -1861 49 51 105
-336.936 -569.505 -1858 35 36 88
-333.908 -570.894 -1863 35 35 81
-329.091 -569.22 -1858 31 35 76
-326.573 -571.531 -1866 40 45 85
-322.122 -570.473 -1863 29 39 99
-319.394 -572.48 -1870 49 62 135
-314.447 -570.508 -1864 79 93 174
-311.36 -571.904 -1869 67 78 153
-307.104 -571.16 -1867 46 57 116
-303.184 -571.03 -1867 33 43 81
-299.266 -570.902 -1867 37 40 73
-296.141 -572.304 -1872 34 38 67
-291.906 -571.567 -1870 30 36 55
-288.76 -572.971 -1875 35 38 58
-284.684 -572.544 -1874 34 37 57
-281.363 -573.645 -1878 33 35 59
-277.438 -573.527 -1878 30 33 62
-273.223 -572.799 -1876 28 33 64
-269.881 -573.905 -1880 34 38 65
-266.665 -575.317 -1885 33 35 66
-263.013 -575.815 -1887 36 36 72
-259.63 -576.924 -1891 41 36 77
-255.961 -577.425 -1893 41 36 78
-251.754 -576.707 -1891 39 38 80
-248.213 -577.516 -1894 35 38 80
-244.275 -577.412 -1894 34 38 81
-240.466 -577.614 -1895 39 45 92
-237.278 -579.342 -1901 44 52 98
-233.7 -580.156 -1904 36 46 91
-229.99 -580.667 -1906 30 33 87
-226.867 -582.703 -1913 34 42 103
-224.067 -585.653 -1923 64 79 152
-220.654 -587.082 -1928 53 77 170
-216.662 -586.99 -1928 67 90 184
-210.906 -582.029 -1912 84 101 197
-434.612 -580.707 -1868 31 36 62
-432.196 -582.693 -1875 34 39 67
-428.384 -582.816 -1876 36 41 71
-423.44 -581.387 -1872 34 38 61
-418.293 -579.651 -1867 30 33 55
-414.502 -579.78 -1868 30 30 51
-409.393 -578.049 -1863 31 31 55
-404.962 -577.251 -1861 34 34 57
-401.189 -577.386 -1862 36 37 58
-398.055 -578.452 -1866 30 30 57
-394.697 -579.21 -1869 31 31 60
-390.702 -579.04 -1869 31 33 62
-386.711 -578.871 -1869 32 34 77
-382.928 -579.014 -1870 37 39 87
-378.131 -577.61 -1866 44 47 113
-373.956 -577.138 -1865 54 58 133
-369.789 -576.667 -1864 53 57 138
-365.433 -575.889 -1862 48 53 142
-361.477 -575.732 -1862 50 57 137
-358.292 -576.813 -1866 54 63 132
-354.144 -576.35 -1865 59 66 137
-350.567 -576.816 -1867 36 42 111
-346.056 -575.738 -1864 42 47 111
-341.744 -574.972 -1862 46 54 121
-336.718 -572.973 -1856 38 45 110
-333.693 -574.372 -1861 34 34 86
-329.409 -573.612 -1859 27 35 81
-326.538 -575.322 -1865 48 59 102
-322.952 -575.799 -1867 48 59 123
-319.36 -576.277 -1869 46 59 133
-315.426 -576.141 -1869 75 91 173
-311.66 -576.314 -1870 87 103 183
-307.4 -575.565 -1868 66 80 152
-303.638 -575.742 -1869 31 44 100
-299.714 -575.612 -1869 35 40 73
-296.11 -576.1 -1871 32 36 64
-292.343 -576.282 -1872 31 37 54
-288.729 -576.773 -1874 34 38 53
-285.261 -577.573 -1877 34 37 51
-281.633 -578.067 -1879 33 32 57
-277.704 -577.947 -1879 34 35 62
-273.777 -577.829 -1879 34 35 64
-269.708 -577.405 -1878 36 37 64
-266.354 -578.52 -1882 36 36 67
-262.986 -579.636 -1886 38 37 76
-259.603 -580.754 -1890 42 35 74
-255.935 -581.258 -1892 45 39 79
-251.862 -580.842 -1891 43 43 85
-248.057 -581.043 -1892 39 40 81
-243.992 -580.631 -1891 39 41 82
-240.314 -581.141 -1893 55 60 116
-237.129 -582.881 -1899 67 76 134
-233.922 -584.622 -1905 66 79 136
-230.329 -585.444 -1908 44 48 113
-227.201 -587.494 -1915 32 40 106
-224.162 -589.852 -1923 56 70 139
-220.634 -590.984 -1927 65 87 178
-216.416 -590.278 -1925 75 97 191
-210.554 -584.974 -1908 87 103 203
-433.407 -582.973 -1862 31 37 67
-431.463 -585.6 -1871 34 39 69
-427.886 -586.037 -1873 35 40 71
-423.172 -584.911 -1870 33 38 61
-418.251 -583.476 -1866 31 34 57
-414.462 -583.605 -1867 33 34 54
-409.572 -582.174 -1863 34 34 58
-405.356 -581.683 -1862 33 34 58
-401.364 -581.506 -1862 33 34 59
-398.442 -582.892 -1867 33 32 62
-394.658 -583.031 -1868 34 34 65
-390.663 -582.859 -1868 29 32 66
-386.466 -582.377 -1867 40 43 86
-382.89 -582.833 -1869 42 44 93
-377.89 -581.107 -1864 49 51 115
-373.718 -580.632 -1863 59 63 135
-369.751 -580.469 -1863 63 67 146
-365.395 -579.686 -1861 55 59 144
-361.245 -579.216 -1860 33 38 115
-358.255 -580.616 -1865 34 42 106
-353.728 -579.527 -1862 39 46 117
-350.343 -580.308 -1865 46 54 125
-346.206 -579.845 -1864 65 76 146
-342.076 -579.384 -1863 64 78 157
-337.227 -577.682 -1858 48 61 140
-333.837 -578.469 -1861 36 38 96
-329.906 -578.325 -1861 26 37 94
-326.504 -579.114 -1864 51 66 122
-322.745 -579.284 -1865 69 83 156
-318.985 -579.455 -1866 68 84 161
-315.055 -579.318 -1866 80 98 180
-311.462 -579.803 -1868 81 102 181
-307.533 -579.669 -1868 77 96 173
-303.769 -579.847 -1869 52 67 139
-300.004 -580.027 -1870 39 44 85
-296.237 -580.208 -1871 32 36 69
-292.469 -580.39 -1872 31 38 49
-289.316 -581.815 -1877 34 40 55
-285.232 -581.381 -1876 29 34 50
-282.204 -583.117 -1882 34 33 44
-277.675 -581.757 -1878 35 36 53
-274.04 -582.258 -1880 38 39 63
-270.112 -582.14 -1880 37 38 67
-266.469 -582.644 -1882 35 36 66
-262.959 -583.459 -1885 37 36 67
-259.302 -583.965 -1887 39 34 69
-255.504 -584.164 -1888 46 41 78
-251.703 -584.364 -1889 43 46 85
-247.901 -584.566 -1890 43 43 81
-243.967 -584.46 -1890 42 41 78
-240.925 -586.52 -1897 55 61 124
-237.606 -587.963 -1902 64 73 143
-233.899 -588.479 -1904 72 83 159
-230.669 -590.234 -1910 63 72 152
-227.417 -591.99 -1916 34 43 121
-224.374 -594.365 -1924 35 46 120
-220.843 -595.505 -1928 65 85 173
-216.846 -595.411 -1928 77 98 188
-211.085 -590.378 -1912 86 103 198
-433.132 -586.479 -1860 45 52 89
-431.885 -590.071 -1872 35 41 76
-428.075 -590.195 -1873 34 39 72
-423.586 -589.377 -1871 32 37 62
-418.436 -587.615 -1866 31 35 58
-414.866 -588.061 -1868 35 36 56
-409.972 -586.619 -1864 36 37 60
-406.188 -586.754 -1865 35 35 60
-401.756 -585.946 -1863 34 34 63
-398.618 -587.027 -1867 33 31 64
-394.62 -586.852 -1867 33 31 65
-390.626 -586.679 -1867 39 43 84
-386.221 -585.88 -1865 50 53 103
-382.648 -586.339 -1867 50 53 108
-378.056 -585.229 -1864 50 53 125
-373.681 -584.436 -1862 50 53 130
-370.112 -584.9 -1864 55 59 141
-366.145 -584.738 -1864 50 54 139
-362.181 -584.578 -1864 32 36 115
-358.796 -585.361 -1867 39 44 112
-354.262 -584.264 -1864 44 50 121
-350.872 -585.049 -1867 49 56 129
-345.985 -583.33 -1862 80 93 172
-341.674 -582.553 -1860 78 96 181
-337.374 -581.778 -1858 60 79 164
-333.804 -582.257 -1860 43 47 110
-329.696 -581.799 -1859 32 40 101
-326.471 -582.907 -1863 59 69 129
-323.405 -584.329 -1868 56 70 141
-319.124 -583.564 -1866 56 71 146
-315.699 -584.363 -1869 73 91 171
-311.764 -584.226 -1869 79 97 178
-308.49 -585.341 -1873 83 100 183
-304.389 -584.895 -1872 65 80 167
-300.455 -584.763 -1872 35 42 88
-296.683 -584.945 -1873 32 38 72
-292.44 -584.192 -1871 31 37 55
-288.67 -584.378 -1872 34 39 55
-285.812 -586.438 -1879 31 36 52
-281.426 -585.378 -1876 34 34 44
-277.5 -585.257 -1876 34 35 51
-273.721 -585.449 -1877 36 38 61
-269.941 -585.643 -1878 37 37 68
-266.442 -586.461 -1881 37 36 68
-262.933 -587.282 -1884 37 34 67
-259.689 -588.727 -1889 39 35 68
-255.343 -587.68 -1886 39 36 69
-251.679 -588.193 -1888 36 39 77
-248.139 -589.02 -1891 38 38 74
-243.943 -588.29 -1889 43 42 77
-240.775 -590.053 -1895 60 65 131
-237.708 -592.129 -1902 60 67 143
-234.369 -593.583 -1907 65 74 161
-230.769 -594.417 -1910 86 98 188
-227.633 -596.496 -1917 47 59 145
-224.354 -598.265 -1923 27 39 117
-220.823 -599.413 -1927 67 85 170
-216.94 -599.629 -1928 78 97 183
-211.618 -595.805 -1916 72 89 176
-433.325 -590.618 -1860 61 67 110
-431.846 -593.917 -1871 37 43 82
-428.494 -594.676 -1874 33 38 71
-424.68 -594.803 -1875 31 36 62
-419.519 -593.029 -1870 32 36 60
-415.495 -592.843 -1870 36 37 57
-411.034 -592.025 -1868 37 38 61
-407.24 -592.16 -1869 36 36 61
-402.581 -591.03 -1866 32 31 63
-399.008 -591.485 -1868 34 32 65
-395.429 -591.941 -1870 50 47 81
-391.008 -591.134 -1868 68 72 117
-386.392 -590.012 -1865 70 73 124
-382.612 -590.158 -1866 53 55 112
-378.02 -589.04 -1863 63 67 136
-373.846 -588.558 -1862 53 57 129
-369.878 -588.393 -1862 51 55 132
-366.11 -588.546 -1863 53 56 137
-362.34 -588.7 -1864 44 47 126
-358.955 -589.488 -1867 42 45 117
-354.609 -588.699 -1865 43 48 123
-350.838 -588.859 -1866 52 59 136
-346.695 -588.389 -1865 72 85 172
-342.008 -586.976 -1861 67 85 173
-337.886 -586.51 -1860 53 73 161
-334.309 -586.992 -1862 44 50 112
-330.55 -587.161 -1863 36 43 99
-326.614 -587.016 -1863 53 60 112
-323.201 -587.819 -1866 40 52 116
-319.093 -587.362 -1865 38 52 120
-315.162 -587.223 -1865 52 68 142
-312.067 -588.659 -1870 77 92 172
-308.295 -588.837 -1871 82 97 180
-304.359 -588.703 -1871 48 63 155
-300.587 -588.884 -1872 32 41 94
-297.129 -589.697 -1875 28 35 76
-292.88 -588.938 -1873 34 38 62
-289.413 -589.754 -1876 33 38 58
-285.176 -588.999 -1874 30 35 53
-281.099 -588.561 -1873 31 33 49
-277.621 -589.381 -1876 30 32 51
-274.132 -590.203 -1879 33 35 58
-270.203 -590.083 -1879 34 33 64
-266.559 -590.594 -1881 34 34 66
-263.048 -591.42 -1884 37 35 71
-259.802 -592.875 -1889 38 37 69
-255.725 -592.449 -1888 37 37 68
-251.788 -592.338 -1888 34 37 75
-248.641 -594.111 -1894 33 34 70
-244.695 -594.003 -1894 37 36 71
-241.261 -595.151 -1898 58 63 128
-237.936 -596.614 -1903 72 78 155
-234.716 -598.392 -1909 79 87 177
-230.99 -598.918 -1911 89 104 202
-227.732 -600.698 -1917 62 76 170
-224.452 -602.479 -1923 31 44 128
-221.033 -603.949 -1928 59 76 157
-217.371 -604.793 -1931 70 88 168
-211.931 -600.628 -1918 64 81 156
-433.286 -594.441 -1859 41 46 94
-432.04 -598.083 -1871 34 38 82
-429.143 -599.488 -1876 33 38 71
-425.55 -599.934 -1878 32 37 63
-419.931 -597.509 -1871 32 37 62
-415.903 -597.321 -1871 35 37 58
-411.878 -597.135 -1871 35 36 59
-407.64 -596.632 -1870 36 36 61
-402.545 -594.856 -1865 36 36 68
-399.186 -595.633 -1868 35 33 65
-395.182 -595.455 -1868 57 54 86
-390.763 -594.642 -1866 71 75 121
-386.149 -593.512 -1863 73 77 126
-382.783 -594.296 -1866 51 54 107
-378.188 -593.171 -1863 39 44 103
-374.213 -593.003 -1863 42 46 108
-370.837 -593.791 -1866 45 49 116
-366.665 -593.309 -1865 58 59 133
-362.89 -593.464 -1866 67 68 144
-358.921 -593.303 -1866 61 64 140
-354.956 -593.144 -1866 63 69 152
-350.429 -592.034 -1863 50 57 142
-346.477 -591.879 -1863 60 72 163
-342.711 -592.043 -1864 59 74 163
-338.035 -590.622 -1860 40 56 144
-334.457 -591.107 -1862 36 42 100
-330.874 -591.594 -1864 33 38 86
-327.109 -591.766 -1865 34 38 75
-323.17 -591.621 -1865 31 37 88
-318.892 -590.845 -1863 26 34 91
-315.639 -591.972 -1867 25 36 105
-312.038 -592.467 -1869 43 54 129
-308.596 -593.281 -1872 72 84 161
-305.145 -594.096 -1875 46 62 149
-301.201 -593.961 -1875 27 37 102
-296.943 -593.196 -1873 31 40 95
-293.009 -593.065 -1873 34 38 67
-289.232 -593.253 -1874 33 37 65
-285.301 -593.127 -1874 31 35 62
-281.523 -593.318 -1875 29 33 57
-277.595 -593.194 -1875 28 32 56
-273.961 -593.705 -1877 31 35 58
-270.177 -593.901 -1878 33 33 59
-266.817 -595.048 -1882 33 33 62
-263.163 -595.564 -1884 36 35 73
-259.916 -597.029 -1889 36 39 73
-255.702 -596.283 -1887 34 39 72
-251.899 -596.487 -1888 34 37 76
-248.487 -597.641 -1892 33 34 73
-244.673 -597.848 -1893 35 35 72
-241.239 -599.005 -1897 45 50 108
-238.041 -600.794 -1903 60 68 136
-234.819 -602.584 -1909 80 90 173
-231.333 -603.744 -1913 85 101 199
-228.188 -605.852 -1920 67 82 178
-224.783 -607.33 -1925 39 55 141
-221.13 -608.179 -1928 47 64 142
-217.804 -609.975 -1934 53 70 145
-212.244 -605.466 -1920 57 75 139
-433.949 -599.232 -1861 35 39 91
-432.235 -602.255 -1871 34 38 86
-428.193 -602.06 -1871 34 39 70
-425.288 -603.476 -1876 33 38 65
-420.121 -601.677 -1871 31 36 61
-415.423 -600.523 -1868 33 35 58
-411.183 -600.015 -1867 34 34 59
-407.605 -600.472 -1869 36 36 62
-402.294 -598.362 -1863 31 32 62
-398.938 -599.145 -1866 32 31 60
-395.148 -599.287 -1867 40 37 66
-391.148 -599.109 -1867 47 52 94
-386.53 -597.972 -1864 46 50 93
-382.954 -598.44 -1866 35 37 82
-378.561 -597.627 -1864 24 31 68
-374.582 -597.458 -1864 28 34 74
-370.605 -597.29 -1864 37 41 86
-367.026 -597.765 -1866 40 41 102
-362.858 -597.281 -1865 58 59 124
-358.697 -596.799 -1864 69 73 147
-354.734 -596.639 -1864 78 84 172
-350.398 -595.841 -1862 65 73 166
-346.445 -595.684 -1862 58 66 157
-342.496 -595.53 -1862 38 49 138
-338.731 -595.698 -1863 32 45 133
-334.786 -595.547 -1863 31 37 87
-331.376 -596.357 -1866 30 34 80
-327.43 -596.209 -1866 32 35 75
-323.488 -596.064 -1866 31 33 69
-319.547 -595.921 -1866 31 34 72
-315.779 -596.098 -1867 30 34 78
-312.344 -596.915 -1870 29 36 100
-308.568 -597.096 -1871 59 68 137
-305.117 -597.916 -1874 54 71 155
-301.174 -597.781 -1874 55 68 137
-297.392 -597.967 -1875 44 55 117
-293.609 -598.154 -1876 37 40 77
-289.052 -596.749 -1872 33 35 69
-285.428 -597.259 -1874 32 34 63
-281.497 -597.133 -1874 29 34 59
-277.421 -596.69 -1873 31 36 60
-273.936 -597.523 -1876 32 36 59
-270.585 -598.676 -1880 34 35 60
-266.794 -598.875 -1881 34 35 62
-263 -599.076 -1882 37 39 73
-259.618 -600.233 -1886 34 41 77
-255.679 -600.119 -1886 34 43 80
-252.01 -600.643 -1888 36 37 80
-248.597 -601.804 -1892 33 35 76
-245.04 -602.649 -1895 33 36 76
-241.218 -602.859 -1896 34 37 86
-238.146 -604.979 -1903 40 46 104
-234.8 -606.463 -1908 64 76 149
-231.314 -607.632 -1912 81 98 193
-228.17 -609.754 -1919 68 86 180
-225.233 -612.513 -1928 51 69 155
-221.228 -612.415 -1928 36 51 127
-217.675 -613.588 -1932 26 41 113
-212.006 -608.73 -1917 43 63 120
-435.312 -605.01 -1866 61 69 124
-433.125 -607.406 -1874 45 52 105
-428.845 -606.885 -1873 32 39 68
-425.255 -607.338 -1875 33 38 68
-420.311 -605.85 -1871 34 38 68
-415.389 -604.364 -1867 35 34 63
-411.369 -604.176 -1867 34 33 60
-407.571 -604.313 -1868 34 33 59
-403.341 -603.805 -1867 33 34 58
-399.118 -603.3 -1866 32 33 59
-394.48 -602.15 -1863 33 33 61
-390.487 -601.971 -1863 30 34 67
-386.082 -601.149 -1861 32 34 69
-382.306 -601.298 -1862 33 33 70
-378.529 -601.448 -1863 33 32 69
-374.55 -601.277 -1863 33 32 71
-371.369 -602.399 -1867 35 34 75
-367.388 -602.232 -1867 34 33 84
-363.021 -601.422 -1865 49 49 104
-358.474 -600.292 -1862 61 65 131
-354.323 -599.808 -1861 56 61 138
-349.991 -599.005 -1859 55 61 143
-346.229 -599.169 -1860 63 71 151
-342.098 -598.692 -1859 51 60 139
-338.884 -599.827 -1863 33 42 121
-335.116 -599.997 -1864 32 37 83
-331.17 -599.846 -1864 30 34 77
-327.402 -600.02 -1865 30 34 72
-323.633 -600.195 -1866 37 39 68
-320.033 -600.693 -1868 38 40 70
-316.09 -600.551 -1868 35 38 72
-312.651 -601.373 -1871 38 46 102
-309.202 -602.198 -1874 63 72 136
-305.417 -602.381 -1875 71 91 165
-301.952 -603.208 -1878 71 86 157
-297.367 -601.789 -1874 35 46 115
-293.27 -601.336 -1873 42 44 93
-289.335 -601.205 -1873 44 46 87
-285.403 -601.076 -1873 36 38 69
-281.623 -601.27 -1874 32 36 61
-277.693 -601.145 -1874 34 37 62
-274.204 -601.984 -1877 33 36 59
-270.274 -601.862 -1877 37 37 64
-266.912 -603.024 -1881 37 37 65
-263.117 -603.226 -1882 38 41 73
-260.009 -605.032 -1888 43 50 94
-255.929 -604.597 -1887 44 54 102
-252.122 -604.803 -1888 40 42 91
-248.576 -605.652 -1891 33 36 82
-245.278 -607.144 -1896 33 38 81
-241.326 -607.035 -1896 37 39 83
-238.126 -608.849 -1902 33 38 88
-234.781 -610.344 -1907 42 52 115
-231.416 -611.84 -1912 64 79 165
-228.271 -613.977 -1919 76 92 181
-225.216 -616.436 -1927 66 84 171
-221.326 -616.656 -1928 39 55 128
-217.546 -617.198 -1930 23 38 106
-211.768 -611.986 -1914 44 63 117
-434.812 -608.205 -1863 80 89 141
-433.092 -611.27 -1873 55 63 116
-429.729 -612.05 -1876 32 39 69
-425.449 -611.528 -1875 32 38 67
-420.504 -610.029 -1871 35 39 68
-415.802 -608.859 -1868 39 38 63
-412.219 -609.321 -1870 37 36 61
-407.758 -608.481 -1868 35 33 59
-403.309 -607.644 -1866 34 36 59
-399.086 -607.135 -1865 34 35 61
-395.295 -607.278 -1866 35 36 66
-390.665 -606.122 -1863 32 33 64
-386.466 -605.62 -1862 32 33 65
-382.891 -606.094 -1864 32 32 65
-378.904 -605.92 -1864 36 33 69
-374.72 -605.423 -1863 35 32 69
-371.339 -606.228 -1866 38 35 75
-367.162 -605.735 -1865 36 34 80
-362.991 -605.244 -1864 35 33 82
-358.829 -604.755 -1863 38 41 99
-354.674 -604.268 -1862 37 41 101
-349.961 -602.809 -1858 44 49 111
-346.386 -603.3 -1860 33 39 103
-342.621 -603.468 -1861 49 55 120
-338.855 -603.637 -1862 44 50 116
-334.728 -603.16 -1861 38 42 85
-331.32 -603.981 -1864 31 36 77
-327.725 -604.48 -1866 33 39 73
-323.605 -604.008 -1865 41 46 73
-320.006 -604.51 -1867 42 47 74
-316.402 -605.013 -1869 40 45 78
-312.959 -605.841 -1872 46 56 109
-309.176 -606.024 -1873 59 71 132
-305.717 -606.856 -1876 51 75 139
-302.088 -607.365 -1878 43 60 129
-297.659 -606.259 -1875 31 43 117
-293.872 -606.449 -1876 42 46 108
-289.774 -605.994 -1875 37 41 92
-285.684 -605.541 -1874 34 37 71
-281.299 -604.444 -1871 32 32 59
-277.522 -604.641 -1872 35 36 61
-273.743 -604.839 -1873 35 37 61
-270.251 -605.686 -1876 36 38 65
-266.606 -606.21 -1878 36 37 66
-262.816 -606.414 -1879 40 43 77
-259.437 -607.587 -1883 58 65 119
-255.908 -608.439 -1886 64 74 140
-252.369 -609.292 -1889 47 53 114
-248.819 -610.147 -1892 38 44 99
-245.647 -611.97 -1898 34 40 88
-241.816 -612.183 -1899 30 32 76
-238.609 -614.009 -1905 36 37 84
-234.886 -614.548 -1907 37 37 89
-232.126 -617.665 -1917 43 51 118
-228.968 -619.817 -1924 74 84 156
-225.901 -622.292 -1932 75 89 177
-221.654 -621.548 -1930 41 56 128
-217.643 -621.449 -1930 22 37 102
-211.198 -614.269 -1908 49 64 119
-435.246 -612.707 -1864 46 54 101
-433.523 -615.792 -1874 37 44 92
-430.385 -616.906 -1878 30 37 69
-425.872 -616.051 -1876 32 37 66
-421.372 -615.198 -1874 33 38 64
-416.884 -614.348 -1872 38 39 56
-413.291 -614.813 -1874 37 38 58
-408.819 -613.967 -1872 34 34 60
-404.143 -612.796 -1869 33 34 62
-399.484 -611.627 -1866 37 38 68
-395.689 -611.771 -1867 44 45 77
-390.844 -610.279 -1863 39 40 73
-387.058 -610.428 -1864 30 31 65
-382.861 -609.923 -1863 31 32 66
-379.891 -611.385 -1868 30 33 64
-375.093 -609.902 -1864 40 44 74
-371.509 -610.385 -1866 43 45 83
-367.526 -610.215 -1866 36 36 82
-363.157 -609.393 -1864 33 32 82
-358.607 -608.247 -1861 34 37 83
-354.836 -608.411 -1862 32 35 78
-350.309 -607.269 -1859 32 37 76
-346.544 -607.436 -1860 31 35 75
-342.777 -607.605 -1861 37 40 83
-339.01 -607.775 -1862 48 51 98
-334.521 -606.642 -1859 45 49 87
-331.115 -607.469 -1862 38 42 80
-327.699 -608.297 -1865 38 41 77
-323.579 -607.822 -1864 35 38 70
-320.495 -609.305 -1869 37 41 72
-316.715 -609.485 -1870 43 47 83
-313.77 -611.297 -1876 47 56 108
-309.812 -611.155 -1876 67 78 138
-306.508 -612.318 -1880 60 79 156
-302.225 -611.527 -1878 45 61 136
-297.953 -610.74 -1876 33 48 121
-294.162 -610.93 -1877 40 48 112
-289.751 -609.821 -1874 44 50 107
-285.661 -609.365 -1873 40 43 88
-281.426 -608.585 -1871 38 39 67
-277.351 -608.133 -1870 35 36 63
-273.575 -608.333 -1871 32 36 60
-270.085 -609.185 -1874 34 36 63
-266.727 -610.364 -1878 36 37 65
-263.075 -610.893 -1880 39 40 75
-259.968 -612.724 -1886 50 56 107
-256.295 -613.257 -1888 70 78 141
-252.75 -614.116 -1891 73 82 158
-248.8 -614.002 -1891 68 79 153
-245.499 -615.513 -1896 53 66 136
-241.543 -615.403 -1896 44 56 123
-238.34 -617.242 -1902 39 49 114
-234.499 -617.459 -1903 32 35 95
-231.503 -619.95 -1911 30 38 105
-228.357 -622.116 -1918 62 72 140
-225.535 -625.257 -1928 70 85 160
-221.524 -625.156 -1928 33 49 115
-217.741 -625.705 -1930 25 41 101
-211.626 -619.449 -1911 43 57 103
-435.215 -616.557 -1863 29 38 74
-434.187 -620.655 -1876 29 37 75
-430.815 -621.446 -1879 28 35 70
-426.524 -620.916 -1878 30 37 68
-422.467 -620.718 -1878 31 38 63
-418.414 -620.522 -1878 37 41 58
-413.703 -619.337 -1875 39 41 61
-409.445 -618.816 -1874 34 35 59
-404.763 -617.636 -1871 33 34 67
-400.311 -616.789 -1869 42 42 76
-396.084 -616.274 -1868 58 58 94
-392.284 -616.421 -1869 56 57 92
-388.068 -615.91 -1868 34 35 70
-384.477 -616.391 -1870 33 34 67
-380.067 -615.554 -1868 30 34 67
-375.266 -614.062 -1864 41 47 79
-371.083 -613.559 -1863 46 50 86
-367.499 -614.047 -1865 37 38 81
-362.935 -612.891 -1862 35 35 81
-358.965 -612.724 -1862 38 40 81
-355.38 -613.217 -1864 34 37 74
-351.224 -612.725 -1863 32 36 69
-346.889 -611.906 -1861 31 33 63
-342.935 -611.747 -1861 32 33 65
-338.801 -611.261 -1860 38 39 74
-334.314 -610.121 -1857 44 50 84
-330.377 -609.968 -1857 33 39 73
-326.97 -610.802 -1860 33 35 69
-323.206 -610.98 -1861 32 33 64
-319.955 -612.145 -1865 36 38 69
-316.521 -612.984 -1868 29 33 67
-313.077 -613.823 -1871 29 35 80
-309.293 -614.009 -1872 43 51 102
-305.996 -615.179 -1876 58 70 157
-302.202 -615.368 -1877 54 68 150
-298.089 -614.902 -1876 38 55 132
-294.14 -614.766 -1876 40 50 119
-289.883 -613.977 -1874 48 56 118
-285.638 -613.19 -1872 40 43 91
-281.103 -611.75 -1868 36 37 69
-277.329 -611.95 -1869 32 33 62
-273.407 -611.824 -1869 31 35 60
-269.775 -612.355 -1871 33 35 62
-266.422 -613.541 -1875 38 39 67
-263.054 -614.729 -1879 40 40 77
-259.81 -616.245 -1884 50 55 103
-256.14 -616.781 -1886 76 85 143
-252.999 -618.627 -1892 71 82 161
-248.913 -618.185 -1891 51 65 145
-245.74 -620.034 -1897 52 69 151
-241.652 -619.596 -1896 59 75 158
-238.198 -620.794 -1900 62 76 157
-234.482 -621.339 -1902 36 44 120
-231.487 -623.846 -1910 27 38 107
-228.103 -625.375 -1915 48 60 127
-225.637 -629.516 -1928 60 76 145
-221.855 -630.068 -1930 38 54 118
-217.953 -630.294 -1931 41 57 118
-211.943 -624.321 -1913 28 42 82
-433.082 -617.409 -1853 26 37 64
-433.001 -622.869 -1870 27 37 69
-431.475 -626.33 -1881 30 36 79
-427.633 -626.461 -1882 32 38 77
-423.565 -626.261 -1882 29 37 69
-419.724 -626.396 -1883 32 38 68
-415.441 -625.868 -1882 37 42 70
-410.073 -623.679 -1876 34 39 64
-405.384 -622.491 -1873 31 34 67
-400.498 -620.974 -1869 38 40 75
-396.268 -620.455 -1868 50 52 89
-392.257 -620.271 -1868 51 52 87
-389.08 -621.416 -1872 34 35 69
-384.656 -620.572 -1870 34 35 66
-380.243 -619.73 -1868 33 37 71
-375.843 -618.89 -1866 32 37 74
-371.654 -618.384 -1865 36 40 75
-367.275 -617.549 -1863 38 39 79
-362.713 -616.385 -1860 40 39 83
-359.325 -617.211 -1863 35 38 75
-355.736 -617.707 -1865 34 37 71
-351.576 -617.211 -1864 35 37 68
-347.609 -617.049 -1864 30 33 60
-343.462 -616.558 -1863 35 37 65
-338.593 -614.745 -1858 34 37 66
-333.928 -613.265 -1854 30 36 67
-330.174 -613.442 -1855 30 36 68
-326.418 -613.621 -1856 33 34 66
-322.834 -614.131 -1858 33 34 62
-319.76 -615.635 -1863 33 35 61
-316.328 -616.479 -1866 33 36 63
-312.887 -617.324 -1869 30 34 68
-309.27 -617.841 -1871 29 35 74
-305.974 -619.019 -1875 48 56 144
-302.18 -619.209 -1876 71 83 169
-298.067 -618.74 -1875 66 84 168
-294.118 -618.604 -1875 59 70 144
-289.862 -617.809 -1873 43 53 119
-285.464 -616.687 -1870 30 34 79
-281.232 -615.897 -1868 36 38 70
-277.456 -616.097 -1869 35 36 65
-273.532 -615.971 -1869 34 38 63
-269.611 -615.846 -1869 33 35 62
-266.402 -617.37 -1874 36 37 65
-262.755 -617.906 -1876 41 41 78
-259.653 -619.762 -1882 48 52 97
-255.986 -620.303 -1884 60 68 120
-252.981 -622.49 -1891 65 78 150
-249.158 -622.704 -1892 35 49 125
-245.982 -624.564 -1898 35 53 137
-242.018 -624.453 -1898 57 73 162
-238.432 -625.329 -1901 80 95 187
-234.589 -625.55 -1902 59 72 169
-231.229 -627.087 -1907 36 51 127
-228.089 -629.283 -1914 30 47 114
-225.272 -632.467 -1924 40 57 130
-222.071 -634.665 -1931 53 69 138
-218.504 -635.879 -1935 66 82 148
-212.483 -629.865 -1917 37 52 87
-431.883 -619.565 -1847 26 37 62
-433.437 -627.409 -1871 26 37 68
-431.908 -630.893 -1882 32 38 86
-428.516 -631.695 -1885 50 57 104
-424.665 -631.828 -1886 53 61 104
-420.59 -631.629 -1886 43 51 97
-415.636 -630.092 -1882 35 43 86
-410.485 -628.223 -1877 32 40 70
-405.358 -626.358 -1872 33 37 71
-401.114 -625.833 -1871 34 37 73
-396.879 -625.311 -1870 34 37 73
-393.281 -625.793 -1872 32 34 67
-389.47 -625.943 -1873 29 30 61
-385.659 -626.095 -1874 34 35 63
-381.032 -624.913 -1871 37 38 74
-376.422 -623.733 -1868 36 37 79
-371.429 -621.889 -1863 36 37 72
-367.249 -621.381 -1862 38 38 77
-363.273 -621.21 -1862 42 40 83
-359.878 -622.042 -1865 35 38 73
-356.474 -622.874 -1868 36 38 72
-352.306 -622.375 -1867 34 35 67
-348.145 -621.877 -1866 33 38 67
-343.622 -620.716 -1863 32 37 66
-338.933 -619.224 -1859 30 37 66
-334.084 -617.401 -1854 29 35 64
-329.971 -616.913 -1853 29 34 63
-325.866 -616.427 -1852 32 33 61
-322.463 -617.275 -1855 33 34 58
-319.05 -618.123 -1858 36 38 60
-315.966 -619.638 -1863 32 34 55
-312.362 -620.157 -1865 32 35 59
-309.413 -622.007 -1871 30 34 63
-305.789 -622.529 -1873 45 52 134
-302.159 -623.052 -1875 60 72 157
-298.206 -622.912 -1875 58 77 169
-294.255 -622.774 -1875 61 74 150
-289.996 -621.974 -1873 37 48 114
-285.902 -621.509 -1872 33 36 70
-281.814 -621.045 -1871 37 37 68
-277.882 -620.915 -1871 34 34 64
-274.244 -621.45 -1873 36 37 63
-270.168 -620.992 -1872 34 35 61
-267.094 -622.858 -1878 33 34 60
-263.157 -622.735 -1878 29 32 65
-260.049 -624.603 -1884 32 37 74
-256.104 -624.483 -1884 35 42 85
-253.097 -626.686 -1891 44 55 107
-249.142 -626.569 -1891 44 56 116
-246.096 -628.774 -1898 36 51 131
-242.002 -628.33 -1897 57 73 162
-238.291 -628.881 -1899 85 102 194
-234.45 -629.103 -1900 73 91 190
-231.093 -630.651 -1905 56 75 164
-227.836 -632.531 -1911 50 69 153
-225.376 -636.729 -1924 30 48 126
-222.288 -639.273 -1932 50 66 139
-218.83 -640.826 -1937 77 92 160
-213.025 -635.433 -1921 38 52 95
-432.948 -630.609 -1868 26 37 72
-430.965 -633.441 -1877 34 41 92
-427.582 -634.249 -1880 73 80 135
-424.416 -635.395 -1884 69 79 143
-420.344 -635.194 -1884 43 53 116
-414.949 -632.973 -1878 40 50 111
-410.46 -632.103 -1876 39 48 95
-405.55 -630.562 -1872 33 37 74
-400.875 -629.361 -1869 33 36 68
-396.854 -629.171 -1869 31 35 66
-393.467 -629.994 -1872 31 33 60
-389.654 -630.145 -1873 29 30 55
-385.841 -630.297 -1874 33 34 62
-381.619 -629.779 -1873 37 37 70
-376.397 -627.583 -1867 45 45 82
-371.803 -626.398 -1864 40 39 77
-367.422 -625.551 -1862 36 34 76
-363.444 -625.379 -1862 38 34 82
-359.661 -625.544 -1863 34 36 66
-356.451 -626.718 -1867 36 37 67
-352.849 -627.222 -1869 36 37 68
-348.868 -627.056 -1869 32 36 64
-343.968 -625.216 -1864 29 34 61
-339.639 -624.384 -1862 26 33 55
-334.601 -622.214 -1856 28 34 57
-330.482 -621.722 -1855 30 35 58
-326.722 -621.903 -1856 32 36 65
-322.961 -622.085 -1857 31 35 60
-319.543 -622.939 -1860 33 36 58
-315.944 -623.46 -1862 36 37 57
-312.508 -624.317 -1865 35 36 60
-309.227 -625.51 -1869 29 31 60
-305.769 -626.369 -1872 53 59 133
-302.139 -626.896 -1874 87 96 174
-298.027 -626.421 -1873 69 86 173
-294.078 -626.282 -1873 42 54 122
-290.132 -626.145 -1873 28 39 99
-286.035 -625.676 -1872 32 36 64
-282.096 -625.543 -1872 35 35 67
-278.457 -626.08 -1874 38 37 69
-274.812 -626.619 -1876 35 36 62
-271.016 -626.826 -1877 36 38 63
-267.93 -628.703 -1883 34 36 60
-263.98 -628.579 -1883 29 33 59
-260.723 -630.126 -1888 32 35 65
-256.495 -629.338 -1886 31 35 68
-253.483 -631.554 -1893 27 34 77
-249.389 -631.104 -1892 46 54 106
-246.08 -632.656 -1897 46 60 138
-242.242 -632.876 -1898 49 68 160
-238.402 -633.097 -1899 83 103 198
-234.683 -633.654 -1901 72 92 190
-231.079 -634.545 -1904 71 91 187
-227.941 -636.771 -1911 74 94 189
-225.363 -640.664 -1923 40 59 140
-222.621 -644.224 -1934 47 64 138
-218.931 -645.121 -1937 69 84 152
-213.567 -641.024 -1925 47 60 113
-432.691 -634.141 -1866 28 35 74
-431.401 -638.012 -1878 34 41 92
-427.787 -638.485 -1880 54 61 118
-423.942 -638.62 -1881 56 66 144
-419.875 -638.418 -1881 47 59 133
-414.263 -635.843 -1874 46 59 131
-409.999 -635.307 -1873 48 59 126
-405.743 -634.773 -1872 34 40 83
-401.495 -634.241 -1871 32 35 66
-397.255 -633.711 -1870 30 32 60
-393.233 -633.522 -1870 29 31 56
-389.631 -634.013 -1872 28 30 52
-385.406 -633.49 -1871 29 31 60
-380.985 -632.63 -1869 35 35 68
-375.769 -630.419 -1863 53 52 89
-371.98 -630.579 -1864 49 48 85
-367.399 -629.389 -1861 44 42 82
-364.007 -630.229 -1864 35 32 79
-360.025 -630.057 -1864 34 36 68
-356.811 -631.239 -1868 35 38 68
-353.016 -631.408 -1869 32 37 65
-349.22 -631.579 -1870 32 36 64
-344.684 -630.401 -1867 31 35 63
-340.165 -629.226 -1864 29 33 56
-335.12 -627.041 -1858 34 37 64
-331.351 -627.221 -1859 34 36 65
-326.701 -625.715 -1855 29 35 64
-323.114 -626.236 -1857 31 37 63
-319.35 -626.421 -1858 31 36 59
-316.093 -627.619 -1862 35 35 58
-312.32 -627.808 -1863 34 35 61
-309.207 -629.346 -1868 32 34 64
-305.749 -630.211 -1871 37 41 108
-302.12 -630.741 -1873 67 74 143
-298.326 -630.936 -1874 70 84 157
-294.373 -630.797 -1874 42 53 109
-290.268 -630.322 -1873 26 34 85
-286.322 -630.186 -1873 30 34 64
-282.832 -631.062 -1876 32 33 65
-279.033 -631.266 -1877 37 37 70
-275.527 -632.144 -1880 36 38 64
-271.576 -632.015 -1880 35 37 62
-268.198 -633.233 -1884 36 38 61
-263.963 -632.435 -1882 31 35 58
-260.707 -633.992 -1887 30 33 57
-256.479 -633.199 -1885 33 34 61
-253.199 -634.759 -1890 31 35 71
-249.506 -635.312 -1892 42 48 92
-246.065 -636.539 -1896 67 80 150
-242.227 -636.76 -1897 61 82 170
-238.764 -637.99 -1901 81 105 198
-235.039 -638.55 -1903 70 92 188
-231.551 -639.783 -1907 71 92 190
-228.406 -642.023 -1914 81 102 201
-225.703 -645.606 -1925 53 72 157
-222.956 -649.19 -1936 30 47 123
-219.147 -649.757 -1938 37 51 117
-213.445 -644.628 -1923 79 90 155
-432.204 -637.329 -1863 32 38 81
-431.378 -641.909 -1877 40 46 100
-427.537 -642.043 -1878 74 81 140
-423.244 -641.496 -1877 65 75 161
-419.406 -641.635 -1878 55 69 150
-414.02 -639.384 -1872 58 75 153
-409.101 -637.82 -1868 52 65 147
-404.853 -637.282 -1867 32 40 93
-401.044 -637.43 -1868 31 35 67
-396.808 -636.897 -1867 32 33 61
-393.211 -637.389 -1869 30 32 56
-389.609 -637.883 -1871 29 31 52
-384.972 -636.674 -1868 29 33 62
-381.167 -636.831 -1869 34 36 68
-376.554 -635.627 -1866 40 39 77
-372.556 -635.448 -1866 46 45 82
-367.772 -633.908 -1862 46 46 84
-364.18 -634.414 -1864 32 33 76
-360.583 -634.921 -1866 31 36 74
-357.363 -636.11 -1870 29 36 72
-353.373 -635.94 -1870 27 38 70
-349.573 -636.112 -1871 31 37 71
-345.033 -634.926 -1868 29 34 68
-341.057 -634.763 -1868 34 34 65
-336.542 -633.581 -1865 35 35 72
-332.757 -633.762 -1866 34 35 75
-328.265 -632.585 -1863 28 35 65
-324.312 -632.429 -1863 28 34 62
-320.017 -631.597 -1861 29 35 61
-316.583 -632.464 -1864 35 37 61
-312.636 -632.314 -1864 34 37 62
-308.857 -632.505 -1865 34 38 67
-305.731 -634.055 -1870 39 41 103
-301.94 -634.249 -1871 41 45 107
-298.149 -634.446 -1872 37 46 98
-294.355 -634.644 -1873 33 41 81
-290.25 -634.166 -1872 30 37 73
-286.611 -634.707 -1874 30 34 71
-283.116 -635.587 -1877 31 33 68
-279.611 -636.47 -1880 32 33 67
-276.243 -637.692 -1884 32 36 63
-272.427 -637.901 -1885 34 37 63
-268.467 -637.773 -1885 34 35 61
-264.509 -637.646 -1885 32 34 57
-260.553 -637.522 -1885 33 34 60
-256.736 -637.738 -1886 35 36 66
-253.319 -638.97 -1890 36 36 73
-249.887 -640.203 -1894 35 36 76
-246.311 -641.1 -1897 42 49 100
-242.725 -641.998 -1900 36 51 124
-239.253 -643.235 -1904 72 90 172
-235.397 -643.461 -1905 75 94 193
-231.66 -644.026 -1907 76 96 194
-228.513 -646.282 -1914 76 97 193
-225.809 -649.889 -1925 55 72 161
-222.715 -652.483 -1933 47 63 144
-219.137 -653.729 -1937 42 56 126
-213.656 -649.24 -1924 74 84 157
-433.342 -642.919 -1867 31 37 86
-431.817 -646.496 -1878 39 46 103
