ply
format ascii 1.0
comment Created by Open3D
element vertex 1459
property double x
property double y
property double z
property uchar red
property uchar green
property uchar blue
end_header
-219.986 -668.475 -1981 51 57 57
-215.423 -667.022 -1977 51 57 57
-211.306 -666.922 -1977 50 56 56
-207.401 -667.498 -1979 50 56 55
-203.387 -667.738 -1980 48 54 53
-199.471 -668.318 -1982 46 52 51
-195.745 -669.574 -1986 44 51 50
-191.715 -669.82 -1987 47 55 53
-187.683 -670.068 -1988 49 55 54
-183.555 -669.98 -1988 50 56 55
-179.52 -670.232 -1989 50 56 56
-175.57 -670.822 -1991 51 57 58
-171.613 -671.415 -1993 51 57 58
-167.818 -672.683 -1997 51 57 58
-163.761 -672.942 -1998 50 56 57
-159.942 -674.213 -2002 50 56 57
-155.874 -674.475 -2003 49 55 56
-151.954 -675.413 -2006 48 54 55
-147.876 -675.679 -2007 46 52 53
-144.011 -676.958 -2011 45 51 50
-140.06 -677.901 -2014 49 55 55
-136.3 -679.856 -2020 49 55 56
-132.452 -681.475 -2025 49 55 54
-128.457 -682.424 -2028 51 57 56
-124.083 -681.355 -2025 54 58 57
-120.374 -683.99 -2033 53 55 55
-116.633 -686.626 -2041 56 59 59
-295.258 -695.592 -2042 48 54 56
-288.685 -690.003 -2026 49 55 56
-283.306 -687.142 -2018 49 55 58
-278.793 -686.328 -2016 50 56 58
-273.882 -684.494 -2011 49 55 56
-269.933 -685.045 -2013 48 54 55
-265.185 -683.556 -2009 48 54 55
-260.717 -682.751 -2007 49 55 56
-256.515 -682.628 -2007 49 55 56
-252.19 -682.167 -2006 50 56 57
-247.624 -681.028 -2003 48 54 54
-243.194 -680.231 -2001 48 54 55
-238.655 -679.097 -1998 49 55 56
-233.896 -677.285 -1993 51 57 58
-229.045 -675.137 -1987 51 57 58
-224.899 -675.029 -1987 49 55 56
-220.201 -673.225 -1982 47 53 52
-215.743 -672.103 -1979 51 57 56
-211.299 -670.982 -1976 52 58 57
-207.394 -671.562 -1978 52 58 57
-203.38 -671.804 -1979 49 55 54
-199.464 -672.388 -1981 46 52 51
-195.64 -673.312 -1984 45 52 51
-191.709 -673.9 -1986 47 55 54
-187.771 -674.488 -1988 50 56 55
-183.734 -674.739 -1989 50 56 55
-179.875 -675.671 -1992 49 55 54
-175.741 -675.587 -1992 47 53 54
-171.866 -676.522 -1995 49 55 56
-167.645 -676.103 -1994 49 55 56
-163.674 -676.702 -1996 49 55 56
-160.097 -678.999 -2003 50 56 57
-155.791 -678.246 -2001 50 56 57
-152.177 -680.546 -2008 48 54 55
-148.094 -680.814 -2009 47 53 54
-144.15 -681.762 -2012 46 52 51
-140.126 -682.372 -2014 48 54 54
-136.364 -684.34 -2020 48 55 56
-132.449 -685.632 -2024 49 55 54
-128.391 -686.247 -2026 51 56 55
-124.203 -686.188 -2026 54 58 57
-120.372 -688.162 -2032 54 56 56
-116.574 -690.477 -2039 56 59 58
-296.701 -703.246 -2051 48 54 58
-289.536 -696.248 -2031 50 56 57
-283.863 -692.682 -2021 49 55 58
-279.341 -691.862 -2019 49 55 58
-274.558 -690.358 -2015 48 54 55
-270.062 -689.543 -2013 49 55 56
-265.444 -688.387 -2010 48 54 55
-260.972 -687.576 -2008 46 52 53
-256.638 -687.109 -2007 47 53 54
-252.436 -686.987 -2007 51 57 58
-247.866 -685.841 -2004 47 53 52
-243.31 -684.697 -2001 47 53 53
-238.649 -683.213 -1997 47 53 54
-234.125 -682.073 -1994 49 55 56
-229.154 -679.569 -1987 50 56 57
-224.893 -679.118 -1986 50 56 57
-220.306 -677.644 -1982 50 56 55
-215.845 -676.514 -1979 51 57 56
-211.4 -675.387 -1976 52 58 57
-207.388 -675.628 -1977 51 57 56
-203.374 -675.872 -1978 49 55 54
-199.357 -676.118 -1979 47 53 52
-195.733 -677.731 -1984 46 53 53
-191.703 -677.981 -1985 48 56 56
-187.86 -678.915 -1988 51 57 56
-183.914 -679.509 -1990 51 57 56
-179.78 -679.423 -1990 47 53 52
-176.177 -681.386 -1996 42 48 49
-171.862 -680.62 -1994 44 50 51
-167.892 -681.222 -1996 46 52 53
-163.834 -681.485 -1997 48 54 55
-160.173 -683.455 -2003 50 56 57
-156.099 -683.721 -2004 48 54 55
-152.174 -684.671 -2007 46 52 53
-148.311 -685.964 -2011 48 54 55
-144.362 -686.918 -2014 49 55 54
-140.192 -686.85 -2014 49 56 55
-136.564 -689.513 -2022 47 55 55
-132.577 -690.471 -2025 48 54 53
-128.578 -691.432 -2028 50 55 54
-124.384 -691.372 -2028 52 56 55
-120.606 -693.7 -2035 54 56 56
-116.801 -696.03 -2042 57 59 59
-296.844 -707.84 -2051 48 54 57
-289.391 -700.106 -2029 49 55 56
-283.578 -696.173 -2018 48 54 57
-279.06 -695.347 -2016 47 53 56
-274.554 -694.523 -2014 47 53 54
-269.923 -693.357 -2011 47 53 54
-265.572 -692.883 -2010 46 52 53
-261.227 -692.412 -2009 47 53 54
-256.505 -690.908 -2005 47 53 54
-252.18 -690.441 -2004 47 53 54
-247.737 -689.632 -2002 47 53 52
-243.183 -688.48 -1999 48 54 54
-238.286 -686.298 -1993 47 53 54
-234.002 -685.839 -1992 47 53 54
-229.264 -684.007 -1987 48 54 55
-224.888 -683.209 -1985 49 55 55
-220.189 -681.381 -1980 50 56 55
-216.058 -681.276 -1980 51 57 56
-211.608 -680.141 -1977 52 58 57
-207.487 -680.04 -1977 52 58 57
-203.471 -680.286 -1978 50 56 55
-199.453 -680.533 -1979 47 53 52
-195.432 -680.782 -1980 47 54 54
-191.505 -681.376 -1982 49 57 57
-187.761 -682.66 -1986 51 57 56
-183.724 -682.915 -1987 53 59 58
-179.866 -683.859 -1990 52 58 57
-175.997 -684.804 -1993 49 55 56
-171.858 -684.721 -1993 47 53 54
-167.804 -684.983 -1994 46 52 53
-163.994 -686.277 -1998 47 53 54
-160.169 -687.573 -2002 47 53 54
-156.096 -687.841 -2003 46 52 53
-152.322 -689.484 -2008 46 52 53
-148.234 -689.755 -2009 48 54 55
-144.431 -691.402 -2014 49 55 54
-140.537 -692.707 -2018 50 56 55
-136.494 -693.327 -2020 49 55 54
-132.575 -694.636 -2024 49 55 54
-128.576 -695.603 -2027 50 55 54
-124.505 -696.228 -2029 50 54 53
-120.723 -698.571 -2036 52 54 54
-117.257 -702.975 -2049 57 59 59
-297.133 -712.788 -2052 47 52 56
-289.531 -704.657 -2029 46 52 53
-283.856 -701.045 -2019 44 50 51
-279.196 -699.866 -2016 45 51 53
-274.823 -699.384 -2015 47 53 54
-270.322 -698.558 -2013 47 53 55
-265.701 -697.387 -2010 48 54 56
-261.094 -696.218 -2007 48 54 56
-256.502 -695.051 -2004 47 53 55
-251.924 -693.888 -2001 46 52 53
-247.733 -693.766 -2001 47 53 53
-243.179 -692.607 -1998 49 55 56
-238.64 -691.45 -1995 48 54 56
-233.998 -689.95 -1991 45 51 52
-229.49 -688.798 -1988 47 53 53
-224.996 -687.648 -1985 47 53 52
-220.295 -685.808 -1980 46 52 51
-216.053 -685.356 -1979 51 57 56
-211.71 -684.56 -1977 53 59 58
-207.482 -684.112 -1976 52 58 57
-203.672 -685.052 -1979 48 54 53
-199.448 -684.608 -1978 50 56 55
-195.427 -684.858 -1979 47 54 53
-191.501 -685.457 -1981 48 54 54
-187.851 -687.095 -1986 50 56 55
-183.72 -687.005 -1986 52 58 58
-179.862 -687.955 -1989 52 58 58
-175.993 -688.907 -1992 52 58 59
-171.94 -689.169 -1993 51 57 58
-167.885 -689.433 -1994 47 53 54
-164.073 -690.735 -1998 46 52 53
-160.327 -692.385 -2003 48 54 55
-156.249 -692.655 -2004 47 53 54
-152.32 -693.617 -2007 46 52 52
-148.306 -694.236 -2009 47 53 53
-144.572 -696.238 -2015 48 54 54
-140.535 -696.861 -2017 49 55 54
-136.56 -697.83 -2020 49 55 54
-132.573 -698.802 -2023 49 55 54
-128.701 -700.466 -2028 50 55 54
-124.749 -701.786 -2032 51 55 54
-120.841 -703.454 -2037 53 55 55
-117.599 -709.267 -2054 57 60 60
-297.858 -718.797 -2056 46 50 55
-289.53 -708.865 -2028 46 52 53
-284.136 -705.928 -2020 44 50 51
-279.609 -705.091 -2018 45 51 52
-275.23 -704.606 -2017 46 52 53
-270.589 -703.424 -2014 47 53 55
-265.962 -702.245 -2011 48 54 57
-261.091 -700.371 -2006 49 55 58
-256.627 -699.546 -2004 48 54 56
-251.795 -697.676 -1999 47 53 54
-247.606 -697.554 -1999 48 54 55
-243.054 -696.388 -1996 49 55 57
-238.158 -694.177 -1990 49 55 58
-233.877 -693.713 -1989 47 53 54
-229.255 -692.205 -1985 48 54 54
-224.766 -691.048 -1982 48 54 53
-220.402 -690.242 -1980 48 54 53
-216.158 -689.787 -1979 48 54 53
-212.027 -689.683 -1979 50 56 55
-207.688 -688.883 -1977 52 58 57
-203.565 -688.783 -1977 50 56 55
-199.444 -688.685 -1977 52 58 57
-195.423 -688.937 -1978 48 54 53
-191.4 -689.191 -1979 47 53 53
-187.659 -690.492 -1983 50 56 55
-183.624 -690.75 -1984 52 58 57
-179.859 -692.054 -1988 51 57 58
-175.636 -691.62 -1987 50 56 57
-172.024 -693.623 -1993 50 56 57
-168.135 -694.584 -1996 50 56 57
-164.153 -695.199 -1998 50 56 57
-160.164 -695.817 -2000 50 56 57
-156.168 -696.436 -2002 49 55 55
-152.166 -697.056 -2004 47 53 53
-148.304 -698.375 -2008 47 53 52
-144.283 -698.999 -2010 46 52 52
-140.325 -699.974 -2013 47 53 53
-136.49 -701.645 -2018 48 54 53
-132.637 -703.318 -2023 49 55 54
-128.637 -704.298 -2026 51 56 55
-124.748 -705.974 -2031 53 57 56
-120.958 -708.348 -2038 55 58 58
-117.943 -715.588 -2059 56 59 59
-299.454 -726.941 -2066 46 50 55
-289.958 -714.13 -2030 45 51 52
-284.416 -710.823 -2021 45 51 52
-279.885 -709.98 -2019 45 51 52
-275.502 -709.492 -2018 46 52 53
-270.722 -707.951 -2014 47 53 54
-266.225 -707.116 -2012 48 54 55
-261.089 -704.525 -2005 48 54 57
-256.368 -702.993 -2001 48 54 56
-251.667 -701.463 -1997 48 54 55
-247.48 -701.34 -1997 49 55 56
-242.564 -699.112 -1991 49 55 57
-238.394 -698.994 -1991 48 54 57
-233.991 -698.176 -1989 49 55 56
-229.714 -697.711 -1988 50 56 57
-224.989 -695.844 -1983 50 56 55
-220.844 -695.735 -1983 49 55 54
-216.592 -695.277 -1982 48 54 53
-212.345 -694.821 -1981 49 55 54
-207.79 -693.314 -1977 53 59 58
-203.768 -693.564 -1978 51 57 56
-199.542 -693.115 -1977 51 57 56
-195.42 -693.018 -1977 46 52 52
-191.494 -693.624 -1979 48 54 55
-187.75 -694.933 -1983 52 58 57
-183.529 -694.492 -1982 52 58 58
-180.037 -696.855 -1989 50 56 57
-176.076 -697.469 -1991 46 52 53
-172.194 -698.434 -1994 46 52 53
-168.133 -698.701 -1995 50 56 57
-164.397 -700.371 -2000 51 57 58
-160.322 -700.642 -2001 50 56 57
-156.088 -700.214 -2000 49 55 54
-152.164 -701.189 -2003 47 53 52
-148.228 -702.166 -2006 47 53 52
-144.353 -703.494 -2010 45 51 50
-140.463 -704.825 -2014 46 52 51
-136.625 -706.506 -2019 47 53 52
-132.767 -708.19 -2024 50 56 55
-128.763 -709.176 -2027 52 58 57
-124.993 -711.563 -2034 54 58 57
-121.076 -713.252 -2039 55 58 57
-118.229 -721.589 -2063 56 58 58
-299.602 -731.596 -2066 47 51 56
-290.244 -719.057 -2031 47 53 54
-284.839 -716.082 -2023 45 51 52
-280.162 -714.88 -2020 44 50 51
-275.775 -714.388 -2019 45 51 52
-270.855 -712.484 -2014 47 53 54
-266.225 -711.289 -2011 48 54 55
-260.957 -708.329 -2003 48 54 56
-256.495 -707.494 -2001 48 54 56
-251.665 -705.6 -1996 48 54 55
-247.354 -705.123 -1995 48 54 55
-243.05 -704.648 -1994 49 55 56
-238.632 -703.822 -1992 49 55 58
-233.871 -701.939 -1987 49 55 57
-229.48 -701.117 -1985 50 56 57
-225.214 -700.652 -1984 50 56 55
-221.064 -700.541 -1984 50 56 55
-216.698 -699.727 -1982 50 56 55
-212.45 -699.268 -1981 50 56 55
-208.102 -698.458 -1979 52 58 57
-204.074 -698.709 -1980 51 57 56
-199.64 -697.551 -1977 49 55 54
-195.615 -697.806 -1978 45 51 51
-191.878 -699.122 -1982 48 54 55
-187.748 -699.028 -1982 49 55 54
-183.619 -698.936 -1982 49 55 55
-179.854 -700.257 -1986 49 55 56
-176.162 -701.932 -1991 48 54 55
-172.365 -703.257 -1995 48 54 55
-168.384 -703.878 -1997 49 55 56
-164.314 -704.148 -1998 49 55 56
-160.401 -705.125 -2001 49 55 56
-156.243 -705.047 -2001 48 54 53
-152.086 -704.971 -2001 46 52 51
-148.153 -705.954 -2004 46 52 51
-144.28 -707.291 -2008 46 52 51
-140.531 -709.334 -2014 45 51 50
-136.691 -711.027 -2019 48 54 53
-132.569 -711.313 -2020 51 57 56
-128.889 -714.066 -2028 52 58 57
-124.87 -715.06 -2031 53 57 56
-121.017 -717.112 -2037 53 56 55
-118.23 -725.854 -2062 56 58 58
-299.316 -735.19 -2063 47 50 56
-290.246 -723.283 -2030 47 53 54
-284.84 -720.289 -2022 45 51 52
-280.025 -718.723 -2018 46 52 53
-275.639 -718.228 -2017 44 50 51
-270.99 -717.023 -2014 46 52 53
-266.357 -715.821 -2011 48 54 55
-261.087 -712.842 -2003 49 55 56
-256.751 -712.357 -2002 49 55 56
-251.916 -710.451 -1997 48 54 55
-247.601 -709.971 -1996 46 52 53
-242.926 -708.426 -1992 48 54 55
-238.75 -708.306 -1992 49 55 57
-233.987 -706.41 -1987 51 57 57
-230.173 -707.361 -1990 50 56 56
-225.553 -705.826 -1986 50 56 55
-221.063 -704.648 -1983 50 56 55
-216.587 -703.474 -1980 49 55 54
-212.448 -703.367 -1980 49 55 54
-208.206 -702.907 -1979 51 57 56
-203.969 -702.449 -1978 50 56 55
-199.941 -702.704 -1979 50 56 55
-196.009 -703.316 -1981 45 51 51
-191.973 -703.574 -1982 46 52 52
-188.03 -704.19 -1984 49 55 54
-184.173 -705.162 -1987 50 56 56
-180.215 -705.781 -1989 50 56 57
-176.072 -705.693 -1989 50 56 57
-172.277 -707.026 -1993 50 56 57
-168.383 -708.005 -1996 48 54 55
-164.477 -708.987 -1999 48 54 55
-160.4 -709.261 -2000 49 55 56
-156.242 -709.182 -2000 49 55 54
-152.39 -710.524 -2004 49 55 54
-148.226 -710.45 -2004 46 52 51
-144.711 -713.567 -2013 47 53 52
-140.741 -714.56 -2016 46 52 51
-136.759 -715.555 -2019 48 54 53
-132.963 -717.614 -2025 51 57 56
-128.953 -718.612 -2028 51 57 55
-124.993 -719.967 -2032 51 56 54
-121.196 -722.386 -2039 54 56 56
-299.612 -740.21 -2064 45 49 54
-290.249 -727.511 -2029 47 53 54
-284.842 -724.498 -2021 46 52 53
-280.026 -722.922 -2017 46 52 53
-275.503 -722.066 -2015 45 51 52
-270.992 -721.211 -2013 46 52 53
-265.961 -718.927 -2007 47 53 54
-261.087 -717.004 -2002 48 54 55
-256.623 -716.157 -2000 49 55 56
-251.916 -714.597 -1996 49 55 56
-247.477 -713.756 -1994 45 51 52
-243.048 -712.917 -1992 47 53 54
-238.75 -712.438 -1991 48 54 55
-234.104 -710.888 -1987 49 55 54
-230.172 -711.487 -1989 49 55 54
-225.438 -709.585 -1984 51 57 56
-221.173 -709.115 -1983 50 56 55
-216.695 -707.933 -1980 49 55 54
-212.447 -707.468 -1979 49 55 54
-208.204 -707.005 -1978 52 58 57
-204.174 -707.259 -1979 50 56 55
-200.243 -707.872 -1981 50 56 55
-196.305 -708.488 -1983 47 53 52
-192.263 -708.748 -1984 47 53 52
-188.029 -708.296 -1983 49 55 54
-184.172 -709.274 -1986 49 55 54
-180.123 -709.54 -1987 50 56 57
-176.16 -710.165 -1989 50 56 57
-172.19 -710.792 -1991 49 55 56
-168.466 -712.492 -1996 47 53 54
-164.477 -713.123 -1998 47 53 54
-160.56 -714.112 -2001 49 55 55
-156.398 -714.033 -2001 50 56 55
-152.618 -715.74 -2006 49 55 54
-148.67 -716.735 -2009 47 53 52
-145.214 -720.229 -2019 48 55 53
-141.16 -720.871 -2021 49 56 54
-137.098 -721.515 -2023 50 56 55
-133.226 -723.231 -2028 49 55 54
-129.017 -723.166 -2028 49 55 53
-124.993 -724.172 -2031 51 58 54
-121.315 -727.32 -2040 54 57 56
-290.825 -733.185 -2032 46 52 53
-284.563 -727.988 -2018 47 53 54
-279.473 -725.681 -2012 47 53 54
-274.959 -724.819 -2010 46 52 53
-270.859 -725.041 -2011 46 52 53
-266.095 -723.463 -2007 47 53 54
-261.48 -722.248 -2004 49 55 56
-256.88 -721.036 -2001 49 55 56
-252.043 -719.106 -1996 48 54 55
-247.229 -717.179 -1991 47 53 54
-242.682 -715.974 -1988 47 53 54
-238.75 -716.573 -1990 48 54 55
-234.576 -716.453 -1990 48 54 53
-230.172 -715.616 -1988 48 54 53
-225.779 -714.781 -1986 49 55 54
-221.619 -714.668 -1986 50 56 55
-216.695 -712.039 -1979 51 57 56
-212.339 -711.211 -1977 52 58 57
-208.309 -711.464 -1978 51 57 56
-204.483 -712.44 -1981 49 55 54
-200.343 -712.337 -1981 48 54 53
-196.403 -712.957 -1983 48 54 53
-192.553 -713.937 -1986 48 54 53
-188.313 -713.482 -1985 49 56 52
-184.265 -713.748 -1986 50 57 54
-180.395 -714.734 -1989 50 56 56
-176.248 -714.644 -1989 49 55 55
-172.276 -715.275 -1991 48 54 55
-168.635 -717.345 -1997 48 54 55
-164.559 -717.62 -1998 47 53 53
-160.721 -718.975 -2002 49 55 54
-156.711 -719.613 -2004 50 56 55
-152.846 -720.972 -2008 48 54 53
-149.188 -723.409 -2015 47 53 52
-145.431 -725.489 -2021 48 56 54
-141.58 -727.212 -2026 49 57 55
-137.37 -727.142 -2026 49 55 54
-133.359 -728.151 -2029 48 55 51
-129.209 -728.444 -2030 48 55 51
-125.302 -730.174 -2035 50 57 53
-121.435 -732.265 -2041 52 56 55
-118.578 -740.815 -2065 56 60 59
-291.402 -738.879 -2035 48 54 55
-285.131 -733.649 -2021 46 52 53
-279.893 -730.964 -2014 47 53 54
-275.235 -729.734 -2011 46 52 53
-271.266 -730.32 -2013 45 51 52
-266.628 -729.095 -2010 47 53 54
-261.743 -727.147 -2005 48 54 55
-256.882 -725.201 -2000 48 54 55
-252.171 -723.622 -1996 48 54 55
-247.479 -722.045 -1992 49 55 56
-242.927 -720.832 -1989 49 55 56
-238.871 -721.072 -1990 47 53 54
-234.341 -719.865 -1987 47 53 53
-230.057 -719.385 -1986 47 53 52
-225.438 -717.82 -1982 48 54 53
-221.061 -716.982 -1980 50 56 55
-216.476 -715.423 -1976 50 56 55
-212.339 -715.314 -1976 51 57 56
-208.203 -715.207 -1976 51 57 56
-204.38 -716.188 -1979 49 55 54
-200.445 -716.809 -1981 49 55 54
-196.601 -717.794 -1984 49 55 54
-192.457 -717.696 -1984 48 54 53
-188.314 -717.599 -1984 48 54 52
-184.265 -717.866 -1985 49 55 54
-180.032 -717.412 -1984 49 55 54
-176.337 -719.13 -1989 48 54 54
-172.623 -720.849 -1994 47 53 53
-168.889 -722.57 -1999 47 53 53
-165.054 -723.931 -2003 47 53 52
-161.043 -724.572 -2005 48 54 53
-157.025 -725.214 -2007 47 53 52
-153.228 -726.942 -2012 46 52 51
-149.412 -728.672 -2017 47 53 52
-145.648 -730.765 -2023 46 54 51
-141.721 -732.137 -2027 47 54 51
-137.507 -732.067 -2027 48 54 51
-133.558 -733.443 -2031 47 54 50
-129.274 -733.015 -2030 47 54 50
-125.119 -733.312 -2031 48 55 51
-121.377 -736.138 -2039 51 56 53
-118.466 -744.381 -2062 58 62 60
-291.982 -744.594 -2038 48 54 55
-285.136 -737.87 -2020 46 52 53
-279.758 -734.803 -2012 46 52 53
-275.376 -734.295 -2011 44 50 51
-271.54 -735.25 -2014 46 52 53
-267.162 -734.747 -2013 49 55 56
-262.138 -732.422 -2007 48 54 55
-257.399 -730.829 -2003 48 54 55
-252.679 -729.239 -1999 48 54 55
-247.356 -725.828 -1990 48 54 55
-242.807 -724.608 -1987 47 53 54
-238.633 -724.485 -1987 46 52 53
-234.46 -724.363 -1987 49 55 54
-230.174 -723.88 -1986 49 55 53
-226.122 -724.128 -1987 49 55 54
-221.174 -721.463 -1980 50 56 55
-216.915 -720.986 -1979 52 58 57
-212.554 -720.148 -1977 52 58 57
-208.415 -720.04 -1977 50 56 55
-204.381 -720.299 -1978 49 55 54
-200.344 -720.56 -1979 48 54 53
-196.503 -721.551 -1982 48 54 53
-192.36 -721.451 -1982 48 54 53
-188.409 -722.082 -1984 48 54 53
-184.359 -722.351 -1985 47 53 52
-180.669 -724.077 -1990 47 53 52
-176.516 -723.986 -1990 49 55 54
-172.971 -726.444 -1997 49 55 54
-169.06 -727.448 -2000 47 53 52
-165.055 -728.09 -2002 47 53 52
-161.205 -729.462 -2006 48 54 53
-157.182 -730.108 -2008 47 53 52
-153.23 -731.12 -2011 45 51 50
-149.488 -733.223 -2017 46 52 51
-145.65 -734.966 -2022 45 53 49
-141.723 -736.347 -2026 45 53 49
-137.373 -735.549 -2024 47 54 50
-133.625 -738.024 -2031 45 52 48
-129.403 -737.957 -2031 47 54 50
-125.244 -738.255 -2032 48 55 51
-121.677 -742.189 -2043 51 55 52
-118.928 -751.572 -2069 59 63 60
-293.709 -753.271 -2049 49 55 56
-286.13 -744.666 -2026 46 52 53
-280.598 -741.212 -2017 46 52 53
-275.929 -739.966 -2014 44 50 51
-271.68 -739.824 -2014 47 53 54
-267.167 -738.951 -2012 49 55 56
-262.273 -736.978 -2007 48 54 53
-257.403 -735.008 -2002 47 53 53
-252.682 -733.408 -1998 48 54 55
-247.608 -730.709 -1991 47 53 54
-243.298 -730.216 -1990 46 52 53
-238.995 -729.724 -1989 46 52 53
-234.817 -729.603 -1989 48 55 53
-230.292 -728.382 -1986 50 57 53
-225.669 -726.798 -1982 50 56 55
-221.511 -726.683 -1982 50 56 55
-217.026 -725.47 -1979 51 57 56
-212.878 -725.36 -1979 50 56 55
-208.733 -725.251 -1979 49 55 54
-204.589 -725.145 -1979 49 55 54
-200.649 -725.773 -1981 49 55 54
-196.802 -726.77 -1984 49 55 54
-192.556 -726.304 -1983 49 55 54
-188.601 -726.939 -1985 50 56 55
-184.267 -726.11 -1983 48 54 53
-180.579 -727.847 -1988 48 54 53
-176.606 -728.488 -1990 49 55 54
-173.059 -730.961 -1997 48 54 53
-169.484 -733.435 -2004 47 53 52
-165.222 -732.983 -2003 48 54 53
-161.528 -735.095 -2009 49 55 54
-157.498 -735.745 -2011 47 53 52
-153.308 -735.665 -2011 45 51 50
-149.416 -737.05 -2015 46 52 51
-145.652 -739.169 -2021 45 53 49
-141.725 -740.559 -2025 47 54 50
-137.511 -740.487 -2025 47 54 50
-133.628 -742.246 -2030 45 52 48
-129.405 -742.179 -2030 47 54 50
-125.369 -743.21 -2033 50 57 53
-121.561 -745.706 -2040 53 58 54
-118.989 -756.245 -2069 57 61 58
-295.152 -761.265 -2058 47 53 54
-286.702 -750.388 -2029 45 51 52
-281.022 -746.542 -2019 45 51 52
-276.072 -744.548 -2014 44 50 51
-271.685 -744.036 -2013 47 53 54
-267.173 -743.157 -2011 48 54 53
-262.671 -742.28 -2009 47 53 52
-257.793 -740.297 -2004 47 53 53
-253.193 -739.057 -2001 48 54 55
-248.358 -737.08 -1996 48 54 55
-243.547 -735.106 -1991 47 53 54
-238.999 -733.873 -1988 47 53 54
-235.293 -735.227 -1992 48 54 52
-230.527 -733.261 -1987 48 55 51
-226.469 -733.511 -1988 49 55 54
-222.185 -733.026 -1987 50 56 55
-217.687 -731.805 -1984 50 56 55
-213.096 -730.218 -1980 50 56 55
-209.157 -730.847 -1982 50 56 55
-204.901 -730.371 -1981 50 56 55
-200.753 -730.266 -1981 49 55 54
-196.804 -730.9 -1983 47 53 52
-192.752 -731.168 -1984 50 56 55
-188.793 -731.806 -1986 51 58 55
-184.362 -730.604 -1983 50 57 53
-180.672 -732.352 -1988 50 56 55
-176.786 -733.365 -1991 49 55 55
-173.061 -735.116 -1996 49 55 55
-169.318 -736.869 -2001 49 55 54
-165.142 -736.783 -2001 48 54 53
-161.29 -738.171 -2005 49 55 54
-157.579 -740.298 -2011 48 54 53
-153.615 -741.322 -2014 46 52 51
-149.715 -742.716 -2018 46 52 51
-145.583 -743.008 -2019 44 52 48
-141.728 -744.773 -2024 48 55 51
-137.378 -743.966 -2022 49 56 52
-133.564 -746.103 -2028 48 55 51
-129.344 -746.035 -2028 48 55 51
-125.557 -748.545 -2035 51 58 54
-121.861 -751.791 -2044 53 58 55
-119.28 -762.395 -2073 54 58 55
-296.024 -767.819 -2063 46 52 53
-287.559 -756.874 -2034 45 51 53
-281.587 -752.26 -2022 45 52 54
-276.765 -750.625 -2018 44 50 51
-272.232 -749.738 -2016 45 52 53
-267.445 -748.109 -2012 48 54 54
-262.546 -746.112 -2007 49 54 54
-257.928 -744.86 -2004 49 54 54
-253.705 -744.726 -2004 50 56 56
-248.612 -741.994 -1997 51 57 57
-244.285 -741.494 -1996 50 56 56
-240.086 -741.367 -1996 48 54 55
-235.179 -739.015 -1990 46 53 51
-230.996 -738.893 -1990 47 53 51
-226.815 -738.773 -1990 48 54 53
-222.188 -737.172 -1986 48 54 53
-217.8 -736.314 -1984 49 55 54
-213.422 -735.46 -1982 49 55 54
-209.266 -735.35 -1982 50 56 55
-205.008 -734.871 -1981 49 55 54
-201.06 -735.507 -1983 46 52 51
-197.205 -736.516 -1986 47 53 52
-192.95 -736.043 -1985 49 55 56
-188.701 -735.573 -1984 52 59 56
-184.458 -735.105 -1983 50 57 53
-180.493 -735.752 -1985 49 55 54
-176.611 -736.771 -1988 48 54 53
-173.064 -739.274 -1995 44 50 50
-169.067 -739.926 -1997 49 55 54
-165.31 -741.692 -2002 49 55 54
-161.373 -742.718 -2005 48 54 53
-157.504 -744.117 -2009 46 52 51
-153.619 -745.518 -2013 45 51 50
-149.793 -747.291 -2018 44 50 48
-145.658 -747.584 -2019 44 52 48
-141.731 -748.991 -2023 45 53 49
-137.517 -748.918 -2023 48 56 52
-133.699 -751.069 -2029 47 54 52
-129.411 -750.631 -2028 46 52 50
-125.56 -752.785 -2034 50 54 51
-121.805 -755.681 -2042 52 56 54
-119.226 -766.35 -2071 53 57 55
-297.041 -774.777 -2069 44 50 51
-288.276 -763.015 -2038 43 50 51
-281.874 -757.25 -2023 44 51 54
-277.322 -756.354 -2021 43 50 51
-272.105 -753.59 -2014 44 51 51
-267.452 -752.325 -2011 47 53 54
-263.338 -752.559 -2012 49 54 55
-258.578 -750.926 -2008 47 52 52
-254.344 -750.791 -2008 46 52 51
-248.992 -747.294 -1999 46 52 51
-244.658 -746.79 -1998 46 52 51
-240.091 -745.541 -1995 48 54 53
-235.42 -743.921 -1991 49 55 54
-231.117 -743.425 -1990 49 55 54
-227.276 -744.426 -1993 51 57 56
-222.64 -742.813 -1989 51 57 56
-218.134 -741.578 -1986 50 56 55
-213.857 -741.091 -1985 49 55 54
-209.481 -740.233 -1983 49 55 54
-205.322 -740.124 -1983 48 54 53
-201.266 -740.391 -1984 46 52 51
-197.308 -741.033 -1986 46 52 52
-193.051 -740.557 -1985 49 55 56
-188.99 -740.83 -1986 52 59 56
-185.019 -741.478 -1988 53 60 56
-180.86 -741.383 -1988 50 56 55
-176.97 -742.408 -1991 48 54 53
-173.068 -743.435 -1994 47 53 52
-169.07 -744.091 -1996 48 54 53
-165.397 -746.24 -2002 48 54 53
-161.377 -746.9 -2004 48 54 53
-157.586 -748.68 -2009 46 52 50
-153.47 -748.971 -2010 45 52 49
-149.722 -751.127 -2016 45 52 48
-145.59 -751.423 -2017 44 51 47
-141.455 -751.72 -2018 46 53 49
-137.521 -753.137 -2022 47 55 51
-133.571 -754.556 -2026 49 55 53
-129.606 -755.977 -2030 47 53 51
-125.873 -758.89 -2038 51 54 51
-122.286 -762.921 -2049 52 56 55
-119.807 -774.4 -2080 55 59 58
-297.055 -779.133 -2068 48 54 55
-288.57 -768.053 -2039 45 51 52
-282.162 -762.252 -2024 42 49 50
-277.331 -760.597 -2020 44 52 52
-272.519 -758.945 -2016 44 52 52
-267.594 -756.92 -2011 45 51 52
-263.346 -756.779 -2011 47 53 53
-258.844 -755.888 -2009 46 52 51
-254.225 -754.624 -2006 43 49 48
-249.372 -752.61 -2001 44 50 49
-244.91 -751.726 -1999 46 52 51
-240.218 -750.094 -1995 47 53 52
-235.899 -749.592 -1994 49 55 54
-231.355 -748.341 -1991 50 56 55
-226.825 -747.092 -1988 51 57 56
-222.646 -746.973 -1988 51 57 56
-218.139 -745.73 -1985 49 55 54
-213.538 -744.113 -1981 50 56 55
-209.274 -743.626 -1980 49 55 54
-205.223 -743.892 -1981 46 52 51
-200.966 -743.409 -1980 45 51 50
-197.113 -744.43 -1983 44 50 49
-193.152 -745.078 -1985 46 52 53
-188.994 -744.977 -1985 47 53 51
-184.93 -745.254 -1986 48 55 51
-181.046 -746.283 -1989 50 56 55
-176.885 -746.189 -1989 50 56 55
-173.072 -747.598 -1993 47 53 52
-168.99 -747.883 -1994 48 54 53
-165.235 -749.67 -1999 47 53 52
-161.381 -751.084 -2003 48 54 53
-157.59 -752.874 -2008 46 53 49
-153.321 -752.418 -2007 46 53 49
-149.578 -754.587 -2013 45 52 48
-145.522 -755.259 -2015 44 51 47
-141.669 -757.058 -2020 46 53 49
-137.525 -757.359 -2021 46 54 50
-133.839 -760.286 -2029 49 56 52
-129.674 -760.591 -2030 49 56 52
-125.877 -763.147 -2037 51 54 51
-122.35 -767.577 -2049 52 56 54
-119.697 -778.002 -2077 57 61 60
-289.29 -774.239 -2043 43 49 50
-282.731 -768.023 -2027 42 48 49
-277.754 -765.979 -2022 45 52 52
-272.935 -764.317 -2018 45 53 53
-268.002 -762.279 -2013 45 51 52
-263.355 -761.002 -2010 46 52 52
-258.981 -760.484 -2009 47 53 52
-254.233 -758.833 -2005 45 51 50
-249.38 -756.806 -2000 45 51 50
-245.04 -756.296 -1999 46 52 51
-240.466 -755.032 -1996 48 54 53
-235.906 -753.77 -1993 47 53 52
-231.477 -752.89 -1991 48 54 53
-227.173 -752.39 -1990 49 55 54
-222.764 -751.514 -1988 50 56 55
-217.924 -749.128 -1982 49 55 54
-213.652 -748.636 -1981 49 55 54
-209.491 -748.523 -1981 49 55 54
-205.124 -747.658 -1979 48 54 53
-200.971 -747.55 -1979 46 52 51
-197.019 -748.199 -1981 44 50 49
-193.157 -749.229 -1984 46 52 51
-189.189 -749.882 -1986 47 54 51
-185.214 -750.538 -1988 48 55 51
-181.142 -750.819 -1989 51 57 56
-177.245 -751.856 -1992 51 57 56
-173.424 -753.273 -1996 48 54 53
-169.333 -753.559 -1997 47 53 52
-165.571 -755.357 -2002 46 52 51
-161.466 -755.648 -2003 48 54 53
-157.673 -757.449 -2008 47 54 50
-153.402 -756.989 -2007 47 54 50
-149.508 -758.418 -2011 46 53 49
-145.526 -759.471 -2014 45 53 49
-141.533 -760.526 -2017 45 53 49
-137.665 -762.338 -2022 45 53 49
-133.844 -764.528 -2028 48 55 51
-130.126 -767.474 -2036 49 56 52
-126.252 -769.668 -2042 51 54 51
-122.893 -775.255 -2057 51 55 52
-120.048 -784.613 -2082 56 60 57
-289.162 -778.164 -2041 44 48 49
-282.604 -771.91 -2025 45 51 52
-277.902 -770.616 -2022 46 53 54
-272.946 -768.563 -2017 45 53 53
-268.279 -767.274 -2014 46 52 53
-263.759 -766.37 -2012 47 53 52
-259.378 -765.848 -2011 47 53 52
-254.623 -764.187 -2007 46 52 51
-249.638 -761.768 -2001 45 51 50
-245.294 -761.254 -2000 45 51 50
-240.715 -759.982 -1997 45 51 50
-235.914 -757.952 -1992 46 52 51
-231.601 -757.446 -1991 47 53 52
-226.952 -755.802 -1987 48 54 53
-222.434 -754.54 -1984 47 53 52
-217.931 -753.281 -1981 48 54 53
-213.658 -752.786 -1980 47 53 52
-209.391 -752.292 -1979 49 55 54
-205.234 -752.181 -1979 51 57 56
-201.078 -752.073 -1979 49 55 54
-197.223 -753.106 -1982 47 53 52
-193.357 -754.142 -1985 48 54 53
-189.671 -755.939 -1990 50 57 54
-185.5 -755.839 -1990 51 58 54
-181.512 -756.5 -1992 50 56 54
-177.25 -756.025 -1991 48 54 52
-173.516 -757.83 -1996 48 54 52
-169.169 -756.979 -1994 46 52 51
-165.659 -759.926 -2002 46 52 51
-161.472 -759.839 -2002 48 54 53
-157.443 -760.513 -2004 46 53 49
-153.407 -761.189 -2006 47 54 50
-149.662 -763.385 -2012 47 54 50
-145.531 -763.686 -2013 45 53 49
-141.749 -765.885 -2019 44 52 48
-137.943 -768.087 -2025 45 53 49
-133.915 -769.152 -2028 47 54 50
-130.003 -770.978 -2033 49 56 52
-126.258 -773.944 -2041 53 56 53
-122.779 -778.807 -2054 52 56 53
-119.996 -788.6 -2080 56 60 57
-297.821 -794.137 -2070 52 56 58
-289.885 -784.388 -2045 46 50 51
-283.315 -778.096 -2029 45 51 52
-278.327 -776.027 -2024 44 50 51
-273.364 -773.961 -2019 43 49 50
-268.557 -772.281 -2015 45 51 52
-264.032 -771.371 -2013 46 52 52
-259.388 -770.08 -2010 47 53 52
-254.887 -769.175 -2008 47 53 52
-250.147 -767.507 -2004 46 52 51
-245.794 -766.99 -2003 44 50 49
-240.724 -764.178 -1996 44 50 49
-236.159 -762.901 -1993 44 50 49
-231.958 -762.775 -1993 46 52 51
-227.074 -760.355 -1987 48 54 53
-222.441 -758.703 -1983 49 55 54
-218.048 -757.819 -1981 50 56 55
-213.664 -756.938 -1979 48 54 53
-209.291 -756.059 -1977 48 54 53
-205.344 -756.712 -1979 52 58 57
-201.288 -756.985 -1980 51 57 56
-197.428 -758.025 -1983 46 52 51
-193.558 -759.067 -1986 47 53 51
-189.773 -760.492 -1990 45 51 48
-185.692 -760.773 -1991 47 54 50
-181.7 -761.439 -1993 50 57 53
-177.524 -761.342 -1993 49 56 52
-173.87 -763.54 -1999 47 54 50
-169.769 -763.83 -2000 46 52 51
-165.996 -765.649 -2005 48 54 53
-161.881 -765.942 -2006 48 54 53
-157.763 -766.238 -2007 47 54 50
-153.719 -766.918 -2009 46 53 49
-150.114 -769.891 -2017 47 54 50
-145.971 -770.193 -2018 47 54 50
-141.895 -770.879 -2020 48 55 51
-137.948 -772.33 -2024 47 54 50
-134.185 -774.928 -2031 47 54 50
-130.457 -777.91 -2039 50 56 53
-126.449 -779.367 -2043 52 56 53
-123.024 -784.641 -2057 52 56 53
-120.234 -794.493 -2083 55 59 56
-298.99 -801.604 -2077 55 58 61
-290.894 -791.41 -2051 46 50 51
-283.748 -783.537 -2031 46 52 53
-278.616 -781.069 -2025 44 50 51
-273.512 -778.605 -2019 43 49 50
-268.969 -777.686 -2017 44 50 50
-264.175 -775.999 -2013 47 53 52
-259.529 -774.7 -2010 47 53 52
-254.771 -773.019 -2006 47 53 52
-250.158 -771.726 -2003 46 52 51
-245.927 -771.591 -2003 45 51 50
-240.854 -768.762 -1996 44 50 49
-236.524 -768.248 -1995 44 50 49
-232.084 -767.35 -1993 45 51 50
-227.311 -765.3 -1988 46 52 51
-222.449 -762.869 -1982 49 55 54
-218.055 -761.98 -1980 51 57 56
-213.888 -761.863 -1980 50 56 55
-209.298 -760.209 -1976 49 55 54
-205.558 -761.636 -1980 52 58 57
-201.6 -762.294 -1982 51 57 56
-197.734 -763.34 -1985 45 51 50
-193.76 -764.003 -1987 46 53 49
-189.875 -765.053 -1990 45 52 48
-185.792 -765.336 -1991 48 55 51
-181.889 -766.389 -1994 52 59 55
-177.619 -765.908 -1993 50 57 53
-173.703 -766.965 -1996 47 54 50
-169.521 -766.873 -1996 47 53 52
-165.754 -768.703 -2001 47 53 51
-161.726 -769.383 -2003 47 54 50
-158.162 -772.369 -2011 48 55 51
-154.031 -772.669 -2012 47 54 50
-150.344 -775.275 -2019 46 53 49
-146.266 -775.963 -2021 48 55 51
-142.534 -778.572 -2028 48 55 51
-138.295 -778.496 -2028 47 54 50
-134.389 -780.342 -2033 49 54 51
-130.271 -781.038 -2035 52 56 53
-126.455 -783.656 -2042 52 56 53
-122.85 -787.81 -2053 50 54 51
-120.24 -798.872 -2082 52 56 53
-299.874 -808.335 -2082 56 58 60
-290.911 -795.75 -2050 50 53 53
-284.043 -788.606 -2032 43 48 48
-278.906 -786.123 -2026 43 48 48
-273.526 -782.868 -2018 43 49 49
-269.116 -782.332 -2017 44 50 49
-264.319 -780.634 -2013 45 51 50
-259.541 -778.94 -2009 46 52 51
-255.164 -778.412 -2008 47 53 52
-250.169 -775.947 -2002 47 53 52
-245.692 -775.037 -2000 46 52 51
-240.864 -772.966 -1995 44 50 49
-236.415 -772.061 -1993 43 49 48
-231.977 -771.159 -1991 44 50 49
-227.32 -769.484 -1987 46 52 51
-222.795 -768.2 -1984 46 52 51
-218.394 -767.305 -1982 49 55 54
-213.896 -766.025 -1979 49 55 54
-209.518 -765.136 -1977 49 55 54
-205.878 -766.957 -1982 52 58 57
-201.709 -766.846 -1982 50 56 55
-197.842 -767.898 -1985 45 51 50
-193.963 -768.952 -1988 47 54 50
-190.074 -770.008 -1991 47 54 50
-185.987 -770.292 -1992 50 57 53
-181.897 -770.578 -1993 53 60 56
-178.072 -772.027 -1997 50 57 53
-174.145 -773.091 -2000 48 55 51
-169.952 -772.997 -2000 47 53 51
-166.258 -775.224 -2006 45 52 48
-162.136 -775.522 -2007 46 53 49
-158.405 -777.753 -2013 47 54 50
-154.344 -778.441 -2015 46 53 49
-150.574 -780.676 -2021 46 53 49
-146.563 -781.754 -2024 46 54 50
-142.681 -783.606 -2029 45 53 49
-138.507 -783.916 -2030 45 53 47
-134.594 -785.773 -2035 49 54 49
-130.469 -786.473 -2037 52 56 52
-126.647 -789.106 -2044 52 56 53
-123.037 -793.284 -2055 52 56 53
-120.363 -804.026 -2083 52 56 53
-300.327 -813.925 -2084 52 54 57
-291.071 -800.484 -2050 46 48 48
-283.919 -792.516 -2030 47 51 50
-278.921 -790.409 -2025 45 50 49
-274.219 -789.086 -2022 44 50 49
-269.932 -788.936 -2022 44 50 49
-265.384 -788.008 -2020 45 51 50
-260.46 -785.913 -2015 45 51 50
-255.686 -784.211 -2011 46 52 51
-250.931 -782.512 -2007 46 52 51
-246.073 -780.426 -2002 46 52 51
-240.755 -776.784 -1993 45 51 50
-236.782 -777.432 -1995 44 50 49
-231.871 -774.965 -1989 43 49 48
-226.987 -772.501 -1983 43 49 48
-222.58 -771.599 -1981 46 52 51
-218.514 -771.867 -1982 48 54 53
-214.013 -770.58 -1979 47 53 52
-209.951 -770.853 -1980 48 54 53
-206.094 -771.907 -1983 51 57 56
-202.125 -772.573 -1985 49 55 54
-198.149 -773.242 -1987 46 52 51
-194.069 -773.523 -1988 48 55 51
-190.369 -775.363 -1993 48 55 51
-186.182 -775.26 -1993 49 56 51
-182.088 -775.548 -1994 53 60 56
-178.169 -776.616 -1997 50 57 53
-174.24 -777.686 -2000 48 55 51
-170.045 -777.592 -2000 48 56 52
-166.266 -779.444 -2005 46 54 50
-162.387 -780.909 -2009 45 52 48
-158.413 -781.987 -2012 44 52 48
-154.275 -782.29 -2013 45 53 49
-150.656 -785.316 -2021 43 51 47
-146.643 -786.4 -2024 44 52 48
-142.688 -787.875 -2028 45 53 49
-138.446 -787.798 -2028 46 54 48
-134.469 -789.277 -2032 48 53 48
-130.284 -789.593 -2033 51 55 50
-126.344 -791.465 -2038 51 55 52
-122.924 -796.834 -2052 52 56 53
-120.14 -806.864 -2078 51 55 52
-301.07 -820.317 -2088 54 56 58
-291.232 -805.225 -2050 45 47 47
-284.776 -799.174 -2035 47 51 50
-279.765 -797.054 -2030 45 49 48
-274.777 -794.937 -2025 44 50 49
-270.081 -793.608 -2022 43 49 48
-265.662 -793.067 -2021 43 49 48
-261.121 -792.137 -2019 45 51 50
-255.827 -788.855 -2011 46 52 51
-250.945 -786.753 -2006 46 52 51
-246.086 -784.655 -2001 46 52 51
-240.646 -780.599 -1991 47 53 52
-236.557 -780.859 -1992 47 53 52
-231.882 -779.162 -1988 45 51 50
-226.998 -776.683 -1982 45 51 50
-222.478 -775.383 -1979 47 53 52
-218.524 -776.045 -1981 47 53 52
-214.239 -775.534 -1980 48 54 53
-210.067 -775.417 -1980 49 55 54
-206 -775.693 -1981 50 56 55
-202.033 -776.364 -1983 49 55 54
-197.959 -776.645 -1984 48 54 53
-193.981 -777.32 -1986 48 55 51
-190.091 -778.388 -1989 50 57 52
-186.191 -779.458 -1992 50 57 51
-182.188 -780.139 -1994 50 57 53
-178.089 -780.431 -1995 48 55 51
-174.51 -783.072 -2002 48 55 50
-170.479 -783.759 -2004 48 56 52
-166.606 -785.23 -2008 49 57 53
-162.395 -785.14 -2008 47 55 51
-158.5 -786.616 -2012 44 52 48
-154.436 -787.311 -2014 44 52 48
-150.44 -788.4 -2017 42 50 46
-146.506 -789.882 -2021 43 51 47
-142.696 -792.147 -2027 45 53 49
-138.385 -791.679 -2026 46 54 48
-134.41 -793.167 -2030 49 54 48
-130.163 -793.094 -2030 51 55 50
-126.289 -795.368 -2036 53 57 54
-122.751 -799.987 -2048 53 57 54
-119.916 -809.685 -2073 52 56 53
-299.94 -821.599 -2079 56 58 61
-290.968 -808.79 -2047 47 49 49
-284.655 -803.098 -2033 47 52 51
-279.783 -801.36 -2029 47 53 52
-274.794 -799.23 -2024 44 50 49
-270.365 -798.684 -2023 43 49 48
-265.678 -797.35 -2020 43 49 48
-260.748 -795.229 -2015 45 51 50
-255.969 -793.507 -2011 46 52 51
-250.583 -789.815 -2002 45 51 50
-245.976 -788.493 -1999 46 52 51
-240.901 -785.596 -1992 46 52 51
-236.332 -784.28 -1989 46 52 51
-231.544 -782.178 -1984 46 52 51
-227.124 -781.263 -1982 48 54 53
-222.601 -779.955 -1979 49 55 54
-218.756 -781.014 -1982 48 54 53
-214.25 -779.712 -1979 48 54 53
-210.183 -779.988 -1980 50 56 55
-206.218 -780.66 -1982 49 55 54
-202.145 -780.94 -1983 49 55 54
-197.969 -780.829 -1983 50 56 55
-194.088 -781.902 -1986 48 55 49
-190.292 -783.37 -1990 50 57 51
-186.2 -783.659 -1991 49 56 50
-182.197 -784.344 -1993 48 55 51
-178.098 -784.637 -1994 47 54 49
-174.432 -786.9 -2000 48 55 49
-170.488 -787.985 -2003 47 55 51
-166.449 -788.678 -2005 48 56 52
-162.485 -789.767 -2008 46 54 50
-158.351 -790.072 -2009 45 53 49
-154.215 -790.378 -2010 45 53 49
-150.374 -792.26 -2015 45 53 49
-146.296 -792.964 -2017 45 53 49
-142.564 -795.636 -2024 45 53 49
-138.188 -794.772 -2022 48 55 49
-134.352 -797.055 -2028 50 55 50
-130.299 -798.16 -2031 51 55 50
-126.607 -801.626 -2040 53 57 54
-123.119 -806.666 -2053 54 58 55
-120.388 -817.207 -2080 54 58 55
-316.402 -858.8 -2160 125 126 132
-300.252 -826.823 -2080 52 54 57
-290.562 -811.95 -2043 46 48 48
-284.814 -807.814 -2033 49 54 53
-279.664 -805.272 -2027 45 50 49
-274.541 -802.733 -2021 45 50 49
-270.249 -802.579 -2021 44 50 50
-265.695 -801.635 -2019 45 51 51
-261.024 -800.296 -2016 45 52 52
-255.985 -797.769 -2010 46 52 51
-250.849 -794.849 -2003 45 51 50
-245.991 -792.726 -1998 44 50 49
-240.914 -789.812 -1991 44 50 48
-236.464 -788.885 -1989 44 50 48
-231.673 -786.771 -1984 45 51 50
-227.365 -786.246 -1983 46 52 51
-223.176 -786.12 -1983 50 56 55
-218.988 -785.996 -1983 52 58 58
-214.694 -785.478 -1982 50 56 55
-210.3 -784.567 -1980 50 56 55
-206.125 -784.45 -1980 49 55 54
-201.951 -784.336 -1980 48 54 53
-197.68 -783.828 -1979 49 55 54
-193.903 -785.303 -1983 51 55 50
-190.206 -787.176 -1988 52 58 52
-186.21 -787.862 -1990 51 58 52
-182.298 -788.947 -1993 49 56 52
-178.286 -789.638 -1995 48 55 51
-174.617 -791.914 -2001 47 54 49
-170.327 -791.423 -2000 47 55 50
-166.542 -793.307 -2005 46 54 50
-162.737 -795.193 -2010 45 53 49
-158.676 -795.895 -2012 45 53 49
-154.454 -795.808 -2012 47 55 51
-150.607 -797.7 -2017 47 55 51
-146.45 -798.013 -2018 46 54 50
-142.502 -799.514 -2022 46 54 50
-138.401 -800.227 -2024 49 56 52
-134.36 -801.337 -2027 50 55 51
-130.371 -802.844 -2031 50 53 50
-126.802 -807.121 -2042 52 55 52
-123.427 -812.98 -2057 54 57 54
-120.57 -822.792 -2082 54 57 54
-300.133 -830.859 -2078 52 53 56
-290.868 -817.099 -2044 46 48 48
-284.695 -811.739 -2031 47 52 51
-279.683 -809.582 -2026 46 51 50
-274.696 -807.427 -2021 46 50 49
-269.999 -806.075 -2018 46 52 52
-265.845 -806.323 -2019 46 52 53
-261.041 -804.576 -2015 45 53 52
-256.002 -802.035 -2009 44 51 50
-250.99 -799.497 -2003 44 50 49
-246.376 -798.159 -2000 44 50 49
-240.929 -794.031 -1990 45 51 48
-236.835 -794.295 -1991 46 53 49
-232.271 -792.966 -1988 46 52 51
-227.837 -792.039 -1986 47 53 52
-223.414 -791.114 -1984 48 54 53
-219.443 -791.787 -1986 48 54 55
-214.815 -790.07 -1982 48 54 54
-210.631 -789.95 -1982 49 55 54
-206.032 -788.239 -1978 48 54 53
-201.962 -788.523 -1979 47 53 52
-198.19 -790.004 -1983 47 53 52
-194.109 -790.292 -1984 53 57 52
-190.409 -792.175 -1989 53 58 52
-186.408 -792.866 -1991 52 59 53
-182.584 -794.355 -1995 50 58 54
-178.476 -794.652 -1996 48 56 52
-174.627 -796.145 -2000 47 55 51
-170.678 -797.242 -2003 47 55 51
-166.718 -798.341 -2006 47 55 51
-162.828 -799.84 -2010 44 52 48
-158.843 -800.944 -2013 44 52 48
-154.848 -802.05 -2016 46 54 50
-150.99 -803.953 -2021 47 55 51
-146.968 -805.063 -2024 47 55 51
-142.723 -804.981 -2024 46 54 50
-138.342 -804.107 -2022 49 56 52
-134.634 -807.212 -2030 51 55 52
-130.38 -807.138 -2030 51 54 51
-126.748 -811.042 -2040 53 56 53
-123.616 -818.525 -2059 52 55 53
-120.985 -829.984 -2088 54 57 55
-299.581 -833.688 -2073 50 51 54
-290.606 -820.652 -2041 45 48 47
-284.856 -816.468 -2031 43 49 48
-279.428 -813.091 -2023 43 49 48
-274.58 -811.326 -2019 44 48 47
-269.885 -809.966 -2016 46 52 51
-265.732 -810.215 -2017 47 53 52
-260.8 -808.057 -2012 45 53 51
-255.892 -805.903 -2007 45 51 50
-251.132 -804.152 -2003 46 52 51
-246.392 -802.405 -1999 45 51 50
-241.065 -798.655 -1990 44 51 48
-236.85 -798.519 -1990 46 53 49
-232.286 -797.182 -1987 48 54 53
-228.425 -798.255 -1990 48 54 53
-223.991 -797.325 -1988 48 54 53
-219.567 -796.397 -1986 47 53 52
-215.045 -795.071 -1983 47 53 52
-210.856 -794.95 -1983 48 54 53
-206.565 -794.431 -1982 47 53 52
-201.974 -792.712 -1978 45 51 50
-198.102 -793.801 -1981 46 52 51
-194.023 -794.091 -1982 53 57 52
-190.325 -795.985 -1987 53 58 53
-186.513 -797.481 -1991 52 59 53
-182.778 -799.379 -1996 51 59 55
-178.666 -799.677 -1997 50 58 54
-174.638 -800.378 -1999 48 56 52
-170.519 -800.681 -2000 47 55 51
-166.562 -801.787 -2003 47 55 51
-162.838 -804.095 -2009 46 54 50
-158.775 -804.805 -2011 45 53 49
-155.012 -807.118 -2017 46 54 50
-151.15 -809.032 -2022 46 54 50
-147.196 -810.548 -2026 46 54 50
-143.085 -811.266 -2028 46 54 50
-138.762 -810.787 -2027 48 56 52
-134.71 -811.909 -2030 50 55 52
-130.518 -812.235 -2031 51 55 52
-126.882 -816.161 -2041 55 58 55
-123.866 -824.487 -2062 52 55 53
-121.227 -836.014 -2091 51 53 53
-120.144 -859.534 -2150 48 52 49
-298.885 -836.097 -2067 53 54 57
-291.057 -826.221 -2043 45 49 48
-285.159 -821.608 -2032 44 49 48
-279.725 -818.212 -2024 42 48 47
-274.736 -816.032 -2019 45 49 48
-270.039 -814.664 -2016 44 50 49
-265.752 -814.51 -2016 44 50 49
-261.079 -813.148 -2013 43 50 49
-256.293 -811.384 -2009 44 50 48
-251.401 -809.22 -2004 44 51 48
-246.902 -808.269 -2002 45 51 50
-241.566 -804.497 -1993 44 50 47
-237.342 -804.36 -1993 44 51 47
-232.652 -802.612 -1989 46 52 51
-228.555 -802.884 -1990 48 54 53
-223.893 -801.141 -1986 47 53 52
-219.802 -801.418 -1987 47 53 52
-215.058 -799.277 -1982 48 54 53
-210.976 -799.559 -1983 49 55 54
-206.474 -798.23 -1980 47 53 52
-202.293 -798.114 -1980 45 51 50
-198.014 -797.597 -1979 48 54 53
-194.329 -799.5 -1984 52 56 51
-190.433 -800.6 -1987 53 58 53
-186.619 -802.104 -1991 52 59 53
-182.79 -803.61 -1995 51 59 55
-179.125 -805.924 -2001 51 59 55
-174.912 -805.823 -2001 49 57 53
-171.042 -807.335 -2005 48 56 52
-166.906 -807.642 -2006 47 55 51
-163.174 -809.964 -2012 45 53 49
-159.102 -810.677 -2014 45 53 49
-155.33 -813.003 -2020 45 53 49
-151.385 -814.526 -2024 45 53 49
-147.424 -816.05 -2028 46 54 50
-143.237 -816.37 -2029 45 53 49
-139.114 -817.095 -2031 47 55 51
-134.852 -817.017 -2031 49 55 51
-130.848 -818.55 -2035 52 56 53
-127.078 -821.695 -2043 55 58 55
-124.176 -830.874 -2066 51 54 52
-121.934 -845.282 -2102 48 50 50
-120.874 -903.046 -2246 59 61 59
-298.912 -840.521 -2066 52 53 56
-291.367 -831.401 -2044 47 50 49
-285.744 -827.574 -2035 46 51 50
-280.301 -824.158 -2027 44 49 48
-275.439 -822.372 -2023 44 48 47
-270.596 -820.588 -2019 44 49 48
-266.168 -820.028 -2018 44 49 48
-261.228 -817.844 -2013 43 49 48
-256.567 -816.477 -2010 45 52 49
-251.796 -814.706 -2006 47 54 50
-246.92 -812.532 -2001 44 50 49
-241.826 -809.549 -1994 42 49 46
-237.478 -809.005 -1993 42 49 45
-232.785 -807.247 -1989 45 51 50
-228.686 -807.52 -1990 47 53 52
-224.133 -806.173 -1987 47 53 52
-220.039 -806.451 -1988 48 54 53
-215.398 -804.704 -1984 49 55 54
-211.097 -804.176 -1983 49 55 54
-206.905 -804.056 -1983 49 55 54
-202.613 -803.533 -1982 47 54 52
-198.628 -804.229 -1984 48 54 51
-194.636 -804.926 -1986 49 55 50
-190.637 -805.627 -1988 52 58 52
-186.913 -807.545 -1993 53 60 54
-183.078 -809.06 -1997 52 59 55
-179.496 -811.791 -2004 50 58 54
-175.099 -810.88 -2002 49 57 53
-171.31 -812.806 -2007 49 57 53
-167.085 -812.709 -2007 47 55 51
-163.186 -814.234 -2011 45 53 49
-159.114 -814.952 -2013 45 53 49
-155.419 -817.696 -2020 46 54 50
-151.621 -820.036 -2026 45 53 49
-147.581 -821.165 -2029 43 51 47
-143.318 -821.082 -2029 44 52 48
-139.262 -822.215 -2032 47 55 51
-134.929 -821.733 -2031 50 55 52
-130.923 -823.275 -2035 52 56 53
-127.275 -827.247 -2045 53 56 53
-124.367 -836.478 -2068 50 53 51
-122.293 -852.182 -2107 48 50 49
-298.506 -843.721 -2062 52 53 56
-291.108 -834.958 -2041 47 49 49
-285.91 -832.336 -2035 47 51 50
-280.601 -829.309 -2028 47 51 51
-275.734 -827.512 -2024 44 48 47
-271.155 -826.536 -2022 44 48 47
-266.85 -826.38 -2022 44 48 47
-261.769 -823.775 -2016 42 48 46
-257.099 -822.399 -2013 43 50 46
-252.444 -821.026 -2010 44 51 47
-247.433 -818.431 -2004 43 49 48
-242.208 -815.022 -1996 44 50 47
-237.614 -813.659 -1993 43 50 46
-232.802 -811.481 -1988 44 50 49
-228.473 -810.94 -1987 45 51 50
-224.15 -810.401 -1986 47 53 52
-219.944 -810.273 -1986 48 54 53
-215.197 -808.108 -1981 49 55 54
-211.218 -808.8 -1983 51 57 56
-206.815 -807.864 -1981 52 58 56
-202.832 -808.561 -1983 50 56 54
-198.742 -808.853 -1984 49 56 52
-194.944 -810.37 -1988 50 57 51
-190.843 -810.667 -1989 50 57 51
-187.114 -812.596 -1994 52 59 53
-183.183 -813.711 -1997 51 58 54
-179.42 -815.644 -2002 50 57 53
-175.2 -815.542 -2002 47 55 51
-171.238 -816.665 -2005 46 54 50
-167.181 -817.381 -2007 45 53 49
-163.28 -818.916 -2011 44 52 48
-159.126 -819.23 -2012 46 54 50
-155.354 -821.582 -2018 46 54 50
-151.483 -823.53 -2023 43 51 47
-147.52 -825.072 -2027 43 51 47
-143.259 -824.988 -2027 45 53 49
-139.342 -826.942 -2032 47 55 51
-135.139 -827.27 -2033 49 55 51
-131.062 -828.414 -2036 51 55 52
-127.41 -832.409 -2046 52 55 52
-124.619 -842.507 -2071 49 52 48
-122.77 -859.928 -2114 46 49 45
-299.114 -849.791 -2065 52 53 56
-291.42 -840.154 -2042 46 48 48
-287.06 -839.985 -2042 46 50 50
-282.011 -837.763 -2037 44 48 49
-277.121 -835.955 -2033 44 48 47
-272.386 -834.561 -2030 45 49 48
-267.929 -833.992 -2029 46 50 49
-262.441 -830.139 -2020 44 48 45
-257.376 -827.522 -2014 42 48 45
-252.465 -825.319 -2009 43 50 46
-247.7 -823.53 -2005 44 51 47
-242.348 -819.691 -1996 43 50 46
-237.752 -818.32 -1993 42 49 45
-232.937 -816.13 -1988 42 48 47
-228.605 -815.585 -1987 45 51 50
-224.28 -815.043 -1986 47 53 52
-220.071 -814.914 -1986 50 56 55
-215.539 -813.557 -1983 50 56 55
-211.234 -813.023 -1982 51 57 56
-207.04 -812.901 -1982 51 58 54
-202.95 -813.192 -1983 50 57 53
-198.857 -813.486 -1984 49 56 52
-195.155 -815.421 -1989 51 58 52
-191.049 -815.719 -1990 50 57 51
-187.035 -816.429 -1992 50 57 51
-183.381 -818.781 -1998 50 57 52
-179.613 -820.725 -2003 48 56 52
-175.389 -820.622 -2003 46 54 50
-171.507 -822.16 -2007 45 53 49
-167.194 -821.652 -2006 44 52 48
-163.13 -822.376 -2008 45 53 49
-159.217 -823.921 -2012 46 54 50
-155.675 -827.515 -2021 45 53 49
-151.571 -828.245 -2023 44 52 48
-147.678 -830.205 -2028 43 51 47
-143.554 -830.94 -2030 44 52 48
-139.354 -831.267 -2031 45 53 49
-135.417 -833.234 -2036 49 55 51
-131.46 -835.203 -2041 51 55 52
-127.608 -837.992 -2048 50 54 51
-124.691 -847.33 -2071 48 52 48
-299.144 -854.228 -2064 55 55 59
-292.162 -846.605 -2046 46 49 48
-287.65 -846.021 -2045 43 48 47
-282.73 -844.199 -2041 42 47 47
-277.829 -842.38 -2037 45 49 48
-272.679 -839.738 -2031 45 49 47
-268.086 -838.752 -2029 46 50 48
-262.724 -835.29 -2021 47 51 48
-257.654 -832.657 -2015 44 49 46
-252.612 -830.029 -2009 42 49 45
-247.845 -828.23 -2005 42 49 45
-242.611 -824.782 -1997 43 50 46
-238.01 -823.402 -1994 43 50 46
-233.542 -822.439 -1992 43 49 48
-229.084 -821.477 -1990 45 51 50
-224.862 -821.344 -1990 47 53 52
-220.31 -819.976 -1987 49 56 53
-215.773 -818.611 -1984 49 56 53
-211.463 -818.073 -1983 51 57 54
-207.056 -817.126 -1981 52 59 55
-202.761 -816.594 -1980 51 58 54
-198.672 -816.889 -1981 50 57 53
-194.778 -818.011 -1984 49 56 51
-190.872 -819.136 -1987 50 57 51
-187.144 -821.087 -1992 49 56 50
-183.487 -823.451 -1998 49 56 52
-179.718 -825.406 -2003 48 55 51
-175.929 -827.363 -2008 46 54 50
-171.607 -826.849 -2007 45 53 49
-167.625 -827.986 -2010 45 53 49
-163.55 -828.714 -2012 47 55 51
-159.864 -831.502 -2019 46 54 50
-155.688 -831.823 -2020 44 52 48
-151.734 -833.38 -2024 44 52 48
-147.545 -833.705 -2025 44 52 48
-143.496 -834.855 -2028 45 53 49
-139.297 -835.184 -2029 47 55 51
-135.163 -835.928 -2031 48 56 52
-131.214 -837.908 -2036 49 56 52
-127.619 -842.359 -2047 50 54 51
-124.643 -851.339 -2069 48 52 49
-299.901 -860.75 -2068 57 56 62
-292.191 -851.002 -2045 45 49 48
-287.538 -849.999 -2043 40 46 45
-282.896 -848.999 -2041 40 46 45
-277.993 -847.169 -2037 45 49 48
-272.84 -844.511 -2031 46 50 48
-268.244 -843.52 -2029 46 50 47
-263.269 -841.285 -2024 48 52 48
-258.062 -838.222 -2017 46 50 47
-252.635 -834.331 -2008 42 47 44
-247.991 -832.937 -2005 43 50 46
-242.875 -829.885 -1998 43 50 46
-238.15 -828.082 -1994 45 52 48
-233.679 -827.113 -1992 47 53 52
-228.988 -825.316 -1988 47 54 52
-224.994 -826.012 -1990 48 54 52
-220.329 -824.221 -1986 50 57 53
-215.791 -822.848 -1983 49 56 52
-211.481 -822.307 -1982 49 56 52
-207.072 -821.355 -1980 50 57 53
-202.674 -820.404 -1978 50 57 53
-198.788 -821.531 -1981 49 56 52
-194.892 -822.659 -1984 50 57 52
-190.792 -822.961 -1985 51 58 52
-187.065 -824.923 -1990 50 57 51
-183.411 -827.301 -1996 50 57 52
-179.823 -830.095 -2003 47 54 50
-175.856 -831.234 -2006 44 53 49
-171.536 -830.718 -2005 44 52 48
-167.89 -833.519 -2012 45 53 49
-163.727 -833.836 -2013 47 55 51
-159.641 -834.569 -2015 46 54 50
-155.625 -835.72 -2018 44 52 48
-151.897 -838.528 -2025 45 53 49
-147.704 -838.854 -2026 46 54 50
-143.579 -839.597 -2028 46 54 50
-139.447 -840.342 -2030 48 56 52
-135.241 -840.676 -2031 49 57 53
-131.226 -842.253 -2035 50 57 53
-127.756 -847.558 -2048 51 55 52
