ply
format ascii 1.0
comment Created by Open3D
element vertex 1457
property double x
property double y
property double z
property uchar red
property uchar green
property uchar blue
end_header
-141.703 -782.436 -2014 44 48 43
-138.036 -785.467 -2022 43 47 42
-134.27 -788.112 -2029 44 48 42
-130.476 -790.759 -2036 46 50 44
-126.468 -792.242 -2040 47 51 45
-122.385 -793.339 -2043 47 50 45
-118.463 -795.603 -2049 47 50 45
-114.518 -797.869 -2055 45 50 47
-110.816 -802.078 -2066 46 51 49
-287.516 -783.387 -1994 49 53 55
-282.708 -781.658 -1990 49 53 54
-277.779 -779.538 -1985 50 53 53
-273.15 -778.207 -1982 49 52 52
-268.807 -777.664 -1981 48 54 53
-264.07 -775.946 -1977 49 55 54
-259.878 -775.801 -1977 48 53 52
-255.43 -774.874 -1975 49 53 52
-252.011 -777.087 -1981 50 54 53
-247.567 -776.164 -1979 51 55 54
-243.134 -775.244 -1977 51 55 54
-238.47 -773.542 -1973 52 56 53
-234.182 -773.019 -1972 52 56 53
-229.783 -772.107 -1970 50 54 53
-225.509 -771.589 -1969 49 53 50
-221.578 -772.249 -1971 49 53 50
-217.311 -771.736 -1970 50 54 49
-213.265 -772.009 -1971 51 55 52
-209.112 -771.892 -1971 52 56 53
-205.272 -772.952 -1974 51 55 50
-201.218 -773.232 -1975 50 54 50
-197.061 -773.122 -1975 49 53 50
-192.711 -772.231 -1973 46 52 51
-188.466 -771.735 -1972 42 48 46
-184.415 -772.023 -1973 43 49 46
-180.452 -772.705 -1975 50 54 51
-176.393 -772.998 -1976 50 54 51
-172.331 -773.293 -1977 50 55 52
-168.182 -773.199 -1977 49 53 48
-164.117 -773.499 -1978 48 52 48
-160.13 -774.192 -1980 49 54 51
-156.294 -775.669 -1984 52 58 53
-152.673 -778.32 -1991 54 60 54
-149.023 -780.973 -1998 53 57 52
-145.491 -784.41 -2007 50 54 49
-141.851 -787.457 -2015 47 51 46
-138.112 -790.116 -2022 45 49 44
-134.344 -792.776 -2029 44 48 42
-130.548 -795.438 -2036 45 49 42
-126.538 -796.93 -2040 46 50 43
-122.632 -799.206 -2046 45 48 43
-118.644 -801.092 -2051 45 48 43
-114.747 -803.762 -2058 41 48 44
-111.145 -808.777 -2071 44 51 48
-287.821 -788.403 -1995 49 53 54
-282.866 -786.268 -1990 49 53 54
-278.214 -784.926 -1987 49 53 53
-273.44 -783.192 -1983 49 52 52
-268.821 -781.856 -1980 50 54 53
-264.618 -781.707 -1980 48 54 53
-259.891 -779.982 -1976 48 53 52
-255.313 -778.654 -1973 50 54 53
-251.387 -779.302 -1975 49 53 52
-247.454 -779.952 -1977 49 53 52
-243.023 -779.026 -1975 52 56 55
-238.482 -777.709 -1972 52 56 53
-234.312 -777.577 -1972 50 54 52
-230.144 -777.448 -1972 49 53 52
-225.863 -776.927 -1971 49 53 51
-221.814 -777.196 -1972 50 54 51
-217.431 -776.286 -1970 51 54 49
-213.275 -776.166 -1970 51 55 51
-209.44 -777.23 -1973 51 55 52
-205.386 -777.509 -1974 50 54 49
-201.329 -777.79 -1975 51 55 51
-197.07 -777.285 -1974 52 56 53
-192.817 -776.783 -1973 48 54 53
-188.571 -776.284 -1972 44 49 47
-184.423 -776.18 -1972 44 48 45
-180.369 -776.473 -1973 51 55 50
-176.49 -777.554 -1976 50 55 51
-172.514 -778.244 -1978 49 56 52
-168.445 -778.543 -1979 48 52 47
-164.291 -778.451 -1979 46 51 46
-160.138 -778.361 -1979 46 53 49
-156.302 -779.847 -1983 50 57 52
-152.45 -781.334 -1987 51 58 52
-148.956 -784.789 -1996 53 57 50
-145.499 -788.64 -2006 53 57 52
-142 -792.491 -2016 51 55 50
-138.256 -795.165 -2023 48 52 47
-134.617 -798.627 -2032 43 47 41
-130.748 -800.911 -2038 44 48 41
-126.669 -802.019 -2041 44 48 41
-122.759 -804.308 -2047 44 47 41
-118.767 -806.206 -2052 42 45 40
-114.922 -809.284 -2060 41 48 44
-111.099 -812.757 -2069 44 51 48
-108.271 -824.088 -2098 65 71 70
-107.056 -849.166 -2162 161 164 170
-294.429 -799.161 -2010 82 84 86
-288.415 -794.227 -1998 53 56 57
-283.451 -792.078 -1993 49 53 53
-278.65 -790.331 -1989 49 53 53
-274.145 -789.381 -1987 50 54 53
-269.515 -788.036 -1984 51 55 52
-264.766 -786.297 -1980 48 53 51
-260.168 -784.959 -1977 48 52 50
-255.586 -783.623 -1974 50 54 51
-251.528 -783.878 -1975 49 53 51
-247.092 -782.944 -1973 50 54 52
-243.036 -783.203 -1974 49 53 51
-238.252 -781.085 -1969 51 55 53
-234.205 -781.349 -1970 50 54 52
-230.039 -781.219 -1970 50 54 53
-225.645 -780.298 -1968 51 55 52
-221.713 -780.966 -1970 50 54 51
-217.773 -781.636 -1972 50 53 49
-213.503 -781.119 -1971 50 54 51
-209.344 -781.001 -1971 50 54 51
-205.084 -780.488 -1970 49 53 49
-201.033 -780.771 -1971 50 54 50
-196.681 -779.867 -1969 49 53 50
-192.925 -781.343 -1973 47 52 49
-188.484 -780.048 -1970 46 50 48
-184.432 -780.34 -1971 45 49 46
-180.652 -781.822 -1975 47 51 48
-176.589 -782.118 -1976 48 53 50
-172.697 -783.208 -1979 47 54 50
-168.709 -783.904 -1981 49 55 51
-164.465 -783.415 -1980 46 52 48
-160.47 -784.116 -1982 47 54 50
-156.704 -786.006 -1987 52 57 52
-152.688 -786.71 -1989 53 57 52
-149.039 -789.395 -1996 54 57 52
-145.652 -793.663 -2007 53 56 51
-142.15 -797.537 -2017 50 54 49
-138.333 -799.831 -2023 46 50 45
-134.559 -802.523 -2030 44 48 43
-130.885 -806.007 -2039 46 50 44
-126.802 -807.121 -2042 45 49 43
-122.767 -808.632 -2046 42 46 41
-118.949 -811.726 -2054 39 43 38
-114.874 -813.242 -2058 42 47 42
-110.784 -814.76 -2062 46 51 48
-107.608 -823.392 -2084 61 65 64
-105.381 -840.321 -2127 128 130 134
-287.856 -796.873 -1993 52 54 55
-282.899 -794.712 -1988 47 51 50
-278.247 -793.354 -1985 48 52 51
-273.885 -792.799 -1984 51 55 54
-269.395 -791.846 -1982 52 56 53
-265.049 -791.295 -1981 51 55 52
-260.578 -790.348 -1979 49 53 50
-255.989 -789.004 -1976 49 53 50
-251.542 -788.062 -1974 51 55 52
-247.105 -787.123 -1972 52 56 53
-242.803 -786.586 -1971 49 53 51
-238.144 -784.854 -1967 51 55 53
-234.218 -785.518 -1969 50 54 53
-229.934 -784.989 -1968 50 54 53
-225.887 -785.259 -1969 51 55 53
-222.287 -787.127 -1974 50 54 51
-218.006 -786.604 -1973 52 56 53
-213.731 -786.084 -1972 52 56 53
-209.568 -785.965 -1972 51 55 52
-205.407 -785.848 -1972 50 54 51
-201.248 -785.734 -1972 49 53 50
-196.991 -785.223 -1971 48 52 49
-192.837 -785.113 -1971 48 52 49
-188.59 -784.608 -1970 47 51 48
-184.442 -784.503 -1970 46 50 47
-180.57 -785.595 -1973 47 51 48
-176.598 -786.291 -1975 47 52 48
-172.619 -786.989 -1977 46 53 49
-168.804 -788.485 -1981 49 56 52
-164.724 -788.79 -1982 46 53 49
-160.56 -788.698 -1982 45 52 48
-156.713 -790.201 -1986 50 55 50
-152.851 -791.706 -1990 53 57 52
-149.122 -794.008 -1996 54 57 52
-145.661 -797.903 -2006 53 57 52
-142.3 -802.595 -2018 50 54 49
-138.273 -803.709 -2021 47 51 46
-134.767 -808.007 -2032 46 50 45
-130.958 -810.716 -2039 46 50 45
-126.935 -812.234 -2043 45 49 44
-122.776 -812.96 -2045 45 49 44
-118.899 -815.674 -2052 46 50 45
-114.939 -817.994 -2058 45 49 45
-110.846 -819.521 -2062 45 49 46
-107.462 -826.613 -2080 52 56 54
-104.548 -838.078 -2109 69 71 72
-292.857 -803.289 -1997 66 66 68
-287.875 -801.113 -1992 55 56 57
-282.775 -798.538 -1986 48 52 51
-278.405 -797.975 -1985 48 52 51
-274.041 -797.416 -1984 52 56 54
-269.412 -796.056 -1981 52 56 53
-265.199 -795.904 -1981 52 56 53
-260.99 -795.754 -1981 51 55 52
-256.652 -795.205 -1980 50 54 51
-252.194 -794.258 -1978 51 55 52
-247.371 -792.108 -1973 51 55 52
-243.064 -791.567 -1972 50 54 53
-238.521 -790.227 -1969 50 54 53
-234.469 -790.494 -1970 50 54 53
-230.298 -790.362 -1970 51 55 54
-226.244 -790.634 -1971 51 55 53
-222.188 -790.908 -1972 50 54 51
-218.24 -791.585 -1974 51 55 52
-213.96 -791.061 -1973 51 55 52
-209.58 -790.139 -1971 52 56 53
-205.21 -789.22 -1969 52 56 53
-201.055 -789.105 -1969 51 55 52
-196.802 -788.592 -1968 49 53 50
-192.652 -788.482 -1968 50 54 51
-188.505 -788.374 -1968 48 52 49
-184.546 -789.069 -1970 46 50 47
-180.58 -789.767 -1972 45 49 46
-176.787 -791.268 -1976 45 50 47
-172.978 -792.771 -1980 45 52 48
-168.899 -793.074 -1981 47 54 50
-165.066 -794.582 -1985 45 52 48
-160.893 -794.489 -1985 45 52 48
-156.801 -794.8 -1986 49 53 49
-153.013 -796.713 -1991 51 55 50
-149.431 -799.829 -1999 53 57 52
-145.67 -802.146 -2005 53 57 52
-142.238 -806.466 -2016 51 55 50
-138.42 -808.787 -2022 49 53 48
-134.776 -812.309 -2031 48 52 47
-130.967 -815.034 -2038 47 51 46
-127.317 -818.96 -2048 45 49 44
-123.145 -819.689 -2050 42 46 41
-119.43 -823.619 -2060 43 47 42
-115.338 -825.152 -2064 40 44 41
-111.285 -827.087 -2069 44 48 45
-107.625 -832.222 -2082 50 54 51
-104.507 -842.155 -2107 65 67 67
-301.159 -818.64 -2023 72 72 74
-292.584 -806.735 -1994 66 66 68
-287.606 -804.546 -1989 55 56 57
-282.652 -802.361 -1984 50 54 53
-278.002 -800.987 -1981 52 56 55
-273.921 -801.233 -1982 52 56 55
-269.429 -800.269 -1980 51 55 54
-265.351 -800.52 -1981 52 56 54
-261.007 -799.965 -1980 53 57 56
-256.41 -798.605 -1977 51 55 54
-252.211 -798.46 -1977 50 54 52
-247.637 -797.106 -1974 50 54 53
-243.079 -795.754 -1971 50 54 53
-238.293 -793.598 -1966 50 54 53
-234.722 -795.481 -1971 51 55 54
-230.546 -795.348 -1971 53 57 54
-226.832 -796.832 -1975 51 55 53
-222.765 -797.107 -1976 50 54 51
-218.475 -796.578 -1975 49 53 50
-214.082 -795.647 -1973 50 54 51
-209.699 -794.72 -1971 50 54 51
-205.536 -794.602 -1971 51 55 52
-201.169 -793.68 -1969 52 56 53
-197.014 -793.566 -1969 50 54 51
-192.762 -793.053 -1968 48 52 49
-188.707 -793.347 -1969 47 51 48
-184.369 -792.435 -1967 44 48 45
-180.683 -794.345 -1972 45 49 46
-176.619 -794.646 -1973 46 51 47
-172.902 -796.561 -1978 46 53 49
-168.738 -796.463 -1978 47 54 50
-164.826 -797.577 -1981 46 53 49
-160.66 -797.484 -1981 46 53 49
-156.89 -799.407 -1986 48 53 49
-153.023 -800.929 -1990 50 54 49
-149.141 -802.453 -1994 52 56 51
-145.825 -807.198 -2006 53 57 52
-142.319 -811.14 -2016 53 57 52
-138.429 -813.072 -2021 50 54 49
-134.72 -816.213 -2029 48 52 47
-131.106 -820.159 -2039 48 52 47
-127.264 -822.902 -2046 45 49 44
-123.034 -823.233 -2047 43 47 42
-119.265 -826.783 -2056 42 46 41
-115.236 -828.728 -2061 40 44 41
-111.187 -830.674 -2066 45 49 46
-107.479 -835.436 -2078 48 52 49
-104.07 -843.015 -2097 65 67 67
-301.481 -823.777 -2024 68 68 70
-292.606 -810.99 -1993 63 63 65
-287.048 -807.16 -1984 54 55 56
-282.102 -804.962 -1979 50 54 53
-277.881 -804.801 -1979 52 56 55
-273.525 -804.235 -1978 52 56 55
-269.176 -803.672 -1977 51 55 54
-265.503 -805.144 -1981 50 54 53
-261.288 -804.992 -1981 51 55 54
-256.816 -804.031 -1979 51 55 54
-252.61 -803.884 -1979 49 53 52
-248.281 -803.334 -1978 49 53 52
-243.589 -801.568 -1974 50 54 53
-239.036 -800.211 -1971 51 55 54
-234.856 -800.075 -1971 52 56 55
-230.561 -799.535 -1970 52 56 53
-226.732 -800.621 -1973 51 55 52
-222.554 -800.493 -1973 50 54 51
-218.268 -799.961 -1972 50 54 51
-214.204 -800.242 -1973 49 53 50
-209.926 -799.715 -1972 49 53 50
-205.653 -799.19 -1971 49 53 50
-201.489 -799.073 -1971 49 53 50
-197.126 -798.148 -1969 50 54 51
-193.166 -798.847 -1971 47 51 48
-189.007 -798.738 -1971 45 50 46
-184.756 -798.225 -1970 42 47 44
-180.969 -799.741 -1974 44 49 46
-177.078 -800.854 -1977 47 51 48
-173.263 -802.374 -1981 47 54 50
-169.176 -802.681 -1982 47 54 50
-165.337 -804.205 -1986 47 54 50
-161.076 -803.707 -1985 47 54 50
-157.296 -805.64 -1990 49 54 49
-153.264 -806.361 -1992 51 55 50
-149.151 -806.679 -1993 53 57 52
-145.472 -809.429 -2000 54 58 53
-141.976 -813.393 -2010 54 58 53
-138.097 -815.337 -2015 52 56 51
-134.53 -819.305 -2025 49 53 48
-130.73 -822.061 -2032 46 50 45
-127.026 -825.628 -2041 46 50 45
-122.984 -827.175 -2045 43 49 42
-119.275 -831.151 -2055 40 46 39
-115.246 -833.106 -2060 43 47 42
-111.357 -836.277 -2068 44 48 44
-107.592 -840.663 -2079 51 55 52
-103.881 -845.858 -2092 59 61 63
-293.069 -816.475 -1995 62 62 64
-287.359 -812.214 -1985 52 53 54
-282.407 -810.003 -1980 49 53 52
-277.901 -809.022 -1978 49 53 52
-273.822 -809.271 -1979 51 55 54
-269.467 -808.705 -1978 50 54 53
-265.12 -808.141 -1977 51 55 54
-261.043 -808.398 -1978 51 55 54
-256.705 -807.839 -1977 49 53 52
-252.629 -808.1 -1978 48 52 51
-248.048 -806.73 -1975 48 52 51
-243.853 -806.587 -1975 49 53 52
-239.174 -804.814 -1971 51 55 54
-234.991 -804.677 -1971 52 56 55
-230.928 -804.95 -1972 53 57 54
-226.748 -804.818 -1972 52 56 53
-222.57 -804.688 -1972 51 55 52
-218.283 -804.153 -1971 52 56 53
-214.11 -804.028 -1971 50 54 51
-209.727 -803.09 -1969 52 56 53
-205.771 -803.786 -1971 52 56 53
-201.502 -803.261 -1970 48 52 49
-197.44 -803.553 -1971 49 53 50
-193.179 -803.033 -1970 49 53 50
-189.307 -804.146 -1973 47 52 49
-184.956 -803.223 -1971 41 48 44
-181.073 -804.34 -1974 44 49 46
-177.09 -805.051 -1976 47 52 49
-173.187 -806.173 -1979 45 52 48
-169.017 -806.074 -1979 44 51 47
-165.015 -806.793 -1981 44 51 47
-161.169 -808.328 -1985 44 51 47
-157.069 -808.643 -1986 48 53 48
-153.198 -810.183 -1990 52 56 51
-149.312 -811.724 -1994 53 57 52
-145.264 -812.454 -1996 54 58 53
-141.492 -814.813 -2002 54 58 53
-137.833 -817.989 -2010 54 58 53
-134.275 -821.98 -2020 50 54 49
-130.483 -824.752 -2027 46 50 45
-126.912 -829.154 -2038 45 49 44
-123.115 -832.337 -2046 43 48 42
-119.343 -835.928 -2055 39 46 38
-115.367 -838.301 -2061 43 47 42
-111.583 -842.304 -2071 44 48 44
-107.809 -846.714 -2082 49 53 50
-103.94 -850.72 -2092 61 63 64
-293.386 -821.566 -1996 64 64 66
-287.961 -818.103 -1988 53 53 55
-283.285 -816.702 -1985 49 53 52
-278.907 -816.127 -1984 49 53 52
-274.535 -815.554 -1983 51 55 54
-270.169 -814.984 -1982 50 54 53
-265.677 -814.005 -1980 51 55 54
-261.327 -813.44 -1979 51 55 54
-256.854 -812.468 -1977 50 54 53
-252.775 -812.73 -1978 48 52 51
-248.318 -811.762 -1976 47 51 50
-244.118 -811.619 -1976 49 53 52
-239.677 -810.657 -1974 51 55 54
-235.486 -810.518 -1974 53 57 56
-231.062 -809.562 -1972 53 57 54
-226.649 -808.608 -1970 52 56 53
-222.473 -808.477 -1970 52 56 53
-218.187 -807.939 -1969 52 56 53
-213.799 -806.992 -1967 50 54 51
-209.635 -806.87 -1967 51 55 52
-205.682 -807.569 -1969 52 56 53
-201.517 -807.451 -1969 50 54 51
-197.253 -806.926 -1968 49 53 50
-193.389 -808.042 -1971 50 54 51
-189.321 -808.341 -1972 49 54 50
-185.345 -809.052 -1974 41 48 44
-181.545 -810.585 -1978 43 50 46
-177.641 -811.71 -1981 46 53 49
-173.375 -811.199 -1980 45 52 48
-169.456 -812.329 -1983 44 51 47
-165.527 -813.46 -1986 44 51 47
-161.424 -813.775 -1987 44 51 47
-157.397 -814.502 -1989 48 53 48
-153.287 -814.822 -1990 51 55 50
-149.473 -816.781 -1995 51 55 50
-145.494 -817.924 -1998 50 54 49
-141.786 -820.706 -2005 53 57 52
-137.913 -822.672 -2010 55 59 54
-134.286 -826.277 -2019 52 56 51
-130.429 -828.656 -2025 49 53 48
-126.86 -833.082 -2036 46 50 45
-123.246 -837.511 -2047 42 48 42
-119.412 -840.714 -2055 41 48 41
-115.658 -844.737 -2065 43 47 42
-111.809 -848.353 -2074 44 48 44
-107.871 -851.561 -2082 47 51 48
-103.95 -855.181 -2091 58 60 60
-100.85 -866.164 -2118 67 69 69
-293.264 -825.428 -1994 66 66 68
-287.405 -820.705 -1983 56 56 58
-283.023 -820.123 -1982 49 53 52
-278.789 -819.958 -1982 49 53 52
-274.141 -818.555 -1979 49 53 52
-269.782 -817.981 -1978 50 54 53
-265.429 -817.411 -1977 52 56 55
-261.083 -816.843 -1976 52 56 55
-256.224 -814.624 -1971 50 54 53
-252.411 -815.715 -1974 49 53 52
-248.085 -815.155 -1973 49 53 52
-243.766 -814.598 -1972 51 55 54
-239.574 -814.457 -1972 51 55 54
-235.265 -813.905 -1971 53 57 56
-230.963 -813.355 -1970 53 57 54
-226.781 -813.221 -1970 52 56 53
-222.602 -813.09 -1970 51 55 52
-218.315 -812.548 -1969 50 54 51
-214.142 -812.422 -1969 52 56 53
-209.757 -811.473 -1967 50 54 51
-205.906 -812.589 -1970 49 53 50
-201.532 -811.645 -1968 51 55 52
-197.569 -812.353 -1970 49 53 50
-193.403 -812.239 -1970 50 54 51
-189.527 -813.364 -1973 49 53 50
-185.546 -814.079 -1975 41 48 44
-181.651 -815.209 -1978 43 50 46
-177.834 -816.752 -1982 48 55 51
-173.563 -816.238 -1981 47 54 50
-169.64 -817.374 -1984 46 53 49
-165.54 -817.688 -1985 44 51 47
-161.518 -818.417 -1987 44 51 47
-157.489 -819.147 -1989 46 51 46
-153.53 -820.292 -1992 48 52 47
-149.709 -822.263 -1997 49 53 48
-145.578 -822.589 -1998 48 52 47
-141.727 -824.563 -2003 52 56 51
-137.924 -826.952 -2009 56 60 55
-134.164 -829.754 -2016 52 56 51
-130.312 -832.146 -2022 51 55 50
-126.56 -835.364 -2030 48 52 47
-122.956 -839.818 -2041 43 49 43
-119.132 -843.039 -2049 41 48 42
-115.333 -846.674 -2058 43 47 42
-111.604 -851.133 -2069 44 48 44
-107.83 -855.594 -2080 46 50 47
-103.862 -858.824 -2088 55 59 58
-100.813 -870.28 -2116 66 69 69
-293.732 -830.954 -1996 67 67 69
-287.719 -825.787 -1984 56 56 58
-283.333 -825.202 -1983 50 54 53
-279.375 -825.868 -1985 50 54 53
-274.719 -824.456 -1982 50 54 53
-270.214 -823.463 -1980 51 55 54
-265.854 -822.889 -1979 50 54 53
-261.369 -821.902 -1977 51 55 54
-256.635 -820.086 -1973 51 55 54
-252.688 -820.768 -1975 50 54 53
-248.483 -820.62 -1975 49 53 52
-244.28 -820.474 -1975 51 55 54
-239.836 -819.501 -1973 51 55 54
-235.642 -819.361 -1973 52 56 55
-231.098 -817.978 -1970 51 55 52
-226.799 -817.428 -1969 50 54 51
-222.507 -816.881 -1968 51 55 52
-218.553 -817.581 -1970 49 53 50
-214.267 -817.039 -1969 51 55 52
-209.987 -816.499 -1968 50 54 51
-206.131 -817.621 -1971 49 53 50
-201.855 -817.086 -1970 49 53 50
-197.685 -816.969 -1970 49 53 50
-193.615 -817.269 -1971 50 54 51
-189.734 -818.4 -1974 49 54 51
-185.843 -819.534 -1977 42 49 45
-181.849 -820.255 -1979 43 50 46
-178.117 -822.221 -1984 47 54 50
-174.015 -822.532 -1985 46 53 49
-169.996 -823.26 -1987 47 54 50
-165.97 -823.991 -1989 45 52 48
-161.938 -824.723 -1991 43 51 47
-157.898 -825.457 -1993 45 51 46
-153.851 -826.194 -1995 46 50 45
-149.872 -827.348 -1998 48 52 47
-145.59 -826.847 -1997 49 53 48
-141.597 -828.005 -2000 54 58 53
-137.799 -830.407 -2006 57 61 56
-134.109 -833.639 -2014 54 58 53
-130.259 -836.045 -2020 50 54 49
-126.571 -839.695 -2029 46 50 45
-123.088 -845.002 -2042 44 49 43
-119.376 -849.069 -2052 42 49 43
-115.512 -852.31 -2060 43 47 42
-111.777 -856.794 -2071 44 48 43
-107.893 -860.454 -2080 45 49 46
-104.021 -864.528 -2090 54 58 57
-100.586 -872.741 -2110 66 69 68
-292.875 -832.73 -1989 68 68 70
-287.745 -830.046 -1983 55 55 57
-283.501 -829.875 -1983 48 52 51
-278.837 -828.453 -1980 48 52 51
-274.049 -826.615 -1976 49 53 52
-270.237 -827.708 -1979 49 53 52
-265.205 -825.04 -1973 49 53 52
-261.127 -825.302 -1974 50 54 53
-256.266 -823.058 -1969 50 54 53
-252.325 -823.743 -1971 49 53 52
-248.126 -823.594 -1971 50 54 53
-244.177 -824.284 -1973 53 57 56
-239.613 -822.888 -1970 50 54 53
-235.901 -824.417 -1974 49 53 52
-231.469 -823.444 -1972 49 53 50
-227.049 -822.473 -1970 49 53 50
-223.091 -823.175 -1972 47 51 48
-219.126 -823.878 -1974 48 52 49
-214.938 -823.75 -1974 49 53 50
-210.431 -822.372 -1971 50 54 51
-206.462 -823.083 -1973 48 52 49
-201.974 -821.711 -1970 47 51 48
-197.902 -822.01 -1971 49 53 50
-193.63 -821.478 -1970 49 53 50
-189.942 -823.449 -1975 51 55 52
-185.67 -822.921 -1974 43 50 46
-181.956 -824.897 -1979 44 51 47
-177.863 -825.207 -1980 47 54 50
-173.767 -825.52 -1981 46 53 49
-169.839 -826.669 -1984 46 53 49
-165.901 -827.82 -1987 45 52 48
-162.033 -829.389 -1991 43 51 47
-158.149 -830.961 -1995 46 52 47
-154.25 -832.535 -1999 46 51 46
-150.185 -833.278 -2001 48 52 47
-145.894 -832.775 -2000 50 54 49
-141.893 -833.939 -2003 51 55 50
-138.017 -835.938 -2008 55 59 54
-134.121 -837.939 -2013 56 60 55
-130.206 -839.943 -2018 51 55 50
-126.583 -844.029 -2028 47 51 46
-122.979 -848.534 -2039 46 51 45
-119.155 -851.792 -2047 42 49 42
-115.187 -854.219 -2053 43 47 42
-111.41 -858.313 -2063 43 47 43
-107.489 -861.577 -2071 45 49 46
-103.784 -866.923 -2084 56 60 59
-100.502 -876.43 -2107 69 72 71
-293.934 -839.954 -1995 68 68 70
-288.207 -835.57 -1985 54 55 57
-283.956 -835.399 -1985 49 53 52
-279.707 -835.231 -1985 48 52 52
-275.045 -833.802 -1982 49 53 52
-270.672 -833.219 -1981 48 52 52
-265.901 -831.376 -1977 48 52 51
-261.415 -830.377 -1975 50 54 53
-256.679 -828.541 -1971 50 54 53
-252.347 -827.969 -1970 50 54 52
-248.022 -827.399 -1969 49 53 52
-244.322 -828.933 -1973 51 55 54
-239.999 -828.368 -1972 50 54 53
-236.041 -829.067 -1974 49 53 52
-231.724 -828.507 -1973 49 53 50
-227.76 -829.21 -1975 49 53 50
-223.676 -829.495 -1976 49 53 50
-219.59 -829.783 -1977 49 53 50
-215.392 -829.654 -1977 49 53 50
-210.983 -828.687 -1975 50 54 51
-206.794 -828.563 -1975 49 53 50
-202.299 -827.183 -1972 48 52 49
-198.32 -827.903 -1974 49 53 49
-193.745 -826.109 -1970 48 52 50
-189.959 -827.672 -1974 49 54 51
-185.686 -827.141 -1973 44 50 47
-182.064 -829.547 -1979 44 51 47
-177.698 -828.602 -1977 48 55 51
-173.782 -829.755 -1980 46 54 50
-169.683 -830.072 -1981 45 52 49
-165.749 -831.229 -1984 44 52 48
-162.291 -834.902 -1993 42 50 46
-158.243 -835.645 -1995 44 51 46
-154.496 -838.065 -2001 46 52 46
-150.349 -838.394 -2002 49 53 48
-146.127 -838.306 -2002 50 54 49
-142.047 -839.058 -2004 50 54 49
-138.167 -841.068 -2009 53 57 52
-134.201 -842.662 -2013 56 60 55
-130.477 -845.932 -2021 52 56 51
-126.72 -849.205 -2029 48 53 48
-122.871 -852.06 -2036 47 53 47
-118.993 -854.918 -2043 42 49 42
-115.086 -857.778 -2050 42 46 41
-111.26 -861.477 -2059 41 46 42
-107.293 -864.34 -2066 45 49 46
-103.745 -870.972 -2082 58 61 60
-100.275 -878.859 -2101 69 72 71
-294.7 -846.369 -1999 65 67 70
-288.525 -840.69 -1986 52 55 57
-283.84 -839.248 -1983 49 53 54
-279.593 -839.078 -1983 48 52 52
-274.794 -837.219 -1979 49 53 52
-270.287 -836.209 -1977 48 52 53
-266.195 -836.471 -1978 48 52 52
-261.704 -835.466 -1976 49 53 52
-256.833 -833.196 -1971 50 54 51
-252.627 -833.044 -1971 52 56 53
-248.17 -832.048 -1969 51 55 52
-243.973 -831.9 -1969 50 54 51
-239.899 -832.177 -1970 50 54 51
-235.704 -832.035 -1970 50 54 51
-231.863 -833.161 -1973 50 54 51
-227.665 -833.024 -1973 51 55 52
-223.696 -833.733 -1975 51 55 52
-219.388 -833.178 -1974 49 53 50
-215.848 -835.58 -1980 48 52 49
-211.323 -834.186 -1977 50 54 53
-207.127 -834.06 -1977 52 56 53
-202.317 -831.407 -1971 51 55 52
-198.338 -832.131 -1973 49 53 48
-193.861 -830.748 -1970 48 53 51
-190.168 -832.742 -1975 46 52 51
-185.891 -832.208 -1974 42 48 47
-181.896 -832.941 -1976 43 50 47
-177.534 -831.99 -1974 49 56 52
-173.71 -833.571 -1978 47 55 51
-169.613 -833.89 -1979 45 53 50
-166.182 -837.582 -1988 43 51 49
-161.981 -837.484 -1988 44 51 45
-158.495 -841.18 -1997 45 51 45
-154.356 -841.507 -1998 46 50 45
-150.288 -842.259 -2000 47 51 46
-146.068 -842.17 -2000 48 52 47
-142.061 -843.348 -2003 48 52 47
-138.043 -844.527 -2006 50 54 49
-134.08 -846.13 -2010 54 58 53
-130.296 -848.998 -2017 54 58 53
-126.421 -851.447 -2023 49 56 52
-122.521 -853.898 -2029 47 54 50
-118.714 -857.192 -2037 44 52 46
-114.93 -860.91 -2046 41 48 42
-111.11 -864.63 -2055 40 46 41
-107.356 -869.193 -2066 43 47 44
-103.857 -876.282 -2083 52 54 54
-100.477 -885.055 -2104 62 64 64
-295.469 -852.811 -2003 67 68 71
-288.845 -845.822 -1987 52 54 56
-284.441 -845.223 -1986 48 52 53
-279.621 -843.35 -1982 46 50 51
-275.098 -842.331 -1980 47 51 50
-270.997 -842.591 -1981 51 55 55
-266.76 -842.429 -1981 50 54 54
-261.994 -840.568 -1977 48 52 51
-257.509 -839.56 -1975 50 54 51
-253.035 -838.556 -1973 51 55 52
-248.572 -837.555 -1971 49 53 50
-244.244 -836.981 -1970 49 53 50
-240.043 -836.835 -1970 50 54 51
-235.965 -837.116 -1971 50 54 51
-232.12 -838.249 -1974 49 53 50
-227.571 -836.836 -1971 50 54 51
-223.718 -837.974 -1974 49 53 50
-219.631 -838.264 -1975 49 53 50
-215.65 -838.982 -1977 49 53 51
-211.022 -837.156 -1973 51 55 54
-206.832 -837.03 -1973 52 56 53
-202.335 -835.635 -1970 51 55 52
-198.256 -835.938 -1971 49 53 48
-193.78 -834.548 -1968 47 53 49
-190.186 -836.977 -1974 46 53 50
-185.908 -836.44 -1973 44 50 47
-182.097 -838.024 -1977 43 50 46
-177.731 -837.068 -1975 45 52 48
-173.902 -838.658 -1979 45 53 49
-169.8 -838.979 -1980 45 53 49
-166.03 -840.996 -1985 45 53 49
-162.241 -843.016 -1990 46 53 47
-158.352 -844.614 -1994 46 52 46
-154.371 -845.791 -1997 45 49 44
-150.153 -845.699 -1997 45 49 46
-145.936 -845.61 -1997 47 51 47
-141.72 -845.524 -1997 47 51 46
-137.85 -847.557 -2002 48 52 47
-134.027 -850.016 -2008 53 57 52
-130.245 -852.899 -2015 55 59 54
-126.371 -855.362 -2021 51 58 54
-122.594 -858.673 -2029 48 55 51
-118.726 -861.563 -2036 46 54 48
-114.886 -864.878 -2044 44 51 45
-111.068 -868.619 -2053 42 49 43
-107.264 -872.784 -2063 44 48 45
-103.619 -878.644 -2077 50 52 52
-100.155 -886.62 -2096 61 63 63
-296.681 -860.565 -2010 69 70 73
-290.184 -853.964 -1995 54 56 58
-284.901 -850.793 -1988 48 52 53
-280.073 -848.909 -1984 47 51 52
-275.544 -847.885 -1982 48 52 51
-271.025 -846.863 -1980 52 56 56
-266.787 -846.699 -1980 51 55 54
-262.419 -846.11 -1979 48 52 51
-257.666 -844.242 -1975 49 53 50
-253.189 -843.232 -1973 49 53 50
-248.597 -841.797 -1970 47 51 48
-244.391 -841.648 -1970 48 52 49
-239.945 -840.646 -1968 49 53 50
-235.988 -841.356 -1970 50 54 51
-232.26 -842.922 -1974 49 53 50
-227.478 -840.647 -1969 49 53 50
-223.626 -841.791 -1972 49 53 50
-219.763 -842.937 -1975 49 53 50
-215.453 -842.379 -1974 50 54 51
-210.935 -840.969 -1971 51 55 54
-206.642 -840.416 -1970 51 55 53
-202.149 -839.013 -1967 51 55 52
-198.174 -839.744 -1969 50 54 49
-193.996 -839.626 -1969 47 53 48
-190.108 -840.789 -1972 46 53 49
-185.926 -840.675 -1972 43 50 46
-182.023 -841.843 -1975 42 49 45
-177.838 -841.733 -1975 44 51 47
-174.007 -843.332 -1979 44 52 48
-170.074 -844.506 -1982 43 51 47
-166.214 -846.109 -1986 43 51 47
-162.502 -848.565 -1992 44 51 45
-158.606 -850.172 -1996 46 52 46
-154.619 -851.356 -1999 46 50 45
-150.544 -852.115 -2001 45 49 46
-146.389 -852.451 -2002 45 49 45
-142.303 -853.216 -2004 46 50 45
-138.14 -853.557 -2005 48 52 47
-134.174 -855.177 -2009 53 57 52
-130.323 -857.651 -2015 55 59 54
-126.322 -859.277 -2019 52 59 55
-122.487 -862.18 -2026 50 57 53
-118.448 -863.81 -2030 47 55 49
-114.618 -867.144 -2038 46 53 47
-110.918 -871.756 -2049 44 51 45
-107.173 -876.37 -2060 44 48 45
-103.582 -882.688 -2075 51 53 53
-100.311 -892.41 -2098 65 67 67
-297.454 -867.069 -2014 72 72 74
-291.089 -860.862 -2000 56 58 60
-285.648 -857.242 -1992 48 51 52
-280.527 -854.487 -1986 47 51 51
-275.712 -852.596 -1982 48 52 51
-271.054 -851.138 -1979 50 54 53
-266.545 -850.113 -1977 50 54 53
-262.313 -849.951 -1977 49 53 52
-257.692 -848.502 -1974 49 53 50
-253.086 -847.057 -1971 48 52 49
-248.874 -846.903 -1971 49 53 50
-244.416 -845.893 -1969 50 54 51
-240.213 -845.745 -1969 50 54 51
-236.132 -846.029 -1970 50 54 51
-232.049 -846.316 -1971 50 54 51
-227.848 -846.175 -1971 49 53 50
-223.762 -846.467 -1972 48 52 49
-219.452 -845.902 -1971 49 53 50
-215.366 -846.199 -1972 50 54 51
-210.85 -844.781 -1969 53 57 55
-206.558 -844.225 -1968 52 56 53
-202.169 -843.243 -1966 51 55 52
-198.194 -843.978 -1968 50 54 49
-194.015 -843.859 -1968 47 52 48
-190.03 -844.6 -1970 46 52 49
-186.133 -845.771 -1973 42 49 45
-182.225 -846.945 -1976 41 48 44
-178.216 -847.693 -1978 42 49 45
-174.288 -848.871 -1981 43 50 46
-170.606 -851.337 -1987 44 51 47
-166.398 -851.234 -1987 41 49 45
-162.437 -852.42 -1990 42 49 43
-158.623 -854.464 -1995 44 50 44
-154.557 -855.225 -1997 45 49 44
-150.409 -855.561 -1998 44 48 44
-146.405 -856.755 -2001 45 49 45
-142.389 -857.952 -2004 48 51 46
-138.43 -859.579 -2008 49 53 48
-134.256 -859.924 -2009 51 55 50
-130.531 -863.268 -2017 52 56 51
-126.586 -865.33 -2022 51 58 54
-122.742 -868.25 -2029 51 59 54
-118.87 -871.172 -2036 49 57 51
-115.081 -874.952 -2045 49 55 50
-111.364 -879.589 -2056 48 53 48
-107.602 -884.228 -2067 45 49 46
-103.844 -889.298 -2079 53 55 55
-296.75 -869.273 -2008 72 72 74
-290.395 -863.031 -1994 57 59 61
-284.963 -859.392 -1986 46 48 48
-280.275 -857.919 -1983 45 47 47
-275.185 -855.153 -1977 47 51 50
-271.083 -855.417 -1978 48 52 51
-266.439 -853.954 -1975 48 52 51
-262.076 -853.359 -1974 50 54 53
-257.458 -851.902 -1971 49 53 50
-253.37 -852.177 -1972 50 54 51
-248.774 -850.726 -1969 49 53 50
-244.566 -850.575 -1969 50 54 51
-240.238 -849.993 -1968 51 55 52
-236.157 -850.279 -1969 50 54 51
-231.955 -850.135 -1969 49 53 50
-227.756 -849.994 -1969 50 54 51
-223.559 -849.855 -1969 51 55 52
-219.252 -849.288 -1968 49 53 50
-215.061 -849.155 -1968 50 54 51
-210.657 -848.161 -1966 52 56 53
-206.369 -847.602 -1965 52 56 52
-202.19 -847.477 -1965 52 56 51
-198.315 -848.648 -1968 51 55 50
-194.133 -848.527 -1968 49 53 49
-190.146 -849.272 -1970 47 51 48
-186.153 -850.019 -1972 42 49 45
-182.244 -851.199 -1975 41 48 44
-178.415 -852.813 -1979 42 49 45
-174.394 -853.566 -1981 41 48 44
-170.71 -856.046 -1987 42 49 45
-166.751 -857.235 -1990 39 46 42
-162.699 -857.996 -1992 39 46 40
-158.879 -860.051 -1997 42 48 43
-155.039 -862.108 -2002 45 49 44
-151.028 -863.306 -2005 46 50 45
-147.006 -864.507 -2008 47 51 46
-142.689 -863.988 -2007 50 53 48
-138.584 -864.763 -2009 49 52 47
-134.538 -865.971 -2012 49 53 48
-130.675 -868.472 -2018 51 55 50
-126.601 -869.685 -2021 51 57 53
-122.756 -872.621 -2028 53 60 55
-118.884 -875.559 -2035 53 61 55
-115.095 -879.36 -2044 54 59 53
-111.27 -883.162 -2053 53 57 52
-107.563 -888.257 -2065 49 53 50
-103.707 -892.494 -2075 56 58 58
-296.934 -874.067 -2008 73 74 76
-290.72 -868.227 -1995 57 59 61
-285.714 -865.872 -1990 46 48 49
-280.449 -862.651 -1983 45 47 47
-275.634 -860.739 -1979 49 53 52
-270.976 -859.265 -1976 50 54 53
-266.469 -858.228 -1974 47 51 50
-261.972 -857.195 -1972 48 52 51
-257.748 -857.034 -1972 49 53 51
-253.398 -856.442 -1971 48 52 49
-248.928 -855.417 -1969 48 52 49
-244.966 -856.133 -1971 49 53 50
-240.753 -855.983 -1971 48 52 49
-236.422 -855.401 -1970 48 52 49
-232.334 -855.69 -1971 49 53 50
-228.012 -855.114 -1970 49 53 50
-223.696 -854.541 -1969 48 52 49
-219.498 -854.404 -1969 48 52 49
-215.193 -853.835 -1968 50 54 51
-210.894 -853.27 -1967 51 55 52
-206.916 -854.009 -1969 51 55 51
-202.623 -853.449 -1968 50 54 49
-198.437 -853.325 -1968 50 54 49
-194.45 -854.071 -1970 50 54 49
-190.263 -853.953 -1970 48 52 49
-186.172 -854.27 -1971 45 52 48
-182.541 -856.757 -1977 43 50 46
-178.525 -857.512 -1979 42 49 45
-174.59 -858.703 -1982 43 50 46
-170.557 -859.464 -1984 42 49 45
-166.854 -861.959 -1990 39 46 42
-162.881 -863.157 -1993 39 46 40
-159.056 -865.223 -1998 41 47 42
-155.211 -867.291 -2003 45 49 44
-150.97 -867.197 -2003 47 51 46
-147.023 -868.837 -2007 48 52 47
-142.847 -869.181 -2008 49 52 47
-138.806 -870.393 -2011 46 50 45
-134.62 -870.742 -2012 48 52 47
-130.755 -873.257 -2018 49 53 48
-126.866 -875.774 -2024 47 54 50
-123.074 -879.159 -2032 50 57 52
-119.073 -881.248 -2037 52 60 54
-115.278 -885.069 -2046 55 60 55
-111.338 -888.028 -2053 54 58 54
-107.525 -892.286 -2063 51 55 52
-103.771 -897.411 -2075 57 59 58
-297.267 -879.309 -2009 70 71 73
-291.484 -874.749 -1999 55 57 59
-285.892 -870.631 -1990 49 51 51
-280.906 -868.266 -1985 48 50 50
-276.084 -866.343 -1981 49 53 52
-271.282 -864.423 -1977 48 52 51
-266.499 -862.507 -1973 48 52 51
-262.268 -862.342 -1973 47 51 50
-257.908 -861.743 -1972 47 51 49
-253.427 -860.71 -1970 47 51 49
-249.209 -860.553 -1970 48 52 49
-245.242 -861.273 -1972 49 53 50
-240.78 -860.249 -1970 47 51 48
-236.809 -860.973 -1972 47 51 48
-232.596 -860.827 -1972 51 55 52
-228.269 -860.247 -1971 52 56 53
-223.948 -859.671 -1970 52 56 53
-219.523 -858.66 -1968 51 55 52
-215.326 -858.525 -1968 51 55 52
-211.132 -858.393 -1968 51 55 52
-207.044 -858.699 -1969 50 54 50
-202.955 -859.008 -1970 50 54 49
-198.862 -859.319 -1971 49 53 48
-194.867 -860.069 -1973 47 51 47
-190.767 -860.386 -1974 47 51 47
-186.666 -860.704 -1975 44 51 47
-182.654 -861.461 -1977 43 50 46
-178.454 -861.35 -1977 43 50 46
-174.697 -863.418 -1982 45 52 48
-170.835 -865.054 -1986 45 52 47
-166.873 -866.256 -1989 42 49 43
-162.818 -867.025 -1991 41 48 42
-159.074 -869.538 -1997 42 49 43
-155.385 -872.489 -2004 46 50 45
-151.289 -873.264 -2006 48 52 47
-147.26 -874.478 -2009 48 52 47
-143.078 -874.824 -2010 47 50 45
-139.099 -876.477 -2014 46 50 45
-134.77 -875.957 -2013 46 50 46
-130.771 -877.616 -2017 48 52 48
-126.944 -880.582 -2024 49 53 49
-123.149 -883.985 -2032 53 58 53
-119.088 -885.65 -2036 54 61 55
-115.236 -889.058 -2044 54 59 54
-111.243 -891.597 -2050 54 58 53
-107.382 -895.444 -2059 54 58 55
-296.713 -881.924 -2004 71 71 73
-290.646 -876.459 -1992 58 60 62
-285.496 -873.638 -1986 50 52 52
-280.516 -871.261 -1981 48 50 50
-275.699 -869.328 -1977 46 50 49
-271.04 -867.837 -1974 47 51 50
-266.666 -867.229 -1973 48 52 51
-262.166 -866.184 -1971 47 51 50
-257.939 -866.021 -1971 46 50 49
-253.585 -865.421 -1970 46 50 49
-249.238 -864.825 -1969 47 51 48
-245.146 -865.109 -1970 49 53 50
-241.419 -866.714 -1974 48 52 49
-237.077 -866.125 -1973 48 52 49
-232.741 -865.539 -1972 50 54 51
-228.295 -864.517 -1970 52 56 53
-223.974 -863.937 -1969 52 56 53
-219.659 -863.359 -1968 52 56 53
-215.46 -863.223 -1968 50 54 51
-211.478 -863.967 -1970 50 54 51
-207.489 -864.713 -1972 50 54 50
-203.184 -864.147 -1971 51 55 49
-199.188 -864.898 -1973 49 53 48
-194.988 -864.775 -1973 47 51 46
-190.886 -865.093 -1974 46 50 45
-186.687 -864.975 -1974 42 49 45
-182.86 -866.613 -1978 42 49 45
-178.746 -866.938 -1979 45 52 48
-174.718 -867.704 -1981 47 54 49
-170.769 -868.91 -1984 48 55 50
-166.892 -870.557 -1988 49 54 49
-162.837 -871.33 -1990 45 52 46
-159.093 -873.857 -1996 44 50 45
-155.093 -875.073 -1999 45 49 45
-151.081 -876.29 -2002 47 50 45
-147.058 -877.511 -2005 47 50 45
-143.024 -878.733 -2008 48 51 46
-138.909 -879.521 -2010 46 50 45
-134.72 -879.873 -2011 46 50 46
-130.917 -882.853 -2018 48 52 49
-127.023 -885.398 -2024 51 55 50
-122.983 -887.07 -2028 54 58 53
-119.103 -890.057 -2035 54 61 55
-115.195 -893.045 -2042 54 59 53
-111.258 -896.036 -2049 53 57 52
-107.24 -898.592 -2055 53 57 54
-297.937 -889.834 -2011 72 72 74
-290.537 -880.356 -1990 59 61 63
-285.388 -877.52 -1984 48 50 51
-280.409 -875.13 -1979 48 50 50
-276.012 -874.512 -1978 46 50 49
-271.622 -873.898 -1977 47 51 50
-267.375 -873.728 -1977 47 51 50
-262.597 -871.793 -1973 47 51 50
-258.494 -872.07 -1974 48 52 51
-253.873 -870.584 -1971 46 50 49
-249.648 -870.425 -1971 48 52 49
-245.549 -870.711 -1972 49 53 50
-241.326 -870.558 -1972 49 53 50
-237.105 -870.407 -1972 50 54 51
-232.533 -868.935 -1969 49 53 50
-228.207 -868.349 -1968 49 53 50
-223.887 -867.766 -1967 49 53 50
-219.685 -867.626 -1967 49 53 50
-215.595 -867.93 -1968 50 54 51
-211.718 -869.119 -1971 49 53 50
-207.829 -870.31 -1974 49 53 49
-203.311 -868.858 -1971 51 55 48
-199.414 -870.054 -1974 50 54 49
-195.209 -869.931 -1974 48 52 47
-191.005 -869.809 -1974 48 52 47
-186.709 -869.25 -1973 43 50 46
-182.696 -870.015 -1975 42 49 45
-178.677 -870.783 -1977 45 52 48
-174.65 -871.553 -1979 48 55 49
-170.789 -873.207 -1983 48 54 49
-166.997 -875.302 -1988 50 54 49
-162.775 -875.199 -1988 47 54 48
-158.953 -877.299 -1993 45 52 46
-155.035 -878.962 -1997 46 50 47
-150.949 -879.746 -1999 48 51 46
-146.93 -880.973 -2002 48 51 45
-143.042 -883.083 -2007 49 51 46
-139.065 -884.754 -2011 47 51 46
-134.804 -884.669 -2011 46 50 45
-130.999 -887.665 -2018 46 50 47
-127.039 -889.783 -2023 47 51 46
-122.999 -891.464 -2027 49 54 48
-119.119 -894.467 -2034 49 56 50
-115.267 -897.912 -2042 52 57 51
-111.11 -899.16 -2045 53 57 52
-107.203 -902.61 -2053 54 58 55
-291.159 -886.477 -1993 60 60 62
-285.713 -882.736 -1985 51 51 52
-280.587 -879.888 -1979 51 51 51
-276.327 -879.711 -1979 47 51 50
-271.794 -878.648 -1977 47 51 50
-267.408 -878.033 -1976 47 51 50
-263.029 -877.42 -1975 49 53 52
-258.919 -877.699 -1976 48 52 51
-253.905 -874.871 -1970 49 53 52
-250.186 -876.488 -1974 49 53 50
-245.953 -876.331 -1974 48 52 49
-241.968 -877.064 -1976 47 51 48
-237.496 -876.024 -1974 47 51 48
-233.034 -874.988 -1972 47 51 48
-228.699 -874.398 -1971 48 52 49
-224.256 -873.368 -1969 48 52 49
-220.047 -873.227 -1969 47 51 48
-216.06 -873.977 -1971 47 51 48
-212.066 -874.728 -1973 49 53 50
-208.066 -875.482 -1975 50 54 49
-203.646 -874.465 -1973 51 55 48
-199.539 -874.781 -1974 51 55 50
-195.332 -874.657 -1974 51 55 50
-191.029 -874.091 -1973 48 52 47
-186.827 -873.972 -1973 45 52 48
-182.904 -875.185 -1976 43 50 46
-178.699 -875.07 -1976 44 51 47
-174.672 -875.845 -1978 48 55 49
-170.724 -877.064 -1981 47 53 48
-166.933 -879.171 -1986 48 52 47
-162.631 -878.624 -1985 46 53 47
-158.814 -880.736 -1990 45 52 46
-154.899 -882.408 -1994 48 52 47
-150.893 -883.639 -1997 49 52 45
-146.729 -883.988 -1998 49 52 45
-142.704 -885.224 -2001 49 50 43
-138.737 -886.905 -2005 45 48 43
-134.62 -887.704 -2007 42 46 42
-130.756 -890.274 -2013 44 48 45
-126.993 -893.731 -2021 44 48 43
-123.137 -896.748 -2028 46 50 45
-119.369 -900.651 -2037 46 53 47
-115.452 -903.672 -2044 51 56 50
-111.343 -905.369 -2048 51 55 50
-107.217 -907.068 -2052 53 57 54
-290.614 -889.044 -1988 62 62 64
-285.175 -885.282 -1980 50 50 51
-280.198 -882.866 -1975 50 50 50
-276.363 -884.029 -1978 51 53 53
-271.967 -883.408 -1977 49 52 51
-267.579 -882.789 -1976 49 52 51
-263.197 -882.172 -1975 49 53 52
-259.215 -882.899 -1977 47 51 50
-254.582 -881.396 -1974 47 51 49
-249.964 -879.895 -1971 48 54 51
-246.234 -881.523 -1975 48 53 50
-242.245 -882.26 -1977 47 50 47
-237.767 -881.214 -1975 44 48 44
-233.064 -879.28 -1971 47 51 47
-228.844 -879.133 -1971 49 53 50
-224.284 -877.651 -1968 47 53 49
-220.075 -877.509 -1968 47 53 50
-216.197 -878.708 -1971 47 53 49
-212.093 -879.018 -1972 50 54 49
-207.776 -878.439 -1971 51 54 50
-203.568 -878.308 -1971 52 55 50
-199.463 -878.626 -1972 51 55 50
-195.356 -878.946 -1973 50 54 49
-191.15 -878.823 -1973 49 53 48
-186.755 -877.812 -1971 46 53 49
-182.649 -878.14 -1972 45 52 48
-178.631 -878.916 -1974 47 55 50
-174.606 -879.695 -1976 50 57 52
-170.573 -880.476 -1978 49 56 52
-166.787 -882.594 -1983 48 54 50
-162.652 -882.935 -1984 45 53 47
-158.834 -885.058 -1989 46 53 47
-154.686 -885.404 -1990 47 54 48
-150.837 -887.532 -1995 50 54 48
-146.748 -888.327 -1997 48 51 46
-142.937 -890.904 -2003 45 49 44
-138.963 -892.594 -2007 44 48 43
-135.108 -895.175 -2013 44 48 43
-131.163 -897.314 -2018 43 47 42
-127.325 -900.345 -2025 44 48 43
-123.336 -902.489 -2030 46 50 45
-119.445 -905.524 -2037 47 54 49
-115.355 -907.228 -2041 48 54 49
-111.195 -908.49 -2044 48 54 48
-106.971 -909.31 -2046 52 56 51
-102.84 -911.021 -2050 58 61 59
-290.069 -891.595 -1983 65 65 67
-285.213 -889.612 -1979 52 52 53
-280.803 -888.98 -1978 50 50 50
-276.68 -889.251 -1979 48 50 50
-272.417 -889.074 -1979 48 50 50
-268.156 -888.901 -1979 50 52 52
-263.765 -888.281 -1978 50 54 52
-259.512 -888.113 -1978 49 53 51
-254.874 -886.601 -1975 48 52 49
-250.505 -885.99 -1974 45 52 48
-246.517 -886.729 -1976 47 52 49
-242.645 -887.918 -1979 48 51 48
-238.16 -886.867 -1977 47 51 46
-233.212 -884.024 -1971 46 50 46
-228.99 -883.876 -1971 48 52 49
-224.769 -883.731 -1971 48 53 50
-220.328 -882.692 -1969 47 53 50
-216.335 -883.449 -1971 46 53 49
-212.228 -883.76 -1972 49 53 48
-207.908 -883.178 -1971 52 55 50
-203.595 -882.598 -1970 53 56 51
-199.186 -881.573 -1968 50 54 49
-195.381 -883.239 -1972 49 53 48
-190.884 -881.772 -1969 49 53 48
-186.874 -882.547 -1971 44 51 46
-182.765 -882.877 -1972 42 49 44
-178.563 -882.761 -1972 49 57 51
-174.54 -883.544 -1974 52 59 54
-170.509 -884.329 -1976 50 57 53
-166.556 -885.564 -1979 48 55 51
-162.427 -885.907 -1980 45 53 47
-158.696 -888.489 -1986 45 53 47
-154.551 -888.837 -1987 47 51 46
-150.63 -890.529 -1991 49 53 48
-146.62 -891.776 -1994 48 52 47
-142.956 -895.261 -2002 45 49 44
-138.774 -895.619 -2003 43 47 42
-134.992 -898.661 -2010 43 47 42
-131.117 -901.259 -2016 41 45 40
-127.531 -906.094 -2027 43 47 42
-123.475 -907.802 -2031 46 50 45
-119.638 -911.301 -2039 47 51 48
-115.598 -913.46 -2044 47 52 47
-111.375 -914.282 -2046 48 53 48
-107.196 -915.553 -2049 52 56 51
-103.207 -918.613 -2056 57 60 58
-290.256 -896.392 -1983 67 67 69
-285.541 -894.85 -1980 52 52 53
-281.126 -894.215 -1979 51 51 51
-276.718 -893.583 -1978 48 50 50
-272.454 -893.405 -1978 49 51 51
-268.465 -894.134 -1980 51 53 53
-263.802 -892.607 -1977 50 54 51
-259.416 -891.987 -1976 49 53 50
-255.167 -891.821 -1976 48 52 49
-251.047 -892.109 -1977 44 51 47
-246.925 -892.4 -1978 45 51 48
-242.555 -891.791 -1977 47 51 48
-237.951 -890.283 -1974 48 52 47
-233.717 -890.131 -1974 49 53 48
-229.021 -888.178 -1970 49 53 50
-224.8 -888.032 -1970 49 53 50
-220.469 -887.438 -1969 47 52 49
-216.254 -887.298 -1969 46 53 49
-212.364 -888.512 -1972 50 54 49
-207.831 -887.025 -1969 51 55 50
-203.725 -887.343 -1970 52 56 51
-199.313 -886.313 -1968 51 55 50
-195.209 -886.636 -1969 49 53 48
-190.812 -885.612 -1967 48 52 47
-186.709 -885.941 -1968 43 49 43
-182.697 -886.722 -1970 40 47 41
-178.315 -885.706 -1968 46 54 48
-174.386 -886.943 -1971 49 56 51
-170.532 -888.632 -1975 50 57 53
-166.831 -891.224 -1981 47 54 50
-162.613 -891.118 -1981 45 53 48
-158.797 -893.264 -1986 45 52 47
-154.727 -894.063 -1988 48 52 47
-150.953 -896.664 -1994 49 53 48
-146.935 -897.917 -1997 47 51 46
-142.976 -899.623 -2001 45 49 44
-139.001 -901.33 -2005 44 48 43
-135.347 -905.288 -2014 43 47 42
-131.265 -906.552 -2017 41 45 40
-127.613 -910.963 -2027 43 47 42
-123.676 -913.579 -2033 46 50 45
-119.832 -917.096 -2041 46 50 47
-115.728 -918.818 -2045 47 51 46
-111.5 -919.644 -2047 48 52 47
-107.317 -920.921 -2050 49 53 48
-103.172 -922.651 -2054 55 57 56
-291.03 -903.016 -1987 68 68 70
-286.448 -901.919 -1985 52 52 53
-281.735 -900.372 -1982 51 51 51
-277.177 -899.281 -1980 49 51 51
-273.045 -899.557 -1981 49 51 51
-268.503 -898.473 -1979 50 52 52
-263.705 -896.484 -1975 49 53 50
-259.584 -896.768 -1976 49 53 50
-255.332 -896.601 -1976 48 52 49
-251.082 -896.436 -1976 44 51 47
-246.959 -896.729 -1977 44 51 47
-242.958 -897.477 -1979 48 52 49
-237.984 -894.6 -1973 48 52 47
-233.75 -894.447 -1973 49 53 49
-229.518 -894.297 -1973 50 54 51
-225.287 -894.15 -1973 49 53 50
-220.835 -893.099 -1971 47 52 49
-216.613 -892.958 -1971 47 54 50
-212.501 -893.272 -1972 51 56 51
-207.965 -891.777 -1969 50 54 49
-203.856 -892.097 -1970 49 53 48
-199.442 -891.061 -1968 51 55 50
-195.335 -891.386 -1969 50 54 49
-191.129 -891.261 -1969 50 54 49
-186.735 -890.234 -1967 47 53 48
-182.907 -891.925 -1971 44 51 45
-178.702 -891.808 -1971 48 55 49
-174.852 -893.504 -1975 50 57 51
-170.642 -893.392 -1975 51 58 52
-167.023 -896.45 -1982 48 55 51
-162.882 -896.795 -1983 47 54 49
-159.219 -899.857 -1990 47 54 48
-154.827 -898.851 -1988 49 53 48
-151.05 -901.465 -1994 50 54 49
-146.808 -901.37 -1994 48 52 47
-142.996 -903.988 -2000 46 50 45
-138.744 -903.897 -2000 45 49 44
-135.165 -908.328 -2010 43 47 42
-131.219 -910.502 -2015 43 47 42
-127.569 -914.937 -2025 44 48 43
-123.816 -918.922 -2034 44 48 43
-119.85 -921.555 -2040 44 48 45
-115.859 -924.189 -2046 45 50 45
-111.626 -925.019 -2048 48 52 47
-107.281 -924.949 -2048 48 51 46
-103.188 -927.139 -2053 53 56 54
-292.246 -911.039 -1994 70 70 72
-287.357 -909.022 -1990 53 53 54
-282.63 -907.466 -1987 49 49 49
-277.778 -905.456 -1983 48 49 49
-273.361 -904.819 -1982 49 51 51
-268.678 -903.273 -1979 48 50 48
-263.743 -900.816 -1974 47 50 47
-259.622 -901.102 -1975 48 52 49
-255.498 -901.39 -1976 47 51 48
-251.245 -901.225 -1976 46 50 47
-246.745 -900.15 -1974 47 51 48
-242.993 -901.814 -1978 50 53 50
-238.38 -900.29 -1975 50 53 49
-233.783 -898.769 -1972 49 53 49
-229.55 -898.617 -1972 51 55 52
-225.319 -898.469 -1972 48 54 51
-221.315 -899.235 -1974 45 51 47
-216.864 -898.182 -1972 49 53 49
-212.747 -898.497 -1973 52 56 51
-208.311 -897.449 -1971 51 55 50
-204.092 -897.315 -1971 50 54 49
-199.571 -895.818 -1968 50 54 49
-195.362 -895.69 -1968 51 55 50
-191.058 -895.109 -1967 51 55 49
-186.951 -895.441 -1968 50 54 49
-182.933 -896.231 -1970 45 50 45
-178.727 -896.114 -1970 46 53 47
-175.054 -898.728 -1976 49 56 50
-170.839 -898.616 -1976 48 55 50
-167.215 -901.689 -1983 48 55 51
-163.152 -902.491 -1985 49 56 50
-159.562 -906.024 -1993 49 56 50
-155.317 -905.922 -1993 50 54 49
-151.451 -908.095 -1998 51 55 50
-146.977 -906.635 -1995 49 53 48
-143.232 -909.722 -2002 45 49 44
-139.25 -911.447 -2006 45 49 44
-135.32 -913.63 -2011 45 49 44
-131.434 -916.27 -2017 44 48 43
-127.777 -920.728 -2027 44 48 43
-123.713 -922.464 -2031 45 49 44
-119.633 -924.202 -2035 41 48 42
-115.707 -927.304 -2042 45 50 44
-111.48 -928.139 -2044 48 52 47
-107.193 -928.522 -2045 48 51 46
-103.355 -932.994 -2055 54 55 52
-293.171 -918.187 -1999 68 67 69
-288.124 -915.7 -1994 58 57 58
-283.242 -913.675 -1990 50 49 49
-278.241 -911.195 -1985 50 51 51
-273.54 -909.636 -1982 48 50 49
-268.99 -908.54 -1980 46 49 46
-264.184 -906.53 -1976 46 49 46
-259.792 -905.899 -1975 49 52 49
-255.665 -906.188 -1976 48 52 49
-251.537 -906.48 -1977 48 52 49
-246.656 -904.025 -1972 49 52 49
-242.783 -905.239 -1975 52 55 52
-238.174 -903.707 -1972 50 54 50
-233.817 -903.094 -1971 50 54 49
-229.7 -903.4 -1972 50 54 51
-225.238 -902.335 -1970 46 53 49
-221.235 -903.105 -1972 43 50 46
-217.116 -903.419 -1973 47 51 46
-212.886 -903.278 -1973 50 54 49
-208.341 -901.767 -1970 51 55 50
-204.122 -901.632 -1970 50 54 49
-199.803 -901.042 -1969 49 53 47
-195.589 -900.913 -1969 50 54 47
-191.572 -901.702 -1971 50 54 47
-187.167 -900.663 -1969 46 50 45
-183.238 -901.914 -1972 43 47 42
-179.207 -902.711 -1974 47 51 46
-175.257 -903.966 -1977 47 53 47
-171.296 -905.225 -1980 46 53 47
-167.493 -907.4 -1985 46 53 48
-163.423 -908.206 -1987 47 54 49
-159.506 -909.929 -1991 46 53 47
-155.34 -910.283 -1992 49 53 48
-151.322 -911.554 -1995 50 54 49
-146.999 -911 -1994 47 51 46
-142.967 -912.276 -1997 45 49 44
-138.924 -913.555 -2000 46 50 45
-135.071 -916.206 -2006 46 50 45
-131.129 -918.403 -2011 44 48 43
-127.356 -921.972 -2019 43 48 43
-123.489 -925.087 -2026 45 51 46
-119.593 -928.204 -2033 41 48 42
-115.839 -932.692 -2043 41 46 40
-111.771 -934.901 -2048 45 49 44
-107.577 -936.199 -2051 47 50 45
-295.42 -929.525 -2013 69 67 70
-289.615 -924.714 -2003 60 57 60
-283.714 -919.447 -1992 52 49 50
-278.425 -916.03 -1985 48 49 49
-273.858 -914.925 -1983 47 49 49
-268.895 -912.439 -1978 47 50 47
-264.358 -911.34 -1976 46 49 46
-259.963 -910.706 -1975 47 50 47
-255.834 -910.997 -1976 46 50 47
-251.575 -910.829 -1976 48 52 49
-247.194 -910.203 -1975 51 55 52
-242.942 -910.042 -1975 50 53 50
-238.331 -908.501 -1972 50 53 49
-233.852 -907.424 -1970 50 54 49
-229.851 -908.192 -1972 50 54 51
-225.729 -908.502 -1973 49 54 51
-221.605 -908.816 -1974 48 54 50
-217.589 -909.591 -1976 49 53 48
-213.242 -908.989 -1975 50 54 49
-208.584 -907.01 -1971 51 55 50
-204.463 -907.334 -1972 51 55 50
-199.934 -905.821 -1969 49 53 47
-195.717 -905.69 -1969 49 53 46
-191.6 -906.023 -1970 48 52 45
-187.575 -906.818 -1972 47 51 45
-183.358 -906.697 -1972 44 48 43
-179.506 -908.416 -1976 47 51 46
-175.638 -910.138 -1980 47 53 48
-171.408 -910.024 -1980 48 55 49
-167.687 -912.67 -1986 47 54 48
-163.694 -913.94 -1989 46 53 47
-159.931 -916.591 -1995 46 53 47
-155.519 -915.569 -1993 49 53 48
-151.649 -917.765 -1998 50 54 48
-147.464 -918.126 -1999 50 54 48
-143.347 -918.949 -2001 47 52 47
-139.223 -919.775 -2003 46 51 46
-135.294 -921.981 -2008 47 52 47
-131.345 -924.189 -2013 45 49 44
-127.376 -926.4 -2018 41 46 41
-123.386 -928.613 -2023 43 48 43
-119.495 -931.746 -2030 41 46 41
-115.858 -937.177 -2042 41 45 40
-111.68 -938.479 -2045 43 47 42
-107.595 -940.702 -2050 46 49 43
-103.892 -946.598 -2063 53 54 51
-296.644 -937.691 -2020 71 69 71
-290.241 -930.998 -2006 61 58 61
-284.33 -925.702 -1995 54 51 52
-279.171 -922.731 -1989 51 52 50
-274.593 -921.619 -1987 49 52 49
-269.618 -919.119 -1982 47 50 47
-265.336 -918.941 -1982 48 51 48
-260.662 -917.376 -1979 48 51 48
-256.262 -916.741 -1978 47 51 48
-251.869 -916.108 -1977 47 51 48
-247.358 -915.016 -1975 49 53 50
-242.857 -913.927 -1973 48 52 49
-238.73 -914.23 -1974 50 54 49
-234.245 -913.147 -1972 51 55 50
-230.237 -913.919 -1974 51 55 52
-225.993 -913.768 -1974 51 55 52
-221.864 -914.082 -1975 50 54 51
-217.732 -914.4 -1976 49 53 48
-213.166 -912.869 -1973 50 54 49
-208.721 -911.804 -1971 51 55 50
-204.494 -911.667 -1971 51 55 50
-200.167 -911.071 -1970 51 55 48
-196.045 -911.402 -1971 49 53 46
-191.921 -911.736 -1972 49 53 46
-187.794 -912.073 -1973 47 51 45
-183.851 -913.337 -1976 45 49 44
-179.715 -913.679 -1977 46 50 45
-175.487 -913.562 -1977 46 51 46
-171.781 -916.219 -1983 45 51 46
-167.628 -916.569 -1984 45 52 46
-163.884 -919.232 -1990 46 53 47
-159.876 -920.511 -1993 45 52 46
-155.622 -920.406 -1993 47 51 46
-151.369 -920.305 -1993 50 54 47
-147.413 -922.054 -1997 51 55 48
-143.369 -923.343 -2000 47 54 48
-139.314 -924.634 -2003 46 53 47
-135.315 -926.39 -2007 46 53 47
-131.496 -929.533 -2014 46 50 45
-127.459 -931.294 -2018 43 47 42
-123.284 -932.134 -2020 41 45 40
-119.514 -936.207 -2029 43 47 42
-115.877 -941.666 -2041 43 47 42
-111.644 -942.514 -2043 45 49 44
-107.665 -945.671 -2050 47 50 43
-103.91 -951.137 -2062 52 55 50
