ply
format ascii 1.0
comment Created by Open3D
element vertex 1457
property double x
property double y
property double z
property uchar red
property uchar green
property uchar blue
end_header
-148.863 -25.6873 -2039 44 40 47
-144.584 -25.6471 -2036 44 41 47
-140.595 -25.6573 -2037 46 41 48
-136.267 -25.6043 -2033 38 33 40
-132.606 -25.6777 -2039 33 27 35
-128.734 -25.7133 -2042 31 26 34
-124.973 -25.7741 -2047 34 28 36
-121.075 -25.8098 -2050 35 30 37
-117.165 -25.8456 -2053 36 30 38
-113.025 -25.8311 -2052 37 30 37
-109.049 -25.8544 -2054 38 32 40
-105.065 -25.8778 -2056 42 37 45
-101.124 -25.9138 -2059 44 38 47
-97.077 -25.9247 -2060 43 37 46
-92.9819 -25.9231 -2060 40 35 44
-88.9307 -25.9342 -2061 40 36 45
-84.9585 -25.9705 -2064 41 38 46
-80.9358 -25.9943 -2066 42 39 45
-77.0175 -26.0558 -2071 43 40 46
-72.9743 -26.0798 -2073 43 40 47
-68.9902 -26.1289 -2077 44 42 49
-64.9595 -26.1655 -2080 44 43 50
-60.8297 -26.1644 -2080 44 44 52
-56.8094 -26.2138 -2084 43 43 52
-52.8495 -26.3009 -2091 38 39 48
-48.8389 -26.3755 -2097 34 34 43
-44.7197 -26.3999 -2099 33 33 41
-40.7862 -26.5501 -2111 32 33 41
-36.8746 -26.7507 -2127 34 35 43
-395.289 -31.2814 -2124 35 31 34
-388.904 -31.1117 -2113 36 28 33
-384.387 -31.0893 -2112 33 25 31
-380.057 -31.0815 -2112 29 22 28
-376.798 -31.1623 -2118 26 23 28
-372.815 -31.1844 -2120 27 23 29
-368.826 -31.2064 -2122 26 23 29
-363.973 -31.1551 -2119 27 27 31
-359.814 -31.1626 -2120 28 28 33
-355.152 -31.1261 -2118 30 28 33
-350.997 -31.1338 -2119 27 25 33
-346.187 -31.0828 -2116 26 25 35
-340.583 -30.9585 -2108 25 22 30
-334.856 -30.8196 -2099 24 22 30
-329.483 -30.7102 -2092 27 25 33
-324.608 -30.6452 -2088 29 29 34
-320.212 -30.6241 -2087 27 28 32
-315.823 -30.6031 -2086 29 28 35
-311.142 -30.5528 -2083 32 30 38
-306.18 -30.4736 -2078 34 31 39
-301.242 -30.3942 -2073 33 33 41
-296.469 -30.3295 -2069 35 36 43
-291.15 -30.2066 -2061 34 34 42
-286.841 -30.1862 -2060 30 30 37
-282.401 -30.1514 -2058 25 24 32
-277.836 -30.1018 -2055 23 22 30
-273.551 -30.0819 -2054 21 20 28
-269.404 -30.0764 -2054 20 19 26
-265.518 -30.1006 -2056 18 17 24
-261.117 -30.066 -2054 18 17 24
-257.102 -30.0756 -2055 18 17 24
-252.839 -30.0558 -2054 19 18 25
-248.581 -30.0364 -2053 26 23 32
-244.211 -30.0024 -2051 32 30 37
-240.085 -29.9974 -2051 43 41 46
-235.961 -29.9929 -2051 44 42 37
-232.064 -30.0173 -2053 44 43 35
-227.718 -29.9837 -2051 73 67 54
-223.163 -29.9208 -2047 95 88 72
-219.269 -29.9458 -2049 94 87 69
-214.633 -29.8683 -2044 59 48 27
-209.812 -29.7619 -2037 85 75 55
-206.032 -29.8018 -2040 71 62 46
-202.538 -29.8855 -2046 52 45 36
-160.913 -29.7185 -2037 31 28 35
-157.464 -29.8321 -2045 39 36 43
-153.083 -29.7707 -2041 41 37 44
-149.085 -29.7824 -2042 42 39 46
-144.587 -29.692 -2036 44 41 48
-140.666 -29.7185 -2038 46 43 50
-136.47 -29.6866 -2036 35 31 38
-132.934 -29.8006 -2044 30 25 33
-128.989 -29.827 -2046 31 26 34
-125.097 -29.8683 -2049 33 28 36
-121.018 -29.8659 -2049 35 31 38
-117.168 -29.9219 -2053 38 33 40
-113.082 -29.9197 -2053 44 37 45
-108.998 -29.9175 -2053 47 41 49
-105.067 -29.9591 -2056 47 42 50
-101.076 -29.9863 -2058 47 41 50
-97.0316 -29.9989 -2059 47 41 50
-93.0287 -30.0262 -2061 47 42 52
-88.9323 -30.0245 -2061 48 44 53
-84.8365 -30.0228 -2061 48 45 53
-80.8981 -30.0794 -2065 49 46 53
-76.9817 -30.1507 -2070 50 47 54
-72.9756 -30.193 -2073 48 45 53
-68.9914 -30.2499 -2077 46 44 52
-64.9919 -30.3068 -2081 44 43 50
-60.9185 -30.3347 -2083 40 42 49
-56.8922 -30.3918 -2087 38 40 48
-52.9263 -30.4927 -2094 35 37 46
-48.8864 -30.5645 -2099 35 34 42
-44.8058 -30.6219 -2103 34 33 41
-40.8255 -30.7666 -2113 32 33 40
-391.489 -35.5847 -2127 38 30 36
-386.215 -35.4924 -2122 35 28 34
-382.045 -35.5002 -2123 32 25 31
-378.586 -35.5753 -2128 28 25 30
-374.933 -35.6338 -2132 27 25 30
-371.267 -35.692 -2136 26 25 31
-367.244 -35.7171 -2138 25 26 32
-363.726 -35.7924 -2143 26 27 33
-336.299 -35.1689 -2108 26 25 33
-330.593 -35.0112 -2099 28 25 33
-325.082 -34.8704 -2091 26 26 32
-320.526 -34.8298 -2089 26 28 33
-315.83 -34.7726 -2086 31 30 37
-310.999 -34.6988 -2082 30 29 37
-305.892 -34.5918 -2076 30 29 37
-301.248 -34.5352 -2073 31 30 38
-296.332 -34.4452 -2068 33 32 40
-291.58 -34.3719 -2064 29 28 36
-287.126 -34.3323 -2062 24 23 31
-282.544 -34.2759 -2059 21 20 28
-277.977 -34.2196 -2056 20 19 27
-273.424 -34.1636 -2053 20 19 27
-269.279 -34.1574 -2053 19 18 25
-265.136 -34.1516 -2053 20 19 26
-260.741 -34.1123 -2051 21 20 27
-257.107 -34.1732 -2055 20 19 27
-252.721 -34.1341 -2053 27 26 34
-248.708 -34.1452 -2054 32 29 37
-244.335 -34.1063 -2052 33 31 38
-240.207 -34.101 -2052 27 27 31
-235.966 -34.0792 -2051 22 22 16
-232.069 -34.1071 -2053 42 41 34
-227.834 -34.0854 -2052 81 75 64
-223.604 -34.0636 -2051 118 111 92
-219.594 -34.0754 -2052 94 86 61
-215.057 -34.0042 -2048 77 65 46
-209.92 -33.8335 -2038 98 87 69
-206.137 -33.8785 -2041 82 73 59
-202.641 -33.9736 -2047 47 41 32
-160.443 -33.6678 -2031 17 14 20
-157.236 -33.8466 -2042 27 24 31
-153.386 -33.893 -2045 36 33 40
-149.38 -33.9062 -2046 42 39 46
-144.874 -33.8035 -2040 39 36 43
-141.014 -33.8501 -2043 35 32 39
-136.808 -33.8139 -2041 30 27 34
-133.132 -33.9103 -2047 32 27 35
-129.117 -33.924 -2048 32 27 35
-125.222 -33.9706 -2051 32 27 35
-121.079 -33.9514 -2050 38 34 39
-117.113 -33.9819 -2052 40 36 41
-113.084 -33.9959 -2053 48 41 49
-109 -33.9934 -2053 50 44 52
-105.069 -34.0408 -2056 48 43 51
-101.177 -34.1047 -2060 48 43 52
-96.9865 -34.0694 -2058 50 45 54
-92.8501 -34.0508 -2057 53 48 59
-88.8047 -34.0653 -2058 53 49 58
-84.8383 -34.1131 -2061 53 50 58
-80.8214 -34.1443 -2063 53 50 57
-76.9089 -34.2254 -2068 52 49 56
-72.9419 -34.2899 -2072 49 46 53
-69.0261 -34.3876 -2078 44 42 49
-65.0245 -34.4523 -2082 41 40 47
-60.9783 -34.5006 -2085 37 39 46
-57.0297 -34.6151 -2092 34 36 44
-53.0032 -34.6966 -2097 32 34 41
-49.0504 -34.8444 -2106 32 31 39
-44.9345 -34.893 -2109 32 31 39
-41.0389 -35.1402 -2124 34 33 41
-331.861 -39.3589 -2107 27 24 31
-325.4 -39.0892 -2093 24 23 31
-320.687 -39.025 -2090 26 26 34
-315.837 -38.9423 -2086 30 29 36
-310.857 -38.8411 -2081 26 25 32
-305.605 -38.7027 -2074 27 26 34
-300.965 -38.639 -2071 29 28 36
-296.339 -38.5758 -2068 31 30 38
-291.728 -38.5124 -2065 29 28 36
-286.993 -38.4304 -2061 26 25 33
-282.413 -38.3673 -2058 26 25 33
-278.254 -38.3604 -2058 26 25 33
-273.83 -38.3162 -2056 24 23 31
-269.548 -38.2906 -2055 20 19 27
-265.272 -38.2654 -2054 22 21 28
-260.875 -38.2215 -2052 23 22 29
-256.988 -38.2524 -2054 26 25 34
-252.604 -38.2086 -2052 32 30 39
-248.592 -38.2211 -2053 30 27 33
-244.341 -38.1962 -2052 26 25 30
-240.33 -38.2089 -2053 23 23 27
-235.971 -38.1656 -2051 32 32 28
-232.188 -38.2156 -2054 47 46 41
-227.839 -38.1725 -2052 99 91 76
-223.609 -38.1484 -2051 115 106 87
-219.706 -38.1802 -2053 94 85 62
-215.062 -38.0816 -2048 91 79 57
-210.234 -37.9462 -2041 109 98 77
-206.344 -37.9783 -2043 88 79 62
-202.844 -38.0848 -2049 52 46 37
-164.583 -37.7278 -2032 28 25 30
-160.684 -37.7607 -2034 26 23 30
-157.548 -37.9795 -2046 30 27 34
-153.765 -38.0499 -2050 32 29 36
-149.676 -38.0462 -2050 34 31 38
-145.375 -37.9869 -2047 33 30 37
-141.57 -38.0575 -2051 29 26 33
-137.415 -38.0355 -2050 29 26 33
-133.265 -38.0137 -2049 33 30 37
-129.373 -38.0661 -2052 35 31 38
-125.286 -38.0629 -2052 39 34 42
-121.2 -38.0599 -2052 39 35 40
-117.173 -38.0752 -2053 39 35 40
-113.307 -38.1466 -2057 47 40 48
-109.268 -38.1624 -2058 49 43 51
-105.225 -38.1783 -2059 48 43 51
-101.228 -38.2128 -2061 48 43 52
-97.1773 -38.2289 -2062 51 46 55
-92.9877 -38.1895 -2060 51 46 57
-88.8499 -38.1687 -2059 51 48 57
-84.9226 -38.2407 -2063 52 49 57
-80.9408 -38.2943 -2066 53 50 57
-76.9851 -38.3664 -2070 50 47 54
-73.014 -38.4387 -2074 45 42 49
-69.0277 -38.5111 -2078 39 39 45
-64.9948 -38.565 -2081 36 37 43
-61.0674 -38.6932 -2088 35 37 44
-57.0037 -38.7473 -2091 35 37 44
-53.0803 -38.9128 -2100 33 35 42
-49.005 -38.9856 -2104 34 33 41
-45.0208 -39.1512 -2113 35 34 42
-41.1558 -39.4651 -2130 40 38 46
-327.741 -43.5851 -2108 30 29 36
-321.616 -43.3279 -2096 27 26 34
-316.148 -43.1537 -2088 30 29 36
-310.865 -43.0003 -2081 27 26 34
-305.613 -42.8471 -2074 29 28 36
-301.263 -42.818 -2073 31 30 38
-296.49 -42.727 -2069 30 30 38
-292.019 -42.6775 -2067 28 27 35
-287.14 -42.5664 -2062 28 27 35
-282.832 -42.5378 -2061 29 28 36
-278.261 -42.4681 -2058 29 28 36
-273.704 -42.3984 -2055 28 27 35
-269.555 -42.3911 -2055 26 25 33
-265.02 -42.3217 -2052 27 26 34
-260.5 -42.2525 -2049 27 26 33
-256.495 -42.2661 -2050 27 26 35
-252.241 -42.2383 -2049 27 26 36
-248.357 -42.2727 -2051 29 26 31
-244.109 -42.2452 -2050 24 22 27
-240.219 -42.2796 -2052 25 25 30
-235.862 -42.2319 -2050 27 27 26
-231.968 -42.2667 -2052 63 61 58
-227.845 -42.2602 -2052 122 113 96
-223.615 -42.2335 -2051 112 103 84
-219.712 -42.2684 -2053 108 99 79
-215.488 -42.2419 -2052 99 87 65
-210.857 -42.1332 -2047 108 97 75
-206.248 -42.0243 -2042 88 79 61
-202.948 -42.1834 -2050 59 53 44
-168.148 -41.6489 -2026 36 31 37
-164.749 -41.8088 -2034 29 26 31
-161.004 -41.8865 -2038 26 23 30
-157.783 -42.1082 -2049 28 25 32
-154.069 -42.2065 -2054 29 26 33
-150.118 -42.2434 -2056 29 26 33
-146.018 -42.2394 -2056 29 26 33
-141.918 -42.2355 -2056 27 24 31
-137.754 -42.2111 -2055 26 23 30
-133.724 -42.2279 -2056 30 27 34
-129.502 -42.1833 -2054 34 30 38
-125.472 -42.2003 -2055 36 32 39
-121.322 -42.1764 -2054 34 31 36
-117.404 -42.2347 -2057 37 33 38
-113.476 -42.2929 -2060 41 35 43
-109.43 -42.3104 -2061 41 36 44
-105.535 -42.3896 -2065 40 35 43
-101.427 -42.3868 -2065 40 35 44
-97.2269 -42.343 -2063 41 36 45
-93.1255 -42.3404 -2063 43 38 49
-88.9385 -42.2969 -2061 44 40 50
-84.966 -42.356 -2064 46 43 51
-80.9429 -42.3948 -2066 47 44 51
-76.9871 -42.4747 -2070 44 41 48
-73.0159 -42.5548 -2074 40 37 44
-69.1291 -42.6964 -2081 35 35 42
-65.1526 -42.7972 -2086 32 34 41
-61.1275 -42.8775 -2090 33 35 42
-57.0598 -42.9375 -2093 33 35 42
-53.1322 -43.1206 -2102 31 33 40
-49.146 -43.2833 -2110 32 32 39
-45.235 -43.5487 -2123 33 32 40
-323.467 -47.7912 -2108 30 28 36
-317.066 -47.4641 -2094 29 28 35
-311.621 -47.2732 -2086 29 28 35
-306.211 -47.0825 -2078 30 28 36
-301.127 -46.9373 -2072 29 29 37
-296.213 -46.8149 -2067 27 28 35
-292.027 -46.806 -2067 25 26 33
-287.288 -46.7065 -2063 25 25 33
-282.841 -46.6525 -2061 29 28 36
-278.404 -46.5987 -2059 29 28 36
-274.112 -46.5678 -2058 30 29 37
-269.956 -46.5595 -2058 30 29 37
-265.545 -46.506 -2056 30 29 37
-260.762 -46.3849 -2051 28 27 35
-256.502 -46.3546 -2050 27 27 37
-252.495 -46.3693 -2051 26 26 36
-248.364 -46.3616 -2051 26 25 28
-244.354 -46.3769 -2052 27 26 31
-240.343 -46.392 -2053 29 28 35
-236.099 -46.3623 -2052 43 41 42
-231.975 -46.3551 -2052 92 90 88
-227.852 -46.3482 -2052 113 105 92
-223.404 -46.2735 -2049 111 103 84
-219.504 -46.3121 -2051 106 98 75
-215.389 -46.3053 -2051 104 92 72
-210.966 -46.2312 -2048 100 88 69
-206.658 -46.1798 -2046 85 75 57
-203.251 -46.3315 -2053 59 53 44
-198.266 -46.1224 -2044 42 38 35
-193.508 -45.9586 -2037 38 35 38
-189.988 -46.088 -2043 33 30 33
-186.628 -46.2628 -2051 32 28 33
-182.081 -46.1445 -2046 35 31 36
-177.99 -46.1391 -2046 39 34 39
-173.815 -46.1111 -2045 37 31 39
-169.314 -45.9932 -2040 32 27 34
-165.564 -46.0784 -2044 27 24 29
-161.877 -46.1862 -2049 25 22 28
-158.249 -46.3166 -2055 27 24 31
-154.374 -46.3796 -2058 28 25 32
-150.487 -46.4424 -2061 24 21 28
-146.235 -46.3928 -2059 24 21 28
-142.199 -46.411 -2060 22 19 26
-138.093 -46.4068 -2060 22 19 26
-133.858 -46.3577 -2058 25 22 29
-129.695 -46.3312 -2057 25 22 29
-125.415 -46.2599 -2054 25 22 29
-121.443 -46.3012 -2056 26 23 28
-117.579 -46.3877 -2060 28 25 30
-113.644 -46.4518 -2063 29 23 31
-109.539 -46.4482 -2063 27 22 30
-105.691 -46.5575 -2068 28 23 31
-101.529 -46.5319 -2067 29 24 33
-97.4183 -46.5289 -2067 30 25 34
-93.1733 -46.4585 -2064 31 26 36
-89.2 -46.5233 -2067 33 29 38
-85.0508 -46.4982 -2066 35 32 40
-80.9846 -46.5182 -2067 38 35 42
-77.0637 -46.6284 -2072 38 35 43
-73.0884 -46.7161 -2076 36 33 41
-69.1643 -46.849 -2082 30 31 38
-65.1233 -46.9145 -2085 28 30 37
-61.0708 -46.9801 -2088 31 33 40
-57.1159 -47.1358 -2095 33 35 42
-53.0832 -47.2467 -2100 33 35 42
-49.1474 -47.4701 -2110 34 34 42
-45.279 -47.8062 -2125 36 35 43
-325.626 -52.3525 -2122 34 31 39
-318.288 -51.8482 -2102 28 27 34
-312.378 -51.5665 -2091 28 26 34
-307.105 -51.3836 -2084 29 26 34
-301.282 -51.1023 -2073 26 27 34
-296.365 -50.9692 -2068 24 26 33
-292.178 -50.9594 -2068 24 26 33
-287.297 -50.8266 -2063 24 25 32
-282.987 -50.7925 -2062 27 26 34
-278.413 -50.7093 -2059 29 28 37
-274.253 -50.7001 -2059 31 30 39
-269.702 -50.6172 -2056 31 30 38
-265.166 -50.5344 -2053 29 28 36
-260.516 -50.4274 -2049 27 26 34
-256.635 -50.468 -2051 23 24 33
-252.379 -50.4349 -2050 24 26 34
-248.372 -50.4512 -2051 24 24 27
-244.6 -50.517 -2054 25 25 30
-240.468 -50.5088 -2054 35 34 42
-235.992 -50.4273 -2051 58 55 58
-231.756 -50.3949 -2050 80 77 77
-227.637 -50.3875 -2050 86 80 68
-223.411 -50.3553 -2049 93 87 70
-219.618 -50.4218 -2052 100 93 72
-215.501 -50.4145 -2052 100 89 70
-211.179 -50.3585 -2050 97 86 68
-206.867 -50.3023 -2048 82 72 55
-203.258 -50.4184 -2053 57 50 43
-198.66 -50.2891 -2048 40 36 33
-194.749 -50.3316 -2050 34 31 35
-191.203 -50.4726 -2056 28 25 29
-187.362 -50.5401 -2059 30 26 32
-182.621 -50.362 -2052 34 31 36
-178.866 -50.4543 -2056 34 31 37
-174.756 -50.4485 -2056 31 27 35
-170.648 -50.4429 -2056 28 25 31
-166.622 -50.4617 -2057 23 20 25
-162.91 -50.579 -2062 22 19 25
-158.947 -50.6228 -2064 26 23 30
-155.054 -50.6913 -2067 27 24 31
-150.93 -50.6863 -2067 23 20 27
-146.665 -50.6321 -2065 21 19 26
-142.617 -50.6519 -2066 20 18 25
-138.365 -50.5983 -2064 21 18 25
-134.187 -50.5694 -2063 22 19 26
-129.825 -50.467 -2059 21 18 25
-125.846 -50.5119 -2061 20 17 24
-121.624 -50.4588 -2059 19 16 21
-117.754 -50.5529 -2063 20 17 21
-113.758 -50.5982 -2065 21 17 24
-109.808 -50.668 -2068 22 18 25
-105.643 -50.6398 -2067 23 20 27
-101.581 -50.6609 -2068 25 20 29
-97.4684 -50.6576 -2068 28 23 32
-93.2214 -50.581 -2065 27 22 31
-89.1165 -50.578 -2065 27 23 32
-85.0946 -50.6242 -2067 28 25 33
-81.1046 -50.6949 -2070 30 27 35
-77.1034 -50.7658 -2073 33 30 38
-73.1611 -50.8858 -2078 33 31 39
-69.1997 -51.0059 -2083 30 30 38
-65.0941 -51.0282 -2084 27 29 36
-61.0434 -51.0996 -2087 31 33 40
-57.0904 -51.2691 -2094 32 34 41
-53.1101 -51.4387 -2101 35 37 44
-49.1956 -51.7063 -2112 36 37 44
-45.3656 -52.1209 -2129 35 34 42
-319.207 -56.2116 -2108 29 28 35
-312.986 -55.8534 -2095 27 26 33
-307.116 -55.5491 -2084 29 26 34
-301.583 -55.2984 -2075 25 25 33
-296.805 -55.1811 -2071 23 25 32
-292.047 -55.0637 -2067 24 26 33
-287.585 -55.0001 -2065 25 26 33
-283.134 -54.9366 -2063 26 25 33
-278.558 -54.8466 -2060 27 26 36
-274.396 -54.8367 -2060 28 27 36
-269.843 -54.7471 -2057 28 27 35
-265.433 -54.6845 -2055 28 27 35
-261.034 -54.6218 -2053 27 26 34
-256.894 -54.6125 -2053 23 25 32
-252.511 -54.5501 -2051 23 25 32
-248.501 -54.5677 -2052 25 25 29
-244.49 -54.5856 -2053 25 24 30
-240.359 -54.5769 -2053 29 28 36
-235.885 -54.4885 -2050 42 39 43
-231.764 -54.4803 -2050 53 49 51
-227.645 -54.472 -2050 67 62 51
-223.309 -54.411 -2048 83 77 63
-219.412 -54.4561 -2050 99 93 76
-215.508 -54.5016 -2052 98 88 72
-211.495 -54.5204 -2053 92 82 66
-207.278 -54.4865 -2052 73 64 50
-203.859 -54.6648 -2059 52 46 40
-199.637 -54.6312 -2058 37 33 32
-195.895 -54.7304 -2062 29 26 31
-191.861 -54.7499 -2063 26 22 28
-187.824 -54.7698 -2064 29 24 32
-183.428 -54.6836 -2061 34 31 38
-179.481 -54.7301 -2063 33 30 37
-175.102 -54.6442 -2060 34 31 38
-170.986 -54.6381 -2060 26 23 30
-166.871 -54.6322 -2060 22 19 24
-162.915 -54.6792 -2062 23 20 26
-159.03 -54.753 -2065 25 22 29
-155.134 -54.8271 -2068 24 21 28
-150.935 -54.7952 -2067 21 18 25
-146.742 -54.7634 -2066 18 17 24
-142.691 -54.7845 -2067 17 16 23
-138.37 -54.7001 -2064 17 16 23
-134.257 -54.6953 -2064 19 16 23
-129.956 -54.6111 -2061 21 18 25
-125.973 -54.6596 -2063 22 19 26
-121.865 -54.6552 -2063 21 18 22
-117.815 -54.6775 -2064 22 19 22
-113.762 -54.6999 -2065 25 21 26
-109.865 -54.8019 -2069 27 24 30
-105.749 -54.7981 -2069 28 25 32
-101.584 -54.768 -2068 28 23 31
-97.5189 -54.7907 -2069 30 25 34
-93.4051 -54.7873 -2069 32 27 35
-89.249 -54.7576 -2068 28 25 32
-85.1798 -54.781 -2069 27 24 31
-81.1074 -54.8046 -2070 30 27 35
-77.0688 -54.8547 -2072 32 30 37
-73.234 -55.0638 -2080 29 28 35
-69.1688 -55.1143 -2082 28 29 36
-65.065 -55.1384 -2083 26 28 35
-61.0163 -55.2156 -2086 31 33 40
-57.1196 -55.4517 -2095 31 33 40
-53.0866 -55.5821 -2100 35 37 44
-49.2205 -55.9244 -2113 36 38 45
-313.894 -60.2142 -2101 28 27 34
-308.011 -59.887 -2090 29 27 35
-302.175 -59.5601 -2079 25 25 33
-297.39 -59.4338 -2075 25 25 33
-292.199 -59.222 -2068 25 25 33
-287.735 -59.1536 -2066 25 25 33
-282.733 -58.9708 -2060 25 24 32
-278.298 -58.9028 -2058 24 23 33
-274.007 -58.8635 -2057 24 23 33
-269.459 -58.7672 -2054 27 26 34
-265.185 -58.7283 -2053 28 27 35
-260.789 -58.6609 -2051 28 27 35
-256.904 -58.7081 -2053 26 25 33
-252.644 -58.6697 -2052 25 25 33
-248.632 -58.6886 -2053 27 27 31
-244.38 -58.6507 -2052 25 24 30
-240.368 -58.6699 -2053 25 24 32
-235.778 -58.5464 -2049 39 38 42
-231.546 -58.509 -2048 58 56 58
-227.542 -58.5287 -2049 76 72 61
-223.536 -58.5485 -2050 75 71 62
-219.741 -58.6258 -2053 81 75 68
-215.936 -58.703 -2056 82 74 62
-211.915 -58.7234 -2057 70 63 51
-207.589 -58.6582 -2055 50 43 35
-203.668 -58.7075 -2057 38 34 31
-199.547 -58.6996 -2057 31 29 30
-195.523 -58.7207 -2058 29 27 33
-191.682 -58.799 -2061 25 23 30
-187.467 -58.763 -2060 27 24 31
-183.524 -58.8131 -2062 33 30 37
-179.487 -58.8347 -2063 35 32 39
-175.278 -58.7992 -2062 34 31 38
-171.241 -58.8212 -2063 26 23 29
-167.363 -58.9003 -2066 25 22 27
-163.316 -58.9226 -2067 27 24 31
-159.19 -58.9162 -2067 24 21 28
-154.99 -58.8818 -2066 19 17 24
-151.014 -58.933 -2068 18 17 24
-146.889 -58.9273 -2068 17 16 23
-142.766 -58.9218 -2068 16 15 22
-138.576 -58.8878 -2067 16 15 22
-134.522 -58.9111 -2068 19 17 24
-130.213 -58.8206 -2065 20 19 26
-126.161 -58.8442 -2066 21 20 27
-121.928 -58.7825 -2064 23 20 24
-117.876 -58.8065 -2065 26 22 26
-113.711 -58.7736 -2064 29 25 30
-109.763 -58.8548 -2067 32 28 34
-105.702 -58.8792 -2068 32 29 36
-101.588 -58.8753 -2068 30 27 34
-97.3812 -58.8145 -2066 31 28 36
-93.3634 -58.8676 -2068 33 30 38
-89.2954 -58.8926 -2069 33 30 38
-85.1829 -58.8893 -2069 32 29 37
-81.1887 -58.9715 -2072 32 29 37
-77.1832 -59.0539 -2075 31 28 36
-73.2016 -59.1649 -2079 31 29 36
-69.1049 -59.1906 -2080 30 31 38
-65.0362 -59.245 -2082 28 30 37
-61.1062 -59.4418 -2089 31 33 40
-57.1763 -59.6672 -2097 32 34 41
-53.1644 -59.8358 -2103 34 36 43
-49.3155 -60.2322 -2117 36 38 45
-314.803 -64.5996 -2107 28 27 34
-308.466 -64.1574 -2093 28 27 35
-302.624 -63.8077 -2082 27 26 34
-297.402 -63.5807 -2075 28 27 35
-292.211 -63.3541 -2068 27 26 34
-287.468 -63.2197 -2064 27 26 34
-282.744 -63.0854 -2060 27 26 34
-278.444 -63.043 -2059 26 25 34
-274.018 -62.9704 -2057 25 24 34
-269.864 -62.9593 -2057 28 27 35
-265.583 -62.9176 -2056 29 28 36
-261.054 -62.815 -2053 29 28 36
-257.165 -62.8655 -2055 28 27 34
-252.777 -62.7938 -2053 26 25 32
-248.763 -62.8142 -2054 26 25 30
-244.509 -62.7735 -2053 26 25 32
-240.494 -62.794 -2054 28 27 35
-236.133 -62.723 -2052 40 40 45
-232.008 -62.7133 -2052 55 54 58
-227.884 -62.704 -2052 57 54 46
-223.872 -62.7252 -2053 54 51 46
-219.75 -62.7163 -2053 56 53 51
-216.05 -62.8294 -2057 58 54 46
-211.821 -62.79 -2056 45 41 33
-207.9 -62.8426 -2058 38 35 31
-203.874 -62.8648 -2059 32 31 30
-199.846 -62.8869 -2060 27 27 29
-195.815 -62.9094 -2061 29 28 36
-191.875 -62.9624 -2063 27 26 33
-187.565 -62.8937 -2061 31 28 36
-183.175 -62.7944 -2058 35 32 39
-179.32 -62.8786 -2061 33 30 38
-175.2 -62.8714 -2061 34 31 38
-171.165 -62.8946 -2062 28 25 31
-167.208 -62.9488 -2064 26 23 28
-163.323 -63.0336 -2067 25 22 29
-159.196 -63.0271 -2067 22 19 26
-155.071 -63.0204 -2067 19 18 25
-151.093 -63.0752 -2069 19 18 25
-146.824 -63.0082 -2067 18 17 24
-142.771 -63.0328 -2068 18 17 24
-138.716 -63.0576 -2069 19 18 25
-134.592 -63.052 -2069 21 20 27
-130.344 -62.9855 -2067 21 20 27
-126.166 -62.9498 -2066 21 20 27
-122.051 -62.9448 -2066 25 22 25
-117.881 -62.9094 -2065 27 24 27
-113.715 -62.8743 -2064 29 25 30
-109.767 -62.9611 -2067 32 28 34
-105.604 -62.9263 -2066 33 30 37
-101.592 -62.983 -2068 31 28 35
-97.4321 -62.9485 -2067 32 29 36
-93.3672 -62.9751 -2068 34 31 39
-89.2556 -62.9711 -2068 39 36 44
-85.2275 -63.0285 -2070 37 34 42
-81.1919 -63.086 -2072 32 29 36
-77.149 -63.1437 -2074 29 26 33
-73.1693 -63.2624 -2078 31 28 35
-69.1076 -63.3204 -2080 30 31 38
-65.0387 -63.3786 -2082 29 32 39
-61.0501 -63.5282 -2087 32 34 41
-57.0967 -63.7389 -2094 33 35 42
-53.1412 -63.9802 -2102 34 36 43
-49.3407 -64.4651 -2118 35 37 44
-315.415 -68.944 -2111 28 27 34
-308.921 -68.4403 -2096 28 27 35
-303.073 -68.0678 -2085 28 27 35
-298.274 -67.9239 -2081 29 28 36
-292.788 -67.6172 -2072 27 26 34
-287.759 -67.4088 -2066 29 28 36
-282.893 -67.2329 -2061 28 27 35
-278.456 -67.1554 -2059 26 25 35
-274.162 -67.1107 -2058 27 26 36
-270.006 -67.0988 -2058 28 27 35
-265.723 -67.0545 -2057 28 27 35
-261.192 -66.9451 -2054 29 28 36
-257.05 -66.9335 -2054 29 28 35
-252.788 -66.89 -2053 27 26 33
-248.773 -66.9115 -2054 26 25 32
-244.4 -66.8355 -2052 27 26 33
-240.388 -66.8574 -2053 28 27 34
-236.028 -66.7818 -2051 31 30 37
-231.904 -66.7715 -2051 35 34 41
-227.894 -66.7942 -2052 39 37 40
-223.881 -66.8168 -2053 44 43 43
-220.08 -66.9046 -2056 46 45 41
-216.269 -66.9928 -2059 37 34 35
-211.933 -66.9183 -2057 32 29 31
-208.111 -67.0069 -2060 32 31 33
-203.982 -66.9978 -2060 32 32 34
-199.855 -66.9891 -2060 31 31 33
-195.824 -67.0128 -2061 30 29 37
-191.791 -67.037 -2062 29 27 35
-187.573 -66.996 -2061 37 34 42
-183.539 -67.0206 -2062 38 35 43
-179.328 -66.98 -2061 28 25 33
-175.378 -67.0373 -2063 28 25 32
-171.338 -67.0623 -2064 28 25 32
-167.377 -67.12 -2066 27 24 29
-163.408 -67.1776 -2068 24 21 27
-159.434 -67.2356 -2070 22 19 26
-155.152 -67.1639 -2068 20 19 27
-151.026 -67.157 -2068 20 19 27
-146.901 -67.1506 -2068 20 19 26
-142.777 -67.1443 -2068 20 19 26
-138.655 -67.1382 -2068 22 21 28
-134.533 -67.1323 -2068 24 23 30
-130.286 -67.0617 -2066 24 23 30
-126.171 -67.0559 -2066 23 22 29
-122.056 -67.0505 -2066 26 23 26
-117.886 -67.0129 -2065 29 26 27
-113.665 -66.943 -2063 30 26 31
-109.719 -67.0355 -2066 32 29 35
-105.557 -66.9984 -2065 34 31 38
-101.4 -66.9615 -2064 32 29 36
-97.3891 -67.0221 -2066 33 30 37
-93.2808 -67.0179 -2066 36 33 41
-89.2163 -67.0462 -2067 38 35 43
-85.3545 -67.237 -2073 36 33 41
-81.2737 -67.2659 -2074 33 28 36
-77.1523 -67.2624 -2074 32 28 35
-73.1724 -67.3889 -2078 32 29 35
-69.1771 -67.5155 -2082 30 31 37
-65.0727 -67.5451 -2083 29 32 39
-61.1112 -67.7369 -2089 32 34 41
-57.2082 -68.0262 -2098 34 36 43
-53.2951 -68.348 -2108 35 37 44
-309.525 -72.7707 -2100 29 28 36
-303.668 -72.3751 -2089 27 26 34
-298.718 -72.1877 -2084 29 28 36
-293.367 -71.8969 -2076 27 26 34
-288.608 -71.7447 -2072 29 28 36
-283.593 -71.5237 -2066 29 28 36
-279.145 -71.4414 -2064 29 28 37
-274.575 -71.3245 -2061 29 28 38
-270.019 -71.208 -2058 29 28 36
-265.735 -71.161 -2057 29 28 36
-261.204 -71.045 -2054 29 28 36
-256.686 -70.9291 -2051 27 27 34
-252.553 -70.9173 -2051 27 28 34
-248.421 -70.9057 -2051 27 26 33
-244.53 -70.9633 -2053 25 24 30
-240.516 -70.9866 -2054 24 23 30
-236.384 -70.9754 -2054 27 26 34
-232.367 -70.9991 -2055 28 28 35
-228.348 -71.0231 -2056 30 32 39
-224.327 -71.047 -2057 34 35 38
-220.197 -71.0367 -2057 34 35 36
-216.384 -71.13 -2060 28 25 32
-212.148 -71.0857 -2059 31 29 36
-208.221 -71.1449 -2061 25 24 31
-204.09 -71.1355 -2061 23 23 27
-199.961 -71.126 -2061 28 28 30
-195.737 -71.0825 -2060 34 33 41
-191.706 -71.1079 -2061 32 31 39
-187.49 -71.0647 -2060 37 34 42
-183.547 -71.1249 -2062 33 31 39
-179.51 -71.1511 -2063 22 20 29
-175.386 -71.143 -2063 23 21 28
-171.595 -71.2727 -2067 25 23 30
-167.465 -71.265 -2067 24 22 27
-163.416 -71.2919 -2068 22 19 26
-159.287 -71.2842 -2068 22 19 26
-155.159 -71.277 -2068 22 21 29
-151.033 -71.27 -2068 23 23 30
-146.837 -71.2285 -2067 22 23 29
-142.646 -71.1874 -2066 22 21 28
-138.393 -71.1121 -2064 22 21 28
-134.409 -71.1747 -2066 23 22 29
-130.229 -71.1342 -2065 24 23 30
-126.177 -71.1628 -2066 24 23 30
-122.003 -71.1224 -2065 26 25 26
-117.834 -71.0824 -2064 28 27 27
-113.67 -71.0427 -2063 30 27 32
-109.671 -71.1065 -2065 32 29 35
-105.459 -71.0326 -2063 34 31 38
-101.454 -71.0968 -2065 33 30 37
-97.2991 -71.0578 -2064 33 30 37
-93.285 -71.1222 -2066 34 31 39
-89.2636 -71.1869 -2068 34 31 39
-85.276 -71.2862 -2071 33 30 38
-81.2773 -71.3854 -2074 32 27 36
-77.2673 -71.485 -2077 34 30 38
-73.2813 -71.6192 -2081 35 33 39
-69.2467 -71.7192 -2084 31 32 39
-65.1694 -71.7849 -2086 29 32 39
-61.1724 -71.9541 -2091 31 33 40
-57.1562 -72.1234 -2096 33 35 42
-53.2975 -72.5338 -2108 36 38 45
-310.424 -77.1906 -2106 32 29 37
-304.264 -76.6989 -2093 28 28 35
-299.306 -76.5007 -2088 28 30 37
-294.088 -76.2297 -2081 26 28 35
-289.457 -76.1053 -2078 30 31 38
-284.43 -75.8716 -2072 33 32 40
-279.294 -75.6012 -2065 35 34 44
-274.987 -75.551 -2064 35 34 44
-270.425 -75.4278 -2061 31 30 38
-266.136 -75.3778 -2060 30 29 37
-261.471 -75.2185 -2056 28 27 35
-256.949 -75.096 -2053 27 29 35
-252.811 -75.0835 -2053 28 30 36
-248.675 -75.0712 -2053 28 27 34
-244.304 -74.9859 -2051 27 26 32
-240.293 -75.0105 -2052 27 27 31
-236.28 -75.0353 -2053 26 25 33
-232.265 -75.0603 -2054 23 22 30
-228.248 -75.0855 -2055 21 24 33
-224.338 -75.1477 -2057 23 25 33
-220.315 -75.1732 -2058 25 27 34
-216.394 -75.2355 -2060 29 28 36
-212.365 -75.2616 -2061 19 18 26
-208.231 -75.2512 -2061 21 20 28
-204.199 -75.2775 -2062 19 18 23
-199.873 -75.1947 -2060 26 26 28
-195.652 -75.1484 -2059 32 31 38
-191.715 -75.2121 -2061 24 23 30
-187.408 -75.1297 -2059 24 21 29
-183.467 -75.1937 -2061 20 19 28
-179.519 -75.2576 -2063 17 16 26
-175.564 -75.322 -2065 19 18 26
-171.52 -75.35 -2066 20 20 26
-167.554 -75.4145 -2068 21 21 25
-163.582 -75.4794 -2070 22 20 26
-159.372 -75.4351 -2069 24 21 28
-155.242 -75.4273 -2069 23 22 30
-151.04 -75.3834 -2068 24 24 31
-146.701 -75.2668 -2065 22 24 30
-142.514 -75.2234 -2064 24 23 30
-138.265 -75.1434 -2062 23 22 29
-134.285 -75.2097 -2064 21 20 27
-130.109 -75.1669 -2063 23 22 29
-126.06 -75.1971 -2064 25 24 31
-121.949 -75.1911 -2064 25 25 26
-117.84 -75.185 -2064 26 26 26
-113.731 -75.1794 -2064 28 25 30
-109.623 -75.174 -2064 30 27 33
-105.413 -75.0959 -2062 32 29 36
-101.311 -75.0909 -2062 32 29 36
-97.2094 -75.0861 -2062 32 29 36
-93.2442 -75.1907 -2065 34 29 37
-89.1815 -75.2227 -2066 33 30 37
-85.3212 -75.4369 -2072 32 29 36
-81.2811 -75.5057 -2074 32 27 36
-77.3454 -75.6836 -2079 34 30 38
-73.2847 -75.7527 -2081 35 34 41
-69.2832 -75.8949 -2085 32 34 41
-65.1725 -75.928 -2086 29 32 39
-61.2338 -76.1797 -2093 29 31 38
-57.1589 -76.286 -2096 31 33 40
-53.3759 -76.8293 -2111 37 39 46
-310.882 -81.5192 -2109 34 31 39
-304.715 -81.0007 -2096 28 27 35
-299.321 -80.676 -2088 25 25 33
-294.385 -80.4673 -2083 31 30 38
-289.472 -80.2588 -2078 28 27 35
-284.856 -80.1282 -2075 29 28 36
-280.255 -79.9975 -2072 31 30 39
-275.135 -79.7129 -2065 33 32 40
-270.57 -79.5828 -2062 31 30 38
-266.149 -79.4917 -2060 31 30 38
-261.357 -79.2852 -2055 30 29 37
-257.212 -79.2717 -2055 30 29 37
-253.07 -79.2583 -2055 27 27 35
-248.93 -79.2453 -2055 26 25 33
-244.435 -79.1168 -2052 25 24 31
-240.773 -79.2584 -2056 25 24 30
-236.752 -79.2846 -2057 25 24 31
-232.729 -79.3109 -2058 25 24 32
-228.593 -79.299 -2058 24 25 33
-224.568 -79.326 -2059 23 23 31
-220.54 -79.3529 -2060 23 23 31
-216.405 -79.3415 -2060 23 22 30
-212.375 -79.3689 -2061 21 20 28
-208.343 -79.3966 -2062 22 21 29
-204.308 -79.4244 -2063 22 21 29
-200.077 -79.3753 -2062 22 21 29
-195.757 -79.2883 -2060 24 22 29
-191.725 -79.3166 -2061 22 20 27
-187.691 -79.3454 -2062 22 19 27
-183.476 -79.2972 -2061 23 21 29
-179.528 -79.3649 -2063 24 22 31
-175.658 -79.471 -2066 24 22 30
-171.612 -79.5006 -2067 23 21 28
-167.481 -79.4919 -2067 21 20 26
-163.669 -79.6371 -2071 22 21 28
-159.457 -79.5904 -2070 22 22 28
-155.325 -79.5823 -2070 22 24 29
-151.048 -79.4974 -2068 24 25 30
-146.709 -79.3744 -2065 25 26 30
-142.521 -79.3286 -2064 26 25 32
-138.205 -79.2061 -2061 25 24 31
-134.097 -79.1989 -2061 24 25 30
-129.926 -79.1537 -2060 26 26 32
-126.006 -79.2625 -2063 25 24 30
-121.896 -79.2561 -2063 27 26 29
-117.96 -79.3652 -2066 28 27 30
-113.681 -79.2438 -2063 31 28 33
-109.575 -79.2381 -2063 32 29 35
-105.521 -79.271 -2064 33 30 36
-101.365 -79.2273 -2063 33 30 37
-97.2143 -79.1838 -2062 31 28 35
-93.294 -79.3326 -2066 33 30 37
-89.1859 -79.3279 -2066 34 31 38
-85.2432 -79.477 -2070 34 31 38
-81.2852 -79.6263 -2074 36 33 40
-77.3864 -79.8526 -2080 36 34 42
-73.2884 -79.8872 -2081 33 32 39
-69.3199 -80.0752 -2086 31 32 39
-65.1758 -80.0717 -2086 30 31 38
-61.1785 -80.2604 -2091 32 34 40
-57.1891 -80.4877 -2097 32 34 40
-53.4038 -81.0606 -2112 37 39 46
-305.313 -85.356 -2100 31 29 37
-299.48 -84.8923 -2089 28 27 34
-294.825 -84.7541 -2086 29 26 34
-289.487 -84.413 -2078 27 24 32
-285.283 -84.3974 -2078 26 25 33
-280.54 -84.2194 -2074 28 27 35
-275.149 -83.8389 -2065 29 28 36
-270.716 -83.7426 -2063 29 28 36
-266.551 -83.728 -2063 29 28 36
-261.879 -83.5511 -2059 29 28 36
-257.602 -83.4964 -2058 29 28 36
-253.207 -83.4013 -2056 28 27 35
-249.186 -83.4282 -2057 26 25 33
-244.686 -83.2929 -2054 25 24 31
-240.552 -83.2797 -2054 24 23 30
-236.42 -83.2666 -2054 24 23 30
-232.402 -83.2944 -2055 24 23 31
-228.494 -83.3629 -2057 23 22 30
-224.361 -83.3507 -2057 23 22 30
-220.231 -83.3386 -2057 23 22 30
-216.102 -83.3266 -2057 22 21 29
-212.18 -83.3959 -2059 21 20 28
-208.152 -83.4249 -2060 23 22 30
-204.22 -83.4949 -2062 23 22 31
-200.088 -83.4838 -2062 22 21 31
-195.957 -83.4729 -2062 24 21 28
-191.735 -83.422 -2061 22 19 26
-187.792 -83.4926 -2063 23 20 27
-183.664 -83.4826 -2063 25 22 30
-179.624 -83.5131 -2064 26 23 31
-175.667 -83.5845 -2066 25 22 29
-171.538 -83.5749 -2066 24 22 29
-167.409 -83.5658 -2066 23 22 29
-163.44 -83.6378 -2068 22 23 29
-159.388 -83.6693 -2069 23 25 31
-155.183 -83.6204 -2068 24 26 30
-150.909 -83.5313 -2066 25 27 31
-146.646 -83.4422 -2064 27 27 31
-142.322 -83.3132 -2061 27 26 32
-137.944 -83.144 -2057 25 24 31
-133.843 -83.1367 -2057 23 25 29
-129.807 -83.1697 -2058 26 27 32
-125.768 -83.2033 -2059 27 27 32
-121.844 -83.3178 -2062 29 26 31
-117.966 -83.473 -2066 30 27 32
-113.797 -83.4264 -2065 32 29 34
-109.687 -83.4204 -2065 33 30 35
-105.526 -83.3739 -2064 34 31 36
-101.518 -83.4491 -2066 33 30 37
-97.3138 -83.363 -2064 31 29 36
-93.2989 -83.4387 -2066 30 29 36
-89.2338 -83.4741 -2067 33 31 38
-85.3301 -83.6714 -2072 36 33 40
-81.2895 -83.7476 -2074 37 34 41
-77.3533 -83.9452 -2079 36 34 41
-73.2922 -84.022 -2081 33 32 39
-69.2902 -84.1796 -2085 33 32 39
-65.3042 -84.3776 -2090 32 31 38
-61.328 -84.6164 -2096 33 35 40
-57.2467 -84.7343 -2099 35 38 43
-53.5838 -85.5387 -2119 36 39 46
-305.912 -89.7278 -2104 30 29 37
-299.64 -89.1133 -2090 29 28 35
-294.276 -88.7552 -2082 29 26 34
-289.922 -88.6957 -2081 29 27 35
-285.025 -88.4662 -2076 27 26 34
-280.421 -88.3221 -2073 27 26 34
-275.564 -88.093 -2068 28 27 35
-270.731 -87.8645 -2063 31 30 38
-266.307 -87.7638 -2061 31 30 38
-262.021 -87.7062 -2060 31 30 38
-257.491 -87.5634 -2057 29 28 36
-253.344 -87.5488 -2057 28 27 35
-249.321 -87.577 -2058 27 26 34
-244.7 -87.3927 -2054 26 25 33
-240.8 -87.464 -2056 26 25 32
-236.548 -87.4078 -2055 25 24 31
-232.755 -87.5217 -2058 25 24 31
-228.84 -87.5935 -2060 26 25 33
-224.592 -87.5383 -2059 28 27 35
-220.564 -87.568 -2060 26 25 33
-216.534 -87.598 -2061 22 21 29
-212.295 -87.5432 -2060 23 22 30
-208.163 -87.5311 -2060 24 23 31
-204.231 -87.6043 -2062 24 23 32
-199.905 -87.5079 -2060 24 23 33
-195.778 -87.4966 -2060 25 22 29
-191.746 -87.5279 -2061 25 22 29
-187.711 -87.5597 -2062 25 22 29
-183.674 -87.5914 -2063 26 23 30
-179.634 -87.6237 -2064 26 23 30
-175.592 -87.6559 -2065 27 24 31
-171.547 -87.6885 -2066 26 24 31
-167.581 -87.7636 -2068 25 24 31
-163.371 -87.7119 -2067 23 24 31
-159.474 -87.83 -2070 24 26 32
-155.191 -87.7361 -2068 26 28 32
-150.918 -87.6426 -2066 27 28 32
-146.654 -87.5494 -2064 29 29 33
-142.33 -87.4137 -2061 29 28 34
-138.019 -87.2786 -2058 27 26 33
-133.981 -87.3133 -2059 24 26 30
-129.814 -87.2635 -2058 26 27 32
-125.958 -87.4256 -2062 28 27 34
-121.91 -87.461 -2063 30 27 32
-117.915 -87.539 -2065 32 29 34
-113.804 -87.5325 -2065 33 30 35
-109.799 -87.611 -2067 34 31 37
-105.635 -87.5625 -2066 34 31 38
-101.573 -87.5988 -2067 31 30 37
-97.4135 -87.5508 -2066 31 30 37
-93.3492 -87.5878 -2067 30 29 36
-89.2818 -87.625 -2068 33 31 38
-85.3759 -87.8319 -2073 37 34 41
-81.2156 -87.7849 -2072 37 34 41
-77.3576 -88.0769 -2079 35 32 39
-73.3315 -88.1998 -2082 33 32 39
-69.3273 -88.3652 -2086 33 32 39
-65.2453 -88.4461 -2088 34 33 40
-61.3607 -88.8237 -2097 33 35 41
-57.2771 -88.9475 -2100 37 39 45
-53.6373 -89.8335 -2121 37 40 47
-306.948 -94.2504 -2111 30 29 37
-300.088 -93.4285 -2093 32 31 39
-294.435 -92.9643 -2083 31 29 37
-289.66 -92.7682 -2079 32 30 38
-285.179 -92.6616 -2077 29 28 36
-280.572 -92.5107 -2074 29 28 36
-275.847 -92.3155 -2070 30 29 37
-271.403 -92.21 -2068 33 32 40
-266.711 -92.0154 -2064 33 32 40
-262.164 -91.8659 -2061 32 31 39
-257.756 -91.761 -2059 30 29 37
-253.482 -91.7012 -2058 30 29 37
-249.093 -91.5969 -2056 30 29 37
-244.595 -91.4485 -2053 29 28 36
-240.462 -91.434 -2053 28 27 35
-236.447 -91.4643 -2054 28 27 34
-232.316 -91.4502 -2054 28 27 34
-228.52 -91.57 -2057 29 28 36
-224.605 -91.6454 -2059 31 30 38
-220.363 -91.5876 -2058 28 27 35
-216.336 -91.619 -2059 24 23 31
-212.205 -91.6062 -2059 25 24 32
-208.176 -91.638 -2060 25 24 32
-204.243 -91.7146 -2062 25 24 32
-200.111 -91.7027 -2062 25 24 33
-195.884 -91.6463 -2061 28 25 32
-191.85 -91.6791 -2062 29 26 33
-187.813 -91.7124 -2063 29 26 33
-183.596 -91.6568 -2062 28 25 32
-179.384 -91.6016 -2061 28 25 32
-175.432 -91.6798 -2063 28 25 32
-171.308 -91.6693 -2063 26 24 31
-167.347 -91.7482 -2065 25 24 31
-163.222 -91.7385 -2065 24 25 32
-159.252 -91.8175 -2067 25 27 33
-155.125 -91.8083 -2067 26 28 33
-150.854 -91.7102 -2065 28 29 34
-146.52 -91.5681 -2062 28 29 33
-142.338 -91.5152 -2061 29 28 35
-138.094 -91.4179 -2059 29 28 35
-133.924 -91.3655 -2058 27 29 33
-129.948 -91.4465 -2060 27 28 33
-126.027 -91.5721 -2063 29 28 35
-121.976 -91.6089 -2064 31 28 33
-118.036 -91.7349 -2067 33 30 35
-113.866 -91.6837 -2066 33 30 35
-109.753 -91.6771 -2066 34 31 37
-105.692 -91.7151 -2067 34 31 38
-101.628 -91.7533 -2068 31 30 37
-97.5134 -91.7472 -2068 31 30 37
-93.445 -91.7859 -2069 30 29 36
-89.4598 -91.9136 -2072 31 29 36
-85.2985 -91.8641 -2071 35 32 39
-81.338 -92.0366 -2075 36 33 40
-77.3622 -92.2093 -2079 35 33 40
-73.2653 -92.2492 -2080 33 32 39
-69.2981 -92.4667 -2085 32 31 38
-65.3428 -92.7289 -2091 34 33 40
-61.3935 -93.0355 -2098 33 35 41
-57.3623 -93.2537 -2103 36 39 45
-53.5645 -93.9156 -2118 38 41 48
-307.839 -98.7549 -2117 32 32 39
-300.537 -97.7563 -2096 34 33 41
-294.736 -97.2245 -2085 32 31 39
-289.817 -96.973 -2080 31 30 38
-285.196 -96.8151 -2077 28 27 35
-280.86 -96.7507 -2076 29 28 36
-275.598 -96.3603 -2068 31 30 38
-271.157 -96.2501 -2066 32 31 39
-266.727 -96.14 -2064 32 31 39
-262.053 -95.937 -2060 31 30 38
-257.772 -95.8743 -2059 31 30 38
-253.375 -95.765 -2057 32 31 39
-248.987 -95.6562 -2055 30 29 37
-244.848 -95.6408 -2055 29 28 36
-240.711 -95.6254 -2055 29 28 36
-236.692 -95.6571 -2056 30 29 36
-232.669 -95.6889 -2057 30 29 36
-228.645 -95.721 -2058 29 28 36
-224.619 -95.7534 -2059 29 28 36
-220.591 -95.7859 -2060 27 26 34
-216.455 -95.7723 -2060 24 23 31
-212.527 -95.8518 -2062 25 24 32
-208.29 -95.7921 -2061 26 25 33
-203.959 -95.6863 -2059 26 25 33
-199.832 -95.6736 -2059 27 26 34
-195.611 -95.615 -2058 30 27 34
-191.583 -95.6493 -2059 31 28 35
-187.734 -95.7767 -2062 31 28 35
-183.607 -95.7653 -2062 31 28 35
-179.394 -95.7074 -2061 32 29 36
-175.528 -95.8358 -2064 33 30 37
-171.402 -95.8249 -2064 29 27 34
-167.439 -95.9073 -2066 26 25 32
-163.311 -95.8968 -2066 24 25 32
-159.108 -95.8405 -2065 24 26 32
-155.06 -95.8769 -2066 26 28 34
-150.717 -95.7283 -2063 28 30 35
-146.458 -95.6261 -2061 28 30 34
-142.347 -95.6172 -2061 30 29 36
-138.102 -95.5158 -2059 30 29 36
-134.062 -95.5535 -2060 28 30 34
-130.145 -95.6845 -2063 27 28 33
-126.156 -95.7694 -2065 28 27 34
-122.22 -95.9008 -2068 30 28 33
-118.215 -95.9859 -2070 32 29 34
-114.038 -95.9324 -2069 33 30 35
-109.919 -95.9254 -2069 32 29 35
-105.8 -95.9188 -2069 32 29 36
-101.781 -96.0051 -2071 30 29 36
-97.5664 -95.9062 -2069 30 29 36
-93.541 -95.993 -2071 29 28 35
-89.3357 -95.8944 -2069 31 29 36
-85.386 -96.0744 -2073 34 31 38
-81.3037 -96.1156 -2074 35 32 39
-77.4041 -96.3888 -2080 33 31 38
-73.2698 -96.3841 -2080 32 31 38
-69.3355 -96.6578 -2086 32 31 38
-65.4405 -97.0243 -2094 35 34 41
-61.485 -97.3447 -2101 34 36 42
-57.4476 -97.5727 -2106 37 39 46
-53.6689 -98.3105 -2122 39 42 49
-309.75 -103.625 -2130 34 34 42
-301.56 -102.292 -2103 33 32 40
-295.179 -101.542 -2088 32 31 39
-290.254 -101.28 -2083 32 31 39
-285.352 -101.018 -2078 29 28 36
-280.608 -100.805 -2074 29 28 36
-276.015 -100.641 -2071 30 29 37
-271.568 -100.526 -2069 30 29 37
-266.873 -100.314 -2065 29 28 36
-262.07 -100.054 -2060 30 29 37
-257.789 -99.9882 -2059 31 30 38
-253.145 -99.7772 -2055 31 30 38
-248.882 -99.7121 -2054 29 28 36
-244.864 -99.7446 -2055 28 27 35
-240.61 -99.6803 -2054 30 29 37
-236.476 -99.6645 -2054 31 30 38
-232.571 -99.7463 -2056 29 28 36
-228.66 -99.8283 -2058 29 28 36
-224.415 -99.765 -2057 28 27 35
-220.39 -99.799 -2058 28 27 35
-216.258 -99.7848 -2058 28 27 35
-212.231 -99.8193 -2059 27 26 34
-207.999 -99.7571 -2058 29 28 36
-203.873 -99.7437 -2058 30 29 37
-199.747 -99.7304 -2058 29 28 36
-195.624 -99.7175 -2058 30 29 36
-191.688 -99.802 -2060 31 29 36
-187.563 -99.7896 -2060 32 29 36
-183.618 -99.8743 -2062 33 30 37
-179.493 -99.8626 -2062 35 32 39
-175.369 -99.851 -2062 36 33 40
-171.412 -99.9367 -2064 33 30 37
-167.287 -99.9256 -2064 28 27 34
-163.163 -99.9149 -2064 27 27 34
-159.118 -99.9528 -2065 28 28 35
-154.995 -99.9427 -2065 26 28 34
-150.726 -99.8358 -2063 27 29 34
-146.538 -99.7778 -2062 28 30 35
-142.356 -99.7199 -2061 29 29 36
-138.312 -99.7593 -2062 31 30 37
-134.136 -99.7021 -2061 30 30 34
-130.217 -99.8388 -2064 27 27 32
-126.287 -99.9754 -2067 27 26 32
-122.405 -100.161 -2071 28 26 31
-118.223 -100.105 -2070 29 28 33
-114.1 -100.097 -2070 30 29 34
-109.873 -99.9931 -2068 29 28 34
-105.858 -100.083 -2070 29 27 34
-101.788 -100.124 -2071 29 28 35
-97.6199 -100.07 -2070 28 27 34
-93.5921 -100.16 -2072 28 27 34
-89.4277 -100.106 -2071 30 28 35
-85.5151 -100.342 -2076 33 31 38
-81.348 -100.288 -2075 32 31 38
-77.4089 -100.525 -2080 29 28 35
-73.4154 -100.713 -2084 31 30 37
-69.4064 -100.902 -2088 34 34 40
-65.4446 -101.187 -2094 35 36 42
-61.4596 -101.473 -2100 35 37 43
-57.5057 -101.856 -2108 39 41 48
-310.788 -108.244 -2137 34 35 43
-302.297 -106.754 -2108 32 32 40
-295.764 -105.924 -2092 32 31 39
-290.134 -105.397 -2082 32 31 39
-285.234 -105.125 -2077 32 31 39
-280.22 -104.802 -2071 31 30 38
-276.167 -104.833 -2072 31 30 38
-271.193 -104.511 -2066 29 28 36
-266.633 -104.341 -2063 28 27 35
-262.469 -104.323 -2063 29 28 36
-257.806 -104.103 -2059 30 29 37
-253.531 -104.035 -2058 31 30 38
-249.141 -103.917 -2056 30 29 37
-245.119 -103.95 -2057 29 28 36
-240.86 -103.883 -2056 30 29 37
-236.837 -103.918 -2057 30 29 37
-232.7 -103.902 -2057 29 28 36
-228.786 -103.987 -2059 31 30 38
-224.648 -103.971 -2059 28 27 35
-220.512 -103.956 -2059 28 27 35
-216.588 -104.043 -2061 30 29 37
-212.451 -104.028 -2061 29 28 36
-208.317 -104.014 -2061 31 30 38
-204.084 -103.949 -2060 31 30 38
-199.858 -103.885 -2059 31 30 38
-195.637 -103.821 -2058 33 32 39
-191.701 -103.909 -2060 33 31 38
-187.576 -103.896 -2060 32 30 37
-183.453 -103.883 -2060 33 30 37
-179.505 -103.972 -2062 34 31 38
-175.636 -104.111 -2065 37 34 41
-171.507 -104.099 -2065 34 32 39
-167.298 -104.038 -2064 30 29 36
-163.332 -104.127 -2066 28 27 34
-159.128 -104.066 -2065 29 28 35
-154.93 -104.005 -2064 27 29 35
-150.59 -103.844 -2061 27 29 35
-146.548 -103.884 -2062 27 29 35
-142.365 -103.824 -2061 27 26 33
-138.388 -103.915 -2063 28 27 34
-134.21 -103.855 -2062 28 28 33
-130.478 -104.149 -2068 27 27 31
-126.356 -104.14 -2068 27 27 31
-122.472 -104.333 -2072 27 27 32
-118.345 -104.325 -2072 28 27 33
-114.218 -104.317 -2072 28 28 33
-110.039 -104.259 -2071 28 27 34
-105.865 -104.201 -2070 28 27 34
-101.794 -104.245 -2071 28 27 34
-97.5791 -104.137 -2069 27 26 33
-93.508 -104.181 -2070 28 27 34
-89.5631 -104.376 -2074 29 28 35
-85.5208 -104.471 -2076 30 29 36
-81.4318 -104.516 -2077 29 28 35
-77.4513 -104.712 -2081 28 27 34
-73.4907 -104.958 -2086 31 30 37
-69.3778 -105.004 -2087 34 35 42
-65.3864 -105.251 -2092 35 37 43
-61.4636 -105.649 -2100 36 38 44
-57.6459 -106.299 -2113 38 41 47
-303.322 -111.343 -2115 31 32 40
-296.35 -110.322 -2096 35 34 42
-290.433 -109.669 -2084 34 33 41
-285.803 -109.491 -2081 33 32 40
-280.375 -108.997 -2072 32 31 39
-276.053 -108.925 -2071 31 30 38
-271.343 -108.695 -2067 31 30 38
-266.91 -108.571 -2065 32 31 39
-261.978 -108.237 -2059 31 30 38
-258.074 -108.323 -2061 31 30 38
-253.795 -108.253 -2060 32 31 39
-249.522 -108.183 -2059 31 30 40
-245.612 -108.27 -2061 30 29 38
-241.463 -108.253 -2061 31 30 38
-237.314 -108.236 -2061 32 31 39
-233.168 -108.219 -2061 30 29 37
-228.913 -108.15 -2060 30 29 37
-224.664 -108.082 -2059 29 28 36
-220.527 -108.066 -2059 27 26 34
-216.393 -108.051 -2059 30 29 37
-212.26 -108.036 -2059 28 27 35
-208.129 -108.021 -2059 30 29 37
-204.098 -108.059 -2060 31 30 38
-200.163 -108.149 -2062 33 32 40
-195.935 -108.083 -2061 34 33 40
-191.807 -108.069 -2061 32 31 38
-187.68 -108.056 -2061 30 29 36
-183.643 -108.095 -2062 32 30 37
-179.343 -107.978 -2060 34 31 38
-175.223 -107.965 -2060 35 34 41
-171.186 -108.005 -2061 32 31 38
-167.067 -107.993 -2061 29 28 35
-163.027 -108.034 -2062 27 26 33
-158.908 -108.023 -2062 28 27 34
-154.94 -108.117 -2064 26 28 34
-150.674 -108.001 -2062 27 29 35
-146.771 -108.148 -2065 27 29 35
-142.444 -107.98 -2062 26 26 32
-138.398 -108.023 -2063 26 25 32
-134.349 -108.066 -2064 27 26 32
-130.613 -108.37 -2070 26 26 31
-126.426 -108.309 -2069 28 28 32
-122.421 -108.405 -2071 29 28 34
-118.296 -108.397 -2071 29 28 34
-114.226 -108.441 -2072 28 27 34
-110.047 -108.381 -2071 28 27 34
-105.924 -108.373 -2071 29 28 35
-101.851 -108.418 -2072 29 28 35
-97.7273 -108.411 -2072 27 26 33
-93.7403 -108.561 -2075 30 29 36
-89.6556 -108.607 -2076 32 31 38
-85.609 -108.706 -2078 32 31 38
-81.6335 -108.909 -2082 31 30 37
-77.6054 -109.061 -2085 30 29 36
-73.5662 -109.212 -2088 31 30 37
-69.3826 -109.155 -2087 34 36 42
-65.4848 -109.568 -2095 35 37 43
-61.4093 -109.721 -2098 37 39 45
-57.6226 -110.449 -2112 37 39 46
-304.205 -115.906 -2121 32 34 41
-296.654 -114.627 -2098 36 35 44
-290.872 -114.005 -2087 33 32 40
-285.823 -113.656 -2081 32 31 39
-280.666 -113.253 -2074 31 30 38
-275.806 -112.959 -2069 29 28 36
-271.231 -112.775 -2066 31 30 38
-266.541 -112.537 -2062 34 33 41
-262.251 -112.463 -2061 35 34 42
-258.218 -112.498 -2062 34 33 41
-254.183 -112.534 -2063 34 33 41
-249.904 -112.461 -2062 34 33 43
-246.226 -112.661 -2066 33 32 41
-241.831 -112.534 -2064 34 33 41
-237.677 -112.517 -2064 35 34 42
-233.525 -112.499 -2064 35 34 42
-229.152 -112.373 -2062 34 33 41
-224.789 -112.248 -2060 33 32 40
-220.65 -112.231 -2060 31 30 38
-216.408 -112.161 -2059 32 31 39
-212.275 -112.145 -2059 29 28 36
-208.346 -112.238 -2061 29 28 36
-204.311 -112.278 -2062 30 29 37
-200.371 -112.372 -2064 31 30 38
-196.045 -112.248 -2062 30 29 36
-191.914 -112.235 -2062 29 28 35
-187.693 -112.166 -2061 31 30 37
-183.568 -112.153 -2061 33 31 38
-179.356 -112.085 -2060 33 30 37
-175.15 -112.017 -2059 33 32 40
-171.365 -112.222 -2063 29 28 35
-167.079 -112.101 -2061 27 26 33
-162.881 -112.035 -2060 28 27 34
-158.765 -112.023 -2060 28 27 34
-154.726 -112.066 -2061 26 28 34
-150.465 -111.946 -2059 26 28 34
-146.64 -112.153 -2063 27 29 34
-142.385 -112.033 -2061 26 26 32
-138.475 -112.186 -2064 27 26 33
-134.229 -112.068 -2062 29 28 35
-130.496 -112.384 -2068 28 27 34
-126.252 -112.266 -2066 30 29 35
-122.43 -112.529 -2071 29 27 34
-118.304 -112.52 -2071 30 28 35
-114.289 -112.62 -2073 30 29 36
-110.108 -112.557 -2072 29 28 35
-106.085 -112.658 -2074 29 30 36
-101.858 -112.542 -2072 30 31 37
-97.6872 -112.481 -2071 31 32 38
-93.7018 -112.637 -2074 32 31 38
-89.7053 -112.793 -2077 33 32 39
-85.6563 -112.895 -2079 33 32 39
-81.6785 -113.106 -2083 33 32 39
-77.6482 -113.263 -2086 34 33 40
-73.5361 -113.312 -2087 35 34 41
-69.454 -113.415 -2089 36 37 43
-65.5832 -113.899 -2098 35 37 43
-61.56 -114.166 -2103 35 37 43
-57.6267 -114.65 -2112 34 37 43
-297.242 -119.055 -2102 34 33 43
-291.312 -118.353 -2090 34 33 42
-285.845 -117.822 -2081 33 32 40
-280.687 -117.404 -2074 33 32 40
-275.96 -117.156 -2070 32 31 39
-271.251 -116.909 -2066 34 33 41
-266.69 -116.718 -2063 34 33 41
-262.526 -116.698 -2063 35 34 42
-258.363 -116.678 -2063 36 35 43
-254.079 -116.602 -2062 36 35 43
-250.043 -116.64 -2063 36 35 45
-246.244 -116.79 -2066 35 34 43
-242.201 -116.828 -2067 35 34 42
-237.925 -116.754 -2066 36 35 43
-233.768 -116.736 -2066 35 34 42
-229.391 -116.605 -2064 30 29 37
-224.915 -116.418 -2061 29 28 36
-220.56 -116.288 -2059 27 26 34
-216.635 -116.385 -2061 28 27 35
-212.394 -116.312 -2060 26 25 33
-208.26 -116.296 -2060 27 26 34
-204.326 -116.393 -2062 27 26 33
-200.386 -116.491 -2064 27 26 33
-196.154 -116.419 -2063 27 26 33
-192.114 -116.461 -2064 28 27 34
-187.889 -116.39 -2063 31 30 37
-183.581 -116.263 -2061 32 30 37
-179.282 -116.137 -2059 32 29 36
-175.418 -116.292 -2062 31 30 38
-171.045 -116.11 -2059 28 27 35
-166.929 -116.097 -2059 27 26 33
-162.893 -116.141 -2060 28 27 34
-159.008 -116.298 -2063 30 29 36
-154.813 -116.23 -2062 28 30 36
-150.769 -116.275 -2063 27 29 34
-146.793 -116.376 -2065 27 29 33
-142.534 -116.252 -2063 28 28 34
-138.418 -116.242 -2063 28 27 34
-134.304 -116.231 -2063 30 29 36
-130.379 -116.39 -2066 29 28 35
-126.2 -116.324 -2065 31 30 37
-122.38 -116.597 -2070 33 30 37
-118.313 -116.644 -2071 33 31 38
-114.242 -116.691 -2072 31 30 37
-110.116 -116.683 -2072 30 30 37
-105.99 -116.675 -2072 29 31 37
-101.964 -116.779 -2074 31 33 39
-97.7887 -116.716 -2073 32 33 39
-93.799 -116.877 -2076 31 30 37
-89.8415 -117.096 -2080 30 29 36
-85.8275 -117.258 -2083 31 30 37
-81.763 -117.364 -2085 32 31 38
-77.6912 -117.471 -2087 34 33 40
-73.7178 -117.746 -2092 34 33 40
-69.4923 -117.628 -2090 34 35 42
-65.5255 -117.961 -2096 34 36 42
-61.5354 -118.294 -2102 35 37 43
-57.631 -118.852 -2112 36 38 45
-297.831 -123.5 -2106 35 34 44
-291.753 -122.715 -2093 37 36 45
-286.005 -122.047 -2082 37 36 44
-280.98 -121.673 -2076 37 36 44
-275.982 -121.299 -2070 38 37 45
-271.404 -121.102 -2067 37 36 44
-266.711 -120.846 -2063 35 34 42
-262.673 -120.884 -2064 34 33 41
-258.383 -120.805 -2063 33 32 40
-254.098 -120.726 -2062 34 33 41
-249.942 -120.706 -2062 33 32 42
-246.025 -120.804 -2064 31 30 39
-241.985 -120.843 -2065 30 29 37
-237.944 -120.882 -2066 29 28 36
-233.786 -120.864 -2066 29 28 36
-229.743 -120.904 -2067 27 26 34
-225.151 -120.652 -2063 27 26 34
-220.898 -120.576 -2062 25 24 32
-216.862 -120.617 -2063 26 25 33
-212.617 -120.542 -2062 23 22 30
-208.58 -120.584 -2063 24 23 31
-204.54 -120.626 -2064 25 24 31
-200.596 -120.727 -2066 25 24 31
-196.17 -120.536 -2063 26 25 32
-191.943 -120.463 -2062 28 27 34
-187.904 -120.506 -2063 29 28 35
-183.506 -120.316 -2060 29 27 34
-179.383 -120.302 -2060 30 27 34
-175.347 -120.346 -2061 30 29 37
-171.225 -120.333 -2061 30 29 37
-167.104 -120.32 -2061 28 27 34
-163.064 -120.365 -2062 28 27 34
-159.021 -120.411 -2063 30 29 36
-154.825 -120.34 -2062 29 31 37
-150.707 -120.328 -2062 28 30 35
-146.733 -120.433 -2064 28 30 34
-142.476 -120.305 -2062 28 28 34
-138.227 -120.178 -2060 28 27 34
-134.249 -120.283 -2062 29 28 35
-130.326 -120.448 -2065 28 27 34
-126.149 -120.38 -2064 33 32 39
-122.271 -120.603 -2068 37 34 41
-118.322 -120.769 -2071 36 33 40
-114.361 -120.935 -2074 33 32 39
