ply
format ascii 1.0
comment Created by Open3D
element vertex 720
property double x
property double y
property double z
property double nx
property double ny
property double nz
property uchar red
property uchar green
property uchar blue
end_header
44.3539 -816.629 -1929.36 0.326259 0.185428 -0.868347 226 174 130
32.9652 -811.267 -1928.7 0.0922972 0.304522 -0.923675 234 183 142
30.3585 -803.068 -1928.39 0.354818 -0.0492351 -0.890096 240 190 151
47.8392 -812.651 -1927.22 0.373188 0.223347 -0.844919 225 173 129
-67.8392 -73.8703 -1933.99 -0.363163 -0.408688 -0.81302 38 55 88
-63.622 -83.7726 -1928.91 -0.526496 -0.56524 -0.630838 36 53 86
-63.5276 -77.9134 -1933.26 -0.41285 -0.465949 -0.760488 37 54 86
-85.1886 -66.8531 -1929.84 -0.434276 -0.444097 -0.768644 46 61 98
-85.4829 -63.7048 -1931.47 -0.441463 -0.378779 -0.802946 47 62 100
-103.246 -45.8165 -1928.05 -0.349608 -0.352947 -0.842301 48 66 105
-94.5066 -51.4951 -1931.14 -0.463376 -0.318451 -0.819902 46 63 102
-87.4013 -58.9805 -1932.48 -0.464051 -0.326768 -0.811238 46 63 101
-78.9102 -68.1419 -1932.21 -0.388675 -0.456205 -0.781166 43 59 95
-108.332 -33.7207 -1929.28 -0.270236 -0.196814 -0.938354 48 67 106
-113.642 -26.7485 -1929.06 -0.289043 -0.164681 -0.937386 48 67 106
-114.337 -22.8934 -1929.52 -0.246239 -0.166255 -0.949568 47 67 106
-109.832 -23.901 -1930.47 -0.255567 -0.175703 -0.944683 48 67 107
-123.329 -5.46339 -1928.3 -0.369541 0.021051 -0.905764 41 63 101
7.03389 -271.178 -1933.11 0.091389 0.493015 -0.862146 251 253 254
1.71465 -266.377 -1930.96 0.0523834 0.443325 -0.882348 250 252 254
16.8436 -270.92 -1930.6 0.220083 0.489964 -0.838041 251 253 255
24.3483 -270.418 -1929.45 0.141535 0.531528 -0.821155 251 253 254
37.6739 -285.315 -1933.86 0.359187 0.292445 -0.872505 246 249 253
38.4014 -276.915 -1929.33 0.28944 0.411764 -0.850914 250 252 254
44.9191 -284.995 -1929.44 0.440053 0.283529 -0.842772 247 251 254
30.0642 -270.087 -1928.14 0.144086 0.553126 -0.80509 251 253 254
66.8097 -367.676 -1932.7 0.646024 0.0514106 -0.726287 230 238 252
69.0454 -365.856 -1930.15 0.702316 0.0717027 -0.658398 230 238 250
65.6832 -342.788 -1932.92 0.514947 0.0194282 -0.782765 235 243 253
69.5472 -354.191 -1932.73 0.55368 -0.00554678 -0.81038 226 235 250
70.387 -342.415 -1929.77 0.581566 0.0698589 -0.717545 235 243 253
65.0237 -331.525 -1931.28 0.569006 0.0457474 -0.735429 238 246 253
70.1702 -342.347 -1929.86 0.584579 0.0660756 -0.712029 236 243 253
63.7728 -323.781 -1930.13 0.587518 0.201762 -0.742443 242 250 254
60.4043 -319.432 -1930.7 0.606786 0.275992 -0.702521 243 250 254
58.8654 -311.485 -1927.46 0.586199 0.389567 -0.674681 241 248 253
-51.7534 -258.098 -1928.91 0.167186 0.0855645 -0.960953 249 249 250
-47.2637 -249.206 -1927.84 0.17638 0.156306 -0.959259 241 241 246
-36.7955 -256.08 -1927.53 0.030595 0.150633 -0.979831 249 250 252
-38.7668 -254.903 -1927.4 0.0297483 0.132725 -0.990005 250 252 254
105.188 20.679 -1928.1 -0.402054 -0.0125842 -0.910253 47 66 101
114.502 14.9213 -1931.44 -0.333648 0.0551872 -0.938949 45 64 98
111.899 18.3047 -1930.38 -0.345417 0.0513641 -0.932663 46 65 99
117.172 16.5851 -1931.88 -0.267497 0.0798358 -0.958281 44 63 97
126.408 13.7003 -1931.96 0.0585593 0.0271548 -0.969529 43 61 94
124.946 17.9348 -1931.98 -0.0241418 0.0883467 -0.974438 43 61 95
134.783 17.2931 -1929.34 0.419849 -0.0453664 -0.882709 46 63 94
117.738 28.2968 -1928.61 -0.187493 0.263077 -0.939819 46 65 100
125.22 25.8391 -1930.78 -0.0863836 0.166452 -0.963832 43 62 96
135.113 27.6945 -1929.21 0.296292 0.0525231 -0.915614 45 62 95
122.972 30.0064 -1929.54 -0.181886 0.206223 -0.953347 44 63 97
136.083 12.9758 -1927.99 0.527738 -0.0744702 -0.842615 46 63 94
121.078 39.6131 -1927.59 -0.314179 0.0625965 -0.931588 44 65 99
127.678 40.5764 -1928.8 -0.286673 0.0191497 -0.956202 44 64 98
122.977 45.5914 -1928.5 -0.371139 -0.00557256 -0.931295 43 65 99
131.648 42.2604 -1928.18 -0.280602 -0.0130438 -0.960548 45 65 99
132.393 54.101 -1928.05 -0.298802 0.117125 -0.946783 45 65 99
44.6385 67.7099 -1933.07 0.481095 -0.338793 -0.795678 42 60 96
47.7196 71.2552 -1932.02 0.511116 -0.210681 -0.813034 42 59 95
54.1018 72.2542 -1927.41 0.54181 -0.242582 -0.778507 42 59 94
-92.3613 -892.517 -1925.28 0.320655 -0.240244 -0.912681 216 164 116
-84.7444 -893.483 -1921.39 0.407884 -0.215144 -0.89075 217 164 116
-86.54 -887.107 -1924.06 0.402234 -0.227731 -0.877159 216 163 117
-84.1188 -877.331 -1924.77 0.486286 -0.148772 -0.841324 216 163 115
-83.0364 -871.652 -1924.37 0.535164 -0.0592789 -0.831335 216 163 114
-81.023 -866.76 -1922.32 0.623112 0.0102393 -0.779774 218 164 115
-82.7577 -860.967 -1923.05 0.581678 0.0410114 -0.798349 220 169 119
-150.623 -854.939 -1925.79 -0.439102 0.0603875 -0.877329 219 165 114
-157.565 -848.353 -1920.89 -0.499893 -0.141234 -0.822014 212 161 113
-150.281 -843.934 -1926.74 -0.308824 -0.175394 -0.927131 221 167 118
-142.054 -846.083 -1927.04 -0.192308 -0.00925685 -0.931044 222 170 120
-155.428 -836.525 -1927.02 -0.513353 -0.00234216 -0.846163 213 163 115
-157.604 -829.43 -1922.12 -0.595476 0.169392 -0.733558 210 162 117
-153.146 -824.309 -1923.23 -0.52942 0.341905 -0.744934 221 172 125
-148.265 -824.63 -1926.33 -0.388949 0.335839 -0.828579 227 177 130
-143.793 -818.178 -1922.5 -0.266134 0.48769 -0.821173 235 184 138
-139.205 -815.743 -1922.18 -0.206691 0.508542 -0.843572 239 189 142
-134.769 -818.335 -1926.63 -0.243548 0.405243 -0.878475 237 187 140
-132.97 -804.462 -1924.23 -0.340754 0.0737679 -0.893906 245 197 152
-86.4851 -851.023 -1926.71 0.542533 -0.0330644 -0.818483 223 174 125
-82.227 -849.398 -1921.22 0.627318 0.0227178 -0.751019 225 176 126
-178.819 -439.831 -1921.97 -0.71378 -0.323562 -0.613166 246 249 255
-164.267 -449.601 -1921.83 -0.341749 -0.207078 -0.744012 223 226 243
-168.687 -444.12 -1926.82 -0.48627 -0.584324 -0.648257 239 240 254
-180.697 -430.859 -1921.86 -0.693015 -0.220702 -0.667244 247 249 255
-183.178 -420.223 -1922.1 -0.638485 -0.18949 -0.729845 243 244 254
-183.807 -412.015 -1925.37 -0.6277 -0.154758 -0.745272 238 239 252
-184.568 -409.993 -1925.65 -0.625667 -0.131375 -0.757546 236 238 251
-182.676 -399.602 -1925.45 -0.566709 -0.00245149 -0.771281 232 235 247
6.50372 -1168.33 -1925.56 -0.0199619 0.644552 -0.60684 211 189 163
10.503 -1167.41 -1926.44 0.014284 0.506584 -0.667352 184 168 149
22.2723 -1167.53 -1925.46 0.267731 0.272295 -0.906185 153 150 149
13.0344 -1166.09 -1924.18 0.209022 0.49062 -0.574946 182 164 143
25.0822 -1160.36 -1921.18 0.380586 0.310896 -0.802878 197 187 176
22.201 -1158.36 -1920.3 0.300349 0.35766 -0.8079 188 177 166
65.4321 -1225.63 -1926.54 0.221008 0.715406 -0.314145 124 116 114
61.5468 -1219.32 -1925.89 0.163121 0.712134 -0.286474 114 107 105
56.6603 -1212.02 -1920.46 -0.261383 0.609702 -0.11899 63 60 59
-5.27724 -854.704 -1923.51 -0.457508 0.102442 -0.86785 228 180 133
-9.62578 -843.918 -1922.15 -0.505599 -0.0402625 -0.847203 230 183 136
-5.34686 -841.737 -1924.46 -0.455322 -0.0723262 -0.880896 231 183 136
-1.50916 -839.459 -1926.75 -0.430548 -0.113716 -0.888465 231 183 137
-12.6306 -833.901 -1920.62 -0.582412 -0.0292165 -0.798495 231 185 137
-7.28116 -824.404 -1926.57 -0.576451 -0.00156793 -0.79732 234 185 140
-6.7833 -820.83 -1926.99 -0.595157 0.0716387 -0.783778 233 185 141
-9.95792 -814.275 -1922.96 -0.639713 0.117908 -0.758393 236 189 143
-11.4126 -809.059 -1921.06 -0.63539 0.0982483 -0.76895 236 189 146
-2.65446 -807.817 -1927.02 -0.496045 0.168941 -0.841572 239 191 148
3.19553 -848.203 -1926.44 -0.322107 -0.0202268 -0.941209 230 179 134
51.0378 -830.173 -1927.2 0.504758 0.11508 -0.832242 218 165 120
52.8471 -826.685 -1925.21 0.591563 0.125208 -0.795612 217 165 118
35.4817 -805.194 -1926.66 0.176879 0.202318 -0.909187 236 186 145
48.7463 -811.869 -1926.62 0.38481 0.200893 -0.844601 225 173 128
45.9998 -808.124 -1926.31 0.185882 0.262287 -0.892074 229 179 135
53.9888 -803.271 -1923.12 0.402116 -0.000487165 -0.877775 225 174 128
13.1035 -439.194 -1923.62 -0.223754 -0.645774 -0.721788 209 217 237
18.7326 -436.75 -1927.98 -0.197148 -0.65755 -0.739734 212 220 240
24.1082 -442.51 -1921.52 0.00581548 -0.549898 -0.806686 197 205 225
4.97617 -433.876 -1925.75 -0.288997 -0.672156 -0.667778 208 216 235
28.9401 -437.791 -1925.59 0.0775994 -0.659199 -0.74546 208 216 236
29.148 -436.835 -1926.46 0.0866038 -0.688346 -0.729227 211 219 239
45.9075 -431.378 -1922.67 0.416476 -0.514198 -0.725182 193 201 221
46.6498 -425.911 -1926.6 0.480865 -0.552009 -0.666939 201 209 229
-48.0297 -419.345 -1925.71 0.255221 -0.825086 -0.495098 177 182 202
-42.5219 -420.983 -1920.32 0.181571 -0.840202 -0.499586 176 182 201
-36.2365 -419.371 -1921.53 0.117248 -0.847623 -0.513589 177 183 203
-30.2899 -415.61 -1927.07 0.0611302 -0.819933 -0.556072 181 188 206
-15.7188 -420.664 -1923.72 -0.301161 -0.736247 -0.57445 173 181 201
-11.7979 -421.838 -1925.44 -0.392505 -0.683053 -0.587668 179 187 206
-54.0106 -99.7934 -1924.03 -0.280938 -0.371821 -0.786002 35 52 84
-110.26 -51.8121 -1920.84 -0.157415 -0.551993 -0.803757 43 63 100
-82.2405 -77.646 -1921.55 -0.373225 -0.626608 -0.673942 39 54 89
-55.9136 -98.1964 -1923.59 -0.341171 -0.375981 -0.76614 35 52 85
-63.0236 -89.614 -1923.67 -0.534682 -0.520142 -0.646394 35 52 85
-163.538 67.0965 -1922.57 -0.488543 -0.254 -0.820058 47 69 109
-162.318 74.7171 -1924.19 -0.467609 -0.0858971 -0.862918 46 68 109
-165.578 84.5607 -1921.73 -0.527637 0.0670292 -0.841359 45 67 108
-164.459 95.2595 -1924.45 -0.642462 -0.241733 -0.710399 45 67 108
-165.449 99.4746 -1924.22 -0.69131 -0.223463 -0.692438 45 67 109
-169.971 109.681 -1922.79 -0.621344 -0.170532 -0.729596 45 67 109
-172.331 109.654 -1920.77 -0.534078 -0.116232 -0.781137 45 66 109
-168.835 113.273 -1925.55 -0.672468 -0.245142 -0.665999 45 67 110
-218.002 209.236 -1921 -0.204569 -0.0835321 -0.957089 45 70 113
-239.613 222.874 -1922.2 -0.17416 -0.0955363 -0.945445 46 70 111
-230.464 221.038 -1922.71 -0.203455 -0.133825 -0.942045 46 70 111
-217.241 213.575 -1922.96 -0.235771 -0.125312 -0.941893 45 70 113
-223.284 223.3 -1924.25 -0.16029 -0.0845065 -0.942684 48 71 112
-218.433 223.165 -1925.04 -0.164439 -0.0550802 -0.94036 47 71 113
14.6013 -261.979 -1925.94 0.19772 0.445978 -0.864176 249 251 253
25.1401 -267.056 -1927.03 0.174515 0.518216 -0.819692 251 253 254
48.1008 -285.506 -1927.61 0.461321 0.280331 -0.83495 247 252 254
53.19 -281.102 -1923.68 0.393019 0.291462 -0.845774 245 250 254
38.5289 -273.277 -1927.01 0.285656 0.467767 -0.821418 250 252 254
33.8628 -263.949 -1921.65 0.28797 0.561546 -0.771158 250 253 255
42.9308 -272.412 -1923.78 0.370783 0.482047 -0.780261 249 252 254
74.1045 -365.663 -1924.15 0.724667 0.0454987 -0.645077 229 236 247
76.3614 -358.814 -1923.18 0.653716 -0.038672 -0.68097 229 236 246
76.4217 -353.306 -1924.4 0.631566 -0.0593858 -0.702199 229 236 247
76.3941 -346.265 -1924.79 0.594956 0.0640998 -0.754543 231 239 251
70.6741 -332.33 -1926.73 0.654276 0.12677 -0.627859 239 246 253
74.2748 -332.556 -1924.13 0.621647 0.129629 -0.68433 237 244 253
67.4258 -317.887 -1922.58 0.572929 0.344716 -0.690127 244 250 254
75.91 -327.372 -1922.41 0.58174 0.185604 -0.70682 240 246 253
58.9385 -309.187 -1926.25 0.592843 0.375144 -0.68317 240 247 253
65.8228 -313.987 -1921.78 0.588459 0.346893 -0.680476 244 250 254
63.5802 -307.539 -1921.47 0.65171 0.25945 -0.694297 242 247 252
62.527 -296.9 -1921.57 0.568178 0.0333308 -0.811718 243 248 253
58.7259 -288.319 -1923.54 0.429462 0.0808321 -0.876816 242 248 254
59.326 -282.638 -1922.33 0.372417 0.174238 -0.868776 240 247 254
-45.8032 -256.376 -1927.52 0.102747 0.0694115 -0.982093 252 253 253
-36.9214 -250.796 -1926.99 0.0519198 0.172148 -0.979551 241 242 248
55.6825 65.8152 -1923.69 0.572754 -0.247739 -0.764769 40 57 91
56.9863 74.7748 -1925.96 0.553475 -0.264464 -0.764089 41 59 93
60.2748 80.1759 -1925.21 0.570172 -0.275269 -0.757456 39 56 90
62.5187 88.7482 -1924.78 0.626864 -0.164917 -0.750049 37 54 88
62.9507 94.964 -1924.97 0.643559 -0.144701 -0.743015 39 56 91
63.5781 97.3599 -1924.86 0.629574 -0.155807 -0.741089 39 57 92
68.205 109.869 -1924.96 0.559507 -0.168443 -0.767992 42 61 97
73.2259 115.849 -1923.32 0.539913 -0.226639 -0.795726 40 57 92
115.912 68.5114 -1921.12 -0.454864 0.0877136 -0.882385 43 63 99
117.563 71.9768 -1921.48 -0.486447 0.100289 -0.858519 44 63 99
140.425 136.037 -1921.9 -0.35254 0.0646913 -0.896705 38 57 92
141.691 143.704 -1921 -0.305562 0.0531913 -0.8741 38 57 91
142.314 143.864 -1921.03 -0.303748 0.0528817 -0.87398 38 57 91
-36.9752 222.109 -1927.21 -0.0205294 0.477982 -0.865884 42 66 109
-47.0436 227.351 -1924.94 0.165555 0.412159 -0.878826 40 63 104
-51.9472 234.626 -1923.67 0.230856 0.425265 -0.861229 40 63 103
-42.567 235.827 -1922.63 0.0492107 0.289984 -0.943275 36 59 101
153.055 85.9725 -1921 -0.475941 0.145811 -0.801434 45 64 99
150.778 98.7757 -1924.42 -0.458904 0.142882 -0.792582 45 64 99
158.399 102.248 -1921.1 -0.429306 0.122747 -0.654126 48 67 101
151.417 116.848 -1924.05 -0.35706 0.0884836 -0.564578 49 66 99
161.03 114.363 -1921.04 -0.237838 0.0256594 0.0160195 65 78 106
152.363 105.78 -1923.75 -0.443379 0.134876 -0.736894 46 65 100
160.696 124.114 -1921.42 -0.204904 0.00769785 -0.0953351 60 74 102
158.133 125.493 -1922.07 -0.233072 0.0217916 -0.285537 55 70 100
151.892 141.367 -1921.68 -0.280602 0.0440079 -0.75957 41 59 92
156.473 139.108 -1921.75 -0.254204 0.030948 -0.597788 45 62 95
159.65 139.246 -1921.4 -0.234492 0.02039 -0.457754 49 65 96
152.998 145.787 -1921.07 -0.286472 0.0440127 -0.753566 41 59 93
-50.5001 253.091 -1925.84 0.12702 0.365168 -0.884248 43 66 108
-46.4881 254.236 -1926.04 0.0502703 0.321968 -0.911226 42 66 108
-28.5679 258.392 -1929.6 -0.163585 0.300532 -0.902819 41 66 109
-32.0666 252.329 -1926.39 -0.103897 0.27676 -0.932807 39 64 106
-19.8145 255.519 -1930.69 -0.300702 0.319668 -0.867147 40 65 109
-12.9232 253.689 -1932.2 -0.359019 0.329092 -0.853409 40 66 110
-9.04297 251.75 -1932.79 -0.38524 0.334334 -0.850862 41 67 112
-95.7138 -935.133 -1916.72 0.455793 -0.15304 -0.853927 200 148 102
-95.8345 -924.033 -1919.15 0.235562 -0.15487 -0.933295 203 150 104
-93.4105 -927.282 -1917.18 0.381043 -0.192854 -0.88273 202 150 104
-89.4234 -921.684 -1917.24 0.33402 -0.246659 -0.899915 203 151 104
-85.5179 -921.816 -1915.8 0.39202 -0.284059 -0.87601 204 150 104
-86.9518 -910.64 -1919.22 0.323726 -0.197277 -0.924446 207 154 108
-80.1605 -910.864 -1916.14 0.442087 -0.193783 -0.879789 207 154 109
-162.854 -833.669 -1915.35 -0.703161 0.0564427 -0.623073 194 149 107
-153.2 -905.041 -1919 -0.432388 -0.0996388 -0.906771 203 151 106
-153.424 -897.151 -1920.12 -0.492865 -0.0897737 -0.868285 203 150 102
-156.617 -887.598 -1915.78 -0.575482 -0.0603841 -0.834987 202 152 104
-134.677 -886.589 -1914.54 0.0293754 -0.18278 -0.573387 182 145 116
-154.627 -879.999 -1920.45 -0.53992 -0.116023 -0.827986 208 155 106
-138.135 -877.024 -1914.41 -0.299729 -0.131569 -0.65787 199 153 113
-135.203 -875.751 -1915.13 -0.500575 -0.163648 -0.364 192 151 116
-157.931 -857.194 -1915.2 -0.53815 -0.0135694 -0.731225 210 160 114
-137.546 -868.08 -1914.91 -0.716422 -0.18959 -0.369225 199 154 114
-140.667 -858.024 -1914.04 -0.864225 -0.177991 0.0232608 192 151 119
-124.224 -680.19 -1915.5 -0.517948 -0.326676 -0.727137 174 171 178
-110.647 -688.961 -1914.95 -0.0057108 -0.0733356 -0.986327 214 194 184
-120.308 -682.727 -1915.86 -0.428213 -0.282969 -0.792773 161 156 161
-107.817 -682.128 -1915.88 0.0388322 -0.185394 -0.972914 222 214 218
-124.446 -675.933 -1917.16 -0.448472 -0.329805 -0.793588 194 193 202
-125.74 -669.194 -1919.33 -0.401154 -0.242898 -0.867174 223 223 233
-114.587 -676.777 -1918.5 -0.122188 -0.303271 -0.908809 219 219 232
-109.72 -678.583 -1917.09 0.00195046 -0.252851 -0.94215 220 218 227
-135.391 -665.741 -1914.17 -0.400049 -0.231423 -0.87424 216 217 225
-130.615 -665.135 -1917.21 -0.441119 -0.1962 -0.853727 223 224 234
-133.377 -654.629 -1915.59 -0.565836 0.104153 -0.816758 234 236 252
-126.211 -655.403 -1919.6 -0.360339 0.0614905 -0.912707 239 241 253
-108.674 -656.445 -1920.61 0.0592465 0.0905444 -0.981881 238 240 254
-130.631 -646.81 -1917.14 -0.452543 -0.000264429 -0.858361 232 234 249
-132.86 -642.779 -1916.71 -0.418593 -0.0913505 -0.852286 226 228 244
-123.101 -646.791 -1919.66 -0.269388 -0.0177435 -0.937536 234 236 252
-111.065 -649.075 -1920.73 -0.040961 -0.0472211 -0.979629 232 235 252
-103.065 -693.424 -1914.26 0.108457 -0.085621 -0.991972 231 195 169
-101.293 -684.9 -1914.91 0.0881391 -0.139287 -0.988693 226 211 207
-93.7856 -684.795 -1914.01 0.138056 -0.12737 -0.979101 220 205 200
-99.8841 -679.413 -1915.74 0.102693 -0.20486 -0.972801 230 225 232
-102.683 -669.335 -1918.72 0.132399 -0.243031 -0.95521 239 242 255
-98.0693 -669.343 -1918.03 0.13508 -0.235038 -0.959425 238 241 255
-92.0764 -670.387 -1916.92 0.137272 -0.244781 -0.960441 237 239 253
-85.9489 -672.815 -1915.09 0.198924 -0.25434 -0.945152 235 237 252
-101.885 -663.475 -1919.5 0.116885 -0.118552 -0.970054 240 243 255
-104.909 -658.23 -1920.31 0.0836045 0.0287083 -0.981391 240 242 255
-95.3709 -658.139 -1919.25 0.102241 -0.0726865 -0.98188 242 244 255
-84.054 -662.754 -1916.72 0.264832 -0.0830346 -0.932706 242 244 255
-89.0427 -658.614 -1917.96 0.182729 -0.0372675 -0.958271 243 245 255
-101.568 -650.562 -1920.37 0.0374408 -0.063723 -0.988253 236 238 254
-97.8376 -642.18 -1920.31 0.228872 -0.025386 -0.964373 234 236 253
-88.3322 -653.013 -1916.61 0.258037 0.0860413 -0.93661 240 242 254
-87.2856 -640.647 -1914.55 0.509541 -0.0689348 -0.859671 238 240 255
-34.055 -1163.33 -1913.7 -0.223514 -0.537753 -0.506107 108 105 102
-32.9636 -1154.25 -1918.76 0.0630858 0.0173817 -0.637436 152 143 138
-24.4902 -1179.81 -1916.53 -0.647261 0.566651 -0.461671 178 159 136
-16.1692 -1174.71 -1918.69 -0.553655 0.624074 -0.551105 208 182 149
-12.155 -1171.24 -1918.22 -0.524166 0.641189 -0.561797 215 183 146
-2.76583 -1166.66 -1917.79 -0.215614 0.801184 -0.507707 214 176 139
-40.3923 -1146.59 -1919.69 0.382014 0.405808 -0.763271 203 181 163
-30.0547 -1151.77 -1913.94 0.0933672 0.0065174 -0.702794 159 145 134
-37.6702 -1144.61 -1917.58 0.32351 0.373446 -0.767126 200 176 155
-44.7903 -1139.59 -1920.04 0.511997 0.373023 -0.715984 199 175 150
-49.2702 -1126.63 -1916.28 0.33491 0.1831 -0.676443 183 144 106
-38.2945 -1134.94 -1914.1 0.228625 0.196023 -0.742475 199 165 130
6.6735 -1167.5 -1916.4 0.290057 0.770433 -0.481572 212 182 148
20.3926 -1180.81 -1917.56 0.757486 0.231455 -0.412731 214 195 176
20.5966 -1176.74 -1917.18 0.642116 0.302634 -0.499394 217 194 169
14.2067 -1171.6 -1916.29 0.556671 0.547093 -0.488032 221 192 158
15.389 -1165.31 -1919.74 0.417044 0.476835 -0.539092 205 183 156
19.516 -1156.95 -1917.77 0.237142 0.409375 -0.78241 187 173 158
30.6081 -1173.76 -1916.2 0.494116 0.377845 -0.736354 214 198 180
28.3443 -1167.62 -1920.84 0.495695 0.376947 -0.766602 207 204 199
29.8609 -1161.68 -1919.29 0.47118 0.312886 -0.789909 209 200 191
34.1176 -1159.98 -1916.42 0.497564 0.286101 -0.800448 212 202 192
36.9343 -1156.96 -1914.25 0.511301 0.317217 -0.7932 216 206 195
26.039 -1153.8 -1917.53 0.315367 0.426878 -0.773443 203 189 174
59.9431 -1207.5 -1917.44 0.110725 0.660176 -0.31105 116 109 108
65.6835 -1208.8 -1919.65 0.224628 0.68285 -0.358064 130 122 121
-3.67054 -657.727 -1914.62 -0.394156 -0.128972 -0.892731 238 242 250
-0.467145 -644.283 -1917.01 -0.428699 0.0428831 -0.879857 236 240 252
19.4848 -674.523 -1915.05 -0.243026 -0.27458 -0.917814 227 228 243
19.5758 -670.924 -1916.22 -0.233492 -0.293863 -0.917673 228 232 248
25.1439 -669.619 -1917.83 -0.15793 -0.297833 -0.924852 227 232 250
29.5264 -680.198 -1914.29 0.129393 -0.251389 -0.947052 225 220 227
33.6159 -668.585 -1917.73 0.0864764 -0.346395 -0.904758 225 231 254
40.9634 -671.637 -1914.03 0.316308 -0.44431 -0.827941 221 227 251
8.38503 -665.063 -1915.83 -0.167481 -0.357844 -0.911359 233 238 255
4.55013 -657.296 -1917.82 -0.248147 -0.242213 -0.91488 237 243 253
12.5492 -656.802 -1919 -0.145436 -0.233026 -0.940211 235 242 254
23.8213 -661.573 -1919.83 -0.150498 -0.177552 -0.963154 231 237 251
19.5312 -657.829 -1919.7 -0.127186 -0.170666 -0.963678 234 241 253
2.25233 -650.933 -1918.24 -0.337388 -0.0943273 -0.903987 238 242 252
9.52298 -649.563 -1920.15 -0.155789 -0.0730484 -0.955594 236 241 252
4.51811 -642.012 -1918.77 -0.29082 0.103445 -0.928188 234 239 252
15.9686 -647.325 -1919.95 -0.04789 -0.0381158 -0.987062 231 237 252
24.9459 -649.931 -1919.88 -0.0366289 -0.0260656 -0.999247 230 237 253
20.5749 -643.899 -1919.94 -0.0352912 -0.01992 -0.996924 227 233 252
33.4483 -663.43 -1919.21 0.0795804 -0.229151 -0.940017 227 233 253
28.1149 -653.978 -1920.17 -0.0355757 -0.0173477 -0.99927 230 237 253
39.7631 -652.998 -1917.29 0.30168 0.00778699 -0.942636 229 236 254
43.2012 -656.916 -1915.3 0.444656 -0.0728264 -0.876757 229 235 254
34.2498 -653.701 -1919.23 0.12034 -0.00713258 -0.981762 229 236 253
27.0228 -643.2 -1919.88 -0.00455501 -0.0103219 -1.00299 226 233 253
39.8699 -641.835 -1917.39 0.232898 -0.0327284 -0.961907 224 231 252
43.3251 -642.777 -1915.79 0.343761 -0.0519958 -0.922788 223 230 251
-4.29123 -638.728 -1914.45 -0.481767 0.0522201 -0.865594 237 241 253
-3.51228 -626.063 -1914.57 -0.342239 0.0401093 -0.936882 235 241 254
57.9166 -420.759 -1920.72 0.402954 -0.492722 -0.767217 205 213 233
67.3068 -413.938 -1919.67 0.469713 -0.432163 -0.744872 206 214 233
72.7436 -413.193 -1914.96 0.535944 -0.328271 -0.768818 199 207 227
74.3784 -406.429 -1917.58 0.598393 -0.356788 -0.711962 215 223 240
79.9568 -401.777 -1914.46 0.629753 -0.358538 -0.69296 219 227 243
81.3327 -393.089 -1916.34 0.690663 -0.262506 -0.591191 233 241 251
80.0224 -380.875 -1918.38 0.705269 -0.0185981 -0.551502 233 242 250
81.4323 -395.892 -1915.72 0.677505 -0.322609 -0.633829 231 239 251
81.6359 -374.146 -1916.07 0.686055 0.0124954 -0.620563 232 240 250
-190.044 -350.616 -1914.38 -0.777042 0.0972586 -0.604869 249 250 254
-186.997 -359.425 -1918.56 -0.766537 0.0664799 -0.631375 246 248 253
-186.254 -356.911 -1919.55 -0.757904 0.0643187 -0.644525 243 246 252
-146.67 -148.98 -1919.38 -0.81681 0.25554 -0.467965 54 65 97
-143.715 -141.713 -1919.49 -0.845262 0.372959 -0.408578 58 65 95
-141.153 -137.861 -1920.08 -0.841659 0.411555 -0.408909 59 63 91
-124.143 -146.865 -1920.19 0.293636 0.830549 -0.451335 58 81 124
-125.352 -145.12 -1915.72 0.273404 0.842644 -0.431825 57 79 122
-111.795 -153.112 -1920.61 0.276129 0.890255 -0.381284 55 80 122
-143.851 -18.2739 -1915.42 -0.491611 -0.175332 -0.828926 46 67 104
-139.482 -15.0527 -1918.44 -0.451365 -0.198517 -0.853386 45 67 104
-144.075 -8.39664 -1917.04 -0.455956 -0.129858 -0.865978 45 67 104
-150.575 -2.10397 -1915.21 -0.477095 -0.179039 -0.849368 46 68 105
-154.417 7.56936 -1914.3 -0.526239 -0.118555 -0.828141 45 67 104
-139.948 -4.55783 -1918.95 -0.442246 -0.0488936 -0.88147 43 66 102
-144.489 1.71829 -1918.44 -0.38664 -0.154217 -0.89963 45 67 104
-151.743 12.3796 -1917.14 -0.466443 -0.194606 -0.832302 44 66 103
-153.47 17.7252 -1917.51 -0.44198 -0.231526 -0.823783 44 65 102
-146.688 14.3247 -1920.52 -0.448233 -0.180497 -0.84376 44 66 103
-154.839 23.9946 -1918.99 -0.420343 -0.232457 -0.847531 44 66 103
-156.264 32.5998 -1920.32 -0.460683 -0.12696 -0.876007 44 66 105
-160.851 41.2917 -1918.38 -0.487122 -0.0946109 -0.863372 45 67 107
-241.764 182.687 -1914.89 -0.235404 -0.200582 -0.930327 39 63 105
-218.191 176.236 -1914.09 -0.331478 -0.210347 -0.910391 41 65 108
-219.045 182.954 -1916.4 -0.309032 -0.249305 -0.909312 39 63 107
-231.411 190.818 -1917.3 -0.231698 -0.203291 -0.932123 39 62 104
-235.848 192.156 -1917.09 -0.237978 -0.204159 -0.929981 40 63 105
-227.351 187.359 -1916.5 -0.242628 -0.212216 -0.928883 39 62 104
-220.296 190.608 -1919.52 -0.197327 -0.219961 -0.946331 37 60 103
-224.008 191.365 -1918.88 -0.205051 -0.195053 -0.943836 37 60 102
-237.506 203.746 -1918.91 -0.232951 -0.17145 -0.939787 43 67 109
-243.196 207.067 -1919.35 -0.237679 -0.170512 -0.938639 44 68 110
-229.608 209.372 -1919.68 -0.21991 -0.144871 -0.950829 44 68 110
-227.7 203.694 -1919.67 -0.182446 -0.110551 -0.963038 41 65 106
-222.664 207.274 -1919.95 -0.178062 -0.0816244 -0.967353 43 67 109
-239.261 211.341 -1919.83 -0.24096 -0.167947 -0.942488 45 69 110
-214.541 174.409 -1915.37 -0.335058 -0.184452 -0.912792 42 66 108
-204.391 172.903 -1919.14 -0.382958 -0.182647 -0.881284 47 70 114
-210.435 182.168 -1919.74 -0.379392 -0.251014 -0.880875 42 67 110
-215.565 202.305 -1920.93 -0.181053 -0.0202857 -0.970035 44 69 113
-219.679 240.369 -1920.17 0.162817 0.257593 -0.943726 56 78 118
-222.647 246.704 -1919.18 0.126269 0.228161 -0.951009 54 76 117
-211.034 234.977 -1919.23 0.15227 0.426815 -0.879113 48 71 115
-200.591 229.687 -1919.47 0.139235 0.561494 -0.824175 49 74 122
-197.795 232.941 -1917.41 0.117278 0.574186 -0.814909 51 76 124
-192.845 234.317 -1917.2 0.0473067 0.551954 -0.821581 54 79 126
-214.896 242.592 -1917.85 0.150926 0.343168 -0.908152 53 75 118
-215.892 246.001 -1917.51 0.13633 0.317382 -0.916371 53 76 118
-206.259 245.752 -1915.53 0.126921 0.498274 -0.845873 51 75 121
59.8769 -149.695 -1918.02 0.0260206 0.129933 -0.974381 47 64 99
60.151 -145.495 -1917.71 -0.0121698 0.047942 -0.976188 46 63 98
63.6429 -144.831 -1918.65 -0.0951561 -0.00520477 -0.96823 46 63 97
68.428 -142.595 -1920.31 -0.236412 -0.107024 -0.952929 46 63 96
63.6393 -136.761 -1919.95 -0.133197 -0.173694 -0.947146 41 58 91
90.5657 -146.927 -1916.4 0.439977 -0.22382 -0.827904 42 55 88
89.279 -143.36 -1919.6 0.325053 -0.235691 -0.893504 42 56 89
91.4887 -136.936 -1920.74 0.416446 -0.273801 -0.817884 43 56 89
95.7873 -130.905 -1914.47 0.780419 -0.246705 -0.445313 42 56 88
100.227 -114.146 -1919.97 0.710479 -0.298647 -0.546463 42 56 88
100.874 -112.585 -1917.58 0.79242 -0.280076 -0.435329 41 56 88
83.8669 145.898 -1919.96 0.646936 -0.159568 -0.723351 40 58 94
86.8639 156.27 -1916.29 0.691457 0.0542418 -0.714208 39 58 92
85.5256 161.985 -1917.55 0.709871 -0.0382465 -0.682473 40 58 93
85.6354 165.348 -1918.18 0.710776 -0.0888317 -0.675605 40 59 94
128.699 118.565 -1919.26 -0.750319 0.0990426 -0.654207 46 65 98
123.386 127.776 -1914.62 -0.643472 -0.052297 -0.753459 43 62 95
132.499 125.979 -1921.03 -0.656047 0.0644083 -0.710227 44 63 96
129.203 131.537 -1918.42 -0.592084 0.0313551 -0.774733 43 62 95
128.652 136.222 -1917.64 -0.515903 0.0629835 -0.831792 42 61 95
134.574 143.64 -1918.84 -0.425819 0.114123 -0.866498 40 59 94
130.389 149.188 -1915.91 -0.476391 0.187149 -0.858906 40 59 93
133.632 152.513 -1916.39 -0.46274 0.190612 -0.851582 41 60 95
134.242 164.403 -1914.83 -0.576388 0.14245 -0.806291 41 61 97
143.515 149.247 -1920.16 -0.334799 0.0761876 -0.889591 38 57 92
142.525 156.804 -1918.72 -0.366705 0.0977874 -0.869252 39 58 93
137.672 159.659 -1916.86 -0.469075 0.142553 -0.836712 41 60 95
135.875 164.653 -1915.6 -0.56227 0.125613 -0.807168 41 61 97
143.72 163.861 -1917.78 -0.38046 0.0774587 -0.857204 39 58 93
81.1831 284.729 -1916 0.504954 0.422977 -0.746521 85 102 134
78.3754 289.217 -1915.24 0.490223 0.440161 -0.756335 89 105 135
72.075 294.203 -1917.18 0.487535 0.425518 -0.768012 93 109 137
82.4205 279.225 -1919.09 0.562926 0.291975 -0.746641 77 97 132
-83.8055 -934.433 -1909.14 0.554942 -0.291919 -0.781527 200 147 102
-81.0803 -925.138 -1912.59 0.46052 -0.351773 -0.835482 204 149 103
-80.4144 -926.591 -1911.34 0.470392 -0.356301 -0.822576 202 148 103
-73.6087 -917.744 -1910.11 0.543235 -0.247797 -0.738834 200 148 106
-71.4155 -912.301 -1909.21 0.524131 -0.203444 -0.728495 196 146 108
-155.284 -905.754 -1911.51 -0.43306 -0.0964706 -0.90351 202 151 107
-156.007 -896.549 -1910.41 -0.601832 -0.0970109 -0.72339 203 152 107
-153.586 -901.881 -1909.45 -0.510856 -0.0594813 -0.801641 201 151 107
-135.155 -906.797 -1909.3 -0.7423 0.375035 0.191461 190 148 116
-147.638 -900.029 -1908.16 -0.521945 0.062404 -0.56538 198 150 107
-140.503 -897.717 -1909.84 -0.486489 0.223027 -0.18726 191 148 112
-153.974 -894.608 -1907.71 -0.593296 -0.0885112 -0.694921 202 152 107
-153.859 -884.381 -1908.3 -0.53525 -0.0675296 -0.808728 200 151 105
-146.958 -894.561 -1908.28 -0.469308 0.0514459 -0.554008 196 149 108
-141.569 -887.991 -1911.01 -0.0203289 -0.0761985 -0.681717 188 147 112
-138.939 -886.982 -1912.67 0.0809846 -0.124686 -0.680332 186 146 114
-135.101 -901.988 -1910.07 -0.696723 0.368455 0.133846 189 148 115
-133.442 -890.572 -1912.65 -0.111483 -0.139823 -0.565983 185 146 115
-130.129 -883.521 -1908.5 -0.847698 -0.0882473 -0.166874 191 148 115
-153.047 -876.813 -1908.93 -0.545001 -0.0821541 -0.829184 203 153 105
-158.113 -869.737 -1912.77 -0.661676 -0.0614419 -0.771724 206 154 105
-143.605 -878.943 -1911.52 -0.189544 -0.110437 -0.856096 200 153 110
-145.95 -869.746 -1911.71 -0.561575 -0.0820278 -0.737753 208 157 108
-156.087 -868.263 -1910.88 -0.640844 -0.0541563 -0.759073 206 155 106
-157.444 -861.528 -1912.17 -0.586446 -0.00317335 -0.719309 208 158 111
-144.681 -867.684 -1912.71 -0.59173 -0.0992344 -0.608764 206 156 110
-146.208 -862.72 -1912.33 -0.689993 -0.132296 -0.336693 199 154 114
-141.321 -857.353 -1913.9 -0.858367 -0.159614 0.0210901 192 152 119
-132.375 -871 -1912.21 -0.904858 -0.219912 -0.0453218 191 150 117
-150.541 -767.414 -1909.18 -0.686593 0.304321 -0.576722 225 180 142
-141.444 -774.854 -1909.17 -0.634151 0.261834 -0.608669 235 188 146
-142.971 -766.497 -1907.51 -0.570666 0.2599 -0.67046 237 192 152
-149.92 -760.455 -1907.41 -0.740161 0.247968 -0.569778 225 181 144
-144.39 -759.674 -1914.09 -0.494198 0.272356 -0.831118 246 200 161
-143.933 -749.889 -1910.03 -0.340456 0.272867 -0.849696 239 194 156
-134.245 -769.454 -1907.65 -0.753261 0.281507 -0.494249 231 184 139
-78.4405 -799.906 -1912.95 0.689909 0.0933784 -0.712642 229 177 134
-79.1963 -791.035 -1913.9 0.732735 0.00532689 -0.678788 230 179 136
-78.3332 -776.343 -1911.54 0.646171 0.189009 -0.71777 229 179 136
-81.8693 -763.417 -1912 0.584214 0.153407 -0.785313 234 185 142
-81.4816 -759.115 -1910.43 0.606503 0.157803 -0.760204 230 182 138
-81.2339 -749.86 -1907.99 0.428044 0.0682129 -0.841534 224 177 135
-77.5378 -774.517 -1910.22 0.659069 0.171086 -0.70839 227 178 135
-79.5558 -759.73 -1908.59 0.641387 0.155638 -0.737625 230 181 138
-135.643 -746.95 -1913.11 -0.342389 0.402014 -0.837593 244 199 159
-137.909 -729.523 -1907.22 -0.452253 0.0981736 -0.72077 240 197 160
-132.801 -743.633 -1914.14 -0.411539 0.346849 -0.819874 237 194 158
-134.734 -730.68 -1910.57 -0.415256 0.11787 -0.822751 234 194 159
-131.637 -725.683 -1912.84 -0.416007 0.113655 -0.85421 226 189 158
-151.689 -568.371 -1912.74 -0.261419 -0.0158483 -0.941244 213 219 229
-156.333 -563.112 -1911.64 -0.216169 -0.127538 -0.948987 227 234 245
-160.674 -552.36 -1911.13 -0.291425 -0.051935 -0.931147 228 235 245
-152.381 -552.594 -1913.88 -0.214844 -0.0938134 -0.954547 233 240 249
-154.319 -550.815 -1913.38 -0.246744 -0.0600203 -0.94604 230 237 247
-155.255 -539.256 -1912.74 -0.304353 0.0471158 -0.943338 237 242 251
-160.041 -536.05 -1911.17 -0.318821 0.064403 -0.934022 229 234 245
-93.3776 -584.673 -1911.3 0.509447 -0.0191533 -0.841015 229 234 252
-90.3167 -584.209 -1909.23 0.496734 0.00773107 -0.850522 230 234 252
-87.5618 -575.878 -1908.55 0.543904 -0.0764838 -0.831242 229 233 252
-88.3365 -566.913 -1909.92 0.609831 -0.0530083 -0.786216 228 231 251
-88.3608 -564.533 -1909.95 0.623171 -0.0332134 -0.776825 228 231 251
-87.695 -553.581 -1908.05 0.658104 0.0991257 -0.744449 237 241 253
-93.3816 -548.913 -1912.27 0.500155 0.169958 -0.842733 242 246 255
-94.5902 -542.494 -1911.71 0.469084 0.171994 -0.858653 239 243 254
-94.7603 -539.745 -1911.28 0.460376 0.169751 -0.863775 237 241 254
-89.7071 -535.871 -1907.79 0.541901 0.137865 -0.815616 232 236 252
-159.602 -531.625 -1911.29 -0.320521 0.060247 -0.935946 228 232 243
-157.184 -519.73 -1913.5 -0.416893 -0.0906141 -0.894298 212 216 232
-160.873 -511.246 -1912.83 -0.349538 -0.130695 -0.901902 213 217 231
-30.1776 -1154.29 -1911.41 -0.0438878 -0.262011 -0.643654 138 127 118
-22.2825 -1174.25 -1908.71 -0.681809 0.579788 -0.314617 182 145 111
-16.0022 -1167.94 -1909.85 -0.614945 0.617161 -0.431915 201 155 116
-9.47044 -1163.19 -1912.06 -0.472756 0.600944 -0.607897 203 157 120
-9.57094 -1154.35 -1906.36 -0.546346 0.455972 -0.565562 206 159 123
-0.430707 -1155.9 -1911.39 -0.0885414 0.382452 -0.766881 203 160 126
-30.2008 -1141.89 -1912.23 0.298849 0.421762 -0.847863 210 181 156
-30.8298 -1138.17 -1911.3 0.305023 0.41032 -0.866975 215 183 151
-34.0696 -1126.77 -1910.46 0.257082 0.214362 -0.850582 202 160 117
-29.6985 -1128.71 -1909.14 0.279068 0.291419 -0.885923 211 170 129
-5.1062 -1148.33 -1908.14 0.0247562 0.328441 -0.594437 207 162 128
-25.2472 -1137.46 -1907.28 0.171699 0.347182 -0.849969 206 171 141
14.7686 -1173.44 -1910.93 0.604319 0.494235 -0.56719 221 190 154
15.3761 -1171.49 -1908.18 0.653582 0.421355 -0.599403 222 190 154
5.01551 -1165.68 -1913.64 0.24897 0.73877 -0.587375 206 172 139
11.2748 -1165.96 -1908.87 0.5603 0.466085 -0.638121 216 182 146
9.44201 -1159 -1908.18 0.464417 0.365801 -0.755866 211 173 138
24.6444 -1165.61 -1910.34 0.419473 0.360384 -0.734214 210 189 164
19.8398 -1156.14 -1907.41 0.374963 0.346714 -0.736507 199 173 147
35.8147 -1173.43 -1911.68 0.489276 0.351847 -0.798448 213 205 194
40.5592 -1167.61 -1913.09 0.527324 0.297392 -0.805951 214 206 196
41.8589 -1173.75 -1911.28 0.501688 0.330978 -0.784414 212 205 195
41.2017 -1171.37 -1912.04 0.510323 0.325523 -0.798801 214 206 197
38.6639 -1165.96 -1914.43 0.518888 0.284124 -0.815517 213 205 196
45.769 -1162.21 -1908.98 0.646307 0.33585 -0.66988 217 208 195
41.6839 -1158.97 -1911.34 0.594744 0.310542 -0.729768 216 206 194
4.99106 -1149.92 -1908.75 0.426802 0.290579 -0.641546 208 164 131
18.9722 -1149.25 -1909.52 0.240634 0.564444 -0.691885 212 187 163
22.2088 -1145.17 -1910.01 0.175932 0.721566 -0.651036 224 200 176
40.0841 -1150.04 -1907.19 0.595214 0.554175 -0.52928 224 209 192
29.113 -1146.09 -1911.07 0.274657 0.697289 -0.643401 226 207 186
-12.4399 -665.713 -1910.13 -0.406108 -0.0537804 -0.886492 238 241 252
-13.2508 -659.991 -1909.79 -0.447285 0.0519472 -0.88246 239 244 252
-4.22069 -665.697 -1913.02 -0.280211 -0.159402 -0.926664 237 240 250
-4.45408 -659.639 -1914.09 -0.375473 -0.125084 -0.901227 238 242 250
-10.2397 -649.148 -1911.46 -0.523798 0.0179833 -0.849312 236 241 250
-7.43817 -646.381 -1913.43 -0.559737 -0.0225457 -0.830093 234 239 251
2.7695 -694.327 -1909.71 -0.217473 0.0774715 -0.948115 237 198 169
10.8257 -693.164 -1910.91 -0.176025 0.0576381 -0.963341 238 198 171
11.1158 -682.63 -1910.62 -0.193121 -0.11219 -0.943639 230 209 203
18.2942 -690.821 -1912.37 -0.115955 0.0231672 -0.975399 236 199 175
15.203 -679.391 -1912.31 -0.239583 -0.178799 -0.93167 228 217 221
21.3981 -686.301 -1912.89 -0.12195 -0.0432464 -0.967639 230 203 188
5.24359 -677.611 -1910.57 -0.124083 -0.24263 -0.94657 229 218 221
0.898441 -672.701 -1911.68 -0.117561 -0.30523 -0.944699 229 227 237
15.0323 -677.706 -1912.67 -0.243862 -0.215581 -0.92448 228 221 228
33.6107 -693.012 -1909.59 0.30082 0.104929 -0.924289 232 193 163
27.7658 -686.955 -1912.39 0.0920449 -0.0584018 -0.974586 229 199 180
36.0727 -686.651 -1908.94 0.369617 -0.0849603 -0.90356 226 202 187
40.2297 -675.904 -1911.85 0.32855 -0.417582 -0.834494 219 225 246
46.6459 -668.5 -1908.56 0.656415 -0.315224 -0.649406 222 224 242
47.4032 -664.938 -1909.14 0.700109 -0.274245 -0.633011 223 230 252
50.4377 -656.562 -1908.11 0.605476 -0.191589 -0.746792 228 236 252
53.2187 -647.093 -1908.89 0.543564 -0.0254346 -0.836063 223 231 250
50.0916 -642.142 -1911.88 0.523803 -0.0460626 -0.839097 220 228 248
-16.9026 -634.915 -1908.13 -0.567764 -0.0639037 -0.822164 239 245 255
-9.90565 -637.782 -1911.8 -0.533283 -0.0077615 -0.845173 239 244 254
-10.7601 -629.067 -1911.39 -0.50289 0.0411699 -0.857241 236 241 252
-13.4125 -616.19 -1908.25 -0.202391 -0.0613692 -0.891709 219 223 230
-5.84518 -623.9 -1913.59 -0.397017 0.0404078 -0.915381 237 244 255
-5.29022 -616.026 -1913.04 -0.461586 0.0231219 -0.878372 236 244 255
81.6421 -420.426 -1908.65 0.345084 -0.065074 -0.905211 216 224 242
77.6394 -414.795 -1910.98 0.51094 -0.228689 -0.81732 204 212 231
79.7893 -408.815 -1911.23 0.541264 -0.267617 -0.784583 206 215 232
84.4321 -423.301 -1907.95 0.237914 0.0217487 -0.949243 223 231 249
86.21 -416.649 -1907.71 0.219991 -0.0170606 -0.955668 218 226 244
84.371 -398.821 -1911.45 0.660559 -0.318536 -0.689937 221 229 244
73.4844 -392.279 -1906.93 0.636752 -0.342067 0.423203 179 186 202
85.4274 -390.54 -1912.22 0.711725 -0.168594 -0.628011 234 243 251
87.7532 -385.037 -1910.13 0.721152 -0.0447597 -0.660019 238 247 253
85.519 -381.473 -1912.61 0.691468 -0.0261639 -0.590589 235 244 251
86.7852 -374.569 -1911.3 0.651609 0.0287112 -0.664998 234 243 252
-190.164 -363.611 -1913.93 -0.797279 0.0820326 -0.574809 250 251 254
-192.676 -354.575 -1907.87 -0.827635 -0.00371723 -0.489744 238 242 251
-192.848 -344.852 -1909.23 -0.821703 0.0640224 -0.537324 243 246 252
-123.566 -85.6086 -1908.82 -0.352269 -0.266408 -0.891055 37 57 94
-133.49 -73.2386 -1908.1 -0.384496 -0.250264 -0.888242 38 59 95
-120.261 -81.0616 -1911.07 -0.29293 -0.247667 -0.911482 36 56 93
-110.249 -86.4125 -1910.75 -0.0591649 -0.15813 -0.974967 40 57 95
-112.735 -72.7992 -1912.83 -0.101538 -0.185732 -0.952045 36 53 92
-139.373 -66.9694 -1907.69 -0.321368 -0.153709 -0.927722 42 63 99
-136.538 -64.2886 -1908.89 -0.322815 -0.149874 -0.930794 41 62 98
-136.331 -53.6402 -1910.48 -0.309719 -0.158877 -0.92127 43 63 99
-140.696 -49.853 -1909.84 -0.307775 -0.19002 -0.915818 44 66 102
-134.07 -68.4945 -1908.99 -0.350377 -0.193475 -0.912829 39 61 96
-122.235 -70.1389 -1912.82 -0.282143 -0.179559 -0.930858 35 56 92
-131.66 -63.8839 -1910.7 -0.341927 -0.162895 -0.921105 39 60 95
-118.752 -69.9449 -1913.31 -0.191622 -0.162469 -0.9506 35 55 92
-110.009 -67.9423 -1913.08 -0.0249858 -0.160573 -0.961956 34 51 90
-132.588 -57.4282 -1911.26 -0.330234 -0.148349 -0.920208 41 61 96
-106.612 -96.2554 -1909.47 -0.18438 -0.104024 -0.963722 43 59 97
-98.0702 -94.5883 -1910.67 -0.106502 0.0456727 -1.00345 43 57 95
-96.0436 -87.8964 -1911.27 -0.133436 -0.0869025 -0.961817 40 55 92
-92.4098 -98.2924 -1911.38 -0.104869 0.0722305 -0.997782 41 56 93
-89.7195 -88.5923 -1911.74 -0.129122 -0.0993701 -0.952472 37 52 89
-81.4578 -86.3923 -1913.01 -0.131428 -0.319422 -0.889373 31 48 83
-102.765 -83.9456 -1911.16 -0.0338391 -0.119827 -0.976879 40 55 93
-105.294 -78.0558 -1912.19 -0.0943974 -0.215077 -0.934883 38 53 91
-97.4818 -78.3822 -1912.92 -0.211264 -0.316152 -0.871825 38 52 89
-77.1987 -97.6079 -1911.16 0.0466497 0.010381 -0.975346 32 49 84
-69.1389 -98.8151 -1912.08 -0.110165 -0.151075 -0.904895 31 48 82
-67.4807 -99.1246 -1912.62 -0.170338 -0.200203 -0.880412 32 49 82
4.98812 -152.168 -1911.37 -0.0765255 0.289575 -0.93355 40 57 94
6.83544 -140.533 -1911.42 -0.158391 -0.074484 -0.961588 32 49 84
11.0324 -145.427 -1911.72 -0.208656 0.0577574 -0.961916 35 52 88
14.7998 -141.323 -1912.69 -0.224447 -0.0134689 -0.972965 33 50 86
7.23667 -139.152 -1911.95 -0.159127 -0.1415 -0.95295 32 48 83
93.9591 -147.268 -1909.34 0.707975 -0.300041 -0.578297 44 57 89
94.7987 -144.214 -1909.34 0.753381 -0.292202 -0.55619 44 57 88
95.2676 -133.962 -1911.84 0.762144 -0.242407 -0.524794 41 56 87
97.1966 -124.326 -1913.49 0.819541 -0.268644 -0.3462 42 56 88
98.6971 -118.799 -1912.28 0.8657 -0.288893 -0.263699 42 55 88
102.418 -107.784 -1908.17 0.897819 -0.269454 -0.221021 43 56 89
134.823 14.6171 -1909.22 0.801788 -0.260578 -0.46816 34 49 77
137 14.1033 -1909.56 0.739979 -0.22134 -0.556674 37 51 79
140.636 17.4863 -1909.68 0.633577 -0.157019 -0.704456 41 57 83
142.48 17.0639 -1909.82 0.591116 -0.134023 -0.758643 43 58 84
150.293 16.9692 -1911.98 0.463869 -0.082513 -0.894281 47 61 86
148.381 24.6951 -1911.58 0.504784 -0.0965235 -0.859156 46 61 86
142.193 32.845 -1910.92 0.583204 -0.123757 -0.801696 46 61 88
138.08 39.5748 -1913.53 0.559963 -0.0535268 -0.793713 49 66 98
140.374 46.6622 -1908.98 0.65648 -0.0287131 -0.762695 50 66 100
140.229 51.98 -1912.82 0.620569 0.0213218 -0.787169 51 67 102
142.957 56.1588 -1908.36 0.622265 0.0527105 -0.761265 50 67 102
74.3281 72.8 -1913.17 0.204204 0.029356 -0.975711 37 54 88
78.0555 80.6643 -1912.25 0.198075 0.0505555 -0.957292 38 54 88
77.63 89.7361 -1912.54 0.328114 -0.129577 -0.904042 37 54 88
-116.422 -1080.3 -1901.2 -0.657971 -0.199461 -0.733501 201 149 97
-116.329 -1076.98 -1902.16 -0.631551 -0.191475 -0.749178 200 149 97
-111.108 -1073.42 -1907.23 -0.463966 -0.139153 -0.868516 201 150 99
-107.756 -1119.2 -1903.8 -0.551029 -0.00878126 -0.718604 194 152 110
-105.506 -1105.3 -1906.84 -0.612823 0.0869814 -0.716219 198 153 108
-77.4179 -1103.38 -1906.01 0.0806256 0.128003 -0.39716 191 147 109
-70.4435 -1106.3 -1901.97 -0.447539 0.162754 0.057389 170 135 106
-63.7757 -1103.57 -1903.19 -0.173751 -0.0350664 -0.655644 159 121 92
-106.304 -1096.7 -1906.03 -0.56904 0.0551187 -0.773788 199 153 107
-82.9069 -1097.97 -1903.5 -0.0459529 0.0731067 -0.213619 195 150 113
-82.6988 -1082.91 -1905.08 -0.119551 0.00519882 -0.237858 193 149 113
-82.6162 -1073.84 -1905.47 0.0214618 -0.00023849 -0.469551 191 146 109
-66.3555 -1090.56 -1901.74 -0.735092 -0.0968238 -0.362723 143 110 89
-65.1479 -1084.86 -1906.06 -0.687026 -0.0117501 -0.320272 149 111 87
-64.785 -1075.02 -1900.74 -0.570276 0.0188735 -0.495976 156 114 86
-115.736 -1069.92 -1904.23 -0.589319 -0.136391 -0.782633 198 148 97
-120.374 -1064.69 -1901.21 -0.678968 -0.120631 -0.707388 193 144 97
-119.787 -1053.85 -1900.92 -0.640006 0.0211748 -0.796246 197 147 96
-115.822 -1050.32 -1903.65 -0.546046 0.063085 -0.839609 199 149 98
-112.443 -1048.97 -1906.06 -0.432594 0.0974461 -0.878153 202 150 99
-115.596 -1044.8 -1902.99 -0.449266 0.0363449 -0.868385 200 149 98
-109.063 -1039.3 -1905.83 -0.0863457 0.0684187 -0.953268 204 152 101
-113.841 -1036.91 -1904.21 -0.206509 -0.0746607 -0.922847 203 151 100
-130.735 -1028.39 -1900.87 -0.491191 -0.200917 -0.85025 202 150 100
-128.725 -1019.52 -1903.58 -0.511541 -0.181764 -0.837103 204 152 101
-122.095 -1023.19 -1906.44 -0.337903 -0.227572 -0.911576 203 151 100
-114.53 -1030.51 -1905.56 -0.164965 -0.177942 -0.936382 204 151 100
-70.8839 -782.564 -1903.12 0.785618 0.0133221 -0.625446 215 163 123
-70.0902 -781.045 -1901.8 0.789686 0.0245017 -0.620601 212 161 122
-72.6316 -769.805 -1903.59 0.719395 0.116699 -0.677587 222 172 131
-72.6146 -765.672 -1902.91 0.693547 0.116557 -0.706501 224 174 133
-71.9881 -758.138 -1901.65 0.612976 0.0578294 -0.771282 224 174 133
-77.2088 -749.324 -1906.09 0.373381 -0.0743357 -0.8832 224 176 134
-147.482 -747.958 -1906.36 -0.320313 0.221469 -0.789164 228 184 147
-138.408 -737.632 -1902.01 -0.403236 0.145101 -0.518511 242 196 158
-139.859 -728.24 -1902.03 -0.674669 0.0268821 -0.503202 240 195 157
-148.479 -716.328 -1900.81 -0.171548 0.208829 -0.876131 233 188 152
-144.056 -717.831 -1901.44 -0.290261 0.384908 -0.785147 237 192 156
-136.015 -710.154 -1902.56 -0.347766 0.509558 -0.735223 239 196 162
-132.446 -708.709 -1905.16 -0.507172 0.429326 -0.713827 239 197 164
-128.836 -698.934 -1905.69 -0.625199 0.167474 -0.74089 233 191 161
-72.3675 -742.935 -1906.84 0.323867 -0.234381 -0.903014 224 177 137
-68.4338 -740.231 -1905.83 0.438712 -0.160204 -0.845166 224 178 140
-65.0507 -738.055 -1903.5 0.55107 -0.0271756 -0.778807 225 179 142
14.9166 -1166.08 -1905.16 0.683366 0.346527 -0.645083 220 184 146
25.6413 -1159.89 -1904.52 0.528609 0.356871 -0.662872 203 175 147
39.9478 -1176 -1902.05 0.602174 0.434826 -0.559018 209 194 177
32.0419 -1169.04 -1905.07 0.549861 0.387908 -0.642373 211 195 178
40.8727 -1176.78 -1901.68 0.596326 0.444671 -0.553836 209 194 178
29.4311 -1162.47 -1902.05 0.642678 0.412355 -0.540696 206 179 152
48.755 -1163.21 -1906.4 0.675287 0.380846 -0.607306 218 209 194
46.4293 -1156.76 -1904.57 0.715611 0.469692 -0.483634 218 207 192
9.67644 -1151.5 -1905.52 0.60499 0.293841 -0.667654 209 167 133
5.71208 -1144.19 -1904.4 0.51696 0.464801 -0.435284 205 159 123
20.6991 -1148.74 -1900.9 0.410779 0.561412 -0.57852 217 183 146
25.9366 -1141.51 -1901.81 0.300891 0.762835 -0.543241 231 201 167
40.9582 -1149.56 -1904.99 0.655964 0.569798 -0.43893 226 210 190
35.7252 -1145.29 -1904.2 0.514574 0.721354 -0.427825 235 212 186
77.7242 -1231.17 -1899.89 0.75319 0.217082 -0.273006 100 96 95
78.4714 -1227 -1903.88 0.638325 0.332559 -0.283267 105 100 99
79.9655 -1219.72 -1902.77 0.626964 0.422872 -0.279696 101 97 97
65.5453 -1183 -1900.42 0.39076 0.717941 -0.103299 186 178 175
71.8124 -1188.35 -1905.23 0.194249 0.851375 -0.165343 134 125 125
77.9595 -1189.52 -1905.81 0.127989 0.941326 0.00204973 105 97 97
98.8695 -1195.13 -1901.89 0.0138103 0.953534 0.144682 70 65 63
86.0539 -1188.17 -1903.84 0.0357775 0.972549 0.146124 75 69 68
92.25 -1188.94 -1906.97 -0.00281847 0.974611 0.131143 48 45 44
58.2366 -1176.23 -1904.12 0.530695 0.528969 -0.472444 205 193 182
58.4548 -1171.41 -1901.59 0.630094 0.455101 -0.564733 215 204 189
48.587 -688.271 -1900.19 0.590482 -0.174547 -0.768872 233 204 184
49.1894 -685.672 -1900.15 0.617672 -0.14724 -0.753519 234 206 186
49.4933 -677.285 -1900.93 0.687801 -0.128469 -0.703352 230 211 202
53.3872 -663.37 -1901.22 0.604001 -0.350013 -0.687029 227 228 238
51.8416 -658.375 -1906.03 0.609897 -0.267313 -0.718124 228 236 252
-19.7302 -637.961 -1905.68 -0.600622 -0.0470759 -0.792247 238 245 254
-20.0579 -632.508 -1905.96 -0.611682 -0.0491271 -0.786914 239 246 255
-20.6226 -616.971 -1900.5 -0.767069 0.218155 -0.619981 237 246 255
-14.0614 -610.645 -1906.8 -0.0192063 -0.157243 -0.927301 208 211 217
-19.7323 -612.344 -1900.19 -0.781923 0.161033 -0.621415 236 246 255
-20.5606 -596.952 -1900.93 -0.72672 -0.030676 -0.682529 229 238 252
-20.4052 -588.283 -1900.71 -0.743671 0.121543 -0.645237 222 231 248
-3.04144 -477.414 -1901.22 -0.372739 -0.00941031 -0.900671 201 209 229
-4.54002 -469.95 -1901.88 -0.480473 -0.152308 -0.852107 211 219 239
-4.03693 -460.835 -1903.15 -0.526452 -0.0453427 -0.839205 200 208 228
-2.23646 -456.554 -1903.89 -0.526568 -0.0215003 -0.830913 190 198 218
-50.1773 -430.789 -1904.35 0.257696 -0.859697 -0.43533 176 181 201
-42.9538 -428.698 -1904.64 0.178488 -0.865458 -0.452738 171 178 197
-33.664 -429.726 -1900.87 -0.135329 -0.839008 -0.493602 171 177 196
-15.6947 -437.968 -1902.09 -0.530831 -0.631803 -0.57186 174 182 201
-4.35599 -447.814 -1903.52 -0.623707 -0.200081 -0.702983 184 191 210
-11.0602 -438.158 -1905.86 -0.554144 -0.613769 -0.569186 183 191 210
-26.2238 -430.961 -1903.27 -0.290842 -0.785357 -0.520587 168 175 193
-25.8708 -430.01 -1905.01 -0.276462 -0.791608 -0.52056 169 176 195
11.1507 -474.019 -1906.15 -0.297105 -0.198759 -0.925024 213 221 242
5.25013 -468.632 -1905.84 -0.329414 -0.279257 -0.893599 215 223 244
0.780061 -457.139 -1906.21 -0.487908 -0.111341 -0.848947 195 203 223
-184.599 -73.7338 -1904.66 -0.688525 -0.50917 -0.304182 50 59 83
-188.834 -66.5667 -1900.85 -0.808007 -0.0759724 -0.317179 53 62 90
-160.939 -47.37 -1902.19 -0.328472 -0.154987 -0.924207 44 62 97
-154.247 -150.472 -1906.47 -0.660144 0.233687 -0.607011 52 69 105
-158.692 -142.012 -1904.14 -0.483896 -0.014182 -0.680866 59 78 117
-151.138 -142.701 -1906.79 -0.58996 0.137265 -0.623661 59 77 116
-153.414 -138.961 -1906 -0.483635 0.172549 -0.659261 60 78 117
86.1737 -342.468 -1905.79 0.769665 -0.0380993 -0.528853 237 241 249
87.8828 -333.469 -1905.19 0.823331 -0.252216 -0.427093 238 242 248
90.9527 -325.279 -1902.88 0.811453 -0.138245 -0.487614 244 247 252
90.2592 -321.587 -1904.28 0.780944 0.0252031 -0.563606 245 249 254
92.7212 -313.768 -1900.57 0.771524 0.0233092 -0.608033 238 243 250
90.623 -307.37 -1901.8 0.683494 0.120574 -0.695662 236 242 250
87.0074 -298.618 -1904.06 0.616047 0.0530013 -0.77145 239 245 253
85.241 -293.428 -1905.27 0.601344 0.00179251 -0.784531 240 247 255
66.0729 -263.662 -1906.8 0.38494 0.348934 -0.837753 245 252 255
78.0555 -274.255 -1904.72 0.529684 0.432951 -0.690567 242 251 255
71.3972 -264.259 -1904.07 0.450652 0.322393 -0.807955 243 251 255
85.5723 -287.85 -1904.45 0.627929 0.0642373 -0.747227 238 245 254
82.1007 -282.05 -1906.3 0.60017 0.232632 -0.743341 240 246 254
104.424 128.323 -1907.15 0.0653509 -0.0441293 -0.949755 32 49 83
113.354 119.79 -1906.78 -0.232421 0.0930356 -0.873847 37 54 89
-117 -1085.17 -1898.13 -0.734311 -0.180339 -0.619799 197 148 98
