ply
format ascii 1.0
comment Created by Open3D
element vertex 734
property double x
property double y
property double z
property double nx
property double ny
property double nz
property uchar red
property uchar green
property uchar blue
end_header
-50.0467 383.979 -1056.18 -0.686073 -0.253908 -0.67902 90 91 84
-58.3033 394.64 -1052.52 -0.649728 -0.267815 -0.712315 85 87 77
-65.7314 411.717 -1050.04 -0.65628 -0.10198 -0.740738 127 129 105
-62.2324 412.507 -1053.8 -0.712941 -0.153783 -0.68071 130 132 106
-62.1769 428.948 -1052.2 -0.679038 0.0994311 -0.667068 220 218 169
-208.035 667.736 -1055.18 0.886008 0.131814 -0.424058 230 221 161
-208.277 672.695 -1053.17 0.844286 0.228054 -0.465326 229 220 161
-169.688 636.663 -1051.27 -0.114913 -0.671116 -0.694589 253 253 250
-124.15 617.733 -1050.17 -0.154198 -0.423625 -0.872969 253 253 253
-138.21 622.073 -1050.59 -0.166244 -0.47665 -0.846595 253 253 253
-121.931 622.294 -1054.35 -0.150585 -0.594681 -0.770049 253 253 253
-113.067 619.151 -1053.55 -0.109805 -0.621644 -0.77246 253 253 253
-104.973 616.701 -1052.06 -0.0749514 -0.546665 -0.825343 253 253 253
-119.376 623.222 -1055.77 -0.142078 -0.639046 -0.742625 253 253 253
-163.476 926.602 -1054.56 -0.856942 -0.272503 -0.41104 110 90 84
-97.6985 890.487 -1051.7 0.758737 -0.039559 -0.496924 209 180 156
-113.493 913.008 -1054.45 0.553285 0.312469 -0.650151 125 103 92
-98.7895 901.974 -1050.56 0.644727 0.125088 -0.609226 190 159 142
-110.717 925.305 -1052.76 0.667931 0.0772002 -0.690888 54 45 39
-101.593 925.789 -1052.71 0.721157 0.0965303 -0.623429 55 46 40
-107.697 930.134 -1049.52 0.715338 0.0301672 -0.692368 52 44 38
-81.3021 893.992 -1053.69 0.776079 0.0824829 -0.333244 232 204 181
-81.8839 903.965 -1053.97 0.777061 0.066687 -0.36819 231 203 179
-87.2804 913.349 -1054.46 0.725117 0.115169 -0.430667 219 190 169
-85.3889 919.383 -1052.05 0.73872 0.0904939 -0.416806 222 194 172
-132.026 -258.498 -1044.77 -0.721382 -0.226604 -0.761122 30 30 29
-131.773 -244.186 -1044.51 -0.369783 -0.0549143 -0.872295 31 29 29
-340.803 -228.351 -1047.91 0.986235 0.0192844 -0.212268 42 45 42
-341.815 -217.943 -1049.89 0.965159 0.0404837 -0.170638 43 46 43
-340.381 -203.314 -1044.53 0.867436 -0.0413935 -0.35425 45 48 45
-341.305 -192.679 -1048.91 0.860904 -0.083923 -0.378004 46 49 46
-338.265 -179.197 -1044.3 0.870686 -0.0750999 -0.423977 46 48 45
-338.928 -157.804 -1047.46 0.903576 -0.0988865 -0.378125 47 49 47
-314.176 31.0539 -1048.88 0.546949 -0.191728 -0.813603 60 62 58
-309.32 30.753 -1046.1 0.445499 -0.179156 -0.863231 61 64 58
-309.628 36.9063 -1047.2 0.494603 -0.157489 -0.832616 60 63 57
-305.501 41.8819 -1046.36 0.441898 -0.140176 -0.844095 61 64 57
-305.29 53.8814 -1048 0.385483 -0.141427 -0.885903 60 62 55
-303.363 58.5752 -1048.13 0.400864 -0.17841 -0.884364 59 61 53
-299.324 73.2044 -1047.01 0.561748 -0.0324292 -0.828541 59 60 53
-297.426 61.5681 -1044.7 0.513778 -0.0741087 -0.847467 57 58 51
70.8879 -258.887 -1043.57 -0.420054 -0.105296 -0.883953 56 62 61
83.2587 -268.4 -1048.6 -0.367093 -0.0983893 -0.924204 57 63 62
87.0308 -280.135 -1048.39 -0.383443 -0.111185 -0.913202 57 63 62
69.3586 -249.025 -1044.35 -0.457675 -0.169625 -0.863158 51 57 56
80.7177 -255.182 -1049.12 -0.412018 -0.110334 -0.899231 57 63 62
70.7024 -239.449 -1046.17 -0.477632 -0.0791878 -0.871409 52 58 57
77.6923 -244.564 -1049.11 -0.419436 -0.12213 -0.896795 58 64 63
69.6308 -230.877 -1046.17 -0.46979 -0.0303356 -0.880813 52 58 57
73.2863 -228.856 -1048.04 -0.449755 -0.0134339 -0.890068 54 60 59
71.9708 -215.955 -1047.19 -0.533256 0.0110088 -0.839692 51 57 55
72.6575 -208.49 -1048.25 -0.58117 -0.054135 -0.809755 51 55 54
-215.684 389.43 -1048.39 0.62087 -0.162695 -0.731338 77 79 72
-213.275 393.918 -1047.28 0.621181 -0.155768 -0.709734 71 73 65
-74.8104 433.799 -1043.83 -0.306974 -0.131416 -0.941336 253 250 210
-74.7271 443.389 -1043.7 -0.234828 0.0719932 -0.958078 253 251 210
-67.9944 431.919 -1047.12 -0.443811 0.0351942 -0.864301 241 238 192
-65.7227 444.285 -1048.22 -0.448701 -0.026339 -0.88945 247 245 198
-70.9412 459.198 -1045.91 -0.486539 -0.058107 -0.863518 251 251 209
-75.3023 468.965 -1043.87 -0.297931 0.0076296 -0.94353 251 250 212
-68.9747 478.231 -1047.51 -0.420023 0.00621264 -0.897714 247 247 205
-66.3025 479.316 -1048.98 -0.421981 0.0188597 -0.898707 246 245 201
-199.22 485.533 -1046.3 0.52798 -0.00597907 -0.812043 242 241 193
-196.708 500.607 -1046.05 0.599357 0.0757212 -0.712405 246 245 193
-196.824 511.312 -1045.9 0.643911 0.111608 -0.691071 245 243 189
-198.152 521.446 -1047.73 0.682381 -0.0822055 -0.620779 243 241 188
-193.159 501.349 -1043.84 0.573908 0.0456868 -0.72646 246 244 192
-210.012 776.795 -1049.23 0.391614 -0.061397 -0.851388 220 213 142
-208.18 783.109 -1043.86 0.213822 0.200984 -0.811632 208 193 127
-193.842 747.597 -1047.62 0.0320807 0.257742 -0.96583 221 213 153
-178.776 741.449 -1047.9 0.00914883 0.182082 -0.982829 223 214 152
-181.722 744.564 -1047.6 -0.00866524 0.236132 -0.97474 222 214 153
-194.59 749.567 -1047.2 0.0321166 0.260986 -0.964028 221 213 153
-180.801 752.877 -1044.9 -0.10815 0.22232 -0.963252 222 210 150
-170.644 759.988 -1045.39 -0.354932 0.0293101 -0.927921 223 214 162
-167.829 747.354 -1047.81 -0.138836 -0.0265601 -0.966239 231 225 177
-155.337 737.591 -1047.04 -0.0776678 -0.27715 -0.944914 246 244 205
-171.258 752.909 -1046.66 -0.219424 0.0338596 -0.964837 227 218 165
-168.612 760.681 -1046.42 -0.393073 -0.00880871 -0.911824 225 218 173
-164.703 765.048 -1048.43 -0.530927 -0.0741743 -0.83759 219 219 182
-167.653 778.799 -1043.7 -0.79245 0.167099 -0.519997 180 197 165
-133.305 722.278 -1047.55 -0.042274 -0.359517 -0.773875 247 247 218
-138.299 727.277 -1047.63 -0.0504305 -0.348306 -0.762709 246 246 217
142.177 -581.076 -1044.02 -0.400219 -0.592422 -0.211726 65 61 58
139.946 -573.381 -1050.38 -0.502491 -0.532383 -0.160342 76 72 69
145.116 -570.462 -1054.81 -0.181871 -0.739882 -0.234842 47 44 42
-359.818 -483.772 -1039.65 0.766042 -0.161517 -0.569045 45 46 41
-357.409 -471.678 -1041.18 0.753045 -0.26374 -0.57848 42 43 38
-353.479 -459.598 -1038.04 0.880561 -0.147923 -0.417034 43 43 39
-352.034 -444.918 -1040.7 0.851115 -0.153956 -0.479718 42 43 39
-331.259 -102.473 -1040.26 0.758694 -0.0432201 -0.574681 50 51 49
-331.429 -92.6793 -1042.26 0.856338 -0.109554 -0.436459 50 52 49
-328.51 -80.0741 -1041.12 0.771936 -0.0523822 -0.587047 49 52 49
-323.649 -73.6002 -1040.04 0.545063 -0.119128 -0.755809 55 57 54
-323.491 -76.1109 -1039.51 0.568564 -0.125771 -0.749393 54 56 53
-320.739 -62.4527 -1040.62 0.342708 -0.138499 -0.841282 61 63 60
-318.797 -56.3982 -1040.36 0.403454 -0.0941639 -0.871939 61 63 60
-142.856 -50.1171 -1040.84 -0.825345 0.189099 -0.472529 41 39 35
-122.936 -52.8231 -1041.19 0.76893 -0.0159617 -0.629847 40 38 38
-140.401 -40.6111 -1041.95 -0.880915 0.15881 -0.419762 40 38 34
-121.686 -41.4764 -1040.49 0.787602 -0.0553086 -0.621056 43 41 41
-317.719 -24.0639 -1041.53 0.431416 -0.0236387 -0.839542 62 64 60
-316.465 -21.4056 -1041.05 0.408787 -0.0253183 -0.862688 61 63 59
-306.528 -20.2762 -1036.95 0.375987 0.0885283 -0.864423 63 64 59
-312.584 -7.6651 -1040.57 0.443487 -0.146154 -0.852209 62 64 58
-309.496 -9.31153 -1038.71 0.383749 -0.116056 -0.891039 63 65 59
-300.38 0.754723 -1037.16 0.309088 -0.177497 -0.93112 65 67 59
-304.75 4.57743 -1039.45 0.36569 -0.197302 -0.904899 63 66 59
-302.473 11.1537 -1039.86 0.367793 -0.1796 -0.907334 63 65 58
58.2522 -252.717 -1037.85 -0.596825 -0.0256507 -0.798074 42 48 47
77.6684 -325.758 -1037.3 -0.433498 -0.224337 -0.840297 61 64 60
82.6584 -321.053 -1041.19 -0.471115 -0.169266 -0.840689 58 62 58
81.8601 -314.79 -1041.53 -0.505824 0.142403 -0.688474 80 84 81
86.2912 -324.437 -1042.71 -0.465865 -0.168599 -0.871426 51 56 53
72.8546 -305.668 -1038.72 -0.36152 -0.17833 -0.897792 65 69 66
74.2095 -303.174 -1040.18 -0.368028 -0.178873 -0.892292 65 69 66
64.1045 -285.543 -1038.2 -0.403689 -0.0872473 -0.908283 56 60 59
74.8668 -290.565 -1042.42 -0.446716 -0.10473 -0.840004 68 73 71
-245.304 321.869 -1039.47 0.696877 -0.463286 -0.255386 70 71 67
-234.339 339.167 -1041.64 0.786621 -0.388414 -0.306135 57 59 55
-224.293 351.693 -1041.42 0.652004 -0.414943 -0.540365 72 74 70
-217.495 359.474 -1040.08 0.572497 -0.34594 -0.721062 76 78 74
-215.138 359.752 -1038.64 0.544763 -0.347615 -0.751634 79 82 77
-211.57 378.748 -1042.81 0.600126 -0.254979 -0.755777 81 82 76
-192.901 523.504 -1042.88 0.719348 0.00135437 -0.606487 245 242 188
-191.29 530.317 -1041.52 0.688513 -0.000343844 -0.628271 245 243 189
-202.612 562.217 -1042.47 0.477592 0.145075 -0.826299 230 231 180
-198.358 567.181 -1040.18 0.534759 0.100852 -0.763291 232 233 180
-208.345 581.147 -1042.43 0.543176 0.097568 -0.829542 230 232 186
-199.631 582.219 -1042.61 0.649171 0.107437 -0.731524 240 239 185
-190.755 538.699 -1041.12 0.583337 -0.0108997 -0.686086 245 244 191
-190.577 544.555 -1040.36 0.55868 0.0672911 -0.710183 244 243 190
-192.068 561.639 -1037.77 0.565269 0.106379 -0.629285 240 239 185
-195.853 579.31 -1040.76 0.635481 0.171386 -0.729573 239 237 181
-194.912 631.983 -1041.75 0.843981 0.11211 -0.371453 238 233 183
-160.06 610.839 -1040.25 -0.225542 -0.475448 -0.847096 254 253 250
-152.745 612.002 -1042.26 -0.132632 -0.480895 -0.867956 253 253 252
-167.571 631.443 -1041.71 -0.100678 -0.529982 -0.752153 252 252 246
-197.042 649.867 -1040.9 0.829709 0.121489 -0.514366 233 227 169
-197.372 667.088 -1040.65 0.770205 0.0707343 -0.632771 235 229 171
-196.788 678.454 -1039.22 0.698296 0.0625579 -0.700539 240 234 179
-196.271 651.604 -1039.51 0.823529 0.0770195 -0.55245 233 227 169
-195.396 683.667 -1038.44 0.622039 -0.0278717 -0.772635 244 238 185
-142.534 595.093 -1039.23 -0.160942 -0.231414 -0.948111 254 253 245
-132.19 587.556 -1039.24 -0.151891 -0.206859 -0.952365 254 253 243
-126.364 590.687 -1041.56 -0.105169 -0.240484 -0.949718 254 253 247
-143.199 597.361 -1039.57 -0.194287 -0.230885 -0.941617 254 253 246
-137.417 602.945 -1042.58 -0.289446 -0.253221 -0.916437 253 253 250
-111.188 586.208 -1040.86 -0.0466708 -0.164461 -0.962159 253 254 246
-104.355 585.423 -1041.58 -0.136625 -0.184564 -0.953115 254 254 245
6.03608 208.008 -1037.28 -0.492474 -0.265065 -0.814812 80 81 74
0.319904 221.503 -1037.97 -0.381257 -0.304812 -0.858158 81 82 74
20.2421 183.994 -1040.71 -0.628412 -0.143342 -0.762481 71 73 66
16.2576 188.375 -1038.01 -0.662432 -0.123701 -0.736491 72 74 67
20.6968 194.813 -1043.29 -0.649361 -0.164967 -0.736851 69 71 65
17.3915 206.474 -1042.81 -0.536534 -0.149182 -0.811624 72 74 67
8.4385 213.609 -1039.63 -0.447537 -0.178482 -0.850794 79 80 72
-5.8306 234.818 -1038.55 -0.428638 -0.205931 -0.869125 80 81 74
4.43404 227.842 -1041.65 -0.377961 -0.264139 -0.879598 74 75 67
-13.2845 244.269 -1037.6 -0.362342 -0.205339 -0.898291 81 80 72
-6.64204 245.869 -1039.87 -0.3294 -0.157025 -0.920686 76 76 69
2.09978 239.149 -1042.07 -0.372668 -0.0540371 -0.917566 71 72 65
-18.6473 260.181 -1038.52 -0.332675 -0.118644 -0.917411 73 72 65
-23.889 274.306 -1037.54 -0.377217 -0.112405 -0.91252 69 70 61
-8.15062 255.107 -1041.51 -0.329676 -0.241922 -0.893763 76 76 69
-10.1637 261.41 -1041.43 -0.322554 -0.0112499 -0.925343 72 71 64
-144.493 -298.945 -1031.11 -0.658504 -0.118503 -0.740917 41 40 36
-123.041 -302.005 -1037.31 0.485942 0.0297772 -0.776236 34 32 31
-138.966 -289.698 -1035.82 -0.665704 0.0374369 -0.762359 37 36 33
-119.944 -291.485 -1033.91 0.73373 -0.062883 -0.704715 40 38 36
-116.695 -289.317 -1030.94 0.688948 -0.132767 -0.726624 41 39 37
-139.366 -283.992 -1035.56 -0.606411 -0.0115448 -0.794011 36 36 33
-142.423 -268.994 -1035.06 -0.547774 -0.107925 -0.816999 40 40 36
-117.424 -277.846 -1033.89 0.63581 -0.106288 -0.774207 40 38 36
-117.469 -267.438 -1034.75 0.630303 -0.0706977 -0.74536 40 38 36
-115.88 -261.92 -1033.07 0.704593 0.00539857 -0.707731 41 39 37
-142.511 -243.764 -1037.18 -0.615683 -0.0721617 -0.78391 43 42 38
-117.064 -247.842 -1033.54 0.73376 -0.0362824 -0.693456 40 39 37
-113.733 -245.345 -1030.87 0.650708 -0.0538298 -0.752264 42 40 38
-337.986 -226.435 -1035.94 0.828216 0.0615196 -0.411432 46 48 45
-337.567 -217.624 -1035.72 0.789095 -0.0177336 -0.50487 47 50 47
-111.833 -126.552 -1032.84 0.600255 -0.0107104 -0.741721 45 42 43
-116.488 -116.454 -1036.55 0.691182 0.059634 -0.725808 41 38 39
-113.45 -108.576 -1033.27 0.693035 0.0455924 -0.720535 44 41 42
-116.75 -93.739 -1036.58 0.689503 0.00313837 -0.718901 42 39 40
-111.313 -89.457 -1031.36 0.689665 0.0409342 -0.717034 45 42 42
-117.646 -77.1247 -1036.64 0.706201 0.0388701 -0.702212 43 40 42
-112.828 -67.1665 -1031.12 0.708385 0.0927586 -0.696452 44 41 42
-117.186 94.5847 -1032.39 0.814316 0.0668311 -0.56459 43 41 38
-138.503 109.498 -1034.29 -0.834555 0.207517 -0.495056 38 38 32
-137.41 116.743 -1031.81 -0.744599 0.336795 -0.577149 40 39 33
-131.185 122.088 -1034.01 -0.434148 0.409689 -0.720599 35 33 29
-117.276 99.2641 -1031.63 0.810038 0.0915503 -0.537921 42 40 37
-133.058 124.956 -1031.7 -0.595052 0.325677 -0.709388 40 38 33
109.879 -579.636 -1032.3 -0.796322 -0.135055 -0.548927 88 82 79
78.3334 -554.334 -1036.72 -0.617052 -0.589152 -0.505666 107 92 74
72.8767 -550.361 -1033.06 -0.551192 -0.474192 -0.595218 82 73 59
85.8471 -558.48 -1032.71 -0.277391 -0.840446 -0.393339 58 52 47
-184.803 685.502 -1033.54 0.490961 -0.189335 -0.843349 252 248 207
-175.066 688.216 -1030.8 0.39311 -0.274386 -0.876551 254 251 215
-172.095 697.314 -1034.3 0.357477 -0.325145 -0.87285 255 252 219
-161.933 695.426 -1031.6 0.353852 -0.374587 -0.856095 255 252 222
-165.933 698.219 -1033.64 0.343648 -0.360357 -0.862427 255 252 221
-156.899 700.355 -1033.9 0.361067 -0.361476 -0.866802 255 253 221
-150.277 707.874 -1036.98 0.293275 -0.377567 -0.853686 254 252 223
-41.6881 288.694 -1030.94 -0.534115 -0.327907 -0.77381 90 90 83
-28.8245 284.668 -1036.97 -0.485694 -0.287852 -0.809337 69 71 63
-40.9545 299.992 -1034.1 -0.512193 -0.167985 -0.83012 87 88 81
-42.7793 309.656 -1035.29 -0.513705 -0.233094 -0.811814 83 84 77
-201.956 849.139 -1034.97 -0.121812 -0.0521941 -0.521538 154 155 133
-202.609 846.884 -1031.04 -0.161493 0.033252 -0.544494 160 165 141
-202.537 860.429 -1042.7 0.255267 -0.497588 -0.367164 115 110 97
-203.687 859.005 -1032.38 0.0480484 -0.136533 -0.496739 139 142 123
-203.342 869.497 -1039.84 0.379324 -0.623495 -0.269721 112 109 99
-203.683 866.143 -1038.73 0.362705 -0.563807 -0.308458 112 110 99
-205.435 883.138 -1031.45 0.133655 -0.232169 -0.443073 147 145 128
-44.5606 796.881 -1040.01 0.487601 0.159537 -0.576494 192 189 151
-44.7668 800.701 -1040.73 0.515278 0.162716 -0.5388 196 193 156
-48.7087 824.473 -1043.57 0.652906 0.199293 -0.426095 201 202 167
-205.724 896.466 -1037.04 0.117283 -0.246337 -0.516407 170 152 135
-206.77 892.375 -1032.58 0.101992 -0.188026 -0.5155 167 154 136
-203.548 900.771 -1041.86 0.128576 -0.242945 -0.535954 174 155 138
-206.412 913.108 -1039.44 0.0537802 -0.0635921 -0.650423 200 175 154
-204.209 920.941 -1041.32 -0.0255804 -0.0764226 -0.641654 202 177 157
-208.806 914.908 -1035.55 0.0535052 -0.0538239 -0.65492 201 174 154
-200.625 937.961 -1033.45 -0.464587 -0.215087 -0.5759 184 161 147
-205.446 927.566 -1036.41 -0.0995186 -0.0848679 -0.648814 204 182 163
-330.242 -325.677 -1027.2 0.849901 -0.103649 -0.51189 40 43 41
-329.449 -313.403 -1024.64 0.870432 0.023358 -0.459599 43 46 42
-331.003 -299.119 -1025.32 0.800959 0.0495014 -0.602377 44 47 44
-330.439 -287.407 -1025.31 0.755219 -0.106002 -0.621074 44 47 44
-332.069 -277.849 -1025.66 0.653839 0.0278248 -0.620527 47 49 45
-330.628 -263.788 -1024.94 0.796674 0.0839078 -0.534824 46 49 46
-334.165 -251.022 -1031.55 0.767302 -0.0806922 -0.527302 45 48 45
-329.927 -239.133 -1027.68 0.644739 -0.0586775 -0.710716 47 49 47
-321.865 -131.4 -1029.83 0.901903 -0.0472335 -0.370112 54 54 53
-317.853 -118.939 -1029.09 0.58986 -0.113519 -0.730958 54 54 52
-314.567 -115.602 -1027.33 0.510575 -0.0944659 -0.83935 57 57 54
-309.443 -114.429 -1024.55 0.422198 -0.121115 -0.900607 63 64 60
-313.363 -97.8574 -1029.44 0.558695 -0.142559 -0.768595 62 62 59
-311.161 -89.3328 -1029.85 0.548864 -0.173471 -0.771871 65 65 62
-307.807 -86.3764 -1026.7 0.616872 -0.116814 -0.704004 68 69 66
-306.974 -79.0144 -1027.4 0.58237 -0.0928101 -0.697608 70 71 67
-300.751 -69.9498 -1027.04 0.313037 -0.101152 -0.818829 64 65 61
-279.105 99.4451 -1027.24 0.663629 -0.00602235 -0.737231 52 53 46
-278.463 114.921 -1027.24 0.664733 -0.0290984 -0.744434 52 53 46
-285.771 136.08 -1029.91 0.787009 0.0506929 -0.599941 57 58 53
-284.385 132.822 -1029.16 0.735204 0.216046 -0.617591 54 54 48
-284.732 148.005 -1027.66 0.754805 -0.0326895 -0.64261 58 58 54
-282.369 151.254 -1025.44 0.70177 -0.0628461 -0.68937 60 61 57
-279.443 163.469 -1025.08 0.609909 -0.124914 -0.779215 62 62 58
-277.606 171.277 -1025.02 0.639492 -0.212464 -0.737863 62 62 58
103.974 -577.357 -1028.47 -0.711143 -0.34244 -0.548243 86 80 77
101.615 -570.396 -1025.46 -0.714694 -0.0727995 -0.611265 76 71 66
70.1381 -555.744 -1025.7 -0.362719 -0.6389 -0.628942 81 73 65
75.3188 -555.999 -1029.35 -0.427157 -0.676771 -0.514743 69 62 54
59.3563 -543.504 -1024.28 -0.463452 -0.222719 -0.859083 77 69 60
87.7264 -560.872 -1025.16 -0.176396 -0.844813 -0.402576 56 53 50
105.852 -564.153 -1026.57 -0.569199 -0.257234 -0.338733 62 58 54
112.94 -587.475 -1026.43 -0.740751 -0.214419 -0.509664 87 81 77
58.6022 -533.474 -1026.08 -0.502632 -0.200194 -0.835956 41 42 40
50.7354 -70.19 -1028.25 -0.66646 -0.0974194 -0.675744 59 61 57
46.2721 -65.3288 -1025.21 -0.560565 -0.198033 -0.785676 66 67 60
43.7967 -50.2617 -1025.03 -0.613049 -0.0831904 -0.751077 62 63 56
50.4606 -43.6319 -1029.43 -0.599187 -0.10462 -0.75156 62 63 56
40.5303 -31.9686 -1024.91 -0.749724 -0.0316927 -0.641595 59 60 53
38.4557 -22.8149 -1024.28 -0.787209 -0.0893482 -0.617737 62 63 55
44.6947 -18.5912 -1028.77 -0.64161 -0.0771502 -0.609877 60 62 58
40.5414 -5.33823 -1025.85 -0.776602 -0.0850866 -0.547985 63 64 58
-184.428 382.374 -1026.84 0.554714 -0.177097 -0.806899 78 80 73
-182.57 388.127 -1025.84 0.615621 -0.0932203 -0.774783 74 75 69
-181.58 394.054 -1024.94 0.669562 -0.00277513 -0.745819 66 67 62
-179.38 404.507 -1024.12 0.628518 -0.116113 -0.774399 58 59 52
-172.942 414.198 -1027.91 0.186826 -0.498376 -0.773773 155 156 127
-164.981 414.364 -1027.24 0.0390577 -0.470246 -0.833068 168 169 138
-148.276 408.245 -1025.63 -0.00385896 -0.387063 -0.915963 97 99 81
-150.589 412.34 -1027.09 0.0149891 -0.360634 -0.916614 140 141 117
-154.493 418.81 -1028.97 0.123607 -0.237078 -0.919974 210 208 176
-158.287 856.963 -1026.43 -0.986622 -0.186275 -0.0357965 227 227 212
-159.962 864.767 -1024.82 -0.988194 -0.119272 -0.0711566 228 224 207
-159.089 879.303 -1030.48 -0.991241 0.0782086 -0.110719 251 228 204
-84.8045 796.187 -1029.86 0.833043 0.339967 -0.408655 203 203 167
-85.8937 800.185 -1028.46 0.871465 0.354362 -0.341175 205 208 171
-90.3551 814.752 -1027.52 0.907802 0.248084 -0.292515 199 209 171
-89.8253 838.049 -1029.52 0.900063 0.0825242 -0.442743 228 208 180
-95.559 885.866 -1028.09 0.919468 0.103874 -0.265098 245 215 188
-90.7204 856.222 -1025.27 0.944929 0.0416267 -0.0512658 237 209 181
-91.4725 867.155 -1029.54 0.905534 0.10829 -0.131785 248 217 190
-26.9971 241.336 -1024.89 -0.761692 -0.211705 -0.577978 83 86 78
-30.8151 251.655 -1024.64 -0.732669 -0.216115 -0.63148 81 86 81
-38.3919 270.282 -1025.71 -0.694483 -0.315015 -0.631777 84 86 79
-37.9454 274.756 -1028.09 -0.673595 -0.262504 -0.678288 81 83 76
-43.1534 285.65 -1028.23 -0.539577 -0.34256 -0.761487 89 90 83
-328.489 -327.947 -1023.82 0.816972 -0.0905099 -0.563079 42 44 42
-326.418 -315.833 -1018.54 0.638589 -0.0710853 -0.670745 46 48 44
-327.337 -302.954 -1019.55 0.634404 -0.0590362 -0.657875 46 48 45
-328.949 -285.753 -1023.48 0.763698 -0.0580118 -0.5929 44 47 44
-327.663 -282.509 -1022.26 0.696379 -0.00950206 -0.62842 45 48 45
-327.34 -268.299 -1021.76 0.666159 0.0553467 -0.657551 47 50 47
-322.415 -280.147 -1018.01 0.601482 0.00642416 -0.7266 47 50 46
-324.252 -246.735 -1022.59 0.629305 -0.11937 -0.760897 48 50 47
-319.644 -248.086 -1018.94 0.573757 -0.110733 -0.801469 49 51 48
-323.685 -238.576 -1022.62 0.668709 -0.037025 -0.734705 48 50 47
-302.006 -128.68 -1018.64 0.388679 -0.105128 -0.835355 63 65 62
-302.215 -119.652 -1020.33 0.258597 -0.157564 -0.951035 69 70 66
-301.321 -117.84 -1020.07 0.235207 -0.167576 -0.956664 71 72 68
-305.803 -100.213 -1023.39 0.441538 -0.136384 -0.868 72 73 69
-305.22 -92.6676 -1022.87 0.654884 -0.0930568 -0.705428 72 73 70
-297.479 -123.37 -1017.61 0.206535 -0.147933 -0.927274 69 71 67
-254.735 -82.0705 -1022.85 0.104011 0.046138 -0.974721 61 61 56
-297.759 -68.2405 -1022.41 0.298344 -0.0295623 -0.866374 61 61 58
-274.142 106.778 -1022.67 0.701271 -0.0506371 -0.712534 52 53 47
-272.282 111.084 -1021.14 0.69734 -0.0381997 -0.716561 53 53 47
-270.693 118.154 -1019.89 0.688742 0.00717615 -0.722058 52 53 47
-280.41 139.664 -1023.48 0.68886 0.0732494 -0.706353 55 55 51
-275.629 149.096 -1019.99 0.61145 -0.0879479 -0.778783 62 62 58
-277.201 151.141 -1021.44 0.622359 -0.0822711 -0.769685 62 61 58
-276.854 156.295 -1021.88 0.62439 -0.0948476 -0.770141 63 63 59
-272.607 170.265 -1019.4 0.65999 -0.170653 -0.727248 63 64 59
-242.533 -22.1881 -1018.28 0.131785 0.134307 -0.986295 56 56 52
53.8145 -376.738 -1017.64 -0.400622 -0.0676197 -0.905362 55 56 56
53.6985 -370.945 -1018.17 -0.386688 -0.0911684 -0.915247 57 59 59
42.6813 -356.777 -1019.45 -0.361399 -0.15539 -0.924136 55 58 57
44.7765 -353.712 -1020.44 -0.35639 -0.148227 -0.930123 56 61 58
51.0396 -352.273 -1021.56 -0.352946 -0.13506 -0.931451 57 63 60
40.8456 -345.166 -1020.28 -0.380542 -0.0910538 -0.920235 54 60 55
44.3386 -341.05 -1022.03 -0.386913 -0.0820312 -0.920015 53 59 54
53.608 -345.926 -1022.37 -0.376776 -0.099393 -0.908005 57 63 59
60.3651 -431.376 -1018.27 -0.508098 0.0453953 -0.857733 44 48 45
80.4277 -427.626 -1022.27 -0.813273 -0.122741 -0.53979 56 54 50
77.5061 -414.767 -1019.5 -0.839476 -0.0421535 -0.541934 57 57 50
78.6653 -410.913 -1022.06 -0.772801 -0.0349628 -0.59837 55 55 49
76.543 -396.775 -1018.88 -0.908095 -0.112191 -0.381852 60 59 55
-49.9976 273.509 -1017.91 -0.245716 -0.171594 -0.929439 86 87 80
-240.944 282.734 -1021.85 0.541327 -0.351583 -0.74877 81 82 78
-236.671 290.276 -1021.94 0.553061 -0.309964 -0.758806 87 89 84
-229.159 299.724 -1020.86 0.459888 -0.253844 -0.775305 85 87 82
-228.51 306.947 -1022.87 0.401768 -0.257872 -0.824986 79 82 76
-222.126 309.752 -1021.04 0.408465 -0.192097 -0.849575 80 82 76
-219.732 314.158 -1021.34 0.388183 -0.23914 -0.882877 79 82 76
-212.196 316.639 -1019.77 0.322948 -0.271434 -0.900501 81 83 78
-212.714 327.352 -1023.75 0.28364 -0.344549 -0.892224 86 88 84
-198.912 327.129 -1018.29 0.357769 -0.266805 -0.892019 84 86 81
-91.4141 530.138 -1022.37 -0.393868 0.0664082 -0.831512 240 240 208
-196.468 766.615 -1019.9 -0.581468 0.547158 -0.573176 175 185 179
-193.685 766.791 -1022.1 -0.572594 0.557524 -0.551754 156 173 159
-181.935 778.735 -1017.96 -0.666964 0.60119 -0.373335 129 163 141
-176.394 785.522 -1020.77 -0.788382 0.49676 -0.353024 146 182 159
-89.9601 920.877 -1020.93 0.69864 0.500837 -0.440732 220 182 156
-86.3243 944.596 -1020.25 0.0354271 0.0035897 -0.782642 198 172 151
-10.0304 182.938 -1018.28 -0.559498 -0.0206828 -0.818632 68 70 63
-9.15161 190.205 -1019.6 -0.546148 -0.145007 -0.790255 73 76 71
-2.25801 187.995 -1024.68 -0.546425 -0.14468 -0.816883 72 75 69
-21.6611 222.273 -1021.19 -0.610486 -0.38097 -0.666235 82 88 80
-14.0715 206.772 -1021.61 -0.589626 -0.31845 -0.727205 80 84 77
-25.4726 232.059 -1022.33 -0.634903 -0.271997 -0.684305 80 85 78
-96.4595 565.38 -1021.04 -0.621219 0.187943 -0.674984 212 215 176
-97.1609 576.873 -1018.65 -0.539919 0.0805305 -0.746125 218 221 185
-264.645 630.346 -1030.06 0.904926 0.271521 0.173662 196 197 167
-262.413 623.101 -1028.9 0.913028 0.252183 0.191761 204 205 171
-272.668 635.073 -1024.67 0.906787 0.364695 0.0466047 163 166 148
-348.396 -384.004 -1014.63 0.601851 -0.201327 -0.727298 48 48 44
-338.698 -376.159 -1013.68 0.511873 -0.149116 -0.812865 48 49 45
-341.987 -373.614 -1017.19 0.782711 -0.113357 -0.536126 41 42 40
-337.982 -362.963 -1015.03 0.631999 -0.1165 -0.688477 45 46 43
-324.695 -366.436 -1017.45 0.835643 -0.0251156 -0.473376 43 43 41
-323.5 -376.829 -1017.8 0.823621 -0.0184812 -0.510224 40 41 38
-341.322 -356.619 -1013.16 0.535973 -0.104801 -0.80899 49 50 46
-339.326 -351.784 -1012.87 0.525902 -0.138363 -0.806616 50 50 46
-324.604 -357.178 -1016.27 0.802367 -0.051501 -0.506184 44 44 42
-323.76 -342.348 -1013.5 0.816079 -0.0159338 -0.566353 45 46 44
-322.646 -337.464 -1012.9 0.768463 -0.0591263 -0.625966 45 47 44
-294.095 -55.2942 -1011.23 0.888059 -0.022909 -0.423371 61 66 62
-288.433 -49.6183 -1011.62 0.903588 -0.0375569 -0.409761 63 67 64
-173.016 -230.219 -1012.82 -0.483499 -0.277172 -0.812607 48 46 42
-181.484 -215.463 -1011.62 -0.635095 -0.0667414 -0.727393 41 39 33
-176.244 -208.991 -1015.8 -0.537044 -0.0300939 -0.792773 41 38 32
-168.816 -221.781 -1017.9 -0.475543 -0.230587 -0.804648 48 46 41
-176.07 -198.067 -1014.84 -0.715894 0.101859 -0.681577 40 38 32
-176.533 -187.254 -1012.28 -0.777128 0.0906391 -0.609945 40 39 32
-172.855 -16.1353 -1012.82 -0.499733 -0.0676745 -0.852302 52 49 44
-164.245 -24.1319 -1017.59 -0.556469 -0.17849 -0.805119 55 53 48
-166.993 -9.52206 -1017.06 -0.608089 0.0153858 -0.787631 46 44 39
-166.399 2.03849 -1014.03 -0.602573 0.226043 -0.759445 45 44 38
-161.97 4.19393 -1016.68 -0.572309 0.213379 -0.788439 43 42 38
-161.086 19.9433 -1014.2 -0.641795 0.0670783 -0.721237 47 48 42
-246.406 28.4693 -1012.76 0.277857 0.0297234 -0.961344 57 57 51
29.1209 -526.964 -1011.38 -0.384986 0.00630046 -0.923869 43 44 43
39.6449 -538.628 -1015.77 -0.34127 -0.153841 -0.923955 53 51 50
41.772 -526.675 -1017.54 -0.413824 -0.0632815 -0.908203 39 40 39
35.3808 -519.525 -1014.32 -0.423949 0.00928356 -0.905738 39 40 40
36.9986 -506.98 -1014.22 -0.436832 0.0505648 -0.895986 51 52 51
37.5314 -498.295 -1012.96 -0.4577 0.0538957 -0.885938 47 48 47
35.9951 -488.406 -1012.62 -0.421437 0.000122871 -0.906045 44 45 45
38.4911 -486.378 -1013.49 -0.429219 0.00343419 -0.90205 44 46 44
41.2111 -476.117 -1013.83 -0.415327 0.000118382 -0.909072 43 46 43
44.403 -469.687 -1014.89 -0.428499 0.0243043 -0.902181 43 46 42
55.7076 -470.782 -1011.5 -0.440041 0.0229483 -0.884547 46 48 45
45.2954 -456.871 -1012.25 -0.435329 0.0641669 -0.89223 51 53 48
47.2374 -232.694 -1014.66 -0.461409 -0.191926 -0.845569 59 63 58
49.1354 -226.37 -1015.6 -0.495902 -0.202293 -0.835435 61 64 59
47.5393 -217.117 -1016.95 -0.52503 -0.140914 -0.827509 56 60 56
57.214 -213.219 -1016.8 -0.699795 -0.134674 -0.612718 63 65 60
24.8073 2.72439 -1012.38 -0.742043 -0.0888597 -0.663142 65 67 61
29.1126 10.7612 -1018.19 -0.684912 -0.131187 -0.698601 63 65 61
26.2278 25.3927 -1017.77 -0.682659 -0.205424 -0.693412 65 66 60
19.1238 38.7069 -1011.5 -0.778872 -0.0918763 -0.608889 65 66 60
-244.256 230.508 -1011.59 0.293629 -0.331832 -0.884325 83 85 77
-242.259 238.944 -1014.69 0.338929 -0.345257 -0.865619 80 81 73
-241.538 245.643 -1016.88 0.339613 -0.255614 -0.896154 78 79 71
-227.307 244.939 -1012.81 0.414338 -0.388527 -0.78838 87 88 80
-237.384 254.547 -1017.41 0.265386 -0.0828085 -0.94496 75 76 69
-227.939 254.52 -1015.23 0.335429 -0.229779 -0.89507 81 82 74
-226.137 260.163 -1015 0.343062 -0.1535 -0.901372 76 76 69
-237.206 274.391 -1016.92 0.24248 -0.120965 -0.877306 61 62 59
-224.337 270.244 -1014.63 0.231743 -0.0348062 -0.965323 66 65 60
-224.035 273.598 -1014.48 0.191275 0.00304739 -0.975533 63 62 58
-171.514 568.372 -1015.13 0.874269 0.193891 -0.423851 238 235 180
-171.915 581.592 -1012.27 0.909667 -0.021146 -0.325717 236 234 177
-147.313 558.9 -1015.87 0.246848 0.211088 -0.663512 230 229 184
-155.052 574.509 -1017.7 0.144162 0.114939 -0.834645 247 244 197
-145.747 584.123 -1012.6 0.4858 0.163875 -0.630402 232 230 184
-133.335 482.326 -1014.15 -0.163821 0.281209 -0.897331 215 217 191
-134.479 488.085 -1014.39 -0.13419 0.343553 -0.912582 215 218 193
-140.159 495.631 -1016.21 -0.0473834 0.159144 -0.953356 233 234 207
-138.483 501.779 -1015.65 0.0871845 0.16552 -0.918997 227 228 196
-128.416 499.162 -1011.68 0.0882381 0.263459 -0.926393 219 220 187
-134.33 508.844 -1014.21 0.115892 0.076507 -0.841498 221 221 189
-132.808 515.268 -1013.67 -0.0220001 -0.00927675 -0.753926 217 218 189
-139.998 522.718 -1016.19 0.0780569 0.0643433 -0.729517 227 226 191
-142.907 526.96 -1016.94 0.24666 0.06957 -0.767382 235 235 195
-128.983 525.223 -1011.31 -0.472288 0.0783967 -0.63558 213 215 192
-137.975 538.027 -1014.95 -0.398323 0.208987 -0.637811 215 216 186
-135.068 544.375 -1013.21 -0.644572 0.250571 -0.62323 213 214 187
-333.328 -539.714 -1010.45 0.821884 0.126617 -0.484347 66 58 50
-337.628 -522.446 -1006.97 0.67307 0.247266 -0.690028 42 39 37
-339.472 -509.362 -1005.07 0.775704 0.13229 -0.601455 43 41 37
-343.143 -495.861 -1007.88 0.872442 0.0427328 -0.456301 39 38 35
-342.109 -484.305 -1009.04 0.850925 -0.13717 -0.445826 37 37 34
-342.62 -471.835 -1008.26 0.91749 0.0962568 -0.349846 41 43 39
-343.396 -457.214 -1010.24 0.880799 -0.103961 -0.441681 44 47 42
-342.289 -449.885 -1008.93 0.804793 -0.16599 -0.52783 46 48 43
-292.21 -203.88 -1008.37 0.152324 -0.113786 -0.986548 61 62 58
-292.163 -199.813 -1008.73 0.145198 -0.101685 -0.990747 61 63 58
-279.519 -199.666 -1005.28 0.153459 -0.0842326 -0.983675 82 85 82
-291.244 -194.205 -1008.78 0.153703 -0.0702378 -0.988347 62 63 59
-280.99 -194.558 -1005.18 0.138151 -0.0766879 -0.986549 83 84 82
-283.697 -176.759 -1009.52 0.158098 -0.16688 -0.974871 66 67 63
-279.211 -172.84 -1008.17 0.136219 -0.136746 -0.98026 72 73 71
-278.913 -161.259 -1007.13 0.126721 -0.0729462 -0.998802 87 88 88
-284.151 -155.62 -1011.26 0.141209 -0.0404497 -1.00772 86 87 86
-285.855 -142.7 -1005.76 0.345703 -0.112191 -0.80545 69 70 66
-279.026 126.295 -1005.82 0.602983 -0.117733 -0.787177 65 69 64
-280.132 132.736 -1009.55 0.635572 -0.102273 -0.763099 66 70 65
-275.953 147.118 -1010.79 0.693408 -0.171563 -0.693134 67 71 66
-265.238 126.624 -1010.32 0.615087 0.0819516 -0.776814 55 55 51
-267.489 161.168 -1006.57 0.518399 -0.175872 -0.822967 67 70 65
-273.002 162.297 -1010.85 0.555043 -0.256627 -0.784635 67 71 66
-244.22 -24.0827 -1010.37 -0.233731 -0.0796591 -0.818655 58 59 55
-240.96 -14.0204 -1011.09 -0.536409 -0.0659621 -0.772809 59 60 55
-242.041 6.89293 -1010.9 0.1769 0.106923 -0.970865 58 59 53
-246.018 8.82657 -1007.76 0.209319 0.091767 -0.962263 58 59 54
-83.5103 78.1581 -1008.81 0.226786 0.0971103 -0.948112 58 56 50
-81.9101 85.8521 -1007.99 0.156452 0.0710985 -0.97125 59 57 51
-70.0336 76.495 -1006.44 0.231691 0.0344721 -0.955344 59 58 52
-93.5166 86.909 -1010.81 0.381084 0.0810775 -0.913809 56 54 49
-91.2868 92.1431 -1009.41 0.319794 0.0896861 -0.929396 57 55 50
-79.4632 87.6104 -1007.57 0.128115 0.0611458 -0.978272 60 58 52
-77.4818 96.9769 -1007.03 0.0918391 0.0592661 -0.983244 61 59 53
-65.4203 80.3273 -1005.18 0.259964 0.00689358 -0.95797 58 59 52
-80.5596 98.0961 -1007.32 0.0795749 0.0668693 -0.984822 60 58 52
-78.5819 102.238 -1006.95 0.0908032 0.0552256 -0.97995 60 58 52
-78.3365 109.307 -1006.86 0.0715435 0.0283034 -0.976481 61 59 53
-88.401 114.571 -1007.64 0.179337 0.00588093 -0.961369 57 55 50
-91.2161 123.277 -1007.81 0.150121 -0.0266131 -0.965461 57 55 49
-77.0381 117.36 -1006.48 0.0892865 0.0156001 -0.974467 62 61 55
-72.8691 121.859 -1005.74 0.152598 0.00244873 -0.972097 64 65 58
-94.5937 129.445 -1008.4 0.155781 -0.0556482 -0.962787 56 54 48
-97.9653 138.03 -1009.62 0.285304 -0.0431938 -0.914147 54 52 47
-141.101 169.552 -1011.4 -0.239418 0.23542 -0.933766 44 44 37
-121.231 173.626 -1010.34 0.00367616 0.338876 -0.929521 43 41 39
-100.646 159.932 -1010.81 0.481253 -0.0159288 -0.853364 56 55 53
-99.7868 167.918 -1011.53 0.380368 0.00208884 -0.887515 58 57 55
-99.2948 169.256 -1011.06 0.340435 0.0408793 -0.889088 58 57 54
27.4939 -121.901 -1005.72 -0.578381 -0.181744 -0.701544 56 57 54
27.1322 -107.731 -1006.14 -0.663169 0.064627 -0.709473 56 57 54
27.0954 -100.332 -1006.3 -0.711912 -0.112886 -0.682384 58 59 56
26.8629 -88.6694 -1007.98 -0.760129 -0.109037 -0.634169 57 57 54
27.5466 -81.3777 -1009.28 -0.744837 -0.0402817 -0.651491 56 57 53
27.0133 -70.7654 -1008.87 -0.786337 -0.0142131 -0.604258 59 59 54
-254.747 205.666 -1007.28 0.463078 -0.263024 -0.839714 76 78 73
-256.646 214.621 -1010.86 0.39069 -0.218346 -0.885696 77 77 73
-251.876 220.038 -1010.07 0.329848 -0.199193 -0.907609 80 80 75
-245.414 214.237 -1006.31 0.448017 -0.272843 -0.828391 78 78 73
-135.475 328.358 -1011.43 0.0186754 -0.197472 -0.972811 65 65 60
-131.715 352.717 -1011.27 -0.10385 0.218766 -0.94303 49 49 46
-110.617 335.979 -1011.13 0.212898 -0.297577 -0.908049 75 77 71
-143.719 356.958 -1007.5 -0.137048 0.0372435 -0.880587 65 65 59
-140.154 359.198 -1008.86 -0.199105 -0.205209 -0.907581 74 76 69
-146.85 428.951 -1010.44 0.349098 0.124382 -0.930463 225 223 182
-157.448 445.965 -1010.88 0.628271 0.0830868 -0.764387 234 232 187
-156.431 454.174 -1009.95 0.643798 0.00336997 -0.750772 234 232 187
-152.868 460.405 -1007.46 0.577388 0.0334603 -0.800224 231 229 185
-154.503 463.815 -1007.67 0.627554 0.0515215 -0.761104 233 231 186
-158.005 472.784 -1008.89 0.756101 0.0493009 -0.625824 237 235 188
-93.0184 585.42 -1010.56 -0.419449 0.0150082 -0.913535 228 231 201
-198.756 774.649 -1010.9 -0.331548 0.754226 -0.559733 140 167 155
-195.529 775.238 -1010.5 -0.339802 0.74995 -0.553147 137 165 152
-193.278 784.02 -1006.1 -0.365096 0.508578 -0.75162 130 165 153
-160.048 -478.582 -1001.62 -0.674848 -0.486121 -0.489228 46 44 38
-150.334 -488.184 -1002.6 -0.47697 -0.601 -0.596429 46 45 39
-164.244 -467.229 -1002.09 -0.8601 -0.177318 -0.429116 39 38 32
-164.017 -454.388 -1002.18 -0.877062 0.0190486 -0.477613 39 38 32
-163.938 -440.704 -1001.73 -0.89804 -0.00571978 -0.427139 41 40 33
-131.61 -504.051 -1001.72 -0.136027 -0.722955 -0.534239 39 37 32
-138.397 -501.617 -1000.52 -0.327551 -0.612103 -0.620854 43 43 37
-119.054 -494.989 -1001.22 0.76939 -0.527384 -0.380445 36 32 30
-91.357 -283.359 -1002.63 0.800301 -0.135766 -0.583091 48 48 46
-87.248 -266.914 -999.931 0.796627 -0.0925406 -0.594992 48 48 45
-85.7664 -255.074 -1000.54 0.799473 -0.151911 -0.578546 48 48 45
-83.1672 -240.101 -999.823 0.80442 -0.100517 -0.581841 50 51 47
-294.644 -230.059 -1000.35 -0.00323332 -0.0739436 -0.95982 70 73 72
-289.733 -217.569 -999.36 0.386189 -0.0766415 -0.759896 67 70 68
-47.2842 -62.3136 -999.35 0.658287 -0.0603678 -0.747971 60 61 55
-49.4656 -57.0905 -1001.99 0.525661 -0.0581054 -0.825175 59 60 54
-52.1411 -45.836 -1004.95 0.338735 -0.0258605 -0.925633 57 58 51
-48.8107 -39.5292 -1003.19 0.467288 0.0368341 -0.864633 59 60 53
-44.1066 -32.1214 -1000.43 0.492739 0.0622387 -0.854838 60 61 54
-293.05 -16.6222 -999.197 0.851247 -0.0364705 -0.472727 64 67 62
-293.337 -7.23596 -1001.18 0.821113 -0.0446287 -0.503744 64 67 62
-293.085 3.48197 -1004.97 0.812575 -0.084419 -0.516369 65 68 63
-292.464 23.2581 -1002.12 0.885325 -0.0805791 -0.444747 66 69 64
-290.265 38.5884 -998.819 0.833042 -0.0884516 -0.5406 64 68 63
-267.601 39.0796 -1004.17 0.436118 0.0377872 -0.861695 58 60 54
-263.533 44.777 -1003.32 0.382368 0.0709381 -0.906616 57 58 51
-289.207 55.7228 -1004.33 0.848733 -0.0971628 -0.508125 68 72 67
-60.3631 130.491 -1004.64 0.0857638 -0.137951 -0.981699 67 68 61
-45.6466 128.5 -1002.29 0.101537 -0.0408262 -0.98006 66 67 59
-44.2801 134.766 -1002.62 0.0869914 -0.0655597 -0.980325 66 67 60
-46.9191 145.234 -1004.8 0.183878 -0.264432 -0.939644 68 69 63
-0.0907284 -562.267 -999.691 -0.288608 -0.661028 -0.647371 79 79 78
-2.28625 -555.718 -1001.34 -0.297761 -0.415539 -0.821182 79 79 80
57.4946 -202.08 -1001.43 -0.600913 -0.220218 -0.730859 65 68 61
42.0274 -183.318 -999.685 -0.236346 -0.319426 -0.904025 64 65 60
48.8949 -184.938 -1002.16 -0.374633 -0.299486 -0.862485 65 66 61
29.4497 -170.28 -999.404 -0.328545 -0.0968131 -0.898811 60 60 56
22.7377 -55.3567 -1003.02 -0.829156 0.000562782 -0.542941 60 60 55
21.4146 -48.087 -1000.9 -0.84072 -0.0305935 -0.52866 60 61 54
23.2327 -31.5969 -1004.94 -0.798195 -0.0818301 -0.593608 62 63 56
-43.0466 -9.95762 -1001.05 0.405072 -0.0380261 -0.883996 60 61 54
-39.5098 20.9388 -999.104 0.291331 0.0497098 -0.95092 59 60 53
20.7244 -21.0279 -1001.36 -0.829932 -0.0131078 -0.555362 62 63 57
17.0932 -3.96303 -1000.97 -0.723676 -0.233626 -0.643403 63 64 58
15.7747 2.35234 -1001.29 -0.735824 -0.108062 -0.661955 62 63 56
-151.874 353.317 -1002.81 0.45894 0.621819 -0.407952 42 42 39
-132.132 282.93 -1004.69 0.0743243 -0.131479 -0.977518 65 66 58
-130.319 283.5 -1004.58 0.0718417 -0.131774 -0.980471 64 66 58
-110.056 276.873 -1003.26 -0.192039 -0.0207747 -0.930385 65 66 59
-112.22 288.305 -1003.59 -0.024013 -0.0622055 -0.955899 64 65 58
-117.743 295.747 -1004.68 0.081668 -0.00533446 -0.924292 52 52 47
-116.618 297.837 -1004.53 0.0824241 -0.0123524 -0.926492 54 55 49
-118.915 302.859 -1004.71 0.169311 -0.0578997 -0.919332 55 56 50
-113.214 308.697 -1004.07 0.146477 -0.0826099 -0.908522 65 67 61
-108.046 319.218 -1004.37 -0.0386954 -0.143763 -0.879715 72 74 68
-49.4569 771.178 -999.036 0.809309 0.487661 -0.156623 128 159 130
-56.7851 776.137 -1002.34 0.766661 0.559206 -0.277954 131 161 131
-201.73 790.858 -1003.47 -0.34607 0.445034 -0.790265 145 181 172
-199.568 794.678 -1002.66 -0.386642 0.3132 -0.84448 150 192 183
-197.452 800.68 -1001.28 -0.410373 0.209544 -0.890701 155 201 193
-210.237 811.805 -1003.57 -0.422337 0.197058 -0.89285 146 196 188
-193.916 787.469 -1004.5 -0.375805 0.411313 -0.804474 135 173 162
-191.96 804.607 -1001.73 -0.422231 0.21449 -0.880699 147 195 185
-191.333 807.657 -1001.16 -0.423845 0.211339 -0.87913 144 193 182
-192.134 816.867 -999.332 -0.437911 0.130359 -0.886685 115 170 159
-190.42 823.316 -999.841 -0.45064 0.0753482 -0.891089 103 161 148
-180.85 820.522 -1004.67 -0.480838 0.108907 -0.861096 128 181 165
-154.59 -495.708 -993.287 -0.561173 -0.462806 -0.652319 53 52 46
-152.959 -492.021 -996.992 -0.51317 -0.49286 -0.660232 50 48 42
-201.096 -485.918 -991.736 0.0169104 -0.222314 -0.9468 47 49 45
-166.782 -363.525 -998.267 -0.832539 -0.0459637 -0.537264 45 45 41
-170.805 -337.285 -996.864 -0.773932 -0.138012 -0.60685 47 46 42
-170.553 -347.306 -995.693 -0.763994 -0.0831317 -0.636644 45 45 41
-105.916 -434.583 -993.619 0.877865 -0.0237035 -0.47386 41 39 38
-104.805 -423.81 -994.06 0.852437 -0.0966942 -0.511613 41 39 38
-103.682 -410.51 -995.206 0.815432 -0.0907412 -0.567847 44 41 40
-101.443 -398.09 -994.061 0.787846 -0.0793424 -0.608722 43 41 39
-98.5586 -381.033 -993.618 0.815846 -0.136153 -0.561962 44 43 39
-99.8121 -368.389 -996.951 0.725853 0.0475666 -0.682136 45 44 40
-97.7843 -356.097 -995.432 0.732448 -0.0877635 -0.666951 44 43 39
-45.7955 -64.222 -997.492 0.694601 -0.0768599 -0.714206 60 61 55
-292.898 -26.906 -996.828 0.890819 -0.0432564 -0.426992 64 68 64
-292.017 -16.8578 -992.957 0.916001 -0.0236641 -0.413341 64 67 62
-292.664 3.26748 -996.942 0.88553 -0.0644234 -0.45342 66 68 63
-290.355 21.0314 -995.274 0.860378 -0.106016 -0.491044 66 68 64
-289.307 33.9076 -996.278 0.818677 -0.110592 -0.557313 64 68 63
-287.135 46.7055 -993.941 0.794001 -0.0828275 -0.597931 65 69 64
-288.954 55.1235 -999.176 0.808327 -0.109414 -0.560579 67 71 66
-166.22 160.831 -998.193 -0.725473 -0.00265176 -0.65849 54 53 47
-165.124 172.02 -998.249 -0.737421 0.155605 -0.649308 53 52 46
111.204 -585.378 -994.759 -0.255295 -0.621535 -0.20184 57 50 46
-16.145 -534.059 -993.625 -0.294555 -0.0683524 -0.955284 79 79 78
-8.87364 -530.829 -992.793 -0.312404 -0.0184089 -0.949564 76 76 75
-1.36365 -526.454 -992.834 -0.317836 0.0179642 -0.956876 76 76 75
19.368 -520.602 -993.483 -0.395482 0.00988833 -0.918081 50 51 50
30.3195 -524.28 -993.766 -0.384139 0.0177362 -0.932071 51 52 51
32.3881 -518.142 -996.004 -0.377988 0.00983683 -0.927127 53 53 52
31.4102 -510.726 -997.701 -0.363612 0.00714673 -0.929138 59 59 58
10.4801 14.2755 -996.647 -0.65729 -0.0223572 -0.737645 62 63 56
-33.5159 24.4993 -996.538 0.350485 -0.0128428 -0.923222 60 61 54
-29.564 26.7158 -995.082 0.399802 -0.0954161 -0.898866 60 61 54
-30.8833 37.1724 -997.279 0.364173 -0.116747 -0.918271 58 59 52
-28.7149 46.7055 -996.716 0.460271 -0.0408991 -0.878695 59 60 53
0.139167 31.4348 -992.165 -0.457735 -0.226313 -0.858528 65 66 59
4.30753 39.7917 -996.787 -0.586564 -0.103427 -0.80134 67 68 61
4.87426 45.0573 -997.705 -0.627151 -0.0543989 -0.773034 67 68 61
-23.8062 52.2591 -993.229 0.577194 0.023364 -0.823134 60 61 54
-30.0896 62.2749 -997.147 0.460461 0.023551 -0.891716 58 59 52
-22.2217 64.8461 -992.403 0.526776 0.0356517 -0.874133 60 61 54
-0.0453405 51.3987 -994.394 -0.544963 -0.0842243 -0.833485 67 68 61
2.27332 57.7065 -997.621 -0.590837 -0.203029 -0.778755 67 68 61
-1.26726 60.2565 -995.655 -0.526355 -0.230301 -0.824198 66 67 60
8.80572 29.456 -997.696 -0.597137 -0.206203 -0.759648 64 65 58
-30.458 74.7474 -997.031 0.430953 0.0305903 -0.898512 57 58 51
-27.3444 79.4496 -995.317 0.400602 0.0361393 -0.909848 58 59 52
-30.9335 86.3126 -996.439 0.312033 0.0193682 -0.936342 60 61 54
-25.6144 86.6358 -994.692 0.278992 0.0108239 -0.922787 61 62 55
-21.8084 97.85 -994.637 0.135964 -0.122321 -0.904979 64 65 58
-5.76572 74.8572 -996.483 -0.508791 -0.222523 -0.824753 67 68 61
-7.04135 83.5094 -997.882 -0.490439 -0.185953 -0.844218 67 68 61
-80.5729 894.323 -993.877 0.752477 -0.356817 -0.537486 225 224 212
-77.1829 906.16 -993.391 0.792119 -0.191166 -0.5571 180 155 134
-72.0267 920.226 -993.388 0.827058 -0.266929 -0.468003 218 188 157
-67.9227 931.745 -995.905 0.7544 -0.271 -0.57619 228 196 169
-64.8256 942.609 -998.226 0.673897 -0.166265 -0.705268 219 186 160
-54.1261 942.784 -992.621 0.680575 -0.219236 -0.702958 207 173 144
-285.671 -146.724 -1004.47 0.432142 -0.0912811 -0.745923 67 68 64
-210.026 825.926 -1004.68 -0.398067 0.0948743 -0.876446 109 160 144
-194.794 873.988 -1005.13 -0.637245 -0.10272 -0.666754 191 218 210
-188.182 869.078 -1002.59 -0.545822 -0.0450969 -0.763054 171 209 200
-157.231 -496.478 -990.295 -0.6406 -0.479599 -0.565199 57 55 50
-239.956 -482.024 -986.769 -0.0894467 -0.165666 -0.863951 53 54 49
-221.753 -484.255 -989.013 -0.0897854 -0.245584 -0.877886 53 54 49
-217.075 -482.586 -988.842 -0.0805174 -0.187333 -0.877445 52 53 49
-202.038 -485.041 -990.398 -0.00406059 -0.194555 -0.930009 49 50 46
-166.762 -481.107 -987.706 -0.713129 -0.363006 -0.500811 51 51 46
-169.767 -467.903 -988.155 -0.861043 -0.170681 -0.401224 45 44 38
-168.676 -453.14 -990.833 -0.944478 0.0144207 -0.327577 41 40 35
-168.457 -438.509 -987.82 -0.930055 0.0081264 -0.349124 43 43 37
-198.909 -254.999 -989.71 -0.653181 -0.201122 -0.703836 43 41 37
-203.056 -240.924 -986.05 -0.81823 0.0611384 -0.565583 42 41 37
-190.269 -278.452 -987.155 -0.535108 -0.253643 -0.79546 52 51 47
-185.54 -274.757 -990.969 -0.590251 -0.190613 -0.771076 51 51 47
-188.803 -269.585 -990.468 -0.52436 -0.256389 -0.795125 51 49 45
-194.468 -258.252 -991.432 -0.485431 -0.323799 -0.792716 46 44 40
-88.9951 -324.215 -988.909 0.854112 -0.0815516 -0.512604 49 49 45
-86.3072 -312.315 -986.68 0.840163 -0.103508 -0.531274 50 50 47
-84.6809 -301.254 -987.701 0.808598 -0.19315 -0.552902 50 50 46
-82.689 -287.1 -988.177 0.831631 -0.144372 -0.531589 49 49 45
-279.291 70.1754 -991.094 0.673663 -0.130199 -0.727449 66 70 65
-276.646 73.6728 -989.544 0.619432 -0.116575 -0.764019 65 69 64
-272.607 82.098 -989.808 0.538888 -0.210176 -0.805123 66 70 65
-266.373 89.3907 -987.506 0.496104 -0.130475 -0.851423 66 70 65
-269.207 99.8681 -990.531 0.544542 -0.0931211 -0.818573 64 67 62
-260.779 110.487 -987.37 0.452177 -0.166351 -0.85804 66 70 65
-262.581 112.718 -989.213 0.499703 -0.198789 -0.826813 66 70 65
-257.238 120.267 -987.732 0.426868 -0.157007 -0.87453 67 71 66
-257.963 130.02 -990.043 0.454533 -0.188766 -0.861227 69 72 67
-251.783 134.139 -988.164 0.367931 -0.246757 -0.893579 72 75 70
-252.367 146.426 -992.358 0.368941 -0.222536 -0.895917 68 71 65
-249.579 161.798 -992.35 0.453373 -0.0370277 -0.884711 63 66 61
68.2983 -421.587 -989.233 -0.877364 -0.0646638 -0.458326 57 55 49
67.5197 -408.759 -989.741 -0.81797 -0.102248 -0.546531 56 55 49
65.1764 -394.249 -990.434 -0.735627 -0.262152 -0.620156 52 51 48
61.024 -389.163 -986.668 -0.730258 -0.108154 -0.64955 51 51 47
62.3743 -374.272 -987.039 -0.777571 0.0525764 -0.623087 54 54 50
61.5717 -366.988 -986.411 -0.805623 -0.036249 -0.586342 54 53 50
63.095 -352.645 -991.846 -0.874699 -0.105764 -0.469257 56 55 51
62.5986 -336.652 -990.17 -0.905314 0.082345 -0.407687 59 58 54
61.6614 -335.69 -987.711 -0.906951 0.0968808 -0.401357 59 58 54
64.6843 -321.723 -988.855 -0.919277 0.124739 -0.373969 62 61 57
65.357 -306.364 -989.605 -0.942031 -0.0189416 -0.328936 62 62 58
63.9449 -295.139 -986.304 -0.931539 -0.0415033 -0.35693 61 63 57
65.145 -283.503 -989.836 -0.937458 -0.0347672 -0.351985 64 66 60
61.9087 -266.24 -988.018 -0.888134 -0.15085 -0.430047 62 65 60
62.4193 -254.225 -991.642 -0.87259 -0.10282 -0.467411 61 64 59
59.1516 -239.313 -990.548 -0.708051 -0.208077 -0.624372 63 66 61
-163.007 623.267 -991.062 0.73294 0.329959 0.0949052 253 252 221
-154.835 627.366 -991.155 0.837212 0.202098 -0.159058 253 250 217
-125.113 584.398 -992.311 0.217771 0.252518 -0.897346 218 218 192
-54.2695 780.361 -990.464 0.875299 0.378383 -0.274846 140 172 146
-54.0959 786.186 -988.569 0.814236 0.297261 -0.500488 151 185 159
-56.0135 787.407 -989.644 0.793956 0.309666 -0.512326 152 185 158
-53.7712 788.946 -987.879 0.772925 0.270136 -0.585833 155 189 163
-57.7118 804.842 -986.157 0.589763 0.250956 -0.768417 159 196 172
-60.3061 808.867 -986.589 0.569957 0.276197 -0.773092 149 186 165
-382.944 -579.702 -984.85 0.315465 -0.879887 -0.0990899 65 60 57
-373.556 -573.912 -983.916 0.263347 -0.947958 -0.0819359 79 74 70
-354.35 -571.938 -982.653 0.0794644 -0.78312 -0.465292 73 67 64
-348.4 -568.715 -983.061 0.419295 -0.433221 -0.634971 63 58 54
-337.529 -554.06 -980.893 0.587779 -0.672149 -0.312892 84 67 58
-330.908 -544.265 -982.695 0.761719 -0.535863 -0.11098 147 105 86
-290.263 -293.582 -982.195 0.878048 0.0309269 -0.475172 51 54 51
-289.274 -279.019 -979.375 0.90449 0.0186939 -0.426718 54 55 53
-290.553 -270.143 -983.027 0.904341 0.00633119 -0.431678 54 54 52
-290.218 -257.276 -980.249 0.919944 0.0295744 -0.404402 52 53 51
-292.315 -234.448 -985.086 0.861336 0.0112869 -0.423281 54 57 54
-171.277 -425.644 -982.919 -0.843216 -0.0999035 -0.518101 45 45 39
-170.33 -432.895 -983.482 -0.864537 -0.0868973 -0.47146 45 46 39
-173.329 -405.702 -983.097 -0.778974 -0.135305 -0.605066 47 46 40
-174.06 -394.721 -984.745 -0.802967 -0.129205 -0.567467 46 46 40
-198.555 -203.266 -982.421 -0.788739 0.232775 -0.569748 43 44 39
-195.861 -201.002 -985.143 -0.810058 0.220769 -0.540645 42 43 38
-193.62 -178.848 -983.145 -0.72126 0.0651097 -0.68106 44 45 41
-190.346 -171.173 -985.077 -0.782081 0.142043 -0.601128 43 45 40
-192.921 -157.183 -980.753 -0.790826 0.0276588 -0.602175 45 46 42
-189.889 -144.332 -982.707 -0.791045 0.0882647 -0.589954 48 48 44
-186.365 -136.794 -985.301 -0.779342 0.0995061 -0.599316 48 48 44
-69.5611 -218.562 -985.262 0.806498 -0.110902 -0.575294 51 53 49
-64.6418 -208.28 -981.356 0.807429 -0.160702 -0.56467 53 56 51
-202.242 117.25 -984.932 -0.335145 0.0879324 -0.936084 55 56 49
-198.796 117.742 -986.043 -0.311766 0.0890297 -0.943069 55 56 49
-245.076 136.108 -985.996 0.323246 -0.273221 -0.904134 75 76 71
-233.744 126.058 -980.39 0.173555 -0.170562 -0.961522 74 75 70
-237.436 138.695 -984.495 0.267467 -0.285362 -0.916267 73 75 69
-223.363 141.446 -980.621 0.243588 -0.208462 -0.944748 70 72 66
-222.856 144.403 -981.37 0.246883 -0.222799 -0.942726 70 72 66
-205.109 129.127 -981.933 -0.311207 0.166046 -0.931306 54 55 48
-205.593 130.597 -981.458 -0.299484 0.171495 -0.931824 54 55 48
-212.798 142.245 -979.793 0.00347258 -0.135253 -0.969362 63 66 59
-204.375 140.67 -981.203 -0.220085 -0.0463795 -0.944601 58 59 52
-206.73 145.615 -981.615 -0.135784 -0.173019 -0.954103 62 63 56
-228.591 150.709 -984.634 0.282032 -0.214419 -0.935804 69 71 65
-215.638 151.048 -982.265 0.0910821 -0.25719 -0.953945 70 72 65
-218.986 158.378 -984.689 0.138381 -0.292859 -0.93837 75 77 70
