ply
format ascii 1.0
comment Created by Open3D
element vertex 732
property double x
property double y
property double z
property double nx
property double ny
property double nz
property uchar red
property uchar green
property uchar blue
end_header
-301.397 -1040.86 -1712.89 -0.0148927 -0.019284 0.979626 154 184 221
-317.252 -1030.91 -1713.56 0.321889 0.0483327 0.873655 161 190 224
-317.574 -1024.64 -1714.04 0.290356 -0.0363241 0.895382 162 191 226
-301.361 -1031.96 -1713.02 -0.178193 0.00720853 0.959967 155 185 223
-249.208 -1067.75 -1718.07 0.908245 -0.0220964 0.402741 149 176 211
-249.175 -1063.26 -1716.36 0.924997 -0.0595645 0.370696 148 176 210
-248.859 -1051.47 -1713.54 0.937016 -0.0846765 0.338525 146 176 208
-245.944 -1033.32 -1717.32 0.844976 -0.11007 0.505858 145 174 204
-123.202 -933.169 -1712.36 -1.00051 0.0252531 -0.0938005 141 172 214
-121.624 -920.549 -1713.18 -0.964856 0.186476 0.116838 142 173 214
-117.276 -903.363 -1717.64 -0.92934 0.205117 0.292291 149 181 223
-116.019 -896.035 -1716.33 -0.953666 0.147163 0.250071 150 182 224
-115.149 -887.775 -1716.39 -0.958175 0.148066 0.209476 151 182 224
-112.452 -874.915 -1717.74 -0.885992 0.1608 0.390702 153 183 225
-110.244 -864.179 -1717.55 -0.856286 0.158746 0.473682 158 189 231
-106.082 -856.084 -1712.6 -0.899786 0.196426 0.361753 158 187 229
-105.893 -845.707 -1717.72 -0.854096 0.182281 0.481353 166 197 239
-103.209 -837.445 -1713.4 -0.914176 0.0580226 0.406145 168 197 240
-104.255 -823.347 -1714.82 -0.8564 -0.0672814 0.492161 165 194 236
-103.972 -817.005 -1713.45 -0.830625 -0.0760234 0.510029 161 190 231
-107.335 -805.283 -1716.84 -0.836069 -0.115198 0.515706 154 186 229
-83.8945 -468.6 -1718.78 -0.781775 0.371843 0.511984 157 191 233
-75.5763 -459.974 -1715.07 -0.516973 0.25565 0.671404 171 204 245
-79.8335 -452.738 -1718.25 -0.573977 -0.0446269 0.752347 172 204 245
-80.0066 -443.599 -1716.52 -0.493187 -0.165059 0.786564 168 200 242
-82.8274 -439.721 -1717.61 -0.542306 -0.17349 0.765281 167 199 242
-84.4339 -436.249 -1717.63 -0.591111 -0.210203 0.729863 167 198 243
-84.316 -429.897 -1714.65 -0.680461 -0.35025 0.629181 168 199 245
-88.2158 -412.441 -1715.97 -0.778806 -0.0353661 0.59351 170 202 249
-86.4483 -410.3 -1713.74 -0.767499 -0.00843381 0.615901 169 200 248
-89.6113 -400.681 -1716.03 -0.648023 -0.136756 0.713121 170 202 249
-89.9941 -392.827 -1713.03 -0.60995 -0.237126 0.759865 166 198 245
-68.8048 -415.674 -1718.86 -0.124478 -0.136669 0.884929 177 208 246
-93.0058 -385.242 -1713.44 -0.682134 -0.133272 0.70992 159 191 239
-95.3506 -374.617 -1718.55 -0.848033 0.141606 0.446898 154 186 235
-89.3497 -366.67 -1714.96 -0.724944 0.253107 0.57236 155 187 234
-333.482 215.538 -1715.13 0.449206 -0.244436 0.801635 65 63 76
-329.933 218.89 -1715.61 0.357133 -0.280711 0.849419 64 62 75
-328.453 220.177 -1715.76 0.322422 -0.289394 0.868215 64 61 74
-327.632 228.758 -1713.54 0.392992 -0.292799 0.852768 65 63 77
-321.117 235.348 -1713.92 0.286747 -0.200362 0.916152 63 62 75
-313.316 230.92 -1716.93 0.335883 -0.319359 0.837317 65 64 77
-313.744 236.701 -1715.53 0.252174 -0.234053 0.893445 63 62 76
-307.519 238.87 -1717.58 0.455023 -0.203483 0.794263 67 66 79
-319.857 240.729 -1713.17 0.212875 -0.197067 0.945632 63 62 75
-308.212 250.054 -1715.52 0.372453 -0.167263 0.854762 64 63 76
-304.713 248.633 -1718.39 0.569938 -0.157841 0.761213 67 66 79
-300.603 259.897 -1715.86 0.393757 -0.40411 0.798204 78 78 91
-301.352 265.243 -1712.9 0.38425 -0.462169 0.796122 104 105 120
-298.399 261.232 -1715.91 0.344048 -0.44736 0.803472 82 82 95
-85.0933 -142.273 -1714.02 -0.658636 0.211766 0.671179 42 43 52
-207.511 -101.664 -1717.04 0.415954 -0.17853 0.849904 49 48 59
-205.494 -93.074 -1716.84 0.338075 -0.0601739 0.913293 41 40 51
-208.557 -87.0418 -1716.5 0.195567 0.15487 0.929121 37 36 46
-92.8413 -143.23 -1716.88 -0.793835 0.258275 0.444975 35 35 43
-81.9727 -139.185 -1713.4 -0.588908 0.207066 0.767185 44 45 55
-83.8036 -134.309 -1714.74 -0.604234 0.253718 0.72928 40 40 49
-84.9062 -123.584 -1715.93 -0.691973 0.23695 0.587673 32 31 39
-81.7082 -116.858 -1714.59 -0.645738 0.102298 0.681693 31 30 37
327.972 282.293 -1713.94 -0.417631 0.376057 -0.81945 255 239 209
336.599 285.098 -1717.38 -0.343767 0.440922 -0.812609 253 234 204
347.068 285.541 -1719.21 -0.0768127 0.464622 -0.868438 255 238 209
348.832 290.096 -1716.14 -0.0543024 0.524176 -0.843074 240 223 197
350.81 285.356 -1719.4 -0.0441383 0.463885 -0.876975 255 238 208
357.417 293.118 -1715.43 -0.0799439 0.517455 -0.84284 234 217 193
363.472 293.537 -1716.04 -0.0536551 0.460458 -0.871094 236 218 194
377.153 291.863 -1714.43 0.189592 0.402899 -0.885263 246 227 203
383.047 291.753 -1713.02 0.134646 0.544272 -0.805495 250 228 202
393.725 287.881 -1717.72 -0.0937292 0.72503 -0.676951 251 221 192
400.277 291.129 -1715.99 -0.142849 0.718317 -0.679143 253 224 196
411.399 291.758 -1717.77 -0.0350081 0.642939 -0.757264 254 224 192
423.13 289.954 -1718.32 -0.0199025 0.624654 -0.775742 235 194 156
434.951 294.719 -1717.53 -0.133298 0.619883 -0.790768 253 222 186
550.037 227.614 -1716.92 0.153767 0.247223 -0.808872 211 184 163
468.373 265.385 -1717.07 0.534579 0.403056 -0.708161 143 124 115
490.2 246.997 -1717.93 0.292857 0.466829 -0.799857 123 112 114
490.274 248.961 -1716.79 0.306789 0.419612 -0.821071 121 110 111
474.102 256.687 -1718.3 0.437644 0.541365 -0.660689 116 109 114
481.538 257.06 -1716.59 0.296297 0.496292 -0.784268 128 117 120
476.838 262.4 -1715.25 0.371019 0.435533 -0.780735 159 138 130
493.884 253.579 -1712.57 0.422268 0.238608 -0.87232 117 105 102
-357.571 -1200.54 -1707.25 0.084309 -0.803185 -0.104162 58 53 54
-346.103 -1192.98 -1711.07 0.220016 -0.80065 -0.0268343 62 57 58
-342.078 -1188.43 -1705.76 0.559202 -0.668069 0.108821 76 69 70
-329.367 -1183.52 -1706.81 0.112419 -0.87905 0.341425 70 60 63
-325.751 -1186.51 -1710.38 0.128825 -0.851713 0.468571 73 61 64
-310.024 -1181.45 -1711.18 0.593166 -0.470066 0.583264 147 122 121
-307.178 -1169.3 -1710.92 0.828969 -0.192288 0.495985 197 165 161
-306.987 -1167.38 -1710.93 0.83585 -0.122103 0.492937 187 162 162
-304.718 -1159.2 -1711.63 0.688607 0.0696861 0.513284 151 150 165
-125.756 -1026.68 -1707.64 -0.925284 0.0825074 0.308308 149 181 219
-129.864 -1000.66 -1706.18 -0.850878 -0.0212714 0.121197 139 172 211
-129.574 -992.693 -1711.91 -0.937513 -0.169141 -0.0225502 139 171 209
-127.486 -1007.04 -1710.52 -0.839738 0.0504542 0.482407 144 177 215
-135.575 -980.152 -1705.37 -0.955753 -0.194663 -0.198869 132 166 207
-135.901 -972.993 -1705.81 -0.975989 0.0267207 -0.152216 130 163 204
-131.915 -960.725 -1705.38 -0.938796 0.302544 -0.14087 132 165 206
-127.894 -949.93 -1707.99 -0.891849 0.327059 -0.0971231 138 171 212
-123.892 -938.276 -1709.97 -0.984535 0.113055 -0.12452 140 173 214
-83.9935 -494.046 -1708.37 -0.655311 -0.0360949 0.739187 164 201 248
-87.5565 -489.707 -1710.82 -0.598258 -0.053547 0.810373 159 197 243
-80.7321 -471.991 -1709.52 -0.72152 0.436452 0.501754 137 174 220
-208.007 -467.02 -1708.26 0.711151 0.0273979 0.576687 179 207 241
-204.937 -453.426 -1706.86 0.842582 -0.237696 0.475131 175 202 235
-199.43 -445.299 -1710.24 0.796773 -0.296094 0.504652 164 191 224
-199.673 -441.129 -1707.93 0.779264 -0.243977 0.572188 159 186 218
-195.26 -436.684 -1712.87 0.776759 -0.197389 0.572324 155 182 215
-202.545 -428.94 -1708.43 0.721891 0.0539641 0.606323 155 181 213
-291.802 -169.039 -1712.15 0.705306 -0.373941 0.576229 52 51 65
-289.105 -161.094 -1708.62 0.752699 -0.431201 0.481379 47 46 60
-273.945 -161.532 -1708.57 0.73778 -0.280317 0.548835 50 49 62
-286.43 -156.609 -1708.36 0.787485 -0.392203 0.450091 44 43 57
-279.538 -149.402 -1706.61 0.747991 -0.199415 0.556299 51 50 63
-269.474 -152.864 -1710.71 0.734146 -0.276029 0.567689 51 50 62
-272.408 -145.784 -1709.75 0.728017 -0.279582 0.594478 50 49 60
-254.754 -196.662 -1711.59 0.432405 -0.305183 0.807091 191 221 254
-254.979 -186.097 -1708.06 0.431132 -0.252349 0.852726 186 214 252
-256.141 -182.342 -1705.91 0.433984 -0.301126 0.823472 180 207 245
-250.27 -174.307 -1705.51 0.437341 -0.262159 0.78525 147 164 195
-241.251 -174.06 -1711.43 0.41387 -0.3801 0.797859 154 173 208
-241.072 -169.648 -1707.36 0.330368 -0.539867 0.742322 101 108 134
-234.678 -169.631 -1709.17 0.209009 -0.604839 0.756945 91 96 121
-225.708 -159.66 -1705.5 0.223795 -0.493001 0.77696 45 43 56
-220.259 -161.105 -1709.62 0.416368 -0.286882 0.798726 45 44 56
-224.491 -154.531 -1708.55 0.358896 -0.0252809 0.736058 48 47 61
-230.105 -147.125 -1711.47 0.485415 0.453408 0.709949 55 54 72
-326.952 -68.1252 -1705.82 0.758473 0.124059 0.632324 55 55 65
-321.754 -64.703 -1711.64 0.697346 0.126353 0.698549 54 54 65
-325.119 -56.5746 -1708.26 0.768686 0.146444 0.608997 52 52 62
-326.114 -51.3478 -1707.95 0.770656 0.260997 0.564424 50 50 60
-80.5738 -147.937 -1710.99 -0.68451 0.196279 0.669616 48 49 59
-78.0512 -138.968 -1709.6 -0.669842 0.234556 0.620375 46 47 57
-77.4455 -129.481 -1712.12 -0.572518 0.200921 0.812099 43 43 53
-73.4014 -129.195 -1707.07 -0.773434 0.213375 0.493977 46 47 57
129.485 78.5851 -1707.35 0.695126 -0.052955 -0.679581 58 58 68
232.897 243.213 -1707.15 0.0417268 -0.0728424 -0.975226 254 225 198
227.9 249.773 -1708.08 0.029776 -0.128423 -0.990552 255 226 198
238.896 246.731 -1707.78 -0.00220945 -0.123528 -0.986288 255 226 198
248.986 243.529 -1709.45 -0.10022 0.143427 -0.945945 253 224 192
246.704 251.479 -1707.89 0.037191 -0.00602874 -0.983329 255 228 197
228.356 255.572 -1709.12 -0.0176581 -0.125573 -0.993954 254 227 197
232.725 264.412 -1709.59 -0.0122089 0.00749542 -0.99209 255 229 198
241.498 257.574 -1708.53 0.0564873 -0.0521674 -0.990879 255 228 196
249.726 260.662 -1707.6 0.107054 0.0081277 -0.991098 255 229 197
252.226 266.496 -1707.45 0.132155 0.013707 -0.990601 255 230 198
260.387 240.834 -1712.25 -0.131308 0.380387 -0.904025 253 226 195
256.589 247.671 -1708.73 -0.067074 0.256933 -0.945739 254 228 196
268.118 251.583 -1709.3 -0.165782 0.332023 -0.9023 253 227 197
252.827 254.234 -1707.15 0.0479037 0.0821043 -0.983344 255 229 197
267.596 259.173 -1706.95 -0.0235626 0.179729 -0.966821 255 231 200
269.032 261.008 -1706.37 0.0142568 0.181553 -0.971397 255 232 201
279.976 260.791 -1707.7 -0.149399 0.350524 -0.910528 254 233 201
280.173 262.73 -1706.8 -0.141954 0.34132 -0.915072 254 234 201
236.104 269.152 -1709.31 0.00383333 0.0641002 -0.992595 255 231 199
230.176 275.094 -1708.73 0.00343851 0.127342 -0.980187 255 233 204
246.691 273.679 -1707.77 0.117768 0.102669 -0.978837 255 234 201
242.403 277.754 -1708.13 0.0728063 0.0741634 -0.985604 255 235 203
252.688 276.545 -1706.12 0.184537 0.19854 -0.950377 255 235 203
238.258 282.229 -1708.33 0.0475544 0.0728089 -0.975854 245 227 199
233.579 294.854 -1707.87 0.03228 0.364532 -0.844544 219 202 179
246.824 285.889 -1705.81 0.29746 0.0589981 -0.947338 252 237 208
256.028 272.839 -1706.37 0.174158 0.1238 -0.968853 255 233 201
282.719 256.613 -1710.21 -0.183911 0.415665 -0.881725 252 230 199
282.085 265.346 -1705.81 -0.199098 0.356922 -0.904973 255 235 202
291.41 264.479 -1710.76 -0.255467 0.276523 -0.911755 254 233 202
295.493 270.129 -1710.02 -0.291592 0.327908 -0.872696 253 235 204
303.533 272.765 -1710.48 -0.21606 0.458645 -0.842697 255 239 208
303.92 274.184 -1709.54 -0.21345 0.50993 -0.818196 254 239 208
310.456 275.37 -1710.24 -0.195201 0.518067 -0.825865 255 239 208
311.431 281.928 -1705.94 -0.237827 0.537317 -0.795429 255 240 210
321.953 292.552 -1706.68 -0.356012 0.402214 -0.816867 251 236 207
14.5723 33.7843 -1706.83 0.109774 -0.263197 -0.808385 45 44 54
15.6142 31.2506 -1714.77 -0.0951604 -0.0953511 -0.77221 47 46 56
27.0906 35.3378 -1718.02 0.144156 -0.305738 -0.7341 51 51 62
28.2783 37.4473 -1713.54 0.190135 -0.349028 -0.777407 47 47 57
33.5347 37.3361 -1720.29 0.084328 -0.274205 -0.644541 56 57 70
35.9162 40.3449 -1714.9 0.122136 -0.32107 -0.683473 53 53 65
36.9823 39.7405 -1717.58 0.0995093 -0.29759 -0.658375 55 56 68
47.5907 46.3559 -1710.08 0.211732 -0.446185 -0.748835 46 46 56
62.7628 48.451 -1718.96 0.197599 -0.33534 -0.811171 45 44 55
59.4262 51.2511 -1711.3 0.22254 -0.433138 -0.774996 45 44 54
58.7782 48.9747 -1714.47 0.214326 -0.400664 -0.788525 45 44 54
70.7318 55.8537 -1710.92 0.210849 -0.389696 -0.779185 46 45 55
71.8142 59.6542 -1707.25 0.203059 -0.365716 -0.787607 46 45 55
77.5622 57.5325 -1712.4 0.198427 -0.336844 -0.794289 46 46 56
81.732 56.6412 -1715.44 0.181478 -0.32757 -0.775971 48 47 58
84.8582 65.4702 -1706.64 0.189029 -0.324946 -0.799142 46 45 56
92.3736 61.2424 -1713.13 0.197189 -0.334339 -0.796467 46 45 56
94.4296 66.3187 -1705.99 0.204905 -0.334798 -0.799152 46 45 55
99.3493 66.3412 -1706.01 0.21144 -0.342196 -0.799521 46 45 55
106.192 62.9519 -1714.75 0.173718 -0.330373 -0.790596 47 46 56
110.317 63.961 -1715.95 0.138895 -0.303189 -0.736599 50 50 61
117.831 67.4799 -1716.85 0.185792 -0.196673 -0.606453 59 61 73
122.884 71.2761 -1714.12 0.404109 -0.12728 -0.628072 60 61 73
128.906 74.0975 -1714.77 0.508822 -0.0869008 -0.626903 61 62 73
-245.066 -1016.51 -1700.01 0.971237 -0.093448 0.0918195 100 123 157
-244.507 -1004 -1702.74 1.02293 -0.125746 0.0468312 109 131 164
-241.163 -991.962 -1702.51 1.00381 -0.165287 0.02667 109 130 164
-241.834 -990.812 -1704.42 1.00823 -0.161592 0.0531195 122 143 175
-240.172 -973.407 -1702.63 0.976813 -0.0582368 0.136227 117 135 156
-307.224 -959.946 -1704.5 -0.582786 -0.0174216 0.783032 150 186 223
-306.008 -956.876 -1701.97 -0.681194 -0.0549266 0.716732 151 187 224
-306.477 -944.996 -1698.42 -0.722384 -0.178985 0.682565 158 193 228
-310.925 -938.658 -1702.24 -0.479587 -0.186941 0.841629 162 195 230
-315.082 -923.195 -1703.21 -0.502131 -0.12712 0.777159 162 194 229
-313.399 -916.445 -1701.96 -0.436375 -0.0269039 0.763692 163 194 229
-315.732 -914.643 -1704.4 -0.215636 -0.0288337 0.730763 169 199 233
-280.528 -911.186 -1698.85 -0.0521385 0.292892 0.933172 146 182 222
-242.534 -954.041 -1699.9 0.788793 0.0565406 0.465653 87 105 130
-311.306 -793.317 -1703.93 -0.185516 0.015776 0.958526 183 212 251
-319.366 -791.678 -1705.54 0.117561 -0.0141888 0.985823 188 213 251
-304.2 -798.237 -1700.36 -0.366373 -0.00364905 0.91679 170 203 247
-315.599 -783.272 -1704.42 -0.0669996 -0.0784881 0.974903 192 222 253
-319.201 -772.793 -1702.44 0.110113 -0.222111 0.95542 193 223 254
-311.392 -773.953 -1702.64 -0.0919178 -0.143357 0.956682 193 225 255
-302.815 -774.541 -1699.85 -0.406154 0.000421912 0.901906 191 225 255
-310.386 -769.681 -1701.73 -0.0352588 -0.233562 0.936594 191 223 254
-304.856 -772.831 -1700.78 -0.303824 -0.0554851 0.917836 193 226 255
-234.001 -786.328 -1699.8 0.996489 -0.0602279 0.156815 81 93 105
-234.363 -784.426 -1703.17 0.983757 -0.0337458 0.161927 82 94 107
-235.268 -769.338 -1703.73 0.947477 -0.12402 0.174732 80 91 105
-230.823 -758.308 -1700.16 0.889779 -0.313614 0.276709 89 104 121
-227.387 -751.065 -1700.73 0.78182 -0.42818 0.407376 132 152 177
-211.069 -517.89 -1700.77 0.828806 0.0633602 0.55041 175 204 239
-214.045 -501.177 -1701.48 0.715067 0.0749186 0.629713 178 203 238
-214.148 -497.213 -1702.46 0.701918 0.0566604 0.645643 171 196 231
-214.046 -481.578 -1701.71 0.778127 0.00142291 0.590453 168 196 231
-213.376 -474.433 -1700.45 0.64598 -0.0182697 0.537629 168 196 231
-130.798 -1121.14 -1700.41 -0.838361 -0.144447 0.513336 174 199 241
-129.741 -1116.9 -1698.98 -0.805227 -0.102157 0.591893 169 195 237
-132.622 -1108.88 -1699.16 -0.683189 -0.271323 0.658808 151 182 224
-135.637 -1104.6 -1699.69 -0.630322 -0.389935 0.652309 140 173 215
-146.529 -1092.57 -1702.99 -0.802018 -0.327061 0.456254 132 166 206
-142.549 -1081.81 -1703.31 -0.862719 0.279777 0.137291 143 174 213
-137.024 -1075.19 -1703.15 -0.82112 0.314206 0.225503 150 179 217
-99.0386 -744.028 -1698.73 -0.905886 0.186171 0.284016 148 180 224
-96.9123 -726.971 -1700.3 -0.747219 0.0725365 0.642769 164 199 244
-96.9473 -718.541 -1699.92 -0.782502 0.0565235 0.60451 160 195 240
-100.608 -712.686 -1704.93 -0.841741 0.0628389 0.505724 167 195 236
-96.1975 -701.658 -1700.76 -0.818747 0.0583709 0.57339 167 198 241
-98.0844 -693.305 -1703.89 -0.818109 0.133049 0.531846 160 191 235
-359.767 -360.011 -1699.24 0.781566 -0.0227876 0.602297 191 216 254
-354.887 -347.695 -1700.75 0.79243 -0.0352018 0.591788 189 214 252
-354.246 -346.784 -1701.45 0.797779 -0.0208204 0.587538 189 213 252
-351.133 -336.669 -1705.59 0.83244 -0.104583 0.535469 193 216 254
-352.252 -334.167 -1703.44 0.850285 -0.1612 0.479456 193 217 254
-349.221 -316.734 -1701.74 0.722055 -0.203614 0.500704 180 206 241
-344.237 -315.566 -1704.59 0.584602 -0.415209 0.596317 186 211 243
-342.478 -302.704 -1701.82 0.689118 -0.248108 0.632809 209 231 254
-341.088 -299.79 -1702.65 0.726022 -0.181288 0.644552 214 236 255
-338.225 -291.633 -1702.58 0.71581 -0.255206 0.640399 212 236 254
-331.538 -279.56 -1702.42 0.677676 -0.382176 0.619358 192 218 248
-326.945 -270.432 -1703.57 0.666576 -0.298528 0.660126 196 221 249
-321.024 -30.2056 -1699.38 0.716949 0.231523 0.536845 51 50 60
-337.755 -16.0978 -1704.36 0.774277 0.152486 0.618246 52 51 61
-337.454 -11.7739 -1706.04 0.789355 0.18064 0.582359 53 52 62
-325.421 -13.6579 -1700.93 0.588935 0.147881 0.734487 51 50 61
-348.487 17.0566 -1699.07 0.727951 0.116048 0.676371 56 55 66
-344.423 5.41226 -1701.23 0.790064 0.15472 0.574823 54 52 62
-329.025 -1.09669 -1700.92 0.55513 0.0360135 0.761016 53 52 62
-330.031 6.52617 -1701.06 0.545654 -0.0265871 0.775854 54 53 63
-346.456 11.6895 -1700.36 0.754306 0.107645 0.645849 56 55 65
-346.882 17.5448 -1700.46 0.719887 0.101594 0.688956 57 56 66
-326.047 12.4377 -1704.97 0.625194 -0.0283841 0.728225 56 55 65
-351.715 26.9856 -1698.69 0.722358 0.195435 0.654807 54 54 64
-350.604 40.307 -1699.45 0.756576 0.0130675 0.637972 58 58 67
-345.914 21.3385 -1701.89 0.69575 0.151171 0.701234 57 57 67
-346.366 33.7783 -1703.71 0.704943 0.126688 0.682701 58 58 68
-328.275 25.8821 -1704.68 0.763695 0.193645 0.5777 55 54 64
-346.144 36.4611 -1703.88 0.723162 0.0940554 0.664287 59 59 69
-335.397 43.6701 -1700.31 0.718904 0.0768747 0.644412 60 59 69
-330.736 40.1003 -1703.59 0.794077 0.148151 0.545137 56 55 65
-348.515 52.9843 -1703.01 0.7467 0.0758818 0.650131 59 59 70
-353.187 56.0945 -1699.32 0.720362 -0.00906775 0.685922 60 61 73
-336.434 49.6457 -1700.1 0.685015 0.0651913 0.667149 59 58 68
-336.196 55.0103 -1700.92 0.580212 0.102855 0.738724 55 54 64
-333.475 58.0625 -1703.03 0.670196 0.0720632 0.655573 55 54 64
-338.463 63.7204 -1699.48 0.460695 0.131286 0.839067 54 52 62
-335.398 70.4567 -1702.1 0.750631 0.0515913 0.595484 56 56 67
-320.731 72.8037 -1701.51 0.700035 0.398752 0.576837 54 53 63
-308.301 -30.0203 -1699.79 0.442674 0.312723 0.818923 53 52 62
-311.456 -24.2403 -1699.33 0.54063 0.183533 0.801725 55 54 64
-294.785 -28.3845 -1704.95 0.388534 0.175441 0.88801 54 53 63
-303.243 -24.1129 -1702.83 0.402716 0.174006 0.87973 56 55 64
-307.609 -19.7092 -1701.18 0.477407 0.093656 0.854932 57 56 65
-305.038 -20.2999 -1702.44 0.428609 0.100395 0.881616 57 56 65
-305.099 -12.0084 -1701.77 0.434562 -0.059101 0.893087 57 56 66
-141.502 292.424 -1699.01 -0.451684 -0.736438 -0.450003 112 91 79
-122.195 286.707 -1699.71 -0.204403 -0.680768 -0.633401 130 113 109
-126.413 293.192 -1705.18 -0.31629 -0.536085 -0.609282 151 134 127
-114.614 285.928 -1700 -0.0738889 -0.774001 -0.589206 123 108 104
-102.314 291.6 -1704.32 -0.152606 -0.751131 -0.531817 143 124 115
24.8359 78.6457 -1698.95 -0.0140678 0.100688 -0.99519 48 47 57
109.185 269.575 -1700.86 -0.160666 -0.386535 -0.8864 98 103 121
107.975 279.991 -1705.46 -0.101668 -0.459478 -0.860567 97 102 120
148.009 188.301 -1698.61 -0.416714 -0.240562 -0.852489 62 63 72
152.546 189.413 -1704.98 -0.525755 -0.151313 -0.755466 85 81 85
150.322 200.025 -1702.44 -0.666066 0.0688037 -0.731192 106 93 91
153.745 207.091 -1702.37 -0.624584 0.259064 -0.710032 135 116 110
157.919 215.903 -1702.95 -0.557491 0.28622 -0.748334 167 146 137
157.233 223.899 -1700.4 -0.417752 0.217898 -0.867251 127 114 113
163.881 223.125 -1703.87 -0.423516 0.289102 -0.844894 207 184 170
164.484 225.829 -1703.5 -0.417882 0.260233 -0.859204 207 185 172
164.764 233.808 -1701.95 -0.469085 0.175604 -0.843388 204 189 178
-315.415 -1153.16 -1696.23 0.982576 0.226442 0.22796 140 157 178
-316.939 -1147.63 -1693.86 0.991195 0.232827 0.211885 132 151 172
-325.087 -1121.67 -1693.11 0.892006 0.356251 0.157651 157 180 212
-325.275 -1117.67 -1698.86 0.859117 0.239625 0.393998 154 176 208
-332.566 -1103.6 -1693.65 0.890514 0.322204 0.23372 144 168 200
-331.499 -1098.35 -1698.57 0.846043 0.161957 0.429265 143 169 200
-334.146 -1072.58 -1695.09 0.927177 0.163493 0.342389 153 182 213
-332.653 -1075.4 -1696.61 0.914606 0.103035 0.377139 152 180 211
-335.792 -1061.32 -1698.27 0.905077 0.265485 0.301789 151 180 211
-337.158 -1058.47 -1694.97 0.922103 0.257049 0.23708 153 182 213
-340.358 -1043.19 -1692.52 0.929476 0.0516936 0.30146 154 183 214
-340.609 -1032.24 -1693.75 0.921591 0.0553574 0.380046 157 186 217
-359.66 -850.937 -1695.92 0.763324 -0.166989 0.578437 188 212 244
-356.529 -837.238 -1696.67 0.717917 -0.217623 0.6527 187 211 243
-357.567 -831.763 -1693.69 0.71195 -0.197795 0.66181 188 212 244
-350.856 -821.698 -1695.97 0.563787 -0.0830969 0.771862 195 219 252
-356.667 -819.664 -1692.42 0.640571 -0.0294747 0.74406 194 219 251
-356.547 -807.489 -1693.65 0.633402 0.00273067 0.763112 194 219 252
-355.373 -804.097 -1694.19 0.598675 -0.0620515 0.781585 194 219 252
-341.824 -821.699 -1698.45 0.369804 -0.167966 0.819077 197 221 253
-347.052 -813.331 -1698.75 0.301501 0.150281 0.917376 197 221 253
-299.457 -906.429 -1697.16 -0.118869 0.283157 0.928875 155 189 229
-273.411 -904.897 -1697.88 -0.456212 0.148008 0.846817 133 169 210
-272.745 -895.353 -1696.71 -0.58218 -0.057364 0.797581 132 169 211
-272.931 -892.976 -1695.98 -0.604124 -0.11439 0.78727 134 170 213
-277.32 -886.527 -1698.09 -0.496194 -0.154914 0.837321 148 185 226
-280.93 -868.675 -1697.43 -0.586185 -0.155409 0.786774 156 193 235
-276.305 -872.77 -1694.05 -0.626999 -0.106311 0.79591 142 180 223
-290.941 -564.074 -1692.73 -0.178689 0.0749687 0.966163 163 193 234
-284.822 -530.129 -1691.93 0.0424813 -0.0086076 0.979139 181 208 244
-215.413 -571.179 -1696.36 0.942254 -0.0557531 0.31975 190 218 255
-215.365 -562.74 -1694.63 0.87574 -0.0576738 0.449945 187 215 253
-215.403 -553.517 -1692.29 0.830781 -0.0867861 0.544718 180 208 246
-213.997 -541.386 -1695.13 0.852279 0.00566 0.517729 181 210 246
-212.638 -536.299 -1697.88 0.838638 0.0269376 0.540937 184 212 248
-213.981 -529.445 -1695.17 0.852565 0.0175195 0.51897 180 208 244
-130.621 -1110.72 -1698.07 -0.732513 -0.189877 0.632682 158 187 229
-127.065 -1126.55 -1693.6 -0.928756 0.0498944 0.251163 181 207 248
-126.876 -1111.1 -1692.52 -0.867023 -0.138191 0.328855 168 198 239
-139.78 -1095.43 -1694.21 -0.73203 -0.546129 0.394127 129 163 205
-143.048 -1084.58 -1695.41 -0.903932 -0.00324186 0.154546 132 165 206
-136.844 -1074.9 -1697.18 -0.828403 0.35008 0.0339097 145 175 215
-129.995 -955.624 -1695.77 -0.9376 0.349532 -0.0357902 136 170 211
-126.835 -946.023 -1695.46 -0.958132 0.262693 -0.0236541 137 171 212
-125.092 -934.858 -1697 -0.976493 0.159471 -0.0918231 138 171 212
-123.085 -925.006 -1697.35 -0.95496 0.245046 -0.145157 133 166 207
-117.21 -908.336 -1697.39 -0.941092 0.300721 -0.0800457 134 167 208
-116.119 -902.468 -1693.91 -0.946182 0.231938 -0.171704 135 168 208
-115.829 -890.114 -1692.58 -0.963005 0.065934 -0.2375 132 165 205
-114.233 -881.674 -1694.06 -0.962989 0.166506 -0.177331 131 163 203
-110.6 -872.1 -1696.44 -0.951979 0.308873 -0.0803299 135 167 208
-105.972 -859.257 -1696.93 -0.955234 0.30224 -0.0205325 149 179 220
-102.056 -848.26 -1696 -0.947963 0.305318 -0.0288647 160 189 229
-263.457 -169.764 -1695.3 0.328628 -0.353164 0.87341 103 114 139
-263.342 -157.901 -1694.77 0.388242 -0.0684456 0.879107 52 53 71
-259.241 -155.006 -1697.64 0.425659 0.0754169 0.886512 48 46 63
-322.979 -90.7587 -1693.77 0.586406 0.353231 0.728234 48 47 56
-328.609 -85.9447 -1693.13 0.649967 0.332076 0.674521 48 48 56
-331.907 -77.3097 -1694.47 0.731572 0.264181 0.610705 51 51 60
-336.223 -60.4646 -1693.22 0.814732 0.0885702 0.564129 52 51 59
-332.46 -63.5185 -1698.42 0.795525 0.140605 0.584808 53 52 61
-338.847 -49.1693 -1691.83 0.85814 0.158454 0.467411 50 49 57
-321.514 -49.3456 -1692.65 0.631209 0.219322 0.687475 50 49 59
-341.183 -33.7415 -1697.74 0.818568 0.169907 0.513577 49 48 57
-321.882 -41.5275 -1693.84 0.656876 0.209526 0.669799 51 50 60
-310.916 -130.708 -1692.36 0.706112 0.11511 0.6899 54 53 66
-318.812 283.278 -1695.5 0.334185 -0.594318 0.488781 143 128 124
-300.823 285.292 -1697.65 0.302968 -0.598099 0.547027 139 125 124
-298.701 286.588 -1695.12 0.302581 -0.597364 0.544234 139 124 123
-269.754 288.652 -1695.08 0.35274 -0.883905 0.345939 207 182 168
-257.71 290.996 -1692.88 0.376922 -0.897176 0.220923 216 185 161
-251.64 291.677 -1697.86 0.37127 -0.728564 0.28241 199 172 156
-236.027 298.268 -1696.39 0.573854 -0.673833 0.188786 176 154 142
-228.823 303.344 -1697.87 0.708691 -0.718025 -0.0125749 186 164 151
-223.491 310.983 -1695.24 0.800943 -0.553571 0.0395112 211 185 170
-221.715 327.111 -1692.69 0.818875 0.0431454 0.51535 198 168 147
-222.219 329.846 -1692.68 0.815481 0.0982877 0.544811 192 161 140
-221.478 349.978 -1695.37 0.78072 0.0134556 0.521649 90 77 71
-235.829 361.818 -1693.82 0.64368 0.601583 0.21339 60 58 61
-225.046 357.552 -1697.34 0.715848 0.430444 0.493103 59 57 59
40.2435 130.724 -1696.52 -0.409922 0.199701 -0.871193 41 40 50
43.5559 140.162 -1695.17 -0.473988 0.314877 -0.791394 41 41 51
61.6179 132.535 -1697.42 0.255397 -0.129029 -0.950879 48 47 57
50.4969 149.056 -1693.06 -0.418087 0.54814 -0.691137 39 40 50
58.3116 155.502 -1693.04 -0.424405 0.551338 -0.722156 40 40 50
63.6374 131.979 -1696.66 0.27136 -0.120299 -0.949203 48 46 57
69.1011 139.604 -1696.19 0.278062 -0.156632 -0.956221 47 46 56
72.5196 141.98 -1695.73 0.232403 -0.149821 -0.96487 46 46 55
83.8295 135.237 -1693.69 0.0530278 0.00309046 -0.962025 47 49 57
84.7241 138.477 -1693.78 0.0494927 -0.0359246 -0.958941 47 48 57
70.142 149.64 -1698.3 0.141497 -0.0960331 -0.98712 45 45 55
69.1393 154.29 -1698.06 -0.0448197 0.118022 -0.942071 42 42 52
80.9828 146.563 -1695.1 0.101447 -0.142861 -0.962072 46 47 56
87.976 148.773 -1695.74 0.0127218 -0.159192 -0.966712 46 47 57
89.2328 156.21 -1697.95 0.015089 -0.139123 -0.983326 47 48 57
95.3003 134.528 -1696.06 -0.153553 0.147478 -0.953648 49 50 59
93.1183 143.828 -1694.93 -0.0774843 -0.0767601 -0.95853 48 48 58
108.084 132.21 -1696.98 0.0466898 0.129708 -0.954742 51 50 60
116.539 135.912 -1695.32 0.258303 0.0418502 -0.938259 52 51 61
111.807 143.405 -1695.83 0.0477479 0.0406772 -0.984231 51 51 61
95.2857 146.41 -1695.78 -0.0832281 -0.0896485 -0.966089 48 48 58
96.1854 156.406 -1697.25 0.0319836 -0.134297 -0.985121 50 49 59
106.057 149.549 -1696.23 -0.0274094 -0.0513759 -0.990706 51 50 60
108.66 155.274 -1696.52 0.0477995 -0.0802065 -0.9861 51 51 61
115.471 157.272 -1696.04 0.167434 -0.0749418 -0.970883 52 52 62
72.0545 160.632 -1696.72 -0.193824 0.238145 -0.897491 41 41 51
70.7054 170.805 -1692.39 -0.526552 0.292424 -0.786503 44 43 53
82.4507 161.681 -1697.83 -0.0433252 0.0307401 -0.982424 43 44 53
83.7561 170.287 -1697.64 -0.184112 0.137639 -0.957606 41 42 51
72.3526 172.656 -1692.51 -0.519424 0.289603 -0.797199 44 44 53
82.6238 171.825 -1697.02 -0.243565 0.180717 -0.930466 41 42 51
83.0473 181.467 -1693.48 -0.395856 0.37285 -0.822096 45 44 54
91.3456 159.414 -1698.52 0.0280161 -0.105338 -0.988063 48 48 58
99.3031 164.027 -1697.74 0.0445573 -0.0953521 -0.990101 49 49 59
99.0191 168.985 -1698.24 0.00898032 -0.15927 -0.986828 48 47 57
110.714 158.548 -1696.75 0.0879494 -0.0833719 -0.981844 51 51 61
106.526 171.565 -1698.4 0.0235148 -0.230975 -0.967544 49 48 59
91.197 184.103 -1698.88 -0.469183 0.311643 -0.788782 44 43 53
115.838 184.758 -1698.18 0.322389 -0.0375899 -0.95059 50 50 61
124.726 94.572 -1693.92 0.705487 -0.0160986 -0.708454 52 52 63
122.914 102.754 -1692.04 0.744689 0.0130822 -0.658673 55 54 65
-248.353 370.465 -1691.65 0.596287 0.708191 0.0100722 62 59 62
-243.64 373.554 -1699.13 0.643505 0.580127 0.104905 75 68 68
-238.447 371.071 -1701.55 0.661972 0.531579 0.170362 76 69 68
-230.863 365.272 -1702.28 0.712185 0.432228 0.40596 70 65 65
-233.57 367.477 -1702.19 0.705354 0.442487 0.363182 73 67 66
-253.072 385.21 -1693.7 0.701956 0.433601 0.208033 91 80 75
-243.808 379.706 -1701.52 0.694676 0.465786 0.215186 88 78 74
-276.102 -944.276 -1687.12 -0.0105548 0.300986 0.947051 136 170 212
-272.781 -939.468 -1688.26 -0.0726257 0.253567 0.952493 135 168 210
-270.861 -939.227 -1687.75 -0.128688 0.207031 0.945125 131 165 207
-267.042 -931.343 -1685.36 -0.395389 0.066038 0.91116 125 158 201
-269.165 -926.884 -1687.61 -0.363419 0.135996 0.91872 131 165 207
-268.799 -916.912 -1690.58 -0.471612 0.156237 0.878998 130 164 205
-247.821 -959.478 -1689.53 0.608314 0.0921171 0.721016 87 115 152
-246.28 -953.305 -1690.93 0.669045 0.0332273 0.648653 83 107 140
-248.955 -946.016 -1685.35 0.62834 -0.0718675 0.624067 80 101 134
-245.521 -933.761 -1690.62 0.783011 0.0103705 0.466008 73 89 113
-248.024 -926.288 -1688.34 0.797904 0.0995758 0.394086 75 91 116
-251.574 -909.345 -1689.61 0.13789 0.136692 0.386604 90 106 134
-250.042 -914.246 -1690.37 0.426704 0.202126 0.267472 80 92 114
-361.756 -895.913 -1689.72 0.714814 0.0316185 0.525085 180 206 236
-279.946 -647.221 -1686.28 -0.0921296 -0.0361642 0.978609 161 196 242
-279.144 -638.779 -1686.18 -0.0680821 -0.0318736 0.97208 162 196 241
-275.879 -640.524 -1685.36 -0.254931 -0.00177072 0.951138 161 196 242
-232.851 -678.27 -1688.93 0.755249 0.11179 0.63555 87 106 129
-233.889 -673.648 -1688.52 0.579948 -0.0492967 0.718646 84 103 124
-231.495 -665.407 -1689.74 0.305286 -0.280815 0.878273 67 83 99
-228.675 -658.953 -1689.1 0.332072 -0.373603 0.812738 74 92 113
-227.213 -655.294 -1689.46 0.501921 -0.301832 0.712289 83 101 126
-225.422 -637.139 -1690.76 0.758595 -0.155151 0.57973 95 115 144
-302.011 -623.482 -1684.92 0.0869985 0.0620054 0.984669 170 200 244
-309.846 -611.071 -1685.53 0.133885 0.0904733 0.986343 169 198 243
-295.705 -615.881 -1687.45 0.124167 0.142203 0.975326 167 198 242
-305.206 -609.621 -1686.38 0.145836 0.0761875 0.986453 168 197 242
-287.119 -632 -1685.36 0.157246 -0.0535462 0.978067 164 197 241
-288.933 -628.167 -1685.22 0.0979462 0.0584636 0.977288 164 197 240
-276.417 -628.937 -1685.14 -0.142798 -0.0662119 0.970863 159 193 238
-284.304 -616.164 -1686.48 -0.0818069 0.0751992 0.980756 162 195 238
-281.764 -613.425 -1685.91 -0.170387 0.0921988 0.9728 160 194 237
-307.856 -602.934 -1685.97 0.103898 0.034897 0.999117 166 195 240
-306.617 -599.463 -1686.37 0.109857 0.0348308 0.998117 166 195 239
-304.03 -602.467 -1686.66 0.115249 0.0325514 0.995454 165 195 239
-301.153 -593.356 -1687.8 0.0989533 0.058251 0.990268 166 195 238
-298.164 -595.724 -1688.08 0.0883002 0.0446575 0.990184 165 194 237
-309.395 -592.735 -1686.64 0.170806 0.0293952 0.979211 168 197 240
-311.91 -580.828 -1687.15 0.319617 -0.0047579 0.940069 176 205 246
-302.761 -593.376 -1687.54 0.107973 0.0555247 0.990784 166 195 239
-302.028 -582.603 -1689.89 0.219832 0.115642 0.955873 171 200 242
-298.458 -583.894 -1690.31 0.133894 0.124845 0.963704 169 198 240
-285.367 -606.007 -1688.09 -0.0666399 0.0819822 0.979756 161 193 236
-280.603 -595.331 -1687.24 -0.241869 -0.0241933 0.951984 159 192 234
-277.581 -596.12 -1686.17 -0.328008 -0.0378366 0.923754 157 190 233
-280.469 -97.6772 -1688.79 0.139055 0.339162 0.931342 43 39 54
-289.311 -93.8159 -1689.36 0.212661 0.253614 0.9302 50 47 61
-275.088 -95.4824 -1690.05 0.143126 0.321652 0.929755 41 37 52
-273.017 -95.5858 -1690.11 0.151205 0.314739 0.928672 40 36 51
-319.16 -79.0567 -1690.26 0.556933 0.17883 0.768869 52 51 60
-296.333 -87.8811 -1688.03 0.394807 0.0565045 0.905087 54 52 64
-295.534 -77.9172 -1688.23 0.464065 0.0192052 0.880542 53 51 62
-294.368 -73.2495 -1689.59 0.502642 0.117179 0.835504 50 49 59
-296.577 -67.0765 -1689.94 0.592981 0.266985 0.745535 47 46 56
-292.106 -72.3376 -1691.3 0.48691 0.186178 0.828912 49 47 58
-317.296 -49.9692 -1687.59 0.396227 0.418112 0.774714 48 47 57
-304.634 -57.9612 -1686.49 0.474373 0.338021 0.776498 48 47 56
-313.569 -43.7461 -1691.24 0.375601 0.399962 0.823034 50 49 59
-73.6157 -319.703 -1689.82 -0.937531 -0.20103 0.272394 179 211 253
-70.3885 -332.757 -1688.05 -0.766914 -0.0761823 0.484558 165 199 243
-71.1749 -325.84 -1687.27 -0.865929 -0.142611 0.361898 173 206 248
-73.8291 -301.271 -1685.46 -0.905684 -0.131307 0.39243 168 198 241
-77.8284 -292.467 -1689.82 -0.838207 -0.176383 0.501696 160 189 229
-79.5643 -284.798 -1691.69 -0.856151 -0.071716 0.493343 166 194 231
-78.0864 -269.942 -1689.89 -0.89365 0.120201 0.371431 177 201 234
-76.01 -262.994 -1686.45 -0.916292 0.145408 0.277709 169 194 226
-76.1269 -248.963 -1688.1 -0.882689 -0.0821295 0.279776 186 208 232
-78.5126 -244.665 -1687.93 -0.81224 -0.359443 0.343161 209 226 243
-91.0714 -229.586 -1691.21 -0.772789 -0.480249 0.409428 73 75 90
-16.8792 76.566 -1685.52 -0.512077 0.258288 -0.801587 46 47 57
-8.73676 78.6614 -1689.28 -0.387817 0.271814 -0.865187 46 46 56
-3.54765 77.8581 -1691.42 -0.312548 0.319112 -0.88401 48 47 58
-8.55017 91.8255 -1686.57 -0.442674 0.156319 -0.877421 45 46 56
-2.43383 90.6431 -1689.4 -0.390699 0.183909 -0.897358 46 47 57
-3.773 100.638 -1686.62 -0.33991 0.236049 -0.902981 45 46 56
5.13453 103.181 -1689.9 -0.269547 0.158587 -0.924839 45 46 56
7.21568 103.883 -1690.74 -0.260666 0.136916 -0.926333 45 46 56
-158.568 292.964 -1689.9 -0.534701 -0.765541 -0.35593 177 151 129
-371.981 -1206.63 -1678.23 0.4733 -0.607314 0.248195 73 70 72
-364.951 -1194.5 -1678.57 0.44948 -0.753916 0.214759 54 50 50
-357.679 -1188.08 -1683.7 0.550764 -0.65353 0.443963 58 55 54
-344.489 -1182.03 -1683.79 0.452611 -0.763534 0.215864 67 61 62
-337.362 -1182.06 -1681.96 0.00569414 -0.947258 0.0671059 56 51 53
-320.426 -1175.4 -1680.4 0.439176 -0.738323 0.252922 93 82 86
-320.08 -1135.52 -1682.32 0.993485 0.189349 0.151848 123 138 163
-322.772 -1130.5 -1679.23 0.950648 0.305484 0.124981 134 151 180
-318.082 -1167.48 -1679.15 0.7127 -0.250043 0.228627 128 118 128
-318.692 -1155.52 -1683.08 0.653543 -0.35714 0.216203 113 112 123
-281.895 -772.159 -1683.45 -0.596564 -0.0374065 0.78479 160 197 242
-276.482 -768.546 -1679.04 -0.640126 -0.0241833 0.755038 152 190 235
-272.519 -756.801 -1678.26 -0.683736 0.141507 0.712166 149 186 232
-276.109 -747.9 -1685.04 -0.616858 0.1448 0.766603 161 196 244
-237.299 -795.968 -1682.72 0.771474 -0.338297 0.342123 109 123 143
-234.611 -779.709 -1682.68 0.881407 -0.106018 0.384852 86 96 110
-234.72 -778.075 -1680.85 0.802691 -0.11702 0.411821 83 92 106
-234.165 -765.529 -1678.19 0.910862 -0.090746 0.257499 79 89 102
-232.754 -744.582 -1680.76 0.893059 -0.232207 0.385577 74 87 102
-270.831 -741.201 -1679.46 -0.704531 0.0190784 0.698597 160 195 244
-271.723 -736.199 -1680.27 -0.670387 -0.0576489 0.734274 161 196 245
-275.63 -731.014 -1682.97 -0.590307 -0.133084 0.795019 155 189 238
-278.049 -722.043 -1683.28 -0.530714 -0.115729 0.83756 157 193 236
-322.084 -429.548 -1680.04 0.348415 0.0592872 0.937234 174 195 231
-323.452 -419.338 -1680.84 0.373753 0.152089 0.893043 162 183 220
-364.848 -403.855 -1679.8 0.946102 0.0397714 0.263197 169 190 230
-346.56 -410.973 -1681.21 0.685532 0.306243 0.506015 172 193 231
-366.247 -393.394 -1681.76 0.956181 0.143187 0.245677 169 191 231
-337.539 -409.792 -1679.41 0.400765 0.571771 0.70344 166 187 224
-335.92 -406.868 -1685.97 0.421774 0.580897 0.670637 168 189 226
-325.118 -413.539 -1682.78 0.372476 0.366801 0.801401 157 178 214
-367.515 -387.067 -1681.17 0.934504 0.13468 0.308182 175 197 236
-366.619 -376.424 -1683.53 0.905834 0.0160274 0.410541 187 212 250
-368.297 -361.797 -1679.66 0.915467 -0.0123342 0.392301 188 214 252
-319.221 -468.941 -1681.21 0.0484133 -0.205362 0.96275 201 225 255
-313.083 -461.117 -1680.27 0.0487071 -0.140066 0.971714 190 213 250
-311.673 -463.271 -1680.68 0.0392852 -0.163846 0.971792 192 215 252
-297.296 -469.901 -1683.6 0.0900804 -0.0759252 0.978945 185 209 248
-318.394 -457.998 -1679.58 -8.02658e-05 -0.0960429 0.981337 191 213 249
-312.687 -454.615 -1680.85 0.150034 -0.020937 0.963395 183 205 243
-319.745 -449.423 -1679.81 0.0905558 0.000646308 0.981932 184 207 243
-288.263 -468.104 -1684.84 0.182896 0.0662593 0.959737 176 200 240
-269.822 -453.061 -1685.08 -0.394219 -0.231674 0.867975 171 198 239
-267.774 -450.609 -1682.16 -0.500306 -0.234254 0.826294 164 191 233
-312.16 -438.53 -1683.12 0.328407 0.0997232 0.939903 187 210 247
-311.368 -432.192 -1683.99 0.357598 0.0746614 0.937102 184 206 244
-313.243 -427 -1683.57 0.348304 0.0515306 0.942346 174 196 234
-143.136 -1011.75 -1684.27 -0.770451 -0.453371 -0.439096 131 167 207
-140.103 -1015.77 -1679.57 -0.705163 -0.608938 -0.303482 135 171 210
-146.127 -999.701 -1678.53 -0.903695 -0.106632 -0.389767 125 161 200
-112.332 -1016.83 -1678.91 -0.739518 0.00460815 0.155038 152 180 216
-114.493 -1011.42 -1679.51 -0.782022 -0.0570799 0.3179 147 173 208
-102.785 -1008.98 -1681.19 -0.828972 -0.0222504 0.178088 131 154 184
-109.303 -1004.66 -1681.97 -0.783137 -0.0485316 0.294826 143 170 203
-108.774 -995.561 -1681.64 -0.793187 -0.052057 0.24742 143 170 205
-107.108 -994.291 -1681.49 -0.806677 -0.0491486 0.205398 141 167 201
-143.302 -985.144 -1683.21 -0.896829 0.062275 -0.435591 130 164 204
-141.645 -974.164 -1678.55 -0.894323 0.191836 -0.371539 134 169 208
-137.865 -966.262 -1679.52 -0.88263 0.289053 -0.342106 133 168 208
-136.654 -963.003 -1679.69 -0.870839 0.309413 -0.353054 133 169 208
-133.186 -952.961 -1680.84 -0.838867 0.291751 -0.403271 132 168 207
-132.086 -944.315 -1679.48 -0.818149 0.196358 -0.526865 125 162 200
-131.114 -935.42 -1678.3 -0.85804 0.180238 -0.465242 126 161 200
-123.776 -916.962 -1678.46 -0.920116 0.360478 -0.172564 131 165 203
-121.15 -911.352 -1679.32 -0.924185 0.368538 -0.154328 131 166 204
-100.713 -996.908 -1679.99 -0.859148 -0.0241343 0.0233296 131 153 180
-119.541 -901.442 -1680.2 -0.927983 0.138309 -0.28014 130 165 203
-349.369 132.104 -1681.49 0.712742 -0.0135448 0.696011 58 59 70
-349.545 137.989 -1681.44 0.700217 0.116908 0.706936 58 59 70
-357.042 155.176 -1678.91 0.502763 0.029909 0.862725 52 53 63
-353.191 152.736 -1681.73 0.564906 0.0599073 0.822234 54 55 65
-352.11 161.212 -1682.1 0.58621 -0.0388761 0.816219 53 54 64
-352.362 168.167 -1681.56 0.59263 -0.0386836 0.813145 52 53 64
-354.086 182.441 -1679.69 0.509179 0.0131245 0.858022 51 52 63
-386.973 210.627 -1678.43 0.293949 -0.209495 0.43784 72 72 85
-387.492 223.077 -1681.08 0.298604 -0.194868 0.449648 71 71 85
-386.881 228.093 -1681.95 0.308217 -0.171142 0.4701 70 70 84
-381.059 225.679 -1680.51 0.346928 -0.0242091 0.565418 66 66 79
-378.109 237.512 -1682.39 0.392196 -0.0183331 0.619428 63 63 76
-351.026 185.796 -1682.96 0.554001 0.0275316 0.799695 52 53 64
-350.368 192.147 -1685.06 0.6591 0.0770269 0.661476 53 54 66
-357.445 198.342 -1678.32 0.3378 0.0848813 0.909107 50 51 61
-358.093 211.968 -1682.82 0.569886 0.300256 0.740569 49 51 61
-63.4018 -82.646 -1685.03 -0.909871 0.282139 0.265912 35 37 45
-58.8552 -78.7034 -1677.42 -0.895021 0.2319 0.307563 39 41 49
-56.3036 -64.4595 -1679.07 -0.895771 0.178457 0.354702 38 39 46
-54.2561 -52.6339 -1680.38 -0.862304 0.0853721 0.185347 39 40 48
-53.1008 -44.3255 -1680.01 -0.799465 0.0921369 0.0341123 40 41 49
-52.1825 -32.389 -1681.92 -0.912094 0.27407 0.162274 39 39 46
-48.6337 -20.0943 -1682.92 -0.936737 0.19906 0.0899281 39 39 47
-48.7396 -10.9696 -1679.43 -0.953034 0.104852 -0.0142376 39 39 47
-47.2735 1.0121 -1679.99 -0.949415 0.120041 -0.0591845 40 40 47
-43.6414 14.8822 -1685.02 -0.825974 0.294744 -0.281408 44 45 53
14.7924 187.802 -1678.26 -0.139649 -0.237891 -0.964291 47 48 58
12.9273 195.286 -1679.66 -0.156513 -0.1807 -0.9599 48 49 59
22.9461 190.14 -1678.45 0.0045066 -0.0866591 -0.976626 47 48 58
26.6755 197.164 -1678.95 0.0812183 -0.0863323 -0.965369 47 48 58
13.3197 201.586 -1679.91 -0.158939 -0.00605632 -0.957757 49 50 60
12.5351 207.724 -1678.65 -0.165158 0.229184 -0.945218 50 50 60
26.284 202.516 -1679.4 0.0905236 -0.0706309 -0.968917 47 48 58
27.3177 208.356 -1679.72 0.0305509 -0.0280054 -0.971707 47 48 58
37.793 191.318 -1679.69 -0.26546 0.267184 -0.90295 47 48 58
42.9102 185.593 -1684.57 -0.383988 0.25346 -0.885145 44 45 55
49.2817 193.614 -1685.24 -0.420456 0.295081 -0.855165 42 43 53
45.0155 201.308 -1679.14 -0.340291 0.258424 -0.881295 45 46 56
43.5527 210.278 -1678.92 -0.0823084 -0.0335371 -0.96123 46 48 57
53.4548 206.644 -1683 -0.426367 0.181422 -0.861433 43 44 54
23.9823 213.104 -1678.88 -0.0994799 0.148111 -0.959785 49 50 60
35.1888 215.026 -1680.22 0.0336493 -0.0695221 -0.983868 46 47 56
13.7567 239.292 -1678.01 -0.227774 -0.174096 -0.960032 66 67 82
30.9092 229.548 -1679.57 -0.134141 2.00311e-05 -0.975602 53 54 65
23.5248 239.22 -1679.53 -0.15325 -0.159025 -0.96962 65 66 79
38.2651 213.339 -1679.86 0.0423056 -0.100346 -0.982259 46 47 56
46.6508 215.919 -1679.74 -0.0822512 0.0186883 -0.964288 47 48 58
42.3346 225.462 -1679.53 0.0686382 0.0159409 -1.00403 49 50 60
58.6312 219.13 -1680.97 -0.257889 0.217889 -0.912468 52 53 62
56.1824 226.598 -1679.09 -0.0650877 0.0949371 -0.980809 53 55 65
37.3782 228.505 -1679.75 0.00213198 0.028909 -0.996827 50 52 62
39.7573 233.181 -1679.48 0.0290167 -0.0149866 -0.997099 55 57 68
48.2871 239.269 -1681.37 -0.0689456 -0.300821 -0.906372 67 70 82
59.2278 231.759 -1679.86 -0.0683163 -0.0300053 -0.967835 57 58 69
52.8299 233.443 -1679.54 0.000215347 -0.110204 -0.973617 57 59 70
63.006 224.522 -1680.42 -0.214943 0.229154 -0.926025 54 55 65
63.4206 227.643 -1680.06 -0.164126 0.162024 -0.944455 56 57 67
72.6416 231.713 -1683.42 -0.276712 0.0918521 -0.906655 57 57 67
68.2937 236.977 -1683 -0.180824 -0.153964 -0.949762 59 60 70
-160.897 382.463 -1680.15 -0.536418 0.201496 0.376619 121 97 86
-159.708 385.184 -1678.24 -0.553418 0.228271 0.381866 109 88 78
-157.603 399.134 -1682.26 -0.602972 0.252711 0.319129 114 91 81
-156.887 403.74 -1682.73 -0.54983 0.170128 0.37487 127 101 90
-352.868 -994.51 -1671.38 0.944804 0.119977 0.260434 162 191 221
-353.676 -988.062 -1671.94 0.943899 0.116017 0.275932 162 192 222
-355.853 -971.481 -1674.22 0.904282 0.231215 0.335166 157 186 218
-358.641 -958.201 -1672.23 0.938368 0.0911361 0.267009 159 187 218
-358.552 -951.617 -1673.29 0.942537 0.0592072 0.27597 161 189 220
-358.531 -945.197 -1676.6 0.938033 0.113339 0.299381 161 189 220
-361.3 -933.06 -1672.59 0.969777 0.144666 0.165287 159 186 219
-361.631 -921.485 -1673.8 0.999213 0.0804342 0.0343283 163 190 222
-278.792 -1018.27 -1677.02 -0.51115 -0.0243357 0.652648 106 144 187
-278.418 -1010.79 -1676.44 -0.384378 0.054663 0.69041 107 145 189
-276.772 -1001.87 -1674.51 -0.401512 0.0839884 0.754778 107 145 189
-346.145 -616.78 -1678 0.683846 0.05372 0.708189 175 205 247
-347.966 -597.613 -1674 0.79245 -0.0934412 0.590837 176 206 248
-346.991 -599.616 -1675.58 0.786227 -0.0723892 0.599649 176 206 248
-342.057 -582.572 -1675.33 0.802349 -0.0453868 0.509274 178 207 248
-259.852 -690.12 -1676.24 -0.218076 0.183344 0.843038 138 171 218
-258.772 -680.711 -1677.85 -0.33534 0.147667 0.889524 136 169 217
-247.874 -688.643 -1671.19 -0.439787 0.129667 0.902169 112 134 170
-252.355 -672.5 -1674.8 -0.488848 0.0862777 0.88041 134 166 212
-252.886 -667.85 -1675.29 -0.490831 0.0825878 0.87729 141 175 222
-238.006 -670.822 -1675.97 -0.00550424 -0.215946 0.62323 91 110 140
-243.872 -664.994 -1672.96 -0.277902 -0.0325095 0.871773 112 135 174
-236.273 -688.986 -1672.43 -0.0147285 0.0557265 0.633877 88 104 128
-367.439 -398.418 -1671.71 0.966618 0.177164 0.150195 168 191 231
-369.643 -391.52 -1672.09 0.944456 0.241173 0.174293 165 187 228
-341.402 -413.529 -1675.04 0.461996 0.47889 0.726103 155 176 211
-369.67 -386.575 -1675.81 0.921601 0.184627 0.282793 170 193 232
-371.624 -370.174 -1674.56 0.838417 -0.0841192 0.538183 189 213 252
-370.455 -366.928 -1675.78 0.85942 -0.0823276 0.50027 190 215 253
-257.057 -469.161 -1677.93 -0.639246 -0.194965 0.740828 160 188 230
-250.514 -469.714 -1671.95 -0.59067 -0.132352 0.777283 158 185 227
-252.54 -453.956 -1673.17 -0.437939 -0.0051926 0.861097 155 183 225
-253.628 -449.599 -1674.44 -0.406447 0.042531 0.871427 150 177 220
-247.808 -446.638 -1673.41 -0.239229 0.145295 0.936516 140 168 210
-141.737 -958.588 -1672.08 -0.781594 0.205465 -0.58181 132 169 208
-140.149 -954.143 -1672.46 -0.782295 0.216373 -0.57644 130 167 206
-133.333 -945.237 -1677.85 -0.807771 0.21081 -0.539803 126 162 201
-133.605 -935.57 -1671.7 -0.832735 0.285121 -0.464567 128 164 202
-128.259 -925.88 -1675.89 -0.902577 0.269868 -0.3083 129 164 202
-123.379 -915.266 -1677 -0.909845 0.361836 -0.193468 131 166 204
-100.395 -1011.75 -1675.83 -0.877091 0.00799729 -0.17146 142 163 188
-99.8261 -1003.57 -1678.09 -0.880506 -0.0034725 -0.0770985 131 151 176
-100.321 -990.539 -1676.45 -0.870846 -0.00633766 -0.222394 140 163 191
-122.157 -898.369 -1674.11 -0.89521 -0.0506056 -0.400526 131 166 204
-122.099 -892.111 -1677.44 -0.904111 0.0359407 -0.400588 131 165 204
-120.849 -879.832 -1672.5 -0.846597 0.233167 -0.451665 131 163 202
-116.391 -868.359 -1671.46 -0.784673 0.183143 -0.540142 127 158 196
-319.56 -197.217 -1672.14 0.619843 -0.0764672 0.653003 120 133 152
-317.029 -184.004 -1672.02 0.71564 -0.00863092 0.507234 115 127 146
-317.874 -174.895 -1673.45 0.764774 -0.0467841 0.512283 92 99 118
-317.145 -169.938 -1674.3 0.73943 -0.0643393 0.59974 80 84 100
-306.757 -158.949 -1677.87 0.646814 0.104211 0.683288 62 63 78
-319.95 -150.75 -1677.75 0.768108 0.390099 0.4984 48 47 61
-324.534 -139.459 -1674.57 0.792906 0.0979319 0.598169 55 54 67
-333.979 -118.65 -1672.25 0.770169 0.31271 0.552428 47 46 58
-325.184 -125.349 -1677.84 0.725869 0.26009 0.62679 51 50 61
-333.998 -114.019 -1674.06 0.757562 0.299472 0.576892 48 47 57
-337.032 -107.899 -1673.14 0.779757 0.288323 0.555569 47 46 56
-337.113 -100.542 -1676.57 0.777631 0.279154 0.561947 47 46 55
-337.494 -95.0652 -1678.73 0.783036 0.27835 0.553209 47 46 54
-322.584 -90.4801 -1677.99 0.663085 0.275206 0.689303 49 48 57
-72.0929 -132.678 -1671.02 -0.968132 0.195368 -0.043123 46 47 57
-70.2918 -125.132 -1674.21 -0.950176 0.186192 0.0937328 45 45 56
-66.9251 -111.123 -1674.28 -0.905748 0.259074 -0.173089 47 48 58
-64.1499 -98.9177 -1672.45 -0.909528 0.207101 0.0417864 46 46 56
-62.207 -89.9561 -1672.34 -0.919023 0.189696 0.0308666 45 46 55
-59.0199 -78.3858 -1674.63 -0.91646 0.199855 0.0805935 42 44 53
-57.1901 -67.216 -1672.62 -0.915781 0.169295 0.0223043 43 45 53
-53.9674 -54.2611 -1676.95 -0.886772 0.0588033 0.234719 39 41 48
-53.4653 -43.7505 -1674 -0.838942 0.0999475 -0.237958 44 46 53
-52.3947 -38.1361 -1676.84 -0.896942 0.157561 0.0231902 41 42 49
-51.3628 -26.046 -1673.89 -0.926727 0.173383 -0.144517 43 44 52
-49.2529 -14.0293 -1678.49 -0.947108 0.104785 -0.0116713 39 39 47
-48.9367 -4.97177 -1676.54 -0.945385 0.106863 -0.107222 41 41 49
-48.1103 8.10824 -1671.47 -0.879177 0.162272 -0.389554 47 48 57
34.8129 197.537 -1678.07 -0.0353798 0.0605606 -0.941913 47 48 58
38.5081 196.711 -1678.06 -0.212443 0.219906 -0.908225 47 48 58
8.04505 218.587 -1675.56 -0.0632434 0.185735 -0.96138 53 53 64
8.57056 222.088 -1675.19 -0.0614445 0.120279 -0.966158 54 54 65
19.0602 225.208 -1675.95 -0.211254 0.0186928 -0.950268 54 55 66
11.4523 227.819 -1675.11 -0.0963558 -0.0170417 -0.967524 56 57 69
13.3804 238.445 -1677.74 -0.214233 -0.168799 -0.961255 65 67 81
-327.847 -1122.45 -1670.49 0.924921 0.368083 0.106597 118 133 159
-329.64 -1118.89 -1667.46 0.931357 0.328541 0.106735 119 135 163
-331.497 -1111.55 -1669.14 0.942035 0.286527 0.0657389 136 158 188
-335.176 -1097.95 -1666.33 0.968786 0.192185 0.0503593 144 168 200
-337.215 -1080.74 -1670.78 0.985096 0.091274 0.110945 145 173 205
-338.287 -1068.56 -1667.26 0.968553 0.0111201 0.166795 146 177 210
-338.467 -1065.62 -1667.74 0.965866 0.0480745 0.145698 148 179 211
-340.058 -1057.75 -1664.77 0.945754 0.213419 0.126344 151 181 213
-349.155 -1034.12 -1670.68 0.938377 0.24545 0.169009 154 183 215
-349.814 -1031.07 -1667.7 0.96329 0.184973 0.113184 153 183 215
