ply
format ascii 1.0
comment Created by Open3D
element vertex 730
property double x
property double y
property double z
property double nx
property double ny
property double nz
property uchar red
property uchar green
property uchar blue
end_header
25.9541 -824.895 -1573.25 -0.602507 0.109962 0.740491 70 96 153
68.8692 -919.763 -1568.93 0.209487 -0.317835 0.888321 75 102 160
72.8364 -915.273 -1571.17 0.178734 -0.332607 0.890986 73 100 158
78.9698 -901.725 -1567.65 0.133547 -0.27422 0.853569 66 94 150
90.1491 -918.97 -1571.42 -0.846023 0.114278 -0.00993609 67 85 134
90.8415 -905.743 -1568.47 -0.975137 -0.00432014 -0.0826574 65 83 130
90.6743 -900.126 -1572.27 -0.943954 0.0577558 -0.101989 69 87 135
83.0804 -894.786 -1569.91 -0.191732 -0.105453 0.573651 72 99 152
136.601 -592.48 -1569.37 0.904749 -0.266039 0.0561941 62 86 145
137.437 -592.232 -1572.7 0.934348 -0.192205 -0.139174 65 90 150
141.214 -576.564 -1566.92 0.895316 -0.159078 -0.11032 68 94 152
141.344 -572.653 -1570.13 0.912854 -0.0951865 -0.307039 69 96 155
142.61 -558.242 -1568.59 0.962776 -0.113831 -0.130997 66 93 150
143.819 -545.611 -1571.64 0.968559 -0.0929378 -0.0466195 60 88 145
144.421 -541.691 -1572.72 0.962123 -0.100786 -0.0334489 60 89 146
-32.4198 -519.651 -1567.49 0.0384373 0.283857 0.857562 21 38 70
144.251 -530.425 -1569.25 0.948249 -0.0385218 0.045709 61 90 149
146.78 -521.458 -1568.45 0.933844 -0.30419 -0.0194814 55 80 136
150.694 -508.458 -1569.78 0.930608 -0.148274 0.163244 58 84 142
-189.495 -1.58449 -1572.87 -0.696176 -0.369488 0.598502 242 241 208
-190.326 1.79489 -1571.83 -0.648626 -0.382316 0.648103 244 243 209
-163.876 -33.6424 -1568.36 -0.928125 -0.214492 0.279259 237 234 185
-165.451 -25.3404 -1567.95 -0.921658 -0.188513 0.322751 221 210 167
-178.554 -11.7875 -1570.43 -0.830785 -0.0325089 0.431769 229 216 191
-174.002 -8.98116 -1570.21 -0.856081 0.0514524 0.356295 215 193 168
-166.17 -15.4437 -1566.77 -0.958791 -0.0528355 0.273775 199 172 135
-166.375 -9.131 -1567.87 -0.951804 0.132366 0.138053 191 150 121
-111.462 57.6362 -1569.18 -0.355863 0.54571 0.732864 253 253 253
-109.123 66.1723 -1572.4 -0.536871 0.273222 0.79175 253 253 253
-108.868 70.5866 -1572.78 -0.543668 0.15362 0.821653 253 253 253
-101.573 77.8469 -1570.95 -0.412254 0.350844 0.80593 253 253 253
-95.0896 79.2021 -1569.06 -0.301128 0.500488 0.79451 253 253 253
-97.3127 81.6296 -1571.8 -0.308328 0.503561 0.78165 253 253 253
-81.112 85.9461 -1570.07 -0.284153 0.46692 0.82052 253 253 253
-78.0019 86.3943 -1569.01 -0.354496 0.397017 0.833016 253 253 254
-76.4465 91.1939 -1570.36 -0.356558 0.410488 0.826755 253 253 253
-74.5573 92.0434 -1569.91 -0.371649 0.412371 0.819868 254 253 253
-65.8811 96.7065 -1570.85 -0.217383 0.606983 0.750786 250 246 240
-44.1187 92.3515 -1569.4 0.0950953 0.723666 0.704429 239 224 197
-55.6598 95.0823 -1570.23 0.0400204 0.683554 0.722719 246 234 216
-47.4518 95.3381 -1572.57 0.0767158 0.699209 0.721305 239 222 197
98.3019 -39.1829 -1571.26 0.756733 -0.0849968 0.645744 254 254 253
106.926 -36.3421 -1570.07 0.786326 -0.149578 0.513429 238 237 222
106.873 -35.1171 -1568.93 0.784638 -0.147641 0.517983 239 237 223
96.9393 -26.4881 -1568.55 0.761715 -0.0879242 0.639033 253 253 253
95.5417 -13.8057 -1568.28 0.712878 0.025457 0.700392 253 253 254
97.3888 -12.2659 -1569.94 0.675364 -0.000186268 0.735775 253 253 254
95.2798 1.13507 -1569.29 0.564635 0.111266 0.80688 253 253 253
97.8569 -4.64058 -1570.13 0.599985 0.00866965 0.791294 253 253 253
101.714 2.11736 -1572.4 0.489395 0.000226193 0.867365 253 253 253
124.26 -40.0408 -1571.74 0.960193 -0.161474 0.00361093 205 200 141
110.963 -26.7466 -1569.18 0.875462 -0.171513 0.266628 215 212 173
113.843 -21.546 -1567.24 0.925203 -0.191397 0.10502 201 195 142
124.311 -29.4802 -1569.12 0.946757 -0.18357 0.149134 197 192 137
75.8579 23.3683 -1567.09 0.40742 0.426474 0.807883 253 253 253
75.8204 30.6229 -1569.7 0.294277 0.366068 0.866555 253 253 253
87.9333 8.2265 -1567.2 0.547141 0.234953 0.799679 253 253 253
84.5732 16.1824 -1567.43 0.487354 0.316388 0.808382 253 253 253
89.8717 16.2979 -1570.44 0.462909 0.246001 0.8421 253 253 253
84.2926 20.3306 -1568.89 0.427046 0.347988 0.827235 253 253 253
-97.4159 -824.698 -1561.22 0.44941 0.366353 0.795633 77 113 169
-77.4288 -872.336 -1565.99 0.70106 -0.185888 0.681493 88 124 182
-79.292 -864.133 -1560.75 0.564272 -0.147602 0.798428 93 130 188
-76.3979 -853.686 -1561.22 0.606582 -0.0630594 0.778814 78 117 176
-73.5689 -852.015 -1565.05 0.667466 0.0128827 0.708481 75 113 172
-81.9204 -836.681 -1562.07 0.631801 0.276016 0.705825 80 119 178
-73.7475 -846.169 -1567.25 0.696038 0.184516 0.66598 76 114 173
-81.1548 -833.691 -1564.02 0.615426 0.287114 0.713741 79 117 177
-155.645 -822.857 -1562.25 -0.745651 -0.334004 0.416399 75 103 152
-158.445 -814.346 -1565.33 -0.924159 -0.202685 0.142469 71 100 152
-62.6947 -731.377 -1562.91 0.623489 -0.132545 0.711604 71 106 170
-179.274 -717.427 -1565.94 -0.910786 -0.31654 0.242813 62 92 146
-178.787 -709.349 -1563.61 -0.886573 -0.0920748 0.436396 58 87 142
-180.351 -702.277 -1566.35 -0.896336 0.0127593 0.394593 63 92 146
-181.131 -690.072 -1564.23 -0.941992 -0.125377 0.226585 63 93 146
-185.237 -679.621 -1566.64 -0.942378 -0.30463 0.14371 75 105 159
-188.718 -668.985 -1566.03 -0.931246 -0.317181 0.205726 62 92 147
-192.262 -656.719 -1566.26 -0.939102 -0.160102 0.173332 70 99 155
-192.223 -652.097 -1563.16 -0.933759 -0.102486 0.218297 63 91 147
-191.307 -636.429 -1563.52 -0.973867 0.0148729 0.0977074 66 95 150
-59.1997 -721.122 -1563.5 0.685409 -0.248979 0.630091 71 106 171
-58.9142 -718.579 -1562.34 0.703347 -0.241823 0.622499 71 106 170
15.5924 -1114.56 -1564.99 0.753243 0.170003 0.552722 153 134 119
23.0642 -1116.69 -1566.12 0.836747 0.125277 0.545591 163 142 122
40.5523 -1091.41 -1560.74 -0.0967942 0.240578 -0.150613 130 124 131
44.5404 -1081.75 -1563.73 -0.692764 0.494539 -0.538162 104 103 123
55.6705 -1091.33 -1563.01 -0.572576 0.452595 -0.352132 120 120 137
48.0943 -1076.36 -1564.5 -0.676074 0.504022 -0.533654 107 108 130
52.8424 -1070.43 -1564.21 -0.702007 0.50067 -0.484574 109 113 136
58.0071 -1060.63 -1563.97 -0.64855 0.375394 -0.647978 111 116 143
59.5379 -1056.14 -1563.37 -0.698298 0.360939 -0.589609 103 108 136
61.611 -1047.85 -1561.59 -0.733087 0.221084 -0.601938 65 74 108
110.864 -771.786 -1564.85 -0.610036 0.00154908 0.25802 69 94 148
127.029 -774.874 -1562.59 -0.486224 -0.0515492 0.285956 75 101 153
126.499 -768.4 -1563.47 -0.405236 -0.0616781 0.30438 76 102 153
112.437 -760.197 -1562.49 -0.814899 -0.0199057 0.261641 68 93 149
118.636 -750.647 -1563.26 -0.586091 -0.0138212 0.19549 73 100 156
124.233 -763.261 -1562.7 -0.335954 -0.0322158 0.283913 73 99 151
114.684 -746.605 -1564.81 -0.232493 -0.0504427 0.137848 76 104 161
109.028 -740.075 -1566.18 0.372164 -0.0666596 0.173412 78 106 163
109.261 -737.496 -1564.19 0.0360995 -0.0621027 0.165318 71 97 154
-2.18292 -722.57 -1565.38 -0.691503 -0.262651 0.659762 65 91 144
-1.51768 -723.148 -1564.88 -0.689429 -0.26172 0.662412 65 91 145
-6.72064 -711.24 -1565.52 -0.682724 -0.313225 0.657298 62 87 139
-5.91003 -707.753 -1562.46 -0.680886 -0.319777 0.65636 63 89 142
-15.6226 -685.392 -1563.28 -0.681509 -0.14474 0.638056 57 79 126
-16.7252 -679.023 -1565.62 -0.720444 -0.0599526 0.651126 55 77 123
-14.2621 -678.978 -1562.3 -0.626237 -0.0780676 0.656949 57 79 127
-13.8848 -671.645 -1562.03 -0.660614 -0.084392 0.697011 57 80 129
-20.0193 -663.329 -1566.53 -0.682508 -0.132693 0.703078 54 76 121
-14.1794 -674.04 -1562.54 -0.661614 -0.0706291 0.680784 57 79 128
-195.86 -387.394 -1561.59 -0.933977 0.130704 0.311172 112 140 189
-194.869 -376.187 -1562.96 -0.968455 0.145239 0.189286 96 119 168
-193.704 -365.906 -1560.48 -0.952033 0.150533 0.0814272 80 105 157
-191.499 -357.026 -1565.57 -0.960724 0.227116 0.0885501 72 99 154
-187.261 -345.667 -1563.97 -0.903909 0.336181 0.108444 65 92 147
-185.039 -335.974 -1565.12 -0.904333 0.393018 0.00898461 82 111 164
-181.54 -328.438 -1561.33 -0.829162 0.41553 0.0133737 103 135 189
-175.395 -322.548 -1566.36 -0.764896 0.35476 0.391237 106 138 195
-169.571 -311.442 -1562.5 -0.859612 0.177411 0.445563 98 128 181
-169.283 -304.741 -1563.42 -0.811173 0.00504908 0.589779 98 129 182
-171.451 -298.202 -1565.63 -0.800126 0.0397802 0.606398 85 118 173
-168.87 -288.739 -1561.48 -0.829679 -0.138035 0.466936 94 113 140
-186.469 19.1042 -1564.73 -0.511979 -0.121052 0.835424 253 251 226
-187.872 30.9239 -1565.1 -0.556574 -0.0282973 0.80189 255 253 232
-187.193 33.2368 -1564.79 -0.484966 0.0269389 0.822952 253 252 232
-181.881 11.8165 -1563.66 -0.474334 -0.130892 0.858188 252 251 229
-181.71 17.7863 -1562.52 -0.416479 -0.148133 0.889575 254 253 232
-180.423 20.1319 -1561.38 -0.363254 -0.195417 0.914191 255 253 236
-182.163 31.3106 -1561.84 -0.460229 0.150933 0.828753 255 254 237
-180.894 40.2858 -1564.67 -0.257631 0.312768 0.897923 252 251 239
-177.364 42.375 -1564.42 -0.272892 0.327887 0.890776 252 251 244
-178.148 47.6216 -1566.52 -0.213549 0.235183 0.947251 254 254 248
-171.144 48.2733 -1564.47 -0.255705 0.318051 0.898118 252 252 250
-172.561 53.4501 -1566.63 -0.181135 0.219883 0.954616 253 253 250
132.14 -386.365 -1564.46 0.911102 0.123442 -0.117642 88 118 181
134.794 -398.592 -1561.47 0.955798 0.0489883 -0.272888 93 121 181
132.633 -388.05 -1565.12 0.929174 0.129018 -0.183225 88 117 181
130.882 -373.33 -1564 0.951586 0.0145531 -0.0432526 90 120 185
131.096 -370.537 -1566.49 0.98417 0.0359462 -0.116337 89 118 184
128.067 -355.512 -1567.18 0.938767 0.295176 -0.0910025 86 115 178
123.925 -343.486 -1564.27 0.774016 0.291288 0.131187 78 108 169
123.115 -339.887 -1564.82 0.842435 0.242619 0.0920902 82 111 172
121.526 -332.033 -1564.28 0.897292 0.238578 0.148392 101 128 184
3.12205 48.8559 -1561.42 0.179733 0.387291 0.901944 253 253 253
-0.96283 51.7367 -1562.04 0.211857 0.386099 0.893763 253 253 253
31.0366 24.8299 -1561 0.3063 0.405919 0.85282 253 253 253
33.9023 28.3344 -1563.78 0.288506 0.411894 0.854217 253 253 253
44.8058 23.227 -1564 0.107477 0.547683 0.798552 253 253 253
36.6311 29.5484 -1565.6 0.284708 0.432552 0.849142 253 253 253
48.9951 26.4416 -1565.82 0.0652759 0.571964 0.789361 253 253 253
22.6156 35.8219 -1562.34 0.367163 0.332227 0.863489 253 253 253
25.9972 36.3437 -1563.98 0.389891 0.353755 0.842904 253 253 253
32.7289 32.5289 -1565.24 0.320105 0.413506 0.846938 253 253 253
13.7598 47.7795 -1563.3 0.278637 0.419256 0.854505 253 253 253
10.8462 51.8698 -1565.04 0.216555 0.468916 0.852271 253 253 253
138.718 -814.717 -1566.5 -0.650611 0.0707735 0.149015 81 101 143
135.724 -821.829 -1563.83 -0.716186 0.103731 0.107822 82 102 141
141.894 -805.421 -1569.91 -0.535846 0.0130989 0.211688 78 100 145
135.214 -800.982 -1566.62 -0.724558 0.0737184 0.136243 80 101 143
137.148 -794.327 -1568.22 -0.617256 0.00455418 0.212055 75 98 147
134.102 -795.254 -1566.15 -0.713077 0.040238 0.172065 77 99 146
132.702 -789.479 -1565.63 -0.725884 0.0192833 0.185943 74 97 148
141.349 -785.329 -1573.07 -0.455447 -0.0448566 0.266294 74 98 148
133.598 -776.33 -1568.77 -0.528612 -0.0380831 0.263016 75 100 151
135.05 -774.009 -1570.76 -0.454274 -0.0490309 0.282978 75 100 151
-145.556 -890.375 -1553.92 -0.892017 -0.16398 0.399271 88 122 181
-139.155 -888.635 -1554.4 -0.787562 -0.0938735 0.549667 82 116 175
-138.322 -885.487 -1551.24 -0.775705 -0.0714879 0.534474 83 116 174
-146.123 -878.288 -1551.96 -0.890996 0.215703 0.197881 84 116 171
-141.815 -865.918 -1553.87 -0.673441 0.228553 0.474035 78 110 166
-137.564 -855.967 -1550.14 -0.806314 0.318572 0.350899 83 113 169
-138.509 -836.861 -1552.56 -0.818263 -0.336146 0.388726 114 149 201
-145.425 -827.155 -1551.37 -0.734779 -0.507889 0.436917 91 123 176
-132.969 -917.357 -1548.69 -0.651515 -0.284503 0.482662 71 100 153
-135.968 -914.799 -1553.78 -0.335432 -0.262588 0.721716 75 103 156
-134.042 -904.453 -1551.51 -0.523713 -0.0529966 0.722389 80 110 165
-135.705 -904.461 -1552.71 -0.638292 -0.142593 0.632177 80 112 169
-106.448 -903.659 -1554.53 0.0704766 0.136443 0.97578 69 97 151
-135.616 -883.409 -1553.91 -0.59832 -0.0941782 0.625231 84 117 174
54.0865 -1041.98 -1552.49 -0.590181 0.192365 -0.782293 69 82 119
55.8811 -1033.26 -1551.89 -0.634778 0.167585 -0.752404 71 83 120
58.3507 -1025.39 -1553.82 -0.690042 0.187551 -0.692344 70 80 115
58.8784 -1013.74 -1551.95 -0.88313 0.0711074 -0.449262 72 82 118
58.5751 -1001.16 -1550.85 -0.932157 0.0389164 -0.358457 72 82 120
58.8649 -976.465 -1549.08 -0.83089 0.0968577 -0.54547 61 74 112
59.3287 -991.948 -1551.06 -0.908625 0.0868964 -0.406151 69 80 117
59.7998 -978.882 -1550.62 -0.838296 0.107331 -0.533559 62 75 113
62.4786 -973.899 -1552.19 -0.806478 0.172741 -0.563822 61 75 114
66.2668 -966.678 -1553.49 -0.751866 0.245252 -0.590442 72 85 126
67.2878 -958.917 -1551.27 -0.740376 0.293952 -0.602759 70 83 123
70.3038 -949.703 -1549.61 -0.812323 0.344544 -0.44085 69 84 124
-164.04 -18.5763 -1553.19 -0.835728 -0.208475 0.316605 244 238 199
-159.209 -34.6823 -1554.9 -0.872715 -0.0901366 0.378752 242 241 194
-161.014 -26.8095 -1553.35 -0.80262 -0.212445 0.375871 245 240 199
-164.017 -10.7681 -1550.4 -0.846844 -0.136534 0.303123 245 238 202
-165.745 -1.71779 -1554.3 -0.833554 0.0324844 0.101418 242 230 194
-163.271 8.70859 -1550.83 -0.734316 0.131998 0.404391 251 248 227
-164.251 18.7691 -1553.28 -0.524945 0.126848 0.686165 253 251 242
-161.861 28.5087 -1552.63 -0.273334 0.254211 0.88957 253 253 252
-65.5157 60.4941 -1554.22 -0.173511 0.163946 0.959617 253 252 250
-70.3858 92.1603 -1549.79 -0.491482 0.567373 0.632875 251 252 250
141.298 -432.452 -1553.89 0.987695 0.192506 -0.0412226 100 129 190
138.557 -419.059 -1551.77 0.96737 0.205041 0.0242859 77 105 166
131.777 -384.402 -1552.85 0.78517 0.261148 0.00788429 112 140 195
135.182 -399.149 -1551.94 0.959156 0.121202 -0.0900216 92 119 179
133.475 -388.934 -1549.87 0.869355 0.207194 0.0155831 113 138 193
129.505 -376.931 -1550.31 0.834177 0.190952 -0.0292596 113 140 194
127.993 -367.643 -1548.38 0.925032 0.141988 0.020375 106 132 186
126.536 -358.674 -1551.29 0.842854 0.271732 0.106545 85 114 171
124.209 -342.873 -1548.52 0.796674 0.0977493 0.206213 70 95 150
123.262 -337.486 -1549.19 0.842195 0.21397 0.136525 72 97 152
57.0481 10.9905 -1550.35 0.0743638 0.508665 0.813402 253 253 253
55.7202 13.5453 -1551.82 -0.0590205 0.568811 0.775323 253 253 253
79.7659 -30.9898 -1549.5 0.680756 -0.0999301 0.723016 253 253 253
79.2843 -28.2482 -1548.7 0.670892 -0.0655467 0.734586 253 253 253
95.8842 -39.2973 -1551.73 0.723968 -0.0800568 0.672776 252 253 251
97.0576 -41.7111 -1554.09 0.718111 -0.0532546 0.676859 252 252 249
85.5728 -24.0835 -1554.72 0.710761 -0.00183467 0.69394 253 253 253
97.2179 -21.6354 -1550.19 0.729735 0.0126038 0.673731 253 253 253
69.8117 -9.03826 -1548.63 0.492794 0.347587 0.796947 253 253 253
79.2721 -14.0965 -1552.08 0.619717 0.178876 0.756522 253 253 253
78.4402 -6.85721 -1553.97 0.517121 0.287883 0.800025 253 253 253
62.2003 7.00795 -1550.67 0.374496 0.353095 0.843682 253 253 253
67.3333 4.56672 -1552.68 0.475818 0.315858 0.822989 253 253 253
100.362 -13.9073 -1551.75 0.704927 0.0552334 0.697123 253 253 251
100.864 -5.70378 -1550.28 0.671619 0.127988 0.715956 248 249 241
102.228 -1.09492 -1550.26 0.670316 0.1234 0.713659 248 248 240
103.752 3.63179 -1549.69 0.642142 0.103008 0.71758 237 235 222
120.17 -35.1189 -1552.11 0.945735 -0.173422 0.259541 215 218 174
121.872 -27.5699 -1553.14 0.916649 -0.200198 0.332165 207 209 164
-113.976 326.399 -1554.12 -0.778141 0.0796622 -0.0708511 51 47 55
-113.038 327.783 -1554.15 -0.768072 0.0740501 -0.0754626 52 48 55
-107.71 336.285 -1559.27 -0.698663 0.0549057 -0.110507 56 53 59
-134.375 -885.528 -1545.91 -0.713405 -0.13183 0.451454 88 120 176
-128.339 -873.756 -1544.24 -0.320294 -0.358851 0.633559 91 122 177
-127.842 -872.315 -1544.05 -0.289646 -0.352578 0.652516 90 121 176
-136.479 -854.306 -1547.84 -0.808594 0.345497 0.306956 85 115 170
-122.029 -856.151 -1543.2 -0.245316 -0.23068 0.677024 101 132 187
-121.196 -855.302 -1543.15 -0.230511 -0.260412 0.697022 105 137 191
-104.002 -855.304 -1546.16 0.108877 -0.545698 0.813535 124 158 212
-103.109 -851.62 -1543.67 0.132591 -0.513459 0.822391 126 160 214
-133.191 -848.623 -1543.15 -0.849528 0.316437 0.199834 79 108 165
-134.467 -838.519 -1545.97 -0.84738 -0.206918 0.383535 105 138 192
-101.824 -837.763 -1544.59 0.498779 0.271565 0.7271 120 155 208
-99.031 -840.679 -1545.84 0.544327 0.18962 0.725896 118 153 207
-111.125 -825.425 -1543.71 0.525331 0.312407 0.726014 109 143 196
-151.509 -813.675 -1549.19 -0.821456 -0.285571 0.479142 84 113 167
-145.338 -819.558 -1544.13 -0.676037 -0.340358 0.638876 88 119 173
-151.729 -813.355 -1549.39 -0.826739 -0.279956 0.474337 84 113 167
-196.683 -448.818 -1542.47 -0.726134 0.105326 0.688394 97 136 193
-197.587 -445.497 -1544.19 -0.760282 0.138123 0.597367 91 129 186
-51.854 -526.484 -1548.63 0.710227 0.00390111 0.678509 59 93 155
-54.0074 -523.404 -1544.69 0.731388 -0.111636 0.663019 67 102 167
-56.6836 -506.406 -1544.29 0.625271 0.0992842 0.754196 56 91 156
-52.1563 -512.067 -1546.53 0.750485 0.119908 0.649514 49 81 135
-54.2655 -501.398 -1545.55 0.574628 -0.0872306 0.776759 53 88 152
-44.7788 -493.963 -1546.18 0.426177 -0.499313 0.744058 51 84 142
-46.0991 -492.359 -1543.94 0.365503 -0.535756 0.748829 52 86 145
-26.4555 -1170.4 -1546.45 0.533899 0.705461 -0.0487163 58 49 48
-20.8615 -1170.54 -1546.02 -0.0262763 0.715426 0.436223 80 69 64
40.6794 -761.309 -1546.15 -0.203468 0.256097 0.937149 114 149 210
42.9712 -758.17 -1546.62 -0.163504 0.268593 0.948106 112 149 209
45.2646 -757.011 -1546.48 -0.156526 0.279906 0.946187 112 148 209
54.6901 -761.554 -1543 -0.24039 0.25769 0.91602 116 153 212
53.394 -755.977 -1543.5 -0.323732 0.0875054 0.91933 118 156 215
47.3531 -749.841 -1546.6 -0.296914 0.197745 0.913905 104 140 199
56.1276 -739.905 -1542.71 -0.421196 0.288543 0.838861 107 143 202
58.3467 -735.596 -1543.59 -0.38666 0.300261 0.857115 106 142 200
56.0056 -728.918 -1546.94 -0.290539 0.114872 0.919581 94 129 188
73.1489 -819.963 -1545.1 0.446545 -0.328381 0.763464 100 134 191
62.0849 -806.834 -1544.84 -0.11579 -0.451672 0.849193 114 150 210
67.4677 -807.872 -1543.71 0.136797 -0.488078 0.8284 115 150 210
86.049 -824.122 -1543.41 0.721136 0.0384913 0.683007 75 99 151
87.3148 -816.478 -1544.41 0.744972 -0.0631657 0.660673 74 95 147
90.707 -808.877 -1545.8 0.779323 -0.19165 0.59784 72 91 142
73.5914 -788.412 -1542.75 0.454592 -0.077793 0.871134 115 152 209
79.8245 -788.479 -1542.47 0.556339 -0.152922 0.814376 113 150 207
80.9838 -780.314 -1542.98 0.52808 -0.155009 0.821019 106 144 200
100.333 -790.723 -1547.65 0.829731 -0.330257 0.452717 67 88 141
100.164 -782.512 -1543.28 0.817706 -0.179394 0.522054 70 93 146
103.269 -780.102 -1547.78 0.826915 -0.150213 0.510195 66 88 141
77.8132 -772.533 -1543.14 0.439957 -0.065474 0.890701 104 143 199
76.613 -761.582 -1542.52 0.325732 -0.0780731 0.929957 102 141 196
140.738 -551.335 -1547.55 0.928623 -0.220564 0.229984 61 83 142
142.452 -545.65 -1548.33 0.940472 -0.163929 0.163507 62 85 143
143.982 -536.479 -1542.69 0.942443 -0.223879 0.187056 65 89 147
-20.2874 -521.234 -1543.68 -0.886553 0.0760931 0.46395 52 80 135
-21.4497 -513.517 -1547.28 -0.89411 -0.0102092 0.465917 44 69 117
-33.4888 -495.151 -1547.59 -0.0669301 -0.628941 0.655684 52 76 123
-21.4572 -505.74 -1545.58 -0.820227 -0.166028 0.531913 47 73 123
-26.1842 -497.582 -1545.31 -0.55085 -0.575888 0.590759 64 86 135
142.918 -518.775 -1542.51 0.920807 0.161135 0.258827 67 93 152
145.262 -529.556 -1544.17 0.944924 -0.130757 0.119941 74 100 159
-158.197 12.9111 -1545.85 -0.675859 0.202765 0.528268 253 252 239
-151.077 17.7781 -1544.78 -0.158594 0.387805 0.840649 253 253 251
-141.325 15.2561 -1542.7 -0.00886083 0.593112 0.812169 253 253 253
-153.293 20.8935 -1546.61 -0.258007 0.363858 0.838964 253 253 251
-139.264 21.166 -1548.46 -0.0102081 0.436053 0.89313 253 253 253
-77.716 188.937 -1543.27 -0.807936 -0.394422 0.0718926 234 197 169
-75.13 185.895 -1546.59 -0.827068 -0.413212 -0.011848 234 195 166
-82.8611 201.13 -1547.92 -0.91293 -0.339249 -0.135994 234 191 158
-91.3867 244.283 -1547.07 -0.731054 -0.394556 0.132324 145 118 109
-93.4832 247.664 -1544.37 -0.864294 -0.420472 0.0251269 117 95 90
-84.0226 213.474 -1544.93 -0.990471 -0.0910377 -0.0319253 236 191 161
-83.4908 222.99 -1548.3 -1.00648 -0.0485669 -0.00171636 238 192 163
-84.8475 231.06 -1544.77 -0.90268 -0.158325 0.0524335 218 177 155
-95.5721 251.668 -1545.01 -0.870294 -0.448652 0.0797738 96 79 78
-96.7756 259.188 -1542.82 -0.867966 -0.245652 0.316148 78 68 71
-106.071 272.992 -1548.44 -0.662617 -0.320783 0.53006 41 38 45
-99.5565 272.329 -1543.75 -0.656117 -0.294146 0.594415 42 39 46
-115.518 284.541 -1542.73 -0.650538 -0.589333 0.354322 44 40 47
65.8036 -135.049 -1542.7 0.153142 0.244826 0.963365 253 253 253
70.1848 -130.458 -1545.11 0.218474 0.254149 0.938149 253 253 253
72.8042 -138.575 -1543.38 0.22083 0.223196 0.945008 253 253 252
76.4536 -128.436 -1547.87 0.465045 0.271551 0.82632 253 253 253
63.8538 -126.153 -1544.44 0.243483 0.187995 0.937707 253 253 253
67.0025 -125.821 -1545.28 0.252555 0.198394 0.931212 253 253 253
71.0942 -120.801 -1547.52 0.271811 0.186109 0.934977 253 253 254
90.6021 -137.835 -1543.01 0.726202 0.15942 0.643593 251 252 236
90.8181 -133.019 -1545.64 0.725463 0.174402 0.646379 251 252 239
90.1185 -121.456 -1545.7 0.710753 0.15832 0.660959 251 252 239
66.0063 -114.557 -1544.42 0.39195 -0.0918915 0.891681 253 253 251
68.6036 -106.462 -1544.86 0.527806 -0.0342812 0.83445 254 253 252
71.2364 -106.491 -1547.35 0.536325 0.0148833 0.825026 253 253 252
66.167 -93.622 -1542.71 0.699557 -0.00341086 0.700439 254 253 248
88.3366 -113.879 -1544.35 0.683729 0.120731 0.689207 251 252 239
86.3451 -103.349 -1542.93 0.682846 0.0601679 0.707682 252 253 238
86.043 -96.6271 -1543.21 0.714852 0.0485698 0.670595 251 252 235
107.667 -101.128 -1543.97 0.867835 0.0853898 0.4406 246 248 204
110.099 -135.467 -1547.28 0.988442 0.0355853 0.102444 246 249 201
108.8 -125.41 -1544.18 0.860801 0.104329 0.409194 246 249 206
-134.625 -882.874 -1540.56 -0.896294 -0.175539 0.241809 93 127 183
-126.173 -885.251 -1539.32 -0.828021 -0.105629 0.224817 92 125 180
-125.242 -871.174 -1539.62 -0.439455 -0.251336 0.563495 94 125 180
-124.087 -865.631 -1539.31 -0.314907 -0.17086 0.636994 95 126 180
-122.738 -856.769 -1539.34 -0.333334 -0.101069 0.594788 98 129 183
-119.683 -854.074 -1538.36 -0.286955 -0.180067 0.666334 115 147 200
-107.785 -849.43 -1540.63 -9.86443e-05 -0.519632 0.892776 134 168 221
-129.754 -845.953 -1536.44 -0.878235 0.330558 0.219911 80 110 167
-118.592 -847.424 -1537.15 -0.162632 -0.342949 0.841001 136 168 220
-119.19 -842.501 -1535.9 -0.211249 -0.248379 0.821274 137 168 220
-134.734 -833.14 -1541.86 -0.766564 -0.32751 0.509006 92 122 178
-134.529 -825.751 -1538.31 -0.576813 -0.295696 0.725921 100 134 187
-129.018 -829.39 -1537.35 -0.416272 -0.227331 0.763946 109 141 194
-118.065 -837.034 -1537.37 -0.0172366 -0.213873 0.990807 145 177 228
-119.706 -830.172 -1537.34 0.0933517 -0.0853369 0.98381 129 162 212
-109.796 -845.661 -1539.54 0.0345251 -0.379854 0.933573 138 172 224
-108.305 -839.458 -1539.51 0.166806 -0.0790464 0.904456 134 168 219
-108.738 -833.661 -1541.03 0.320585 0.225711 0.828616 128 163 214
-138.104 -822.952 -1539.74 -0.596147 -0.295231 0.729484 96 129 182
-137.698 -818.101 -1538.3 -0.478084 -0.161281 0.827849 95 129 181
-149.343 -805.02 -1541.41 -0.830907 -0.244089 0.525855 88 119 172
-139.412 -811.677 -1538.28 -0.380977 -0.0766504 0.830336 95 129 181
-139.566 -805.488 -1536.02 -0.276057 -0.179849 0.783051 93 127 179
-190.725 -451.796 -1536.61 -0.681383 0.0818638 0.730711 95 131 191
-191.976 -443.861 -1538.26 -0.75632 0.106693 0.653956 89 125 185
-194.796 -436.261 -1542.25 -0.778585 0.115593 0.58898 89 125 183
-59.8749 -527.942 -1539.21 0.649516 -0.106686 0.726258 67 103 170
-58.9925 -522.52 -1538.99 0.67354 -0.119282 0.715503 71 107 175
-58.3905 -518.038 -1539.88 0.679075 0.00210791 0.715592 72 109 176
-65.7749 -505.472 -1536.33 0.697234 0.0440619 0.699964 61 96 165
-60.769 -505.609 -1541.38 0.633842 0.144845 0.753411 58 94 162
-56.2771 -495.932 -1542.12 0.509776 -0.249831 0.787447 53 91 158
-56.7862 -489.598 -1536.73 0.460016 -0.492393 0.722651 57 94 161
-41.5853 -488.69 -1540.92 0.17308 -0.671282 0.711164 53 82 135
-24.46 -1180.48 -1537.54 0.355714 0.512671 0.130713 76 65 63
-27.9218 -1174.88 -1538.51 0.755803 0.592843 0.0239165 71 60 57
-23.4404 -1179.42 -1538.86 0.25988 0.531499 0.22639 80 69 65
-16.5677 -1174.76 -1541.64 -0.338998 0.493367 0.686409 147 128 114
21.1534 -682.352 -1541.63 -0.307355 -0.219276 0.918475 79 111 173
22.7392 -684.769 -1541.94 -0.286518 -0.210048 0.930562 80 112 174
22.9842 -683.14 -1541.46 -0.285219 -0.227 0.926135 80 112 173
38.6369 -693.431 -1542.39 0.0402813 -0.357663 0.928007 85 121 178
37.4093 -688.105 -1540.56 -0.0290289 -0.281608 0.949264 84 120 177
38.9988 -680.041 -1538.85 -0.0203502 -0.192498 0.975343 86 122 178
40.7826 -678.166 -1538.48 0.000659078 -0.185307 0.977966 87 123 178
49.9847 -681.689 -1539.63 0.102034 -0.314563 0.939632 87 122 180
54.2644 -678.936 -1539.19 0.094416 -0.328677 0.93775 89 124 182
8.40704 -663.693 -1540.07 -0.561312 -0.228708 0.782582 74 105 165
9.65489 -651.062 -1540.12 -0.518311 0.147776 0.821102 76 108 170
8.38663 -635.202 -1540.09 -0.59117 -0.230387 0.761892 72 104 167
7.55889 -629.835 -1538.02 -0.551876 -0.291168 0.77526 69 100 162
17.1189 -674.254 -1539.77 -0.379897 -0.276222 0.868063 77 108 170
21.3498 -671.415 -1538.14 -0.239266 -0.259137 0.917428 79 112 173
23.2343 -672.737 -1538.31 -0.203642 -0.249761 0.93203 80 113 174
26.565 -669.066 -1537.31 -0.0903895 -0.196336 0.969684 81 116 176
30.945 -671.325 -1537.75 -0.0665411 -0.178892 0.97776 83 119 176
10.0013 -658.056 -1538.65 -0.492918 -0.0303568 0.836695 76 108 169
23.0763 -662.705 -1536.29 -0.0617376 -0.135805 0.982228 83 117 178
39.4393 -672.468 -1537.51 -0.052021 -0.165804 0.980738 87 124 178
40.5419 -676.901 -1538.16 -0.0172374 -0.183315 0.978589 86 123 178
50.9482 -675.382 -1537.56 0.0359711 -0.321462 0.939437 87 123 180
36.9967 -665.495 -1536.38 -0.122551 -0.175616 0.969638 85 122 176
11.2826 -647.07 -1539.95 -0.526853 0.167839 0.813274 77 110 173
141.555 -513.727 -1541.02 0.924091 0.100327 0.318617 64 90 149
140.982 -503.983 -1538.14 0.919742 0.00191694 0.323311 66 93 153
140.961 -500.696 -1536.69 0.943758 -0.00999313 0.27636 65 91 150
142.774 -486.296 -1537.47 0.932969 -0.105644 0.283993 60 87 146
120.063 -476.46 -1537.88 0.77452 0.119635 0.637598 117 157 220
126.619 -475.707 -1538.66 0.715808 0.0114575 0.684205 106 146 211
145.033 -481.9 -1541 0.913503 -0.161012 0.276961 64 91 150
144.373 -466.438 -1540.09 0.934533 0.066062 0.321306 55 82 140
120.783 -440.536 -1536.53 0.725333 0.112161 0.67529 115 155 217
145.009 -456.715 -1539.88 0.945491 0.0277874 0.273236 78 106 163
141.768 -445.939 -1536.08 0.889201 0.203151 0.385608 96 126 186
-149.529 -49.2776 -1539.39 -0.823783 -0.167027 0.506714 250 251 217
-148.522 -50.9595 -1538.47 -0.829948 -0.154999 0.499592 250 251 218
-155.137 -36.0682 -1542.16 -0.803994 -0.0915981 0.583156 250 252 229
-153.09 -29.2693 -1539.72 -0.852496 -0.0793486 0.474491 252 253 229
-152.044 -20.595 -1537.58 -0.772145 -0.0663139 0.634577 253 253 229
-151.412 -12.1945 -1536.09 -0.760008 -0.0793485 0.664207 253 253 233
-152.133 -7.15582 -1536.61 -0.743837 -0.0569117 0.670637 253 253 235
-154.834 1.15147 -1539.57 -0.713378 0.0632165 0.666606 253 253 239
-125.006 299.584 -1539.04 -0.775246 -0.381562 0.330913 49 44 52
-117.351 288.529 -1541.27 -0.729012 -0.535164 0.390022 46 41 48
-107.234 281.887 -1539.96 -0.501561 -0.631734 0.552704 41 38 46
-108.978 286.45 -1535.66 -0.544646 -0.655221 0.501424 42 38 45
-96.9645 278.179 -1538.19 -0.648584 -0.373237 0.561057 41 37 44
-126.27 307.356 -1543.07 -0.83218 0.21484 0.127117 50 46 54
-119.954 311.372 -1538.07 -0.750261 0.327214 0.376619 50 46 54
-116.026 319.764 -1541.16 -0.813113 0.220954 0.0188727 48 44 52
114.011 -427.978 -1536.77 0.722366 0.251218 0.643823 119 158 219
118.474 -427.075 -1540.41 0.708522 0.285684 0.642643 119 159 220
139.6 -429.166 -1538.51 0.931814 0.321486 0.134092 89 117 177
134.894 -418.308 -1538.06 0.88859 0.252364 0.32744 82 110 172
63.873 -38.9465 -1536.31 0.683134 0.0147725 0.730823 253 253 253
64.818 -32.0161 -1536.93 0.657699 -0.0396525 0.758671 253 253 253
63.3789 -25.8347 -1536.73 0.615276 0.0763196 0.773535 253 253 253
61.1005 -20.8442 -1537.05 0.564057 0.257146 0.776093 253 253 253
84.7045 -39.3812 -1537.07 0.687923 0.0156804 0.69733 251 252 247
89.1956 -35.6766 -1541.71 0.720228 -0.00487088 0.675696 253 253 251
86.4538 -26.6848 -1537.86 0.696761 0.00780147 0.696906 252 253 251
89.4676 -18.5431 -1541.11 0.721219 -0.000563206 0.673475 252 253 251
59.6575 -10.8936 -1540.67 0.509858 0.366532 0.779686 253 253 253
84.9243 -10.6664 -1536.78 0.647709 0.129894 0.72638 250 251 243
88.3633 -4.82346 -1540.11 0.658674 0.161996 0.72179 253 254 250
87.8028 1.41682 -1539.38 0.653802 0.153103 0.725462 251 251 242
112.319 -37.2761 -1539.28 0.775212 -0.19895 0.593516 227 231 190
111.475 -34.214 -1537.46 0.769199 -0.187214 0.604033 229 234 194
114.619 -25.0032 -1540.09 0.819704 -0.099766 0.561275 227 231 186
59.7181 282.391 -1536.75 0.565113 -0.533881 -0.37206 53 45 54
62.0112 298.725 -1541.8 0.528455 -0.407698 -0.0855555 55 47 56
-99.7338 -971.211 -1543.67 -0.838086 -0.349215 0.44075 74 98 142
-128.913 -923.078 -1535.77 -0.873805 -0.323167 -0.0829109 78 109 161
-138.552 -874.256 -1535.99 -0.979569 -0.184467 0.189418 101 134 190
-82.2557 -668.844 -1534.07 0.534999 -0.168003 0.820232 96 135 194
-83.9876 -661.814 -1531.83 0.436142 -0.126236 0.88292 98 136 196
-79.3192 -663.043 -1534.16 0.512433 -0.141351 0.834418 94 132 192
-77.6173 -656.468 -1534.15 0.49839 -0.0524295 0.845831 89 127 189
-82.082 -652.575 -1532.28 0.44606 0.00297623 0.884646 92 131 191
-84.5104 -643.087 -1532.05 0.497866 0.0149285 0.863806 90 129 188
-80.8198 -644.484 -1534.02 0.516453 0.0617191 0.842307 87 126 186
-77.9797 -639.362 -1536.04 0.592914 0.0405481 0.79263 83 122 184
-80.1264 -631.134 -1532.16 0.541795 -0.186432 0.801989 89 128 189
-180.917 -625.402 -1533.83 -0.601746 -0.0681946 0.739085 93 129 185
-179.699 -619.565 -1532.96 -0.576028 -0.0124352 0.781767 95 131 187
-179.88 -613.609 -1533.12 -0.565322 0.0173776 0.810998 96 132 190
-180.854 -606.558 -1533.39 -0.582192 -0.040198 0.742333 96 132 189
-176.654 -606.532 -1530.42 -0.541296 -0.0517765 0.809856 99 134 191
-182.977 -598.165 -1533.67 -0.572572 -0.0650551 0.229132 91 125 183
-179.031 -591.476 -1530.47 -0.427748 -0.0688307 0.867325 94 130 188
-182.178 -583.408 -1533.02 -0.670033 -0.0630117 0.583381 94 130 189
20.3325 -645.025 -1535.11 -0.335966 -0.0681643 0.917254 83 118 179
32.698 -648.947 -1532.08 -0.269263 -0.258151 0.918442 86 122 180
26.4959 -644.836 -1533 -0.303563 -0.208151 0.917715 85 121 182
19.4191 -641.319 -1534.69 -0.430388 -0.197973 0.862724 82 117 179
13.1567 -631.674 -1535.27 -0.495882 -0.241989 0.82083 76 108 171
26.3341 -637.827 -1530.57 -0.343286 -0.256957 0.903594 87 123 184
52.8316 -647.471 -1530.22 0.181199 -0.151223 0.971174 87 124 181
57.1489 -644.485 -1530.6 0.154248 -0.142545 0.977343 87 124 181
91.9961 -716.827 -1531.34 0.783294 -0.244525 0.391407 73 102 158
105.564 -726.325 -1530.44 0.913872 -0.0617559 0.373732 67 92 149
96.1868 -708.057 -1532.9 0.762405 -0.243086 0.458108 73 104 161
97.7074 -701.913 -1534 0.566831 -0.162588 0.626099 78 111 168
101.503 -692.467 -1535.72 0.184371 0.0129719 0.927773 84 120 179
100.938 -682.789 -1532.23 0.241005 0.00325631 0.821597 83 117 176
109.105 -717.944 -1535.79 0.898508 -0.204445 0.388169 66 90 147
111.446 -705.126 -1531.75 0.913053 -0.18178 0.308851 63 89 145
114.581 -693.755 -1536.59 0.940649 -0.0549106 -0.00640409 67 92 148
114.924 -689.271 -1536.6 0.903576 -0.0972293 0.109712 67 93 149
116.94 -478.285 -1532.51 0.713946 0.184044 0.674155 115 155 218
113.782 -473.623 -1531.47 0.660879 0.162622 0.716598 115 155 218
121.919 -479.039 -1531.22 0.680096 0.129658 0.699658 108 147 211
123.028 -474.328 -1531.89 0.676387 0.0863635 0.707258 106 145 209
118.253 -464.449 -1532.01 0.65636 -0.00544753 0.739892 104 144 208
122.784 -470.174 -1534.37 0.695154 0.0166668 0.70152 102 142 205
141.866 -479.12 -1533.11 0.897224 0.029189 0.375564 62 91 154
142.725 -472.841 -1532.58 0.915849 0.023573 0.3226 62 91 153
142.037 -459.838 -1533.06 0.945836 0.0194944 0.307849 68 97 158
116.223 -453.355 -1531.77 0.673953 0.0447145 0.734398 107 147 210
117.016 -449.148 -1534.07 0.699022 0.0785169 0.712889 111 151 214
120.821 -449.833 -1532.07 0.699597 0.0836472 0.698622 105 144 207
119.097 -441.757 -1535.95 0.723215 0.106478 0.680861 115 155 216
113.338 -439.134 -1531.71 0.679328 0.143695 0.717729 119 159 221
116.481 -438.498 -1534.32 0.703408 0.152652 0.692298 118 158 220
142.72 -451.53 -1535.51 0.899403 0.12573 0.365766 90 119 178
142.468 -449.273 -1535.91 0.892488 0.163648 0.376268 94 123 182
140.072 -435.593 -1534.57 0.929972 0.085288 0.332911 100 130 192
-93.8303 259.229 -1535.79 -0.962684 -0.00281627 0.242659 134 115 111
-91.6592 268.948 -1530.98 -0.949711 0.099307 0.263056 97 85 84
-112.106 291.127 -1530.07 -0.613538 -0.674176 0.364663 42 37 44
-116.299 295.675 -1532.12 -0.721883 -0.457611 0.368877 44 39 47
-100.985 287.213 -1531.29 -0.33567 -0.805419 0.479325 43 38 45
-92.4114 279.305 -1531.88 -0.76353 -0.152949 0.463896 54 48 53
-99.0661 287.186 -1530.55 -0.321066 -0.799063 0.474199 44 38 46
-120.571 303.768 -1535 -0.753406 -0.0803239 0.47011 47 44 51
-115.215 307.646 -1532.01 -0.760892 0.28456 0.321204 44 41 49
-107.807 320.212 -1531.06 -0.711524 0.0185928 0.447582 38 37 42
-86.2456 341.385 -1532.72 -0.562893 0.573241 0.549173 57 56 63
-79.8056 345.277 -1532.12 -0.521289 0.607584 0.590166 61 60 67
45.644 -136.638 -1531.76 0.592293 -0.0454925 0.800932 253 253 249
47.2314 -131.91 -1532.73 0.639377 -0.0157562 0.768112 253 253 249
49.6167 -123.948 -1535.11 0.671091 0.0145643 0.742632 254 253 245
45.773 -108.964 -1530.62 0.634503 -0.0745725 0.763176 254 253 233
48.0415 -112.958 -1533.11 0.643252 -0.0420655 0.763968 254 254 236
52.665 -100.094 -1533.5 0.499738 -0.246643 0.816295 253 253 234
52.1277 -96.7284 -1531.24 0.565082 -0.316275 0.751319 252 252 230
58.6543 -87.9697 -1532.79 0.687232 -0.191844 0.685782 251 251 233
80.0231 -134.943 -1532.05 0.660407 0.0314796 0.723782 244 248 214
83.1909 -129.308 -1536.22 0.461011 0.188899 0.83295 251 252 242
77.168 -118.34 -1532.41 0.588539 0.0318404 0.768606 244 247 218
85.1911 -139.097 -1535.51 0.66927 0.0875638 0.703031 247 250 226
101.983 -136.032 -1532.76 0.716261 0.20808 0.633568 247 251 210
101.751 -131.538 -1534.01 0.719964 0.231382 0.629116 247 251 209
98.7091 -125.614 -1533.9 0.688958 0.137489 0.694955 246 250 209
97.6934 -118.863 -1533.52 0.727965 -0.0239099 0.6732 245 249 208
39.4437 238.201 -1534.16 0.927757 -0.139611 0.300647 213 176 156
39.6987 248.6 -1529.76 0.927442 -0.139331 0.31261 185 151 135
41.7074 255.169 -1533.73 0.926734 -0.110898 0.305821 198 167 155
40.8034 269.272 -1533.07 0.908465 -0.00430613 0.386751 112 95 90
44.2225 273.834 -1532.2 0.692327 -0.152364 0.362874 71 59 58
52.1414 274.064 -1535.15 0.355065 -0.367091 0.431998 44 37 43
54.3728 287.071 -1531.18 0.418918 -0.425123 0.419875 56 46 52
43.3485 293.259 -1535.11 0.867953 0.12357 0.39556 40 32 40
40.4394 294.381 -1534.6 0.921918 0.166135 0.394505 36 29 37
8.91512 349.44 -1531.72 0.523446 0.171821 0.601111 145 144 149
32.1769 319.919 -1529.95 0.783317 0.286199 0.488552 57 49 57
36.0437 307.272 -1533.83 0.906088 0.0455768 0.450279 41 35 43
34.6838 319.078 -1532.74 0.832331 0.180888 0.474761 60 51 59
20.6907 333.617 -1535.82 0.553653 0.672984 0.497729 54 47 56
27.6242 326.565 -1530.42 0.600399 0.613059 0.502592 57 50 57
14.7659 341.288 -1535.41 0.575695 0.598303 0.51507 62 58 67
-161.323 -705.056 -1529.64 -0.240381 0.0325076 0.972996 97 136 188
-159.983 -707.455 -1529.59 -0.191782 -0.075398 0.968819 98 136 188
-144.742 -702.426 -1528.61 0.000201612 -0.224717 0.95766 101 141 195
-175.93 -578.029 -1527.96 -0.653696 -0.00491352 0.756767 98 136 196
-174.493 -567.832 -1526.23 -0.656831 -0.064059 0.744574 98 136 196
-178.558 -564.985 -1529.52 -0.626171 -0.122052 0.763111 94 131 192
-177.964 -558.928 -1526.94 -0.691535 -0.17223 0.700755 96 133 194
-178.265 -549.94 -1526.46 -0.712409 -0.0326475 0.692797 97 134 195
-180 -541.075 -1529.23 -0.69479 0.0330405 0.70952 98 135 196
-180.873 -534.726 -1529.88 -0.674064 -0.0647632 0.721569 99 136 197
-92.7472 -627.866 -1524.53 0.432864 -0.187037 0.874824 87 126 185
-80.2897 -535.099 -1524.99 0.629788 -0.109951 0.764513 70 108 175
-186.596 -502.731 -1529.67 -0.767608 -0.0558144 0.639239 97 136 197
-181.883 -530.241 -1529.79 -0.673155 -0.150805 0.713673 100 138 198
-182.178 -520.302 -1527.67 -0.653358 -0.150415 0.728648 100 138 199
-185.531 -514.524 -1529.96 -0.745236 -0.0568886 0.661914 95 134 194
-183.141 -504.81 -1526.23 -0.706573 -0.0854953 0.695519 100 139 199
-182.59 -495.652 -1525.94 -0.715729 0.123482 0.665948 107 145 206
-179.303 -491.504 -1524.69 -0.640484 0.265542 0.708619 109 147 208
-173.778 -484.824 -1524.76 -0.576547 0.219898 0.759496 104 142 204
63.746 -821.908 -1525.55 0.725298 -0.16591 0.630506 65 88 141
64.3894 -818.568 -1528.79 0.759578 -0.25169 0.620893 65 87 140
70.0233 -812.3 -1528.18 0.740087 -0.290968 0.617764 64 88 141
62.8008 -801.52 -1524.7 0.526832 -0.325673 0.585602 72 99 154
73.1506 -805.42 -1524.28 0.729413 -0.429487 0.539972 65 90 144
71.7229 -802.451 -1528.06 0.743204 -0.394738 0.549361 65 89 143
79.0679 -802.714 -1528.26 0.723647 -0.433277 0.534685 63 88 142
70.4634 -798.001 -1528.57 0.747231 -0.3916 0.521763 66 91 144
72.8416 -795.805 -1530.04 0.741696 -0.386123 0.51773 70 97 150
73.8582 -789.923 -1529.69 0.763664 -0.408288 0.460816 69 96 148
74.4396 -783.006 -1528.94 0.764796 -0.414289 0.448167 69 96 148
75.1378 -780.143 -1529.02 0.752495 -0.398178 0.459694 70 97 149
87.148 -785.61 -1524.76 0.795536 -0.290337 0.505546 64 90 144
90.0046 -778.1 -1525.19 0.847764 -0.175491 0.495486 64 89 144
75.8663 -773.419 -1528.39 0.622079 -0.231648 0.581136 79 109 163
75.03 -764.72 -1525.69 0.456001 -0.0264617 0.727412 90 124 180
79.9142 -762.509 -1529.31 0.458293 -0.0280997 0.726222 90 124 180
81.9398 -752.259 -1527.82 0.649085 -0.0837432 0.596165 79 109 165
93.5206 -767.53 -1526.3 0.863457 -0.283762 0.40219 63 88 144
101.378 -751.24 -1525.68 0.779566 -0.167521 0.55994 64 90 147
81.096 -749.942 -1526.53 0.634811 -0.0795286 0.605681 80 110 166
81.1123 -738.372 -1524.27 0.591106 -0.0744226 0.639184 82 114 169
-178.912 -429.063 -1528.06 -0.526895 0.0631348 0.841674 98 134 196
-179.125 -426.42 -1528.38 -0.541365 0.0986947 0.82396 100 136 197
-167.334 -423.985 -1524.13 -0.292231 0.190049 0.923509 115 153 216
-167.351 -417.018 -1526.72 -0.320073 0.333501 0.870946 113 150 211
-161.392 -416.621 -1524.7 -0.360528 0.234499 0.897323 101 138 200
-165.723 -409.835 -1527.79 -0.447296 0.207424 0.837691 103 138 200
-163.919 -405.709 -1526.38 -0.539567 0.0237428 0.817771 103 138 200
-165.144 -399.824 -1526.48 -0.593482 -0.0783742 0.798088 108 143 204
-171.202 -394.43 -1529.93 -0.578872 -0.118115 0.805215 104 139 199
-171.394 -387.574 -1529.25 -0.595264 -0.00882148 0.791955 100 132 190
-119.453 -186.195 -1525.49 -0.746004 -0.0728182 0.614292 248 248 225
-125.964 -171.147 -1530.49 -0.673921 -0.136872 0.621998 246 247 218
-124.262 -173.943 -1528.72 -0.726671 -0.135803 0.607234 246 246 217
-125.93 -159.085 -1525.72 -0.766616 -0.104215 0.567801 249 249 234
-127.539 -151.361 -1526.44 -0.702014 -0.0396545 0.682572 252 252 246
-127.922 -143.982 -1526.04 -0.725571 -0.0148759 0.672023 252 252 247
-139.489 -78.992 -1530.65 -0.815376 -0.052718 0.554813 250 251 232
-137.997 -71.579 -1526.44 -0.813679 -0.176717 0.536626 248 250 221
-141.161 -64.6272 -1527.64 -0.816968 -0.22245 0.509978 247 249 220
-141.694 -57.8817 -1527.47 -0.833769 -0.0251576 0.530099 251 251 223
-141.032 -45.1004 -1527.23 -0.803728 -0.0208033 0.587335 252 252 228
-129.966 -136.542 -1527.83 -0.755105 -0.0225252 0.643605 250 251 242
-127.898 -128.679 -1525.29 -0.77797 -0.0222479 0.630192 251 251 237
54.1077 -239.127 -1524.22 0.352032 0.289266 0.886778 253 253 253
78.2352 -333.034 -1526.88 0.613075 0.238416 0.744296 119 157 211
78.0608 -324.596 -1528.66 0.673155 0.183408 0.712247 117 154 208
74.6204 -322.561 -1526.25 0.638892 0.150339 0.751174 108 144 199
73.5604 -316.451 -1526.17 0.616259 0.173619 0.765315 94 129 188
87.3438 -323.291 -1524.67 0.619296 0.382987 0.661591 107 144 200
87.268 -319.525 -1525.81 0.640969 0.356242 0.653821 104 139 196
87.3995 -314.383 -1527.68 0.69526 0.291728 0.626405 99 132 189
105.63 -321.05 -1527.46 0.747444 0.417281 0.492209 98 128 186
102.778 -312.664 -1528.55 0.817725 0.229889 0.501047 103 132 187
64.7983 -301.177 -1526.18 0.608826 0.275731 0.735447 85 120 174
75.8831 -310.599 -1530.21 0.63814 0.18875 0.736618 85 120 177
63.4929 -288.482 -1525.95 0.639361 -0.00523521 0.762979 162 176 196
83.2494 -291.567 -1525.3 0.469937 -0.0165492 0.831931 95 126 172
86.5072 -303.759 -1528.43 0.723158 0.144844 0.618886 91 124 181
101.591 -309.833 -1527.29 0.816192 0.165315 0.525745 101 132 187
85.0028 -295.12 -1527.71 0.554264 0.0399486 0.76884 90 124 177
98.2937 -294.947 -1526.12 0.84366 0.166808 0.485192 84 116 176
99.0918 -288.947 -1529.21 0.838801 0.137663 0.515909 81 110 166
109.985 -327.888 -1526.1 0.746555 0.388225 0.51184 86 119 180
77.1479 -35.9027 -1528.79 0.607093 0.0937336 0.776633 252 252 248
72.4207 -34.6865 -1524.14 0.61145 0.0889503 0.772747 252 252 249
77.6949 -29.8698 -1529.05 0.613549 0.0896145 0.770895 252 252 249
77.9998 -18.2704 -1529.69 0.613089 0.0895298 0.771293 252 252 248
101.255 -34.9471 -1526.25 0.744419 -0.223425 0.629578 231 236 192
103.799 -27.7484 -1526.51 0.742476 -0.180546 0.638414 234 239 195
102.168 -17.7539 -1523.28 0.72853 -0.100679 0.684621 240 243 203
77.3914 -14.8454 -1529.51 0.619148 0.0869477 0.757536 250 251 243
72.7382 -5.75956 -1526.87 0.635703 0.0735622 0.736403 250 252 237
69.7173 4.97137 -1526.35 0.510448 0.257013 0.76798 207 193 177
107.301 -5.66283 -1527.2 0.758987 -0.0578316 0.6417 245 250 211
101.654 3.90797 -1524.05 0.631587 0.158883 0.752937 240 240 207
109.77 -5.50597 -1529.98 0.779478 -0.102794 0.617857 244 249 208
-121.163 -861.944 -1527.41 -0.67032 0.338372 0.244078 95 126 179
-121.948 -864.735 -1531.62 -0.578848 0.151417 0.338856 95 126 180
-115.614 315.073 -1535.54 -0.743857 0.275634 0.356245 47 44 52
-101.738 326.61 -1530.53 -0.699796 -0.00451557 0.447549 42 41 45
-105.578 327.399 -1534.33 -0.736098 -0.0301673 0.340134 44 42 46
-98.5444 330.391 -1531.3 -0.706395 0.0430774 0.381133 50 48 52
-98.8544 336.866 -1536.31 -0.714259 0.0504557 0.270004 60 55 60
-93.5212 337.706 -1533.97 -0.665134 0.299956 0.388494 60 57 63
-87.2873 342.106 -1533.76 -0.565142 0.536746 0.53301 58 56 63
-148.006 -650.43 -1523.71 -0.18983 0.117236 0.856208 96 135 190
-145.016 -642.366 -1522.79 -0.220281 -0.0683706 0.944718 95 134 190
-142.795 -640.769 -1521.51 -0.260203 -0.0976577 0.91786 96 136 191
-151.977 -629.932 -1520.45 -0.354294 -0.243622 0.84338 102 141 197
-148.148 -638.981 -1523.17 -0.224258 -0.112769 0.924562 96 135 192
-144.898 -632.506 -1519.7 -0.1852 -0.222984 0.87178 99 139 194
-125.93 -666.718 -1524.07 -0.183954 -0.139807 0.967603 98 137 192
-130.405 -655.249 -1522.2 -0.119252 -0.192544 0.972284 99 137 192
-126.886 -655.34 -1522.01 -0.0556526 -0.174248 0.974783 99 138 193
-122.448 -659.955 -1523 -3.254e-05 -0.145709 0.971912 98 138 193
-130.781 -651.536 -1521.29 -0.110659 -0.168398 0.976124 98 137 192
-130.859 -644.205 -1520.09 -0.116583 -0.114429 0.982601 98 137 193
-125.593 -647.485 -1520.5 0.0176013 -0.124627 0.984805 98 137 193
-87.8667 -490.787 -1520.39 0.250055 0.278861 0.905043 78 115 182
-90.3392 -486.899 -1522.08 0.285519 0.359117 0.87119 72 109 176
-79.5799 -524.619 -1523.99 0.599226 -0.131376 0.783738 78 115 183
-81.6295 -523.904 -1522.2 0.575442 -0.12867 0.799209 79 116 184
-82.4245 -509.095 -1520.03 0.554751 -0.00328719 0.82338 76 114 182
-81.5136 -504.737 -1520.34 0.525942 0.00573733 0.838918 77 114 183
-77.2391 -505.674 -1523.59 0.587252 -0.057544 0.78527 72 108 177
-80.5218 -498.295 -1520.47 0.442779 0.04742 0.872049 80 116 184
-76.5094 -491.741 -1522.47 0.407908 0.105375 0.874892 68 102 171
-81.6507 -485.173 -1523.41 0.0983445 0.213439 0.969266 60 95 162
-93.7612 -476.669 -1521.06 0.398237 -0.101143 0.840606 67 103 170
-93.0636 -479.692 -1522.72 0.406257 0.0725166 0.838773 69 105 172
-92.7087 -473.841 -1520.31 0.38445 -0.250916 0.833705 64 99 166
96.2685 -651.24 -1518.68 0.149427 -0.137211 0.950676 89 124 184
100.042 -641.38 -1520.22 0.130462 -0.132024 0.975945 89 124 183
102.945 -635.816 -1522.52 0.181862 -0.141748 0.928757 90 124 184
102.775 -633.744 -1522.17 0.200313 -0.150761 0.927566 91 125 185
114.95 -665.349 -1520.72 0.960098 -0.0505138 0.248657 64 93 152
114.182 -654.826 -1519.53 0.945828 -0.0622298 0.305549 62 92 151
116.2 -649 -1521.72 0.931831 -0.186847 0.281578 64 93 153
119.288 -635.863 -1520.04 0.922432 -0.154943 0.328351 66 96 156
120.867 -628.993 -1523.57 0.961518 -0.0992031 0.182053 63 92 151
46.0574 -616.867 -1523.84 0.0416767 -0.196468 0.975095 93 130 188
45.7309 -613.553 -1522.75 -0.00297397 -0.233912 0.963928 93 130 189
45.2398 -608.013 -1521.03 -0.0568854 -0.267815 0.95115 95 131 190
50.3801 -614.38 -1523.47 0.0863185 -0.267533 0.957676 92 128 186
48.7334 -605.543 -1520.24 -0.00131161 -0.287269 0.950181 96 132 191
22.5299 -596.578 -1523.89 -0.425418 -0.137001 0.882593 81 115 178
29.4679 -599.606 -1522.46 -0.322046 -0.172788 0.928061 87 121 183
32.1076 -596.02 -1520.88 -0.332594 -0.144312 0.929904 87 121 184
21.5999 -581.895 -1521.85 -0.341174 -0.229153 0.887046 89 123 186
23.2258 -590.102 -1522.65 -0.40849 -0.165004 0.882321 85 119 181
25.3364 -584.944 -1521.4 -0.307572 -0.183598 0.918794 88 122 185
39.1847 -598.802 -1519.29 -0.265482 -0.1778 0.938422 93 128 189
41.3038 -602.045 -1519.61 -0.200962 -0.222882 0.9404 94 130 190
49.4978 -599.007 -1518.12 -0.034131 -0.27067 0.957096 97 133 193
59.6911 -597.914 -1518.91 0.213553 -0.216879 0.947471 96 132 191
-140.736 -270.235 -1519.72 -0.259038 -0.342955 0.853146 230 232 202
-140.389 -268.295 -1518.75 -0.276749 -0.37292 0.855661 234 235 209
-146.316 -258.079 -1519.05 -0.419134 0.118643 0.712088 247 248 236
-142.088 -253.241 -1518.58 -0.521523 0.477113 0.615272 254 254 248
-135.92 -305.71 -1518.37 -0.462752 0.0912903 0.881833 84 119 180
-134.258 -287.152 -1520.88 -0.512537 0.231394 0.773604 197 205 187
-129.089 -281.342 -1518.1 -0.539672 0.152872 0.758588 220 222 181
-136.884 -270.32 -1519.2 -0.35815 -0.268968 0.852045 232 233 200
-137.773 -34.4599 -1522.16 -0.768413 -0.0993649 0.609089 254 254 236
-135.532 -40.9819 -1520.18 -0.777572 -0.0592721 0.59274 254 254 237
-135.947 -25.9528 -1520.79 -0.656816 -0.049165 0.688869 254 253 244
-135.619 -19.2214 -1522.15 -0.540931 0.115456 0.73243 253 253 247
-123.259 -22.9187 -1518.18 -0.0188963 0.117098 0.979222 253 253 255
-111.079 -20.104 -1518.45 -0.160273 0.546169 0.812453 253 253 253
-130.962 -13.2953 -1523.52 -0.171561 0.541292 0.779359 253 253 253
-118.449 -17.099 -1521.13 -0.121599 0.517524 0.848805 252 253 253
27.3854 -170.958 -1519.33 0.599677 -0.12545 0.791017 253 253 253
28.0273 -163.978 -1518.79 0.622562 -0.0735346 0.78277 253 253 251
34.7776 -164.276 -1523.82 0.454162 -0.103346 0.883872 253 253 252
26.7299 -154.836 -1518.88 0.599314 0.115048 0.788938 253 253 251
21.452 -140.864 -1518.33 0.433318 -0.053722 0.867429 253 253 250
30.5619 -148.792 -1523.26 0.568051 0.11641 0.806111 253 253 250
31.1743 -140.596 -1523.48 0.510578 -0.0914363 0.842049 253 253 248
82.9237 -229.507 -1523.36 0.2386 0.129712 0.955552 253 253 254
80.7004 -221.935 -1521.17 0.220111 0.172694 0.921857 253 253 252
84.098 -235.879 -1523.74 0.375294 0.108973 0.876562 252 252 251
96.1819 -226.042 -1523.38 0.933749 0.12925 0.274222 248 249 221
96.6496 -213.31 -1522.82 0.918022 -0.00619776 0.0473343 230 232 188
83.2427 -206.921 -1524.19 0.37474 0.0638515 0.537295 246 246 235
83.0193 -203.617 -1523.9 0.310251 0.094077 0.751663 249 250 243
