ply
format ascii 1.0
comment Created by Open3D
element vertex 725
property double x
property double y
property double z
property double nx
property double ny
property double nz
property uchar red
property uchar green
property uchar blue
end_header
-378.996 -332.842 -1720.18 -0.675275 0.179604 -0.704034 175 203 238
-286.256 -108.504 -1719.59 -0.241336 -0.319181 -0.869275 38 39 47
-343.279 -40.5606 -1718.85 -0.751357 -0.233964 -0.602957 54 52 63
-344.665 -36.2587 -1719.49 -0.711643 -0.304294 -0.636462 54 53 63
-349.351 -21.2277 -1717.62 -0.821899 -0.0712468 -0.538243 56 56 65
-348.111 -13.3417 -1718.71 -0.849883 -0.0264491 -0.518374 54 56 64
-349.457 -2.02657 -1717.57 -0.868498 -0.130317 -0.477397 53 55 62
-351.607 9.6043 -1718.64 -0.866354 -0.176274 -0.459173 55 57 65
-353.95 21.2346 -1717.76 -0.859308 -0.148903 -0.468459 56 57 65
-352.554 33.8825 -1720.96 -0.877482 -0.0551025 -0.460066 54 56 64
-109.478 -204.279 -1716.3 0.934734 -0.175644 -0.266219 46 47 60
-109.086 -201.022 -1717.51 0.906928 -0.171947 -0.335813 45 47 60
-105.627 -187.701 -1717.08 0.829433 -0.166114 -0.501177 45 48 60
-101.452 -174.034 -1718.46 0.760836 -0.208102 -0.571551 45 48 59
-98.9617 -165.117 -1715.35 0.832466 -0.108293 -0.410225 46 49 61
-17.8092 248.417 -1719.83 0.504331 -0.0864933 0.854277 67 68 82
-11.7518 258.054 -1721.04 0.349976 -0.1537 0.903924 93 95 112
-211.743 345.462 -1721.04 0.265459 -0.00136336 -0.513603 127 103 84
-204.242 352.16 -1717.27 0.18459 -0.368236 -0.266291 84 71 67
-191.672 365.09 -1720.8 0.541983 -0.483803 -0.268601 64 54 55
-185.791 369.055 -1714.74 0.673117 -0.392632 -0.519885 58 50 54
-108.395 268.782 -1718.36 -0.146765 0.620431 0.65801 101 92 94
-102.363 267.066 -1716.28 -0.185483 0.526022 0.631796 110 100 101
-90.996 269.469 -1715.85 -0.331178 0.251671 0.637881 122 117 123
-48.5112 267.434 -1716.56 0.303412 0.0712412 0.496879 144 138 138
-41.6915 268.578 -1721.02 0.329255 0.0591327 0.427215 152 144 142
-186.305 376.383 -1718.12 0.645988 -0.222313 -0.630093 60 51 55
-185.61 392.45 -1716.95 0.599747 -0.0707046 -0.72319 63 53 57
-186.318 399.069 -1721.83 0.550076 -0.0936217 -0.74196 64 54 58
-182.751 406.719 -1718.43 0.360807 -0.142997 -0.795943 72 60 63
-148.62 387.6 -1719.73 0.63806 0.217655 0.5491 207 170 155
-153.938 393.581 -1719.56 0.614222 0.00254395 0.00176728 148 120 111
-478.094 -1195.76 -1726.84 0.25113 0.927063 0.262374 52 51 50
-491.921 -1190.3 -1723.25 0.269128 0.942058 0.152292 37 36 35
-488.844 -1191.4 -1727.15 0.250136 0.945584 0.186176 29 28 28
-368.976 -1144.14 -1723.72 -0.754259 -0.36287 0.678702 166 187 223
-373.374 -1139.15 -1724.03 -0.737223 -0.385455 0.617831 177 198 234
-375.915 -1139.75 -1727.53 -0.761608 -0.383669 0.610801 178 199 235
-377.076 -1128.45 -1716.79 -0.661515 -0.440508 0.577866 190 211 244
-274.966 293.013 -1724.98 -0.408866 -0.111113 0.49424 178 159 148
-285.969 291.552 -1717.74 -0.30474 0.321458 0.672636 161 154 157
-274.976 298.564 -1717.92 -0.451201 -0.0870477 0.500321 201 179 162
-249.445 318.077 -1715.89 -0.497603 -0.135319 0.490192 213 188 167
-244.648 326.888 -1726.21 -0.308038 -0.0731051 0.238516 139 125 122
-243.557 337.39 -1719.03 -0.231 -0.128266 -0.0275066 137 118 111
-243.287 341.29 -1716.35 -0.234171 -0.17673 -0.138416 138 117 108
-245.068 346.845 -1717.23 -0.416536 -0.30814 -0.119152 139 117 108
-396.305 -1069.18 -1712.98 -0.729443 0.224186 0.617738 167 189 215
-397.472 -1026.95 -1710.55 -0.555379 -0.231947 0.796276 181 200 223
-400.132 -1022.43 -1711.71 -0.542919 -0.206954 0.808972 179 197 221
-393.294 -1064.06 -1712.98 -0.712556 0.311508 0.616447 167 193 220
-386.531 -1056.93 -1710.34 -0.579325 0.288458 0.736101 168 196 227
-382.165 -1052.34 -1708.05 -0.599758 0.170324 0.77718 173 200 234
-387.553 -1040.96 -1709.55 -0.612239 -0.154252 0.756979 172 198 229
-391.655 -1031.6 -1708.28 -0.563595 -0.266621 0.782073 176 198 226
-369.546 -888.631 -1711.01 0.162138 0.144997 0.897765 184 208 237
-344.065 -903.468 -1708.95 0.707338 0.109387 0.67377 168 196 233
-367.926 -890.646 -1711.05 0.176933 0.205505 0.882326 185 209 239
-360.182 -892.042 -1713.02 0.550952 0.281377 0.750174 188 215 247
-343.976 -887.642 -1708.45 0.70379 -0.113754 0.693546 174 201 237
-369.556 -883.13 -1712.14 0.322792 0.047693 0.893214 186 209 239
-369.466 -876.976 -1712.6 0.4829 -0.0142049 0.842157 187 211 240
-373.475 -869.425 -1710.53 0.524604 -0.0382599 0.85078 180 201 226
-373.376 -859.948 -1711.28 0.557648 0.0161232 0.825199 177 198 224
-367.416 -876.881 -1714.07 0.566197 0.0471588 0.7867 191 216 246
-342.295 -884.962 -1709.7 0.679368 -0.125834 0.712021 176 203 239
-356.042 -868.741 -1709.28 0.798891 0.0211907 0.586836 183 210 245
-347.036 -866.009 -1709.85 0.814692 0.0400408 0.561369 179 205 243
-355.039 -864.372 -1709.67 0.79335 0.0255341 0.587194 183 209 244
-376.39 -854.737 -1709.08 0.442627 -0.0561252 0.888124 154 172 194
-375.379 -848.497 -1708.58 0.478997 -0.231693 0.831428 146 164 186
-372.447 -843.895 -1709.31 0.59799 -0.289529 0.735621 165 187 213
-347.218 -854.082 -1709.16 0.828514 0.0494213 0.55278 184 210 248
-366.856 -839.411 -1713.2 0.752587 -0.205616 0.614565 197 223 255
-352.006 -840.159 -1708.15 0.832997 -0.0375084 0.537406 184 211 247
-365.164 -825.695 -1711.69 0.824982 -0.145424 0.541172 196 224 255
-362.476 -821.476 -1713.93 0.821311 -0.178398 0.535436 192 220 254
-349.611 -818.868 -1709.17 0.76684 -0.169476 0.598336 183 210 245
-336.83 -589.058 -1710.1 0.448806 -0.0373661 0.884975 181 211 254
-338.026 -579.145 -1710.62 0.463356 0.0962111 0.864865 182 211 254
-340.102 -573.137 -1708.92 0.55374 0.00654126 0.805332 185 213 254
-338.647 -568.614 -1710.19 0.57225 -0.0486706 0.787198 188 215 254
-325.878 -564.506 -1713.14 0.177813 -0.332632 0.897532 198 225 255
-329.467 -559.949 -1711.78 0.200982 -0.191123 0.902714 201 227 255
-333.185 -552.069 -1711.79 0.178713 0.0453892 0.929573 202 228 255
-324.723 -562.248 -1712.59 0.109271 -0.299477 0.917374 200 226 255
-325.457 -555.61 -1711.65 0.0855797 -0.137173 0.940192 202 228 255
-336.469 -546.027 -1711.96 0.214474 0.0409592 0.916996 201 226 255
-334.897 -538.943 -1711.05 0.170122 -0.194844 0.901041 199 224 254
-321.69 -550.284 -1712.95 0.13296 0.0489037 0.955491 197 224 255
-326.614 -542.7 -1714.03 0.198582 -0.0208041 0.924089 197 223 254
-271.744 -587.145 -1713.11 -0.410089 -0.0240949 0.894207 167 198 239
-270.216 -580.668 -1711 -0.503485 -0.0799919 0.847728 163 195 236
-275.809 -575.733 -1714.13 -0.351704 -0.0603404 0.919285 171 202 240
-266.864 -571.759 -1708.84 -0.548202 -0.0364986 0.830931 165 197 236
-265.64 -565.823 -1708.58 -0.547111 -0.0221333 0.835578 170 203 240
-130.462 -1119.98 -1713.15 0.941276 0.023689 -0.246292 158 182 211
-137.185 -1100.29 -1708.48 0.775808 0.575507 -0.126753 126 153 185
-145.514 -1086.6 -1712.53 0.94142 0.229511 -0.0968859 131 164 204
-145.851 -1083.18 -1712.67 0.961881 0.127175 -0.0356837 134 167 207
-232.137 -1072.57 -1709.58 -0.810479 0.433306 0.270787 115 142 171
-232.55 -1056.77 -1714.12 -0.813846 0.0950536 0.232704 119 145 174
-232.435 -1047.09 -1711.04 -0.769536 -0.00985493 0.213762 121 147 175
-234.511 -1032.7 -1711.95 -0.805741 -0.0672503 0.560624 141 173 211
-232.077 -1018.94 -1709.08 -0.687751 0.112488 0.662482 139 174 210
-144.118 -1064.14 -1711.53 0.95472 -0.181623 0.237173 145 179 221
-138.506 -1046.25 -1707.26 0.955606 -0.278545 -0.036789 148 182 222
-135.698 -1037.41 -1709.32 0.953122 -0.20496 0.0368515 150 182 222
-133.933 -1030.29 -1712.81 0.936901 -0.122562 0.0812825 153 185 226
-96.8764 -826.199 -1710.31 0.944341 -0.0664419 -0.302825 179 205 242
-97.4481 -812.59 -1710.36 0.954724 0.0770645 -0.268874 169 197 237
-98.8758 -811.501 -1715.23 0.916496 0.0794775 -0.339347 162 193 234
-230.161 -776.236 -1712.63 -0.556956 -0.0239084 0.567741 130 161 206
-226.265 -767.61 -1711.14 -0.536213 -0.0484933 0.461292 123 155 203
-228.639 -752.527 -1709.13 -0.216346 -0.260836 0.308356 115 151 197
-233.057 -749.049 -1708.41 -0.116565 -0.360166 0.644703 106 135 175
-99.0066 -637.032 -1714.03 0.909937 -0.000374513 -0.38563 167 208 251
-95.2357 -623.725 -1712.39 0.621401 0.0166156 -0.615774 169 208 252
-91.714 -612.742 -1708.93 0.591323 0.078257 -0.650206 167 206 252
-93.3888 -609.092 -1711.55 0.381328 0.208617 -0.733487 167 204 250
-94.8335 -596.382 -1709.31 0.638705 0.179663 -0.706693 156 196 246
-230.922 -588.068 -1713.66 -0.949436 -0.022501 -0.332456 181 210 250
-233.1 -578.153 -1708.37 -0.845128 -0.0613783 -0.14793 170 199 238
-234.592 -554.472 -1714.4 -0.595997 0.0563496 -0.045837 169 195 231
-232.913 -542.394 -1714.75 -0.934722 0.0189127 -0.369989 177 204 241
-230.673 -500.219 -1714.45 -0.821073 0.456976 -0.331071 190 216 251
-225.85 -485.74 -1709.78 -0.712294 0.168331 -0.608398 177 202 240
-425.281 -40.9367 -1707.23 -0.754387 -0.103129 0.446921 59 62 72
-419.807 -53.1909 -1710.89 -0.680547 -0.111628 0.420986 60 62 72
-418.435 -47.2637 -1711.1 -0.770438 -0.101333 0.469815 59 62 72
-409.444 -46.7525 -1711.34 -0.732908 -0.106663 0.425122 59 62 72
-409.556 -39.6156 -1711.13 -0.750097 -0.102868 0.438908 59 62 72
-410.282 -33.4542 -1710.82 -0.733784 -0.105772 0.441006 59 62 72
-429.888 -19.1223 -1711.06 -0.733547 -0.108422 0.42493 59 62 72
-422.436 -19.4503 -1713.04 -0.742497 -0.110023 0.419297 60 62 72
-426.3 -10.8652 -1714.94 -0.761537 -0.11603 0.410533 60 62 72
-414.593 -25.7833 -1711.99 -0.725614 -0.108064 0.434937 60 62 72
-416.063 -19.8106 -1712.31 -0.735523 -0.108873 0.425702 60 62 72
-420.629 -13.6707 -1713.38 -0.750183 -0.111086 0.415709 60 62 72
-419.978 -6.70303 -1713.63 -0.69037 -0.109529 0.451104 59 61 72
-349.063 -53.8916 -1708.76 -0.810388 -0.112526 -0.567499 52 51 61
-346.477 -44.9328 -1713.77 -0.798042 -0.161524 -0.561506 53 52 62
-350.4 -35.4562 -1711.91 -0.766045 -0.234398 -0.574518 54 53 63
-353.372 -27.099 -1707.96 -0.846241 -0.127002 -0.48831 55 55 65
-350.939 -11.3889 -1712.24 -0.893459 -0.0196842 -0.440971 55 56 64
-353.316 -1.45262 -1708.77 -0.89639 -0.103414 -0.41045 55 56 65
-354.963 8.70352 -1709.73 -0.927355 -0.163709 -0.328157 55 57 67
-355.35 13.5341 -1711.2 -0.922423 -0.146355 -0.340702 55 57 67
-357.293 34.7522 -1708.8 -0.946312 -0.0184435 -0.320832 57 58 67
-357.063 44.449 -1709.14 -0.946884 -0.0051043 -0.313462 57 58 67
-98.2935 -149.827 -1714.54 0.854299 -0.0228155 -0.334618 45 47 59
-98.2936 -147.72 -1711.16 0.914911 -0.0182734 -0.0997105 46 49 61
-98.0143 -134.586 -1712.19 0.872712 -0.0238785 -0.25696 46 48 60
-93.6973 -117.538 -1710.46 0.839016 -0.294784 -0.100878 48 51 62
-90.4099 -108.783 -1713.83 0.703846 -0.241775 -0.366786 46 49 60
-86.9354 -90.6291 -1712.97 0.827026 -0.118757 -0.277819 43 45 56
-85.311 -80.4616 -1711.72 0.842009 -0.0959561 -0.226021 44 45 56
-84.9805 -68.8271 -1713.5 0.753079 -0.00689622 -0.630901 38 39 49
-82.8087 -54.8093 -1711.3 0.843646 -0.0996454 -0.458647 39 40 49
-43.5745 111.069 -1713.15 0.60833 -0.186214 0.762787 51 56 68
-40.48 113.506 -1714.42 0.58271 -0.206701 0.774705 51 56 67
-37.6185 118.925 -1713.83 0.533344 -0.263605 0.792767 52 56 68
-40.1123 129.893 -1710.01 0.551166 -0.101769 0.821301 52 57 69
-39.1044 132.395 -1710.62 0.568912 -0.0750089 0.815643 52 57 69
-41.9134 150.44 -1708.2 0.595878 -0.0354751 0.799167 53 58 71
-38.1579 155.622 -1710.33 0.550747 -0.0201506 0.829394 53 57 70
-168.545 264.761 -1714.2 0.514409 0.45085 0.722775 128 131 150
-158.473 253.376 -1708.39 0.458469 0.652105 0.592533 122 122 139
-142.695 244.238 -1708.79 0.366473 0.689272 0.62708 97 99 117
-137.819 242.297 -1708.99 0.235577 0.699887 0.64317 95 98 116
-139.826 244.775 -1711.37 0.328236 0.705819 0.629107 97 99 117
-315.699 -1070.68 -1703.5 0.701423 -0.0717831 0.649347 158 188 222
-306.25 -1071.71 -1707.06 0.793365 0.0288304 0.601445 158 189 222
-290.951 -1069.03 -1701.31 0.526719 0.364845 0.764753 165 198 242
-312.216 -1055.68 -1708.04 0.742939 0.04575 0.629919 159 190 224
-293.242 -1055.04 -1706.93 0.492784 0.347446 0.796147 152 186 230
-303.158 -1043.03 -1704.38 0.599786 0.236837 0.743407 141 175 217
-307.683 -1036.6 -1702.71 0.591617 0.20549 0.763818 130 166 208
-306.943 -1027.09 -1704.41 0.623667 0.0575457 0.766055 131 167 209
-305.879 -1024.3 -1704.44 0.649174 0.0857125 0.738042 130 167 210
-285.367 -1072.24 -1704.06 0.5265 0.373981 0.766512 157 192 236
-242.505 -865.919 -1706.88 -0.566847 -0.303715 0.61029 91 99 118
-244.164 -860.87 -1708.28 -0.571561 -0.1999 0.493694 91 101 120
-318.006 -853.891 -1704.56 0.496055 -0.157658 0.79479 173 201 238
-317.478 -842.713 -1704.06 0.538254 -0.0800951 0.744839 161 191 230
-289.382 -855.163 -1708.21 0.830677 0.138455 0.477837 113 150 192
-292.307 -848.564 -1705.89 0.793853 0.0872728 0.490363 120 157 198
-293.778 -841.744 -1707.51 0.789479 0.14516 0.501131 121 158 199
-341.138 -825.049 -1707.85 0.570878 -0.220175 0.77889 170 197 236
-340.439 -812.857 -1706.55 0.696062 -0.149351 0.671501 181 208 244
-314.101 -830.219 -1705.41 0.497311 -0.122132 0.780592 164 194 233
-299.767 -825.35 -1702.57 0.808298 -0.133418 0.573518 132 170 209
-294.115 -818.731 -1706.26 0.729796 -0.203981 0.6527 132 168 208
-309.222 -807.827 -1706.82 -0.128528 -0.120229 0.892247 179 207 245
-292.964 -814.284 -1703.7 0.753645 -0.193623 0.605991 133 169 208
-292.388 -812.709 -1702.73 0.77012 -0.190865 0.585061 132 168 207
-240.647 -848.186 -1703.69 -0.855203 -0.0107351 0.408098 90 94 107
-241.582 -837.874 -1703.46 -0.819454 -0.0338744 -0.0566728 89 103 120
-242.77 -825.922 -1703.35 -0.766373 0.107533 -0.214861 86 101 120
-341.885 -591.36 -1707.1 0.488632 -0.0728329 0.859753 182 212 254
-261.406 -635.901 -1704.82 -0.39684 -0.110661 0.92071 162 196 242
-267.256 -630.78 -1706.43 -0.386192 -0.0722487 0.914209 165 199 243
-255.087 -642.177 -1703.47 -0.336461 -0.121515 0.901457 157 190 236
-258.363 -632.387 -1703.33 -0.391758 -0.092063 0.911924 157 191 237
-258.042 -629.89 -1702.82 -0.392194 -0.0906538 0.908718 153 187 232
-242.431 -629.539 -1707.21 -0.660922 0.231915 -0.522813 161 190 230
-264.095 -613.917 -1705.67 -0.511645 0.0513594 0.841336 162 196 240
-263.91 -597.78 -1707.1 -0.572072 0.0620334 0.777745 159 193 236
-258.908 -609.398 -1701.43 -0.565632 -0.0628198 0.796665 153 187 232
-241.601 -606.028 -1701.31 -0.154206 -0.0685736 0.439768 140 169 208
-259.526 -600.448 -1702.35 -0.602153 0.0195154 0.708631 155 188 232
-244.237 -598.382 -1704.07 -0.40193 0.0462012 0.32489 156 185 224
-344.487 -585.724 -1704.65 0.537897 0.000313705 0.827237 184 213 255
-342.753 -582.581 -1706.3 0.503164 0.0722519 0.850599 183 212 255
-346.983 -564.788 -1702.76 0.665846 -0.0292065 0.730207 188 215 255
-343.015 -558.787 -1708.23 0.4992 0.151716 0.818942 193 219 254
-351.676 -555.13 -1701.46 0.688464 0.124306 0.696837 187 215 252
-349.411 -551.074 -1706.66 0.646175 0.181303 0.705947 189 217 251
-228.854 -1015.46 -1705.92 -0.666359 0.175789 0.698371 143 181 219
-223.22 -1009.91 -1702.9 -0.556773 0.261389 0.76676 140 181 221
-222.015 -1004.61 -1704.47 -0.513075 0.276727 0.775487 138 178 217
-218.786 -1002.04 -1704.67 -0.390767 0.329769 0.810393 135 175 215
-215.287 -994.927 -1707.57 -0.156199 0.426528 0.859768 129 169 210
-203.967 -1002.67 -1702.46 -0.117026 0.507328 0.85173 129 169 211
-206.045 -997.338 -1706.12 -0.0640036 0.493189 0.86981 128 167 210
-210.332 -967.838 -1707.27 -0.608172 -0.217375 0.754039 166 201 243
-195.641 -985.991 -1702.38 -0.55388 0.000488486 0.797931 155 189 233
-203.04 -974.268 -1704.32 -0.567964 -0.190275 0.772395 165 200 243
-202.727 -971.016 -1701.81 -0.62224 -0.296698 0.723442 168 202 246
-143.721 -1012.08 -1700.91 0.885279 0.0792437 0.462534 160 195 235
-142.523 -1003.85 -1703.6 0.896898 0.0191339 0.441298 148 184 225
-101.505 -792.512 -1706.71 0.957613 0.155997 -0.215681 154 185 227
-100.426 -801.689 -1706.57 0.95383 0.288903 -0.0849969 163 192 231
-100.557 -779.995 -1701.88 0.956432 0.109857 -0.235515 147 180 221
-103.195 -768.757 -1706.28 0.979907 0.0928939 -0.144369 153 187 230
-104.333 -758.425 -1708.85 0.988389 0.0510888 -0.0761646 160 193 235
-105.91 -738.387 -1703.43 0.937636 0.0653838 -0.0231088 162 195 236
-105.913 -725.675 -1705.21 0.880749 0.0545333 -0.37885 156 191 235
-103.418 -718.506 -1701.54 0.913249 -0.0948445 -0.3414 155 191 234
-103.482 -709.801 -1706.35 0.909293 -0.165324 -0.384402 167 204 246
-398.347 -167.029 -1701.85 -0.46819 -0.487895 -0.715525 46 46 58
-371.176 -177.125 -1704.54 -0.403526 -0.517845 -0.744215 47 47 59
-394.415 -168.346 -1702.56 -0.437884 -0.483271 -0.763083 46 46 58
-384.716 -163.15 -1707.05 -0.385256 -0.42917 -0.808217 47 47 60
-369.495 -175.39 -1705.8 -0.389554 -0.49659 -0.772401 47 47 59
-367.209 -184.536 -1701.91 -0.414233 -0.534556 -0.745213 48 47 59
-365.133 -180.973 -1704.42 -0.402645 -0.48455 -0.780165 48 48 60
-358.916 -176.766 -1706.07 -0.4137 -0.423829 -0.809153 49 49 63
-358.427 -163.546 -1703.71 -0.358626 -0.28599 -0.869172 51 51 65
-354.168 -165.25 -1706.58 -0.351035 -0.299505 -0.864303 51 52 65
-336.56 -230.504 -1704.69 -0.634147 0.461653 -0.561313 200 232 252
-335.711 -222.847 -1702.45 -0.655141 0.287049 -0.660907 194 228 252
-330.635 -214.503 -1704.71 -0.633475 0.151275 -0.742991 172 201 226
-330.233 -205.47 -1704.52 -0.653866 0.0604718 -0.740112 111 126 148
-330.718 -200.117 -1702.38 -0.644466 0.0417281 -0.735886 80 87 107
-322.757 -190.344 -1702.3 -0.455273 -0.167223 -0.848966 53 55 70
-659.079 184.224 -1708.28 -0.11983 -0.153761 0.89776 138 117 109
-640.934 177.764 -1707.72 -0.191432 -0.157427 0.911209 131 113 105
-632.665 182.443 -1701.93 -0.187977 -0.057561 0.913101 120 106 102
-660.967 193.138 -1707.44 0.093656 -0.035687 0.897046 160 131 122
-638.32 196.777 -1706.25 -0.233982 -0.321194 0.89159 184 147 127
-650.623 198.607 -1707.85 0.063387 -0.382351 0.842647 176 134 120
-652.9 210.048 -1702.82 -0.0300457 -0.310264 0.924063 220 178 150
-638.464 197.952 -1705.95 -0.215807 -0.338205 0.892611 189 151 129
-647.813 208.933 -1702.8 -0.0213621 -0.331355 0.910796 215 174 147
-631.787 190.262 -1702.47 -0.431295 -0.0797084 0.875719 146 126 117
-633.968 198.114 -1703.75 -0.354909 -0.215251 0.88455 173 144 125
-653.137 212.151 -1701.74 -0.0506069 -0.285513 0.922643 224 183 155
-96.6863 -261.125 -1706.61 0.862508 0.0490044 -0.390661 204 222 241
-99.0019 -248.063 -1706.11 0.805854 0.280941 -0.460088 201 219 240
-103.726 -235.291 -1701.98 0.839316 0.273912 -0.43773 102 108 124
-105.794 -229.109 -1702.93 0.866195 0.155761 -0.453107 52 52 68
-108.297 -212.03 -1706.51 0.919429 -0.0496129 -0.350908 46 46 60
-105.324 -197.808 -1707.43 0.928637 -0.197953 -0.299651 45 47 60
-103.695 -197.39 -1701.67 0.927453 -0.151585 -0.313254 43 45 59
-101.26 -178.02 -1706.47 0.978289 -0.177662 0.0421328 48 51 64
-100.32 -165.02 -1705.46 0.974421 -0.0605446 0.206456 46 48 61
-60.9348 31.2587 -1706.04 0.670161 -0.15816 0.703556 49 52 63
-64.9416 48.3139 -1703.86 0.704038 0.129282 0.695412 52 55 66
-65.2952 55.0272 -1704.08 0.646047 -0.0473522 0.740058 53 57 68
-59.8974 61.4236 -1706.43 0.568518 -0.212177 0.781896 52 57 67
-61.824 71.9298 -1702.63 0.542173 -0.217933 0.801039 54 59 70
-55.1443 74.7035 -1707.54 0.555519 -0.032908 0.818882 51 56 66
-58.7714 81.4271 -1704.34 0.611655 -0.0797812 0.775257 51 56 67
-58.5279 85.2009 -1704.3 0.655185 -0.110775 0.740762 52 57 69
-56.9993 100.757 -1701.82 0.707558 -0.123546 0.693098 54 60 72
-50.7627 107.48 -1707.78 0.646532 -0.141809 0.737049 53 58 71
-49.9985 115.73 -1706.53 0.537425 -0.195825 0.803826 52 57 70
-405.947 -500.167 -1704.9 -0.16629 -0.0407214 0.301281 158 193 235
-409.256 -501.535 -1711.84 -0.11366 -0.0326618 0.353887 160 194 236
-402.345 -493.807 -1706.13 -0.352622 -0.0680112 0.142759 158 192 234
-399.595 -486.028 -1706.69 -0.680765 -0.124492 -0.0744969 155 189 233
-504.097 32.1783 -1702.82 -0.0583765 0.220174 0.833507 58 59 72
-510.333 42.9412 -1705.81 -0.00184526 0.154132 0.827138 57 58 71
-511.013 49.4863 -1702.26 -0.196169 -0.072656 0.790091 58 60 72
-434.381 -117.269 -1703.8 0.10408 -0.244286 -0.225877 62 59 67
-431.691 -113.199 -1709.32 0.22858 -0.228844 -0.196517 65 61 69
-423.574 -120.136 -1711.68 0.173207 -0.173703 -0.15263 56 56 67
-454.216 -1203.42 -1701.17 0.311954 0.92447 -0.00452178 78 76 75
-435.789 -1207.56 -1699.31 0.0891433 0.898471 -0.0882867 88 87 88
-422.87 -1208.21 -1697.7 0.0222978 0.891525 -0.276205 76 74 76
-412.787 -1207.52 -1696.94 -0.0722847 0.828523 -0.438225 85 84 85
-446.909 -1204.38 -1699.1 0.239696 0.918333 -0.0158063 85 83 82
-431.313 -1206.27 -1696.56 0.104618 0.897231 -0.22891 86 84 86
-404.761 -1206.04 -1696.21 -0.0932418 0.813444 -0.348014 85 83 85
-366.798 -1207.7 -1698.57 -0.14257 0.800739 -0.024411 83 82 83
-352.195 -1208.92 -1698.26 -0.370288 0.751663 0.144968 78 75 77
-384.879 -1203.04 -1698.09 -0.140563 0.912255 -0.241224 85 84 85
-375.691 -1204.55 -1697.93 -0.0878985 0.842757 -0.206006 87 85 86
-346.248 -1201.87 -1700.03 -0.784624 0.322896 0.140841 78 75 77
-345.798 -1189.22 -1698.63 -0.576157 0.179634 -0.208087 77 74 76
-432.236 -825.882 -1694.79 -0.20612 0.169501 0.724153 162 184 210
-420.96 -829.448 -1696.16 -0.458866 0.0624136 0.71364 172 188 210
-375.736 -855.16 -1697.77 0.0942425 0.0326747 0.859204 156 177 205
-375.751 -851.781 -1697.29 0.112092 -0.0271367 0.831484 147 169 195
-369.855 -841.733 -1694.55 0.53622 -0.141359 0.567445 149 172 199
-367.252 -855.773 -1698.95 0.339455 0.0604486 0.748063 181 206 238
-367.497 -849.468 -1698.19 0.36203 -0.00645069 0.695426 168 194 225
-348.477 -850.198 -1699.92 0.883337 0.0138031 0.453881 182 209 248
-364.293 -843.007 -1699.07 0.646145 -0.0631916 0.54124 173 200 234
-349.036 -842.4 -1698.02 0.892947 -0.016797 0.434093 181 210 248
-373.858 -828.767 -1696.17 0.824357 -0.178031 0.519352 148 168 191
-371.105 -814.602 -1697.41 0.800292 -0.157857 0.549969 178 203 232
-362.443 -829.391 -1698.83 0.848627 -0.0803786 0.469259 177 205 240
-364.509 -822.054 -1695.47 0.839811 -0.0371946 0.47971 154 182 216
-347.237 -827.087 -1700.57 0.795884 -0.151283 0.544178 163 190 229
-365.177 -818.41 -1694.39 0.852115 -0.02891 0.461616 150 178 213
-364.572 -809.551 -1695.73 0.833102 -0.0738342 0.493956 170 198 235
-359.187 -806.313 -1700.08 0.786279 -0.0666552 0.593139 184 213 248
-347.23 -807.373 -1695.76 0.760088 -0.0246432 0.636679 165 195 233
-333.644 -906.659 -1700 0.641835 0.055014 0.732788 153 184 222
-325.836 -911.953 -1699.53 0.56201 0.0486143 0.812535 111 149 191
-322.595 -884.675 -1700.54 0.610946 -0.174306 0.744933 147 179 218
-322.727 -878.047 -1698.42 0.6502 -0.252348 0.665253 167 195 232
-253.076 -626.092 -1700.21 -0.309626 -0.135785 0.916862 136 170 215
-251.832 -624.141 -1699.29 -0.264177 -0.161667 0.923296 131 165 209
-256.736 -617.282 -1700.7 -0.44528 -0.118314 0.880248 144 179 224
-252.826 -610.306 -1696.39 -0.486486 -0.20785 0.865994 141 176 220
-252.122 -604.025 -1695.07 -0.572274 -0.156481 0.852142 141 177 220
-254.162 -592.383 -1699.57 -0.635861 0.0686142 0.684961 150 183 226
-237.566 -598.305 -1697.75 -0.635746 0.110401 -0.331983 135 166 204
-244.052 -595.946 -1699.73 -0.49038 0.0610653 0.299259 148 179 218
-354.386 -585.828 -1696.98 0.611405 -0.0056156 0.803396 186 214 253
-353.497 -582.119 -1697.24 0.596483 -0.0347825 0.801639 186 215 253
-350.78 -577.576 -1698.56 0.598513 -0.0764367 0.78644 187 216 254
-353.956 -566.486 -1695.95 0.560446 0.043415 0.824677 185 215 253
-355.474 -558.594 -1695.96 0.632502 0.102284 0.760269 181 212 249
-356.754 -549.336 -1696.88 0.694779 0.124474 0.696602 185 214 250
-355.206 -546.091 -1699.3 0.702707 0.14344 0.683875 187 215 251
-361.052 -534.239 -1697.32 0.65173 0.149174 0.728793 178 206 244
-365.929 -517.919 -1694.54 0.630747 0.0932459 0.773929 152 186 225
-361.991 -517.642 -1698.63 0.644947 0.0550543 0.765377 167 198 236
-145.825 -1013.93 -1697.07 0.898607 0.120263 0.415424 157 192 232
-147.265 -1011.74 -1695.13 0.90798 0.108622 0.398319 151 186 226
-145.464 -994.676 -1696.19 0.893183 -0.104701 0.43483 142 179 221
-141.896 -984.481 -1696.29 0.889649 -0.279895 0.348298 137 174 216
-135.124 -974.519 -1700.17 0.886232 -0.358945 0.299082 141 177 219
-209.742 -955.376 -1696.79 -0.73364 -0.298632 0.608001 180 214 251
-213.246 -946.918 -1696.87 -0.824994 -0.177971 0.529079 165 199 239
-205.016 -961.316 -1696.26 -0.658963 -0.367812 0.651533 185 218 255
-214.715 -936.379 -1696.52 -0.871912 -0.0234743 0.491857 164 198 240
-214.413 -925.441 -1698.67 -0.791733 0.0562541 0.589829 157 190 233
-208.589 -918.402 -1695.55 -0.618544 0.118233 0.747948 130 165 209
-176.421 -834.055 -1697.36 -0.369807 0.320283 0.847608 163 125 105
-176.162 -830.892 -1698.08 -0.336793 0.214171 0.898145 159 121 102
-171.32 -826.945 -1697.25 -0.261341 0.205839 0.939078 155 117 99
-172.89 -819.261 -1699.19 -0.0879135 0.0717311 0.963759 132 99 87
-161.283 -822.876 -1697.43 -0.0926908 0.3198 0.948621 144 107 93
-175.318 -816.283 -1699 -0.00559812 -0.0506298 0.956148 124 94 84
-173.397 -814.938 -1699 0.0208655 -0.0465111 0.957467 122 92 83
-173.483 -807.081 -1697.07 0.154112 -0.253066 0.933537 110 85 79
-161.437 -814.191 -1699.11 -0.0420633 0.125668 0.957772 134 99 89
-155.432 -811.008 -1698.69 -0.0330135 0.00790053 0.9335 142 105 92
-151.822 -813.003 -1698 -0.0909478 0.12145 0.930751 144 105 91
-152.76 -805.269 -1697.48 0.0604377 -0.246065 0.917864 148 108 93
-135.64 -805.94 -1695.88 -0.234301 0.189631 0.9616 119 81 67
-115.909 -904.401 -1697.28 0.763755 -0.179658 0.299884 130 169 209
-114.409 -896.914 -1697.47 0.690539 -0.0591095 0.487408 136 173 212
-112.273 -882.189 -1698.91 0.860286 -0.18082 0.370125 131 171 211
-106.955 -868.164 -1701.27 0.948188 -0.285307 0.106763 131 173 214
-105.144 -858.613 -1699.89 0.940902 -0.181138 0.119225 137 174 213
-103.565 -843.099 -1694.86 0.885263 -0.284922 0.367845 173 198 235
-99.7773 -837.643 -1697.37 0.886108 -0.315929 0.1892 190 210 245
-351.53 -216.883 -1694.62 -0.739182 0.0695336 -0.66405 148 168 191
-365.895 -191.236 -1698.3 -0.534318 -0.509999 -0.675284 46 46 58
-391.612 -178.596 -1695.44 -0.5829 -0.707739 -0.325025 45 43 52
-377.258 -186.004 -1696.4 -0.525129 -0.676618 -0.481208 45 44 54
-375.23 -184.629 -1698.63 -0.48419 -0.63787 -0.571102 46 45 55
-395.154 -174.51 -1697.89 -0.54674 -0.637242 -0.461555 45 44 54
-357.119 -185.725 -1696.83 -0.630143 -0.238962 -0.676857 52 52 66
-358.171 -182.036 -1695.24 -0.680983 -0.126741 -0.662121 54 54 69
-362.604 -165.148 -1699.26 -0.478026 -0.240633 -0.752407 51 51 65
-340.899 -224.486 -1697.68 -0.671766 0.296406 -0.621428 196 229 251
-340.816 -216.919 -1695.44 -0.737089 0.108844 -0.664346 190 223 248
-338.942 -205.79 -1695.6 -0.720676 0.121978 -0.678944 148 166 190
-333.874 -198.821 -1698.79 -0.677346 0.129328 -0.704662 74 79 98
-333.392 -191.994 -1695.61 -0.635518 0.204343 -0.727656 51 51 68
-325.435 -183.843 -1697.96 -0.525822 0.0664002 -0.811056 51 51 67
-324.942 -181.199 -1697.88 -0.532891 0.0578113 -0.809968 50 50 67
-331.075 -165.775 -1697.03 -0.571687 -0.163605 -0.786003 51 51 66
-320.333 -175.031 -1700.5 -0.494464 -0.122209 -0.844562 50 52 67
-632.081 177.914 -1700.65 -0.0957067 -0.016994 0.929229 108 97 95
-625.237 178.328 -1695.27 0.0429973 0.197779 0.957529 72 73 79
-623.892 184.535 -1696.25 -0.0588366 0.190322 0.942043 80 79 85
-625.344 193 -1698.45 -0.362106 0.0454586 0.898899 112 102 100
-622.757 195.08 -1696.72 -0.337991 0.0176377 0.907054 96 88 89
-631.544 206.352 -1700.34 -0.34941 -0.261824 0.87919 182 155 134
-620.907 200.667 -1695.07 -0.383262 -0.104601 0.897881 84 77 77
-358.709 262.217 -1697.14 0.449726 0.524319 0.685075 101 106 124
-344.8 251.804 -1697.82 0.480748 0.673936 0.557624 94 97 117
-246.84 360.392 -1700.01 -0.68658 -0.653508 -0.245123 129 102 94
-265.329 380.954 -1695.85 -0.75973 -0.243891 0.61522 67 55 59
-262.896 392.803 -1696.77 -0.900943 -0.0498401 0.29009 144 112 108
-264.466 403.654 -1698.4 -0.857618 -0.353547 0.100395 85 69 71
-271.218 412.441 -1694.7 -0.852554 -0.45236 0.0749196 67 57 60
-83.7792 -373.335 -1700.75 0.784026 -0.1918 -0.429031 154 192 235
-81.9214 -362.03 -1695.56 0.926236 -0.0223854 -0.244263 157 196 241
-88.1807 -348.239 -1700.37 0.924582 0.271608 -0.241143 151 189 235
-87.3922 -340.283 -1694.77 0.918484 0.168286 -0.341737 163 201 246
-88.8656 -326.258 -1699.06 0.940789 0.0367164 -0.263074 170 207 250
-87.8565 -315.344 -1697.51 0.924895 0.0304978 -0.322293 175 210 252
-92.6442 -298.886 -1699.71 0.896224 0.0878199 -0.421652 163 195 234
-54.3762 160.837 -1697.4 0.681314 0.0657211 0.730652 56 60 73
-53.3978 166.032 -1698.76 0.66239 0.0636209 0.747811 57 60 73
-55.4202 183.153 -1696.57 0.699799 -0.0981584 0.704447 59 62 75
-51.6263 187.142 -1699.98 0.68741 -0.0965392 0.713776 58 61 74
-51.7216 191.949 -1698.72 0.703618 -0.142789 0.692311 58 61 75
-49.0917 206.568 -1698.64 0.630679 -0.041844 0.756505 61 63 77
-127.3 234.165 -1696.49 -0.16714 0.734497 0.651258 102 103 122
-114.227 235.197 -1696.58 0.00311867 0.604202 0.767284 92 91 111
-100.623 235.226 -1695.36 -0.0942454 0.597847 0.786952 89 90 109
-85.9907 235.895 -1695.72 0.0164672 0.59805 0.790036 78 79 97
-107.473 238.105 -1697.94 -0.0794815 0.549747 0.814968 89 90 110
-100.742 242.023 -1700.54 -0.0451392 0.521798 0.845417 103 104 124
-92.9858 242.265 -1700.69 -0.0694111 0.479238 0.862116 95 97 116
-81.8141 239.624 -1697.61 -0.0271796 0.490887 0.852611 76 77 96
-268.807 -1121.84 -1688.14 0.709971 -0.0121276 0.683964 144 178 220
-264.901 -1115.42 -1692.4 0.741453 -0.0246239 0.688067 144 180 222
-267.502 -1112.51 -1689.05 0.718405 -0.0196694 0.693669 146 181 223
-270.037 -1104.26 -1690.07 0.432321 0.343384 0.7968 154 190 233
-248.79 -1113.7 -1692.98 -0.299952 -0.0171549 0.867615 101 129 159
-246.078 -1116.01 -1689.72 -0.501018 -0.068148 0.794907 122 150 180
-244.594 -1104.74 -1691.51 -0.553512 0.308416 0.680807 123 147 175
-276.689 -1097.4 -1691.39 0.319634 0.46063 0.821818 158 194 236
-287.159 -1089.4 -1692.13 0.359059 0.507925 0.782057 160 193 236
-240.832 -1098.89 -1689.15 -0.756947 0.443092 0.499464 158 184 213
-235.496 -1086.56 -1693.92 -0.739048 0.544265 0.376974 136 163 193
-333.802 -1071.29 -1692.63 -0.128164 -0.18371 0.853998 166 197 235
-332.172 -1063.93 -1690.15 -0.0925399 -0.294175 0.805563 163 195 233
-324.872 -1071.7 -1692.28 -0.111803 -0.0805514 0.839559 169 201 240
-336.526 -1059.14 -1688.48 -0.177172 -0.289986 0.836619 159 192 231
-310.994 -1069.58 -1689.52 0.385071 0.0971647 0.813128 173 204 245
-306.217 -1071.97 -1691.88 0.421443 0.190349 0.824324 174 205 247
-306.242 -1061.11 -1693 0.59737 0.225474 0.771219 167 200 242
-307.287 -1055.52 -1693.56 0.614378 0.256358 0.75536 158 193 235
-328.507 -1040.91 -1689.7 0.313292 0.0948499 0.886561 146 181 219
-334.371 -1031.96 -1690.22 0.345567 0.162093 0.881067 146 181 219
-318.555 -1042.71 -1692.11 0.387081 0.157021 0.830788 144 179 218
-319.819 -1035.35 -1694.29 0.26225 0.174819 0.934412 142 177 218
-333.593 -1027.88 -1691.4 0.413734 0.125876 0.851416 148 182 220
-328.962 -1022.66 -1694.18 0.484667 0.0479393 0.829452 151 184 222
-312.633 -1045.5 -1694.19 0.484344 0.259246 0.784291 145 180 221
-355.266 -636.7 -1689.37 0.0129512 -0.0572558 0.178454 184 214 254
-357.834 -630.705 -1690.58 0.0499437 -0.0544797 0.170097 183 214 254
-364.901 -623.467 -1690.04 -0.615191 -0.00739102 -0.0660799 179 211 252
-354.892 -624.614 -1693.05 -0.0321548 -0.0620154 0.202267 184 215 254
-373.79 -613.929 -1689.87 -0.499267 -0.163975 -0.135695 167 201 243
-376.309 -610.675 -1689.37 -0.517955 -0.197057 -0.171278 163 198 240
-358.226 -612.137 -1688.38 -0.276538 -0.0735289 -0.0377815 182 213 252
-356.801 -605.388 -1690.95 0.486584 0.0616502 0.459705 183 214 253
-355.266 -608.743 -1688.64 0.325924 0.00678782 0.2827 183 214 253
-359.565 -595.493 -1691.89 0.702375 0.120252 0.66929 185 214 253
-301.242 -696.345 -1692.42 0.318178 -0.0917426 0.772327 154 186 229
-293.458 -684.825 -1694.35 -0.0274039 0.129912 0.989842 167 197 240
-291.77 -682.539 -1694.62 0.0396149 -0.0101143 0.967265 166 196 240
-295.364 -670.21 -1688.61 0.303806 0.0823241 0.751919 165 197 240
-290.838 -658.791 -1688.15 0.676725 0.179297 0.525424 167 202 243
-278.41 -686.005 -1695.01 0.644407 -0.0552265 0.665521 129 163 207
-287.142 -672.312 -1693.46 0.574119 0.104885 0.438284 162 194 237
-237.268 -694.193 -1691.99 -0.539705 -0.276807 0.779534 103 124 162
-235.693 -689.629 -1689.19 -0.484953 -0.312166 0.771783 99 119 157
-130.606 -953.21 -1693.77 0.945337 -0.213013 0.224778 137 175 216
-129.056 -948.213 -1694.03 0.94261 -0.232621 0.218693 143 179 219
-127.061 -940.564 -1693.57 0.936279 -0.217914 0.204511 143 179 219
-127.379 -928.151 -1690.88 0.848343 -0.136926 0.447947 138 175 215
-119.873 -912.508 -1692.47 0.857013 -0.316724 0.279968 129 169 210
-208.172 -905.598 -1693.87 -0.480857 -0.0830189 0.87515 127 164 207
-205.302 -899.794 -1692.03 -0.505613 -0.058721 0.853382 128 165 208
-206.411 -896.228 -1692.43 -0.561853 -0.000247086 0.815174 123 160 203
-204.596 -887.704 -1692.33 -0.656102 0.00636233 0.746048 121 159 201
-216.693 -863.364 -1693.63 -0.135842 -0.556055 0.803982 155 186 226
-210.785 -858.849 -1689.08 -0.193801 -0.521597 0.745244 153 183 216
-203.253 -882.151 -1690.38 -0.688429 -0.016771 0.703891 124 161 202
-77.6044 -494.607 -1688.91 0.953851 0.0708268 -0.239629 156 194 243
-233.002 -434.448 -1694.74 -0.67809 0.277739 -0.517952 80 100 134
-74.7786 -473.573 -1688.6 0.911963 -0.1531 -0.341867 153 190 239
-74.6816 -459.817 -1692.5 0.931446 -0.162964 -0.303685 130 173 222
-73.2918 -456.248 -1687.47 0.955597 -0.0803052 -0.219079 127 170 219
-71.6278 -440.942 -1693.05 0.98914 -0.0674948 -0.102299 144 185 234
-78.3649 -404.551 -1693.71 0.644681 0.35359 -0.677545 179 214 255
-504.336 47.2312 -1691.47 0.0236297 0.211661 0.836372 57 58 71
-410.764 -158.168 -1690.45 -0.901586 -0.31477 0.0232403 47 46 55
-412.853 -145.075 -1692.91 -0.710087 -0.142787 -0.196986 52 51 60
-409.963 -138.057 -1695.27 -0.425801 -0.125317 -0.22001 54 53 62
-398.294 -140.438 -1688.31 -0.354346 -0.26488 -0.111276 54 53 62
-425.082 -134.411 -1689.6 -0.209623 -0.177893 -0.154086 55 54 64
-411.748 -133.085 -1694.59 0.23678 -0.191998 -0.138975 57 56 66
-406.038 -133.376 -1690.45 0.157583 -0.283835 -0.389045 59 58 67
-399.015 -124.123 -1688.62 0.512212 -0.360734 -0.779962 60 60 72
-399.805 -121.217 -1689.98 0.577857 -0.341136 -0.707773 64 62 73
-372.345 -158.551 -1690.88 -0.0689058 -0.54248 -0.502167 55 53 63
-380.42 -150.151 -1691 0.239791 -0.564859 -0.736934 61 58 68
-383.454 -147.368 -1691.38 0.22623 -0.557587 -0.715071 61 57 67
-342.073 -159.685 -1688.14 -0.815155 -0.00465485 -0.532356 57 56 73
-395.396 -111.851 -1689.74 0.547979 -0.29488 -0.768442 103 89 88
-394.194 -101.332 -1692.1 0.600493 -0.340036 -0.727793 146 118 105
-529.564 252.992 -1689.82 0.288239 0.294366 0.914506 112 121 135
-533.241 260.273 -1691.49 0.314654 0.278906 0.90701 133 143 157
-523.68 250.001 -1690.23 0.204012 0.351961 0.909255 90 96 110
-511.549 242.206 -1688.9 0.11413 0.333063 0.935355 70 73 87
-515.408 246.784 -1690.2 0.110401 0.371985 0.92146 76 80 93
-525.494 254.64 -1691.53 0.246696 0.339699 0.903593 106 113 127
-522.066 257.22 -1693.59 0.220228 0.41563 0.875522 99 104 117
-503.793 256.61 -1694.22 0.00111486 0.292843 0.941 77 82 96
-496.11 243.683 -1689.44 -0.0855724 0.337658 0.939285 68 73 87
-500.2 248.749 -1691.31 -0.0317281 0.315986 0.941574 72 76 91
-476.549 241.929 -1688.76 -0.0764056 0.435034 0.876442 63 68 82
-480.689 244.506 -1689.98 -0.0105406 0.412314 0.89445 64 69 83
-495.153 255.787 -1692.15 -0.0453505 0.180709 0.968918 68 72 86
-494.276 263.413 -1693.38 -0.0221492 0.093542 0.985733 76 81 94
-475.792 254.1 -1692.56 -0.0979173 0.183118 0.944265 74 79 95
-477.989 263.671 -1693.86 -0.0969316 0.100222 0.966889 91 96 113
-474.239 246.906 -1690.4 -0.118818 0.324619 0.906589 68 73 88
-86.8568 -46.3244 -1690.99 0.921806 -0.0990931 0.142097 41 43 50
-84.9497 -40.3898 -1694.09 0.90098 -0.112451 0.29695 43 45 52
-83.6918 -29.1851 -1688.35 0.928161 -0.237158 0.136272 42 44 52
-81.9149 -9.45692 -1689.71 0.896237 -0.328249 0.124091 43 46 53
-75.4469 3.97332 -1693.91 0.865367 -0.329376 0.397281 48 50 59
-75.0409 7.56254 -1692.85 0.893976 -0.239902 0.365751 48 51 60
-75.193 18.0558 -1691.1 0.933874 -0.0179503 0.344266 48 51 60
-180.666 363.254 -1693.33 0.900121 -0.296098 -0.229633 151 115 90
-174.941 372.636 -1692.57 0.838938 -0.397655 -0.308992 153 112 87
-165.74 378.2 -1693.82 0.480293 -0.626528 -0.622166 160 114 87
-157.911 374.607 -1690.28 0.363311 -0.64617 -0.569367 201 142 111
-152.177 383.132 -1691.8 0.640033 -0.104944 -0.128342 220 164 137
-150.556 398.357 -1692.85 0.776834 -0.184794 -0.248947 173 130 111
-149.886 399.616 -1691.13 0.829369 -0.193525 -0.203706 178 134 114
-145.212 418.818 -1692.24 0.84554 -0.353544 0.282631 125 97 94
-148.625 429.154 -1691.47 0.84276 0.336238 -0.00824597 58 49 57
-150.502 433.4 -1689.19 0.805272 0.524381 -0.165789 52 45 54
-482.885 -1192.65 -1695.13 0.328184 0.926104 -0.0366416 69 68 67
-476.23 -1194.76 -1692.18 0.316857 0.923698 -0.0840052 62 61 59
-467.432 -1196.91 -1692.56 0.317623 0.924817 -0.0435246 65 64 63
-466.654 -1195.3 -1688.87 0.320757 0.926175 -0.00375602 71 69 68
-495.233 21.6265 -1688.56 -0.41628 0.284137 0.834376 63 65 78
-499.796 25.4026 -1699.04 -0.208934 0.256639 0.834371 60 61 75
-501.643 36.4554 -1692.39 -0.0629341 0.226096 0.832694 57 59 72
-440.171 -115.152 -1693.58 0.0116495 -0.163899 -0.0833714 65 64 75
-436.754 -120.595 -1694.51 -0.0345557 -0.218611 -0.201851 58 57 68
-368.461 -154.14 -1700.47 -0.130578 -0.319496 -0.851836 56 56 68
-442.235 -108.104 -1696.74 0.130216 -0.136497 -0.00327034 72 71 80
-444.511 -97.5282 -1697.45 0.145439 -0.0667958 0.144991 78 78 89
-448.365 -91.7127 -1693 -0.0350925 0.0615577 0.374935 81 85 100
-445.546 -82.3733 -1697.36 0.140442 -0.0486653 0.177344 80 80 91
-442.948 -69.6129 -1697.24 0.235896 -0.112211 0.0673202 78 76 85
-441.266 -69.822 -1698.48 0.304349 -0.147753 -0.00125745 77 74 82
-437.802 -62.8733 -1695.16 0.496315 -0.218498 -0.155809 78 72 77
-439.521 -68.4195 -1699.4 0.378983 -0.187763 -0.0768024 77 72 79
-442.296 -57.1777 -1692.52 -0.0571194 -0.11481 0.194028 70 68 77
-387.231 -76.8636 -1695.78 0.247832 -0.285694 -0.588433 117 94 86
-389.905 -78.0818 -1698.97 0.316708 -0.265465 -0.548898 110 90 84
-384.724 -59.705 -1692.47 -0.612753 -0.167366 -0.385515 57 56 65
-388.013 -58.4269 -1697.67 -0.446284 -0.192699 -0.366844 61 59 67
-387.218 -69.4044 -1696.63 -0.15439 -0.244598 -0.494067 73 66 70
-351.103 -1034.86 -1686.82 -0.0518557 -0.0790856 0.976592 156 190 227
-361.383 -1019.48 -1687.43 0.128217 -0.117082 0.843148 164 195 228
-349.585 -1020.27 -1686.72 0.291619 0.0230212 0.820887 158 192 228
-326.577 -1122.91 -1681.49 0.783155 0.207325 0.341441 147 178 213
-327.956 -1106.66 -1682.02 0.861255 -0.00352503 0.409608 137 170 205
-326.466 -1101.4 -1682.87 0.791921 0.0832895 0.418519 137 171 206
-301.78 -1115.63 -1688.22 0.681122 0.251889 0.587931 155 187 223
-299.424 -1121.98 -1684.66 0.666991 0.408061 0.498888 158 190 227
-307.124 -1112.67 -1684.18 0.628493 0.380694 0.5566 161 193 231
-341.551 -1090.93 -1682.8 0.00642608 0.777221 0.597984 155 187 226
-328.034 -1094.74 -1685.23 0.400775 0.521016 0.437484 142 177 214
-316.583 -1096.13 -1682.89 0.212169 0.569388 0.414425 142 175 213
-302.906 -1094.59 -1681.47 0.0821023 0.772594 0.597064 146 178 220
-303.647 -1090.82 -1684.95 0.155963 0.662348 0.688636 151 183 225
-291.547 -1100.02 -1681.19 0.548703 0.576506 0.574612 161 194 235
-271.617 -1120.47 -1683.71 0.665467 0.229292 0.630865 152 185 226
-269.666 -1116.11 -1687.11 0.682453 0.0705709 0.688899 149 185 227
-288.085 -1100.27 -1684.21 0.517889 0.526685 0.651835 160 194 235
-275.735 -1104.79 -1687.34 0.358541 0.447067 0.803384 153 191 232
-239.568 -1121.48 -1681.5 -0.676056 -0.215026 0.7083 161 187 220
-243.364 -1109.96 -1686.46 -0.653059 0.102369 0.695525 138 165 195
-240.845 -1104.68 -1684.36 -0.727443 0.264277 0.607836 151 179 211
-365.857 -573.877 -1685.87 0.696971 0.0445035 0.606169 176 208 249
-370.426 -552.363 -1682.18 0.754482 -0.0125668 0.673689 173 206 247
-370.813 -540.687 -1685.51 0.73317 0.220102 0.639617 174 206 246
-366.933 -557.285 -1685.75 0.717526 -0.0288956 0.709037 175 208 248
-373.787 -532.566 -1683.7 0.774869 0.154454 0.60057 156 191 232
-375.313 -523.238 -1683.98 0.714898 0.217912 0.431763 140 178 220
-393.264 -509.729 -1682.11 -0.182914 -0.0722156 0.140786 141 179 223
-392.794 -501.939 -1685.83 -0.013667 0.00257022 0.321443 146 183 226
-376.729 -510.757 -1684.32 0.686881 0.234715 0.527659 142 180 222
-389.822 -493.68 -1685.57 0.187377 0.0249724 0.430465 144 182 224
-389.928 -489.64 -1685.64 0.160695 0.01132 0.429415 143 181 224
-381.744 -491.487 -1684.48 0.470578 0.0646924 0.538934 138 178 220
-255.352 -584.415 -1683.49 -0.430202 -0.0247379 0.0504438 121 153 194
-249.635 -588.064 -1685.22 -0.362067 -0.0295028 0.100804 119 152 192
-250.796 -583.476 -1685.63 -0.427893 -0.00416617 0.131196 122 155 196
-259.3 -575.556 -1682.76 -0.435823 -0.0453646 0.0579613 121 153 194
-259.969 -565.355 -1682.28 -0.439089 -0.0419227 0.0181622 123 155 195
-260.235 -560.667 -1681.83 -0.45468 -0.0169433 -0.0232545 125 157 196
-257.582 -552.13 -1682.58 -0.468248 0.00739653 0.0130344 127 160 199
-81.8244 -536.381 -1686.38 0.867069 -0.184631 -0.45507 149 188 237
-78.029 -518.535 -1683.23 0.909412 -0.0665156 -0.248602 134 174 222
-77.8336 -504.681 -1687.18 0.952281 0.00698017 -0.194992 141 180 229
-77.2397 -503.706 -1682.96 0.975358 0.00768114 -0.117842 138 177 225
-76.219 -486.877 -1684.96 0.940586 -0.0202112 -0.284286 159 196 245
-73.4446 -471.735 -1686.4 0.915314 -0.150905 -0.333543 150 188 236
-72.4416 -460.92 -1682.47 0.961615 0.00581415 -0.20822 134 175 223
-73.2401 -455.939 -1687.14 0.958203 -0.0759114 -0.206532 127 170 219
-71.8655 -442.414 -1686 1.00618 -0.0909154 0.0035406 140 181 231
-77.6128 -392.678 -1687.57 0.660215 0.266151 -0.68045 175 210 252
-417.89 -139.765 -1681.97 -0.732366 0.0337666 0.340654 53 52 61
-397.33 -138.185 -1686 -0.0273515 -0.373053 -0.400613 57 56 65
-397.35 -125.094 -1687.59 0.443904 -0.369927 -0.842323 60 60 72
-376.348 -159.46 -1682.47 0.0557567 -0.592213 -0.554826 56 54 64
-391.488 -144.745 -1687.9 -0.0673425 -0.405271 -0.383405 57 55 65
-390.589 -138.268 -1681.37 0.27715 -0.611212 -0.712055 61 58 68
-342.175 -156.058 -1687.13 -0.842256 -0.0106494 -0.491605 57 56 72
-345.676 -144.959 -1682.92 -0.884718 -0.0970961 -0.439238 58 57 73
-395.246 -136.805 -1684.36 0.148436 -0.469499 -0.581461 59 57 67
-392.399 -126.178 -1686.04 0.353556 -0.387208 -0.847053 62 61 71
-385.612 -124.274 -1684.74 0.348312 -0.343649 -0.853014 66 64 72
-386.896 -118.504 -1685.65 0.368367 -0.248404 -0.872489 82 74 79
-387.317 -108.973 -1686.13 0.448479 -0.228764 -0.835214 125 104 95
-378.362 -112.026 -1682.1 0.498841 -0.133625 -0.838898 133 109 99
-342.02 -124.274 -1683.18 -0.807416 0.223341 -0.547032 60 59 73
-431.403 -56.6386 -1683.83 -0.19798 -0.178532 0.141644 67 65 73
-422.288 -63.1793 -1684.52 0.0219513 -0.207162 0.0161866 71 68 74
-386.59 -108.555 -1685.8 0.451766 -0.228335 -0.833481 128 105 96
-584.503 182.866 -1687.32 -0.162399 -0.125692 0.970995 58 58 68
-561.377 161.473 -1686.48 -0.231386 -0.158981 0.949091 56 58 67
-561.545 167.822 -1685.76 -0.275616 -0.141637 0.94285 56 58 67
-573.479 182.633 -1685.77 -0.233122 -0.203785 0.940564 56 57 67
-564.514 176.918 -1684.71 -0.291825 -0.218329 0.924206 56 57 67
-563.928 178.642 -1683.7 -0.302921 -0.235075 0.918652 57 58 67
-583.703 184.149 -1687.08 -0.164631 -0.133925 0.96977 57 58 68
-588.234 197.021 -1686.73 -0.181882 -0.19927 0.954825 60 59 69
-281.571 256.47 -1682.74 -0.608506 0.457067 0.649392 224 199 181
-657.612 275.975 -1684.96 -0.224036 -0.593645 0.710504 205 200 190
-646.649 277.644 -1683.39 -0.154332 -0.627786 0.686956 210 207 202
-642.129 277.728 -1682.36 -0.20902 -0.659162 0.64827 223 220 220
-631.473 266.617 -1686.5 -0.302296 -0.414392 0.799325 211 210 208
-618.592 264.877 -1681.88 -0.101314 -0.56892 0.789241 183 189 197
-598.173 278.213 -1681.86 -0.111908 -0.585775 0.700621 222 220 215
-455.658 266.085 -1685.93 -0.214487 0.14671 0.942026 107 113 132
-439.899 266.447 -1687.76 -0.047076 0.52591 0.829406 107 113 131
-411.369 268.318 -1686.32 -0.172171 0.549778 0.814916 117 123 141
-401.272 268.782 -1681.87 -0.0570537 0.647618 0.734277 61 64 76
-89.7924 -92.8831 -1681.59 0.947546 -0.102431 -0.257346 44 45 56
-87.6962 -77.4133 -1681.67 0.96993 -0.141081 -0.22046 48 49 59
-87.2282 -73.6658 -1682.21 0.973617 -0.135705 -0.209615 47 48 58
-85.6094 -60.8472 -1685.48 0.952192 -0.155801 -0.184468 44 47 57
-85.0076 -47.7563 -1683.44 0.926834 -0.0197532 -0.157314 43 45 55
-85.5631 -40.8506 -1684.03 0.925081 -0.03426 -0.102906 43 45 54
-83.4308 -26.6606 -1686.28 0.94074 -0.171658 0.0604604 42 44 52
-82.1394 -11.6397 -1686.18 0.928536 -0.222531 0.0372839 43 45 53
-71.3588 107.508 -1686.37 0.671513 -0.0563068 0.719062 56 61 74
-71.7995 122.19 -1686.62 0.744746 0.0102646 0.654214 58 63 77
-68.8501 133.898 -1686.18 0.67847 -0.361426 0.64078 58 63 76
-64.0326 139.682 -1687.95 0.682735 -0.357228 0.638659 58 63 76
-68.1626 157.653 -1682.84 0.709303 0.149805 0.689421 60 65 78
-182.391 253.768 -1681.8 0.625678 0.416333 0.656445 105 92 92
-154.567 230.08 -1685.82 0.469387 0.64419 0.601212 75 75 92
-159.485 232.933 -1684.13 0.474064 0.614284 0.625864 81 81 97
-139.411 224.304 -1686.61 0.185258 0.74417 0.627035 106 108 127
-152.634 228.199 -1684.95 0.44297 0.662667 0.600832 76 76 93
-461.487 -1191.19 -1677.32 0.324334 0.927826 0.0228847 77 75 73
-451.046 -1191.35 -1678.19 0.3186 0.932249 0.00969414 76 75 74
-431.217 -1196.5 -1676.54 0.238028 0.960641 -0.0935311 93 92 95
-444.111 -1192.17 -1677.5 0.296615 0.947508 -0.0471639 82 81 82
-409.975 -1196.28 -1675.7 -0.0921949 0.941022 0.0428443 89 89 91
-405.563 -1195.65 -1677.14 -0.115707 0.929931 -0.0350369 88 88 90
-391.181 -1194.26 -1676.26 0.0249772 0.944779 -0.100376 87 87 89
-378.219 -1198.06 -1680.14 0.0910715 0.982447 -0.125658 87 85 88
-366.02 -1198.8 -1679.24 -0.113388 0.876809 -0.306008 88 85 88
-359.147 -1192.96 -1676.24 -0.365573 0.690358 -0.492885 92 89 91
-354.571 -1186.02 -1679.53 -0.560777 0.391792 -0.587469 89 86 89
-347.937 -1179.43 -1681.03 -0.419031 0.411352 -0.0725332 78 76 82
-345.937 -1137.95 -1678.51 -0.244516 -0.0589805 0.361636 160 181 213
-350.081 -734.656 -1680.48 0.394212 -0.25791 0.882113 149 178 225
-353.541 -728.641 -1676.04 0.411449 -0.262431 0.871479 153 183 229
-345.693 -726.243 -1674.56 0.392607 -0.280908 0.872297 149 179 225
-391.65 -717.427 -1679.54 0.0260947 -0.381812 0.855223 82 101 124
-389.382 -703.66 -1680.19 0.0965932 -0.654359 0.736954 85 103 125
-380.353 -700.415 -1680.02 0.122636 -0.584747 0.773685 128 151 178
-355.913 -713.469 -1677.4 0.46547 -0.37588 0.771993 184 212 251
-353.379 -715.451 -1679.86 0.469653 -0.317779 0.788939 182 210 249
-352.16 -700.054 -1678.76 0.514426 -0.361321 0.685965 178 208 248
-334.926 -802.167 -1677.36 0.353676 -0.23533 0.889415 182 209 246
-332.811 -797.459 -1679.65 0.312335 -0.247309 0.892693 184 211 249
-332.612 -780.362 -1678.25 0.309853 -0.247913 0.889289 182 209 247
-311.26 -801.442 -1675.81 0.764878 -0.0401016 0.637671 146 179 214
-309.058 -789.628 -1677.63 0.733936 -0.0781512 0.671112 133 170 206
-305.923 -781.685 -1679.43 0.732011 -0.0906985 0.669266 131 170 208
-335.086 -772.711 -1674.57 0.476908 -0.183896 0.814986 160 189 229
-329.377 -760.482 -1676.32 0.392602 -0.233414 0.878408 158 186 229
-326.164 -753.678 -1676.74 0.444572 -0.233026 0.846929 152 180 224
-304.126 -779.295 -1681.64 0.755468 -0.046584 0.643725 133 172 210
-307.957 -766.366 -1676.76 0.822977 0.00494635 0.563482 126 163 202
-308.222 -757.402 -1674.94 0.831076 -0.0186377 0.538845 121 157 197
-148.453 -1102.94 -1677.49 0.871975 0.0541615 0.434877 166 198 231
-173.034 -1097.3 -1675.2 0.383453 0.246878 0.861407 146 180 222
-157.864 -1098.78 -1674.65 0.335173 0.00945418 0.875585 138 171 210
-150.21 -1098.92 -1675.23 0.803817 0.0820995 0.474521 155 188 222
-151.151 -1089.16 -1674.37 0.810277 0.127149 0.445758 147 181 218
-149.869 -1076.05 -1680.86 0.929204 -0.0270437 0.218496 154 188 225
-210.469 -1066.49 -1675.67 -0.58553 0.102586 0.794458 165 202 243
-208.211 -1060.73 -1675.42 -0.512823 0.158294 0.829475 164 201 242
-209.057 -1047.07 -1678.54 -0.423661 0.200373 0.858535 158 195 236
-201.115 -1054.33 -1674.57 -0.271111 0.243525 0.929701 159 196 237
-196.794 -1046.2 -1675.96 -0.165425 0.259308 0.947965 151 188 229
