ply
format ascii 1.0
comment Created by Open3D
element vertex 1457
property double x
property double y
property double z
property uchar red
property uchar green
property uchar blue
end_header
-340.319 -667.553 -1980 43 49 50
-334.937 -665.034 -1973 44 50 51
-330.425 -664.202 -1971 41 47 48
-325.263 -662.026 -1965 40 46 47
-320.293 -660.189 -1960 41 47 48
-315.669 -659.029 -1957 41 47 48
-312.016 -659.891 -1960 40 46 47
-307.411 -658.735 -1957 40 46 47
-303.441 -658.927 -1958 42 48 49
-299.01 -658.112 -1956 45 51 52
-294.139 -656.291 -1951 45 51 52
-289.588 -655.144 -1948 45 51 52
-284.906 -653.664 -1944 44 52 52
-280.677 -653.194 -1943 43 51 51
-276.739 -653.4 -1944 42 50 50
-273.22 -654.614 -1948 44 52 52
-269.549 -655.495 -1951 46 54 54
-265.595 -655.705 -1952 46 54 54
-261.639 -655.917 -1953 47 55 55
-257.946 -656.803 -1956 47 55 55
-253.852 -656.683 -1956 44 52 52
-250.144 -657.572 -1959 43 51 51
-246.426 -658.462 -1962 44 52 52
-242.573 -659.019 -1964 43 49 50
-238.836 -659.912 -1967 41 48 48
-235.208 -661.143 -1971 40 48 48
-231.565 -662.375 -1975 40 46 47
-227.562 -662.603 -1976 42 48 49
-224.348 -665.18 -1984 44 50 51
-220.77 -666.752 -1989 41 49 49
-217.064 -667.99 -1993 40 48 48
-213.344 -669.23 -1997 42 50 50
-209.504 -670.136 -2000 42 48 49
-205.653 -671.045 -2003 41 47 48
-201.993 -672.625 -2008 37 43 44
-198.215 -673.871 -2012 34 40 41
-194.518 -675.454 -2017 31 37 38
-190.897 -677.373 -2023 30 36 37
-187.53 -680.298 -2032 29 34 35
-184.217 -683.559 -2042 29 33 34
-180.952 -687.155 -2053 26 28 34
-176.783 -687.407 -2054 65 67 74
-172.275 -686.321 -2051 52 54 60
-167.453 -683.9 -2044 29 31 38
-162.582 -681.147 -2036 32 34 41
-157.59 -677.727 -2026 32 35 42
-153.246 -676.985 -2024 33 39 45
-148.838 -675.911 -2021 30 36 42
-144.373 -674.505 -2017 28 34 41
-139.925 -673.102 -2013 28 34 41
-135.562 -672.035 -2010 29 35 41
-131.017 -669.967 -2004 31 37 42
-126.434 -667.566 -1997 32 38 43
-121.943 -665.503 -1991 35 41 46
-117.773 -665.113 -1990 36 42 47
-113.323 -663.054 -1984 38 44 48
-109.229 -663.002 -1984 37 43 46
-105.03 -662.284 -1982 36 42 45
-100.789 -661.234 -1979 35 41 44
-96.7085 -661.188 -1979 39 45 47
-92.6283 -661.144 -1979 42 48 49
-88.6384 -661.77 -1981 43 49 50
-84.4703 -661.062 -1979 42 48 49
-80.5549 -662.36 -1983 42 48 49
-76.4695 -662.323 -1983 42 48 49
-72.3848 -662.289 -1983 40 46 47
-68.3696 -662.924 -1985 41 47 48
-64.1848 -661.891 -1982 38 44 46
-60.1341 -662.196 -1983 37 43 44
-55.9385 -660.834 -1979 37 43 44
-51.8387 -660.475 -1978 41 47 48
-47.6949 -659.45 -1975 42 48 49
-43.6081 -659.095 -1974 43 49 50
-39.4857 -658.074 -1971 42 50 48
-35.3941 -657.389 -1969 43 51 49
-31.295 -656.372 -1966 44 52 50
-27.2779 -657.026 -1968 44 50 49
-23.2527 -657.682 -1970 44 50 49
-19.2195 -658.34 -1972 45 51 50
-15.1783 -659 -1974 50 54 53
-11.1401 -660.329 -1978 48 54 53
-7.07868 -660.992 -1980 47 54 53
-3.01943 -663.995 -1989 47 55 49
1.07658 -666.999 -1998 50 59 53
-358.971 -683.688 -2013 45 51 52
-351.524 -677.406 -1995 44 50 51
-345.201 -673.166 -1983 40 46 47
-340.824 -672.663 -1982 42 48 49
-335.435 -670.127 -1975 44 50 51
-330.918 -669.289 -1973 43 49 50
-325.583 -666.759 -1966 41 47 48
-321.426 -666.605 -1966 41 47 48
-315.819 -663.402 -1957 39 45 46
-312.005 -663.931 -1959 38 44 45
-307.556 -663.106 -1957 38 44 45
-303.429 -662.961 -1957 42 48 49
-299.305 -662.818 -1957 44 50 51
-294.579 -661.322 -1953 45 51 52
-290.022 -660.168 -1950 47 53 54
-285.627 -659.355 -1948 45 53 53
-281.243 -658.544 -1946 43 51 51
-277.012 -658.073 -1945 43 51 51
-273.489 -659.296 -1949 43 51 51
-269.538 -659.506 -1950 42 50 50
-265.72 -660.055 -1952 43 51 51
-261.629 -659.931 -1952 43 51 51
-258.067 -661.16 -1956 42 50 50
-253.972 -661.039 -1956 40 48 48
-250.517 -662.609 -1961 42 50 50
-246.793 -663.505 -1964 44 52 52
-242.935 -664.065 -1966 45 51 52
-239.07 -664.627 -1968 42 50 50
-235.438 -665.866 -1972 40 48 48
-231.674 -666.769 -1975 41 47 48
-227.899 -667.673 -1978 42 48 49
-224.567 -669.929 -1985 44 50 51
-220.763 -670.837 -1988 43 50 51
-217.166 -672.42 -1993 40 46 47
-213.551 -674.006 -1998 42 48 49
-209.497 -674.244 -1999 43 49 50
-205.852 -675.832 -2004 39 45 46
-202.087 -677.085 -2008 37 43 44
-198.406 -678.677 -2013 37 43 44
-194.706 -680.27 -2018 35 41 42
-191.27 -682.876 -2026 32 38 39
-187.525 -684.472 -2031 28 33 34
-184.393 -688.428 -2043 27 31 32
-181.037 -691.712 -2053 24 26 32
-177.124 -692.975 -2057 79 81 87
-172.524 -691.546 -2053 66 68 74
-167.614 -688.771 -2045 29 31 38
-162.818 -686.336 -2038 32 35 41
-157.975 -683.567 -2030 31 36 42
-153.394 -681.811 -2025 31 37 43
-149.055 -681.066 -2023 28 34 41
-144.583 -679.651 -2019 29 34 42
-140.268 -678.911 -2017 28 33 40
-135.828 -677.5 -2013 29 35 41
-131.209 -675.081 -2006 30 36 41
-126.43 -671.656 -1996 32 38 43
-122 -669.915 -1991 34 40 45
-117.651 -668.513 -1987 37 43 48
-113.376 -667.45 -1984 37 43 48
-109.225 -667.061 -1983 37 43 46
-105.079 -666.675 -1982 36 42 45
-100.938 -666.29 -1981 36 42 45
-96.8513 -666.244 -1981 39 45 46
-92.7651 -666.2 -1981 42 48 49
-88.7692 -666.83 -1983 44 50 51
-84.6378 -666.453 -1982 41 47 48
-80.5518 -666.414 -1982 41 47 48
-76.428 -666.041 -1981 40 46 47
-72.382 -666.343 -1982 39 45 46
-68.2635 -665.974 -1981 41 47 48
-64.247 -666.615 -1983 39 45 46
-60.1924 -666.922 -1984 36 42 43
-56.106 -666.895 -1984 37 43 44
-51.9415 -665.861 -1981 42 48 49
-47.8137 -665.166 -1979 42 48 48
-43.6505 -663.8 -1975 42 49 49
-39.5042 -662.436 -1971 41 49 47
-35.3926 -661.41 -1968 44 52 50
-31.3096 -660.723 -1966 47 55 53
-27.2905 -661.381 -1968 47 53 52
-23.2635 -662.042 -1970 46 52 51
-19.2186 -662.368 -1971 47 53 52
-15.1776 -663.032 -1973 50 54 53
-11.1398 -664.37 -1977 48 53 52
-7.07823 -665.038 -1979 43 49 48
-3.01481 -667.052 -1985 46 54 48
1.07598 -670.748 -1996 53 62 57
-360.392 -690.596 -2020 46 52 53
-352.574 -683.588 -2000 45 51 52
-346.063 -678.978 -1987 44 50 51
-341.331 -677.788 -1984 44 50 51
-336.105 -675.576 -1978 44 50 51
-331.076 -673.708 -1973 44 50 51
-326.07 -671.844 -1968 42 48 49
-321.252 -670.324 -1964 40 46 47
-315.97 -667.782 -1957 38 44 45
-311.675 -667.291 -1956 37 43 44
-307.546 -667.143 -1956 39 45 46
-303.729 -667.679 -1958 42 48 49
-299.447 -667.193 -1957 45 51 52
-294.871 -666.029 -1954 45 51 52
-290.161 -664.526 -1950 47 53 54
-285.47 -663.026 -1946 45 53 53
-281.088 -662.209 -1944 44 52 52
-277.001 -662.076 -1944 45 53 53
-273.339 -662.966 -1947 43 51 51
-269.527 -663.518 -1949 41 49 49
-265.574 -663.731 -1950 43 51 51
-261.753 -664.286 -1952 43 51 51
-257.926 -664.843 -1954 41 49 49
-254.092 -665.401 -1956 40 48 47
-250.38 -666.302 -1959 41 49 49
-246.784 -667.544 -1963 44 52 52
-243.173 -668.788 -1967 45 51 52
-239.426 -669.693 -1970 42 49 50
-235.549 -670.26 -1972 39 47 47
-232.253 -672.528 -1979 42 48 49
-228.584 -673.778 -1983 43 49 50
-224.786 -674.689 -1986 44 50 51
-221.089 -675.942 -1990 42 48 49
-217.596 -677.876 -1996 40 46 47
-213.652 -678.453 -1998 42 48 49
-210.12 -680.389 -2004 42 48 49
-206.36 -681.649 -2008 40 46 47
-202.384 -682.231 -2010 39 45 46
-198.894 -684.511 -2017 37 43 44
-194.798 -684.758 -2018 34 41 42
-191.455 -687.72 -2027 33 39 40
-187.891 -690.005 -2034 31 36 37
-184.48 -692.97 -2043 29 33 34
-181.211 -696.614 -2054 21 24 30
-177.38 -698.225 -2059 90 93 99
-172.857 -697.125 -2056 71 73 79
-167.939 -694.332 -2048 28 30 37
-162.974 -691.203 -2039 31 34 40
-158.049 -688.076 -2030 30 36 42
-153.39 -685.969 -2024 30 36 42
-149.273 -686.236 -2025 27 33 39
-144.652 -684.134 -2019 29 34 43
-140.334 -683.389 -2017 29 35 42
-135.892 -681.968 -2013 28 34 40
-131.402 -680.212 -2008 27 33 38
-126.553 -676.424 -1997 30 36 41
-122.119 -674.672 -1992 33 39 44
-117.765 -673.261 -1988 33 39 44
-113.429 -671.852 -1984 33 39 44
-109.332 -671.799 -1984 36 42 45
-105.129 -671.071 -1982 38 44 47
-101.088 -671.362 -1983 39 45 48
-96.9457 -670.977 -1982 39 45 46
-92.8087 -670.593 -1981 39 45 46
-88.811 -671.227 -1983 41 47 48
-84.763 -671.525 -1984 41 47 48
-80.671 -671.486 -1984 42 48 49
-76.5411 -671.111 -1983 40 46 47
-72.5256 -671.752 -1985 39 45 46
-68.3645 -671.042 -1983 41 47 48
-64.2772 -671.011 -1983 38 44 45
-60.1903 -670.982 -1983 36 42 43
-55.9908 -669.601 -1979 38 44 45
-51.9395 -669.914 -1980 41 47 48
-47.812 -669.214 -1978 41 47 47
-43.6489 -667.839 -1974 43 49 48
-39.5427 -667.143 -1972 42 50 48
-35.4811 -667.125 -1972 44 52 50
-31.3402 -665.418 -1967 45 53 51
-27.3171 -666.081 -1969 47 53 52
-23.2389 -665.392 -1967 47 54 53
-19.1984 -665.721 -1968 49 55 54
-15.1616 -666.389 -1970 51 55 55
-11.1223 -667.398 -1973 47 52 52
-7.07088 -668.408 -1976 41 48 47
-3.01323 -670.774 -1983 47 55 50
1.07402 -673.48 -1991 55 64 59
-360.03 -694.101 -2017 46 52 53
-352.744 -688.079 -2000 43 49 50
-346.404 -683.782 -1988 44 50 51
-340.979 -681.209 -1981 44 50 51
-335.927 -679.326 -1976 44 50 51
-331.403 -678.478 -1974 46 51 52
-326.227 -676.257 -1968 45 51 52
-321.57 -675.07 -1965 43 49 50
-316.283 -672.512 -1958 43 49 50
-311.985 -672.017 -1957 44 50 51
-307.379 -670.838 -1954 44 50 51
-303.409 -671.034 -1955 45 51 52
-298.978 -670.203 -1953 45 51 52
-295.012 -670.403 -1954 46 52 53
-290.448 -669.233 -1951 46 52 53
-285.9 -668.065 -1948 45 53 53
-281.656 -667.586 -1947 46 54 54
-277.419 -667.109 -1946 45 53 53
-273.75 -668.005 -1949 42 50 50
-269.38 -667.189 -1947 42 50 50
-265.701 -668.089 -1950 44 52 52
-261.744 -668.305 -1951 43 51 51
-257.917 -668.865 -1953 42 50 49
-254.084 -669.428 -1955 42 50 48
-250.756 -671.361 -1961 43 51 51
-247.405 -673.296 -1967 44 52 52
-243.66 -674.205 -1970 45 51 52
-239.905 -675.116 -1973 42 49 50
-236.02 -675.686 -1975 40 48 48
-232.598 -677.627 -1981 42 48 49
-228.923 -678.885 -1985 42 48 49
-225.459 -680.828 -1991 42 48 49
-221.417 -681.063 -1992 39 45 46
-217.372 -681.3 -1993 40 46 47
-213.753 -682.906 -1998 41 47 48
-210.22 -684.855 -2004 41 47 48
-206.253 -685.439 -2006 42 48 49
-202.883 -688.075 -2014 41 47 48
-199.186 -689.687 -2019 38 45 46
-195.18 -690.277 -2021 35 43 43
-191.829 -693.258 -2030 31 37 38
-188.073 -694.875 -2035 28 34 35
-185.2 -699.908 -2050 27 31 32
-181.561 -702.21 -2057 19 22 28
-177.636 -703.49 -2061 108 111 117
-173.192 -702.724 -2059 77 80 86
-168.674 -701.619 -2056 30 32 39
-163.372 -697.103 -2043 29 32 38
-158.358 -693.615 -2033 29 35 41
-153.842 -692.176 -2029 30 36 42
-149.417 -691.08 -2026 32 38 44
-145.007 -689.987 -2023 31 36 45
-140.61 -688.896 -2020 30 35 43
-135.956 -686.443 -2013 29 35 41
-131.726 -686.039 -2012 29 35 40
-126.74 -681.545 -1999 30 36 41
-122.299 -679.781 -1994 32 38 43
-117.88 -678.019 -1989 33 39 44
-113.598 -676.942 -1986 32 38 43
-109.383 -676.207 -1984 35 41 44
-105.284 -676.156 -1984 38 44 47
-101.136 -675.767 -1983 40 46 49
-97.0894 -676.06 -1984 37 43 44
-92.9931 -676.015 -1984 37 43 44
-88.853 -675.631 -1983 39 45 46
-84.8458 -676.271 -1985 40 46 47
-80.7091 -675.892 -1984 41 47 48
-76.6159 -675.854 -1984 41 47 48
-72.5598 -676.16 -1985 40 46 46
-68.3968 -675.445 -1983 41 47 47
-64.3399 -675.754 -1984 37 43 44
-60.158 -674.703 -1981 36 42 43
-56.1022 -675.016 -1982 36 42 43
-51.9378 -673.968 -1979 39 45 46
-47.8104 -673.264 -1977 40 46 45
-43.7137 -672.902 -1976 43 50 48
-39.5614 -671.52 -1972 42 50 48
-35.4619 -670.821 -1970 42 50 48
-31.3708 -670.124 -1968 44 52 50
-27.3023 -669.77 -1967 45 53 51
-23.2499 -669.758 -1967 46 53 52
-19.1879 -669.407 -1966 49 55 54
-15.1456 -669.74 -1967 50 56 57
-11.122 -671.436 -1972 48 55 55
-7.08119 -673.474 -1978 46 54 52
-3.01292 -674.834 -1982 52 60 56
1.07504 -678.238 -1992 55 63 60
-360.562 -699.331 -2019 48 54 55
-352.562 -691.884 -1998 43 49 50
-346.572 -688.252 -1988 44 50 51
-341.661 -686.699 -1984 43 49 50
-336.26 -684.112 -1977 45 49 50
-331.227 -682.22 -1972 45 50 51
-326.55 -681.022 -1969 44 50 51
-321.562 -679.136 -1964 44 50 51
-316.759 -677.598 -1960 46 52 53
-311.976 -676.063 -1956 45 51 52
-307.685 -675.567 -1955 44 50 51
-303.09 -674.382 -1952 45 51 52
-298.97 -674.236 -1952 45 51 52
-294.55 -673.402 -1950 46 52 53
-289.993 -672.224 -1947 44 50 51
-285.891 -672.085 -1947 43 51 51
-281.647 -671.603 -1946 45 53 53
-277.553 -671.467 -1946 44 52 52
-273.742 -672.024 -1948 44 52 52
-269.648 -671.893 -1948 47 55 55
-265.693 -672.108 -1949 45 53 53
-261.735 -672.326 -1950 44 52 51
-257.777 -672.545 -1951 43 51 49
-254.076 -673.456 -1954 45 53 51
-250.237 -674.023 -1956 46 54 53
-247.272 -677.004 -1965 45 53 53
-243.406 -677.575 -1967 45 51 52
-240.142 -679.87 -1974 42 49 49
-236.253 -680.444 -1976 40 48 48
-232.828 -682.397 -1982 40 46 47
-229.148 -683.663 -1986 41 47 48
-225.454 -684.93 -1990 42 48 49
-221.746 -686.199 -1994 41 47 48
-218.022 -687.469 -1998 41 47 48
-214.391 -689.086 -2003 42 48 49
-210.321 -689.328 -2004 40 46 47
-206.763 -691.291 -2010 41 47 48
-202.98 -692.568 -2014 39 45 46
-199.676 -695.566 -2023 35 42 42
-195.95 -697.19 -2028 34 42 42
-192.583 -700.191 -2037 30 36 37
-188.717 -701.474 -2041 29 34 35
-185.56 -705.509 -2053 27 31 32
-182.266 -709.2 -2064 12 15 21
-178.152 -709.801 -2066 118 121 127
-173.611 -708.686 -2063 85 88 94
-168.837 -706.543 -2057 32 34 41
-163.53 -701.998 -2044 29 31 38
-158.745 -699.517 -2037 29 35 41
-154.067 -697.382 -2031 28 34 40
-149.636 -696.279 -2028 31 37 43
-145.148 -694.835 -2024 26 31 40
-140.677 -693.393 -2020 24 30 37
-136.156 -691.611 -2015 28 34 40
-131.658 -689.831 -2010 32 38 43
-126.99 -687.023 -2002 30 36 41
-122.603 -685.591 -1998 31 37 42
-118.055 -683.132 -1991 35 41 45
-113.823 -682.39 -1989 36 42 47
-109.546 -681.307 -1986 38 44 46
-105.388 -680.913 -1985 39 45 48
-101.235 -680.521 -1984 40 46 49
-97.1357 -680.473 -1984 37 43 44
-92.9906 -680.085 -1983 37 43 44
-88.8952 -680.041 -1983 38 44 45
-84.8434 -680.343 -1984 38 44 45
-80.7475 -680.303 -1984 39 45 46
-76.6524 -680.266 -1984 42 48 49
-72.631 -680.916 -1986 41 47 47
-68.4984 -680.539 -1985 41 47 47
-64.3381 -679.822 -1983 36 42 43
-60.2474 -679.792 -1983 36 42 43
-56.0722 -678.736 -1980 39 45 45
-51.9625 -678.368 -1979 40 46 46
-47.8573 -678.001 -1978 42 48 47
-43.7565 -677.636 -1977 43 49 48
-39.6203 -676.588 -1974 44 52 50
-35.5507 -676.57 -1974 41 49 47
-31.4336 -675.526 -1971 45 53 50
-27.3153 -674.141 -1967 48 55 53
-23.261 -674.129 -1967 46 52 51
-19.1873 -673.434 -1965 48 54 53
-15.1682 -674.796 -1969 47 55 54
-11.1215 -675.475 -1971 48 55 54
-7.08461 -677.87 -1978 46 54 52
-3.01287 -678.896 -1981 50 58 53
1.07391 -681.637 -1989 55 63 59
-361.095 -704.576 -2021 49 55 56
-352.911 -696.732 -1999 45 51 52
-346.741 -692.727 -1988 45 51 52
-341.311 -690.12 -1981 43 49 50
-336.254 -688.212 -1976 43 49 50
-331.053 -685.96 -1970 45 51 52
-326.544 -685.102 -1968 46 52 53
-321.719 -683.552 -1964 44 50 51
-316.913 -682.003 -1960 44 50 51
-312.128 -680.458 -1956 45 51 52
-307.677 -679.611 -1954 44 51 51
-303.392 -679.114 -1953 43 51 51
-298.962 -678.272 -1951 44 51 52
-294.693 -677.78 -1950 43 50 51
-290.581 -677.637 -1950 41 49 49
-286.324 -677.148 -1949 41 49 49
-282.073 -676.663 -1948 46 54 54
-277.687 -675.832 -1946 43 51 51
-274.015 -676.739 -1949 42 50 50
-269.917 -676.607 -1949 46 54 53
-266.094 -677.171 -1951 44 52 51
-261.728 -676.348 -1949 45 53 51
-258.034 -677.263 -1952 44 52 50
-254.589 -678.873 -1957 46 54 52
-250.614 -679.097 -1958 46 54 52
-247.77 -682.444 -1968 43 51 50
-243.895 -683.018 -1970 46 53 53
-240.502 -684.981 -1976 44 51 50
-236.726 -685.905 -1979 42 50 49
-233.528 -688.564 -1987 40 46 47
-229.49 -688.798 -1988 41 47 48
-225.563 -689.38 -1990 44 50 51
-221.853 -690.657 -1994 41 47 48
-218.018 -691.59 -1997 41 47 48
-214.173 -692.524 -2000 39 45 46
-210.422 -693.806 -2004 39 45 46
-206.76 -695.436 -2009 39 45 46
-203.381 -698.106 -2017 37 43 44
-199.772 -700.085 -2023 34 40 41
-197.011 -705.18 -2038 35 42 43
-193.054 -706.124 -2041 30 36 37
-189.456 -708.453 -2048 30 36 37
-186.011 -711.475 -2057 30 34 36
-182.531 -714.499 -2066 19 22 28
-178.497 -715.449 -2069 131 134 140
-173.947 -714.327 -2066 93 97 104
-169.165 -712.169 -2060 30 32 39
-164.009 -708.286 -2049 29 31 38
-158.977 -704.752 -2039 30 34 40
-154.141 -701.912 -2031 29 35 41
-149.93 -701.838 -2031 32 38 43
-145.217 -699.348 -2024 27 33 39
-140.814 -698.243 -2021 27 33 39
-136.222 -696.103 -2015 28 34 40
-131.786 -694.657 -2011 29 35 40
-127.178 -692.176 -2004 30 36 40
-122.723 -690.389 -1999 32 39 43
-118.29 -688.605 -1994 34 40 43
-113.935 -687.167 -1990 36 42 45
-109.654 -686.078 -1987 37 43 45
-105.544 -686.026 -1987 40 46 47
-101.488 -686.321 -1988 40 46 47
-97.3782 -686.274 -1988 37 43 44
-93.1289 -685.192 -1985 37 43 45
-89.0723 -685.493 -1986 40 46 48
-84.9696 -685.452 -1986 39 45 46
-80.827 -685.066 -1985 39 45 46
-76.7277 -685.029 -1985 41 47 48
-72.7389 -686.028 -1988 40 46 47
-68.5658 -685.304 -1986 39 45 45
-64.4339 -684.927 -1985 35 41 40
-60.337 -684.897 -1985 33 39 38
-56.2125 -684.524 -1984 37 43 42
-52.0398 -683.463 -1981 40 46 45
-47.8802 -682.404 -1978 43 49 48
-43.7775 -682.037 -1977 43 49 48
-39.6593 -681.327 -1975 40 48 46
-35.5317 -680.274 -1972 39 47 44
-31.4487 -679.913 -1971 41 49 45
-27.3561 -679.209 -1969 48 54 53
-23.2721 -678.507 -1967 48 54 53
-19.1867 -677.462 -1964 47 53 52
-15.1754 -679.178 -1969 45 53 51
-11.1212 -679.517 -1970 46 54 52
-7.08447 -681.927 -1977 46 54 52
-3.01435 -683.304 -1981 49 57 51
1.07548 -686.753 -1991 52 60 56
-360.915 -708.433 -2019 47 53 54
-353.437 -701.942 -2001 46 52 53
-347.261 -697.911 -1990 45 51 52
-341.651 -694.936 -1982 43 49 50
-336.248 -692.315 -1975 41 47 48
-330.879 -689.697 -1968 42 48 49
-326.372 -688.834 -1966 42 48 49
-321.876 -687.974 -1964 43 49 50
-317.392 -687.116 -1962 43 49 50
-312.6 -685.56 -1958 44 50 51
-307.985 -684.357 -1955 45 52 53
-303.23 -682.807 -1951 45 53 53
-298.955 -682.309 -1950 44 52 52
-294.535 -681.464 -1948 43 51 51
-290.126 -680.621 -1946 42 50 50
-286.17 -680.829 -1947 41 49 49
-282.066 -680.69 -1947 43 51 51
-278.109 -680.902 -1948 41 49 49
-274.008 -680.767 -1948 40 48 48
-270.049 -680.982 -1949 42 50 49
-266.087 -681.201 -1950 45 53 51
-262.124 -681.421 -1951 44 52 50
-258.027 -681.293 -1951 43 51 49
-254.323 -682.216 -1954 47 55 53
-250.352 -682.441 -1955 46 54 52
-247.135 -684.763 -1962 42 50 48
-243.766 -686.737 -1968 45 53 51
-240.619 -689.41 -1976 43 51 49
-237.081 -691.037 -1981 42 50 48
-233.289 -691.969 -1984 43 49 49
-229.486 -692.902 -1987 42 48 49
-225.673 -693.837 -1990 44 50 51
-222.183 -695.82 -1996 42 48 49
-218.124 -696.061 -1997 37 43 44
-214.599 -698.047 -2003 37 43 44
-210.735 -698.988 -2006 38 44 45
-206.963 -700.28 -2010 39 45 46
-203.58 -702.967 -2018 37 43 44
-200.265 -706.004 -2027 34 40 41
-197.01 -709.39 -2037 35 41 42
-193.337 -711.384 -2043 36 42 43
-189.733 -713.728 -2050 33 38 40
-186.192 -716.422 -2058 32 36 39
-182.796 -719.813 -2068 16 20 25
-178.583 -720.073 -2069 144 148 154
-174.2 -719.64 -2068 102 108 114
-169.247 -716.772 -2060 35 38 44
-164.008 -712.516 -2048 31 33 40
-158.898 -708.611 -2037 30 33 39
-154.368 -707.144 -2033 29 34 39
-150.076 -706.722 -2032 30 36 41
-145.359 -704.216 -2025 27 33 38
-140.952 -703.103 -2022 27 33 38
-136.423 -701.297 -2017 29 35 41
-131.916 -699.494 -2012 30 36 41
-127.43 -697.693 -2007 31 37 42
-122.905 -695.546 -2001 34 41 44
-118.584 -694.445 -1998 35 41 44
-114.219 -692.998 -1994 36 42 45
-109.927 -691.901 -1991 38 44 45
-105.808 -691.849 -1991 40 46 47
-101.588 -691.104 -1989 40 46 47
-97.5722 -691.75 -1991 38 44 45
-93.4086 -691.357 -1990 38 44 46
-89.2052 -690.618 -1988 41 47 49
-85.1391 -690.923 -1989 41 47 48
-80.9475 -690.188 -1987 39 45 46
-76.8421 -690.15 -1987 40 46 47
-72.774 -690.461 -1988 40 46 47
-68.6678 -690.427 -1988 39 45 45
-64.5299 -690.047 -1987 37 43 42
-60.4573 -690.364 -1988 35 41 40
-56.2679 -689.294 -1985 38 44 43
-52.0649 -687.879 -1981 40 46 45
-47.9274 -687.16 -1979 43 49 48
-43.7986 -686.444 -1977 43 49 48
-39.6784 -685.729 -1975 40 48 46
-35.5488 -684.669 -1972 40 48 44
-31.4797 -684.653 -1972 38 46 42
-27.3693 -683.597 -1969 44 50 49
-23.3069 -683.585 -1969 47 53 52
-19.2349 -683.228 -1968 45 51 50
-15.1982 -684.261 -1971 46 54 52
-11.1379 -684.602 -1972 46 54 52
-7.08768 -686.333 -1977 48 56 54
-3.01863 -688.414 -1983 50 58 53
1.07731 -691.885 -1993 51 58 55
-353.259 -705.755 -1999 45 51 52
-347.258 -702.051 -1989 46 52 53
-341.82 -699.41 -1982 45 51 52
-336.926 -697.83 -1978 44 50 51
-331.379 -694.842 -1970 43 49 50
-326.865 -693.974 -1968 43 49 50
-321.38 -690.992 -1960 43 49 50
-317.063 -690.481 -1959 42 48 49
-312.914 -690.325 -1959 43 49 50
-308.452 -689.467 -1957 43 50 51
-303.224 -686.85 -1950 44 52 52
-299.409 -687.405 -1952 44 52 52
-294.831 -686.202 -1949 42 50 50
-290.418 -685.353 -1947 43 51 51
-286.311 -685.211 -1947 42 50 50
-282.64 -686.126 -1950 42 50 49
-278.245 -685.284 -1948 40 48 48
-274.565 -686.202 -1951 39 47 47
-270.32 -685.716 -1950 41 49 49
-266.355 -685.936 -1951 45 53 51
-262.522 -686.508 -1953 45 53 51
-258.948 -687.786 -1957 41 49 47
-255.099 -688.362 -1959 39 47 45
-251.115 -688.589 -1960 40 48 46
-247.508 -689.871 -1964 40 48 46
-244.134 -691.857 -1970 43 51 49
-240.615 -693.494 -1975 42 50 48
-236.957 -694.781 -1979 42 50 48
-233.638 -697.123 -1986 43 49 50
-229.714 -697.711 -1988 42 48 49
-226.124 -699.353 -1993 42 48 49
-222.181 -699.945 -1995 41 47 48
-218.34 -700.889 -1998 37 43 44
-214.704 -702.537 -2003 39 45 46
-210.943 -703.835 -2007 39 45 46
-207.27 -705.486 -2012 36 42 43
-203.781 -707.84 -2019 36 42 43
-200.362 -710.545 -2027 36 42 43
-197.203 -714.303 -2038 37 43 44
-193.526 -716.31 -2044 33 39 40
-190.011 -719.02 -2052 31 37 38
-186.464 -721.73 -2060 30 34 37
-183.239 -725.844 -2072 13 17 22
-179.016 -726.106 -2073 149 152 158
-174.622 -725.669 -2072 105 111 117
-169.576 -722.432 -2063 34 37 44
-164.008 -716.749 -2047 30 32 39
-159.054 -713.518 -2038 30 33 39
-154.519 -712.041 -2034 30 35 40
-150.075 -710.916 -2031 28 34 39
-145.717 -710.144 -2029 27 33 38
-141.3 -709.024 -2026 25 31 36
-136.625 -706.506 -2019 27 33 39
-132.111 -704.691 -2014 30 36 41
-127.683 -703.229 -2010 32 39 43
-123.149 -701.068 -2004 33 40 43
-118.701 -699.26 -1999 36 42 45
-114.332 -697.804 -1995 36 42 45
-110.036 -696.7 -1992 38 44 45
-105.86 -696.297 -1991 39 45 46
-101.841 -696.946 -1993 38 44 45
-97.7667 -697.247 -1994 38 44 45
-93.5949 -696.851 -1993 40 46 47
-89.428 -696.457 -1992 42 48 49
-85.2233 -695.715 -1990 41 47 48
-81.109 -695.674 -1990 39 45 46
-76.9568 -695.286 -1989 38 44 45
-72.8093 -694.9 -1988 37 43 44
-68.6667 -694.516 -1987 38 44 44
-64.5937 -694.833 -1988 37 43 42
-60.4867 -694.802 -1988 35 41 40
-56.3519 -694.425 -1987 36 42 41
-52.1166 -692.651 -1982 40 46 45
-47.9992 -692.277 -1981 43 49 48
-43.7755 -690.158 -1975 43 49 48
-39.6373 -689.089 -1972 42 50 48
-35.53 -688.372 -1970 43 51 47
-31.463 -688.356 -1970 40 48 44
-27.3547 -687.293 -1967 43 49 48
-23.3063 -687.63 -1968 44 50 49
-19.254 -687.969 -1969 46 52 51
-15.2054 -688.66 -1971 48 56 54
-11.1431 -689.003 -1972 48 56 54
-7.08756 -690.396 -1976 49 57 55
-3.0186 -692.49 -1982 51 59 55
1.07835 -696.682 -1994 52 60 57
-363.243 -721.473 -2030 49 55 56
-355.026 -713.475 -2008 45 51 52
-348.13 -707.97 -1993 43 49 50
-342.681 -705.311 -1986 42 48 49
-337.434 -703.011 -1980 43 49 50
-331.544 -699.293 -1970 44 50 51
-326.862 -698.064 -1967 43 49 50
-322.196 -696.838 -1964 43 49 50
-317.545 -695.614 -1961 44 50 51
-313.07 -694.747 -1959 42 48 49
-308.605 -693.883 -1957 42 48 49
-304.153 -693.021 -1955 42 50 50
-299.251 -691.099 -1950 41 49 49
-294.524 -689.533 -1946 40 48 47
-290.712 -690.096 -1948 45 53 51
-286.305 -689.244 -1946 44 52 51
-282.635 -690.165 -1949 43 51 49
-278.526 -690.026 -1949 40 48 47
-274.56 -690.242 -1950 40 48 46
-270.454 -690.107 -1950 42 50 49
-266.35 -689.974 -1950 44 52 50
-262.517 -690.55 -1952 45 53 51
-258.811 -691.482 -1955 43 51 49
-254.964 -692.062 -1957 42 50 48
-251.239 -692.997 -1960 41 49 47
-247.756 -694.641 -1965 42 50 48
-243.882 -695.226 -1967 42 50 48
-240.246 -696.52 -1971 41 49 47
-237.074 -699.229 -1979 39 47 45
-233.4 -700.525 -1983 41 47 48
-229.712 -701.824 -1987 41 47 48
-225.895 -702.771 -1990 40 46 47
-222.513 -705.132 -1997 40 46 47
-218.776 -706.435 -2001 38 44 45
-215.024 -707.74 -2005 41 47 48
-211.573 -710.105 -2012 41 47 48
-207.475 -710.355 -2013 37 43 44
-204.083 -713.076 -2021 37 43 44
-200.758 -716.151 -2030 36 42 43
-197.397 -719.227 -2039 35 41 42
-193.621 -720.895 -2044 29 35 36
-190.011 -723.269 -2051 28 34 35
-186.827 -727.407 -2063 31 35 37
-183.594 -731.547 -2075 20 23 28
-179.363 -731.81 -2076 154 158 164
-175.045 -731.722 -2076 113 119 125
-169.741 -727.408 -2064 36 39 46
-164.249 -722.04 -2049 29 31 38
-159.132 -718.084 -2038 30 33 39
-154.519 -716.245 -2033 31 36 41
-150.223 -715.818 -2032 32 38 43
-145.789 -714.688 -2029 30 36 41
-141.439 -713.913 -2027 28 34 39
-136.759 -711.38 -2020 29 35 40
-132.307 -709.905 -2016 32 38 43
-127.682 -707.376 -2009 34 40 44
-123.333 -706.258 -2006 34 41 44
-118.819 -704.086 -2000 36 42 45
-114.503 -702.973 -1997 35 41 44
-110.035 -700.805 -1991 37 43 44
-105.911 -700.753 -1991 38 44 45
-101.891 -701.405 -1993 36 42 43
-97.6675 -700.652 -1991 39 45 46
-93.5938 -700.957 -1992 40 46 47
-89.4718 -700.912 -1992 41 47 48
-85.3506 -700.869 -1992 40 46 47
-81.108 -699.773 -1989 39 45 46
-77.0719 -700.438 -1991 38 44 45
-72.9549 -700.401 -1991 36 42 43
-68.804 -700.015 -1990 37 43 43
-64.7553 -700.685 -1992 36 42 41
-60.6381 -700.655 -1992 33 39 38
-56.493 -700.274 -1991 32 38 37
-52.2735 -698.841 -1987 34 40 39
-48.0469 -697.057 -1982 40 46 45
-43.8413 -695.276 -1977 41 48 46
-39.6969 -694.201 -1974 43 51 49
-35.5473 -692.776 -1970 44 52 49
-31.4784 -692.76 -1970 44 52 48
-27.3959 -692.393 -1969 45 51 50
-23.3059 -691.678 -1967 44 50 49
-19.2536 -692.019 -1968 48 54 53
-15.1974 -692.362 -1969 49 57 55
-11.1373 -692.707 -1970 49 57 55
-7.0767 -693.406 -1972 49 57 55
-3.01553 -695.865 -1979 51 59 55
1.07452 -698.326 -1986 54 62 59
-354.674 -716.951 -2005 46 52 53
-348.13 -712.126 -1992 44 50 51
-343.198 -710.522 -1988 41 47 48
-337.945 -708.207 -1982 41 47 48
-332.889 -706.252 -1977 42 48 49
-327.524 -703.585 -1970 42 48 49
-322.193 -700.922 -1963 43 49 50
-317.704 -700.048 -1961 46 52 53
-313.386 -699.532 -1960 45 51 52
-309.391 -699.733 -1961 42 49 49
-304.772 -698.509 -1958 41 49 49
-299.554 -695.86 -1951 41 49 49
-294.822 -694.285 -1947 41 49 48
-290.857 -694.494 -1948 41 49 47
-286.448 -693.637 -1946 44 52 50
-282.776 -694.564 -1949 48 56 54
-278.665 -694.423 -1949 42 50 48
-274.838 -694.997 -1951 40 48 46
-270.311 -693.792 -1948 43 51 49
-267.029 -695.795 -1954 45 53 51
-262.783 -695.306 -1953 44 52 50
-259.47 -697.311 -1959 44 52 50
-255.352 -697.183 -1959 46 54 52
-251.493 -697.768 -1961 46 54 52
-247.753 -698.711 -1964 43 51 49
-243.88 -699.3 -1966 43 51 49
-240.122 -700.246 -1969 41 49 47
-236.952 -702.972 -1977 40 48 46
-233.752 -705.699 -1985 41 47 48
-229.71 -705.939 -1986 42 48 49
-226.915 -710.091 -1998 42 48 49
-222.623 -709.623 -1997 41 47 48
-219.103 -711.645 -2003 39 45 46
-215.023 -711.892 -2004 38 44 45
-211.467 -713.918 -2010 38 44 45
-207.681 -715.234 -2014 40 46 47
-204.386 -718.327 -2023 38 44 45
-200.758 -720.357 -2029 35 41 42
-197.398 -723.453 -2038 34 40 41
-193.717 -725.486 -2044 34 40 41
-190.105 -727.875 -2051 30 35 36
-186.92 -732.04 -2063 29 34 35
-183.774 -736.56 -2076 30 33 39
-179.884 -738.244 -2081 166 169 175
-175.553 -738.156 -2081 128 134 140
-170.566 -735.232 -2073 44 48 54
-164.731 -728.411 -2054 28 30 37
-159.601 -724.43 -2043 28 31 37
-154.823 -721.87 -2036 31 35 41
-150.593 -721.794 -2036 31 37 42
-146.292 -721.366 -2035 31 37 42
-141.718 -719.522 -2030 28 34 39
-137.03 -716.972 -2023 28 34 39
-132.569 -715.488 -2019 32 38 43
-127.936 -712.943 -2012 31 37 42
-123.455 -711.109 -2007 31 38 41
-118.937 -708.923 -2001 34 41 44
-114.502 -707.094 -1996 35 41 44
-110.255 -706.33 -1994 36 42 43
-106.017 -705.568 -1992 37 43 44
-101.993 -706.225 -1994 37 43 44
-97.8628 -706.176 -1994 37 43 44
-93.7809 -706.483 -1995 37 43 45
-89.5609 -705.729 -1993 39 45 47
-85.4356 -705.686 -1993 38 44 45
-81.1887 -704.582 -1990 38 44 45
-76.9935 -703.835 -1988 38 44 45
-72.9541 -704.506 -1990 36 42 43
-68.7686 -703.763 -1988 37 43 43
-64.7546 -704.792 -1991 35 41 40
-60.6374 -704.761 -1991 34 40 39
-56.5207 -704.732 -1991 34 40 39
-52.2203 -702.228 -1984 35 41 40
-48.0463 -701.141 -1981 41 47 46
-43.7962 -698.641 -1974 41 47 46
-39.636 -697.205 -1970 42 50 48
-35.5106 -696.124 -1967 43 51 48
-31.4459 -696.108 -1967 44 52 48
-27.3814 -696.093 -1967 47 53 52
-23.3054 -695.727 -1966 48 54 53
-19.2729 -696.778 -1969 50 56 55
-15.2203 -697.478 -1971 48 56 54
-11.1711 -698.887 -1975 50 58 56
-7.09815 -699.59 -1977 50 58 56
-3.02924 -703.126 -1987 51 59 55
1.08231 -707.372 -1999 54 61 59
-354.853 -721.5 -2005 47 53 54
-348.131 -716.285 -1991 45 51 52
-343.544 -715.39 -1989 42 48 49
-338.286 -713.06 -1983 43 49 50
-332.72 -710.013 -1975 44 50 51
-327.69 -708.049 -1970 43 49 50
-323.012 -706.806 -1967 41 47 48
-318.026 -704.847 -1962 43 49 50
-313.224 -703.251 -1958 44 50 51
-308.915 -702.735 -1957 44 50 51
-304.458 -701.862 -1955 44 52 52
-300.165 -701.35 -1954 44 52 52
-295.425 -699.764 -1950 44 52 51
-290.854 -698.54 -1947 43 51 49
-286.592 -698.036 -1946 42 50 48
-283.208 -699.685 -1951 44 52 50
-278.805 -698.827 -1949 40 48 46
-275.399 -700.48 -1954 40 48 46
-271.141 -699.983 -1953 43 51 49
-267.3 -700.565 -1955 42 50 48
-262.914 -699.715 -1953 44 52 50
-259.335 -701.016 -1957 43 51 49
-255.219 -700.887 -1957 43 51 49
-251.747 -702.55 -1962 43 51 49
-247.751 -702.783 -1963 43 51 49
-244.002 -703.733 -1966 44 52 50
-240.364 -705.043 -1970 42 50 48
-237.191 -707.786 -1978 42 50 48
-233.515 -709.099 -1982 42 48 49
-230.403 -712.203 -1991 43 49 50
-226.574 -713.161 -1994 43 49 50
-222.958 -714.837 -1999 40 46 47
-219.431 -716.871 -2005 40 46 47
-215.56 -717.835 -2008 39 45 46
-211.994 -719.873 -2014 36 42 43
-208.301 -721.554 -2019 37 43 44
-204.589 -723.238 -2024 38 44 45
-201.056 -725.637 -2031 35 41 42
-197.496 -728.039 -2038 35 41 42
-193.908 -730.441 -2045 30 36 37
-190.107 -732.131 -2050 31 37 38
-187.103 -737.036 -2064 26 32 33
-184.042 -741.942 -2078 39 42 48
-180.666 -745.778 -2089 168 171 177
-176.063 -744.618 -2086 131 137 143
-170.733 -740.249 -2074 49 52 59
-165.134 -734.454 -2058 28 30 37
-159.837 -729.734 -2045 28 31 37
-155.204 -727.871 -2040 30 34 39
-150.816 -727.081 -2038 28 34 39
-146.221 -725.224 -2033 28 33 38
-141.928 -724.795 -2032 26 32 37
-137.234 -722.229 -2025 26 32 37
-132.701 -720.378 -2020 27 33 37
-127.999 -717.46 -2012 26 32 36
-123.516 -715.615 -2007 28 34 37
-119.055 -713.772 -2002 35 41 44
-114.674 -712.287 -1998 36 42 45
-110.365 -711.162 -1995 35 41 42
-106.016 -709.682 -1991 36 42 43
-101.992 -710.343 -1993 37 43 44
-97.8131 -709.937 -1992 38 44 45
-93.7804 -710.602 -1994 39 45 47
-89.5602 -709.844 -1992 41 47 50
-85.4351 -709.8 -1992 39 45 46
-81.2289 -709.046 -1990 37 43 44
-77.1093 -709.007 -1990 36 42 43
-72.9902 -708.969 -1990 37 43 44
-68.8374 -708.578 -1989 37 43 43
-64.7542 -708.901 -1990 34 40 39
-60.637 -708.87 -1990 31 37 36
-56.5203 -708.841 -1990 31 37 36
-52.2988 -707.389 -1986 35 41 40
-48.0943 -705.939 -1982 41 47 46
-43.8179 -703.067 -1974 44 50 49
-39.6354 -701.265 -1969 44 52 50
-35.5462 -700.891 -1968 44 52 49
-31.4615 -700.518 -1967 44 52 48
-27.3949 -700.503 -1967 47 53 52
-23.3406 -700.847 -1968 48 54 53
-19.2824 -701.192 -1969 49 55 54
-15.2356 -702.252 -1972 48 56 54
-11.1879 -704.026 -1977 48 56 54
-7.10502 -704.378 -1978 50 58 56
-3.0305 -707.58 -1987 52 59 55
1.08119 -710.785 -1996 55 62 59
-361.823 -731.309 -2019 47 53 54
-354.503 -724.97 -2002 45 51 52
-347.958 -720.083 -1989 44 50 51
-343.546 -719.545 -1988 42 48 49
-338.628 -717.923 -1984 43 49 50
-333.563 -715.943 -1979 43 49 50
-328.522 -713.966 -1974 45 51 52
-323.833 -712.714 -1971 43 49 50
-318.512 -710.02 -1964 44 50 51
-313.863 -708.775 -1961 42 48 49
-309.23 -707.532 -1958 41 48 49
-304.612 -706.292 -1955 43 51 51
-300.164 -705.416 -1953 44 52 50
-295.271 -703.459 -1948 43 51 49
-290.702 -702.227 -1945 44 52 50
-286.59 -702.08 -1945 41 49 47
-282.916 -703.019 -1948 39 47 45
-278.803 -702.876 -1948 38 46 44
-274.974 -703.457 -1950 40 48 46
-271.278 -704.401 -1953 43 51 49
-267.435 -704.986 -1955 43 51 49
-263.451 -705.212 -1956 42 50 48
-259.598 -705.8 -1958 41 49 47
-255.608 -706.03 -1959 41 49 47
-252.002 -707.344 -1963 39 47 45
-248.002 -707.577 -1964 39 47 45
-244 -707.813 -1965 45 53 51
-240.485 -709.492 -1970 43 51 49
-236.95 -711.171 -1975 42 50 48
-233.868 -714.293 -1984 41 48 48
-229.94 -714.896 -1986 42 48 49
-227.257 -719.46 -1999 43 49 50
-223.181 -719.706 -2000 43 49 50
-219.542 -721.393 -2005 40 46 47
-215.561 -722.003 -2007 42 48 49
-212.311 -725.133 -2016 41 47 48
-208.096 -725.027 -2016 38 44 45
-204.591 -727.44 -2023 37 43 44
-201.058 -729.855 -2030 34 40 41
-197.595 -732.631 -2038 34 40 41
-193.626 -733.611 -2041 28 34 33
-190.388 -737.467 -2052 29 35 35
-187.469 -742.763 -2067 22 28 29
-184.755 -749.137 -2085 52 55 61
-181.708 -754.434 -2100 175 178 184
-176.742 -751.829 -2093 140 146 152
-170.983 -745.635 -2076 56 59 66
-165.377 -739.804 -2060 28 30 37
-160.073 -735.054 -2047 28 30 36
-155.358 -732.821 -2041 29 33 38
-150.743 -730.949 -2036 30 36 41
-146.438 -730.515 -2035 29 33 38
-141.859 -728.648 -2030 28 32 37
-137.302 -726.783 -2025 27 33 38
-132.636 -724.203 -2018 28 34 37
-128.19 -722.702 -2014 30 36 39
-123.578 -720.127 -2007 32 38 41
-119.234 -718.99 -2004 35 41 44
-114.788 -717.137 -1999 36 42 45
-110.531 -716.363 -1997 37 43 44
-106.335 -715.951 -1996 38 44 45
-102.197 -715.898 -1996 39 45 46
-98.0585 -715.848 -1996 41 47 48
-94.0155 -716.517 -1998 41 47 49
-89.8299 -716.112 -1997 39 45 47
-85.6922 -716.068 -1997 37 43 44
-81.2695 -713.517 -1990 37 43 44
-77.1478 -713.477 -1990 37 43 44
-72.99 -713.081 -1989 37 43 44
-68.7678 -711.97 -1986 36 42 43
-64.7214 -712.654 -1988 35 41 40
-60.6062 -712.622 -1988 35 41 40
-56.4633 -712.234 -1987 34 40 39
-52.2721 -711.132 -1984 37 43 42
-48.0697 -709.673 -1980 43 49 48
-43.862 -707.858 -1975 45 51 50
-39.7156 -706.762 -1972 45 53 51
-35.6001 -706.026 -1970 46 54 51
-31.4771 -704.934 -1967 44 52 48
-27.4087 -704.92 -1967 46 52 51
-23.3523 -705.265 -1968 47 53 52
-19.3214 -706.688 -1972 50 56 55
-15.2509 -707.038 -1973 49 57 55
-11.1935 -708.465 -1977 50 58 56
-7.11935 -709.894 -1981 51 59 57
-3.03966 -713.833 -1992 53 60 56
-354.507 -729.161 -2001 44 50 51
-347.786 -723.88 -1987 43 49 50
-342.857 -722.245 -1983 41 47 48
-337.777 -720.25 -1978 41 47 48
-333.059 -718.985 -1975 40 46 47
-328.024 -716.996 -1970 45 51 52
-323.177 -715.373 -1966 43 49 50
-317.863 -712.662 -1959 43 49 50
-313.383 -711.773 -1957 42 48 49
-308.914 -710.886 -1955 42 48 49
-304.3 -709.638 -1952 43 51 49
-299.855 -708.757 -1950 46 54 52
-295.877 -708.968 -1951 45 53 51
-291.747 -708.818 -1951 43 51 49
-286.883 -706.853 -1946 45 53 51
-282.915 -707.071 -1947 46 54 52
-278.944 -707.291 -1948 41 49 47
-275.396 -708.602 -1952 41 49 47
-271.416 -708.825 -1953 43 51 49
-267.708 -709.776 -1956 41 49 47
-263.585 -709.641 -1956 40 48 46
-259.597 -709.87 -1957 42 50 48
-255.738 -710.464 -1959 42 50 48
-251.488 -709.972 -1958 40 48 46
-247.875 -711.296 -1962 41 49 47
-244.497 -713.345 -1968 45 53 51
-240.729 -714.309 -1971 43 51 49
-237.311 -716.362 -1977 41 49 47
-234.105 -719.14 -1985 41 47 48
-230.404 -720.471 -1989 43 49 50
-226.689 -721.804 -1993 44 50 51
-223.183 -723.863 -1999 43 49 50
-219.762 -726.284 -2006 41 47 48
-216.1 -727.984 -2011 41 47 48
-212.313 -729.323 -2015 40 46 47
-208.717 -731.388 -2021 37 43 44
-205.504 -734.901 -2031 37 43 44
-201.061 -734.075 -2029 34 41 42
-197.501 -736.506 -2036 30 38 38
-193.914 -738.939 -2043 31 37 36
-190.577 -742.458 -2053 29 35 34
-187.745 -748.148 -2069 23 29 29
-185.114 -754.924 -2088 63 67 72
-182.059 -760.254 -2103 177 180 186
-177.423 -759.078 -2100 146 152 158
-171.564 -752.484 -2082 61 65 71
-165.782 -745.893 -2064 27 29 36
-160.624 -741.836 -2053 26 28 34
-155.665 -738.504 -2044 30 33 39
-151.041 -736.62 -2039 31 35 41
-146.656 -735.822 -2037 31 34 41
-141.931 -733.221 -2030 29 33 39
-137.575 -732.428 -2028 28 34 39
-132.703 -728.748 -2018 28 34 37
-128.191 -726.877 -2013 30 36 39
-123.517 -723.924 -2005 32 38 41
-119.234 -723.141 -2003 34 40 43
-114.904 -721.999 -2000 35 41 44
-110.586 -720.859 -1997 36 42 43
-106.389 -720.443 -1996 37 43 44
-102.197 -720.03 -1995 38 44 45
-98.1078 -720.34 -1996 40 46 47
-93.9685 -720.292 -1996 41 47 48
-89.8751 -720.606 -1997 39 45 46
-85.6494 -719.84 -1995 37 43 44
-81.4738 -719.437 -1994 37 43 44
-77.3028 -719.036 -1993 38 44 45
-73.0633 -717.916 -1990 38 44 45
-68.9409 -717.88 -1990 36 42 42
-64.7865 -717.486 -1989 34 40 39
-60.6367 -717.094 -1988 36 42 41
-56.4632 -716.343 -1986 36 42 41
-52.3512 -716.315 -1986 36 42 41
-48.1424 -714.847 -1982 41 47 46
-43.9506 -713.381 -1978 45 51 50
-39.796 -712.278 -1975 46 54 52
-35.6722 -711.538 -1973 47 55 51
-31.541 -710.439 -1970 44 52 48
-27.4921 -711.146 -1972 45 51 50
-23.3877 -710.412 -1970 45 51 50
-19.3311 -711.122 -1972 49 55 54
-15.2585 -711.474 -1973 50 58 56
-11.2047 -713.271 -1978 51 59 57
-7.12652 -714.708 -1982 51 59 57
-3.0412 -718.312 -1992 53 60 56
-353.626 -731.522 -1995 44 50 51
-347.615 -727.674 -1985 43 49 50
-342.861 -726.396 -1982 42 48 49
-337.951 -724.754 -1978 38 44 45
-333.062 -723.115 -1974 38 44 45
-328.359 -721.846 -1971 45 51 52
-323.836 -720.945 -1969 43 49 50
-318.676 -718.583 -1963 43 49 50
-313.864 -716.956 -1959 43 49 50
-309.072 -715.331 -1955 44 50 50
-304.768 -714.807 -1954 43 51 49
-300.163 -713.554 -1951 45 53 51
-296.18 -713.766 -1952 45 53 51
-292.196 -713.98 -1953 44 52 50
-287.473 -712.369 -1949 44 52 50
-283.496 -712.588 -1950 45 53 51
-279.517 -712.808 -1951 40 48 46
-275.819 -713.761 -1954 41 49 47
-271.833 -713.986 -1955 43 51 49
-268.119 -714.943 -1958 40 48 46
-264.259 -715.537 -1960 40 48 46
-260.128 -715.402 -1960 42 50 48
-256.261 -716 -1962 42 50 48
-251.873 -715.139 -1960 41 49 47
-248.508 -717.2 -1966 42 50 48
-244.249 -716.709 -1965 43 51 49
-241.341 -720.232 -1975 40 48 46
-237.071 -719.745 -1974 39 47 45
-233.634 -721.812 -1980 41 48 48
-230.174 -723.88 -1986 42 48 49
-227.032 -727.043 -1995 42 48 49
-223.743 -729.843 -2003 41 47 48
-219.546 -729.73 -2003 39 45 46
-216.21 -732.533 -2011 39 45 46
-212.421 -733.88 -2015 36 42 43
-208.72 -735.593 -2020 35 41 42
-205.102 -737.673 -2026 37 43 44
-201.163 -738.661 -2029 34 41 41
-197.601 -741.108 -2036 29 37 37
-193.727 -742.464 -2040 31 37 37
-190.488 -746.369 -2051 30 36 35
-187.75 -752.458 -2068 25 31 30
-185.386 -760.367 -2090 81 84 89
-182.498 -766.458 -2107 176 179 185
-177.935 -765.639 -2105 150 155 161
-172.063 -759.003 -2087 61 65 71
-166.268 -752.371 -2069 27 29 36
-160.862 -747.197 -2055 26 28 34
-155.82 -743.481 -2045 28 30 36
-151.34 -742.312 -2042 28 31 37
-146.803 -740.782 -2038 30 33 40
-141.933 -737.437 -2029 27 31 38
-137.305 -735.186 -2023 26 32 37
-132.77 -733.3 -2018 28 34 37
-128.256 -731.417 -2013 29 35 38
-123.641 -728.809 -2006 30 36 39
-119.235 -727.294 -2002 33 39 42
-114.962 -726.508 -2000 36 42 45
-110.642 -725.361 -1997 37 43 44
-106.496 -725.306 -1997 35 41 42
-102.351 -725.253 -1997 35 41 42
-98.2067 -725.202 -1997 39 45 46
-94.1575 -725.88 -1999 40 46 47
-89.9656 -725.47 -1998 39 45 46
-85.8217 -725.425 -1998 38 44 45
-81.4741 -723.567 -1993 38 44 45
-77.2644 -722.801 -1991 39 45 46
-73.0637 -722.036 -1989 39 45 46
-68.9758 -722.364 -1990 35 41 42
-64.7866 -721.604 -1988 33 39 38
-60.6673 -721.572 -1988 34 40 39
-56.4633 -720.453 -1985 35 41 40
-52.2985 -719.7 -1983 35 41 40
-48.1424 -718.949 -1981 39 45 44
-43.9951 -718.199 -1979 42 48 47
-39.8161 -716.726 -1975 45 53 51
-35.6902 -715.982 -1973 46 54 50
-31.5889 -715.602 -1972 44 52 48
-27.506 -715.587 -1972 44 50 49
-23.4113 -715.211 -1971 45 51 50
-19.3604 -716.289 -1974 49 55 54
-15.2739 -716.28 -1974 49 57 55
-11.2215 -718.451 -1980 50 57 55
-7.1373 -719.897 -1984 50 56 55
-3.04886 -724.249 -1996 52 59 55
-354.697 -737.921 -2000 42 48 49
-348.496 -733.679 -1989 42 48 49
-343.385 -731.655 -1984 41 47 48
-338.468 -730.003 -1980 39 45 46
-333.403 -727.985 -1975 40 46 47
-328.529 -726.339 -1971 44 50 51
-323.51 -724.327 -1966 43 49 50
-318.678 -722.687 -1962 44 50 51
-313.866 -721.049 -1958 45 51 52
-308.916 -719.047 -1953 44 50 51
-304.769 -718.887 -1953 43 51 49
-300.78 -719.098 -1954 43 51 49
-296.485 -718.576 -1953 44 52 50
-292.497 -718.791 -1954 44 52 50
-288.064 -717.905 -1952 44 52 50
-284.224 -718.492 -1954 44 52 50
-279.518 -716.876 -1950 41 49 47
-275.961 -718.202 -1954 42 50 48
-271.973 -718.428 -1955 44 52 50
-268.531 -720.126 -1960 43 51 49
-264.53 -720.355 -1961 43 51 49
-260.262 -719.853 -1960 43 51 49
-256.523 -720.821 -1963 42 50 48
-252.26 -720.322 -1962 42 50 48
-248.762 -722.028 -1967 42 50 48
-244.623 -721.901 -1967 43 51 49
-241.465 -724.712 -1975 40 48 46
-237.914 -726.423 -1980 38 46 44
-234.227 -727.768 -1984 40 47 47
-230.524 -729.116 -1988 41 47 48
-227.149 -731.565 -1995 41 47 48
-223.411 -732.916 -1999 41 47 48
-220.316 -736.468 -2009 41 47 48
-216.428 -737.455 -2012 42 48 49
-213.374 -741.376 -2023 38 44 45
-209.654 -743.099 -2028 38 44 45
-205.612 -743.725 -2030 38 44 45
-201.564 -744.354 -2032 33 39 40
-197.994 -746.815 -2039 31 39 39
-193.922 -747.447 -2041 29 36 35
-190.679 -751.376 -2052 30 36 35
-187.574 -756.039 -2065 26 32 31
-185.481 -765.095 -2090 95 98 103
-182.938 -772.688 -2111 175 178 184
-178.618 -772.961 -2112 157 160 167
-172.481 -765.186 -2091 71 74 81
-166.755 -758.878 -2074 34 36 43
-161.257 -753.306 -2059 26 28 34
-156.205 -749.566 -2049 26 29 35
-151.492 -747.292 -2043 29 32 38
-146.877 -745.387 -2038 30 33 40
-142.285 -743.484 -2033 28 32 38
-137.647 -741.219 -2027 27 33 38
-132.903 -738.224 -2019 30 36 39
-128.322 -735.964 -2013 32 38 41
-123.828 -734.071 -2008 33 39 42
-119.356 -732.181 -2003 35 41 44
-115.136 -731.756 -2002 37 43 46
-110.754 -730.236 -1998 36 42 43
-106.604 -730.18 -1998 34 40 41
-102.249 -728.665 -1994 37 43 44
-98.2567 -729.71 -1997 38 44 45
-94.0641 -729.295 -1996 38 44 45
-90.0114 -729.979 -1998 37 43 45
-85.8224 -729.569 -1997 36 42 43
-81.6383 -729.161 -1996 37 43 44
-77.4591 -728.755 -1995 38 44 45
-73.2478 -727.986 -1993 37 43 44
-69.115 -727.949 -1993 36 42 42
-64.9826 -727.915 -1993 34 40 39
-60.8509 -727.883 -1993 31 37 36
-56.5773 -726.027 -1988 33 39 38
-52.3251 -724.173 -1983 36 42 41
-48.1669 -723.417 -1981 40 46 45
-44.0175 -722.663 -1979 42 48 47
-39.8565 -721.546 -1976 42 50 48
-35.7626 -721.527 -1976 43 51 48
-31.637 -720.78 -1974 44 52 48
-27.5339 -720.399 -1973 44 50 49
-23.4351 -720.021 -1972 44 50 49
-19.3506 -720.011 -1972 48 54 53
-15.2816 -720.732 -1974 46 54 50
-11.2104 -721.821 -1977 45 52 50
-7.14451 -724.737 -1985 48 54 53
-3.05016 -728.75 -1996 53 60 56
1.09382 -735.687 -2015 56 62 59
-354.882 -742.493 -2000 42 48 49
-349.029 -738.968 -1991 42 48 49
-343.737 -736.56 -1985 41 47 48
-338.645 -734.526 -1980 42 48 49
-333.746 -732.866 -1976 41 47 48
-328.7 -730.839 -1971 42 48 49
-323.679 -728.814 -1966 44 50 51
-318.844 -727.164 -1962 46 52 53
-314.671 -726.998 -1962 46 52 53
-309.393 -724.241 -1955 46 52 53
-304.772 -722.97 -1952 44 52 50
-300.936 -723.552 -1954 42 50 48
-296.639 -723.026 -1953 41 49 47
-292.649 -723.243 -1954 43 51 49
-288.214 -722.351 -1952 43 51 49
-284.372 -722.942 -1954 44 52 50
-280.093 -722.425 -1953 43 51 49
-276.246 -723.02 -1955 42 50 48
-272.114 -722.877 -1955 41 49 47
-268.533 -724.215 -1959 44 52 50
-264.262 -723.707 -1958 45 53 51
-260.53 -724.679 -1961 44 52 50
-256.656 -725.284 -1963 44 52 50
-252.648 -725.521 -1964 41 49 47
-249.523 -728.346 -1972 42 50 48
-244.999 -727.109 -1969 44 52 50
-241.834 -729.937 -1977 42 50 48
-237.677 -729.813 -1977 40 48 46
-234.702 -733.381 -1987 41 48 48
-230.76 -733.999 -1989 42 48 49
-227.38 -736.463 -1996 43 49 50
-223.638 -737.822 -2000 43 49 50
-220.43 -741.027 -2009 40 46 47
-216.971 -743.495 -2016 42 48 49
-213.167 -744.859 -2020 38 44 45
-209.452 -746.593 -2025 39 45 46
-205.921 -749.066 -2032 39 45 46
-201.866 -749.698 -2034 33 40 40
-197.999 -751.069 -2038 32 40 40
-194.402 -753.547 -2045 30 36 35
-190.963 -756.763 -2054 28 34 33
-188.034 -762.192 -2069 25 31 30
-185.665 -770.199 -2091 100 106 109
-183.293 -778.575 -2114 174 179 184
-179.472 -781.059 -2121 162 165 172
-173.23 -772.867 -2099 79 82 89
-166.921 -763.943 -2075 37 39 46
-161.497 -758.704 -2061 28 30 36
-156.59 -755.677 -2053 29 31 37
-151.57 -751.917 -2043 31 34 40
-147.025 -750.368 -2039 32 35 42
-142.148 -746.981 -2030 30 33 40
-137.65 -745.437 -2026 27 33 38
-133.103 -743.528 -2021 30 36 39
-128.515 -741.253 -2015 33 39 42
-123.953 -738.981 -2009 33 39 42
-119.596 -737.815 -2006 31 37 40
-115.252 -736.651 -2003 32 38 41
-110.866 -735.122 -1999 33 39 40
-106.658 -734.698 -1998 34 40 41
-102.456 -734.276 -1997 36 42 43
-98.3071 -734.225 -1997 37 43 44
-94.1594 -734.175 -1997 37 43 45
-90.0126 -734.128 -1997 36 42 45
-85.8665 -734.083 -1997 34 40 41
-81.7619 -734.407 -1998 34 40 41
-77.5764 -733.999 -1997 35 41 42
-73.4325 -733.96 -1997 35 42 42
-69.3238 -734.291 -1998 35 41 41
-65.179 -734.256 -1998 35 40 39
-60.9736 -733.489 -1996 34 40 39
-56.6917 -731.621 -1991 34 40 39
-52.5103 -730.858 -1989 37 43 42
-48.216 -728.26 -1982 40 46 46
-44.0178 -726.767 -1978 41 47 47
-39.8971 -726.378 -1977 42 50 48
-35.7809 -725.991 -1976 43 51 48
-31.6531 -725.239 -1974 43 51 48
-27.5479 -724.856 -1973 43 51 49
-23.459 -724.843 -1973 43 51 49
-19.3801 -725.2 -1974 46 54 52
-15.3049 -725.925 -1976 44 53 50
-11.2274 -727.021 -1979 43 52 50
-7.15535 -729.955 -1987 44 52 50
-3.0502 -732.891 -1995 52 61 57
1.09272 -739.136 -2012 53 61 58
-356.489 -750.061 -2008 43 49 51
-350.265 -745.766 -1997 44 50 52
-344.611 -742.596 -1989 43 49 51
-339.336 -740.176 -1983 43 49 50
-334.259 -738.132 -1978 41 47 48
-328.706 -734.972 -1970 40 46 47
-323.519 -732.562 -1964 41 47 48
-318.849 -731.275 -1961 45 51 52
-314.194 -729.99 -1958 45 51 52
-309.872 -729.453 -1957 44 50 51
-305.244 -728.173 -1954 44 51 49
-300.94 -727.641 -1953 43 51 49
-296.794 -727.484 -1953 39 47 45
-292.802 -727.702 -1954 40 48 46
-288.512 -727.177 -1953 44 52 50
-284.52 -727.399 -1954 43 51 49
-280.24 -726.879 -1953 43 51 49
-276.39 -727.477 -1955 41 49 47
-272.256 -727.333 -1955 43 51 49
-268.536 -728.308 -1958 45 53 51
-264.535 -728.54 -1959 44 52 50
-260.533 -728.774 -1960 44 52 50
-256.529 -729.011 -1961 44 52 50
-252.522 -729.249 -1962 43 51 49
-249.02 -730.976 -1967 43 51 49
-245.126 -731.591 -1969 44 52 51
-242.45 -735.921 -1981 42 50 49
-238.281 -735.796 -1981 42 50 48
-234.942 -738.272 -1988 42 49 48
-231.112 -739.265 -1991 41 47 47
-227.726 -741.743 -1998 41 47 48
-223.754 -742.368 -2000 40 46 47
-220.874 -746.706 -2012 40 46 47
-217.083 -748.076 -2016 40 46 47
-213.7 -750.932 -2024 36 42 43
-209.768 -751.935 -2027 39 45 46
-206.231 -754.423 -2034 39 45 45
-202.269 -755.429 -2037 33 40 40
-198.685 -757.921 -2044 32 40 40
-194.407 -757.819 -2044 32 39 38
-191.341 -762.538 -2057 30 36 35
-188.495 -768.37 -2073 27 32 32
-186.028 -776.055 -2094 104 110 113
-184.082 -786.336 -2122 170 176 181
-180.665 -790.687 -2134 162 166 173
-174.063 -780.962 -2108 84 87 94
-167.732 -771.982 -2084 35 37 44
-162.129 -765.97 -2068 27 29 36
-156.824 -761.073 -2055 24 27 33
-152.094 -758.77 -2049 29 32 38
-147.318 -756.101 -2042 32 35 41
-142.572 -753.433 -2035 29 32 37
-137.925 -751.139 -2029 27 32 36
-133.304 -748.848 -2023 28 35 38
-128.837 -747.299 -2019 29 36 38
-124.264 -745.013 -2013 31 37 38
-119.837 -743.469 -2009 31 37 38
-115.484 -742.298 -2006 33 39 41
-111.146 -741.129 -2003 36 42 43
-106.82 -739.963 -2000 34 40 41
-102.509 -738.799 -1997 35 41 42
-98.3579 -738.746 -1997 36 42 43
-94.1137 -737.957 -1995 37 44 45
-90.1041 -739.019 -1998 35 43 43
-85.9108 -738.603 -1997 36 41 42
-81.8861 -739.669 -2000 36 41 41
-77.6942 -739.258 -1999 35 41 40
-73.5807 -739.589 -2000 33 41 39
-69.4637 -739.922 -2001 33 40 39
-65.3105 -739.887 -2001 37 42 41
-61.0968 -739.115 -1999 35 41 40
-56.892 -738.345 -1997 34 40 39
-52.5109 -734.989 -1988 38 44 43
-48.338 -734.223 -1986 40 46 46
-44.0626 -731.612 -1979 41 47 48
-39.9378 -731.22 -1978 40 48 46
-35.8356 -731.201 -1978 42 50 48
-31.7176 -730.814 -1977 44 52 50
