ply
format ascii 1.0
comment Created by Open3D
element vertex 1408
property double x
property double y
property double z
property uchar red
property uchar green
property uchar blue
end_header
-198.907 280.842 -1956 37 29 39
-194.761 280.517 -1954 36 28 38
-191.21 281.053 -1958 36 28 34
-187.837 281.877 -1964 33 27 33
-183.785 281.698 -1963 31 27 32
-179.83 281.662 -1963 33 30 33
-176.145 282.058 -1966 32 28 32
-172.363 282.311 -1968 34 30 35
-169.001 283.282 -1975 37 33 38
-164.777 282.819 -1972 38 34 39
-161.301 283.648 -1978 39 35 40
-157.642 284.191 -1982 36 32 37
-153.272 283.444 -1977 31 27 32
-148.544 281.981 -1967 26 22 27
-294.64 286.137 -2014 243 216 206
-288.656 284.234 -2001 246 216 208
-284.151 283.753 -1998 242 212 205
-279.519 283.13 -1994 239 209 202
-275.183 282.793 -1992 238 201 190
-270.857 282.456 -1990 216 180 169
-266.541 282.12 -1988 188 154 143
-261.575 281.076 -1981 134 111 102
-257.55 281.026 -1981 91 71 64
-252.248 279.558 -1971 55 45 46
-247.996 279.226 -1969 45 37 40
-243.63 278.754 -1966 55 48 55
-199.174 277.294 -1959 42 33 43
-194.524 276.265 -1952 39 30 39
-191.076 276.936 -1957 39 30 36
-187.513 277.466 -1961 33 27 33
-183.562 277.43 -1961 29 25 30
-179.246 276.829 -1957 30 27 30
-175.664 277.361 -1961 28 25 28
-172.329 278.318 -1968 31 27 32
-168.883 279.134 -1974 37 33 38
-165.08 279.384 -1976 39 35 40
-161.759 280.484 -1984 37 33 38
-158.169 281.16 -1989 34 30 35
-153.552 280 -1981 32 28 33
-149.044 278.982 -1974 28 24 29
-293.267 280.773 -2005 250 222 211
-287.88 279.458 -1996 244 214 205
-283.243 278.843 -1992 242 212 204
-278.765 278.37 -1989 242 212 204
-274.578 278.177 -1988 240 206 198
-270.533 278.125 -1988 226 191 182
-265.954 277.515 -1984 205 169 158
-261.525 277.045 -1981 163 132 121
-257.501 276.996 -1981 124 94 83
-252.712 276.108 -1975 79 63 62
-248.452 275.781 -1973 50 38 39
-244.822 276.154 -1976 46 39 44
-199.644 274.015 -1964 48 36 46
-195.184 273.28 -1959 44 33 42
-191.43 273.522 -1961 41 30 37
-187.573 273.626 -1962 35 28 34
-183.34 273.173 -1959 31 27 32
-178.845 272.302 -1953 31 28 31
-175.272 272.826 -1957 29 25 29
-172.034 273.909 -1965 28 24 29
-168.766 274.992 -1973 32 28 33
-165.383 275.936 -1980 35 31 36
-162.38 277.577 -1992 35 31 36
-158.775 278.243 -1997 34 30 35
-292.627 276.138 -2001 249 221 209
-287.249 274.842 -1992 247 217 208
-283.047 274.65 -1991 243 213 204
-278.292 273.908 -1986 241 211 202
-274.249 273.856 -1986 244 213 207
-270.481 274.081 -1988 237 204 197
-266.44 274.031 -1988 225 190 178
-262.136 273.705 -1986 192 157 144
-258.362 273.932 -1988 156 121 107
-253.943 273.471 -1985 109 88 83
-249.538 273.011 -1982 70 54 51
-245.643 273.102 -1983 49 40 41
-241.38 272.781 -1981 34 30 33
-204.087 270.756 -1969 62 53 60
-199.607 270.031 -1964 57 45 52
-195.347 269.581 -1961 47 35 42
-191.492 269.683 -1962 41 30 36
-187.634 269.785 -1963 36 30 35
-184.054 270.3 -1967 32 28 32
-179.636 269.579 -1962 32 29 32
-175.866 269.821 -1964 31 28 31
-172.44 270.613 -1970 28 24 28
-168.563 270.718 -1971 27 23 28
-164.767 270.962 -1973 28 24 29
-161.779 272.58 -1985 31 27 32
-157.632 272.275 -1983 33 29 34
-298.729 274.024 -2015 188 161 149
-291.987 271.522 -1997 218 190 178
-286.907 270.516 -1990 237 208 196
-282.284 269.92 -1986 241 211 201
-277.68 269.325 -1982 245 215 206
-273.922 269.546 -1984 246 218 212
-269.887 269.495 -1984 242 213 206
-265.988 269.582 -1985 239 206 195
-262.087 269.669 -1986 217 180 164
-258.184 269.757 -1987 186 148 131
-253.768 269.302 -1984 142 115 105
-249.618 269.12 -1983 95 75 67
-244.978 268.396 -1978 59 48 44
-239.508 266.723 -1966 43 40 37
-234.568 265.594 -1958 39 36 35
-204.153 266.898 -1970 48 37 42
-199.57 266.048 -1964 53 39 45
-195.211 265.47 -1960 48 34 39
-191.359 265.57 -1961 40 29 34
-186.739 264.588 -1954 35 28 32
-182.991 264.825 -1956 29 25 28
-178.504 263.979 -1950 30 27 30
-175.117 264.759 -1956 35 32 35
-171.445 265.133 -1959 33 29 32
-168.361 266.456 -1969 27 23 27
-164.57 266.696 -1971 25 21 26
-161.75 268.56 -1985 29 25 30
-157.285 267.719 -1979 31 27 32
-298.23 269.522 -2012 188 164 153
-291.495 267.058 -1994 204 177 166
-286.566 266.201 -1988 226 194 181
-281.948 265.614 -1984 238 207 196
-277.489 265.162 -1981 243 213 203
-273.734 265.379 -1983 241 216 209
-269.838 265.464 -1984 244 218 210
-265.805 265.415 -1984 243 214 204
-262.171 265.768 -1987 235 200 185
-257.877 265.454 -1985 208 171 154
-253.466 265.006 -1982 163 134 122
-248.943 264.425 -1978 114 91 82
-244.314 263.712 -1973 79 64 58
-239.586 262.867 -1967 59 53 50
-234.405 261.487 -1957 49 44 42
-204.53 263.439 -1974 60 51 55
-199.94 262.602 -1968 48 37 42
-195.674 262.166 -1965 44 33 38
-191.617 261.998 -1964 40 29 34
-186.705 260.63 -1954 36 28 32
-182.677 260.463 -1953 29 24 27
-178.38 259.897 -1949 30 26 29
-174.548 259.998 -1950 34 30 33
-170.976 260.5 -1954 34 30 33
-168.245 262.336 -1968 32 28 32
-164.957 263.373 -1976 29 25 29
-162.046 265.076 -1989 27 23 27
-157.336 263.847 -1980 29 25 29
-298.62 265.827 -2015 191 168 158
-291.881 263.399 -1997 217 192 180
-286.658 262.292 -1989 234 201 184
-282.181 261.846 -1986 241 209 195
-277.439 261.137 -1981 246 215 203
-273.685 261.351 -1983 242 218 208
-269.789 261.434 -1984 245 220 210
-265.891 261.518 -1985 245 218 208
-261.596 261.207 -1983 243 212 196
-257.831 261.424 -1985 227 194 178
-253.548 261.115 -1983 185 157 143
-249.15 260.675 -1980 133 109 98
-245.013 260.499 -1979 91 72 65
-240.639 260.061 -1976 63 54 51
-236.16 259.492 -1972 53 46 45
-231.816 259.056 -1969 49 41 48
-227.139 258.225 -1963 45 36 44
-213.213 260.435 -1981 62 54 59
-209.109 260.266 -1980 61 53 57
-204.39 259.309 -1973 65 57 61
-199.599 258.222 -1965 55 47 50
-195.44 257.924 -1963 42 34 37
-191.582 258.021 -1964 38 27 32
-186.672 256.674 -1954 34 26 30
-183.018 257.035 -1957 29 22 26
-178.623 256.346 -1952 30 26 29
-174.696 256.315 -1952 34 30 33
-170.683 256.153 -1951 33 29 32
-167.787 257.698 -1963 30 26 29
-164.176 258.194 -1967 29 25 28
-299.012 262.121 -2018 179 158 148
-292.121 259.601 -1999 199 174 163
-286.896 258.511 -1991 224 190 171
-282.415 258.072 -1988 237 205 189
-277.669 257.373 -1983 244 214 200
-273.636 257.325 -1983 244 218 205
-269.605 257.277 -1983 246 220 207
-265.844 257.489 -1985 246 219 208
-261.682 257.313 -1984 246 217 203
-257.785 257.397 -1985 237 207 193
-253.503 257.093 -1983 198 171 158
-249.231 256.789 -1981 149 124 114
-244.846 256.357 -1978 111 88 82
-240.597 256.055 -1976 76 65 64
-236.238 255.624 -1973 50 41 41
-232.716 256.101 -1977 45 38 46
-228.487 255.802 -1975 47 39 48
-225.177 256.539 -1981 50 40 50
-221.621 257.018 -1985 58 48 53
-217.722 257.109 -1986 67 57 61
-213.605 256.941 -1985 80 69 74
-209.389 256.645 -1983 84 75 79
-204.665 255.703 -1976 80 72 76
-199.97 254.762 -1969 66 58 60
-195.803 254.468 -1967 54 45 48
-191.451 253.917 -1963 41 30 35
-186.734 252.849 -1955 35 26 31
-183.08 253.205 -1958 32 25 29
-178.866 252.785 -1955 29 25 28
-174.755 252.496 -1953 32 28 31
-170.653 252.207 -1951 31 27 30
-168.099 254.246 -1967 30 26 29
-298.959 258.022 -2018 171 149 139
-291.632 255.158 -1996 187 162 149
-286.413 254.085 -1988 211 177 157
-281.94 253.653 -1985 224 193 177
-277.481 253.221 -1982 242 212 197
-273.726 253.428 -1984 246 218 204
-269.83 253.509 -1985 248 220 206
-265.664 253.335 -1984 251 222 210
-261.504 253.161 -1983 251 223 211
-257.221 252.861 -1981 245 217 205
-253.331 252.945 -1982 207 180 170
-248.811 252.391 -1978 161 134 126
-244.803 252.348 -1978 120 94 87
-241.163 252.689 -1981 96 79 79
-237.034 252.52 -1980 72 56 57
-233.5 252.989 -1984 52 41 46
-229.72 253.204 -1986 48 35 40
-225.933 253.42 -1988 54 38 44
-221.806 253.253 -1987 68 51 51
-217.794 253.216 -1987 87 70 70
-213.353 252.669 -1983 103 85 85
-209.036 252.25 -1980 95 79 79
-204.422 251.45 -1974 79 65 64
-199.631 250.396 -1966 70 57 56
-195.371 249.98 -1963 64 52 52
-191.613 250.201 -1965 48 37 41
-186.988 249.277 -1958 34 26 30
-183.048 249.246 -1958 31 24 28
-179.201 249.342 -1959 29 24 27
-175.082 249.057 -1957 29 24 27
-170.711 248.39 -1952 32 28 31
-299.056 254.051 -2019 143 120 107
-291.581 251.107 -1996 174 148 133
-286.076 249.799 -1986 200 166 146
-281.891 249.625 -1985 223 191 175
-277.573 249.326 -1983 239 208 194
-273.403 249.153 -1982 247 218 204
-269.648 249.358 -1984 250 221 208
-265.484 249.187 -1983 253 222 211
-261.591 249.267 -1984 250 222 214
-257.696 249.349 -1985 243 216 208
-253.671 249.305 -1985 213 186 178
-249.019 248.634 -1980 175 146 139
-245.256 248.843 -1982 139 109 102
-241.852 249.43 -1987 105 82 82
-237.831 249.389 -1987 85 63 64
-233.695 249.223 -1986 64 49 50
-229.911 249.435 -1988 78 59 58
-226.122 249.647 -1990 87 65 63
-221.656 249.107 -1986 82 56 50
-217.537 248.944 -1985 109 83 76
-213.639 249.033 -1986 102 74 67
-208.895 248.119 -1979 82 57 51
-204.491 247.583 -1975 72 50 44
-199.901 246.796 -1969 68 49 45
-195.537 246.262 -1965 72 56 54
-191.19 245.728 -1961 65 55 57
-187.052 245.445 -1959 42 34 38
-183.391 245.789 -1962 34 27 31
-179.536 245.884 -1963 33 26 30
-175.41 245.603 -1961 30 24 27
-171.644 245.824 -1963 29 25 28
-291.532 247.057 -1996 153 126 110
-286.027 245.771 -1986 205 172 151
-281.417 245.228 -1982 235 203 188
-277.246 245.058 -1981 245 214 201
-272.943 244.764 -1979 248 220 207
-269.738 245.46 -1985 252 223 210
-265.707 245.416 -1985 255 223 211
-261.547 245.248 -1984 251 221 214
-257.263 244.957 -1982 246 216 210
-253.373 245.038 -1983 222 192 186
-249.229 244.872 -1982 193 161 154
-245.339 244.954 -1983 164 131 123
-241.568 245.16 -1985 140 111 110
-237.672 245.244 -1986 134 106 105
-233.538 245.081 -1985 137 114 109
-229.526 245.042 -1985 126 97 88
-225.516 245.004 -1985 113 79 67
-221.396 244.843 -1984 138 97 83
-217.391 244.807 -1984 152 111 97
-213.496 244.894 -1985 127 86 72
-208.859 244.119 -1979 105 68 54
-204.767 243.961 -1978 98 64 51
-199.969 242.94 -1970 74 48 41
-195.603 242.414 -1966 62 41 36
-191.45 242.135 -1964 58 48 50
-187.498 242.103 -1964 43 35 39
-183.36 241.826 -1962 34 27 31
-179.78 242.289 -1966 33 26 30
-175.917 242.382 -1967 31 25 28
-172.227 242.723 -1970 30 25 27
-298.659 245.616 -2017 160 136 122
-291.191 242.766 -1994 198 173 158
-285.979 241.745 -1986 233 205 187
-281.512 241.333 -1983 247 218 205
-277.2 241.043 -1981 252 221 211
-273.036 240.876 -1980 248 221 210
-269.421 241.196 -1983 252 223 212
-265.261 241.03 -1982 253 221 210
-261.503 241.23 -1984 250 220 213
-256.961 240.701 -1980 247 217 211
-253.203 240.902 -1982 232 201 194
-248.936 240.618 -1980 216 183 175
-245.174 240.82 -1982 207 172 163
-241.041 240.658 -1981 196 162 157
-237.034 240.619 -1981 174 141 135
-233.146 240.702 -1982 148 118 108
-229.025 240.542 -1981 148 111 96
-225.137 240.626 -1982 163 121 103
-221.247 240.711 -1983 178 127 107
-217.136 240.554 -1982 177 126 105
-213.568 241.004 -1986 151 101 79
-208.93 240.241 -1980 152 105 84
-204.94 240.207 -1980 158 112 93
-200.545 239.688 -1976 105 70 58
-196.367 239.413 -1974 71 43 34
-192.198 239.139 -1972 55 38 37
-188.135 238.986 -1971 46 34 35
-183.703 238.35 -1966 39 29 31
-179.842 238.441 -1967 33 26 29
-175.888 238.412 -1967 32 25 28
-172.548 239.232 -1974 34 27 30
-297.426 240.569 -2009 206 184 174
-290.413 238.126 -1989 233 212 203
-285.357 237.242 -1982 243 224 215
-281.182 237.076 -1981 251 224 217
-277.294 237.15 -1982 253 223 217
-273.267 237.105 -1982 250 223 213
-269.377 237.181 -1983 251 224 214
-265.352 237.137 -1983 252 224 215
-260.802 236.617 -1979 253 223 215
-256.659 236.455 -1978 253 223 214
-252.395 236.175 -1976 252 219 209
-248.267 236.015 -1975 234 200 189
-244.639 236.333 -1978 198 163 151
-241.245 236.891 -1983 188 151 140
-237.115 236.733 -1982 184 147 136
-232.991 236.576 -1981 181 144 131
-228.988 236.538 -1981 188 146 129
-225.214 236.74 -1983 187 142 123
-221.434 236.943 -1985 195 139 117
-217.429 236.907 -1985 187 132 108
-213.533 236.992 -1986 159 104 76
-209.002 236.361 -1981 159 104 77
-204.906 236.208 -1980 196 141 115
-200.512 235.698 -1976 157 115 94
-196.235 235.309 -1973 117 78 61
-192.362 235.397 -1974 75 46 37
-188.677 235.724 -1977 56 37 33
-184.421 235.336 -1974 49 34 31
-180.452 235.306 -1974 37 31 33
-176.664 235.516 -1976 34 28 30
-173.045 235.965 -1980 37 30 34
-296.194 235.556 -2001 229 209 203
-290.367 234.097 -1989 241 222 215
-285.455 233.345 -1983 245 229 221
-281.421 233.3 -1983 250 225 219
-277.529 233.373 -1984 251 224 218
-273.223 233.093 -1982 251 224 214
-269.334 233.168 -1983 251 224 215
-265.042 232.89 -1981 251 224 216
-260.364 232.26 -1976 254 230 221
-255.969 231.867 -1973 252 228 219
-252.227 232.061 -1975 229 198 187
-248.101 231.904 -1974 202 169 158
-244.229 231.982 -1975 197 162 151
-240.72 232.413 -1979 201 165 154
-236.598 232.258 -1978 202 166 154
-232.365 231.986 -1976 206 168 154
-228.605 232.184 -1978 205 163 145
-224.497 232.03 -1977 207 163 143
-220.841 232.347 -1980 211 156 133
-216.956 232.43 -1981 200 145 121
-213.176 232.63 -1983 183 127 98
-208.757 232.128 -1979 176 119 91
-205.184 232.564 -1983 224 167 140
-200.886 232.18 -1980 206 160 138
-196.9 232.148 -1980 174 132 113
-193.013 232.235 -1981 112 78 65
-189.315 232.556 -1984 66 43 36
-185.139 232.292 -1982 52 32 27
-181.155 232.263 -1982 44 35 35
-176.815 231.766 -1978 38 31 33
-173.279 232.324 -1983 31 25 30
-301.424 232.477 -2009 192 184 183
-295.407 230.926 -1996 231 214 211
-290.175 229.954 -1988 244 229 224
-285.409 229.331 -1983 254 240 232
-281.235 229.17 -1982 252 230 224
-276.926 228.895 -1980 242 217 211
-273.455 229.315 -1984 247 221 211
-269.02 228.925 -1981 252 226 217
-265 228.884 -1981 249 225 217
-260.455 228.38 -1977 238 209 200
-256.058 227.993 -1974 223 193 184
-252.187 228.069 -1975 221 190 179
-247.936 227.799 -1973 220 187 176
-244.067 227.876 -1974 218 183 173
-240.56 228.3 -1978 223 188 176
-236.8 228.493 -1980 217 182 169
-232.564 228.226 -1978 210 174 158
-228.569 228.19 -1978 213 173 155
-224.689 228.27 -1979 219 177 157
-220.583 228.119 -1978 222 169 146
-216.813 228.316 -1980 152 98 73
-213.143 228.628 -1983 165 109 80
-208.936 228.365 -1981 209 153 125
-204.738 228.102 -1979 235 178 151
-200.753 228.07 -1979 216 167 146
-197.267 228.616 -1984 176 131 112
-193.373 228.7 -1985 113 75 59
-189.38 228.671 -1985 82 55 44
-185.39 228.641 -1985 69 45 35
-181.583 228.843 -1987 49 38 35
-177.413 228.585 -1985 38 29 30
-173.689 228.903 -1988 31 27 32
-170.808 230.373 -2001 28 24 28
-306.688 229.366 -2017 193 190 191
-300.027 227.386 -2000 226 221 221
-294.621 226.317 -1991 241 233 233
-289.838 225.703 -1986 243 235 233
-285.509 225.432 -1984 249 241 234
-281.616 225.502 -1985 251 233 226
-277.303 225.231 -1983 242 221 214
-273.413 225.302 -1984 246 220 210
-269.249 225.147 -1983 235 209 200
-265.226 225.106 -1983 224 197 189
-260.678 224.611 -1979 224 194 186
-256.278 224.231 -1976 231 201 192
-252.276 224.192 -1976 232 201 190
-248.149 224.04 -1975 226 195 184
-244.276 224.116 -1976 223 191 182
-240.401 224.192 -1977 230 198 185
-236.644 224.382 -1979 225 193 179
-232.41 224.119 -1977 216 182 166
-228.533 224.197 -1978 216 178 160
-224.54 224.163 -1978 217 177 157
-220.438 224.015 -1977 206 157 132
-216.013 223.528 -1973 163 112 87
-212.573 224.062 -1978 198 142 114
-208.481 223.916 -1977 224 167 140
-204.81 224.225 -1980 239 182 155
-201.128 224.533 -1983 218 165 143
-197.336 224.729 -1985 151 103 81
-193.44 224.812 -1986 119 77 57
-189.828 225.236 -1990 105 72 58
-185.641 224.981 -1988 93 63 51
-181.647 224.953 -1988 65 47 43
-177.564 224.812 -1987 43 31 30
-173.749 225.012 -1989 31 25 30
-170.525 226.003 -1998 28 24 27
-312.141 226.335 -2026 204 210 216
-305.729 224.613 -2011 211 213 217
-299.531 223.003 -1997 223 225 228
-294.428 222.177 -1990 226 228 230
-289.647 221.574 -1985 229 230 229
-285.178 221.196 -1982 238 236 231
-281.573 221.488 -1985 244 230 223
-277.54 221.445 -1985 223 206 198
-273.233 221.181 -1983 214 190 179
-269.344 221.251 -1984 213 188 178
-265.186 221.099 -1983 220 194 186
-260.638 220.614 -1979 228 200 190
-256.498 220.463 -1978 226 197 187
-252.492 220.425 -1978 227 196 185
-248.237 220.164 -1976 228 197 187
-244.486 220.349 -1978 227 197 188
-240.608 220.424 -1979 231 202 188
-236.847 220.611 -1981 228 198 184
-232.61 220.353 -1979 221 188 173
-228.614 220.318 -1979 215 178 161
-224.847 220.507 -1981 209 169 150
-220.516 220.139 -1978 188 141 117
-216.637 220.218 -1979 228 181 156
-212.433 219.963 -1977 248 199 172
-208.45 219.931 -1977 247 196 170
-204.986 220.456 -1982 248 191 165
-200.894 220.314 -1981 184 129 107
-197.306 220.729 -1985 135 84 62
-193.606 221.033 -1988 133 88 65
-189.799 221.227 -1990 124 88 70
-185.893 221.31 -1991 112 78 62
-181.984 221.393 -1992 83 62 54
-177.895 221.255 -1991 56 40 36
-173.898 221.229 -1991 36 27 29
-170.329 221.759 -1996 28 23 25
-102.377 230.27 -2076 20 21 28
-318.413 223.818 -2040 229 243 248
-311.632 221.906 -2023 210 224 230
-305.227 220.215 -2008 212 224 230
-299.336 218.854 -1996 216 228 234
-294.383 218.152 -1990 213 227 230
-289.896 217.78 -1987 206 218 218
-285.854 217.737 -1987 211 218 213
-281.957 217.804 -1988 220 211 205
-277.638 217.544 -1986 192 179 172
-273.468 217.393 -1985 209 186 175
-269.439 217.353 -1985 217 193 183
-265.146 217.094 -1983 219 194 186
-260.863 216.836 -1981 220 193 181
-256.849 216.798 -1981 222 194 183
-252.965 216.87 -1982 227 196 185
-248.577 216.504 -1979 228 199 189
-244.697 216.577 -1980 228 201 191
-240.815 216.65 -1981 236 207 193
-236.812 216.615 -1981 235 205 191
-232.693 216.471 -1980 225 195 180
-228.811 216.546 -1981 219 183 166
-224.813 216.513 -1981 208 170 151
-220.26 215.933 -1976 216 172 148
-216.167 215.792 -1975 246 201 177
-212.294 215.869 -1976 255 204 179
-208.735 216.275 -1980 244 188 164
-204.852 216.354 -1981 195 137 113
-201.372 216.87 -1986 155 100 77
-197.773 217.277 -1990 143 91 67
-193.771 217.248 -1990 142 96 69
-189.676 217.111 -1989 138 99 79
-185.679 217.083 -1989 130 92 74
-181.775 217.165 -1990 102 76 64
-177.779 217.139 -1990 66 47 39
-173.872 217.222 -1991 38 28 24
-170.474 217.96 -1998 26 19 22
-166.633 218.153 -2000 27 20 24
-104.916 222.738 -2045 25 24 31
-100.882 222.832 -2046 35 34 42
-97.0345 223.362 -2051 49 49 57
-317.742 219.26 -2036 221 242 249
-311.74 217.922 -2024 198 220 227
-305.486 216.37 -2010 182 206 214
-299.442 214.926 -1997 185 210 218
-294.636 214.345 -1992 187 215 216
-290.145 213.979 -1989 192 216 217
-285.956 213.83 -1988 197 216 215
-281.773 213.681 -1987 210 208 204
-277.877 213.747 -1988 188 181 176
-273.565 213.492 -1986 206 184 174
-269.4 213.345 -1985 213 190 181
-264.973 212.984 -1982 216 191 183
-260.693 212.731 -1980 220 193 181
-256.552 212.585 -1979 224 197 185
-252.928 212.871 -1982 228 198 187
-248.666 212.619 -1980 225 198 187
-244.908 212.798 -1982 229 203 192
-241.023 212.87 -1983 230 202 189
-236.897 212.728 -1982 233 204 191
-232.894 212.694 -1982 227 196 183
-229.124 212.875 -1984 224 188 171
-224.894 212.628 -1982 221 183 164
-220.785 212.488 -1981 221 179 155
-216.573 212.242 -1979 227 182 158
-212.8 212.425 -1981 217 165 140
-208.915 212.502 -1982 182 127 102
-205.339 212.9 -1986 159 104 79
-201.545 213.085 -1988 159 103 79
-197.744 213.271 -1990 158 104 78
-193.743 213.242 -1990 155 106 75
-189.839 213.322 -1991 148 105 82
-185.838 213.295 -1991 140 99 77
-181.748 213.161 -1990 110 81 67
-178.021 213.456 -1993 75 52 43
-174.108 213.538 -1994 44 30 26
-170.705 214.262 -2001 27 21 24
-166.525 214.024 -1999 26 21 24
-104.336 217.455 -2034 30 29 36
-100.572 218.082 -2040 36 35 43
-96.642 218.388 -2043 42 41 49
-92.837 219.016 -2049 46 48 54
-317.228 214.826 -2033 199 228 234
-311.541 213.724 -2023 167 199 206
-305.138 212.095 -2008 158 195 204
-299.098 210.679 -1995 173 212 222
-294.593 210.32 -1992 174 216 217
-289.957 209.855 -1988 181 218 219
-285.771 209.709 -1987 183 214 216
-282.3 210.09 -1991 206 213 210
-277.976 209.839 -1989 182 183 180
-273.526 209.483 -1986 203 182 173
-269.361 209.339 -1985 208 186 177
-265.069 209.09 -1983 214 191 182
-260.523 208.63 -1979 222 196 184
-256.774 208.804 -1981 224 197 185
-252.509 208.557 -1979 227 198 186
-248.505 208.521 -1979 225 199 187
-244.749 208.697 -1981 227 202 189
-240.988 208.873 -1983 230 203 191
-236.863 208.734 -1982 231 203 191
-233.213 209.016 -1985 229 197 184
-229.091 208.878 -1984 225 191 173
-224.975 208.74 -1983 229 193 173
-220.642 208.393 -1980 215 175 152
-216.87 208.572 -1982 200 156 133
-213.091 208.752 -1984 182 131 107
-209.518 209.143 -1988 169 116 91
-205.826 209.429 -1991 169 116 90
-202.225 209.82 -1995 172 117 92
-198.114 209.687 -1994 170 116 88
-194.007 209.554 -1993 168 117 84
-190.002 209.527 -1993 160 114 88
-185.998 209.5 -1993 149 105 81
-181.905 209.369 -1992 121 90 75
-178.174 209.658 -1995 89 65 54
-174.258 209.738 -1996 58 42 36
-170.425 209.924 -1998 28 22 24
-166.252 209.69 -1996 22 18 21
-108.329 213.282 -2033 31 30 37
-104.219 213.162 -2032 31 30 37
-100.508 213.882 -2039 31 30 38
-96.439 213.868 -2039 26 25 33
-92.4613 214.065 -2041 30 32 38
-88.9961 215.52 -2055 35 37 44
-316.714 210.405 -2030 200 237 242
-311.035 209.325 -2020 158 199 205
-305.247 208.142 -2009 145 193 201
-299.356 206.856 -1997 150 199 207
-295.143 206.711 -1996 152 202 204
-290.499 206.255 -1992 156 201 204
-286.018 205.904 -1989 168 206 212
-282.401 206.175 -1992 195 212 213
-277.937 205.825 -1989 185 196 195
-273.9 205.786 -1989 200 179 170
-269.594 205.541 -1987 206 184 175
-265.031 205.09 -1983 214 191 182
-260.355 204.536 -1978 219 195 182
-256.479 204.603 -1979 220 195 182
-252.09 204.258 -1976 224 197 185
-248.218 204.326 -1977 224 197 185
-244.715 204.705 -1981 223 196 184
-240.954 204.877 -1983 225 197 185
-236.949 204.844 -1983 224 194 182
-233.18 205.018 -1985 223 190 177
-229.289 205.089 -1986 209 175 157
-225.17 204.954 -1985 195 159 139
-221.279 205.026 -1986 188 148 124
-217.277 204.995 -1986 182 139 115
-213.384 205.068 -1987 176 128 104
-209.804 205.452 -1991 180 129 104
-206.107 205.732 -1994 180 129 103
-201.792 205.394 -1991 179 126 99
-198.284 205.882 -1996 178 126 96
-194.077 205.649 -1994 177 126 92
-189.975 205.519 -1993 167 120 94
-186.159 205.699 -1995 151 106 82
-182.244 205.776 -1996 126 91 76
-178.328 205.854 -1997 97 70 59
-174.321 205.83 -1997 65 49 42
-170.657 206.218 -2001 31 26 28
-166.312 205.782 -1997 24 20 23
-112.981 210.35 -2044 29 28 35
-108.527 209.614 -2037 25 24 31
-104.307 209.291 -2034 22 21 28
-100.396 209.585 -2037 25 24 32
-96.2364 209.366 -2035 27 26 34
-92.5844 210.279 -2044 29 29 37
-89.3301 212.221 -2063 32 32 40
-323.815 208.279 -2049 215 254 255
-316.046 205.897 -2026 194 237 241
-310.837 205.143 -2019 145 192 198
-304.9 203.881 -2007 131 184 191
-299.314 202.823 -1997 140 194 202
-294.954 202.579 -1995 146 202 205
-290.313 202.133 -1991 152 202 207
-285.978 201.89 -1989 160 201 210
-282.221 202.054 -1991 181 206 209
-277.898 201.813 -1989 186 204 206
-274 201.876 -1990 200 179 170
-269.557 201.534 -1987 206 184 175
-265.395 201.396 -1986 213 190 181
-260.714 200.853 -1981 216 192 179
-256.832 200.919 -1982 218 193 180
-252.31 200.479 -1978 220 193 181
-248.56 200.647 -1980 220 193 181
-244.558 200.613 -1980 216 188 177
-241.042 200.985 -1984 217 187 176
-237.274 201.155 -1986 218 187 175
-233.265 201.122 -1986 215 181 168
-229.258 201.091 -1986 195 159 141
-225.479 201.262 -1988 185 148 129
-221.36 201.13 -1987 194 154 129
-217.794 201.505 -1991 189 148 124
-213.569 201.273 -1989 186 143 117
-209.986 201.649 -1993 190 143 117
-205.975 201.621 -1993 182 134 108
-202.27 201.896 -1996 181 131 103
-198.257 201.869 -1996 183 134 103
-194.343 201.943 -1997 184 135 102
-190.235 201.816 -1996 176 130 103
-186.133 201.689 -1995 157 112 87
-182.402 201.967 -1998 132 94 78
-178.482 202.044 -1999 103 75 62
-174.559 202.121 -2000 71 53 44
-171.059 202.703 -2006 36 31 33
-167.288 202.983 -2009 26 22 25
-112.965 206.25 -2044 26 25 32
-108.405 205.327 -2035 27 26 33
-104.446 205.514 -2037 27 26 33
-100.382 205.5 -2037 30 29 36
-96.2232 205.285 -2035 40 39 46
-92.2999 205.575 -2038 37 35 43
-89.1447 207.681 -2059 34 33 40
-323.455 203.94 -2047 208 252 254
-315.691 201.606 -2024 186 232 237
-310.487 200.866 -2017 137 187 194
-304.707 199.729 -2006 126 180 187
-299.423 198.892 -1998 144 199 205
-294.766 198.454 -1994 142 201 205
-290.273 198.116 -1991 157 209 216
-285.795 197.778 -1988 165 208 219
-281.615 197.641 -1987 172 204 210
-277.721 197.703 -1988 178 203 207
-273.549 197.566 -1987 202 181 172
-269.656 197.629 -1988 206 184 175
-265.493 197.493 -1987 213 190 181
-260.81 196.961 -1982 215 191 178
-256.927 197.025 -1983 217 193 180
-252.659 196.792 -1981 218 191 179
-248.652 196.759 -1981 219 190 180
-244.648 196.726 -1981 217 187 178
-240.888 196.892 -1983 210 179 168
-236.525 196.562 -1980 210 178 167
-232.998 196.927 -1984 209 174 162
-229.342 197.194 -1987 220 182 166
-225.562 197.362 -1989 215 177 158
-221.664 197.431 -1990 195 155 132
-217.874 197.6 -1992 192 152 128
-213.862 197.571 -1992 190 150 124
-210.168 197.84 -1995 195 150 125
-205.948 197.614 -1993 184 138 113
-202.344 197.983 -1997 185 138 109
-198.33 197.956 -1997 188 142 113
-194.608 198.227 -2000 187 141 112
-190.686 198.301 -2001 177 131 105
-186.761 198.375 -2002 157 112 87
-183.199 198.845 -2007 138 98 80
-179.082 198.722 -2006 110 80 65
-174.971 198.599 -2005 75 56 45
-171.463 199.17 -2011 39 34 36
-168.181 200.039 -2020 25 21 24
-114.442 204.822 -2071 58 57 64
-109.936 204.114 -2064 37 36 43
-105.509 203.507 -2058 23 22 29
-101.107 202.9 -2052 27 26 33
-96.6358 202.095 -2044 40 39 46
-92.6497 202.281 -2046 41 38 46
-89.1761 203.652 -2060 36 34 42
-85.1929 203.937 -2063 31 30 37
-315.181 197.227 -2021 192 242 247
-309.676 196.307 -2012 144 198 205
-303.755 195.096 -2000 122 176 181
-298.934 194.568 -1995 149 203 208
-294.283 194.139 -1991 149 208 215
-289.943 193.905 -1989 159 210 219
-285.47 193.575 -1986 171 213 224
-281.719 193.732 -1988 171 207 214
-277.684 193.695 -1988 186 214 219
-273.513 193.562 -1987 209 189 179
-269.755 193.721 -1989 203 182 173
-265.591 193.588 -1988 208 187 178
-261.301 193.358 -1986 213 189 176
-257.022 193.129 -1984 216 191 179
-252.753 192.901 -1982 216 189 177
-248.745 192.868 -1982 213 184 175
-244.739 192.836 -1982 214 184 176
-240.735 192.804 -1982 207 175 164
-236.494 192.578 -1980 208 175 163
-233.202 193.13 -1986 232 195 183
-229.312 193.197 -1987 240 200 184
-225.759 193.556 -1991 205 165 147
-222.08 193.818 -1994 201 160 137
-218.391 194.081 -1997 199 159 135
-214.156 193.858 -1995 196 159 133
-210.456 194.122 -1998 195 152 127
-206.127 193.803 -1995 184 139 114
-202.318 193.971 -1997 193 148 117
-198.303 193.944 -1997 194 150 121
-194.68 194.307 -2001 187 145 118
-190.375 193.99 -1998 174 129 105
-186.643 194.257 -2001 159 115 91
-183.083 194.718 -2006 147 106 86
-178.88 194.5 -2004 118 87 71
-174.948 194.574 -2005 81 60 48
-171.44 195.134 -2011 41 35 37
-168.325 196.179 -2022 25 21 24
-163.543 195.284 -2013 18 14 17
-111.519 202.884 -2094 48 47 54
-106.725 201.707 -2082 23 22 29
-101.39 199.369 -2058 26 25 33
-96.7649 198.29 -2047 28 27 34
-92.5923 198.084 -2045 35 32 39
-89.1209 199.428 -2059 39 37 44
-85.0991 199.611 -2061 33 32 39
-81.8165 201.634 -2082 23 22 29
-322.579 195.197 -2042 196 246 249
-314.516 192.766 -2017 193 245 250
-308.866 191.77 -2007 158 214 222
-303.108 190.679 -1996 125 180 184
-298.894 190.545 -1995 151 206 210
-294.54 190.315 -1993 153 212 219
-289.905 189.896 -1989 159 210 219
-285.001 189.286 -1983 171 213 224
-281.257 189.44 -1985 172 211 217
-277.089 189.308 -1984 192 223 227
-273.752 189.75 -1989 216 200 192
-269.72 189.715 -1989 201 182 172
-265.556 189.585 -1988 204 182 172
-261.53 189.551 -1988 211 187 174
-257.118 189.231 -1985 212 188 175
-252.72 188.912 -1982 213 187 174
-248.838 188.975 -1983 213 185 175
-244.583 188.753 -1981 208 178 169
-240.339 188.531 -1979 207 175 163
-236.702 188.786 -1982 230 197 184
-233.172 189.137 -1986 239 203 189
-229.397 189.297 -1988 217 177 161
-225.616 189.458 -1990 206 165 149
-221.829 189.62 -1992 207 165 142
-217.926 189.687 -1993 201 161 137
-214.02 189.754 -1994 198 161 135
-210.324 190.013 -1997 197 156 130
-206.203 189.891 -1996 193 151 125
-202.291 189.96 -1997 201 158 127
-198.277 189.934 -1997 197 156 126
-194.46 190.099 -1999 185 146 120
-190.445 190.074 -1999 174 130 107
-186.899 190.525 -2004 160 116 93
-183.333 190.977 -2009 146 103 83
-179.036 190.668 -2006 121 88 71
-175.1 190.741 -2007 91 68 55
-171.588 191.289 -2013 44 38 39
-168.137 191.932 -2020 26 22 24
-163.197 190.866 -2009 19 15 19
-101.574 195.626 -2062 28 27 35
-96.6579 194 -2045 33 32 40
-92.5803 193.988 -2045 34 30 35
-88.8498 194.735 -2053 41 38 44
-84.7991 194.819 -2054 42 41 48
-81.4131 196.516 -2072 33 32 39
-315.099 189.071 -2021 184 242 247
-309.134 187.909 -2009 163 226 231
-303.069 186.654 -1996 136 194 198
-298.706 186.429 -1994 147 205 208
-293.32 185.55 -1985 152 210 217
-289.722 185.794 -1988 158 210 217
-284.677 185.103 -1981 170 216 223
-280.938 185.254 -1983 181 217 222
-277.333 185.499 -1986 205 235 238
-273.442 185.558 -1987 217 211 204
-270.092 185.99 -1992 198 180 171
-265.79 185.77 -1990 204 178 167
-261.892 185.83 -1991 205 181 168
-257.474 185.517 -1988 209 185 172
-253.198 185.298 -1986 211 187 174
-248.931 185.08 -1984 213 185 171
-244.799 184.955 -1983 213 183 169
-240.673 184.831 -1982 230 199 186
-236.791 184.894 -1983 234 202 188
-233.025 185.051 -1985 210 176 159
-229.483 185.395 -1989 204 167 151
-225.701 185.553 -1991 205 167 152
-221.8 185.618 -1992 206 168 144
-218.007 185.776 -1994 200 162 138
-214.208 185.936 -1996 197 160 134
-210.192 185.909 -1996 193 155 129
-206.177 185.883 -1996 197 158 132
-202.367 186.043 -1998 203 163 132
-198.352 186.018 -1998 200 158 129
-194.533 186.18 -2000 191 147 119
-190.707 186.341 -2002 178 133 107
-186.688 186.318 -2002 167 121 96
-183.31 186.946 -2009 150 107 87
-179.37 187.016 -2010 128 93 76
-175.427 187.087 -2011 100 73 59
-171.907 187.623 -2017 57 45 43
-168.449 188.253 -2024 34 24 24
-163.989 187.767 -2019 23 19 24
-101.61 191.59 -2063 36 37 44
-96.7401 190.091 -2047 48 49 56
-92.297 189.337 -2039 34 32 38
-88.4059 189.697 -2043 31 29 35
-84.6645 190.429 -2051 41 40 47
-81.3635 192.275 -2071 41 40 47
-315.06 184.996 -2021 149 210 214
-308.941 183.767 -2008 136 202 205
-303.182 182.723 -1997 121 180 184
-298.819 182.502 -1995 135 193 197
-293.431 181.642 -1986 154 212 219
-289.686 181.789 -1988 171 224 230
-284.498 181.022 -1980 193 241 246
-280.761 181.17 -1982 205 241 244
-276.739 181.135 -1982 222 251 250
-273.408 181.558 -1987 220 218 212
-269.381 181.525 -1987 199 182 174
-266.023 181.948 -1992 204 178 166
-261.596 181.642 -1989 199 175 163
-257.182 181.335 -1986 205 182 169
-253.038 181.213 -1985 207 183 170
-249.026 181.182 -1985 212 184 170
-244.892 181.06 -1984 243 212 198
-240.885 181.03 -1984 234 202 189
-236.881 181 -1984 199 167 152
-233.231 181.245 -1987 200 166 147
-229.57 181.49 -1990 202 165 148
-225.559 181.462 -1990 202 165 148
-221.439 181.343 -1989 204 167 143
-217.762 181.59 -1992 200 163 138
-213.967 181.746 -1994 196 159 133
-210.06 181.811 -1995 193 156 130
-206.358 182.058 -1998 198 161 135
-202.544 182.215 -2000 203 164 134
-198.426 182.1 -1999 199 158 128
-194.314 181.984 -1998 192 148 118
-190.778 182.416 -2003 182 138 110
-187.038 182.666 -2006 171 127 99
-183.561 183.19 -2012 155 112 91
-179.526 183.167 -2012 134 99 81
-175.754 183.419 -2015 108 79 64
-172.057 183.761 -2019 71 54 48
-168.178 183.923 -2021 48 33 29
-163.725 183.447 -2016 28 21 24
-159.451 183.154 -2013 20 16 21
-91.8783 184.438 -2030 33 32 39
-87.9622 184.7 -2033 34 33 40
-84.0762 185.053 -2037 41 40 47
-80.8428 186.95 -2058 41 40 47
-315.021 180.922 -2021 99 159 164
-308.904 179.72 -2008 96 162 165
-302.842 178.52 -1995 106 165 170
-298.183 178.125 -1991 141 199 204
-293.1 177.463 -1984 178 236 242
-288.922 177.339 -1983 182 235 241
-284.894 177.304 -1983 198 246 250
-281.577 177.717 -1988 216 251 253
-277.683 177.772 -1989 226 252 251
-274.2 178.096 -1993 218 218 214
-270.161 178.063 -1993 198 183 175
-265.991 177.941 -1992 202 177 167
-261.958 177.909 -1992 206 181 171
-257.41 177.521 -1988 204 178 168
-252.88 177.133 -1984 208 181 169
-248.745 177.013 -1983 235 205 192
-244.986 177.162 -1985 238 207 194
-240.735 176.954 -1983 189 156 141
-237.091 177.193 -1986 190 156 140
-233.437 177.432 -1989 202 168 148
-229.196 177.226 -1987 204 169 149
-225.418 177.377 -1989 202 166 146
-221.746 177.618 -1992 204 168 142
-217.735 177.591 -1992 202 165 139
-213.941 177.743 -1994 200 163 137
-209.929 177.718 -1994 200 163 137
-206.333 178.049 -1998 204 167 141
-202.418 178.114 -1999 204 165 136
-198.501 178.179 -2000 198 157 128
-194.387 178.066 -1999 191 148 118
-190.66 178.31 -2002 183 140 112
-187.109 178.733 -2007 169 126 98
-183.447 179.067 -2011 154 112 89
-179.593 179.223 -2013 139 103 84
-175.994 179.647 -2018 118 88 71
-172.206 179.893 -2021 90 67 56
-168.241 179.962 -2022 63 43 34
-163.948 179.675 -2019 40 31 29
-159.827 179.566 -2018 25 19 20
-315.607 177.2 -2025 132 191 195
-309.02 175.762 -2009 136 202 205
-303.109 174.676 -1997 136 195 199
-298.147 174.116 -1991 144 202 206
-293.36 173.644 -1986 175 234 240
-288.887 173.347 -1983 188 240 245
-284.716 173.226 -1982 200 248 251
-281.118 173.454 -1985 217 251 253
-277.231 173.508 -1986 227 252 252
-273.617 173.738 -1989 215 218 216
-269.722 173.793 -1990 200 189 182
-265.826 173.849 -1991 208 186 178
-261.532 173.643 -1989 209 185 176
-257.25 173.438 -1987 209 184 174
-252.977 173.233 -1985 231 204 193
-248.84 173.116 -1984 228 200 187
-244.956 173.174 -1985 198 169 155
-240.949 173.146 -1985 193 158 141
-237.301 173.379 -1988 190 156 137
-233.409 173.439 -1989 198 164 143
-229.399 173.411 -1989 202 165 144
-225.278 173.297 -1988 203 166 145
-221.274 173.271 -1988 202 166 140
-217.381 173.332 -1989 203 167 141
-213.593 173.481 -1991 204 167 141
-209.799 173.631 -1993 206 169 143
-206.102 173.867 -1996 206 169 143
-202.495 174.192 -2000 205 168 139
-198.577 174.255 -2001 201 162 133
-194.656 174.319 -2002 194 153 124
-191.018 174.645 -2006 187 145 117
-186.993 174.623 -2006 172 131 103
-183.608 175.21 -2013 161 119 94
-179.929 175.537 -2017 149 112 89
-176.148 175.777 -2020 129 97 76
-172.271 175.931 -2022 109 80 64
-168.304 175.998 -2023 76 50 36
-164.335 176.065 -2024 48 33 27
-160.204 175.959 -2023 28 18 15
-317.751 174.317 -2039 126 183 187
-309.599 172.058 -2013 122 187 190
-303.68 170.997 -2001 122 183 185
-298.112 170.108 -1991 115 175 177
-293.03 169.476 -1984 135 194 201
-288.562 169.186 -1981 175 228 233
-284.683 169.238 -1982 198 246 250
-281.227 169.547 -1986 218 250 252
-277.478 169.685 -1988 226 251 251
-273.585 169.739 -1989 210 215 214
-269.691 169.793 -1990 200 191 187
-265.661 169.762 -1990 215 198 191
-261.502 169.646 -1989 214 193 185
-257.09 169.36 -1986 230 208 199
-253.075 169.331 -1986 234 209 198
-248.937 169.217 -1985 203 175 161
-245.174 169.358 -1987 198 169 153
-241.163 169.33 -1987 197 160 140
-237.274 169.388 -1988 191 155 134
-233.382 169.446 -1989 195 160 138
-229.949 169.846 -1994 200 162 141
-225.818 169.734 -1993 201 163 142
-221.471 169.453 -1990 202 166 140
-218.121 169.938 -1996 204 168 142
-214.105 169.914 -1996 205 169 143
-209.88 169.719 -1994 207 170 144
-206.181 169.95 -1997 207 170 144
-202.472 170.182 -2000 205 168 139
-198.554 170.244 -2001 203 165 136
-194.633 170.307 -2002 198 160 132
-191.091 170.71 -2007 195 156 128
-186.972 170.603 -2006 184 145 116
-183.496 171.092 -2012 173 131 105
-179.997 171.582 -2018 163 125 99
-176.389 171.986 -2023 146 112 87
-172.166 171.796 -2021 130 97 73
-168.368 172.032 -2024 95 64 42
-164.559 172.268 -2027 62 41 28
-160.107 171.824 -2022 45 30 22
-156.602 172.401 -2029 33 22 17
-309.564 168.006 -2013 89 151 154
-303.949 167.137 -2003 70 132 134
-299.126 166.685 -1998 66 127 130
-294.031 166.068 -1991 142 201 207
-289.403 165.701 -1987 191 243 247
-284.794 165.335 -1983 207 252 254
-280.77 165.303 -1983 220 250 253
-276.888 165.355 -1984 225 250 251
-273.141 165.491 -1986 209 216 216
-269.253 165.543 -1987 200 197 193
-265.097 165.43 -1986 213 204 197
-261.078 165.4 -1986 234 220 213
-256.932 165.288 -1985 243 227 219
-252.919 165.259 -1985 217 196 185
-248.783 165.148 -1984 201 174 159
-245.27 165.453 -1988 191 162 146
-241.015 165.259 -1986 194 155 133
-237.605 165.648 -1991 192 154 132
-233.825 165.788 -1993 192 157 135
-229.923 165.845 -1994 195 158 137
-225.906 165.819 -1994 201 163 142
-221.78 165.711 -1993 200 164 139
-217.768 165.686 -1993 204 168 143
-213.652 165.579 -1992 204 168 142
-209.856 165.722 -1994 205 169 142
-205.848 165.698 -1994 207 170 143
-202.348 166.091 -1999 206 169 139
-198.531 166.235 -2001 202 166 137
-194.514 166.213 -2001 195 161 133
-191.07 166.689 -2007 194 158 129
-186.95 166.585 -2006 189 153 124
-183.384 166.979 -2011 184 144 114
-179.888 167.457 -2017 178 140 111
-176.107 167.686 -2020 169 132 103
-172.231 167.833 -2022 151 117 90
-168.515 168.146 -2026 115 82 57
-164.378 168.044 -2025 86 60 41
-160.405 168.109 -2026 64 44 31
-157.279 169.087 -2038 49 32 23
-310.298 164.362 -2018 77 137 140
-304.219 163.269 -2005 78 139 141
-299.242 162.747 -1999 110 172 174
-294.588 162.389 -1995 178 237 242
-289.516 161.787 -1988 194 244 248
-285.193 161.592 -1986 190 234 238
-281.446 161.724 -1988 202 232 235
-277.275 161.612 -1987 225 251 253
-273.661 161.826 -1990 235 247 246
-269.63 161.796 -1990 239 243 239
-265.468 161.685 -1989 246 246 241
-261.18 161.493 -1987 253 251 246
-256.903 161.302 -1985 253 243 236
-253.273 161.518 -1988 243 225 213
-249.257 161.49 -1988 201 176 160
-245.736 161.788 -1992 182 154 137
-241.595 161.68 -1991 187 148 124
-237.698 161.735 -1992 188 150 127
-234.033 161.953 -1995 189 153 130
-230.013 161.927 -1995 191 154 131
-226.221 162.065 -1997 197 159 137
-222.2 162.04 -1997 194 159 136
-218.181 162.016 -1997 200 164 140
-213.842 161.749 -1994 203 167 141
-209.833 161.726 -1994 203 166 140
-206.135 161.946 -1997 206 169 142
-202.427 162.167 -2000 206 169 139
-198.807 162.469 -2004 201 166 137
-194.687 162.367 -2003 196 163 135
-191.049 162.67 -2007 197 163 133
-187.302 162.892 -2010 199 164 134
-183.455 163.034 -2012 198 159 128
-179.868 163.42 -2017 191 153 121
-176.175 163.724 -2021 184 146 114
-172.298 163.867 -2023 170 133 104
-168.247 163.849 -2023 142 106 78
-164.442 164.073 -2026 114 83 58
-160.704 164.38 -2030 89 63 45
-157.57 165.334 -2042 74 52 37
-311.34 160.858 -2025 109 167 170
-305.247 159.792 -2012 112 174 176
-300.557 159.442 -2008 144 206 208
-295.738 159.013 -2003 142 200 205
-290.65 158.426 -1996 108 158 162
-286.023 158.077 -1992 100 144 148
-281.84 157.967 -1991 141 173 175
-277.385 157.699 -1988 178 207 208
-273.631 157.828 -1990 224 242 241
-269.465 157.72 -1989 236 248 245
-265.572 157.77 -1990 235 243 240
-261.415 157.663 -1989 233 233 229
-257.522 157.714 -1990 236 232 225
-253.755 157.845 -1992 226 211 198
-249.731 157.818 -1992 177 154 138
-246.326 158.188 -1997 170 144 126
-242.418 158.241 -1998 181 144 118
-238.507 158.294 -1999 181 144 119
-234.243 158.111 -1997 185 149 125
-230.449 158.244 -1999 191 155 131
-226.423 158.22 -1999 191 155 131
-222.399 158.196 -1999 191 157 135
-218.485 158.251 -2000 198 163 139
-214.355 158.149 -1999 203 167 141
-210.126 157.968 -1997 202 166 139
-206.216 158.025 -1998 205 169 142
-202.304 158.082 -1999 208 171 142
-198.488 158.219 -2001 206 171 143
-194.763 158.435 -2004 204 172 144
-191.028 158.652 -2007 206 173 143
-187.282 158.869 -2010 207 174 143
-183.435 159.007 -2012 208 169 138
-179.492 159.067 -2013 202 163 130
-175.982 159.522 -2019 198 159 124
-171.513 159.109 -2014 187 151 117
-168.063 159.643 -2021 172 136 103
-164.18 159.784 -2023 150 115 85
-160.687 160.319 -2030 118 88 64
-157.63 161.329 -2043 100 73 52
-306.125 156.211 -2018 119 177 180
-301.273 155.792 -2013 113 170 173
-295.854 155.064 -2004 95 149 155
-291.492 154.879 -2002 82 129 134
-286.711 154.462 -1997 91 135 138
-282.943 154.586 -1999 130 164 165
-278.192 154.17 -1994 144 176 176
-274.427 154.296 -1996 158 183 181
-269.978 154.036 -1993 160 179 177
-265.944 154.008 -1993 157 175 172
-261.781 153.903 -1992 152 159 157
-257.754 153.876 -1992 160 161 156
-253.983 154.003 -1994 161 147 134
-250.457 154.286 -1998 151 129 114
-246.793 154.492 -2001 161 136 119
-242.635 154.389 -2000 176 141 117
-238.72 154.441 -2001 179 144 120
-234.57 154.339 -2000 184 150 125
-230.425 154.238 -1999 190 156 132
-226.512 154.291 -2000 192 157 133
-222.375 154.191 -1999 195 161 138
-218.571 154.322 -2001 198 164 139
-214.869 154.531 -2004 201 166 140
-210.84 154.508 -2004 204 168 141
-206.297 154.101 -1999 206 170 143
-202.586 154.311 -2002 209 172 143
-198.665 154.368 -2003 210 175 145
-194.84 154.501 -2005 208 175 146
-191.103 154.712 -2008 207 173 143
-187.262 154.847 -2010 206 171 141
-183.598 155.136 -2014 207 169 139
-179.829 155.348 -2017 206 168 136
-175.876 155.406 -2018 206 169 135
-171.665 155.234 -2016 200 162 127
-167.795 155.371 -2018 189 151 116
-163.92 155.507 -2020 174 136 102
-160.591 156.183 -2029 148 114 86
-157.459 157.091 -2041 129 98 72
-306.852 152.531 -2023 115 170 173
-301.99 152.123 -2018 101 156 159
-296.709 151.49 -2010 101 152 158
-292.336 151.309 -2008 95 142 146
-288.26 151.279 -2008 101 145 147
-283.338 150.798 -2002 124 161 160
-279.14 150.694 -2001 134 169 168
-274.949 150.59 -2000 136 165 163
-270.899 150.563 -2000 133 158 156
-266.984 150.611 -2001 141 164 162
-262.543 150.358 -1998 153 163 164
-258.374 150.256 -1997 163 166 163
-254.594 150.38 -1999 159 146 133
-250.682 150.43 -2000 149 128 113
-247.385 150.856 -2006 153 129 113
-243.095 150.681 -2004 168 135 113
-238.815 150.506 -2002 177 144 122
-234.545 150.331 -2000 183 150 125
-230.401 150.233 -1999 188 155 130
-226.149 150.059 -1997 194 161 137
-222.352 150.187 -1999 199 166 142
-218.658 150.39 -2002 200 167 142
-214.74 150.443 -2003 202 169 142
-210.713 150.421 -2003 206 171 143
-206.586 150.325 -2002 205 170 142
-202.565 150.304 -2002 208 173 143
-198.645 150.359 -2003 213 178 148
-194.82 150.489 -2005 215 179 149
-191.083 150.695 -2008 213 178 148
-187.336 150.901 -2011 211 176 146
-183.488 151.032 -2013 211 174 146
-179.365 150.939 -2012 210 174 143
-175.684 151.221 -2016 211 175 142
-171.477 151.053 -2014 211 173 135
-167.695 151.261 -2017 203 164 127
-163.578 151.169 -2016 193 152 115
-160.495 152.053 -2028 169 133 101
-157.134 152.712 -2037 147 114 86
-307.883 148.98 -2030 110 160 165
-302.259 148.215 -2020 101 151 156
-296.974 147.599 -2012 96 146 151
-292.597 147.423 -2010 99 146 149
-288.231 147.247 -2008 107 152 154
-284.159 147.219 -2008 113 153 151
-279.81 147.044 -2006 125 163 162
-275.746 147.017 -2006 131 163 163
-271.819 147.063 -2007 139 167 167
-267.358 146.816 -2004 144 171 171
-263.305 146.79 -2004 159 170 171
-258.736 146.471 -2000 166 169 166
-254.95 146.592 -2002 154 141 128
-250.782 146.494 -2001 147 126 111
-247.36 146.835 -2006 148 124 108
-242.707 146.445 -2001 159 128 109
-239.03 146.641 -2004 170 139 117
-234.639 146.398 -2001 180 148 123
-230.608 146.375 -2001 186 155 131
-226.693 146.426 -2002 190 160 136
-222.664 146.403 -2002 200 166 143
-218.636 146.381 -2002 201 168 143
-214.718 146.433 -2003 205 172 144
-211.008 146.632 -2006 207 174 145
-206.771 146.465 -2004 206 172 142
-202.848 146.518 -2005 209 174 144
-198.923 146.571 -2006 216 180 149
-194.606 146.332 -2003 219 182 151
-190.969 146.606 -2007 217 182 152
-187.131 146.733 -2009 215 180 151
-183.287 146.861 -2011 214 178 151
-179.258 146.843 -2011 213 178 148
-175.579 147.118 -2015 214 178 147
-171.29 146.881 -2012 212 176 138
-167.429 147.011 -2014 206 169 131
-163.562 147.141 -2016 199 158 119
-160.242 147.782 -2025 178 141 108
-156.425 147.985 -2028 156 121 92
-303.726 144.872 -2030 102 150 155
-297.831 143.987 -2018 100 149 154
-293.297 143.744 -2015 109 157 159
-288.777 143.502 -2012 112 159 160
-284.272 143.26 -2009 117 156 156
-279.922 143.09 -2007 124 161 161
-275.994 143.135 -2008 128 158 160
-272.199 143.251 -2010 139 167 168
-267.865 143.082 -2008 144 171 172
-264.067 143.199 -2010 161 172 174
-259.358 142.818 -2005 164 167 164
-255.689 143.007 -2008 145 132 119
-251.635 142.982 -2008 143 124 108
-247.952 143.172 -2011 147 126 109
-243.532 142.935 -2008 157 128 111
-239.364 142.84 -2007 167 137 117
-234.851 142.533 -2003 178 147 123
-230.701 142.439 -2002 184 155 133
-226.557 142.346 -2001 190 161 140
-222.531 142.325 -2001 198 164 143
-218.615 142.375 -2002 201 167 143
-214.697 142.425 -2003 205 172 145
-210.882 142.547 -2005 208 175 145
-206.648 142.385 -2003 210 177 147
-202.829 142.507 -2005 214 179 149
-198.903 142.559 -2006 216 180 150
-194.684 142.398 -2004 219 182 152
-190.76 142.45 -2005 219 183 154
-186.834 142.503 -2006 219 183 155
-182.996 142.628 -2008 218 182 156
-178.973 142.61 -2008 218 182 155
-175.301 142.878 -2012 217 181 153
-170.932 142.577 -2008 215 180 143
-167.08 142.703 -2010 208 172 135
-163.222 142.829 -2012 201 161 123
-159.752 143.31 -2019 181 143 110
-155.947 143.508 -2022 156 119 89
-153.633 145.126 -2045 169 158 154
-306.689 142.183 -2050 101 147 152
-299.425 140.698 -2029 109 158 163
-293.705 139.908 -2018 117 166 168
-289.037 139.603 -2014 122 170 171
-284.528 139.368 -2011 134 173 174
-280.174 139.203 -2009 118 155 156
-276.105 139.177 -2009 123 152 155
-272.579 139.428 -2013 140 167 169
-268.107 139.195 -2010 145 170 172
-264.042 139.17 -2010 160 171 173
-259.98 139.146 -2010 162 165 162
-256.047 139.191 -2011 133 120 109
-251.611 138.959 -2008 137 118 103
-248.052 139.213 -2012 143 123 106
-243.873 139.121 -2011 156 128 113
-239.58 138.96 -2009 166 137 119
-235.298 138.799 -2007 174 144 121
-231.025 138.639 -2005 182 153 133
-226.649 138.41 -2002 191 162 143
-222.399 138.251 -2000 197 163 143
-218.267 138.161 -1999 201 168 144
-214.248 138.141 -1999 205 172 145
-210.442 138.26 -2001 206 173 144
-206.732 138.448 -2004 211 178 148
-202.607 138.359 -2003 218 183 153
-198.785 138.479 -2005 218 182 153
-194.472 138.253 -2002 218 181 153
-190.742 138.442 -2005 217 181 154
-186.444 138.218 -2002 217 181 154
-182.705 138.408 -2005 217 181 155
-178.689 138.391 -2005 220 184 157
-175.023 138.651 -2009 222 186 159
-170.746 138.427 -2006 220 187 153
-166.982 138.619 -2009 209 175 140
-162.963 138.603 -2009 202 166 128
-159.42 139.002 -2015 189 153 119
-155.546 139.126 -2017 164 127 96
-152.567 140.077 -2031 162 149 143
-303.529 138.511 -2057 117 161 166
-295.861 136.868 -2033 123 166 169
-290.589 136.303 -2025 128 172 174
-285.351 135.738 -2017 129 166 168
-280.985 135.578 -2015 112 147 148
-276.491 135.351 -2012 119 147 146
-272.961 135.595 -2016 136 161 160
-268.615 135.436 -2014 144 167 167
-265.2 135.747 -2019 160 171 171
-260.861 135.589 -2017 151 155 151
-257.042 135.7 -2019 122 112 101
-253.091 135.744 -2020 133 116 99
-249.385 135.923 -2023 141 121 102
-244.82 135.632 -2019 158 128 111
-240.393 135.408 -2016 167 136 117
-235.979 135.185 -2013 177 144 121
-231.004 134.627 -2005 182 152 132
-226.515 134.337 -2001 188 159 140
-222.378 134.25 -2000 199 164 143
-218.247 134.163 -1999 204 169 147
-214.443 134.277 -2001 206 173 149
-210.422 134.258 -2001 208 173 148
-206.507 134.306 -2002 210 174 149
-202.69 134.422 -2004 216 179 152
-198.767 134.471 -2005 217 182 155
-194.454 134.252 -2002 217 184 156
-190.535 134.302 -2003 216 183 154
-186.24 134.084 -2000 214 181 152
-182.324 134.134 -2001 217 180 152
-178.227 134.051 -2000 220 182 153
-174.571 134.303 -2004 223 184 154
-170.22 134.019 -2000 219 183 149
-166.218 134.004 -2000 214 178 144
-162.542 134.257 -2004 206 170 132
-158.535 134.243 -2004 193 158 123
-154.453 134.161 -2003 171 137 105
-150.976 134.617 -2010 148 132 126
-147.546 135.139 -2018 174 162 159
-143.516 135.126 -2018 160 157 162
-139.625 135.247 -2020 92 91 98
-102.967 134.613 -2012 38 35 43
-294.15 133.874 -2050 124 164 166
-287.872 132.869 -2035 117 151 153
-282.912 132.452 -2029 109 140 141
-277.703 131.905 -2021 122 147 145
-273.478 131.815 -2020 139 162 160
-268.991 131.596 -2017 141 163 161
-265.57 131.898 -2022 158 168 166
-261.872 132.071 -2025 138 142 137
-257.91 132.113 -2026 112 103 92
