ply
format ascii 1.0
comment Created by Open3D
element vertex 1462
property double x
property double y
property double z
property uchar red
property uchar green
property uchar blue
end_header
-324.302 -773.637 -2076 45 51 52
-320.201 -774.213 -2078 44 50 51
-315.791 -774.046 -2078 39 46 46
-310.933 -772.764 -2075 35 41 40
-306.387 -772.23 -2074 35 40 39
-301.993 -772.07 -2074 35 40 39
-297.459 -771.541 -2073 33 39 38
-293.355 -772.13 -2075 33 38 37
-288.689 -771.234 -2073 32 37 36
-283.759 -769.596 -2069 29 36 37
-278.039 -765.729 -2059 35 42 42
-272.363 -761.867 -2049 40 46 46
-267.255 -759.495 -2043 44 50 50
-262.561 -758.241 -2040 44 50 51
-258.515 -758.848 -2042 48 54 54
-254.09 -758.343 -2041 49 54 53
-249.793 -758.211 -2041 49 54 51
-245.619 -758.453 -2042 49 53 52
-241.679 -759.44 -2045 48 52 51
-237.264 -758.944 -2044 47 51 50
-233.311 -759.934 -2047 45 49 48
-229.125 -760.185 -2048 46 49 48
-225.265 -761.551 -2052 46 49 48
-220.852 -761.064 -2051 45 49 49
-216.973 -762.434 -2055 43 47 47
-212.666 -762.322 -2055 42 46 47
-208.563 -762.954 -2057 42 46 47
-204.453 -763.588 -2059 42 46 48
-200.532 -764.966 -2063 38 44 46
-196.405 -765.604 -2065 35 42 43
-192.178 -765.874 -2066 35 42 42
-187.677 -765.034 -2064 35 41 42
-183.54 -765.678 -2066 35 41 42
-178.963 -764.473 -2063 37 43 44
-174.993 -765.862 -2067 38 45 44
-170.678 -765.773 -2067 38 44 44
-167.007 -768.648 -2075 38 44 45
-163.227 -771.155 -2082 35 40 41
-159.19 -772.553 -2086 20 25 26
-154.914 -772.842 -2087 18 23 25
-150.708 -773.503 -2089 24 31 35
-145.725 -770.094 -2080 31 37 41
-140.984 -767.798 -2074 34 40 42
-136.467 -766.616 -2071 35 41 41
-132.091 -766.176 -2070 34 40 41
-127.536 -764.628 -2066 34 41 43
-123.177 -764.193 -2065 34 40 42
-118.823 -763.76 -2064 37 43 44
-114.364 -762.59 -2061 40 44 46
-109.972 -761.792 -2059 38 43 45
-105.588 -760.996 -2057 37 43 46
-101.362 -761.312 -2058 37 45 45
-97.0385 -760.891 -2057 35 44 44
-92.7197 -760.472 -2056 35 45 45
-88.4059 -760.055 -2055 38 44 43
-84.056 -759.271 -2053 38 44 43
-79.7152 -758.489 -2051 39 45 44
-75.457 -758.448 -2051 44 48 46
-71.13 -757.671 -2049 45 49 47
-66.9425 -758.375 -2051 41 47 46
-62.625 -757.602 -2049 41 47 46
-58.4019 -757.94 -2050 41 47 46
-54.043 -756.432 -2046 44 50 49
-49.7984 -756.405 -2046 44 50 49
-45.5099 -755.641 -2044 44 50 49
-41.2906 -755.989 -2045 44 51 47
-37.0132 -755.229 -2043 45 52 48
-32.8406 -756.69 -2047 45 52 48
-28.5958 -756.674 -2047 45 52 48
-24.3752 -757.399 -2049 45 52 48
-20.1759 -759.236 -2054 45 52 48
-15.9095 -758.857 -2053 40 47 43
-11.6759 -760.329 -2057 40 47 43
-7.42922 -762.172 -2062 42 49 45
-3.17109 -766.235 -2073 44 51 47
1.13427 -771.409 -2087 46 53 49
5.49479 -776.216 -2100 46 53 49
9.88139 -778.808 -2107 45 52 48
14.3106 -782.141 -2116 44 51 47
18.7419 -783.997 -2121 45 51 47
23.1723 -785.117 -2124 46 53 49
27.6932 -788.457 -2133 45 52 48
32.4323 -796.235 -2154 43 50 44
-355.401 -789.22 -2102 50 56 59
-347.41 -781.15 -2081 47 53 56
-341.49 -777.59 -2072 45 51 54
-336.424 -775.909 -2068 50 56 57
-332.181 -776.108 -2069 50 55 56
-328.254 -777.058 -2072 48 52 53
-324.317 -778.01 -2075 44 50 51
-320.062 -778.215 -2076 42 49 48
-315.501 -777.672 -2075 39 47 45
-311.247 -777.881 -2076 37 43 42
-306.4 -776.594 -2073 34 40 39
-302.444 -777.557 -2076 32 38 37
-297.902 -777.024 -2075 31 37 36
-293.792 -777.617 -2077 31 37 36
-288.98 -776.34 -2074 30 36 35
-284.32 -775.44 -2072 28 34 35
-278.59 -771.55 -2062 34 40 41
-272.905 -767.663 -2052 42 48 47
-267.788 -765.277 -2046 44 50 51
-262.957 -763.641 -2042 44 50 51
-258.271 -762.382 -2039 47 53 54
-253.849 -761.873 -2038 47 53 53
-249.679 -762.115 -2039 48 54 53
-245.747 -763.105 -2042 50 54 53
-241.569 -763.351 -2043 48 52 51
-237.62 -764.346 -2046 46 50 49
-233.433 -764.596 -2047 45 49 48
-229.244 -764.848 -2048 45 49 48
-225.163 -765.476 -2050 45 49 48
-220.86 -765.358 -2050 46 50 49
-216.77 -765.99 -2052 44 48 48
-212.466 -765.877 -2052 44 48 49
-208.469 -766.887 -2055 44 48 49
-204.361 -767.525 -2057 43 48 49
-200.442 -768.911 -2061 40 46 47
-196.127 -768.807 -2061 39 45 46
-191.906 -769.079 -2062 37 43 44
-187.502 -768.606 -2061 36 42 43
-183.28 -768.882 -2062 38 44 45
-178.883 -768.415 -2061 39 45 46
-174.746 -769.068 -2063 39 45 46
-170.519 -769.35 -2064 40 46 47
-166.772 -771.871 -2071 38 44 45
-162.841 -773.648 -2076 33 39 40
-159.12 -776.545 -2084 20 26 27
-154.995 -777.581 -2087 20 24 27
-150.498 -776.756 -2085 24 30 33
-145.941 -775.561 -2082 31 37 40
-141.125 -772.878 -2075 33 39 42
-136.472 -770.943 -2070 36 42 43
-131.969 -769.756 -2067 35 41 42
-127.788 -770.433 -2069 34 41 42
-123.361 -769.623 -2067 33 40 40
-118.885 -768.443 -2064 35 42 42
-114.424 -767.265 -2061 40 44 47
-110.082 -766.834 -2060 39 45 47
-105.695 -766.033 -2058 38 44 47
-101.464 -766.352 -2059 36 43 45
-97.089 -765.555 -2057 34 42 42
-92.813 -765.506 -2057 35 44 43
-88.4518 -764.714 -2055 37 43 42
-84.1816 -764.67 -2055 35 41 40
-79.8344 -763.883 -2053 37 43 42
-75.5699 -763.842 -2053 42 47 44
-71.2711 -763.431 -2052 43 48 46
-67.0752 -764.14 -2054 42 48 47
-62.7799 -763.734 -2053 42 48 47
-58.5462 -764.074 -2054 40 46 45
-54.1502 -762.185 -2049 45 51 50
-49.873 -761.786 -2048 47 53 52
-45.5557 -760.645 -2045 47 53 52
-41.2918 -760.251 -2044 46 53 49
-37.0324 -759.858 -2043 46 53 49
-32.8095 -760.212 -2044 47 54 50
-28.5967 -760.94 -2046 46 53 49
-24.3996 -762.414 -2050 43 50 46
-20.147 -762.402 -2050 40 47 43
-15.9487 -764.996 -2057 38 45 41
-11.7046 -766.477 -2061 40 47 43
-7.43664 -767.215 -2063 42 49 45
-3.1712 -770.56 -2072 45 52 48
1.13536 -776.51 -2088 45 52 48
5.50045 -781.346 -2101 44 51 47
9.89606 -784.325 -2109 44 51 47
14.3046 -786.191 -2114 43 49 45
18.7164 -787.316 -2117 45 49 46
23.1625 -789.186 -2122 43 50 46
27.6686 -792.175 -2130 44 51 47
32.4795 -801.86 -2156 42 49 43
-355.76 -794.421 -2103 47 53 54
-347.428 -785.546 -2080 46 51 53
-341.342 -781.587 -2070 48 52 54
-336.115 -779.518 -2065 48 54 55
-332.036 -780.095 -2067 49 54 55
-328.27 -781.429 -2071 47 51 52
-324.02 -781.632 -2072 42 48 49
-319.614 -781.461 -2072 41 47 47
-315.516 -782.046 -2074 41 49 47
-310.962 -781.502 -2073 38 44 43
-306.415 -780.961 -2072 34 40 39
-302.312 -781.553 -2074 33 39 38
-298.06 -781.771 -2075 31 37 36
-293.948 -782.367 -2077 30 36 35
-289.133 -781.082 -2074 28 34 33
-284.196 -779.424 -2070 27 33 34
-278.467 -775.509 -2060 32 38 39
-273.316 -773.104 -2054 38 44 43
-268.061 -770.327 -2047 41 47 47
-263.224 -768.681 -2043 42 48 49
-258.407 -767.038 -2039 44 50 51
-253.983 -766.526 -2038 46 52 52
-249.566 -766.016 -2037 49 55 54
-245.756 -767.389 -2041 53 57 56
-241.578 -767.636 -2042 48 52 51
-237.397 -767.885 -2043 45 49 48
-233.557 -769.264 -2047 45 49 48
-229.477 -769.894 -2049 45 49 48
-225.172 -769.774 -2049 46 50 49
-220.868 -769.656 -2049 47 51 50
-216.884 -770.667 -2052 47 51 50
-212.682 -770.929 -2053 47 51 52
-208.579 -771.569 -2055 46 50 51
-204.469 -772.211 -2057 44 48 49
-200.547 -773.605 -2061 41 47 48
-195.944 -772.375 -2058 43 49 50
-191.728 -772.648 -2059 43 49 50
-187.418 -772.548 -2059 42 48 49
-183.021 -772.075 -2058 40 46 47
-178.63 -771.605 -2057 40 46 47
-174.753 -773.387 -2062 40 46 47
-170.608 -774.046 -2064 39 45 46
-167.182 -778.082 -2075 39 45 46
-163.162 -779.495 -2079 32 38 39
-159.585 -783.159 -2089 24 30 31
-155.448 -784.201 -2092 22 26 27
-150.866 -782.996 -2089 21 26 29
-146.087 -780.669 -2083 31 37 40
-141.199 -777.595 -2075 33 39 42
-136.544 -775.649 -2070 35 41 42
-131.846 -773.33 -2064 33 39 40
-127.607 -773.637 -2065 34 40 41
-123.127 -772.447 -2062 35 42 41
-118.775 -772.009 -2061 36 44 42
-114.372 -771.198 -2059 37 43 44
-110.193 -771.888 -2061 38 44 46
-105.75 -770.708 -2058 38 44 47
-101.37 -769.905 -2056 37 43 46
-97.187 -770.602 -2058 36 43 44
-92.9068 -770.552 -2058 35 43 41
-88.4551 -769.006 -2054 37 43 42
-84.1437 -768.587 -2053 38 44 43
-79.8762 -768.544 -2053 39 45 44
-75.5725 -768.129 -2052 41 48 44
-71.2737 -767.716 -2051 41 47 44
-67.1429 -769.177 -2055 41 47 46
-62.8126 -768.394 -2053 42 48 47
-58.5197 -767.988 -2052 39 45 44
-54.205 -767.21 -2050 44 50 49
-49.899 -766.434 -2048 46 52 51
-45.5796 -765.287 -2045 45 51 50
-41.3133 -764.89 -2044 48 55 51
-37.0517 -764.495 -2043 49 56 52
-32.8266 -764.851 -2044 48 55 51
-28.5837 -764.835 -2044 44 51 47
-24.3767 -765.943 -2047 40 47 43
-20.128 -765.932 -2047 39 46 42
-15.9182 -767.793 -2052 39 46 42
-11.6992 -770.405 -2059 43 50 46
-7.44768 -772.645 -2065 44 51 47
-3.1805 -777.133 -2077 45 52 48
1.13755 -782.37 -2091 46 53 49
5.51372 -787.61 -2105 45 52 48
9.91545 -790.233 -2112 44 51 47
14.3257 -791.737 -2116 44 50 46
18.7527 -793.242 -2120 46 50 47
23.1637 -793.627 -2121 44 51 47
27.6832 -797.008 -2130 45 52 47
32.3757 -803.759 -2148 40 47 43
-356.289 -800.014 -2105 48 54 55
-348.116 -791.465 -2083 46 51 52
-341.689 -786.721 -2071 51 55 56
-336.457 -784.64 -2066 46 52 53
-332.535 -785.599 -2069 45 50 51
-328.128 -785.422 -2069 44 48 49
-324.037 -786.007 -2071 44 50 51
-320.094 -786.973 -2074 44 51 51
-315.228 -785.664 -2071 44 52 50
-310.828 -785.497 -2071 40 46 45
-306.578 -785.711 -2072 35 41 39
-302.619 -786.685 -2075 33 39 37
-298.506 -787.283 -2077 30 36 35
-294.105 -787.124 -2077 29 35 34
-289.426 -786.21 -2075 29 35 34
-284.897 -785.678 -2074 30 36 36
-279.427 -782.497 -2066 31 37 38
-274.127 -779.698 -2059 36 42 41
-268.727 -776.525 -2051 39 45 46
-263.622 -774.111 -2045 42 48 49
-258.418 -771.322 -2038 45 51 52
-253.869 -770.429 -2036 47 53 53
-249.085 -768.781 -2032 48 54 53
-245.164 -769.785 -2035 51 55 54
-241.114 -770.412 -2037 50 54 53
-237.058 -771.041 -2039 46 50 49
-232.995 -771.672 -2041 45 49 48
-229.263 -773.439 -2046 45 49 48
-225.181 -774.074 -2048 46 50 49
-220.878 -773.956 -2048 47 51 50
-216.893 -774.973 -2051 47 51 50
-212.587 -774.859 -2051 47 51 52
-208.384 -775.125 -2052 47 51 52
-204.279 -775.771 -2054 46 50 51
-200.361 -777.174 -2058 42 48 49
-195.857 -776.313 -2056 45 51 52
-191.55 -776.211 -2056 45 51 52
-187.153 -775.733 -2055 45 51 52
-182.94 -776.012 -2056 43 49 50
-178.811 -776.671 -2058 41 47 48
-174.675 -777.332 -2060 39 45 46
-170.781 -779.127 -2065 38 44 45
-166.948 -781.301 -2071 40 46 47
-163.405 -784.986 -2081 33 39 40
-159.593 -787.541 -2088 30 36 37
-155.53 -788.966 -2092 27 31 32
-150.801 -786.999 -2087 18 23 25
-146.024 -784.658 -2081 29 35 37
-141.07 -781.189 -2072 32 38 41
-136.55 -779.984 -2069 33 39 41
-132.107 -779.159 -2067 32 38 39
-127.551 -777.583 -2063 35 41 42
-123.43 -778.647 -2066 36 44 43
-118.895 -777.076 -2062 37 45 43
-114.655 -777.391 -2063 38 44 45
-110.305 -776.955 -2062 37 43 45
-105.806 -775.39 -2058 37 43 46
-101.472 -774.959 -2057 37 43 46
-97.2854 -775.66 -2059 37 44 45
-92.9104 -774.856 -2057 37 45 43
-88.6309 -774.808 -2057 37 43 42
-84.311 -774.386 -2056 39 45 44
-79.9572 -773.589 -2054 40 46 45
-75.6123 -772.795 -2052 40 47 43
-71.3459 -772.756 -2052 40 47 44
-67.0802 -772.72 -2052 41 47 45
-62.8457 -773.062 -2053 42 48 47
-58.5219 -772.277 -2051 41 47 46
-54.2335 -771.871 -2050 44 50 49
-49.901 -770.713 -2047 44 50 49
-45.6481 -770.688 -2047 45 52 50
-41.3149 -769.16 -2043 47 54 50
-37.0892 -769.515 -2044 47 54 50
-32.8438 -769.497 -2044 46 53 49
-28.6266 -770.233 -2046 44 51 47
-24.3538 -769.467 -2044 42 49 45
-20.1385 -770.584 -2047 44 51 47
-15.9343 -772.833 -2053 45 52 48
-11.6996 -774.709 -2058 44 51 47
-7.45876 -778.091 -2067 43 50 46
-3.18216 -781.853 -2077 43 50 46
1.13892 -787.499 -2092 45 52 48
5.51156 -791.642 -2103 43 50 46
9.91113 -794.281 -2110 43 49 47
14.3266 -796.169 -2115 45 51 48
18.7361 -796.931 -2117 48 52 49
23.1652 -798.071 -2120 46 53 49
27.6977 -801.849 -2130 45 52 48
32.3778 -808.265 -2147 43 50 46
-355.973 -803.713 -2102 46 52 53
-347.634 -794.729 -2079 48 53 55
-341.873 -791.485 -2071 50 54 56
-336.638 -789.391 -2066 49 54 55
-332.393 -789.593 -2067 47 52 53
-328.463 -790.56 -2070 46 50 51
-324.68 -791.912 -2074 44 50 51
-319.957 -790.974 -2072 45 51 51
-315.549 -790.803 -2072 44 50 49
-311.145 -790.634 -2072 41 47 46
-307.039 -791.231 -2074 35 42 40
-303.074 -792.211 -2077 33 40 36
-298.667 -792.049 -2077 31 37 36
-294.121 -791.508 -2076 30 36 35
-289.721 -791.351 -2076 33 39 38
-285.187 -790.815 -2075 33 39 39
-279.982 -788.377 -2069 33 39 40
-274.273 -784.418 -2059 37 43 42
-269.264 -782.367 -2054 42 48 49
-264.279 -780.32 -2049 44 50 51
-258.81 -776.752 -2040 44 50 51
-254.129 -775.473 -2037 45 51 51
-249.464 -774.195 -2034 47 53 52
-245.175 -774.063 -2034 51 55 54
-240.769 -773.552 -2033 51 55 54
-236.836 -774.565 -2036 49 53 52
-232.777 -775.201 -2038 46 50 49
-229.049 -776.978 -2043 46 50 49
-225.081 -777.998 -2046 44 49 48
-220.888 -778.259 -2047 42 47 46
-216.903 -779.282 -2050 43 47 47
-212.493 -778.787 -2049 46 50 51
-208.597 -780.195 -2053 47 51 52
-204.388 -780.464 -2054 47 51 52
-200.273 -781.116 -2056 44 50 51
-196.057 -781.39 -2057 43 49 50
-191.652 -780.907 -2056 43 49 50
-187.344 -780.805 -2056 44 50 51
-183.126 -781.086 -2057 44 50 51
-178.819 -780.99 -2057 43 49 50
-174.683 -781.655 -2059 40 46 46
-171.037 -784.599 -2067 38 44 45
-167.279 -787.166 -2074 39 45 46
-163.649 -790.494 -2083 35 41 42
-159.984 -793.822 -2092 37 42 43
-155.612 -793.738 -2092 33 37 38
-150.881 -791.76 -2087 21 26 27
-146.032 -789.025 -2080 29 35 37
-141.349 -787.052 -2075 33 39 42
-136.49 -783.944 -2067 36 42 43
-131.922 -782.355 -2063 35 41 42
-127.557 -781.907 -2062 37 43 44
-123.257 -781.84 -2062 37 44 44
-118.958 -781.776 -2062 37 44 44
-114.605 -781.334 -2061 38 44 45
-110.149 -780.137 -2058 37 44 45
-105.81 -779.701 -2057 36 44 45
-101.378 -778.509 -2054 35 42 44
-97.1479 -778.835 -2055 35 43 43
-92.8694 -778.784 -2055 36 46 44
-88.5915 -778.736 -2055 39 45 43
-84.2736 -778.311 -2054 40 46 44
-79.9216 -777.51 -2052 42 47 46
-75.6154 -777.09 -2051 42 49 45
-71.3141 -776.672 -2050 44 51 47
-67.0502 -776.635 -2050 43 50 46
-62.8483 -777.358 -2052 43 50 47
-58.5244 -776.568 -2050 45 52 48
-54.2092 -775.781 -2048 44 51 47
-49.9029 -774.996 -2046 42 49 45
-45.6723 -775.349 -2047 47 54 50
-41.3771 -774.568 -2045 46 53 49
-37.1452 -774.926 -2046 46 53 49
-32.8611 -774.15 -2044 45 52 48
-28.5997 -773.755 -2043 42 49 45
-24.3307 -772.984 -2041 42 49 45
-20.1098 -773.729 -2043 47 54 50
-15.896 -775.235 -2047 46 53 49
-11.6945 -778.636 -2056 43 50 46
-7.45902 -782.418 -2066 42 49 45
-3.18536 -786.96 -2078 43 50 46
1.14003 -792.64 -2093 44 51 47
5.51176 -796.05 -2102 43 50 46
9.9165 -799.084 -2110 45 51 50
14.3342 -800.984 -2115 47 52 50
18.746 -801.75 -2117 49 53 50
23.1556 -802.14 -2118 47 54 50
27.7256 -807.077 -2131 44 51 47
32.3951 -813.153 -2147 41 48 44
-355.488 -807.02 -2098 49 55 56
-347.823 -799.522 -2079 50 56 58
-342.224 -796.642 -2072 52 58 61
-337.147 -794.92 -2068 53 57 58
-333.216 -795.89 -2071 49 53 54
-329.117 -796.479 -2073 48 52 53
-324.7 -796.301 -2073 45 51 50
-319.821 -794.974 -2070 44 50 49
-315.415 -794.802 -2070 43 49 48
-311.163 -795.016 -2071 40 46 45
-306.909 -795.232 -2072 35 41 39
-302.945 -796.218 -2075 33 40 36
-298.54 -796.055 -2075 34 40 38
-294.138 -795.895 -2075 33 39 38
-290.017 -796.504 -2077 34 40 39
-285.066 -794.814 -2073 34 40 40
-280.269 -793.511 -2070 32 38 39
-274.688 -789.912 -2061 33 39 38
-269.41 -787.082 -2054 36 42 42
-264.163 -784.256 -2047 41 47 48
-258.949 -781.433 -2040 44 50 51
-254.016 -779.379 -2035 46 52 52
-249.475 -778.477 -2033 46 52 51
-245.306 -778.727 -2034 48 52 51
-240.662 -777.447 -2031 50 54 53
-236.614 -778.084 -2033 50 54 53
-232.902 -779.871 -2038 48 52 51
-228.835 -780.512 -2040 47 51 50
-224.982 -781.92 -2044 42 48 47
-220.898 -782.565 -2046 40 46 45
-216.913 -783.594 -2049 42 47 47
-212.607 -783.478 -2049 45 49 50
-208.404 -783.747 -2050 46 50 51
-204.298 -784.401 -2052 45 49 50
-200.283 -785.439 -2055 44 50 51
-195.971 -785.332 -2055 43 49 50
-191.661 -785.228 -2055 43 49 50
-187.535 -785.89 -2057 44 50 51
-183.135 -785.409 -2056 44 50 51
-179.176 -786.839 -2060 42 48 49
-175.286 -788.654 -2065 43 49 48
-171.46 -790.852 -2071 42 48 48
-167.691 -793.434 -2078 41 47 48
-163.973 -796.399 -2086 33 39 40
-159.916 -797.839 -2090 37 42 43
-155.696 -798.519 -2092 33 37 38
-151.034 -796.909 -2088 21 27 28
-145.969 -793.013 -2078 29 35 36
-141.288 -791.028 -2073 34 40 43
-136.431 -787.901 -2065 39 45 46
-132.056 -787.448 -2064 40 46 47
-127.625 -786.615 -2062 39 45 46
-123.502 -787.692 -2065 37 43 44
-118.848 -785.339 -2059 37 43 44
-114.721 -786.421 -2062 36 43 44
-110.155 -784.453 -2057 36 43 44
-105.867 -784.396 -2057 35 43 43
-101.333 -782.433 -2052 34 42 42
-97.1051 -782.762 -2053 35 45 43
-92.9641 -783.855 -2056 37 49 46
-88.5957 -783.044 -2054 41 48 44
-84.4006 -783.76 -2056 41 47 44
-80.12 -783.716 -2056 44 48 46
-75.6926 -782.15 -2052 43 50 46
-71.3869 -781.729 -2051 43 50 46
-67.0532 -780.93 -2049 45 52 48
-62.8205 -781.276 -2050 46 53 49
-58.4413 -779.719 -2046 45 52 48
-54.238 -780.451 -2048 46 53 49
-49.9051 -779.28 -2045 45 52 48
-45.6742 -779.636 -2046 47 54 50
-41.3991 -779.232 -2045 45 52 48
-37.1649 -779.592 -2046 46 53 49
-32.8947 -779.192 -2045 44 51 47
-28.643 -779.175 -2045 43 50 46
-24.4034 -779.542 -2046 44 51 47
-20.1499 -779.53 -2046 46 53 49
-15.9279 -781.045 -2050 46 53 49
-11.7348 -785.609 -2062 43 50 46
-7.47376 -788.271 -2069 42 49 45
-3.18984 -792.46 -2080 44 51 47
1.14005 -797.031 -2092 45 52 48
5.51487 -800.843 -2102 45 52 48
9.90778 -802.752 -2107 46 52 51
14.3283 -805.044 -2113 47 52 50
18.7562 -806.577 -2117 49 53 50
23.2009 -808.112 -2121 46 53 49
27.7275 -811.555 -2130 45 52 48
32.4275 -818.43 -2148 38 45 41
-356.191 -813.026 -2101 49 54 54
-348.18 -804.708 -2080 48 53 53
-342.41 -801.424 -2072 50 55 56
-337.82 -800.851 -2071 51 55 56
-333.72 -801.441 -2073 49 53 54
-329.297 -801.26 -2073 49 53 52
-324.72 -800.694 -2072 45 51 50
-320.459 -800.905 -2073 43 49 48
-315.892 -800.344 -2072 43 49 48
-311.332 -799.787 -2071 42 48 47
-307.076 -800.004 -2072 37 43 42
-302.964 -800.61 -2074 33 40 36
-298.558 -800.447 -2074 34 40 39
-294.014 -799.899 -2073 36 42 41
-290.035 -800.897 -2076 35 41 40
-285.22 -799.583 -2073 33 39 38
-280.285 -797.887 -2069 30 36 36
-274.837 -794.651 -2061 32 38 37
-269.687 -792.19 -2055 35 41 41
-264.307 -788.961 -2047 41 47 48
-259.47 -787.277 -2043 44 50 51
-254.279 -784.44 -2036 47 53 53
-249.856 -783.918 -2035 47 53 52
-245.198 -782.628 -2032 50 54 53
-240.792 -782.111 -2031 49 53 52
-236.392 -781.596 -2030 49 53 52
-232.8 -783.779 -2036 48 52 51
-228.959 -785.193 -2040 47 52 51
-225.104 -786.61 -2044 45 51 50
-221.017 -787.258 -2046 44 50 49
-217.031 -788.294 -2049 42 48 47
-212.722 -788.177 -2049 40 46 47
-208.516 -788.448 -2050 42 47 48
-204.408 -789.105 -2052 45 49 50
-200.294 -789.765 -2054 44 50 51
-196.173 -790.426 -2056 44 50 51
-191.858 -790.321 -2056 43 49 50
-187.91 -791.756 -2060 44 50 51
-183.59 -791.656 -2060 44 50 51
-179.359 -791.942 -2061 44 50 51
-175.296 -792.999 -2064 44 50 49
-171.552 -795.594 -2071 43 49 48
-167.62 -797.423 -2076 41 47 48
-164.061 -801.174 -2086 30 36 37
-160.309 -804.159 -2094 39 45 46
-155.854 -803.69 -2093 33 37 38
-151.115 -801.687 -2088 23 27 28
-146.118 -798.152 -2079 31 35 36
-141.228 -795.003 -2071 34 40 41
-136.438 -792.241 -2064 41 47 48
-131.935 -791.017 -2061 41 47 48
-127.631 -790.947 -2061 39 45 46
-123.329 -790.88 -2061 37 43 44
-118.912 -790.047 -2059 38 44 45
-114.672 -790.368 -2060 37 45 45
-110.374 -790.307 -2060 37 45 45
-105.872 -788.714 -2056 36 44 44
-101.437 -787.508 -2053 35 43 43
-97.3465 -788.988 -2057 35 45 44
-92.8783 -787.403 -2053 37 49 46
-88.7295 -788.504 -2056 42 49 45
-84.4459 -788.458 -2056 42 48 45
-80.085 -787.647 -2054 44 49 46
-75.6964 -786.454 -2051 42 49 45
-71.3904 -786.032 -2050 44 51 47
-67.0565 -785.227 -2048 46 53 49
-62.7622 -784.809 -2047 45 52 48
-58.4154 -783.626 -2044 45 52 48
-54.1877 -783.979 -2045 47 54 50
-49.9317 -783.951 -2045 46 53 49
-45.6764 -783.926 -2045 45 52 48
-41.4214 -783.902 -2045 45 52 48
-37.2212 -785.031 -2048 44 51 47
-32.9446 -784.629 -2047 43 50 46
-28.6864 -784.612 -2047 42 49 45
-24.4164 -784.215 -2046 43 50 46
-20.1706 -784.586 -2047 45 52 48
-15.9518 -786.493 -2052 46 53 49
-11.7352 -789.935 -2061 43 50 46
-7.48129 -793.379 -2070 43 50 46
-3.19153 -797.209 -2080 44 51 47
1.14089 -801.808 -2092 44 51 47
5.52061 -806.026 -2103 44 51 47
9.92731 -808.713 -2110 45 50 49
14.37 -811.786 -2118 47 52 50
18.7663 -811.411 -2117 48 52 49
23.2023 -812.573 -2120 46 53 49
27.7552 -816.803 -2131 47 54 50
32.4299 -822.952 -2147 44 51 47
-356.047 -817.107 -2099 48 52 51
-348.204 -809.129 -2079 48 52 52
-342.598 -806.214 -2072 51 55 56
-338.169 -806.027 -2072 52 56 57
-333.259 -804.675 -2069 50 54 54
-329.636 -806.437 -2074 48 52 51
-325.368 -806.646 -2075 46 52 51
-320.944 -806.468 -2075 45 51 50
-315.912 -804.738 -2071 44 50 49
-311.803 -805.343 -2073 42 48 47
-307.095 -804.396 -2071 40 47 45
-302.837 -804.617 -2072 36 43 39
-298.434 -804.452 -2072 33 40 38
-293.749 -803.514 -2070 34 40 39
-289.494 -803.742 -2071 34 40 39
-284.963 -803.196 -2070 31 37 36
-280.574 -803.041 -2070 28 34 33
-275.254 -800.174 -2063 31 37 36
-270.359 -798.473 -2059 34 40 40
-264.838 -794.837 -2050 41 47 48
-259.612 -791.979 -2043 44 50 51
-254.667 -789.901 -2038 47 53 54
-250.361 -789.763 -2038 49 55 54
-245.331 -787.302 -2032 52 56 55
-241.16 -787.557 -2033 51 55 54
-236.754 -787.039 -2032 48 52 51
-232.812 -788.072 -2035 48 52 51
-229.084 -789.883 -2040 49 53 52
-225.336 -791.694 -2045 46 52 51
-221.354 -792.734 -2048 43 49 48
-217.149 -793.001 -2049 41 47 46
-212.941 -793.271 -2050 40 46 46
-208.732 -793.543 -2051 41 47 47
-204.42 -793.43 -2051 44 49 50
-200.207 -793.707 -2052 45 51 51
-196.183 -794.759 -2055 45 51 51
-191.869 -794.653 -2055 43 49 49
-187.829 -795.71 -2058 44 50 50
-183.601 -795.995 -2059 46 52 52
-179.718 -797.83 -2064 45 51 51
-175.561 -798.506 -2066 44 50 49
-171.977 -801.89 -2075 42 48 48
-167.953 -803.343 -2079 41 47 48
-164.228 -806.344 -2087 28 34 35
-160.166 -807.801 -2091 42 48 49
-155.715 -807.329 -2090 34 38 39
-150.98 -805.314 -2085 24 28 29
-146.197 -802.916 -2079 31 35 36
-141.441 -800.521 -2073 36 40 41
-136.446 -796.584 -2063 41 46 46
-132.199 -796.897 -2064 41 47 47
-127.639 -795.282 -2060 41 47 46
-123.456 -795.986 -2062 38 45 44
-118.977 -794.762 -2059 40 47 46
-114.789 -795.471 -2061 41 49 47
-110.273 -793.866 -2057 38 46 45
-106.033 -794.194 -2058 36 44 43
-101.64 -793.366 -2056 37 45 45
-97.2097 -792.154 -2053 37 46 45
-93.019 -792.874 -2055 39 49 47
-88.7344 -792.825 -2055 43 50 46
-84.4915 -793.164 -2056 42 49 45
-80.1283 -792.348 -2054 43 50 46
-75.7741 -791.534 -2052 43 51 45
-71.3941 -790.337 -2049 45 53 47
-66.9944 -788.756 -2045 46 53 49
-62.7348 -788.722 -2045 46 53 49
-58.3898 -787.532 -2042 46 53 49
-54.1904 -788.273 -2044 47 54 50
-49.9098 -787.859 -2043 46 53 49
-45.6786 -788.218 -2044 46 53 49
-41.4234 -788.195 -2044 45 52 48
-37.2231 -789.33 -2047 46 53 49
-32.9461 -788.926 -2046 44 51 47
-28.7018 -789.295 -2047 44 51 47
-24.4773 -790.437 -2050 45 52 48
-20.2406 -791.582 -2053 44 51 47
-15.9915 -792.729 -2056 43 50 46
-11.7587 -795.806 -2064 42 49 45
-7.4855 -798.114 -2070 44 51 47
-3.19783 -803.124 -2083 45 52 48
1.1431 -807.75 -2095 45 52 48
5.52611 -811.222 -2104 43 50 46
9.92334 -812.768 -2108 48 52 51
14.371 -816.245 -2117 47 51 50
18.7586 -815.483 -2115 47 51 48
23.2478 -818.579 -2123 46 53 49
27.7572 -821.292 -2130 47 54 50
32.4625 -828.249 -2148 46 53 49
37.4148 -839.064 -2176 60 66 65
-354.717 -818.446 -2090 50 54 53
-347.558 -811.986 -2074 49 53 52
-342.292 -809.838 -2069 50 54 54
-337.539 -808.867 -2067 51 55 56
-333.443 -809.464 -2069 51 55 55
-329.659 -810.844 -2073 50 54 53
-325.077 -810.272 -2072 47 53 52
-321.121 -811.266 -2075 45 51 50
-316.239 -809.918 -2072 44 50 49
-312.276 -810.916 -2075 43 49 48
-307.71 -810.354 -2074 42 48 47
-303.15 -809.795 -2073 39 46 42
-298.742 -809.629 -2073 34 41 39
-293.91 -808.293 -2070 33 39 38
-289.653 -808.523 -2071 33 39 38
-284.844 -807.193 -2068 30 36 35
-280.593 -807.428 -2069 28 34 33
-275.405 -804.933 -2063 32 38 37
-270.508 -803.222 -2059 35 41 40
-264.984 -799.564 -2050 40 46 46
-260.263 -798.249 -2047 40 46 47
-254.932 -794.988 -2039 44 50 50
-250.621 -794.849 -2039 48 54 53
-245.828 -793.153 -2035 52 56 55
-241.293 -792.24 -2033 51 55 54
-237.117 -792.498 -2034 49 53 52
-233.283 -793.927 -2038 49 53 52
-229.097 -794.19 -2039 49 53 52
-225.349 -796.012 -2044 46 52 51
-221.367 -797.058 -2047 45 51 50
-217.268 -797.716 -2049 44 50 49
-213.162 -798.377 -2051 44 50 49
-208.947 -798.65 -2052 44 50 50
-204.631 -798.537 -2052 44 50 51
-200.317 -798.426 -2052 45 51 50
-196.1 -798.706 -2053 44 50 49
-191.974 -799.378 -2055 43 49 48
-188.023 -800.829 -2059 44 50 49
-183.701 -800.728 -2059 44 50 49
-179.816 -802.572 -2064 43 49 48
-175.572 -802.864 -2065 41 47 46
-171.822 -805.49 -2072 42 48 48
-167.964 -807.73 -2078 40 46 47
-164.554 -812.302 -2090 24 30 31
-160.176 -812.214 -2090 44 50 51
-156.098 -813.682 -2094 33 37 38
-151.352 -811.655 -2089 24 28 29
-146.277 -807.688 -2079 31 35 36
-141.518 -805.279 -2073 37 41 42
-136.719 -802.484 -2066 41 46 46
-132.142 -800.857 -2062 40 46 45
-127.584 -799.232 -2058 42 48 47
-123.403 -799.94 -2060 42 50 48
-118.983 -799.098 -2058 41 49 47
-114.685 -799.034 -2058 41 49 47
-110.226 -797.808 -2055 40 48 46
-106.039 -798.525 -2057 35 44 42
-101.646 -797.692 -2055 35 43 43
-97.4047 -798.026 -2056 37 46 45
-93.1148 -797.974 -2056 41 51 49
-88.8257 -797.924 -2056 45 52 48
-84.4964 -797.489 -2055 44 50 46
-80.1329 -796.668 -2053 46 51 46
-75.7784 -795.849 -2051 44 51 46
-71.4328 -795.033 -2049 44 52 46
-67.1292 -794.608 -2048 44 51 47
-62.7995 -793.796 -2046 45 52 48
-58.5074 -793.375 -2045 46 53 49
-54.2198 -792.957 -2044 46 53 49
-49.9615 -792.928 -2044 44 51 47
-45.7035 -792.902 -2044 47 54 50
-41.4662 -793.266 -2045 47 54 50
-37.2251 -793.633 -2046 48 55 51
-32.9801 -794.002 -2047 45 52 48
-28.7454 -794.761 -2049 45 52 48
-24.5264 -796.297 -2053 46 53 49
-20.2614 -796.673 -2054 45 52 48
-15.9924 -797.051 -2055 44 51 47
-11.7763 -801.31 -2066 42 49 45
-7.50393 -804.408 -2074 43 50 46
-3.20261 -808.671 -2085 44 51 47
1.14477 -813.325 -2097 45 52 48
5.53189 -816.43 -2105 45 52 48
9.93325 -817.985 -2109 47 51 50
14.3448 -819.156 -2112 47 51 50
18.7956 -821.492 -2118 48 52 49
23.2387 -822.667 -2121 45 52 48
27.7723 -826.172 -2130 45 52 48
32.3896 -830.843 -2142 46 53 49
37.2805 -840.559 -2167 56 61 60
-354.914 -823.296 -2090 52 55 54
-347.752 -816.798 -2074 51 54 52
-342.316 -814.243 -2068 52 54 54
-337.237 -812.479 -2064 50 54 55
-332.983 -812.686 -2065 50 54 55
-329.047 -813.682 -2068 49 53 52
-324.786 -813.893 -2069 46 51 50
-321.144 -815.68 -2074 44 50 49
-316.567 -815.109 -2073 45 51 50
-311.847 -814.148 -2071 44 51 48
-307.732 -814.762 -2073 43 50 46
-303.026 -813.806 -2071 40 47 43
-298.186 -812.46 -2068 35 42 39
-293.789 -812.295 -2068 33 39 38
-289.674 -812.919 -2070 33 39 38
-284.726 -811.189 -2066 33 39 38
-280.748 -812.21 -2069 32 38 37
-275.691 -810.093 -2064 33 39 38
-270.789 -808.371 -2060 33 39 38
-265.389 -805.084 -2052 37 43 42
-260.407 -802.976 -2047 38 44 45
-255.073 -799.696 -2039 42 48 48
-250.39 -798.38 -2036 47 53 52
-245.964 -797.85 -2035 51 55 54
-241.663 -797.715 -2035 50 54 53
-237.364 -797.582 -2035 50 54 53
-233.526 -799.02 -2039 49 53 52
-229.335 -799.284 -2040 49 53 52
-225.363 -800.334 -2043 49 55 54
-221.381 -801.385 -2046 47 53 52
-217.281 -802.047 -2048 47 53 52
-213.071 -802.32 -2049 46 52 51
-208.961 -802.987 -2051 45 51 52
-204.644 -802.872 -2051 46 52 53
-200.427 -803.152 -2052 44 50 49
-196.207 -803.434 -2053 42 48 47
-191.986 -803.718 -2054 42 48 47
-187.852 -804.396 -2056 43 49 48
-183.623 -804.685 -2057 42 48 47
-179.828 -806.932 -2063 43 49 48
-175.753 -808.007 -2066 41 48 44
-172.414 -812.604 -2078 39 46 44
-168.46 -814.465 -2083 35 41 42
-164.566 -816.72 -2089 22 28 29
-160.264 -817.021 -2090 50 56 57
-156.109 -818.106 -2093 31 35 36
-151.218 -815.286 -2086 23 27 28
-146.498 -813.25 -2081 31 35 36
-141.8 -811.217 -2076 37 41 42
-136.86 -807.624 -2067 43 48 48
-132.343 -806.378 -2064 41 47 46
-127.716 -804.353 -2059 42 48 47
-123.531 -805.065 -2061 43 50 49
-118.933 -803.045 -2056 42 50 49
-114.747 -803.762 -2058 43 51 49
-110.34 -802.919 -2056 42 51 49
-106.097 -803.25 -2057 37 47 45
-101.751 -802.803 -2056 36 45 44
-97.5529 -803.529 -2058 38 48 46
-93.1658 -802.696 -2056 40 51 49
-88.7447 -801.474 -2053 45 52 47
-84.4192 -801.037 -2052 46 52 47
-80.0595 -800.211 -2050 48 52 47
-75.7458 -799.778 -2049 45 53 47
-71.437 -799.347 -2048 45 53 47
-67.0674 -798.138 -2045 44 51 47
-62.8339 -798.493 -2046 43 50 46
-58.5107 -797.679 -2044 44 51 47
-54.2494 -797.648 -2044 46 53 49
-49.9887 -797.62 -2044 44 51 47
-45.7061 -797.203 -2043 45 52 48
-41.4482 -797.179 -2043 46 53 49
-37.2089 -797.548 -2044 47 54 50
-33.0142 -799.089 -2048 45 52 48
-28.7751 -799.853 -2050 44 51 47
-24.5517 -801.399 -2054 44 51 47
-20.3416 -804.118 -2061 44 51 47
-16.0635 -804.888 -2063 43 50 46
-11.8114 -808.002 -2071 42 49 45
-7.51878 -810.338 -2077 42 49 45
-3.20893 -814.626 -2088 44 51 47
1.14562 -818.137 -2097 44 51 47
5.53505 -821.26 -2105 46 53 49
9.93403 -822.435 -2108 47 51 50
14.3526 -824.002 -2112 48 52 50
18.7792 -825.182 -2115 48 52 49
23.2293 -826.754 -2119 43 50 46
27.7878 -831.06 -2130 44 51 47
32.377 -834.978 -2140 44 51 47
37.1461 -842.02 -2158 57 61 60
-364.932 -840.642 -2121 97 100 106
-355.113 -828.155 -2090 51 54 52
-347.779 -821.222 -2073 49 52 50
-342.508 -819.048 -2068 49 52 53
-337.425 -817.273 -2064 49 53 54
-333.169 -817.481 -2065 50 54 54
-328.912 -817.691 -2066 48 52 51
-324.968 -818.695 -2069 44 51 48
-320.859 -819.305 -2071 42 50 47
-316.744 -819.917 -2073 44 50 49
-312.322 -819.741 -2073 44 50 47
-307.755 -819.173 -2072 44 51 47
-303.341 -819.001 -2072 40 47 43
-298.786 -818.438 -2071 34 41 38
-294.095 -817.482 -2069 33 39 38
-289.695 -817.319 -2069 35 41 40
-285.023 -816.368 -2067 35 41 40
-280.633 -816.21 -2067 32 38 37
-275.577 -814.081 -2062 32 38 37
-271.202 -813.928 -2062 31 37 36
-266.054 -811.41 -2056 36 42 41
-260.551 -807.712 -2047 40 46 47
-255.465 -805.201 -2041 43 49 50
-250.652 -803.481 -2037 44 50 49
-245.859 -801.766 -2033 47 52 51
-241.797 -802.418 -2035 50 54 53
-237.613 -802.679 -2036 50 54 53
-233.541 -803.337 -2038 50 54 53
-229.238 -803.208 -2038 50 55 53
-225.488 -805.052 -2043 47 55 52
-221.503 -806.11 -2046 46 53 51
-217.189 -805.988 -2046 46 52 51
-213.085 -806.656 -2048 46 52 51
-209.178 -808.114 -2052 46 52 52
-204.558 -806.818 -2049 46 52 53
-200.44 -807.493 -2051 46 52 51
-196.22 -807.776 -2052 43 49 48
-191.998 -808.062 -2053 43 49 48
-188.231 -810.318 -2059 44 50 49
-183.993 -810.608 -2060 43 49 48
-180.276 -813.262 -2067 43 49 48
-176.02 -813.556 -2068 42 48 45
-172.592 -817.787 -2079 38 45 42
-168.392 -818.479 -2081 32 38 39
-164.814 -822.319 -2091 19 25 26
-160.276 -821.443 -2089 49 55 56
-155.971 -821.748 -2090 32 36 35
-151.374 -820.484 -2087 25 29 28
-146.649 -818.436 -2082 31 35 35
-141.947 -816.39 -2077 36 40 41
-137.002 -812.776 -2068 43 48 48
-132.48 -811.522 -2065 42 48 47
-127.849 -809.485 -2060 43 49 48
-123.419 -808.63 -2058 43 49 50
-118.999 -807.777 -2056 44 50 51
-114.755 -808.105 -2057 43 51 49
-110.293 -806.865 -2054 42 51 49
-106.052 -807.198 -2055 41 51 49
-101.807 -807.533 -2056 40 50 48
-97.5117 -807.478 -2056 41 52 49
-93.1265 -806.64 -2054 41 53 50
-88.88 -806.982 -2055 45 52 46
-84.4244 -805.364 -2051 46 53 47
-79.9863 -803.748 -2047 48 52 48
-75.7136 -803.705 -2047 46 52 47
-71.4415 -803.664 -2047 46 53 48
-67.1372 -803.233 -2046 45 52 48
-62.7762 -802.02 -2043 44 51 47
-58.5142 -801.986 -2043 44 51 47
-54.2527 -801.955 -2043 46 53 49
-50.0161 -802.319 -2044 44 51 47
-45.7087 -801.507 -2042 45 52 48
-41.471 -801.876 -2043 44 52 48
-37.2295 -802.247 -2044 45 52 48
-33.0163 -803.405 -2047 46 53 49
-28.7908 -804.565 -2050 46 53 49
-24.5413 -805.335 -2052 45 52 48
-20.3329 -808.07 -2059 45 52 48
-16.0723 -809.63 -2063 43 50 46
-11.8179 -812.762 -2071 41 48 44
-7.52641 -815.504 -2078 41 48 44
-3.21373 -820.21 -2090 42 49 45
1.14675 -823.35 -2098 45 52 48
5.53534 -825.706 -2104 45 52 48
9.94426 -827.672 -2109 46 52 49
14.3608 -828.857 -2112 46 52 49
18.8163 -831.221 -2118 45 51 47
23.297 -833.587 -2124 42 49 45
27.8161 -836.348 -2131 44 51 47
32.3193 -837.935 -2135 49 56 52
37.0288 -843.841 -2150 51 56 55
41.8781 -851.321 -2169 99 104 105
-362.728 -840.001 -2107 88 90 94
-353.953 -829.833 -2082 47 50 50
-347.807 -825.649 -2072 42 44 44
-342.204 -822.665 -2065 45 49 49
-337.124 -820.88 -2061 46 50 51
-333.195 -821.885 -2064 46 51 51
-328.938 -822.097 -2065 46 51 50
-324.836 -822.708 -2067 44 51 49
-320.884 -823.72 -2070 41 49 46
-316.616 -823.938 -2071 40 46 45
-312.649 -824.954 -2074 40 47 44
-308.374 -825.177 -2075 44 51 46
-303.658 -824.21 -2073 40 47 43
-299.242 -824.04 -2073 34 40 37
-294.26 -822.283 -2069 33 39 38
-289.858 -822.119 -2069 34 40 39
-285.32 -821.56 -2068 34 40 39
-280.926 -821.401 -2068 32 38 37
-276.4 -820.847 -2067 32 38 37
-271.486 -819.105 -2063 31 37 36
-266.332 -816.572 -2057 33 39 39
-260.697 -812.454 -2047 39 45 45
-255.357 -809.135 -2039 44 50 50
-250.792 -808.199 -2037 45 51 50
-245.875 -806.077 -2032 48 52 50
-241.576 -805.94 -2032 48 52 50
-237.746 -807.392 -2036 49 53 52
-233.557 -807.656 -2037 48 52 51
-229.253 -807.527 -2037 47 52 51
-225.393 -808.985 -2041 44 52 48
-221.085 -808.86 -2041 47 54 51
-217.098 -809.926 -2044 48 54 53
-212.787 -809.806 -2044 47 53 52
-208.887 -811.273 -2048 46 52 52
-204.572 -811.157 -2048 47 53 53
-200.454 -811.836 -2050 47 55 53
-196.138 -811.726 -2050 45 52 50
-192.386 -813.992 -2056 44 50 49
-188.061 -813.886 -2056 44 50 49
-184.095 -815.366 -2060 42 48 47
-180.202 -817.243 -2065 40 46 45
-176.459 -819.914 -2072 40 46 45
-172.855 -823.377 -2081 41 47 46
-168.728 -824.469 -2084 29 35 35
-164.827 -826.75 -2090 25 31 31
-160.212 -825.472 -2087 42 48 48
-155.909 -825.78 -2088 28 32 32
-151.385 -824.903 -2086 24 28 27
-146.731 -823.238 -2082 30 34 33
-142.026 -821.181 -2077 34 38 39
-137.144 -817.94 -2069 40 45 46
-132.554 -816.284 -2065 42 48 48
-127.857 -813.84 -2059 44 50 49
-123.487 -813.375 -2058 44 51 50
-119.007 -812.122 -2055 45 53 52
-114.707 -812.057 -2055 44 52 49
-110.247 -810.809 -2052 42 52 48
-106.111 -811.934 -2055 38 50 47
-101.715 -811.086 -2053 38 48 44
-97.4234 -811.031 -2053 41 52 49
-93.1326 -810.977 -2053 43 53 51
-88.7563 -810.137 -2051 44 52 48
-84.3477 -808.904 -2048 47 54 50
-80.0307 -808.463 -2047 48 55 51
-75.7185 -808.025 -2046 49 56 52
-71.4461 -807.984 -2046 48 55 51
-67.1086 -807.156 -2044 45 52 48
-62.8416 -807.12 -2044 44 51 47
-58.5752 -807.086 -2044 46 53 49
-54.3093 -807.055 -2044 45 52 48
-50.0683 -807.42 -2045 45 52 48
-45.7788 -806.999 -2044 46 53 49
-41.5346 -807.37 -2045 45 53 49
-37.2135 -806.163 -2042 46 53 49
-32.97 -806.539 -2043 46 53 49
-28.7786 -808.495 -2048 46 53 49
-24.5788 -810.849 -2054 45 52 48
-20.3244 -812.021 -2057 43 50 46
-16.1201 -816.354 -2068 42 49 45
-11.8471 -819.109 -2075 41 48 44
-7.54158 -821.472 -2081 41 48 44
-3.21701 -825.417 -2091 42 49 45
1.14734 -828.179 -2098 44 51 47
5.53854 -830.55 -2104 45 52 48
9.94064 -831.739 -2107 45 52 48
14.3551 -832.929 -2110 45 52 48
18.8179 -835.702 -2117 44 51 47
23.2882 -837.688 -2122 42 49 45
27.8184 -840.86 -2130 43 50 46
32.337 -842.851 -2135 44 51 47
36.9977 -847.607 -2147 51 57 56
41.7277 -852.762 -2160 62 67 68
-360.522 -839.302 -2093 66 68 70
-353.303 -832.684 -2077 49 51 53
-347.668 -829.679 -2070 46 48 50
-342.729 -828.28 -2067 45 49 48
-337.806 -826.884 -2064 45 51 50
-333.869 -827.896 -2067 45 51 50
-329.443 -827.707 -2067 46 52 51
-325.177 -827.922 -2068 46 52 51
-320.911 -828.139 -2069 43 49 48
-317.101 -829.559 -2073 40 47 43
-312.674 -829.38 -2073 40 47 42
-308.696 -830.404 -2076 42 49 43
-304.269 -830.23 -2076 41 48 44
-299.266 -828.46 -2072 36 43 40
-294.853 -828.292 -2072 36 42 41
-290.161 -827.327 -2070 36 42 41
-285.343 -825.965 -2067 36 42 41
-280.948 -825.805 -2067 35 41 40
-276.154 -824.449 -2064 32 38 37
-271.77 -824.294 -2064 32 38 37
-266.482 -821.347 -2057 33 39 39
-261.354 -818.802 -2051 36 42 41
-255.25 -813.068 -2037 43 49 48
-250.934 -812.925 -2037 45 51 50
-246.014 -810.789 -2032 50 54 52
-241.593 -810.253 -2031 52 56 54
-237.529 -810.916 -2033 51 55 54
-233.573 -811.979 -2036 49 54 53
-229.157 -811.45 -2035 48 54 53
-225.299 -812.917 -2039 47 54 50
-221.101 -813.19 -2040 48 54 52
-217.113 -814.263 -2043 48 54 53
-213.011 -814.939 -2045 47 53 52
-209.004 -816.015 -2048 45 51 50
-204.487 -815.102 -2046 45 51 50
-200.566 -816.582 -2050 45 53 51
-196.344 -816.868 -2051 45 53 51
-192.4 -818.352 -2055 46 52 51
-188.258 -819.042 -2057 47 53 52
-184.467 -821.326 -2063 44 50 49
-180.565 -823.214 -2068 40 46 45
-176.813 -825.9 -2075 39 45 46
-173.201 -829.383 -2084 36 42 42
-169.147 -830.879 -2088 29 35 34
-164.683 -830.387 -2087 25 31 30
-160.301 -830.296 -2087 31 37 36
-155.846 -829.81 -2086 21 25 26
-151.325 -828.928 -2084 22 26 25
-146.671 -827.254 -2080 30 34 33
-141.9 -824.786 -2074 36 40 41
-137.221 -822.72 -2069 41 46 47
-132.435 -819.861 -2062 40 46 47
-127.929 -818.595 -2059 42 48 47
-123.496 -817.73 -2057 42 49 47
-119.015 -816.469 -2054 42 50 48
-114.603 -815.609 -2052 43 51 47
-110.416 -816.341 -2054 42 52 49
-106.118 -816.28 -2054 37 49 46
-101.722 -815.427 -2052 36 46 43
-97.4303 -815.372 -2052 40 50 48
-93.23 -816.113 -2054 44 54 52
-88.8491 -815.268 -2052 46 55 51
-84.4359 -814.027 -2049 48 56 52
-80.1926 -814.378 -2050 49 56 52
-75.8718 -813.937 -2049 50 57 53
-71.4859 -812.705 -2046 51 58 54
-67.179 -812.269 -2045 46 53 49
-62.9382 -812.629 -2046 45 52 48
-58.6366 -812.198 -2045 46 53 49
-54.3661 -812.167 -2045 44 51 47
-50.1207 -812.535 -2046 44 51 47
-45.8716 -812.905 -2047 46 53 49
-41.5779 -812.484 -2046 47 55 51
-37.3072 -812.462 -2046 48 55 51
-33.0368 -812.442 -2046 47 54 50
-28.7525 -812.028 -2045 46 53 49
-24.5684 -814.792 -2052 44 51 47
-20.3258 -816.368 -2056 41 48 44
-16.1056 -819.931 -2065 43 50 46
-11.8537 -823.894 -2075 42 49 45
-7.55652 -827.462 -2084 41 48 44
-3.22183 -831.033 -2093 41 48 44
1.1493 -833.812 -2100 43 50 46
5.54175 -835.402 -2104 44 51 47
9.94621 -836.598 -2107 45 52 48
14.3701 -838.193 -2111 45 52 48
18.8285 -840.584 -2117 44 51 47
23.2792 -841.787 -2120 44 51 47
27.7688 -843.787 -2125 42 49 45
32.2491 -844.995 -2128 39 46 42
36.8459 -848.588 -2137 45 51 50
41.4032 -850.596 -2142 62 67 67
-360.039 -842.581 -2089 59 61 63
-353.675 -837.94 -2078 48 51 53
-348.707 -836.529 -2075 46 49 50
-343.091 -833.51 -2068 45 51 50
-338.163 -832.106 -2065 47 53 52
-334.059 -832.72 -2067 47 53 52
-329.949 -833.336 -2069 46 52 51
-325.677 -833.551 -2070 46 52 51
-321.093 -832.964 -2069 45 51 50
-316.822 -833.184 -2070 43 50 46
-312.852 -834.212 -2073 42 49 44
-308.872 -835.242 -2076 42 49 43
-304.442 -835.067 -2076 42 49 45
-299.725 -834.09 -2074 39 46 43
-295.305 -833.921 -2074 37 43 42
-290.466 -832.548 -2071 35 41 40
-285.781 -831.58 -2069 36 42 41
-281.107 -830.615 -2067 35 41 40
-276.712 -830.456 -2067 33 39 38
-271.793 -828.693 -2063 32 38 37
-266.893 -826.933 -2059 33 39 38
-261.119 -822.366 -2048 35 41 40
-255.771 -819.007 -2040 41 47 46
-250.952 -817.257 -2036 43 49 48
-246.032 -815.109 -2031 49 54 51
-241.848 -815.372 -2032 52 56 53
-237.78 -816.038 -2034 47 53 52
-233.59 -816.306 -2035 47 53 52
-229.286 -816.175 -2035 48 54 53
-225.316 -817.249 -2038 50 57 53
-220.9 -816.722 -2037 51 57 55
-217.023 -818.201 -2041 51 57 56
-212.506 -817.278 -2039 48 54 53
-208.611 -818.762 -2043 45 51 50
-204.402 -819.046 -2044 45 51 50
-200.582 -820.934 -2049 45 53 51
-196.263 -820.822 -2049 46 53 51
-192.509 -823.116 -2055 47 53 52
-188.456 -824.209 -2058 48 54 53
-184.571 -826.106 -2063 46 52 51
-180.492 -827.204 -2066 43 49 48
-177.169 -831.907 -2078 40 46 47
-173.049 -833.01 -2081 34 40 41
-169.242 -835.715 -2088 31 37 36
-164.696 -834.82 -2086 26 32 31
-160.391 -835.129 -2087 28 34 33
-156.084 -835.439 -2088 22 26 27
-151.264 -832.952 -2082 23 27 27
-146.895 -832.868 -2082 30 34 33
-141.979 -829.586 -2074 34 38 39
-137.298 -827.508 -2069 38 43 44
-132.445 -824.232 -2061 37 43 44
-127.939 -822.959 -2058 41 47 46
-123.505 -822.088 -2056 46 53 51
-119.024 -820.821 -2053 47 55 53
-114.668 -820.355 -2052 47 55 51
-110.263 -819.492 -2050 48 57 54
-106.075 -820.231 -2052 45 57 54
-101.779 -820.172 -2052 45 55 53
-97.3899 -819.316 -2050 45 55 53
-93.1007 -819.263 -2050 45 55 53
-88.8556 -819.611 -2051 47 55 51
-84.4833 -818.763 -2049 47 55 51
-80.1593 -818.318 -2048 47 55 51
-75.8773 -818.274 -2048 48 55 51
-71.5259 -817.433 -2046 48 55 51
-67.2166 -816.994 -2045 47 54 50
-62.9428 -816.958 -2045 46 53 49
-58.6694 -816.924 -2045 46 53 49
-54.4232 -817.291 -2046 44 51 47
-50.1734 -817.662 -2047 46 53 49
-45.8748 -817.235 -2046 47 54 50
-41.5809 -816.811 -2045 48 56 52
-37.3098 -816.789 -2045 49 56 52
-33.0067 -815.97 -2043 48 55 51
-28.7545 -816.353 -2044 46 53 49
-24.5582 -818.734 -2050 44 51 47
-20.3668 -822.315 -2059 43 50 46
-16.1536 -826.699 -2070 43 50 46
-11.8832 -830.285 -2079 42 49 45
-7.57149 -833.475 -2087 42 49 45
-3.22821 -837.066 -2096 43 50 46
1.15154 -839.861 -2103 44 51 47
5.54998 -841.061 -2106 43 50 46
9.96598 -842.663 -2110 45 52 48
14.3849 -843.468 -2112 45 52 48
18.8303 -845.075 -2116 44 51 47
23.2923 -846.685 -2120 44 51 47
27.7845 -848.696 -2125 43 50 46
32.2824 -850.31 -2129 42 49 45
36.8665 -853.525 -2137 49 55 54
41.4649 -856.343 -2144 60 65 65
-359.211 -845.037 -2083 57 59 61
-353.197 -841.181 -2074 49 52 54
-348.403 -840.168 -2072 48 52 53
-343.62 -839.158 -2070 47 53 52
-338.684 -837.745 -2067 48 54 53
-334.897 -839.173 -2071 48 54 53
-330.298 -838.576 -2070 47 53 52
-325.706 -837.982 -2069 47 53 52
-321.432 -838.202 -2070 46 52 51
-317.157 -838.423 -2071 44 51 47
-313.031 -839.052 -2073 43 50 46
-308.453 -838.469 -2072 44 51 46
-304.469 -839.506 -2075 43 50 46
-299.752 -838.524 -2073 38 44 41
-295.616 -839.163 -2075 34 40 39
-290.492 -836.973 -2070 34 40 39
-285.668 -835.595 -2067 36 42 41
-280.86 -834.22 -2064 33 39 38
-276.468 -834.06 -2064 30 36 35
-271.42 -831.883 -2059 29 35 34
-266.267 -829.306 -2053 34 40 39
-261.906 -829.155 -2053 36 42 41
-256.544 -825.775 -2045 40 46 45
-251.342 -822.804 -2038 42 48 47
-246.414 -820.643 -2033 48 52 50
-242.105 -820.504 -2033 51 55 52
-237.915 -820.77 -2034 48 54 53
-233.838 -821.443 -2036 48 54 53
-229.417 -820.907 -2035 49 55 54
-225.554 -822.391 -2039 48 56 52
-221.352 -822.666 -2040 50 58 54
-217.253 -823.348 -2042 49 57 54
-212.627 -822.016 -2039 51 57 56
-208.628 -823.105 -2042 51 57 56
-204.518 -823.794 -2044 50 56 55
-200.598 -825.29 -2048 48 56 54
-196.375 -825.581 -2049 48 55 53
-192.712 -828.29 -2056 48 54 53
-188.562 -828.987 -2058 48 54 53
-184.765 -831.298 -2064 45 51 50
-180.944 -833.61 -2070 42 48 47
-177.44 -837.535 -2080 39 45 44
-173.313 -838.643 -2083 33 39 38
-169.338 -840.559 -2088 30 36 35
-165.106 -841.269 -2090 28 34 33
-160.559 -840.371 -2088 38 44 43
-156.097 -839.879 -2087 25 30 31
-151.495 -838.584 -2084 27 31 31
-146.908 -837.292 -2081 36 40 39
-141.991 -833.992 -2073 40 44 45
-137.442 -832.706 -2070 43 48 48
-132.649 -829.813 -2063 42 48 47
-128.135 -828.533 -2060 44 50 49
-123.395 -825.646 -2053 47 54 53
-119.091 -825.577 -2053 48 56 54
-114.621 -824.305 -2050 47 55 51
-110.272 -823.839 -2049 47 56 52
-105.979 -823.777 -2049 46 56 54
-101.688 -823.718 -2049 45 55 53
-97.3975 -823.662 -2049 45 55 53
-93.2441 -824.814 -2052 46 56 54
-88.9057 -824.361 -2051 47 55 51
-84.6135 -824.311 -2051 46 54 50
-80.322 -824.265 -2051 45 53 49
-75.9571 -823.417 -2049 47 54 50
-71.6364 -822.973 -2048 48 55 51
-67.2873 -822.13 -2046 49 56 52
-63.009 -822.093 -2046 48 55 51
-58.7312 -822.059 -2046 47 54 50
-54.5071 -822.83 -2048 46 53 49
-50.177 -821.997 -2046 46 53 49
-45.9455 -822.774 -2048 48 55 51
-41.6451 -822.347 -2047 48 56 52
-37.3492 -821.923 -2046 48 55 51
-33.0577 -821.501 -2045 47 54 50
-28.827 -822.689 -2048 46 53 49
-24.5601 -823.076 -2049 45 52 48
-20.3387 -825.473 -2055 46 53 49
-16.147 -830.685 -2068 46 53 49
-11.9068 -836.3 -2082 44 51 47
-7.59764 -840.713 -2093 42 49 45
-3.23768 -843.924 -2101 43 50 46
1.15515 -846.735 -2108 44 51 47
5.56113 -847.139 -2109 43 50 46
9.97634 -847.946 -2111 46 53 49
14.4 -848.757 -2113 46 53 49
18.841 -849.971 -2116 45 52 48
23.2944 -851.189 -2119 45 52 48
27.7477 -852.006 -2121 45 52 48
32.2857 -854.835 -2128 45 52 48
36.8357 -857.265 -2134 47 53 50
41.469 -860.903 -2143 59 64 63
46.5694 -872.578 -2172 65 69 70
-358.729 -848.29 -2079 54 56 58
-352.89 -844.819 -2071 46 49 50
-348.099 -843.8 -2069 45 49 49
-343.32 -842.785 -2067 47 53 52
-339.044 -842.995 -2068 48 54 53
-334.605 -842.8 -2068 47 53 52
-330.329 -843.015 -2069 47 53 52
-325.894 -842.825 -2069 47 53 52
-321.773 -843.452 -2071 46 52 51
-317.186 -842.86 -2070 46 53 49
-312.607 -842.271 -2069 46 53 49
-308.333 -842.499 -2070 46 53 49
-304.351 -843.543 -2073 43 50 46
-299.925 -843.369 -2073 39 46 42
-295.786 -844.011 -2075 35 41 40
-290.94 -842.621 -2072 33 39 38
-286.247 -841.642 -2070 37 43 42
-281.021 -839.039 -2064 35 41 40
-276.761 -839.284 -2065 32 38 37
-271.84 -837.501 -2061 32 38 37
-267.328 -836.939 -2060 34 40 39
-261.673 -832.725 -2050 37 43 42
-256.566 -830.139 -2044 41 47 46
-251.98 -829.18 -2042 43 49 48
-246.919 -826.601 -2036 46 51 49
-242.363 -825.648 -2034 49 53 50
-238.169 -825.916 -2035 49 55 54
-233.857 -825.78 -2035 49 55 54
-229.435 -825.242 -2034 48 54 53
-225.351 -825.923 -2036 47 55 51
-221.37 -827.011 -2039 48 56 52
-216.952 -826.48 -2038 49 57 53
-212.748 -826.762 -2039 49 57 54
-208.543 -827.047 -2040 50 58 55
-204.535 -828.145 -2043 51 57 56
-200.712 -830.055 -2048 48 56 54
-196.487 -830.347 -2049 48 55 54
-192.728 -832.667 -2055 48 54 53
-188.762 -834.178 -2059 47 55 53
-184.691 -835.286 -2062 44 52 50
-180.872 -837.612 -2068 40 46 45
-177.2 -840.75 -2076 37 43 42
-173.495 -843.889 -2084 34 40 39
-169.353 -845.006 -2087 32 38 37
-165.2 -846.125 -2090 31 37 36
-160.881 -846.436 -2091 43 49 48
-156.411 -845.941 -2090 25 31 32
-151.727 -844.234 -2086 28 33 33
-147.133 -842.935 -2083 35 39 38
-141.935 -837.996 -2071 37 41 42
-137.387 -836.703 -2068 40 45 45
-132.596 -833.793 -2061 39 45 44
-128.333 -834.123 -2062 42 48 47
-123.586 -831.22 -2055 44 51 50
-119.101 -829.937 -2052 46 54 52
-114.63 -828.658 -2049 45 53 49
-110.28 -828.189 -2048 45 54 51
-105.988 -828.127 -2048 44 54 52
-101.597 -827.259 -2046 43 53 51
-97.3577 -827.607 -2047 46 56 54
-93.2517 -829.17 -2051 44 54 52
-88.9129 -828.714 -2050 46 54 50
-84.5377 -827.855 -2048 46 54 50
-80.2894 -828.213 -2049 47 55 51
-75.9632 -827.764 -2048 50 57 53
-71.607 -826.914 -2046 50 57 53
-67.3256 -826.874 -2046 50 57 53
-63.0756 -827.241 -2047 48 55 51
-58.7932 -827.206 -2047 48 55 51
-54.538 -827.578 -2048 47 54 50
-50.2546 -827.548 -2048 46 53 49
-45.9716 -827.521 -2048 49 56 52
-41.689 -827.496 -2048 48 55 51
-37.3885 -827.07 -2047 48 55 51
-33.1088 -827.05 -2047 46 53 49
-28.8714 -828.244 -2050 45 52 48
-24.5979 -828.633 -2051 45 52 48
-20.3799 -831.448 -2058 45 52 48
-16.1562 -835.478 -2068 44 51 47
-11.9193 -841.53 -2083 43 50 46
-7.60542 -845.969 -2094 42 49 45
-3.24099 -849.198 -2102 43 50 46
1.15575 -851.621 -2108 44 51 47
5.5644 -852.027 -2109 43 50 46
9.97727 -852.435 -2110 44 51 47
14.4012 -853.25 -2112 46 53 49
18.8428 -854.472 -2115 46 53 49
23.2968 -855.696 -2118 45 52 48
27.7635 -856.923 -2121 46 53 49
32.2888 -859.364 -2127 47 54 50
36.8222 -861.404 -2132 47 54 50
41.4541 -865.063 -2141 56 62 60
46.403 -873.977 -2163 63 67 68
-357.902 -850.711 -2073 55 57 59
-352.414 -848.042 -2067 49 51 52
-348.302 -848.658 -2069 46 50 49
-343.187 -846.816 -2065 46 52 51
-339.077 -847.437 -2067 50 56 55
-334.799 -847.651 -2068 48 54 53
-330.84 -848.687 -2071 48 54 52
-326.083 -847.676 -2069 46 52 50
-321.649 -847.487 -2069 44 51 47
-316.91 -846.483 -2067 44 51 47
-312.788 -847.118 -2069 45 52 48
-308.362 -846.938 -2069 44 51 47
-304.086 -847.169 -2070 42 49 45
-299.809 -847.403 -2071 43 50 46
-295.815 -848.458 -2074 41 47 46
-291.108 -847.469 -2072 36 42 41
-286.274 -846.075 -2069 38 44 43
-281.183 -843.866 -2064 37 43 42
-276.116 -841.661 -2059 36 42 41
-271.733 -841.502 -2059 35 41 40
-267.222 -840.937 -2058 36 42 41
