ply
format ascii 1.0
comment Created by Open3D
element vertex 1422
property double x
property double y
property double z
property uchar red
property uchar green
property uchar blue
end_header
-160.46 193.213 -2078 182 133 103
-155.776 192.542 -2071 180 133 108
-151.267 192.058 -2066 212 167 143
-146.85 191.668 -2062 246 204 186
-142.728 191.65 -2062 229 187 169
-138.674 191.725 -2063 210 168 150
-135.073 192.451 -2071 215 172 151
-130.873 192.342 -2070 214 173 152
-126.923 192.604 -2073 214 177 155
-122.724 192.496 -2072 213 177 161
-118.531 192.388 -2071 216 180 166
-114.287 192.187 -2069 208 182 164
-110.106 192.08 -2068 207 184 168
-105.981 192.067 -2068 219 199 188
-101.708 191.775 -2065 221 221 217
-97.5435 191.67 -2064 205 211 208
-93.4739 191.751 -2065 197 229 222
-89.3579 191.74 -2065 198 232 226
-85.2424 191.729 -2065 190 226 221
-81.1278 191.718 -2065 185 229 226
-77.1629 192.08 -2069 185 231 227
-73.1828 192.442 -2073 187 233 228
-69.2539 192.99 -2079 192 241 238
-65.3956 193.817 -2088 203 253 253
-61.414 194.366 -2094 217 255 255
-57.3543 194.73 -2098 221 255 255
-53.3298 195.28 -2104 226 253 255
-49.3987 196.294 -2115 217 248 254
-284.453 194.553 -2130 45 44 51
-278.694 193.514 -2119 38 37 44
-275.183 194.027 -2125 34 33 40
-271.777 194.632 -2132 26 25 32
-213.077 191.691 -2104 24 20 23
-208.055 190.936 -2096 30 27 32
-203.553 190.637 -2093 51 49 56
-199.636 190.886 -2096 88 72 64
-195.43 190.861 -2096 103 84 74
-190.677 190.291 -2090 122 92 76
-186.396 190.177 -2089 139 105 86
-181.947 189.882 -2086 155 117 95
-177.34 189.404 -2081 170 129 95
-172.838 189.019 -2077 179 137 103
-168.841 189.18 -2079 178 133 101
-164.758 189.25 -2080 182 136 104
-160.518 189.139 -2079 185 138 107
-155.907 188.574 -2073 185 137 110
-151.687 188.464 -2072 192 145 120
-146.903 187.628 -2063 217 175 156
-142.779 187.61 -2063 245 207 189
-138.858 187.865 -2066 230 192 174
-135.057 188.303 -2071 211 171 150
-131.046 188.469 -2073 208 171 149
-126.907 188.453 -2073 208 175 153
-122.768 188.438 -2073 210 177 160
-118.573 188.332 -2072 206 172 158
-114.384 188.227 -2071 203 179 161
-110.146 188.031 -2069 204 182 168
-105.968 187.927 -2068 228 209 201
-101.745 187.733 -2066 239 241 240
-97.5315 187.539 -2064 226 232 233
-93.3719 187.436 -2063 219 246 239
-89.3468 187.607 -2065 215 247 240
-85.1494 187.415 -2063 194 230 224
-81.1178 187.586 -2065 177 220 217
-77.0415 187.667 -2066 180 224 221
-73.1384 188.203 -2072 180 223 218
-69.2786 188.921 -2080 186 233 231
-65.5127 190.003 -2092 193 244 244
-61.4943 190.449 -2097 199 243 246
-57.4292 190.805 -2101 198 242 245
-53.4752 191.616 -2110 186 227 232
-49.5094 192.517 -2120 180 217 222
-213.152 187.559 -2105 24 20 23
-207.831 186.553 -2094 30 26 29
-203.723 186.618 -2095 52 48 51
-199.803 186.861 -2098 88 69 59
-195.219 186.48 -2094 103 82 69
-190.654 186.101 -2090 120 90 72
-186.463 186.078 -2090 134 101 80
-182.186 185.967 -2089 152 116 92
-177.489 185.412 -2083 170 129 96
-173.067 185.124 -2080 180 138 105
-168.983 185.192 -2081 184 141 109
-164.5 184.816 -2077 184 139 108
-160.421 184.886 -2078 185 139 108
-156.189 184.778 -2077 189 140 111
-151.815 184.492 -2074 193 146 119
-147.17 183.852 -2067 197 152 130
-143.177 184.012 -2069 214 172 152
-138.976 183.906 -2068 251 211 191
-135.105 184.246 -2072 236 201 180
-131.03 184.319 -2073 210 174 153
-126.953 184.392 -2074 205 174 154
-122.753 184.288 -2073 209 176 159
-118.616 184.274 -2073 208 175 159
-114.425 184.171 -2072 206 182 164
-110.239 184.069 -2071 205 184 169
-105.904 183.7 -2067 235 223 213
-101.684 183.51 -2065 249 251 249
-97.5197 183.409 -2064 246 251 250
-93.4059 183.398 -2064 236 253 248
-89.336 183.476 -2065 226 249 244
-85.1804 183.377 -2064 209 239 235
-81.2258 183.722 -2068 202 242 239
-77.1441 183.801 -2069 198 240 237
-73.306 184.503 -2077 173 219 215
-69.4367 185.205 -2085 166 211 211
-65.3482 185.375 -2087 168 213 215
-61.4575 186.167 -2096 158 205 207
-57.3676 186.426 -2099 153 200 202
-53.5196 187.574 -2112 143 191 194
-49.5968 188.633 -2124 151 192 198
-212.62 182.901 -2100 24 20 23
-208.104 182.615 -2097 30 25 26
-203.407 182.156 -2092 52 46 44
-199.493 182.393 -2095 87 66 52
-195.29 182.37 -2095 103 80 64
-190.723 181.999 -2091 122 91 69
-186.53 181.977 -2091 136 102 78
-182.165 181.782 -2089 154 117 91
-177.553 181.325 -2084 172 131 98
-173.13 181.044 -2081 178 137 104
-169.044 181.111 -2082 185 143 111
-164.639 180.83 -2079 185 142 110
-160.711 181.072 -2082 184 139 107
-156.471 180.967 -2081 189 141 113
-152.31 180.948 -2081 197 149 122
-147.865 180.583 -2077 198 151 128
-143.645 180.479 -2076 196 151 129
-139.43 180.376 -2075 210 166 146
-135.415 180.533 -2077 249 214 192
-131.268 180.518 -2077 238 213 192
-127.244 180.676 -2079 213 184 165
-122.976 180.488 -2077 208 179 162
-118.831 180.474 -2077 215 185 169
-114.577 180.286 -2075 208 185 169
-110.332 180.099 -2073 210 190 176
-106.045 179.826 -2070 238 229 218
-101.672 179.38 -2065 252 254 250
-97.461 179.194 -2063 251 255 252
-93.3495 179.183 -2063 243 252 248
-89.2822 179.259 -2064 231 247 244
-85.2528 179.423 -2066 224 249 246
-81.334 179.847 -2071 216 254 254
-77.2468 179.925 -2072 209 250 249
-73.3679 180.524 -2079 190 236 233
-69.2953 180.689 -2081 193 238 237
-65.4344 181.463 -2090 198 241 243
-61.4797 182.063 -2097 192 241 242
-57.3335 182.143 -2098 190 239 240
-53.4878 183.265 -2111 188 238 240
-49.661 184.648 -2127 190 232 238
-213 179.032 -2104 24 20 23
-208.477 178.752 -2101 35 28 27
-203.675 178.218 -2095 58 48 43
-199.565 178.28 -2096 94 71 53
-195.267 178.172 -2095 113 88 67
-190.792 177.895 -2092 133 101 74
-186.598 177.873 -2092 147 112 82
-182.492 177.937 -2093 159 120 89
-177.788 177.407 -2087 168 127 94
-173.525 177.301 -2086 179 138 105
-169.106 177.027 -2083 187 146 113
-164.779 176.838 -2081 193 151 118
-160.615 176.819 -2081 190 147 115
-156.378 176.716 -2080 194 147 120
-152.438 176.953 -2083 190 143 117
-148.061 176.681 -2080 194 147 122
-143.836 176.58 -2079 201 154 132
-139.548 176.394 -2077 204 158 136
-135.334 176.293 -2076 197 161 139
-131.189 176.278 -2076 242 211 191
-127.107 176.348 -2077 245 221 204
-122.961 176.333 -2077 220 195 179
-118.76 176.235 -2076 211 188 172
-114.564 176.137 -2075 213 192 176
-110.16 175.699 -2070 210 194 180
-105.879 175.432 -2067 237 231 220
-101.611 175.166 -2064 253 253 247
-97.497 175.155 -2064 252 252 248
-93.3388 175.059 -2063 247 250 247
-89.3151 175.218 -2065 232 243 241
-85.3255 175.463 -2068 203 223 221
-81.4424 175.962 -2074 172 209 210
-77.5361 176.462 -2080 162 201 201
-73.5712 176.878 -2085 162 208 205
-69.6202 177.379 -2091 162 207 207
-65.6148 177.795 -2096 161 206 208
-61.6191 178.297 -2102 157 209 209
-57.3542 178.035 -2099 150 200 201
-53.5071 179.132 -2112 159 205 208
-49.7019 180.568 -2129 177 216 222
-216.688 174.424 -2099 31 28 33
-213.078 174.898 -2105 32 28 31
-208.85 174.874 -2105 44 35 34
-203.846 174.187 -2097 72 59 53
-199.543 174.081 -2096 113 87 66
-195.338 174.059 -2096 133 104 81
-190.861 173.788 -2093 150 113 85
-186.576 173.684 -2092 163 123 90
-182.472 173.746 -2093 168 124 89
-177.938 173.394 -2089 171 128 95
-173.589 173.209 -2087 181 139 106
-169.33 173.106 -2086 187 145 113
-164.918 172.839 -2083 193 151 120
-160.751 172.821 -2083 192 150 119
-156.736 172.969 -2085 194 150 122
-152.787 173.2 -2088 191 146 118
-148.258 172.769 -2083 194 147 121
-144.442 173.167 -2088 196 150 126
-140.069 172.902 -2085 204 158 135
-135.775 172.721 -2083 204 167 144
-131.49 172.54 -2081 208 174 153
-127.276 172.443 -2080 236 212 195
-123.125 172.429 -2080 246 228 214
-118.804 172.167 -2077 233 216 202
-114.717 172.237 -2078 214 201 188
-110.413 171.976 -2075 208 198 186
-106.072 171.632 -2071 238 235 225
-101.747 171.289 -2067 254 255 249
-97.6748 171.361 -2068 251 254 249
-93.3735 171.019 -2064 247 253 252
-89.4348 171.34 -2068 239 253 251
-85.5634 171.827 -2074 223 245 243
-81.6688 172.315 -2080 174 211 212
-77.7137 172.72 -2085 135 174 175
-73.7747 173.209 -2091 117 162 159
-69.8455 173.781 -2098 110 157 156
-65.8265 174.187 -2103 106 154 155
-61.6709 174.263 -2104 115 163 165
-57.539 174.422 -2106 133 179 181
-53.6023 175.244 -2116 150 190 194
-49.7898 176.646 -2133 163 195 203
-216.56 170.137 -2098 48 45 51
-212.75 170.438 -2102 42 38 41
-208.827 170.658 -2105 54 43 42
-203.921 170.068 -2098 91 73 67
-199.616 169.965 -2097 133 103 81
-195.316 169.862 -2096 152 119 95
-190.931 169.679 -2094 167 126 95
-186.734 169.658 -2094 178 134 98
-182.8 169.881 -2097 181 135 95
-178.174 169.456 -2092 180 138 103
-173.986 169.437 -2092 183 140 107
-169.636 169.256 -2090 190 148 116
-165.217 168.995 -2087 196 154 123
-160.888 168.815 -2085 196 155 125
-156.869 168.96 -2087 192 151 123
-152.624 168.862 -2086 193 150 122
-148.597 169.008 -2088 197 150 123
-144.426 168.992 -2088 197 151 126
-140.121 168.814 -2086 198 153 129
-135.891 168.718 -2085 199 161 137
-131.539 168.461 -2082 210 175 153
-127.323 168.366 -2081 221 191 174
-123.23 168.433 -2082 244 227 215
-118.905 168.177 -2079 255 247 237
-114.704 168.084 -2078 240 235 225
-110.454 167.91 -2076 237 233 225
-106.265 167.817 -2075 246 244 237
-101.834 167.321 -2069 240 244 239
-97.7113 167.31 -2069 228 233 229
-93.6346 167.38 -2070 226 237 237
-89.6412 167.613 -2073 226 243 243
-85.6777 167.927 -2077 225 248 247
-81.7384 168.322 -2082 205 243 244
-77.7425 168.637 -2086 176 215 215
-73.8724 169.275 -2094 157 202 199
-70.0042 169.995 -2103 143 190 189
-65.9445 170.311 -2107 138 187 187
-61.8106 170.465 -2109 147 191 195
-57.6966 170.701 -2112 158 199 204
-53.6725 171.261 -2119 166 200 206
-215.918 165.46 -2092 39 37 44
-212.626 166.149 -2101 44 38 41
-208.804 166.442 -2105 69 55 52
-203.51 165.551 -2094 115 93 85
-199.309 165.529 -2094 151 116 93
-195.295 165.666 -2096 171 134 109
-191.002 165.567 -2095 184 141 110
-186.714 165.468 -2094 191 144 108
-182.606 165.527 -2095 193 143 103
-178.155 165.271 -2092 186 145 110
-174.05 165.331 -2093 187 146 111
-169.699 165.155 -2091 193 151 119
-165.199 164.821 -2087 197 157 125
-161.025 164.804 -2087 198 159 128
-156.927 164.866 -2088 196 158 129
-152.754 164.849 -2088 195 155 126
-148.582 164.833 -2088 198 151 124
-144.48 164.896 -2089 194 150 124
-140.375 164.96 -2090 192 148 123
-135.941 164.63 -2086 193 150 128
-131.714 164.537 -2085 204 165 145
-127.431 164.365 -2083 218 188 171
-123.098 164.115 -2080 223 207 196
-118.835 163.945 -2078 227 219 209
-114.857 164.169 -2081 221 221 214
-110.655 164.078 -2080 226 227 220
-106.407 163.909 -2078 219 221 216
-102.168 163.74 -2076 188 197 193
-97.9841 163.65 -2075 161 172 169
-93.9413 163.798 -2077 151 170 170
-89.9343 164.025 -2080 153 177 177
-85.7924 164.015 -2080 163 193 192
-81.8082 164.322 -2084 179 217 218
-77.7714 164.55 -2087 177 217 217
-73.8291 165.015 -2093 164 209 206
-69.8637 165.481 -2099 165 210 210
-65.9686 166.183 -2108 156 202 203
-61.8625 166.413 -2111 159 196 202
-57.8543 166.958 -2118 154 190 196
-53.9199 167.819 -2129 159 193 199
-50.1057 169.233 -2147 167 195 202
-216.927 162.042 -2102 24 22 30
-213.11 162.327 -2106 38 31 35
-208.881 162.306 -2106 78 62 59
-204.072 161.822 -2100 128 104 95
-199.383 161.415 -2095 162 124 101
-194.995 161.241 -2093 184 144 119
-190.799 161.221 -2093 195 152 121
-186.249 160.893 -2089 199 153 118
-182.325 161.105 -2092 202 152 114
-178.221 161.163 -2093 193 153 118
-173.949 161.068 -2092 193 152 118
-169.519 160.819 -2089 197 155 124
-165.34 160.802 -2089 198 158 127
-160.931 160.554 -2086 200 161 130
-156.76 160.538 -2086 200 163 134
-152.518 160.445 -2085 200 161 133
-148.352 160.429 -2085 201 157 129
-144.395 160.645 -2088 196 153 127
-140.427 160.861 -2091 189 147 121
-136.123 160.693 -2089 187 141 119
-131.89 160.602 -2088 179 138 117
-127.724 160.588 -2088 170 137 120
-123.381 160.345 -2085 177 159 146
-119.052 160.101 -2082 177 164 152
-115.011 160.243 -2084 163 164 157
-110.803 160.155 -2083 172 175 169
-106.55 159.99 -2081 179 183 178
-102.403 159.979 -2081 164 178 175
-98.3517 160.122 -2083 143 159 157
-94.248 160.189 -2084 123 148 146
-90.0978 160.18 -2084 114 144 142
-85.9896 160.247 -2085 108 143 141
-81.9958 160.546 -2089 112 153 153
-77.875 160.615 -2090 132 174 174
-73.8567 160.914 -2094 148 193 192
-69.9561 161.521 -2102 163 207 208
-65.993 162.052 -2109 157 201 203
-62.0026 162.584 -2116 154 192 196
-57.9576 163.038 -2122 152 189 194
-54.1929 164.416 -2140 146 182 187
-215.873 157.083 -2092 22 20 28
-211.975 157.286 -2095 42 35 39
-208.265 157.641 -2100 89 71 68
-203.468 157.169 -2094 139 112 102
-198.887 156.849 -2090 174 134 110
-194.789 156.904 -2091 194 153 128
-190.689 156.959 -2092 202 159 129
-186.319 156.79 -2090 202 158 123
-182.307 156.922 -2092 203 157 119
-178.118 156.904 -2092 197 158 123
-174.014 156.961 -2093 197 157 123
-169.664 156.793 -2091 199 157 127
-165.165 156.476 -2087 198 158 127
-160.837 156.31 -2085 200 161 130
-156.519 156.144 -2083 203 168 138
-152.356 156.129 -2083 204 167 138
-148.266 156.188 -2084 205 163 135
-144.173 156.249 -2085 197 155 129
-140.279 156.534 -2089 188 146 120
-136.239 156.67 -2091 187 139 116
-131.877 156.432 -2088 178 135 113
-127.589 156.269 -2086 169 135 117
-123.724 156.631 -2091 180 159 144
-119.44 156.468 -2089 189 172 158
-115.33 156.532 -2090 167 168 161
-111.111 156.445 -2089 163 167 160
-106.846 156.285 -2087 166 174 168
-102.639 156.199 -2086 163 183 181
-98.5777 156.339 -2088 143 165 164
-94.5549 156.554 -2091 129 160 155
-90.5209 156.769 -2094 127 161 158
-86.3107 156.685 -2093 118 156 154
-82.2623 156.901 -2096 105 149 150
-78.0907 156.893 -2096 106 150 152
-73.9902 157.035 -2098 124 169 170
-69.9824 157.402 -2103 148 194 195
-66.0489 157.994 -2111 163 208 209
-62.0842 158.586 -2119 158 199 201
-58.252 159.628 -2133 148 189 192
-213.478 151.215 -2069 42 40 47
-209.829 151.56 -2074 50 43 47
-205.765 151.612 -2075 91 76 73
-201.504 151.519 -2074 136 112 103
-197.154 151.354 -2072 173 138 115
-193.372 151.627 -2076 194 158 134
-189.667 151.973 -2081 202 164 136
-185.587 152.027 -2082 206 166 133
-181.766 152.301 -2086 205 163 128
-177.845 152.503 -2089 202 163 128
-174.08 152.85 -2094 199 159 125
-169.566 152.542 -2090 198 159 128
-165.069 152.233 -2086 197 159 128
-160.667 151.998 -2083 199 163 132
-156.278 151.764 -2080 201 168 138
-152.122 151.749 -2080 202 167 137
-148.038 151.807 -2081 202 165 137
-144.09 152.011 -2084 199 159 134
-140.265 152.362 -2089 190 150 125
-136.16 152.422 -2090 189 141 118
-132.116 152.554 -2092 180 136 114
-127.943 152.541 -2092 171 134 114
-124.007 152.821 -2096 176 150 130
-119.657 152.59 -2093 201 178 158
-115.484 152.579 -2093 174 170 162
-111.313 152.567 -2093 163 165 157
-107.04 152.411 -2091 159 169 160
-102.628 152.036 -2086 152 174 171
-98.5679 152.172 -2088 151 176 173
-94.455 152.236 -2089 138 170 166
-90.4686 152.518 -2093 131 167 164
-86.4259 152.728 -2096 124 164 161
-82.254 152.72 -2096 119 163 165
-78.0084 152.566 -2094 107 152 154
-73.9829 152.85 -2098 111 157 158
-70.0419 153.353 -2105 131 178 179
-66.0424 153.783 -2111 148 196 197
-62.1952 154.651 -2123 161 205 207
-300.262 151.318 -2122 36 36 40
-294.287 150.434 -2110 36 37 41
-218.877 145.198 -2042 52 49 54
-213.406 144.253 -2029 53 51 58
-209.021 144.019 -2026 63 61 67
-205.256 144.213 -2029 70 63 67
-201.382 144.335 -2031 97 85 83
-197.696 144.601 -2035 134 116 109
-194.09 144.937 -2040 170 139 119
-190.559 145.345 -2046 193 161 139
-187.462 146.108 -2057 201 166 139
-183.697 146.375 -2061 205 169 137
-180.79 147.351 -2075 205 168 132
-177.232 147.831 -2082 206 166 131
-173.065 147.814 -2082 204 164 130
-168.9 147.798 -2082 202 163 132
-164.816 147.853 -2083 199 163 132
-160.42 147.625 -2080 200 165 134
-156.113 147.468 -2078 201 168 138
-152.034 147.524 -2079 201 167 138
-148.095 147.722 -2082 200 166 139
-144.145 147.921 -2085 200 162 137
-140.184 148.121 -2088 194 154 129
-135.952 148.036 -2087 194 147 121
-132.167 148.449 -2093 184 140 116
-128.053 148.508 -2094 174 135 113
-123.995 148.638 -2096 166 135 111
-119.816 148.626 -2096 196 167 142
-115.639 148.615 -2096 183 174 164
-111.249 148.32 -2092 164 164 154
-107.081 148.31 -2092 154 165 154
-102.815 148.158 -2090 142 166 160
-98.6528 148.149 -2090 153 180 175
-94.6719 148.423 -2094 141 175 172
-90.7625 148.839 -2100 137 174 171
-86.5824 148.831 -2100 134 174 171
-82.4815 148.964 -2102 127 172 174
-78.3361 149.028 -2103 115 161 162
-74.152 149.02 -2103 109 154 155
-70.135 149.368 -2108 119 166 167
-66.3175 150.212 -2120 127 176 176
-62.6286 151.481 -2138 145 190 191
-294.957 146.548 -2115 36 37 41
-283.818 145.177 -2096 38 38 45
-234.461 143.181 -2071 35 32 39
-227.736 141.569 -2048 67 63 68
-221.652 140.304 -2030 99 96 101
-216.285 139.454 -2018 54 51 56
-211.283 138.812 -2009 46 43 49
-206.526 138.309 -2002 58 55 61
-202.304 138.152 -2000 68 62 66
-198.885 138.548 -2006 86 75 76
-195.249 138.806 -2010 105 91 88
-192.074 139.409 -2019 141 115 98
-188.865 140.013 -2028 174 148 128
-185.166 140.272 -2032 191 162 134
-181.719 140.738 -2039 202 171 138
-179.292 142.032 -2058 204 171 134
-175.513 142.292 -2062 211 169 134
-172.384 143.104 -2074 208 167 133
-168.479 143.295 -2077 205 166 135
-164.405 143.348 -2078 201 166 136
-160.251 143.333 -2078 203 169 139
-156.173 143.388 -2079 203 172 141
-152.02 143.373 -2079 201 170 141
-148.152 143.635 -2083 199 168 143
-144.2 143.828 -2086 202 164 140
-140.372 144.16 -2091 203 163 139
-136.265 144.216 -2092 200 154 127
-132.281 144.41 -2095 186 142 116
-128.102 144.398 -2095 177 136 112
-124.161 144.662 -2099 169 133 107
-119.977 144.651 -2099 171 137 110
-115.904 144.778 -2101 187 173 161
-111.504 144.492 -2097 169 167 154
-107.327 144.482 -2097 149 162 148
-103.002 144.265 -2094 136 160 150
-98.8794 144.325 -2095 144 171 163
-94.7988 144.454 -2097 147 181 181
-90.7972 144.721 -2101 141 178 177
-86.533 144.575 -2099 137 177 175
-82.5131 144.842 -2103 130 173 175
-78.5522 145.248 -2109 128 172 174
-74.6035 145.723 -2116 118 162 164
-70.6606 146.267 -2124 119 161 163
-294.511 142.104 -2112 36 36 41
-287.76 140.867 -2094 38 40 46
-283.928 141.043 -2097 40 41 47
-280.086 141.219 -2100 39 40 46
-231.383 137.224 -2044 36 34 41
-225.047 135.861 -2024 44 42 48
-219.339 134.834 -2009 83 82 88
-214.336 134.21 -2000 70 70 76
-209.686 133.788 -1994 49 48 53
-204.959 133.3 -1987 60 58 63
-200.97 133.282 -1987 60 56 59
-197.677 133.733 -1994 67 61 61
-193.385 133.514 -1991 69 62 59
-186.613 134.352 -2004 78 63 55
-179.653 135.123 -2016 105 87 72
-176.662 135.911 -2028 140 121 103
-172.943 136.163 -2032 188 160 131
-170.706 137.622 -2054 204 173 143
-167.409 138.277 -2064 204 169 137
-163.678 138.597 -2069 202 166 135
-160.082 139.051 -2076 205 169 139
-156.159 139.238 -2079 205 172 145
-152.225 139.425 -2082 206 175 148
-148.21 139.545 -2084 205 176 149
-144.187 139.666 -2086 206 172 147
-140.561 140.189 -2094 205 169 145
-136.382 140.176 -2094 202 160 134
-132.395 140.365 -2097 190 148 122
-128.151 140.286 -2096 178 137 113
-124.505 140.877 -2105 168 131 106
-120.08 140.598 -2101 151 116 91
-116.003 140.722 -2103 171 154 141
-111.813 140.712 -2103 175 168 155
-107.624 140.702 -2103 153 160 147
-103.337 140.558 -2101 135 155 146
-99.2952 140.75 -2104 132 154 147
-95.1065 140.741 -2104 139 170 170
-91.1345 141.067 -2109 140 173 174
-87.0199 141.193 -2111 134 170 170
-83.0155 141.52 -2116 123 163 164
-79.1037 142.048 -2124 122 162 164
-306.203 139.36 -2134 47 49 55
-298.623 137.831 -2111 37 36 43
-294.764 138.001 -2114 36 37 43
-288.696 137.126 -2101 37 40 46
-284.715 137.232 -2103 38 41 47
-280.461 137.207 -2103 39 41 47
-275.683 136.921 -2099 43 42 49
-228.872 131.702 -2022 35 33 40
-217.681 129.84 -1994 55 55 61
-213.138 129.495 -1989 58 60 66
-208.301 128.956 -1981 57 56 62
-203.91 128.677 -1977 61 59 65
-200.143 128.79 -1979 58 55 59
-195.875 128.577 -1976 53 49 51
-192.106 128.69 -1978 52 49 48
-174.73 130.431 -2006 61 52 48
-171.737 131.196 -2018 93 77 58
-168.946 132.156 -2033 157 138 115
-165.853 132.922 -2045 195 166 136
-162.951 133.882 -2060 207 171 140
-159.451 134.388 -2068 210 170 140
-155.844 134.829 -2075 205 172 147
-152.065 135.14 -2080 213 181 155
-148.339 135.517 -2086 213 184 156
-144.52 135.829 -2091 210 180 155
-140.615 136.076 -2095 205 175 150
-136.566 136.194 -2097 204 168 142
-132.635 136.442 -2101 194 157 132
-128.323 136.301 -2099 185 145 122
-124.316 136.485 -2102 168 132 110
-120.241 136.604 -2104 149 115 93
-116.489 137.113 -2112 142 121 108
-112.069 136.843 -2108 177 165 153
-108.024 137.028 -2111 161 159 150
-103.672 136.825 -2108 143 155 149
-99.428 136.751 -2107 130 145 141
-95.3241 136.872 -2109 123 149 150
-91.4722 137.383 -2117 126 153 155
-87.4243 137.635 -2121 122 151 153
-306.176 135.081 -2134 43 45 51
-299.021 133.789 -2114 39 38 45
-294.738 133.764 -2114 37 37 44
-289.083 133.106 -2104 39 41 47
-284.69 133.018 -2103 38 39 45
-280.303 132.931 -2102 39 40 46
-275.265 132.528 -2096 42 41 48
-269.867 131.935 -2087 40 39 46
-265.525 131.849 -2086 32 31 38
-260.939 131.637 -2083 34 31 38
-253.655 130.035 -2058 37 34 41
-248.293 129.382 -2048 41 38 45
-232.115 127.236 -2015 49 46 53
-227.154 126.712 -2007 55 52 59
-216.789 125.348 -1986 53 51 57
-212.048 124.888 -1979 58 57 64
-207.126 124.302 -1970 64 61 68
-202.964 124.159 -1968 57 54 61
-198.609 123.889 -1964 55 52 59
-164.46 127.769 -2028 137 121 100
-161.355 128.512 -2040 188 165 136
-158.743 129.695 -2059 200 173 141
-155.381 130.312 -2069 204 171 143
-151.833 130.802 -2077 213 181 153
-148.397 131.419 -2087 215 186 158
-144.577 131.722 -2092 213 183 157
-140.872 132.15 -2099 208 178 153
-136.619 132.076 -2098 204 171 146
-132.877 132.505 -2105 196 160 136
-128.679 132.494 -2105 189 149 126
-124.838 132.861 -2111 172 137 117
-120.745 132.976 -2113 157 123 104
-116.921 133.407 -2120 130 110 96
-112.857 133.586 -2123 153 141 130
-108.935 133.954 -2129 163 161 154
-104.598 133.819 -2127 143 155 149
-100.505 133.999 -2130 134 148 144
-96.3102 134.054 -2131 119 142 142
-305.146 130.374 -2127 38 40 46
-297.864 129.062 -2106 37 36 43
-293.18 128.853 -2103 36 36 42
-289.196 128.952 -2105 36 38 44
-284.937 128.928 -2105 36 36 43
-279.613 128.415 -2097 39 38 45
-274.192 127.841 -2088 41 40 47
-268.422 127.084 -2076 41 40 47
-263.721 126.817 -2072 32 31 38
-258.537 126.306 -2064 34 31 38
-252.401 125.305 -2048 38 35 42
-246.939 124.612 -2037 47 44 51
-241.522 123.919 -2026 51 47 55
-235.918 123.104 -2013 59 54 62
-231.289 122.779 -2008 60 57 64
-226.004 122.088 -1997 58 55 62
-220.764 121.397 -1986 57 54 59
-215.352 120.584 -1973 62 60 66
-206.373 119.938 -1963 68 65 73
-197.784 119.477 -1956 67 64 72
-159.997 123.405 -2023 129 115 96
-157.651 124.734 -2045 191 175 149
-154.617 125.575 -2059 209 179 151
-151.309 126.233 -2070 213 183 155
-148.171 127.075 -2084 214 185 157
-144.357 127.367 -2089 213 184 158
-140.592 127.722 -2095 210 180 155
-136.673 127.954 -2099 205 175 153
-132.676 128.126 -2102 198 164 142
-128.791 128.42 -2107 192 153 130
-125.005 128.836 -2114 178 145 126
-121.249 129.314 -2122 162 131 113
-117.793 130.157 -2136 131 112 98
-114.07 130.757 -2146 130 119 109
-304.834 125.993 -2125 37 39 45
-297.698 124.783 -2105 34 34 39
-292.598 124.403 -2099 37 37 42
-288.486 124.439 -2100 34 36 42
-283.424 124.061 -2094 35 34 41
-278.79 123.861 -2091 36 35 42
-273.907 123.542 -2086 37 36 43
-268.4 122.928 -2076 37 36 43
-262.936 122.315 -2066 33 32 39
-257.388 121.643 -2055 34 31 38
-251.395 120.735 -2040 37 34 41
-245.707 119.946 -2027 45 42 49
-240.311 119.275 -2016 52 48 56
-235.43 118.842 -2009 59 54 62
-230.004 118.114 -1997 58 54 61
-224.854 117.504 -1987 57 54 61
-156.019 119.417 -2024 141 132 120
-153.177 120.348 -2040 213 186 164
-150.785 121.693 -2063 220 192 169
-147.448 122.33 -2074 223 193 167
-144.069 122.967 -2085 220 190 165
-140.312 123.31 -2091 216 186 161
-136.597 123.712 -2098 209 182 163
-132.918 124.173 -2106 202 172 152
-129.086 124.516 -2112 195 160 140
-125.586 125.213 -2124 181 152 133
-121.982 125.852 -2135 169 142 124
-305.384 121.964 -2129 35 37 43
-298.241 120.795 -2109 34 34 38
-292.993 120.371 -2102 36 37 42
-289.15 120.521 -2105 34 36 42
-283.131 119.754 -2092 35 35 42
-278.368 119.503 -2088 38 37 44
-273.36 119.139 -2082 37 36 43
-267.086 118.202 -2066 30 29 36
-261.642 117.61 -2056 28 26 33
-256.116 116.961 -2045 34 31 38
-250.636 116.312 -2034 41 37 45
-245.081 115.607 -2022 52 49 56
-239.458 114.845 -2009 55 50 58
-234.474 114.369 -2001 55 50 58
-228.719 113.494 -1986 56 53 60
-223.365 112.791 -1974 65 62 69
-218.173 112.145 -1963 67 65 72
-151.213 114.799 -2014 162 144 133
-149.238 116.384 -2042 225 204 188
-147.01 117.854 -2068 233 206 183
-143.436 118.299 -2076 229 200 176
-139.898 118.801 -2085 221 191 167
-136.13 119.132 -2091 209 185 168
-132.34 119.464 -2097 204 177 159
-128.831 120.08 -2108 199 167 148
-125.635 121.039 -2125 184 158 141
-122.658 122.283 -2147 170 146 129
-304.643 117.423 -2124 34 36 42
-298.077 116.516 -2108 38 38 42
-292.692 116.052 -2100 35 36 40
-288.029 115.864 -2097 33 35 41
-282.569 115.346 -2088 34 34 41
-278.213 115.27 -2087 38 37 44
-272.552 114.642 -2076 38 36 43
-266.807 113.959 -2064 26 24 31
-261.622 113.497 -2056 28 25 32
-255.095 112.429 -2037 39 34 42
-249.508 111.748 -2025 52 47 55
-243.972 111.068 -2013 58 53 61
-238.724 110.498 -2003 56 51 59
-232.933 109.653 -1988 54 49 57
-227.55 108.974 -1976 58 55 62
-222.443 108.406 -1966 66 63 70
-217.045 107.673 -1953 69 68 75
-149.475 109.52 -1991 91 81 78
-147.692 111.159 -2021 184 169 162
-145.364 112.468 -2045 234 211 193
-142.803 113.668 -2067 231 203 182
-139.418 114.262 -2078 223 193 170
-135.99 114.857 -2089 209 186 170
-132.393 115.342 -2098 204 179 162
-129.066 116.102 -2112 197 168 151
-126.276 117.412 -2136 182 160 143
-304.191 113.009 -2121 36 36 42
-298.196 112.348 -2109 35 35 39
-291.974 111.581 -2095 33 34 39
-287.871 111.614 -2096 32 34 40
-281.465 110.741 -2080 33 33 40
-277.526 110.828 -2082 37 36 43
-271.35 110.01 -2067 36 34 41
-266.141 109.564 -2059 24 22 29
-260.204 108.801 -2045 29 26 33
-254.199 107.984 -2030 46 40 48
-248.504 107.275 -2017 59 53 61
-243.59 106.885 -2010 56 51 59
-237.396 105.91 -1992 54 49 57
-231.862 105.202 -1979 54 49 57
-226.036 104.335 -1963 60 57 64
-221.182 103.894 -1955 67 64 71
-215.807 103.188 -1942 70 67 74
-147.137 103.909 -1960 70 67 68
-146.074 105.966 -1999 108 100 97
-144.145 107.493 -2028 208 191 178
-141.688 108.702 -2051 230 205 186
-138.871 109.699 -2070 223 196 175
-135.72 110.484 -2085 212 189 173
-132.131 110.951 -2094 205 181 165
-129.057 111.896 -2112 201 175 160
-126.622 113.476 -2142 189 168 152
-305.03 109.07 -2127 32 31 38
-298.458 108.229 -2111 34 34 38
-292.929 107.747 -2102 31 31 36
-287.576 107.317 -2094 32 32 39
-281.175 106.477 -2078 35 34 41
-276.974 106.458 -2078 39 38 45
-271.331 105.876 -2067 31 28 35
-264.83 104.935 -2049 27 24 31
-258.786 104.149 -2034 32 29 36
-252.804 103.363 -2019 53 47 55
-247.131 102.68 -2006 57 51 59
-241.634 102.049 -1994 53 48 56
-235.711 101.214 -1978 55 50 58
-230.674 100.737 -1969 56 51 59
-225.099 100.005 -1955 63 59 66
-219.922 99.4274 -1944 67 63 70
-214.569 98.7476 -1931 67 64 71
-145.926 99.1882 -1944 67 66 66
-144.091 100.607 -1972 71 68 66
-143.069 102.689 -2013 146 134 129
-140.918 104.056 -2040 221 201 186
-138.057 104.965 -2058 221 197 180
-135.32 106.026 -2079 211 188 171
-131.806 106.527 -2089 202 179 163
-128.987 107.64 -2111 202 178 162
-127.086 109.62 -2150 192 171 156
-304.579 104.665 -2124 30 29 36
-298.013 103.856 -2108 35 35 39
-292.351 103.344 -2098 32 31 36
-287.419 103.078 -2093 34 31 38
-281.426 102.419 -2080 34 32 39
-276.555 102.154 -2075 38 37 44
-270.131 101.299 -2058 29 28 35
-263.003 100.15 -2035 25 23 30
-257.242 99.4926 -2022 39 36 43
-251.535 98.836 -2009 54 49 57
-246.129 98.2784 -1998 51 45 53
-240.891 97.7703 -1988 48 43 51
-235.695 97.2627 -1978 50 45 53
-230.073 96.559 -1964 54 49 57
-225.314 96.1997 -1957 66 61 69
-220.02 95.5951 -1945 68 63 71
-214.332 94.7944 -1929 64 61 69
-145.015 94.7278 -1932 68 66 66
-142.62 95.6988 -1952 62 60 60
-140.928 97.2092 -1983 87 81 81
-139.251 98.8176 -2016 193 178 167
-137.108 100.181 -2044 216 196 182
-134.595 101.348 -2068 208 185 167
-131.419 102.074 -2083 205 182 163
-128.795 103.291 -2108 200 176 158
-303.699 100.13 -2118 31 30 37
-298.277 99.7324 -2110 33 33 37
-292.611 99.241 -2100 30 29 34
-287.263 98.8444 -2092 32 29 36
-280.867 98.0703 -2076 34 32 39
-275.604 97.6746 -2068 37 36 43
-268.801 96.7127 -2048 29 27 34
-262.081 95.7514 -2028 34 31 38
-256.462 95.1683 -2016 50 47 54
-251.018 94.6329 -2005 54 48 56
-245.62 94.098 -1994 52 45 53
-240.633 93.7049 -1986 49 44 52
-235.084 93.0765 -1973 49 44 52
-230.058 92.6372 -1964 55 50 58
-224.724 92.0567 -1952 68 63 71
-219.328 91.4295 -1939 69 64 72
-213.652 90.6613 -1923 66 63 71
-144.33 90.457 -1923 77 72 71
-142.026 91.4357 -1944 65 60 61
-139.71 92.4615 -1966 61 58 61
-137.791 93.8166 -1995 123 113 107
-136.362 95.5948 -2033 211 197 187
-133.87 96.7147 -2057 211 190 173
-131.158 97.7407 -2079 205 182 164
-129.031 99.2838 -2112 202 177 157
-304.11 96.0275 -2121 42 41 48
-298.258 95.511 -2110 37 37 41
-292.314 94.9498 -2098 32 31 36
-287.519 94.751 -2094 31 28 35
-280.579 93.8288 -2074 36 35 42
-274.388 93.1332 -2059 37 36 43
-267.472 92.1669 -2038 34 31 38
-261.16 91.3819 -2021 45 42 49
-255.682 90.8688 -2010 52 49 56
-250.501 90.4465 -2001 54 48 55
-245.605 90.1151 -1994 55 48 56
-239.891 89.4676 -1980 50 44 52
-235.069 89.1368 -1973 47 41 49
-229.926 88.6709 -1963 52 47 55
-224.94 88.2504 -1954 66 61 69
-219.54 87.6498 -1941 66 61 69
-213.527 86.7787 -1922 65 62 71
-143.796 86.3129 -1916 85 76 73
-141.36 87.1601 -1935 66 59 58
-138.849 88.0074 -1954 57 54 59
-136.954 89.3052 -1983 68 60 58
-134.945 90.6028 -2012 178 168 163
-132.886 91.9456 -2042 218 198 182
-130.519 93.1533 -2069 206 184 165
-128.595 94.7663 -2105 201 175 153
-304.235 91.8272 -2122 35 34 41
-298.24 91.2904 -2110 29 29 33
-292.714 90.8837 -2101 29 29 34
-287.228 90.4775 -2092 30 28 35
-280.291 89.5959 -2072 37 36 43
-273.438 88.715 -2052 37 36 43
-267.062 87.9643 -2035 44 41 48
-260.628 87.1709 -2017 51 47 54
-255.54 86.8102 -2009 51 46 54
-250.486 86.4497 -2001 53 46 54
-245.344 86.0464 -1992 55 47 55
-240.119 85.6004 -1982 50 43 51
-235.174 85.241 -1974 47 41 49
-229.912 84.7525 -1963 51 46 54
-225.157 84.4371 -1956 63 58 65
-219.753 83.863 -1943 62 57 65
-214.181 83.203 -1928 66 63 73
-143.563 82.3695 -1913 124 112 106
-140.767 82.964 -1927 73 64 62
-138.201 83.731 -1945 55 51 57
-135.634 84.5409 -1964 60 55 54
-133.595 85.7382 -1992 93 87 84
-131.576 87.0218 -2022 215 198 182
-129.565 88.3914 -2054 213 191 172
-128.099 90.2343 -2097 204 177 153
-303.501 87.3761 -2117 35 34 41
-297.516 86.8642 -2105 28 28 32
-291.444 86.3113 -2092 28 27 32
-285.838 85.8827 -2082 34 31 38
-279.193 85.1245 -2064 38 37 44
-272.757 84.408 -2047 40 39 46
-266.128 83.6097 -2028 54 51 58
-260.484 83.1003 -2016 54 50 57
-255.398 82.7562 -2008 51 45 51
-249.971 82.2888 -1997 53 46 54
-245.207 82.0278 -1991 51 44 52
-239.621 81.4787 -1978 47 41 48
-234.923 81.2184 -1972 48 43 50
-230.017 80.8761 -1964 53 49 54
-225.259 80.5752 -1957 60 53 60
-220.306 80.1923 -1948 65 58 64
-143.104 78.3156 -1907 189 174 163
-140.467 78.9649 -1923 86 73 67
-137.696 79.5731 -1938 55 49 55
-135.005 80.2635 -1955 56 50 53
-132.783 81.2825 -1980 49 43 45
-130.463 82.3014 -2005 155 144 136
-128.611 83.6899 -2039 222 207 195
-303.484 83.1422 -2117 34 34 38
-296.935 82.4978 -2101 27 27 31
-291.428 82.1289 -2092 29 28 32
-285.411 81.6033 -2079 34 31 36
-278.502 80.8034 -2059 37 35 42
-272.076 80.1217 -2042 45 44 51
-265.72 79.4404 -2025 60 55 63
-260.469 79.0734 -2016 56 51 57
-255.257 78.7068 -2007 54 47 51
-250.208 78.3797 -1999 57 51 59
-245.317 78.0922 -1992 46 41 49
-240.092 77.6872 -1982 47 43 49
-235.148 77.3611 -1974 48 44 50
-230.121 76.9962 -1965 48 44 50
-225.247 76.6707 -1957 56 49 55
-220.294 76.3063 -1948 63 55 61
-142.046 73.9735 -1893 237 219 207
-140.094 74.9431 -1918 115 100 93
-137.12 75.4046 -1930 58 50 54
-134.376 76.0226 -1946 52 45 50
-131.77 76.7578 -1965 60 53 59
-129.284 77.6103 -1987 77 71 70
-127.406 78.8924 -2020 189 183 181
-126.069 80.6042 -2064 207 201 195
-304.042 79.0579 -2121 33 33 37
-296.496 78.1855 -2098 26 26 30
-290.577 77.7236 -2086 29 28 32
-284.298 77.1503 -2071 32 30 36
-277.405 76.3911 -2051 37 35 42
-270.996 75.7442 -2034 51 50 57
-265.707 75.3956 -2025 62 56 64
-260.327 75.0101 -2015 57 50 57
-254.989 74.6249 -2005 59 52 57
-250.32 74.426 -2000 58 51 59
-244.688 73.9299 -1987 52 46 54
-239.959 73.6945 -1981 48 43 50
-235.136 73.4222 -1974 45 40 48
-230.578 73.2245 -1969 46 41 50
-225.926 72.99 -1963 52 45 53
-139.649 70.9047 -1912 144 128 120
-137.184 71.6024 -1931 61 51 53
-134.231 72.0776 -1944 54 46 50
-131.495 72.7013 -1961 56 49 53
-128.692 73.325 -1978 68 62 62
-126.391 74.2824 -2004 127 121 119
-303.024 74.5703 -2114 34 34 38
-295.774 73.8153 -2093 25 25 29
-289.866 73.3782 -2081 28 28 33
-283.46 72.8003 -2065 31 31 38
-276.986 72.1878 -2048 41 39 46
-270.849 71.646 -2033 55 53 60
-265.3 71.2456 -2022 61 54 63
-260.185 70.9513 -2014 59 52 60
-255.104 70.6572 -2006 63 56 63
-250.934 70.61 -2005 62 55 64
-246.4 70.4572 -2001 53 47 55
-241.764 70.2697 -1996 48 43 51
-237.864 70.2935 -1997 44 38 47
-235.133 70.6694 -2008 47 41 50
-137.962 66.2942 -1889 168 151 142
-136.325 67.3405 -1919 63 51 53
-133.603 67.8956 -1935 51 42 44
-130.885 68.4858 -1952 52 44 47
-128.1 69.0761 -1969 63 57 58
-125.691 69.9121 -1993 83 77 77
-302.293 70.1778 -2109 31 31 35
-295.196 69.4989 -2089 27 25 30
-289.017 69.02 -2075 28 27 33
-283.035 68.5749 -2062 32 34 40
-276.973 68.0967 -2048 48 45 52
-271.103 67.6522 -2035 59 55 62
-265.813 67.3409 -2026 60 53 62
-261.206 67.1961 -2022 59 52 61
-257.381 67.251 -2024 61 54 63
-253.676 67.3392 -2027 60 53 62
-251.437 67.8261 -2042 50 43 52
-135.111 62.9614 -1902 74 62 62
-133.321 63.9153 -1931 48 39 40
-131.013 64.6707 -1954 47 39 41
-128.03 65.1284 -1968 58 52 53
-125.685 65.9499 -1993 69 64 64
-122.997 66.6393 -2014 110 106 105
-303.139 66.15 -2115 30 29 33
-296.03 65.5118 -2095 28 25 30
-289.422 64.9679 -2078 28 27 32
-283.572 64.5806 -2066 37 38 43
-277.367 64.1 -2051 55 50 58
-271.491 63.6821 -2038 62 55 63
-266.85 63.5457 -2034 59 52 61
-262.745 63.5345 -2034 59 52 61
-259.786 63.8046 -2043 57 50 60
-259.797 64.8242 -2076 53 46 55
-133.685 58.5571 -1882 101 90 87
-133.108 59.9827 -1928 55 46 45
-130.672 60.6304 -1949 48 40 40
-128.024 61.2161 -1968 55 50 51
-125.112 61.7085 -1984 68 63 64
-122.564 62.4187 -2007 75 71 71
-120.044 63.191 -2032 167 163 166
-303.987 62.0987 -2121 29 26 31
-297.29 61.5891 -2104 29 26 31
-290.107 60.9628 -2083 30 29 33
-283.972 60.5417 -2069 41 41 45
-278.167 60.1795 -2057 57 51 58
-271.613 59.6421 -2039 61 53 61
-268.151 59.7777 -2044 59 52 61
-265.964 60.2058 -2059 60 53 63
-146.062 46.7984 -1605 246 223 206
-144.009 47.1717 -1618 243 220 202
-142.6 47.7783 -1639 239 216 197
-137.875 48.4085 -1661 236 212 194
-132.895 56.0624 -1925 64 54 52
-130.801 56.8144 -1951 49 41 40
-128.279 57.4209 -1972 49 45 46
-125.17 57.7945 -1985 63 59 60
-122.376 58.3427 -2004 69 65 66
-119.626 58.9493 -2025 94 94 97
-297.42 57.4127 -2105 28 25 30
-290.514 56.8837 -2086 32 29 34
-284.51 56.5186 -2073 51 48 52
-280.185 56.4809 -2072 57 50 57
-274.133 56.0891 -2058 58 50 58
-271.683 56.4333 -2071 62 55 64
-157.344 39.2506 -1443 255 245 233
-154.875 39.3537 -1447 255 247 232
-152.916 39.5928 -1456 255 246 233
-146.092 40.9301 -1506 246 220 204
-145.831 41.713 -1535 243 214 198
-145.362 42.4684 -1563 240 210 195
-145.238 43.3597 -1596 235 206 189
-143.469 43.7891 -1612 232 205 188
-141.986 44.3271 -1632 228 202 184
-140.084 44.7565 -1648 223 199 181
-137.952 45.1316 -1662 224 200 182
-135.686 45.4796 -1675 229 202 188
-134.158 46.0991 -1698 232 207 192
-132.154 46.5829 -1716 234 210 195
-130.155 47.0939 -1735 235 211 197
-130.478 49.8527 -1837 215 198 191
-132.2 51.9646 -1915 96 84 81
-130.796 52.9366 -1951 55 45 43
-127.819 53.3117 -1965 45 41 42
-125.039 53.7954 -1983 58 54 56
-122.066 54.225 -1999 70 66 69
-119.031 54.6546 -2015 67 67 72
-116.332 55.2742 -2038 148 149 154
-297.833 53.2833 -2108 28 25 30
-290.364 52.692 -2085 39 35 39
-285.324 52.5305 -2079 51 46 49
-281.932 52.6724 -2085 56 49 56
-277.454 52.6123 -2083 59 51 59
-156.466 36.174 -1435 255 245 232
-153.906 36.2444 -1438 255 244 228
-151.546 36.3652 -1443 255 241 226
-149.372 36.5365 -1450 254 238 223
-147.374 36.7582 -1459 255 233 216
-145.638 37.0555 -1471 255 231 214
-144.438 37.504 -1489 245 216 199
-144.116 38.2043 -1517 225 195 178
-143.59 38.8794 -1544 220 190 173
-143.868 39.8061 -1581 219 188 172
-143.108 40.481 -1608 216 187 170
-142.242 41.1558 -1635 217 188 171
-140.504 41.6041 -1653 212 188 170
-137.782 41.7755 -1660 214 189 172
-135.438 42.0729 -1672 220 193 179
-133.6 42.5464 -1691 223 197 182
-131.229 47.8063 -1901 139 127 122
-130.188 48.8328 -1942 54 44 41
-127.684 49.3566 -1963 46 42 44
-124.719 49.7295 -1978 53 49 52
-121.512 50.027 -1990 66 63 68
-118.259 50.3246 -2002 67 68 74
-115.358 50.7982 -2021 84 85 91
-299.519 49.3518 -2120 33 30 34
-292.583 48.9002 -2101 44 40 44
-287.922 48.8214 -2098 53 47 51
-160.756 33.0234 -1422 254 242 231
-158.343 33.1113 -1426 255 245 234
-155.916 33.1992 -1430 250 238 225
-153.473 33.2872 -1434 247 233 216
-151.016 33.3753 -1438 248 228 210
-148.75 33.5099 -1444 244 222 204
-146.663 33.6909 -1452 250 217 196
-144.743 33.9183 -1462 251 220 201
-142.978 34.1922 -1474 251 220 206
-141.926 34.6517 -1494 230 200 183
-141.168 35.2039 -1518 204 174 157
-141.224 35.9879 -1552 209 175 158
-141.235 36.795 -1587 210 177 161
-141.193 37.6253 -1623 211 181 164
-139.904 38.154 -1646 209 185 167
-137.445 38.3815 -1656 209 184 167
-135.271 38.7016 -1670 214 185 171
-132.727 38.9292 -1680 214 187 173
-130.528 39.2727 -1695 213 187 173
-128.496 39.6856 -1713 214 188 173
-127.123 40.3303 -1741 214 190 176
-128.623 41.9479 -1811 214 195 182
-130.949 43.9356 -1897 174 161 155
-129.648 44.7885 -1934 57 46 42
-127.29 45.3171 -1957 44 40 43
-124.274 45.6374 -1971 49 46 51
-121.02 45.8883 -1982 59 58 65
-117.782 46.1623 -1994 60 62 68
-181.332 29.847 -1404 247 233 224
-178.246 29.7992 -1402 252 241 228
-162.804 30.0461 -1415 255 243 227
-160.186 30.0839 -1417 254 239 222
-158.116 30.2279 -1424 250 230 213
-155.584 30.2871 -1427 241 218 200
-153.361 30.41 -1433 239 212 190
-150.801 30.4693 -1436 237 203 182
-148.848 30.6559 -1445 233 198 177
-146.456 30.7578 -1450 236 195 171
-144.441 30.9445 -1459 237 199 177
-142.489 31.1526 -1469 241 206 187
-140.782 31.4241 -1482 247 218 201
-139.49 31.8017 -1500 221 193 176
-138.945 32.3702 -1527 203 170 151
-139.539 33.2353 -1568 207 173 155
-139.971 34.1003 -1609 210 177 159
-139.135 34.6897 -1637 208 182 163
-137.358 35.0671 -1655 208 182 164
-135.348 35.4023 -1671 210 181 167
-132.881 35.6314 -1682 207 179 166
-130.601 35.9243 -1696 206 179 166
-128.942 36.4077 -1719 206 180 166
-127.996 37.1242 -1753 207 183 168
-129.542 38.6239 -1824 206 187 173
-131.29 40.2719 -1902 186 173 166
-129.309 40.8398 -1929 65 54 50
-127.221 41.4078 -1956 46 42 45
-124.207 41.7006 -1970 46 44 49
-120.894 41.9087 -1980 56 55 63
-117.425 42.0746 -1988 59 61 67
-114.38 42.41 -2004 64 66 72
-188.826 26.5258 -1376 140 127 127
-186.992 26.6557 -1383 226 207 206
-184.597 26.7087 -1386 250 228 225
-182.979 26.8774 -1395 252 237 223
-180.293 26.8918 -1396 255 241 227
-177.478 26.8872 -1396 255 243 229
-175.039 26.9404 -1399 255 238 225
-172.097 26.9166 -1398 255 235 222
-168.797 26.8352 -1394 255 232 217
-166.111 26.8501 -1395 255 238 223
-164.123 26.9805 -1402 255 243 228
-162.225 27.1302 -1410 254 237 218
-159.843 27.203 -1414 249 229 209
-158.112 27.3912 -1424 239 208 186
-156.125 27.541 -1432 226 193 170
-153.678 27.6139 -1436 230 189 163
-151.217 27.6868 -1440 227 179 156
-148.947 27.7984 -1446 223 173 150
-146.452 27.8714 -1450 223 176 151
-144.14 27.9829 -1456 227 183 157
-142 28.133 -1464 230 190 165
-139.828 28.283 -1472 251 227 208
-138.184 28.5484 -1486 249 232 215
-137.03 28.929 -1506 208 180 159
-137.489 29.6746 -1545 196 167 147
-137.966 30.4584 -1586 201 170 151
-137.771 31.127 -1621 202 177 158
-136.607 31.6035 -1646 204 179 160
-134.778 31.9455 -1664 206 177 162
-132.245 32.1341 -1674 205 177 164
-130.136 32.4378 -1690 203 176 164
-129.539 33.1446 -1727 201 177 162
-129.599 34.0624 -1775 202 179 164
-131.03 35.4023 -1845 202 183 168
-131.838 36.6461 -1910 177 164 156
-129.64 37.1032 -1934 62 51 46
-127.218 37.5219 -1956 47 43 46
-124.078 37.7488 -1968 45 42 47
-120.769 37.9374 -1978 55 54 62
-117.067 38.0111 -1982 58 58 65
-113.978 38.2958 -1997 61 61 67
-194.247 23.7706 -1375 72 52 51
-191.744 23.8006 -1377 170 148 146
-189.508 23.8653 -1381 227 207 197
-186.852 23.8782 -1382 250 227 216
-184.593 23.9429 -1386 255 228 218
-182.581 24.0423 -1392 255 228 212
-179.514 24.0035 -1390 255 229 213
-176.711 23.9993 -1390 255 227 211
-173.909 23.9952 -1390 255 226 211
-170.985 23.974 -1389 255 226 212
-167.946 23.9355 -1387 254 225 208
-165.273 23.9488 -1388 255 228 211
-163.651 24.1175 -1398 252 227 210
-161.76 24.2518 -1406 246 217 199
-160.065 24.4205 -1416 236 207 188
-158.774 24.6582 -1430 223 188 162
-156.666 24.7752 -1437 213 175 150
-153.995 24.8061 -1439 205 159 136
-151.213 24.8197 -1440 198 147 124
-148.737 24.8852 -1444 191 139 116
-145.742 24.8645 -1443 198 144 121
-143.345 24.9473 -1448 212 164 141
-140.929 25.0302 -1453 237 200 178
-138.495 25.1131 -1458 255 239 223
-136.414 25.2649 -1467 255 244 229
-135.025 25.5545 -1484 245 225 204
-134.994 26.1195 -1517 200 175 155
-135.701 26.8567 -1560 193 168 148
-136.578 27.6627 -1607 192 171 154
-136.355 28.2791 -1643 195 173 156
-135.26 28.7407 -1670 197 172 157
-132.716 28.9097 -1680 199 173 159
-130.961 30.0392 -1746 198 172 159
-132.662 31.2576 -1817 198 174 161
-133.725 32.3899 -1883 198 178 164
-133.009 33.1436 -1927 168 155 147
-130.173 33.3986 -1942 57 46 41
-127.41 33.6878 -1959 47 43 46
-124.075 33.8397 -1968 43 41 46
-120.583 33.9573 -1975 51 50 58
-117.005 34.0577 -1981 58 54 62
-113.69 34.2441 -1992 65 61 69
-194.808 21.0861 -1379 188 160 158
-192.296 21.1126 -1381 251 222 217
-189.504 21.1087 -1381 254 225 211
-186.712 21.1048 -1381 255 224 211
-184.189 21.1315 -1383 255 224 210
-182.315 21.2347 -1390 255 220 202
-179.381 21.2156 -1389 245 201 184
-176.58 21.2119 -1389 244 201 184
-174.03 21.2389 -1391 255 221 205
-170.858 21.1895 -1388 255 230 214
-167.821 21.1554 -1386 254 226 208
-165.627 21.2284 -1391 252 218 200
-163.648 21.3318 -1398 240 206 187
-161.987 21.481 -1408 228 192 175
-161.418 21.7827 -1428 214 178 161
-159.548 21.9167 -1437 197 160 135
-157.317 22.0049 -1443 180 140 116
-154.42 22.0018 -1443 160 113 94
-151.525 21.9986 -1443 147 95 75
-148.528 21.9803 -1442 167 113 94
-145.536 21.962 -1441 219 164 143
-142.55 21.9438 -1440 242 198 178
-140.053 22.0018 -1444 253 222 204
-137.637 22.0752 -1449 255 235 222
-135.388 22.1789 -1456 255 234 223
-133.658 22.3742 -1469 255 236 217
-133.033 22.7675 -1495 237 216 197
-133.089 23.2977 -1530 190 168 149
-134.535 24.102 -1583 184 161 139
-136.352 25.0127 -1643 188 166 146
-135.5 25.4666 -1673 191 167 152
-133.661 25.753 -1692 189 164 149
-134.108 27.2085 -1788 197 170 158
-136.066 29.1506 -1916 192 171 164
-134.248 29.589 -1945 137 124 121
-131.042 29.7384 -1955 47 36 34
-127.862 29.9031 -1966 49 45 49
-124.324 29.9918 -1972 45 42 47
-120.886 30.1109 -1980 48 47 55
-117.239 30.1845 -1985 55 52 60
-113.744 30.3038 -1993 63 60 67
-110.494 30.4992 -2006 62 64 69
-107.299 30.725 -2021 64 65 71
-199.459 18.509 -1392 140 122 122
-195.511 18.399 -1384 229 196 189
-192.432 18.3689 -1382 224 188 180
-189.5 18.3522 -1381 236 188 171
-186.574 18.3355 -1380 247 199 183
-184.052 18.3587 -1382 247 196 180
-182.311 18.4618 -1390 233 182 161
-180.411 18.5514 -1397 199 149 128
-177.212 18.5084 -1394 224 176 157
-174.527 18.5185 -1395 249 201 182
-171.593 18.5021 -1394 246 195 176
-168.423 18.4593 -1391 228 188 169
-166.338 18.5358 -1397 219 178 159
-164.932 18.692 -1409 206 163 143
-163.94 18.9014 -1425 194 154 136
-161.98 19.0045 -1433 174 134 117
-160.988 19.2271 -1450 145 111 88
-158.404 19.264 -1453 125 87 68
-154.952 19.1949 -1448 113 69 57
-151.732 19.1524 -1445 127 77 64
-148.525 19.11 -1442 195 143 130
-144.827 19.0013 -1434 249 193 177
-141.953 18.9988 -1434 255 205 190
-139.178 19.0095 -1435 255 212 199
-136.875 19.0865 -1441 253 219 208
-134.734 19.19 -1449 248 216 206
-132.745 19.32 -1459 248 219 201
-131.785 19.609 -1481 245 218 199
-131.086 19.9509 -1507 199 170 152
-140.103 25.386 -1919 188 164 156
-137.555 25.6217 -1937 173 152 151
-135.074 25.8838 -1957 92 78 80
-131.643 25.974 -1964 49 37 40
-128.25 26.0775 -1972 48 44 49
-124.574 26.1281 -1976 44 41 47
-120.883 26.1789 -1980 47 46 54
-117.236 26.2428 -1985 51 50 57
-113.742 26.3466 -1993 53 52 59
-110.602 26.5427 -2008 60 62 68
-107.191 26.6862 -2019 64 65 72
-199.169 15.7065 -1390 198 181 177
-196.072 15.6808 -1388 213 180 170
-193.125 15.6666 -1387 189 151 140
-189.497 15.5958 -1381 206 150 135
-186.57 15.5817 -1380 215 157 142
-184.449 15.6353 -1385 213 154 139
-182.44 15.7002 -1391 183 128 109
-180.279 15.7539 -1396 157 103 83
-177.972 15.7962 -1400 191 138 118
-175.4 15.8161 -1402 204 150 131
-172.452 15.8022 -1401 199 145 126
-169.268 15.7657 -1398 186 144 127
-167.407 15.8534 -1406 184 142 125
-166.217 16.0087 -1420 166 126 107
-164.857 16.1527 -1433 143 104 89
-163.333 16.2854 -1445 117 79 64
-161.874 16.4295 -1458 100 69 50
-159.055 16.4383 -1459 100 65 50
-155.485 16.3684 -1453 100 60 51
-152.045 16.3096 -1448 120 73 63
-148.42 16.2285 -1441 171 122 113
-144.824 16.1474 -1434 206 151 139
-141.654 16.1115 -1431 225 170 156
-138.982 16.1319 -1433 242 186 169
-136.207 16.1411 -1434 249 207 193
-134.174 16.2403 -1443 237 200 187
-131.742 16.2945 -1448 230 196 178
-143.404 21.4967 -1912 176 155 147
-141.707 21.8206 -1941 171 151 145
-139.044 22.0096 -1958 134 116 115
-135.762 22.1085 -1967 58 46 47
-132.043 22.1402 -1970 50 41 43
-128.378 22.1832 -1974 43 40 45
-124.761 22.2375 -1979 42 40 46
-120.881 22.2469 -1980 45 44 52
-117.235 22.3013 -1985 50 49 57
-113.797 22.4006 -1994 54 53 61
-110.325 22.5 -2003 56 58 64
-107.083 22.6557 -2017 61 61 68
-103.685 22.7889 -2029 67 66 74
-199.453 12.9494 -1392 221 202 195
-196.635 12.9469 -1392 229 193 181
-193.54 12.9257 -1390 184 145 132
-190.455 12.9048 -1388 181 123 108
-187.379 12.8839 -1386 181 121 107
-185.245 12.9279 -1391 181 120 106
-183.093 12.9721 -1396 152 95 76
-181.18 13.0349 -1403 138 82 63
-178.859 13.0696 -1407 150 97 78
-176.273 13.086 -1409 159 106 88
-173.311 13.0746 -1408 157 104 87
-170.355 13.0632 -1407 146 105 91
-168.714 13.1537 -1417 137 98 83
-167.151 13.2538 -1428 116 78 62
-165.545 13.3538 -1439 102 67 54
-163.67 13.4353 -1448 96 62 50
-161.983 13.5353 -1459 92 65 51
-158.944 13.5239 -1458 91 61 49
-155.59 13.4848 -1454 99 62 54
-152.568 13.4736 -1453 113 67 60
-148.521 13.3698 -1442 127 79 72
-144.923 13.3031 -1435 166 113 104
-141.454 13.2457 -1429 194 140 126
-138.592 13.2439 -1429 211 156 135
-135.351 13.205 -1425 216 173 155
-132.778 13.2311 -1428 220 181 164
-152.218 17.8403 -1927 156 137 124
-148.603 17.8662 -1930 156 138 127
-145.202 17.9199 -1936 156 142 137
-142.362 18.0477 -1950 134 119 116
-139.184 18.1382 -1960 77 64 63
-135.898 18.2198 -1969 42 34 36
-132.309 18.2644 -1974 48 41 43
-128.701 18.309 -1979 39 37 42
-124.759 18.3075 -1979 38 36 42
-121.063 18.3429 -1983 43 42 49
-117.351 18.3785 -1987 47 46 54
-113.853 18.451 -1995 53 52 60
-110.268 18.5144 -2002 53 55 61
-106.923 18.624 -2014 59 60 66
-103.325 18.6967 -2022 63 62 70
-199.594 10.1771 -1393 231 209 200
-196.632 10.1677 -1392 253 219 205
-193.677 10.1586 -1391 244 201 187
-190.452 10.1348 -1388 223 165 150
-187.512 10.1255 -1387 174 116 100
-185.243 10.1529 -1391 160 101 85
-182.829 10.173 -1394 154 97 80
-180.532 10.2004 -1398 149 93 76
-152.041 10.5451 -1448 108 66 55
-148.416 10.4927 -1441 117 72 62
-145.124 10.4619 -1437 135 86 76
-141.353 10.395 -1428 153 105 90
-138.202 10.3718 -1425 172 123 103
-170.135 14.5609 -2002 149 126 103
-164.144 14.3847 -1978 149 127 106
