ply
format ascii 1.0
comment Created by Open3D
element vertex 1484
property double x
property double y
property double z
property uchar red
property uchar green
property uchar blue
end_header
153.643 -432.733 -2164 36 35 44
158.235 -433.375 -2167 36 36 46
163.066 -434.619 -2173 36 36 46
167.69 -435.264 -2176 42 42 52
172.091 -435.311 -2176 42 41 51
175.845 -433.758 -2168 44 45 55
-131.106 -442.242 -2190 58 60 75
-127.092 -443.62 -2197 37 40 53
-122.548 -443.182 -2195 37 42 57
-117.745 -441.736 -2188 39 44 58
-113.022 -440.493 -2182 40 43 56
-107.877 -437.434 -2167 33 36 48
-103.175 -435.992 -2160 34 37 48
-98.5938 -434.955 -2155 33 38 51
-94.1209 -434.324 -2152 35 39 52
-89.5773 -433.289 -2147 40 43 56
-85.1738 -432.862 -2145 39 41 57
-80.7791 -432.435 -2143 39 41 57
-76.4287 -432.212 -2142 39 42 55
-72.083 -431.99 -2141 36 37 51
-67.7736 -431.971 -2141 34 35 49
-63.4351 -431.751 -2140 33 32 46
-59.1288 -431.734 -2140 31 30 44
-54.746 -431.113 -2137 32 31 45
-50.3759 -430.494 -2134 33 32 46
-46.1261 -430.884 -2136 33 32 46
-41.8099 -430.67 -2135 33 32 46
-37.5333 -430.861 -2136 33 32 46
-33.2529 -431.053 -2137 30 29 43
-29.0096 -431.851 -2141 28 27 41
-24.7041 -431.844 -2141 29 27 43
-20.3892 -431.636 -2140 29 27 44
-16.1237 -432.64 -2145 30 28 45
-11.8109 -432.636 -2145 30 28 45
-7.51887 -433.843 -2151 31 29 48
-3.19834 -434.447 -2154 32 30 48
1.13686 -436.06 -2162 31 29 46
5.49129 -436.666 -2165 26 24 41
9.849 -436.87 -2166 24 22 39
14.1977 -436.672 -2165 25 23 40
18.5593 -436.878 -2166 24 22 39
22.9677 -437.892 -2171 23 21 38
27.3461 -438.101 -2172 24 23 37
31.7724 -438.916 -2176 26 25 38
36.0989 -438.32 -2173 27 26 38
40.4135 -437.725 -2170 27 26 38
44.6132 -436.123 -2162 28 27 39
48.8717 -435.329 -2158 29 28 38
53.0651 -434.133 -2152 29 28 38
57.3684 -433.946 -2151 28 27 37
61.5818 -433.156 -2147 31 30 40
65.9331 -433.375 -2148 32 31 41
70.1911 -432.99 -2146 29 28 38
74.5805 -433.413 -2148 25 24 36
78.7578 -432.627 -2144 28 27 39
83.0748 -432.65 -2144 29 28 40
87.311 -432.27 -2142 28 27 39
91.5829 -432.092 -2141 31 30 42
95.7168 -431.311 -2137 33 32 44
100.023 -431.338 -2137 32 31 43
104.329 -431.366 -2137 30 29 41
108.586 -431.193 -2136 31 30 40
113.051 -431.83 -2139 32 31 40
117.639 -432.871 -2144 34 33 41
122.134 -433.509 -2147 34 33 43
126.701 -434.351 -2151 34 33 43
131.103 -434.589 -2152 32 31 41
135.699 -435.433 -2156 33 32 40
139.857 -434.865 -2153 32 31 39
144.339 -435.308 -2155 34 33 41
148.83 -435.753 -2157 37 36 44
153.686 -437.209 -2164 37 36 45
158.133 -437.454 -2165 38 37 47
163.035 -438.912 -2172 37 36 46
167.505 -439.16 -2173 40 39 49
171.743 -438.803 -2171 41 40 50
175.65 -437.638 -2165 45 45 55
-131.022 -446.365 -2188 55 57 73
-127.069 -447.961 -2196 38 40 55
-122.638 -447.926 -2196 42 45 60
-117.885 -446.669 -2190 39 42 57
-113.157 -445.413 -2184 37 40 53
-108.006 -442.324 -2169 34 37 49
-103.347 -441.071 -2163 35 38 50
-98.7583 -440.023 -2158 33 38 51
-94.2343 -439.181 -2154 35 39 52
-89.7272 -438.34 -2150 39 42 55
-85.3164 -437.908 -2148 39 42 56
-80.8014 -436.866 -2143 40 43 56
-76.3785 -436.232 -2140 39 42 55
-72.0693 -436.212 -2140 34 36 50
-67.7289 -435.988 -2139 33 34 48
-63.4821 -436.378 -2141 34 33 47
-59.1174 -435.953 -2139 32 31 45
-54.7867 -435.734 -2138 31 32 46
-50.4133 -435.108 -2135 33 32 46
-46.1604 -435.502 -2137 33 32 46
-41.8999 -435.897 -2139 36 35 49
-37.6139 -436.09 -2140 35 34 48
-33.34 -436.488 -2142 32 31 45
-29.0446 -436.683 -2143 31 30 44
-24.7686 -437.287 -2146 29 28 43
-20.4425 -437.077 -2145 28 26 43
-16.1733 -438.294 -2151 31 29 46
-11.8415 -438.087 -2150 32 30 47
-7.5348 -439.103 -2155 32 30 49
-3.19915 -438.898 -2154 32 30 48
1.13718 -440.528 -2162 30 28 45
5.49555 -441.344 -2166 28 26 43
9.86551 -441.957 -2169 25 23 40
14.2473 -442.572 -2172 24 22 39
18.6245 -442.78 -2173 23 21 38
23.0484 -443.805 -2178 23 21 37
27.4294 -443.812 -2178 25 24 38
31.8544 -444.431 -2181 26 25 38
36.2086 -444.033 -2179 25 24 36
40.6109 -444.247 -2180 25 24 36
44.7699 -442.018 -2169 25 24 35
49.0439 -441.216 -2165 25 24 34
53.2525 -440.007 -2159 27 26 36
57.5443 -439.615 -2157 27 26 36
61.6849 -438.205 -2150 29 28 38
66.105 -438.834 -2153 29 28 38
70.3087 -438.037 -2149 26 25 35
74.6358 -438.058 -2149 24 23 35
78.9634 -438.079 -2149 27 26 38
83.1367 -437.286 -2145 28 27 39
87.4168 -437.106 -2144 29 28 40
91.6082 -436.519 -2141 31 30 42
95.9224 -436.545 -2141 32 31 43
100.003 -435.553 -2136 35 34 46
104.456 -436.193 -2139 33 32 44
108.769 -436.223 -2139 33 32 42
113.083 -436.254 -2139 32 31 39
117.726 -437.509 -2145 30 29 37
122.225 -438.155 -2148 33 32 42
126.913 -439.413 -2154 33 32 42
131.322 -439.653 -2155 33 32 42
135.61 -439.486 -2154 32 31 40
139.7 -438.708 -2150 33 32 41
144.245 -439.36 -2153 36 35 43
148.871 -440.217 -2157 38 37 45
153.799 -441.892 -2165 39 38 46
158.25 -442.14 -2166 38 37 47
162.93 -443.001 -2170 37 36 46
167.243 -442.843 -2169 39 38 48
171.474 -442.482 -2167 41 40 50
175.293 -441.1 -2160 44 45 55
-130.64 -449.453 -2181 56 58 74
-126.931 -451.89 -2193 41 43 59
-122.617 -452.267 -2195 43 45 61
-117.918 -451.203 -2190 39 41 57
-113.344 -450.552 -2187 37 40 53
-108.286 -447.843 -2174 36 39 52
-103.615 -446.577 -2168 36 39 52
-98.9689 -445.313 -2162 33 38 51
-94.3044 -443.844 -2155 34 38 51
-89.7522 -442.789 -2150 36 39 52
-85.3403 -442.352 -2148 37 40 53
-80.7484 -440.888 -2141 42 45 58
-76.3283 -440.248 -2138 39 42 55
-72.022 -440.227 -2138 35 36 50
-67.6844 -440.002 -2137 31 32 46
-63.4702 -440.601 -2140 35 34 48
-59.1615 -440.584 -2140 36 35 49
-54.8532 -440.568 -2140 29 30 44
-50.5219 -440.347 -2139 30 30 44
-46.2164 -440.334 -2139 36 35 49
-41.9506 -440.733 -2141 35 34 48
-37.6595 -440.928 -2142 33 32 46
-33.4115 -441.741 -2146 32 31 45
-29.1069 -441.938 -2147 33 32 47
-24.7985 -442.137 -2148 33 31 47
-20.4673 -441.925 -2147 29 27 44
-16.2229 -443.978 -2157 29 27 45
-11.8779 -443.768 -2156 30 28 46
-7.55452 -444.589 -2160 31 29 48
-3.21186 -444.999 -2162 30 28 46
1.14119 -446.439 -2169 28 26 43
5.51226 -447.058 -2172 26 24 41
9.89544 -447.677 -2175 25 23 40
14.2842 -448.092 -2177 25 23 40
18.6726 -448.303 -2178 25 23 40
23.1077 -449.338 -2183 24 22 39
27.5125 -449.551 -2184 23 22 36
31.9361 -449.971 -2186 22 21 33
36.2852 -449.363 -2183 21 20 32
40.6409 -448.962 -2181 24 23 35
44.8445 -447.121 -2172 24 23 34
49.08 -445.899 -2166 25 24 34
53.3167 -444.884 -2161 27 26 36
57.587 -444.282 -2158 28 27 37
61.7883 -443.27 -2153 28 27 37
66.1235 -443.288 -2153 26 25 35
70.3938 -442.895 -2151 23 22 32
74.7955 -443.327 -2153 24 23 35
79.0589 -442.937 -2151 29 28 40
83.2375 -442.136 -2147 33 32 44
87.5635 -442.16 -2147 35 34 46
91.8049 -441.773 -2145 35 34 46
95.9493 -440.976 -2141 32 31 43
100.219 -440.798 -2140 33 32 44
104.534 -440.826 -2140 33 32 44
108.748 -440.444 -2138 34 33 43
113.22 -441.093 -2141 29 28 37
117.759 -441.95 -2145 24 23 31
122.373 -443.014 -2150 32 31 41
126.89 -443.667 -2153 34 33 43
131.42 -444.322 -2156 34 33 43
135.774 -444.359 -2156 35 34 44
139.869 -443.573 -2152 38 37 46
144.486 -444.438 -2156 40 39 47
149.189 -445.51 -2161 45 44 52
153.7 -445.965 -2163 43 42 50
158.367 -446.834 -2167 38 37 47
162.976 -447.498 -2170 36 35 45
167.521 -447.956 -2172 38 37 47
171.681 -447.385 -2169 42 41 51
175.423 -445.784 -2161 44 45 55
-130.557 -453.556 -2179 59 61 77
-126.677 -455.393 -2188 44 46 62
-122.483 -456.19 -2192 41 43 59
-117.951 -455.74 -2190 39 42 57
-113.48 -455.499 -2189 38 41 54
-108.565 -453.387 -2179 38 41 54
-103.835 -451.9 -2172 37 40 53
-99.3173 -451.247 -2169 35 38 51
-94.5936 -449.556 -2161 35 38 51
-90.0281 -448.49 -2156 35 38 51
-85.3246 -446.593 -2147 35 38 51
-80.8466 -445.737 -2143 41 44 57
-76.3141 -444.467 -2137 38 41 54
-72.0422 -444.654 -2138 35 37 51
-67.7035 -444.426 -2137 32 33 47
-63.4881 -445.031 -2140 34 33 47
-59.2334 -445.43 -2142 32 32 46
-54.9712 -445.83 -2144 27 28 42
-50.6305 -445.607 -2143 29 28 42
-46.316 -445.593 -2143 31 30 44
-42.0604 -446.204 -2146 31 30 44
-37.7582 -446.401 -2147 31 30 44
-33.4831 -447.015 -2150 31 30 44
-29.1557 -447.006 -2150 33 31 48
-24.8401 -447.206 -2151 33 31 48
-20.5493 -448.031 -2155 31 29 46
-16.2876 -450.105 -2165 33 31 50
-11.9144 -449.478 -2162 33 31 50
-7.574 -450.099 -2165 30 28 47
-3.22039 -450.513 -2167 28 26 44
1.14257 -451.344 -2171 27 25 42
5.51629 -451.761 -2173 25 23 40
9.91203 -452.803 -2178 25 23 40
14.3211 -453.638 -2182 28 26 43
18.7467 -454.474 -2186 28 26 43
23.1989 -455.52 -2191 25 23 39
27.5834 -455.111 -2189 21 20 34
32.0475 -455.951 -2193 21 20 32
36.3786 -454.921 -2188 22 21 33
40.7084 -454.1 -2184 23 22 34
44.9603 -452.657 -2177 25 24 35
49.2299 -451.631 -2172 25 24 34
53.3564 -449.566 -2162 27 26 36
57.6299 -448.958 -2159 29 28 38
61.9779 -448.975 -2159 29 28 38
66.2341 -448.369 -2156 28 27 37
70.5119 -447.973 -2154 29 28 39
74.8513 -447.993 -2154 34 33 45
79.1548 -447.807 -2153 36 35 47
83.3383 -446.998 -2149 34 33 45
87.629 -446.814 -2148 32 31 43
91.9164 -446.632 -2147 31 30 42
96.0659 -445.826 -2143 27 26 38
100.294 -445.438 -2141 29 28 40
104.515 -445.051 -2139 29 28 40
108.881 -445.289 -2140 31 30 41
113.305 -445.737 -2142 30 29 38
118.012 -447.227 -2149 29 28 36
122.578 -448.093 -2153 32 31 41
126.985 -448.337 -2154 31 30 40
131.396 -448.582 -2155 30 29 39
135.749 -448.619 -2155 35 34 44
140.104 -448.659 -2155 39 38 47
144.527 -448.908 -2156 41 40 48
149.231 -449.99 -2161 43 42 50
154.099 -451.491 -2168 38 37 46
158.558 -451.744 -2169 34 33 43
163.172 -452.414 -2172 36 35 45
167.569 -452.462 -2172 39 38 48
171.808 -452.093 -2170 42 41 51
175.879 -451.309 -2166 42 44 53
-130.654 -458.286 -2180 61 63 80
-126.771 -460.141 -2189 45 46 62
-122.63 -461.157 -2194 40 42 58
-118.147 -460.912 -2193 38 40 55
-113.668 -460.668 -2192 36 39 52
-108.795 -458.745 -2183 38 41 54
-104.152 -457.664 -2178 38 41 54
-99.483 -456.374 -2172 37 40 53
-94.7518 -454.665 -2164 36 39 51
-90.179 -453.589 -2159 34 37 49
-85.4681 -451.673 -2150 33 36 49
-80.9074 -450.389 -2144 39 41 55
-76.3715 -449.106 -2138 38 39 53
-72.0964 -449.294 -2139 36 37 51
-67.8495 -449.694 -2141 36 37 51
-63.5655 -449.886 -2142 36 35 49
-59.3885 -450.918 -2147 30 30 44
-55.1151 -451.322 -2149 24 25 39
-50.834 -451.727 -2151 26 25 39
-46.4804 -451.503 -2150 25 24 38
-42.1704 -451.7 -2151 27 26 40
-37.8216 -451.479 -2150 29 28 42
-33.5082 -451.679 -2151 29 28 42
-29.2047 -452.09 -2153 29 27 44
-24.8587 -451.872 -2152 30 28 45
-20.5741 -452.916 -2157 32 30 47
-16.2622 -453.75 -2161 35 33 52
-11.9451 -455.006 -2167 32 30 49
-7.59028 -455.423 -2169 28 26 45
-3.23015 -456.262 -2173 26 24 42
1.14501 -456.681 -2175 27 25 42
5.53557 -457.732 -2180 26 24 41
9.93293 -458.154 -2182 25 23 40
14.3647 -459.417 -2188 29 27 44
18.8207 -460.682 -2194 32 30 47
23.2901 -461.738 -2199 29 27 43
27.6793 -461.115 -2196 23 22 36
32.1444 -461.754 -2199 21 20 33
36.522 -461.134 -2196 22 21 33
40.7759 -459.255 -2187 22 21 33
45.0352 -457.797 -2180 24 23 34
49.312 -456.761 -2175 26 25 35
53.4703 -454.885 -2166 27 26 36
57.7263 -454.061 -2162 29 28 38
62.1392 -454.499 -2164 30 29 39
66.3452 -453.467 -2159 33 32 42
70.6957 -453.487 -2159 34 33 43
75.0118 -453.297 -2158 35 34 46
79.3243 -453.109 -2157 36 35 47
83.7112 -453.343 -2158 33 32 44
87.899 -452.527 -2154 29 28 40
92.1996 -452.343 -2153 26 25 37
96.2727 -451.109 -2147 25 24 36
100.369 -450.087 -2142 26 25 37
104.642 -449.906 -2141 25 24 36
108.963 -449.936 -2141 29 28 40
113.39 -450.389 -2143 33 32 41
117.991 -451.473 -2148 34 33 41
122.727 -452.979 -2155 30 29 39
127.139 -453.225 -2156 27 26 36
131.494 -453.262 -2156 29 28 38
135.914 -453.51 -2157 38 37 47
140.274 -453.55 -2157 42 41 50
144.836 -454.222 -2160 42 41 49
149.343 -454.685 -2162 38 37 45
154.001 -455.569 -2166 32 31 40
158.603 -456.245 -2169 30 29 39
163.069 -456.502 -2170 35 34 44
167.771 -457.391 -2174 40 39 49
172.174 -457.44 -2174 43 42 52
176.092 -456.227 -2168 41 43 53
-130.452 -461.963 -2176 64 67 83
-126.634 -464.048 -2186 49 50 66
-122.498 -465.073 -2191 43 45 61
-118.073 -465.039 -2191 39 41 57
-113.649 -465.005 -2191 38 41 54
-109.076 -464.336 -2188 39 42 55
-104.229 -462.396 -2179 40 43 56
-99.7406 -461.942 -2177 39 42 55
-94.9105 -459.792 -2167 37 40 52
-90.372 -458.916 -2163 36 39 50
-85.7312 -457.406 -2156 32 35 48
-81.0439 -455.472 -2147 35 38 51
-76.5006 -454.177 -2141 37 38 52
-72.1508 -453.943 -2140 37 38 52
-67.8689 -454.135 -2141 38 39 53
-63.6431 -454.752 -2144 39 38 52
-59.4332 -455.583 -2148 29 28 43
-55.1565 -455.991 -2150 22 23 38
-50.8958 -456.611 -2153 23 22 36
-46.5803 -456.809 -2154 21 20 34
-42.2806 -457.221 -2156 24 23 37
-37.8852 -456.573 -2153 26 25 39
-33.5334 -456.351 -2152 25 24 39
-29.1995 -456.342 -2152 24 22 39
-24.9352 -457.606 -2158 26 24 41
-20.5992 -457.812 -2159 27 25 42
-16.312 -459.503 -2167 28 26 44
-11.9982 -461.407 -2176 26 24 43
-7.61682 -461.404 -2176 24 22 41
-3.23993 -462.039 -2179 26 24 42
1.14797 -462.251 -2180 27 25 42
5.55261 -463.524 -2186 29 27 46
9.96779 -464.162 -2189 28 26 44
14.4214 -465.65 -2196 27 25 42
18.8862 -466.715 -2201 28 26 43
23.3712 -467.782 -2206 24 23 39
27.8387 -468.213 -2208 21 20 34
32.2853 -468.222 -2208 22 21 34
36.5824 -466.323 -2199 23 22 34
40.9181 -465.274 -2194 24 23 35
45.172 -463.59 -2186 27 26 37
49.4396 -462.331 -2180 28 27 37
53.7079 -461.286 -2175 29 28 38
57.9568 -460.242 -2170 32 31 41
62.2431 -459.623 -2167 34 33 43
66.5795 -459.429 -2166 33 32 42
70.9125 -459.237 -2165 32 31 41
75.2072 -458.834 -2163 31 30 42
79.5311 -458.644 -2162 30 29 41
83.7741 -458.031 -2159 30 29 41
88.1284 -458.056 -2159 26 25 37
92.3117 -457.234 -2155 23 22 34
96.3902 -455.988 -2149 23 22 34
100.633 -455.592 -2147 24 23 36
104.868 -455.198 -2145 26 25 38
109.299 -455.653 -2147 30 29 41
113.687 -455.897 -2148 32 31 39
118.19 -456.568 -2151 29 28 37
122.706 -457.24 -2154 29 28 38
127.057 -457.275 -2154 29 28 38
131.41 -457.313 -2154 34 33 43
135.827 -457.564 -2155 42 41 51
140.249 -457.817 -2156 44 43 52
145.146 -459.557 -2164 42 41 49
149.8 -460.449 -2168 35 34 42
154.187 -460.493 -2168 31 30 39
158.722 -460.963 -2170 33 32 42
163.341 -461.647 -2173 39 37 47
167.819 -461.908 -2174 43 41 51
172.383 -462.382 -2176 44 43 53
176.305 -461.158 -2170 44 46 56
-130.25 -465.626 -2172 64 67 83
-126.497 -467.947 -2183 50 51 67
-122.422 -469.196 -2189 45 47 63
-118.053 -469.375 -2190 43 45 61
-113.682 -469.556 -2191 41 44 57
-109.058 -468.666 -2187 40 43 56
-104.547 -468.206 -2185 39 42 55
-99.7697 -466.463 -2177 38 41 54
-95.1133 -465.148 -2171 36 39 51
-90.4819 -463.836 -2165 36 39 50
-85.7959 -462.096 -2157 32 35 48
-81.1807 -460.572 -2150 33 36 49
-76.5943 -459.05 -2143 38 39 53
-72.2729 -459.028 -2143 41 42 56
-67.9521 -459.008 -2143 43 44 58
-63.6616 -459.202 -2144 43 42 56
-59.5613 -460.898 -2152 32 31 46
-55.2752 -461.31 -2154 23 24 40
-51.0289 -462.151 -2158 26 25 39
-46.637 -461.708 -2156 26 25 39
-42.3713 -462.552 -2160 30 29 43
-37.9842 -462.112 -2158 33 32 48
-33.6055 -461.673 -2156 33 31 48
-29.2758 -461.878 -2157 30 28 45
-24.9309 -461.87 -2157 29 27 44
-20.6242 -462.72 -2161 27 25 42
-16.3544 -465.07 -2172 27 25 44
-12.0238 -466.779 -2180 24 22 41
-7.6364 -466.99 -2181 23 21 40
-3.25715 -468.916 -2190 27 25 43
1.15358 -468.915 -2190 29 27 44
5.56686 -469.13 -2191 30 28 47
9.97966 -469.133 -2191 30 28 46
14.4388 -470.635 -2198 30 28 45
18.9174 -471.925 -2204 28 26 43
23.4203 -473.216 -2210 22 21 37
27.8719 -473.223 -2210 21 20 34
32.3532 -473.66 -2212 22 21 34
36.7094 -472.386 -2206 23 22 34
40.9675 -470.256 -2196 25 24 36
45.2266 -468.555 -2188 26 25 36
49.4994 -467.284 -2182 26 25 35
53.8226 -466.657 -2179 29 28 38
58.1071 -465.816 -2175 34 33 43
62.3762 -464.977 -2171 35 34 44
66.6911 -464.568 -2169 35 34 44
70.9985 -464.16 -2167 33 32 42
75.3335 -463.967 -2166 29 28 40
79.7015 -463.989 -2166 26 25 37
84.148 -464.442 -2168 26 25 37
88.113 -462.325 -2158 27 26 38
92.51 -462.566 -2159 27 26 38
96.5976 -461.308 -2153 28 27 39
100.99 -461.551 -2154 32 31 45
105.192 -460.938 -2151 32 31 45
109.739 -461.827 -2155 30 29 41
114.144 -462.074 -2156 29 28 37
118.389 -461.679 -2154 28 27 36
122.798 -461.929 -2155 28 27 37
126.976 -461.322 -2152 31 30 40
131.571 -462.217 -2156 36 35 45
136.056 -462.685 -2158 42 41 51
140.616 -463.369 -2161 44 43 52
145.256 -464.269 -2165 41 40 48
149.913 -465.17 -2169 35 34 42
154.517 -465.858 -2172 33 32 40
158.915 -465.904 -2172 37 36 46
163.389 -466.165 -2173 45 42 52
168.023 -466.858 -2176 47 44 54
172.591 -467.337 -2178 46 45 55
176.682 -466.53 -2174 48 48 59
-130.228 -469.926 -2171 63 66 83
-126.36 -471.836 -2180 45 46 62
-122.234 -472.882 -2185 43 45 61
-117.926 -473.279 -2187 42 44 59
-113.559 -473.461 -2188 40 41 55
-109.04 -472.996 -2186 38 40 53
-104.578 -472.748 -2185 35 38 51
-99.9822 -471.852 -2181 35 38 51
-95.2288 -470.093 -2173 32 35 48
-90.5502 -468.551 -2166 34 37 48
-85.9802 -467.444 -2161 31 34 46
-81.3933 -466.121 -2155 33 36 48
-76.8313 -464.8 -2149 37 38 52
-72.3616 -463.913 -2145 40 41 55
-68.0355 -463.892 -2145 45 46 60
-63.7396 -464.089 -2146 49 50 65
-59.4956 -464.72 -2149 42 43 58
-55.2144 -465.136 -2151 30 31 47
-51.0201 -466.417 -2157 27 27 41
-46.6506 -466.187 -2156 25 24 38
-42.4229 -467.471 -2162 26 25 39
-38.0306 -467.027 -2160 32 31 47
-33.7088 -467.449 -2162 35 33 50
-29.3387 -467.223 -2161 36 34 51
-24.9959 -467.431 -2162 35 33 50
-20.7162 -469.154 -2170 33 31 48
-16.3893 -470.446 -2176 33 31 49
-12.0437 -471.955 -2183 28 26 45
-7.63875 -471.52 -2181 25 23 42
-3.25951 -473.68 -2191 27 25 42
1.15551 -474.112 -2193 29 27 44
5.57605 -474.33 -2194 30 28 47
10.0328 -476.061 -2202 30 28 46
14.5085 -477.362 -2208 30 28 45
19.0002 -478.448 -2213 27 25 42
23.5119 -479.535 -2218 21 19 36
27.9306 -478.678 -2214 20 19 33
32.4066 -478.903 -2215 20 19 32
36.7701 -477.616 -2209 19 18 30
41.0353 -475.466 -2199 23 22 34
45.3019 -473.749 -2191 24 23 34
49.7182 -473.763 -2191 23 22 32
53.9371 -472.048 -2183 25 24 34
58.2044 -470.984 -2178 31 29 40
62.5382 -470.569 -2176 32 31 41
66.7417 -469.29 -2170 31 30 41
71.1506 -469.527 -2171 30 29 40
75.4946 -469.332 -2170 25 24 36
79.9457 -469.788 -2172 25 24 36
84.2503 -469.379 -2170 26 25 37
88.3432 -467.891 -2163 27 26 38
92.5801 -467.269 -2160 31 30 42
96.716 -466.215 -2155 35 34 46
101.067 -466.244 -2155 38 37 50
105.516 -466.707 -2157 37 36 49
110.026 -467.388 -2160 33 32 44
114.283 -466.989 -2158 29 28 38
118.479 -466.374 -2155 29 28 37
122.834 -466.41 -2155 29 28 38
127.132 -466.23 -2154 32 31 41
131.487 -466.268 -2154 38 37 47
136.096 -467.174 -2158 44 43 53
140.918 -468.73 -2165 43 42 51
145.567 -469.638 -2169 41 40 48
150.165 -470.332 -2172 39 38 46
154.634 -470.594 -2173 36 35 43
158.962 -470.423 -2172 40 39 48
163.287 -470.255 -2171 44 43 53
167.841 -470.737 -2173 45 43 53
172.563 -471.654 -2177 46 45 55
176.652 -470.839 -2173 48 48 56
-130.027 -473.571 -2167 69 72 89
-126.282 -475.936 -2178 47 48 64
-122.214 -477.21 -2184 43 45 61
-117.907 -477.612 -2186 42 44 60
-113.541 -477.796 -2187 41 42 57
-109.122 -477.762 -2187 39 42 55
-104.608 -477.294 -2185 35 38 51
-99.9202 -475.953 -2179 34 37 50
-95.3008 -474.831 -2174 32 35 47
-90.6188 -473.275 -2167 33 36 48
-86.0853 -472.375 -2163 30 33 45
-81.493 -471.04 -2157 32 35 47
-77.0686 -470.58 -2155 34 35 49
-72.518 -469.247 -2149 40 41 55
-68.1508 -469.008 -2148 46 47 61
-63.8179 -468.988 -2148 53 54 69
-59.5409 -469.406 -2150 50 50 66
-55.2307 -469.608 -2151 39 40 57
-50.988 -470.465 -2155 31 31 47
-46.7077 -471.106 -2158 24 24 39
-42.3962 -471.529 -2160 24 23 37
-38.0242 -471.299 -2159 27 26 41
-33.7501 -472.38 -2164 29 28 43
-29.4153 -472.807 -2166 33 31 48
-25.0842 -473.454 -2169 37 35 53
-20.7413 -474.102 -2172 37 35 53
-16.379 -474.533 -2174 34 32 51
-12.0307 -475.838 -2180 28 26 45
-7.64786 -476.49 -2183 25 23 42
-3.25918 -478.016 -2190 25 23 41
1.15533 -478.453 -2192 24 22 40
5.59062 -479.981 -2199 24 22 41
10.0359 -480.639 -2202 24 23 41
14.526 -482.389 -2210 27 27 42
19.0058 -483.049 -2213 25 22 40
23.519 -484.146 -2218 23 20 38
27.9895 -484.154 -2218 20 19 35
32.4162 -483.508 -2215 22 21 34
36.7479 -481.772 -2207 25 24 36
41.1783 -481.565 -2206 23 22 33
45.3775 -478.959 -2194 24 23 34
49.7783 -478.755 -2193 23 22 32
54.0271 -477.242 -2186 26 23 33
58.3019 -476.167 -2181 31 29 40
62.5568 -475.093 -2176 30 29 41
66.8537 -474.458 -2173 28 27 39
71.2044 -474.26 -2172 28 27 39
75.6562 -474.719 -2174 24 23 35
79.9326 -474.087 -2171 26 25 37
84.3919 -474.548 -2173 29 28 40
88.4921 -473.045 -2166 32 31 43
92.7361 -472.417 -2163 38 37 49
96.8793 -471.353 -2158 40 39 51
101.331 -471.819 -2160 40 39 51
105.646 -471.632 -2159 35 34 46
110.109 -472.101 -2161 31 30 42
114.37 -471.697 -2159 29 28 38
118.679 -471.514 -2158 29 28 38
123.099 -471.768 -2159 32 31 41
127.288 -471.15 -2156 38 37 47
131.954 -472.282 -2161 44 43 53
136.389 -472.54 -2162 46 45 55
141.155 -473.893 -2168 41 40 49
145.61 -474.155 -2169 38 37 45
150.14 -474.636 -2171 36 35 43
154.324 -474.026 -2168 37 36 44
158.862 -474.51 -2170 42 41 49
163.335 -474.776 -2171 44 43 53
167.968 -475.482 -2174 44 43 53
172.456 -475.752 -2175 45 44 54
176.542 -474.929 -2171 49 47 56
-129.945 -477.644 -2165 72 75 93
-126.088 -479.591 -2174 49 51 67
-122.083 -481.098 -2181 41 45 60
-117.78 -481.503 -2183 41 45 60
-113.367 -481.468 -2183 40 44 59
-108.955 -481.434 -2183 41 45 58
-104.592 -481.623 -2184 39 42 55
-99.9959 -480.71 -2180 33 36 49
-95.2855 -479.137 -2173 31 34 48
-90.6878 -478.007 -2168 32 35 50
-86.111 -476.878 -2163 32 35 48
-81.6307 -476.191 -2160 34 36 49
-77.0558 -474.845 -2154 34 35 49
-72.6409 -474.381 -2152 38 39 53
-68.1712 -473.479 -2148 42 43 57
-63.7776 -473.018 -2146 49 48 62
-59.5033 -473.44 -2148 49 49 64
-55.1959 -473.643 -2149 43 44 62
-50.9084 -474.068 -2151 37 38 55
-46.635 -474.715 -2154 33 34 51
-42.409 -476.024 -2160 31 29 46
-38.0708 -476.232 -2161 29 27 43
-33.7913 -477.323 -2166 27 26 40
-29.4512 -477.754 -2168 31 29 46
-25.1379 -478.848 -2173 36 34 52
-20.7475 -478.621 -2172 40 38 57
-16.4065 -479.717 -2177 41 39 58
-12.0454 -480.814 -2182 35 33 52
-7.65376 -481.252 -2184 29 27 46
-3.26007 -482.573 -2190 26 24 43
1.15673 -483.454 -2194 23 21 40
5.59985 -485.218 -2202 23 21 40
10.0661 -486.542 -2208 24 23 40
14.5633 -488.088 -2215 27 28 42
19.0372 -488.314 -2216 28 24 43
23.5365 -488.981 -2219 25 22 40
27.9601 -488.108 -2215 23 21 37
32.382 -487.456 -2212 25 24 37
36.6922 -485.483 -2203 24 23 34
41.1344 -485.494 -2203 25 24 35
45.4738 -484.406 -2198 28 27 37
49.8385 -483.759 -2195 27 26 36
54.1423 -482.673 -2190 29 27 37
58.4264 -481.587 -2185 30 29 39
62.6042 -479.842 -2177 27 26 37
66.8428 -478.76 -2172 24 23 35
71.2585 -479.001 -2173 25 24 36
75.5396 -478.362 -2170 24 23 35
79.9935 -478.826 -2172 28 27 39
84.3394 -478.63 -2171 35 34 46
88.396 -476.893 -2163 40 39 51
92.6783 -476.479 -2161 42 41 53
96.9084 -475.846 -2158 42 41 53
101.221 -475.655 -2157 36 35 47
105.481 -475.245 -2155 30 29 41
110.041 -476.16 -2159 28 27 39
114.404 -476.194 -2159 27 26 36
118.66 -475.788 -2157 28 27 37
123.022 -475.824 -2157 34 33 43
127.444 -476.083 -2158 40 39 49
131.932 -476.563 -2160 44 43 53
136.556 -477.486 -2164 45 44 54
141.262 -478.631 -2169 39 38 47
145.855 -479.337 -2172 37 36 44
150.324 -479.602 -2173 34 33 41
154.584 -479.206 -2171 38 37 45
159.056 -479.475 -2172 43 42 50
163.535 -479.744 -2173 46 45 55
168.25 -480.677 -2177 45 44 54
172.745 -480.95 -2178 45 44 54
177.083 -480.782 -2177 51 48 57
-129.805 -481.49 -2162 76 79 97
-126.126 -484.124 -2174 51 53 69
-122.064 -485.422 -2180 42 46 61
-117.87 -486.276 -2184 40 45 60
-113.506 -486.464 -2185 40 44 59
-109.038 -486.207 -2184 40 44 57
-104.623 -486.175 -2184 38 41 54
-100.072 -485.476 -2181 34 37 50
-95.4459 -484.333 -2176 29 31 46
-90.7152 -482.524 -2168 29 31 47
-86.2565 -482.052 -2166 33 34 49
-81.6553 -480.692 -2160 36 37 51
-77.2581 -480.445 -2159 34 35 49
-72.6628 -478.864 -2152 36 37 52
-68.2552 -478.398 -2150 38 39 54
-63.8563 -477.933 -2148 43 41 57
-59.4658 -477.469 -2146 46 46 63
-55.1868 -477.897 -2148 47 48 66
-50.9238 -478.548 -2151 44 45 62
-46.6275 -478.978 -2153 43 44 60
-42.3627 -479.855 -2157 36 34 53
-38.0822 -480.732 -2161 31 30 45
-33.7859 -481.612 -2165 27 26 40
-29.4873 -482.714 -2170 29 27 44
-25.1456 -483.373 -2173 30 28 45
-20.7729 -483.589 -2174 36 34 52
-16.4265 -484.695 -2179 43 41 60
-12.0325 -484.691 -2179 41 39 58
-7.63488 -484.466 -2178 37 35 54
-3.2565 -486.466 -2187 31 29 48
1.15709 -488.023 -2194 25 23 42
5.59156 -488.913 -2198 23 21 40
10.0602 -490.695 -2206 22 21 38
14.5546 -492.256 -2213 21 22 38
19.0346 -492.706 -2215 29 25 44
23.512 -492.935 -2216 23 19 37
27.9178 -491.831 -2211 23 22 37
32.3772 -491.84 -2211 24 23 34
36.7368 -490.516 -2205 22 21 31
41.1843 -490.528 -2205 30 29 41
45.4255 -488.316 -2195 31 30 41
49.8084 -487.886 -2193 31 30 40
54.1338 -487.011 -2189 30 29 39
58.3904 -485.694 -2183 26 25 35
62.5946 -484.155 -2176 24 23 33
66.9555 -483.952 -2175 26 25 36
71.2473 -483.305 -2172 26 25 37
75.5975 -483.105 -2171 31 30 42
79.9071 -482.684 -2169 35 34 46
84.2095 -482.264 -2167 40 39 51
88.5045 -481.845 -2165 44 43 55
92.835 -481.65 -2164 43 42 54
96.9825 -480.566 -2159 41 40 52
101.392 -480.818 -2160 34 33 45
105.562 -479.96 -2156 31 30 42
110.023 -480.438 -2158 31 30 42
114.333 -480.249 -2157 30 29 39
118.641 -480.062 -2156 33 32 42
123.116 -480.544 -2158 41 40 50
127.601 -481.028 -2160 43 42 52
132.278 -482.181 -2165 44 43 53
136.66 -482.222 -2165 43 42 52
141.435 -483.6 -2171 37 36 45
145.765 -483.421 -2170 36 35 43
150.3 -483.912 -2172 38 37 45
154.63 -483.736 -2171 42 41 49
159.178 -484.229 -2173 44 43 51
163.66 -484.501 -2174 47 46 56
168.379 -485.443 -2178 46 45 55
173.036 -486.164 -2181 47 46 56
177.381 -485.995 -2180 52 49 57
-130.145 -487.126 -2167 77 80 98
-126.222 -488.885 -2175 52 54 70
-122.213 -490.42 -2182 44 49 64
-117.852 -490.608 -2183 42 47 62
-113.436 -490.573 -2183 41 43 59
-109.021 -490.539 -2183 39 42 56
-104.512 -490.056 -2181 38 40 54
-100.011 -489.576 -2179 34 37 50
-95.6067 -489.546 -2179 29 32 46
-90.9522 -488.169 -2173 28 30 46
-86.3226 -486.794 -2167 32 33 47
-81.7937 -485.87 -2163 37 38 52
-77.1743 -484.273 -2156 36 37 51
-72.7525 -483.801 -2154 36 37 52
-68.3078 -483.106 -2151 38 39 55
-63.9351 -482.861 -2150 43 41 58
-59.484 -481.944 -2146 46 45 62
-55.1522 -481.926 -2146 48 49 67
-50.9156 -482.808 -2150 49 50 66
-46.6633 -483.691 -2154 49 50 66
-42.356 -484.127 -2156 45 43 62
-38.0762 -485.013 -2160 37 36 52
-33.7805 -485.9 -2164 32 31 45
-29.4419 -486.339 -2166 31 29 46
-25.1185 -487.229 -2170 28 26 43
-20.7505 -487.447 -2171 32 30 47
-16.4088 -488.564 -2176 36 34 53
-12.0252 -488.784 -2177 37 35 54
-7.65134 -489.903 -2182 38 36 55
-3.26039 -491.473 -2189 36 34 53
1.1585 -493.045 -2196 30 28 47
5.60082 -494.168 -2201 25 23 42
10.077 -495.967 -2209 24 23 41
14.5656 -497.093 -2214 21 22 38
19.0404 -497.323 -2215 23 20 39
23.4981 -497.105 -2214 25 23 40
27.9011 -495.99 -2209 25 24 38
32.3138 -495.326 -2206 22 21 32
36.6812 -494.214 -2201 31 30 40
41.0849 -493.777 -2199 33 32 44
45.46 -493.117 -2196 27 26 37
49.8689 -492.906 -2195 26 25 35
54.1505 -491.575 -2189 25 24 34
58.4352 -490.469 -2184 23 22 32
62.7575 -489.814 -2181 24 23 33
66.9758 -488.487 -2175 27 26 38
71.3347 -488.284 -2174 30 29 41
75.516 -486.958 -2168 38 37 49
79.7842 -486.308 -2165 43 42 54
84.1575 -486.334 -2165 45 44 56
88.3679 -485.462 -2161 41 40 52
92.7347 -485.489 -2161 36 35 47
96.9222 -484.62 -2157 33 32 44
101.329 -484.875 -2158 28 27 39
105.545 -484.233 -2155 31 30 42
109.903 -484.266 -2155 36 35 47
114.209 -484.075 -2154 37 36 46
118.732 -484.785 -2157 40 39 49
123.039 -484.598 -2156 44 43 53
127.581 -485.311 -2159 44 43 53
132.135 -486.025 -2162 44 43 53
136.765 -486.966 -2166 43 42 52
141.348 -487.683 -2169 39 38 47
145.81 -487.952 -2170 38 37 45
150.208 -487.997 -2170 40 39 47
154.607 -488.044 -2170 41 40 48
159.153 -488.542 -2172 41 40 48
163.635 -488.817 -2173 48 47 57
168.585 -490.443 -2180 48 47 57
173.406 -491.62 -2185 48 47 57
177.598 -490.999 -2182 51 49 57
-126.261 -493.428 -2175 51 53 69
-122.195 -494.751 -2181 45 50 65
-117.996 -495.621 -2185 43 48 63
-113.471 -495.132 -2183 42 44 60
-109.055 -495.097 -2183 40 42 57
-104.592 -494.837 -2182 39 41 56
-100.042 -494.125 -2179 38 41 54
-95.5484 -493.641 -2177 35 38 52
-91.022 -492.932 -2174 33 35 51
-86.5485 -492.451 -2172 35 36 50
-81.8567 -490.611 -2164 40 41 55
-77.3412 -489.68 -2160 38 39 53
-72.775 -488.297 -2154 36 37 52
-68.2971 -487.368 -2150 38 39 55
-63.8954 -486.894 -2148 43 41 58
-59.5022 -486.422 -2146 45 44 62
-55.2463 -487.084 -2149 48 49 67
-50.884 -486.841 -2148 51 52 68
-46.656 -487.959 -2153 50 51 67
-42.369 -488.625 -2156 50 48 67
-38.0527 -489.066 -2158 40 38 56
-33.7284 -489.508 -2160 33 31 48
-29.4237 -490.405 -2164 33 31 48
-25.1146 -491.53 -2169 29 27 45
-20.7569 -491.976 -2171 29 27 44
-16.4062 -492.877 -2175 32 30 49
-12.0286 -493.326 -2177 35 33 52
-7.64651 -494.002 -2180 38 36 55
-3.25535 -495.134 -2185 39 37 56
1.15622 -496.493 -2191 34 32 51
5.59738 -498.307 -2199 29 27 46
10.0572 -499.443 -2204 26 25 43
14.5438 -500.806 -2210 22 23 39
19.0118 -501.038 -2211 23 21 40
23.4627 -500.818 -2210 49 47 65
27.8971 -500.372 -2208 41 40 54
32.3237 -499.929 -2206 27 26 37
36.7093 -499.033 -2202 30 29 39
41.1723 -499.272 -2203 31 30 41
45.5362 -498.378 -2199 26 25 36
49.839 -497.033 -2193 23 22 32
54.1425 -495.916 -2188 22 21 31
58.4532 -495.027 -2184 25 24 35
62.748 -494.139 -2180 31 30 40
66.9965 -493.026 -2175 35 34 46
71.3567 -492.821 -2174 37 36 48
75.4695 -491.03 -2166 42 41 53
79.8457 -491.054 -2166 45 44 56
84.2612 -491.306 -2167 46 45 57
88.3953 -489.972 -2161 39 38 50
92.806 -490.227 -2162 31 30 42
97.042 -489.576 -2159 28 27 39
101.361 -489.381 -2158 27 26 37
105.676 -489.186 -2157 32 31 42
109.988 -488.992 -2156 38 37 49
114.297 -488.801 -2155 41 40 50
118.713 -489.064 -2156 42 41 51
123.135 -489.328 -2157 44 43 53
127.62 -489.82 -2159 43 42 52
132.42 -491.449 -2166 43 42 52
136.871 -491.718 -2167 40 39 49
141.457 -492.442 -2170 37 36 44
145.855 -492.486 -2170 37 36 44
150.254 -492.532 -2170 39 38 46
154.583 -492.353 -2169 43 42 50
159.129 -492.855 -2171 41 40 48
163.76 -493.587 -2174 47 46 56
168.482 -494.547 -2178 47 46 56
173.381 -495.962 -2184 46 45 55
177.572 -495.335 -2181 49 48 56
-130.045 -495.497 -2164 79 82 101
-126.359 -498.204 -2176 50 52 68
-122.345 -499.768 -2183 48 52 67
-118.033 -500.188 -2185 46 50 65
-113.455 -499.466 -2182 42 44 60
-108.939 -498.973 -2180 39 41 57
-104.528 -498.94 -2180 42 43 59
-100.027 -498.45 -2178 40 42 57
-95.6219 -498.419 -2178 38 40 56
-91.0504 -497.475 -2174 36 38 54
-86.4957 -496.532 -2170 37 38 52
-81.8822 -495.133 -2164 39 40 54
-77.3293 -493.964 -2159 38 39 53
-72.7637 -492.568 -2153 36 37 52
-68.3183 -491.859 -2150 36 37 51
-63.9449 -491.61 -2149 38 38 53
-59.5207 -490.904 -2146 42 42 58
-55.2892 -491.801 -2150 46 47 65
-50.9471 -491.785 -2150 48 49 67
-46.6705 -492.456 -2153 49 49 67
-42.3821 -493.128 -2156 48 46 64
-38.082 -493.802 -2159 40 38 56
-33.7545 -494.248 -2161 35 33 50
-29.4192 -494.695 -2163 35 33 52
-25.0644 -494.916 -2164 34 32 50
-20.7251 -495.595 -2167 30 28 47
-16.3887 -496.732 -2172 30 28 47
-12.0213 -497.414 -2175 32 30 49
-7.64547 -498.326 -2179 37 35 54
-3.25803 -499.925 -2186 38 36 55
1.15844 -501.754 -2194 38 36 55
5.59422 -502.441 -2197 34 32 51
10.065 -504.274 -2205 30 29 47
14.5286 -504.735 -2207 23 24 40
19.0007 -505.198 -2209 23 21 39
23.4276 -504.518 -2206 47 45 61
27.8679 -504.297 -2205 45 44 56
32.2753 -503.621 -2202 31 30 40
36.6539 -502.717 -2198 30 29 39
41.0917 -502.729 -2198 28 27 37
45.426 -501.599 -2193 27 26 36
49.8316 -501.385 -2192 25 24 34
54.1841 -500.715 -2189 26 25 35
58.4981 -499.818 -2185 34 33 44
62.8252 -499.15 -2182 39 38 50
67.0482 -497.798 -2176 43 42 54
71.3463 -497.133 -2173 44 43 55
75.6325 -496.47 -2170 43 42 54
79.8706 -495.579 -2166 41 40 52
84.1707 -495.147 -2164 41 40 52
88.6273 -495.632 -2166 33 32 44
92.8779 -494.974 -2163 28 27 39
97.1174 -494.317 -2160 28 27 39
101.439 -494.119 -2159 33 32 42
105.709 -493.694 -2157 37 36 46
110.023 -493.499 -2156 39 38 49
114.28 -493.076 -2154 41 40 50
118.64 -493.113 -2154 42 41 51
123.059 -493.379 -2155 45 44 54
127.541 -493.877 -2157 43 42 52
132.217 -495.062 -2162 43 42 52
136.85 -496.02 -2166 38 37 47
141.501 -496.98 -2170 35 34 43
145.9 -497.025 -2170 38 37 45
150.37 -497.3 -2171 41 40 48
154.631 -496.89 -2169 45 44 52
159.252 -497.627 -2172 46 45 53
163.887 -498.365 -2175 48 47 57
168.69 -499.563 -2180 47 46 56
173.514 -500.762 -2185 48 47 57
177.79 -500.359 -2183 49 48 56
-130.086 -500.026 -2164 80 84 102
-126.398 -502.758 -2176 48 50 66
-122.383 -504.336 -2183 48 50 66
-118.016 -504.529 -2184 48 50 66
-113.49 -504.031 -2182 44 46 62
-109.023 -503.765 -2181 41 42 58
-104.561 -503.5 -2180 42 43 59
-100.104 -503.237 -2179 40 42 58
-95.6959 -503.206 -2179 36 38 54
-91.0369 -501.791 -2173 34 35 51
-86.6424 -501.763 -2173 35 36 51
-81.9835 -500.12 -2166 38 39 54
-77.4253 -498.94 -2161 37 38 52
-72.8204 -497.3 -2154 35 36 51
-68.3079 -496.124 -2149 34 35 50
-63.9352 -495.872 -2148 35 36 50
-59.5117 -495.16 -2145 41 42 57
-55.255 -495.835 -2148 45 46 64
-50.9868 -496.51 -2151 47 48 66
-46.7068 -497.187 -2154 49 49 67
-42.4348 -498.097 -2158 46 45 61
-38.1117 -498.546 -2160 40 39 55
-33.7807 -498.996 -2162 40 39 56
-29.4421 -499.448 -2164 42 40 59
-25.0839 -499.67 -2165 38 36 55
-20.7411 -500.355 -2168 35 33 52
-16.3863 -501.042 -2171 30 28 47
-12.0195 -501.73 -2174 28 26 45
-7.64094 -502.419 -2177 33 31 50
-3.25449 -503.802 -2183 37 35 54
1.1567 -505.417 -2190 40 38 57
5.58315 -505.88 -2192 38 36 55
10.0682 -508.882 -2205 31 31 48
14.52 -508.886 -2205 29 29 45
18.9635 -508.661 -2204 25 24 39
23.4138 -508.667 -2204 48 47 61
27.864 -508.676 -2204 56 56 68
32.2854 -508.223 -2202 36 35 45
36.6655 -507.311 -2198 28 27 37
41.1046 -507.323 -2198 30 29 39
45.4404 -506.183 -2193 29 28 38
49.8019 -505.506 -2190 29 28 38
54.1268 -504.599 -2186 31 30 42
58.4628 -503.924 -2183 37 36 48
62.7874 -503.251 -2180 42 41 53
67.0385 -502.117 -2175 46 45 57
71.3358 -501.446 -2172 45 44 56
75.7261 -501.469 -2172 39 38 50
80.1908 -501.956 -2174 36 35 47
84.3918 -500.827 -2169 35 34 46
88.737 -500.624 -2168 28 27 39
92.9503 -499.729 -2164 24 23 35
97.2827 -499.528 -2163 27 26 38
101.424 -498.405 -2158 35 34 44
105.84 -498.668 -2159 40 39 49
110.159 -498.471 -2158 41 40 50
114.475 -498.276 -2157 44 43 53
118.733 -497.851 -2155 48 47 57
123.212 -498.351 -2157 47 46 56
127.759 -499.084 -2160 42 41 51
132.564 -500.743 -2167 40 39 49
136.957 -500.785 -2167 35 34 44
141.611 -501.754 -2171 32 31 40
145.812 -501.106 -2168 35 34 42
150.21 -501.153 -2168 43 42 50
154.609 -501.201 -2168 46 45 53
159.229 -501.944 -2171 46 45 53
163.712 -502.227 -2172 45 44 54
168.588 -503.666 -2178 45 44 54
173.569 -505.34 -2185 47 46 56
177.684 -504.47 -2181 48 47 55
-130.247 -505.025 -2166 80 83 101
-126.497 -507.549 -2177 49 51 67
-122.478 -509.141 -2184 47 49 65
-118.054 -509.103 -2184 46 48 64
-113.578 -508.833 -2183 44 45 61
-109.008 -508.098 -2180 42 43 59
-104.594 -508.065 -2180 42 43 59
-100.044 -507.333 -2177 42 43 59
-95.6823 -507.535 -2178 36 37 53
-91.1078 -506.573 -2174 34 35 51
-86.59 -505.846 -2171 35 36 51
-81.8959 -503.955 -2163 40 41 57
-77.4498 -503.463 -2161 38 39 55
-72.8773 -502.042 -2155 37 38 53
-68.3932 -501.087 -2151 36 37 53
-63.9257 -500.135 -2147 38 39 53
-59.6137 -500.348 -2148 42 43 58
-55.2983 -500.563 -2149 44 45 63
-50.9555 -500.545 -2149 45 46 64
-46.7216 -501.695 -2154 47 48 66
-42.4285 -502.379 -2157 44 45 61
-38.1237 -503.065 -2160 40 41 57
-33.7601 -503.054 -2160 40 41 57
-29.4377 -503.742 -2163 41 39 58
-25.0918 -504.2 -2165 38 36 55
-20.7094 -503.959 -2164 36 34 53
-16.3613 -504.652 -2167 31 29 48
-12.0289 -506.511 -2175 30 28 47
-7.6502 -507.439 -2179 34 32 51
-3.25841 -508.834 -2185 37 35 54
1.15918 -510.93 -2194 40 38 57
5.5953 -511.397 -2196 38 36 55
10.0575 -512.797 -2202 34 32 50
14.5048 -512.801 -2202 32 30 47
18.9953 -513.97 -2207 24 23 37
23.3892 -512.58 -2201 59 58 71
27.8475 -512.821 -2202 71 72 83
32.2808 -512.598 -2201 34 33 43
36.6772 -511.91 -2198 29 28 38
41.0615 -511.224 -2195 29 28 38
45.434 -510.539 -2192 30 29 39
49.7723 -509.623 -2188 32 32 43
54.0449 -508.241 -2182 36 36 48
58.428 -508.026 -2181 40 39 51
62.721 -507.114 -2177 41 40 52
67.0289 -506.436 -2174 44 43 55
71.3911 -506.225 -2173 42 41 53
75.7153 -505.782 -2171 36 35 47
80.1055 -505.807 -2171 32 31 43
84.4185 -505.368 -2169 33 32 44
88.7652 -505.162 -2168 27 26 38
93.0657 -504.725 -2166 25 24 36
97.3137 -504.057 -2163 29 28 40
101.503 -503.156 -2159 35 34 44
105.923 -503.422 -2160 40 39 49
110.092 -502.524 -2156 43 42 52
114.458 -502.56 -2156 46 45 55
118.77 -502.364 -2155 49 48 58
123.422 -503.568 -2160 48 47 57
127.8 -503.609 -2160 41 40 50
132.668 -505.516 -2168 38 37 47
137.063 -505.559 -2168 34 33 43
141.591 -506.07 -2170 33 32 41
145.858 -505.649 -2168 37 36 44
150.188 -505.463 -2167 46 45 53
154.444 -505.045 -2165 48 47 55
159.133 -506.028 -2169 49 48 56
163.689 -506.547 -2171 48 47 57
168.642 -508.233 -2178 49 48 58
173.545 -509.688 -2184 51 50 60
177.74 -509.044 -2181 46 45 53
-130.169 -509.097 -2164 79 82 101
-126.479 -511.878 -2176 50 52 68
-122.461 -513.485 -2183 46 48 64
-117.983 -513.211 -2182 43 45 61
-113.615 -513.409 -2183 43 44 60
-109.093 -512.903 -2181 41 42 58
-104.772 -513.339 -2183 41 42 58
-100.076 -511.895 -2177 40 41 57
-95.7129 -512.099 -2178 36 37 54
-91.1788 -511.363 -2175 37 38 55
-86.6975 -510.865 -2173 37 38 54
-82.0357 -509.192 -2166 40 41 57
-77.6181 -508.931 -2165 40 41 57
-73.002 -507.262 -2158 41 42 59
-68.415 -505.593 -2151 40 41 58
-64.0057 -505.102 -2149 38 39 54
-59.6051 -504.612 -2147 38 39 55
-55.316 -505.064 -2149 40 41 57
-50.9718 -505.047 -2149 43 44 62
-46.7365 -506.206 -2154 45 46 64
-42.4617 -507.132 -2158 44 45 62
-38.1182 -507.354 -2159 44 45 63
-33.8022 -508.047 -2162 43 44 61
-29.4744 -508.742 -2165 40 38 57
-25.1346 -509.438 -2168 38 36 55
-20.7446 -509.196 -2167 37 35 54
-16.4042 -510.365 -2172 34 32 51
-12.0382 -511.3 -2176 33 31 50
-7.65975 -512.472 -2181 35 33 52
-3.26085 -513.645 -2186 38 36 55
1.1585 -515.055 -2192 40 38 57
5.59954 -516.231 -2197 38 36 55
10.0471 -516.703 -2199 35 33 51
14.5097 -517.412 -2202 32 30 47
18.9671 -517.652 -2203 25 24 38
23.3861 -516.954 -2200 70 69 82
27.8314 -516.962 -2200 83 84 94
32.2767 -516.972 -2200 37 36 45
36.7224 -516.983 -2200 34 33 42
41.1121 -516.291 -2197 32 31 41
45.4487 -515.13 -2192 31 32 43
49.7427 -513.735 -2186 34 35 47
54.0126 -512.342 -2180 38 39 51
58.3125 -511.42 -2176 41 41 53
62.6832 -511.204 -2175 40 39 51
66.958 -510.285 -2171 42 41 53
71.3484 -510.307 -2171 38 37 49
75.7047 -510.096 -2170 34 33 45
80.0942 -510.121 -2170 30 29 41
84.3288 -509.207 -2166 31 30 42
88.6708 -509 -2165 31 30 42
92.9234 -508.323 -2162 31 30 42
97.2099 -507.884 -2160 37 36 48
101.395 -506.975 -2156 43 42 52
105.859 -507.479 -2158 46 45 55
110.025 -506.573 -2154 47 46 56
114.495 -507.08 -2156 48 47 57
118.753 -506.647 -2154 48 47 57
123.519 -508.332 -2161 46 45 55
127.959 -508.608 -2162 39 38 48
132.649 -509.827 -2167 36 35 45
137.17 -510.34 -2169 37 36 46
141.571 -510.385 -2169 38 37 46
145.838 -509.961 -2167 41 40 48
150.306 -510.244 -2168 44 43 51
154.565 -509.822 -2166 44 43 51
159.184 -510.579 -2169 47 46 54
163.968 -511.809 -2174 49 48 58
168.618 -512.568 -2177 48 47 57
173.441 -513.801 -2182 52 51 61
177.634 -513.151 -2179 50 49 57
-126.636 -516.92 -2178 50 52 70
-122.613 -518.541 -2185 46 48 64
-118.184 -518.502 -2185 43 45 61
-113.755 -518.464 -2185 43 44 60
-109.278 -518.191 -2184 41 42 58
-104.806 -517.919 -2183 40 41 57
-100.292 -517.411 -2181 39 40 56
-95.8317 -517.142 -2180 37 38 55
-91.334 -516.637 -2178 39 40 58
-86.7654 -515.659 -2174 40 41 57
-82.138 -514.209 -2168 41 42 58
-77.6431 -513.471 -2165 40 41 57
-73.0593 -512.024 -2159 40 41 58
-68.6279 -511.527 -2157 38 39 57
-64.0562 -509.845 -2150 37 38 54
-59.7076 -509.825 -2150 36 37 53
-55.3595 -509.806 -2150 37 38 54
-51.0356 -510.027 -2151 41 42 60
-46.7516 -510.722 -2154 45 46 64
-42.4558 -511.419 -2157 45 46 64
-38.1305 -511.88 -2159 46 47 65
-33.8443 -513.054 -2164 42 43 61
-29.4974 -513.518 -2166 41 39 59
-25.1311 -513.746 -2167 40 38 57
-20.78 -514.45 -2170 37 35 54
-16.4322 -515.629 -2175 36 34 53
-12.0421 -515.862 -2176 35 33 52
-7.67608 -517.992 -2185 37 35 54
-3.26505 -518.701 -2188 38 36 55
1.1594 -519.886 -2193 37 35 54
5.59616 -520.362 -2195 39 37 56
10.055 -521.55 -2200 39 37 55
14.488 -521.079 -2198 33 31 49
18.9214 -520.848 -2197 30 29 43
23.3512 -520.618 -2196 88 88 100
27.8024 -520.863 -2197 97 98 108
32.2432 -520.873 -2197 44 43 51
36.7007 -521.121 -2198 33 32 40
41.1253 -520.897 -2197 34 33 43
45.4632 -519.725 -2192 35 35 46
49.7588 -518.318 -2186 36 37 49
53.9807 -516.438 -2178 38 39 51
58.3047 -515.745 -2175 40 40 52
62.7037 -515.765 -2175 39 38 50
67.0104 -515.074 -2172 39 38 50
71.4044 -515.097 -2172 33 32 44
75.7989 -515.121 -2172 29 28 40
80.1202 -514.672 -2170 28 27 39
84.3171 -513.512 -2165 30 29 41
88.6174 -513.066 -2163 32 31 43
92.9536 -512.859 -2162 37 36 48
97.3764 -513.126 -2163 43 42 54
101.569 -512.21 -2159 46 45 55
105.942 -512.244 -2159 47 46 56
110.163 -511.567 -2156 50 49 59
114.532 -511.604 -2156 50 49 59
118.737 -510.93 -2153 45 44 54
123.387 -512.156 -2158 44 43 53
128 -513.146 -2162 38 37 47
132.631 -514.138 -2166 36 35 45
137.088 -514.419 -2167 37 36 46
141.551 -514.702 -2168 40 39 47
145.818 -514.273 -2166 41 40 48
150.354 -514.797 -2168 43 42 50
154.758 -514.846 -2168 44 43 51
159.309 -515.372 -2170 47 46 54
164.172 -516.85 -2176 48 47 57
169.138 -518.567 -2183 47 46 56
173.736 -519.098 -2185 51 50 60
177.936 -518.443 -2182 51 51 59
-130.615 -519.622 -2170 78 81 101
-126.794 -521.974 -2180 51 53 71
-122.709 -523.37 -2186 46 48 64
-118.222 -523.091 -2185 44 46 62
-113.897 -523.532 -2187 43 44 60
-109.414 -523.256 -2186 40 41 57
-104.984 -523.221 -2186 40 41 57
-100.371 -522.23 -2182 39 40 56
-95.9509 -522.198 -2182 37 38 55
-91.4057 -521.449 -2179 39 40 58
-86.9933 -521.42 -2179 39 40 57
-82.392 -520.196 -2174 40 41 57
-77.8477 -519.212 -2170 38 39 55
-73.2525 -517.752 -2164 38 39 56
-68.7457 -516.772 -2160 36 38 56
-64.1365 -514.836 -2152 35 36 52
-59.7826 -514.816 -2152 33 34 50
-55.3775 -514.319 -2150 35 37 53
-51.076 -514.78 -2152 41 42 60
-46.7234 -514.764 -2152 45 46 64
-42.4892 -516.184 -2158 44 45 63
-38.1605 -516.65 -2160 44 45 63
-33.8397 -517.355 -2163 39 40 58
-29.5342 -518.541 -2168 40 38 59
-25.1972 -519.489 -2172 41 39 59
-20.806 -519.481 -2172 39 37 56
-16.4602 -520.91 -2178 39 37 56
-12.0682 -521.384 -2180 37 35 54
-7.67866 -522.577 -2185 38 36 55
-3.26303 -522.814 -2186 37 35 54
1.15978 -524.488 -2193 36 34 53
5.59816 -524.967 -2195 38 36 55
10.0401 -525.209 -2196 41 39 58
14.4927 -525.691 -2198 36 34 53
18.9364 -525.697 -2198 30 29 43
23.3908 -525.943 -2199 97 97 110
27.8241 -525.712 -2198 101 103 112
32.2829 -525.961 -2199 44 43 52
36.7293 -525.973 -2199 33 32 41
41.1389 -525.507 -2197 36 35 45
45.5196 -524.804 -2194 37 38 49
49.684 -521.949 -2182 37 38 50
54.0478 -521.487 -2180 37 38 50
58.2969 -520.071 -2174 37 37 49
62.6953 -520.09 -2174 36 35 47
67.0015 -519.394 -2171 36 35 47
71.3948 -519.417 -2171 30 29 41
75.8235 -519.68 -2172 26 25 37
80.0723 -518.749 -2168 28 27 39
84.2278 -517.34 -2162 33 32 44
88.5645 -517.129 -2161 37 36 48
92.8549 -516.68 -2159 40 39 51
97.228 -516.711 -2159 42 41 53
101.508 -516.265 -2157 44 43 53
105.879 -516.299 -2157 47 46 56
110.148 -515.856 -2155 50 49 59
114.516 -515.893 -2155 49 48 58
118.886 -515.931 -2155 44 43 53
123.657 -517.646 -2162 42 41 51
128.161 -518.167 -2164 34 33 43
132.796 -519.167 -2168 35 34 44
137.133 -518.972 -2167 37 36 46
141.598 -519.257 -2168 40 39 48
145.933 -519.065 -2167 41 40 48
150.334 -519.114 -2167 44 43 51
154.951 -519.883 -2170 47 46 54
159.435 -520.174 -2171 49 48 56
164.226 -521.425 -2176 49 48 58
169.193 -523.157 -2183 47 46 56
173.873 -523.933 -2186 50 49 59
177.995 -523.032 -2182 49 50 58
-126.661 -525.834 -2177 52 54 72
-122.637 -527.483 -2184 48 49 66
-118.315 -527.926 -2186 46 47 63
-113.882 -527.888 -2186 44 44 60
-109.45 -527.851 -2186 41 42 58
-104.922 -527.333 -2184 39 40 56
-100.496 -527.299 -2184 39 40 56
-95.9824 -526.783 -2182 35 36 54
-91.4777 -526.27 -2180 39 40 58
-86.9421 -525.516 -2177 39 40 56
-82.3433 -524.281 -2172 39 40 56
-77.8733 -523.772 -2170 35 36 52
-73.3103 -522.54 -2165 36 37 54
-68.8638 -522.034 -2163 36 38 55
-64.247 -520.081 -2155 37 38 52
-59.9412 -520.544 -2157 38 39 55
-55.4472 -519.318 -2152 40 42 59
-51.1164 -519.542 -2153 40 41 61
-46.717 -519.043 -2151 40 41 60
-42.4835 -520.476 -2157 41 42 58
-38.1377 -520.704 -2158 41 42 60
-33.8507 -521.899 -2163 41 42 60
-29.5439 -523.095 -2168 40 40 60
-25.2287 -524.533 -2174 39 38 59
-20.8415 -524.767 -2175 40 38 59
-16.4579 -525.243 -2177 41 39 58
-12.0832 -526.445 -2182 37 35 54
-7.6707 -526.442 -2182 38 36 55
-3.26251 -527.164 -2185 36 34 53
1.15911 -528.611 -2191 37 35 54
5.5897 -528.612 -2191 38 36 55
10.0252 -528.856 -2192 38 36 54
14.4645 -529.101 -2193 39 37 54
18.8908 -528.866 -2192 33 32 46
23.3559 -529.596 -2195 108 108 120
27.8205 -530.088 -2197 104 106 113
32.279 -530.339 -2198 39 38 48
36.7581 -530.833 -2200 37 36 46
41.1711 -530.363 -2198 37 36 46
45.5347 -529.412 -2194 39 39 51
49.8142 -527.739 -2187 38 39 51
54.0657 -526.067 -2180 34 35 47
58.3161 -524.638 -2174 34 34 46
62.7158 -524.658 -2174 37 36 48
67.0851 -524.438 -2173 38 37 49
71.4841 -524.461 -2173 30 29 41
75.8487 -524.244 -2172 26 26 38
80.1356 -523.545 -2169 31 31 43
84.2944 -522.124 -2163 38 38 50
88.5528 -521.429 -2160 42 41 53
92.8424 -520.976 -2158 42 41 53
97.2151 -521.007 -2158 42 41 52
101.588 -521.04 -2158 45 44 54
105.913 -520.833 -2157 47 46 57
110.184 -520.386 -2155 50 49 60
114.554 -520.423 -2155 50 49 59
119.201 -521.669 -2160 43 42 52
123.812 -522.676 -2164 36 35 45
128.321 -523.201 -2166 33 32 42
132.963 -524.21 -2170 36 35 45
137.242 -523.772 -2168 39 38 47
141.775 -524.301 -2170 44 43 51
145.981 -523.624 -2167 44 43 51
150.523 -524.156 -2169 45 44 54
155.002 -524.448 -2170 46 45 54
159.708 -525.468 -2174 49 48 56
164.506 -526.73 -2179 50 49 57
169.172 -527.51 -2182 50 49 58
174.01 -528.776 -2187 49 48 58
178.053 -527.626 -2182 44 43 53
181.409 -524.542 -2169 48 51 62
-130.4 -527.535 -2165 72 76 95
-126.645 -530.172 -2176 53 55 73
-122.566 -531.593 -2182 50 51 69
-118.138 -531.552 -2182 46 47 65
-113.816 -532.001 -2184 45 44 61
-109.436 -532.207 -2185 43 43 59
-105.005 -532.172 -2185 39 40 56
-100.391 -531.163 -2181 38 39 57
-96.0582 -531.617 -2183 36 37 55
-91.5081 -530.856 -2180 40 41 59
-86.9709 -530.096 -2177 39 40 57
-82.4844 -529.58 -2175 37 38 54
-78.0785 -529.553 -2175 35 36 52
-73.3685 -527.337 -2166 36 38 54
-68.8866 -526.583 -2163 36 38 54
-64.3281 -525.1 -2157 36 37 52
-59.9054 -524.593 -2155 38 39 55
-55.4914 -524.087 -2153 40 41 59
-51.1334 -524.069 -2153 41 42 61
-46.7759 -524.052 -2153 40 41 60
-42.5172 -525.255 -2158 42 43 59
-38.1503 -525.241 -2158 44 45 62
-33.8933 -526.933 -2165 46 47 65
-29.5673 -527.896 -2169 45 44 64
-25.2371 -529.104 -2174 41 40 60
-20.8484 -529.34 -2175 41 39 59
-16.4709 -530.063 -2178 42 40 58
-12.0761 -530.545 -2180 39 37 55
-7.67304 -531.029 -2182 37 35 54
-3.26226 -531.514 -2184 36 34 53
1.15632 -531.757 -2185 38 36 55
5.58407 -532.488 -2188 38 36 55
10.0057 -532.248 -2187 37 35 53
14.4231 -532.008 -2186 37 35 53
18.8368 -531.77 -2185 34 35 49
23.3105 -532.994 -2190 123 125 137
27.7666 -533.49 -2192 106 109 120
32.2604 -534.473 -2196 39 38 48
36.7539 -535.215 -2199 34 33 43
41.0912 -533.767 -2193 38 36 46
45.446 -532.808 -2189 39 38 49
49.7851 -531.851 -2185 38 38 48
54.1083 -530.894 -2181 37 36 48
58.3892 -529.696 -2176 38 37 50
62.7657 -529.473 -2175 38 37 50
67.0766 -528.764 -2172 37 36 50
71.4749 -528.787 -2172 31 30 43
75.8038 -528.325 -2170 29 30 42
80.0144 -527.134 -2165 32 33 45
84.3226 -526.674 -2163 37 38 50
88.623 -526.216 -2161 44 43 55
92.9163 -525.759 -2159 46 45 55
97.2022 -525.304 -2157 46 45 55
101.622 -525.581 -2158 48 47 57
105.9 -525.128 -2156 47 46 57
110.272 -525.164 -2156 49 48 60
114.699 -525.446 -2157 50 49 59
119.185 -525.972 -2159 42 41 52
123.967 -527.718 -2166 40 39 49
128.542 -528.491 -2169 39 38 48
