ply
format ascii 1.0
comment Created by Open3D
element vertex 1337
property double x
property double y
property double z
property uchar red
property uchar green
property uchar blue
end_header
-124.966 -44.642 -1982 253 253 253
-121.141 -44.6833 -1984 253 253 253
-117.427 -44.7698 -1988 253 253 253
-113.755 -44.879 -1993 253 253 253
-110.009 -44.9657 -1997 253 253 253
-106.513 -45.1648 -2006 253 253 253
-102.829 -45.2968 -2012 253 253 253
-99.2692 -45.4964 -2021 253 253 253
-95.4859 -45.606 -2026 253 253 253
-91.5482 -45.6482 -2028 253 253 253
-87.6464 -45.7131 -2031 253 253 253
-83.9393 -45.8905 -2039 253 253 253
-80.0442 -45.9781 -2043 253 253 253
-76.171 -46.0883 -2048 253 253 253
-72.1379 -46.1086 -2049 253 253 253
-68.201 -46.1965 -2053 252 252 253
-64.1862 -46.2395 -2055 251 251 252
-60.2518 -46.3501 -2060 249 251 251
-56.3526 -46.5059 -2067 237 238 237
-52.5776 -46.7967 -2080 234 233 229
-48.9378 -47.2676 -2101 225 222 221
-226.86 -50.2154 -2043 224 221 222
-219.922 -49.5689 -2017 237 237 243
-214.481 -49.2424 -2004 241 244 255
-209.62 -49.0387 -1996 241 243 252
-205.307 -48.9583 -1993 244 246 255
-201.109 -48.9023 -1991 243 245 252
-197.515 -48.994 -1995 244 244 252
-193.422 -48.9631 -1994 242 241 249
-189.809 -49.0549 -1998 238 239 245
-185.902 -49.0733 -1999 238 238 244
-181.72 -49.0182 -1997 240 239 246
-177.459 -48.9385 -1994 240 239 245
-173.385 -48.9083 -1993 240 239 245
-168.976 -48.78 -1988 237 237 241
-164.755 -48.701 -1985 235 235 239
-160.79 -48.6954 -1985 246 246 250
-156.668 -48.6412 -1983 254 254 255
-152.71 -48.6362 -1983 252 253 255
-148.827 -48.6558 -1984 251 253 255
-144.723 -48.6019 -1982 253 254 255
-140.699 -48.5725 -1981 253 253 255
-136.75 -48.568 -1981 253 253 254
-132.801 -48.5636 -1981 253 253 254
-128.854 -48.5593 -1981 253 253 253
-124.97 -48.5797 -1982 253 253 253
-121.206 -48.6492 -1985 253 253 253
-117.371 -48.6943 -1987 253 253 253
-113.644 -48.7886 -1991 253 253 253
-109.902 -48.883 -1995 253 253 253
-106.569 -49.1735 -2007 253 253 253
-102.985 -49.3658 -2015 253 253 253
-99.3213 -49.534 -2022 253 253 253
-95.5832 -49.6778 -2028 253 253 253
-91.6414 -49.7237 -2030 253 253 253
-87.7786 -49.8188 -2034 253 253 253
-83.9419 -49.9384 -2039 253 253 253
-80.0076 -50.0092 -2042 253 253 253
-76.0991 -50.1046 -2046 253 253 253
-72.2105 -50.2247 -2051 253 253 253
-68.1367 -50.2224 -2051 253 253 254
-64.1258 -50.2692 -2053 253 253 254
-60.283 -50.463 -2061 249 250 249
-56.3271 -50.5835 -2066 237 237 235
-52.4529 -50.8021 -2075 226 224 219
-48.8229 -51.3146 -2096 225 221 219
-226.645 -54.2329 -2041 224 221 222
-219.602 -53.5077 -2014 236 236 243
-214.917 -53.3404 -2008 242 244 255
-209.627 -53.0142 -1996 242 243 253
-205.211 -52.9004 -1992 245 246 255
-201.419 -52.9464 -1994 247 249 255
-197.423 -52.9391 -1994 249 249 255
-193.428 -52.9323 -1994 248 247 254
-189.815 -53.0317 -1998 241 243 249
-185.909 -53.0514 -1999 239 240 246
-181.727 -52.9919 -1997 241 240 247
-177.643 -52.959 -1996 243 242 247
-173.565 -52.9261 -1995 244 244 248
-169.067 -52.7608 -1989 241 241 245
-165.009 -52.7284 -1988 233 232 236
-160.957 -52.6962 -1987 238 237 242
-156.91 -52.6638 -1986 249 249 251
-152.869 -52.6319 -1985 253 253 255
-148.983 -52.6531 -1986 251 253 254
-144.947 -52.6214 -1985 251 252 254
-140.917 -52.5898 -1984 253 253 255
-136.823 -52.5317 -1982 253 253 253
-132.873 -52.5269 -1982 253 253 253
-128.858 -52.4958 -1981 253 253 253
-125.163 -52.5973 -1985 253 253 253
-121.332 -52.646 -1987 253 253 253
-117.612 -52.7477 -1991 253 253 253
-113.819 -52.8231 -1994 253 253 253
-109.961 -52.8722 -1996 253 253 253
-106.467 -53.1067 -2005 253 253 253
-102.733 -53.2355 -2010 253 253 253
-99.2265 -53.4967 -2020 253 253 253
-95.5393 -53.6785 -2027 253 253 253
-91.7347 -53.8076 -2032 253 253 253
-87.6953 -53.8044 -2032 253 253 253
-83.8624 -53.9337 -2037 253 253 253
-79.8144 -53.9309 -2037 253 253 253
-75.9158 -54.034 -2041 253 253 253
-71.9313 -54.0843 -2043 253 253 253
-68.0061 -54.1878 -2047 254 254 254
-63.9718 -54.2119 -2048 253 253 255
-60.1973 -54.4744 -2058 251 251 249
-56.329 -54.6841 -2066 239 238 235
-52.5052 -54.9733 -2077 223 221 215
-48.8012 -55.448 -2095 235 232 226
-227.542 -58.5287 -2049 219 216 219
-219.828 -57.5774 -2016 235 234 241
-215.032 -57.3693 -2009 242 243 254
-210.37 -57.1897 -2003 243 244 254
-205.734 -57.0105 -1997 245 246 255
-201.427 -56.917 -1994 247 249 255
-197.529 -56.938 -1995 250 250 255
-193.63 -56.9589 -1996 248 247 254
-189.917 -57.0373 -1999 243 245 251
-186.009 -57.0587 -2000 240 241 248
-182.097 -57.08 -2001 241 240 248
-177.828 -56.9876 -1998 244 243 249
-173.571 -56.8954 -1995 247 247 251
-169.243 -56.7746 -1991 245 245 247
-165.182 -56.7398 -1990 237 236 239
-161.044 -56.6766 -1988 234 231 236
-157.153 -56.6991 -1989 238 238 242
-153.106 -56.6644 -1988 249 249 252
-149.288 -56.7157 -1990 252 254 255
-145.172 -56.6532 -1988 252 253 254
-141.207 -56.6477 -1988 253 253 253
-137.036 -56.557 -1985 253 253 253
-133.012 -56.5231 -1984 253 253 253
-129.188 -56.5751 -1986 253 253 253
-125.357 -56.6273 -1988 253 253 253
-121.459 -56.6511 -1989 253 253 253
-117.734 -56.7605 -1993 253 253 253
-113.938 -56.8415 -1996 253 253 253
-110.075 -56.8942 -1998 253 253 253
-106.471 -57.0894 -2005 253 253 253
-102.89 -57.3132 -2013 253 253 253
-99.2793 -57.5372 -2021 253 253 253
-95.6372 -57.7612 -2029 253 253 253
-91.7381 -57.8428 -2032 253 253 253
-87.6985 -57.8394 -2032 253 253 253
-83.7831 -57.9216 -2035 253 253 253
-79.8173 -57.9754 -2037 253 253 253
-75.9557 -58.1147 -2042 253 253 253
-71.8989 -58.1119 -2042 253 253 253
-68.0418 -58.28 -2048 253 252 251
-64.1615 -58.4482 -2054 254 253 252
-60.2287 -58.5882 -2059 253 252 249
-56.3856 -58.842 -2068 232 230 225
-52.5071 -59.096 -2077 222 219 211
-48.6633 -59.4356 -2089 237 235 226
-227.884 -62.704 -2052 209 206 210
-220.382 -61.7475 -2021 235 234 242
-215.468 -61.4943 -2013 242 243 254
-210.588 -61.2411 -2005 241 242 253
-206.051 -61.0797 -2000 243 244 254
-201.738 -60.9799 -1997 247 249 255
-197.834 -61.0023 -1998 249 249 255
-193.54 -60.9026 -1995 249 248 254
-189.735 -60.9559 -1997 244 246 252
-186.016 -61.0396 -2000 241 242 249
-182.105 -61.0627 -2001 240 239 247
-177.835 -60.9636 -1998 243 243 248
-173.752 -60.926 -1997 246 246 250
-169.505 -60.8275 -1994 245 245 247
-165.354 -60.7595 -1992 244 244 246
-161.132 -60.6614 -1989 240 237 242
-157.16 -60.655 -1989 232 231 235
-153.112 -60.6182 -1988 236 236 240
-149.294 -60.6728 -1990 247 248 250
-145.104 -60.5754 -1987 253 253 254
-141.212 -60.6001 -1988 253 253 253
-136.903 -60.442 -1983 253 253 253
-133.017 -60.467 -1984 253 253 253
-129.128 -60.4922 -1985 253 253 253
-125.299 -60.5477 -1987 253 253 253
-121.585 -60.6646 -1991 253 253 253
-117.798 -60.7512 -1994 253 253 253
-114.113 -60.8988 -1999 253 253 253
-110.189 -60.9247 -2000 253 253 253
-106.528 -61.103 -2006 253 253 253
-102.894 -61.312 -2013 253 253 253
-99.3323 -61.582 -2022 253 253 253
-95.4524 -61.6694 -2025 253 253 253
-91.6064 -61.7875 -2029 253 253 253
-87.6155 -61.814 -2030 253 253 253
-83.5805 -61.8105 -2030 253 253 253
-79.5853 -61.8377 -2031 253 253 253
-75.7355 -61.9868 -2036 253 253 253
-71.9017 -62.1664 -2042 253 253 253
-67.978 -62.2854 -2046 254 253 251
-64.164 -62.5262 -2054 255 254 251
-60.3481 -62.7977 -2063 252 250 247
-56.415 -62.9779 -2069 235 233 226
-52.4839 -63.1888 -2076 227 224 210
-48.6652 -63.5824 -2089 241 239 226
-228.782 -67.0546 -2060 191 188 194
-221.046 -65.9706 -2027 237 236 245
-216.12 -65.7006 -2019 243 244 254
-211.122 -65.3986 -2010 241 242 254
-206.678 -65.2592 -2006 242 244 255
-202.353 -65.1528 -2003 246 247 255
-197.843 -64.9813 -1998 250 250 255
-193.645 -64.9078 -1996 251 250 255
-189.838 -64.9644 -1998 248 250 255
-186.117 -65.0538 -2001 244 245 252
-182.112 -65.0456 -2001 243 242 249
-178.02 -65.0054 -2000 244 244 249
-173.846 -64.9326 -1998 247 247 251
-169.427 -64.7627 -1993 247 247 249
-165.444 -64.7554 -1993 247 246 249
-161.138 -64.6184 -1989 249 246 251
-157.087 -64.5788 -1988 241 240 245
-153.118 -64.5722 -1988 233 233 237
-149.15 -64.5656 -1988 241 241 243
-144.965 -64.4616 -1985 250 251 252
-141.076 -64.4879 -1986 253 253 253
-136.978 -64.417 -1984 253 253 253
-133.224 -64.5085 -1987 253 253 253
-129.199 -64.4704 -1986 253 253 253
-125.494 -64.5947 -1990 253 253 253
-121.774 -64.719 -1994 253 253 253
-118.039 -64.8436 -1998 253 253 253
-114.175 -64.9035 -2000 253 253 253
-110.304 -64.9636 -2002 253 253 253
-106.585 -65.1211 -2007 253 253 253
-102.899 -65.3113 -2013 253 253 253
-99.2382 -65.534 -2020 253 253 253
-95.4564 -65.692 -2025 253 253 253
-91.5651 -65.7853 -2028 253 253 253
-87.4898 -65.7487 -2027 253 253 253
-83.5429 -65.8099 -2029 253 253 253
-79.4319 -65.7415 -2027 253 253 253
-75.5899 -65.9003 -2032 253 253 253
-71.9399 -66.2539 -2043 253 253 253
-68.2136 -66.5751 -2053 254 253 250
-64.3542 -66.7992 -2060 255 254 250
-60.4676 -67.0235 -2067 254 252 250
-56.4174 -67.0859 -2069 246 244 236
-52.4861 -67.3105 -2076 224 222 202
-48.6206 -67.6649 -2087 233 231 212
-44.7971 -68.1492 -2102 247 245 226
-229.681 -71.4376 -2068 161 158 165
-221.383 -70.1145 -2030 234 234 241
-216.129 -69.7244 -2019 244 246 254
-211.132 -69.4036 -2010 243 244 255
-206.688 -69.2559 -2006 241 242 254
-202.16 -69.0737 -2001 245 246 254
-197.654 -68.892 -1996 250 250 255
-193.848 -68.9518 -1998 253 252 255
-189.656 -68.8741 -1996 250 252 255
-185.846 -68.9343 -1998 248 249 255
-182.029 -68.9948 -2000 245 246 252
-178.206 -69.0554 -2002 245 246 250
-174.028 -68.9783 -2000 248 248 252
-169.775 -68.867 -1997 252 252 254
-165.451 -68.7211 -1993 249 248 251
-161.146 -68.5757 -1989 253 251 255
-157.015 -68.4995 -1987 253 252 255
-153.048 -68.4922 -1987 248 248 252
-149.007 -68.4508 -1986 248 248 250
-144.898 -68.3751 -1984 250 250 252
-141.082 -68.4373 -1986 253 253 253
-137.122 -68.4309 -1986 253 253 253
-133.364 -68.528 -1989 253 253 253
-129.334 -68.4876 -1988 253 253 253
-125.688 -68.654 -1993 253 253 253
-121.779 -68.6827 -1994 253 253 253
-118.163 -68.8837 -2000 253 253 253
-114.237 -68.9128 -2001 253 253 253
-110.474 -69.0454 -2005 253 253 253
-106.643 -69.1437 -2008 253 253 253
-102.75 -69.2078 -2010 253 253 253
-99.0953 -69.4441 -2017 253 253 253
-95.3663 -69.6463 -2023 253 253 253
-91.6143 -69.8485 -2029 253 253 253
-87.6233 -69.8788 -2030 253 253 253
-83.5054 -69.8061 -2028 253 253 253
-79.6314 -69.9398 -2032 253 253 253
-75.7793 -70.1083 -2037 253 253 253
-72.0488 -70.4146 -2046 253 253 253
-68.283 -70.7211 -2055 253 252 250
-64.4196 -70.959 -2062 251 250 246
-60.4411 -71.0938 -2066 249 247 247
-56.4472 -71.2287 -2070 244 241 233
-52.539 -71.5015 -2078 226 224 200
-48.6461 -71.8433 -2088 217 214 190
-44.8204 -72.3572 -2103 244 241 217
-230.692 -75.8894 -2077 129 126 133
-222.157 -74.417 -2037 226 225 232
-216.675 -73.9313 -2024 245 246 253
-211.562 -73.5555 -2014 244 246 255
-206.8 -73.2897 -2007 242 243 254
-202.472 -73.17 -2004 243 244 253
-197.762 -72.9046 -1997 249 249 255
-193.663 -72.8586 -1996 252 251 255
-189.57 -72.8126 -1995 251 253 255
-186.041 -72.986 -2000 249 251 255
-182.22 -73.0498 -2002 246 247 253
-178.215 -73.0411 -2002 245 246 250
-174.124 -72.9959 -2001 247 247 250
-169.953 -72.9146 -1999 249 249 251
-165.708 -72.797 -1996 250 249 252
-161.396 -72.643 -1992 253 250 255
-157.418 -72.6353 -1992 253 252 255
-153.055 -72.4454 -1987 254 254 255
-148.939 -72.365 -1985 253 253 255
-144.905 -72.3214 -1984 251 251 253
-141.018 -72.3509 -1985 252 252 253
-137.267 -72.4535 -1988 253 253 254
-133.37 -72.4832 -1989 253 253 254
-129.536 -72.5497 -1991 253 253 253
-125.82 -72.6892 -1995 253 253 253
-121.907 -72.7197 -1996 253 253 253
-118.286 -72.9324 -2002 253 253 253
-114.3 -72.9265 -2002 253 253 253
-110.48 -73.0304 -2005 253 253 253
-106.436 -72.9887 -2004 253 253 253
-102.755 -73.2021 -2010 253 253 253
-99.0508 -73.4157 -2016 253 253 253
-95.418 -73.7023 -2024 253 253 253
-91.4832 -73.7706 -2026 253 253 253
-87.6706 -73.9483 -2031 253 253 253
-83.5505 -73.8714 -2029 253 253 253
-79.6743 -74.013 -2033 253 253 253
-75.8573 -74.2274 -2039 253 253 253
-72.0169 -74.4423 -2045 253 253 253
-68.4192 -74.9485 -2059 253 253 251
-64.5164 -75.1636 -2065 250 250 247
-60.5902 -75.379 -2071 253 250 253
-56.4499 -75.3398 -2070 245 243 235
-52.5921 -75.7011 -2080 234 233 203
-48.6717 -76.0262 -2089 224 221 192
-44.8012 -76.497 -2102 253 249 220
-41.15 -77.4775 -2129 221 218 219
-222.277 -78.5169 -2038 212 211 219
-216.793 -78.0047 -2025 245 245 253
-211.783 -77.6468 -2016 243 245 254
-206.708 -77.2508 -2006 241 244 253
-202.382 -77.1249 -2003 241 242 251
-197.574 -76.8064 -1995 248 248 255
-193.479 -76.7577 -1994 251 250 255
-189.39 -76.7095 -1993 253 253 255
-185.864 -76.8921 -1998 252 252 254
-182.047 -76.9597 -2000 248 248 250
-178.224 -77.0272 -2002 246 246 249
-174.132 -76.9797 -2001 246 246 248
-170.216 -77.0092 -2002 249 249 251
-165.8 -76.8083 -1997 250 250 252
-161.648 -76.723 -1995 252 251 254
-157.347 -76.5608 -1991 253 253 255
-153.217 -76.476 -1989 252 252 254
-148.946 -76.3144 -1985 252 252 255
-145.131 -76.3836 -1987 252 252 254
-141.167 -76.3763 -1987 252 252 253
-137.273 -76.4076 -1988 253 253 255
-133.578 -76.5544 -1992 254 254 255
-129.607 -76.5474 -1992 253 253 251
-125.764 -76.6177 -1994 253 253 252
-121.913 -76.6883 -1996 254 254 254
-118.174 -76.8358 -2000 253 253 253
-114.191 -76.8299 -2000 253 253 253
-110.375 -76.9391 -2003 253 253 253
-106.335 -76.8952 -2002 253 253 253
-102.658 -77.1203 -2008 253 253 253
-99.105 -77.4607 -2017 253 253 253
-95.517 -77.8014 -2026 253 253 253
-91.6684 -77.9502 -2030 253 253 253
-87.8909 -78.176 -2036 253 253 253
-83.7607 -78.0948 -2034 253 253 253
-79.8351 -78.2058 -2037 253 253 253
-75.9354 -78.3554 -2041 253 253 253
-72.1262 -78.6203 -2048 253 253 253
-68.4226 -79.0387 -2059 253 253 254
-64.4884 -79.2273 -2064 251 250 254
-60.5348 -79.416 -2069 254 253 254
-56.4528 -79.4514 -2070 241 238 233
-52.6705 -79.9476 -2083 232 230 209
-48.7673 -80.3288 -2093 236 233 197
-44.7821 -80.6334 -2101 253 250 210
-41.1521 -81.7058 -2129 231 229 228
-222.834 -82.7835 -2043 205 204 211
-216.912 -82.0826 -2026 244 243 251
-211.794 -81.6658 -2016 242 245 254
-206.719 -81.2493 -2006 241 244 253
-202.089 -80.9951 -2000 240 241 251
-197.485 -80.7414 -1994 247 247 254
-193.489 -80.7307 -1994 252 251 255
-189.21 -80.5987 -1991 252 252 255
-185.874 -80.872 -1998 253 253 254
-182.33 -81.0643 -2003 250 250 250
-178.411 -81.0951 -2004 248 248 249
-174.49 -81.1258 -2005 247 247 248
-170.395 -81.0761 -2004 248 248 250
-166.307 -81.0264 -2003 250 250 252
-161.98 -80.8558 -1999 251 251 253
-157.671 -80.6854 -1995 253 253 255
-153.533 -80.5959 -1993 253 253 255
-149.255 -80.426 -1989 252 252 255
-145.285 -80.4181 -1989 252 252 255
-141.388 -80.4506 -1990 252 252 254
-137.419 -80.4431 -1990 253 253 255
-133.652 -80.5571 -1993 254 254 255
-129.809 -80.6308 -1995 253 253 251
-125.897 -80.6641 -1996 253 253 252
-122.103 -80.7787 -1999 253 253 253
-118.239 -80.853 -2001 253 253 253
-114.426 -80.968 -2004 253 253 253
-110.491 -81.0024 -2005 253 253 253
-106.447 -80.9561 -2004 253 253 253
-102.714 -81.1523 -2009 253 253 253
-98.9628 -81.3488 -2014 253 253 253
-95.5222 -81.8282 -2026 253 253 253
-91.6732 -81.9847 -2030 253 253 253
-87.8523 -82.1818 -2035 253 253 253
-83.7651 -82.1368 -2034 253 253 253
-79.9177 -82.3343 -2039 253 253 253
-75.9394 -82.4109 -2041 253 253 253
-72.13 -82.6896 -2048 253 253 253
-68.3265 -83.0088 -2056 254 252 254
-64.4293 -83.2472 -2062 253 251 255
-60.5088 -83.486 -2068 252 250 250
-56.483 -83.604 -2071 232 230 225
-52.6734 -84.0855 -2083 220 219 202
-48.7233 -84.4057 -2091 228 226 188
-44.7205 -84.6857 -2098 249 247 203
-41.0769 -85.7732 -2125 233 231 229
-223.065 -86.9431 -2045 202 201 208
-217.138 -86.2078 -2028 245 244 252
-211.491 -85.5579 -2013 243 246 255
-206.627 -85.2059 -2005 242 245 254
-202.1 -84.9817 -2000 240 241 251
-197.397 -84.6728 -1993 245 245 253
-193.5 -84.7043 -1994 251 250 255
-189.601 -84.7358 -1995 251 251 255
-185.978 -84.8948 -1999 253 253 255
-182.067 -84.927 -2000 253 253 253
-178.332 -85.0439 -2003 251 251 251
-174.586 -85.1614 -2006 248 248 248
-170.745 -85.2363 -2008 247 247 249
-166.482 -85.0995 -2005 249 249 251
-162.313 -85.0051 -2003 251 251 253
-157.996 -84.8263 -1999 253 253 255
-153.773 -84.6902 -1996 253 253 255
-149.413 -84.4693 -1991 253 253 255
-145.439 -84.461 -1991 253 253 255
-141.396 -84.4105 -1990 253 253 255
-137.496 -84.4448 -1991 253 253 255
-133.525 -84.4372 -1991 253 253 255
-129.686 -84.5146 -1993 253 253 251
-125.777 -84.5498 -1994 253 253 252
-121.804 -84.5425 -1994 253 253 253
-118.128 -84.7477 -1999 253 253 253
-114.204 -84.7836 -2000 253 253 253
-110.277 -84.8196 -2001 253 253 253
-106.453 -84.9407 -2004 253 253 253
-102.72 -85.1467 -2009 253 253 253
-99.0665 -85.4374 -2016 253 253 253
-95.5274 -85.8557 -2026 253 253 253
-91.7234 -86.0623 -2031 253 253 253
-88.0298 -86.3962 -2039 253 253 253
-83.8933 -86.3066 -2037 253 253 253
-79.8829 -86.3444 -2038 253 253 253
-75.9808 -86.5094 -2042 253 253 253
-72.0987 -86.7171 -2047 253 253 253
-68.1973 -86.9249 -2052 253 251 253
-64.4016 -87.3024 -2061 255 253 255
-60.4828 -87.553 -2067 251 249 246
-56.5134 -87.7615 -2072 235 233 227
-52.651 -88.1817 -2082 222 221 208
-48.7259 -88.56 -2091 223 222 192
-44.7443 -88.8962 -2099 240 239 204
-41.0405 -89.9102 -2123 228 226 222
-223.187 -91.0668 -2046 200 199 206
-217.151 -90.2525 -2028 247 246 253
-211.924 -89.7502 -2017 245 247 255
-206.845 -89.2927 -2007 246 247 255
-202.517 -89.1469 -2004 241 242 252
-198.102 -88.957 -2000 242 242 251
-193.414 -88.6341 -1993 251 250 255
-189.707 -88.756 -1996 252 251 255
-186.082 -88.9225 -2000 253 252 255
-182.26 -89.0006 -2002 254 254 254
-178.52 -89.1231 -2005 252 252 252
-174.509 -89.1127 -2005 248 248 248
-170.67 -89.1912 -2007 246 246 248
-166.575 -89.1365 -2006 250 250 252
-162.404 -89.038 -2004 251 251 253
-158.321 -88.9841 -2003 252 252 254
-154.013 -88.7969 -1999 253 253 255
-149.572 -88.5215 -1993 253 253 255
-145.521 -88.4681 -1992 252 252 255
-141.404 -88.3708 -1990 253 253 255
-137.365 -88.3182 -1989 253 253 255
-133.466 -88.3544 -1990 253 253 255
-129.499 -88.3466 -1990 253 253 252
-125.722 -88.4722 -1993 253 253 253
-121.934 -88.5981 -1996 253 253 253
-118.135 -88.7239 -1999 253 253 253
-114.382 -88.8946 -2003 253 253 253
-110.504 -88.9767 -2005 253 253 253
-106.618 -89.059 -2007 253 253 253
-102.879 -89.2747 -2012 253 253 253
-99.1707 -89.5349 -2018 253 253 253
-95.3915 -89.7508 -2023 253 253 253
-91.6385 -90.0114 -2029 253 253 253
-87.9487 -90.361 -2037 253 253 253
-83.857 -90.3116 -2036 253 253 253
-79.9268 -90.4398 -2039 253 253 253
-75.9481 -90.5239 -2041 253 253 253
-72.0677 -90.7413 -2046 253 253 253
-68.2013 -91.0032 -2052 254 254 254
-64.4053 -91.3985 -2061 251 251 251
-60.5156 -91.7052 -2068 250 248 243
-56.5712 -91.9678 -2074 240 238 232
-52.6541 -92.3193 -2082 227 225 217
-48.7289 -92.7154 -2091 237 235 216
-44.6829 -92.9343 -2096 249 247 224
-40.8882 -93.7739 -2115 238 236 231
-223.419 -95.2418 -2048 195 194 202
-217.271 -94.3445 -2029 245 244 252
-212.042 -93.8196 -2018 244 245 254
-207.064 -93.3881 -2009 245 246 255
-202.529 -93.1429 -2004 241 242 252
-198.411 -93.0838 -2003 241 240 249
-194.106 -92.9321 -2000 250 249 254
-189.623 -92.688 -1995 252 251 255
-186.093 -92.9085 -2000 253 253 255
-182.271 -92.9898 -2002 253 253 253
-178.264 -92.9787 -2002 253 253 253
-174.346 -93.014 -2003 248 248 248
-170.595 -93.1427 -2006 245 245 247
-166.585 -93.1321 -2006 249 249 251
-162.495 -93.0755 -2005 252 252 254
-158.331 -92.9726 -2003 251 251 253
-154.099 -92.8237 -2000 252 252 254
-149.806 -92.6285 -1996 253 253 255
-145.603 -92.4801 -1993 253 253 255
-141.413 -92.3318 -1990 253 253 255
-137.305 -92.2305 -1988 253 253 255
-133.34 -92.2221 -1988 253 253 255
-129.442 -92.2602 -1989 253 253 253
-125.54 -92.2987 -1990 253 253 253
-121.636 -92.3374 -1991 253 253 253
-117.905 -92.5155 -1995 253 253 253
-114.274 -92.7864 -2001 253 253 253
-110.4 -92.8722 -2003 253 253 253
-106.519 -92.9582 -2005 253 253 253
-102.783 -93.1835 -2010 253 253 253
-99.1767 -93.5482 -2018 253 253 253
-95.3501 -93.7276 -2022 253 253 253
-91.7344 -94.139 -2031 253 253 253
-87.9972 -94.4576 -2038 253 253 253
-83.9444 -94.4523 -2038 253 253 253
-79.9316 -94.4936 -2039 253 253 253
-75.9527 -94.5815 -2041 253 253 253
-72.0369 -94.7623 -2045 253 253 253
-68.1389 -94.9896 -2050 253 253 252
-64.378 -95.4489 -2060 252 252 250
-60.4607 -95.723 -2066 255 253 247
-56.5747 -96.0901 -2074 249 247 241
-52.6826 -96.5037 -2083 236 234 228
-48.7551 -96.9175 -2092 238 236 225
-44.7284 -97.1926 -2098 248 245 233
-40.8521 -97.8846 -2113 243 241 235
-223.979 -99.571 -2053 193 192 199
-217.713 -98.5867 -2033 247 246 253
-212.581 -98.0878 -2023 245 246 255
-207.593 -97.6377 -2014 245 246 255
-203.249 -97.4789 -2011 242 243 253
-198.622 -97.175 -2005 240 240 249
-194.215 -96.9682 -2001 248 247 253
-189.825 -96.7618 -1997 252 251 255
-186.198 -96.9436 -2001 254 253 255
-182.282 -96.98 -2002 252 252 252
-178.275 -96.9681 -2002 253 253 254
-174.357 -97.0053 -2003 249 249 250
-170.521 -97.0908 -2005 244 244 246
-166.43 -97.0316 -2004 249 249 251
-162.343 -96.9724 -2003 252 252 254
-158.262 -96.9136 -2002 251 251 253
-154.263 -96.9034 -2002 251 251 253
-149.966 -96.7 -1998 253 253 254
-145.685 -96.4966 -1994 254 254 255
-141.635 -96.439 -1993 253 253 255
-137.383 -96.2362 -1989 253 253 255
-133.483 -96.2759 -1990 253 253 255
-129.45 -96.2191 -1989 253 253 253
-125.674 -96.356 -1992 253 253 253
-121.888 -96.4929 -1995 252 252 252
-118.208 -96.727 -2000 253 253 253
-114.396 -96.8646 -2003 253 253 253
-110.517 -96.9541 -2005 253 253 253
-106.738 -97.1403 -2009 253 253 253
-102.892 -97.2785 -2012 253 253 253
-99.0846 -97.4655 -2016 253 253 253
-95.4034 -97.7976 -2023 253 253 253
-91.8305 -98.275 -2033 253 253 253
-87.8732 -98.3659 -2035 253 253 253
-83.991 -98.5537 -2039 253 253 253
-79.9759 -98.5965 -2040 253 253 253
-75.9947 -98.6881 -2042 253 253 253
-72.0063 -98.78 -2044 253 253 253
-68.11 -99.0171 -2049 253 254 253
-64.382 -99.5444 -2060 251 253 252
-60.406 -99.7337 -2064 255 254 251
-56.5237 -100.116 -2072 251 250 247
-52.5088 -100.306 -2076 246 244 240
-48.6184 -100.786 -2086 235 231 225
-44.6246 -101.121 -2093 244 239 233
-40.7193 -101.747 -2106 239 237 233
-36.8495 -102.614 -2124 227 224 224
-218.049 -102.795 -2036 245 244 252
-212.91 -102.276 -2026 244 245 254
-208.019 -101.858 -2018 246 247 255
-203.768 -101.743 -2016 243 244 254
-199.032 -101.376 -2009 240 241 249
-194.228 -100.959 -2001 245 244 252
-189.933 -100.794 -1998 250 251 255
-185.931 -100.782 -1998 253 253 255
-181.748 -100.668 -1996 253 253 254
-178.02 -100.807 -1999 253 253 254
-174.021 -100.796 -1999 251 251 253
-170.362 -100.985 -2003 245 245 247
-166.524 -101.075 -2005 248 248 250
-162.435 -101.013 -2004 252 252 254
-158.51 -101.053 -2005 251 251 253
-154.505 -101.042 -2005 250 250 252
-150.201 -100.83 -2001 249 249 251
-145.841 -100.569 -1996 254 254 255
-141.644 -100.407 -1993 253 253 255
-137.392 -100.197 -1989 254 254 255
-133.357 -100.137 -1988 254 254 255
-129.328 -100.078 -1987 253 253 253
-125.619 -100.271 -1991 253 253 253
-121.835 -100.414 -1994 253 253 253
-118.157 -100.657 -1999 253 253 253
-114.404 -100.851 -2003 253 253 253
-110.58 -100.994 -2006 253 253 253
-106.639 -101.037 -2007 253 253 253
-102.848 -101.231 -2011 253 253 253
-99.0911 -101.476 -2016 253 253 253
-95.3154 -101.721 -2021 253 253 253
-91.7463 -102.218 -2031 253 253 253
-87.9653 -102.514 -2037 253 253 253
-84.1201 -102.76 -2042 253 253 253
-79.9811 -102.654 -2040 253 253 253
-75.9625 -102.699 -2041 253 253 253
-71.9405 -102.744 -2042 253 253 253
-68.0813 -103.041 -2048 252 253 254
-64.2925 -103.49 -2057 251 253 254
-60.3514 -103.737 -2062 252 252 252
-56.5001 -104.186 -2071 252 252 251
-52.5123 -104.434 -2076 252 251 247
-48.6216 -104.934 -2086 244 240 237
-44.6489 -105.333 -2094 237 232 229
-40.7221 -105.934 -2106 239 237 235
-36.8693 -106.887 -2125 229 227 227
-218.385 -107.016 -2039 243 242 250
-213.24 -106.476 -2029 243 244 254
-208.446 -106.094 -2022 245 246 255
-203.984 -105.87 -2018 243 244 254
-199.145 -105.436 -2010 241 242 251
-194.533 -105.107 -2004 242 244 251
-189.946 -104.779 -1998 248 250 255
-185.851 -104.713 -1997 251 253 255
-181.943 -104.753 -1998 253 253 255
-178.033 -104.793 -1999 253 253 255
-174.033 -104.78 -1999 252 252 254
-170.289 -104.925 -2002 246 246 248
-166.369 -104.966 -2003 246 246 248
-162.446 -105.007 -2004 251 251 253
-158.442 -104.995 -2004 251 251 253
-154.593 -105.089 -2006 249 249 251
-150.661 -105.131 -2007 248 248 250
-146.362 -104.911 -2003 252 252 254
-142.08 -104.691 -1999 253 253 255
-137.608 -104.315 -1992 254 254 255
-133.434 -104.148 -1989 253 253 255
-129.467 -104.139 -1989 253 253 253
-125.817 -104.392 -1994 253 253 253
-122.087 -104.592 -1998 253 253 253
-118.461 -104.898 -2004 253 253 253
-114.64 -105.047 -2007 253 253 253
-110.698 -105.091 -2008 253 253 253
-106.699 -105.084 -2008 253 253 253
-102.957 -105.338 -2013 253 253 253
-99.098 -105.488 -2016 253 253 253
-95.369 -105.795 -2022 253 253 253
-91.8881 -106.416 -2034 253 253 253
-88.1009 -106.724 -2040 253 253 253
-84.1259 -106.823 -2042 253 253 253
-80.0259 -106.764 -2041 253 253 253
-76.0421 -106.864 -2043 253 253 253
-72.1921 -107.172 -2049 253 253 253
-68.1525 -107.22 -2050 252 254 254
-64.3595 -107.686 -2059 251 253 255
-60.3556 -107.838 -2062 253 253 255
-56.5585 -108.409 -2073 255 255 253
-52.4906 -108.51 -2075 254 253 249
-48.6249 -109.082 -2086 251 247 245
-44.6519 -109.497 -2094 244 240 238
-40.7249 -110.121 -2106 232 230 230
-36.8372 -111.008 -2123 236 233 234
-218.722 -111.251 -2042 241 239 247
-213.15 -110.472 -2028 244 244 254
-208.461 -110.13 -2022 245 245 255
-203.999 -109.897 -2018 244 246 254
-199.456 -109.61 -2013 242 244 252
-194.741 -109.214 -2006 242 243 252
-189.96 -108.765 -1998 247 249 255
-185.678 -108.588 -1995 251 253 255
-181.683 -108.574 -1995 253 253 255
-177.867 -108.67 -1997 253 253 255
-174.045 -108.766 -1999 252 252 254
-170.471 -109.025 -2004 249 249 250
-166.63 -109.122 -2006 248 248 249
-162.701 -109.164 -2007 252 252 254
-158.927 -109.315 -2010 251 251 253
-154.989 -109.358 -2011 249 249 251
-150.973 -109.347 -2011 247 247 249
-146.592 -109.065 -2006 252 252 254
-142.375 -108.891 -2003 252 252 254
-137.894 -108.5 -1996 253 253 255
-133.577 -108.219 -1991 253 253 255
-129.542 -108.154 -1990 253 253 254
-125.763 -108.308 -1993 253 253 254
-122.096 -108.571 -1998 253 253 253
-118.528 -108.942 -2005 253 253 253
-114.591 -108.988 -2006 253 253 253
-110.761 -109.143 -2009 253 253 253
-106.76 -109.135 -2009 253 253 253
-102.965 -109.345 -2013 253 253 253
-99.0067 -109.392 -2014 253 253 253
-95.3759 -109.819 -2022 253 253 253
-91.8043 -110.356 -2032 253 253 253
-87.9777 -110.62 -2037 253 253 253
-84.0906 -110.831 -2041 253 253 253
-80.1493 -110.988 -2044 253 253 253
-76.0848 -110.983 -2044 253 253 253
-72.0563 -111.032 -2045 253 253 253
-68.0576 -111.135 -2047 252 253 253
-64.3016 -111.673 -2057 251 252 253
-60.3013 -111.831 -2060 253 253 255
-56.5353 -112.479 -2072 254 254 253
-52.5449 -112.746 -2077 253 252 248
-48.6983 -113.394 -2089 254 251 250
-44.7191 -113.825 -2097 255 252 252
-40.7471 -114.364 -2107 242 240 239
-36.8398 -115.23 -2123 227 225 225
-32.9769 -116.476 -2146 219 218 218
-218.632 -115.272 -2041 242 239 247
-213.271 -114.578 -2029 246 244 254
-208.476 -114.166 -2022 247 246 255
-204.217 -114.038 -2020 244 246 253
-199.867 -113.853 -2017 243 244 253
-195.047 -113.386 -2009 241 242 252
-190.354 -112.977 -2002 245 247 254
-185.785 -112.624 -1996 251 252 255
-181.605 -112.497 -1994 253 253 255
-178.059 -112.766 -1999 253 253 255
-174.145 -112.809 -2000 252 252 254
-170.484 -113.021 -2004 250 250 250
-166.643 -113.121 -2006 248 248 249
-162.632 -113.109 -2006 251 251 253
-158.702 -113.153 -2007 251 251 253
-155.077 -113.423 -2012 250 250 252
-151.059 -113.411 -2012 247 247 249
-146.822 -113.231 -2009 249 249 251
-142.67 -113.107 -2007 252 252 254
-138.112 -112.646 -1999 253 253 255
-133.789 -112.354 -1994 253 253 255
-129.746 -112.288 -1993 254 254 255
-126.025 -112.503 -1997 253 253 254
-122.35 -112.776 -2002 253 253 253
-118.655 -113.048 -2007 253 253 253
-114.828 -113.208 -2010 253 253 253
-110.934 -113.312 -2012 253 253 253
-106.874 -113.248 -2011 253 253 253
-102.921 -113.296 -2012 253 253 253
-99.1616 -113.57 -2017 253 253 253
-95.4301 -113.901 -2023 253 253 253
-91.6755 -114.231 -2029 253 253 253
-87.941 -114.619 -2036 253 253 253
-84.0558 -114.837 -2040 253 253 253
-80.0767 -114.944 -2042 253 253 253
-76.0533 -114.994 -2043 253 253 253
-72.132 -115.214 -2047 253 253 253
-68.1956 -115.434 -2051 252 252 252
-64.3063 -115.766 -2057 253 253 253
-60.3351 -115.987 -2061 254 254 255
-56.4577 -116.433 -2069 252 252 253
-52.4477 -116.653 -2073 254 254 250
-48.6086 -117.325 -2085 255 253 253
-44.637 -117.771 -2093 255 253 254
-40.7114 -118.443 -2105 251 249 247
-36.8252 -119.397 -2122 243 242 241
-32.9332 -120.576 -2143 224 224 224
-218.863 -119.465 -2043 242 239 247
-213.183 -118.571 -2028 245 243 253
-208.492 -118.204 -2022 247 246 255
-204.131 -118.012 -2019 244 246 253
-199.784 -117.821 -2016 243 245 253
-195.159 -117.455 -2010 242 243 253
-190.464 -117.031 -2003 244 246 253
-186.172 -116.841 -2000 249 251 255
-181.71 -116.534 -1995 252 252 255
-177.983 -116.695 -1998 254 254 255
-174.071 -116.74 -1999 252 252 254
-170.582 -117.076 -2005 252 252 252
-166.738 -117.18 -2007 250 250 251
-162.888 -117.284 -2009 252 252 254
-158.872 -117.271 -2009 252 252 254
-155.012 -117.376 -2011 252 252 254
-151.071 -117.422 -2012 246 246 248
-146.907 -117.294 -2010 246 246 248
-142.681 -117.107 -2007 251 251 253
-138.33 -116.804 -2002 253 253 255
-134 -116.502 -1997 253 253 255
-129.691 -116.2 -1992 253 253 255
-125.909 -116.365 -1995 253 253 254
-122.176 -116.589 -1999 253 253 253
-118.428 -116.813 -2003 253 253 253
-114.78 -117.153 -2009 253 253 253
-110.833 -117.203 -2010 253 253 253
-106.936 -117.311 -2012 253 253 253
-102.98 -117.361 -2013 253 253 253
-99.12 -117.528 -2016 253 253 253
-95.343 -117.812 -2021 253 253 253
-91.6826 -118.271 -2029 253 253 253
-88.0341 -118.789 -2038 253 253 253
-84.1858 -119.073 -2043 253 253 253
-80.1222 -119.067 -2043 253 253 253
-76.1708 -119.236 -2046 253 253 253
-72.2081 -119.404 -2049 253 253 253
-68.2008 -119.516 -2051 252 253 253
-64.1862 -119.627 -2053 250 252 252
-60.3105 -120.03 -2060 255 255 255
-56.4347 -120.492 -2068 253 253 253
-52.477 -120.837 -2074 252 252 250
-48.5657 -121.357 -2083 249 247 247
-44.6191 -121.878 -2092 253 251 252
-40.6758 -122.516 -2103 254 252 250
-36.7586 -123.386 -2118 251 250 249
-32.7974 -124.316 -2134 245 245 245
-226.915 -125.742 -2079 171 170 176
-219.309 -123.788 -2047 242 239 247
-213.515 -122.803 -2031 245 244 253
-208.509 -122.242 -2022 246 245 255
-204.451 -122.225 -2022 244 246 253
-199.8 -121.846 -2016 244 246 254
-195.369 -121.588 -2012 242 244 252
-190.765 -121.21 -2006 242 244 251
-186.28 -120.893 -2001 249 250 255
-181.998 -120.697 -1998 252 253 255
-178.087 -120.742 -1999 253 253 255
-174.172 -120.788 -2000 253 253 255
-170.511 -121.016 -2004 253 253 253
-166.502 -121.002 -2004 252 252 253
-162.576 -121.049 -2005 253 253 255
-158.648 -121.097 -2006 252 252 254
-154.793 -121.205 -2008 250 250 252
-150.857 -121.253 -2009 243 243 245
-146.918 -121.301 -2010 244 244 246
-142.834 -121.229 -2009 250 250 252
-138.548 -120.976 -2005 252 252 254
-134.346 -120.784 -2002 253 253 255
-130.092 -120.532 -1998 253 253 255
-126.045 -120.461 -1997 253 253 254
-122.308 -120.692 -2001 253 253 253
-118.497 -120.864 -2004 253 253 253
-114.675 -121.035 -2007 253 253 253
-110.786 -121.147 -2009 253 253 253
-107.05 -121.439 -2014 253 253 253
-102.937 -121.31 -2012 253 253 253
-99.1279 -121.543 -2016 253 253 253
-95.3035 -121.777 -2020 253 253 253
-91.735 -122.372 -2030 253 253 253
-87.9548 -122.726 -2036 253 253 253
-84.11 -123.021 -2041 253 253 253
-80.2069 -123.255 -2045 253 253 253
-76.214 -123.369 -2047 253 253 253
-72.1786 -123.424 -2048 253 253 253
-68.2395 -123.659 -2052 252 254 254
-64.3475 -124.015 -2058 249 251 251
-60.3152 -124.131 -2060 253 254 252
-56.3846 -124.488 -2066 252 252 251
-52.4305 -124.845 -2072 248 248 246
-48.523 -125.383 -2081 239 236 237
-44.58 -125.921 -2090 247 244 245
-40.679 -126.701 -2103 251 249 248
-36.7094 -127.421 -2115 251 249 249
-32.7231 -128.262 -2129 248 248 248
-227.48 -130.209 -2084 164 163 169
-219.648 -128.066 -2050 242 239 247
-214.058 -127.174 -2036 246 245 255
-208.732 -126.406 -2024 245 244 254
-204.468 -126.264 -2022 244 246 253
-200.014 -125.997 -2018 245 247 254
-195.482 -125.669 -2013 242 244 251
-190.78 -125.215 -2006 242 244 251
-186.667 -125.137 -2005 248 250 255
-182.013 -124.685 -1998 251 253 255
-178.369 -124.919 -2002 252 253 255
-174.187 -124.78 -2000 254 254 255
-170.44 -124.952 -2003 254 254 254
-166.682 -125.125 -2006 252 252 253
-162.752 -125.174 -2007 252 252 254
-158.819 -125.223 -2008 252 252 254
-154.806 -125.21 -2008 251 251 253
-150.87 -125.259 -2009 246 246 248
-146.857 -125.247 -2009 247 247 249
-142.988 -125.359 -2011 250 250 252
-138.767 -125.161 -2008 252 252 254
-134.626 -125.024 -2006 254 254 255
-130.298 -124.702 -2001 253 253 255
-126.055 -124.442 -1997 253 253 255
-122.257 -124.618 -2000 253 253 253
-118.329 -124.67 -2001 253 253 253
-114.798 -125.159 -2009 253 253 253
-110.961 -125.337 -2012 253 253 253
-107.059 -125.452 -2014 253 253 253
-103.099 -125.506 -2015 253 253 253
-99.2836 -125.746 -2019 253 253 253
-95.3585 -125.863 -2021 253 253 253
-91.6522 -126.291 -2028 253 253 253
-87.9187 -126.719 -2035 253 253 253
-84.117 -127.086 -2041 253 253 253
-80.2135 -127.328 -2045 253 253 253
-76.2576 -127.508 -2048 253 253 253
-72.2197 -127.564 -2049 253 253 253
-68.2784 -127.807 -2053 252 254 254
-64.2904 -127.989 -2056 251 253 253
-60.3787 -128.357 -2062 251 254 249
-56.28 -128.352 -2062 248 250 247
-52.4854 -129.094 -2074 251 251 251
-48.5736 -129.65 -2083 241 238 239
-44.5836 -130.082 -2090 245 241 242
-40.6824 -130.888 -2103 255 251 250
-36.7124 -131.631 -2115 252 250 250
-32.7104 -132.438 -2128 252 252 252
-28.8177 -133.991 -2153 197 196 202
-227.39 -134.311 -2083 160 159 164
-219.667 -132.164 -2050 240 237 245
-214.287 -131.371 -2038 244 242 252
-208.957 -130.58 -2026 246 245 255
-204.789 -130.497 -2025 242 243 253
-200.23 -130.158 -2020 244 245 253
-195.498 -129.689 -2013 241 243 250
-190.892 -129.286 -2007 241 243 250
-186.59 -129.076 -2004 243 245 252
-182.302 -128.867 -2001 250 251 255
-177.938 -128.594 -1997 253 253 255
-174.289 -128.836 -2001 254 254 255
-170.369 -128.886 -2002 253 253 254
-166.613 -129.064 -2005 253 253 254
-162.766 -129.179 -2007 252 252 254
-158.912 -129.294 -2009 252 252 253
-154.896 -129.28 -2009 252 252 253
-151.033 -129.396 -2011 252 250 253
-146.943 -129.318 -2010 250 249 251
-142.929 -129.306 -2010 250 250 252
-138.917 -129.294 -2010 252 252 254
-134.772 -129.153 -2008 252 252 255
-130.57 -128.949 -2005 252 252 254
-126.318 -128.681 -2001 253 253 254
-122.328 -128.67 -2001 253 253 253
-118.339 -128.659 -2001 253 253 253
-114.579 -128.907 -2005 253 253 253
-110.694 -129.025 -2007 253 253 253
-106.909 -129.273 -2011 253 253 253
-103.006 -129.392 -2013 253 253 253
-99.1445 -129.577 -2016 253 253 253
-95.3666 -129.89 -2021 253 253 253
-91.5695 -130.203 -2026 253 253 253
-87.8398 -130.645 -2033 253 253 253
-84.1241 -131.152 -2041 253 253 253
-80.1811 -131.337 -2044 253 253 253
-76.264 -131.588 -2048 253 253 253
-72.4022 -131.967 -2054 253 253 253
-68.2509 -131.832 -2052 253 253 252
-64.3271 -132.148 -2057 253 254 253
-60.3253 -132.335 -2060 250 251 248
-56.3939 -132.716 -2066 242 243 240
-52.3127 -132.775 -2067 243 243 241
-48.4611 -133.477 -2078 244 243 242
-44.5448 -134.116 -2088 247 245 244
-40.7051 -135.14 -2104 253 250 250
-36.7502 -135.971 -2117 254 252 253
-32.7439 -136.803 -2130 254 254 255
-28.7933 -138.149 -2151 226 226 230
-227.628 -138.609 -2085 157 156 160
-220.008 -136.462 -2053 240 237 244
-214.201 -135.379 -2037 245 244 254
-209.284 -134.828 -2029 247 246 255
-205.11 -134.743 -2028 243 244 255
-200.347 -134.26 -2021 244 245 253
-196.001 -134.043 -2018 242 244 250
-191.289 -133.561 -2011 241 243 250
-186.607 -133.079 -2004 241 243 250
-182.409 -132.93 -2002 247 246 253
-178.043 -132.648 -1998 253 252 255
-174.304 -132.832 -2001 253 253 255
-170.469 -132.949 -2003 253 253 255
-166.711 -133.133 -2006 253 253 255
-162.861 -133.251 -2008 253 253 255
-159.005 -133.37 -2010 252 252 253
-154.987 -133.356 -2010 253 253 253
-151.196 -133.541 -2013 253 251 253
-147.029 -133.395 -2011 250 249 251
-143.084 -133.448 -2012 250 250 252
-139.137 -133.502 -2013 252 252 254
-134.985 -133.357 -2011 252 252 254
-130.647 -133.014 -2006 252 252 254
-126.519 -132.87 -2004 253 253 254
-122.339 -132.66 -2001 253 253 253
-118.409 -132.716 -2002 253 253 253
-114.475 -132.771 -2003 253 253 253
-110.704 -133.027 -2007 253 253 253
-106.971 -133.348 -2012 253 253 253
-103.117 -133.538 -2015 253 253 253
-99.3007 -133.794 -2019 253 253 253
-95.4221 -133.984 -2022 253 253 253
-91.6228 -134.307 -2027 253 253 253
-87.7178 -134.498 -2030 253 253 253
-84.0078 -135.02 -2038 253 253 253
-80.1096 -135.278 -2042 253 253 253
-76.308 -135.735 -2049 253 253 253
-72.3027 -135.86 -2051 253 253 253
-68.4232 -136.252 -2057 253 253 251
-64.3952 -136.378 -2059 253 253 251
-60.3306 -136.439 -2060 253 253 251
-56.3989 -136.831 -2066 248 248 246
-52.4438 -137.224 -2072 247 247 245
-48.5819 -137.948 -2083 248 248 246
-44.6127 -138.473 -2091 249 249 247
-40.7088 -139.33 -2104 253 251 252
-36.7708 -140.254 -2118 254 253 253
-32.716 -140.913 -2128 254 254 255
-28.7423 -142.168 -2147 236 236 238
-226.557 -142.095 -2075 150 149 154
-219.814 -140.43 -2051 239 236 243
-214.325 -139.521 -2038 245 244 253
-209.613 -139.09 -2032 246 245 254
-205.23 -138.866 -2029 243 244 255
-200.662 -138.505 -2024 243 245 253
-195.825 -137.939 -2016 242 244 251
-191.687 -137.853 -2015 243 245 252
-186.623 -137.083 -2004 241 243 250
-182.243 -136.792 -2000 245 244 251
-177.97 -136.571 -1997 252 252 255
-174.32 -136.828 -2001 253 253 255
-170.23 -136.744 -2000 253 253 255
-166.809 -137.207 -2007 253 253 255
-163.038 -137.397 -2010 253 253 255
-159.177 -137.519 -2012 252 252 253
-155.233 -137.573 -2013 253 253 253
-151.36 -137.695 -2015 252 252 254
-147.188 -137.545 -2013 250 250 252
-143.168 -137.532 -2013 251 251 253
-139.08 -137.45 -2012 252 252 254
-135.064 -137.438 -2012 252 252 254
-130.919 -137.289 -2010 253 253 255
-126.657 -137.004 -2006 253 253 254
-122.472 -136.788 -2003 253 253 253
-118.36 -136.64 -2001 253 253 253
-114.485 -136.766 -2003 253 253 253
-110.659 -136.961 -2006 253 253 253
-106.875 -137.224 -2010 253 253 253
-103.075 -137.487 -2014 253 253 253
-99.1621 -137.614 -2016 253 253 253
-95.3363 -137.878 -2020 253 253 253
-91.4955 -138.143 -2024 253 253 253
-87.6394 -138.408 -2028 253 253 253
-83.8917 -138.877 -2035 253 253 253
-80.1954 -139.484 -2044 253 253 253
-76.3148 -139.818 -2049 253 253 253
-72.3446 -140.016 -2052 253 253 253
-68.3296 -140.146 -2054 253 253 251
-64.4011 -140.481 -2059 252 252 250
-60.2774 -140.407 -2058 252 252 250
-56.3494 -140.811 -2064 247 247 245
-52.4486 -141.352 -2072 245 245 243
-48.5629 -142.03 -2082 249 249 247
-44.638 -142.707 -2092 253 253 251
-40.7511 -143.659 -2106 253 252 252
-36.7915 -144.542 -2119 254 253 253
-32.7343 -145.221 -2129 254 254 255
-28.7449 -146.446 -2147 245 245 247
-226.36 -146.105 -2073 141 139 145
-219.834 -144.534 -2051 235 232 240
-214.24 -143.526 -2037 243 242 253
-209.426 -143.013 -2030 245 245 255
-205.148 -142.852 -2028 245 246 255
-200.879 -142.692 -2026 245 247 255
-196.037 -142.11 -2018 246 248 255
-191.515 -141.74 -2013 246 248 255
-187.2 -141.511 -2010 243 244 251
-182.716 -141.141 -2005 243 242 250
-178.343 -140.842 -2001 251 251 255
-174.597 -141.037 -2004 252 252 255
-170.501 -140.95 -2003 253 253 255
-166.991 -141.356 -2009 253 253 255
-163.216 -141.552 -2012 253 253 255
-159.35 -141.677 -2014 253 253 254
-155.401 -141.733 -2015 252 252 252
-151.525 -141.859 -2017 252 252 254
-147.348 -141.704 -2015 252 252 254
-143.324 -141.69 -2015 252 252 254
-139.231 -141.607 -2014 251 251 253
-135.211 -141.594 -2014 252 252 254
-130.931 -141.3 -2010 253 253 255
-126.795 -141.147 -2008 253 253 254
-122.545 -140.854 -2004 252 252 252
-118.43 -140.702 -2002 253 253 253
-114.382 -140.621 -2001 253 253 253
-110.669 -140.962 -2006 253 253 253
-106.831 -141.162 -2009 253 253 253
-103.136 -141.574 -2015 253 253 253
-99.2697 -141.775 -2018 253 253 253
-95.3924 -141.977 -2021 253 253 253
-91.3683 -141.968 -2021 253 253 253
-87.4314 -142.1 -2023 253 253 253
-83.7346 -142.654 -2031 253 253 253
-79.9673 -143.138 -2038 253 253 253
-76.2847 -143.833 -2048 253 253 253
-72.457 -144.317 -2055 253 253 253
-68.469 -144.521 -2058 252 252 252
-64.4383 -144.656 -2060 252 252 251
-60.4002 -144.79 -2062 253 253 252
-56.4638 -145.206 -2068 252 252 251
-52.504 -145.622 -2074 251 251 250
-48.6842 -146.53 -2087 253 253 251
-44.6848 -147.017 -2094 251 251 250
-40.7355 -147.786 -2105 253 253 253
-36.7255 -148.484 -2115 253 253 253
-32.6604 -149.112 -2124 253 253 255
-28.6805 -150.373 -2142 252 252 254
-226.819 -150.544 -2077 134 133 139
-220.07 -148.782 -2053 233 230 238
-214.156 -147.529 -2036 242 242 254
-209.446 -147.074 -2030 243 244 255
-204.965 -146.764 -2026 245 246 255
-200.502 -146.454 -2022 246 247 255
-195.668 -145.855 -2014 247 249 255
-191.628 -145.837 -2014 245 247 254
-187.031 -145.384 -2008 243 244 252
-182.825 -145.221 -2006 243 242 250
-178.271 -144.769 -2000 249 248 253
-174.353 -144.824 -2001 254 254 255
-170.347 -144.808 -2001 253 253 255
-166.758 -145.153 -2006 253 253 255
-162.988 -145.354 -2009 253 253 255
-159.287 -145.628 -2013 253 253 254
-155.416 -145.757 -2015 252 252 252
-151.614 -145.959 -2018 252 252 254
-147.436 -145.8 -2016 253 253 255
-143.338 -145.713 -2015 253 253 255
-139.383 -145.772 -2016 252 252 254
-135.224 -145.614 -2014 251 251 253
-131.009 -145.384 -2011 252 252 254
-126.87 -145.227 -2009 253 253 254
-122.679 -144.998 -2006 253 253 253
-118.442 -144.697 -2002 253 253 253
-114.507 -144.758 -2003 253 253 253
-110.569 -144.82 -2004 253 253 253
-106.895 -145.243 -2010 253 253 253
-102.992 -145.377 -2012 253 253 253
-99.2299 -145.729 -2017 253 253 253
-95.2599 -145.791 -2018 253 253 253
-91.3318 -145.927 -2020 253 253 253
-87.3965 -146.063 -2022 253 253 253
-83.7013 -146.632 -2030 253 253 253
-80.0928 -147.419 -2041 253 253 253
-76.2547 -147.845 -2047 253 253 253
-72.5344 -148.56 -2057 253 253 253
-68.4423 -148.553 -2057 253 253 253
-64.3505 -148.546 -2057 253 253 253
-60.2888 -148.612 -2058 252 252 252
-56.36 -149.04 -2064 253 253 253
-52.4078 -149.468 -2070 254 254 254
-48.5021 -150.113 -2079 255 255 255
-44.6251 -150.975 -2091 255 255 255
-40.6426 -151.621 -2100 254 254 254
-36.6421 -152.339 -2110 253 253 254
-32.6022 -153.058 -2120 254 254 255
-227.387 -155.074 -2082 128 127 133
-220.306 -153.04 -2055 230 227 235
-214.177 -151.604 -2036 242 242 254
-209.57 -151.21 -2031 242 243 255
-204.884 -150.743 -2025 243 245 255
-200.323 -150.35 -2020 245 246 255
-195.784 -149.958 -2015 246 248 255
-191.742 -149.939 -2015 244 246 254
-187.143 -149.473 -2009 242 245 253
-182.843 -149.232 -2006 241 241 251
-178.556 -148.991 -2003 245 245 251
-174.632 -149.047 -2004 252 252 254
-170.279 -148.732 -2000 253 253 255
-166.525 -148.939 -2003 253 253 255
-162.842 -149.22 -2007 253 253 255
-159.065 -149.427 -2010 253 253 255
-155.277 -149.634 -2013 253 253 254
-151.479 -149.842 -2016 253 253 255
-147.45 -149.827 -2016 253 253 255
-143.423 -149.812 -2016 253 253 255
-139.397 -149.798 -2016 253 253 255
-135.237 -149.636 -2014 252 252 254
-131.217 -149.622 -2014 252 252 254
-127.072 -149.461 -2012 253 253 254
-122.874 -149.226 -2009 253 253 253
-118.631 -148.916 -2005 253 253 253
-114.747 -149.053 -2007 253 253 253
-110.691 -148.968 -2006 253 253 253
-107.065 -149.477 -2013 253 253 253
-103.156 -149.615 -2015 253 253 253
-99.3381 -149.902 -2019 253 253 253
-95.2692 -149.818 -2018 253 253 253
-91.3409 -149.957 -2020 253 253 253
-87.3187 -149.948 -2020 253 253 253
-83.5859 -150.459 -2027 253 253 253
-79.8258 -150.971 -2034 253 253 253
-76.2995 -152.002 -2048 253 253 253
-72.5063 -152.588 -2056 253 253 253
-68.4489 -152.655 -2057 254 254 254
-64.4508 -152.871 -2060 255 255 255
-60.3532 -152.865 -2060 253 253 253
-56.4474 -153.379 -2067 254 254 254
-52.4635 -153.744 -2072 252 252 252
-48.6235 -154.63 -2084 252 252 252
-44.6295 -155.145 -2091 253 253 253
-40.6079 -155.66 -2098 252 252 252
-36.5588 -156.175 -2105 253 253 253
-32.4977 -156.765 -2113 254 254 254
-227.301 -159.166 -2081 119 118 124
-220.543 -157.308 -2057 226 223 231
-214.304 -155.756 -2037 242 243 254
-209.592 -155.275 -2031 242 243 255
-204.905 -154.795 -2025 242 245 255
-200.443 -154.469 -2021 244 246 255
-195.901 -154.066 -2016 246 247 255
-191.762 -153.97 -2015 243 246 255
-187.348 -153.645 -2011 241 244 253
-182.952 -153.32 -2007 241 242 252
-178.663 -153.072 -2004 242 242 250
-174.475 -152.901 -2002 249 249 254
-170.04 -152.502 -1997 253 254 255
-166.292 -152.714 -2000 252 253 255
-162.696 -153.079 -2005 253 253 255
-159.002 -153.368 -2009 253 253 255
-155.216 -153.58 -2012 253 253 254
-151.494 -153.87 -2016 252 252 254
-147.465 -153.854 -2016 253 253 255
-143.508 -153.916 -2017 253 253 255
-139.549 -153.978 -2018 253 253 255
-135.452 -153.887 -2017 253 253 255
-131.296 -153.721 -2015 252 252 253
-127.211 -153.632 -2014 252 252 253
-123.07 -153.466 -2012 253 253 253
-118.761 -153.072 -2007 253 253 253
-114.816 -153.137 -2008 253 253 253
-110.867 -153.201 -2009 253 253 253
-107.076 -153.495 -2013 253 253 253
-103.013 -153.408 -2012 253 253 253
-99.4466 -154.084 -2021 253 253 253
-95.3261 -153.922 -2019 253 253 253
-91.3952 -154.065 -2021 253 253 253
-87.4139 -154.132 -2022 253 253 253
-83.6768 -154.656 -2029 253 253 253
-79.9909 -155.334 -2038 253 253 253
-76.2699 -156.012 -2047 253 253 253
-72.443 -156.538 -2054 253 253 253
-68.4559 -156.759 -2057 253 253 253
-64.4572 -156.981 -2060 253 253 253
-60.3301 -156.899 -2059 252 252 252
-56.3438 -157.197 -2063 253 253 253
-52.4435 -157.801 -2071 253 253 253
-48.5118 -158.406 -2079 253 253 253
-44.5486 -159.011 -2087 253 253 253
-40.554 -159.616 -2095 252 252 252
-36.5278 -160.221 -2103 252 252 252
-32.5009 -160.98 -2113 254 254 254
-28.5149 -162.196 -2129 253 253 255
-24.5111 -163.717 -2149 197 197 199
-228.417 -164.12 -2091 114 113 120
-220.78 -161.584 -2059 222 221 229
-214.221 -159.757 -2036 240 242 252
-209.613 -159.342 -2031 240 242 253
-205.23 -159.085 -2028 240 243 255
-200.662 -158.671 -2023 242 244 255
-196.116 -158.258 -2018 244 245 255
-191.972 -158.159 -2017 242 244 254
-187.554 -157.825 -2013 240 243 252
-183.154 -157.492 -2009 241 242 252
-178.682 -157.081 -2004 242 242 250
-174.58 -156.984 -2003 246 245 252
-170.228 -156.653 -1999 251 253 255
-166.393 -156.791 -2001 251 253 255
-162.632 -157.009 -2004 253 253 255
-158.86 -157.227 -2007 253 253 255
-155.078 -157.446 -2010 253 253 255
-151.435 -157.821 -2015 253 253 255
-147.407 -157.805 -2015 252 252 254
-143.523 -157.947 -2017 253 253 255
-139.633 -158.088 -2019 254 254 255
-135.601 -158.074 -2019 253 253 255
-131.505 -157.981 -2018 252 252 252
-127.414 -157.89 -2017 252 252 252
-123.328 -157.798 -2016 253 253 253
-118.951 -157.316 -2010 253 253 253
-114.828 -157.147 -2008 253 253 253
-110.824 -157.135 -2008 253 253 253
-107.087 -157.515 -2013 253 253 253
-103.023 -157.426 -2012 253 253 253
-99.3092 -157.885 -2018 253 253 253
-95.3832 -158.031 -2020 253 253 253
-91.45 -158.178 -2022 253 253 253
-87.423 -158.168 -2022 253 253 253
-83.6854 -158.707 -2029 253 253 253
-79.8421 -159.089 -2034 253 253 253
-76.166 -159.863 -2044 253 253 253
-72.4153 -160.559 -2053 253 253 253
-68.4962 -160.943 -2058 253 253 253
-64.4953 -161.17 -2061 253 253 253
-60.4828 -161.398 -2064 253 253 253
-56.5136 -161.783 -2069 253 253 253
-52.5755 -162.325 -2076 253 253 253
-48.6101 -162.867 -2083 253 253 253
-44.6172 -163.409 -2090 253 253 253
-40.5581 -163.796 -2095 252 252 252
-36.4969 -164.261 -2101 252 252 252
-32.4889 -165.117 -2112 253 253 253
