ply
format ascii 1.0
comment Created by Open3D
element vertex 1469
property double x
property double y
property double z
property uchar red
property uchar green
property uchar blue
end_header
-146.295 -350.878 -2100 65 66 80
-141.53 -349.509 -2092 60 61 75
-137.06 -348.809 -2088 53 54 68
-132.734 -348.445 -2086 48 49 63
-128.356 -347.914 -2083 44 44 58
-124.111 -347.718 -2082 42 42 56
-119.928 -347.691 -2082 45 45 59
-115.746 -347.664 -2082 47 48 62
-111.458 -347.304 -2080 47 47 61
-107.024 -346.445 -2075 46 45 59
-102.76 -346.087 -2073 42 42 56
-98.5042 -345.731 -2071 43 43 57
-94.212 -345.208 -2068 43 41 58
-90.0198 -345.02 -2067 43 41 57
-86.04 -345.668 -2071 42 40 56
-81.8076 -345.315 -2069 45 43 60
-77.6215 -345.13 -2068 44 42 59
-73.511 -345.28 -2069 45 43 60
-69.4307 -345.598 -2071 46 44 62
-65.2483 -345.416 -2070 48 46 64
-61.1001 -345.401 -2070 48 46 63
-57.0348 -345.889 -2073 46 44 60
-52.8815 -345.876 -2073 43 42 57
-48.7286 -345.865 -2073 42 41 55
-44.5331 -345.521 -2071 42 41 55
-40.4045 -345.678 -2072 42 41 56
-36.2372 -345.502 -2071 44 42 57
-32.1206 -345.828 -2073 44 43 57
-27.9558 -345.655 -2072 43 42 56
-23.8414 -346.149 -2075 43 42 56
-19.7055 -346.478 -2077 43 42 56
-15.5692 -346.975 -2080 46 45 60
-11.41 -347.138 -2081 53 52 67
-7.25417 -347.637 -2084 53 52 66
-3.08463 -347.969 -2086 48 46 61
1.09289 -348.303 -2088 46 43 58
5.28069 -348.804 -2091 46 45 59
9.48081 -349.306 -2094 48 47 61
13.6734 -349.309 -2094 51 50 64
17.8832 -349.646 -2096 52 51 65
22.1012 -349.984 -2098 51 50 64
26.327 -350.323 -2100 52 51 65
30.5904 -350.997 -2104 54 53 67
34.8701 -351.672 -2108 54 53 67
39.2032 -352.681 -2114 50 49 62
43.4784 -353.024 -2116 48 47 60
47.8747 -354.202 -2123 52 51 63
52.2013 -354.714 -2126 52 51 66
56.5668 -355.394 -2130 51 50 66
-175.06 -362.327 -2141 183 185 203
-170.426 -361.61 -2137 109 111 128
-165.731 -360.726 -2132 50 51 67
-160.83 -359.335 -2124 57 58 73
-155.668 -357.268 -2112 54 55 70
-150.77 -355.711 -2103 58 60 74
-146.05 -354.493 -2096 57 59 72
-141.562 -353.783 -2092 47 48 62
-137.091 -353.075 -2088 39 41 54
-132.701 -352.537 -2085 40 42 55
-128.509 -352.507 -2085 43 43 57
-124.139 -351.971 -2082 47 46 59
-119.782 -351.436 -2079 50 49 61
-115.661 -351.578 -2080 48 49 62
-111.376 -351.214 -2078 47 47 60
-106.945 -350.344 -2073 45 43 60
-102.684 -349.982 -2071 46 46 61
-98.6692 -350.466 -2074 53 54 68
-94.1878 -349.261 -2067 54 52 69
-89.9967 -349.07 -2066 60 58 74
-85.9765 -349.557 -2069 59 58 72
-81.7471 -349.2 -2067 49 48 64
-77.6015 -349.182 -2067 46 44 61
-73.4922 -349.334 -2068 44 42 59
-69.413 -349.655 -2070 46 44 62
-65.2632 -349.64 -2070 46 44 63
-61.1435 -349.794 -2071 49 47 64
-57.0203 -349.95 -2072 47 45 62
-52.8424 -349.768 -2071 43 41 58
-48.6927 -349.757 -2071 41 40 54
-44.5218 -349.577 -2070 41 40 53
-40.4331 -350.074 -2073 43 42 54
-36.2454 -349.728 -2071 48 47 60
-32.1279 -350.057 -2073 51 50 64
-27.9892 -350.219 -2074 53 52 66
-23.8582 -350.551 -2076 52 51 65
-19.7194 -350.884 -2078 46 45 59
-15.5728 -351.218 -2080 45 44 60
-11.4292 -351.89 -2084 48 46 63
-7.25574 -351.888 -2084 48 47 60
-3.08529 -352.224 -2086 47 44 59
1.09314 -352.562 -2088 48 44 59
5.28465 -353.238 -2092 47 46 60
9.48317 -353.578 -2094 47 46 60
13.6764 -353.58 -2094 48 47 61
17.8786 -353.753 -2095 49 48 62
22.1166 -354.433 -2099 47 46 60
26.3456 -354.776 -2101 47 46 60
30.5683 -354.951 -2102 50 49 63
34.8615 -355.803 -2107 50 49 63
39.1379 -356.318 -2110 48 47 59
43.4471 -357.003 -2114 50 49 61
47.8406 -358.196 -2121 51 50 62
52.2623 -359.39 -2128 53 51 67
56.5531 -359.571 -2129 57 55 72
60.7055 -358.909 -2125 53 52 66
-174.856 -366.194 -2138 70 72 90
-170.066 -365.126 -2132 56 57 75
-165.847 -365.258 -2133 53 54 70
-160.564 -362.994 -2120 56 57 73
-155.851 -361.93 -2114 49 50 65
-150.59 -359.498 -2100 47 50 63
-146.153 -358.95 -2097 44 46 59
-141.527 -357.889 -2091 40 41 55
-136.991 -357.001 -2086 36 37 51
-132.604 -356.457 -2083 40 40 54
-128.354 -356.255 -2082 44 43 57
-124.108 -356.055 -2081 47 46 59
-119.868 -355.856 -2080 50 49 62
-115.632 -355.657 -2079 48 49 62
-111.402 -355.46 -2078 45 45 59
-107.228 -355.434 -2078 46 44 61
-102.955 -355.068 -2076 54 54 69
-98.8347 -355.216 -2077 71 71 85
-94.4375 -354.338 -2072 70 69 84
-90.0609 -353.462 -2067 71 70 85
-85.9962 -353.783 -2069 74 73 87
-81.8451 -353.764 -2069 55 53 70
-77.6195 -353.403 -2067 51 49 66
-73.4736 -353.386 -2067 52 50 67
-69.3619 -353.54 -2068 52 50 68
-65.2151 -353.525 -2068 48 46 65
-61.0394 -353.339 -2067 48 46 63
-57.0059 -354.009 -2071 46 44 61
-52.8802 -354.168 -2072 42 40 57
-48.7273 -354.156 -2072 42 40 55
-44.618 -354.487 -2074 42 41 55
-40.4814 -354.648 -2075 48 47 59
-36.2888 -354.297 -2073 53 52 65
-32.1508 -354.46 -2074 52 51 65
-28.0226 -354.795 -2076 50 49 63
-23.8867 -355.131 -2078 48 47 61
-19.7335 -355.297 -2079 46 45 59
-15.5837 -355.635 -2081 47 46 60
-11.4427 -356.486 -2086 47 46 60
-7.2643 -356.484 -2086 47 46 58
-3.08892 -356.824 -2088 47 44 58
1.09393 -356.995 -2089 47 43 58
5.2909 -357.85 -2094 47 46 60
9.48076 -357.681 -2093 46 45 59
13.6928 -358.197 -2096 44 43 57
17.8914 -358.2 -2096 43 42 56
22.1112 -358.547 -2098 43 42 56
26.3392 -358.894 -2100 44 43 57
30.6045 -359.584 -2104 47 46 60
34.8199 -359.592 -2104 48 47 61
39.1285 -360.455 -2109 50 49 63
43.4367 -361.148 -2113 49 48 62
47.829 -362.355 -2120 50 49 61
52.2745 -363.734 -2128 51 49 65
56.6194 -364.26 -2131 53 51 68
60.891 -364.273 -2131 55 54 67
65.0716 -363.775 -2128 59 58 71
-179.88 -372 -2146 42 44 60
-175.142 -371.091 -2141 51 53 71
-170.026 -369.317 -2131 52 54 71
-165.496 -368.758 -2128 54 55 71
-160.298 -366.64 -2116 50 51 66
-155.371 -365.044 -2107 51 52 66
-150.625 -363.795 -2100 41 44 57
-145.978 -362.721 -2094 35 38 51
-141.492 -361.994 -2090 38 39 53
-137.023 -361.269 -2086 40 41 55
-132.826 -361.237 -2086 42 42 56
-128.384 -360.514 -2082 44 43 57
-124.018 -359.965 -2079 45 44 58
-119.723 -359.59 -2077 47 46 60
-115.437 -359.216 -2075 46 47 61
-111.106 -358.67 -2072 46 47 61
-107.046 -358.991 -2074 53 51 67
-102.781 -358.62 -2072 66 65 79
-98.715 -358.942 -2074 84 83 97
-94.3683 -358.228 -2070 73 72 86
-89.9948 -357.341 -2065 69 68 82
-86.0578 -358.185 -2070 75 74 88
-81.9037 -358.166 -2070 55 54 70
-77.6374 -357.628 -2067 51 49 66
-73.4551 -357.437 -2066 53 51 68
-69.3781 -357.766 -2068 51 49 67
-65.1357 -357.232 -2065 48 46 64
-60.965 -357.044 -2064 49 47 64
-56.909 -357.549 -2067 45 43 60
-52.8159 -357.882 -2069 42 41 56
-48.6682 -357.87 -2069 48 47 61
-44.6069 -358.551 -2073 53 52 66
-40.4909 -358.887 -2075 54 53 65
-36.3322 -358.878 -2075 51 50 63
-32.1738 -358.87 -2075 47 46 60
-28.0292 -359.036 -2076 47 46 60
-23.8807 -359.203 -2077 47 46 60
-19.757 -359.89 -2081 47 46 60
-15.595 -360.058 -2082 46 45 59
-11.44 -360.574 -2085 43 42 56
-7.25546 -360.226 -2083 42 41 53
-3.08959 -361.09 -2088 42 40 54
1.09315 -360.916 -2087 43 40 55
5.28199 -361.436 -2090 42 41 55
9.45572 -360.919 -2087 42 41 55
13.6828 -362.132 -2094 42 41 55
17.8701 -361.963 -2093 41 40 54
22.1164 -362.832 -2098 41 40 54
26.3203 -362.838 -2098 44 43 57
30.568 -363.364 -2101 46 45 59
34.7785 -363.371 -2101 48 47 61
39.119 -364.591 -2108 49 48 62
43.4262 -365.292 -2112 49 48 62
47.8402 -366.687 -2120 52 51 63
52.1882 -367.39 -2124 55 53 69
56.606 -368.441 -2130 55 53 69
60.7625 -367.763 -2126 59 58 70
65.0867 -368.124 -2128 68 67 80
-185.543 -379.072 -2161 61 63 79
-179.336 -375.17 -2139 63 65 81
-174.692 -374.426 -2135 59 61 79
-169.588 -372.631 -2125 56 58 75
-164.991 -371.89 -2121 55 56 72
-160.033 -370.273 -2112 52 53 68
-155.408 -369.359 -2107 46 47 61
-150.589 -367.92 -2099 41 44 57
-145.943 -366.834 -2093 33 36 49
-141.526 -366.273 -2090 35 36 50
-137.056 -365.54 -2086 38 39 53
-132.73 -365.157 -2084 39 40 54
-128.414 -364.775 -2082 41 40 54
-124.047 -364.22 -2079 43 42 56
-119.578 -363.315 -2074 45 44 58
-115.519 -363.638 -2076 45 46 60
-111.4 -363.786 -2077 49 49 63
-107.123 -363.41 -2075 56 55 69
-103.004 -363.56 -2076 66 65 80
-98.8335 -363.536 -2076 80 79 93
-94.5729 -363.162 -2074 69 68 82
-90.1031 -361.915 -2067 67 66 80
-85.995 -362.069 -2068 70 69 83
-81.8834 -362.224 -2069 51 49 66
-77.5055 -361.155 -2063 50 48 65
-73.4369 -361.487 -2065 53 51 68
-69.2602 -361.295 -2064 49 47 64
-65.0879 -361.104 -2063 45 43 60
-60.9499 -361.089 -2063 44 42 59
-56.8949 -361.6 -2066 44 42 58
-52.8539 -362.287 -2070 44 43 57
-48.6796 -362.101 -2069 48 47 61
-44.6389 -362.965 -2074 49 48 62
-40.5004 -363.129 -2075 48 47 59
-36.3758 -363.47 -2077 46 45 58
-32.1814 -363.112 -2075 47 46 60
-28.0898 -363.98 -2080 48 47 61
-23.8978 -363.624 -2078 45 44 58
-19.7616 -364.144 -2081 44 43 57
-15.606 -364.489 -2083 46 45 59
-11.4481 -365.011 -2086 45 44 58
-7.26082 -364.659 -2084 44 43 55
-3.09175 -365.533 -2089 44 43 56
1.09394 -365.358 -2088 44 43 57
5.28826 -366.058 -2092 42 41 55
9.47173 -365.71 -2090 41 41 55
13.6928 -366.588 -2095 42 41 55
17.8656 -366.067 -2092 42 41 55
22.1323 -367.296 -2099 42 41 55
26.314 -366.952 -2097 43 42 56
30.5606 -367.484 -2100 45 44 58
34.7867 -367.666 -2101 47 46 60
39.0725 -368.375 -2105 48 47 61
43.416 -369.435 -2111 50 49 63
47.7611 -370.321 -2116 53 52 64
52.1514 -371.383 -2122 54 52 68
56.3801 -371.221 -2121 57 55 71
60.5481 -370.71 -2118 62 61 74
-184.213 -380.665 -2145 58 60 76
-178.54 -377.781 -2129 52 54 70
-173.998 -377.207 -2126 48 50 67
-169.229 -376.101 -2120 54 56 73
-164.486 -374.996 -2114 51 52 67
-159.768 -373.893 -2108 50 51 65
-155.224 -373.146 -2104 48 49 63
-150.338 -371.513 -2095 40 43 56
-145.978 -371.122 -2093 35 37 51
-141.424 -370.201 -2088 36 37 51
-137.023 -369.636 -2085 40 41 55
-132.762 -369.426 -2084 38 39 53
-128.383 -368.863 -2081 39 38 52
-124.077 -368.478 -2079 41 40 54
-119.664 -367.74 -2075 45 44 58
-115.38 -367.357 -2073 44 45 59
-111.266 -367.507 -2074 45 45 59
-107.045 -367.304 -2073 46 45 60
-102.929 -367.456 -2074 54 53 68
-98.7142 -367.254 -2073 67 66 81
-94.5043 -367.054 -2072 58 57 72
-90.0811 -365.969 -2066 57 56 71
-85.9323 -365.948 -2066 65 64 79
-81.7446 -365.751 -2065 50 48 65
-77.524 -365.377 -2063 52 50 67
-73.2765 -364.828 -2060 50 48 65
-69.2431 -365.342 -2063 50 48 65
-65.072 -365.149 -2062 46 44 61
-60.9939 -365.488 -2064 45 44 59
-56.9359 -366.005 -2067 49 48 62
-52.8665 -366.523 -2070 49 48 62
-48.6912 -366.334 -2069 48 47 61
-44.671 -367.385 -2075 46 45 59
-40.4905 -367.198 -2074 47 46 58
-36.3844 -367.72 -2077 46 45 58
-32.22 -367.711 -2077 46 45 58
-28.1099 -368.412 -2081 45 44 58
-23.9265 -368.229 -2080 44 43 57
-19.7853 -368.755 -2083 44 43 57
-15.6173 -368.928 -2084 46 45 60
-11.4507 -369.279 -2086 44 43 58
-7.27292 -369.453 -2087 44 43 56
-3.08973 -369.452 -2087 46 45 59
1.09473 -369.806 -2089 47 46 60
5.28697 -370.161 -2091 43 43 57
9.47392 -369.985 -2090 43 43 57
13.6828 -370.519 -2093 43 42 56
17.87 -370.346 -2092 45 44 58
22.1268 -371.413 -2098 44 43 57
26.3203 -371.242 -2097 42 41 55
30.5825 -371.957 -2101 41 40 54
34.7949 -371.965 -2101 44 43 57
39.1562 -373.39 -2109 42 41 55
43.3645 -373.223 -2108 46 45 58
47.7274 -374.296 -2114 53 52 64
51.9672 -374.308 -2114 55 53 69
56.2873 -374.852 -2117 55 53 70
60.3338 -373.627 -2110 61 60 74
-182.798 -382.015 -2128 46 48 64
-177.829 -380.535 -2120 50 52 68
-173.549 -380.492 -2120 49 51 67
-168.871 -379.553 -2115 48 50 66
-164.448 -379.154 -2113 49 50 64
-159.883 -378.396 -2109 48 49 63
-155.335 -377.64 -2105 44 45 59
-150.518 -376.168 -2097 39 42 55
-146.153 -375.773 -2095 36 38 52
-141.594 -374.841 -2090 34 35 49
-137.056 -373.911 -2085 36 37 51
-132.73 -373.519 -2083 35 36 50
-128.352 -372.949 -2080 40 39 53
-123.987 -372.381 -2077 44 43 57
-119.809 -372.351 -2077 45 44 58
-115.464 -371.785 -2074 43 44 58
-111.347 -371.936 -2075 42 42 57
-107.071 -371.551 -2073 43 41 58
-103.053 -372.063 -2076 50 48 65
-98.6905 -371.322 -2072 65 63 80
-94.5728 -371.478 -2073 57 55 72
-90.1901 -370.56 -2068 49 47 64
-85.9946 -370.359 -2067 62 60 77
-81.7643 -369.98 -2065 50 48 65
-77.4675 -369.244 -2061 48 46 63
-73.3298 -369.226 -2061 48 46 63
-69.2597 -369.567 -2063 48 46 63
-65.1192 -369.55 -2063 46 44 61
-61.0677 -370.073 -2066 47 46 60
-56.9773 -370.416 -2068 47 46 60
-52.8792 -370.761 -2070 48 47 61
-48.7265 -370.749 -2070 49 48 62
-44.6388 -371.275 -2073 50 49 63
-40.4808 -371.265 -2073 49 48 60
-36.3756 -371.793 -2076 46 45 57
-32.2433 -372.142 -2078 46 45 57
-28.1167 -372.672 -2081 46 45 58
-23.9208 -372.308 -2079 48 47 61
-19.7995 -373.198 -2084 47 46 60
-15.6285 -373.373 -2085 45 44 60
-11.4536 -373.549 -2086 45 43 59
-7.27459 -373.726 -2087 47 46 60
-3.09635 -374.441 -2091 47 47 61
1.0971 -374.799 -2093 48 47 61
5.29353 -374.799 -2093 46 47 61
9.49427 -374.98 -2094 43 43 57
13.7059 -375.341 -2096 43 42 56
17.9339 -375.882 -2099 42 41 55
22.1428 -375.887 -2099 39 38 52
26.3894 -376.43 -2102 38 37 51
30.6047 -376.437 -2102 38 37 51
34.853 -376.803 -2104 36 35 49
39.0727 -376.812 -2104 40 39 53
43.3134 -377.002 -2105 46 45 59
47.6487 -377.908 -2110 50 49 61
51.8815 -377.92 -2110 51 50 65
56.0083 -377.217 -2106 50 49 64
60.0623 -376.156 -2100 60 59 73
-182.241 -385.115 -2121 56 58 74
-178.04 -385.252 -2122 59 61 77
-173.673 -385.027 -2121 52 54 70
-169.072 -384.259 -2117 48 49 65
-164.41 -383.31 -2112 49 50 64
-159.77 -382.362 -2107 48 49 63
-155.447 -382.142 -2106 43 44 58
-150.77 -381.016 -2100 36 39 52
-146.119 -379.891 -2094 32 35 48
-141.561 -378.948 -2089 34 35 49
-137.155 -378.37 -2086 38 39 53
-132.635 -377.43 -2081 35 36 50
-128.569 -377.76 -2083 40 39 53
-124.077 -376.822 -2078 42 41 55
-119.895 -376.792 -2078 44 43 57
-115.548 -376.219 -2075 43 44 58
-111.32 -376.01 -2074 44 44 59
-106.994 -375.44 -2071 48 46 63
-102.88 -375.595 -2072 55 53 70
-98.524 -374.845 -2068 65 63 80
-94.3677 -374.821 -2068 52 50 67
-90.1248 -374.436 -2066 45 43 60
-85.9324 -374.233 -2065 55 53 70
-81.6258 -373.488 -2061 47 45 62
-77.524 -373.65 -2062 45 43 60
-73.3833 -373.631 -2062 49 47 64
-69.3439 -374.157 -2065 49 47 64
-65.1666 -373.959 -2064 48 46 63
-61.1714 -374.85 -2069 48 47 61
-56.9911 -374.654 -2068 45 44 58
-52.8921 -375.003 -2070 50 49 63
-48.7147 -374.809 -2069 51 50 64
-44.6496 -375.522 -2073 48 47 61
-40.4906 -375.512 -2073 47 46 58
-36.367 -375.865 -2075 45 44 56
-32.2356 -376.219 -2077 46 45 57
-28.11 -376.755 -2080 46 45 57
-23.9497 -376.93 -2081 50 49 61
-19.7949 -377.286 -2083 49 48 62
-15.6248 -377.463 -2084 48 46 63
-11.4507 -377.641 -2085 47 45 62
-7.27304 -377.82 -2086 46 47 61
-3.09262 -378.181 -2088 45 46 60
1.09581 -378.543 -2090 46 47 61
5.2872 -378.544 -2090 46 47 61
9.49224 -379.089 -2093 43 44 58
13.6961 -379.273 -2094 44 43 57
17.9042 -379.458 -2095 41 40 54
22.1377 -380.006 -2098 39 38 52
26.3959 -380.737 -2102 39 38 52
30.6267 -380.925 -2103 41 40 54
34.8948 -381.476 -2106 41 40 54
39.101 -381.304 -2105 41 40 54
43.3652 -381.677 -2107 43 42 56
47.57 -381.507 -2106 44 43 55
51.7466 -381.157 -2104 45 44 58
55.7293 -379.54 -2095 52 51 65
59.5908 -377.38 -2083 64 63 77
-177.497 -388.328 -2115 56 58 74
-173.471 -388.835 -2118 47 49 65
-168.954 -388.241 -2115 48 50 65
-164.451 -387.649 -2112 49 50 64
-160.038 -387.242 -2110 44 45 58
-155.56 -386.652 -2107 41 42 55
-150.88 -385.512 -2101 38 41 54
-146.504 -385.108 -2099 35 37 51
-141.731 -383.605 -2091 35 36 50
-137.189 -382.653 -2086 38 39 53
-132.604 -381.519 -2080 38 38 52
-128.539 -381.853 -2082 43 42 56
-124.168 -381.271 -2079 44 43 57
-119.925 -381.057 -2078 46 45 60
-115.632 -380.661 -2076 43 44 58
-111.348 -380.267 -2074 43 43 57
-107.021 -379.689 -2071 48 47 62
-102.905 -379.846 -2072 53 52 68
-98.5484 -379.088 -2068 61 59 76
-94.2541 -378.514 -2065 49 47 64
-90.278 -379.225 -2069 42 40 56
-85.9537 -378.47 -2065 49 48 63
-81.7253 -378.082 -2063 45 43 61
-77.6184 -378.246 -2064 46 44 62
-73.5082 -378.41 -2065 47 45 63
-69.3274 -378.209 -2064 48 46 63
-65.309 -378.925 -2068 48 46 63
-61.216 -379.276 -2070 46 45 59
-57.0879 -379.444 -2071 45 44 58
-52.9818 -379.797 -2073 52 51 65
-48.7503 -379.235 -2070 53 52 66
-44.6176 -379.407 -2071 47 46 60
-40.5005 -379.762 -2073 46 45 57
-36.3409 -379.753 -2073 46 45 57
-32.2591 -380.66 -2078 46 45 57
-28.117 -381.019 -2080 46 45 57
-23.9785 -381.562 -2083 48 47 59
-19.8282 -382.106 -2086 50 49 63
-15.6511 -382.285 -2087 49 48 63
-11.4702 -382.465 -2088 48 47 61
-7.27823 -382.279 -2087 46 47 60
-3.09481 -382.645 -2089 45 46 59
1.09661 -383.011 -2091 44 45 59
5.29859 -383.561 -2094 44 45 59
9.50812 -383.929 -2096 44 44 58
13.7061 -383.749 -2095 47 46 60
17.9173 -383.936 -2096 47 46 60
22.1432 -384.307 -2098 44 43 57
26.415 -385.229 -2103 41 40 54
30.6196 -385.053 -2102 41 40 54
34.9034 -385.794 -2106 44 43 57
39.1105 -385.62 -2105 43 42 58
43.3142 -385.447 -2104 45 44 58
47.4688 -384.909 -2101 42 41 53
51.784 -385.654 -2105 41 40 54
55.7965 -384.202 -2097 52 51 65
-182.16 -393.466 -2119 57 59 75
-178.045 -393.792 -2121 57 59 75
-174.006 -394.304 -2124 45 47 63
-169.396 -393.518 -2120 49 51 66
-164.726 -392.548 -2115 49 50 63
-160.23 -391.95 -2112 40 41 54
-155.672 -391.168 -2108 38 39 52
-150.774 -389.46 -2099 38 41 54
-146.331 -388.866 -2096 38 39 52
-141.496 -387.16 -2087 37 36 50
-137.026 -386.382 -2083 40 39 53
-132.574 -385.607 -2079 44 43 57
-128.386 -385.574 -2079 49 48 62
-124.079 -385.171 -2077 48 46 62
-119.84 -384.955 -2076 49 47 64
-115.549 -384.554 -2074 45 44 58
-111.268 -384.155 -2072 41 40 54
-106.892 -383.386 -2068 41 40 54
-102.881 -383.916 -2071 42 40 56
-98.5731 -383.334 -2068 49 47 64
-94.2776 -382.754 -2065 51 49 66
-90.3879 -383.843 -2071 43 41 57
-86.1 -383.264 -2068 44 43 57
-81.8249 -382.687 -2065 44 42 60
-77.7131 -382.853 -2066 45 43 62
-73.5978 -383.019 -2067 47 45 64
-69.5127 -383.372 -2069 48 46 64
-65.357 -383.355 -2069 48 46 63
-61.2904 -383.895 -2072 46 45 59
-57.1022 -383.694 -2071 46 45 59
-52.9695 -383.866 -2072 50 49 63
-48.8333 -384.038 -2073 51 50 64
-44.6718 -384.027 -2073 48 47 61
-40.4521 -383.46 -2070 47 46 58
-36.3499 -384.006 -2073 47 46 58
-32.2205 -384.368 -2075 46 45 57
-28.0834 -384.731 -2077 45 44 56
-23.9385 -385.095 -2079 46 45 58
-19.8237 -386.201 -2085 48 47 61
-15.6474 -386.382 -2086 52 51 65
-11.4564 -386.193 -2085 49 48 62
-7.27298 -386.191 -2085 44 45 57
-3.09108 -386.375 -2086 41 42 55
1.09532 -386.745 -2088 43 44 58
5.28723 -386.931 -2089 42 43 57
9.48319 -387.118 -2090 44 44 58
13.6963 -387.677 -2093 48 47 61
17.9048 -387.866 -2094 48 47 61
22.1488 -388.612 -2098 46 45 59
26.3964 -389.174 -2101 44 43 57
30.6418 -389.551 -2103 44 43 57
34.9454 -390.486 -2108 46 45 59
39.1948 -390.68 -2109 47 45 62
43.3867 -390.32 -2107 47 45 60
47.5711 -389.961 -2105 44 43 55
51.8461 -390.344 -2107 44 43 56
55.8104 -388.505 -2097 57 56 70
-182.292 -398.016 -2120 59 61 77
-178.51 -399.096 -2126 56 58 74
-174.214 -399.051 -2126 44 46 62
-169.839 -398.819 -2125 49 51 66
-165.157 -397.838 -2120 49 50 62
-160.574 -397.046 -2116 39 40 52
-155.786 -395.692 -2109 35 36 48
-151.099 -394.528 -2103 36 39 52
-146.508 -393.552 -2098 36 37 51
-141.803 -392.202 -2091 39 38 52
-137.324 -391.416 -2087 45 44 58
-132.735 -390.256 -2081 50 49 63
-128.542 -390.223 -2081 53 52 66
-124.051 -389.253 -2076 51 50 65
-119.755 -388.847 -2074 48 46 63
-115.467 -388.442 -2072 41 40 54
-111.296 -388.413 -2072 38 37 51
-106.919 -387.636 -2068 36 35 49
-102.758 -387.609 -2068 37 36 52
-98.5503 -387.396 -2067 48 46 63
-94.2102 -386.622 -2063 48 46 63
-90.3234 -387.723 -2069 43 41 58
-86.1635 -387.701 -2069 45 43 59
-82.0042 -387.679 -2069 45 43 61
-77.9585 -388.221 -2072 45 43 62
-73.7588 -388.014 -2071 46 44 63
-69.4967 -387.434 -2068 48 46 64
-65.3735 -387.604 -2069 47 45 62
-61.3356 -388.338 -2073 45 44 58
-57.1166 -387.948 -2071 46 45 59
-53.034 -388.496 -2074 44 43 57
-48.8927 -388.67 -2075 44 43 56
-44.6831 -388.284 -2073 46 45 57
-40.4818 -387.898 -2071 48 47 59
-36.3591 -388.263 -2073 47 46 58
-32.2131 -388.442 -2074 45 44 56
-28.0769 -388.809 -2076 44 43 55
-23.9561 -389.551 -2080 46 45 57
-19.7907 -389.733 -2081 47 46 60
-15.6214 -389.916 -2082 48 47 61
-11.4374 -389.725 -2081 46 45 59
-7.26425 -389.91 -2082 44 45 57
-3.08885 -390.283 -2084 39 40 53
1.09456 -390.658 -2086 42 43 57
5.29359 -391.595 -2091 42 43 57
9.49484 -391.784 -2092 42 43 57
13.6999 -391.974 -2093 46 45 59
17.9006 -391.978 -2093 48 47 61
22.1439 -392.732 -2097 47 46 60
26.3654 -392.926 -2098 44 43 57
30.6352 -393.682 -2102 44 43 57
34.921 -394.44 -2106 45 44 58
39.1862 -394.824 -2108 44 42 59
43.3977 -394.647 -2107 44 42 57
47.651 -394.846 -2108 44 43 55
51.9333 -395.233 -2110 48 47 60
-183.543 -405.04 -2134 58 60 76
-178.892 -404.234 -2130 56 58 74
-174.34 -403.619 -2127 45 47 63
-169.802 -403.006 -2124 48 49 65
-165.2 -402.204 -2120 46 47 59
-160.615 -401.403 -2116 39 40 52
-155.826 -400.034 -2109 36 37 49
-150.994 -398.477 -2101 35 38 51
-146.336 -397.301 -2095 37 38 52
-141.771 -396.316 -2090 42 41 55
-137.228 -395.332 -2085 50 49 63
-132.769 -394.538 -2081 52 51 65
-128.389 -393.936 -2078 50 49 63
-124.023 -393.335 -2075 50 48 64
-119.728 -392.924 -2073 47 45 62
-115.441 -392.515 -2071 41 40 54
-111.325 -392.675 -2072 38 37 51
-106.999 -392.079 -2069 35 34 48
-102.834 -392.052 -2069 37 36 52
-98.6232 -391.836 -2068 48 46 63
-94.3256 -391.243 -2065 48 46 63
-90.5213 -392.735 -2073 47 45 62
-86.1855 -391.954 -2069 54 52 69
-81.9854 -391.743 -2068 51 49 68
-78.016 -392.67 -2073 46 44 62
-73.7421 -392.082 -2070 45 43 61
-69.548 -391.874 -2069 46 44 61
-65.4534 -392.236 -2071 47 45 62
-61.292 -392.219 -2071 45 44 58
-57.076 -391.825 -2069 47 46 60
-52.9708 -392.19 -2071 44 43 57
-48.8344 -392.366 -2072 45 44 57
-44.673 -392.354 -2072 46 45 57
-40.5117 -392.343 -2072 49 48 60
-36.3508 -392.334 -2072 49 48 60
-32.2214 -392.703 -2074 47 46 58
-28.0977 -393.264 -2077 43 42 54
-23.9161 -393.068 -2076 44 43 56
-19.7767 -393.63 -2079 45 44 58
-15.603 -393.626 -2079 44 43 58
-11.4347 -393.812 -2080 43 42 57
-7.26277 -393.999 -2081 43 45 58
-3.08662 -394.187 -2082 37 39 52
1.09379 -394.565 -2084 39 41 55
5.28756 -395.323 -2088 41 42 56
9.48356 -395.514 -2089 44 44 58
13.6839 -395.707 -2090 46 45 59
17.9052 -396.279 -2093 46 45 59
22.139 -396.852 -2096 46 45 59
26.3847 -397.426 -2099 44 43 57
30.6284 -397.812 -2101 43 42 56
34.9134 -398.578 -2105 43 42 56
39.2146 -399.345 -2109 43 42 56
43.45 -399.356 -2109 42 41 55
47.7762 -400.125 -2113 44 43 53
52.1435 -401.085 -2118 54 53 67
-178.518 -407.666 -2125 66 68 82
-174.14 -407.428 -2124 51 53 67
-169.766 -407.192 -2123 49 52 65
-165.087 -406.189 -2118 45 46 58
-160.581 -405.571 -2115 39 40 53
-155.866 -404.379 -2109 38 39 52
-151.249 -403.38 -2104 35 38 51
-146.584 -402.192 -2098 37 39 52
-141.944 -401.004 -2092 46 45 59
-137.395 -400.009 -2087 53 52 66
-132.867 -399.015 -2082 52 51 65
-128.546 -398.598 -2080 47 46 60
-123.995 -397.415 -2074 45 44 59
-119.816 -397.384 -2074 42 40 57
-115.582 -397.162 -2073 40 39 53
-111.3 -396.749 -2071 40 39 53
-107.078 -396.529 -2070 38 37 51
-103.01 -396.885 -2072 39 37 54
-98.6965 -396.284 -2069 44 42 59
-94.4871 -396.067 -2068 49 47 66
-90.5883 -397.192 -2074 53 51 69
-86.3744 -396.978 -2073 66 64 81
-82.0463 -396.19 -2069 60 58 77
-77.9985 -396.743 -2072 49 47 65
-73.7611 -396.341 -2070 47 45 62
-69.5324 -395.939 -2068 45 43 60
-65.4387 -396.304 -2070 45 43 60
-61.219 -395.905 -2068 44 43 57
-57.0907 -396.081 -2069 44 43 57
-52.9845 -396.45 -2071 45 44 58
-48.8707 -396.819 -2073 47 46 59
-44.6845 -396.616 -2072 48 47 59
-40.5222 -396.605 -2072 50 49 61
-36.3603 -396.595 -2072 49 48 60
-32.2452 -397.16 -2075 48 47 59
-28.0642 -396.961 -2074 43 42 54
-23.9222 -397.337 -2076 44 43 56
-19.7532 -397.331 -2076 45 44 58
-15.5993 -397.709 -2078 44 42 58
-11.4323 -397.897 -2079 41 40 55
-7.26454 -398.278 -2081 44 46 60
-3.09329 -399.233 -2086 39 41 54
1.09619 -399.616 -2088 39 41 54
5.29649 -400.191 -2091 40 41 55
9.50434 -400.576 -2093 41 42 56
13.7135 -400.77 -2094 44 43 57
17.9441 -401.348 -2097 45 44 58
22.1764 -401.736 -2099 45 44 58
26.3917 -401.743 -2099 42 41 56
30.6508 -402.324 -2102 42 41 55
34.8892 -402.524 -2103 43 42 56
39.2248 -403.682 -2109 42 41 54
43.4407 -403.502 -2108 43 42 54
47.8112 -404.662 -2114 46 46 57
52.28 -406.398 -2123 59 59 71
-178.565 -412.05 -2125 57 62 76
-174.185 -411.81 -2124 55 57 71
-169.571 -410.989 -2120 49 51 66
-165.052 -410.363 -2117 45 46 60
-160.471 -409.545 -2113 40 40 53
-155.907 -408.728 -2109 39 39 52
-151.145 -407.331 -2102 37 38 51
-146.552 -406.323 -2097 40 40 54
-142.049 -405.51 -2093 47 46 60
-137.299 -403.923 -2085 53 52 66
-132.838 -403.112 -2081 54 53 67
-128.456 -402.497 -2078 50 49 63
-124.028 -401.689 -2074 46 45 60
-119.79 -401.463 -2073 41 39 56
-115.613 -401.432 -2073 38 37 51
-111.436 -401.402 -2073 39 38 52
-107.106 -400.793 -2070 39 38 52
-103.087 -401.346 -2073 40 39 55
-98.7699 -400.739 -2070 50 50 66
-94.6489 -400.907 -2071 50 48 65
-90.6993 -401.85 -2076 54 52 68
-86.272 -400.666 -2070 60 58 75
-81.9488 -399.869 -2066 53 52 67
-77.8683 -400.235 -2068 48 46 62
-73.7447 -400.409 -2069 47 45 62
-69.517 -400.003 -2067 46 44 61
-65.4241 -400.372 -2069 44 42 59
-61.2647 -400.356 -2069 44 43 57
-57.0505 -399.953 -2067 45 44 58
-52.8959 -399.939 -2067 47 46 60
-48.8126 -400.506 -2070 48 47 59
-44.6314 -400.3 -2069 49 48 60
-40.5132 -400.676 -2071 49 48 60
-36.4048 -401.246 -2074 49 48 60
-32.2692 -401.624 -2076 49 48 60
-28.0716 -401.229 -2074 46 45 57
-23.9399 -401.803 -2077 45 44 57
-19.7774 -401.991 -2078 47 46 60
-15.5884 -401.599 -2076 48 47 59
-11.4406 -402.369 -2080 42 41 54
-7.2768 -403.141 -2084 43 44 58
-3.09133 -403.139 -2084 39 40 54
1.09701 -404.106 -2089 40 41 55
5.2953 -404.301 -2090 40 41 57
9.50673 -404.883 -2093 41 42 57
13.7237 -405.273 -2095 42 43 57
17.9575 -405.858 -2098 45 43 59
22.2034 -406.443 -2101 44 42 59
26.4112 -406.256 -2100 41 39 56
30.659 -406.65 -2102 39 38 53
34.8984 -406.853 -2103 41 40 54
39.198 -407.636 -2107 43 42 52
43.4314 -407.647 -2107 40 40 51
47.8462 -409.207 -2115 42 43 55
-173.739 -415.019 -2118 48 50 66
-169.456 -414.973 -2118 48 50 66
-165.018 -414.537 -2116 45 46 62
-160.589 -414.102 -2114 43 42 56
-156.022 -413.276 -2110 45 44 56
-151.401 -412.256 -2105 45 44 56
-146.871 -411.432 -2101 46 45 57
-142.018 -409.631 -2092 50 49 63
-137.401 -408.42 -2086 54 53 67
-132.873 -407.405 -2081 53 52 66
-128.49 -406.783 -2078 48 47 61
-124.24 -406.553 -2077 45 43 59
-119.995 -406.325 -2076 42 40 57
-115.699 -405.902 -2074 40 38 53
-111.466 -405.676 -2073 37 36 51
-107.186 -405.256 -2071 35 34 48
-103.064 -405.423 -2072 38 38 54
-98.7484 -404.81 -2069 56 57 73
-94.5825 -404.784 -2069 59 58 72
-90.5049 -405.151 -2071 58 57 72
-86.0446 -403.758 -2064 59 58 75
-81.8515 -403.54 -2063 53 52 66
-77.8136 -404.105 -2066 48 47 61
-73.6573 -404.085 -2066 48 46 63
-69.5017 -404.066 -2066 47 45 62
-65.4415 -404.635 -2069 46 44 61
-61.2808 -404.618 -2069 46 45 59
-57.1208 -404.603 -2069 47 46 60
-52.9099 -404.197 -2067 49 48 62
-48.8255 -404.77 -2070 49 48 60
-44.6431 -404.562 -2069 49 48 60
-40.5239 -404.942 -2071 50 49 61
-36.4144 -405.518 -2074 49 48 60
-32.2932 -406.096 -2077 47 46 58
-28.1196 -406.088 -2077 45 44 56
-23.9692 -406.472 -2079 42 41 53
-19.7921 -406.466 -2079 42 41 55
-15.6301 -406.852 -2081 44 43 57
-11.4492 -406.849 -2081 43 42 55
-7.28585 -407.824 -2086 44 45 59
-3.09654 -408.018 -2087 40 41 55
1.09835 -408.8 -2091 39 40 54
5.30679 -409.387 -2094 38 39 54
9.52758 -409.976 -2097 40 41 55
13.7406 -409.979 -2097 41 42 56
17.9965 -410.96 -2102 40 39 55
22.2304 -411.161 -2103 40 38 55
26.4433 -410.973 -2102 42 41 56
30.6378 -410.589 -2100 39 38 52
34.8247 -410.207 -2098 38 37 51
39.0409 -410.216 -2098 39 38 51
43.1543 -409.25 -2093 38 38 51
-173.294 -418.207 -2112 56 59 75
-169.101 -418.359 -2113 47 49 65
-164.75 -418.116 -2112 46 47 63
-160.253 -417.478 -2109 48 48 61
-155.768 -416.842 -2106 55 54 66
-151.37 -416.404 -2104 56 55 68
-146.7 -415.177 -2098 53 52 66
-141.921 -413.555 -2090 53 52 66
-137.438 -412.726 -2086 52 51 65
-132.909 -411.7 -2081 48 47 61
-128.463 -410.874 -2077 42 41 55
-124.154 -410.444 -2075 39 38 53
-120.027 -410.609 -2076 40 38 55
-115.674 -409.984 -2073 42 41 57
-111.442 -409.756 -2072 43 42 58
-107.266 -409.726 -2072 42 41 55
-103.092 -409.698 -2072 41 42 57
-98.8225 -409.275 -2070 54 55 71
-94.6992 -409.447 -2071 63 64 78
-90.6602 -410.015 -2074 57 58 73
-86.0676 -408.015 -2064 58 59 75
-81.913 -407.992 -2064 57 56 70
-77.759 -407.971 -2064 50 49 63
-73.6413 -408.148 -2065 48 46 63
-69.5202 -408.326 -2066 46 44 61
-65.4588 -408.901 -2069 45 43 60
-61.2083 -408.291 -2066 44 43 57
-57.0808 -408.473 -2067 43 42 56
-52.8729 -408.063 -2065 45 44 58
-48.7205 -408.05 -2065 46 45 57
-44.6119 -408.432 -2067 48 47 59
-40.476 -408.618 -2068 48 47 59
-36.3715 -409.201 -2071 47 46 58
-32.2863 -410.179 -2076 46 45 57
-28.1407 -410.567 -2078 46 45 57
-24.0103 -411.35 -2082 42 41 54
-19.8354 -411.541 -2083 40 39 53
-15.6567 -411.734 -2084 42 41 55
-11.4686 -411.731 -2084 42 41 55
-7.29467 -412.519 -2088 41 42 56
-3.09582 -412.122 -2086 38 39 53
1.09865 -413.11 -2091 38 39 53
5.30588 -413.506 -2093 39 40 54
9.52548 -414.101 -2096 39 40 54
13.7441 -414.301 -2097 37 38 52
17.9842 -414.898 -2100 35 35 51
22.2152 -415.101 -2101 36 35 51
26.4251 -414.91 -2100 42 41 55
30.6315 -414.72 -2099 40 39 53
34.7509 -413.543 -2093 38 37 51
38.9025 -412.961 -2090 34 34 48
-168.827 -421.927 -2109 43 45 61
-164.561 -421.882 -2109 47 48 64
-160.372 -422.038 -2110 51 51 65
-155.959 -421.594 -2108 58 58 70
-151.267 -420.353 -2102 58 57 71
-146.74 -419.512 -2098 55 54 68
-142.027 -418.073 -2091 53 52 66
-137.409 -416.836 -2085 51 50 64
-132.945 -415.999 -2081 46 45 59
-128.683 -415.764 -2080 39 38 52
-124.307 -415.13 -2077 38 36 52
-119.944 -414.497 -2074 43 41 58
-115.705 -414.265 -2073 46 44 61
-111.365 -413.635 -2070 47 45 62
-107.244 -413.805 -2071 48 47 62
-103.07 -413.776 -2071 50 51 66
-98.7537 -413.15 -2068 64 65 81
-94.5876 -413.123 -2068 68 69 84
-90.4223 -413.098 -2068 60 61 77
-85.9658 -411.676 -2061 65 66 82
-81.816 -411.653 -2061 64 63 79
-77.7423 -412.031 -2063 52 50 66
-73.6255 -412.21 -2064 47 45 62
-69.5053 -412.39 -2065 46 44 61
-65.4132 -412.771 -2067 45 43 60
-61.2841 -412.954 -2068 42 41 55
-57.1515 -413.137 -2069 42 41 55
-53.0151 -413.322 -2070 44 43 57
-48.8045 -412.909 -2068 46 45 58
-44.6456 -412.896 -2068 48 47 59
-40.5065 -413.085 -2069 46 45 57
-36.3988 -413.673 -2072 46 45 57
-32.295 -414.462 -2076 45 44 56
-28.1618 -415.053 -2079 45 44 56
-24.0167 -415.645 -2082 45 44 56
-19.8503 -416.038 -2084 44 43 57
-15.661 -416.033 -2084 43 42 56
-11.4718 -416.03 -2084 42 41 55
-7.28255 -416.027 -2084 42 43 57
-3.09807 -416.625 -2087 41 42 56
1.09896 -417.423 -2091 42 43 57
5.3098 -418.023 -2094 40 41 55
9.52795 -418.424 -2096 35 36 50
13.7545 -418.827 -2098 33 34 48
17.9891 -419.23 -2100 33 33 49
22.2317 -419.635 -2102 35 36 51
26.4324 -419.242 -2100 43 42 56
30.6105 -418.651 -2097 41 40 54
34.6939 -417.063 -2089 37 36 50
-164.606 -426.245 -2109 47 48 64
-160.416 -426.403 -2110 48 49 62
-155.779 -425.349 -2105 53 54 67
-151.308 -424.7 -2102 56 55 68
-146.64 -423.447 -2096 53 52 66
-142.066 -422.397 -2091 50 49 63
-137.513 -421.349 -2086 47 46 60
-133.045 -420.504 -2082 43 42 56
-128.718 -420.064 -2080 40 39 53
-124.341 -419.423 -2077 39 38 53
-120.035 -418.986 -2075 42 40 57
-115.681 -418.348 -2072 46 44 61
-111.449 -418.114 -2071 47 45 62
-107.221 -417.883 -2070 48 46 63
-102.949 -417.45 -2068 51 51 67
-98.6851 -417.019 -2066 64 65 81
-94.5677 -417.194 -2067 73 74 90
-90.447 -417.371 -2068 62 63 79
-85.9058 -415.53 -2059 68 68 84
-81.7589 -415.507 -2059 67 66 82
-77.6881 -415.888 -2061 53 51 68
-73.6456 -416.473 -2064 46 44 61
-69.5579 -416.857 -2066 46 44 61
-65.4628 -417.242 -2068 45 43 60
-61.3602 -417.628 -2070 45 44 58
-57.1946 -417.612 -2070 44 43 57
-53.004 -417.395 -2069 44 43 57
-48.8179 -417.179 -2068 46 45 57
-44.6576 -417.167 -2068 48 47 59
-40.4979 -417.155 -2068 45 44 56
-36.4087 -417.951 -2072 44 43 55
-32.3037 -418.749 -2076 42 41 53
-28.1559 -419.144 -2078 43 42 54
-24.0118 -419.742 -2081 44 43 56
-19.8652 -420.543 -2085 44 43 57
-15.6651 -420.336 -2084 44 43 56
-11.475 -420.332 -2084 41 40 53
-7.29515 -420.935 -2087 40 41 55
-3.09737 -420.732 -2086 39 40 54
1.09689 -420.732 -2086 39 40 54
5.30359 -421.741 -2091 38 39 55
9.52615 -422.55 -2095 32 33 48
13.7518 -422.956 -2097 30 31 45
17.9767 -423.162 -2098 31 32 47
22.206 -423.37 -2099 34 35 50
26.4018 -422.973 -2097 41 40 54
30.5751 -422.376 -2094 43 42 56
34.637 -420.569 -2085 42 41 55
-164.808 -431.021 -2111 44 46 62
-160.688 -431.384 -2113 47 48 62
-156.044 -430.319 -2108 48 49 62
-151.35 -429.052 -2102 52 51 64
-146.681 -427.786 -2096 53 52 65
-142.037 -426.521 -2090 51 50 64
-137.683 -426.074 -2088 47 46 60
-133.21 -425.22 -2084 44 43 57
-128.816 -424.572 -2081 45 43 59
-124.495 -424.128 -2079 45 43 60
-120.183 -423.687 -2077 45 43 60
-115.769 -422.838 -2073 47 45 62
-111.318 -421.786 -2068 49 47 64
-107.251 -422.164 -2070 50 48 65
-102.927 -421.523 -2067 52 52 68
-98.7123 -421.291 -2066 63 64 80
-94.6396 -421.672 -2068 72 70 87
-90.4719 -421.646 -2068 60 58 75
-86.0129 -420.195 -2061 66 64 81
-81.9006 -420.375 -2062 65 63 80
-77.7096 -420.149 -2061 51 49 66
-73.6303 -420.536 -2063 45 43 60
-69.5771 -421.128 -2066 44 42 59
-65.4808 -421.517 -2068 44 42 59
-61.3176 -421.499 -2068 45 44 58
-57.238 -422.094 -2071 45 44 58
-53.0186 -421.671 -2069 44 43 57
-48.8313 -421.453 -2068 46 45 57
-44.6699 -421.44 -2068 47 46 58
-40.5091 -421.428 -2068 46 45 57
-36.4011 -422.029 -2071 45 44 56
-32.3127 -423.039 -2076 47 46 58
-28.1908 -423.845 -2080 46 45 57
-24.0299 -424.246 -2082 45 44 57
-19.8516 -424.443 -2083 45 44 58
-15.6695 -424.642 -2084 42 41 53
-11.478 -424.638 -2084 35 34 47
-7.30054 -425.451 -2088 35 36 50
-3.09964 -425.246 -2087 37 38 52
1.09878 -425.653 -2089 39 40 54
5.3078 -426.265 -2092 38 39 55
9.52438 -426.675 -2094 31 32 47
13.7619 -427.493 -2098 30 31 45
17.9988 -427.905 -2100 30 31 47
22.223 -427.911 -2100 33 34 49
26.4722 -428.325 -2102 37 36 50
30.6567 -427.722 -2099 43 42 56
-164.229 -433.746 -2103 43 45 61
-160.353 -434.731 -2108 45 47 61
-155.644 -433.45 -2102 47 48 62
-151.104 -432.582 -2098 50 49 61
-146.512 -431.509 -2093 51 50 63
-142.213 -431.262 -2092 49 48 62
-137.721 -430.398 -2088 47 46 60
-133.311 -429.742 -2085 46 45 59
-128.914 -429.087 -2082 49 47 64
-124.53 -428.433 -2079 49 47 64
-120.275 -428.193 -2078 49 47 64
-115.801 -427.129 -2073 50 48 65
-111.511 -426.685 -2071 48 46 63
-107.125 -425.831 -2067 52 50 67
-102.856 -425.389 -2065 51 51 67
-98.6443 -425.155 -2064 60 61 77
-94.5286 -425.334 -2065 68 66 83
-90.4972 -425.926 -2068 54 52 69
-86.1204 -424.871 -2063 56 54 71
-81.9632 -424.848 -2063 53 51 68
-77.8444 -425.031 -2064 48 46 63
-73.7221 -425.216 -2065 44 42 59
-69.6302 -425.608 -2067 46 44 61
-65.5307 -426.001 -2069 46 44 61
-61.3051 -425.571 -2067 43 42 56
-57.171 -425.76 -2068 44 43 57
-52.9308 -425.127 -2065 45 44 58
-48.774 -425.113 -2065 45 44 57
-44.6391 -425.306 -2066 47 46 60
-40.5203 -425.706 -2068 45 44 56
-36.3937 -426.107 -2070 43 42 54
-32.2906 -426.92 -2074 45 44 56
-28.185 -427.941 -2079 45 44 57
-24.0019 -427.934 -2079 44 43 57
-19.8477 -428.545 -2082 44 43 57
-15.6663 -428.746 -2083 43 42 54
-11.4868 -429.154 -2085 34 33 46
-7.29921 -429.563 -2087 36 37 51
-3.10193 -429.767 -2088 36 37 51
1.10067 -430.591 -2092 36 37 51
5.30161 -429.974 -2089 37 38 54
9.52237 -430.799 -2093 35 36 52
13.7527 -431.42 -2096 34 35 49
18.0039 -432.248 -2100 32 33 47
22.2503 -432.665 -2102 31 32 46
26.4543 -432.261 -2100 33 34 48
30.6359 -431.651 -2097 41 41 55
-160.322 -438.895 -2107 51 52 67
-155.91 -438.433 -2105 49 50 64
-151.219 -437.14 -2099 50 49 61
-146.763 -436.473 -2096 49 48 60
-142.185 -435.391 -2091 45 44 58
-137.826 -434.935 -2089 43 42 56
-133.348 -434.064 -2085 42 41 55
-129.136 -434.026 -2085 46 44 61
-124.745 -433.366 -2082 48 46 63
-120.367 -432.707 -2079 48 46 63
-115.946 -431.841 -2075 50 48 65
-111.488 -430.768 -2070 50 48 65
-107.155 -430.113 -2067 53 51 68
-102.885 -429.667 -2065 51 51 68
-98.5287 -428.806 -2061 60 61 77
-94.4636 -429.195 -2063 62 61 78
-90.3914 -429.585 -2065 47 46 63
-86.0612 -428.728 -2061 48 47 64
-81.9465 -428.912 -2062 51 49 66
-77.8285 -429.097 -2063 49 47 64
-73.7072 -429.284 -2064 47 45 62
-69.5487 -429.263 -2064 47 45 62
-65.4541 -429.66 -2066 46 44 61
-61.2631 -429.434 -2065 44 43 57
-57.187 -430.041 -2068 41 40 54
-52.9713 -429.61 -2066 42 41 55
-48.8349 -429.804 -2067 43 42 56
-44.6518 -429.582 -2066 46 45 59
-40.5317 -429.986 -2068 46 45 57
-36.4216 -430.599 -2071 41 40 52
-32.3151 -431.421 -2075 38 37 49
-28.1929 -432.244 -2079 40 39 53
-24.0202 -432.445 -2080 40 39 53
-19.8723 -433.27 -2084 40 39 53
-15.6858 -433.473 -2085 41 40 53
-11.4845 -433.261 -2084 38 37 50
-7.29763 -433.675 -2086 37 38 52
-3.10893 -434.921 -2092 36 37 51
1.10204 -435.336 -2094 36 37 51
5.31067 -434.921 -2092 38 39 54
9.5434 -435.963 -2097 37 38 53
13.7698 -436.174 -2098 39 40 54
18.0092 -436.594 -2100 35 36 50
22.2883 -437.64 -2105 32 33 47
26.5627 -438.27 -2108 35 36 49
30.6884 -436.615 -2100 40 40 53
-160.52 -443.689 -2109 52 54 69
-155.88 -442.592 -2104 52 53 67
-151.334 -441.707 -2100 53 52 66
-146.665 -440.402 -2094 48 47 61
-142.226 -439.73 -2091 43 41 57
-138.063 -439.9 -2092 41 40 55
-133.579 -439.02 -2088 38 37 51
-129.235 -438.562 -2086 42 41 55
-124.9 -438.105 -2084 43 42 57
-120.575 -437.649 -2082 42 40 57
-115.979 -436.144 -2075 43 41 58
-111.735 -435.901 -2074 45 43 60
-107.29 -434.819 -2069 50 48 65
-102.964 -434.158 -2066 49 49 65
-98.6524 -433.499 -2063 54 55 71
-94.5821 -433.892 -2065 53 53 69
-90.5484 -434.495 -2068 49 50 66
-86.2527 -433.84 -2065 49 50 68
-82.0493 -433.606 -2064 52 50 67
-77.8507 -433.373 -2063 51 49 66
-73.7281 -433.561 -2064 46 44 61
-69.6359 -433.961 -2066 44 42 60
-65.4727 -433.941 -2066 44 42 61
-61.2804 -433.713 -2065 43 42 56
-57.1203 -433.697 -2065 41 40 54
-52.9095 -433.261 -2063 41 40 54
-48.7779 -433.456 -2064 43 42 56
-44.6428 -433.653 -2065 45 44 58
-40.5236 -434.061 -2067 45 44 56
-36.3791 -434.26 -2068 43 42 54
-32.3087 -435.51 -2074 38 37 50
-28.1602 -435.921 -2076 37 36 50
-23.9924 -436.124 -2077 38 37 51
-19.8683 -437.377 -2083 36 35 49
-15.6827 -437.582 -2084 38 37 51
-11.4986 -437.998 -2086 37 36 50
-7.32083 -439.256 -2092 35 36 50
-3.11272 -439.674 -2094 34 35 49
1.10289 -439.884 -2095 32 33 47
5.32228 -440.095 -2096 34 35 49
9.55964 -440.937 -2100 36 37 51
13.7935 -441.15 -2101 38 39 53
18.0744 -442.414 -2107 36 37 51
22.3263 -442.63 -2108 36 37 50
26.5701 -442.637 -2108 36 37 49
30.6972 -440.965 -2100 36 36 49
-160.11 -446.796 -2103 52 54 69
-155.777 -446.538 -2102 52 53 68
-151.089 -445.219 -2096 51 50 64
-146.637 -444.539 -2093 48 46 61
-142.266 -444.072 -2091 44 42 59
-137.839 -443.394 -2088 43 42 57
-133.617 -443.355 -2088 40 39 53
-129.458 -443.529 -2089 42 41 55
-124.996 -442.643 -2085 40 39 54
-120.725 -442.395 -2084 38 36 53
-116.18 -441.087 -2078 39 37 54
-111.821 -440.418 -2075 39 37 54
-107.372 -439.325 -2070 44 42 60
-103.194 -439.295 -2070 44 44 60
-98.9199 -438.841 -2068 44 45 61
-94.7009 -438.601 -2067 47 48 64
-90.6183 -438.998 -2069 67 68 84
-86.361 -438.548 -2067 63 64 82
-82.1524 -438.312 -2066 53 51 68
-77.9486 -438.076 -2065 50 48 65
-73.785 -438.054 -2065 46 44 61
-69.5884 -437.822 -2064 45 43 61
-65.4598 -438.014 -2065 42 40 59
-61.2387 -437.572 -2063 40 39 53
-57.109 -437.767 -2064 41 40 54
-52.9759 -437.963 -2065 43 42 56
-48.8392 -438.16 -2066 44 43 57
-44.7205 -438.571 -2068 45 44 58
-40.5548 -438.559 -2068 46 45 57
-36.4423 -439.184 -2071 45 44 57
-32.3492 -440.234 -2076 40 39 52
-28.1954 -440.65 -2078 38 37 51
-24.0455 -441.278 -2081 39 38 52
-19.8931 -442.12 -2085 38 37 51
-15.7098 -442.539 -2087 38 37 51
-11.5185 -442.959 -2089 37 36 50
-7.32279 -443.593 -2092 32 33 47
-3.11354 -444.015 -2094 32 33 47
1.10479 -444.863 -2098 29 30 44
5.33924 -445.712 -2102 33 34 48
9.57618 -445.927 -2103 37 38 52
13.8304 -446.566 -2106 35 36 50
18.1225 -447.843 -2112 35 36 50
22.3753 -447.849 -2112 37 38 51
26.6283 -447.856 -2112 34 35 47
30.7938 -446.592 -2106 34 34 47
-160.233 -451.383 -2104 51 54 69
-155.674 -450.479 -2100 47 48 64
-151.35 -450.22 -2099 46 45 59
-146.68 -448.889 -2093 44 43 58
-142.308 -448.418 -2091 43 41 58
-138.011 -448.163 -2090 42 41 56
-133.976 -448.766 -2093 39 38 52
-129.619 -448.299 -2091 40 39 53
-125.092 -447.19 -2086 41 39 54
-120.818 -446.939 -2085 43 41 58
-116.27 -445.619 -2079 44 42 59
-111.854 -444.728 -2075 41 39 57
-107.404 -443.624 -2070 45 43 62
-103.174 -443.379 -2069 43 43 60
-98.8051 -442.493 -2065 40 41 57
-94.7285 -442.893 -2067 54 55 71
-90.6008 -443.08 -2068 77 77 94
-86.428 -443.054 -2068 67 67 85
-82.1763 -442.601 -2066 51 49 67
-78.009 -442.578 -2066 48 46 63
-73.8065 -442.342 -2065 44 42 59
-69.6423 -442.32 -2065 43 41 59
-65.4788 -442.301 -2065 43 41 60
-61.3455 -442.496 -2066 41 40 54
-57.1257 -442.051 -2064 41 40 54
-52.94 -441.821 -2063 44 43 57
-48.8298 -442.234 -2065 46 45 59
-44.7118 -442.649 -2067 50 49 62
-40.5862 -443.065 -2069 50 49 61
-36.4704 -443.696 -2072 45 44 57
-32.3585 -444.543 -2076 41 40 54
-28.19 -444.748 -2077 40 39 53
-24.0409 -445.383 -2080 40 39 53
-19.8893 -446.233 -2084 38 37 51
-15.7219 -447.084 -2088 39 38 51
-11.5219 -447.294 -2089 37 37 50
-7.32128 -447.72 -2091 31 32 46
-3.11586 -448.575 -2095 32 33 47
1.10407 -448.788 -2096 30 31 45
5.33057 -449.218 -2098 33 34 49
9.58795 -450.719 -2105 35 36 50
13.841 -451.15 -2107 33 34 48
18.102 -451.583 -2109 33 34 48
22.4029 -452.66 -2114 34 35 48
26.6107 -451.81 -2110 30 31 43
-164.388 -455.377 -2102 58 63 78
-160.432 -456.196 -2106 51 54 70
-155.868 -455.283 -2102 44 45 61
-151.394 -454.587 -2099 43 42 56
-146.793 -453.46 -2094 40 39 54
-142.35 -452.768 -2091 40 38 55
-138.052 -452.51 -2090 42 41 57
-133.823 -452.47 -2090 40 38 54
-129.534 -452.215 -2089 41 40 56
-125.189 -451.744 -2087 44 43 59
-120.796 -451.058 -2084 50 48 65
-116.36 -450.158 -2080 49 47 65
-111.887 -449.042 -2075 47 45 63
-107.487 -448.144 -2071 48 46 65
-103.204 -447.68 -2069 42 42 59
-98.8341 -446.785 -2065 41 42 58
-94.802 -447.405 -2068 50 49 66
-90.6274 -447.378 -2068 67 65 83
-86.3696 -446.919 -2066 57 56 75
-82.1208 -446.462 -2064 49 47 64
-77.9185 -446.222 -2063 48 46 63
-73.7209 -445.983 -2062 43 41 58
-69.6291 -446.395 -2064 43 41 59
-65.4981 -446.591 -2065 47 45 64
-61.3338 -446.572 -2065 45 44 58
-57.1977 -446.771 -2066 42 41 55
-53.0325 -446.755 -2066 43 42 56
-48.8677 -446.74 -2066 45 44 58
-44.7682 -447.375 -2069 48 47 61
-40.6373 -447.795 -2071 47 46 58
-36.4636 -447.783 -2071 45 44 57
-32.3679 -448.854 -2076 45 44 58
-28.2118 -449.278 -2078 41 40 54
-24.0595 -449.919 -2081 38 37 51
-19.9047 -450.777 -2085 41 40 54
-15.734 -451.637 -2089 39 38 51
-11.5306 -451.849 -2090 40 39 52
-7.32353 -452.062 -2091 33 34 48
-3.11521 -452.709 -2094 33 34 48
1.1044 -453.141 -2096 32 33 47
5.34224 -454.44 -2102 35 36 52
9.59544 -455.307 -2106 35 36 51
13.8711 -456.391 -2111 34 35 49
18.1244 -456.396 -2111 35 36 50
22.4094 -457.05 -2114 34 35 49
26.6438 -456.625 -2112 29 30 42
30.8119 -455.337 -2106 29 29 41
-164.515 -459.975 -2103 58 63 77
-160.632 -461.02 -2108 50 52 68
-155.989 -459.879 -2103 45 46 62
-151.367 -458.74 -2098 41 40 54
-146.907 -458.039 -2095 37 36 51
-142.596 -457.777 -2094 41 39 56
-138.027 -456.643 -2089 43 41 58
-133.863 -456.821 -2090 42 40 57
-129.51 -456.344 -2088 49 47 64
-125.226 -456.088 -2087 53 51 68
-120.774 -455.177 -2083 54 52 69
-116.338 -454.268 -2079 50 48 66
-111.812 -452.923 -2073 46 44 62
-107.311 -451.579 -2067 43 41 59
-103.135 -451.548 -2067 39 38 55
-98.8154 -450.862 -2064 41 42 57
-94.6468 -450.834 -2064 42 40 57
-90.6541 -451.679 -2068 56 54 72
-86.4789 -451.653 -2068 58 56 75
-82.2646 -451.41 -2067 55 53 70
-78.0171 -450.949 -2065 49 47 64
-73.85 -450.927 -2065 48 46 63
-69.7509 -451.342 -2067 47 45 62
-65.5492 -451.103 -2066 46 43 60
-61.3519 -450.866 -2065 44 43 57
-57.187 -450.848 -2065 43 42 56
-52.9711 -450.396 -2063 43 42 56
-48.8349 -450.599 -2064 44 43 57
-44.7381 -451.24 -2067 42 41 55
-40.6297 -451.882 -2070 39 39 52
-36.5096 -452.525 -2073 42 42 56
-32.4244 -453.825 -2079 43 42 56
-28.2202 -453.598 -2078 38 36 52
-24.0781 -454.463 -2082 39 38 53
-19.8914 -454.675 -2083 41 40 54
-15.7311 -455.761 -2088 39 38 52
-11.5396 -456.412 -2091 40 39 53
-7.32205 -456.191 -2090 33 34 48
-3.11482 -456.844 -2093 33 34 48
1.10526 -457.717 -2097 34 35 49
5.34147 -458.591 -2101 36 37 51
9.59384 -459.466 -2105 38 39 52
13.8556 -460.124 -2108 36 36 48
18.1384 -461.002 -2112 35 35 49
22.4056 -461.227 -2113 32 32 46
26.614 -460.361 -2109 30 29 41
30.7918 -459.278 -2104 30 30 43
-164.486 -464.139 -2102 58 61 75
-160.452 -464.752 -2105 50 52 67
-155.961 -464.042 -2102 44 45 61
-151.484 -463.334 -2099 39 38 52
-146.951 -462.406 -2095 37 36 50
-142.435 -461.479 -2091 44 42 59
-138.002 -460.775 -2088 46 44 61
-133.775 -460.734 -2088 47 45 62
-129.425 -460.253 -2086 54 52 69
-125.084 -459.774 -2084 54 52 69
-120.81 -459.516 -2083 51 49 66
-116.261 -458.157 -2077 47 45 62
-111.792 -457.02 -2072 44 42 59
-107.447 -456.325 -2069 43 41 58
-103.166 -455.852 -2067 40 39 54
-98.8451 -455.16 -2064 40 39 53
-94.6751 -455.131 -2064 44 42 59
-90.6374 -455.765 -2067 48 46 64
-86.4629 -455.738 -2067 47 45 64
-82.329 -455.933 -2068 49 47 64
-78.116 -455.689 -2067 49 47 64
-73.9435 -455.666 -2067 48 46 64
-69.7718 -455.644 -2067 48 45 61
-65.6005 -455.624 -2067 49 45 60
-61.4595 -455.825 -2068 47 46 60
-57.2595 -455.587 -2067 45 44 58
-53.1155 -455.791 -2068 43 42 56
-48.9914 -456.216 -2070 43 42 56
-44.8164 -456.202 -2070 44 43 57
-40.7008 -456.851 -2073 45 46 60
-36.5381 -457.059 -2074 45 45 59
-32.4028 -457.71 -2077 43 42 56
-28.2286 -457.921 -2078 37 35 52
-24.0852 -458.795 -2082 37 35 51
-19.8974 -459.009 -2083 41 40 54
-15.7357 -460.105 -2088 40 39 53
-11.5375 -460.542 -2090 39 39 53
-7.33486 -461.2 -2093 34 35 49
-3.11716 -461.419 -2094 33 34 48
1.10612 -462.3 -2098 34 35 49
5.35063 -463.623 -2104 37 38 52
9.61025 -464.507 -2108 40 40 53
13.8663 -464.731 -2109 38 37 49
18.1266 -464.956 -2110 34 35 49
22.3698 -464.742 -2109 31 32 45
26.5715 -463.867 -2105 34 33 45
30.7424 -462.775 -2100 32 33 46
-164.614 -468.749 -2103 56 59 72
-160.5 -469.145 -2105 47 49 63
-156.083 -468.651 -2103 42 43 59
-151.819 -468.604 -2103 38 37 51
-147.136 -467.222 -2097 40 39 53
-142.614 -466.287 -2093 46 44 61
-138.044 -465.13 -2088 49 47 64
-133.815 -465.089 -2088 52 50 67
-129.526 -464.826 -2087 54 52 69
-125.122 -464.119 -2084 49 47 63
-120.788 -463.636 -2082 46 45 59
-116.408 -462.932 -2079 42 40 57
-111.879 -461.561 -2073 40 38 55
-107.532 -460.86 -2070 40 38 55
-103.097 -459.715 -2065 41 39 55
-98.9228 -459.684 -2065 42 41 57
-94.7955 -459.877 -2066 47 45 62
-90.8402 -460.962 -2071 50 48 65
-86.6146 -460.713 -2070 49 47 66
-82.4733 -460.91 -2071 48 46 63
-78.2152 -460.44 -2069 48 46 63
-74.0375 -460.417 -2069 48 46 64
-69.8603 -460.395 -2069 49 46 63
-65.652 -460.152 -2068 50 46 61
-61.4483 -459.911 -2067 47 46 60
-57.2767 -459.892 -2067 43 42 56
-53.08 -459.653 -2066 41 40 54
-48.9114 -459.638 -2066 42 41 55
-44.8083 -460.291 -2069 45 44 58
-40.7326 -461.39 -2074 47 48 62
-36.5315 -461.156 -2073 46 45 59
-32.4126 -462.036 -2077 42 41 55
-28.2371 -462.249 -2078 39 37 54
-24.0578 -462.463 -2079 38 36 52
-19.8938 -463.124 -2082 39 38 52
-15.6952 -463.119 -2082 39 37 54
-11.5245 -464.227 -2087 40 38 55
-7.3229 -464.669 -2089 38 39 53
-3.11802 -465.779 -2094 36 37 51
1.10751 -467.114 -2100 34 35 49
5.34734 -467.56 -2102 33 34 48
9.60414 -468.452 -2106 36 36 49
13.8706 -469.123 -2109 37 36 48
18.1237 -469.128 -2109 33 34 48
22.3661 -468.911 -2108 31 32 45
26.5415 -467.584 -2102 33 32 45
-164.586 -472.917 -2102 52 55 68
-160.626 -473.767 -2106 44 46 61
-156.427 -473.943 -2107 41 42 58
-151.866 -472.996 -2103 43 42 56
-147.251 -471.825 -2098 46 45 59
-142.726 -470.881 -2094 49 47 64
-138.086 -469.489 -2088 51 49 66
-133.728 -468.997 -2086 52 50 67
-129.503 -468.957 -2086 49 47 64
-125.1 -468.244 -2083 42 40 56
-120.767 -467.756 -2081 38 37 51
-116.5 -467.495 -2080 40 38 55
-112.022 -466.336 -2075 44 42 59
-107.668 -465.628 -2072 44 42 59
-103.328 -464.922 -2069 41 39 56
-99.1926 -465.115 -2070 40 38 55
-94.8703 -464.412 -2067 47 45 62
-90.8241 -465.057 -2070 52 50 68
-86.7247 -465.479 -2072 57 55 74
