ply
format ascii 1.0
comment Created by Open3D
element vertex 1424
property double x
property double y
property double z
property uchar red
property uchar green
property uchar blue
end_header
-31.6407 148.141 -1246 158 113 94
-29.1559 148.136 -1246 152 106 87
-26.65 148.013 -1245 148 99 76
-24.1288 147.771 -1243 148 99 75
-21.5809 147.292 -1239 144 95 71
-19.0955 147.17 -1238 140 93 68
-16.5739 146.691 -1234 162 116 93
-14.0913 146.451 -1232 192 148 127
-11.5979 145.974 -1228 210 164 141
-9.14278 145.853 -1227 207 161 137
-6.68637 145.614 -1225 205 156 127
-4.24138 145.494 -1224 208 160 132
-1.79467 144.9 -1219 224 177 150
0.632248 144.305 -1214 229 183 157
3.03421 143.473 -1207 212 166 141
5.42182 142.999 -1203 199 149 125
7.78688 142.405 -1198 192 141 120
10.1492 142.05 -1195 195 142 124
12.4892 141.577 -1191 216 159 144
14.8257 141.222 -1188 232 176 160
17.1648 140.987 -1186 239 185 167
19.4633 140.514 -1182 245 200 182
21.7275 139.923 -1177 252 211 192
24.0128 139.57 -1174 244 204 185
-134.845 241.539 -2064 161 164 173
-129.829 239.88 -2050 158 159 167
-125.421 239.275 -2045 133 130 133
-120.856 238.32 -2037 126 120 123
-116.267 237.248 -2028 125 117 120
-111.438 235.592 -2014 128 120 120
-105.493 231.364 -1978 159 153 155
-99.641 227.02 -1941 179 174 180
-94.4805 223.964 -1915 154 149 153
-90.2294 222.897 -1906 174 169 172
-85.9696 221.714 -1896 186 186 191
-82.2706 221.934 -1898 139 136 140
-78.6884 222.506 -1903 107 99 98
-44.0619 145.665 -1246 162 133 117
-41.8096 146.476 -1253 154 121 104
-39.2474 146.236 -1251 160 110 91
-36.7816 146.347 -1252 159 110 91
-34.2573 146.224 -1251 156 108 88
-31.7372 146.102 -1250 151 107 91
-29.2682 146.214 -1251 145 101 83
-26.7528 146.093 -1250 144 96 73
-24.2414 145.972 -1249 145 96 72
-21.682 145.501 -1245 147 96 71
-19.1542 145.147 -1242 156 107 81
-16.6116 144.56 -1237 181 133 108
-14.1005 144.09 -1233 193 148 124
-11.6149 143.738 -1230 203 156 132
-9.14136 143.386 -1227 209 162 139
-6.68534 143.151 -1225 222 174 146
-4.23726 142.916 -1223 240 192 165
-1.78983 142.098 -1216 252 205 179
0.630059 141.396 -1210 250 204 179
3.02871 140.812 -1205 227 181 156
5.41646 140.462 -1202 202 153 130
7.78566 139.996 -1198 191 140 120
10.1646 139.881 -1197 189 137 119
12.5187 139.532 -1194 202 146 131
14.8732 139.3 -1192 209 153 138
17.2056 138.952 -1189 215 157 141
19.4932 138.371 -1184 220 168 152
21.7979 138.024 -1181 235 186 170
24.1112 137.793 -1179 235 195 176
-134.498 236.809 -2059 163 165 174
-129.745 235.639 -2049 149 149 158
-125.279 234.929 -2043 133 130 133
-120.659 233.875 -2034 132 125 127
-116.077 232.822 -2025 128 120 120
-110.591 229.815 -1999 137 129 129
-104.25 224.74 -1955 172 164 166
-98.8555 221.391 -1926 172 165 170
-93.9724 218.962 -1905 161 156 160
-89.6473 217.684 -1894 193 188 191
-85.5029 216.751 -1886 162 156 160
-81.7377 216.738 -1886 113 105 107
-78.0146 216.84 -1887 106 95 93
-43.7368 142.125 -1237 137 114 106
-41.7029 143.612 -1250 129 102 93
-39.3039 143.95 -1253 140 100 87
-36.8051 143.944 -1253 143 101 86
-34.334 144.054 -1254 145 101 85
-31.8085 143.934 -1253 146 103 85
-29.2637 143.699 -1251 149 105 86
-26.7486 143.58 -1250 156 109 84
-24.257 143.576 -1250 168 118 93
-21.6787 142.998 -1245 181 129 103
-19.1512 142.651 -1242 197 146 118
-16.5956 141.959 -1236 217 167 139
-14.0983 141.612 -1233 223 176 149
-11.6037 141.15 -1229 230 181 156
-9.12499 140.689 -1225 232 182 158
-6.66249 140.229 -1221 228 181 155
-4.22623 140.113 -1220 236 189 163
-1.78662 139.424 -1214 236 191 166
0.629434 138.849 -1209 232 186 161
3.03075 138.505 -1206 220 174 150
5.41998 138.161 -1203 204 156 133
7.80395 137.933 -1201 191 142 121
10.214 138.164 -1203 184 134 115
12.59 137.936 -1201 182 127 112
14.9582 137.708 -1199 179 123 108
17.3187 137.481 -1197 189 128 115
19.6546 137.139 -1194 208 152 137
21.9974 136.913 -1192 236 185 170
24.3324 136.687 -1190 243 206 187
-134.15 232.102 -2054 165 167 174
-129.535 231.177 -2046 148 148 155
-125.137 230.593 -2041 131 128 131
-120.581 229.671 -2033 132 125 126
-115.601 227.845 -2017 138 129 129
-109.744 224.1 -1984 154 146 147
-103.861 220.018 -1948 177 170 172
-98.3784 216.501 -1917 160 152 155
-93.5634 214.228 -1897 177 170 173
-89.3496 213.198 -1888 189 182 186
-85.3537 212.62 -1883 134 123 126
-81.5519 212.494 -1882 103 91 92
-77.796 212.482 -1882 108 94 91
-74.4341 213.6 -1892 194 173 162
-41.3963 140.084 -1241 134 113 110
-39.1725 140.981 -1249 123 95 83
-36.8289 141.539 -1254 127 92 77
-34.3288 141.534 -1254 141 102 84
-31.829 141.529 -1254 154 110 87
-29.2826 141.298 -1252 163 118 94
-26.8087 141.407 -1253 176 128 99
-24.2727 141.177 -1251 187 137 110
-21.7102 140.722 -1247 205 153 127
-19.1791 140.381 -1244 222 170 141
-16.6199 139.701 -1238 227 177 148
-14.1076 139.247 -1234 221 173 144
-11.6114 138.794 -1230 216 166 140
-9.13107 138.341 -1226 212 162 137
-6.67786 138.114 -1224 213 167 142
-4.2256 137.662 -1220 221 175 150
-1.79077 137.323 -1217 217 173 149
0.631414 136.872 -1213 209 164 140
3.04033 136.533 -1210 203 158 134
5.44618 136.421 -1209 191 143 122
7.86124 136.535 -1210 175 126 105
10.2888 136.762 -1212 170 120 100
12.6824 136.538 -1210 169 116 100
15.0682 136.315 -1208 172 118 103
17.4172 135.866 -1204 199 139 127
19.7504 135.417 -1200 225 168 156
22.031 134.743 -1194 252 199 187
24.3492 134.408 -1191 255 220 202
26.5881 133.735 -1185 244 212 196
-133.477 226.861 -2044 160 162 169
-129.136 226.397 -2040 159 160 166
-124.75 225.823 -2035 137 134 137
-120.089 224.695 -2025 134 126 127
-114.38 221.46 -1996 134 125 125
-108.843 218.337 -1968 165 158 159
-102.779 213.883 -1928 169 161 162
-98.0045 211.872 -1910 168 160 162
-93.3027 209.861 -1892 179 172 174
-89.0048 208.627 -1881 170 163 166
-85.0689 208.17 -1877 120 108 110
-81.193 207.825 -1874 98 85 85
-77.5776 208.146 -1877 111 97 94
-73.9902 208.578 -1881 173 152 142
-39.1665 138.471 -1249 136 117 107
-36.8821 139.242 -1256 135 107 91
-34.4057 139.347 -1257 154 119 99
-31.8242 139.01 -1254 173 127 100
-29.325 139.005 -1254 178 132 104
-26.7833 138.779 -1252 192 143 110
-24.2497 138.554 -1250 206 155 127
-21.7069 138.218 -1247 217 165 139
-19.1762 137.882 -1244 215 164 134
-16.6577 137.547 -1241 208 158 129
-14.1398 137.102 -1237 200 151 123
-11.6473 136.767 -1234 197 148 122
-9.16696 136.433 -1231 197 148 122
-6.69325 135.989 -1227 197 151 128
-4.23537 135.544 -1223 200 155 132
-1.79787 135.433 -1222 193 149 126
0.634437 135.101 -1219 179 135 112
3.06249 135.101 -1219 171 127 104
5.49942 135.323 -1221 166 118 98
7.95101 135.657 -1224 159 110 89
10.406 135.88 -1226 172 121 100
12.8063 135.438 -1222 198 146 130
15.2157 135.219 -1220 204 150 135
17.5592 134.556 -1214 206 150 137
19.8298 133.561 -1205 204 149 137
22.1198 132.899 -1199 232 177 166
24.3863 132.238 -1193 243 203 188
26.6066 131.466 -1186 254 225 212
-133.457 222.752 -2044 164 166 173
-128.863 221.861 -2036 166 167 173
-123.935 220.317 -2022 143 140 143
-119.537 219.645 -2016 133 127 129
-113.503 215.815 -1981 137 129 130
-107.997 212.748 -1953 176 168 168
-102.55 209.574 -1924 163 155 155
-97.4256 206.836 -1899 179 171 173
-93.0424 205.515 -1887 160 153 154
-88.8024 204.413 -1877 155 148 150
-84.9657 204.182 -1875 111 100 100
-81.051 203.734 -1871 90 78 77
-77.4008 203.941 -1873 105 92 89
-73.6253 203.821 -1872 146 127 120
-70.2277 204.79 -1881 166 146 137
-38.9727 135.31 -1243 153 134 123
-36.8472 136.611 -1255 146 118 102
-34.4006 136.823 -1257 163 128 108
-31.8702 136.71 -1256 188 142 117
-29.3206 136.488 -1254 194 147 122
-26.8221 136.483 -1254 204 155 125
-24.3043 136.371 -1253 209 159 132
-21.7559 136.041 -1250 207 156 132
-19.2196 135.711 -1247 195 147 119
-16.7089 135.491 -1245 189 142 114
-14.1834 135.054 -1241 182 137 111
-11.6928 134.834 -1239 183 135 111
-9.20286 134.506 -1236 185 137 113
-6.72485 134.179 -1233 180 134 112
-4.259 133.851 -1230 170 125 103
-1.80644 133.633 -1228 162 118 98
0.639541 133.742 -1229 154 110 89
3.09218 133.96 -1231 146 102 82
5.54364 133.96 -1231 150 103 85
7.98881 133.853 -1230 167 117 98
10.4384 133.854 -1230 199 146 126
12.8673 133.638 -1228 208 157 141
15.2507 133.096 -1223 181 130 115
17.5856 132.337 -1216 161 112 97
19.8761 131.469 -1208 178 127 114
22.1535 130.71 -1201 214 162 150
24.4236 130.06 -1195 228 187 175
-132.655 217.361 -2032 173 174 182
-128.275 216.807 -2027 175 174 181
-123.426 215.399 -2014 151 148 151
-118.809 214.312 -2004 136 130 132
-112.742 210.445 -1968 150 142 144
-107.097 207.115 -1937 170 161 159
-102.109 204.854 -1916 166 157 158
-97.3601 202.915 -1898 174 167 170
-92.8317 201.298 -1883 146 138 141
-88.7422 200.537 -1876 139 131 133
-84.8627 200.204 -1873 104 95 93
-80.9526 199.764 -1869 84 74 72
-77.1416 199.539 -1867 107 97 93
-73.4179 199.528 -1867 132 116 111
-69.7323 199.625 -1868 146 128 123
-36.8125 133.985 -1254 154 126 109
-34.423 134.407 -1258 163 129 111
-31.9164 134.403 -1258 189 145 125
-29.3865 134.291 -1257 194 149 128
-26.8396 134.074 -1255 194 144 118
-24.3396 134.07 -1255 186 136 112
-21.7876 133.746 -1252 178 128 105
-19.2785 133.637 -1251 167 121 95
-16.8004 133.741 -1252 165 120 95
-14.2728 133.418 -1249 158 116 91
-11.7855 133.416 -1249 160 114 91
-9.26855 132.987 -1245 159 112 89
-6.76753 132.559 -1241 147 101 79
-4.28263 132.131 -1237 138 93 73
-1.81796 132.024 -1236 141 97 78
0.643084 132.024 -1236 142 98 80
3.09926 131.81 -1234 138 93 75
5.56086 131.918 -1235 145 98 81
8.02013 131.919 -1235 159 109 91
10.4963 132.134 -1237 173 121 102
12.8968 131.495 -1231 158 110 94
15.3358 131.39 -1230 151 103 87
17.5975 130.003 -1217 148 104 88
19.9226 129.365 -1211 170 124 110
22.1687 128.407 -1202 198 152 138
24.3791 127.449 -1193 201 161 152
-132.244 212.65 -2026 179 178 185
-127.814 212.002 -2020 181 179 185
-122.98 210.62 -2007 162 158 161
-117.547 208.084 -1983 146 139 141
-112.325 205.759 -1961 156 148 150
-106.639 202.386 -1929 164 154 151
-101.828 200.483 -1911 180 171 170
-96.9873 198.371 -1891 150 143 147
-92.7198 197.309 -1881 146 138 141
-88.6823 196.667 -1875 132 124 126
-84.8959 196.549 -1874 101 93 91
-80.941 196.013 -1869 82 75 71
-77.1719 195.897 -1868 110 102 98
-73.2503 195.362 -1863 130 119 116
-69.4983 195.247 -1862 135 123 120
-66.069 196.077 -1870 140 118 114
-36.7779 131.365 -1253 163 132 116
-34.4455 131.989 -1259 154 120 105
-31.9625 132.089 -1260 163 121 109
-29.4057 131.875 -1258 167 124 110
-26.9212 131.976 -1259 167 117 96
-24.3749 131.762 -1257 156 107 85
-21.8714 131.759 -1257 148 100 77
-19.3682 131.756 -1257 140 96 72
-16.8651 131.754 -1257 141 98 75
-14.3507 131.647 -1256 135 94 73
-11.8404 131.54 -1255 132 89 67
-9.34162 131.539 -1255 127 83 61
-6.83201 131.328 -1253 127 81 59
-4.32011 130.803 -1248 130 85 66
-1.83389 130.698 -1247 131 87 71
0.647669 130.488 -1245 130 86 70
3.11389 129.964 -1240 130 86 69
5.57357 129.755 -1238 137 90 73
8.02534 129.547 -1236 149 100 84
10.4694 129.338 -1234 159 108 92
12.853 128.606 -1227 159 112 97
15.2838 128.503 -1226 147 102 86
17.6238 127.772 -1219 151 111 94
19.8704 126.622 -1208 156 115 99
22.0733 125.472 -1197 160 121 105
50.1758 199.185 -1900 172 155 146
53.8193 198.669 -1895 181 167 160
-132.03 208.273 -2023 182 182 187
-127.353 207.226 -2013 181 179 184
-122.656 206.076 -2002 164 160 165
-116.938 203.075 -1973 147 140 141
-111.507 200.383 -1947 160 150 151
-106.403 198.104 -1925 171 157 154
-101.601 196.237 -1907 179 167 167
-96.9224 194.474 -1890 132 125 129
-92.7562 193.638 -1882 151 144 146
-88.7172 193.008 -1876 127 119 121
-84.7482 192.481 -1871 105 99 96
-80.8864 192.161 -1868 86 79 77
-77.0373 191.842 -1865 110 104 101
-73.122 191.317 -1860 127 119 120
-69.1528 190.587 -1853 130 122 124
-65.7064 191.298 -1860 141 124 126
-34.4954 129.67 -1261 151 120 108
-32.0595 129.974 -1264 138 105 93
-29.4718 129.661 -1261 136 102 88
-26.9602 129.657 -1261 140 100 83
-24.4297 129.551 -1260 141 99 82
-21.8858 129.342 -1258 140 97 80
-19.3809 129.339 -1258 137 94 77
-16.8896 129.439 -1259 133 92 75
-14.383 129.437 -1259 125 87 70
-11.8765 129.435 -1259 125 85 65
-9.36267 129.331 -1258 125 84 63
-6.85834 129.33 -1258 130 86 69
-4.34029 128.918 -1254 136 92 75
-1.83658 128.403 -1249 140 96 79
0.649134 128.301 -1248 140 96 79
3.12098 127.787 -1243 138 94 77
5.5818 127.479 -1240 142 96 80
8.03072 127.172 -1237 152 105 89
10.4849 127.07 -1236 160 111 95
12.8721 126.352 -1229 163 115 100
15.2567 125.84 -1224 155 108 93
17.5635 124.917 -1215 147 104 88
19.8019 123.789 -1204 136 103 87
49.8254 194.039 -1887 172 156 149
53.6131 194.149 -1888 180 166 160
57.5265 194.671 -1893 181 168 163
61.3958 194.987 -1896 177 170 168
-131.75 203.81 -2019 183 182 186
-126.956 202.581 -2007 175 173 178
-121.904 200.848 -1990 158 154 159
-116.625 198.612 -1968 154 146 147
-110.977 195.569 -1938 160 150 150
-105.891 193.334 -1916 184 171 168
-101.321 191.907 -1902 156 144 143
-96.8066 190.481 -1888 128 119 122
-92.6942 189.762 -1881 145 136 139
-88.6578 189.145 -1875 113 105 107
-84.7366 188.729 -1871 97 89 88
-80.832 188.315 -1867 92 85 84
-77.0266 188.102 -1865 115 109 109
-73.0334 187.386 -1858 124 118 120
-69.1432 186.872 -1853 127 121 124
-65.5208 187.065 -1855 139 126 127
-34.2171 126.134 -1251 158 130 121
-31.9537 127.037 -1260 145 121 108
-29.5144 127.335 -1263 127 102 89
-27.0207 127.432 -1264 123 93 80
-24.5232 127.529 -1265 130 95 83
-21.9698 127.325 -1263 134 95 85
-19.4399 127.221 -1262 133 91 80
-16.9141 127.118 -1261 133 93 81
-14.3924 127.015 -1260 134 97 84
-11.8749 126.912 -1259 141 102 84
-9.36877 126.911 -1259 141 102 83
-6.85196 126.708 -1257 146 103 90
-4.34663 126.607 -1256 149 105 90
-1.84222 126.304 -1253 153 108 90
0.650079 126.001 -1250 152 107 89
3.12542 125.498 -1245 149 104 87
5.58554 125.095 -1241 149 104 89
8.01016 124.39 -1234 156 110 95
10.4835 124.593 -1236 159 112 97
12.8495 123.687 -1227 152 109 94
15.1797 122.782 -1218 146 105 90
42.1232 189.437 -1879 253 226 214
45.7674 189.04 -1875 195 165 154
49.5811 189.349 -1878 172 156 151
53.4353 189.759 -1882 175 160 156
57.5188 190.876 -1893 180 166 162
61.4846 191.489 -1899 177 169 167
-135.5 199.382 -2015 161 160 167
-131.211 198.968 -2011 181 178 183
-126.559 197.962 -2001 172 169 174
-121.582 196.362 -1985 155 151 156
-115.958 193.577 -1957 161 153 154
-110.733 191.287 -1934 170 160 160
-105.877 189.492 -1916 183 172 168
-101.307 188.094 -1902 133 123 120
-96.896 186.894 -1890 132 121 123
-92.6817 185.991 -1881 140 132 133
-88.6931 185.485 -1876 107 99 101
-84.7704 185.078 -1872 98 87 88
-80.8212 184.572 -1867 98 88 90
-76.975 184.265 -1864 121 114 116
-72.9056 183.366 -1855 121 116 119
-69.0593 182.961 -1851 123 119 121
-65.1589 182.359 -1845 134 122 121
-61.8161 183.339 -1855 151 135 128
-31.6705 123.425 -1249 148 125 113
-29.4637 124.607 -1261 136 112 101
-27.0171 124.9 -1264 125 101 90
-24.5005 124.896 -1264 120 90 80
-21.9842 124.893 -1264 124 90 81
-19.4527 124.792 -1263 132 95 85
-16.9387 124.789 -1263 142 105 93
-14.4133 124.688 -1262 149 112 98
-11.8921 124.588 -1261 159 118 100
-9.38242 124.587 -1261 164 122 102
-6.85652 124.289 -1258 159 116 101
-4.34606 124.091 -1256 158 113 96
-1.84346 123.893 -1254 160 113 94
0.651027 123.695 -1252 160 113 95
3.13002 123.201 -1247 159 112 95
5.6118 123.202 -1247 155 107 92
8.0675 122.808 -1243 147 103 87
10.4566 121.821 -1233 135 94 77
12.8373 121.131 -1226 127 95 80
38.0291 183.988 -1862 235 194 183
41.6467 183.598 -1858 248 215 206
45.5173 184.295 -1865 189 158 150
49.3895 184.895 -1871 172 153 150
53.4282 185.989 -1882 175 159 156
57.4501 186.885 -1891 177 163 160
61.5734 187.981 -1902 177 167 165
65.6722 188.879 -1911 178 171 170
-135.482 195.341 -2015 163 162 169
-130.672 194.16 -2003 179 176 181
-125.784 192.787 -1989 169 166 171
-120.892 191.317 -1974 153 149 154
-115.765 189.363 -1954 168 160 161
-110.375 186.829 -1928 186 176 176
-105.587 185.167 -1911 154 144 141
-101.08 183.894 -1898 121 111 108
-96.6782 182.719 -1886 136 125 124
-92.5709 182.028 -1879 133 124 124
-88.6342 181.629 -1875 105 97 97
-84.6688 181.133 -1870 102 90 93
-80.8538 180.929 -1868 100 90 93
-77.0062 180.628 -1865 127 120 123
-73.0926 180.134 -1860 123 118 121
-69.013 179.156 -1850 124 120 123
-65.0797 178.47 -1843 135 121 117
-61.308 178.171 -1840 148 127 117
-57.3296 177.195 -1830 167 139 120
-26.9922 122.272 -1263 131 112 101
-24.5167 122.462 -1265 122 98 86
-21.9639 122.265 -1263 124 97 85
-19.4655 122.36 -1264 133 103 91
-16.9499 122.357 -1264 144 113 100
-14.4115 122.161 -1262 153 118 104
-11.8906 122.063 -1261 158 118 101
-9.37377 121.965 -1260 159 117 99
-6.86108 121.867 -1259 153 110 95
-4.35242 121.769 -1258 153 109 92
-1.84469 121.479 -1255 153 107 88
0.652495 121.479 -1255 150 103 86
3.14969 121.479 -1255 150 103 86
5.62456 120.995 -1250 143 97 82
8.07294 120.416 -1244 132 92 77
10.4381 119.158 -1231 128 93 78
30.5128 179.669 -1856 173 128 113
33.9305 178.221 -1841 187 144 131
37.6566 178.516 -1844 198 158 150
41.4619 179.103 -1850 208 175 167
45.3647 179.98 -1859 176 146 139
49.2511 180.663 -1866 169 150 147
53.3926 182.122 -1881 175 158 155
57.3819 182.904 -1889 180 164 163
61.6299 184.364 -1904 176 167 165
65.8696 185.632 -1917 178 171 170
-135.263 191.017 -2012 165 164 171
-130.394 189.766 -1999 178 175 179
-125.388 188.231 -1983 164 160 165
-120.448 186.696 -1967 151 146 151
-115.039 184.308 -1942 183 174 175
-109.96 182.301 -1921 174 164 164
-105.463 181.149 -1909 131 121 120
-101.067 180.092 -1898 116 106 104
-96.8196 179.225 -1889 138 127 126
-92.6083 178.359 -1880 129 119 119
-88.6227 177.873 -1875 98 89 89
-84.6578 177.388 -1870 101 92 94
-80.8434 177.187 -1868 99 91 94
-76.9962 176.893 -1865 127 120 124
-73.0439 176.314 -1859 123 118 120
-68.9295 175.262 -1848 127 122 124
-64.8242 174.115 -1836 131 118 116
-60.9004 173.349 -1828 147 127 120
-56.6958 171.634 -1810 167 138 126
-53.0913 171.627 -1810 166 134 123
-24.281 118.792 -1253 119 103 88
-21.8742 119.263 -1258 118 102 84
-19.4168 119.545 -1261 123 103 87
-16.9208 119.637 -1262 127 104 89
-14.4325 119.825 -1264 138 108 94
-11.9174 119.823 -1264 145 110 96
-9.38746 119.632 -1262 145 107 94
-6.86021 119.347 -1259 141 102 87
-4.35188 119.251 -1258 142 102 85
-1.84152 118.777 -1253 140 96 78
0.651366 118.777 -1253 139 95 77
3.1543 119.156 -1257 143 99 82
5.65533 119.157 -1257 141 97 83
26.6707 175.002 -1846 155 113 97
30.0815 173.489 -1830 146 111 95
33.6498 173.114 -1826 149 116 104
37.4474 173.877 -1834 158 128 123
41.2774 174.641 -1842 165 139 135
45.3345 176.163 -1858 164 139 135
49.324 177.212 -1869 166 147 145
53.471 178.641 -1884 172 155 153
57.5872 179.786 -1896 178 163 161
61.9133 181.406 -1913 177 170 168
66.033 182.267 -1922 177 171 170
-134.641 186.149 -2003 174 173 178
-129.725 184.831 -1989 184 180 182
-124.993 183.7 -1977 153 148 150
-119.82 181.827 -1957 168 160 163
-114.61 179.768 -1935 188 178 179
-109.66 177.989 -1916 144 134 134
-105.449 177.325 -1909 121 111 111
-100.948 176.105 -1896 118 108 108
-96.6535 175.164 -1886 140 130 130
-92.3995 174.223 -1876 120 110 110
-88.4697 173.84 -1872 94 84 84
-84.6471 173.644 -1870 95 89 90
-80.7467 173.262 -1866 104 98 99
-76.8214 172.788 -1861 129 122 123
-73.1132 172.779 -1861 121 115 116
-69.0327 171.841 -1851 123 117 118
-64.8866 170.626 -1838 131 119 120
-60.7595 169.319 -1824 139 119 117
-56.5634 167.64 -1806 149 121 116
-52.7327 166.891 -1798 156 128 120
-48.9343 166.142 -1790 157 130 120
-45.4723 166.508 -1794 141 117 104
-19.3681 116.743 -1258 114 93 84
-16.9321 117.205 -1263 118 95 85
-14.442 117.389 -1265 125 98 87
-11.9159 117.294 -1264 129 96 84
-9.37886 117.015 -1261 129 96 83
-6.84847 116.643 -1257 127 96 84
-4.33735 116.363 -1254 127 95 81
-1.83542 115.899 -1249 128 94 78
23.1191 172.234 -1856 152 108 92
26.5663 170.659 -1839 135 93 77
30.0282 169.549 -1827 120 94 80
33.6087 169.275 -1824 107 84 73
37.4631 170.3 -1835 131 115 112
41.2944 171.047 -1843 158 144 142
45.3533 172.538 -1859 154 139 138
49.344 173.565 -1870 160 144 141
53.4075 174.685 -1882 164 150 146
57.4887 175.713 -1893 169 157 153
61.7761 177.206 -1909 174 168 167
65.8871 178.049 -1918 179 173 172
-134.086 181.409 -1995 183 183 187
-129.253 180.211 -1982 175 171 172
-124.219 178.65 -1965 139 134 135
-119.254 177.089 -1948 184 176 178
-114.418 175.621 -1932 171 162 162
-109.589 174.062 -1915 120 110 110
-105.215 173.14 -1905 117 107 107
-101.042 172.491 -1898 124 114 114
-96.7953 171.661 -1889 140 130 130
-92.5852 170.831 -1880 117 107 107
-88.6006 170.366 -1875 97 87 87
-84.5462 169.719 -1868 102 94 94
-80.7366 169.528 -1866 112 104 105
-76.8945 169.245 -1863 127 119 119
-72.9864 168.782 -1858 119 112 113
-68.9496 167.956 -1849 121 115 116
-64.808 166.767 -1836 130 120 120
-60.752 165.669 -1824 133 117 114
-56.5877 164.118 -1807 138 116 109
-52.6969 163.203 -1797 144 122 113
-48.8735 162.38 -1788 149 127 118
-45.1878 161.92 -1783 146 123 111
-41.686 162.096 -1785 136 113 102
19.4553 168.791 -1859 138 101 86
23.0789 168.249 -1853 126 93 80
26.6353 167.435 -1844 104 75 63
30.041 165.986 -1828 65 46 39
33.6046 165.626 -1824 55 37 32
37.234 165.631 -1824 92 78 77
41.267 167.27 -1842 145 133 132
45.2501 168.456 -1855 149 138 136
49.3116 169.733 -1869 162 146 143
53.3157 170.647 -1879 165 151 147
57.2995 171.381 -1887 168 156 151
61.5095 172.66 -1901 171 165 164
65.7417 173.848 -1914 178 172 171
69.5171 173.766 -1913 177 171 170
-133.532 176.703 -1987 178 178 182
-128.454 175.176 -1970 136 132 133
-123.572 173.827 -1955 141 137 138
-118.628 172.301 -1938 171 165 166
-113.871 170.953 -1923 136 127 128
-109.29 169.784 -1910 117 107 107
-105.092 169.149 -1903 118 108 108
-101.083 168.781 -1899 130 120 120
-96.7324 167.792 -1888 140 130 130
-92.4262 166.803 -1877 113 103 103
-88.3536 166.17 -1870 96 86 86
-84.4002 165.716 -1865 109 101 101
-80.6403 165.617 -1864 119 111 111
-76.8439 165.43 -1862 125 117 118
-72.899 164.888 -1856 117 110 112
-69.0158 164.435 -1851 118 111 113
-64.906 163.361 -1839 129 119 119
-60.8446 162.288 -1827 131 117 114
-56.7687 161.037 -1813 134 117 112
-52.8664 160.142 -1803 141 125 117
-48.8951 158.893 -1789 144 128 120
-45.0558 157.91 -1778 147 126 118
-41.4007 157.461 -1773 142 123 114
-37.8301 157.279 -1771 127 109 100
-34.3838 157.63 -1775 123 99 85
15.7639 165.161 -1860 127 91 75
19.5366 165.785 -1867 119 92 78
23.1882 165.343 -1862 88 66 56
26.6609 163.926 -1846 52 33 26
30.1031 162.686 -1832 41 26 26
33.4346 161.18 -1815 44 30 31
37.1887 161.806 -1822 72 58 60
41.1724 163.231 -1838 131 120 119
45.3421 165.102 -1859 147 137 134
49.2529 165.818 -1867 158 142 138
53.2242 166.623 -1876 160 146 142
57.262 167.518 -1886 166 152 148
61.3404 168.413 -1896 165 161 160
65.5275 169.487 -1908 176 172 171
-128.048 170.711 -1964 122 118 119
-123.241 169.48 -1950 154 149 150
-118.369 168.075 -1934 149 143 144
-113.68 166.845 -1920 121 112 112
-109.277 165.963 -1910 120 110 110
-105.19 165.516 -1905 119 109 109
-100.805 164.548 -1894 132 122 122
-96.6697 163.928 -1887 140 130 130
-92.4645 163.136 -1878 107 97 97
-88.3432 162.43 -1870 97 87 87
-84.5259 162.246 -1868 107 99 99
-80.5443 161.716 -1862 119 111 112
-76.6698 161.359 -1858 121 113 115
-72.8904 161.177 -1856 112 105 109
-68.9331 160.56 -1849 111 103 107
-64.7572 159.337 -1835 126 116 116
-60.7708 158.461 -1825 129 117 116
-56.7307 157.326 -1812 130 116 114
-52.7723 156.277 -1800 135 123 117
-48.9166 155.403 -1790 140 128 122
-45.0757 154.443 -1779 142 125 120
-41.3725 153.83 -1772 138 122 115
-37.7187 153.305 -1766 128 113 106
-34.1473 153.04 -1763 117 100 85
-30.6402 153.036 -1763 118 101 86
-27.2872 153.901 -1773 121 101 87
12.0047 160.661 -1851 122 93 78
15.8129 161.965 -1866 128 100 87
19.5867 162.488 -1872 96 76 67
23.2226 161.882 -1865 53 38 34
26.73 160.67 -1851 39 27 26
30.0339 158.677 -1828 37 25 32
33.4859 157.813 -1818 44 32 38
37.1841 158.164 -1822 58 46 48
41.2348 159.818 -1841 120 109 108
45.2636 161.125 -1856 148 137 135
49.2997 162.259 -1869 155 141 137
53.2463 162.96 -1877 159 146 142
57.2553 163.748 -1886 161 149 145
61.43 164.883 -1899 160 156 155
65.6229 165.933 -1911 173 168 167
69.6094 166.375 -1916 180 174 173
-127.381 165.933 -1954 128 124 125
-122.848 165.069 -1944 155 150 151
-118.172 163.952 -1931 136 128 130
-113.667 163.004 -1920 118 109 109
-109.264 162.143 -1910 118 108 108
-105.178 161.706 -1905 124 114 114
-100.953 161.015 -1897 136 126 126
-96.4536 159.816 -1883 140 130 130
-92.3062 159.126 -1875 104 94 94
-88.333 158.691 -1870 96 86 86
-84.4709 158.427 -1867 107 99 100
-80.7513 158.418 -1867 119 111 112
-76.7847 157.899 -1861 118 110 112
-72.9212 157.551 -1857 110 103 107
-69.0742 157.204 -1853 111 104 107
-64.9614 156.178 -1841 125 115 115
-60.9635 155.323 -1831 127 115 115
-57.0373 154.553 -1822 127 113 112
-53.03 153.444 -1809 128 118 115
-49.0202 152.166 -1794 135 126 123
-45.1719 151.227 -1783 138 126 122
-41.391 150.374 -1773 136 124 119
-37.6504 149.521 -1763 129 117 111
-34.0659 149.178 -1759 125 106 100
-30.5846 149.259 -1760 108 88 82
-27.0994 149.341 -1761 105 84 76
-23.6106 149.423 -1762 114 90 81
-16.8005 151.199 -1783 126 93 81
-13.2624 151.282 -1784 126 95 83
0.947589 154.671 -1824 133 97 82
4.61698 156.113 -1841 132 96 82
8.34951 157.471 -1857 126 90 78
12.1071 158.32 -1867 115 93 84
15.9043 159.169 -1877 102 81 72
19.6786 159.511 -1881 58 42 38
23.2946 158.665 -1871 39 25 25
26.7123 156.887 -1850 38 26 28
30.0469 155.109 -1829 40 26 36
33.5189 154.35 -1820 48 34 41
37.0983 154.184 -1818 57 44 46
41.0285 155.376 -1832 112 102 101
45.2828 157.501 -1857 145 134 133
49.3204 158.609 -1870 150 138 134
53.2116 159.124 -1876 155 144 140
57.2184 159.894 -1885 158 147 144
61.2936 160.749 -1895 159 154 153
65.5123 161.859 -1908 170 165 164
-127.106 161.693 -1950 139 133 134
-122.644 160.933 -1941 152 145 147
-118.036 159.924 -1929 125 117 119
-113.536 159 -1918 121 112 112
-109.309 158.407 -1911 121 111 111
-105.111 157.815 -1904 131 121 121
-100.676 156.809 -1892 139 129 129
-96.494 156.135 -1884 138 128 128
-92.345 155.461 -1876 107 97 97
-88.4174 155.12 -1872 98 88 88
-84.5971 154.944 -1870 108 102 103
-80.7854 154.769 -1868 120 114 115
-76.8998 154.429 -1864 117 111 112
-72.9915 154.007 -1859 110 103 106
-69.141 153.667 -1855 111 104 107
-65.0953 152.831 -1845 125 115 115
-61.0566 151.913 -1834 126 114 115
-57.0621 150.996 -1823 125 111 113
-53.0827 149.996 -1811 122 113 112
-49.0967 148.83 -1797 129 120 118
-45.2934 148.08 -1788 134 125 122
-41.4565 147.081 -1776 135 124 120
-37.7742 146.497 -1769 131 120 115
-34.1783 146.162 -1765 126 110 104
-30.6332 145.992 -1763 105 88 83
-27.1887 146.32 -1767 77 59 54
-23.7285 146.649 -1771 86 66 60
-20.2754 147.143 -1777 103 82 76
-16.874 148.3 -1791 110 83 77
-13.3576 148.796 -1797 112 87 80
-9.83364 149.539 -1806 108 85 77
-6.32943 151.609 -1831 111 84 72
-2.71118 152.85 -1846 115 88 74
0.963059 153.512 -1854 116 88 74
4.67664 154.424 -1865 110 82 69
8.43849 155.418 -1877 105 78 66
12.1965 155.75 -1881 91 76 73
15.9533 155.917 -1883 51 36 34
19.6868 155.837 -1882 38 24 25
23.3294 155.177 -1874 39 23 28
26.7093 153.192 -1850 43 26 32
29.9121 150.794 -1821 38 23 32
33.4047 150.218 -1814 51 37 43
37.0941 150.553 -1818 58 44 45
41.2029 152.379 -1840 105 95 95
45.2531 153.709 -1856 140 130 130
49.2885 154.791 -1869 148 137 133
53.2341 155.459 -1877 149 139 136
57.2725 156.294 -1887 154 146 144
61.2221 156.797 -1893 162 154 152
65.3675 157.715 -1904 168 160 158
-126.571 157.147 -1942 146 140 141
-122.315 156.648 -1936 144 137 138
-117.962 155.987 -1928 124 115 116
-113.523 155.166 -1918 127 117 117
-109.297 154.587 -1911 134 124 124
-104.879 153.686 -1900 135 125 125
-100.824 153.27 -1895 142 132 132
-96.381 152.208 -1882 133 123 123
-92.4333 151.874 -1878 105 95 95
-88.4549 151.46 -1873 100 90 90
-84.633 151.289 -1871 109 103 104
-80.9062 151.28 -1871 121 115 116
-76.8501 150.625 -1863 121 115 116
-73.0621 150.455 -1861 116 109 112
-69.1707 150.043 -1856 112 105 109
-65.1234 149.227 -1846 124 114 114
-61.183 148.574 -1838 124 113 115
-57.1185 147.516 -1825 122 110 114
-53.1354 146.54 -1813 118 106 107
-49.2278 145.646 -1802 124 113 113
-45.4152 144.913 -1793 129 121 119
-41.6386 144.181 -1784 133 123 120
-37.8982 143.449 -1775 131 120 116
-34.2713 143.041 -1770 124 115 105
-30.7167 142.876 -1768 116 105 96
-27.2473 143.116 -1771 78 65 58
-23.8197 143.679 -1778 64 51 46
-20.3987 144.484 -1788 70 57 53
-17.0229 146.017 -1807 81 65 66
-13.5568 147.39 -1824 89 71 69
-10.0231 148.762 -1841 93 74 69
-6.43244 150.377 -1861 96 76 68
-2.74907 151.266 -1872 97 76 67
0.974372 151.589 -1876 98 77 68
4.71373 151.912 -1880 95 74 65
8.46903 152.236 -1884 83 62 54
12.2276 152.399 -1886 43 31 32
15.9854 152.481 -1887 37 25 27
19.6951 152.16 -1883 35 21 24
23.2646 151.031 -1869 38 22 26
26.6487 149.175 -1846 40 23 27
29.9086 147.158 -1821 43 28 33
33.401 146.596 -1814 50 36 39
37.2737 147.65 -1827 56 44 43
41.2879 149.028 -1844 105 96 95
45.3701 150.407 -1861 140 131 131
49.415 151.463 -1874 143 133 131
53.37 152.115 -1882 150 141 139
57.2966 152.606 -1888 152 144 142
61.2475 153.097 -1894 165 156 154
65.3603 153.913 -1904 171 162 161
69.259 154.162 -1907 176 168 167
-125.905 152.476 -1932 154 147 148
-121.986 152.384 -1931 133 125 126
-117.949 152.134 -1928 123 113 113
-113.511 151.333 -1918 132 122 122
-109.285 150.769 -1911 135 125 125
-105.033 150.126 -1903 134 124 124
-100.707 149.327 -1893 142 132 132
-96.3194 148.37 -1881 131 121 121
-92.3741 148.044 -1877 105 95 95
-88.5399 147.877 -1875 103 93 93
-84.624 147.552 -1871 110 104 104
-80.8112 147.386 -1869 118 112 113
-76.9657 147.141 -1866 121 115 116
-73.0542 146.739 -1861 116 110 113
-69.2005 146.416 -1857 110 104 107
-65.1869 145.699 -1848 117 108 109
-61.2098 144.983 -1839 121 112 114
-57.2062 144.109 -1828 119 110 113
-53.2469 143.236 -1817 119 106 107
-49.4138 142.6 -1809 121 108 109
-45.5875 141.886 -1800 126 115 114
-41.7975 141.172 -1791 133 122 120
-38.0863 140.616 -1784 133 122 119
-34.4032 140.06 -1777 125 114 112
-30.783 139.663 -1772 120 107 105
-27.2905 139.817 -1774 110 93 91
-23.8975 140.603 -1784 68 54 52
-20.4764 141.467 -1795 51 38 36
-17.1341 143.357 -1819 55 40 41
-13.6668 144.931 -1839 67 52 53
-10.1255 146.585 -1860 75 59 57
-6.47324 147.609 -1873 79 62 58
-2.76641 148.475 -1884 78 62 57
0.979973 148.711 -1887 77 60 55
4.7433 149.106 -1892 68 51 46
8.50857 149.185 -1893 49 32 28
12.2584 149.029 -1891 37 25 30
16.0346 149.188 -1893 36 24 29
19.693 148.402 -1883 35 21 26
23.2123 146.985 -1865 35 20 24
26.5881 145.175 -1842 39 23 26
29.9711 143.838 -1825 44 31 34
33.5814 143.763 -1824 51 39 40
37.2697 144.003 -1827 59 49 48
41.4402 145.899 -1851 107 99 100
45.4628 147.007 -1865 136 128 129
49.4359 147.8 -1875 144 134 134
53.336 148.279 -1881 148 139 138
57.3209 148.915 -1889 152 145 142
61.3057 149.474 -1896 162 152 150
65.3532 150.111 -1904 166 156 154
69.2517 150.355 -1907 172 164 162
-125.436 148.077 -1925 158 150 152
-121.91 148.449 -1930 125 117 118
-117.998 148.36 -1929 126 116 116
-113.558 147.579 -1919 139 129 129
-109.388 147.106 -1913 137 127 127
-104.856 146.095 -1900 133 123 123
-100.537 145.316 -1890 140 130 130
-96.5141 144.921 -1885 127 117 117
-92.5613 144.604 -1881 106 96 96
-88.5307 144.133 -1875 107 97 97
-84.6604 143.893 -1872 111 105 104
-80.8027 143.654 -1869 119 113 113
-76.9988 143.492 -1867 118 112 113
-73.0858 143.1 -1862 110 105 108
-69.305 142.939 -1860 110 106 109
-65.286 142.241 -1851 114 106 108
-61.3697 141.696 -1844 118 111 112
-57.3566 140.845 -1833 117 111 112
-53.4465 140.148 -1824 122 109 110
-49.5726 139.451 -1815 121 107 108
-45.7601 138.831 -1807 125 111 112
-41.8865 137.905 -1795 130 119 118
-38.1676 137.363 -1788 132 122 120
-34.419 136.591 -1778 126 116 118
-30.8318 136.357 -1775 114 102 104
-27.3184 136.431 -1776 115 99 99
-23.8951 137.043 -1784 96 82 81
-20.5199 138.193 -1799 57 43 42
-17.1982 140.265 -1826 43 27 26
-13.7322 141.953 -1848 51 36 36
-10.1789 143.642 -1870 55 41 41
-6.5175 144.87 -1886 59 43 42
-2.77934 145.407 -1893 59 43 42
0.984538 145.638 -1896 54 37 37
4.75534 145.715 -1897 49 32 32
8.51667 145.562 -1895 46 28 28
12.2896 145.64 -1896 42 29 32
16.0329 145.411 -1893 40 27 30
19.691 144.645 -1883 35 23 26
23.2099 143.264 -1865 34 23 23
26.5131 141.116 -1837 38 27 25
29.9516 140.12 -1824 45 34 35
33.6515 140.431 -1828 50 41 41
37.531 141.356 -1840 64 56 56
41.5479 142.589 -1856 111 106 108
45.5068 143.439 -1867 130 125 128
49.4835 144.212 -1877 141 133 133
53.3869 144.679 -1883 145 137 135
57.3756 145.299 -1891 152 145 141
61.2993 145.689 -1896 159 149 146
65.3464 146.311 -1904 160 151 148
69.1719 146.394 -1905 167 159 157
-125.097 143.858 -1920 153 145 147
-121.645 144.295 -1926 124 116 117
-117.802 144.283 -1926 131 121 121
-113.606 143.821 -1920 143 133 133
-109.263 143.136 -1911 137 127 127
-104.901 142.376 -1901 134 124 124
-100.633 141.692 -1892 137 127 127
-96.3507 140.933 -1882 123 113 113
-92.4042 140.624 -1878 107 97 97
-88.4272 140.241 -1873 107 97 97
-84.5613 140.007 -1870 109 103 103
-80.7512 139.849 -1868 119 113 113
-76.9497 139.692 -1866 118 112 113
-73.0784 139.385 -1862 108 103 106
-69.1862 139.003 -1857 109 104 107
-65.244 138.472 -1850 111 103 105
-61.3635 138.017 -1844 113 107 108
-57.3821 137.263 -1834 111 106 106
-53.4411 136.509 -1824 119 108 108
-49.6494 136.054 -1818 120 108 109
-45.8061 135.376 -1809 121 109 110
-41.9755 134.623 -1799 122 112 111
-38.2278 134.021 -1791 124 115 113
-34.5123 133.418 -1783 121 116 110
-30.8634 132.966 -1777 109 104 97
-27.3772 133.188 -1780 111 101 96
-23.9194 133.634 -1786 114 104 100
-20.5634 134.904 -1803 89 78 75
-17.2247 136.847 -1829 52 38 39
-13.7679 138.641 -1853 48 34 36
-10.216 140.436 -1877 46 33 35
-6.52721 141.333 -1889 48 31 32
-2.78641 142.006 -1898 52 35 35
0.987026 142.23 -1901 51 34 37
4.76738 142.305 -1902 50 32 35
8.54726 142.306 -1902 47 29 32
12.3207 142.232 -1901 43 27 29
16.0482 141.785 -1895 40 25 27
19.6576 140.664 -1880 37 25 27
23.1453 139.17 -1860 37 27 27
26.496 137.377 -1836 36 28 27
29.965 136.556 -1825 42 33 33
33.6849 136.934 -1830 50 41 41
37.5474 137.76 -1841 73 65 66
41.566 138.962 -1857 114 109 112
45.5022 139.714 -1867 128 124 127
49.4785 140.468 -1877 140 133 132
53.3815 140.922 -1883 145 138 136
57.3696 141.526 -1891 151 144 140
61.2608 141.831 -1895 157 147 143
65.3398 142.511 -1904 160 150 147
69.2372 142.743 -1907 167 159 157
73.3006 143.274 -1914 170 167 164
-125.215 140.169 -1922 146 138 140
-121.759 140.595 -1928 127 118 119
-117.852 140.51 -1927 133 123 123
-113.535 139.916 -1919 141 131 131
-109.309 139.394 -1912 134 124 124
-104.946 138.655 -1902 135 125 125
-100.676 137.989 -1893 133 123 123
-96.5459 137.469 -1886 120 110 110
-92.395 136.876 -1878 107 97 97
-88.4656 136.576 -1874 106 96 96
-84.5529 136.276 -1870 108 103 104
-80.6999 136.049 -1867 115 109 110
-76.8184 135.75 -1863 118 112 113
-72.9534 135.451 -1859 112 108 110
-69.1421 135.226 -1856 106 102 105
-65.2023 134.709 -1849 110 102 103
-61.3906 134.411 -1845 110 104 104
-57.5016 133.896 -1838 107 102 102
-53.6408 133.38 -1831 114 106 105
-49.7537 132.72 -1822 117 109 108
-45.9787 132.278 -1816 117 107 107
-42.158 131.618 -1807 114 106 104
-38.3308 130.813 -1796 116 109 106
-34.6442 130.372 -1790 118 116 106
-30.9993 130.005 -1785 110 106 97
-27.436 129.929 -1784 102 95 86
-23.9305 130.145 -1787 108 99 93
-20.5043 130.944 -1798 113 102 98
-17.1477 132.617 -1821 79 64 66
-13.7889 135.165 -1856 50 37 39
-10.2041 136.547 -1875 47 35 38
-6.52658 137.566 -1889 50 34 36
-2.78467 138.148 -1897 47 30 32
0.986403 138.367 -1900 48 30 34
4.76691 138.513 -1902 53 35 39
8.5509 138.586 -1903 51 33 37
12.3065 138.296 -1899 44 26 26
16.0294 137.86 -1893 41 24 24
19.6452 136.842 -1879 40 27 28
23.0311 134.805 -1851 43 33 34
26.4213 133.351 -1831 43 35 35
29.962 132.917 -1825 46 37 37
33.7368 133.503 -1833 54 46 47
37.7272 134.744 -1850 85 77 79
41.5841 135.331 -1858 118 113 116
45.5221 136.064 -1868 129 125 128
49.4736 136.724 -1877 139 133 132
53.4046 137.239 -1884 144 137 135
57.4246 137.9 -1893 148 140 138
61.4161 138.416 -1900 156 146 142
65.5049 139.078 -1909 160 150 147
69.3756 139.23 -1911 167 159 157
73.4081 139.674 -1917 168 164 161
77.1026 139.463 -1914 173 169 166
-125.399 136.545 -1925 143 135 137
-121.811 136.817 -1929 130 121 122
-117.84 136.664 -1927 137 126 126
-113.406 135.944 -1917 140 129 130
-109.298 135.579 -1912 133 123 123
-104.935 134.859 -1902 132 122 122
-100.613 134.14 -1892 130 120 120
-96.2806 133.351 -1881 117 107 107
-92.4353 133.2 -1879 107 97 97
-88.4099 132.767 -1873 107 98 98
-84.6351 132.687 -1872 108 103 104
-80.7786 132.467 -1869 113 109 110
-76.8934 132.176 -1865 115 110 113
-73.0248 131.885 -1861 112 108 111
-69.0982 131.453 -1855 106 102 105
-65.2665 131.163 -1851 112 104 104
-61.418 130.803 -1846 113 105 106
-57.6211 130.514 -1842 109 102 103
-53.7235 129.942 -1834 108 104 103
-49.8854 129.441 -1827 112 108 107
-46.0756 128.941 -1820 115 108 105
-42.224 128.228 -1810 111 105 101
-38.4764 127.728 -1803 114 107 102
-34.7377 127.158 -1795 111 108 97
-31.0832 126.801 -1790 114 111 100
-27.4795 126.585 -1787 100 95 84
-23.8745 126.3 -1783 102 92 83
-20.4796 127.218 -1796 110 97 90
-17.0708 128.421 -1813 114 96 95
-13.6464 130.119 -1837 77 62 63
-10.1324 131.889 -1862 52 41 43
-6.49487 133.163 -1880 48 34 35
-2.77708 134.013 -1892 47 32 33
0.985782 134.508 -1899 50 33 36
4.76644 134.721 -1902 52 35 38
8.54558 134.722 -1902 47 31 34
12.3054 134.51 -1899 46 27 27
15.9771 133.662 -1887 45 27 28
19.5074 132.176 -1866 44 29 32
22.8796 130.265 -1839 46 33 37
26.26 128.922 -1820 48 37 41
30.0248 129.562 -1829 50 39 41
33.6967 129.707 -1831 62 51 53
37.7848 131.269 -1853 101 91 93
41.5801 131.627 -1858 120 114 116
45.6149 132.623 -1872 127 123 125
49.4425 132.911 -1876 136 130 129
53.3712 133.411 -1883 139 133 132
57.4494 134.196 -1894 145 139 137
61.4426 134.698 -1901 155 145 141
65.6013 135.483 -1912 158 148 145
69.5505 135.773 -1916 166 157 154
73.5925 136.205 -1922 167 161 158
77.3769 136.141 -1921 173 168 165
-125.647 132.979 -1929 142 134 135
-121.925 133.106 -1931 134 125 127
-117.707 132.681 -1925 142 130 131
-113.573 132.326 -1920 140 130 130
-109.231 131.695 -1911 131 122 122
-104.87 130.996 -1901 127 117 117
-100.657 130.435 -1893 127 117 117
-96.4763 129.875 -1885 113 103 104
-92.5741 129.66 -1882 105 96 96
-88.5903 129.307 -1877 108 99 99
-84.7176 129.092 -1874 112 105 106
-80.771 128.74 -1869 115 109 111
-76.8862 128.457 -1865 113 109 112
-72.9003 127.968 -1858 112 107 110
-69.0917 127.755 -1855 108 103 105
-65.2252 127.404 -1850 110 102 103
-61.4122 127.123 -1846 113 106 107
-57.6783 126.98 -1844 107 102 103
-53.8063 126.493 -1837 105 101 101
-49.8807 125.799 -1827 110 106 106
-46.1472 125.519 -1823 116 108 107
-42.2899 124.827 -1813 110 102 101
-38.5582 124.41 -1807 111 103 101
-34.8699 124.062 -1802 108 103 98
-31.2365 123.853 -1799 111 105 100
-27.5845 123.506 -1794 102 95 90
-23.9259 123.022 -1787 93 83 79
-20.4092 123.226 -1790 93 82 78
-16.8432 123.155 -1789 107 95 94
-13.4892 125.013 -1816 108 95 95
-10.0553 127.214 -1848 68 57 59
-6.47009 128.935 -1873 46 34 35
-2.76655 129.76 -1885 47 33 35
0.982569 130.311 -1893 49 33 35
4.75847 130.724 -1899 48 34 35
8.51782 130.518 -1896 46 32 33
12.2588 130.244 -1892 47 29 30
15.8909 129.213 -1877 45 29 30
19.3381 127.356 -1850 42 28 31
22.6535 125.361 -1821 47 35 38
26.3441 125.708 -1826 50 39 43
30.0548 126.054 -1831 55 44 46
33.988 127.159 -1847 71 61 64
37.8424 127.782 -1856 107 98 101
41.6881 128.268 -1863 118 113 115
45.6107 128.891 -1872 124 120 122
49.4113 129.102 -1875 134 128 127
53.4795 129.933 -1887 137 131 130
57.5957 130.765 -1899 144 139 138
61.5338 131.115 -1904 152 143 138
65.5952 131.671 -1912 156 147 142
69.7252 132.297 -1921 166 156 152
73.6622 132.511 -1924 168 161 158
77.4906 132.518 -1924 174 168 165
-125.766 129.265 -1931 140 132 132
-121.788 129.12 -1929 139 130 130
-117.513 128.64 -1922 144 133 133
-113.444 128.362 -1918 139 130 130
-109.335 128.018 -1913 129 120 120
-104.695 127.004 -1898 125 115 115
-100.595 126.594 -1892 123 113 114
-96.5699 126.25 -1887 110 100 101
-92.7625 126.175 -1886 104 95 97
-88.6767 125.698 -1879 107 99 101
-84.9359 125.69 -1879 114 104 104
-80.9365 125.282 -1873 116 108 110
-77.0441 125.007 -1869 115 108 112
-73.0113 124.465 -1861 111 104 108
-69.1972 124.258 -1858 104 97 100
-65.3249 123.918 -1853 100 94 95
-61.573 123.778 -1851 103 99 100
-57.8919 123.773 -1851 103 100 101
-53.9479 123.166 -1842 107 102 103
-50.1492 122.827 -1837 109 103 104
-46.2948 122.288 -1829 116 106 106
-42.5427 121.95 -1824 112 104 104
-38.64 121.077 -1811 106 98 98
-35.0409 121.073 -1811 105 99 98
-31.3378 120.669 -1805 101 94 93
-27.6896 120.399 -1801 105 97 95
-24.0308 119.996 -1795 95 86 84
-20.4074 119.66 -1790 83 73 71
-16.8982 119.992 -1795 87 79 79
-13.4731 121.261 -1814 102 92 93
-9.95642 122.329 -1830 96 84 85
-6.40388 123.933 -1854 53 43 43
-2.75163 125.336 -1875 48 37 37
0.975726 125.671 -1880 49 35 36
4.73548 126.339 -1890 48 35 36
8.47662 126.139 -1887 45 32 33
12.1411 125.271 -1874 40 29 31
15.6525 123.601 -1849 38 28 30
19.1796 122.667 -1835 44 34 36
22.6017 121.466 -1817 52 43 45
26.3129 121.936 -1824 56 48 50
30.1177 122.674 -1835 59 51 53
34.0769 123.813 -1852 84 77 80
37.9613 124.485 -1862 107 102 107
41.8633 125.09 -1871 117 113 116
45.5822 125.094 -1871 124 120 122
49.5386 125.7 -1880 134 128 127
53.4461 126.106 -1886 137 130 129
57.4388 126.646 -1894 145 138 136
61.4312 127.119 -1901 148 142 138
65.4863 127.66 -1909 154 147 143
69.6101 128.268 -1918 163 155 152
73.6553 128.676 -1924 171 163 161
77.5238 128.749 -1925 174 167 164
81.6926 129.292 -1933 175 170 170
-121.967 125.467 -1932 141 132 132
-117.564 124.872 -1923 143 133 133
-113.552 124.667 -1920 137 128 128
-109.383 124.268 -1914 128 119 119
-104.907 123.48 -1902 123 113 113
-100.639 122.886 -1893 120 110 111
-96.7148 122.683 -1890 107 97 99
-92.7543 122.415 -1886 104 96 98
-88.7632 122.083 -1881 107 99 101
-85.0188 122.075 -1881 115 105 105
-81.0157 121.678 -1875 116 108 109
-77.0784 121.347 -1870 112 105 108
-73.0833 120.886 -1863 107 100 103
-69.3399 120.815 -1862 101 94 97
-65.4249 120.42 -1856 99 93 94
-61.6674 120.285 -1854 101 96 96
-57.9181 120.15 -1852 101 96 96
-54.0896 119.821 -1847 101 96 95
-50.3086 119.557 -1843 100 94 94
-46.4679 119.098 -1836 109 100 102
-42.5622 118.381 -1825 109 101 102
-38.914 118.312 -1824 93 86 87
-35.1733 117.92 -1818 86 80 81
-31.526 117.787 -1816 89 82 82
-27.8409 117.461 -1811 99 91 89
-24.1625 117.069 -1805 97 88 86
-20.531 116.808 -1801 82 72 70
-16.9438 116.741 -1800 72 64 64
-13.4199 117.194 -1807 80 70 71
-9.89027 117.906 -1818 99 87 88
-6.31698 118.619 -1829 93 83 83
-2.71618 120.045 -1851 57 47 47
0.966293 120.759 -1862 52 38 39
4.67994 121.148 -1868 47 35 35
8.37704 120.954 -1865 45 35 35
12.0299 120.436 -1857 44 34 36
15.4564 118.427 -1826 46 37 39
18.9898 117.845 -1817 48 39 41
22.7114 118.43 -1826 53 45 47
26.4836 119.081 -1836 62 54 56
30.2628 119.602 -1844 73 65 67
34.2395 120.708 -1861 98 91 94
38.0395 121.035 -1866 108 104 108
41.9267 121.558 -1874 116 112 114
45.7243 121.756 -1877 124 120 122
49.6396 122.214 -1884 132 126 126
53.6681 122.868 -1894 135 128 127
57.5245 123.067 -1897 142 134 133
61.5551 123.591 -1905 146 140 137
65.6864 124.246 -1915 152 146 143
69.5676 124.381 -1917 158 150 148
73.4957 124.582 -1920 165 157 155
77.5573 124.978 -1926 170 162 160
81.7277 125.504 -1934 173 167 166
-125.158 120.996 -1922 143 135 135
-121.514 121.174 -1925 141 132 132
-117.37 120.849 -1920 139 129 129
-113.424 120.714 -1918 133 123 123
-109.087 120.138 -1909 126 116 116
-104.898 119.688 -1902 122 112 112
-100.737 119.239 -1895 121 111 112
-96.7576 118.979 -1891 108 98 100
-92.7954 118.719 -1887 105 96 98
-88.85 118.46 -1883 107 99 101
-85.0115 118.327 -1881 114 104 104
-81.052 118.006 -1876 116 108 109
-77.1543 117.747 -1872 113 107 108
-73.1554 117.301 -1865 108 102 103
-69.334 117.106 -1862 102 96 97
-65.5251 116.911 -1859 100 94 95
-61.662 116.592 -1854 101 95 95
-57.9132 116.461 -1852 99 93 92
-54.1141 116.205 -1848 95 90 89
-50.3861 116.074 -1846 93 87 86
-46.5652 115.693 -1840 99 91 93
-42.8618 115.564 -1838 101 94 95
-39.0173 114.994 -1829 89 83 84
-35.3056 114.74 -1825 74 68 69
-31.6448 114.611 -1823 73 67 67
-27.9308 114.231 -1817 76 68 66
-24.281 114.041 -1814 84 75 74
-20.6774 114.039 -1814 82 73 72
-17.0176 113.66 -1808 71 63 63
-13.4634 113.973 -1813 69 60 60
-9.89487 114.349 -1819 74 62 63
-6.30263 114.726 -1825 91 81 81
-2.69101 115.291 -1834 95 85 85
0.952193 115.354 -1835 71 57 58
4.63194 116.234 -1849 57 45 45
8.28201 115.92 -1844 50 40 40
11.8345 114.853 -1827 51 41 42
15.4212 114.539 -1822 48 39 41
19.0822 114.792 -1826 52 44 46
22.7965 115.234 -1833 65 57 59
26.6398 116.116 -1847 78 70 72
30.4735 116.747 -1857 90 82 84
34.347 117.379 -1867 99 92 95
38.1585 117.696 -1872 105 101 104
41.9679 117.951 -1876 115 111 113
45.7935 118.206 -1880 124 120 121
49.609 118.399 -1883 131 125 126
53.4652 118.655 -1887 133 126 126
57.4286 119.1 -1894 142 134 134
61.4204 119.545 -1901 147 141 138
65.475 120.054 -1909 153 147 144
69.6342 120.688 -1919 158 150 148
73.4894 120.757 -1920 164 156 154
77.5101 121.078 -1925 169 161 159
81.5939 121.462 -1931 173 167 166
-125.343 117.347 -1925 138 130 130
-121.63 117.459 -1927 135 126 126
-117.238 116.901 -1918 137 127 127
-113.356 116.83 -1917 131 121 121
-108.964 116.212 -1907 123 113 113
-105.054 116.081 -1905 121 111 111
-100.728 115.463 -1895 121 112 112
-96.8008 115.272 -1892 107 98 99
-92.8861 115.082 -1889 103 95 97
-88.9369 114.831 -1885 107 99 101
-84.9593 114.519 -1880 113 104 104
-81.0453 114.269 -1876 115 107 108
-77.1066 113.957 -1871 112 106 107
-73.2278 113.708 -1867 109 103 104
-69.3655 113.458 -1863 103 97 98
-65.5548 113.27 -1860 101 95 96
-61.7567 113.082 -1857 99 93 93
-58.0021 112.956 -1855 95 89 88
-54.1682 112.647 -1850 91 87 86
-50.4092 112.46 -1847 89 84 83
-46.7132 112.395 -1846 88 82 83
-42.9748 112.208 -1843 90 84 85
-39.206 111.901 -1838 91 85 86
-35.4574 111.593 -1833 80 74 75
-31.7464 111.347 -1829 68 61 62
-28.0514 111.101 -1825 65 57 57
-24.4128 111.038 -1824 66 58 58
-20.7327 110.732 -1819 68 59 59
-17.1574 110.974 -1823 73 65 65
-13.5142 110.79 -1820 71 61 62
-9.90494 110.85 -1821 68 56 57
-6.30212 111.093 -1825 69 59 59
-2.68199 111.275 -1828 86 76 76
0.950552 111.518 -1832 95 81 82
4.59649 111.701 -1835 90 78 79
8.2409 111.702 -1835 82 72 72
11.8595 111.459 -1831 71 61 63
15.4622 111.217 -1827 63 53 55
19.206 111.888 -1838 74 66 68
22.9687 112.437 -1847 85 78 79
26.7962 113.109 -1858 92 85 86
30.5364 113.294 -1861 93 86 89
34.3441 113.662 -1867 94 87 91
38.1554 113.969 -1872 105 99 103
41.9868 114.277 -1877 115 111 113
45.8141 114.524 -1881 123 119 120
49.6576 114.772 -1885 129 123 123
53.6024 115.202 -1892 132 125 125
57.5148 115.511 -1897 143 135 135
61.4799 115.881 -1903 149 143 140
65.3667 116.069 -1906 154 147 144
69.6285 116.866 -1919 159 151 149
73.4833 116.933 -1920 166 157 155
77.4635 117.183 -1924 170 161 159
81.4602 117.433 -1928 171 165 164
-125.203 113.392 -1923 131 123 123
-121.747 113.736 -1929 131 122 122
-117.351 113.196 -1920 135 125 125
-113.288 112.951 -1916 128 118 118
-109.013 112.471 -1908 122 112 112
-105.046 112.286 -1905 119 109 109
-100.72 111.688 -1895 118 108 108
-96.9465 111.68 -1895 104 96 96
-92.8786 111.319 -1889 101 93 94
-88.9298 111.076 -1885 106 98 99
-84.9072 110.716 -1879 110 102 102
-81.2116 110.768 -1880 114 107 107
-77.2241 110.408 -1874 111 105 106
-73.3396 110.167 -1870 110 104 105
-69.5088 109.984 -1867 104 98 99
-65.6201 109.685 -1862 101 95 96
-61.8181 109.503 -1859 98 93 93
-57.9975 109.262 -1855 96 91 91
-54.2517 109.14 -1853 90 86 86
-50.5417 109.077 -1852 89 84 85
-46.836 109.014 -1851 87 81 82
-43.0645 108.775 -1847 87 80 81
-39.3735 108.713 -1846 90 82 83
-35.59 108.357 -1840 87 81 81
-31.8132 107.942 -1833 72 65 65
-28.1414 107.822 -1831 68 61 60
-24.5045 107.82 -1831 66 58 58
-20.8678 107.818 -1831 64 56 56
-17.2218 107.758 -1830 66 58 58
-13.5874 107.756 -1830 62 53 54
-9.93678 107.579 -1827 66 54 56
-6.31198 107.637 -1828 66 56 57
-2.68618 107.813 -1831 72 61 62
0.953064 108.167 -1837 81 67 69
4.60363 108.226 -1838 94 82 83
8.28514 108.638 -1845 104 94 95
11.9751 108.875 -1849 106 97 99
