ply
format ascii 1.0
comment Created by Open3D
element vertex 1393
property double x
property double y
property double z
property uchar red
property uchar green
property uchar blue
end_header
-189.634 383.496 -1814 233 189 160
-186.148 383.864 -1816 232 191 161
-182.655 384.234 -1818 229 191 160
-178.86 383.97 -1817 231 189 161
-175.167 383.919 -1817 233 190 163
-171.38 383.658 -1816 234 191 163
-167.969 384.242 -1819 238 195 165
-164.006 383.561 -1816 239 196 164
-160.408 383.725 -1817 243 196 166
-156.636 383.468 -1816 235 190 159
-153.29 384.268 -1820 221 179 148
-149.518 384.013 -1819 219 172 136
-146.072 384.604 -1822 221 172 135
-142.459 384.774 -1823 225 174 139
-139.148 385.788 -1828 234 180 146
-135.373 385.538 -1827 231 174 143
-75.5081 234.167 -1110 253 219 199
-73.5274 234.989 -1114 255 227 208
-71.4031 235.39 -1116 252 223 204
-69.1475 235.37 -1116 252 215 196
-66.8924 235.35 -1116 253 212 191
-64.522 234.91 -1114 244 202 177
-62.2162 234.68 -1113 230 185 161
-59.9148 234.452 -1112 220 169 145
-57.6181 234.224 -1111 208 157 132
-55.3257 233.997 -1110 201 150 124
-53.1336 234.193 -1111 204 146 124
-50.9379 234.388 -1112 213 155 132
-48.6072 233.953 -1110 240 183 159
-46.2432 233.307 -1107 190 146 131
-65.055 383.725 -1821 148 114 101
-61.115 382.022 -1813 95 66 57
-57.4295 381.794 -1812 78 65 65
-53.8673 382.41 -1815 75 69 69
-50.4041 383.87 -1822 71 68 69
-46.7849 384.277 -1824 75 69 70
-43.2762 385.739 -1831 75 69 69
-39.7396 387.202 -1838 75 69 68
-36.136 388.244 -1843 71 73 78
-32.5125 389.288 -1848 154 157 163
-28.8692 390.332 -1853 195 198 207
-25.1652 390.746 -1855 182 188 196
-208.859 381.473 -1821 70 71 81
-205.034 381.205 -1820 87 81 86
-200.993 380.518 -1817 147 123 114
-197.183 380.252 -1816 206 169 151
-193.378 379.986 -1815 227 184 164
-189.684 379.931 -1815 233 187 158
-185.992 379.878 -1815 235 190 161
-182.502 380.244 -1817 233 191 161
-178.71 379.983 -1816 233 190 164
-175.213 380.351 -1818 234 191 165
-171.331 379.883 -1816 234 191 163
-167.736 380.043 -1817 238 195 164
-164.049 379.996 -1817 240 197 165
-160.627 380.577 -1820 242 196 167
-156.85 380.323 -1819 232 187 158
-153.246 380.487 -1820 220 178 148
-149.558 380.444 -1820 220 173 138
-145.95 380.611 -1821 222 173 136
-142.418 380.988 -1823 230 179 142
-139.108 381.993 -1828 234 181 146
-76.0306 233.534 -1118 255 228 210
-73.8363 233.721 -1119 255 228 210
-71.4467 233.283 -1117 254 225 206
-69.1896 233.263 -1117 254 217 196
-66.9332 233.244 -1117 249 207 186
-64.5615 232.807 -1115 242 198 174
-62.2542 232.58 -1114 235 190 165
-60.0593 232.772 -1115 226 176 151
-57.8089 232.755 -1115 214 161 137
-55.5591 232.739 -1115 203 149 125
-53.2619 232.515 -1114 207 149 128
-51.1065 232.917 -1116 225 170 147
-48.7246 232.277 -1113 249 198 173
-46.397 231.846 -1111 198 161 145
-61.1312 378.472 -1814 78 57 48
-57.1913 376.577 -1805 74 63 63
-53.8224 378.439 -1814 70 65 65
-50.3621 379.885 -1821 69 66 67
-46.7203 380.08 -1822 72 66 65
-43.3112 382.361 -1833 74 68 67
-39.7932 384.018 -1841 75 69 68
-36.1453 384.633 -1844 72 72 74
-32.556 386.084 -1851 78 79 82
-28.8765 386.701 -1854 126 129 136
-213.214 378.99 -1827 66 69 76
-209.603 379.137 -1828 69 71 77
-205.313 378.041 -1823 93 87 87
-201.488 377.776 -1822 152 126 115
-197.669 377.513 -1821 206 169 149
-193.643 376.835 -1818 224 184 161
-189.839 376.574 -1817 233 186 157
-185.939 376.106 -1815 234 189 161
-182.45 376.468 -1817 232 190 162
-178.659 376.21 -1816 232 190 163
-174.874 375.953 -1815 232 190 164
-171.094 375.697 -1814 231 189 160
-167.689 376.27 -1817 235 193 161
-163.912 376.016 -1816 238 197 163
-160.493 376.591 -1819 239 195 164
-156.633 376.133 -1817 227 184 152
-152.95 376.089 -1817 212 170 138
-149.351 376.253 -1818 224 176 141
-145.829 376.625 -1820 237 187 150
-142.456 377.412 -1824 227 173 138
-139.145 378.407 -1829 204 149 114
-78.3393 231.444 -1119 255 228 209
-76.145 231.629 -1120 255 226 208
-73.9473 231.815 -1121 255 226 208
-71.5544 231.381 -1119 255 225 205
-69.2939 231.361 -1119 255 218 196
-67.0341 231.341 -1119 250 209 186
-64.7747 231.323 -1119 243 199 175
-62.46 231.098 -1118 234 189 165
-60.2038 231.081 -1118 226 178 155
-57.9481 231.064 -1118 214 157 135
-55.6928 231.048 -1118 212 152 130
-53.3424 230.62 -1116 221 165 143
-51.1378 230.812 -1117 225 172 149
-48.7109 229.971 -1113 245 203 178
-46.3421 229.338 -1110 255 225 206
-43.7475 227.466 -1101 243 214 196
-50.0714 374.048 -1811 71 68 69
-46.6814 376.1 -1821 73 67 67
-43.3698 379.185 -1836 71 66 66
-39.9115 381.445 -1847 72 67 67
-36.2722 382.261 -1851 73 72 72
-32.6523 383.49 -1857 70 70 70
-28.9306 383.688 -1858 80 82 88
-213.504 375.808 -1830 70 73 80
-209.085 374.517 -1824 70 69 75
-205.48 374.664 -1825 101 92 91
-201.653 374.402 -1824 159 131 118
-197.722 373.935 -1822 205 168 146
-193.482 372.854 -1817 222 182 157
-189.89 373.006 -1818 232 185 156
-185.887 372.337 -1815 231 186 159
-182.599 373.106 -1819 229 187 161
-178.314 371.825 -1813 229 188 161
-175.017 372.596 -1817 230 189 161
-171.046 371.932 -1814 230 189 158
-167.734 372.705 -1818 233 193 159
-164.046 372.659 -1818 237 196 160
-160.448 372.818 -1819 235 192 160
-156.761 372.774 -1819 222 179 146
-153.075 372.73 -1819 211 167 134
-149.473 372.893 -1820 207 157 121
-145.788 372.852 -1820 193 140 104
-142.572 374.041 -1826 166 110 77
-80.3635 228.533 -1116 253 216 191
-78.4573 229.535 -1121 255 225 205
-76.2596 229.718 -1122 255 223 203
-73.9926 229.697 -1122 255 221 201
-71.6622 229.472 -1121 250 210 190
-69.3364 229.247 -1120 245 204 183
-67.0752 229.228 -1120 242 200 177
-64.7566 229.005 -1119 238 197 175
-62.4984 228.988 -1119 233 191 168
-60.2408 228.971 -1119 224 180 157
-57.9837 228.954 -1119 223 172 149
-55.6274 228.529 -1117 213 160 138
-53.3275 228.309 -1116 220 172 150
-51.032 228.09 -1115 244 202 179
-48.4784 226.644 -1108 255 225 201
-46.1622 226.222 -1106 251 226 203
-43.3777 223.346 -1092 251 231 207
-39.6628 375.375 -1836 67 64 65
-28.8447 378.822 -1853 66 68 73
-25.1033 378.61 -1852 84 89 93
-212.627 370.584 -1823 82 82 93
-208.568 369.916 -1820 77 73 81
-205.423 370.875 -1825 110 97 97
-201.596 370.615 -1824 163 134 117
-197.884 370.56 -1824 202 164 140
-193.747 369.693 -1820 220 179 153
-189.942 369.436 -1819 230 183 154
-186.039 368.978 -1817 230 185 158
-182.448 369.13 -1818 230 188 163
-178.067 367.659 -1811 226 186 156
-175.065 369.031 -1818 227 187 156
-171.375 368.983 -1818 229 190 157
-167.687 368.936 -1818 232 193 156
-164.001 368.89 -1818 233 194 155
-160.403 369.048 -1819 233 190 156
-156.545 368.598 -1817 221 176 142
-152.865 368.556 -1817 213 165 130
-149.35 368.92 -1819 196 142 107
-145.908 369.487 -1822 154 98 62
-142.767 370.867 -1829 146 88 55
-80.5572 226.83 -1119 255 223 199
-78.4355 227.214 -1121 255 223 203
-76.2385 227.395 -1122 255 224 204
-73.9061 227.171 -1121 255 220 200
-71.5784 226.949 -1120 252 212 192
-69.3172 226.929 -1120 249 210 188
-67.0566 226.911 -1120 246 207 184
-64.7965 226.892 -1120 242 204 183
-62.5369 226.875 -1120 235 197 175
-60.278 226.858 -1120 233 193 170
-58.0194 226.842 -1120 235 192 171
-55.612 226.218 -1117 238 202 181
-53.2649 225.798 -1115 250 223 201
-50.9264 225.379 -1113 255 229 207
-48.3338 223.745 -1105 254 222 200
-45.8991 222.72 -1100 244 218 192
-42.7701 218.051 -1077 246 223 198
-40.3372 216.622 -1070 247 234 217
-35.9192 371.165 -1834 64 66 65
-212.452 366.6 -1822 77 78 91
-208.625 366.341 -1821 81 74 81
-205.254 366.888 -1824 122 105 102
-201.541 366.832 -1824 167 132 114
-197.938 366.978 -1825 199 159 134
-193.907 366.321 -1822 214 173 145
-189.889 365.665 -1819 220 175 142
-186.091 365.413 -1818 223 180 148
-182.297 365.161 -1817 221 180 149
-178.706 365.312 -1818 223 182 146
-175.209 365.666 -1820 226 185 148
-171.517 365.618 -1820 229 188 152
-168.01 365.974 -1822 229 188 151
-164.136 365.526 -1820 233 192 154
-160.359 365.281 -1819 233 187 151
-156.588 365.037 -1818 219 173 137
-152.738 364.593 -1816 203 157 120
-149.308 365.154 -1819 168 115 79
-145.787 365.515 -1821 173 118 82
-142.65 366.88 -1828 205 152 118
-80.4631 224.314 -1118 255 223 199
-78.4139 224.894 -1121 255 223 202
-76.2175 225.074 -1122 255 221 200
-73.8858 224.853 -1121 255 220 199
-71.5587 224.632 -1120 255 219 199
-69.2981 224.613 -1120 255 219 198
-67.0381 224.595 -1120 255 222 201
-64.7209 224.376 -1119 252 221 199
-62.464 224.359 -1119 250 218 196
-60.2076 224.342 -1119 251 219 197
-57.8999 224.125 -1118 253 232 209
-55.547 223.709 -1116 255 238 215
-53.1548 223.093 -1113 255 236 213
-50.5922 221.676 -1106 254 227 206
-48.0145 220.059 -1098 255 224 206
-45.1356 216.839 -1082 254 231 208
-42.1628 212.819 -1062 255 237 213
-39.7232 211.205 -1054 255 246 230
-37.53 210.794 -1052 253 243 227
-35.5136 211.385 -1055 248 236 221
-33.3588 211.175 -1054 250 236 208
-31.4454 212.569 -1061 252 237 209
-29.3107 212.561 -1061 254 237 210
-27.2787 213.354 -1065 253 234 209
-35.8507 366.775 -1831 65 67 67
-32.2388 367.567 -1835 63 66 66
-28.611 368.36 -1839 67 67 71
-212.627 363.221 -1824 61 64 77
-208.683 362.765 -1822 82 74 79
-205.085 362.908 -1823 128 110 105
-201.596 363.251 -1825 168 131 113
-197.884 363.196 -1825 198 158 132
-194.066 362.944 -1824 211 170 142
-190.255 362.693 -1823 212 169 132
-186.142 361.846 -1819 215 173 136
-182.248 361.398 -1817 218 177 139
-178.756 361.747 -1819 223 181 141
-175.161 361.898 -1820 223 181 141
-171.752 362.447 -1823 226 184 145
-168.056 362.401 -1823 227 184 147
-164.001 361.561 -1819 232 189 153
-160.228 361.318 -1818 224 175 139
-156.373 360.878 -1816 189 141 104
-152.697 360.836 -1816 162 117 80
-149.104 360.994 -1817 192 140 103
-145.668 361.55 -1820 223 168 132
-82.5524 221.628 -1116 255 223 197
-80.6571 222.599 -1121 255 221 197
-78.3927 222.577 -1121 255 223 200
-76.1968 222.755 -1122 255 219 198
-73.8657 222.536 -1121 255 217 196
-71.5393 222.318 -1120 255 216 196
-69.2793 222.299 -1120 255 218 198
-66.9601 222.082 -1119 255 220 199
-64.6454 221.866 -1118 255 216 196
-62.3912 221.849 -1118 254 216 197
-60.1374 221.832 -1118 255 223 204
-57.7807 221.419 -1116 255 229 207
-55.4324 221.007 -1114 255 231 209
-52.9971 220.199 -1110 254 225 204
-50.3498 218.4 -1101 253 222 203
-47.608 216.006 -1089 255 228 211
-44.2059 210.242 -1060 255 231 210
-41.556 207.652 -1047 255 236 214
-39.3356 207.046 -1044 255 248 234
-37.2345 207.036 -1044 253 240 225
-35.3021 208.017 -1049 244 227 210
-33.2232 208.206 -1050 248 226 197
-31.2888 209.388 -1056 246 225 196
-29.1923 209.578 -1057 252 230 203
-27.1945 210.561 -1062 254 231 207
-25.1768 211.546 -1067 252 227 204
-28.4945 363.178 -1832 70 66 73
-24.7983 362.972 -1831 69 66 73
-21.0948 362.57 -1829 72 70 77
-17.4661 363.556 -1834 73 80 82
-13.8401 365.137 -1842 115 122 126
-212.453 359.245 -1823 58 61 74
-208.397 358.597 -1820 80 75 80
-205.142 359.329 -1824 123 108 104
-201.542 359.472 -1825 159 128 112
-197.613 359.024 -1823 186 150 125
-194.014 359.168 -1824 199 162 135
-189.995 358.526 -1821 206 165 126
-186.092 358.082 -1819 212 170 130
-182.098 357.442 -1816 215 172 131
-178.511 357.59 -1817 216 174 134
-174.921 357.739 -1818 215 172 133
-171.894 359.07 -1825 219 175 136
-168.011 358.631 -1823 223 179 142
-164.227 358.39 -1822 217 172 136
-160.361 357.953 -1820 175 128 92
-156.503 357.517 -1818 162 115 79
-152.824 357.476 -1818 191 146 110
-149.31 357.829 -1820 227 177 140
-145.949 358.575 -1824 235 183 147
-82.8259 220.109 -1120 255 220 194
-80.8512 220.873 -1124 255 220 195
-78.5813 220.851 -1124 255 219 196
-76.2442 220.634 -1123 255 214 193
-73.9776 220.614 -1123 255 213 192
-71.52 220.005 -1120 255 212 192
-69.2607 219.987 -1120 255 215 194
-66.8823 219.576 -1118 253 212 190
-64.5703 219.362 -1117 254 204 188
-62.2629 219.148 -1116 255 215 199
-59.96 218.936 -1115 255 217 201
-57.6616 218.724 -1114 255 222 203
-55.2683 218.119 -1111 255 221 202
-52.7443 216.927 -1105 250 213 193
-49.9706 214.558 -1093 254 220 201
-46.8085 210.226 -1071 255 224 207
-43.8188 206.288 -1051 255 224 203
-41.3068 204.314 -1041 255 225 203
-39.1367 203.911 -1039 255 245 231
-37.0107 203.705 -1038 255 241 225
-35.158 205.069 -1045 247 223 205
-33.1827 205.845 -1049 246 216 187
-31.1915 206.621 -1053 241 212 183
-29.2397 207.79 -1059 249 221 193
-27.1872 208.371 -1062 253 224 200
-25.1937 209.542 -1068 245 216 194
-28.4558 359.008 -1830 66 63 68
-24.7646 358.804 -1829 67 64 69
-21.066 358.406 -1827 72 69 74
-17.4139 358.793 -1829 69 74 76
-13.7762 359.77 -1834 73 79 82
-212.629 355.861 -1825 66 67 80
-208.799 355.61 -1824 73 69 75
-205.425 356.139 -1827 98 87 85
-201.488 355.696 -1825 135 113 103
-197.777 355.642 -1825 167 138 118
-193.962 355.395 -1824 182 151 128
-189.944 354.76 -1821 193 157 120
-185.94 354.126 -1818 202 163 125
-182.049 353.687 -1816 206 166 127
-178.464 353.834 -1817 208 167 129
-174.971 354.177 -1819 210 168 130
-171.472 354.52 -1821 210 166 128
-167.874 354.67 -1822 197 152 115
-164.093 354.431 -1821 145 99 63
-160.23 353.999 -1819 166 120 84
-156.548 353.957 -1819 203 157 121
-152.867 353.916 -1819 222 176 139
-149.352 354.265 -1821 232 183 147
-146.15 355.393 -1827 228 178 142
-83.1736 218.769 -1125 255 217 192
-80.8297 218.553 -1124 255 218 195
-78.6303 218.726 -1125 253 217 194
-76.2239 218.317 -1123 253 213 191
-73.9579 218.297 -1123 252 210 189
-71.501 217.695 -1120 253 208 186
-69.1804 217.482 -1119 255 210 187
-66.7449 216.881 -1116 248 203 180
-64.4954 216.863 -1116 253 203 187
-62.1348 216.458 -1114 255 215 199
-59.8365 216.247 -1113 255 217 199
-57.4911 215.843 -1111 255 219 201
-55.1541 215.44 -1109 253 211 192
-52.6348 214.26 -1103 248 209 188
-49.7288 211.333 -1088 255 221 201
-46.4466 206.464 -1063 255 218 199
-43.5988 203.151 -1046 255 217 194
-41.1768 201.586 -1038 255 218 194
-38.9757 200.993 -1035 255 238 221
-37.0008 201.565 -1038 255 230 210
-35.0814 202.527 -1043 239 208 186
-33.1423 203.489 -1048 240 202 171
-31.1832 204.451 -1053 238 202 171
-29.2043 205.414 -1058 243 209 180
-27.2568 206.765 -1065 244 211 186
-25.2813 208.117 -1072 234 201 178
-23.3211 209.858 -1081 239 203 181
-28.4482 355.237 -1830 70 67 70
-24.758 355.036 -1829 71 68 70
-21.0605 354.642 -1827 68 65 67
-17.3997 354.831 -1828 64 66 70
-13.735 355.021 -1829 64 66 71
-10.0502 354.63 -1827 82 84 91
-213.155 353.051 -1830 55 56 68
-209.431 352.995 -1830 53 48 56
-205.82 353.133 -1831 57 48 51
-201.766 352.501 -1828 86 73 69
-197.617 351.677 -1824 129 108 94
-194.124 352.011 -1826 154 131 114
-190.102 351.382 -1823 169 141 110
-185.993 350.562 -1819 180 148 115
-182.202 350.321 -1818 191 158 123
-178.515 350.273 -1818 196 161 126
-174.636 349.842 -1816 194 157 122
-171.238 350.374 -1819 177 135 99
-167.83 350.908 -1822 143 98 62
-164.14 350.864 -1822 171 125 89
-160.364 350.629 -1821 212 166 130
-156.765 350.78 -1822 221 174 137
-152.911 350.354 -1820 226 177 140
-149.476 350.892 -1823 223 177 140
-146.351 352.2 -1830 228 182 146
-83.2995 216.833 -1127 252 213 189
-80.8084 216.235 -1124 253 215 193
-78.6096 216.406 -1125 250 213 192
-76.2717 216.194 -1124 250 210 189
-74.0043 216.174 -1124 247 206 185
-71.4822 215.386 -1120 249 204 181
-69.2241 215.367 -1120 251 205 181
-66.7871 214.773 -1117 242 195 171
-64.4784 214.563 -1116 255 205 187
-62.0069 213.778 -1112 255 213 195
-59.6596 213.377 -1110 255 216 197
-57.2173 212.593 -1106 255 214 195
-54.7916 211.81 -1102 254 209 190
-52.2393 210.45 -1095 255 215 193
-49.3501 207.554 -1080 253 214 193
-46.3033 203.698 -1060 248 205 183
-43.629 201.188 -1047 245 202 177
-41.166 199.448 -1038 246 203 178
-39.0031 199.053 -1036 249 214 193
-37.0268 199.62 -1039 233 196 171
-35.005 199.995 -1041 217 180 153
-33.0703 200.946 -1046 228 185 152
-31.1158 201.898 -1051 233 191 157
-29.1139 202.659 -1055 239 199 167
-27.1985 204.188 -1063 239 202 172
-25.2747 205.91 -1072 233 198 170
-23.2287 206.864 -1077 235 198 171
-24.7785 351.655 -1831 69 66 68
-21.0435 350.689 -1826 68 65 66
-17.3761 350.684 -1826 68 66 71
-13.7165 350.872 -1827 68 67 73
-10.0585 351.253 -1829 66 67 74
-6.37495 350.674 -1826 94 100 110
-209.605 349.595 -1832 55 52 59
-206.328 350.304 -1836 51 46 50
-201.713 348.725 -1828 57 50 52
-197.348 347.528 -1822 71 60 52
-193.86 347.859 -1824 86 73 63
-190.053 347.618 -1823 101 85 64
-185.74 346.425 -1817 112 92 71
-182.254 346.759 -1819 133 111 89
-178.468 346.521 -1818 158 129 105
-174.687 346.285 -1817 143 113 88
-171.194 346.621 -1819 132 97 69
-167.786 347.149 -1822 170 127 93
-164.097 347.105 -1822 205 159 123
-160.498 347.254 -1823 218 169 131
-156.81 347.213 -1823 220 170 132
-153.039 346.982 -1822 223 172 134
-149.601 347.514 -1825 222 175 139
-146.393 348.618 -1831 227 181 145
-83.0561 213.94 -1124 251 214 190
-81.0749 214.68 -1128 251 213 190
-78.7289 214.469 -1127 248 208 187
-76.184 213.688 -1123 247 207 186
-73.9192 213.668 -1123 242 202 180
-71.3998 212.888 -1119 241 197 173
-69.1443 212.87 -1119 241 195 171
-66.5905 211.902 -1114 238 190 168
-64.2306 211.504 -1112 254 205 183
-61.6006 210.157 -1105 254 208 187
-59.053 209 -1099 252 207 187
-56.6336 208.224 -1095 249 205 184
-54.1312 207.069 -1089 254 210 189
-51.6058 205.724 -1082 252 210 187
-48.9262 203.62 -1071 236 193 170
-45.9856 200.186 -1053 226 182 158
-43.3677 197.893 -1041 226 179 151
-41.195 197.502 -1039 223 175 147
-39.0306 197.111 -1037 227 178 153
-37.0172 197.482 -1039 205 159 131
-35.0295 198.042 -1042 194 151 120
-33.1566 199.364 -1049 206 161 128
-31.1374 199.926 -1052 215 170 137
-29.1891 201.058 -1058 224 181 148
-27.2682 202.571 -1066 227 187 155
-25.3624 204.465 -1076 229 191 160
-23.3305 205.599 -1082 229 191 162
-21.255 206.543 -1087 226 191 163
-24.7587 347.698 -1830 70 68 68
-21.0265 346.743 -1825 69 67 68
-17.3716 346.928 -1826 67 64 69
-13.698 346.734 -1825 68 66 71
-10.0448 347.111 -1827 66 65 72
-6.3699 346.729 -1825 69 74 83
-206.724 347.269 -1840 69 67 74
-202.433 346.272 -1835 58 56 63
-197.839 344.711 -1827 48 43 42
-194.129 344.661 -1827 44 39 36
-190.212 344.234 -1825 48 41 31
-185.692 342.677 -1817 50 41 30
-182.007 342.63 -1817 55 43 32
-178.226 342.395 -1816 71 52 37
-174.546 342.349 -1816 80 58 41
-171.244 343.059 -1820 109 82 61
-167.835 343.581 -1823 170 128 97
-164.235 343.727 -1824 205 159 124
-160.633 343.874 -1825 216 165 127
-156.941 343.833 -1825 217 166 126
-153.084 343.416 -1823 218 167 126
-149.645 343.943 -1826 217 170 134
-146.515 345.223 -1833 222 175 140
-84.8482 210.517 -1118 254 212 183
-83.2564 212.19 -1127 250 213 192
-80.9822 212.169 -1127 249 208 188
-78.6388 211.96 -1126 246 203 183
-76.1644 211.376 -1123 244 203 179
-73.9002 211.356 -1123 240 198 175
-71.509 210.962 -1121 238 195 170
-69.003 210.191 -1117 239 193 171
-66.5136 209.421 -1113 246 199 178
-63.8098 207.899 -1105 253 209 185
-61.1946 206.566 -1098 251 205 182
-58.232 203.917 -1084 252 205 184
-55.1712 200.705 -1067 254 219 195
-53.024 200.691 -1067 255 224 200
-50.3051 198.421 -1055 251 216 193
-48.1372 198.22 -1054 232 191 168
-45.8428 197.456 -1050 220 176 152
-43.4816 196.316 -1044 214 167 138
-41.2637 195.741 -1041 208 160 130
-39.0959 195.355 -1039 211 158 130
-37.0789 195.721 -1041 192 144 113
-35.155 196.652 -1046 184 139 106
-33.2113 197.583 -1051 188 145 114
-31.159 197.951 -1053 199 155 124
-29.292 199.635 -1062 208 164 130
-27.389 201.32 -1071 210 168 135
-25.4267 202.817 -1079 216 175 142
-23.4107 204.126 -1086 220 181 152
-21.2887 204.684 -1089 218 183 155
-24.7793 344.313 -1832 70 68 67
-21.0671 343.743 -1829 69 69 69
-17.3672 343.174 -1826 66 66 70
-13.6944 342.983 -1825 67 67 72
-10.0533 343.731 -1829 65 64 71
-6.36487 342.79 -1824 64 67 75
-2.70965 343.54 -1828 65 68 77
-197.463 340.384 -1824 47 45 52
-193.761 340.334 -1824 52 51 56
-190.268 340.658 -1826 57 56 57
-186.053 339.677 -1821 53 50 51
-182.561 340.004 -1823 44 40 40
-178.769 339.771 -1822 51 41 35
-175.078 339.726 -1822 52 39 31
-171.576 340.055 -1824 62 42 29
-167.976 340.199 -1825 128 88 60
-164.373 340.343 -1826 195 148 115
-160.68 340.302 -1826 208 157 117
-156.987 340.261 -1826 211 160 118
-153.212 340.036 -1825 216 166 121
-149.689 340.37 -1827 216 167 133
-85.0542 208.775 -1121 253 210 182
-83.3829 210.243 -1129 249 211 190
-81.0334 210.036 -1128 248 206 185
-78.6188 209.644 -1126 244 199 178
-76.0772 208.879 -1122 241 198 174
-73.7498 208.674 -1121 239 196 172
-71.3633 208.284 -1119 239 194 170
-68.8001 207.335 -1114 239 194 172
-66.1382 206.015 -1107 247 202 181
-63.274 203.952 -1096 253 209 186
-59.8976 200.029 -1075 253 214 193
-56.4987 195.735 -1052 255 231 211
-54.1233 194.79 -1047 253 238 216
-51.8679 194.219 -1044 255 243 220
-49.7203 194.02 -1043 252 224 200
-47.5314 193.636 -1041 237 202 178
-45.3074 193.066 -1038 237 193 169
-43.2623 193.241 -1039 219 172 146
-41.174 193.23 -1039 202 154 127
-39.2741 194.15 -1044 211 161 130
-37.2475 194.512 -1046 212 166 136
-35.2133 194.875 -1048 221 178 149
-33.3292 196.168 -1055 215 186 156
-31.2694 196.531 -1057 219 189 159
-29.3949 198.197 -1066 200 165 134
-27.4332 199.491 -1073 192 154 124
-25.5615 201.716 -1085 202 163 132
-23.4695 202.453 -1089 223 186 159
-21.381 203.377 -1094 235 201 175
-24.7325 339.992 -1829 73 70 69
-21.0042 339.057 -1824 66 67 68
-17.3248 338.681 -1822 67 70 73
-13.6835 339.049 -1824 64 66 71
-10.0287 339.231 -1825 63 64 71
-6.35963 338.858 -1823 62 64 72
-2.70753 339.6 -1827 67 69 77
-185.291 334.635 -1814 44 42 46
-181.714 334.774 -1815 43 40 43
-178.233 335.097 -1817 47 42 40
-174.745 335.422 -1819 50 40 36
-171.627 336.485 -1825 72 53 43
-168.302 337.179 -1829 143 101 74
-164.602 337.138 -1829 191 143 110
-160.727 336.728 -1827 202 152 113
-157.12 336.873 -1828 205 155 114
-153.342 336.649 -1827 214 165 121
-149.733 336.796 -1828 217 167 132
-85.1845 206.838 -1123 253 210 181
-83.5095 208.29 -1131 250 207 184
-81.1566 208.085 -1130 247 202 179
-78.6688 207.513 -1127 243 197 173
-76.1936 206.941 -1124 242 196 174
-73.797 206.554 -1122 240 194 172
-71.4091 206.168 -1120 240 194 173
-68.7828 205.046 -1114 239 195 173
-65.9423 203.189 -1104 245 201 179
-62.5655 199.492 -1084 253 212 190
-58.4899 193.22 -1050 255 224 203
-55.9475 191.733 -1042 255 223 204
-53.4378 190.248 -1034 253 228 209
-51.2588 189.867 -1032 255 242 223
-49.2312 190.038 -1033 249 225 205
-47.2456 190.394 -1035 235 203 182
-45.0778 190.015 -1033 248 205 184
-43.0849 190.371 -1035 252 209 184
-41.0844 190.729 -1037 240 196 170
-39.1138 191.27 -1040 240 196 166
-37.1314 191.813 -1043 252 216 187
-35.1372 192.355 -1046 254 231 203
-33.2261 193.45 -1052 254 236 208
-31.2616 194.362 -1057 254 237 209
-29.3599 195.825 -1065 240 215 187
-27.4264 197.289 -1073 227 196 168
-25.5787 199.673 -1086 239 205 176
-23.4851 200.402 -1090 255 222 198
-21.3366 200.764 -1092 254 224 201
-24.6722 335.503 -1825 76 72 72
-20.999 335.314 -1824 64 66 68
-17.311 334.758 -1821 65 69 72
-13.6726 335.121 -1823 62 65 69
-10.0208 335.302 -1824 64 66 73
-6.36509 335.484 -1825 62 64 71
-2.70838 336.034 -1828 66 68 75
4.6563 338.241 -1840 88 91 100
-178.287 331.541 -1818 43 40 42
-175.086 332.409 -1823 55 46 44
-171.772 333.095 -1827 99 78 67
-168.444 333.782 -1831 166 123 95
-164.651 333.559 -1830 186 136 103
-161.039 333.7 -1831 197 148 110
-157.424 333.843 -1832 203 155 114
-153.387 333.076 -1828 210 162 119
-149.941 333.585 -1831 220 169 133
-85.5425 205.441 -1128 248 205 175
-83.7102 206.513 -1134 245 203 178
-81.28 206.128 -1132 242 198 174
-78.7887 205.562 -1129 241 196 172
-76.2424 204.815 -1125 242 196 173
-73.9102 204.614 -1124 239 193 170
-71.3914 203.868 -1120 238 192 171
-68.6423 202.395 -1112 238 194 171
-65.8065 200.558 -1102 246 202 178
-61.7998 194.9 -1071 255 216 195
-58.1412 189.972 -1044 255 216 196
-55.4505 187.957 -1033 255 212 193
-53.1662 187.216 -1029 255 226 207
-50.9977 186.839 -1027 255 236 218
-48.9807 187.008 -1028 252 226 208
-47.0057 187.36 -1030 242 208 189
-44.9357 187.349 -1030 251 206 186
-42.9078 187.52 -1031 254 212 188
-40.9554 188.055 -1034 246 202 177
-39.0288 188.773 -1038 248 208 179
-37.1221 189.673 -1043 255 222 193
-35.1621 190.391 -1047 255 230 201
-33.1863 191.11 -1051 255 237 213
-31.1651 191.648 -1054 255 235 211
-29.2424 192.913 -1061 255 233 208
-27.3684 194.724 -1071 255 231 206
-25.4546 196.536 -1081 255 232 206
-23.4147 197.621 -1087 255 231 210
-21.2727 197.979 -1089 255 231 210
-24.7067 332.306 -1828 74 67 68
-21.0513 332.482 -1829 64 64 68
-17.3161 331.205 -1822 61 65 66
-13.6841 331.746 -1825 64 68 71
-10.0402 332.289 -1828 63 65 72
-6.37406 332.287 -1828 66 68 75
-2.71368 333.013 -1832 63 65 72
0.965344 334.649 -1841 63 65 72
4.66277 335.013 -1843 65 69 78
-178.733 328.705 -1823 43 38 39
-175.043 328.661 -1823 62 49 44
-171.73 329.34 -1827 120 92 76
-168.31 329.839 -1830 174 128 98
-164.7 329.978 -1831 194 143 108
-161.263 330.479 -1834 191 145 106
-157.471 330.26 -1833 199 153 112
-153.853 330.402 -1834 207 161 118
-150.559 331.265 -1839 223 173 136
-85.5972 203.305 -1129 241 198 167
-83.542 203.825 -1132 238 196 170
-81.26 203.804 -1132 238 194 170
-78.9787 203.785 -1132 238 194 170
-76.427 203.046 -1128 237 191 167
-74.0893 202.847 -1127 235 189 166
-71.565 202.11 -1123 235 189 167
-68.9957 201.193 -1118 236 192 168
-65.9098 198.657 -1104 244 200 176
-61.727 192.523 -1070 254 210 189
-58.1269 187.831 -1044 253 207 186
-55.4369 185.838 -1033 250 204 184
-53.1015 184.925 -1028 253 220 200
-51.0349 184.912 -1028 255 224 204
-49.0163 185.08 -1029 250 214 197
-46.9942 185.248 -1030 243 200 182
-44.9684 185.417 -1031 245 190 171
-42.8973 185.406 -1031 243 192 169
-40.9453 185.935 -1034 237 187 163
-39.0569 186.825 -1039 240 196 167
-37.0063 186.995 -1040 252 213 184
-35.0863 187.885 -1045 254 223 193
-33.115 188.596 -1049 255 229 204
-31.1575 189.487 -1054 255 230 205
-29.0975 189.84 -1056 255 231 207
-27.1829 191.271 -1064 255 231 207
-25.213 192.523 -1071 255 230 206
-23.2582 194.135 -1080 255 228 208
-21.248 195.567 -1088 254 227 207
-24.8628 330.717 -1840 55 45 45
-21.1728 330.711 -1840 60 57 60
-17.407 329.269 -1832 56 60 62
-13.7858 330.523 -1839 60 64 68
-10.1037 330.7 -1840 60 64 71
-6.4107 330.518 -1839 64 66 73
-2.72935 331.236 -1843 61 63 70
0.967196 331.595 -1845 64 66 72
4.67177 331.955 -1847 64 69 77
-182.28 324.825 -1822 42 38 40
-179.277 326.029 -1829 47 39 39
-175.672 326.164 -1830 76 58 51
-171.876 325.943 -1829 142 107 87
-168.545 326.615 -1833 182 134 102
-165.019 326.931 -1835 193 141 106
-161.487 327.248 -1837 192 146 107
-157.691 327.031 -1836 199 153 112
-154.319 327.705 -1840 207 161 118
-150.359 327.134 -1837 222 171 133
-85.4248 200.632 -1127 237 195 164
-83.6693 201.858 -1134 235 193 166
-81.2403 201.482 -1132 233 190 164
-79.0292 201.641 -1133 233 190 163
-76.4761 200.91 -1129 231 185 160
-74.137 200.714 -1128 230 184 160
-71.6113 199.985 -1124 230 184 160
-69.0406 199.078 -1119 230 186 161
-66.0728 196.927 -1107 235 192 166
-62.2887 192.109 -1080 244 194 173
-58.6694 187.469 -1054 243 195 173
-55.6917 184.61 -1038 242 195 172
-53.2952 183.53 -1032 251 208 186
-51.0721 182.983 -1029 246 202 179
-49.0044 182.971 -1029 234 189 168
-46.9828 183.138 -1030 231 182 160
-44.9574 183.304 -1031 236 181 158
-42.8869 183.294 -1031 227 174 148
-40.9354 183.817 -1034 219 167 140
-39.0474 184.696 -1039 229 183 151
-37.1041 185.398 -1043 242 201 170
-35.0778 185.745 -1045 248 212 180
-33.1385 186.625 -1050 251 218 192
-31.0908 186.973 -1052 253 220 194
-29.0077 187.144 -1053 253 223 197
-26.9975 187.848 -1057 250 222 197
-25.0656 189.263 -1065 247 219 195
-23.0804 190.501 -1072 245 218 198
-21.1452 192.451 -1083 249 220 199
-19.1661 194.401 -1094 254 224 202
-21.3633 329.964 -1857 53 47 48
-17.6212 329.604 -1855 44 47 51
-13.8649 328.712 -1850 47 52 56
-10.1783 329.42 -1854 52 58 64
-6.46847 329.773 -1856 60 64 71
-2.7465 329.594 -1855 65 68 75
0.973243 329.949 -1857 66 69 75
4.69573 329.95 -1857 57 63 70
-182.036 320.731 -1820 45 42 45
-179.528 322.802 -1832 54 44 42
-175.63 322.407 -1830 96 74 64
-171.834 322.189 -1829 160 118 93
-168.412 322.677 -1832 186 135 101
-164.89 322.989 -1834 193 141 104
-161.185 322.95 -1834 198 152 113
-157.567 323.088 -1835 204 157 117
-154.282 323.931 -1840 213 165 124
-150.568 323.895 -1840 222 171 131
-85.177 197.794 -1124 234 193 161
-83.5754 199.357 -1133 230 188 160
-81.2925 199.338 -1133 227 184 156
-79.08 199.494 -1134 225 182 154
-76.5933 198.948 -1131 224 178 152
-74.382 199.106 -1132 225 179 153
-71.8489 198.385 -1128 223 177 151
-69.2708 197.489 -1123 221 177 151
-66.3554 195.538 -1112 221 179 152
-63.427 193.413 -1100 229 182 158
-59.3232 187.42 -1066 227 180 156
-56.1075 183.89 -1046 224 177 152
-53.5406 182.295 -1037 233 183 158
-51.2087 181.403 -1032 219 168 144
-49.0879 181.216 -1031 210 158 134
-47.0171 181.204 -1031 215 163 137
-44.9902 181.369 -1032 216 164 136
-43.0013 181.71 -1034 215 163 133
-41.0047 182.051 -1036 214 163 132
-39.0756 182.745 -1040 223 177 141
-37.0952 183.263 -1043 234 192 156
-35.103 183.781 -1046 230 192 157
-33.0675 184.125 -1048 236 197 169
-31.0539 184.644 -1051 241 203 174
-28.9733 184.813 -1052 243 206 176
-26.94 185.333 -1055 239 204 174
-24.9656 186.381 -1061 236 202 173
-23.0317 187.956 -1070 238 206 181
-21.1011 189.883 -1081 242 209 184
-19.1791 192.337 -1095 248 212 187
-17.7595 328.443 -1870 70 72 78
-14.0115 328.439 -1870 49 52 58
-10.2306 327.382 -1864 42 49 55
-6.51578 328.434 -1870 43 48 54
-2.76786 328.433 -1870 48 52 59
0.978765 328.082 -1868 53 57 64
4.71233 327.38 -1864 59 67 74
-183.693 319.957 -1837 45 42 45
-180.073 320.088 -1838 57 47 44
-176.355 320.046 -1838 114 92 78
-172.451 319.657 -1836 169 127 97
-168.648 319.442 -1835 190 140 106
-164.94 319.403 -1835 197 145 110
-161.498 319.886 -1838 202 151 111
-157.787 319.849 -1838 210 159 120
-153.909 319.464 -1836 217 166 129
-150.614 320.298 -1841 221 172 135
-85.0052 195.143 -1122 231 190 157
-83.5555 197.036 -1133 224 181 151
-81.2732 197.017 -1133 219 176 146
-79.1309 197.346 -1135 219 176 146
-76.7104 196.98 -1133 217 171 144
-74.43 196.962 -1133 218 172 145
-71.8955 196.249 -1129 218 172 145
-69.3777 195.537 -1125 215 172 144
-66.5782 193.957 -1116 211 169 141
-63.5273 191.508 -1102 213 166 141
-60.2549 188.192 -1083 217 171 146
-56.7377 183.834 -1058 218 173 148
-53.8376 181.215 -1043 218 171 147
-51.2958 179.639 -1034 201 154 130
-49.1239 179.28 -1032 193 142 118
-47.0515 179.268 -1032 192 142 116
-45.1103 179.779 -1035 196 147 118
-43.1159 180.116 -1037 194 147 116
-41.1929 180.8 -1041 202 156 124
-39.2166 181.312 -1044 214 169 133
-37.193 181.65 -1046 221 178 142
-35.1618 181.989 -1048 219 178 143
-33.1228 182.328 -1050 220 180 150
-31.0169 182.321 -1050 221 180 149
-28.994 182.835 -1053 229 189 155
-26.9592 183.349 -1056 232 193 158
-24.9831 184.385 -1062 223 185 151
-23.0263 185.768 -1070 227 193 163
-21.1157 187.846 -1082 230 195 167
-19.1395 189.751 -1093 240 203 176
-17.166 192.177 -1107 245 222 200
-17.8503 326.355 -1880 150 153 158
-14.0981 326.698 -1882 126 130 135
-10.3106 326.175 -1879 107 114 118
-6.54567 326.173 -1879 101 107 113
-2.78501 326.692 -1882 107 113 119
0.982716 325.651 -1876 120 127 134
-182.95 314.986 -1830 42 39 42
-179.933 316.148 -1837 72 58 53
-176.218 316.107 -1837 133 107 90
-172.316 315.721 -1835 177 134 101
-168.516 315.51 -1834 192 143 108
-164.992 315.815 -1836 198 148 112
-161.109 315.433 -1834 206 154 112
-157.321 315.223 -1833 213 162 122
-153.957 315.875 -1837 219 168 131
-150.415 316.183 -1839 221 175 138
-85.4397 193.877 -1128 228 187 156
-83.6833 195.061 -1135 222 179 149
-81.3258 194.869 -1134 216 173 143
-79.1821 195.194 -1136 217 174 144
-76.7602 194.833 -1134 217 171 143
-74.4126 194.643 -1133 213 167 140
-71.8787 193.939 -1129 214 168 141
-69.4231 193.407 -1126 208 165 138
-66.7415 192.189 -1119 205 163 135
-63.6852 189.769 -1105 216 169 143
-60.1296 185.633 -1081 237 192 166
-56.8853 182.185 -1061 241 201 175
-53.7218 178.739 -1041 244 207 183
-51.2343 177.353 -1033 241 205 183
-49.1124 177.169 -1032 236 192 170
-47.1317 177.502 -1034 221 175 151
-45.2305 178.177 -1038 209 163 136
-43.2721 178.682 -1041 191 146 117
-41.2624 179.016 -1043 187 143 113
-39.3577 179.864 -1048 198 154 119
-37.3266 180.199 -1050 204 161 127
-35.1871 180.019 -1049 209 166 133
-33.1466 180.354 -1051 209 168 138
-31.1278 180.861 -1054 212 170 139
-29.0422 181.026 -1055 216 174 138
-27.0549 181.877 -1060 221 179 141
-25.1185 183.244 -1068 219 178 139
-23.1285 184.439 -1075 217 181 150
-21.1497 185.978 -1084 217 180 152
-19.1701 187.861 -1095 220 183 157
-17.1155 189.401 -1104 220 196 175
-14.1846 324.912 -1894 166 171 175
-10.3794 324.566 -1892 160 166 170
-6.60667 325.421 -1897 158 165 170
-183.207 311.746 -1833 42 38 39
-179.989 312.555 -1838 90 67 58
-176.465 312.854 -1840 148 117 98
-172.464 312.303 -1837 178 135 103
-168.937 312.604 -1839 190 143 107
-165.223 312.565 -1839 195 148 110
-161.159 311.848 -1835 205 154 112
-157.542 311.981 -1836 212 161 122
-154.005 312.285 -1838 220 169 131
-150.38 312.419 -1839 221 175 137
-147.311 313.744 -1847 232 187 150
-85.5713 191.909 -1130 227 187 158
-83.7377 192.908 -1136 222 179 150
-81.4504 192.889 -1136 219 177 147
-79.094 192.701 -1135 215 172 142
-76.6747 192.344 -1133 212 166 138
-74.3297 192.156 -1132 211 165 137
-71.862 191.63 -1129 207 161 134
-69.407 191.105 -1126 204 161 133
-66.6665 189.732 -1118 214 172 144
-63.5553 187.171 -1103 240 189 165
-60.0044 183.084 -1079 252 207 183
-56.3897 178.49 -1052 254 224 202
-53.6577 176.441 -1040 255 232 212
-51.1232 174.902 -1031 255 237 218
-49.0059 174.721 -1030 255 225 205
-47.0753 175.219 -1033 254 217 196
-45.2636 176.226 -1039 250 209 187
-43.3867 177.064 -1044 240 200 175
-41.3319 177.224 -1045 223 181 155
-39.3861 177.893 -1049 191 148 119
-37.3179 178.054 -1050 184 143 113
-35.2461 178.215 -1051 194 154 124
-33.265 178.885 -1055 199 162 133
-31.1797 179.047 -1056 197 159 129
-29.1732 179.719 -1060 200 160 126
-27.2274 180.899 -1067 203 162 126
-25.2067 181.741 -1072 206 165 128
-23.2092 182.922 -1079 204 168 140
-21.1448 183.764 -1084 197 162 136
-19.1132 185.116 -1092 194 160 136
-16.9566 185.451 -1094 184 158 139
-14.8326 186.295 -1099 198 175 158
-183.964 309.337 -1841 39 34 34
-180.437 309.632 -1843 110 81 67
-176.712 309.591 -1843 159 124 103
-172.988 309.551 -1843 179 136 104
-169.082 309.176 -1841 190 144 107
-165.185 308.802 -1839 196 150 111
-161.385 308.597 -1838 208 159 116
-157.42 308.057 -1835 213 164 123
-153.635 307.854 -1834 218 168 130
-150.428 308.826 -1840 220 174 136
-85.9303 190.438 -1135 233 192 165
-84.0133 191.257 -1140 222 179 152
-81.6468 191.071 -1139 220 177 149
-79.2849 190.885 -1138 212 170 142
-76.9278 190.699 -1137 207 161 134
-74.5753 190.514 -1136 205 159 131
-72.1001 189.994 -1133 206 160 133
-69.576 189.307 -1129 214 171 144
-66.5916 187.28 -1117 232 190 163
-63.4255 184.583 -1101 255 204 182
-59.0455 178.031 -1062 255 216 195
-55.6265 173.994 -1038 255 226 206
-53.0265 172.306 -1028 255 223 205
-50.9132 172.127 -1027 255 233 215
-48.9471 172.45 -1029 255 232 213
-47.0645 173.11 -1033 255 224 204
-45.2968 174.272 -1040 255 220 198
-43.3768 174.933 -1044 255 223 200
-41.4016 175.426 -1047 252 219 195
-39.4146 175.919 -1050 227 189 162
-37.3094 175.91 -1050 198 163 135
-35.2715 176.237 -1052 196 161 133
-33.2575 176.732 -1055 193 160 133
-31.2611 177.395 -1059 187 152 124
-29.2766 178.225 -1064 182 145 113
-27.2976 179.224 -1070 188 149 116
-25.2715 180.055 -1075 189 149 115
-23.29 181.39 -1083 185 152 125
-21.1986 182.055 -1087 175 143 120
-19.0563 182.385 -1089 171 141 122
-16.8752 182.381 -1089 173 149 133
-14.6943 182.378 -1089 192 170 155
-12.4215 181.035 -1081 186 175 168
-10.2284 180.53 -1078 177 172 168
-188.156 306.442 -1846 40 36 36
-184.622 306.732 -1848 50 44 42
-180.69 306.359 -1846 129 95 77
-177.055 306.485 -1847 164 125 102
-173.136 306.113 -1845 180 134 105
-169.227 305.743 -1843 190 144 106
-165.596 305.871 -1844 197 151 111
-161.788 305.668 -1843 207 159 116
-157.899 305.301 -1841 213 165 125
-154.354 305.597 -1843 219 171 133
-150.966 306.226 -1847 221 176 138
-86.2893 188.947 -1140 239 198 173
-84.1416 189.26 -1142 226 182 158
-81.7716 189.075 -1141 218 175 149
-79.4063 188.892 -1140 215 173 146
-76.978 188.543 -1138 216 171 145
-74.624 188.36 -1137 218 173 147
-72.1474 187.846 -1134 224 178 152
-69.5603 187.002 -1129 231 188 163
-66.7553 185.496 -1120 240 198 173
-63.0657 181.341 -1095 252 207 186
-58.9766 175.697 -1061 255 214 195
-55.6675 172.041 -1039 254 215 196
-53.0145 170.208 -1028 252 213 194
-50.8522 169.865 -1026 255 227 209
-48.8885 170.185 -1028 255 233 214
-47.0539 171.002 -1033 254 222 202
-45.2431 171.985 -1039 254 216 194
-43.2839 172.471 -1042 255 220 198
-41.2737 172.793 -1044 255 222 199
-39.2557 173.115 -1046 255 232 205
-37.2655 173.603 -1049 255 237 210
-35.23 173.926 -1051 255 232 204
-33.25 174.58 -1055 252 224 198
-31.3721 175.897 -1063 232 202 175
-29.38 176.717 -1068 188 156 127
-27.3936 177.703 -1074 172 137 106
-25.3363 178.359 -1078 174 138 107
-23.3277 179.512 -1085 177 144 120
-21.1938 179.838 -1087 174 143 122
-19.017 179.834 -1087 166 137 119
-16.856 179.995 -1088 168 148 132
-14.5965 178.999 -1082 187 168 154
-12.2924 177.011 -1070 180 170 165
-188.215 302.831 -1847 43 39 38
-184.281 302.462 -1845 62 56 53
-180.747 302.749 -1847 134 101 81
-177.015 302.709 -1847 162 122 98
-173.097 302.342 -1845 182 134 103
-169.556 302.632 -1847 193 143 106
-165.739 302.431 -1846 200 151 112
-161.751 301.903 -1843 207 160 117
-158.121 302.031 -1844 212 166 127
-154.822 302.815 -1849 219 173 136
-151.422 303.436 -1853 222 179 142
-86.6484 187.438 -1145 245 204 181
-84.2701 187.256 -1144 240 196 172
-81.8967 187.074 -1143 240 197 172
-79.3886 186.565 -1140 234 192 167
-77.2314 186.875 -1142 230 187 161
-74.7386 186.367 -1139 237 193 167
-72.3221 186.023 -1137 245 199 174
-69.6064 184.862 -1130 244 201 176
-66.8001 183.375 -1121 246 204 179
-62.994 178.944 -1094 253 212 192
-58.5744 172.388 -1054 252 210 190
-55.4944 169.431 -1036 247 202 181
-53.0027 168.111 -1028 244 200 179
-50.7913 167.609 -1025 255 214 195
-48.8776 168.089 -1028 246 216 193
-47.0434 168.895 -1033 248 210 188
-45.233 169.866 -1039 249 204 181
-43.2328 170.183 -1041 250 208 184
-41.2645 170.664 -1044 251 212 188
-39.2094 170.819 -1045 254 223 196
-37.1861 171.137 -1047 255 232 205
-35.2557 171.947 -1052 255 236 208
-33.2741 172.593 -1056 255 238 212
-31.3652 173.73 -1063 255 235 209
-29.4285 174.867 -1070 241 215 186
-27.4385 175.841 -1076 202 169 139
-25.4246 176.816 -1082 176 141 111
-23.301 177.138 -1084 185 149 127
-21.1501 177.296 -1085 178 145 125
-18.9603 177.128 -1084 175 146 127
-16.7283 176.471 -1080 186 166 151
-14.3506 173.853 -1064 194 176 163
-189.091 300.513 -1856 42 37 35
-185.039 299.987 -1853 67 60 55
-181.588 300.432 -1856 132 100 79
-177.647 300.069 -1854 164 124 98
-173.528 299.383 -1850 187 138 106
-169.978 299.669 -1852 198 148 111
-165.882 298.985 -1848 207 158 120
-162.067 298.787 -1847 211 166 124
-158.514 299.075 -1849 217 172 135
-155.206 299.85 -1854 223 179 143
-151.879 300.624 -1859 222 180 144
-87.0076 185.91 -1150 244 204 181
-84.5461 185.568 -1148 243 199 175
-82.1651 185.388 -1147 244 201 177
-79.7192 185.047 -1145 245 203 179
-77.2819 184.707 -1143 246 201 177
-74.7878 184.206 -1140 248 203 179
-72.3699 183.866 -1138 250 206 182
-69.7142 182.881 -1132 250 210 186
-66.9641 181.574 -1124 254 217 194
-63.671 178.652 -1106 253 216 195
-59.5617 173.147 -1072 242 201 179
-55.9107 168.612 -1044 231 187 167
-53.3003 166.985 -1034 229 182 163
-50.8792 165.843 -1027 239 191 172
-48.9144 166.155 -1029 228 188 165
-47.033 166.79 -1033 232 189 164
-45.136 167.426 -1037 236 189 163
-43.0988 167.578 -1038 239 196 169
-41.1368 168.053 -1041 239 197 170
-39.1632 168.529 -1044 249 212 183
-37.1425 168.843 -1046 255 222 193
-35.2145 169.642 -1051 255 227 197
-33.2668 170.442 -1056 255 230 204
-31.3288 171.403 -1062 255 231 204
-29.422 172.688 -1070 255 231 202
-27.4835 173.973 -1078 244 213 183
-25.3956 174.451 -1081 221 188 158
-23.2959 174.93 -1084 208 171 150
-21.1454 175.086 -1085 194 160 139
-18.9037 174.436 -1081 202 172 151
-190.272 298.641 -1868 45 40 37
-185.797 297.482 -1861 68 60 54
-182.331 297.921 -1864 134 103 82
-178.279 297.402 -1861 171 131 104
-173.959 296.405 -1855 200 148 116
-170.124 296.208 -1854 207 160 124
-166.205 295.852 -1852 215 169 133
-162.207 295.338 -1849 217 175 136
-158.823 295.942 -1853 222 180 143
-156.009 297.664 -1864 224 183 148
-87.2912 184.204 -1154 247 207 184
-84.7486 183.706 -1151 246 202 178
-82.2905 183.369 -1149 247 204 180
-79.7714 182.873 -1146 250 207 183
-77.4003 182.696 -1145 251 207 183
-74.8371 182.042 -1141 253 212 188
-72.4177 181.707 -1139 255 220 196
-69.7606 180.734 -1133 255 226 202
-67.0091 179.443 -1125 255 229 204
-63.5996 176.239 -1105 251 225 203
-59.9376 172.079 -1079 235 198 177
-56.3804 167.92 -1053 210 172 153
-53.4949 165.517 -1038 215 167 148
-51.1158 164.548 -1032 221 171 152
-49.0939 164.697 -1033 219 171 148
-47.1594 165.165 -1036 217 169 144
-45.3002 165.952 -1041 225 178 149
-43.2139 165.943 -1041 223 180 150
-41.2069 166.252 -1043 229 186 156
-39.1923 166.562 -1045 238 199 166
-37.1699 166.873 -1047 242 206 172
-35.1734 167.343 -1050 251 216 182
-33.2596 168.292 -1056 252 218 192
-31.3514 169.401 -1063 253 220 193
-29.3881 170.35 -1069 251 219 188
-27.4265 171.46 -1076 251 214 182
-25.39 172.251 -1081 251 211 179
-23.2908 172.724 -1084 238 201 177
-21.0434 172.081 -1080 217 182 159
-18.7248 170.643 -1071 203 171 149
-16.272 167.453 -1051 188 170 157
-189.925 294.355 -1865 46 39 35
-185.358 293.052 -1857 90 79 73
-182.194 293.96 -1863 159 128 108
-178.336 293.763 -1862 191 151 124
-173.922 292.621 -1855 216 166 132
-170.271 292.742 -1856 216 174 141
-166.617 292.864 -1857 221 180 146
-162.61 292.356 -1854 222 181 147
-159.56 293.583 -1862 223 183 149
-157.398 296.544 -1881 225 185 152
-90.2154 183.132 -1162 244 205 180
-87.3481 182.01 -1155 246 205 180
-84.9513 181.834 -1154 248 205 178
-82.416 181.343 -1151 252 206 180
-79.8935 180.853 -1148 254 209 183
-77.3161 180.207 -1144 255 214 191
-74.7554 179.56 -1140 255 221 197
-72.275 179.072 -1137 255 227 202
-69.6841 178.269 -1132 255 232 204
-66.9947 177.153 -1125 255 233 204
-64.0463 175.249 -1113 254 226 203
-61.0355 173.031 -1099 242 210 188
-57.1713 168.138 -1068 221 183 163
-53.9987 164.978 -1048 212 165 146
-51.5505 163.865 -1041 195 146 127
-49.3209 163.382 -1038 189 139 118
-47.3768 163.844 -1041 195 144 120
-45.3776 164.148 -1043 203 152 125
-43.3292 164.296 -1044 201 155 127
-41.3561 164.76 -1047 213 167 139
-39.2963 164.908 -1048 219 177 146
-37.304 165.372 -1051 224 184 153
-35.3333 165.994 -1055 234 197 165
-33.2839 166.301 -1057 236 199 172
-31.3448 167.238 -1063 237 200 173
-29.3544 168.019 -1068 236 199 168
-27.4461 169.428 -1077 236 194 162
-25.3612 169.895 -1080 237 193 161
-23.2644 170.361 -1083 235 200 174
-20.961 169.256 -1076 223 190 166
-188.968 289.149 -1856 76 67 62
-184.72 288.331 -1851 148 135 127
-181.861 289.694 -1860 190 157 139
-178.202 289.811 -1861 210 169 142
-174.072 289.151 -1857 223 176 141
-170.235 288.959 -1856 217 180 150
-166.941 289.702 -1861 222 185 154
-163.102 289.511 -1860 221 182 152
-160.297 291.189 -1871 223 184 153
-90.4291 181.232 -1165 239 199 173
-87.4051 179.813 -1156 242 201 175
-84.9333 179.484 -1154 251 209 182
-82.2554 178.689 -1149 255 212 186
-79.8766 178.516 -1148 255 212 186
-77.2997 177.878 -1144 255 217 194
-74.8707 177.551 -1142 255 224 199
-72.2597 176.758 -1137 255 230 204
-69.7308 176.121 -1133 255 233 206
-66.9805 174.863 -1125 255 232 205
-64.0902 173.14 -1114 255 232 207
-60.4672 169.241 -1089 254 226 202
-57.1057 165.81 -1067 246 209 188
-54.2448 163.623 -1053 223 177 158
-51.8862 162.835 -1048 186 138 119
-49.6906 162.513 -1046 176 125 104
-47.7308 162.969 -1049 184 132 109
-45.6725 163.115 -1050 189 134 110
-43.569 163.105 -1050 178 130 103
-41.5843 163.562 -1053 192 145 118
-39.4755 163.554 -1053 196 153 123
-37.4735 164.012 -1056 203 162 133
-35.4597 164.47 -1059 214 175 146
-33.4028 164.773 -1061 216 179 150
-31.3676 165.233 -1064 217 179 150
-29.4581 166.468 -1072 224 185 156
-27.3894 166.928 -1075 221 183 154
-25.3793 167.855 -1081 215 176 146
-23.2595 168.16 -1083 217 183 158
-20.9177 166.758 -1074 211 180 157
-18.5071 164.425 -1059 194 168 148
-188.725 285.058 -1854 142 132 126
-184.781 284.712 -1852 177 162 153
-182.019 286.211 -1862 197 167 148
-178.452 286.48 -1864 211 174 147
-174.504 286.136 -1862 221 178 143
-170.474 285.639 -1859 216 181 154
-167.713 287.294 -1870 219 184 156
-164.383 288.028 -1875 220 181 154
-91.031 180.089 -1173 236 196 170
-87.538 177.768 -1158 238 197 171
-85.1362 177.596 -1157 251 209 183
-82.4529 176.812 -1152 255 212 187
-79.9295 176.334 -1149 255 213 188
-77.3511 175.704 -1145 255 217 194
-74.8551 175.228 -1142 255 224 200
-72.181 174.292 -1136 255 230 205
-69.5932 173.51 -1131 255 233 207
-66.9665 172.576 -1125 255 232 206
-64.0193 170.721 -1113 254 232 206
-60.3991 166.874 -1088 252 223 199
-57.2542 164.101 -1070 249 211 190
-54.388 161.942 -1056 235 188 169
-52.0239 161.164 -1051 212 163 144
-49.8701 161.001 -1050 201 149 128
-47.9938 161.757 -1055 202 147 125
-45.9239 161.901 -1056 217 160 137
-43.8503 162.045 -1057 180 129 105
-41.852 162.496 -1060 170 120 95
-39.8796 163.1 -1064 178 132 104
-37.856 163.552 -1067 187 143 116
-35.6532 163.238 -1065 194 152 125
-33.5847 163.537 -1067 192 153 122
-31.5084 163.837 -1069 191 152 123
-29.5344 164.75 -1075 202 164 138
-27.4855 165.357 -1079 199 165 137
-25.4209 165.965 -1083 183 149 122
-23.2761 166.113 -1084 187 156 134
-20.8549 164.117 -1071 191 163 143
-18.2761 160.282 -1046 180 157 140
-187.668 279.764 -1844 157 147 139
-184.543 280.636 -1850 180 166 155
-181.59 281.812 -1858 194 168 148
-178.415 282.685 -1864 206 173 146
-174.843 282.952 -1866 217 179 145
-171.172 283.068 -1867 216 181 156
-169.203 286.065 -1887 217 182 156
-167.504 289.668 -1911 222 182 158
-95.4411 181.661 -1199 236 198 172
-91.4777 178.612 -1179 233 194 166
-87.7467 175.867 -1161 236 196 168
-85.1922 175.395 -1158 250 209 183
-82.4358 174.469 -1152 255 215 190
-79.9825 174.149 -1150 255 215 191
-77.3352 173.376 -1145 255 217 194
-74.9051 173.058 -1143 255 223 200
-72.1662 171.983 -1136 255 229 206
-69.6404 171.363 -1132 255 234 209
-66.8337 169.986 -1123 255 234 209
-63.8336 168.005 -1110 254 232 205
-60.0536 163.755 -1082 250 220 196
-56.9749 161.17 -1065 240 200 180
-54.3768 159.797 -1056 229 182 163
-52.1121 159.332 -1053 228 180 161
-50.0023 159.321 -1053 222 169 148
-48.1204 160.068 -1058 198 142 121
-46.2187 160.815 -1063 220 162 140
-44.2146 161.259 -1066 193 140 116
-42.2381 161.855 -1070 158 107 82
-40.321 162.755 -1076 158 111 83
-38.061 162.293 -1073 169 124 97
-36.0475 162.89 -1077 177 133 107
-33.9554 163.186 -1079 172 132 99
-31.7377 162.876 -1077 167 128 98
-29.6107 163.021 -1078 176 139 113
-27.4798 163.167 -1079 173 142 119
-25.4157 163.766 -1083 165 136 113
-23.0781 162.552 -1075 173 145 126
-20.5586 159.674 -1056 179 153 136
-186.51 274.364 -1833 162 152 144
-183.907 275.972 -1844 176 163 151
-181.162 277.432 -1854 190 168 147
-178.283 278.742 -1863 201 173 146
-174.995 279.454 -1868 214 180 148
-171.871 280.466 -1875 217 180 156
-171.14 285.517 -1909 219 182 158
-99.6287 182.532 -1221 233 194 169
-95.6604 179.672 -1202 229 192 166
-91.6143 176.514 -1181 229 191 162
-87.9555 173.956 -1164 231 191 163
-85.2484 173.191 -1159 246 204 178
-82.5622 172.427 -1154 254 214 189
-80.0357 171.962 -1151 255 216 191
-77.3194 171.05 -1145 255 219 195
-74.7589 170.437 -1141 255 223 200
-72.0244 169.376 -1134 255 229 205
-69.5032 168.765 -1130 255 234 209
-66.6416 167.258 -1120 255 235 209
-63.5906 165.154 -1106 252 232 207
-60.3744 162.453 -1088 241 211 189
-57.0704 159.306 -1067 224 184 165
-54.4687 157.951 -1058 213 168 148
-52.151 157.343 -1054 220 174 154
-50.0396 157.333 -1054 216 164 141
-48.247 158.368 -1061 199 144 122
-46.2529 158.806 -1064 184 126 104
-44.3714 159.692 -1070 175 122 97
-42.4664 160.579 -1076 152 100 75
-40.5751 161.615 -1083 145 97 68
-38.5143 162.055 -1086 152 105 77
-36.3413 162.048 -1086 158 112 84
-34.0744 161.593 -1083 156 114 80
-31.967 161.885 -1085 159 119 89
-29.5497 160.536 -1076 167 132 109
-27.3215 160.082 -1073 164 137 118
