ply
format ascii 1.0
comment Created by Open3D
element vertex 1410
property double x
property double y
property double z
property uchar red
property uchar green
property uchar blue
end_header
306.381 183.384 -2004 173 114 84
311.083 183.789 -2008 177 118 84
314.392 183.37 -2003 182 123 87
318 183.135 -2000 187 128 85
322.243 183.266 -2001 191 132 89
325.841 183.032 -1998 197 138 96
329.759 182.981 -1997 206 147 101
333.843 183.022 -1997 211 152 105
338.437 183.339 -2000 211 152 105
343.218 183.748 -2004 207 151 110
347.152 183.7 -2003 206 149 107
351.786 184.019 -2006 202 145 103
356.08 184.155 -2007 200 140 96
359.484 183.832 -2003 198 137 95
361.967 183.051 -1994 202 141 100
366.619 183.372 -1997 207 142 100
370.358 183.235 -1995 205 143 102
374.28 183.189 -1994 200 139 98
377.631 182.869 -1990 195 134 92
382.312 183.192 -1993 193 131 89
384.876 182.505 -1985 194 132 89
388.782 182.462 -1984 195 135 94
392.687 182.419 -1983 196 138 95
396.591 182.376 -1982 201 144 99
401.505 182.795 -1986 203 149 101
405.213 182.661 -1984 209 153 108
409.949 182.989 -1987 209 153 109
413.867 182.948 -1986 207 154 113
418.415 183.185 -1988 212 158 117
422.55 183.238 -1988 217 163 120
426.689 183.292 -1988 221 166 121
431.048 183.438 -1989 222 168 120
434.54 183.216 -1986 221 169 123
438.244 183.087 -1984 220 170 128
441.944 182.958 -1982 224 172 125
446.764 183.291 -1985 225 174 128
449.783 182.886 -1980 226 174 129
455.078 183.405 -1985 227 175 130
459.241 183.463 -1985 227 178 137
464.342 183.891 -1989 225 178 140
467.814 183.673 -1986 223 178 137
472.704 184.01 -1989 223 176 136
475.933 183.7 -1985 224 177 138
481.325 184.224 -1990 224 178 141
484.547 183.915 -1986 223 179 143
489.479 184.255 -1989 222 179 142
493.435 184.225 -1988 218 175 136
496.891 184.01 -1985 220 178 141
500.59 183.888 -1983 223 181 145
505.049 184.045 -1984 220 178 143
509.774 184.296 -1986 217 178 144
514.511 184.547 -1988 222 178 142
519.522 184.891 -1991 223 178 142
524.814 185.33 -1995 225 180 144
527.741 184.933 -1990 221 178 146
532.79 185.279 -1993 223 176 141
536.509 185.162 -1991 232 183 146
540.223 185.045 -1989 229 186 150
543.661 184.836 -1986 223 179 141
547.918 184.906 -1986 220 176 138
553.292 185.349 -1990 222 178 140
556.727 185.141 -1987 225 174 128
561.848 185.493 -1990 222 172 127
565.849 185.473 -1989 221 172 127
570.424 185.639 -1990 218 172 130
573.565 185.34 -1986 213 171 131
579.021 185.788 -1990 213 170 129
583.034 185.769 -1989 215 169 128
587.047 185.752 -1988 219 168 127
590.467 185.548 -1985 220 169 126
593.879 185.344 -1982 222 170 126
597.887 185.328 -1981 221 166 121
602.2 185.406 -1981 218 168 125
606.213 185.391 -1980 222 165 116
609.918 185.283 -1978 224 164 116
613.309 185.081 -1975 223 163 119
618.257 185.349 -1977 222 165 120
623.534 185.711 -1980 227 173 128
627.244 185.605 -1978 230 178 134
632.547 185.969 -1981 235 184 143
637.227 186.146 -1982 239 188 148
641.917 186.324 -1983 243 191 150
645.965 186.314 -1982 249 198 157
652.312 186.963 -1988 252 205 167
657.37 187.237 -1990 254 213 179
663.107 187.7 -1994 253 205 173
668.2 187.976 -1996 248 199 166
673.981 188.441 -2000 242 192 157
679.786 188.908 -2004 239 190 154
685.616 189.375 -2008 231 187 149
690.782 189.654 -2010 221 177 139
696.31 190.029 -2013 211 165 128
701.161 190.216 -2014 211 169 137
704.972 190.12 -2012 221 177 151
710.192 190.402 -2014 220 177 151
712.588 189.929 -2008 210 167 140
716.035 189.74 -2005 192 150 123
719.475 189.552 -2002 212 170 149
-1001.28 184.176 -1904 254 217 195
-1001.63 185.002 -1914 254 216 193
-996.732 184.862 -1914 255 224 200
-991.327 184.626 -1913 253 223 203
-986.454 184.488 -1913 252 215 189
-980.565 184.158 -1911 245 205 173
-974.697 183.829 -1909 240 199 162
-970.882 183.886 -1911 240 200 161
-966.056 183.752 -1911 242 199 167
-962.246 183.81 -1913 241 198 167
-956.936 183.581 -1912 236 193 162
-953.135 183.64 -1914 230 184 149
-947.351 183.317 -1912 221 174 139
-942.081 183.091 -1911 213 167 131
-936.826 182.865 -1910 208 164 126
-933.05 182.928 -1912 212 166 126
-927.332 182.609 -1910 210 164 124
-921.634 182.29 -1908 201 154 114
-919.319 182.641 -1913 198 151 109
-915.555 182.706 -1915 198 153 107
-911.314 182.677 -1916 201 155 109
-907.552 182.743 -1918 205 159 114
-903.79 182.81 -1920 209 162 119
-899.09 182.686 -1920 211 163 120
-894.4 182.564 -1920 213 165 122
-889.719 182.443 -1920 214 167 121
-885.047 182.322 -1920 215 170 125
-879.926 182.107 -1919 218 172 128
-877.1 182.367 -1923 223 175 132
-873.356 182.438 -1925 227 177 136
-870.964 182.794 -1930 230 178 135
-866.314 182.676 -1930 229 176 130
-863.011 182.844 -1933 227 175 132
-859.259 182.916 -1935 222 170 129
-855.948 183.084 -1938 215 164 124
-849.995 182.686 -1935 209 157 123
-846.687 182.855 -1938 202 155 120
-839.896 182.27 -1933 192 146 111
-835.299 182.158 -1933 177 133 99
-830.28 181.952 -1932 172 128 92
-828.266 182.406 -1938 176 132 95
-822.832 182.108 -1936 169 124 86
-819.529 182.28 -1939 172 126 90
-815.379 182.265 -1940 174 128 91
-811.651 182.344 -1942 176 130 93
-805.843 181.955 -1939 186 133 97
-801.71 181.942 -1940 190 135 99
-797.17 181.836 -1940 190 135 98
-793.455 181.917 -1942 186 136 96
-786.894 181.344 -1937 189 137 98
-782.384 181.24 -1937 195 143 104
-777.882 181.137 -1937 196 144 107
-774.585 181.315 -1940 195 143 104
-770.091 181.213 -1940 191 139 101
-765.999 181.205 -1941 189 141 104
-761.126 181.011 -1940 187 141 103
-756.654 180.911 -1940 185 139 102
-753.353 181.092 -1943 181 136 98
-750.045 181.272 -1946 179 134 97
-745.965 181.267 -1947 180 132 96
-740.744 180.984 -1945 180 128 94
-735.918 180.794 -1944 179 127 92
-730.728 180.512 -1942 178 127 91
-725.928 180.324 -1941 178 127 90
-722.998 180.601 -1945 174 124 88
-717.471 180.229 -1942 175 125 88
-713.433 180.228 -1943 176 126 87
-709.761 180.321 -1945 179 128 86
-705.725 180.321 -1946 179 129 86
-701.691 180.322 -1947 178 129 85
-697.66 180.324 -1948 182 130 86
-692.918 180.142 -1947 184 131 87
-689.602 180.329 -1950 185 131 87
-686.279 180.518 -1953 187 132 86
-682.251 180.522 -1954 187 131 86
-678.572 180.618 -1956 185 131 86
-674.2 180.531 -1956 187 130 85
-670.863 180.721 -1959 187 129 85
-665.817 180.45 -1957 182 126 82
-662.814 180.734 -1961 180 124 83
-657.785 180.464 -1959 180 124 84
-654.105 180.564 -1961 178 123 84
-649.097 180.296 -1959 176 123 83
-644.762 180.213 -1959 175 122 82
-639.125 179.763 -1955 171 121 84
-635.135 179.774 -1956 171 121 85
-630.825 179.693 -1956 169 119 84
-627.801 179.979 -1960 169 116 82
-623.811 179.991 -1961 167 115 82
-621.086 180.371 -1966 164 113 82
-616.149 180.108 -1964 159 109 82
-611.226 179.847 -1962 154 104 79
-607.555 179.952 -1964 154 106 83
-602.652 179.692 -1962 159 111 87
-598.678 179.707 -1963 167 119 95
-595.311 179.906 -1966 160 112 89
-591.635 180.014 -1968 149 104 82
-587.957 180.122 -1970 142 97 77
-584.274 180.23 -1972 142 96 77
-580.589 180.339 -1974 147 101 82
-575.44 179.992 -1971 151 105 85
-571.178 179.92 -1971 154 107 80
-566.635 179.757 -1970 158 110 82
-561.815 179.503 -1968 162 112 82
-557.858 179.523 -1969 165 113 79
-554.184 179.636 -1971 167 115 79
-550.506 179.749 -1973 170 116 79
-545.439 179.406 -1970 171 116 81
-540.666 179.156 -1968 169 114 80
-535.633 178.815 -1965 169 112 77
-530.888 178.566 -1963 171 114 78
-526.156 178.318 -1961 176 119 83
-522.502 178.434 -1963 178 124 88
-519.108 178.642 -1966 177 124 87
-515.445 178.758 -1968 178 127 88
-510.997 178.603 -1967 184 133 96
-507.074 178.631 -1968 187 136 101
-501.618 178.114 -1963 176 139 112
-497.201 177.961 -1962 163 128 106
-492.541 177.718 -1960 153 120 104
-487.895 177.475 -1958 142 119 106
-482.519 176.962 -1953 143 121 109
-477.904 176.721 -1951 134 117 111
-472.816 176.299 -1947 131 116 111
-468.471 176.15 -1946 131 117 113
-464.85 176.273 -1948 130 120 116
-460.988 176.306 -1949 129 118 116
-456.658 176.159 -1948 127 115 116
-452.799 176.193 -1949 123 115 117
-448.481 176.047 -1948 124 116 118
-443.942 175.811 -1946 125 119 118
-439.867 175.756 -1946 126 121 121
-435.796 175.702 -1946 126 122 123
-431.729 175.648 -1946 124 120 119
-427.886 175.685 -1947 123 119 119
-424.042 175.723 -1948 126 122 123
-419.766 175.581 -1947 126 122 123
-415.498 175.439 -1946 125 121 122
-410.815 175.118 -1943 125 121 122
-406.357 174.887 -1941 126 121 122
-402.325 174.837 -1941 128 122 123
-398.092 174.698 -1940 126 118 120
-394.069 174.649 -1940 123 116 117
-390.05 174.601 -1940 121 116 117
-386.233 174.643 -1941 120 114 115
-381.824 174.416 -1939 119 113 114
-378.401 174.639 -1942 121 115 116
-374.005 174.414 -1940 121 115 116
-370.002 174.368 -1940 120 114 115
-366.002 174.323 -1940 118 114 115
-362.751 174.638 -1944 116 111 112
-358.195 174.324 -1941 114 108 109
-354.75 174.55 -1944 116 111 112
-350.212 174.238 -1941 115 111 112
-345.69 173.926 -1938 109 105 106
-341.536 173.794 -1937 113 109 110
-337.388 173.663 -1936 121 115 114
-333.42 173.622 -1936 122 116 117
-328.944 173.312 -1933 122 116 117
-325.492 173.542 -1936 124 116 118
-320.702 173.054 -1931 135 127 128
-316.755 173.015 -1931 132 124 124
-312.648 172.887 -1930 120 112 115
-308.388 172.671 -1928 116 109 113
-304.14 172.454 -1926 116 108 112
-300.057 172.328 -1925 116 108 111
-295.828 172.113 -1923 117 109 109
-291.608 171.898 -1921 119 111 114
-287.4 171.684 -1919 123 115 119
-283.645 171.739 -1920 129 121 123
-279.306 171.436 -1917 131 123 125
-274.837 171.045 -1913 138 130 132
-270.245 170.565 -1908 148 140 140
-266.374 170.532 -1908 157 149 149
-262.231 170.322 -1906 153 145 145
-258.097 170.111 -1904 148 138 138
-254.374 170.17 -1905 148 138 138
-250.78 170.318 -1907 148 138 138
-246.534 170.02 -1904 145 135 135
-242.683 169.99 -1904 145 135 135
-238.96 170.051 -1905 145 135 134
-235.112 170.022 -1905 147 137 135
-231.023 169.815 -1903 145 135 135
-227.421 169.966 -1905 142 132 132
-223.696 170.028 -1906 139 129 129
-219.622 169.823 -1904 137 127 127
-215.672 169.708 -1903 136 126 126
-211.504 169.414 -1900 132 124 122
-207.679 169.389 -1900 135 126 125
-203.855 169.364 -1900 135 125 125
-200.033 169.34 -1900 135 124 124
-196.212 169.316 -1900 140 130 130
-192.292 169.204 -1899 144 130 129
-188.477 169.181 -1899 149 134 133
-184.566 169.069 -1898 155 137 137
-180.66 168.958 -1897 159 140 140
-176.947 169.026 -1898 157 137 137
-173.231 169.094 -1899 158 137 135
-169.512 169.162 -1900 161 140 137
-165.703 169.142 -1900 161 140 137
-162.066 169.301 -1902 159 135 133
-158.256 169.281 -1902 156 132 130
-154.448 169.262 -1902 146 123 122
-150.799 169.422 -1904 139 117 117
-147.143 169.582 -1906 135 115 116
-143.555 169.832 -1909 130 113 115
-139.957 170.082 -1912 132 114 116
-136.348 170.332 -1915 138 117 120
-132.728 170.583 -1918 142 121 122
-129.097 170.834 -1921 138 118 118
-125.39 170.996 -1923 136 116 116
-121.612 171.07 -1924 134 115 115
-117.649 170.878 -1922 128 110 108
-113.812 170.864 -1922 127 110 108
-110.091 171.029 -1924 134 118 115
-106.031 170.66 -1920 145 129 128
-102.201 170.648 -1920 147 131 129
-98.167 170.28 -1916 146 130 128
-94.2973 170.18 -1915 144 129 126
-90.3853 169.991 -1913 143 129 125
-86.6177 170.069 -1914 143 127 123
-82.8034 170.059 -1914 144 127 124
-78.9074 169.872 -1912 145 127 124
-75.1771 170.041 -1914 146 128 125
-71.2529 169.765 -1911 148 130 127
-67.4472 169.757 -1911 149 132 126
-63.7086 169.927 -1913 148 131 126
-59.9626 170.097 -1915 150 133 127
-56.0917 169.913 -1913 150 133 130
-52.3114 169.995 -1914 150 132 129
-48.5021 169.989 -1914 153 133 131
-44.5997 169.628 -1910 154 134 132
-40.8847 169.978 -1914 154 134 132
-37.0764 169.974 -1914 151 133 133
-33.3553 170.413 -1919 147 129 129
-29.5378 170.41 -1919 144 126 126
-25.7739 170.762 -1923 139 123 120
-21.9717 170.936 -1925 138 122 119
-18.1522 171.023 -1926 139 123 120
-14.3437 171.287 -1929 139 122 120
-10.5181 171.463 -1931 142 124 124
-6.68775 171.729 -1934 139 125 122
-2.84284 171.817 -1935 135 121 118
1.00602 171.906 -1936 133 119 116
4.85887 171.995 -1937 132 120 118
8.71148 171.996 -1937 132 121 119
12.5834 172.263 -1940 133 122 120
16.4504 172.354 -1941 135 124 122
20.3633 172.8 -1946 143 133 131
24.2592 172.98 -1948 144 133 133
28.1919 173.339 -1952 134 122 123
32.0749 173.342 -1952 122 112 112
35.9399 173.257 -1951 115 105 104
39.8626 173.44 -1953 117 107 105
43.7709 173.533 -1954 125 115 114
47.708 173.717 -1956 130 120 120
51.7327 174.166 -1961 129 117 118
55.8059 174.706 -1967 122 111 110
59.6606 174.535 -1965 118 108 106
63.6698 174.809 -1968 120 110 108
67.5194 174.639 -1966 119 110 109
71.4346 174.648 -1966 114 108 107
75.465 174.923 -1969 111 110 108
79.4679 175.11 -1971 106 106 104
83.4369 175.208 -1972 109 107 105
87.3664 175.219 -1972 110 109 108
91.343 175.318 -1973 110 110 110
95.2757 175.329 -1973 110 107 108
99.1591 175.252 -1972 109 106 107
103.248 175.531 -1975 113 110 111
107.242 175.632 -1976 116 112 113
111.409 176.001 -1980 114 110 111
115.419 176.103 -1981 117 111 112
119.373 176.117 -1981 118 113 114
123.327 176.132 -1981 119 115 116
127.347 176.236 -1982 116 112 113
131.24 176.163 -1981 118 113 114
135.266 176.268 -1982 119 113 114
139.298 176.373 -1983 118 112 113
143.406 176.568 -1985 120 114 115
147.376 176.585 -1985 118 110 110
151.27 176.514 -1984 119 111 111
155.162 176.444 -1983 120 112 112
159.131 176.462 -1983 119 111 114
163.101 176.482 -1983 121 112 115
166.988 176.413 -1982 121 110 113
171.046 176.522 -1983 119 110 116
175.108 176.632 -1984 122 112 118
179.267 176.831 -1986 122 108 106
183.435 177.031 -1988 134 113 100
187.8 177.41 -1992 165 140 121
192.184 177.789 -1996 205 163 127
196.192 177.812 -1996 209 163 120
200.001 177.658 -1994 209 160 110
204.11 177.771 -1995 216 161 111
208.33 177.974 -1997 215 160 110
212.24 177.91 -1996 215 158 109
216.906 178.471 -2002 217 159 110
220.936 178.497 -2002 215 156 106
225.193 178.703 -2004 212 152 102
228.887 178.463 -2001 210 149 99
233.27 178.758 -2004 208 146 96
237.549 178.965 -2006 206 144 95
241.837 179.172 -2008 202 142 92
245.891 179.202 -2008 199 141 89
249.822 179.142 -2007 199 141 92
253.751 179.084 -2006 194 137 89
257.935 179.204 -2007 188 130 86
262.125 179.325 -2008 182 123 83
266.454 179.535 -2010 181 122 83
270.524 179.568 -2010 176 117 81
274.46 179.511 -2009 168 109 77
278.394 179.455 -2008 168 110 79
282.186 179.311 -2006 167 110 81
285.829 179.077 -2003 170 114 83
289.752 179.022 -2002 170 113 82
293.82 179.058 -2002 167 106 77
297.741 179.004 -2001 157 101 75
301.963 179.13 -2002 154 99 74
306.191 179.257 -2003 155 102 78
310.58 179.473 -2005 160 105 76
314.981 179.69 -2007 163 106 75
318.597 179.46 -2004 171 114 73
322.526 179.409 -2003 179 121 81
325.801 179.001 -1998 188 128 89
329.883 179.041 -1998 195 136 90
333.969 179.081 -1998 202 142 96
338.226 179.212 -1999 206 145 99
343.347 179.792 -2005 203 148 106
347.802 180.013 -2007 205 148 108
352.093 180.145 -2008 203 144 105
356.036 180.099 -2007 204 142 99
359.26 179.694 -2002 202 140 97
362.467 179.289 -1997 202 140 98
366.39 179.244 -1996 205 140 99
370.498 179.289 -1996 203 141 100
374.609 179.335 -1996 201 141 99
378.723 179.381 -1996 199 139 98
382.265 179.158 -1993 198 137 96
385.604 178.845 -1989 197 135 94
389.321 178.713 -1987 195 136 96
392.836 178.491 -1984 194 137 96
396.941 178.54 -1984 193 137 96
401.253 178.679 -1985 193 139 93
405.776 178.908 -1987 198 141 98
410.516 179.229 -1990 200 142 99
414.023 179.009 -1987 200 144 101
418.573 179.241 -1989 208 148 108
423.135 179.473 -1991 209 149 108
426.85 179.345 -1989 210 150 106
431.211 179.488 -1990 212 153 106
435.361 179.542 -1990 214 156 109
438.631 179.235 -1986 214 159 114
441.889 178.928 -1982 216 162 114
445.808 178.893 -1981 217 163 115
450.181 179.039 -1982 218 165 117
454.333 179.095 -1982 219 165 117
459.415 179.513 -1986 221 165 118
464.283 179.841 -1989 222 166 120
468.462 179.899 -1989 218 166 121
472.407 179.867 -1988 218 166 121
476.113 179.745 -1986 221 167 123
480.781 179.986 -1988 221 167 126
485.462 180.227 -1990 219 167 123
488.679 179.925 -1986 220 168 123
493.373 180.168 -1988 219 167 121
496.828 179.957 -1985 221 170 124
501.284 180.11 -1986 223 173 129
505.24 180.082 -1985 217 168 125
509.453 180.146 -1985 216 173 135
514.187 180.391 -1987 223 175 137
518.152 180.365 -1986 222 174 137
523.959 180.975 -1992 224 178 140
528.205 181.041 -1992 221 177 142
533.257 181.381 -1995 226 179 144
536.44 181.084 -1991 228 179 144
540.427 181.061 -1990 227 183 149
543.318 180.674 -1985 225 181 146
547.572 180.742 -1985 224 180 144
552.666 181.085 -1988 221 176 138
556.376 180.972 -1986 221 176 136
561.494 181.316 -1989 218 172 131
564.924 181.114 -1986 216 170 129
570.065 181.459 -1989 211 167 125
573.78 181.349 -1987 210 164 124
578.365 181.513 -1988 208 162 121
583.545 181.86 -1991 206 160 119
586.972 181.66 -1988 207 161 119
590.986 181.644 -1987 208 160 116
595.001 181.627 -1986 210 160 117
598.716 181.52 -1984 210 157 114
602.731 181.505 -1983 206 156 111
607.053 181.582 -1983 211 152 105
610.764 181.476 -1981 212 150 103
614.783 181.463 -1980 211 147 103
619.115 181.541 -1980 207 149 103
623.453 181.621 -1980 205 150 108
629.065 182.067 -1984 204 151 110
632.785 181.964 -1982 206 151 109
637.787 182.229 -1984 210 156 115
642.481 182.403 -1985 215 161 121
646.533 182.394 -1984 222 168 128
652.555 182.937 -1989 225 172 130
658.936 183.573 -1995 224 173 135
664.351 183.934 -1998 214 162 127
669.786 184.296 -2001 214 160 126
674.904 184.567 -2003 216 160 126
679.698 184.746 -2004 212 162 125
686.209 185.387 -2010 211 164 126
691.036 185.569 -2011 210 163 126
695.873 185.75 -2012 223 174 139
701.418 186.118 -2015 217 171 142
706.281 186.301 -2016 203 159 138
710.451 186.3 -2015 199 155 134
712.849 185.838 -2009 189 145 125
716.655 185.745 -2007 183 140 120
720.459 185.654 -2005 190 152 136
-1005.68 181.59 -1922 230 194 174
-999.718 181.264 -1920 238 201 180
-992.745 180.75 -1916 232 197 177
-988.38 180.709 -1917 227 187 161
-985.047 180.858 -1920 217 176 145
-979.157 180.535 -1918 213 172 135
-975.32 180.591 -1920 206 169 132
-971.483 180.646 -1922 209 164 129
-965.635 180.327 -1920 204 158 124
-958.806 179.821 -1916 198 153 118
-953.502 179.598 -1915 195 145 108
-948.708 179.469 -1915 191 141 105
-943.432 179.248 -1914 190 141 105
-938.66 179.121 -1914 189 146 111
-933.899 178.995 -1914 194 149 112
-929.148 178.869 -1914 195 150 113
-922.474 178.371 -1910 198 152 114
-919.675 178.621 -1914 201 156 116
-915.908 178.685 -1916 205 157 112
-912.618 178.842 -1919 209 159 115
-909.322 178.999 -1922 213 162 120
-905.55 179.064 -1924 213 162 120
-899.905 178.758 -1922 214 162 120
-894.279 178.452 -1920 217 165 123
-890.99 178.612 -1923 220 169 127
-885.389 178.309 -1921 220 172 129
-880.267 178.098 -1920 221 172 129
-876.526 178.167 -1922 224 172 130
-874.146 178.515 -1927 227 172 131
-870.848 178.677 -1930 228 173 130
-867.096 178.747 -1932 222 168 122
-863.789 178.911 -1935 208 156 114
-860.032 178.982 -1937 190 141 101
-855.392 178.869 -1937 174 126 89
-849.882 178.572 -1935 162 116 86
-846.574 178.737 -1938 147 108 76
-840.654 178.35 -1935 140 103 71
-836.484 178.332 -1936 138 103 71
-831.889 178.223 -1936 141 106 72
-830.294 178.758 -1943 144 108 73
-823.999 178.282 -1939 146 109 74
-821.534 178.634 -1944 155 113 79
-816.533 178.436 -1943 159 118 84
-812.38 178.421 -1944 161 120 86
-806.984 178.132 -1942 168 122 87
-803.671 178.303 -1945 172 122 89
-798.298 178.015 -1943 171 120 87
-794.168 178.004 -1944 166 119 85
-788.416 177.627 -1941 173 123 90
-784.301 177.616 -1942 177 126 94
-780.19 177.607 -1943 176 125 94
-775.682 177.506 -1943 176 125 94
-770.388 177.224 -1941 174 125 94
-767.083 177.398 -1944 170 125 96
-762.596 177.3 -1944 170 127 97
-756.945 176.929 -1941 170 127 97
-753.643 177.105 -1944 167 123 93
-750.718 177.373 -1948 163 119 90
-745.868 177.186 -1947 163 119 90
-741.029 176.999 -1946 166 118 90
-737.337 177.087 -1948 167 117 89
-732.515 176.902 -1947 165 115 86
-726.956 176.536 -1944 164 114 83
-723.648 176.716 -1947 162 114 83
-718.856 176.533 -1946 166 118 87
-714.809 176.532 -1947 166 118 85
-710.765 176.532 -1948 169 121 85
-706.36 176.442 -1948 171 123 86
-703.043 176.624 -1951 171 124 85
-699.719 176.807 -1954 174 124 85
-696.744 177.08 -1958 175 124 86
-691.635 176.811 -1956 174 124 84
-687.948 176.905 -1958 176 124 83
-682.862 176.637 -1956 175 123 83
-678.832 176.642 -1957 174 123 84
-674.459 176.556 -1957 176 122 84
-670.435 176.562 -1958 174 120 82
-666.072 176.478 -1958 170 118 79
-662.73 176.664 -1961 169 117 81
-657.701 176.401 -1959 165 114 79
-654.355 176.589 -1962 160 111 75
-649.677 176.417 -1961 157 109 74
-645.338 176.336 -1961 152 106 70
-640.025 175.985 -1958 146 103 75
-636.678 176.175 -1961 148 104 77
-632.357 176.096 -1961 148 105 78
-628.362 176.107 -1962 146 102 76
-624.368 176.118 -1963 143 100 74
-620.692 176.22 -1965 141 98 75
-617.012 176.322 -1967 134 94 77
-611.772 175.977 -1964 129 90 74
-607.169 175.811 -1963 131 94 81
-602.883 175.736 -1963 135 99 86
-598.908 175.751 -1964 143 107 93
-594.328 175.587 -1963 141 104 90
-591.261 175.871 -1967 134 99 87
-587.286 175.888 -1968 125 91 80
-583.609 175.994 -1970 120 84 75
-578.752 175.743 -1968 123 88 78
-574.492 175.672 -1968 126 90 80
-570.238 175.601 -1968 128 93 74
-565.701 175.442 -1967 132 95 76
-561.745 175.462 -1968 137 97 76
-558.639 175.749 -1972 140 98 73
-554.115 175.592 -1971 143 100 74
-549.879 175.524 -1971 145 102 73
-545.372 175.367 -1970 146 101 75
-540.324 175.034 -1967 146 100 75
-535.566 174.79 -1965 151 104 77
-531.092 174.635 -1964 152 104 77
-527.164 174.659 -1965 155 105 80
-522.97 174.595 -1965 155 108 82
-520.1 174.975 -1970 155 108 81
-515.904 174.912 -1970 159 113 85
-510.415 174.405 -1965 161 117 88
-506.754 174.52 -1967 161 117 88
-501.812 174.193 -1964 155 119 93
-497.14 173.954 -1962 149 116 95
-491.978 173.539 -1958 148 116 101
-487.585 173.391 -1957 142 119 106
-482.46 172.978 -1953 141 119 108
-476.621 172.3 -1946 134 118 113
-472.758 172.33 -1947 131 116 112
-468.654 172.273 -1947 131 117 113
-465.032 172.393 -1949 129 118 113
-461.405 172.514 -1951 128 117 115
-457.539 172.547 -1952 127 115 116
-452.976 172.315 -1950 123 114 116
-449.116 172.348 -1951 122 114 116
-444.116 171.941 -1947 120 114 113
-440.039 171.888 -1947 120 115 116
-435.967 171.835 -1947 122 118 119
-431.898 171.782 -1947 122 118 117
-427.834 171.73 -1947 122 118 118
-423.772 171.679 -1947 124 120 121
-419.284 171.452 -1945 123 118 119
-415.447 171.49 -1946 123 117 118
-410.765 171.176 -1943 122 118 119
-406.726 171.126 -1943 122 116 117
-402.483 170.99 -1942 122 116 117
-398.249 170.853 -1941 125 117 119
-394.63 170.982 -1943 122 115 116
-390.806 171.023 -1944 121 116 117
-386.385 170.8 -1942 121 116 117
-382.171 170.666 -1941 121 115 116
-378.745 170.884 -1944 121 115 116
-374.538 170.751 -1943 120 114 115
-370.72 170.794 -1944 119 113 114
-366.712 170.75 -1944 117 113 114
-362.894 170.794 -1945 114 110 111
-358.706 170.663 -1944 114 108 109
-354.342 170.445 -1942 116 111 112
-350.17 170.315 -1941 114 110 111
-346.184 170.274 -1941 108 104 105
-341.847 170.057 -1939 113 108 109
-337.522 169.841 -1937 122 116 117
-333.552 169.801 -1937 125 119 120
-328.734 169.324 -1932 125 119 120
-325.117 169.46 -1934 123 115 117
-320.663 169.159 -1931 127 119 121
-316.553 169.033 -1930 123 115 117
-312.287 168.821 -1928 117 110 113
-308.511 168.871 -1929 118 111 115
-304.103 168.572 -1926 120 112 116
-299.865 168.361 -1924 120 112 114
-296.1 168.414 -1925 120 112 112
-291.725 168.116 -1922 119 111 114
-287.515 167.907 -1920 122 114 118
-283.316 167.698 -1918 128 120 122
-279.272 167.577 -1917 128 120 122
-274.661 167.108 -1912 132 124 126
-270.496 166.9 -1910 141 133 133
-266.203 166.607 -1907 151 143 143
-262.612 166.75 -1909 150 142 142
-258.201 166.37 -1905 148 139 139
-254.343 166.34 -1905 147 137 137
-250.487 166.31 -1905 147 137 137
-246.504 166.193 -1904 145 135 135
-242.399 165.99 -1902 144 134 134
-238.681 166.048 -1903 145 135 134
-234.59 165.846 -1901 147 137 135
-230.752 165.819 -1901 145 135 135
-227.155 165.966 -1903 144 134 134
-223.434 166.027 -1904 142 132 132
-219.481 165.913 -1903 138 128 128
-215.759 165.975 -1904 136 126 126
-211.813 165.863 -1903 132 124 122
-207.654 165.576 -1900 135 127 125
-203.724 165.465 -1899 137 127 127
-200.009 165.528 -1900 135 124 124
-196.086 165.418 -1899 136 124 125
-192.067 165.221 -1897 139 125 124
-188.157 165.112 -1896 142 127 126
-184.252 165.003 -1895 148 132 131
-180.448 164.981 -1895 155 136 136
-176.833 165.134 -1897 155 135 134
-173.301 165.375 -1900 156 135 133
-169.759 165.616 -1903 158 137 135
-165.945 165.596 -1903 156 136 133
-162.303 165.751 -1905 152 130 127
-158.238 165.471 -1902 146 124 121
-154.673 165.714 -1905 138 115 114
-150.86 165.696 -1905 132 112 112
-147.203 165.852 -1907 129 110 112
-143.689 166.183 -1911 128 110 112
-140.014 166.34 -1913 131 112 114
-136.403 166.585 -1916 134 113 116
-132.643 166.656 -1917 136 116 117
-129.082 166.989 -1921 137 117 117
-125.375 167.148 -1923 136 117 117
-121.598 167.22 -1924 133 115 114
-117.818 167.293 -1925 129 111 109
-113.976 167.279 -1925 129 112 109
-110.192 167.353 -1926 136 120 117
-106.129 166.993 -1922 147 131 130
-102.136 166.72 -1919 146 130 129
-98.1553 166.448 -1916 145 129 128
-94.237 166.263 -1914 144 129 125
-90.3274 166.078 -1912 142 127 123
-86.5621 166.155 -1913 145 129 125
-82.7072 166.058 -1912 144 127 123
-78.8568 165.962 -1911 145 127 124
-75.0504 165.953 -1911 148 130 127
-71.2072 165.857 -1910 151 133 130
-67.4039 165.849 -1910 151 133 129
-63.6012 165.842 -1910 150 133 129
-59.8928 166.095 -1913 150 132 128
-56.0266 165.915 -1911 149 133 129
-52.1959 165.821 -1910 150 134 130
-48.4203 165.902 -1911 153 133 131
-44.5945 165.81 -1910 152 132 130
-40.8157 165.892 -1911 151 131 129
-37.1107 166.321 -1916 147 129 129
-33.3862 166.751 -1921 141 123 123
-29.5342 166.574 -1919 139 121 121
-25.7977 167.092 -1925 138 121 119
-21.9576 167.002 -1924 141 125 122
-18.1406 167.087 -1925 144 128 125
-14.3495 167.519 -1930 143 126 124
-10.5277 167.778 -1933 142 125 125
-6.68698 167.863 -1934 135 121 118
-2.84399 168.036 -1936 133 119 116
1.0059 168.036 -1936 134 120 117
4.8583 168.123 -1937 133 121 118
8.71921 168.298 -1939 133 122 120
12.6014 168.646 -1943 133 122 120
16.4823 168.822 -1945 137 126 124
20.3818 169.084 -1948 145 135 133
24.2935 169.347 -1951 140 129 129
28.203 169.524 -1953 134 122 123
32.0876 169.527 -1953 123 113 113
35.9725 169.531 -1953 114 104 103
39.8577 169.536 -1953 117 107 105
43.833 169.888 -1957 124 114 114
47.7268 169.893 -1957 128 118 118
51.7001 170.16 -1960 126 115 115
55.6859 170.426 -1963 121 110 109
59.5929 170.433 -1963 118 108 106
63.5974 170.701 -1966 122 112 110
67.5459 170.795 -1967 122 114 112
71.4986 170.89 -1968 116 110 109
75.4945 171.073 -1970 113 111 109
79.6197 171.516 -1975 110 109 107
83.4272 171.265 -1972 111 109 107
87.4889 171.535 -1975 110 109 108
91.4247 171.546 -1975 108 108 108
95.4094 171.644 -1976 108 105 106
99.3484 171.655 -1976 106 103 104
103.393 171.841 -1978 111 108 109
107.392 171.94 -1979 116 112 113
111.565 172.3 -1983 116 112 113
115.347 172.053 -1980 115 109 110
119.479 172.327 -1983 114 110 111
123.375 172.255 -1982 116 112 113
127.268 172.182 -1981 114 110 111
131.291 172.284 -1982 117 113 114
135.319 172.387 -1983 119 113 114
139.422 172.577 -1985 119 113 114
143.39 172.594 -1985 120 114 115
147.507 172.785 -1987 118 110 110
151.328 172.628 -1985 119 111 111
155.222 172.559 -1984 120 112 112
159.192 172.578 -1984 115 107 111
163.082 172.509 -1983 116 108 112
166.969 172.442 -1982 117 108 110
170.939 172.462 -1982 115 107 112
175.176 172.743 -1985 118 109 114
179.336 172.938 -1987 122 107 104
183.597 173.22 -1990 141 118 100
188.155 173.765 -1996 173 146 120
192.354 173.961 -1998 195 146 110
196.562 174.158 -2000 199 148 105
200.378 174.007 -1998 202 147 98
204.597 174.205 -2000 203 144 95
208.722 174.317 -2001 202 143 94
212.959 174.516 -2003 203 142 95
216.989 174.541 -2003 198 141 96
221.02 174.567 -2003 197 141 96
225.166 174.68 -2004 196 138 91
228.746 174.358 -2000 193 135 89
233.242 174.734 -2004 191 132 86
237.52 174.937 -2006 188 129 83
241.688 175.052 -2007 188 128 80
245.616 174.994 -2006 187 126 77
250.29 175.459 -2011 186 127 81
253.847 175.14 -2007 181 123 79
257.776 175.083 -2006 175 117 77
261.963 175.201 -2007 167 111 78
267.085 175.931 -2015 168 111 78
270.358 175.438 -2009 167 110 79
274.701 175.645 -2011 161 105 77
278.638 175.591 -2010 156 101 75
282.011 175.187 -2005 153 99 76
285.795 175.046 -2003 157 103 79
290.151 175.255 -2005 154 100 77
294.225 175.29 -2005 149 95 74
298.003 175.15 -2003 141 91 73
302.379 175.36 -2005 137 89 71
306.765 175.571 -2007 138 90 74
310.698 175.521 -2006 145 96 74
314.629 175.47 -2005 151 100 76
318.4 175.333 -2003 163 108 70
322.487 175.371 -2003 173 117 78
325.924 175.059 -1999 179 122 83
329.679 174.923 -1997 182 124 81
334.263 175.226 -2000 188 129 85
338.524 175.353 -2001 194 134 90
343.477 175.832 -2006 196 141 94
347.933 176.049 -2008 199 142 97
352.226 176.178 -2009 198 140 96
356.17 176.133 -2008 200 138 93
359.396 175.737 -2003 196 135 90
363.149 175.605 -2001 192 132 87
366.529 175.297 -1997 192 130 90
370.824 175.429 -1998 192 131 91
374.939 175.474 -1998 191 131 91
378.298 175.167 -1994 190 131 90
381.643 174.861 -1990 190 131 91
385.169 174.644 -1987 192 132 93
389.666 174.866 -1989 193 131 93
393.778 174.913 -1989 189 130 92
398.094 175.048 -1990 186 128 89
402.619 175.273 -1992 184 128 86
406.135 175.057 -1989 187 129 89
410.467 175.194 -1990 189 131 90
414.598 175.244 -1990 192 134 93
419.153 175.47 -1992 196 136 97
423.084 175.433 -1991 196 136 97
427.013 175.396 -1990 197 137 96
431.159 175.448 -1990 200 141 97
434.871 175.324 -1988 199 141 98
439.019 175.377 -1988 200 144 101
442.726 175.253 -1986 202 147 102
445.978 174.954 -1982 204 149 104
451.035 175.361 -1986 207 151 106
455.424 175.505 -1987 208 151 107
460.746 176.002 -1992 208 150 105
465.627 176.323 -1995 210 150 105
469.818 176.38 -1995 208 152 107
473.3 176.172 -1992 206 152 106
476.773 175.964 -1989 208 153 107
480.48 175.845 -1987 211 154 110
485.402 176.17 -1990 211 155 111
489.603 176.229 -1990 213 157 112
493.809 176.289 -1990 215 159 113
497.517 176.172 -1988 219 163 118
501.727 176.233 -1988 219 166 121
505.687 176.206 -1987 216 163 119
509.133 176.002 -1984 214 167 127
514.124 176.33 -1987 221 171 133
518.61 176.482 -1988 223 173 135
524.683 177.168 -1995 224 176 139
528.404 177.054 -1993 223 177 141
532.656 177.119 -1993 228 181 147
535.835 176.829 -1989 227 179 147
539.545 176.718 -1987 228 183 152
542.703 176.428 -1983 228 185 152
547.505 176.673 -1985 228 186 151
552.319 176.919 -1987 229 185 149
556.587 176.987 -1987 225 183 144
560.86 177.056 -1987 216 174 134
564.853 177.036 -1986 210 168 127
569.421 177.195 -1987 211 169 126
573.997 177.355 -1988 214 165 124
578.874 177.605 -1990 208 160 119
583.179 177.677 -1990 203 158 116
587.194 177.66 -1989 203 160 117
590.912 177.554 -1987 206 162 118
595.226 177.628 -1987 208 162 119
599.244 177.612 -1986 208 159 118
603.263 177.597 -1985 206 155 111
607.283 177.583 -1984 205 147 103
611.304 177.569 -1983 205 142 99
615.326 177.556 -1982 202 136 94
619.975 177.723 -1983 192 134 91
624.319 177.8 -1983 183 131 94
629.303 178.058 -1985 170 120 85
633.024 177.957 -1983 168 114 71
638.028 178.216 -1985 170 118 77
642.4 178.296 -1985 178 126 88
647.755 178.647 -1988 193 142 104
653.456 179.088 -1992 196 141 103
660.173 179.8 -1999 187 137 101
665.597 180.153 -2002 177 129 96
671.375 180.597 -2006 181 134 102
675.829 180.681 -2006 179 130 101
680.29 180.767 -2006 169 125 87
686.122 181.213 -2010 170 127 90
691.291 181.48 -2012 177 133 99
696.822 181.839 -2015 185 140 110
702.024 182.108 -2017 185 143 117
707.242 182.377 -2019 178 133 106
711.77 182.467 -2019 172 125 99
714.177 182.015 -2013 174 127 100
715.849 181.382 -2005 177 132 107
721.444 181.745 -2008 181 140 124
-1006.59 177.592 -1924 177 147 130
-1001.67 177.458 -1924 181 150 132
-993.647 176.771 -1918 182 148 127
-990.309 176.915 -1921 185 146 118
-986.453 176.968 -1923 175 134 100
-981.067 176.745 -1922 169 127 89
-976.713 176.706 -1923 163 124 89
-972.363 176.669 -1924 165 118 82
-966.009 176.265 -1921 159 111 75
-959.679 175.862 -1918 160 112 77
-953.872 175.552 -1916 164 113 76
-948.086 175.244 -1914 167 116 79
-943.798 175.21 -1915 171 121 84
-939.516 175.178 -1916 179 133 96
-932.311 174.598 -1911 186 139 101
-928.053 174.567 -1912 191 144 105
-922.835 174.354 -1911 200 153 113
-919.072 174.416 -1913 199 152 110
-913.398 174.113 -1911 199 151 107
-912.497 174.723 -1919 202 154 111
-909.202 174.877 -1922 205 157 114
-905.901 175.031 -1925 206 155 114
-900.723 174.822 -1924 209 159 118
-896.49 174.796 -1925 216 165 124
-889.946 174.317 -1921 218 165 122
-883.891 173.93 -1918 223 172 130
-879.693 173.906 -1919 223 171 129
-876.411 174.064 -1922 222 170 127
-873.124 174.222 -1925 220 167 125
-870.734 174.562 -1930 213 162 122
-866.085 174.45 -1930 198 149 111
-863.23 174.7 -1934 182 136 100
-859.477 174.769 -1936 166 124 92
-855.281 174.749 -1937 152 112 83
-849.772 174.459 -1935 139 101 79
-847.774 174.891 -1941 124 94 74
-841.848 174.512 -1938 125 97 78
-837.672 174.495 -1939 126 99 81
-833.071 174.388 -1939 125 98 78
-831.468 174.911 -1946 126 98 77
-825.167 174.446 -1942 128 100 79
-822.273 174.7 -1946 134 101 80
-816.427 174.326 -1943 138 106 85
-813.111 174.492 -1946 138 106 86
-807.296 174.12 -1943 142 107 86
-803.981 174.286 -1946 147 108 87
-799.428 174.185 -1946 149 108 88
-794.883 174.083 -1946 147 108 85
-788.315 173.536 -1941 150 108 87
-785.009 173.705 -1944 152 109 88
-780.09 173.517 -1943 153 110 90
-776.381 173.597 -1945 154 111 91
-771.48 173.41 -1944 152 110 90
-768.958 173.759 -1949 150 111 91
-764.852 173.752 -1950 150 112 92
-759.969 173.567 -1949 151 112 93
-756.26 173.65 -1951 149 111 91
-753.706 174 -1956 148 109 89
-747.689 173.55 -1952 148 108 89
-743.22 173.457 -1952 155 110 91
-738.758 173.364 -1952 158 111 90
-733.927 173.183 -1951 156 109 87
-727.986 172.737 -1947 155 107 85
-725.043 173.001 -1951 153 109 87
-718.765 172.468 -1946 157 112 90
-715.086 172.556 -1948 155 110 85
-710.675 172.467 -1948 156 112 84
-706.271 172.379 -1948 157 114 84
-702.955 172.557 -1951 158 114 83
-700.347 172.912 -1956 162 115 84
-696.656 173.003 -1958 162 115 85
-691.903 172.828 -1957 159 115 85
-688.565 173.008 -1960 159 114 81
-683.824 172.835 -1959 157 112 80
-679.441 172.751 -1959 156 112 81
-675.064 172.667 -1959 157 110 81
-671.721 172.849 -1962 156 109 79
-667.35 172.766 -1962 153 110 79
-663.323 172.772 -1963 150 108 79
-658.627 172.603 -1962 149 106 78
-653.941 172.435 -1961 148 106 78
-648.934 172.179 -1959 142 103 76
-644.929 172.188 -1960 131 94 67
-639.619 171.846 -1957 124 91 73
-636.275 172.031 -1960 123 89 72
-632.602 172.129 -1962 123 90 74
-628.285 172.052 -1962 125 91 76
-623.973 171.975 -1962 124 90 76
-620.3 172.075 -1964 122 88 75
-617.25 172.35 -1968 110 83 75
-611.697 171.925 -1964 102 76 69
-607.404 171.851 -1964 102 77 74
-602.809 171.69 -1963 107 84 81
-598.529 171.617 -1963 117 94 90
-594.558 171.632 -1964 114 90 85
-591.489 171.91 -1968 109 86 83
-587.811 172.013 -1970 105 83 81
-584.13 172.116 -1972 104 80 80
-579.269 171.872 -1970 104 80 80
-575.006 171.802 -1970 105 82 81
-571.327 171.907 -1972 106 83 74
-566.495 171.664 -1970 108 83 74
-562.247 171.596 -1970 113 84 73
-559.42 171.964 -1975 119 88 72
-554.329 171.636 -1972 120 89 73
-549.533 171.395 -1970 119 88 70
-544.752 171.156 -1968 120 87 71
-540.258 171.004 -1967 121 87 72
-534.684 170.505 -1962 125 89 73
-530.487 170.441 -1962 128 91 75
-526.832 170.551 -1964 129 90 75
-522.906 170.575 -1965 132 94 78
-519.509 170.773 -1968 137 100 83
-516.104 170.972 -1971 138 101 83
-511.132 170.65 -1968 138 103 81
-507.208 170.676 -1969 142 108 84
-502.517 170.442 -1967 139 107 84
-497.84 170.209 -1965 134 104 86
-492.673 169.804 -1961 140 112 98
-487.527 169.399 -1957 142 119 107
-482.155 168.909 -1952 137 117 106
-477.053 168.506 -1948 131 115 112
-472.944 168.449 -1948 127 112 108
-468.839 168.394 -1948 128 114 110
-465.214 168.511 -1950 126 115 110
-461.586 168.629 -1952 128 117 114
-458.422 168.92 -1956 127 115 116
-453.154 168.434 -1951 123 115 116
-449.293 168.467 -1952 121 114 115
-445.203 168.414 -1952 118 113 112
-441.117 168.362 -1952 118 113 113
-436.587 168.137 -1950 121 116 117
-432.069 167.914 -1948 121 117 116
-427.783 167.777 -1947 119 115 115
-423.722 167.727 -1947 120 116 117
-419.234 167.505 -1945 121 115 116
-414.971 167.37 -1944 122 117 118
-410.716 167.235 -1943 121 117 118
-406.259 167.015 -1941 121 116 117
-402.436 167.053 -1942 120 114 115
-398.612 167.092 -1943 123 115 117
-394.381 166.96 -1942 121 114 116
-390.358 166.914 -1942 122 117 118
-386.538 166.954 -1943 123 117 118
-382.52 166.909 -1943 123 117 118
-378.505 166.864 -1943 120 115 116
-374.494 166.82 -1943 120 114 115
-370.867 166.948 -1945 118 112 113
-367.046 166.991 -1946 115 111 112
-363.037 166.948 -1946 113 109 110
-358.663 166.735 -1944 115 109 110
-354.848 166.779 -1945 115 111 112
-350.67 166.652 -1944 113 109 110
-346.321 166.44 -1942 110 106 107
-342.512 166.485 -1943 112 108 109
-337.656 166.017 -1938 120 114 115
-333.685 165.978 -1938 125 119 120
-329.376 165.768 -1936 125 119 120
-325.078 165.559 -1934 122 114 117
-320.791 165.35 -1932 120 112 115
-316.515 165.142 -1930 118 110 112
-312.088 164.849 -1927 116 109 113
-308.155 164.813 -1927 121 114 118
-303.752 164.521 -1924 122 114 118
-299.674 164.4 -1923 121 113 115
-295.296 164.109 -1920 121 113 113
-291.387 164.075 -1920 122 114 117
-287.182 163.871 -1918 121 113 117
-282.839 163.582 -1915 126 118 120
-278.802 163.464 -1914 126 118 120
-274.772 163.346 -1913 130 122 124
-270.465 163.059 -1910 136 128 128
-266.311 162.857 -1908 142 134 134
-262.031 162.57 -1905 146 138 138
-258.171 162.54 -1905 148 139 139
-254.314 162.511 -1905 146 136 136
-250.59 162.567 -1906 147 137 137
-246.346 162.282 -1903 146 136 136
-242.371 162.169 -1902 145 135 135
-238.779 162.312 -1904 146 136 135
-234.316 161.858 -1899 146 136 135
-230.361 161.746 -1898 144 134 134
-226.89 161.975 -1901 145 135 135
-223.408 162.205 -1904 146 136 136
-219.455 162.094 -1903 141 131 131
-215.621 162.069 -1903 137 127 127
-211.9 162.13 -1904 136 127 126
-207.63 161.765 -1900 136 127 126
-203.7 161.656 -1899 139 128 128
-199.986 161.718 -1900 137 126 126
-196.063 161.61 -1899 133 121 122
-192.348 161.673 -1900 132 119 119
-188.333 161.481 -1898 135 120 120
-184.328 161.29 -1896 138 122 121
-180.618 161.354 -1897 143 125 125
-176.905 161.418 -1898 146 127 128
-173.19 161.483 -1899 149 130 129
-169.65 161.719 -1902 148 129 128
-166.013 161.869 -1904 144 125 123
-162.199 161.851 -1904 134 114 112
-158.302 161.747 -1903 128 107 106
-154.574 161.814 -1904 128 106 106
-151.001 162.052 -1907 128 109 110
-147.417 162.29 -1910 127 109 111
-143.597 162.273 -1910 129 111 113
-139.924 162.427 -1912 132 114 116
-136.387 162.751 -1916 131 112 114
-132.558 162.735 -1916 135 115 116
-129.067 163.145 -1921 136 116 116
-125.36 163.3 -1923 134 116 116
-121.584 163.371 -1924 131 113 112
-117.743 163.357 -1924 129 111 109
-113.904 163.344 -1924 130 114 111
-109.95 163.161 -1922 138 122 119
-105.951 162.894 -1919 147 130 131
-102.018 162.713 -1917 145 129 129
-97.9903 162.362 -1913 146 130 129
-94.0292 162.096 -1910 145 129 126
-90.2225 162.086 -1910 144 128 124
-86.3712 161.991 -1909 144 128 124
-82.6111 162.066 -1910 145 128 125
-78.7239 161.887 -1908 147 129 126
-75.0024 162.048 -1910 149 131 128
-71.199 162.04 -1910 151 133 130
-67.3961 162.032 -1910 152 134 131
-63.6604 162.194 -1912 151 133 130
-59.8547 162.187 -1912 151 133 130
-56.0494 162.18 -1912 149 133 129
-52.1625 161.92 -1909 149 132 129
-48.3894 161.999 -1910 150 131 129
-44.5426 161.824 -1908 149 129 127
-40.7897 161.989 -1910 147 128 126
-37.0871 162.408 -1915 144 126 126
-33.3824 162.913 -1921 140 122 122
-29.5924 163.079 -1923 138 120 120
-25.8082 163.33 -1926 139 123 120
-21.9894 163.413 -1927 144 128 125
-18.1668 163.495 -1928 146 130 127
-14.3478 163.663 -1930 144 128 126
-10.532 164.001 -1934 143 127 126
-6.68622 164 -1934 135 120 118
-2.84367 164.169 -1936 134 120 117
1.00629 164.253 -1937 134 120 117
4.85773 164.254 -1937 133 121 118
8.71371 164.339 -1938 133 122 120
12.5934 164.68 -1942 134 123 121
16.4889 165.021 -1946 136 125 123
20.39 165.277 -1949 143 133 131
24.3031 165.534 -1952 135 124 124
28.1851 165.537 -1952 132 120 121
32.1004 165.71 -1954 122 112 112
35.9868 165.714 -1954 113 103 102
39.8939 165.803 -1955 116 106 104
43.7832 165.808 -1955 124 114 114
47.8432 166.407 -1962 127 117 117
51.8524 166.752 -1966 122 112 112
55.8212 166.928 -1968 119 109 108
59.6772 166.765 -1966 119 109 107
63.6548 166.941 -1968 122 112 110
67.5725 166.949 -1968 120 111 109
71.5268 167.042 -1969 113 107 106
75.4473 167.05 -1969 112 109 107
79.6106 167.568 -1975 113 111 109
83.5866 167.662 -1976 112 110 108
87.5675 167.757 -1977 108 107 106
91.5068 167.767 -1977 107 107 107
95.5431 167.947 -1979 106 103 104
99.3371 167.704 -1976 106 103 104
103.486 168.055 -1980 108 105 106
107.434 168.067 -1980 113 110 111
111.496 168.249 -1982 119 115 116
115.391 168.177 -1981 115 111 112
119.465 168.361 -1983 113 109 110
123.236 168.12 -1980 114 110 111
127.318 168.304 -1982 113 109 110
131.408 168.489 -1984 116 112 113
135.576 168.759 -1987 118 112 113
139.616 168.859 -1988 120 114 115
143.59 168.876 -1988 120 114 115
147.638 168.977 -1989 118 110 110
151.387 168.74 -1986 118 110 111
155.438 168.842 -1987 119 111 113
159.334 168.775 -1986 116 108 112
163.392 168.879 -1987 116 108 112
167.37 168.898 -1987 115 108 112
171.264 168.832 -1986 114 107 113
175.42 169.022 -1988 115 107 111
179.947 169.552 -1994 126 109 104
184.037 169.658 -1995 149 124 103
188.51 170.105 -2000 174 144 114
192.813 170.382 -2003 184 137 101
197.03 170.575 -2005 186 136 95
200.856 170.427 -2003 188 135 88
204.983 170.536 -2004 189 133 85
209.219 170.73 -2006 188 131 84
213.253 170.754 -2006 188 129 83
217.397 170.864 -2007 185 127 83
221.325 170.804 -2006 184 126 82
225.364 170.83 -2006 180 122 78
228.948 170.515 -2002 176 118 75
233.215 170.712 -2004 174 117 74
237.611 170.995 -2007 171 115 73
241.9 171.193 -2009 169 113 70
245.832 171.136 -2008 166 109 65
250.385 171.506 -2012 163 110 68
254.197 171.364 -2010 158 105 66
258.388 171.479 -2011 156 104 70
262.716 171.68 -2013 149 100 73
267.319 172.051 -2017 147 99 73
270.73 171.656 -2012 145 98 75
275.078 171.858 -2014 142 95 75
278.606 171.549 -2010 141 95 76
282.26 171.325 -2007 135 91 75
286.189 171.273 -2006 132 89 72
290.262 171.306 -2006 128 84 68
294.63 171.511 -2008 130 85 71
298.266 171.289 -2005 127 86 73
302.042 171.153 -2003 127 87 74
306.576 171.444 -2006 127 90 78
310.352 171.309 -2004 133 93 77
314.121 171.175 -2002 138 96 79
318.362 171.297 -2003 145 98 67
322.771 171.505 -2005 154 105 72
326.375 171.286 -2002 160 110 75
330.3 171.239 -2001 162 111 74
335.059 171.62 -2005 168 116 78
339.499 171.83 -2007 174 122 84
343.95 172.041 -2009 179 127 83
348.412 172.253 -2011 181 128 84
352.359 172.208 -2010 184 129 86
356.483 172.249 -2010 188 130 86
359.354 171.691 -2003 182 125 81
363.832 171.905 -2005 179 122 79
367.954 171.948 -2005 180 121 84
372.265 172.077 -2006 177 118 82
375.27 171.606 -2000 173 116 80
379.011 171.478 -1998 171 116 79
383.132 171.523 -1998 172 116 80
386.286 171.139 -1993 173 117 82
390.011 171.012 -1991 176 115 80
394.721 171.316 -1994 173 114 79
398.646 171.277 -1993 172 115 80
403.177 171.495 -1995 174 118 81
407.311 171.543 -1995 175 118 82
411.449 171.591 -1995 176 119 83
416.215 171.898 -1998 180 121 84
420.366 171.947 -1998 180 120 84
423.883 171.739 -1995 182 122 86
428.464 171.961 -1997 185 125 87
431.974 171.753 -1994 187 128 88
435.912 171.718 -1993 186 128 88
439.409 171.511 -1990 186 130 91
443.565 171.564 -1990 188 133 92
447.5 171.53 -1989 192 136 95
451.889 171.669 -1990 195 138 96
456.057 171.723 -1990 195 138 96
461.154 172.123 -1994 195 136 94
465.104 172.091 -1993 195 135 92
469.761 172.319 -1995 193 136 92
473.481 172.202 -1993 195 138 94
477.435 172.172 -1992 197 141 96
480.906 171.97 -1989 196 138 94
484.124 171.681 -1985 199 141 99
488.806 171.912 -1987 201 143 101
493.749 172.23 -1990 203 145 103
497.458 172.116 -1988 205 148 105
501.162 172.002 -1986 206 150 109
505.371 172.062 -1986 209 154 114
509.072 171.95 -1984 206 155 115
513.803 172.184 -1986 207 156 118
518.547 172.419 -1988 213 162 124
524.093 172.915 -1993 221 170 132
527.545 172.718 -1990 218 172 136
532.324 172.955 -1992 222 178 144
535.77 172.758 -1989 224 181 149
539.208 172.562 -1986 225 179 150
543.458 172.627 -1986 220 180 149
546.611 172.345 -1982 221 181 149
551.696 172.672 -1985 229 187 154
556.799 172.999 -1988 231 186 144
560.509 172.892 -1986 226 180 137
564.785 172.96 -1986 218 173 128
569.065 173.029 -1986 216 172 127
573.061 173.01 -1985 211 166 121
577.931 173.254 -1987 207 161 116
582.229 173.324 -1987 207 158 113
586.827 173.482 -1988 204 157 113
590.542 173.379 -1986 202 155 111
595.453 173.625 -1988 202 154 110
599.171 173.523 -1986 202 152 110
603.189 173.508 -1985 196 150 112
608.738 173.932 -1989 193 140 102
612.77 173.918 -1988 189 133 95
616.802 173.906 -1987 188 127 89
622.087 174.244 -1990 181 126 87
627.075 174.495 -1992 181 128 92
631.444 174.572 -1992 177 125 90
635.819 174.649 -1992 178 123 84
640.521 174.814 -1993 171 116 82
643.938 174.63 -1990 163 110 77
649.955 175.148 -1995 164 111 78
655.344 175.491 -1998 176 122 86
661.412 176.011 -2003 189 140 105
666.179 176.18 -2004 193 145 111
672.63 176.79 -2010 201 154 121
676.419 176.697 -2008 206 159 129
681.222 176.869 -2009 203 161 122
686.719 177.217 -2012 205 164 128
692.579 177.654 -2016 210 167 134
696.735 177.652 -2015 220 175 147
703.328 178.267 -2021 217 175 150
708.555 178.531 -2023 209 166 137
712.034 178.354 -2020 196 152 123
714.442 177.912 -2014 200 155 127
717.901 177.736 -2011 212 169 145
720.994 177.471 -2007 216 178 164
-1002.05 173.365 -1925 158 133 118
-996.106 173.055 -1923 167 135 112
-993.271 173.285 -1927 163 124 93
-990.427 173.515 -1931 153 110 75
-984.001 173.118 -1928 144 99 62
-978.108 172.811 -1926 147 104 70
-972.741 172.595 -1925 156 108 71
-966.385 172.2 -1922 167 119 84
-960.053 171.807 -1919 182 134 100
-954.246 171.504 -1917 191 141 104
-949.943 171.471 -1918 194 144 107
-945.154 171.349 -1918 198 148 110
-941.845 171.496 -1921 201 151 113
-935.117 171.018 -1917 206 155 115
-930.36 170.898 -1917 210 160 119
-923.681 170.423 -1913 214 164 122
-919.434 170.394 -1914 206 156 112
-914.235 170.188 -1913 196 149 107
-911.904 170.516 -1918 194 148 106
-909.557 170.844 -1923 194 148 106
-905.314 170.817 -1924 196 148 108
-901.543 170.88 -1926 200 152 112
-896.375 170.677 -1925 205 156 117
-891.221 170.475 -1924 212 159 119
-886.081 170.274 -1923 216 165 127
-882.789 170.427 -1926 215 165 127
-878.123 170.316 -1926 213 164 125
-874.373 170.382 -1928 204 156 120
-871.525 170.625 -1932 190 147 113
-866.423 170.427 -1931 175 135 104
-863.12 170.583 -1934 161 123 96
-859.367 170.651 -1936 147 114 91
-854.289 170.455 -1935 136 105 85
-849.225 170.26 -1934 126 99 84
-847.667 170.77 -1941 117 96 88
-842.61 170.576 -1940 122 102 96
-840.59 170.998 -1946 122 102 97
-836.831 171.069 -1948 122 102 96
-833.926 171.316 -1952 124 103 97
-827.187 170.774 -1947 122 100 94
-822.592 170.671 -1947 123 100 93
-815.064 169.956 -1940 118 97 90
-812.173 170.205 -1944 112 92 85
-805.948 169.754 -1940 114 91 83
-802.228 169.83 -1942 120 94 87
-799.328 170.08 -1946 130 102 95
-795.6 170.156 -1948 125 97 85
-789.841 169.796 -1945 123 92 83
-786.122 169.873 -1947 123 91 82
-782 169.864 -1948 123 91 82
-778.679 170.029 -1951 123 91 83
-774.558 170.021 -1952 123 91 82
-771.624 170.274 -1956 125 93 82
-767.894 170.354 -1958 125 94 83
-763.383 170.26 -1958 130 99 88
-757.717 169.906 -1955 131 100 89
-755.539 170.334 -1961 131 100 89
-748.745 169.721 -1955 128 96 86
-743.508 169.456 -1953 133 97 88
-739.045 169.366 -1953 137 100 88
-734.213 169.189 -1952 138 102 90
-729.018 168.927 -1950 139 103 91
-725.697 169.098 -1953 135 102 90
