ply
format ascii 1.0
comment Created by Open3D
element vertex 729
property double x
property double y
property double z
property double nx
property double ny
property double nz
property uchar red
property uchar green
property uchar blue
end_header
-206.657 -698.665 -1363.75 0.2736 -0.231821 0.901507 105 112 124
-208.936 -697.454 -1362.37 0.223973 -0.275408 0.892172 104 111 123
-209.143 -686.973 -1359.71 0.394354 -0.188937 0.862593 103 110 122
-208.611 -683.451 -1359.35 0.453857 -0.16467 0.851308 104 111 123
-266.974 -637.089 -1363.63 -0.918759 -0.277286 -0.29342 103 111 128
-261.814 -641.002 -1361.8 -0.912561 -0.252592 -0.261491 103 111 129
-268.743 -630.408 -1361.32 -0.914497 -0.181272 -0.309843 102 110 128
-273.191 -629.041 -1364.1 -0.880189 -0.123488 -0.372199 101 109 127
-259.654 -633.42 -1359.8 -0.910593 -0.164877 -0.163028 98 106 123
-261.276 -626.235 -1358.59 -0.884272 -0.0977194 -0.232735 99 107 125
-245.925 -674.028 -1363.35 -0.395385 -0.431959 0.741305 84 90 103
-243.602 -673.816 -1362.26 -0.327428 -0.468437 0.781914 84 90 102
-242.065 -670.106 -1359.33 -0.212911 -0.50453 0.812939 83 90 101
-205.398 -675.643 -1360.43 0.606654 -0.16077 0.784242 103 110 122
-204.941 -666.719 -1359.41 0.703804 -0.076524 0.699183 102 109 121
-314.423 68.8148 -1363.01 -0.055862 0.0663399 0.991637 144 130 159
-310.926 66.4752 -1362.82 -0.0284422 0.100015 0.998047 142 128 156
-308.125 73.6909 -1363.45 0.0086007 0.0498297 0.997923 140 126 155
-256.082 -131.618 -1362.19 -0.631886 -0.181421 0.661254 120 107 133
-255.224 -124.57 -1358.32 -0.697948 -0.200906 0.645762 120 106 133
-257.602 -121.743 -1360.36 -0.679601 -0.183957 0.654576 124 110 137
-258.088 -116.358 -1358.93 -0.738447 -0.234994 0.61423 131 119 146
-269.313 -99.9555 -1364.81 -0.708555 -0.254832 0.455981 124 110 139
-271.759 -92.6662 -1362.83 -0.679846 -0.267067 0.479051 130 116 145
-251.325 -136.203 -1358.79 -0.612352 -0.271574 0.750116 113 102 130
-269.552 99.2033 -1361.42 0.0575991 0.0975537 0.986147 152 137 165
-268.289 103.064 -1361.63 0.0559789 0.105722 0.984349 153 139 167
-262.805 94.1806 -1361.61 0.0744375 0.0638482 0.98609 136 122 149
-259.049 100.124 -1361.55 0.00267791 0.0557701 0.983746 141 126 152
-255.865 102.601 -1361.36 -0.0482549 0.0619278 0.979318 143 128 154
-297.134 107.935 -1361.42 0.151434 0.12386 0.948294 141 129 157
-304.517 119.42 -1364.3 0.081745 0.268014 0.944358 168 155 184
-290.49 110.446 -1362.55 0.0620134 0.140033 0.961626 145 132 159
-280.543 108.004 -1362.06 0.0160294 0.124832 0.97393 163 149 176
-281.716 115.792 -1362.69 -0.0125193 0.108559 0.975524 157 141 168
-291.147 120.176 -1364.32 -0.0596015 0.139835 0.972892 139 126 154
-281.472 130.742 -1364.03 -0.0900286 0.151247 0.963424 159 143 170
-278.163 109.038 -1362.03 0.0268349 0.123111 0.975475 165 149 177
-275.496 115.157 -1362.35 0.0244237 0.0974227 0.979789 159 144 171
-270.193 118.672 -1362.37 -0.000592097 0.0547175 0.988501 153 138 166
-253.681 108.588 -1361.46 -0.0631991 0.0699068 0.981369 145 130 156
-253.656 116.239 -1362.01 -0.0303701 0.0470569 0.994646 143 128 154
-277.095 121.763 -1362.87 -0.0349964 0.0703593 0.984473 156 140 167
-272.33 130.019 -1362.93 -0.0917465 0.0532475 0.98355 157 141 169
-270.195 129.293 -1362.69 -0.0637582 0.0203263 0.995193 157 141 169
-258.24 125.645 -1362.23 -0.007623 0.0104539 1.00422 153 139 166
-257.208 132.459 -1362.79 0.0267523 0.0574973 0.998741 163 149 176
-250.261 88.375 -1359.31 -0.160062 0.0338561 0.975037 148 133 159
-250.506 99.5972 -1359.69 -0.207405 0.06351 0.958244 152 136 161
-244.837 107.001 -1359.88 -0.1104 0.162557 0.95796 165 152 179
-241.892 110.567 -1360.48 -0.069925 0.185654 0.964554 160 147 175
-239.57 114.323 -1361.1 -0.034917 0.190338 0.972323 154 141 169
-231.719 106.53 -1358.84 -0.0169866 0.204367 0.97067 187 181 208
-235.218 116.904 -1360.99 -0.056687 0.160842 0.972542 149 135 163
-229.531 116.963 -1359.62 -0.146666 0.0535512 0.95914 150 135 163
-244.623 118.972 -1362.08 -0.0212792 0.115237 0.989269 142 126 153
-241.468 130.286 -1362.59 -0.0148292 0.14 0.973758 160 145 173
-237.151 122.513 -1361.26 -0.0796622 0.0952667 0.970789 146 131 159
-236.612 131.223 -1361.95 -0.0864551 0.185916 0.945259 155 139 167
-218.804 113.557 -1358.37 -0.176453 0.112979 0.967108 169 151 179
-277.791 136.243 -1364.55 -0.182998 0.279303 0.917446 158 142 168
-267.794 141.906 -1364.41 -0.119385 0.244408 0.950471 153 137 165
-255.953 137.878 -1363.77 0.0489865 0.16259 0.978108 163 148 176
-255.273 140.076 -1364.25 0.0753808 0.213953 0.964792 162 146 174
-70.0819 132.197 -1359.19 0.0949278 0.234206 0.961673 154 138 167
-53.6663 109.637 -1358.5 -0.0225233 0.0761776 0.98426 139 125 154
-55.2674 112.816 -1358.6 0.0437435 -0.00508069 0.986988 145 131 160
-48.7265 113.895 -1358.68 -0.0304756 0.0705978 0.98436 143 129 158
-51.7735 121.98 -1358.9 0.163316 -0.0245411 0.963691 150 136 166
-51.2193 129.388 -1359.33 0.153678 0.113661 0.937386 164 150 179
-36.2818 125.926 -1362.65 0.111802 0.247967 0.935141 147 134 161
-47.9434 131.887 -1360.7 0.151571 0.161532 0.930543 162 148 178
-28.9583 80.2606 -1358.62 0.272781 0.13003 0.945931 136 122 151
-34.7155 89.013 -1358.35 0.261579 0.0737681 0.956043 142 127 156
-14.6391 80.8108 -1362.66 0.309077 -0.0219665 0.930906 146 130 160
-14.3095 79.7831 -1362.65 0.319317 -0.038615 0.92608 146 130 159
-11.6249 88.0452 -1364.4 0.323779 0.0620515 0.931178 141 127 155
-31.6015 94.5309 -1359.26 0.289417 0.0482661 0.95073 145 130 160
-34.8112 103.902 -1358.64 0.35774 0.0602168 0.924619 151 136 167
-28.3113 100.879 -1361.03 0.328966 0.0654701 0.937719 145 132 161
-21.1895 104.64 -1363.73 0.321445 0.0524786 0.941462 138 125 154
-23.5318 112.315 -1363.14 0.308056 0.0419617 0.942683 144 131 161
-28.8909 119.6 -1362.22 0.219628 0.205453 0.92776 147 134 162
-18.1236 106.662 -1364.88 0.321061 0.0443668 0.94285 138 124 154
-31.3113 124.102 -1362.9 0.132221 0.283894 0.930285 151 138 165
-33.871 130.187 -1364.25 0.150218 0.267989 0.930803 147 134 160
-42.2737 -1200 -1357.79 -0.677047 0.571257 -0.00438406 181 144 135
-38.7017 -1191.61 -1355.07 -0.788904 0.366815 -0.11325 186 156 146
-36.8126 -1183.7 -1355.81 -0.896698 0.308098 -0.100776 144 120 113
-32.6685 -1176 -1355.91 -0.73221 0.459278 0.0534695 94 70 66
-22.9841 -1169.32 -1354.92 -0.557869 0.59068 0.329034 74 50 47
-21.3215 -1165.34 -1357.33 -0.774693 0.459736 0.315465 70 53 50
-15.0724 -1156.75 -1357.15 -0.817035 0.373862 0.457495 61 53 51
-7.31291 -1149.88 -1354.63 -0.639759 0.55241 0.46361 59 51 52
0.800167 -1140.42 -1355.76 -0.597318 0.589774 0.366649 63 55 57
64.2737 -554.633 -1356.98 0.778587 0.378391 0.0164152 91 95 114
63.2054 -548.829 -1357.06 0.787179 0.380714 0.0137075 90 95 114
49.5288 -536.395 -1352.13 0.790005 -0.0925913 0.521358 87 95 119
52.6271 -540.732 -1356.83 0.805939 -0.15656 0.521953 89 98 121
59.3342 -539.626 -1355.38 0.809836 0.147516 0.211076 87 93 113
61.6937 -535.687 -1355.18 0.825538 0.223872 0.101065 85 90 109
57.9777 -515.499 -1353.55 0.773095 0.0245214 0.55282 82 89 114
60.8567 -519.108 -1356.37 0.838976 0.0886596 0.402247 81 88 110
53.1253 -513.679 -1352.32 0.696563 0.0281944 0.724835 81 88 116
54.001 -505.591 -1352.64 0.650459 0.141356 0.262461 80 87 113
49.6902 -497.483 -1352.66 0.721136 0.15056 0.337079 75 83 112
49.8454 -492.757 -1355.82 0.802616 0.175222 0.448605 71 80 109
51.2903 -475.41 -1354.73 0.783677 -0.35127 0.495395 63 72 102
52.4364 -480.264 -1358.01 0.786413 -0.321813 0.553255 65 75 106
54.9286 -468.262 -1356.28 0.823726 -0.277392 0.44301 62 71 101
55.9462 -467.46 -1356.99 0.831441 -0.260243 0.435832 62 71 101
-627.359 214.237 -1356.33 0.104293 0.659161 0.492042 247 245 246
-614.738 207.122 -1353.18 0.155391 0.772129 0.57128 255 255 255
-603.826 204.799 -1354.62 0.117454 0.848986 0.52569 254 251 254
-580.399 190.413 -1353.17 0.39112 0.363689 0.76477 169 160 177
-583.55 199.411 -1357.99 0.358489 0.531093 0.692342 216 212 219
-602.005 207.07 -1358.48 0.12906 0.868421 0.47772 255 252 255
-591.464 202.389 -1354.87 0.236235 0.750407 0.563081 246 243 247
-574.846 188.594 -1353.17 0.273176 0.285636 0.841476 148 140 160
-576.596 194.628 -1356.37 0.298283 0.437748 0.767443 190 184 196
-516.544 101.891 -1354.94 -0.186365 -0.60269 0.769066 144 143 173
-514.035 104.014 -1352.89 -0.187604 -0.55802 0.803789 143 142 172
-505.929 103.589 -1352.18 -0.0259234 -0.546925 0.811446 148 146 176
-489.306 98.7086 -1357.84 0.0603053 -0.575456 0.815907 131 132 160
-493.945 101.562 -1355.9 0.156461 -0.539883 0.807527 139 138 165
-476.671 98.9703 -1355.35 -0.145593 -0.638719 0.760222 138 138 168
-479.921 100.491 -1355.02 -0.127421 -0.588866 0.796562 138 137 166
-521.294 109.574 -1351.26 -0.0641592 -0.515132 0.842576 136 133 162
-502.348 126.952 -1351.71 0.0881366 0.264211 0.967986 155 147 177
-494.332 110.646 -1351.48 0.224383 -0.287792 0.904007 144 138 167
-488.188 118.028 -1351.46 0.17358 -0.118263 0.964928 161 157 185
-471.191 112.235 -1351.91 0.128241 0.113583 0.954035 142 142 170
-468.751 113.469 -1352.91 0.166757 0.134312 0.953684 143 142 171
-483.575 119.779 -1351.87 0.0277895 -0.0360204 0.983058 152 149 177
-489.272 126.966 -1352.4 0.0633867 0.107013 0.985674 150 144 173
-480.433 124.052 -1352.75 0.0468428 0.0552001 0.984371 142 139 167
-477.993 130.342 -1353.14 0.090811 0.0348601 0.976115 137 132 161
-474.504 129.537 -1353.65 0.122833 0.0381546 0.974768 133 128 157
61.0798 -292.291 -1354.04 0.751461 0.134646 0.522054 154 140 165
64.4414 -290.546 -1356.06 0.783987 0.129255 0.523775 154 141 166
58.2321 -280.431 -1355.32 0.671952 0.188096 0.59517 149 135 159
58.2119 -272.052 -1356.93 0.548214 0.266295 0.710526 157 142 166
59.2096 -278.758 -1356.06 0.653221 0.206518 0.615191 152 137 162
41.4813 -259.55 -1353.31 0.621167 0.209541 0.731188 170 154 182
43.2011 -257.682 -1354.86 0.666334 0.188442 0.688719 165 149 177
44.0407 -248.263 -1356.27 0.646763 0.0612645 0.732489 157 142 169
47.3616 -271.501 -1352.39 0.579837 0.250467 0.722721 136 121 147
46.239 -260.109 -1356.17 0.677454 0.247265 0.645266 147 132 159
13.7531 -214.869 -1352.63 0.22488 0.166002 0.916101 147 130 155
9.80869 -210.96 -1351.98 0.210082 0.0315836 0.901135 137 119 143
-0.20307 -198.309 -1352.52 0.134768 0.27302 0.941756 145 126 151
4.31301 -196.52 -1353.71 0.102227 0.203752 0.971222 146 128 153
-89.3228 134.048 -1354.25 0.30253 -0.163022 0.935536 142 126 153
-86.8054 140.026 -1354.82 0.387824 -0.141484 0.912535 142 124 152
-86.8868 150.175 -1354.79 0.431901 0.00588264 0.895571 141 124 152
-87.7613 157.94 -1356.1 0.365787 0.206145 0.901387 139 123 150
-45.1733 -1200.04 -1349.99 -0.556861 0.621551 -0.0553457 179 141 133
-36.3213 -1195.56 -1346.15 -0.669362 0.512533 -0.0947818 183 152 142
-36.7574 -1185.88 -1346.35 -0.824277 0.574537 0.0480798 109 86 86
-30.4063 -1178.2 -1351.17 -0.63501 0.508342 0.171804 89 65 61
-22.2743 -1173.65 -1346.16 -0.62381 0.528168 0.358025 79 58 53
-15.9071 -1163.62 -1350.64 -0.85538 0.405528 0.358253 63 53 51
-11.1414 -1156.81 -1350.96 -0.762348 0.48445 0.382049 60 51 51
0.100564 -1144.87 -1350.8 -0.605546 0.618938 0.324254 65 57 57
7.08601 -1141.49 -1347.35 -0.493883 0.720727 0.253207 65 57 59
17.6792 -1137.89 -1346.39 -0.238821 0.850609 0.340773 58 53 59
-245.492 -215.731 -1347.88 -0.0901558 0.739078 0.630926 175 160 185
-234.727 -215.348 -1344.37 -0.227181 0.778683 0.454904 152 136 162
-227.283 -209.952 -1347.29 -0.573451 0.700582 0.334687 139 125 150
-223.466 -202.165 -1347.23 -0.707387 0.398711 0.432388 138 124 149
-230.109 -185.365 -1350.9 -0.614302 -0.000526474 0.779416 195 180 197
-228.269 -180.938 -1348.39 -0.542067 0.0189287 0.822827 219 203 216
-227.901 -171.139 -1348.64 -0.493472 -0.00633621 0.862434 208 190 203
-231.213 -166.621 -1350.18 -0.524322 -0.0637955 0.839142 183 164 181
-224.972 -164.655 -1346.8 -0.399568 -0.0394976 0.90803 161 144 164
-231.207 -161.297 -1349.28 -0.498161 -0.112381 0.83696 150 133 155
-235.256 -154.417 -1349.77 -0.654954 -0.120211 0.70818 140 126 151
-241.868 -140.857 -1349.72 -0.684272 -0.204017 0.652319 125 111 136
-237.499 -142.696 -1345.88 -0.561125 -0.225554 0.773884 129 113 139
-685.199 110.199 -1350.94 0.114279 0.209789 0.917371 188 164 158
-683.81 118.284 -1350.75 0.138879 0.0145028 0.960221 187 150 137
-706.998 121.326 -1346.92 0.205695 -0.218408 0.879273 221 180 166
-703.498 127.255 -1345.49 0.142111 -0.493758 0.866343 239 190 173
-687.975 119.892 -1350.11 0.117397 -0.0646067 0.950807 199 161 147
-686.421 128.208 -1345.92 0.085032 -0.452897 0.878162 238 194 171
-682.37 103.447 -1350.99 -0.000807149 -0.0102944 0.775144 213 200 197
-659.697 98.6639 -1348.5 -0.238778 0.0466617 0.76454 212 208 209
-638.747 84.2512 -1347.44 0.881641 0.00414753 0.232925 230 228 232
-636.803 88.058 -1349.56 0.937747 -0.13238 0.174565 230 229 234
-683.245 107.033 -1351.08 0.0579403 0.093388 0.835286 199 181 177
-676.438 117.622 -1351.41 0.118797 -0.151473 0.89879 188 150 136
-663.027 110.843 -1350.73 -0.293412 -0.299247 0.829209 189 163 159
-660.978 115.795 -1346.48 -0.369353 -0.400006 0.819614 188 148 139
-682.552 120.192 -1350.11 0.12084 -0.0938259 0.948883 195 155 139
-682.722 128.815 -1345.54 0.0693189 -0.414138 0.887729 240 198 174
-718.02 173.533 -1345.51 0.215243 0.95477 0.331825 254 253 250
-732.47 183.784 -1345.5 0.170233 0.811424 0.438328 254 252 249
-719.378 175.362 -1347.15 0.210725 0.950669 0.331649 254 254 252
-710.635 175.095 -1347.36 0.142191 0.803487 0.501656 254 247 240
-705.755 181.472 -1351.09 0.130869 0.536433 0.641954 253 241 229
-206.25 475.982 -1347.3 -0.630771 -0.106372 0.140729 68 54 56
-207.061 477.746 -1349.23 -0.642339 0.00212091 -0.00432851 73 58 60
-207.286 487.844 -1347.37 -0.313114 -0.353793 0.0690808 63 53 55
-191.013 409.04 -1350.06 -0.929576 -0.327531 -0.0220703 245 220 210
-191.483 411.26 -1349.24 -0.93282 -0.2837 0.0427924 241 216 207
-190.467 421.925 -1345.34 -0.89347 -0.0330174 0.425504 217 184 174
-191.755 435.941 -1348.93 -0.868106 0.115474 0.420572 228 178 165
-190.225 442.237 -1346.39 -0.797263 0.0798127 0.434657 206 162 152
-189.863 454.861 -1348.78 -0.858387 0.0404317 0.48307 181 155 151
-188.082 459.427 -1345.61 -0.916 0.053804 0.394053 191 154 147
-192.846 473.116 -1351.51 -0.57198 -0.385351 0.505194 105 82 82
-190.749 478.675 -1345.95 -0.39209 -0.701713 0.599228 107 75 75
-208.484 -603.788 -1339.97 0.318505 -0.420795 0.845574 85 90 108
-208.386 -603.024 -1339.61 0.312526 -0.431021 0.843705 85 90 108
-245.885 -590.935 -1341.01 -0.762771 -0.300458 0.584855 79 89 107
-245.022 -586.541 -1338.57 -0.751911 -0.293778 0.599035 79 89 107
-247.521 -581.137 -1338.89 -0.704727 -0.296851 0.634463 77 86 105
-192.143 -605.677 -1344.33 0.177079 -0.47567 0.860751 67 77 95
-188.044 -602.434 -1344.15 0.31522 -0.417048 0.823243 68 78 97
-190.849 -595.572 -1338.18 0.311927 -0.53292 0.775141 69 79 98
-178.97 -584.307 -1339.91 0.566612 -0.430937 0.700379 63 73 93
-178.652 -579.645 -1338.11 0.578284 -0.381281 0.717175 63 74 93
-174.996 -575.714 -1338.62 0.537832 -0.385264 0.736806 62 72 91
-167.981 -570.928 -1338.35 0.535629 -0.451234 0.672708 60 70 92
-235.132 -215.992 -1343.38 -0.224477 0.752363 0.473694 151 136 162
-222.886 -210.416 -1340.78 -0.61519 0.643087 0.370748 138 124 150
-222.012 -203.704 -1344.43 -0.718207 0.448821 0.371566 134 121 147
-219.687 -191.06 -1344.46 -0.472499 0.196137 0.723932 164 150 172
-217.149 -190.902 -1343.13 -0.424062 0.218904 0.736225 164 151 172
-214.87 -188.447 -1342.53 -0.384227 0.197143 0.78605 179 166 185
-213.5 -177.445 -1342.49 -0.33195 0.0673894 0.931847 227 214 223
-206.566 -188.711 -1338.74 -0.359057 0.310366 0.752373 180 166 185
-220.77 -176.82 -1344.39 -0.359197 0.0495482 0.927139 236 223 232
-214.773 -175.777 -1342.96 -0.33184 0.0551623 0.939691 225 211 220
-217.494 -168.706 -1343.28 -0.357955 -0.00115929 0.927703 190 173 189
-229.206 -151.643 -1343.8 -0.424184 -0.252726 0.868375 130 115 144
-227.429 -146.037 -1340.54 -0.445339 -0.275871 0.86437 136 120 148
-231.868 -142.573 -1341.87 -0.479301 -0.260581 0.844167 136 119 147
-220.236 -159.226 -1342.18 -0.401813 -0.152626 0.894463 141 125 150
-223.764 -152.127 -1340.99 -0.432461 -0.265383 0.86611 134 119 148
-224.186 -147.055 -1338.99 -0.450337 -0.295761 0.859242 137 121 150
-205.555 -139.533 -1338.88 -0.102946 -0.0215977 0.900353 147 133 160
-103.682 187.355 -1345.33 -0.369094 -0.0129341 0.517473 169 129 136
-110.516 293.978 -1339.41 0.0608379 -0.922046 0.183236 156 135 138
-150.49 320.816 -1340.59 -0.533518 -0.829428 0.132217 223 210 212
-147.818 318.022 -1344.54 -0.581335 -0.804374 0.100398 205 189 191
-36.4 -165.57 -1340.77 0.439762 0.135185 0.838731 158 137 163
-35.7168 -152.232 -1340.75 0.368828 -0.00280205 0.907445 150 130 157
-38.1055 -147.575 -1339.53 0.372106 -0.0182726 0.915233 146 127 153
-26.1887 -186.265 -1339.68 0.318791 0.315022 0.868915 174 150 173
-30.4572 -179.312 -1340.56 0.333529 0.367598 0.845532 179 154 179
-15.9126 -189.772 -1343.28 0.58129 0.188871 0.764703 173 150 174
-20.8498 -184.214 -1342.14 0.399433 0.232746 0.84997 186 161 184
-29.1467 -175.43 -1341.9 0.312432 0.319162 0.858809 174 149 174
-30.2911 -168.5 -1342.78 0.316341 0.20306 0.874242 159 136 161
-31.1154 -158.472 -1343.55 0.404133 0.0385923 0.874549 141 121 147
-35.2193 -153.855 -1341.07 0.37528 0.0027507 0.900796 151 131 158
-31.0915 -145.28 -1342.15 0.437426 -0.0199603 0.877392 155 135 161
-29.3552 -143.422 -1342.76 0.465521 -0.0223291 0.863505 157 137 163
-257.571 -485.9 -1331.54 -0.721752 0.237583 0.485852 69 75 98
-257.85 -476.381 -1332.4 -0.747672 -0.00779288 0.577578 78 84 108
-257.708 -467.24 -1332.91 -0.585806 -0.0580347 0.707901 77 82 107
-164.787 -562.787 -1334.03 0.611282 -0.465942 0.594793 58 67 90
-162.686 -557.429 -1332.71 0.693718 -0.394447 0.565728 53 62 86
-159.82 -551.475 -1335.15 0.798836 -0.259224 0.522601 51 59 85
-155.273 -543.942 -1338.09 0.764961 -0.298607 0.54891 51 60 86
-153.368 -540.67 -1337.86 0.693052 -0.376696 0.589708 51 60 86
-150.223 -532.354 -1334.48 0.593479 -0.49047 0.634626 51 60 86
-139.977 -523.186 -1335.21 0.498906 -0.504856 0.685979 44 54 77
-138.091 -521.009 -1335.14 0.465771 -0.467967 0.715999 43 53 76
-197.01 -161.177 -1335.46 0.0385076 0.0655841 0.870533 141 125 151
-193.196 -152.113 -1336.12 -0.131002 -0.0505427 0.87531 142 127 153
-190.786 -157.154 -1336.11 -0.00699795 -0.00269204 0.878129 140 125 150
-179.495 -157.46 -1332.1 -0.519697 -0.282272 0.794022 148 131 158
-193.985 -149.003 -1336.29 -0.217183 -0.0850336 0.866911 144 129 156
-195.738 -139.726 -1337.03 -0.156712 0.0115382 0.907272 153 139 166
-806.413 121.614 -1337.04 0.544129 -0.6382 0.528932 171 147 153
-794.543 123.566 -1337.97 0.258474 -0.587608 0.736014 213 193 196
-796.3 127.227 -1334.76 0.271522 -0.584709 0.71932 203 165 163
-792.793 130.708 -1333.29 0.179769 -0.597324 0.764318 228 182 173
-766.582 132.884 -1337.47 -0.0752496 -0.417174 0.911734 227 184 171
-783.644 136.943 -1332.8 0.375969 -0.518034 0.758492 238 189 176
-774.586 137.966 -1334.66 0.220578 -0.492099 0.815153 235 189 174
-773.154 141.345 -1332.78 0.187806 -0.509161 0.815261 243 196 179
-760.138 138.22 -1333.53 -0.0361632 -0.48266 0.870262 243 198 183
-752.543 134.711 -1336.29 0.126678 -0.498148 0.835156 236 191 177
-746.63 135.159 -1337.17 0.196477 -0.639239 0.714359 240 196 181
-741.985 136.226 -1336.56 0.0931361 -0.694238 0.690642 247 203 186
-739.801 140.541 -1332.89 0.0515869 -0.533641 0.810166 251 212 196
-49.7873 -163.082 -1331.44 0.628014 0.299026 0.724316 173 153 176
-47.526 -163.278 -1333.35 0.58704 0.239212 0.75444 168 148 172
-46.9086 -153.025 -1335.28 0.489372 0.100187 0.837456 151 132 156
-48.652 -141.435 -1334.29 0.513569 -0.00627396 0.846454 155 136 161
-43.7614 -142.309 -1336.67 0.442945 -0.0490884 0.884496 149 130 157
-33.5168 -188.041 -1336.07 0.313711 0.334687 0.876525 164 141 165
-78.7602 -114.009 -1332.25 0.198039 0.280495 0.932708 176 158 185
-72.3797 -112.871 -1333.64 0.144482 0.329062 0.917375 171 154 181
-68.6624 -113.732 -1333.81 0.0973327 0.362596 0.913279 169 153 180
-59.5827 -125.188 -1331.11 0.298891 0.188945 0.926489 167 150 176
-43.1217 -133.044 -1336.94 0.430697 -0.0100805 0.897346 161 141 168
-47.4886 -125.323 -1336.05 0.388498 0.0779693 0.912931 162 143 170
-49.5202 -118.369 -1335.9 0.304397 0.156472 0.923443 158 140 167
-60.5359 -111.274 -1335.66 0.0803675 0.4406 0.884978 165 149 176
-54.9728 -114.629 -1335.17 0.193677 0.345716 0.893305 163 147 173
-45.3253 -109.564 -1337.47 0.136398 0.168756 0.940055 179 161 189
-77.5535 -105.42 -1336.11 0.348359 0.229358 0.887947 179 160 186
-87.8612 -101.22 -1332.12 0.348226 0.138796 0.910914 159 141 166
-73.0917 -109.006 -1335.52 0.182417 0.345 0.898877 172 154 181
-83.7257 -92.0012 -1335.01 0.422085 0.110166 0.88043 172 153 178
-85.9819 -83.3665 -1335.15 0.28182 0.253551 0.89203 165 147 171
-80.2766 -83.1497 -1337.82 0.434183 0.243743 0.847122 182 163 189
91.7599 -1194.81 -1325.41 0.909811 0.409496 0.0568831 97 82 79
88.8536 -1187.15 -1330.32 0.928144 0.363945 0.0721126 67 55 54
83.0783 -1173.16 -1329.6 0.899094 0.425832 0.0739365 67 60 61
81.2037 -1169.94 -1325.54 0.880291 0.466632 0.0789057 68 61 63
29.0888 -1139.64 -1326.96 -0.2631 0.896902 0.218912 60 56 64
34.5786 -1139.77 -1325.96 -0.0492192 0.924073 0.192885 60 55 63
61.9214 -1151.01 -1328.11 0.488778 0.8552 0.120824 70 65 68
46.0948 -1144.25 -1325.99 0.363686 0.919285 0.1755 60 55 62
57.7967 -1148.39 -1331.58 0.461822 0.866686 0.157395 69 64 68
72.6355 -1157.79 -1326.73 0.665681 0.748906 0.0267304 55 51 52
12.7229 -415.839 -1325.42 0.358171 0.279404 0.875276 74 81 112
17.1541 -407.67 -1329.2 0.435106 0.260463 0.830537 75 81 111
-0.210016 -394.791 -1324.93 0.30594 0.183413 0.914642 89 87 115
7.41259 -405.581 -1325.23 0.328361 0.182426 0.907595 83 87 116
6.9357 -399.313 -1326.92 0.377044 0.262078 0.857065 85 86 115
8.85493 -389.211 -1326.93 0.433925 -0.213253 0.806346 116 108 136
10.7876 -385.991 -1326.29 0.451819 -0.365055 0.781413 131 120 148
16.5856 -373.55 -1326.24 0.474023 -0.0351311 0.840056 152 137 163
12.8939 -370.908 -1324.79 0.452028 0.118697 0.87592 155 140 165
-610.312 147.194 -1325.1 0.286993 0.285719 0.894924 153 145 167
-616.137 160.17 -1327.46 0.355157 0.377043 0.814279 134 125 147
-600.667 138.959 -1326.19 0.294452 -0.0804366 0.942142 127 119 142
-592.749 136.991 -1328.92 0.284272 -0.131794 0.944894 137 128 151
-590.954 140.713 -1329.13 0.286766 -0.088952 0.948691 140 130 154
-587.136 146.965 -1329.9 0.331909 -0.00387308 0.928257 131 120 144
-600.833 152.042 -1327.02 0.129504 0.121208 0.958642 135 127 149
-592.578 153.141 -1328.31 0.242729 0.0339207 0.952546 135 125 148
-596.05 156.286 -1327.61 0.112342 0.0523194 0.976773 135 126 149
-585.427 156.992 -1330.6 0.458544 0.072117 0.866897 137 125 149
-619.425 161.739 -1327.02 0.385012 0.399447 0.801933 135 126 147
-626.098 169.277 -1330.1 0.237103 0.615393 0.71979 139 131 150
-615.558 165.624 -1330.25 0.201248 0.494062 0.802072 129 120 141
-604.36 171.353 -1330.22 -0.228261 0.332907 0.901668 155 147 169
-600.614 164.382 -1328.42 -0.0641163 0.146317 0.963569 141 133 155
-600.497 170.548 -1329.41 -0.144222 0.260212 0.92917 152 144 166
-586.729 162.431 -1330.44 0.426463 0.0713751 0.885038 143 133 155
-819.364 188.971 -1328.05 0.153911 0.304739 0.71781 244 225 218
-795.84 188.432 -1333.31 0.170993 0.558952 0.681904 250 240 235
-787.013 188.877 -1337.74 0.319832 0.473446 0.594132 248 235 228
-195.224 -574.218 -1319.42 0.340194 -0.448405 0.753415 73 83 101
-257.946 -529.823 -1323.91 -0.456833 -0.426661 0.755531 75 81 96
-257.945 -527.931 -1323.23 -0.480832 -0.386134 0.736081 76 81 97
-255.939 -517.899 -1320.31 -0.574696 -0.0358296 0.701985 76 82 100
-225.687 -566.498 -1320.56 -0.259653 -0.175905 0.918587 81 90 110
-233.683 -559.425 -1321.08 -0.448293 -0.331434 0.813883 74 84 104
-248.124 -550.029 -1324.43 -0.593039 -0.414056 0.682269 71 79 99
-249.154 -543.314 -1322.97 -0.616855 -0.333075 0.694905 72 80 100
-237.141 -552.771 -1318.66 -0.455297 -0.424723 0.777149 70 79 99
-213.013 -562.852 -1319.34 -0.023569 -0.224035 0.940908 81 89 109
-220.333 -563.041 -1319.26 -0.0830552 -0.212674 0.943748 82 90 111
-207.844 -561.86 -1318.54 -0.243418 -0.176487 0.916876 83 89 109
-249.422 -539.998 -1322.74 -0.569428 -0.293319 0.735175 74 82 100
-247.219 -533.155 -1320.68 -0.43361 -0.283938 0.822057 81 89 107
-248.341 -526.489 -1318.36 -0.415683 -0.263811 0.840631 83 91 110
-252.18 -510.098 -1318.71 -0.56884 0.130163 0.801722 71 77 99
-256.258 -508.306 -1321.61 -0.375726 0.244684 0.78162 69 75 94
-251.616 -488.269 -1322.73 -0.732388 0.0815225 0.621516 64 71 92
-933.886 130.162 -1325.09 0.0153453 -0.998978 0.120731 218 192 187
-802.937 135.966 -1321.44 0.497191 -0.454183 0.66837 214 152 138
-803.276 141.124 -1318.48 0.380919 -0.301567 0.837664 224 164 147
-799.335 148.336 -1318.18 0.281459 -0.169944 0.922742 248 206 182
-803.906 155.167 -1318.03 0.274954 0.167377 0.917216 254 228 203
-811.826 164.478 -1318.4 0.513049 0.368944 0.735423 250 237 222
-813.362 169.768 -1320.5 0.405269 0.442238 0.707192 250 240 230
-800.798 164.191 -1320.19 0.0673926 0.315782 0.884267 251 233 218
-803.898 171.621 -1323.61 0.0357579 0.562596 0.776503 250 241 235
-795.863 172.075 -1319.35 -0.0973263 0.250255 0.88288 249 237 226
-816.058 181.516 -1324.6 0.114789 0.534777 0.739394 251 242 237
-794.909 178.735 -1323.43 0.125133 0.440187 0.738762 250 240 233
-792.34 147.713 -1321.48 0.405757 -0.361615 0.791219 244 197 175
-786.162 153.9 -1322.5 0.433874 -0.292767 0.849123 253 218 196
-777.831 159.375 -1323.19 0.349438 -0.294717 0.839385 253 227 210
-783.846 162.822 -1319.57 0.45042 -0.526133 0.764645 245 219 203
-782.353 170.728 -1321.37 0.360372 -0.0272577 0.717302 247 233 224
-776.903 170.111 -1324.34 0.386222 0.354369 0.709235 252 245 239
-792.282 177.244 -1320.65 0.0598792 0.275449 0.786701 249 238 227
-254.405 -363.312 -1317.38 -0.490726 -0.130732 0.867628 144 130 156
-247.065 -407.444 -1316.68 -0.517509 -0.103078 0.832511 57 67 86
-245.48 -393.288 -1314.65 -0.480805 -0.0797447 0.859687 86 87 108
-244.619 -398.088 -1314.66 -0.462131 -0.074392 0.871131 66 72 92
-238.595 -392.082 -1311.47 -0.434898 -0.0669021 0.887003 95 95 117
-246.539 -381.322 -1315.36 -0.531055 -0.000197691 0.830297 140 129 153
-247.911 -374.374 -1315.62 -0.507808 -0.123793 0.828531 142 129 155
-242.483 -373.553 -1312.43 -0.479107 -0.0834451 0.860124 152 139 164
-240.808 -372.546 -1311.41 -0.470661 -0.0709147 0.86895 155 142 167
-242.403 -366.594 -1311.72 -0.489443 -0.0851687 0.860556 153 140 165
-245.013 -357.348 -1313.45 -0.31379 -0.0255821 0.885994 148 135 159
-8.85798 -429.021 -1315.61 0.0929422 0.179454 0.932418 69 74 101
-17.7346 -424.044 -1314.65 0.25277 0.115829 0.905447 69 73 98
-22.4759 -414.991 -1316.54 0.452285 0.310158 0.809791 73 75 98
-26.3078 -412.245 -1313.95 0.6097 0.228232 0.733113 77 76 96
-4.81569 -433.638 -1314.02 -0.0578688 0.228507 0.932526 73 78 106
2.10561 -429.579 -1315.79 0.0872951 0.372919 0.902764 76 83 111
9.40017 -431.806 -1317.17 0.277179 0.325104 0.892209 79 88 118
-28.4617 -405.617 -1313.17 0.760779 0.104972 0.644479 72 70 87
-25.2099 -398.17 -1315.98 0.6186 -0.0634089 0.772808 80 76 97
-23.5965 -382.333 -1311.24 0.483409 -0.250201 0.815325 157 141 165
-16.2818 -382.039 -1314.75 0.353668 -0.326951 0.870356 147 131 156
-7.84501 -380.63 -1316.91 0.270798 -0.376841 0.895391 151 134 160
-9.81975 -376.928 -1315.48 0.304488 -0.27828 0.895646 150 132 157
-11.6331 -367.441 -1314.41 0.381086 0.0415666 0.88787 143 126 150
-9.3022 -365.516 -1316.02 0.405744 0.167248 0.868633 143 127 152
-18.1101 -357.277 -1312.67 0.379732 0.158722 0.894156 147 129 153
-4.4535 -377.763 -1317.54 0.261564 -0.243096 0.916643 151 134 159
-61.3298 -200.395 -1317.26 0.557688 0.205813 0.795338 162 131 143
-70.3064 -185.994 -1314.87 0.645584 0.396552 0.633696 245 233 239
-71.1128 -181.48 -1317.17 0.603145 0.383229 0.681765 216 203 215
-79.0189 -173.855 -1314.2 0.39843 0.429042 0.723995 151 133 152
-85.4523 -167.684 -1313.97 0.0890786 0.29778 0.900504 156 136 158
-76.5595 -164.409 -1317.05 0.430345 0.100185 0.837418 145 128 149
-82.7702 -159.801 -1315.53 0.133178 0.128858 0.938157 154 136 159
-81.4858 -154.605 -1316.62 0.227557 0.129862 0.917028 154 136 160
-90.3867 -144.824 -1316.25 0.0935903 0.242458 0.937613 161 144 169
-306.979 -1201.2 -1311.96 -0.0534932 0.892294 0.135322 23 18 19
-140.969 -466.298 -1308.61 0.29682 -0.295916 0.894781 44 53 81
-104.681 -466.126 -1309.71 -0.464924 -0.526976 0.765782 108 109 120
-101.79 -461.643 -1308.17 -0.201248 -0.50961 0.780617 127 119 128
-238.788 -454.514 -1308.9 -0.65894 0.203345 0.721489 53 62 83
-231.649 -447.19 -1306.45 -0.448927 0.115021 0.847909 52 61 82
-229.785 -449.292 -1304.92 -0.350563 0.102745 0.900677 51 60 81
-228.818 -444.478 -1305.18 -0.364307 0.0664897 0.893599 54 62 84
-229.631 -438.7 -1305.74 -0.459933 0.0643111 0.865052 54 62 84
-215.501 -455.312 -1306.5 0.189885 0.19631 0.933962 57 65 89
-221.768 -452.044 -1305 0.0648038 0.0953359 0.968237 57 65 88
-205.037 -457.41 -1307 0.0254282 0.137218 0.931439 54 62 88
-197.933 -459.902 -1305.61 -0.071402 0.040506 0.965237 53 60 87
-202.719 -453.4 -1307.02 -0.0299246 0.107052 0.941002 55 62 89
-211.876 -441.251 -1305.38 0.197289 -0.271555 0.94434 50 60 84
-211.075 -441.412 -1305.61 0.197807 -0.266228 0.941542 50 60 85
-210.874 -438.306 -1304.27 0.166989 -0.326831 0.943955 51 60 85
-231.778 -433.743 -1307.36 -0.538087 0.0301162 0.834456 55 64 85
-237.879 -423.608 -1310.46 -0.476722 -0.139703 0.865031 56 64 84
-238.273 -412.354 -1309.66 -0.521466 -0.0215613 0.833522 65 71 92
-230.963 -420.49 -1305.32 -0.53171 -0.107021 0.83975 56 64 85
-145.392 328.606 -1309.15 -0.632647 -0.527946 0.483496 71 68 93
-153.292 341.64 -1310.3 -0.697533 -0.388507 0.551996 69 68 93
-155.005 349.433 -1309.91 -0.612741 -0.448043 0.608479 85 82 104
-126.493 307.649 -1307.4 -0.704488 -0.423548 -0.0698723 101 94 112
-131.741 312.12 -1304.47 -0.818703 -0.421094 -0.0882332 92 87 109
-137.876 319.202 -1308.23 -0.6785 -0.577973 0.292468 79 77 100
-116.316 301.33 -1310.69 -0.30358 -0.818104 0.263126 76 71 90
-105.908 299.246 -1308.32 -0.182911 -0.893183 0.298562 70 67 87
-91.9425 301.297 -1310.72 0.506151 -0.8431 0.0969816 52 52 78
-141.129 325.387 -1306.32 -0.694339 -0.466306 0.456626 68 67 93
-68.0374 462.451 -1307.83 0.801821 0.195382 0.363097 206 163 152
-68.4581 467.266 -1308.63 0.804703 0.127847 0.249948 223 173 160
-71.3144 476.185 -1309.15 0.779503 0.244998 0.220745 241 189 177
-73.39 484.099 -1311.31 0.834197 0.202261 0.418597 246 183 161
-88.744 492.532 -1304.66 0.142629 0.46929 0.840208 245 173 145
-78.9973 495.526 -1309.4 0.489717 0.369992 0.557369 227 156 131
-87.7718 499.539 -1308.01 0.328403 0.289591 0.716125 212 137 113
-182.402 -1150.81 -1298.46 0.367415 0.928543 0.105198 66 61 66
-171.989 -1153.07 -1301.49 0.492899 0.817927 0.224155 62 58 62
-186.295 -1148.97 -1301.17 0.359157 0.919972 0.149421 67 61 66
-168.645 -1152.5 -1303.04 0.525936 0.778447 0.225715 61 57 61
-148.59 -1162.98 -1301.48 0.811021 0.286044 0.344891 81 72 70
-157.775 -1148.47 -1299.43 0.532701 0.651247 0.0791578 69 61 60
-75.2061 -468.588 -1297.82 -0.693145 -0.174871 -0.00617135 105 96 99
-74.0805 -456.719 -1298.2 -0.66206 -0.227448 -0.0793145 107 96 100
-89.2614 -443.625 -1300.87 0.0537156 -0.363476 0.750118 79 69 80
-78.4583 -441.318 -1300.97 0.10673 -0.19418 0.853838 65 63 80
-77.7525 -439.241 -1300.65 0.130627 -0.137236 0.879451 64 63 80
-947.128 132.657 -1300.53 -0.0203179 -0.727644 0.219943 232 207 202
-932.871 128.005 -1300.99 -0.0180683 -0.983378 0.150161 233 207 201
-915.35 129.822 -1302.31 0.0596701 -0.999452 0.0464937 158 114 105
-909.998 130.448 -1300.18 0.0859197 -1.00408 0.0117129 150 103 93
-899.69 131.644 -1299.74 0.0261321 -0.985335 0.0669366 154 105 96
-893.502 131.825 -1302.31 -0.0895689 -0.968742 0.159026 165 115 110
-882.619 129.59 -1300.94 -0.23039 -0.940349 0.236522 174 124 124
-864.071 119.328 -1298 -0.298323 -0.80872 0.42588 150 114 118
-848.63 109.863 -1301.25 0.145104 -0.738378 0.349978 154 120 122
-871.497 123.81 -1301.34 -0.310146 -0.881744 0.31582 148 110 115
-953.999 140.191 -1302.68 -0.240901 0.395029 0.605543 153 134 128
-940.158 171.488 -1303.09 -0.0329298 0.845459 0.531816 234 221 214
-929.905 171.594 -1301.6 -0.0195075 0.869072 0.514821 252 240 233
-920.712 171.488 -1300.79 -0.0560771 0.842746 0.509097 250 239 233
-915.733 174.689 -1302.9 -0.0909159 0.81225 0.517724 244 234 229
-906.381 177.576 -1301.84 -0.109494 0.783445 0.52658 236 226 220
-851.795 171.884 -1299.99 0.520345 0.607859 0.335932 234 221 222
-72.6728 458.364 -1301.34 0.761289 0.163799 0.552202 191 153 145
-73.3832 467.978 -1302.55 0.761334 0.256657 0.462728 216 169 158
-80.3097 475.921 -1297.34 0.551317 0.283349 0.710923 251 198 180
-78.6563 478.746 -1301.89 0.557493 0.539424 0.596294 234 185 172
-88.8639 487.231 -1301.06 0.259 0.426261 0.812909 246 188 165
-82.0586 -1204.86 -1295.23 0.26399 0.943886 0.063847 23 12 11
-68.7279 -1208.44 -1290.48 0.139045 0.929474 0.218087 21 13 12
-62.595 -1206.18 -1293.82 0.105897 0.884552 0.129257 40 24 23
-37.0498 -1205.96 -1294.66 0.0754471 0.902725 -0.184085 32 18 17
-53.9182 -1201.63 -1295.76 -0.327103 0.824026 0.12986 76 43 43
-45.2711 -1201.05 -1296.28 0.0197635 0.831413 -0.0338461 87 53 52
-29.4151 -1207.85 -1296.41 -0.139515 0.958332 -0.0537354 17 7 6
-16.4107 -1204.89 -1291.43 -0.549828 0.688894 0.392444 13 7 6
-17.0926 -1198.45 -1296.83 -0.656931 0.562233 0.385281 76 56 51
-11.0422 -1192.98 -1291.56 -0.640923 0.26635 0.676921 94 80 74
-10.5039 -1186.57 -1293.83 -0.731361 0.328916 0.525647 143 127 118
-6.13302 -1178.17 -1296.03 -0.724913 0.57226 0.342485 88 78 73
-0.72045 -1174.52 -1292.43 -0.672851 0.558574 0.474093 79 70 68
-87.2206 312.946 -1296.69 0.709316 -0.528218 0.416283 56 56 83
-85.3734 316.378 -1297.49 0.800933 -0.388312 0.383011 58 59 86
-78.6197 332.852 -1296.4 0.768286 -0.375867 0.357416 61 63 92
-74.108 339.908 -1296.4 0.708415 -0.444207 0.452884 60 62 91
-74.6811 344.535 -1292.68 0.658025 -0.356035 0.595971 57 59 89
-72.3462 360.238 -1291.3 0.742771 -0.190008 0.593507 57 59 88
-71.694 365.058 -1290.31 0.701875 -0.167824 0.647109 62 65 93
-65.7382 371.952 -1298 0.717215 -0.195209 0.519017 65 70 97
-72.0407 -493.045 -1284.47 -0.924095 -0.195676 -0.198846 143 140 141
-64.6792 -489.022 -1289.32 -0.847978 -0.232953 -0.367106 187 181 181
-76.3357 -476.375 -1287.62 -0.979822 -0.0807638 -0.0825235 234 230 232
-76.4075 -480.751 -1289.25 -0.972165 -0.0958534 -0.171692 238 234 235
-76.9314 -469.578 -1288.69 -0.903686 -0.22632 0.0377585 208 203 205
-64.9583 -470.696 -1285.78 -0.97339 -0.117211 0.0313578 221 217 219
-65.3184 -466.794 -1289.78 -0.941869 -0.161038 0.0296648 231 227 228
-78.0195 -450.92 -1289.27 -0.918408 -0.0912523 -0.215457 198 187 189
-68.0829 -459.07 -1287.6 -0.872295 -0.126707 0.0362942 209 201 204
-75.7792 -447.406 -1287.41 -0.901811 0.0121382 -0.2281 205 190 193
-136.346 361.31 -1287.18 -0.650995 -0.241524 0.641614 69 69 96
-140.382 367.186 -1288.92 -0.617426 -0.239026 0.737505 70 70 96
-139.935 371.199 -1287.37 -0.618052 -0.188753 0.74444 71 72 97
-139.995 380.099 -1286.21 -0.551313 0.00403194 0.75606 78 79 103
-138.896 391.382 -1287.22 -0.505751 0.173056 0.782832 162 161 177
-137.524 401.759 -1285.87 -0.52462 0.168042 0.815742 209 205 214
-135.493 398.332 -1287.78 -0.513913 0.187865 0.843669 246 241 246
-125.575 404.197 -1285.55 -0.254671 -0.0907588 0.83656 255 242 242
-123.463 403.387 -1285.81 -0.225601 -0.0169537 0.852457 255 245 245
-144.722 446.007 -1290.33 -0.219524 -0.311918 0.844986 187 137 124
-140.662 410.645 -1286.23 -0.535964 0.306187 0.548955 169 157 167
-136.118 415.52 -1287.28 -0.567608 0.272061 0.480862 230 212 211
-126.919 404.51 -1285.17 -0.295509 -0.108616 0.819669 255 238 237
-126.974 414.941 -1284.04 -0.263714 -0.151494 0.719316 241 203 198
-133.283 419.236 -1289.99 -0.579315 0.405129 0.429053 252 234 230
-129.083 422.584 -1289.54 -0.512651 0.381306 0.530425 246 220 215
-125.798 430.821 -1287.67 -0.494262 0.0234346 0.648725 194 151 144
-107.109 409.63 -1286.22 -0.116886 0.192752 0.910774 255 229 222
-105.937 417.594 -1286.12 -0.0908878 -0.0740812 0.949163 248 207 194
48.9099 -1190.57 -1278.96 0.220219 -0.166901 0.947556 0 0 0
52.3937 -1179.33 -1278.33 0.287039 -0.180019 0.931015 58 53 56
64.9276 -1188.24 -1282.15 0.261058 -0.15638 0.950617 4 4 4
62.4576 -1181.05 -1280.49 0.244829 -0.171327 0.954619 34 32 34
69.0102 -1183.07 -1282.63 0.407772 -0.206338 0.89613 7 7 7
64.17 -1174.67 -1279.91 0.315565 -0.174593 0.927302 54 51 53
68.0177 -1174.08 -1282.07 0.46506 -0.0729198 0.830092 48 44 46
65.2528 -1165.24 -1281.13 0.517289 0.14472 0.724997 72 66 69
23.4417 -1150.89 -1281.68 -0.403857 0.85116 0.198048 68 64 67
32.6542 -1146.61 -1280.2 -0.360908 0.93136 0.0536653 72 68 71
57.9393 -1157.34 -1278.08 0.526821 0.396695 0.627927 70 66 68
62.9705 -1162.84 -1279.78 0.517658 0.203353 0.73104 74 69 71
63.0825 -1156.97 -1281.79 0.538336 0.562218 0.472977 68 64 66
52.8407 -1149.83 -1279.99 0.488196 0.721933 0.382092 67 64 65
-77.0988 -481.247 -1283.35 -1.00477 0.0370286 -0.077175 255 255 255
-68.2306 -482.624 -1279.2 -0.974215 -0.0107159 -0.0788504 156 150 153
-72.4912 -478.043 -1281.5 -0.996673 -0.000805707 -0.00422651 216 212 214
-66.0467 -479.915 -1281.7 -0.973386 -0.0360344 -0.0764128 181 175 178
-67.7376 -472.132 -1282.67 -0.985563 -0.0783492 0.0659355 210 206 208
-75.4507 -464.606 -1283.31 -0.921774 -0.248502 0.147887 232 229 230
-72.9152 -458.673 -1283.21 -0.890182 -0.215857 -0.00897786 199 191 194
-230.293 -1215.85 -1227.4 -0.112821 0.374051 0.410407 55 54 65
-211.399 -1212.61 -1226.24 -0.110298 0.487833 0.329541 46 45 54
-219.919 -1209.01 -1228.7 -0.061618 0.732423 0.248385 23 22 26
-207.595 -1208.32 -1228.54 -0.0611755 0.768456 0.216355 20 20 23
-201.209 -1213.64 -1226.78 -0.0804626 0.504178 0.332077 44 43 52
-194.023 -1212.02 -1229.14 -0.0106594 0.633085 0.318693 31 30 36
380.772 37.7317 -1607.74 0.454554 -0.208502 0.373819 116 111 132
381.109 28.278 -1596.61 0.571629 0.132863 0.422128 101 95 116
376.449 38.1477 -1609.16 0.426116 -0.272372 0.365443 119 115 136
391.437 36.9304 -1600.29 0.461853 0.00151396 0.40702 109 104 124
392.585 38.1451 -1600.64 0.411601 -0.0627021 0.398402 113 107 128
384.419 36.0767 -1604.48 0.509799 -0.0447002 0.39855 109 104 125
392.277 46.0075 -1607.38 0.410605 -0.241917 0.370933 118 114 135
390.599 42.9321 -1606.14 0.400453 -0.2216 0.373981 118 113 134
400.259 48.3629 -1597.2 0.213075 -0.258157 0.362879 123 117 138
398.915 47.417 -1600.88 0.272525 -0.237768 0.374703 122 117 137
408.95 62.5246 -1598.94 0.247621 -0.591407 0.237376 121 117 138
403.32 57.8667 -1608.66 0.419159 -0.280026 0.358832 118 114 135
403.15 58.0145 -1604.65 0.33371 -0.435756 0.295334 120 115 136
415.849 65.5592 -1605.52 0.419104 -0.278245 0.357085 118 114 135
412.315 65.0809 -1609.04 0.4381 -0.244765 0.372129 118 113 135
22.4365 -1205.15 -1588.67 -0.0403017 0.970071 -0.265593 0 0 0
28.556 -1208.81 -1591.29 0.120685 0.798004 -0.315709 29 25 25
37.3094 -1215.01 -1592.82 0.204382 0.814402 -0.265883 36 31 30
35.6984 -1209.91 -1589.97 0.149569 0.870407 -0.26621 27 24 22
34.8167 -1205.7 -1585.94 0.0957154 0.908766 -0.266372 17 15 14
42.0186 -1208.7 -1586.75 0.181657 0.891448 -0.23335 28 25 22
30.9844 -1203.03 -1581.49 0.0333448 0.935463 -0.296898 0 0 0
50.5275 -1215.5 -1587.6 0.0587154 0.92035 -0.0713848 25 19 16
53.3565 -1217 -1586.44 0.0247848 0.93023 -0.0345194 23 17 14
53.356 -1210.84 -1582.57 0.0598177 0.903653 -0.0755345 25 20 18
43.3452 -1228.43 -1594.75 0.251327 0.259738 -0.322016 59 63 78
47.9358 -1227.7 -1592.51 0.178509 0.347379 -0.236696 52 54 68
57.9304 -1220.77 -1583.71 0.0729225 0.746665 -0.0984299 32 28 31
62.0145 -1225.44 -1580.35 0.147912 0.483482 -0.194298 46 46 56
-209.673 -880.109 -1576.15 -0.289947 -0.244988 -0.9127 43 53 74
-210.731 -875.794 -1576.17 -0.283208 -0.109636 -0.899006 45 54 75
-205.277 -878.382 -1576.82 -0.138086 -0.123945 -0.941739 43 53 74
-207.448 -870.213 -1575.97 -0.104423 0.21147 -0.882378 46 55 77
-201.787 -871.498 -1576.93 -0.0305787 0.108141 -0.931932 45 55 76
-230.098 -858.462 -1575.22 -0.181881 -0.386833 -0.903154 45 55 75
-231.2 -848.43 -1578.3 -0.275545 -0.207664 -0.904001 44 54 75
-234.215 -839.523 -1576.99 -0.473612 0.0922597 -0.831139 44 54 76
-225.043 -842.42 -1580.21 -0.0678674 -0.0661906 -0.954429 44 54 76
-210.518 -866.548 -1574.99 -0.123106 0.299131 -0.87864 46 56 77
-223.969 -849.91 -1578.1 -0.00823119 -0.242645 -0.94602 44 54 76
-215.632 -849.717 -1575.89 0.256149 -0.179866 -0.941835 44 54 76
-215.706 -840.752 -1578.46 0.222579 -0.040549 -0.952488 44 54 76
-199.25 -850.507 -1575.74 -0.312642 -0.049529 -0.929301 44 55 76
-203.196 -840.971 -1576.61 -0.0201694 -0.0483338 -0.926651 44 53 75
-231.25 -832.438 -1576.81 -0.416348 0.265175 -0.847225 46 56 78
-230.897 -829.809 -1575.9 -0.40888 0.298968 -0.845654 46 56 77
-88.5295 30.1909 -1574.61 0.00360591 -0.00124816 -0.987879 151 133 160
-71.3325 33.6748 -1574.58 0.0391789 -0.0673577 -0.975293 167 147 172
-126.917 -371.135 -1567.97 -0.0557645 -0.289475 -0.94861 149 135 162
-137.722 -364.369 -1568.56 -0.102303 -0.169772 -0.966627 139 124 151
-143.397 -358.963 -1567.96 -0.0151167 0.0213925 -0.987064 140 124 151
-132.287 -358.741 -1569.03 -0.0493841 -0.019282 -0.977185 149 135 161
-119.792 -360.326 -1569.32 -0.0792828 0.0450846 -0.96626 150 137 161
-119.668 -358.509 -1569.08 -0.0666247 0.09171 -0.965308 150 138 162
-110.574 -370.436 -1569.02 -0.0341567 -0.197183 -0.96549 144 133 160
-104.653 -371.569 -1568.86 0.00241001 -0.165574 -0.974661 148 137 165
-101.304 -372.33 -1568.76 0.0114907 -0.151752 -0.978872 148 137 165
-114.153 -363.049 -1569.81 -0.0679692 -0.0559969 -0.965977 146 134 160
-104.048 -364.295 -1569.39 0.0509422 -0.0737937 -0.978166 149 139 166
-104.637 -359.19 -1569.47 0.0613474 0.00445409 -0.976624 152 141 168
-100.367 -365.131 -1569.06 0.0664038 -0.0604309 -0.980415 152 141 168
-101.838 -358.146 -1569 0.0984772 0.010456 -0.976929 155 145 172
-89.1363 -1210.3 -1572.84 0.203477 0.278398 -0.863303 37 27 30
-76.7665 -1207.92 -1571.21 0.190701 0.218727 -0.85113 39 27 30
-80.8893 -376.098 -1568.49 -0.0363356 -0.170417 -0.980596 142 130 157
-80.1308 -374.143 -1568.93 -0.0439219 -0.154835 -0.98484 145 133 159
-70.2913 -377.878 -1568.64 -0.0298269 -0.18292 -0.973361 113 101 130
-75.2857 -371.209 -1569.5 -0.0445133 -0.137803 -0.985164 142 129 156
-62.3561 -374.307 -1568.7 0.0355646 -0.0826207 -0.987046 131 119 146
-82.1778 -360.469 -1569.68 -0.0490173 -0.0012138 -0.987506 150 137 163
-84.2395 -354.952 -1568.97 -0.0290733 0.0577632 -0.984434 149 136 162
-71.064 -361.018 -1569.88 -0.0450989 0.0121642 -0.990106 158 145 172
-76.0512 -355.319 -1568.99 0.0111355 0.0891981 -0.987431 148 134 161
-67.952 -353.839 -1568.62 0.00361516 0.148193 -0.985326 153 139 167
-61.2901 -369.937 -1569 0.0389927 -0.0469899 -0.989813 148 135 163
-49.5199 -371.016 -1568.77 0.0116364 -0.0607943 -1.00122 147 134 159
-89.6993 88.7671 -1568.36 -0.330497 0.209084 -0.904337 150 131 158
-90.944 113.478 -1568.54 -0.48818 0.0654871 -0.836694 141 122 148
-67.5305 93.5043 -1569.99 -0.0165306 0.107147 -0.985192 183 164 189
-68.492 101.066 -1569.82 -0.0578253 0.045817 -0.986491 182 162 187
-57.3829 81.0106 -1570.89 0.0267688 0.0805959 -0.98182 173 153 177
-61.178 89.1496 -1570.14 0.0210354 0.0895897 -0.982806 175 155 180
-47.8973 84.3372 -1570.88 -0.0574413 0.0301693 -0.988402 163 143 169
-39.7625 85.005 -1571.03 -0.0521801 -0.00282686 -0.986296 161 142 169
-40.5447 88.2407 -1570.63 -0.0499021 0.0367697 -0.984199 158 140 166
-58.0869 94.6031 -1569.69 0.00484127 0.0522491 -0.985749 165 145 170
-62.3225 105.647 -1570.07 -0.0469327 -0.0386408 -0.984358 164 144 169
-50.7479 102.964 -1569.44 -0.00214424 0.00917367 -0.990043 151 131 157
-38.3098 97.4801 -1569.63 0.00581678 0.0736045 -0.981354 153 135 162
-42.3641 100.95 -1569.76 -0.053237 0.0598504 -0.989662 150 131 158
-85.2507 108.267 -1570.2 -0.273121 -0.0517465 -0.912296 155 137 163
-85.7921 119.44 -1568.85 -0.283217 0.101518 -0.911598 152 134 160
-75.6032 113.129 -1570.38 -0.0493981 -0.00330162 -0.990626 167 148 174
-68.7959 111.584 -1570.39 -0.0622415 -0.0326171 -0.991763 168 148 173
-65.6233 116.845 -1570.51 -0.0449507 -0.00946896 -0.988253 164 144 169
-86.5749 123.606 -1568.56 -0.286118 0.0852367 -0.904087 152 134 160
-87.0156 128.779 -1568.48 -0.338347 0.0918932 -0.880267 154 136 162
-74.1709 125.671 -1570.29 -0.0230425 -0.0116609 -0.982292 161 142 168
-63.5672 124.081 -1569.95 -0.00809957 0.0330369 -0.984745 160 140 165
-64.2341 132.682 -1568.18 0.0794227 0.0438388 -0.985646 149 129 154
-51.9049 112.25 -1569.87 0.0334173 -0.0394155 -0.984072 154 134 160
-57.4865 115.43 -1570.53 0.0130568 -0.0409389 -0.98164 157 137 162
-49.4041 107.451 -1569.45 0.019699 -0.0126148 -0.988619 150 131 157
-35.6799 110.367 -1569.22 -0.00912686 -0.0100963 -0.97758 151 133 159
-38.6191 115.437 -1568.71 -0.012951 0.040029 -0.974158 151 132 158
-56.3254 120.151 -1570.43 0.0183988 -0.00490954 -0.980586 159 139 164
-58.7368 130.941 -1568.76 0.0402102 0.0438428 -0.980357 161 141 166
-48.1242 125.668 -1569.53 0.0866595 0.00848349 -0.971188 165 145 170
-43.0707 132.88 -1568.73 0.0925824 0.0288469 -0.972036 164 146 171
-34.6014 82.6158 -1570.87 0.0293047 -0.0224717 -0.977684 163 146 172
-34.8971 93.0839 -1569.34 0.0856107 0.123134 -0.963342 157 139 166
-36.1946 98.5732 -1569.41 0.0415431 0.0518436 -0.979526 155 137 163
-28.8764 107.718 -1568.7 0.153914 -0.129316 -0.966741 156 137 163
-25.1005 109.579 -1567.86 0.223499 -0.110161 -0.959182 153 134 161
-26.5734 118.241 -1567.91 0.16998 0.0721495 -0.957767 154 135 163
-76.4625 135.581 -1569.26 -0.0666701 0.130845 -0.95813 157 138 165
-66.2013 137.88 -1568.42 0.0350226 0.0770669 -0.979808 157 137 163
-69.3277 141.937 -1568.76 -0.0353158 0.128518 -0.975418 156 137 162
488.958 103.153 -1572.42 0.488061 -0.139683 0.809578 216 199 231
502.825 119.538 -1578.03 0.421573 -0.115166 0.85083 225 207 233
497.196 112.191 -1576.18 0.433429 -0.116925 0.846596 225 206 233
493.058 110.211 -1569.98 0.371518 -0.0874943 0.889346 234 212 235
504.981 124.439 -1578.22 0.434156 -0.127542 0.838509 223 205 233
502.182 120.35 -1575.61 0.37027 -0.0948292 0.881573 231 211 235
-239.455 -809.966 -1565.81 -0.624513 0.0353989 -0.775137 50 61 83
-242.096 -799.344 -1563.45 -0.703969 0.00688696 -0.706961 48 60 83
-242.03 -795.363 -1562.62 -0.652229 0.0521248 -0.74198 53 60 81
-236.917 -788.764 -1565.82 -0.566387 0.131472 -0.794033 59 59 76
-171.717 -880.212 -1566.63 0.635833 -0.123556 -0.761229 43 50 69
-169.176 -880.384 -1564.11 0.66157 -0.0983805 -0.744275 44 49 68
-170.157 -877.539 -1565.38 0.65969 -0.0896258 -0.748334 43 49 68
-171.618 -862.268 -1567.5 0.571302 -0.0111886 -0.822228 43 49 70
-166.99 -863.436 -1564.24 0.592617 0.0024378 -0.801506 44 50 70
-165.414 -858.512 -1562.57 0.593852 0.0860622 -0.796601 44 50 71
-166.943 -843.329 -1563.66 0.729302 -0.0978042 -0.670801 49 56 77
-27.0078 -1133.6 -1562.16 -0.0783504 0.135475 -0.982593 115 111 110
-14.832 -1135.45 -1561.79 0.122774 0.413415 -0.875249 112 110 111
25.2031 -1194.94 -1560.75 0.67381 0.679623 -0.208914 186 161 150
34.1609 -1202.4 -1565.28 0.22147 0.924884 -0.0785725 60 38 34
68.8643 -1212.76 -1563.57 -0.093855 0.823948 -0.116227 44 28 25
67.4827 -1210.3 -1564.31 -0.0695222 0.850203 -0.0992414 39 25 22
54.7005 -1203.02 -1568.37 -0.0379632 0.94426 0.0140943 21 14 12
21.091 -1186.24 -1561.55 0.807274 0.476676 -0.324274 208 187 173
-35.2163 -731.677 -1562 -0.484712 0.122328 -0.858438 55 64 92
-27.0129 -726.547 -1565.78 -0.42989 0.0925662 -0.891566 58 70 96
-28.565 -721.198 -1564.58 -0.449926 0.169724 -0.867011 57 69 95
-24.0658 -714.039 -1566.16 -0.432192 0.183937 -0.858749 63 76 101
-26.3637 -709.966 -1564.15 -0.521009 0.183403 -0.806356 63 77 102
-11.7657 -717.74 -1568.08 -0.02523 0.327352 -0.914734 68 82 107
-16.5017 -706.63 -1563.39 0.0273289 0.433985 -0.824206 63 77 102
-4.76826 -719.379 -1567.05 0.103497 0.486004 -0.852976 70 86 110
4.85069 -722.629 -1567.48 0.118185 0.593377 -0.800648 72 87 113
17.0353 -721.908 -1563.75 0.23103 0.564647 -0.728405 75 89 113
0.373363 -712.768 -1561.24 0.302365 0.494409 -0.798019 63 79 104
-29.8785 -701.535 -1561.68 -0.398736 -0.0465055 -0.881228 63 77 102
37.5747 -781.865 -1566.7 0.582825 0.219552 -0.757049 52 62 84
34.5589 -773.126 -1565.41 0.507501 0.246731 -0.79572 53 63 85
