ply
format ascii 1.0
comment Created by Open3D
element vertex 1315
property double x
property double y
property double z
property uchar red
property uchar green
property uchar blue
end_header
-4.32432 -617.193 -1893.63 53 68 101
-8.03232 -619.05 -1887.63 40 53 86
-12.2533 -618.357 -1889.63 48 59 91
-16.7003 -616.392 -1895.63 50 60 92
-21.2923 -613.472 -1904.63 50 61 94
-25.7923 -610.873 -1912.63 53 66 99
-29.9933 -609.87 -1915.63 60 73 108
-34.1309 -609.188 -1917.63 61 74 109
-38.6004 -606.276 -1926.63 59 72 108
-42.3788 -607.829 -1921.63 62 74 111
-46.3999 -607.789 -1921.63 60 72 109
-50.463 -607.433 -1922.63 56 69 107
-54.5211 -607.078 -1923.63 59 72 110
-58.5745 -606.726 -1924.63 64 77 116
-62.9142 -603.826 -1933.63 62 75 115
-67.0791 -602.203 -1938.63 65 77 117
-71.1582 -601.219 -1941.63 65 76 117
-75.2548 -599.918 -1945.63 61 76 117
-79.1091 -601.167 -1941.63 63 78 119
-83.0575 -601.463 -1940.63 64 78 117
-86.9135 -603.033 -1935.63 62 76 117
-90.7234 -605.562 -1927.63 63 78 119
-94.5859 -607.773 -1920.63 65 81 122
-98.6201 -607.438 -1921.63 67 84 125
-102.539 -609.334 -1915.63 76 94 134
-106.509 -610.595 -1911.63 75 91 136
-110.496 -611.858 -1907.63 70 86 131
-114.577 -610.575 -1911.63 74 90 135
-118.58 -611.841 -1907.63 76 92 138
-122.616 -612.154 -1906.63 76 92 138
-126.649 -613.105 -1903.63 76 94 138
-130.698 -613.103 -1903.63 76 96 140
-134.752 -615.331 -1896.63 72 92 136
-138.826 -616.607 -1892.63 69 89 129
134.976 -622.972 -1898.63 76 80 115
129.904 -620.594 -1905.63 75 83 121
125.127 -618.864 -1910.63 74 83 123
120.502 -617.459 -1914.63 74 85 126
116.533 -617.668 -1913.63 74 87 130
111.309 -614.656 -1922.63 63 77 121
107.357 -614.869 -1921.63 59 75 118
102.434 -612.506 -1928.63 56 73 115
97.4237 -609.824 -1936.63 50 66 109
92.3307 -606.822 -1945.63 49 67 109
88.6557 -607.688 -1942.63 59 76 119
83.7297 -605.013 -1950.63 66 82 125
79.7247 -604.916 -1950.63 67 84 124
75.7217 -604.822 -1950.63 70 87 127
72.4657 -606.981 -1943.63 65 82 122
69.1827 -609.143 -1936.63 59 79 119
65.1557 -609.053 -1936.63 61 81 122
61.4317 -609.93 -1933.63 62 80 124
57.5987 -610.487 -1931.63 65 79 125
53.1817 -609.116 -1935.63 66 79 126
48.6887 -607.425 -1940.63 65 81 126
45.1377 -608.952 -1935.63 70 86 131
41.5687 -610.48 -1930.63 75 91 136
37.8047 -611.367 -1927.63 70 86 132
33.6857 -610.97 -1928.63 66 82 129
29.9917 -612.182 -1924.63 64 80 128
26.2817 -613.395 -1920.63 63 79 125
22.5577 -614.61 -1916.63 66 82 128
18.5847 -614.862 -1915.63 67 83 128
14.9117 -616.401 -1910.63 63 79 125
10.7787 -616.014 -1911.63 59 75 121
6.72168 -615.951 -1911.63 57 75 117
2.87468 -616.853 -1908.63 57 72 112
-0.849317 -618.398 -1903.63 56 70 109
-4.33232 -621.23 -1894.63 55 70 102
-8.35532 -621.494 -1893.63 41 54 86
-12.8103 -619.513 -1899.63 46 57 89
-17.2383 -617.534 -1905.63 49 60 92
-21.4703 -616.52 -1908.63 45 58 90
-25.9633 -613.903 -1916.63 47 62 96
-30.1593 -612.893 -1919.63 59 72 107
-34.2899 -612.207 -1921.63 62 75 110
-38.6556 -609.917 -1928.63 58 71 108
-42.4784 -611.159 -1924.63 58 71 108
-46.5397 -610.799 -1925.63 62 75 112
-50.5538 -610.761 -1925.63 66 79 118
-54.3645 -612.328 -1920.63 63 76 115
-58.5413 -611.011 -1924.63 61 74 113
-62.7009 -609.695 -1928.63 62 75 116
-66.9121 -607.74 -1934.63 70 83 124
-70.9367 -607.391 -1935.63 71 84 125
-75.229 -604.156 -1945.63 66 80 121
-79.0849 -605.414 -1941.63 63 77 118
-83.1658 -604.108 -1945.63 62 76 115
-87.0373 -605.369 -1941.63 63 77 117
-90.8587 -607.594 -1934.63 63 77 118
-94.6685 -610.462 -1925.63 61 78 118
-98.5687 -612.369 -1919.63 66 83 123
-102.43 -615.561 -1909.63 77 94 134
-106.401 -617.152 -1904.63 78 94 139
-110.392 -618.743 -1899.63 79 96 141
-114.491 -617.451 -1903.63 81 98 144
-118.542 -617.444 -1903.63 82 99 145
-122.594 -617.438 -1903.63 77 94 140
-126.638 -618.075 -1901.63 76 94 138
-130.695 -617.753 -1902.63 75 94 138
-134.754 -620.958 -1892.63 75 94 137
-138.833 -621.601 -1890.63 72 91 131
135.912 -629.297 -1892.63 78 81 116
130.825 -626.902 -1899.63 74 82 119
125.638 -624.186 -1907.63 74 83 123
121.005 -622.771 -1911.63 77 88 130
116.391 -621.358 -1915.63 80 93 136
111.044 -618.001 -1925.63 68 82 125
107.22 -618.54 -1923.63 57 73 116
101.935 -615.188 -1933.63 54 70 113
96.9317 -612.487 -1941.63 52 68 111
92.0817 -610.114 -1948.63 49 67 109
88.2967 -610.661 -1946.63 54 70 113
83.8277 -609.265 -1950.63 58 74 117
80.1537 -610.14 -1947.63 64 80 122
76.4677 -611.017 -1944.63 70 86 128
73.1987 -613.191 -1937.63 66 82 124
69.5877 -614.395 -1933.63 58 77 117
65.3477 -613.656 -1935.63 59 77 118
61.5197 -614.215 -1933.63 63 81 124
57.6847 -614.776 -1931.63 71 85 131
53.3617 -613.719 -1934.63 72 85 132
48.9587 -612.341 -1938.63 71 87 132
45.4947 -614.201 -1932.63 75 91 136
41.5577 -614.445 -1931.63 77 93 138
38.0567 -616.309 -1925.63 73 89 135
33.7607 -615.262 -1928.63 69 85 132
30.0647 -616.482 -1924.63 68 84 131
26.0267 -616.409 -1924.63 68 84 130
22.4677 -618.279 -1918.63 71 87 133
18.1877 -617.239 -1921.63 70 86 131
14.6767 -619.436 -1914.63 65 81 127
10.5497 -619.047 -1915.63 63 79 125
6.71368 -619.953 -1912.63 65 82 124
2.93568 -621.184 -1908.63 61 76 116
-0.655317 -623.387 -1901.63 59 73 112
-4.53532 -624.298 -1898.63 58 73 105
-8.17332 -626.504 -1891.63 44 58 89
-12.6943 -624.186 -1898.63 45 58 88
-17.1863 -621.87 -1905.63 47 58 90
-21.3633 -621.172 -1907.63 46 58 90
-25.5313 -620.477 -1909.63 49 62 96
-29.9013 -618.49 -1915.63 59 72 107
-34.2964 -616.183 -1922.63 62 75 111
-38.5644 -614.524 -1927.63 59 72 111
-42.5777 -614.482 -1927.63 61 74 112
-46.9026 -612.181 -1934.63 63 76 113
-50.9851 -611.497 -1936.63 64 77 116
-54.5317 -615.014 -1925.63 61 74 113
-58.6231 -614.333 -1927.63 62 75 114
-62.7056 -613.654 -1929.63 67 80 121
-66.7449 -613.301 -1930.63 75 88 129
-70.6827 -613.917 -1928.63 74 87 128
-74.9911 -610.661 -1938.63 70 84 125
-78.8913 -611.604 -1935.63 67 81 121
-83.0125 -609.966 -1940.63 65 79 118
-86.9442 -610.59 -1938.63 65 79 119
-90.9057 -610.893 -1937.63 63 77 118
-94.6911 -614.103 -1927.63 60 76 117
-98.6607 -614.732 -1925.63 67 84 124
-102.527 -617.623 -1916.63 76 93 133
-106.444 -620.193 -1908.63 78 94 139
-110.381 -623.087 -1899.63 79 96 141
-114.502 -621.141 -1905.63 75 92 138
-118.52 -622.424 -1901.63 74 91 137
-122.572 -622.741 -1900.63 72 90 135
-126.632 -622.737 -1900.63 73 91 135
-130.688 -623.381 -1898.63 74 93 137
-134.759 -627.577 -1885.63 81 100 143
-138.862 -629.192 -1880.63 76 94 134
129.207 -627.031 -1912.63 73 82 118
124.966 -626.585 -1913.63 74 84 122
120.344 -625.16 -1917.63 73 86 127
115.995 -624.392 -1919.63 75 89 132
111.281 -622.645 -1924.63 70 85 128
107.575 -623.515 -1921.63 61 77 120
102.406 -620.466 -1930.63 56 72 115
97.5127 -618.073 -1937.63 55 71 114
92.4177 -615.03 -1946.63 53 71 113
88.6267 -615.582 -1944.63 54 71 114
84.1527 -614.176 -1948.63 56 72 115
80.4717 -615.056 -1945.63 61 77 119
76.9977 -616.591 -1940.63 65 81 123
73.8247 -619.107 -1932.63 61 77 120
70.0977 -619.992 -1929.63 57 75 115
65.7457 -618.922 -1932.63 57 75 116
61.6077 -618.506 -1933.63 60 78 120
57.9677 -619.723 -1929.63 64 79 124
53.7347 -618.985 -1931.63 64 78 123
49.0407 -616.619 -1938.63 64 80 125
45.6677 -618.818 -1931.63 70 86 131
41.9967 -620.041 -1927.63 72 88 133
38.1347 -620.614 -1925.63 71 87 133
34.0077 -620.211 -1926.63 70 86 132
30.4737 -622.091 -1920.63 72 88 134
26.2627 -621.366 -1922.63 73 89 135
22.6187 -622.923 -1917.63 71 87 133
18.1787 -621.225 -1922.63 67 83 128
14.3657 -622.134 -1919.63 65 81 127
10.0997 -621.091 -1922.63 66 82 128
6.20568 -621.678 -1920.63 66 82 124
2.30368 -622.266 -1918.63 59 74 114
-0.864317 -626.437 -1905.63 55 69 108
-4.93332 -626.378 -1905.63 56 71 103
-8.36932 -629.576 -1895.63 45 60 90
-12.9463 -626.917 -1903.63 45 59 88
-17.6653 -623.284 -1914.63 47 58 89
-21.5973 -623.882 -1912.63 48 59 91
-25.6473 -623.833 -1912.63 48 61 94
-30.1183 -621.183 -1920.63 53 66 101
-34.15 -621.136 -1920.63 60 73 109
-38.229 -620.767 -1921.63 64 77 115
-42.3965 -619.749 -1924.63 64 77 114
-46.6403 -618.083 -1929.63 64 77 114
-50.6071 -618.37 -1928.63 68 81 120
-54.3745 -620.284 -1922.63 65 78 117
-58.6278 -618.298 -1928.63 65 78 117
-62.6008 -618.591 -1927.63 69 82 121
-66.7492 -617.259 -1931.63 75 88 128
-70.5249 -619.505 -1924.63 73 86 126
-74.9344 -615.251 -1937.63 70 83 124
-78.7821 -616.851 -1932.63 69 82 122
-82.9897 -614.227 -1940.63 67 81 120
-86.8991 -615.18 -1937.63 66 80 121
-90.9747 -613.859 -1941.63 64 78 119
-94.7136 -617.742 -1929.63 61 75 116
-98.609 -619.675 -1923.63 63 79 119
-102.513 -621.936 -1916.63 66 83 123
-106.459 -623.873 -1910.63 67 83 128
-110.418 -626.137 -1903.63 70 86 132
-114.532 -624.177 -1909.63 67 84 130
-118.552 -625.144 -1906.63 66 82 128
-122.579 -626.438 -1902.63 68 85 130
-126.636 -626.434 -1902.63 72 90 134
-130.687 -627.732 -1898.63 74 94 138
-134.759 -631.957 -1885.63 85 104 147
-138.856 -632.609 -1883.63 84 102 142
134.799 -634.801 -1902.63 80 84 119
129.729 -632.374 -1909.63 71 82 117
124.558 -629.621 -1917.63 72 83 120
119.164 -626.213 -1927.63 72 85 124
114.962 -625.769 -1928.63 73 89 131
110.64 -624.998 -1930.63 73 89 132
106.822 -625.544 -1928.63 66 82 125
102.028 -623.462 -1934.63 61 77 120
97.4997 -622.04 -1938.63 59 75 118
92.9897 -620.619 -1942.63 56 74 116
88.8437 -620.188 -1943.63 57 74 117
84.7037 -619.758 -1944.63 57 73 116
81.5667 -622.288 -1936.63 62 79 119
78.0727 -623.832 -1931.63 60 76 118
74.2397 -624.393 -1929.63 57 73 116
70.0867 -623.971 -1930.63 57 75 115
66.1437 -624.207 -1929.63 53 71 112
61.1947 -621.161 -1938.63 50 68 110
57.8577 -623.371 -1931.63 55 69 114
54.0127 -623.941 -1929.63 56 70 115
49.5017 -622.215 -1934.63 61 77 122
45.7497 -623.117 -1931.63 70 86 131
42.2567 -625.004 -1925.63 72 88 133
38.0367 -624.269 -1927.63 72 88 134
33.4827 -622.223 -1933.63 74 90 136
29.8777 -623.788 -1928.63 75 91 137
25.6807 -623.058 -1930.63 72 88 134
22.0517 -624.626 -1925.63 68 84 130
17.4707 -622.261 -1932.63 66 82 127
13.9787 -624.487 -1925.63 67 83 128
10.0177 -624.749 -1924.63 66 82 128
6.48368 -626.979 -1917.63 61 78 118
2.50468 -627.243 -1916.63 51 67 106
0.00368337 -634.72 -1893.63 50 65 103
-4.15732 -634.332 -1894.63 57 72 104
-7.93332 -635.912 -1889.63 46 61 91
-12.7683 -631.924 -1901.63 47 61 90
-17.4353 -628.594 -1911.63 53 64 94
-21.6613 -627.56 -1914.63 50 62 94
-25.8733 -626.527 -1917.63 45 58 91
-30.2303 -624.514 -1923.63 48 61 95
-34.3083 -624.14 -1924.63 56 69 104
-38.2345 -624.751 -1922.63 61 74 111
-42.3551 -624.053 -1924.63 65 78 115
-46.4221 -623.685 -1925.63 67 80 117
-50.3989 -623.974 -1924.63 68 81 120
-54.2169 -625.574 -1919.63 65 78 117
-58.4398 -623.902 -1924.63 65 78 117
-62.3863 -624.523 -1922.63 68 81 120
-66.5469 -623.182 -1926.63 77 90 129
-70.3024 -625.771 -1918.63 74 87 126
-74.6655 -622.143 -1929.63 68 81 122
-78.6442 -622.444 -1928.63 67 80 120
-82.8622 -619.802 -1936.63 69 83 123
-86.8056 -620.434 -1934.63 67 81 121
-90.9113 -618.778 -1939.63 60 75 116
-94.7159 -621.704 -1930.63 58 74 115
-98.6471 -622.996 -1926.63 57 73 114
-102.531 -625.6 -1918.63 57 74 114
-106.461 -627.877 -1911.63 57 73 118
-110.466 -628.847 -1908.63 56 72 118
-114.514 -628.838 -1908.63 52 69 115
-118.507 -631.121 -1901.63 59 73 118
-122.551 -632.096 -1898.63 64 79 124
-126.608 -633.074 -1895.63 68 86 130
-130.666 -636.344 -1885.63 68 88 131
-134.764 -638.634 -1878.63 78 98 140
-138.89 -640.926 -1871.63 86 104 144
129.315 -635.418 -1913.63 70 82 117
125.468 -635.959 -1911.63 70 82 118
120.447 -633.522 -1918.63 69 82 121
115.969 -632.411 -1921.63 68 84 126
111.129 -630.31 -1927.63 71 87 130
107.303 -630.86 -1925.63 71 87 130
101.894 -627.108 -1936.63 69 85 128
97.2487 -625.345 -1941.63 65 81 124
92.8597 -624.246 -1944.63 61 79 121
88.7157 -623.812 -1945.63 64 80 123
84.9167 -624.372 -1943.63 65 81 124
81.9987 -627.58 -1933.63 64 81 121
78.4967 -629.135 -1928.63 57 74 114
74.2287 -628.376 -1930.63 55 71 112
70.2847 -628.612 -1929.63 58 76 117
66.1327 -628.188 -1930.63 58 76 118
60.8817 -624.131 -1942.63 54 72 116
57.4537 -626.025 -1936.63 53 68 113
53.8097 -627.26 -1932.63 52 66 111
49.3027 -625.522 -1937.63 57 73 118
45.6467 -626.761 -1933.63 65 81 126
42.3377 -629.322 -1925.63 65 81 126
37.7637 -627.26 -1931.63 66 82 128
33.4737 -626.191 -1934.63 70 86 132
30.0367 -628.427 -1927.63 72 88 134
25.9177 -628.022 -1928.63 72 88 134
22.1227 -628.94 -1925.63 70 86 132
17.9287 -628.209 -1927.63 67 83 128
14.3487 -630.121 -1921.63 66 82 127
10.0837 -629.064 -1924.63 65 81 126
6.61868 -631.638 -1916.63 59 77 115
2.63568 -631.905 -1915.63 45 62 100
-0.204317 -637.782 -1897.63 46 62 99
-4.16332 -638.381 -1895.63 58 73 105
-7.81232 -640.632 -1888.63 44 59 89
-12.7133 -636.287 -1901.63 46 60 89
-17.4413 -632.605 -1912.63 55 68 99
-21.4953 -632.553 -1912.63 57 71 102
-25.9343 -630.194 -1919.63 52 65 98
-30.1833 -628.827 -1923.63 49 62 95
-34.0594 -629.769 -1920.63 54 67 100
-37.9957 -630.384 -1918.63 59 72 109
-42.1732 -629.352 -1921.63 65 78 115
-46.2034 -629.311 -1921.63 66 79 116
-50.1903 -629.601 -1920.63 65 78 117
-54.3023 -628.905 -1922.63 63 76 115
-58.444 -627.881 -1925.63 61 74 113
-62.3903 -628.506 -1923.63 60 73 112
-66.5163 -627.486 -1926.63 70 83 122
-70.3058 -629.763 -1919.63 73 86 125
-74.6083 -626.769 -1928.63 68 81 121
-78.6192 -626.743 -1928.63 68 81 122
-82.8128 -624.412 -1935.63 71 84 125
-86.7842 -624.719 -1934.63 67 81 122
-90.8256 -624.04 -1936.63 58 73 114
-94.7382 -625.339 -1932.63 57 74 114
-98.667 -626.64 -1928.63 56 73 113
-102.548 -629.261 -1920.63 55 72 112
-106.545 -629.906 -1918.63 54 70 115
-110.574 -629.895 -1918.63 50 66 112
-114.515 -632.85 -1909.63 50 66 112
-118.515 -634.818 -1903.63 53 67 112
-122.546 -636.46 -1898.63 51 67 111
-126.586 -639.091 -1890.63 53 71 114
-130.655 -642.712 -1879.63 53 73 115
-134.767 -645.018 -1872.63 65 84 126
-138.902 -646.666 -1867.63 82 100 139
128.232 -636.781 -1922.63 73 86 121
125.061 -638.995 -1915.63 70 83 118
120.176 -636.874 -1921.63 67 81 119
116.213 -637.09 -1920.63 67 83 124
111.619 -635.641 -1924.63 69 85 127
107.786 -636.195 -1922.63 70 88 130
102.489 -632.75 -1932.63 72 88 131
97.5937 -630.309 -1939.63 70 86 129
92.9647 -628.537 -1944.63 70 88 130
88.5887 -627.433 -1947.63 71 88 130
84.6787 -627.664 -1946.63 65 81 124
81.5437 -630.227 -1938.63 59 76 116
78.1597 -632.125 -1932.63 52 68 108
74.0047 -631.695 -1933.63 54 70 112
69.9597 -631.6 -1933.63 56 73 115
66.0197 -631.839 -1932.63 63 81 123
60.9717 -628.42 -1942.63 62 80 124
57.1487 -628.996 -1940.63 52 68 113
53.7997 -631.237 -1933.63 50 65 110
49.5757 -630.485 -1935.63 50 66 111
45.1767 -629.071 -1939.63 58 74 119
41.5167 -630.319 -1935.63 58 74 119
37.1377 -628.909 -1939.63 55 72 117
32.6907 -627.169 -1944.63 58 75 120
29.3567 -629.752 -1936.63 64 80 126
25.7447 -631.339 -1931.63 63 79 125
21.8757 -631.931 -1929.63 68 84 130
17.9207 -632.192 -1928.63 69 85 130
14.5687 -635.114 -1919.63 66 82 127
10.1497 -633.385 -1924.63 58 74 118
6.39768 -634.648 -1920.63 54 72 109
2.76868 -636.577 -1914.63 52 69 105
-0.210317 -641.829 -1898.63 53 70 105
-4.56032 -640.44 -1902.63 55 70 101
-7.69132 -645.362 -1887.63 44 59 89
-12.4743 -641.653 -1898.63 44 58 86
-17.2103 -637.945 -1909.63 49 63 93
-21.4443 -636.896 -1912.63 62 75 106
-25.6093 -636.182 -1914.63 64 77 110
-29.7653 -635.469 -1916.63 50 63 96
-33.7591 -635.754 -1915.63 52 65 98
-37.6586 -636.704 -1912.63 56 69 104
-41.7569 -636.329 -1913.63 62 75 112
-45.9396 -635.292 -1916.63 70 83 120
-50.024 -634.921 -1917.63 63 76 115
-54.2253 -633.556 -1921.63 61 74 113
-58.2938 -633.188 -1922.63 59 72 111
-62.4306 -632.159 -1925.63 61 74 113
-66.3822 -632.791 -1923.63 66 79 118
-70.2443 -634.419 -1918.63 68 81 120
-74.5206 -631.737 -1926.63 70 83 124
-78.5657 -631.379 -1927.63 76 89 130
-82.6323 -630.691 -1929.63 76 89 130
-86.6662 -630.337 -1930.63 72 86 127
-90.7176 -629.653 -1932.63 68 82 123
-94.6203 -631.292 -1927.63 66 83 123
-98.6149 -631.607 -1926.63 70 87 127
-102.582 -632.587 -1923.63 68 84 124
-106.519 -634.563 -1917.63 63 79 124
-110.599 -633.225 -1921.63 62 78 123
-114.535 -636.2 -1912.63 63 79 125
-118.539 -637.85 -1907.63 64 78 123
-122.563 -639.503 -1902.63 52 68 111
-126.598 -642.151 -1894.63 47 65 107
-130.649 -648.118 -1876.63 45 65 107
-134.767 -648.781 -1874.63 58 78 119
129.828 -644.827 -1911.63 74 87 120
125.709 -644.704 -1911.63 72 85 119
120.684 -642.234 -1918.63 68 81 118
116.968 -643.122 -1915.63 64 80 120
111.734 -639.985 -1924.63 62 79 119
107.651 -639.871 -1924.63 63 81 123
103.085 -638.417 -1928.63 64 81 123
97.9407 -635.288 -1937.63 67 83 126
92.9537 -632.497 -1945.63 71 87 130
88.5777 -631.386 -1948.63 65 81 124
84.5547 -631.283 -1948.63 55 71 114
80.9777 -632.523 -1944.63 53 70 108
77.3867 -633.764 -1940.63 49 66 105
73.3537 -633.666 -1940.63 53 69 112
69.4267 -633.905 -1939.63 54 72 114
65.3947 -633.811 -1939.63 59 77 120
60.4587 -630.705 -1948.63 60 78 121
56.6457 -631.285 -1946.63 57 73 118
53.2127 -633.206 -1940.63 53 69 114
48.9057 -632.115 -1943.63 52 68 113
44.6137 -631.026 -1946.63 59 75 120
41.1477 -632.953 -1940.63 58 74 119
36.6877 -631.198 -1945.63 53 71 115
32.5097 -630.451 -1947.63 52 69 114
29.1797 -633.051 -1939.63 59 75 121
25.7377 -635.318 -1932.63 62 78 124
21.7877 -635.58 -1931.63 71 87 133
18.0687 -636.846 -1927.63 75 91 136
14.5617 -639.118 -1920.63 68 84 129
10.2167 -637.712 -1924.63 56 72 117
6.46268 -638.983 -1920.63 51 69 105
2.69268 -640.257 -1916.63 53 70 105
-0.418317 -644.875 -1902.63 57 74 108
-12.2343 -647.037 -1895.63 42 56 82
-16.9793 -643.305 -1906.63 50 64 93
-21.2213 -642.249 -1909.63 59 73 103
-25.6693 -639.858 -1916.63 68 81 114
-29.8233 -639.141 -1918.63 60 73 106
-33.7127 -640.096 -1915.63 55 68 101
-37.663 -640.719 -1913.63 54 67 103
-41.6675 -641.009 -1912.63 61 74 111
-45.72 -640.967 -1912.63 71 84 121
-49.8146 -640.593 -1913.63 67 80 119
-54.1886 -637.883 -1921.63 62 75 114
-58.3361 -636.845 -1924.63 60 73 111
-62.5436 -635.141 -1929.63 58 71 110
-66.4888 -635.777 -1927.63 57 70 109
-70.4093 -636.749 -1924.63 55 68 107
-74.4932 -636.052 -1926.63 61 74 115
-78.5402 -635.692 -1927.63 72 85 126
-82.53 -636.001 -1926.63 75 88 129
-86.6445 -634.643 -1930.63 76 90 131
-90.6094 -635.29 -1928.63 80 94 135
-94.5822 -635.938 -1926.63 81 96 137
-98.5269 -637.256 -1922.63 85 100 141
-102.52 -637.909 -1920.63 80 94 135
-106.479 -639.565 -1915.63 76 92 137
-110.553 -638.551 -1918.63 74 90 136
-114.497 -641.546 -1909.63 72 88 134
-118.532 -642.206 -1907.63 68 82 127
-122.558 -643.869 -1902.63 64 80 123
-126.591 -646.87 -1893.63 59 77 119
-130.653 -651.541 -1879.63 50 70 112
-134.766 -652.208 -1877.63 55 74 115
131.158 -652.253 -1902.63 76 86 119
126.887 -651.79 -1903.63 73 83 117
122.882 -652.006 -1902.63 65 76 114
118.747 -651.886 -1902.63 60 74 114
112.855 -647.038 -1916.63 59 74 115
108.135 -645.233 -1921.63 62 80 122
103.318 -643.094 -1927.63 66 83 125
97.8107 -638.931 -1939.63 70 86 129
93.0597 -636.797 -1945.63 68 84 127
88.5667 -635.341 -1949.63 58 74 117
84.5437 -635.237 -1949.63 55 71 114
80.6347 -635.473 -1948.63 55 72 112
76.6147 -635.373 -1948.63 55 72 112
72.2747 -634.263 -1951.63 57 73 116
68.3687 -634.504 -1950.63 55 72 115
64.4607 -634.747 -1949.63 58 74 117
59.7447 -632.294 -1956.63 58 76 118
56.1437 -633.553 -1952.63 60 77 120
52.7207 -635.487 -1946.63 62 78 121
48.8027 -635.738 -1945.63 62 78 123
44.5127 -634.642 -1948.63 63 79 124
41.3197 -637.592 -1939.63 62 78 123
36.7677 -635.489 -1945.63 61 79 123
32.7597 -635.41 -1945.63 61 78 122
29.1727 -637.017 -1940.63 68 84 129
25.8117 -639.636 -1932.63 73 89 135
21.8607 -639.898 -1931.63 80 96 142
18.2177 -641.51 -1926.63 76 92 138
14.8587 -644.47 -1917.63 62 78 123
10.6527 -643.728 -1919.63 51 67 112
7.10068 -646.018 -1912.63 49 66 102
3.17368 -646.626 -1910.63 53 68 105
-12.2393 -651.095 -1896.63 40 54 79
-16.8063 -648.347 -1904.63 49 63 92
-20.9973 -647.621 -1906.63 54 68 98
-25.3433 -645.887 -1911.63 68 82 113
-29.4033 -645.837 -1911.63 68 81 113
-33.5133 -645.453 -1912.63 60 73 106
-37.5205 -645.744 -1911.63 56 69 106
-41.7183 -644.691 -1914.63 59 72 109
-45.9029 -643.64 -1917.63 67 80 117
-50.0317 -642.927 -1919.63 66 79 118
-54.3547 -640.535 -1926.63 62 75 113
-58.4939 -639.49 -1929.63 62 75 112
-62.7296 -637.439 -1935.63 63 76 115
-66.6298 -638.415 -1932.63 64 77 116
-70.5742 -639.057 -1930.63 59 72 111
-74.5567 -639.365 -1929.63 54 67 108
-78.5711 -639.338 -1929.63 56 69 110
-82.5062 -640.322 -1926.63 60 73 114
-86.6467 -638.618 -1931.63 66 80 121
-90.6115 -639.269 -1929.63 74 88 129
-94.6241 -639.25 -1929.63 78 92 133
-98.5645 -640.577 -1925.63 84 98 139
-102.521 -641.906 -1921.63 80 94 135
-106.452 -644.245 -1914.63 74 90 135
-110.518 -643.561 -1916.63 72 88 134
-114.488 -645.904 -1909.63 70 86 132
-118.502 -647.576 -1904.63 73 87 131
-122.559 -647.906 -1903.63 71 86 129
-126.595 -650.59 -1895.63 66 84 126
-130.656 -654.956 -1882.63 60 80 122
-134.765 -656.3 -1878.63 63 83 124
131.284 -656.661 -1902.63 72 79 112
127.407 -657.217 -1900.63 69 76 110
123.263 -657.093 -1900.63 66 74 111
118.866 -656.292 -1902.63 63 75 115
113.349 -652.432 -1913.63 62 75 116
108.497 -650.276 -1919.63 58 76 118
104.281 -649.822 -1920.63 65 81 124
98.7567 -645.631 -1932.63 69 84 127
93.8717 -643.142 -1939.63 70 86 129
89.0177 -640.657 -1946.63 67 83 126
84.8737 -640.212 -1947.63 68 84 127
80.5137 -639.091 -1950.63 68 86 126
76.1687 -637.971 -1953.63 69 87 127
72.0517 -637.533 -1954.63 66 82 125
68.6737 -639.473 -1948.63 60 76 119
64.4517 -638.699 -1950.63 60 76 119
59.9367 -636.909 -1955.63 58 76 118
56.4307 -638.515 -1950.63 60 77 119
53.0017 -640.463 -1944.63 62 78 121
48.9837 -640.375 -1944.63 62 79 124
44.7817 -639.611 -1946.63 66 82 127
41.4927 -642.241 -1938.63 74 90 135
37.1127 -640.802 -1942.63 77 95 139
33.2687 -641.401 -1940.63 77 94 138
29.5857 -642.679 -1936.63 79 95 138
26.5427 -646.671 -1924.63 80 96 142
22.4137 -646.257 -1925.63 80 96 142
19.0677 -649.235 -1916.63 69 85 131
15.3827 -650.859 -1911.63 55 71 117
11.3097 -650.789 -1911.63 53 69 114
7.38168 -651.399 -1909.63 51 70 104
3.86368 -654.044 -1901.63 53 70 105
0.111683 -655.674 -1896.63 55 71 106
-12.7333 -652.445 -1905.63 44 58 81
-17.4033 -649.002 -1915.63 48 62 89
-21.2873 -649.964 -1912.63 49 63 91
-25.4023 -649.574 -1913.63 61 75 106
-29.4603 -649.524 -1913.63 73 85 118
-33.5683 -649.137 -1914.63 73 84 118
-37.671 -648.752 -1915.63 61 74 110
-41.8624 -647.692 -1918.63 59 72 108
-45.9512 -647.312 -1919.63 60 73 110
-50.0779 -646.594 -1921.63 61 74 111
-54.2361 -645.54 -1924.63 62 75 112
-58.42 -644.15 -1928.63 63 76 113
-62.7328 -641.409 -1936.63 66 79 118
-66.7363 -641.376 -1936.63 67 80 119
-70.7067 -641.684 -1935.63 63 76 115
-74.6808 -641.993 -1934.63 63 76 117
-78.5453 -643.658 -1929.63 59 72 113
-82.3511 -646.34 -1921.63 55 68 109
-86.4071 -645.979 -1922.63 59 73 114
-90.4144 -646.296 -1921.63 63 77 118
-94.4052 -646.953 -1919.63 67 82 123
-98.3501 -648.627 -1914.63 74 89 130
-102.379 -648.95 -1913.63 75 89 130
-106.384 -649.951 -1910.63 74 90 135
-110.413 -650.615 -1908.63 73 89 134
-114.45 -651.282 -1906.63 70 86 132
-118.495 -651.95 -1904.63 74 87 130
-122.548 -652.621 -1902.63 71 86 129
-126.588 -655.323 -1894.63 68 86 128
-130.662 -657.688 -1887.63 67 87 129
-134.768 -661.747 -1875.63 67 86 127
136.238 -662.918 -1897.63 71 72 106
132.216 -663.132 -1896.63 65 69 103
127.267 -660.951 -1902.63 61 66 100
122.736 -659.799 -1905.63 61 67 103
118.347 -658.993 -1907.63 60 70 109
113.97 -658.188 -1909.63 60 72 113
108.86 -655.333 -1917.63 55 73 115
104.638 -654.875 -1918.63 61 77 119
99.2257 -650.999 -1929.63 66 80 123
94.4497 -648.836 -1935.63 71 87 130
89.2387 -645.308 -1945.63 77 93 136
85.2047 -645.202 -1945.63 80 96 138
80.7267 -643.731 -1949.63 84 102 142
76.3777 -642.604 -1952.63 84 102 142
72.1497 -641.821 -1954.63 83 98 141
68.4557 -642.749 -1951.63 81 97 140
64.2367 -641.97 -1953.63 84 100 143
60.0287 -641.194 -1955.63 80 98 140
56.4227 -642.468 -1951.63 78 95 137
52.8007 -643.745 -1947.63 75 91 134
48.9757 -644.34 -1945.63 71 89 133
44.3117 -641.863 -1952.63 75 92 136
40.9427 -644.17 -1945.63 83 99 144
36.7527 -643.405 -1947.63 84 102 146
33.0027 -644.348 -1944.63 86 103 147
29.1587 -644.953 -1942.63 86 102 146
26.2907 -649.654 -1928.63 82 98 143
22.4077 -650.261 -1926.63 71 87 133
18.9847 -652.917 -1918.63 61 77 123
15.1507 -653.869 -1915.63 56 72 117
11.3047 -654.822 -1912.63 58 74 119
7.30568 -655.095 -1911.63 53 72 104
3.58068 -656.734 -1906.63 52 70 104
-0.567317 -656.329 -1907.63 53 70 104
-8.40632 -657.911 -1902.63 50 64 93
-12.7373 -656.489 -1906.63 46 60 83
-17.2883 -653.705 -1914.63 47 61 89
-21.1193 -655.014 -1910.63 49 63 91
-24.9653 -656.325 -1906.63 54 68 99
-29.1453 -655.593 -1908.63 68 80 112
-33.4183 -654.181 -1912.63 80 91 124
-37.6256 -653.112 -1915.63 75 88 123
-41.8191 -652.046 -1918.63 70 83 118
-46.0441 -650.64 -1922.63 59 72 108
-50.2093 -649.577 -1925.63 59 72 109
-54.1172 -650.561 -1922.63 61 74 111
-58.1527 -650.524 -1922.63 64 77 114
-62.5165 -647.424 -1931.63 63 76 115
-66.5667 -647.05 -1932.63 62 75 114
-70.5473 -647.36 -1931.63 63 76 115
-74.6225 -646.65 -1933.63 65 78 119
-78.5758 -647.304 -1931.63 61 74 115
-82.3531 -650.343 -1922.63 58 71 112
-86.3364 -651.001 -1920.63 60 74 115
-90.2833 -652.342 -1916.63 60 74 115
-94.2262 -654.025 -1911.63 63 80 120
-98.2254 -655.029 -1908.63 69 85 125
-102.285 -655.013 -1908.63 71 87 127
-106.274 -656.702 -1903.63 72 88 133
-110.343 -656.69 -1903.63 73 89 134
-114.441 -655.658 -1906.63 72 88 134
-118.457 -657.693 -1900.63 75 87 131
-122.526 -658.027 -1899.63 68 82 125
-126.606 -657.682 -1900.63 69 87 129
-130.673 -659.382 -1895.63 77 97 139
-134.761 -661.766 -1888.63 71 90 130
136.232 -667.007 -1898.63 72 73 107
132.075 -666.877 -1898.63 66 69 103
126.996 -664.337 -1905.63 62 65 99
122.729 -663.867 -1906.63 60 64 101
118.213 -662.711 -1909.63 57 64 104
114.214 -662.935 -1908.63 55 64 106
109.348 -660.75 -1914.63 50 68 110
105.117 -660.289 -1915.63 56 72 115
99.5767 -656.043 -1927.63 60 74 117
95.1467 -654.898 -1930.63 61 77 120
89.6917 -650.659 -1942.63 67 83 126
85.7627 -650.896 -1941.63 74 90 133
81.6087 -650.447 -1942.63 77 95 134
76.6967 -647.592 -1950.63 82 100 138
72.2477 -646.116 -1954.63 89 103 146
68.5527 -647.05 -1951.63 86 101 144
64.2287 -645.922 -1954.63 88 104 147
59.4157 -643.076 -1962.63 90 108 150
56.9077 -648.142 -1947.63 92 109 151
52.9867 -648.395 -1946.63 86 102 145
49.4407 -650.025 -1941.63 81 99 143
45.1367 -648.907 -1944.63 79 96 141
42.0207 -652.259 -1934.63 81 97 142
37.1877 -649.083 -1943.63 79 97 141
33.4277 -650.033 -1940.63 84 101 146
29.2357 -649.267 -1942.63 82 98 143
25.8747 -651.937 -1934.63 74 90 136
22.0817 -652.892 -1931.63 61 77 123
18.9797 -656.939 -1919.63 56 72 118
15.0697 -657.554 -1917.63 58 74 118
11.3007 -658.857 -1913.63 56 72 115
7.44468 -659.818 -1910.63 53 72 103
3.22868 -659.065 -1912.63 52 70 103
-1.31532 -656.598 -1919.63 54 71 105
-9.36132 -656.818 -1918.63 50 65 94
-13.6003 -655.73 -1921.63 47 61 86
-17.8263 -654.644 -1924.63 48 62 90
-21.5233 -656.649 -1918.63 51 65 94
-25.3003 -658.311 -1913.63 52 65 96
-29.4673 -657.574 -1915.63 58 69 102
-33.5243 -657.525 -1915.63 72 83 116
-37.5798 -657.479 -1915.63 83 96 131
-41.8222 -656.062 -1919.63 87 100 136
-45.9576 -655.333 -1921.63 79 92 127
-50.1268 -654.263 -1924.63 72 85 122
-54.2015 -653.882 -1925.63 68 81 118
-58.3485 -652.816 -1928.63 66 79 116
-62.5558 -651.066 -1933.63 61 74 113
-66.6038 -650.691 -1934.63 63 76 115
-70.5173 -651.688 -1931.63 67 80 119
-74.4729 -652.345 -1929.63 68 81 121
-78.3797 -653.689 -1925.63 61 74 114
-82.3025 -655.034 -1921.63 57 70 111
-86.3381 -655.011 -1921.63 55 69 111
-90.2849 -656.36 -1917.63 53 68 110
-94.2878 -657.026 -1915.63 50 67 107
-98.2807 -658.036 -1912.63 55 72 112
-102.286 -659.049 -1909.63 62 79 119
-106.317 -659.72 -1907.63 66 83 127
-110.332 -661.079 -1903.63 69 86 130
-114.432 -660.041 -1906.63 72 89 134
-118.465 -661.403 -1902.63 72 87 134
-122.521 -662.425 -1899.63 67 84 130
-126.588 -663.449 -1896.63 71 90 133
-130.679 -662.076 -1900.63 77 95 140
131.13 -668.538 -1906.63 73 77 109
126.197 -666.328 -1912.63 64 69 102
121.813 -665.509 -1914.63 61 65 101
117.311 -664.346 -1917.63 57 65 104
114.209 -666.999 -1909.63 52 64 106
109.589 -665.493 -1913.63 48 66 108
105.476 -665.376 -1913.63 51 67 110
100.288 -662.141 -1922.63 50 65 108
96.0797 -661.682 -1923.63 51 67 110
90.7237 -657.761 -1934.63 56 72 115
86.7757 -657.999 -1933.63 63 79 122
82.3797 -656.854 -1936.63 63 80 122
77.6717 -654.673 -1942.63 69 86 127
72.9897 -652.494 -1948.63 74 90 131
69.1747 -653.087 -1946.63 76 92 133
65.1477 -652.99 -1946.63 79 96 137
60.8197 -651.856 -1949.63 83 100 143
57.8887 -655.57 -1938.63 84 101 144
53.9467 -655.825 -1937.63 81 97 140
50.3807 -657.464 -1932.63 78 94 140
45.8697 -655.647 -1937.63 73 89 134
42.3767 -657.636 -1931.63 72 88 133
37.7117 -655.131 -1938.63 67 84 129
33.8527 -655.741 -1936.63 66 83 128
29.7357 -655.316 -1937.63 65 81 126
26.2797 -657.658 -1930.63 61 77 122
22.3967 -658.273 -1928.63 57 73 119
19.0527 -661.309 -1919.63 58 74 122
15.2927 -662.619 -1915.63 59 75 121
11.2227 -662.548 -1915.63 59 75 119
7.44068 -663.861 -1911.63 53 72 103
3.29468 -663.448 -1912.63 52 70 103
-1.38632 -660.274 -1921.63 55 72 106
-5.50532 -659.866 -1922.63 59 74 105
-9.74532 -658.769 -1925.63 51 66 95
-13.7883 -658.71 -1925.63 48 64 88
-17.7703 -658.999 -1924.63 48 62 90
-21.3553 -661.707 -1916.63 50 63 93
-25.0823 -663.725 -1910.63 53 64 94
-29.2053 -663.329 -1911.63 53 64 96
-33.4253 -662.244 -1914.63 62 73 106
-37.3378 -663.232 -1911.63 75 90 124
-41.6844 -661.115 -1917.63 85 99 135
-46.0053 -659.001 -1923.63 91 104 141
-50.0868 -658.615 -1924.63 87 101 138
-54.0005 -659.611 -1921.63 76 90 127
-58.1965 -658.193 -1925.63 69 83 120
-62.412 -656.432 -1930.63 63 76 115
-66.5025 -655.709 -1932.63 61 74 113
-70.3896 -657.058 -1928.63 59 73 112
-74.5054 -655.993 -1931.63 59 73 112
-78.4098 -657.346 -1927.63 58 72 112
-82.2779 -659.39 -1921.63 56 70 111
-86.2428 -660.402 -1918.63 55 70 113
-90.2641 -660.725 -1917.63 54 70 112
-94.2489 -661.74 -1914.63 53 71 111
-98.2818 -662.067 -1913.63 54 71 111
-102.271 -663.431 -1909.63 58 74 115
-106.317 -663.762 -1908.63 62 80 122
-110.368 -664.094 -1907.63 64 81 125
-114.423 -664.429 -1906.63 66 83 128
-118.458 -665.801 -1902.63 65 82 131
-122.527 -666.139 -1901.63 66 84 130
-126.599 -666.48 -1900.63 71 91 134
-130.671 -667.857 -1896.63 77 95 141
130.587 -671.217 -1911.63 76 81 112
125.398 -668.295 -1919.63 72 79 112
120.896 -667.122 -1922.63 71 75 110
116.409 -665.951 -1925.63 65 74 112
113.322 -668.622 -1917.63 60 74 115
109.089 -668.153 -1918.63 54 70 112
104.983 -668.036 -1918.63 61 77 119
100.521 -666.873 -1921.63 58 74 117
96.0737 -665.714 -1924.63 54 70 113
90.4857 -661.069 -1937.63 54 70 113
86.4287 -660.961 -1937.63 54 70 114
82.4847 -661.203 -1936.63 54 70 113
78.1017 -660.053 -1939.63 54 70 113
73.6257 -658.557 -1943.63 55 72 112
70.4287 -661.244 -1935.63 60 76 117
66.0687 -660.101 -1938.63 65 82 123
61.4187 -657.914 -1944.63 68 84 127
57.7847 -659.213 -1940.63 69 85 128
54.1347 -660.514 -1936.63 67 83 127
49.9967 -660.075 -1937.63 69 84 130
45.7717 -659.291 -1939.63 69 84 130
42.1907 -660.945 -1934.63 70 86 131
37.7947 -659.468 -1938.63 66 83 127
33.5887 -658.69 -1940.63 61 78 122
29.6457 -658.957 -1939.63 60 76 121
26.0287 -660.618 -1934.63 58 74 120
22.1527 -661.238 -1932.63 59 75 121
18.9707 -664.99 -1921.63 60 76 123
14.9857 -665.264 -1920.63 60 76 122
10.9977 -665.541 -1919.63 60 76 121
7.14968 -666.515 -1916.63 55 73 106
3.01268 -666.1 -1917.63 55 73 106
-1.93132 -661.514 -1930.63 56 73 106
-9.24132 -665.562 -1918.63 51 65 94
-13.2393 -665.85 -1917.63 48 62 88
-17.4773 -664.75 -1920.63 51 65 94
-21.0723 -667.475 -1912.63 52 66 95
-24.9743 -668.464 -1909.63 54 65 95
-29.3673 -666.327 -1915.63 55 66 99
-33.4273 -666.278 -1915.63 57 68 101
-37.2913 -667.62 -1911.63 57 72 106
-41.4991 -666.532 -1914.63 69 82 118
-45.7385 -665.099 -1918.63 83 96 133
-49.7896 -665.057 -1918.63 89 103 140
-53.799 -665.365 -1917.63 84 98 135
-58.0441 -663.59 -1922.63 80 94 131
-62.4142 -660.429 -1931.63 75 88 127
-66.4357 -660.395 -1931.63 69 82 121
-70.3265 -661.753 -1927.63 61 74 113
-74.416 -661.029 -1929.63 58 72 111
-78.3832 -661.696 -1927.63 59 73 113
-82.2794 -663.406 -1922.63 59 73 114
-86.22 -664.771 -1918.63 57 73 114
-90.2875 -664.402 -1919.63 55 72 112
-94.2901 -665.076 -1917.63 56 74 114
-98.2647 -666.447 -1913.63 54 71 113
-102.255 -667.819 -1909.63 56 72 115
-106.332 -667.458 -1910.63 61 79 121
-110.38 -667.793 -1909.63 62 79 122
-114.404 -669.172 -1905.63 63 79 124
-118.489 -668.469 -1907.63 63 80 126
-122.538 -669.504 -1904.63 67 85 130
-126.6 -670.541 -1901.63 68 88 130
-130.678 -670.539 -1901.63 72 92 137
129.641 -672.825 -1919.63 81 84 117
124.731 -670.588 -1925.63 81 85 120
120.761 -670.813 -1924.63 76 80 115
116.147 -669.283 -1928.63 68 78 115
112.939 -671.62 -1921.63 61 75 116
108.712 -671.149 -1922.63 60 77 117
104.248 -669.977 -1925.63 67 84 125
99.7977 -668.808 -1928.63 64 80 123
95.2447 -667.29 -1932.63 64 80 123
89.7867 -662.967 -1944.63 64 80 123
85.7427 -662.858 -1944.63 60 76 121
82.0337 -663.804 -1941.63 55 71 115
77.9867 -663.699 -1941.63 52 68 111
73.8347 -663.245 -1942.63 51 68 108
70.3187 -664.898 -1937.63 49 65 107
66.1657 -664.448 -1938.63 51 67 110
61.5147 -662.247 -1944.63 56 72 115
57.2847 -661.452 -1946.63 59 75 119
53.3557 -661.709 -1945.63 61 77 122
49.6127 -662.67 -1942.63 72 85 132
45.5817 -662.581 -1942.63 70 84 130
41.8237 -663.546 -1939.63 69 85 130
38.1437 -664.862 -1935.63 66 84 126
34.0157 -664.428 -1936.63 59 77 119
30.1467 -665.048 -1934.63 60 76 121
25.9427 -664.268 -1936.63 62 78 123
22.4687 -666.642 -1929.63 63 79 125
18.4987 -666.917 -1928.63 63 79 125
14.7537 -668.244 -1924.63 61 77 122
10.4767 -667.122 -1927.63 59 75 120
6.64368 -668.102 -1924.63 56 73 107
2.31168 -666.635 -1928.63 56 73 107
-2.20532 -664.12 -1935.63 58 75 107
-9.37132 -668.894 -1921.63 52 66 94
-12.8733 -671.982 -1912.63 47 61 88
-17.2423 -670.175 -1917.63 56 70 98
-21.0743 -671.518 -1913.63 58 71 101
-25.0323 -672.164 -1911.63 58 70 100
-29.3693 -670.363 -1916.63 60 71 103
-33.6853 -668.565 -1921.63 58 69 102
-37.3915 -670.965 -1914.63 49 64 98
-41.4543 -670.919 -1914.63 53 67 103
-45.651 -669.826 -1917.63 66 79 116
-49.706 -669.784 -1917.63 76 90 127
-53.7195 -670.094 -1916.63 82 96 133
-57.9299 -668.658 -1920.63 83 96 133
-62.2331 -666.175 -1927.63 82 95 133
-66.3338 -665.442 -1929.63 81 94 132
-70.2958 -666.109 -1927.63 77 90 129
-74.3872 -665.38 -1929.63 74 88 127
-78.4982 -664.304 -1932.63 69 83 122
-82.4122 -665.676 -1928.63 62 76 117
-86.3665 -666.7 -1925.63 58 74 114
-90.3773 -667.027 -1924.63 54 72 112
-94.2912 -669.104 -1918.63 56 74 114
-98.2655 -670.484 -1914.63 55 72 114
-102.272 -671.516 -1911.63 53 69 112
-106.36 -670.802 -1913.63 58 75 117
-110.428 -670.441 -1914.63 58 75 119
-114.453 -671.479 -1911.63 58 74 119
-118.513 -671.47 -1911.63 58 74 119
-122.544 -673.211 -1906.63 68 87 130
-126.589 -675.652 -1899.63 66 88 129
-130.67 -676.349 -1897.63 65 85 129
124.595 -674.275 -1927.63 82 86 121
120.626 -674.502 -1926.63 75 82 116
116.271 -673.669 -1928.63 70 80 116
112.682 -674.961 -1924.63 62 78 117
108.831 -675.546 -1922.63 63 80 120
104.487 -674.721 -1924.63 66 83 123
100.512 -674.957 -1923.63 63 79 120
95.7107 -672.722 -1929.63 61 77 120
90.4747 -669.078 -1939.63 62 78 121
86.3047 -668.615 -1940.63 63 79 124
82.4747 -669.213 -1938.63 62 78 122
78.2007 -668.401 -1940.63 58 74 117
74.1517 -668.298 -1940.63 55 72 112
70.7347 -670.313 -1934.63 53 69 111
66.3677 -669.155 -1937.63 54 70 113
61.7117 -666.94 -1943.63 55 71 114
57.6757 -666.844 -1943.63 57 73 117
53.8347 -667.456 -1941.63 60 76 121
50.1767 -668.776 -1937.63 67 80 127
46.5967 -670.449 -1932.63 66 80 126
42.9067 -671.772 -1928.63 66 82 127
38.8477 -671.686 -1928.63 63 81 123
34.7037 -671.249 -1929.63 56 74 116
30.4807 -670.462 -1931.63 60 76 121
26.2677 -669.677 -1933.63 62 78 124
22.5457 -671.009 -1929.63 63 79 125
18.6517 -671.638 -1927.63 62 78 124
14.7507 -672.269 -1925.63 59 75 120
10.4737 -671.14 -1928.63 57 73 118
6.42568 -671.07 -1928.63 56 73 109
2.30868 -670.649 -1929.63 55 72 106
-12.4453 -678.495 -1906.63 49 63 90
-17.2453 -674.212 -1918.63 55 70 99
-21.1343 -675.212 -1915.63 58 73 102
-25.0893 -675.862 -1913.63 59 73 102
-29.4253 -674.05 -1918.63 63 75 106
-33.6363 -672.944 -1921.63 63 74 107
-37.3443 -675.359 -1914.63 53 68 102
-41.5501 -674.257 -1917.63 52 66 101
-45.6978 -673.509 -1919.63 56 69 106
-49.7506 -673.467 -1919.63 63 77 114
-53.925 -672.371 -1922.63 76 90 127
-58.2413 -669.87 -1929.63 80 93 130
-62.3813 -668.779 -1932.63 82 95 132
-66.4738 -668.041 -1934.63 85 98 135
-70.2648 -670.471 -1927.63 84 97 136
-74.2973 -670.442 -1927.63 86 99 138
-78.2726 -671.117 -1925.63 83 97 137
-82.282 -671.442 -1924.63 76 90 131
-86.3192 -671.418 -1924.63 71 86 127
-90.467 -669.637 -1929.63 72 87 128
-94.4127 -671.024 -1925.63 72 89 128
-98.3205 -673.467 -1918.63 72 88 129
-102.321 -674.506 -1915.63 66 81 123
-106.403 -673.788 -1917.63 61 77 120
-110.405 -675.183 -1913.63 59 76 120
-114.424 -676.579 -1909.63 60 77 122
-118.513 -675.515 -1912.63 65 81 127
-122.539 -677.619 -1906.63 70 88 132
-126.578 -680.779 -1897.63 64 85 128
-130.666 -681.48 -1895.63 63 83 125
124.061 -676.892 -1932.63 81 86 119
119.84 -676.408 -1933.63 78 85 119
115.882 -676.639 -1932.63 73 83 120
112.174 -677.583 -1929.63 67 82 122
107.836 -676.749 -1931.63 66 83 123
103.508 -675.919 -1933.63 60 77 117
99.6697 -676.513 -1931.63 57 74 114
94.8827 -674.264 -1937.63 60 76 118
90.1237 -672.019 -1943.63 63 79 122
86.5277 -673.33 -1939.63 63 79 123
82.2477 -672.511 -1941.63 66 82 125
78.5247 -673.47 -1938.63 62 78 121
74.7907 -674.431 -1935.63 58 75 115
71.0467 -675.394 -1932.63 59 75 117
66.7757 -674.583 -1934.63 59 75 118
62.6167 -674.129 -1935.63 56 72 115
58.0667 -672.257 -1940.63 57 73 116
54.4117 -673.583 -1936.63 59 75 119
50.4577 -673.845 -1935.63 62 77 122
46.7787 -675.175 -1931.63 62 78 123
43.0847 -676.505 -1927.63 63 79 124
39.3747 -677.838 -1923.63 60 76 121
35.2187 -677.398 -1924.63 58 75 119
31.2367 -677.67 -1923.63 62 78 123
26.6757 -675.461 -1929.63 64 80 126
22.5427 -675.028 -1930.63 66 82 128
18.4927 -674.952 -1930.63 64 80 126
14.4437 -674.877 -1930.63 60 76 122
10.2487 -674.096 -1932.63 60 76 121
6.63868 -676.152 -1926.63 56 73 109
3.07368 -678.565 -1919.63 54 71 106
-11.7703 -686.459 -1896.63 51 65 92
-16.6523 -681.794 -1909.63 54 68 97
-20.4473 -683.508 -1904.63 54 68 97
-24.5933 -683.1 -1905.63 58 72 101
-29.0543 -680.567 -1912.63 61 73 104
-33.4853 -678.037 -1919.63 61 72 105
-37.5423 -677.989 -1919.63 58 73 106
-41.7867 -676.526 -1923.63 57 71 106
-45.8341 -676.481 -1923.63 57 70 107
-49.7092 -677.855 -1919.63 57 71 108
-53.8857 -676.752 -1922.63 65 79 116
-57.9331 -676.714 -1922.63 67 80 117
-62.1263 -675.261 -1926.63 72 85 122
-66.4062 -672.749 -1933.63 81 94 131
-70.2662 -674.487 -1928.63 86 99 138
-74.329 -674.102 -1929.63 91 105 144
-78.3873 -673.72 -1930.63 95 109 149
-82.3356 -674.756 -1927.63 89 103 144
-86.3201 -675.439 -1925.63 84 98 139
-90.4901 -673.293 -1931.63 85 99 140
-94.3934 -675.396 -1925.63 84 100 139
-98.285 -678.209 -1917.63 87 102 142
-102.353 -677.839 -1918.63 83 97 138
-106.376 -678.532 -1916.63 76 92 135
-110.418 -678.874 -1915.63 73 90 133
-114.424 -680.632 -1910.63 72 90 134
-118.482 -680.978 -1909.63 75 92 137
-122.533 -682.033 -1906.63 73 91 136
-126.578 -684.859 -1898.63 68 88 132
-130.658 -687.334 -1891.63 66 86 127
125.118 -683.791 -1925.63 80 85 118
120.489 -682.23 -1929.63 77 84 118
116.007 -681.029 -1932.63 73 82 119
112.045 -681.263 -1931.63 67 81 122
107.584 -680.066 -1934.63 64 81 121
103.016 -678.514 -1938.63 58 75 115
99.4267 -679.828 -1934.63 57 74 114
94.5257 -677.208 -1941.63 63 80 121
89.7727 -674.948 -1947.63 65 81 123
85.9557 -675.552 -1945.63 61 77 120
82.1317 -676.158 -1943.63 63 79 122
78.3017 -676.767 -1941.63 64 80 123
74.3577 -677.019 -1940.63 62 78 119
70.6227 -677.988 -1937.63 62 78 120
66.2567 -676.814 -1940.63 61 77 120
62.3097 -677.073 -1939.63 61 77 120
57.5687 -674.475 -1946.63 63 79 122
54.2147 -676.881 -1939.63 63 79 123
50.1697 -676.788 -1939.63 66 82 127
47.0537 -680.268 -1929.63 66 82 127
43.4447 -681.964 -1924.63 62 79 123
39.6387 -682.948 -1921.63 58 74 119
35.5627 -682.862 -1921.63 65 81 126
31.3187 -682.065 -1923.63 66 82 127
26.5087 -678.771 -1932.63 68 84 130
22.2987 -677.978 -1934.63 70 86 131
18.4117 -678.615 -1932.63 68 84 130
14.4417 -678.897 -1931.63 65 81 126
10.5427 -679.538 -1929.63 61 77 122
7.06768 -682.32 -1921.63 55 72 108
-12.2633 -687.7 -1905.63 50 64 91
-17.0103 -683.719 -1916.63 52 67 95
-20.7353 -685.8 -1910.63 52 67 95
-24.8163 -685.745 -1910.63 53 67 96
-29.2153 -683.553 -1916.63 58 71 103
-33.3843 -682.789 -1918.63 61 73 106
-37.4455 -682.74 -1918.63 58 73 105
-41.8352 -680.199 -1925.63 56 70 105
-45.7906 -680.867 -1923.63 57 70 107
-49.7105 -681.893 -1920.63 57 71 108
-54.0503 -679.358 -1927.63 57 71 108
-58.0504 -679.676 -1926.63 57 70 107
-62.0175 -680.352 -1924.63 61 74 111
-66.3381 -677.467 -1932.63 69 82 119
-70.2997 -678.147 -1930.63 69 82 121
-74.2082 -679.541 -1926.63 72 86 125
-78.3314 -678.444 -1929.63 72 86 126
-82.3365 -678.774 -1928.63 73 87 128
-86.3453 -679.106 -1927.63 73 87 128
-90.4688 -677.659 -1931.63 71 85 126
-94.4343 -678.707 -1928.63 77 92 131
-98.3398 -681.181 -1921.63 81 95 135
-102.418 -680.452 -1923.63 81 95 136
-106.432 -681.15 -1921.63 82 98 141
-110.418 -682.918 -1916.63 80 97 140
-114.434 -684.332 -1912.63 76 94 138
-118.498 -684.324 -1912.63 73 91 135
-122.516 -687.166 -1904.63 72 91 135
-126.575 -689.298 -1898.63 71 91 135
-130.667 -689.296 -1898.63 72 90 130
124.453 -686.043 -1931.63 79 84 117
119.703 -684.111 -1936.63 80 88 122
115.491 -683.624 -1937.63 77 88 123
111.663 -684.22 -1935.63 75 92 130
107.457 -683.736 -1936.63 74 91 131
103.014 -682.535 -1939.63 71 88 128
99.4237 -683.857 -1935.63 68 85 125
94.6407 -681.58 -1941.63 70 87 127
90.1167 -680.026 -1945.63 65 82 122
86.7487 -682.073 -1939.63 61 77 120
82.5757 -681.603 -1940.63 63 79 122
78.8467 -682.574 -1937.63 65 81 124
74.8917 -682.828 -1936.63 61 77 120
70.5147 -681.645 -1939.63 66 82 125
66.0477 -680.104 -1943.63 73 89 132
62.4087 -681.443 -1939.63 74 90 133
57.8627 -679.548 -1944.63 73 90 133
54.2127 -680.89 -1940.63 71 89 133
50.7367 -682.953 -1934.63 73 89 134
47.1447 -684.658 -1929.63 72 88 132
43.6237 -686.724 -1923.63 64 82 124
39.9027 -688.073 -1919.63 57 74 118
35.8197 -687.987 -1919.63 66 82 127
31.5707 -687.184 -1921.63 70 86 131
27.0007 -684.947 -1927.63 68 84 129
22.6177 -683.431 -1931.63 66 82 127
18.8007 -684.431 -1928.63 66 82 128
15.1247 -686.15 -1923.63 65 81 127
11.1327 -686.436 -1922.63 60 76 121
7.49768 -688.518 -1916.63 57 74 110
4.04868 -691.678 -1907.63 53 70 104
-12.6333 -689.624 -1912.63 53 67 94
-17.1903 -686.694 -1920.63 55 70 97
-21.0813 -687.713 -1917.63 55 70 98
-25.0943 -688.016 -1916.63 57 71 100
-29.2163 -687.604 -1917.63 63 77 108
-33.4363 -686.477 -1920.63 69 82 115
-37.4956 -686.428 -1920.63 67 82 114
-41.8363 -684.229 -1926.63 66 80 114
-45.8366 -684.542 -1925.63 64 77 113
-49.8402 -684.858 -1924.63 59 73 110
-54.0106 -683.741 -1927.63 58 71 108
-58.0515 -683.702 -1927.63 57 70 107
-61.9083 -685.458 -1922.63 58 71 108
-66.1661 -683.272 -1928.63 63 75 113
-70.2356 -682.881 -1929.63 63 75 114
-74.2395 -683.209 -1928.63 59 73 112
-78.3039 -682.821 -1929.63 51 65 104
-82.2583 -683.87 -1926.63 52 66 107
-86.2974 -683.845 -1926.63 52 67 108
-90.3583 -683.464 -1927.63 45 61 102
-94.2939 -685.236 -1922.63 55 70 110
-98.3041 -685.933 -1920.63 54 69 110
-102.466 -683.408 -1927.63 54 68 109
-106.46 -684.469 -1924.63 53 69 112
-110.466 -685.531 -1921.63 52 68 112
-114.474 -686.954 -1917.63 52 69 112
-118.483 -689.096 -1911.63 52 70 111
-122.494 -692.673 -1901.63 51 70 112
-126.561 -694.818 -1895.63 54 74 118
-130.658 -695.533 -1893.63 63 81 119
120.876 -691.408 -1928.63 78 89 122
116.645 -690.917 -1929.63 80 92 126
112.293 -690.066 -1931.63 79 96 132
108.077 -689.579 -1932.63 80 97 135
103.256 -687.282 -1938.63 82 99 138
99.5417 -688.25 -1935.63 81 98 138
95.3467 -687.77 -1936.63 78 95 135
90.6937 -685.844 -1941.63 74 91 131
86.9737 -686.817 -1938.63 72 88 131
83.0197 -687.068 -1937.63 73 89 132
79.1727 -687.683 -1935.63 75 91 134
74.6757 -686.128 -1939.63 76 92 135
70.7227 -686.385 -1938.63 82 98 141
66.2517 -684.835 -1942.63 85 101 146
62.7097 -686.544 -1937.63 85 101 144
58.4547 -685.721 -1939.63 81 97 140
54.9867 -687.796 -1933.63 75 91 136
51.2097 -688.786 -1930.63 67 83 128
47.6067 -690.502 -1925.63 62 78 122
44.1677 -692.942 -1918.63 53 71 113
39.8127 -691.768 -1921.63 44 62 105
35.9057 -692.404 -1919.63 54 72 115
31.4007 -690.512 -1924.63 57 73 118
27.0817 -689.345 -1927.63 59 75 120
22.4557 -686.735 -1934.63 56 72 117
19.1127 -689.91 -1925.63 57 73 119
15.2757 -690.917 -1922.63 58 74 118
11.5017 -692.288 -1918.63 54 70 114
7.92868 -694.744 -1911.63 56 71 107
4.74768 -699.369 -1898.63 54 70 105
-12.2033 -696.217 -1906.63 53 67 94
-16.8343 -692.908 -1915.63 59 74 101
-20.5643 -695.016 -1909.63 62 77 104
-24.5403 -695.682 -1907.63 61 75 104
-28.9503 -693.462 -1913.63 66 79 111
-33.0783 -693.049 -1914.63 70 83 116
-37.1523 -693 -1914.63 75 90 122
-41.5548 -690.426 -1921.63 75 89 123
-45.7925 -688.937 -1925.63 70 83 118
-49.7981 -689.254 -1924.63 63 76 113
-54.1748 -686.327 -1932.63 59 72 109
-58.285 -685.566 -1934.63 58 71 108
-62.2027 -686.611 -1931.63 59 72 109
-66.2015 -686.937 -1930.63 63 75 113
-70.3015 -686.183 -1932.63 72 82 122
-74.2097 -687.595 -1928.63 71 84 123
-78.1623 -688.648 -1925.63 67 81 120
-82.1796 -688.982 -1924.63 66 80 121
-86.2736 -688.235 -1926.63 62 78 119
-90.3588 -687.491 -1928.63 57 74 114
-94.3547 -688.192 -1926.63 59 76 116
-98.3586 -688.894 -1924.63 59 74 115
-102.499 -686.714 -1930.63 61 75 116
-106.516 -687.06 -1929.63 55 71 114
-110.466 -689.571 -1922.63 50 66 109
-114.474 -691.003 -1918.63 50 66 109
-118.529 -690.994 -1918.63 46 64 103
-122.517 -695.315 -1906.63 44 63 104
-126.575 -697.474 -1900.63 46 66 110
121.137 -696.193 -1927.63 74 86 119
117.03 -696.064 -1927.63 78 91 125
112.419 -694.477 -1931.63 75 93 129
108.076 -693.622 -1933.63 81 98 136
103.254 -691.311 -1939.63 86 103 141
99.3007 -691.556 -1938.63 82 99 139
95.1097 -691.073 -1939.63 79 96 136
90.9237 -690.592 -1940.63 81 98 138
87.1997 -691.572 -1937.63 79 95 138
83.0187 -691.096 -1938.63 78 94 137
79.6107 -693.172 -1932.63 79 95 138
75.1037 -691.607 -1936.63 81 97 140
71.0377 -691.501 -1936.63 83 99 143
66.6637 -690.305 -1939.63 81 97 142
63.3157 -692.752 -1932.63 75 91 135
58.7507 -690.833 -1937.63 70 86 130
55.0827 -692.191 -1933.63 60 76 121
51.1137 -692.46 -1932.63 53 69 114
47.2347 -693.095 -1930.63 49 66 110
43.8037 -695.55 -1923.63 43 61 103
39.7237 -695.461 -1923.63 40 58 100
35.3857 -694.282 -1926.63 52 70 112
31.2307 -693.833 -1927.63 50 66 111
26.9157 -692.659 -1930.63 55 71 116
22.2937 -690.033 -1937.63 55 71 116
18.9547 -693.227 -1928.63 58 74 120
15.8087 -697.513 -1916.63 59 75 119
12.3167 -700.346 -1908.63 57 73 116
8.86568 -703.544 -1899.63 55 69 106
5.37768 -706.744 -1890.63 55 70 105
-12.5113 -698.485 -1912.63 53 67 94
-16.5963 -698.424 -1912.63 59 73 100
-20.5073 -699.455 -1909.63 60 74 102
-24.4303 -700.488 -1906.63 59 73 102
-28.6843 -699.344 -1909.63 67 80 112
-33.0793 -697.113 -1915.63 70 83 116
-37.2018 -696.7 -1916.63 70 85 117
-41.461 -695.2 -1920.63 69 83 117
-45.793 -692.975 -1926.63 68 81 116
-49.9274 -692.205 -1928.63 62 75 112
-54.2163 -689.985 -1934.63 55 67 104
-58.402 -688.494 -1938.63 54 65 103
-62.3869 -688.82 -1937.63 55 68 105
-66.4446 -688.422 -1938.63 61 73 111
-70.465 -688.389 -1938.63 67 77 117
-74.3322 -690.172 -1933.63 73 85 123
-78.3618 -690.143 -1933.63 79 92 130
-82.2327 -692.294 -1927.63 79 93 134
-86.2496 -692.632 -1926.63 77 93 133
-90.3147 -692.246 -1927.63 77 94 134
-94.3147 -692.95 -1925.63 80 96 136
-98.3408 -693.295 -1924.63 78 93 134
-102.547 -689.649 -1934.63 79 93 134
-106.572 -689.634 -1934.63 77 93 136
-110.537 -691.436 -1929.63 74 90 133
-114.523 -693.239 -1924.63 72 88 131
-118.545 -694.319 -1921.63 69 86 124
-122.511 -699.756 -1906.63 66 84 125
-126.59 -700.114 -1905.63 63 83 127
122.575 -704.294 -1917.63 68 80 113
