ply
format ascii 1.0
comment Created by Open3D
element vertex 727
property double x
property double y
property double z
property double nx
property double ny
property double nz
property uchar red
property uchar green
property uchar blue
end_header
4.00774 -746.957 -1958.65 -0.105336 0.42023 0.659015 64 75 101
-15.8028 -740.182 -1960.55 0.241326 0.0157207 0.912219 66 81 112
-9.42042 -743.328 -1965.02 0.243358 -0.0118096 0.909177 66 79 106
-11.0889 -737.526 -1964.14 0.142929 0.10934 0.850615 66 81 111
-10.5532 -733.458 -1961.84 0.180032 0.0574532 0.858393 68 84 117
5.163 -738.9 -1963.59 0.042111 0.237944 0.767014 65 78 107
5.03317 -733.581 -1961.05 0.229895 0.0529212 0.772553 67 81 114
-4.37192 -730.522 -1964.23 0.241329 -0.00879112 0.860946 70 85 120
0.162924 -727.481 -1961.8 0.3581 -0.132392 0.847265 73 89 128
-2.39335 -728.128 -1961.98 0.334428 -0.106509 0.85199 72 89 126
5.4519 -730.392 -1961.32 0.308371 -0.0482731 0.787977 70 85 121
63.3716 -747.094 -1959.12 0.185163 0.290321 0.896674 65 82 126
57.5587 -742.538 -1958.79 0.405411 0.046255 0.687283 62 80 123
59.4275 -739.445 -1959.24 0.375489 -0.159555 0.528437 64 82 123
68.3813 -745.045 -1958.46 0.123488 0.282002 0.768858 67 84 127
75.5227 -738.577 -1958.34 0.277084 0.479271 -0.241811 65 81 124
78.3178 -734.057 -1959.84 0.484371 0.335765 -0.222894 66 83 124
95.3652 -409.687 -1962.3 0.105693 -0.479566 -0.717255 58 75 112
113.346 -406.429 -1960.09 0.83652 -0.197287 -0.494998 57 75 114
114.106 -406.612 -1959.3 0.830714 -0.206646 -0.491705 57 75 114
112.284 -399.324 -1964.73 0.803237 -0.187149 -0.557178 56 75 112
113.826 -396.718 -1963.42 0.832954 -0.201154 -0.501961 56 74 111
116.306 -396.588 -1959.99 0.829145 -0.180243 -0.51491 58 75 114
117.387 -391.293 -1961.46 0.792152 -0.303329 -0.473251 56 73 111
121.249 -387.179 -1959.31 0.740449 -0.372846 -0.492516 57 74 112
122.601 -382.408 -1963.33 0.702934 -0.40347 -0.519986 54 72 109
126.265 -376.7 -1963.75 0.65772 -0.374145 -0.60565 58 75 112
129.859 -374.9 -1961.53 0.646926 -0.406853 -0.593967 59 75 112
132.733 -364.48 -1961.29 0.658257 0.0124428 -0.718841 78 92 127
129.98 -368.544 -1963.6 0.639853 -0.151853 -0.717928 71 87 122
130.041 -360.062 -1962.43 0.660668 0.00260209 -0.745673 85 99 134
129.726 -363.187 -1963.05 0.635553 -0.0247377 -0.764566 82 97 130
129.578 -350.75 -1962.85 0.768119 -0.0575595 -0.60955 78 91 125
128.012 -356.277 -1963.96 0.669183 0.0184377 -0.745524 88 101 138
131.039 -344.003 -1960.27 0.808679 0.115315 -0.54246 76 89 121
128.162 -345.07 -1963.62 0.804216 0.038387 -0.561811 76 88 122
131.452 -339.253 -1957.92 0.811417 0.211314 -0.531067 80 93 122
125.916 -331.572 -1964.02 0.852981 0.146585 -0.458877 94 101 121
128.46 -336.26 -1961.09 0.838506 0.177581 -0.503223 84 94 120
126.344 -326.429 -1960.98 0.850147 0.180924 -0.448547 113 114 125
125.097 -316.566 -1960.99 0.832164 0.0566589 -0.460414 126 120 130
-858.955 239.095 -1959.82 0.247172 -0.39513 0.836045 217 176 170
-853.216 241.377 -1959.62 0.274248 -0.581733 0.684619 236 199 194
-845.928 243.312 -1959.21 0.237361 -0.700947 0.612619 239 204 197
-837.393 243.135 -1960.46 0.193853 -0.655474 0.689009 223 185 174
-831.328 245.528 -1960.51 0.215564 -0.648807 0.712595 230 196 188
-833.923 242.291 -1962.5 0.196979 -0.574119 0.773876 218 180 168
-828.406 243.814 -1962.77 0.197681 -0.630825 0.747103 234 201 194
-825.95 249.724 -1959.51 0.244335 -0.65207 0.703803 243 214 209
-827.606 251.057 -1957.77 0.267581 -0.694486 0.65002 245 217 212
-812.241 246.371 -1962.05 0.0484358 -0.637331 0.763868 227 193 179
-817.15 252.099 -1958.09 0.0897642 -0.615051 0.76019 248 221 213
-819.773 250.159 -1959.99 0.171472 -0.635839 0.731601 243 215 207
-806.886 244.12 -1964.29 0.0745117 -0.685788 0.721841 215 178 161
-796.325 246.84 -1963.18 0.119878 -0.77329 0.636123 211 169 150
-806.689 250.095 -1958.39 0.00936861 -0.649515 0.755341 227 193 177
-798.887 248.232 -1960.65 0.0591324 -0.743492 0.663234 212 171 153
-783.451 244.058 -1964.28 -0.221993 -0.728384 0.599643 228 188 168
-792.702 248.776 -1960.61 -1.41254e-05 -0.7712 0.627567 214 172 153
-783.279 248.142 -1958.09 -0.219806 -0.768903 0.578331 229 190 172
-777.304 244.186 -1958.5 -0.398689 -0.698433 0.555824 234 199 180
-151.212 134.13 -1960.31 -0.63197 -0.215907 -0.738145 110 101 101
-148.092 129.304 -1961.16 -0.637342 -0.224242 -0.733659 109 100 101
-145.289 132.236 -1963.45 -0.603202 -0.189484 -0.768028 114 104 105
-150.565 141.17 -1961.11 -0.600096 -0.118159 -0.782046 116 106 106
-142.788 138.781 -1962.97 -0.532936 -0.115401 -0.832353 122 112 113
-138.603 133.392 -1962.94 -0.525683 -0.0952476 -0.838004 124 114 114
-135.591 131.253 -1962.57 -0.504225 -0.0667965 -0.854874 126 116 116
-142.075 136.186 -1963.29 -0.542366 -0.130628 -0.822799 121 111 112
-152.095 143.463 -1960.3 -0.612257 -0.0883538 -0.776708 116 106 106
-144.447 143.838 -1961.85 -0.522625 -0.0769364 -0.844388 124 114 114
-144.952 145.773 -1961.47 -0.521405 -0.0606572 -0.845551 125 115 115
-152.921 156.629 -1959.21 -0.52085 -0.0112531 -0.845554 130 120 120
-146.425 155.782 -1959.57 -0.492882 0.0218835 -0.863623 132 122 122
-141.634 148.975 -1959.47 -0.506639 -0.00301125 -0.85322 131 121 121
-14.3229 -204.685 -1964.44 -0.205368 0.620551 -0.633985 147 138 144
37.7832 -223.555 -1964.52 -0.0315602 0.36574 -0.873994 130 122 126
34.0234 -216.428 -1964.59 0.135582 -0.0471511 -0.972109 111 103 106
79.5256 -236.09 -1963.61 0.39843 0.496665 -0.74579 148 137 139
88.1275 -240.768 -1964.09 0.238112 0.67531 -0.694225 159 149 152
81.8558 -234.227 -1961.48 0.38604 0.48882 -0.761964 147 137 139
87.7315 -235.019 -1959 0.309455 0.572847 -0.750305 152 142 145
38.6183 -219.493 -1964.33 -0.00274824 0.222334 -0.909915 123 115 118
42.3533 -212.797 -1963.19 0.141719 0.142639 -0.930159 111 103 106
46.5196 -217.174 -1964.56 -0.135323 0.404433 -0.844651 128 120 123
42.2618 -204.794 -1962.16 0.333657 0.0589176 -0.947301 110 101 104
44.8014 -210.785 -1962.37 0.169368 0.188613 -0.917582 112 103 106
45.8719 -211.862 -1962.25 0.13041 0.236975 -0.90569 113 105 107
56.8519 -213.755 -1965.1 0.099015 0.505209 -0.739879 127 115 119
60.4617 -211.757 -1962.92 0.0834117 0.63493 -0.650385 132 119 124
65.0466 -206.94 -1957.78 0.128852 0.403636 -0.760764 126 113 117
75.6689 -229.268 -1963.45 0.556943 0.272918 -0.772578 131 118 120
75.3798 -231.205 -1964.1 0.535681 0.325057 -0.766374 136 123 125
78.5081 -220.737 -1960.31 0.595401 0.106671 -0.790208 114 101 103
96.2367 -40.5321 -1958.56 0.812562 -0.329531 -0.471371 151 140 138
98.8633 -34.7626 -1959.51 0.789912 -0.279746 -0.526788 153 142 139
99.5633 -33.3839 -1959.59 0.783596 -0.257331 -0.546436 153 142 139
94.0299 -30.0456 -1964.18 0.78345 -0.13772 -0.595577 158 147 145
101.48 -29.5425 -1957.92 0.750506 -0.182221 -0.615176 152 141 138
106.824 -2.49469 -1962.71 0.663302 -0.524575 -0.43965 146 132 132
109.16 -2.71258 -1963.04 0.681453 -0.558962 -0.438233 149 136 134
109.086 3.1718 -1959.86 0.625598 -0.444954 -0.532369 138 126 125
111.169 -2.62145 -1962.46 0.679979 -0.57132 -0.45601 150 138 134
115.034 -0.867814 -1961.42 0.660037 -0.558571 -0.502374 148 136 131
109.137 6.82888 -1964.69 0.743236 -0.460266 -0.437249 141 129 128
117.109 3.91043 -1964.61 0.71605 -0.507942 -0.466785 143 131 128
112.181 11.9999 -1960.04 0.723571 -0.281327 -0.545547 133 123 122
119.07 17.9003 -1963.15 0.872875 -0.120944 -0.473243 135 125 124
122.618 16.2431 -1962.09 0.83452 -0.151522 -0.514894 136 126 125
124.976 16.5717 -1959.04 0.791396 -0.173909 -0.566105 137 126 125
-13.8162 19.9667 -1959.53 -0.244945 -0.0830454 -0.956292 121 112 113
-10.3506 25.4785 -1960.99 -0.266581 -0.0964091 -0.95349 115 105 106
-15.3972 29.5637 -1960.5 -0.300764 -0.146352 -0.932645 116 106 107
-4.65691 30.5524 -1963.18 -0.215855 -0.13959 -0.960716 117 107 107
-6.22658 26.2248 -1962.13 -0.237291 -0.0999746 -0.962294 115 105 106
2.21031 20.8456 -1963.64 -0.164908 -0.131152 -0.971641 118 108 108
7.75839 18.2018 -1964.7 -0.0742865 -0.178582 -0.974608 116 106 107
3.08847 32.1893 -1964.44 -0.124782 -0.0657025 -0.976571 130 120 120
3.90974 26.7093 -1964.43 -0.145536 -0.0838026 -0.975993 122 112 112
-17.477 32.3027 -1960.72 -0.295725 -0.178618 -0.92589 117 107 109
-6.9754 37.3949 -1964.17 -0.157954 -0.197881 -0.953939 125 115 116
-7.01977 35.0117 -1963.63 -0.186676 -0.186384 -0.953153 122 111 112
-14.4333 44.5258 -1964.52 -0.0694534 -0.117358 -0.972839 132 121 124
-5.99498 41.2935 -1964.41 -0.0817911 -0.116216 -0.962794 132 122 123
3.58258 33.8177 -1964.73 -0.104377 -0.0647903 -0.979344 134 124 125
4.25824 34.0562 -1964.69 -0.0924814 -0.0472064 -0.981976 136 126 126
-2.2184 42.9298 -1964.02 -0.0171538 0.00227355 -0.969369 139 129 130
6.73792 38.5819 -1963.87 0.0135798 0.0411228 -0.984387 146 136 137
8.55434 40.0895 -1962.87 0.0676877 0.122272 -0.978724 145 135 137
17.5747 21.6345 -1963.34 0.126406 -0.0775513 -0.977945 131 120 123
11.5987 31.2301 -1964.48 0.0177061 0.0546044 -0.98924 141 131 132
19.3762 25.183 -1963.04 0.158919 -0.00695427 -0.981443 137 126 129
23.2358 28.1147 -1962.05 0.123628 0.0478991 -0.980837 145 134 136
27.4178 18.7567 -1962.71 0.0160751 -0.0709794 -0.985181 137 125 128
33.7605 23.6061 -1963.26 -0.049276 0.0204188 -0.989666 145 134 137
28.8777 25.3125 -1962.6 0.0225351 0.0324311 -0.985882 146 134 137
28.6445 28.1084 -1962.15 0.0274816 0.0654546 -0.983768 148 137 140
36.7622 28.8093 -1963.06 -0.0789122 0.0801382 -0.988547 150 139 142
13.2244 35.4385 -1962.79 0.102431 0.0961415 -0.980089 145 135 137
21.6036 32.7184 -1961.7 0.121576 0.0982063 -0.97938 148 138 140
22.5237 38.7345 -1960.76 0.108044 0.098562 -0.979938 148 137 139
13.8531 44.5728 -1961.25 0.109865 0.14516 -0.981875 145 135 137
20.5424 41.9205 -1960.76 0.0999168 0.0977445 -0.98323 146 135 137
28.172 34.5222 -1961.18 0.0322349 0.102416 -0.98062 150 139 142
32.6504 36.6539 -1961.12 -0.0268107 0.10028 -0.981944 147 136 139
25.2507 44.9505 -1960.56 0.06453 0.0328943 -0.990045 137 125 128
30.5573 39.2827 -1960.58 0.00361336 0.0821148 -0.982132 145 133 136
37.1379 41.0442 -1961.34 -0.0660092 0.0771399 -0.987141 138 126 129
-11.1995 47.4519 -1963.95 -0.00144539 -0.0230968 -0.974731 136 126 128
-10.223 50.3935 -1963.5 0.0488206 0.0359239 -0.97801 139 129 131
-12.6617 58.5674 -1963.22 0.135295 0.0441883 -0.986837 139 129 131
-9.5786 59.257 -1962.51 0.144442 0.065028 -0.985355 139 128 131
-43.6897 -998.018 -1960.17 -0.30492 -0.0131696 -0.908801 57 69 91
-43.4005 -999.78 -1958.05 -0.299168 -0.00570212 -0.904184 57 69 91
-39.4226 -985.332 -1958.41 -0.355815 0.082613 -0.812612 63 75 100
-44.0883 -985.351 -1963.47 -0.402636 0.177301 -0.721099 59 71 94
-43.1206 -992.665 -1961.19 -0.32272 0.0604092 -0.835453 58 70 92
-69.0281 -1027.79 -1951.37 0.270952 -0.184249 -0.959349 61 74 98
-72.0237 -1023.43 -1952.67 0.0706151 -0.199261 -0.925914 60 74 99
-62.8847 -1017.14 -1952.74 0.277238 -0.346533 -0.879944 57 71 95
-72.3486 -1012.68 -1956.79 -0.156867 -0.312319 -0.89299 60 76 102
-62.2435 -1012.48 -1956.3 0.146679 -0.37208 -0.868833 59 74 100
-64.536 -1015.14 -1954.73 0.17318 -0.347231 -0.884033 58 72 98
-54.6439 -1012.96 -1953.27 0.237738 -0.379724 -0.844069 59 72 95
-52.0363 -1012.77 -1951.8 0.243964 -0.373046 -0.834035 59 71 93
-45.7091 -1008.62 -1951.96 0.115302 -0.182415 -0.836957 59 71 93
-73.0467 -982.904 -1956.75 -0.312393 0.443251 -0.814211 59 73 100
-132.311 -911.414 -1951.98 -0.540338 0.0412153 -0.60277 78 95 131
-131.71 -874.407 -1951.99 -0.502163 -0.105354 -0.747085 63 83 115
-116.896 -959.955 -1951.44 -0.577937 -0.246159 -0.731902 61 78 112
-108.777 -955.54 -1952.53 0.00488323 -0.152793 -0.901958 61 77 109
-107.263 -955.131 -1951.91 0.0980751 -0.151515 -0.902906 61 76 108
-88.0313 -970.034 -1951.48 -0.700518 0.0277352 -0.718152 54 70 99
-81.368 -980.698 -1954.88 -0.420849 0.26232 -0.817322 57 73 101
-75.0031 -980.776 -1955.58 -0.312621 0.360895 -0.832725 59 74 101
-86.6571 -973.566 -1952.04 -0.680424 0.073051 -0.733329 54 69 98
-80.3382 -971.686 -1956.17 -0.476425 -0.0430778 -0.829411 57 73 101
-74.5722 -972.308 -1956.6 -0.392258 0.102081 -0.850256 59 74 100
-88.546 -958.435 -1951.76 -0.660243 -0.166675 -0.720587 56 72 103
-84.6621 -968.032 -1954.62 -0.626154 -0.0854224 -0.765109 56 71 101
-84.805 -963.185 -1955.23 -0.634466 -0.172073 -0.755572 57 72 102
-113.878 -507.93 -1952.86 0.040156 -0.0320704 0.32424 72 87 128
-109.648 -503.257 -1956.61 0.00265958 -0.130492 0.144411 69 85 126
-106.089 -498.867 -1955.22 -0.0074747 -0.153472 0.138235 70 85 127
-106.298 -496.894 -1952.05 -0.00297481 -0.15082 0.140895 69 85 127
-98.9328 -494.196 -1955.66 -0.0133823 -0.16858 0.252391 73 88 129
-89.8542 -492.236 -1956.36 -0.0587778 -0.14555 0.203742 75 90 130
-88.7378 -491.917 -1955.98 -0.0677665 -0.134467 0.168589 75 90 130
-83.8389 -490.669 -1952.3 -0.104689 -0.0436854 -0.118212 72 86 125
-78.4827 -491.021 -1954.98 -0.115994 0.0376396 -0.298017 69 83 120
-72.3037 -490.363 -1957.06 -0.0964226 0.0438508 0.0328828 68 82 118
-67.5995 -489.422 -1956.29 -0.0413851 -0.0169791 0.62126 70 83 119
-60.3103 -485.876 -1954.15 -0.0249177 -0.130007 0.827113 73 87 124
-66.3398 -488.158 -1958.22 -0.0244867 -0.0544652 0.836281 71 84 121
28.3949 -1145.18 -1955.65 -0.449386 0.584279 -0.526804 64 75 105
29.993 -1143.79 -1957.82 -0.372582 0.680815 -0.528263 62 74 104
33.1931 -1140.16 -1955.28 -0.524536 0.541684 -0.584519 61 74 106
35.0616 -1133.61 -1952.53 -0.593634 0.383947 -0.667056 60 73 105
37.1616 -1121.35 -1951.4 -0.704852 0.207481 -0.66884 58 71 102
36.578 -1094.66 -1951.23 -0.279307 -0.313755 -0.90641 59 72 104
38.6184 -1126.51 -1954.31 -0.521574 0.249336 -0.762151 61 74 105
38.8227 -1123.96 -1953.96 -0.556494 0.222289 -0.751202 61 74 105
41.4637 -1119.64 -1955.84 -0.454373 0.183058 -0.820749 65 79 109
41.9581 -1114.73 -1953.55 -0.529455 0.282648 -0.760751 64 78 109
42.9503 -1112.54 -1953.03 -0.558548 0.340055 -0.73475 63 77 108
47.9005 -1112.37 -1958.13 -0.418227 0.375447 -0.796486 66 81 111
58.3373 -1107.16 -1958.35 -0.189241 0.660851 -0.716499 57 73 104
40.0948 -1092.36 -1952.47 -0.0733507 -0.295271 -0.921956 59 73 105
55.6703 -1105.36 -1955.35 -0.22264 0.558774 -0.749161 57 72 103
59.8588 -1105.78 -1956.13 -0.0987277 0.659854 -0.711175 56 72 103
66.7814 -1108.14 -1956.88 0.218587 0.59907 -0.729732 63 78 108
74.9629 -1109.77 -1957.67 0.413381 0.517625 -0.745139 68 82 112
80.0273 -1107.83 -1955.15 0.48884 0.44818 -0.732424 67 81 112
71.6376 -1105.49 -1951.14 0.415605 0.604886 -0.664365 60 75 105
82.0203 -1099.71 -1956.14 0.417803 0.201781 -0.801615 61 74 106
81.4829 -1095.16 -1957.24 0.350748 0.0556652 -0.799224 59 73 105
94.3467 -1156.99 -1955.06 0.917109 -0.20776 -0.0729815 61 72 100
95.7544 -1150.1 -1955.19 0.972636 -0.208901 -0.0998556 60 72 100
95.1589 -1152.65 -1955.75 0.965778 -0.202908 -0.0887297 60 72 100
96.612 -1147.25 -1954.32 0.974783 -0.200469 -0.11161 59 71 99
99.1372 -1134.79 -1956.9 0.922189 -0.302667 0.0156151 67 81 111
2.67613 -923.306 -1951.64 0.263995 0.099015 -0.904959 64 79 110
8.66304 -921.279 -1953.34 0.0778889 0.0922626 -0.884607 64 79 111
7.8636 -916.83 -1953.02 -0.0693479 0.187392 -0.852009 64 79 110
13.5284 -924.616 -1953.99 -0.0886725 0.00712411 -0.864688 63 79 112
18.7356 -924.07 -1956.4 -0.400655 -0.037164 -0.821108 63 79 113
12.3475 -913.139 -1954.54 -0.425334 0.203434 -0.790492 62 78 111
17.1166 -916.651 -1956.95 -0.449016 0.0034976 -0.831739 62 78 111
16.4208 -910.009 -1955.36 -0.624337 0.15649 -0.725064 61 77 111
17.4839 -909.195 -1955.92 -0.646658 0.140577 -0.71295 61 77 112
20.8629 -899.886 -1956.34 -0.724171 0.212272 -0.614552 59 76 112
21.0974 -893.092 -1952.47 -0.740421 0.228105 -0.593495 58 75 112
21.6633 -891.42 -1952.25 -0.738107 0.231517 -0.597386 57 75 112
27.6372 -881.852 -1957.49 -0.725416 0.195574 -0.644919 58 75 113
25.6957 -881.991 -1952.97 -0.698587 0.191889 -0.666735 58 76 114
27.7603 -874.765 -1955.77 -0.714231 0.157586 -0.669777 58 75 112
113.631 -976.671 -1952.8 0.976205 0.00212146 -0.0819241 61 74 105
112.004 -970.338 -1952.46 0.962892 0.0283441 0.0347124 61 74 105
112.947 -973.385 -1953.41 0.97287 0.0284558 -0.0530728 61 75 105
113.382 -757.767 -1951.88 0.799006 0.108038 -0.279776 67 82 121
108.986 -751.476 -1955.29 0.600962 0.601926 -0.420235 68 84 124
100.214 -740.013 -1953.64 0.6343 0.180205 -0.454294 70 87 125
98.8489 -738.276 -1956.8 0.658364 0.188516 -0.488125 69 86 125
104.522 -733.903 -1952.69 0.724016 -0.0396773 -0.5331 71 88 126
99.0292 -727.077 -1956.97 0.628823 0.278964 -0.586965 64 81 120
100.95 -728.984 -1956.69 0.618636 0.229039 -0.601759 64 81 119
94.9067 -722.41 -1957.31 0.665252 0.319355 -0.549715 66 83 123
99.656 -724.779 -1954.03 0.560339 0.417866 -0.553706 65 82 121
98.9009 -703.738 -1954.07 0.752303 -0.129601 -0.360818 79 98 137
96.6658 -696.82 -1955.55 0.590916 0.397696 -0.720149 76 97 137
98.6947 -703.482 -1955.71 0.73366 -0.088377 -0.41302 79 98 138
95.5365 -691.032 -1951.46 0.609494 0.542338 -0.630659 67 88 127
99.9188 -654.855 -1953.18 0.465775 -0.220222 -0.857216 61 81 120
98.6671 -657.23 -1952.39 0.48931 -0.255715 -0.82755 60 80 119
98.2126 -652.884 -1954.87 0.432446 -0.09985 -0.900008 65 85 124
100.32 -651.061 -1953.84 0.474315 -0.0917029 -0.856673 64 84 123
60.7522 -642.676 -1951.8 0.257144 0.170603 0.817478 78 95 137
64.5508 -635.173 -1952.04 0.434594 -0.0388815 0.657076 66 84 127
86.079 -559.679 -1951.18 -0.00741803 -0.00771089 -0.903218 76 94 140
83.8335 -558.768 -1957.7 0.307165 0.117769 -0.871832 84 104 150
84.5872 -552.347 -1957.43 0.293283 0.196533 -0.870366 86 105 153
87.8127 -549.219 -1957.82 0.367863 0.233325 -0.828845 86 106 154
96.9436 -645.363 -1955.35 0.462957 0.227932 -0.710029 73 92 132
96.8032 -646.492 -1955.76 0.453811 0.199192 -0.78676 72 91 132
94.1839 -635.345 -1951.41 0.580151 0.534713 -0.410982 73 92 133
94.8195 -641.486 -1957.27 0.328812 0.0996581 -0.36296 72 92 132
98.4286 -587.616 -1952.27 0.627415 -0.385906 -0.664132 66 85 127
98.0313 -580.277 -1957.57 0.638182 -0.279828 -0.731917 73 95 138
103.901 -579.361 -1951.8 0.718133 -0.228687 -0.633397 65 84 128
105.921 -573.039 -1952.41 0.815559 0.144397 -0.501836 65 83 128
101.144 -576.671 -1955.36 0.687537 -0.171929 -0.710302 71 92 136
105.889 -569.18 -1951.36 0.842046 0.211734 -0.466397 66 84 129
104.168 -569.946 -1953.32 0.808302 0.154959 -0.535768 69 88 134
99.3214 -561.79 -1955.23 0.814528 0.0496132 -0.585626 80 102 150
96.3613 -551.167 -1957.48 0.665776 0.166917 -0.673731 85 106 155
94.795 -548.899 -1954.33 0.472183 0.150561 -0.711456 82 102 150
37.2878 -531.632 -1952.42 0.139356 -0.150465 -0.0163675 81 97 143
37.7985 -529.647 -1952.32 0.0745209 -0.152981 -0.191018 83 99 145
99.446 -422.373 -1952.75 0.298851 -0.206912 -0.690431 60 78 115
106.425 -421.552 -1951.25 0.617607 -0.307488 -0.442252 62 79 118
93.672 -415.643 -1956.79 0.259115 -0.276281 -0.766105 60 77 114
114.456 -412.386 -1955.19 0.756372 -0.364123 -0.440854 59 75 115
109.972 -418.808 -1953.24 0.800609 -0.40592 -0.33695 63 80 120
119.972 -408.435 -1952.37 0.684186 -0.328983 -0.594343 62 76 117
118.65 -412.21 -1950.6 0.65595 -0.416314 -0.540929 62 75 116
121.239 -402.996 -1952.95 0.69901 -0.235202 -0.650159 63 78 118
121.658 -401.31 -1952.87 0.69242 -0.227026 -0.658827 64 78 118
121.47 -393.372 -1954.94 0.724454 -0.259637 -0.590314 63 78 117
124.571 -396.95 -1951.31 0.633526 -0.223695 -0.718756 66 80 119
125.961 -386.935 -1953.64 0.658745 -0.373287 -0.615125 62 76 115
127.832 -380.474 -1958.38 0.635708 -0.551442 -0.53037 55 70 108
131.23 -379.032 -1956.15 0.636025 -0.528111 -0.551625 55 69 107
134.476 -377.738 -1953.52 0.678398 -0.463906 -0.540666 56 68 106
136.538 -373.256 -1954.13 0.732097 -0.383942 -0.498873 59 72 110
139.245 -367.633 -1951.4 0.827152 -0.218967 -0.424464 67 80 117
136.746 -360.724 -1956.68 0.74787 0.0240107 -0.605352 77 92 127
133.001 -344.474 -1958.16 0.804314 0.139352 -0.539531 76 90 122
137.72 -352.291 -1953.48 0.840663 0.0575126 -0.48276 77 92 125
135.929 -344.717 -1953.47 0.817932 0.203968 -0.513356 77 92 124
133.376 -336.478 -1952.74 0.816323 0.278352 -0.50452 79 93 122
131.277 -330.333 -1954.25 0.826275 0.214527 -0.511687 95 102 122
132.322 -331.643 -1952.9 0.820799 0.224029 -0.516394 89 98 122
-105.973 -34.318 -1951.79 -0.636228 -0.143347 -0.753663 133 124 127
-108.634 -28.2787 -1952.27 -0.613416 -0.14453 -0.775691 132 123 125
-117.096 -14.386 -1951.17 -0.563205 -0.253246 -0.783147 124 115 115
-111.686 -20.4484 -1952.22 -0.585253 -0.222805 -0.776924 127 118 119
-105.347 -23.948 -1950.01 -0.600182 -0.171487 -0.780189 136 127 129
-108.577 -11.2966 -1957.01 -0.565699 -0.214129 -0.796026 125 114 116
-108.248 -14.8139 -1953.96 -0.576324 -0.224183 -0.784222 130 120 122
-115.172 -8.46917 -1953.2 -0.566674 -0.179007 -0.799107 128 119 119
-117.429 1.82219 -1950.78 -0.540596 -0.117217 -0.829619 127 119 119
-109.583 -7.95499 -1957.87 -0.585338 -0.172012 -0.790643 125 115 117
-104.662 -6.12758 -1952.46 -0.582443 -0.158968 -0.788077 131 122 123
-111.197 3.35748 -1956.86 -0.619094 -0.134138 -0.769644 127 118 118
-111.425 -0.996778 -1956.69 -0.609716 -0.121411 -0.780463 128 119 120
-101.466 -1.63617 -1956 -0.566154 -0.135798 -0.797285 128 119 119
-118.275 7.00233 -1951.25 -0.525756 -0.179353 -0.824958 126 118 118
-123.671 12.2629 -1951.42 -0.491136 -0.275316 -0.823307 125 117 117
-120.941 14.8579 -1953.73 -0.508192 -0.204164 -0.823438 126 117 117
-117.824 15.9105 -1956.94 -0.54711 -0.198757 -0.801528 126 117 117
-112.45 6.58785 -1956.32 -0.59813 -0.170654 -0.775569 127 118 118
-110.288 8.86818 -1952.04 -0.560717 -0.170009 -0.800241 127 118 118
-105.742 10.3635 -1956.98 -0.609045 -0.200756 -0.757549 124 114 114
-110.252 15.6177 -1953.73 -0.52834 -0.182109 -0.815285 125 115 115
-112.861 10.5371 -1953.06 -0.550736 -0.203285 -0.800746 126 117 117
-106.899 14.5227 -1956.91 -0.579408 -0.197617 -0.779521 123 113 113
-31.9627 -17.9323 -1951.88 -0.202486 -0.245378 -0.947328 121 110 113
-34.7399 -10.5914 -1953 -0.268687 -0.205154 -0.940338 121 110 112
-125.685 130.817 -1954.9 -0.230418 -0.0115873 -0.927015 132 118 117
-116.841 131.396 -1954.55 -0.0559431 -0.0294453 -0.977302 131 117 115
-116.932 133.132 -1954.76 -0.0744397 -0.0190989 -0.974052 132 118 116
-122.775 136.865 -1954.09 -0.161864 0.0762829 -0.958468 133 119 117
-119.692 137.827 -1954.6 -0.131156 0.0587306 -0.968731 134 119 117
-112.741 135.09 -1955.92 -0.178545 -0.11855 -0.934289 135 119 118
-105.228 130.325 -1956.91 -0.389562 -0.211126 -0.853224 133 119 119
-113.74 141.276 -1956.42 -0.288078 -0.0452631 -0.916707 139 123 121
-124.625 146.069 -1951.3 -0.306539 0.172222 -0.927126 136 121 119
-120.824 144.653 -1953.63 -0.293434 0.105473 -0.929019 137 122 120
-119.52 156.229 -1953.38 -0.439511 0.0149286 -0.888 143 127 125
-117.771 151.453 -1954.12 -0.36205 0.0574244 -0.913659 142 126 124
-111.795 147.236 -1957.75 -0.469404 -0.0829295 -0.865496 145 128 127
-121.963 160.651 -1951.89 -0.470562 0.0533707 -0.871902 143 128 125
-115.499 157.223 -1956.43 -0.505354 -0.0307182 -0.86015 148 131 129
-120.285 168.026 -1952.08 -0.511552 0.12565 -0.846315 146 130 128
-120.771 169.115 -1951.46 -0.518654 0.145278 -0.84093 145 130 127
-115.348 171.841 -1954.14 -0.485409 0.136125 -0.856701 147 131 128
-118.022 177.943 -1951.1 -0.480513 0.1182 -0.859413 144 128 126
-113.322 172.652 -1955.01 -0.475374 0.133275 -0.860536 147 131 128
-109.304 174.036 -1956.57 -0.443535 0.144872 -0.873363 146 130 128
-114.054 180.792 -1953.52 -0.479392 0.0111603 -0.849145 145 128 126
-107.514 181.692 -1956.77 -0.463025 -0.0729854 -0.846492 145 128 126
-23.1688 176.1 -1956.83 0.394701 0.226524 -0.8752 140 124 124
-22.0605 170.872 -1957.48 0.432832 0.346202 -0.83942 142 125 125
-18.4125 182.814 -1955.37 0.214559 0.0957649 -0.944775 136 119 117
-116.706 186.735 -1952.82 -0.489256 -0.133617 -0.844277 142 126 123
-116.068 192.212 -1954.92 -0.534184 -0.210255 -0.811741 144 128 125
-118.009 196.599 -1954.57 -0.58496 -0.153665 -0.791069 146 130 127
-111.941 190.752 -1957.26 -0.508721 -0.290168 -0.80592 146 129 127
-119.705 203.942 -1951.34 -0.63249 0.0412125 -0.762685 149 133 130
-118.912 204.241 -1952.09 -0.633546 0.0351135 -0.760576 150 134 131
-118.078 205.689 -1952.51 -0.621667 0.0523932 -0.76667 152 136 132
-110.263 208.344 -1957.71 -0.550291 0.149989 -0.783817 158 143 140
92.0751 -232.627 -1955.74 0.313099 0.523839 -0.777398 155 145 147
55.5546 -208.114 -1958.09 0.191247 0.409705 -0.798012 117 106 110
65.3891 -204.703 -1956.61 0.144929 0.278966 -0.838527 121 108 112
88.2426 -229.385 -1955.75 0.384657 0.418947 -0.805195 146 136 137
82.9196 -220.087 -1957.09 0.585121 0.0925395 -0.819241 115 102 103
88.197 -225.976 -1954.67 0.432484 0.313327 -0.828992 141 131 132
65.3461 -206.621 -1957.55 0.132157 0.38287 -0.772093 125 113 116
83.503 -212.262 -1956.62 0.59606 0.0190415 -0.784555 112 99 100
89.4786 -214.95 -1952.75 0.518775 0.100663 -0.842234 127 115 115
83.0342 -205.496 -1956.76 0.510232 0.0117243 -0.752767 113 100 101
87.9893 -205.267 -1953.7 0.537974 0.0620853 -0.748874 112 100 100
127.019 -314.209 -1957.12 0.867672 0.0169932 -0.474408 131 122 130
129.452 -312.438 -1953.82 0.835396 0.0189643 -0.537052 130 121 130
128.195 -303.772 -1956.74 0.898783 -0.0665418 -0.427209 146 133 138
130.881 -294.379 -1952.05 0.8712 0.0561744 -0.44265 153 140 147
127.7 -291.1 -1956.66 0.844264 0.159784 -0.414116 154 141 147
127.819 -289.408 -1955.24 0.842179 0.206234 -0.406098 155 142 148
120.327 -270.704 -1958.11 0.832862 -0.0195539 -0.346233 126 115 116
125.943 -281.622 -1953.45 0.763821 0.322048 -0.472083 153 140 146
129.001 -282.34 -1951.06 0.801102 0.211489 -0.498194 154 142 148
123.859 -277.465 -1953.11 0.728522 0.34408 -0.487091 147 134 139
123.794 -267.77 -1952.27 0.821985 -0.0236375 -0.409191 125 114 115
123.309 -263.449 -1956.55 0.857631 -0.213424 -0.382816 120 110 110
124.691 -266.713 -1950.95 0.824729 -0.0190177 -0.414625 125 113 115
95.4369 -234.645 -1955.95 0.271814 0.558031 -0.7671 158 148 150
99.2638 -234.483 -1954.69 0.267313 0.530632 -0.783472 160 150 151
105.298 -235.191 -1953.76 0.258263 0.47633 -0.817597 158 148 150
109.197 -239.612 -1955.99 0.280084 0.58493 -0.749666 162 152 154
120.803 -244.928 -1955.32 0.543788 0.439774 -0.658972 159 150 153
121.18 -242.621 -1953.45 0.533608 0.437425 -0.689473 162 152 155
112.989 -235.258 -1952.59 0.24278 0.447256 -0.839475 156 147 149
117.492 -236.268 -1951.55 0.328407 0.453132 -0.803012 160 151 153
152.261 128.11 -1953.88 0.331074 -0.239854 -0.887104 108 101 103
156.197 124.043 -1950.82 0.206025 -0.263091 -0.946758 101 95 98
-15.5872 165.392 -1958.01 0.268768 0.35692 -0.873476 141 124 124
-14.0962 174.169 -1955.82 0.136647 0.204919 -0.921443 136 118 118
-10.1077 172.416 -1956.64 -0.0229123 0.15933 -0.934321 134 116 117
-11.0381 182.768 -1955.65 -0.102104 0.0121903 -0.953951 134 116 115
-17.6046 177.572 -1955.56 0.223399 0.169049 -0.922635 136 119 118
-6.95698 179.466 -1956.86 -0.246356 -0.0174248 -0.935071 134 115 116
-11.0353 190.124 -1956.02 -0.183294 -0.0310133 -0.94938 136 117 116
-8.78231 184.726 -1956.37 -0.244785 -0.0285451 -0.935294 136 117 117
-12.1033 196.141 -1955.96 -0.154011 -0.01166 -0.947269 136 117 114
-7.7163 196.974 -1957.59 -0.406456 -0.0512349 -0.891905 142 122 119
-15.3836 200.6 -1955.3 -0.00886015 0.0322352 -0.962522 133 116 113
-9.07969 198.299 -1956.98 -0.329462 -0.0333692 -0.910095 140 120 117
-14.3622 207.742 -1955.65 -0.136625 0.00527506 -0.931119 137 119 115
-13.0884 217.793 -1956.79 -0.320167 0.00184191 -0.905017 151 130 126
-12.4726 213.06 -1956.46 -0.31209 -0.03972 -0.897358 143 124 119
-12.6521 224.818 -1955.87 -0.200227 0.144734 -0.928145 153 131 126
-8.2259 221.823 -1957.7 -0.399565 0.136264 -0.87317 160 137 130
-15.8203 226.847 -1954.64 -0.0732659 0.144814 -0.957961 149 127 123
-7.72949 228.484 -1955.5 -0.177183 0.330562 -0.902021 158 135 127
-4.59605 231.11 -1954.49 -0.134883 0.410183 -0.89436 158 133 123
-10.8452 235.755 -1951.47 -0.045641 0.351497 -0.929638 157 133 126
-5.49264 233.654 -1953 -0.0977323 0.403204 -0.906891 156 132 122
114.685 -1085.78 -1947.32 0.910422 0.240079 -0.292743 69 84 116
113.731 -1079.82 -1946.77 0.868316 0.35215 -0.360373 74 89 121
114.105 -1085.08 -1948.17 0.899777 0.273127 -0.313504 70 85 117
111.044 -1073.39 -1947.93 0.927084 0.181687 -0.261702 72 87 119
112.109 -1077.82 -1947.39 0.874257 0.334042 -0.318372 74 89 121
109.817 -1067.71 -1949.9 0.923149 0.124819 -0.204638 68 82 114
97.5132 -1051.64 -1947.44 0.471464 0.759109 -0.0463108 56 69 99
101.257 -1052.91 -1949.21 0.529475 0.708196 -0.0728464 57 70 101
109.579 -1064.96 -1948.95 0.892051 0.179636 -0.113829 65 79 110
108.863 -1061 -1950.77 0.825371 0.275619 -0.104131 61 75 106
96.8464 -1051.14 -1949.33 0.449409 0.785894 -0.0570866 57 70 100
132.387 -1056.01 -1945.73 0.899482 0.225265 0.253358 82 96 128
138.576 -1058.75 -1944.43 0.899857 0.268714 0.244817 82 95 128
137.747 -1057.94 -1944.94 0.899817 0.263291 0.253983 82 96 128
135.552 -1047.57 -1944.91 0.904285 0.235635 0.294301 85 99 131
93.0134 -1028 -1949.24 0.866865 -0.274325 0.349023 52 64 94
94.7076 -1022.79 -1947.22 0.868052 -0.247598 0.391547 53 65 95
98.3464 -1015.76 -1947.8 0.845775 -0.283116 0.33487 54 66 96
104.092 -1007.91 -1943.96 0.843046 -0.423255 -0.0019232 54 68 95
103.467 -1008.07 -1945.93 0.840548 -0.364555 0.118006 55 68 96
107.646 -1001.22 -1946.6 0.837936 -0.447839 -0.112811 55 69 96
41.7048 -710.902 -1944.59 0.124247 -0.0984083 0.96783 68 85 129
44.3294 -709.035 -1944.73 0.0848826 -0.108021 0.983821 69 85 129
48.1728 -708.135 -1944.94 0.117758 -0.0784086 0.965275 69 85 129
57.059 -714.957 -1944.64 0.218884 0.240625 0.934756 68 85 128
62.5961 -714.968 -1946.23 0.356724 0.164488 0.891723 69 86 129
58.0654 -706.835 -1947.7 0.286896 0.0327342 0.904826 66 83 126
53.0539 -709.981 -1946.19 0.193911 0.0345885 0.946512 69 85 129
61.0499 -706.752 -1949.12 0.347889 0.0869188 0.880911 67 84 127
68.0723 -729.793 -1947.79 0.455532 -0.596452 0.584258 76 93 136
67.1921 -728.48 -1946.35 0.479945 -0.54197 0.631523 76 93 135
67.2696 -718.5 -1945.94 0.421753 0.0392829 0.849076 71 87 130
71.8984 -724.167 -1946.98 0.405981 -0.308938 0.698376 75 92 135
76.6166 -724.305 -1946.63 0.169583 -0.0924426 0.845084 76 92 135
74.7262 -718.895 -1946.31 0.317811 -0.0437637 0.686281 72 88 131
80.2827 -724.361 -1946.88 0.0109042 0.189058 0.713234 75 91 134
71.9575 -715.652 -1949.76 0.351965 0.00579616 0.897279 69 86 129
76.3101 -715.896 -1947.65 0.2587 0.0841509 0.72738 69 85 128
79.3641 -712.254 -1949.62 0.197397 0.234581 0.488536 66 81 124
91.7412 -713.04 -1948.72 0.294895 0.504424 -0.635632 67 83 123
83.4816 -710.816 -1947.99 0.243915 0.314888 -0.504671 68 84 127
90.2618 -704.255 -1944.81 0.327115 0.300287 -0.531576 64 81 122
89.2813 -708.683 -1947.4 0.258793 0.352899 -0.518606 66 83 124
36.1196 -703.092 -1944.07 0.168539 -0.23646 0.877965 65 82 127
56.4339 -702.987 -1947.36 0.262887 -0.113693 0.897835 64 80 124
64.5311 -701.929 -1949.71 0.335173 -0.0950788 0.847545 64 80 123
60.7162 -699.361 -1947.57 0.286438 -0.264138 0.868617 58 75 118
72.3613 -701.781 -1948.21 0.070068 -0.244636 0.678357 63 79 122
70.1494 -703.018 -1950.35 0.210445 -0.0935405 0.739506 66 82 125
73.1567 -700.009 -1945.71 -0.0313524 -0.387094 0.639373 58 74 118
66.9826 -695.794 -1944.02 0.0112153 -0.619919 0.784205 54 70 114
79.8654 -703.242 -1950.42 0.0745773 0.13415 0.245299 59 75 118
85.1807 -702.111 -1949.4 0.162664 0.0715286 0.03764 61 78 120
87.3193 -699.838 -1947.24 0.199732 0.00498851 -0.0250492 59 76 118
71.6462 -684.767 -1945.89 0.0153933 -0.186065 -0.368805 67 84 127
76.54 -685.936 -1944.84 0.0392709 -0.191671 -0.375555 67 84 126
72.332 -684.129 -1946.37 0.014947 -0.182758 -0.315951 66 83 126
77.3142 -683.134 -1946.46 0.0731892 -0.10278 -0.448201 66 84 126
92.2912 -684.791 -1950.37 0.634612 0.338292 -0.635351 65 85 124
90.815 -677.632 -1949.44 0.650168 0.159951 -0.671052 63 83 121
64.5185 -656.883 -1944.73 0.0770024 0.372576 0.580572 70 86 129
58.0187 -650.754 -1946.4 0.238967 0.304098 0.884577 77 94 137
60.8521 -649.304 -1948.54 0.143109 0.242431 0.791248 77 94 136
69.3358 -673.59 -1945.09 0.0465337 0.0429118 -0.39066 64 81 123
76.7384 -672.273 -1946.22 0.0417848 0.0112961 -0.480384 62 80 121
78.1916 -668.042 -1945.39 -0.0138999 0.0287893 -0.486525 61 78 120
79.1795 -673.935 -1946.34 0.0243453 -0.0187068 -0.542139 64 81 123
89.6522 -669.607 -1946.97 0.413295 0.00678807 -0.564846 59 78 118
91.5278 -673.991 -1948.31 0.590329 0.0697311 -0.654216 62 81 120
85.0857 -663.221 -1945.45 -0.0883128 0.0986153 -0.632646 62 79 121
92.5519 -666.86 -1948.27 0.477426 -0.131116 -0.666364 61 79 118
91.5964 -662.356 -1949.85 0.427374 -0.198229 -0.726059 60 79 119
86.3248 -667.365 -1947.36 0.349827 0.0706407 -0.539802 57 77 117
72.6423 -658.206 -1943.43 -0.0619236 0.399164 0.513956 67 83 125
72.6535 -650.028 -1949.9 -0.00567153 0.212616 0.668124 78 93 136
65.6633 -650.807 -1949.53 0.00583511 0.232366 0.654432 77 93 135
78.4839 -651.777 -1944.43 -0.0646282 0.32162 0.463294 75 92 133
82.6312 -661.345 -1944.46 -0.119003 0.184683 -0.463048 63 79 122
-30.412 -172.931 -1944.85 -0.0675632 0.184691 -0.975639 138 126 129
-26.3394 -173.33 -1945.34 -0.0896085 0.183024 -0.97585 138 126 130
-21.1921 -170.126 -1945.68 -0.099978 0.212195 -0.963832 142 130 134
-18.2718 -169.101 -1945.65 -0.114967 0.245908 -0.950778 143 131 135
-27.83 -45.6703 -1944.13 -0.196283 -0.308079 -0.922024 109 99 100
-26.773 -42.5268 -1944.9 -0.143014 -0.31114 -0.923992 108 98 99
-21.0725 -38.3969 -1944.52 0.103311 -0.268329 -0.935323 108 99 101
-118.119 -33.938 -1945.32 -0.661672 -0.199399 -0.713633 107 99 100
-118.871 -28.9852 -1945.67 -0.639491 -0.165436 -0.749458 110 102 103
-120.688 -24.6605 -1945.25 -0.623888 -0.189534 -0.754974 110 102 103
-104.608 -36.4454 -1946.6 -0.655675 -0.196322 -0.711139 128 119 121
-104.939 -36.836 -1950.01 -0.648921 -0.170101 -0.730621 131 122 125
-106.102 -25.5623 -1946.05 -0.605505 -0.175357 -0.77187 132 123 125
-124.2 -19.7012 -1945.14 -0.598585 -0.25127 -0.756982 111 103 103
-119.237 -22.2137 -1947.37 -0.605429 -0.213783 -0.762437 115 107 107
-128.062 -13.1511 -1945.06 -0.594999 -0.251712 -0.759763 114 105 105
-124.587 -13.9675 -1946.69 -0.592487 -0.238421 -0.765232 116 107 107
-118.642 -13.8849 -1950.3 -0.565463 -0.249851 -0.782034 122 114 114
-106.352 -21.0087 -1947.61 -0.594422 -0.199441 -0.777367 135 126 127
-109.054 -13.867 -1945.2 -0.59032 -0.223788 -0.77273 132 124 124
-105.836 -14.9928 -1950.67 -0.58475 -0.218934 -0.778984 135 126 127
-74.5358 -30.5749 -1945.46 -0.267103 -0.293491 -0.884785 126 114 117
-74.7268 -25.4673 -1946.06 -0.290424 -0.152146 -0.899258 124 112 115
-75.2849 -18.4116 -1945.12 -0.318152 0.000616743 -0.913065 123 111 114
-76.2343 -12.6011 -1944.51 -0.291776 -0.00261372 -0.937099 124 112 115
-122.4 -3.64698 -1948.74 -0.559017 -0.126568 -0.814811 123 115 115
-120.572 -8.10953 -1949.66 -0.561977 -0.184921 -0.799353 124 115 115
-122.633 -0.124513 -1948.37 -0.551728 -0.125345 -0.820527 122 114 114
-121.772 -1.14424 -1948.89 -0.549276 -0.123577 -0.822416 123 115 115
-113.366 -4.99506 -1944.37 -0.572104 -0.140335 -0.79987 128 119 119
-109.856 -7.84539 -1946.33 -0.592227 -0.176787 -0.779809 130 122 122
-110.677 -0.578703 -1948.17 -0.575529 -0.119346 -0.802665 129 121 120
-111.379 2.38024 -1948.95 -0.563381 -0.119792 -0.811369 128 120 119
-127.283 8.02548 -1947.88 -0.54581 -0.205702 -0.804683 119 111 111
-124.763 10.4714 -1950.02 -0.50839 -0.260914 -0.816362 123 115 115
-115.084 7.73587 -1948.1 -0.529527 -0.161128 -0.825828 127 118 118
-121.782 16.8876 -1945.01 -0.486056 -0.180452 -0.838173 128 119 119
-115.912 15.0391 -1948.92 -0.5061 -0.19124 -0.829959 127 118 118
-112.422 8.09676 -1950.79 -0.545755 -0.16833 -0.812448 127 118 118
-114.332 7.77179 -1948.72 -0.532972 -0.160563 -0.82336 127 118 118
-75.5424 -5.47686 -1944.79 -0.219853 -0.0558821 -0.96558 122 110 113
-75.6256 2.19633 -1945.44 -0.253434 -0.125819 -0.946578 120 108 110
-75.7935 10.7267 -1946.49 -0.376305 -0.204372 -0.885053 118 106 109
-78.3505 12.0241 -1945.14 -0.39792 -0.161004 -0.889779 119 107 109
-69.9717 -34.4396 -1944.87 -0.112866 -0.344448 -0.914413 123 111 114
-62.5479 -31.5725 -1945.68 0.0489762 -0.264069 -0.952196 117 105 108
-72.7751 -24.9825 -1946.5 -0.22226 -0.141896 -0.920358 123 111 114
-62.6437 -29.5642 -1946.04 0.0478823 -0.222104 -0.958851 117 105 108
-62.3863 -26.0611 -1946.43 0.0372658 -0.14308 -0.970518 118 106 109
-51.6777 -24.2713 -1946.09 0.0154979 -0.146667 -0.977785 116 105 106
-59.0872 -27.7625 -1945.9 0.0876769 -0.170972 -0.97241 116 104 107
-49.7879 -26.8117 -1945.58 -0.000903514 -0.183412 -0.971777 114 103 105
-69.3722 -19.6177 -1946.35 -0.119703 -0.0271829 -0.963307 121 109 112
-63.416 -21.718 -1946.64 0.00786101 -0.0621579 -0.981427 119 107 110
-69.5715 -11.4226 -1945.75 -0.118972 0.00583896 -0.986176 120 108 111
-70.7378 -16.873 -1946 -0.163597 0.0135602 -0.962333 121 109 112
-64.5151 -16.9831 -1946.44 -0.00815333 0.0174445 -0.994685 119 107 111
-53.4411 -20.3925 -1946.77 -0.00461324 -0.0905347 -0.982161 117 106 108
-49.5851 -21.2848 -1947.03 -0.0506122 -0.141918 -0.972862 117 106 108
-59.7333 -10.1383 -1946.45 -0.0491006 -0.0214268 -0.997956 118 106 109
-51.9374 -16.2937 -1947.43 -0.0651616 -0.0692972 -0.980853 118 108 109
-50.961 -16.9832 -1947.57 -0.0732046 -0.0824859 -0.978301 118 108 109
-44.5187 -31.0779 -1945.18 -0.0707375 -0.240741 -0.954245 112 101 103
-32.2403 -34.2842 -1947.06 -0.206332 -0.321632 -0.91344 110 100 101
-38.3233 -24.0862 -1948.72 -0.199268 -0.243243 -0.943163 116 105 107
-34.7688 -28.7852 -1948.24 -0.199203 -0.279164 -0.929794 113 102 104
-36.2409 -23.9953 -1949.25 -0.208975 -0.248181 -0.941569 116 106 107
-28.2471 -35.1315 -1946.84 -0.130139 -0.321757 -0.917673 109 100 101
-20.7813 -35.9404 -1945.14 0.122778 -0.269979 -0.93543 110 100 102
-31.1884 -26.9182 -1949.65 -0.188833 -0.270458 -0.937308 115 105 107
-23.1013 -24.3025 -1950.9 -0.0544796 -0.289352 -0.948308 118 108 110
-18.2806 -24.2264 -1950.45 -0.0289414 -0.339982 -0.930558 116 107 109
-43.8883 -23.4062 -1947.56 -0.132625 -0.207802 -0.956903 116 105 107
-34.1762 -18.6324 -1951.09 -0.215338 -0.236543 -0.946692 120 110 112
-41.4291 -11.1612 -1950.66 -0.270918 -0.161748 -0.947142 120 110 112
144.741 51.7695 -1949.24 0.804576 -0.0531443 -0.421592 118 109 110
145.88 51.5932 -1944.99 0.76655 -0.110363 -0.462045 112 104 106
144.519 52.989 -1950.16 0.822269 -0.0113675 -0.401952 119 110 111
147.704 65.4137 -1944.31 0.621877 -0.0979325 -0.677309 117 110 111
146.981 73.1676 -1947.84 0.685971 -0.0641021 -0.589822 122 114 116
147.677 66.613 -1944.84 0.626901 -0.0806132 -0.664225 119 111 113
147.978 73.66 -1946.47 0.714419 -0.0998118 -0.57798 122 114 116
148.124 81.3124 -1948.77 0.566931 -0.185125 -0.749987 126 118 120
147.251 108.993 -1950.86 0.0133199 0.111529 -0.985522 106 100 101
153.191 80.0523 -1944.39 0.453344 -0.30259 -0.796572 124 116 120
153.32 81.7354 -1945.31 0.434851 -0.301462 -0.811282 124 116 120
159.434 86.0901 -1945.75 0.303147 -0.407571 -0.858953 120 113 117
152.45 89.8827 -1949.97 0.345488 -0.227152 -0.887448 123 115 119
161.007 91.9845 -1947.99 0.320301 -0.321227 -0.874523 118 111 115
158.382 98.2191 -1950.94 0.222565 -0.148145 -0.934418 118 111 115
166.664 92.5809 -1946.03 0.384972 -0.336027 -0.847041 113 107 110
162.583 87.6526 -1945.62 0.284925 -0.433165 -0.857998 117 110 114
166.941 99.2673 -1947.48 0.382613 -0.156411 -0.889997 115 108 112
149.013 107.569 -1950.79 -0.0677726 0.208629 -0.998565 109 102 104
162.27 103.297 -1949.65 0.264542 -0.0489828 -0.940193 116 109 114
152.672 112.112 -1950.04 0.0659464 0.0674412 -0.986351 107 101 103
160.132 110.345 -1949.23 0.205591 0.0250678 -0.966092 112 105 109
210.51 -1193.99 -1953.55 0.0887807 1.00996 0.0138711 74 73 71
216.602 -1195.68 -1945.33 0.100254 1.00598 0.0231938 85 83 81
214.668 -1194.7 -1953.96 0.0903299 1.0133 0.0276645 81 79 77
207.314 -1193.06 -1958.21 0.0821687 1.01283 0.00972395 69 68 66
220.151 -1195.5 -1951.91 0.0901453 1.00877 0.0406171 84 82 80
220.187 -1195.09 -1956.05 0.084129 1.01244 0.0460679 82 81 79
220.126 -1195.71 -1949.77 0.0932741 1.00688 0.037775 85 83 81
226.911 -1195.66 -1953.14 0.0782954 1.00019 0.0569432 80 79 77
222.621 -1196.27 -1943.82 0.0974969 1.00131 0.0299159 87 85 83
225.227 -1196.28 -1944.27 0.0926713 0.999533 0.0335895 86 84 82
238.102 -1195.86 -1949.68 0.058408 0.990092 0.0641191 75 73 71
237.408 -1196.01 -1948.22 0.0628044 0.990572 0.0588626 77 75 73
237.95 -1195.24 -1957.03 0.0468071 0.991269 0.0835595 69 67 66
236.217 -1196.54 -1942.52 0.0755832 0.991804 0.0394075 83 81 79
239.077 -1196.35 -1943.92 0.0651105 0.990419 0.0458348 79 77 76
252.222 -1196.54 -1944.78 0.0195915 0.987335 0.0628698 67 65 64
247.746 -1196.06 -1946.61 0.0344152 0.987132 0.0612897 69 68 66
256.736 -1195.84 -1954.51 -0.012154 0.980818 0.110169 53 52 51
255.273 -1196.31 -1949.05 0.00129055 0.984256 0.0860666 59 58 57
258.016 -1195.62 -1957.48 -0.0212942 0.97886 0.12412 49 48 47
267.636 -1197.26 -1945.81 -0.0467957 0.982809 0.113975 55 54 53
263.419 -1196.3 -1953.61 -0.0382183 0.979746 0.124954 49 49 47
260.207 -1196.9 -1945.92 -0.0143174 0.984905 0.0870633 59 58 56
264.69 -1196.01 -1957 -0.0479398 0.977642 0.140539 46 45 44
262.956 -1195.69 -1959.69 -0.0439345 0.976541 0.14388 44 43 42
269.781 -1197.16 -1947.4 -0.0578969 0.981553 0.126137 53 52 51
272.721 -1197.13 -1947.28 -0.0693683 0.981649 0.132423 54 54 52
281.693 -1197.05 -1944.93 -0.0916216 0.98097 0.145951 64 64 62
282.639 -1196.87 -1946.11 -0.0960684 0.980428 0.151239 64 65 63
279.257 -1195.86 -1956.05 -0.102754 0.977941 0.171193 55 55 54
-51.6938 535.609 -1946.8 -0.486598 0.337453 -0.731092 222 228 236
-45.5675 542.188 -1948.31 -0.467591 0.304046 -0.795748 221 227 236
-50.6635 534.645 -1951.36 -0.493224 0.355997 -0.703334 223 228 237
-45.9392 537.811 -1954.45 -0.491408 0.337855 -0.725551 223 228 236
78.8811 321.477 -1953.42 0.791197 0.319551 -0.350102 131 136 145
151.151 266.604 -1956.9 0.217517 -0.0554689 -0.760822 179 159 146
155.419 257.984 -1956.3 0.354247 0.00838197 -0.818831 203 189 182
153.437 254.45 -1957.72 0.346851 0.023823 -0.860741 203 190 183
159.564 256.085 -1954.57 0.397572 0.0164787 -0.821691 210 197 192
169.349 255.685 -1950.74 0.435 0.0227672 -0.814739 219 208 204
171.522 254.997 -1949.96 0.438778 0.0252956 -0.823481 218 207 203
192.285 247.821 -1947.61 0.296535 0.0179147 -0.507092 190 179 175
194.322 244.288 -1948.03 0.247782 0.0236666 -0.468985 179 168 165
216.082 132.648 -1946.87 0.236509 0.0392939 0.238755 123 115 116
211.198 130.578 -1945.16 0.269469 0.0445655 -0.202955 117 110 113
206.21 136.655 -1945.68 0.253629 0.0155765 -0.476521 118 110 113
212.613 140.248 -1948.05 0.203777 -0.00989199 0.0104406 126 118 118
206.531 147.409 -1947.92 0.210376 -0.0292538 -0.338349 124 116 117
210.76 149.94 -1949.54 0.180115 -0.0600071 -0.0900987 130 120 120
208.701 145.243 -1948.16 0.201553 -0.0260177 -0.213452 126 117 117
212.942 151.201 -1950.31 0.167202 -0.0746596 0.0393041 133 123 121
211.582 167.228 -1951.85 0.193591 -0.127103 -0.0346209 135 125 123
210.224 169.887 -1951.7 0.219521 -0.135296 -0.1184 133 124 122
215.354 168.415 -1953.19 0.162904 -0.144157 0.183285 139 128 125
215.851 157.633 -1952.06 0.14692 -0.114951 0.213252 138 127 124
215.374 157.728 -1951.92 0.150477 -0.113215 0.185892 137 127 124
204.87 175.379 -1950.53 0.272578 -0.115951 -0.422476 128 119 120
213.438 172.633 -1953.02 0.185321 -0.142273 0.0745828 137 127 124
216.923 181.935 -1955.07 0.145711 -0.161578 0.337718 143 132 127
216.771 178.011 -1954.63 0.149323 -0.159255 0.307605 142 131 127
215.423 171.995 -1953.6 0.165545 -0.149612 0.191395 139 129 125
209.926 193.377 -1953.46 0.181301 -0.0963541 -0.137691 137 127 125
209.357 197.374 -1953.45 0.166354 -0.0781376 -0.190439 138 128 126
213.184 191.106 -1954.39 0.167458 -0.125012 0.0732934 139 129 126
210.367 184.618 -1953.22 0.206373 -0.12555 -0.0648814 136 126 123
207.512 209.159 -1952.76 0.155463 -0.0459182 -0.380426 140 130 129
206.001 208.897 -1952.3 0.163639 -0.0374166 -0.460628 139 130 129
209.886 199.437 -1953.68 0.155605 -0.0746543 -0.173075 138 129 126
-53.8008 -895.703 -1944.2 0.638445 0.155447 -0.667769 62 77 106
-48.7048 -894.962 -1938.91 0.600223 -0.0421775 -0.625742 59 74 103
-45.836 -886.988 -1943.11 0.500983 -0.35192 -0.736621 59 74 103
-41.5924 -889.482 -1937.47 0.32761 -0.307473 -0.584009 56 71 99
-44.2884 -889.991 -1938.58 0.438893 -0.308711 -0.692102 58 72 101
-40.8121 -881.782 -1942.19 0.407026 -0.311342 -0.585338 56 70 97
-36.1965 -877.881 -1939.23 0.428786 -0.202489 -0.536952 54 67 91
-41.089 -876.704 -1943.89 0.515952 -0.238805 -0.58088 55 69 95
-37.9241 -872.376 -1941.33 0.594851 -0.115599 -0.495772 51 64 90
-139.062 -868.15 -1940.37 -0.927252 0.0942373 -0.315109 63 81 113
-137.719 -863.007 -1938.41 -0.883294 0.248999 -0.29209 63 82 113
-135.437 -858.634 -1939.37 -0.780664 0.342765 -0.272017 64 83 115
-131.899 -852.555 -1941.39 -0.368446 0.330721 -0.40129 64 84 117
-128.457 -848.416 -1941.85 -0.139955 0.197727 -0.518544 64 83 117
-132.175 -823.989 -1937.88 -0.730079 -0.182976 -0.651774 67 86 119
-133.194 -819.102 -1938.98 -0.715759 -0.185012 -0.671055 65 84 116
-131.959 -817.277 -1940.8 -0.669221 -0.133124 -0.71545 66 85 119
-135.345 -809.268 -1939.13 -0.713669 0.0187757 -0.595662 63 81 113
-130.89 -808.784 -1941.84 -0.628396 0.0346969 -0.716819 65 83 118
-133.799 -805.001 -1938.55 -0.717363 0.131208 -0.57047 63 81 115
-129.827 -798.465 -1938.87 -0.739013 0.203242 -0.5881 66 85 121
-129.078 -784.382 -1940.2 -0.726992 -0.00951463 -0.573457 67 87 127
-130.652 -779.13 -1937.73 -0.813513 0.0242483 -0.558291 68 88 128
-131.333 -764.955 -1938.2 -0.526882 0.00248729 -0.277451 66 83 117
-132.144 -762.025 -1939.27 -0.53016 -0.11046 -0.182224 67 82 114
-125.961 -844.394 -1942.45 -0.0845335 0.248735 -0.666427 65 84 119
-72.7855 -605.16 -1939.6 -0.311689 0.258605 0.873501 70 82 122
-69.4504 -599.124 -1939.79 -0.340596 0.0878877 0.889151 66 78 118
-65.4185 -597.327 -1938.23 -0.442565 0.0790586 0.876468 64 76 116
-88.4399 -555.886 -1937.36 0.406398 0.270488 0.85406 69 89 131
-83.0949 -552.85 -1938.43 0.210452 0.288304 0.921026 73 92 133
-73.4036 -555.556 -1937.91 0.297321 0.272355 0.916954 77 93 134
-87.7053 -547.01 -1939.08 0.256597 0.14107 0.907265 73 92 134
-88.4293 -540.311 -1939.11 0.264738 -0.0725972 0.9123 75 94 135
-85.3639 -545.714 -1939.66 0.217708 0.113886 0.926747 75 93 134
-76.1797 -544.576 -1940.82 0.167793 0.0839038 0.965124 78 95 136
-81.5281 -540.632 -1940.37 0.180883 -0.0720647 0.944777 77 95 135
-87.1818 -542.821 -1939.6 0.23477 0.00431265 0.917866 75 93 134
-78.4061 -542.776 -1940.68 0.167374 0.0140936 0.958171 78 95 135
-69.8643 -590.152 -1938.17 -0.0576654 -0.28825 0.877102 66 79 119
-55.5752 -565.948 -1938.69 -0.121409 0.230216 0.836427 69 83 123
-45.6119 -422.471 -1943.08 0.434295 -0.522092 -0.705978 50 60 94
-40.2675 -424.446 -1939.1 0.362491 -0.455616 -0.806083 47 57 90
-33.8466 -420.853 -1939.8 0.426731 -0.466585 -0.754849 43 52 85
-34.688 -424.514 -1937.49 0.418668 -0.409816 -0.780754 44 54 86
-26.515 -424.219 -1936.85 0.529865 -0.369378 -0.617516 41 52 83
-17.9126 -425.592 -1943.15 0.407334 -0.575156 -0.660627 47 57 89
-27.9017 -415.56 -1941.03 0.491103 -0.548704 -0.65142 43 53 84
-27.9895 -420.159 -1937.23 0.596873 -0.432248 -0.70207 40 50 81
-20.2495 -414.305 -1939.34 0.421782 -0.601807 -0.571412 46 58 89
15.4224 -1159.04 -1942.52 -0.781493 0.211317 -0.485512 69 77 104
17.5524 -1156.06 -1943.08 -0.845997 0.136986 -0.510364 70 79 107
19.6993 -1152.78 -1944.21 -0.853314 0.118571 -0.535246 69 78 108
92.5473 -1169.76 -1941.34 0.681324 -0.253938 -0.206743 64 77 104
21.9221 -1146.46 -1941.54 -0.81091 0.179088 -0.556906 66 77 107
22.9807 -1135.85 -1938.44 -0.757732 0.202493 -0.614592 62 73 106
24.7417 -1137.09 -1941.13 -0.768184 0.228552 -0.595255 62 74 106
23.4839 -1131.66 -1938.27 -0.739263 0.148341 -0.65051 58 69 103
26.9861 -1130.25 -1941.2 -0.723772 0.201786 -0.654298 59 72 104
24.2232 -1126.57 -1938.44 -0.712201 0.0583612 -0.698607 54 66 100
28.0294 -1122.01 -1941.26 -0.658123 0.0530116 -0.737404 57 70 103
21.3304 -1107.41 -1938.42 -0.681653 -0.140967 -0.679746 62 73 107
112.838 -976.119 -1937.37 0.888079 0.42306 0.0683135 62 76 103
114.24 -978.581 -1939.25 0.907255 0.362156 0.0198076 62 76 103
108.838 -969.451 -1939.28 0.907779 0.336971 0.110405 63 76 105
105.899 -960.352 -1942.9 0.904275 0.168584 0.33847 61 73 104
