ply
format ascii 1.0
comment Created by Open3D
element vertex 732
property double x
property double y
property double z
property double nx
property double ny
property double nz
property uchar red
property uchar green
property uchar blue
end_header
1293.24 -83.4983 -1205.91 -0.259949 0.067525 0.952774 204 200 205
1294.65 -81.9611 -1205.68 -0.285017 0.0769298 0.942192 208 204 208
1294.73 -70.3955 -1204.97 -0.402189 0.0318347 0.90528 184 182 190
1293.62 -62.8355 -1205.08 -0.468365 0.0163133 0.871967 187 184 193
1287.52 -57.0036 -1208.86 -0.365785 0.0906459 0.900209 201 197 203
1285.41 -54.9635 -1210.52 -0.330675 0.131064 0.912113 210 206 209
1283.9 -52.6844 -1211.6 -0.295057 0.128989 0.928202 212 208 210
1284.93 -47.3148 -1211.27 -0.32563 0.0581436 0.928089 207 203 207
1286.4 -40.2295 -1210.5 -0.372036 -0.000776547 0.91982 200 197 202
1291.57 -55.2932 -1206.57 -0.467339 0.0452206 0.869604 201 197 202
1293.1 -50.0785 -1206.19 -0.48437 0.0644239 0.864063 202 198 204
1369.25 360.337 -1207.63 -0.326239 -0.721068 0.538942 177 140 115
1355.28 373.142 -1210.71 -0.686795 -0.331628 0.625868 188 151 124
1362.65 367.182 -1206.93 -0.566752 -0.404715 0.661786 184 147 121
1364.85 362.816 -1208.13 -0.489112 -0.6159 0.54227 181 144 118
1361.98 370.346 -1206.72 -0.542379 -0.275177 0.740451 187 149 123
1343.14 400.469 -1210.52 -0.653806 -0.360697 0.655448 200 163 136
1354.86 378.536 -1210.17 -0.668361 -0.212421 0.683446 189 151 124
1353.17 384.966 -1210.26 -0.63704 -0.177894 0.722253 188 150 123
1357.94 380.353 -1207.95 -0.547803 -0.176069 0.785147 190 152 125
1358.73 385.644 -1206.33 -0.4887 -0.208788 0.821554 188 150 124
1348.43 392.778 -1210.1 -0.612371 -0.336611 0.687169 191 153 126
1352.34 393.259 -1206.1 -0.575212 -0.368682 0.699229 186 149 122
1347.35 396.773 -1208.36 -0.598661 -0.456538 0.650078 194 157 130
1343.66 407.058 -1206.82 -0.70087 -0.218774 0.673999 204 168 142
1343.79 411.605 -1205.93 -0.681897 -0.131711 0.713467 207 171 146
1336.65 419.94 -1210.7 -0.603439 -0.239308 0.761541 208 172 149
1338.07 419.277 -1210.01 -0.588541 -0.228679 0.7701 208 173 149
1336.55 429.516 -1208.7 -0.53581 -0.185085 0.800592 213 178 157
1340.33 425.757 -1207.74 -0.474958 -0.170603 0.836721 212 177 155
1345.81 403.106 -1206.07 -0.669242 -0.319704 0.659504 200 163 137
1344.5 423.291 -1205.82 -0.45828 -0.0887979 0.860189 213 178 155
1330.23 443.23 -1210.94 -0.658981 -0.0130136 0.734773 215 178 159
1332.3 435.655 -1209.78 -0.621232 -0.147098 0.742242 214 178 158
1338.14 436.374 -1206.95 -0.441817 -0.0925031 0.838866 216 180 160
1336.39 443.442 -1208.71 -0.445001 0.100772 0.834004 212 176 157
1341.37 440.094 -1206.49 -0.309492 0.028803 0.899321 211 175 155
1336.53 445.199 -1209.06 -0.423505 0.156759 0.842746 211 175 156
1339.94 444.753 -1207.97 -0.344579 0.158575 0.879123 205 170 151
1336.15 451.442 -1211.28 -0.359346 0.361542 0.854404 204 168 151
1346.93 431.93 -1205.08 -0.211945 -0.0797987 0.94447 211 175 153
1344.35 438.46 -1205.41 -0.232646 -0.0130791 0.933106 207 172 152
1348.37 444.355 -1205.75 -0.187429 0.151201 0.950452 182 147 127
1353.14 445.203 -1205.17 -0.165141 0.201 0.949309 163 128 108
1349.29 451.618 -1208.53 -0.192559 0.269302 0.924803 157 124 109
1354.46 456.805 -1209.1 -0.169814 0.150911 0.908871 121 92 83
1356.54 451.402 -1207.19 -0.155565 0.275783 0.916533 140 107 91
1288.92 -161.358 -1204.42 -0.383924 0.0803089 0.922201 214 207 214
1291.15 -171.476 -1202.33 -0.416376 0.0384669 0.909503 212 205 212
1300.32 -164.126 -1198.72 -0.496653 0.129768 0.864109 211 204 212
1296.13 -161.118 -1201.09 -0.446053 0.0920537 0.889062 211 204 212
1301 -160.131 -1198.68 -0.48323 0.0694281 0.872243 210 203 211
1293.27 -154.966 -1202.98 -0.416315 0.0759728 0.901093 211 204 211
1290.17 -157.308 -1204.6 -0.401193 0.106549 0.907285 213 206 213
1301.64 -152.708 -1198.76 -0.450565 0.0457014 0.886706 207 200 208
1292.4 -150.543 -1203.46 -0.371245 -0.000586654 0.924919 209 202 209
1302.24 -148.611 -1198.52 -0.440113 0.0344429 0.891614 206 199 207
1293.24 -138.591 -1203.08 -0.48664 0.0808093 0.865158 205 198 204
1290.19 -141.601 -1204.55 -0.418242 0.0796822 0.891124 204 197 204
1299.1 -136.699 -1199.59 -0.474261 -0.0128677 0.876301 193 188 196
1292.39 -133.882 -1203.44 -0.510117 0.0424797 0.854087 205 198 204
1300 -133.045 -1199.49 -0.465065 0.0249619 0.878138 203 197 204
1294.11 -127.436 -1202.81 -0.475787 0.0126693 0.869904 208 201 207
1302.56 -126.697 -1199.2 -0.410455 0.0674042 0.899163 212 205 211
1294.12 -121.32 -1202.84 -0.429195 -0.00383803 0.882466 206 200 207
1302.81 -117.85 -1199.87 -0.346972 0.0439316 0.929205 209 203 210
1301.73 -116.77 -1200.29 -0.344133 0.0322448 0.929919 208 201 208
1304.72 -123.156 -1199.07 -0.369802 0.108844 0.912073 213 206 212
1294.33 -114.337 -1202.92 -0.351683 0.0238249 0.914101 200 194 202
1302.02 -111.345 -1200.48 -0.323349 0.0471987 0.940557 204 198 206
1294.29 -110.255 -1203.29 -0.369176 0.0834122 0.919048 206 200 207
1300.48 -103.186 -1201.6 -0.336968 0.0469526 0.936192 196 191 200
1299.4 -110.022 -1201.45 -0.33394 0.0566623 0.935379 201 196 204
1304.92 -110.487 -1199.6 -0.310963 0.045911 0.945695 205 199 207
1305.66 -108.932 -1199.46 -0.29225 0.0373738 0.953676 206 200 207
1294.03 -99.6225 -1204.43 -0.344748 0.057153 0.932713 194 190 198
1300.06 -100.321 -1201.99 -0.328094 0.0260742 0.939053 193 188 198
1303.21 -92.288 -1201.16 -0.280209 0.0151312 0.94991 197 193 201
1440.11 -141.219 -1200.63 0.413835 -0.0521599 0.855225 175 171 184
1435.38 -131.358 -1198.29 0.335095 -0.00279515 0.925289 173 169 181
1444.6 -140.418 -1202.49 0.390022 -0.05341 0.917992 173 168 182
1443.63 -143.299 -1202.24 0.396983 -0.0519593 0.887949 174 169 182
1442.87 -131.285 -1201.93 0.414211 0.0247525 0.902107 173 167 181
1449.11 -133.968 -1204.85 0.428884 0.0606358 0.893017 173 167 182
1434.4 -129.862 -1197.92 0.317732 0.0113463 0.936744 173 168 181
1436.89 -121.45 -1199.75 0.37209 0.0143835 0.914955 173 168 182
1442.41 -126.097 -1202.37 0.423606 0.0462032 0.894513 171 166 180
1444.64 -118.527 -1203.71 0.446291 0.0101443 0.887816 168 163 178
1436.82 -112.49 -1199.69 0.425762 0.01354 0.891038 176 171 185
1438.77 -112.721 -1200.89 0.440276 0.0212882 0.884263 175 170 184
1437.65 -107.049 -1200.61 0.457356 0.0515375 0.87527 177 172 186
1441.71 -114.021 -1202.56 0.441788 0.038312 0.884723 174 169 183
1441.7 -105.905 -1203.12 0.461765 0.0518654 0.871866 176 171 185
1438.6 -101.395 -1201.36 0.492397 0.0160852 0.854754 176 171 186
1434.29 -92.9881 -1198.22 0.457075 0.0224504 0.857478 172 167 182
1441.98 -96.6711 -1203.37 0.495872 0.00492966 0.848859 172 168 182
1441.31 -93.188 -1203.09 0.509935 0.0566721 0.835902 171 166 181
1432.16 -1173.37 -1202.37 -0.143361 0.774566 0.161476 70 62 57
1434.35 -1175.42 -1207.46 0.0249054 0.764745 0.400171 65 61 59
1435.95 -1176.47 -1203.93 0.0336098 0.707427 0.389044 56 52 50
1431.71 -1173.64 -1211.55 -0.00134878 0.844755 0.35207 80 77 74
1441.58 -1178.3 -1209.99 0.117962 0.747449 0.542367 30 29 29
1444.81 -1180.46 -1203.27 0.172367 0.542285 0.473894 31 29 30
1446.33 -1181.83 -1200.62 0.227821 0.40657 0.487924 35 32 34
1449.15 -1181.93 -1203.91 0.227641 0.467462 0.484792 27 25 27
1463.24 -1182.77 -1208.52 0.260421 0.46914 0.370031 45 40 41
1454.86 -1181.9 -1207.18 0.21837 0.538868 0.411912 25 22 24
1335.71 -110.884 -1190.03 -0.219774 0.147036 0.952459 207 200 206
1331.79 -116.627 -1190.01 -0.215974 0.11607 0.955362 207 200 206
1340.09 -114.417 -1188.4 -0.221382 0.159074 0.948792 207 200 206
1342.25 -105.563 -1188.5 -0.240561 0.0700819 0.951484 205 198 204
1336.79 -98.8091 -1189.98 -0.267199 0.0160425 0.95452 206 199 206
1340.97 -101.751 -1188.76 -0.262362 0.0126401 0.951045 205 198 205
1336.35 -90.1933 -1190.37 -0.267682 0.0300978 0.956904 207 201 207
1338.29 -91.578 -1189.65 -0.284159 0.0200878 0.951133 207 200 207
1349.22 -113.836 -1186.52 -0.177351 0.152185 0.960911 205 198 204
1353.22 -110.82 -1186.37 -0.123014 0.164849 0.967663 203 196 202
1346.77 -106.827 -1187.5 -0.198988 0.0925826 0.956693 204 197 203
1357.07 -109.044 -1186.14 -0.0732832 0.166307 0.971743 203 196 202
1359.96 -110.286 -1185.89 -0.0452871 0.175475 0.970244 202 195 202
1370.41 -111.908 -1185.02 0.0589683 0.0710099 0.964746 199 192 200
1358.64 -103.88 -1186.19 -0.0684563 0.0683487 0.97678 202 195 202
1358.64 -108.636 -1186.03 -0.0586721 0.155972 0.972325 202 195 202
1368.78 -103.216 -1184.5 -0.0978646 -0.050645 0.976369 204 197 205
1345.96 -102.415 -1187.61 -0.221403 0.0123726 0.956616 204 197 203
1351.93 -99.2595 -1186.58 -0.131321 0.00552647 0.971437 204 197 203
1346.03 -92.1375 -1187.46 -0.241737 0.00786565 0.952611 207 200 206
1355.54 -91.1633 -1186.22 -0.088855 0.0093842 0.977132 206 199 206
1361.24 -102.226 -1185.78 -0.09227 0.0277156 0.975778 203 196 203
1365.67 -102.02 -1185.16 -0.106714 -0.00961016 0.974262 204 197 205
1361.1 -91.3632 -1185.89 -0.0678457 0.0109031 0.976112 206 199 206
1368.42 -89.8117 -1185.72 -0.00423197 0.0895441 0.965415 205 198 206
1341.29 -88.5448 -1188.98 -0.263832 0.0368097 0.952268 208 201 207
1336.07 -76.8128 -1190.69 -0.140681 -0.0331623 0.978311 210 203 209
1339.48 -80.1476 -1190.13 -0.180027 0.0112435 0.969918 210 203 209
1331.52 -75.0034 -1190.84 -0.154405 -0.0744556 0.976486 211 203 209
1338.61 -69.1725 -1190.76 -0.042477 0.109413 0.98513 215 208 214
1349.46 -88.8362 -1186.91 -0.188696 0.0384559 0.961057 208 201 207
1342.95 -82.678 -1189.15 -0.224911 0.0604972 0.958568 209 203 209
1350.85 -83.8763 -1187.18 -0.173767 0.0855412 0.964237 209 202 208
1344.42 -79.9618 -1188.98 -0.202041 0.0625948 0.963486 210 203 209
1352.66 -79.3857 -1187.43 -0.152996 0.0940717 0.970027 210 203 209
1359.42 -84.9881 -1186.44 -0.0738681 0.0796557 0.976553 208 201 208
1366.02 -82.9708 -1186.36 -0.0303287 0.103677 0.974695 206 199 207
1364.06 -76.5575 -1186.08 -0.0773147 0.0194369 0.9796 207 200 207
1366.23 -75.7117 -1185.83 -0.0703629 -0.0104176 0.97942 206 199 206
1351.29 -74.9782 -1187.9 -0.167541 0.0835094 0.971846 211 204 210
1353.57 -69.1039 -1187.69 -0.18855 0.0545682 0.970091 211 204 210
1349.9 -64.9182 -1189.1 -0.213094 0.118722 0.9586 211 204 210
1346.35 -67.2909 -1189.78 -0.173219 0.122588 0.963158 212 205 210
1355.92 -67.6279 -1187.25 -0.191103 0.0393393 0.970567 210 203 209
1362.17 -72.1207 -1186.11 -0.123576 -0.00439886 0.978593 208 201 207
1366.74 -71.3007 -1185.56 -0.0706185 -0.0392133 0.979432 207 200 206
1359.5 -62.76 -1186.8 -0.202232 0.038185 0.971483 209 202 208
1368.77 -65.3031 -1185.72 -0.0415231 -0.0256272 0.980192 207 200 206
1349.32 -58.2109 -1190.25 -0.230493 0.160833 0.952062 211 203 209
1356.52 -56.4847 -1188.28 -0.232475 0.0986697 0.963973 209 202 208
1354.29 -49.11 -1189.91 -0.182252 0.173571 0.963686 208 201 207
1351.22 -48.8607 -1190.79 -0.157984 0.208814 0.96245 208 201 207
1377.92 -1177.27 -1501.77 0.0415247 0.967622 -0.295515 94 93 89
1384.18 -1177.06 -1499.55 0.0467439 0.922268 -0.392876 90 87 84
1389.99 -1179 -1505.28 0.0347909 0.973928 -0.273248 103 101 96
1396.37 -1178 -1502.45 -0.00744662 1.00851 -0.229935 111 109 104
1401.97 -1177.12 -1501.24 -0.0472223 0.999233 -0.185806 118 115 111
1408.03 -1176.43 -1503.66 -0.109166 0.996852 -0.153004 140 139 134
1413.45 -1174.65 -1500.78 -0.106476 0.989346 -0.145919 124 122 119
1420.32 -1173.77 -1503.29 -0.101354 0.990724 -0.121077 116 115 112
1425.76 -1172.66 -1501.37 -0.0789915 0.989052 -0.0500425 115 114 112
1420.14 -235.863 -1498.75 0.0320996 0.154127 -0.98689 225 221 232
1426.46 -248.061 -1500.28 -0.0882024 0.0928712 -0.981893 203 199 209
1435.21 -253.744 -1500.69 -0.0625286 0.0247341 -0.977742 195 191 200
1430.71 -245.211 -1500.32 -0.110172 0.0945321 -0.981488 210 206 216
1430.52 -242.287 -1499.99 -0.0946597 0.121699 -0.980672 216 212 222
1435.02 -240.776 -1499.89 -0.0527681 0.140088 -0.968701 217 213 222
1444.48 -251.307 -1499.22 0.211999 -0.0352363 -0.952746 191 186 196
1443.66 -240.685 -1499.25 0.191531 0.0867409 -0.947022 206 201 212
1432.63 -237.082 -1499.03 -0.0489511 0.23156 -0.958522 225 221 231
1440.19 -237.995 -1499.23 0.0120344 0.234889 -0.94035 218 214 224
1334.4 -332.084 -1493.76 -0.285521 0.0450356 -0.955772 20 19 26
1340.99 -332.457 -1494.84 -0.129878 0.0462737 -0.980564 21 20 27
1344.56 -330.227 -1495.01 -0.0694062 0.0638648 -0.997459 21 20 27
1336.11 -322.261 -1493.81 -0.30402 0.0312163 -0.949081 20 19 26
1340.68 -327.346 -1495.01 -0.174881 0.0409026 -0.988629 20 19 26
1333.41 -315.362 -1492.39 -0.366944 0.0218234 -0.928642 19 19 26
1342.77 -320.646 -1494.96 -0.147594 0.00635883 -0.978167 21 20 27
1333.68 -310.92 -1492.43 -0.337098 -0.0013837 -0.939168 20 19 26
1344.69 -308.276 -1494.83 -0.100836 -0.00197814 -0.969588 19 19 27
1347.29 -335.263 -1494.1 0.0740827 0.03612 -0.961793 22 21 29
1353.55 -334.648 -1492.31 0.291817 0.0133384 -0.905963 24 23 31
1345.91 -328.402 -1495.07 -0.0527114 0.0710655 -1.00489 21 20 28
1352.23 -324.741 -1493.55 0.185997 0.0421212 -0.954381 23 22 30
1350.22 -315.322 -1494.28 0.146416 0.00326673 -0.95056 23 23 30
1353.1 -321.478 -1493.05 0.254775 0.0159018 -0.931907 24 23 31
1347.66 -308.384 -1494.45 0.0381738 0.0160915 -0.957412 20 20 28
1372.02 -1176.43 -1498.29 0.0324342 0.957632 -0.304792 86 85 82
1375.44 -1173.84 -1495.04 0.0178749 0.901395 -0.426986 82 80 77
1382.8 -1172.92 -1493.18 0.0430677 0.847604 -0.520752 80 75 73
1390.54 -1176.74 -1496.46 0.0726786 0.929417 -0.376779 86 82 80
1394.64 -1176.5 -1494.81 0.0794478 0.940271 -0.333672 84 79 77
1388.06 -1175.92 -1495.42 0.0880471 0.887014 -0.442932 83 78 76
1388.75 -1156.62 -1491.83 0.158168 0.569578 -0.727664 67 57 56
1401.74 -1175.78 -1493.03 0.0381665 0.960368 -0.238703 86 80 78
1411.16 -1173.84 -1492.08 -0.0598452 0.992822 -0.133546 101 92 89
1414.33 -1173.51 -1494.25 -0.0803405 0.995488 -0.117207 110 103 100
1422.08 -1173.12 -1496.23 -0.0613776 0.991784 -0.0499136 125 122 119
1385.81 -1155.39 -1492.63 0.0653158 0.644419 -0.590075 54 47 47
1432.63 -1172.39 -1498.27 -0.0369967 0.973815 0.0815635 106 106 103
1437.06 -1172.07 -1497.97 -0.0357986 0.960367 0.161588 83 83 81
1441.92 -1173.12 -1492.09 0.0582594 0.952936 0.233632 75 74 72
1447.55 -1169.12 -1494.23 -0.0182822 0.935464 0.21147 32 30 28
1473.79 -629.07 -1485.02 0.348317 -0.0655128 -0.773554 18 17 26
1477.44 -628.633 -1490.58 0.354023 -0.065304 -0.786948 18 17 26
1470.16 -616.887 -1490.99 0.47231 0.108235 -0.775494 17 16 24
1470.11 -614.055 -1491.56 0.510669 0.140051 -0.774678 16 15 24
1446.35 -595.21 -1485.74 -0.16796 -0.139281 -0.946121 19 19 27
1447.62 -589.152 -1485.43 -0.159675 0.0348457 -0.941328 19 20 29
1446.44 -584.31 -1485.06 -0.262331 0.163899 -0.911034 19 20 30
1452.58 -586.864 -1485.01 0.00385903 0.0219717 -0.975299 21 21 30
1469.07 -605.644 -1486.22 0.376473 -0.0849901 -0.79602 19 18 26
1471.87 -600.558 -1488.93 0.445601 0.0123765 -0.830112 17 17 24
1475 -595.696 -1487.01 0.356822 0.0173382 -0.877697 19 18 25
1479.87 -598.657 -1486.86 0.455234 0.0397694 -0.8327 17 17 24
1425.44 -540.483 -1486.12 -0.527605 -0.105704 -0.8324 13 14 24
1417.55 -525.941 -1485.58 -0.596056 -0.295787 -0.736654 13 14 24
1424.78 -527.088 -1489.8 -0.405296 -0.309583 -0.843625 15 16 25
1452.59 -579.645 -1485.3 -0.0401269 0.0156525 -0.978637 20 20 30
1452.22 -567.762 -1486.22 -0.097332 0.0170022 -0.997258 20 20 30
1436.23 -563.722 -1485.41 -0.290123 -0.246316 -0.888637 16 18 26
1434.39 -558.232 -1486.56 -0.273079 -0.239865 -0.89484 16 18 26
1436.09 -555.976 -1487.1 -0.171226 -0.157885 -0.925661 16 18 27
1444.12 -567.424 -1485.36 -0.158331 -0.0970007 -0.953592 18 19 29
1451.93 -564.764 -1486.51 -0.0730786 0.0260342 -0.998543 20 21 30
1443.56 -559.044 -1486.76 -0.0654744 -0.079929 -0.961149 18 19 28
1451.15 -555.163 -1486.89 0.000267255 0.0565106 -1.00668 20 21 30
1455.38 -579.52 -1485.37 0.014671 -0.0385923 -0.982193 21 21 30
1462.08 -577.875 -1485.69 0.160021 -0.0953123 -0.945475 21 21 30
1460.54 -573.387 -1486.58 0.0954143 -0.0439834 -0.963356 21 21 30
1467.22 -569.697 -1487.81 0.307189 -0.0266064 -0.894332 20 20 28
1444.85 -1149.06 -1481 -0.188251 0.96748 -0.205015 169 169 167
1446.45 -1147.98 -1477.83 -0.193129 0.969606 -0.219527 172 173 171
1453.14 -1148.31 -1484.22 -0.131328 0.960822 -0.249657 152 153 151
1456.26 -1147.56 -1481.63 -0.152571 0.965332 -0.202322 120 121 119
1467.49 -1147.06 -1480.44 -0.125601 0.984069 -0.029109 27 27 27
1470.52 -1146.69 -1482.06 -0.117242 0.985902 0.0132615 12 12 12
1476.47 -1147.14 -1479.04 -0.0525515 0.993473 0.0847714 1 1 1
1484.18 -1147 -1477.7 0.00271512 0.994616 0.100922 11 11 11
1489.12 -1146.4 -1481.51 0.0381239 0.991774 0.115307 49 49 48
1506.61 -1149.01 -1478.82 0.157359 0.984324 -0.031321 160 161 159
1501.13 -1147.96 -1481.56 0.174781 0.979907 0.0494298 127 128 126
1510.42 -1149.4 -1481.94 0.117209 0.98517 0.00563086 169 169 167
1515.57 -1149.36 -1479.67 0.0306629 0.989493 -0.0159463 165 166 164
1521.05 -1148.79 -1481.77 -0.0646986 0.988855 0.0168176 164 165 163
1527.9 -1147.81 -1479.59 -0.116048 0.984693 0.0636015 167 166 165
1529.5 -1146.49 -1483.97 -0.119983 0.98611 -0.013914 169 169 167
1538.64 -1144.9 -1479.84 -0.156757 0.973941 -0.0392019 166 166 164
1541.71 -1144.44 -1481.43 -0.119049 0.967933 -0.120325 153 153 151
1546.45 -1144.57 -1479.69 -0.130909 0.965189 -0.121262 142 142 141
1561.92 -1154.64 -1479.67 -0.026666 0.944727 -0.228524 96 96 95
1553.14 -1146.11 -1479.54 -0.0946349 0.95902 -0.169266 123 123 122
1559.14 -1150.02 -1478.92 -0.0446871 0.949677 -0.22116 103 103 102
1488.88 -637.924 -1479.28 0.404791 -0.539488 -0.734783 28 25 30
1476.25 -630.795 -1478.47 0.396797 -0.118698 -0.766235 27 25 33
1478.78 -631.615 -1484.36 0.379174 -0.13542 -0.788349 22 20 28
1471.73 -623.926 -1482.82 0.365473 -0.0454471 -0.777951 18 17 26
1458.84 -609.61 -1480.08 0.0143131 -0.640833 -0.750258 23 22 31
1467.16 -611.343 -1481.3 0.198628 -0.425266 -0.748332 22 21 30
1469.66 -619.095 -1480.32 0.228976 -0.362113 -0.746873 21 20 29
1467.53 -613.034 -1480.56 0.182125 -0.474615 -0.737803 23 21 30
1439.22 -599.044 -1482.4 -0.463161 -0.197999 -0.796205 17 17 27
1435.87 -599.065 -1479.27 -0.575442 -0.253916 -0.698138 17 17 27
1444 -606.498 -1480.11 -0.210383 -0.505971 -0.759452 19 18 28
1449.23 -606.483 -1480.87 -0.0715949 -0.594261 -0.789025 20 19 30
1441.08 -598.167 -1484.08 -0.393954 -0.166357 -0.852743 17 17 27
1449.51 -601.149 -1483.63 -0.104327 -0.410579 -0.870203 20 20 29
1434.35 -591.639 -1478.61 -0.647193 -0.0475145 -0.700187 16 16 26
1437.02 -586.454 -1480.25 -0.577529 0.0736699 -0.757405 16 16 26
1437.75 -583.27 -1480.67 -0.505394 0.00158862 -0.796082 16 17 27
1444.35 -582.901 -1484.21 -0.347135 0.165449 -0.876083 19 20 30
1457.58 -608.921 -1480.5 0.00352389 -0.641111 -0.755023 22 21 31
1454.01 -601.659 -1483.29 -0.0172801 -0.447303 -0.877377 22 21 30
1467.1 -603.666 -1484.03 0.201243 -0.225273 -0.846556 22 21 29
1456.52 -599.903 -1483.55 0.00951749 -0.373047 -0.906535 23 22 31
1466.35 -599.215 -1484.22 0.137902 -0.193354 -0.909581 23 22 30
1470.46 -596.769 -1485.02 0.190399 -0.0877922 -0.915859 22 20 29
1459.74 -594.515 -1484 0.054508 -0.203033 -0.963996 24 23 32
1463.16 -593.503 -1484.14 0.076111 -0.140094 -0.968326 24 22 32
1458.07 -586.671 -1484.62 0.0647162 -0.066828 -0.986392 22 22 31
1463.42 -586.429 -1484.47 0.108107 -0.0808333 -0.976171 23 22 31
1469.55 -592.438 -1484.52 0.137385 -0.0485389 -0.959909 23 21 30
1477.47 -592.496 -1485.13 0.325464 -0.00961024 -0.886451 20 19 26
1474.11 -587.478 -1484.54 0.195418 -0.00438279 -0.947409 21 20 28
1475.17 -586.3 -1484.45 0.207393 -0.00834527 -0.943661 21 20 28
1487.26 -524.482 -1479.13 0.391838 0.00929671 -0.883704 17 19 27
1484.99 -526.631 -1480.47 0.416426 -0.0255 -0.849889 17 18 26
1484.47 -513.656 -1481.02 0.504822 -0.00650135 -0.782727 17 19 27
1486.61 -509.505 -1479.55 0.667588 0.00976337 -0.667711 16 17 26
1485.8 -512.317 -1480.01 0.524905 -0.00416313 -0.771954 17 18 27
1481.54 -500.345 -1484.86 0.719362 0.00591522 -0.69168 13 14 25
1482.65 -494.722 -1483.09 0.639579 0.00078891 -0.710525 16 17 27
1486.89 -497.06 -1478.93 0.513502 0.0185376 -0.733139 16 17 26
1487.53 -491.042 -1478.52 0.519991 0.069086 -0.761504 14 16 25
1484.14 -479.824 -1482.71 0.721483 -0.0300333 -0.665245 13 14 23
1483.83 -484.425 -1482.71 0.694285 0.0171675 -0.695901 11 12 22
1484.92 -475.501 -1481.57 0.703079 -0.0723477 -0.669514 15 16 25
1364.45 -292.946 -1484.05 0.607651 -0.24111 -0.734254 88 85 94
1286.8 -250.282 -1478.22 -0.24917 0.343849 -0.9022 200 196 208
1285.91 -232.029 -1478.46 -0.415985 -0.0410509 -0.902276 187 182 196
1292.25 -248.049 -1479.98 -0.317692 0.254947 -0.891321 199 195 207
1300.63 -252.493 -1483.64 -0.416382 0.0809265 -0.880366 193 189 202
1302.98 -251.152 -1484.27 -0.450723 0.0679635 -0.864885 190 185 198
1291.97 -240.274 -1480.21 -0.355137 0.0831719 -0.907101 192 187 200
1296.85 -242.243 -1482.42 -0.391255 0.0315002 -0.900575 188 184 197
1304.67 -248.771 -1484.95 -0.472274 0.0732452 -0.854509 187 183 195
1294.95 -235.791 -1482.08 -0.39519 -0.0361402 -0.910024 186 181 195
1299.83 -235.414 -1483.76 -0.377301 -0.0264924 -0.912385 184 180 194
1293.66 -228.537 -1481.14 -0.338847 0.0165182 -0.916164 186 181 196
1298.86 -232.404 -1483.16 -0.323808 0.0129959 -0.923254 188 183 198
1305.42 -235.631 -1484.84 -0.298222 0.0288781 -0.920616 187 183 195
1307.91 -226.778 -1483.32 -0.165711 0.213407 -0.937481 196 191 205
1287.49 -224.673 -1479.01 -0.358888 -0.041403 -0.909313 179 174 189
1291.99 -224.315 -1479.88 -0.271876 0.0441807 -0.927831 182 178 192
1298.98 -221.474 -1479.53 -0.191334 0.329672 -0.901408 200 195 210
1306.65 -221.684 -1481.41 -0.185066 0.298313 -0.916981 193 188 203
1308.69 -226.364 -1483.28 -0.162252 0.220683 -0.93781 195 190 204
1314.02 -225.457 -1483.87 -0.186764 0.230838 -0.93169 187 182 197
1304.83 -216.006 -1478.47 -0.17292 0.391348 -0.900741 191 186 202
1316.71 -212.32 -1482.47 -0.333364 0.16517 -0.900914 156 152 167
1311.19 -209.818 -1479.02 -0.353001 0.197247 -0.883579 155 150 166
1309.67 -202.126 -1478.46 -0.539167 0.0349603 -0.804931 147 142 158
1315.58 -200.589 -1481.7 -0.421096 0.0296077 -0.855575 162 158 172
1317.41 -222.989 -1483.97 -0.246597 0.240227 -0.913391 177 172 187
1317.09 -217.1 -1483.21 -0.286842 0.204601 -0.904427 165 161 176
1354.96 143.133 -1479.26 -0.23893 -0.575455 -0.707228 176 171 178
1371.63 139.479 -1478.72 -0.0749246 -0.727694 -0.676715 165 160 167
1354.45 144.588 -1479.75 -0.266477 -0.444206 -0.71758 182 176 184
1354.64 148.888 -1482.51 -0.308067 -0.244501 -0.730007 189 183 191
1355.85 152.95 -1481.78 -0.460053 0.0295537 -0.681438 193 187 195
1363.53 145.567 -1484.31 -0.175691 -0.536418 -0.764405 183 178 186
1358.81 156.869 -1482.85 -0.531346 0.177702 -0.679565 193 187 195
1362.27 161.626 -1482.16 -0.528502 0.379668 -0.68473 197 191 200
1365.78 163.222 -1484.66 -0.40041 0.407718 -0.794731 205 200 209
1366.79 166.438 -1483.78 -0.474184 0.401743 -0.760083 204 199 207
1368.62 175.25 -1478.88 -0.694166 0.373814 -0.563993 195 190 199
1371.61 173.263 -1484.52 -0.515629 0.277187 -0.771761 205 200 208
1445.29 -183.411 -1479.78 0.103779 0.373576 -0.904945 205 203 215
1447.73 -182.054 -1478.64 0.153436 0.38431 -0.896062 195 193 205
1454.96 -193.334 -1481.84 0.237925 0.422879 -0.857767 204 201 213
1462.51 -191.781 -1479.01 0.196901 0.467385 -0.849009 201 198 211
1467.54 -195.367 -1480.78 -0.0027724 0.477603 -0.862153 209 207 218
1458.79 -190.936 -1479.4 0.246874 0.456859 -0.843553 197 195 208
1471.58 -193.981 -1480.53 -0.0164198 0.479258 -0.869636 208 206 217
1479.52 -198.049 -1484.03 0.0812125 0.399091 -0.887325 212 209 219
1473.99 -191.079 -1479.04 -0.0569912 0.490686 -0.871983 208 205 217
1427.17 216.018 -1483.8 -0.306634 0.328599 -0.873032 212 209 217
1430.56 219.785 -1483.62 -0.271076 0.313358 -0.888518 211 208 216
1447.11 211.89 -1484.61 0.220204 -0.203434 -0.958731 186 183 194
1451.64 218.205 -1484.38 0.234796 -0.126476 -0.946653 210 205 214
1426.72 231.174 -1478.36 -0.26069 0.154786 -0.934518 206 204 213
1436.39 225.994 -1484.31 -0.318884 0.215518 -0.906456 211 208 216
1437.64 230.566 -1483.3 -0.346085 0.233398 -0.898146 209 207 215
1435.08 234.125 -1480.36 -0.343473 0.266568 -0.881673 206 204 212
1451.65 229.08 -1484.94 0.266352 -0.0121922 -0.912891 217 212 220
1445.18 237.605 -1484.5 -0.376797 0.334686 -0.846866 212 209 217
1454.58 217.641 -1483.22 0.250658 -0.0842081 -0.947532 206 202 210
1464.08 213.115 -1480.89 0.178407 0.0211776 -0.969367 203 199 208
1457.75 224.988 -1482.22 0.325947 -0.0162668 -0.926929 209 204 212
1463.39 220.63 -1480.52 0.211696 0.0637414 -0.961637 204 200 209
1466.09 219.133 -1480.15 0.215918 0.0878585 -0.96382 204 200 209
1471.5 214.126 -1479.57 0.165172 0.0792068 -0.962491 204 200 210
1476.53 211.538 -1479.4 0.0290309 0.111453 -0.959229 203 200 210
1471.34 220.058 -1478.93 0.223719 0.122397 -0.961011 205 201 212
1459.93 227.522 -1481.6 0.3202 -0.0298775 -0.929787 209 204 212
1460.74 229.756 -1481.47 0.327659 -0.0534092 -0.928193 210 206 214
1457.32 233.589 -1483.28 0.3179 -0.0812937 -0.926578 216 211 219
1464.63 237.356 -1480.73 0.362855 -0.15174 -0.909213 214 210 218
1467.35 234.491 -1479.06 0.315457 -0.063666 -0.926137 210 206 214
1469.94 231.8 -1478 0.23693 0.0433608 -0.957704 207 204 213
1482.45 171.776 -1478.37 0.275097 -0.312676 -0.856367 162 161 174
1481.14 181.894 -1483.14 0.118628 -0.203381 -0.937592 187 185 196
1493.87 179.45 -1479.04 0.252522 -0.310159 -0.842473 170 169 180
1494.24 180.33 -1479.2 0.259216 -0.300883 -0.848087 171 170 181
1485.35 186.914 -1483.22 0.105481 -0.136745 -0.94355 183 182 193
1490.43 188.647 -1482.19 0.148511 -0.111714 -0.932205 181 180 191
1485.43 193.641 -1483.12 -0.00812938 0.0327723 -0.956867 190 188 199
1490.67 195.506 -1482.78 0.000454707 0.0144742 -0.952184 192 190 200
1497 189.097 -1480.24 0.268558 -0.156182 -0.917373 180 179 189
1496.12 191.651 -1481.09 0.212132 -0.112641 -0.930135 185 183 193
1496.98 197.266 -1481.75 0.110566 -0.0578695 -0.926806 195 192 201
1247.64 -516.759 -1471.9 -0.506506 -0.023015 -0.85879 15 14 22
1254.52 -522.433 -1476.12 -0.42765 0.154485 -0.867881 16 15 23
1250.81 -515.543 -1474.07 -0.495373 -0.0470409 -0.862394 15 14 22
1253.9 -516.292 -1476 -0.471151 -0.0191186 -0.867489 16 15 23
1246.68 -508.626 -1471.13 -0.578942 0.0779198 -0.795357 17 16 24
1253.92 -509.932 -1476.79 -0.50757 -0.0483143 -0.845419 16 15 23
1255.85 -511.231 -1477.88 -0.485803 -0.0801449 -0.859599 17 16 24
1254.48 -502.529 -1477.49 -0.531857 0.0549214 -0.822415 16 15 23
1252.83 -496.98 -1474.92 -0.58021 0.120243 -0.791205 17 16 24
1257.47 -493.561 -1477.6 -0.519642 0.106461 -0.830252 17 16 24
1255.03 -485.631 -1474.39 -0.542589 0.116362 -0.807296 17 16 23
1256.9 -490.227 -1476.12 -0.555799 0.156097 -0.798295 17 16 24
1254.81 -484.301 -1474.23 -0.526555 0.110153 -0.819671 17 16 23
1259.31 -481.285 -1476.31 -0.540148 0.103656 -0.803574 18 17 25
1253 -478.121 -1473.39 -0.49043 -0.00713503 -0.847439 17 16 23
1251.13 -474.455 -1472.78 -0.523623 -0.0738059 -0.830635 16 15 23
1261.27 -477.6 -1477.55 -0.529094 0.0214575 -0.806562 19 18 26
1252.35 -471.755 -1474.03 -0.527579 -0.133819 -0.824923 17 16 23
1252.88 -468.644 -1475.19 -0.544875 -0.146355 -0.814707 18 17 24
1249.38 -460.416 -1473.77 -0.57557 -0.101417 -0.805413 17 16 23
1256.09 -462.523 -1478.01 -0.561181 -0.0534395 -0.813757 17 16 23
1247.21 -444.967 -1472.11 -0.516358 0.0730291 -0.845368 19 19 26
1252.26 -451.972 -1475.03 -0.501671 0.0425002 -0.857527 15 14 22
1254.98 -445.396 -1476.2 -0.466718 0.0550502 -0.880411 16 16 23
1254.02 -448.096 -1475.79 -0.47905 0.050163 -0.872382 16 15 22
1248.17 -440.196 -1472.54 -0.525895 0.0593034 -0.847009 25 26 33
1251.86 -439.599 -1474.5 -0.480728 0.049196 -0.871747 21 21 29
1257.48 -439.864 -1477.32 -0.431554 0.0533161 -0.896397 17 16 25
1253.19 -435.422 -1475.02 -0.486206 0.0288295 -0.867771 21 22 29
1258.44 -436.706 -1477.81 -0.413031 0.0406191 -0.903702 17 16 25
1250.52 -424.518 -1472.78 -0.577432 0.0934909 -0.782414 15 16 24
1257.62 -429.04 -1477.72 -0.432752 -0.0245449 -0.8883 16 17 25
1254.72 -417.776 -1476.44 -0.541558 0.0030128 -0.811906 16 18 26
1305.37 -520.109 -1476.15 0.673711 -0.0667836 -0.716806 24 22 31
1303.67 -523.699 -1478.07 0.598894 -0.0968623 -0.768594 24 22 31
1304.27 -517.913 -1478.06 0.620538 -0.0650314 -0.762933 24 23 31
1306.22 -512.556 -1477.36 0.601135 -0.121255 -0.762945 26 25 33
1311.88 -509.039 -1471.81 0.736665 -0.192639 -0.636972 25 24 32
1311.29 -502.158 -1475.44 0.634912 -0.15684 -0.736481 23 22 30
1398.26 -452.981 -1474.22 -0.833083 -0.340251 -0.418963 14 15 23
1393.92 -445.729 -1473.6 -0.79062 -0.380245 -0.471653 16 17 24
1401.31 -466.107 -1472.68 -0.892968 -0.161035 -0.393065 10 11 18
1400.2 -461.278 -1471.74 -0.887292 -0.229477 -0.369504 12 12 20
1399.98 -459.165 -1472.66 -0.873474 -0.258635 -0.384483 12 13 20
1391.98 -440.652 -1474.54 -0.7371 -0.349696 -0.556037 16 17 24
1394.46 -441.37 -1477.53 -0.738131 -0.316982 -0.572217 16 17 24
1387.33 -432.374 -1474.36 -0.630094 -0.287293 -0.709936 14 16 22
1383.81 -426.678 -1473 -0.639619 -0.271798 -0.707135 13 15 21
1384.99 -419.263 -1476.19 -0.499963 -0.244906 -0.801902 13 15 22
1387.46 -428.946 -1475.58 -0.599729 -0.214795 -0.762985 13 15 22
1387.14 -423.644 -1476.56 -0.544776 -0.182546 -0.804473 13 15 22
1491.78 -398.953 -1474.5 0.543086 -0.0428807 -0.788058 16 18 25
1487.24 -391.353 -1477.6 0.564254 0.000656528 -0.72848 16 18 26
1490.6 -390.751 -1475.57 0.540906 -0.0325335 -0.765143 17 19 26
1496.87 -390.519 -1471.78 0.528789 -0.0745909 -0.815 18 18 25
1492.94 -384.146 -1474.16 0.513117 -0.0105661 -0.802883 19 19 26
1491.18 -389.347 -1475.24 0.53602 -0.0362168 -0.771615 17 19 26
1492.35 -377.087 -1474.22 0.489721 0.0432906 -0.840061 19 19 26
1495.97 -385.688 -1472.38 0.514224 -0.0474743 -0.820575 19 19 25
1486.43 -375.528 -1477.3 0.540485 0.0987962 -0.795513 18 18 25
1492.42 -372.318 -1474.07 0.486881 0.0180419 -0.860279 20 19 26
1486.26 -368.898 -1477.31 0.544548 0.0370383 -0.822036 19 19 26
1494.63 -365.117 -1472.81 0.475099 0.00914001 -0.87487 20 19 27
1496.3 -364.661 -1471.87 0.472248 0.0126346 -0.87569 20 19 26
1491.34 -357.023 -1474.28 0.512625 0.0324489 -0.848877 19 18 25
1491.39 -359.839 -1474.29 0.510608 0.0285541 -0.850417 19 19 26
1491.21 -354.943 -1474.34 0.510966 0.0326389 -0.850258 19 18 25
1492.56 -349.784 -1473.68 0.51164 -0.00683545 -0.850305 18 17 24
1485.26 -345.897 -1477.78 0.477084 0.0224332 -0.876962 18 17 24
1489.72 -347.279 -1475.28 0.488945 -0.000918756 -0.869077 18 17 25
1487.78 -340.98 -1476.49 0.440317 -0.00186274 -0.903912 18 17 25
1492.17 -338.657 -1474.53 0.461596 -0.0539831 -0.88397 18 17 25
1495.71 -347.833 -1472.05 0.518911 -0.0371857 -0.842792 17 16 23
1485.82 -333.258 -1478.07 0.470676 -0.0486131 -0.879268 17 17 25
1491.72 -331.281 -1475.29 0.446297 -0.0585937 -0.892422 18 18 25
1491.33 -324.974 -1476.11 0.467223 -0.0590497 -0.87937 17 16 24
1496.53 -330.128 -1473.07 0.455639 -0.0714254 -0.882357 18 17 24
1494.26 -321.6 -1474.72 0.475765 -0.0570512 -0.869811 18 17 24
1491.88 -318.975 -1476.2 0.460829 -0.0469406 -0.882007 19 18 26
1489.38 -313.579 -1477.93 0.422486 -0.037404 -0.908158 29 28 37
1495.22 -316.404 -1474.42 0.49471 -0.0495667 -0.856584 24 23 31
1496.59 -308.195 -1474.07 0.513067 -0.0501703 -0.846565 41 40 51
1494.73 -311.438 -1475.06 0.474016 -0.0487234 -0.871992 37 36 46
1312.08 141.329 -1472 0.00196042 -0.478305 -0.856935 182 176 185
1291.93 149.18 -1471.61 -0.213636 0.00450555 -0.930528 197 191 201
1298.52 148.869 -1472.68 -0.12818 0.05633 -0.958022 200 194 203
1303.4 149.696 -1472.65 -0.0556562 0.210498 -0.934184 204 198 207
1314.66 149.556 -1471.78 0.0517227 0.301041 -0.885058 209 202 211
1305.02 150.945 -1472.22 -0.0236533 0.324762 -0.93119 207 201 210
1329.79 141.44 -1475.78 -0.28496 -0.423194 -0.802635 187 182 189
1327.67 138.502 -1471.85 -0.219723 -0.611189 -0.694616 172 167 174
1333.59 138.277 -1473.04 -0.132321 -0.647625 -0.665863 169 164 170
1342.93 141.665 -1473.74 0.046808 -0.425094 -0.735996 177 172 179
1317.56 144.661 -1472.23 -0.0431544 -0.176367 -0.872595 196 190 198
1324.35 146.683 -1473.11 -0.266819 0.00441859 -0.854141 204 197 206
1328.22 145.189 -1474.96 -0.256408 -0.0818784 -0.843252 201 195 203
1332.71 147.08 -1475.25 -0.153203 0.130522 -0.818445 207 201 210
1341.2 143.984 -1475.01 0.0244383 -0.222578 -0.774876 188 183 190
1330.44 149.937 -1473.24 -0.188573 0.427533 -0.793449 217 210 219
1337.5 149.556 -1473.9 -0.0080052 0.417695 -0.764578 215 209 217
1346.75 139.551 -1472.58 0.024549 -0.620008 -0.687707 167 162 169
1358.31 139.914 -1476.68 -0.214662 -0.723085 -0.6469 165 161 168
1368.02 134.947 -1472.69 -0.164393 -0.742368 -0.640627 156 152 157
1361.21 138.937 -1476.25 -0.214224 -0.743281 -0.632849 163 158 165
1370.02 137.707 -1476.32 -0.112718 -0.753641 -0.645989 160 156 162
1350.47 144.62 -1477.91 -0.223008 -0.380702 -0.733516 183 177 185
1348.85 151.681 -1474.57 -0.390062 0.358322 -0.66247 209 202 211
1351.56 152.864 -1475.89 -0.555793 0.349263 -0.626649 205 198 207
1353.52 157.919 -1471.73 -0.626392 0.613703 -0.474036 201 194 203
1358.41 162.536 -1474.81 -0.720394 0.497785 -0.456002 182 175 184
1362.49 167.281 -1476.68 -0.705046 0.465881 -0.523711 190 184 193
1366.23 175.082 -1474.58 -0.767494 0.432674 -0.458841 189 184 192
1366.37 177.711 -1471.11 -0.811563 0.456016 -0.375202 184 178 187
1428.38 235.167 -1477.7 -0.220142 0.174211 -0.942394 208 205 215
1481.1 223.819 -1476.88 0.0668571 0.186274 -0.961564 206 202 213
1473.65 229.469 -1477.23 0.226426 0.105283 -0.965615 206 202 213
1480.37 225.214 -1476.71 0.0967108 0.174903 -0.96405 206 202 213
1472.79 238.553 -1477.1 0.313725 -0.0438674 -0.93591 206 202 212
1477.54 235.766 -1475.65 0.212524 0.0779745 -0.977145 207 203 214
1487.94 165.713 -1472.37 0.355869 -0.389323 -0.81414 168 167 175
1482.08 167.719 -1476.26 0.324028 -0.344931 -0.833445 167 166 176
1491.99 166.182 -1471.32 0.369505 -0.349757 -0.792873 163 162 171
1486.92 171.766 -1477.26 0.258448 -0.347339 -0.849972 160 160 172
1489.61 172.441 -1476.88 0.256577 -0.350168 -0.843489 159 159 172
1495.2 176.066 -1477.05 0.272612 -0.346447 -0.810069 165 165 176
1498.05 179.96 -1477.33 0.318117 -0.309593 -0.840052 169 168 179
1502.03 182.782 -1476.46 0.38247 -0.25746 -0.870793 166 166 178
1504.42 181.769 -1474.91 0.371694 -0.191017 -0.892658 153 154 170
1508.55 189.182 -1475.01 0.385878 -0.132802 -0.885613 154 155 171
1503.21 191.077 -1478.2 0.378934 -0.163208 -0.906076 173 172 184
1372.19 -1102.38 -1465.23 0.120576 0.219309 -0.952499 94 83 73
1368.74 -1100.29 -1464.58 0.0955554 0.152793 -1.00614 86 75 65
1244.72 -601.558 -1464.89 -0.420014 -0.396515 -0.754788 19 16 28
1251.94 -605.846 -1464.57 -0.312704 -0.456672 -0.776124 20 17 28
1257.78 -602.397 -1467.36 -0.157739 -0.4059 -0.856654 21 17 29
1250.15 -601.399 -1466.59 -0.278409 -0.367349 -0.822356 20 17 28
1257.18 -597.878 -1468.76 -0.0886584 -0.266337 -0.926169 21 18 29
1239.76 -592.412 -1465.2 -0.557939 -0.23709 -0.709805 18 16 27
1244.58 -593.684 -1467.5 -0.312421 -0.267732 -0.823593 19 17 28
1240.19 -582.603 -1465.37 -0.626199 0.079402 -0.714411 16 15 25
1247.29 -586.861 -1469.27 -0.205996 -0.0511977 -0.896086 19 17 28
1425.26 -1163.69 -1465.16 0.554785 0.47726 -0.619249 122 100 91
1422.52 -1168.57 -1470.69 0.270825 0.800288 -0.467707 121 102 94
1420.42 -1159.56 -1469.13 0.397385 0.56211 -0.479119 131 117 110
1374.39 -1148.86 -1468.26 0.120812 0.983966 0.114347 161 163 161
1385.93 -1148.73 -1467.73 -0.0406027 0.983254 0.0838346 158 161 155
1386 -1149.45 -1464.91 -0.0369626 0.99294 0.0958918 157 159 154
1389.51 -1147.9 -1471.22 -0.0420198 0.93609 -0.0477406 149 149 142
1397.81 -1146.87 -1470.91 -0.0170807 0.855311 -0.169894 140 137 130
1399.36 -1145.94 -1467.31 -0.0873407 0.894117 -0.137384 135 131 124
1406.24 -1144.5 -1466.65 -0.0238946 0.851379 -0.225369 129 122 113
1416.52 -1151.62 -1469.14 0.361522 0.592441 -0.43926 131 118 109
1419.08 -1152.46 -1466.47 0.514221 0.49104 -0.455254 127 111 102
1415.99 -1149.45 -1467.25 0.380411 0.602492 -0.423173 128 113 104
1427.17 -1169.66 -1467.56 0.398041 0.757118 -0.482472 118 97 88
1434.24 -1174.49 -1468.65 0.335102 0.867942 -0.350804 81 64 58
1435.72 -1173.9 -1466.19 0.347297 0.849659 -0.366275 78 63 57
1448.98 -1176.6 -1468.62 0.0370889 0.967696 -0.209768 0 0 0
1441.19 -1175 -1464.89 0.234056 0.904735 -0.328114 48 39 35
1438.63 -1155.01 -1469.34 0.0746508 0.790516 -0.167434 103 97 92
1444.38 -1158.47 -1468.43 0.189455 0.819891 -0.133039 77 69 64
1448.77 -1157.44 -1464.82 0.226331 0.840906 -0.24154 71 64 57
1459.68 -1170.92 -1470.78 -0.119222 0.983273 -0.110542 2 2 2
1460.45 -1170.52 -1468.67 -0.0940225 0.971481 -0.162587 8 8 7
1460.01 -1164.77 -1469.16 -0.026087 0.959356 -0.113075 27 25 24
1462.26 -1164.56 -1465.73 0.00786465 0.94427 -0.189469 28 27 25
1458.09 -1161.44 -1467.05 0.0634999 0.934074 -0.141623 44 41 37
1438.86 -1154.39 -1467.92 0.0602237 0.751435 -0.215373 112 105 99
1441.41 -1147.66 -1467.26 -0.154433 0.779798 -0.203851 159 157 154
1446.78 -1147.62 -1463.48 -0.00229876 0.861738 -0.0896319 155 153 151
1451.96 -1147.84 -1466.84 0.0168674 0.983175 -0.068474 141 141 138
1464.25 -1150.99 -1467.52 0.0684283 0.985936 -0.0324872 56 56 55
1465.61 -1151.36 -1467.7 0.0689761 0.983788 -0.0333607 50 50 49
1471.77 -1152.05 -1465.05 0.0821062 0.972655 -0.0824879 46 46 45
1477.3 -1150.41 -1465.88 0.00833859 0.983314 -0.077492 32 32 31
1479.52 -1149.68 -1465.99 -0.0219721 0.987812 -0.0831503 29 29 28
1508 -518.223 -1469.95 0.335969 0.148845 -0.91635 19 21 28
1507.28 -510.565 -1469.36 0.294482 0.141715 -0.924942 18 20 28
1502 -506.534 -1469.95 0.364759 0.15107 -0.908155 18 20 27
1507.79 -502.652 -1468.65 0.217896 0.0880042 -0.956303 18 21 28
1511.21 -526.243 -1470.22 0.290786 0.140237 -0.936789 19 20 28
1521.06 -523.137 -1468.21 0.0968848 0.197551 -0.969587 19 21 29
1511.18 -515.124 -1468.91 0.262335 0.152158 -0.933961 19 21 28
1516.14 -513.188 -1467.82 0.1779 0.114719 -0.963323 19 21 29
1522.62 -520.789 -1467.58 0.0976556 0.193677 -0.971903 19 21 29
1528.31 -521.8 -1467.01 0.118105 0.228063 -0.963494 20 21 29
1535.33 -526.225 -1467.46 0.159503 0.248491 -0.952117 20 21 28
1523.43 -519.234 -1467.2 0.10532 0.189377 -0.971994 19 21 29
1533.45 -518.935 -1465.6 0.158628 0.239296 -0.956331 20 22 28
1514.45 -508.815 -1467.92 0.177747 0.0795067 -0.967263 19 21 28
1518.53 -509.311 -1467.34 0.157694 0.0581059 -0.9745 19 20 28
1512.79 -501.745 -1467.85 0.177121 0.0668606 -0.970143 18 21 28
1520.17 -506.067 -1467.03 0.142046 0.0207168 -0.982442 18 20 28
1523.09 -513.007 -1466.64 0.13834 0.108595 -0.975065 19 21 29
1528.47 -510.021 -1465.47 0.175421 0.0857819 -0.970596 19 20 28
1525.55 -503.249 -1465.87 0.184138 0.0167298 -0.972723 18 20 27
1529.88 -501.844 -1465.08 0.217481 -0.00525546 -0.961559 19 21 28
1501.88 -496.971 -1469.58 0.309649 0.0547315 -0.903732 18 20 27
1506.32 -495.974 -1468.65 0.197719 0.0566708 -0.958261 19 21 28
1501.18 -484.835 -1469.94 0.293628 0.0108576 -0.856558 18 20 27
1508.05 -492.424 -1468.24 0.141617 0.0372665 -0.973347 19 21 28
1498.59 -479.39 -1470.99 0.388196 0.034719 -0.809586 18 20 27
1503.47 -484.069 -1469.32 0.234023 0.014794 -0.893349 19 21 28
1503.79 -476.011 -1468.99 0.280967 0.0565894 -0.89595 19 21 28
1509.34 -497.208 -1468.14 0.154577 0.0581075 -0.976834 19 21 28
1519.89 -492.972 -1464.95 0.321565 0.206404 -0.923175 19 21 28
1517.82 -497.847 -1466.5 0.203871 0.0894237 -0.962154 19 21 28
1512.67 -489.314 -1466.87 0.193009 0.0615816 -0.966677 19 21 28
1519.62 -488.987 -1464.57 0.329707 0.17003 -0.923735 19 21 28
1528.72 -496.271 -1465.06 0.192616 0.0828136 -0.947171 19 21 28
1534.21 -493.527 -1464.78 0.245267 0.0035928 -0.938687 21 23 29
1533.95 -491.488 -1464.55 0.198867 0.0811496 -0.937502 20 22 28
1511.95 -483.041 -1466.72 0.199349 0.0521619 -0.960292 19 21 28
1512.73 -476.617 -1465.97 0.266454 0.0873352 -0.94531 19 21 28
1517.42 -477.965 -1464.31 0.328959 0.0956688 -0.934521 19 21 28
1537.33 -526.344 -1467.22 0.166406 0.235167 -0.952129 20 21 27
1546.63 -523.331 -1465.17 0.145954 0.153048 -0.954243 21 22 26
1545.97 -517.79 -1464.78 0.0433072 0.143302 -0.974669 19 21 26
1552.59 -522.824 -1465.12 0.195149 0.109662 -0.927644 21 21 26
1553.88 -521.942 -1464.97 0.203312 0.0977244 -0.921665 21 21 27
1556.2 -519.384 -1464.85 0.185933 0.0670678 -0.925675 21 21 27
1264.2 146.463 -1466.47 -0.176025 -0.371816 -0.847932 175 170 182
1267.9 146.837 -1467.08 -0.157255 -0.36527 -0.850354 178 172 184
1272.45 149.749 -1467.84 -0.128569 -0.194601 -0.878488 186 180 192
1263.36 156.448 -1467.17 -0.143129 0.304461 -0.861036 205 200 209
1275.43 151.292 -1467.5 -0.0855226 -0.0804455 -0.890264 190 185 196
1276.99 149.828 -1467.4 -0.0993843 -0.160712 -0.87838 187 181 192
1288.03 144.503 -1470.76 -0.180188 -0.462453 -0.804916 179 174 184
1277.96 154.506 -1465.46 0.0258607 0.142196 -0.889309 200 194 204
1285.53 149.358 -1469.52 -0.193147 -0.0243321 -0.900982 192 187 197
1301.72 136.257 -1466.8 -0.138745 -0.748069 -0.650593 157 152 161
1295.17 140.203 -1469.74 -0.153604 -0.509758 -0.820015 176 171 180
1298.79 137.966 -1468.07 -0.150671 -0.649105 -0.721926 165 160 169
1307.24 135.455 -1466.45 -0.0765299 -0.772721 -0.638983 154 149 157
1303.18 138.643 -1470.17 -0.0915273 -0.617696 -0.76258 170 165 174
1312.18 140.064 -1471.67 0.00296361 -0.579121 -0.843036 177 172 180
1293.7 152.792 -1467.35 -0.155455 0.397306 -0.810869 208 202 211
1299.48 153.981 -1465.78 -0.070503 0.549776 -0.735441 213 206 215
1301.17 152.26 -1469.61 -0.0751737 0.393879 -0.851881 209 203 211
1308.87 152.538 -1468.26 0.0527962 0.426083 -0.836003 210 204 213
1313.67 153.455 -1465 0.0154208 0.526935 -0.694701 212 205 214
1314.93 151.105 -1469.86 0.0443616 0.397353 -0.843074 211 204 213
1269.89 156.818 -1466.21 -0.0059999 0.27648 -0.856164 205 200 210
1330.09 134.629 -1467.51 -0.0959971 -0.797965 -0.614417 154 149 155
1320.04 139.584 -1471.33 -0.0737342 -0.570485 -0.824226 178 172 180
1331.25 134.042 -1466.24 -0.027464 -0.813161 -0.612983 151 147 152
1343.68 135.121 -1467.54 0.052098 -0.827551 -0.578312 153 149 154
1338.15 134.084 -1466.39 0.0318746 -0.806902 -0.56857 153 149 154
1323.05 153.347 -1465.07 -0.0726406 0.617625 -0.637982 216 209 218
1327.06 151.939 -1469.79 -0.176216 0.569201 -0.736509 219 212 221
1334.45 153.068 -1466.89 -0.104662 0.709198 -0.616578 222 215 224
1339.3 153.282 -1467.24 -0.0613147 0.734066 -0.603408 224 217 226
1348.93 135.361 -1467.93 0.00513751 -0.830975 -0.590271 152 148 153
1355.82 133.43 -1466.35 -0.163049 -0.791683 -0.600895 150 146 151
1346.72 137.509 -1470.86 0.0526911 -0.751629 -0.648166 159 154 160
1363.08 132.042 -1468.12 -0.25343 -0.691388 -0.670137 152 148 153
1359.7 135.565 -1470.46 -0.232092 -0.774399 -0.593226 153 148 154
1371.57 130.507 -1468.9 -0.130149 -0.667562 -0.717402 154 150 155
1349.21 155.193 -1470.25 -0.426642 0.652501 -0.541202 213 206 215
1352.18 157.793 -1468.84 -0.579836 0.65378 -0.468316 205 198 207
1357.71 166.365 -1467.14 -0.776733 0.484743 -0.408515 178 171 181
1360.83 169.638 -1469.48 -0.787655 0.476251 -0.416387 180 174 183
1364.73 176.556 -1467.9 -0.800191 0.499847 -0.369517 179 173 182
1367.53 181.13 -1468.25 -0.813806 0.480106 -0.348808 179 173 182
1457.18 94.6483 -1466.46 -0.123844 0.440359 -0.854622 223 219 225
1462 91.1603 -1467.83 -0.00797604 0.168719 -0.88441 219 215 221
1456.44 95.993 -1465.59 -0.158644 0.48052 -0.838496 223 219 225
1460.44 94.2309 -1467.42 -0.0993282 0.362433 -0.883771 224 219 225
1471.83 90.4363 -1466.99 0.0334992 -0.051181 -0.945689 182 180 190
1475.06 93.4829 -1467.64 0.0253927 -0.0448649 -0.972479 170 168 181
1467.87 98.1826 -1467.42 -0.153975 0.222886 -0.92489 214 210 216
1469.29 96.8103 -1467.84 -0.0911816 0.162471 -0.937488 205 202 209
1480.95 99.9026 -1467.56 0.148513 -0.078698 -0.939356 169 167 180
1471.1 106.585 -1465.89 -0.247229 0.228518 -0.911896 216 212 218
1476.18 104.842 -1467.63 -0.0705164 0.122571 -0.941511 198 194 203
1469.53 109.066 -1464.52 -0.299804 0.252778 -0.884476 220 216 221
1476.86 109.21 -1466.73 -0.0913431 0.170338 -0.917939 202 199 206
1485.14 160.067 -1470.74 0.39592 -0.362047 -0.814701 181 178 183
1489.88 158.175 -1467.9 0.377847 -0.274524 -0.815576 181 178 183
1489.87 164.767 -1470.91 0.378556 -0.37939 -0.800336 169 167 175
1497.31 166.934 -1469.59 0.35523 -0.31253 -0.764629 163 162 171
1507.49 168.238 -1466.08 0.305723 -0.390378 -0.699135 155 155 168
1504.9 168.809 -1467.91 0.305588 -0.407432 -0.728748 162 161 172
1510.45 168.41 -1464.93 0.359665 -0.424573 -0.661911 143 144 160
1512.83 174.185 -1467.08 0.404328 -0.422715 -0.697741 137 139 158
1520.83 174.465 -1464.81 0.424045 -0.324215 -0.74348 137 139 159
1514.52 180.361 -1469.03 0.367627 -0.309277 -0.784109 144 145 163
1520.9 179.652 -1466.13 0.432703 -0.321634 -0.762394 142 144 162
1523.47 180.815 -1465.51 0.397362 -0.266388 -0.808012 147 148 165
1520.15 187.635 -1468.47 0.411705 -0.241723 -0.836203 150 151 167
1517.9 192.116 -1470.67 0.446979 -0.180193 -0.869413 147 149 167
1523.02 186.82 -1466.73 0.394885 -0.239297 -0.831572 154 155 169
1527.38 194.729 -1466.84 0.389742 -0.169925 -0.8778 162 162 177
1533.15 196.609 -1465.34 0.321478 -0.0841831 -0.923845 150 151 171
1525.26 202.581 -1470.12 0.393017 -0.216926 -0.872082 207 204 211
1527.35 199.942 -1468.54 0.383429 -0.210064 -0.87249 185 184 194
1533.43 200.145 -1466 0.352552 -0.124533 -0.90112 161 162 178
1531.41 207.59 -1469.24 0.315136 -0.221356 -0.870886 204 202 209
1533.71 205.589 -1467.46 0.35337 -0.185149 -0.878675 185 185 196
1369.68 -1112.41 -1460.37 -0.238408 0.645015 -0.628895 144 138 132
1364.01 -1101.04 -1459.87 0.0738538 0.227725 -0.899797 96 86 77
1367.24 -1105.51 -1462.82 -0.00537833 0.258255 -0.923425 98 88 80
1353.92 -1088.24 -1459.42 -0.0610571 0.0873661 -0.93249 99 88 79
1358.84 -1094.82 -1458.75 0.00645152 0.0884472 -0.912373 99 89 79
1359.62 -1092.41 -1460.68 -0.0635117 0.0803683 -0.991605 92 81 72
1360.52 -1090.45 -1461.59 -0.0673618 0.0958808 -1.00847 90 80 70
1369.85 -1089.84 -1463.98 0.120141 0.171607 -0.97 93 83 73
1352.12 -1083.94 -1459.98 -0.179768 0.085963 -0.986004 94 84 73
1351.27 -1078.35 -1459.86 -0.218295 0.123012 -0.938899 95 86 74
1351.22 -1073.95 -1459.65 -0.239491 0.1507 -0.919528 96 87 75
1365.14 -1086.92 -1463.17 0.0166536 0.139896 -0.996627 91 81 71
1362.64 -1081.58 -1462.63 -0.0208119 0.134315 -0.998797 94 82 71
1368.3 -1085.68 -1463.03 0.113907 0.154957 -0.972187 94 83 72
1364.63 -1077.31 -1462.36 0.101659 0.132963 -0.967981 98 85 73
1370.73 -1074.62 -1461.55 0.349405 0.127828 -0.914615 102 88 74
1355.57 -1069.9 -1460.19 -0.23479 0.160645 -0.940005 97 86 74
1357.09 -1059.91 -1457.75 -0.307207 0.170019 -0.910827 98 87 75
1359.72 -1072.48 -1461.54 -0.0843455 0.141077 -0.982761 96 85 72
1369.35 -1070.61 -1461.41 0.330262 0.0978392 -0.916754 102 88 74
1362.34 -1063.7 -1460.65 0.0331902 0.10441 -0.932809 100 87 74
1364.59 -1064.01 -1461.11 0.148926 0.0839675 -0.93626 101 87 74
1359.24 -1059.69 -1458.79 -0.186896 0.14643 -0.919682 99 87 75
1366.38 -1054.5 -1460.7 0.216881 0.0158515 -0.916466 102 88 74
1368.13 -1057.99 -1460.83 0.298447 0.00558757 -0.909611 103 89 74
1368.11 -1046.68 -1460.77 0.162558 -0.0285562 -0.862831 102 89 74
1362.88 -1045.2 -1458.47 -0.107026 0.0346019 -0.793692 103 89 75
1370.26 -1045.31 -1461.12 0.237311 -0.0583838 -0.871692 102 89 74
1366 -1035.78 -1458.8 -0.26832 -0.0320936 -0.619632 107 91 77
1367.63 -1032.88 -1458.57 -0.254033 -0.042488 -0.617514 108 91 78
1369.32 -1023.9 -1456.84 -0.116708 -0.0331065 -0.635155 111 94 83
1249.64 -609.933 -1461.22 -0.405595 -0.390937 -0.72275 21 17 29
1244.07 -613.176 -1458.18 -0.514784 -0.243411 -0.676052 22 19 29
1250.41 -610.211 -1461.16 -0.384519 -0.417648 -0.728418 20 17 28
1261.19 -612.58 -1460.81 -0.0869977 -0.714246 -0.699642 23 19 29
1234.67 -592.677 -1459.56 -0.761435 -0.0472534 -0.58989 19 17 27
1234.47 -586.47 -1459.69 -0.771417 0.0309774 -0.618289 16 15 25
1238.32 -603.99 -1460.19 -0.626717 -0.232293 -0.638009 22 20 30
1246.39 -603.714 -1464.33 -0.422978 -0.405723 -0.746308 20 17 28
1234.88 -601.366 -1458.34 -0.776527 -0.0438518 -0.544846 22 21 29
1250.05 -609.254 -1461.79 -0.389969 -0.411731 -0.73125 20 17 28
1236.4 -593.218 -1461.38 -0.697816 -0.132593 -0.625184 19 17 27
1236.13 -581.863 -1461.12 -0.756999 0.1068 -0.645197 15 14 24
1546.74 -632.87 -1463.06 0.402512 -0.628916 -0.672789 16 14 22
1554.16 -629.434 -1462.38 0.424181 -0.620715 -0.663997 17 15 22
