ply
format ascii 1.0
comment Created by Open3D
element vertex 717
property double x
property double y
property double z
property double nx
property double ny
property double nz
property uchar red
property uchar green
property uchar blue
end_header
-266.476 -413.284 -1589.71 -0.941409 0.0534232 -0.284024 203 200 207
-267.174 -398.821 -1591.25 -0.935355 -0.112379 -0.28168 200 197 205
-268.895 -389.045 -1589.68 -0.926714 -0.084686 -0.321057 201 198 206
-269.732 -375.298 -1587.71 -0.936841 -0.00761744 -0.250954 202 199 208
-269.328 -368.129 -1588.8 -0.92931 0.0352804 -0.282494 205 203 212
-269.179 -352.525 -1588.74 -0.955587 -0.040621 -0.255027 209 207 217
-266.44 -398.171 -1593.49 -0.945123 -0.105975 -0.25659 199 196 205
-47.7648 -1196.66 -1593.14 0.912216 -0.191838 -0.363405 39 28 29
-46.1851 -1190.29 -1589.87 0.917888 -0.161272 -0.360851 53 40 39
-46.3758 -1187.12 -1591.17 0.916377 -0.154801 -0.368144 63 49 47
-43.4148 -1170.95 -1591.5 0.886789 -0.14045 -0.423739 148 117 102
-62.8752 -976.647 -1593.16 0.73752 0.230564 -0.631273 173 169 168
-61.6016 -972.803 -1589.98 0.706816 0.237302 -0.651723 174 171 170
-70.0194 -952.75 -1594.45 0.774739 0.186289 -0.603893 165 163 161
-17.6652 -1006.16 -1594.47 0.739636 -0.125874 -0.624367 183 179 181
-9.40811 -992.647 -1593.05 0.805811 -0.209341 -0.55446 183 180 183
-14.7448 -989.825 -1592.39 0.79685 -0.205179 -0.549921 184 180 183
-15.3251 -983.876 -1591.85 0.812937 -0.228426 -0.532274 185 182 185
-11.6721 -979.797 -1589.34 0.711687 -0.19216 -0.609999 183 180 182
-2.24439 -979.958 -1592.71 0.789087 -0.199228 -0.569837 178 175 178
-15.5789 -971.933 -1591.56 0.77215 -0.189406 -0.556368 181 178 181
-17.6794 -967.947 -1592.66 0.79911 -0.19386 -0.536251 180 177 179
-12.3356 -965.055 -1588.86 0.684093 -0.134165 -0.6155 180 178 179
3.18102 -968.053 -1589.59 0.80105 -0.197588 -0.557016 180 177 179
-21.4116 -958.292 -1594.01 0.755755 -0.159308 -0.576706 180 177 179
-18.4187 -953.274 -1592 0.783049 -0.18665 -0.560116 180 177 180
5.08062 -962.176 -1590.93 0.809862 -0.19337 -0.545604 179 176 179
-100.582 -930.875 -1594.1 -0.341692 -0.0732404 -0.180634 140 137 136
-90.7385 -927.295 -1593.14 0.326245 0.046162 0.558872 103 99 99
-85.6261 -926.29 -1592.91 0.465789 0.0646085 0.152159 117 114 113
-70.1697 -944.348 -1590.66 0.814511 0.166071 -0.556151 171 169 167
-72.1774 -939.123 -1595.4 0.794079 0.138247 -0.519839 170 168 166
-72.1364 -937.184 -1595.39 0.800022 0.131903 -0.513834 171 169 167
-74.9001 -926.024 -1593.31 0.852303 0.147491 -0.648433 160 158 156
-57.5057 -925.001 -1592.96 0.166538 0.0712021 0.01901 167 165 163
-90.7691 -910.886 -1594.28 -0.00144135 -0.304878 0.995674 76 72 72
-100.142 -903.699 -1594.26 0.279529 -0.063799 0.886849 133 129 130
-98.5716 -898.76 -1592.6 0.0790847 -0.124981 0.919423 108 104 105
-95.062 -896.708 -1591.85 -0.0632594 -0.147143 0.952872 87 84 84
-79.4582 -905.495 -1594.29 -0.248505 -0.169957 0.898081 126 123 123
-80.8475 -903.078 -1593.66 -0.132493 -0.188419 0.891023 114 112 112
-74.3074 -920.201 -1594.64 0.118686 0.108463 -0.06335 161 160 157
-247.862 -113.996 -1588.58 -0.913102 -0.27922 0.263152 214 216 231
-250.502 -110.873 -1592.34 -0.9015 -0.191286 0.0945798 220 223 239
-253.868 -92.9564 -1590.36 -0.859917 -0.234679 0.19977 228 231 241
-254.042 -91.5333 -1589.13 -0.860819 -0.251001 0.227845 227 230 240
-256.382 -80.1211 -1592.21 -0.837914 -0.0595463 -0.261582 225 229 244
-257.388 -71.2062 -1589.52 -0.799236 0.0382953 -0.469924 220 224 239
-257.208 -63.5021 -1588.89 -0.736965 0.0988865 -0.614262 228 232 246
-255 -52.5505 -1589.53 -0.660021 0.0618224 -0.742191 231 235 250
-249.995 -56.4025 -1593.51 -0.607596 0.123143 -0.789376 234 237 252
-255.744 -40.9131 -1588.48 -0.701687 -0.0601716 -0.688313 221 224 242
-249.475 -39.0475 -1595.32 -0.74336 -0.216353 -0.568763 209 211 228
-253.274 -24.929 -1594.1 -0.734286 -0.0225802 -0.639241 192 193 209
5.96032 -1113.51 -1594.35 0.551521 0.213319 -0.0841396 162 142 134
5.05594 -1106.4 -1590.96 0.360367 0.0355793 -0.615429 183 174 172
3.21939 -1105.85 -1597.27 0.388955 0.0691403 -0.667181 180 170 166
4.0064 -1097.65 -1593.08 0.355869 -0.00884653 -0.531984 187 179 177
5.30101 -1100.3 -1589.93 0.334756 -0.00131593 -0.460938 189 181 180
3.73311 -1082.09 -1595.36 0.378113 -0.0491118 -0.448597 183 174 171
1.0592 -1082.44 -1598.8 0.391091 -0.0293527 -0.590687 182 174 171
6.08939 -1095.1 -1589.05 0.3282 -0.0566158 -0.189693 187 179 177
6.86009 -1079.9 -1591.51 0.367439 -0.0687109 -0.309372 183 175 172
-293.625 93.564 -1595.86 -0.500841 0.016193 -0.784982 224 224 232
-298.996 97.0225 -1600.05 -0.477679 0.0370338 -0.795874 224 224 232
-293.427 89.2807 -1594.77 -0.512774 0.00539545 -0.779402 223 224 232
-288.536 96.5833 -1593.69 -0.479385 0.035042 -0.79537 224 224 232
-285.578 97.1824 -1591.84 -0.47585 0.0371494 -0.797749 224 224 232
-291.963 108.973 -1598.2 -0.4784 0.034268 -0.797416 224 224 232
-287.399 104.168 -1593.95 -0.475327 0.0346014 -0.800917 224 225 232
-285.449 111.478 -1594.75 -0.472044 0.0344286 -0.805372 225 225 232
-282.842 121.065 -1596.62 -0.480886 0.0334988 -0.79479 224 224 232
-280.546 118.969 -1594.86 -0.481435 0.0332671 -0.794715 224 224 232
-287.989 113.853 -1597.26 -0.475961 0.0341935 -0.800696 224 224 232
-285.815 135.535 -1601.45 -0.473873 0.0348024 -0.798835 224 224 231
-280.732 133.215 -1599.02 -0.467055 0.0388298 -0.802207 224 224 231
312.99 166.39 -1588.99 0.332301 0.203651 0.901819 254 225 206
294.451 176.57 -1589.06 0.331847 0.245456 0.877733 251 222 204
296.853 179.669 -1593.96 0.319519 0.222852 0.882902 248 220 202
305.73 175.505 -1595.47 0.334261 0.223388 0.890165 254 225 206
315.804 171.567 -1595.61 0.330471 0.214238 0.891349 253 224 205
316.068 168.55 -1592.62 0.331055 0.205961 0.896216 253 224 206
-101.958 305.015 -1592.02 -0.182182 0.184444 -0.666311 67 60 62
-102.363 304.552 -1594.88 -0.229803 0.195588 -0.614649 73 63 65
-89.7129 306.335 -1599.41 0.606866 -0.010585 -0.437903 78 56 56
-93.9827 313.754 -1590.42 0.593941 -0.097747 -0.471391 46 38 40
-92.398 319.601 -1589.23 0.494112 -0.0365852 -0.535377 47 39 40
-97.8045 330.208 -1589.28 0.0017889 0.0186288 -0.497751 45 39 42
-83.5981 321.962 -1588.22 0.476037 0.0303043 -0.620728 46 39 41
-91.0563 335.854 -1591.13 0.273992 -0.0841404 -0.421252 46 39 42
-91.8848 338.458 -1591.43 0.227465 -0.112753 -0.38024 46 38 42
-98.3715 339.437 -1590.64 -0.0495559 -0.122517 -0.368161 43 37 41
-78.3372 338.33 -1590.05 0.571969 -0.0922199 -0.450368 49 40 42
-84.7752 333.351 -1590.24 0.445367 -0.0464751 -0.491274 48 39 42
-79.1147 331.767 -1588.84 0.4994 0.0143769 -0.582267 49 40 42
-93.8024 354.205 -1594.59 0.135685 -0.388798 -0.475487 37 33 39
-81.077 345.904 -1592.16 0.564748 -0.217632 -0.352693 47 39 42
-86.546 347.403 -1593 0.395189 -0.255924 -0.385746 44 37 41
-95.2235 371.828 -1599.72 -0.155199 -0.590235 -0.771993 28 29 39
-90.4312 367.185 -1599.21 -0.075509 -0.53586 -0.708455 31 31 40
-96.4456 359.386 -1595.36 0.0457222 -0.489998 -0.59488 33 31 38
-100.461 376.305 -1601.26 -0.161326 -0.606643 -0.760654 26 27 37
-255.462 -910.376 -1587.32 -0.93818 -0.184914 -0.268777 182 179 182
-210.376 -999.689 -1587.56 -0.601643 -0.0855285 -0.755436 173 172 170
-209.163 -981.311 -1587.65 -0.591877 -0.08078 -0.752377 171 170 168
-171.66 -995.611 -1581.71 -0.228816 -0.0485034 -0.954712 163 163 161
-165.939 -1002.55 -1583.36 -0.283563 -0.033494 -0.950891 166 166 163
-170.828 -992.869 -1581.41 -0.169378 -0.0104858 -0.967416 161 161 159
-158.564 -994.745 -1584.6 -0.327964 0.13508 -0.919855 163 162 159
-211.873 -976.746 -1585.88 -0.609476 -0.0629814 -0.724376 172 171 170
-206.19 -962.656 -1586.64 -0.46866 0.0216508 -0.776369 156 156 154
-208.139 -956.627 -1583.2 -0.425198 0.140075 -0.771109 157 156 155
-204.934 -955.93 -1584.31 -0.388445 0.202914 -0.782891 155 155 153
-156.447 -995.581 -1585.69 -0.379902 0.14255 -0.900266 164 162 159
-152.465 -988.376 -1585.04 -0.378274 0.265166 -0.876341 162 161 158
-151.57 -981.683 -1582.51 -0.363128 0.357288 -0.854048 161 159 157
-143.075 -979.772 -1585.85 -0.384642 0.372538 -0.842416 164 162 160
-141.532 -973.92 -1583.49 -0.355572 0.396739 -0.829215 163 161 159
-136.942 -969.268 -1582.94 -0.328918 0.430193 -0.803864 163 161 159
-131.704 -963.273 -1581.49 -0.418335 0.527424 -0.7508 166 164 163
-124.673 -963.861 -1587.82 -0.437587 0.395864 -0.768098 170 167 166
-118.421 -954.311 -1585.2 -0.474124 0.357464 -0.713372 178 176 176
-263.294 -670.045 -1581.36 -0.959106 -0.0888631 0.00656164 189 190 192
-264.878 -663.186 -1582.28 -0.974311 -0.0453007 -0.0677395 190 191 194
-264.55 -651.251 -1581.38 -0.973995 0.0808797 -0.160484 187 187 190
-263.942 -641.128 -1583.63 -0.970808 -0.0154252 -0.140413 185 184 187
-263.229 -633.917 -1586.1 -0.983911 0.00711241 -0.0683157 183 182 185
-266.928 -596.88 -1581.6 -0.928618 -0.125871 -0.0685983 188 186 188
-268.612 -583.085 -1582.86 -0.967234 -0.118495 0.108983 188 187 189
-268.683 -581.263 -1581.78 -0.954291 -0.111729 0.0859622 188 187 188
-263.816 -621.603 -1586.31 -0.924326 -0.068725 -0.110744 184 184 185
-264.256 -612.765 -1581.15 -0.764061 0.0201393 -0.159603 188 186 188
-266.692 -601.518 -1587.61 -0.0501635 0.211671 -0.726705 202 202 202
-271.966 -556.298 -1586.64 -0.913623 -0.0542444 0.0996154 187 187 189
7.18619 -1047.52 -1585.1 -0.304842 0.0392828 -0.920274 176 172 174
8.81448 -1042.09 -1585.63 -0.157387 0.11661 -0.962478 177 173 175
7.46657 -1039.68 -1584.18 -0.174258 0.116823 -0.954767 173 169 170
21.2268 -1039.48 -1587.38 0.0740171 0.175834 -0.913502 180 176 177
55.1254 -1055.54 -1581.98 0.774205 -0.253902 0.505788 200 192 191
57.3036 -1049.16 -1582.05 0.827566 -0.236868 0.299439 199 192 191
8.91832 -1032.28 -1582.5 -0.0483044 0.257246 -0.960289 168 164 165
24.5869 -1028.83 -1581.9 0.254747 0.279613 -0.892272 181 177 179
28.1483 -1021.11 -1586.79 0.50082 0.109369 -0.785533 179 174 173
28.3469 -1007.55 -1586.93 0.367268 0.0630671 -0.916078 181 176 176
58.189 -1006.54 -1587.01 0.795182 0.0986684 -0.553064 205 197 197
61.2173 -1038.88 -1582.83 0.92706 -0.192628 0.101997 199 190 190
61.3733 -1019.62 -1584.99 0.832352 0.0494209 -0.168546 197 189 190
-47.5864 -1000 -1585.83 0.563128 0.191097 -0.800624 174 172 170
-49.406 -986.887 -1585.11 0.562674 0.158561 -0.806732 172 170 167
-64.4244 -893.657 -1583.34 -0.722783 -0.110387 0.709282 172 170 168
-66.4953 -888.076 -1583.73 -0.712975 -0.115887 0.715717 169 167 165
-67.4481 -879.39 -1583.07 -0.743863 -0.0765837 0.65282 169 167 166
-67.676 -869.383 -1583.08 -0.795502 -0.0313901 0.628716 170 168 166
-69.7995 -860.166 -1585.42 -0.646535 -0.0534099 0.739598 164 161 160
-69.5111 -848.827 -1582.13 -0.724189 -0.0905601 0.678381 162 159 159
-72.8193 -845.075 -1585.82 -0.615558 -0.0835433 0.803997 153 150 152
-34.5359 -894.614 -1586.06 0.297688 -0.200043 -0.473678 178 175 174
-31.5607 -893.847 -1586.03 0.30972 -0.196386 -0.507458 179 175 175
-34.4714 -886.775 -1581.02 0.227675 -0.257649 -0.189094 174 169 170
-26.6547 -888.193 -1583.98 0.243041 -0.229627 -0.296859 176 172 172
-73.5508 -835.3 -1584.94 -0.567072 -0.00289938 0.723557 138 136 137
-252.748 10.0626 -1583.83 -0.757048 -0.0451707 -0.647096 240 242 248
-251 16.8776 -1589.18 -0.739328 -0.0807779 -0.651291 241 241 247
-253.886 26.5685 -1585.01 -0.759899 -0.0918424 -0.642224 252 253 255
-276.928 74.8288 -1581.89 -0.641964 -0.112994 -0.720683 220 222 232
-276.276 83.4125 -1585.84 -0.593062 -0.0721461 -0.745199 221 222 232
-256.434 34.3036 -1582.37 -0.758671 -0.0849351 -0.644824 254 254 255
-257.491 40.1158 -1581.35 -0.75086 -0.0696555 -0.654759 253 253 255
-255.203 51.4552 -1584.34 -0.76615 -0.0494862 -0.633353 232 234 240
-252.783 48.4936 -1587.27 -0.787583 -0.0537973 -0.610249 231 233 239
-261.736 69.3082 -1582.35 -0.74183 -0.185034 -0.614707 217 221 232
-262.952 74.3657 -1585.36 -0.743165 -0.192971 -0.603262 221 224 236
-279.726 88.822 -1587.68 -0.513683 0.00142429 -0.781401 223 224 232
-274.483 94.7186 -1586.76 -0.476411 0.0317424 -0.800276 224 224 232
-274.73 105.526 -1586.3 -0.454738 0.0397143 -0.821185 224 224 231
-271.053 108.926 -1587.14 -0.499257 0.0409789 -0.764142 221 221 228
-228.818 272.904 -1582.84 -0.0167881 0.856278 0.513237 120 108 110
209.729 59.1071 -1584.94 -0.100267 -0.692223 0.685743 96 92 102
217.105 57.9672 -1583.14 -0.128641 -0.653112 0.729893 76 63 73
226.11 58.7059 -1583.19 -0.050249 -0.588134 0.778632 73 49 58
244.382 68.7554 -1586.24 0.136153 -0.520654 0.752601 87 56 63
247.46 70.2573 -1587.47 0.112142 -0.52854 0.739373 88 62 66
253.496 78.2046 -1582.99 0.443273 -0.402728 0.740413 67 63 67
264.599 80.2512 -1586.97 0.00213975 -0.692176 0.69901 74 68 71
277.131 75.3901 -1585.52 -0.264621 -0.645549 0.66517 87 77 75
269.666 80.0604 -1585.63 -0.166825 -0.682591 0.678806 85 75 74
288.75 72.0853 -1586.6 0.0911183 -0.727925 0.640639 62 63 68
281.328 75.6846 -1583.56 -0.213699 -0.626595 0.686461 88 78 76
295.845 72.475 -1587.91 0.155035 -0.760559 0.620731 69 68 71
302.72 75.2415 -1586.57 0.0445042 -0.701027 0.679759 103 89 82
324.857 68.258 -1587.65 -0.189862 -0.671632 0.694362 100 84 77
312.56 78.2565 -1581.26 -0.164775 -0.690148 0.704734 154 123 99
314.811 73.225 -1585.81 -0.24506 -0.674998 0.681001 111 93 84
324.745 77.0957 -1581.98 -0.0402525 -0.578147 0.811484 154 120 97
330.074 73.9455 -1582.83 -0.164811 -0.549234 0.794868 142 111 91
341.211 62.0139 -1587.67 -0.313357 -0.68445 0.586234 92 79 74
341.743 69.5092 -1581.5 -0.365936 -0.404934 0.807832 124 99 80
353.86 68.7673 -1584.72 0.334876 -0.529957 0.730757 123 102 85
354.46 66.539 -1586.35 0.420932 -0.613105 0.659742 107 91 78
358.277 74.3575 -1583.73 0.284537 -0.518246 0.78219 164 133 107
-260.642 -902.634 -1576.98 -0.917911 -0.300284 -0.25435 189 186 189
-186.65 -996.772 -1575.67 -0.579808 -0.102124 -0.794136 172 171 169
-187.572 -986.745 -1576.67 -0.579539 -0.120169 -0.789747 162 161 159
-184.533 -1004.62 -1574.92 -0.528483 -0.0799681 -0.802275 179 177 176
-175.462 -1003.4 -1580.6 -0.38322 -0.12423 -0.905039 170 171 168
-182.85 -988.932 -1579.27 -0.468858 -0.113459 -0.853716 163 163 160
-174.946 -990.566 -1581.04 -0.247295 -0.047736 -0.937226 163 163 161
-173.809 -979.303 -1579.63 0.00428935 0.074599 -0.965844 157 157 155
-164.771 -986.553 -1580.42 -0.108025 0.195859 -0.954134 159 158 156
-164.721 -985.647 -1580.25 -0.0947788 0.207029 -0.953488 158 158 156
-195.291 -975.19 -1575.59 -0.605978 -0.318508 -0.722838 156 156 154
-186.761 -974.195 -1579.5 -0.391077 -0.0736643 -0.88518 156 156 154
-188.448 -970.24 -1578.83 -0.39503 -0.0564598 -0.877581 155 155 153
-193.077 -961.958 -1575.27 -0.434612 0.0531408 -0.844681 153 153 151
-184.533 -972.594 -1580.03 -0.299112 -0.0149629 -0.919494 156 156 154
-173.928 -977.086 -1579.57 0.0373033 0.0785891 -0.971916 156 156 154
-176.286 -970.896 -1579.78 0.0441306 0.0785961 -0.980712 154 154 152
-164.738 -976.86 -1577.79 0.142484 0.180624 -0.96402 154 154 152
-158.174 -973.999 -1576 0.166558 0.174675 -0.943259 152 152 150
-163.334 -966.764 -1574.76 0.286085 0.147962 -0.949589 151 150 148
-175.181 -962.265 -1577.8 0.0169759 0.192192 -0.942938 151 150 148
-177.532 -954.708 -1575.36 -0.142611 0.350927 -0.881604 149 149 147
-169.052 -957.094 -1575 0.179048 0.335425 -0.920436 150 149 146
-152.955 -974.643 -1578.36 -0.161954 0.346081 -0.87978 158 157 155
-150.072 -969.042 -1576.01 -0.176071 0.394083 -0.865629 159 157 155
-141.093 -967.637 -1579.5 -0.358475 0.483177 -0.805582 162 160 158
-134.705 -963.377 -1579.53 -0.398215 0.538009 -0.75977 164 162 160
-127.526 -957.903 -1579.87 -0.463595 0.503479 -0.697874 177 175 175
-121.252 -953.153 -1581.38 -0.51068 0.414076 -0.645228 183 182 182
-41.7601 -1197.87 -1579.02 0.941101 -0.174658 -0.290169 44 32 30
-40.8937 -1191.7 -1578.16 0.934996 -0.172336 -0.307217 60 46 42
-40.4625 -1188.96 -1577.67 0.932554 -0.174497 -0.312237 70 54 49
-40.0807 -1178.56 -1580.18 0.926435 -0.162161 -0.337446 115 91 80
-39.9465 -1174.59 -1581.01 0.919281 -0.162116 -0.357541 136 107 93
-36.6867 -1168.41 -1575.13 0.882654 -0.213431 -0.410427 164 129 110
-31.3476 -1150.89 -1577.51 0.788011 -0.36339 -0.469291 172 135 113
-28.2284 -1143.81 -1579.47 0.786489 -0.419812 -0.450582 164 127 109
-13.0453 -1151.68 -1576.62 0.595975 0.0602191 0.223898 175 146 129
-8.12739 -1144.05 -1574.2 0.589211 0.1473 0.156864 164 136 121
-24.1168 -1129.58 -1580.56 0.636541 -0.119931 -0.719665 178 163 157
-25.3378 -1116.71 -1579.5 0.373514 -0.0209942 -0.900039 188 182 179
-17.5545 -1131.44 -1575.01 0.552276 -0.204631 -0.686883 170 148 139
-2.2751 -1137.77 -1578.36 0.550641 0.355328 -0.150479 164 136 125
5.77668 -1131.9 -1576.69 0.438904 0.154555 0.0484049 178 160 155
-16.8973 -1117.27 -1575.07 0.402213 0.0441775 -0.799228 182 166 160
101.024 -71.6101 -1577.95 0.636298 0.177574 -0.759083 222 225 242
102.948 -77.1152 -1577.56 0.615804 0.231497 -0.753087 207 210 226
94.7271 -61.9431 -1580.44 0.497278 0.206103 -0.830249 230 231 250
93.629 -57.5749 -1580.3 0.415762 0.19729 -0.86913 230 233 251
105.198 -62.2082 -1574.85 0.537648 0.000484378 -0.827225 206 208 225
107.783 -53.5825 -1575.44 0.288238 -0.0865709 -0.94362 215 217 234
93.9631 -44.399 -1579.03 0.256867 0.0911419 -0.947113 228 231 250
94.009 -36.816 -1578.73 0.324378 0.0122355 -0.928247 223 225 244
100.436 -42.4614 -1577.46 0.1515 0.123832 -0.969811 217 219 237
112.001 -44.8674 -1574.22 0.0939774 0.135676 -0.930554 203 204 221
103.626 -44.2321 -1577.2 0.0962695 0.133255 -0.98989 218 220 238
99.5781 -31.2475 -1575.49 0.307479 0.124054 -0.922522 192 194 211
92.0112 -30.0556 -1579.95 0.45331 -0.0623682 -0.887987 226 228 247
103.613 -36.5507 -1575.46 0.106379 0.241737 -0.949368 189 191 208
95.2194 -24.6631 -1577.97 0.491363 -0.00263924 -0.869546 225 228 246
95.3448 -10.7488 -1575.62 0.63193 0.0715273 -0.768062 217 220 238
96.1322 -6.9801 -1574.64 0.6619 0.0321483 -0.733427 216 219 237
96.3625 0.268436 -1575.74 0.683057 -0.14651 -0.683721 212 216 232
100.946 5.80877 -1574.54 0.441006 -0.255064 -0.81786 203 207 220
-200.489 -936.905 -1575.98 -0.226789 0.54616 -0.80738 151 151 149
-191.066 -934.979 -1579.15 -0.220864 0.542644 -0.805964 152 152 150
-172.655 -924.894 -1575.42 0.00380179 0.470715 -0.824301 161 160 158
-175.589 -933.545 -1581.39 0.00274268 0.516199 -0.831326 159 158 156
-182.303 -926.43 -1575.42 -0.00916339 0.531596 -0.834277 158 157 155
-180.242 -935.714 -1582.25 -0.0285755 0.537615 -0.830668 157 157 154
-161.467 -926.586 -1576.19 0.0215389 0.518121 -0.843469 161 160 158
-167.349 -925.211 -1575.6 0.0103217 0.48231 -0.828058 160 159 157
-168.471 -933.346 -1581.97 0.0276574 0.514056 -0.833573 160 159 157
-145.728 -931.525 -1578.54 -0.0366869 0.452705 -0.754337 179 177 177
-148.492 -934.976 -1582.72 -0.0432199 0.469638 -0.783613 178 176 176
-155.183 -930.84 -1579.29 -0.0123437 0.496919 -0.820233 168 167 166
-134.454 -934.661 -1579.96 -0.0322351 0.362092 -0.624042 180 178 178
-141.76 -936.631 -1583.7 -0.0644592 0.436499 -0.788242 181 178 179
275.047 179.918 -1576.28 0.0672165 0.632108 0.712011 168 161 166
271.974 181.115 -1575.04 0.0233298 0.696199 0.688666 156 152 161
276.89 184.92 -1585.88 0.150353 0.489502 0.766231 191 178 177
282.545 172.774 -1575.77 0.252666 0.379019 0.798025 214 196 189
285.22 171.835 -1578.05 0.296819 0.338599 0.82307 230 208 195
280.737 179.647 -1582.1 0.177296 0.476634 0.7755 200 185 181
290.62 172.689 -1583.83 0.321181 0.321244 0.854488 248 221 203
303.111 171.264 -1588.68 0.343775 0.260626 0.878457 254 226 206
296.867 168.361 -1583.35 0.355375 0.334915 0.855658 255 228 208
167.034 223.745 -1576.95 0.328756 0.490422 0.71964 137 134 139
210.249 204.636 -1576.06 0.358383 0.610115 0.694071 120 122 131
198.242 210.219 -1578.29 0.358227 0.603307 0.695752 118 120 128
203.044 212.122 -1586.1 0.359734 0.609282 0.695005 116 118 127
240.629 199.516 -1587.58 0.169833 0.0481606 0.778529 196 171 160
-191.804 -1001.67 -1571.15 -0.567771 -0.0851797 -0.807346 182 181 180
-185.689 -1003.72 -1574.39 -0.544614 -0.0758687 -0.794833 179 177 176
-191.516 -993.85 -1572.35 -0.633244 -0.0620813 -0.764702 174 173 171
-191.76 -986.61 -1573.3 -0.660294 -0.0971379 -0.737177 165 163 161
-200.736 -971.658 -1571.15 -0.662413 -0.409128 -0.627167 156 156 154
-202.178 -967.17 -1572.13 -0.656263 -0.325206 -0.667435 155 155 153
-206.937 -958.741 -1568.5 -0.639667 -0.0732295 -0.736534 156 156 154
-204.157 -952.729 -1568.15 -0.514308 0.16523 -0.814073 156 156 153
-196.423 -957.861 -1572.65 -0.436953 0.143969 -0.834746 153 153 151
-187.597 -953.757 -1572.93 -0.356488 0.252333 -0.826259 152 152 149
-182.008 -951.932 -1573.26 -0.270176 0.352033 -0.840282 150 150 148
-160.03 -960.53 -1572.42 0.207715 0.295285 -0.916017 153 152 149
-160.419 -951.724 -1568.69 0.232621 0.409775 -0.88389 160 158 156
-156.227 -963.991 -1573.01 0.0857158 0.307144 -0.908322 155 154 151
-150.78 -958.803 -1569.78 0.0586262 0.387988 -0.900114 159 157 155
-148.955 -957.124 -1569.14 0.0479617 0.406 -0.890676 160 158 156
-141.442 -957.601 -1571.26 -0.196789 0.490034 -0.822837 164 162 161
-136.025 -952.299 -1569.81 -0.344907 0.518467 -0.772663 175 172 173
-207.4 -939.661 -1573.05 -0.23777 0.534003 -0.795874 152 152 150
-188.991 -950.231 -1570.45 -0.307783 0.38524 -0.825886 151 151 148
-198.896 -930.861 -1573.36 -0.235853 0.538862 -0.80518 151 151 149
-201.698 -926.226 -1568.82 -0.230962 0.544791 -0.812283 151 151 149
-193.695 -924.118 -1570.75 -0.170686 0.519838 -0.809865 154 154 152
-178.142 -948.717 -1571.96 -0.134633 0.475552 -0.855438 151 151 148
-174.707 -944.496 -1569.08 0.0214512 0.501086 -0.851032 156 156 153
-271.242 -357.718 -1569.73 -0.981189 -0.0218464 0.0153642 208 205 214
-37.8113 -1202.1 -1574.47 0.948331 -0.18705 -0.259673 29 21 19
-34.1243 -1202.16 -1568.7 0.946926 -0.208475 -0.234133 9 6 6
-24.6112 -1200.17 -1573.18 0.915855 -0.2025 -0.298938 74 58 50
-38.2026 -1186.77 -1569.99 0.937006 -0.222485 -0.267715 75 58 51
-37.5248 -1177.65 -1573 0.915475 -0.208588 -0.334549 131 103 89
-33.1152 -1170.87 -1566.82 0.837438 -0.314087 -0.439199 177 140 120
-16.5617 -1171.94 -1572.06 0.768215 -0.00650817 -0.244172 144 116 103
-33.4819 -1168.67 -1568.84 0.836833 -0.293479 -0.454011 176 139 118
-30.351 -1153.8 -1572.54 0.768598 -0.375384 -0.501844 176 138 115
-23.9783 -1146.5 -1570.04 0.685831 -0.462115 -0.543283 176 137 112
-15.5532 -1162.03 -1574.3 0.639575 0.0416744 0.127777 169 141 124
3.03102 -1155.42 -1569.84 0.803249 0.324862 0.415635 184 157 136
-11.1107 -1151.72 -1571.14 0.588173 0.00715356 0.186428 175 145 127
-3.23075 -1151.59 -1567.74 0.602784 0.0548951 0.359195 177 148 130
-1.6569 -1146.75 -1569.89 0.583927 -0.00253553 0.372027 172 145 130
2.03384 -1143.86 -1570.65 0.554021 0.047217 0.38374 169 146 134
-20.5752 -1141.84 -1570.84 0.650844 -0.475453 -0.563612 170 132 109
-13.2147 -1132.38 -1572.47 0.451172 -0.228079 -0.686325 171 148 137
-3.52395 -1140.5 -1573.96 0.560178 0.244678 0.106446 163 137 125
-5.35203 -1129.5 -1571.14 0.339956 -0.132014 -0.758169 177 159 151
-101.288 -729.826 -1574.15 0.73757 -0.166851 0.624342 139 138 139
-83.3063 -728.232 -1572.56 -0.63896 -0.223256 0.700567 145 142 143
-84.4298 -721.926 -1571.09 -0.499653 -0.299405 0.714129 140 137 138
-100.028 -712.879 -1568.24 0.679071 -0.20342 0.584478 136 134 135
-91.9885 -712.677 -1571.33 0.238099 -0.260507 0.797282 117 115 116
-93.3756 -710.869 -1571.01 0.328068 -0.225983 0.801693 115 112 114
-86.237 -712.903 -1568.89 -0.241569 -0.277461 0.795906 130 127 128
-97.4682 -705.24 -1568.97 0.578486 -0.131228 0.755725 116 113 115
-89.7139 -696.573 -1569.34 -0.140227 -0.0889154 0.884401 110 107 108
-88.7284 -696.638 -1568.81 -0.232359 -0.0973086 0.877171 113 110 111
-94.5242 -687.126 -1569.19 0.318007 -0.0586157 0.847745 105 102 103
-88.5364 -690.084 -1568.59 -0.297391 -0.0737394 0.863859 117 114 115
67.5037 -781.57 -1571.69 0.834929 -0.169538 -0.526899 204 200 203
67.3828 -767.585 -1573.37 0.825051 -0.00592502 -0.597899 212 207 210
68.8188 -761.506 -1567.19 0.89484 0.111503 -0.263241 209 203 206
67.531 -755.303 -1568.59 0.929188 0.215303 -0.158508 171 164 166
64.1193 -743.847 -1570.79 0.894002 0.131208 -0.335441 160 152 154
64.0983 -739.103 -1569.59 0.920734 0.0946532 -0.293358 169 161 164
-246.748 -123.703 -1571.8 -0.927297 0.193335 -0.278383 219 219 232
-246.192 -118.863 -1570.87 -0.93123 0.166539 -0.213456 217 218 229
-245.174 -104.624 -1573.46 -0.962332 -0.0284012 0.121282 212 213 225
-245.455 -93.7972 -1572.39 -0.951953 -0.0341507 0.134453 208 209 221
-246.584 -84.1154 -1571.81 -0.870138 -0.289767 0.258893 204 205 218
74.8875 -335.581 -1573.8 0.981157 0.0849774 -0.137484 220 216 229
67.2228 -316.162 -1567.81 0.883702 0.475706 -0.0391678 247 243 253
62.0907 -304.52 -1570.55 0.89335 0.339674 0.11314 235 232 241
57.3863 -290.383 -1571.15 0.894679 0.2828 0.0750511 236 233 244
57.0472 -288.469 -1572.42 0.913589 0.268998 0.0585141 236 233 244
52.125 -270.012 -1572.11 0.911086 0.311755 0.131448 229 227 240
46.323 -259.118 -1573.87 0.897158 0.413129 0.0435485 222 220 234
46.7014 -260.867 -1572.46 0.881056 0.443703 0.10052 221 220 233
45.0453 -242.479 -1572.09 0.963488 -0.0690162 -0.0135404 211 209 223
47.2938 -235.134 -1571.24 0.961649 -0.218307 -0.110376 208 207 221
47.5104 -223.938 -1571.88 0.982653 -0.0280506 -0.110886 207 206 218
48.6245 -210.737 -1571.02 0.965317 -0.139588 0.00265364 208 208 219
51.0699 -203.453 -1569.34 0.957797 -0.20115 -0.0541862 210 210 221
52.9308 -188.147 -1574.05 0.906056 -0.250775 0.27938 203 203 213
56.1383 -180.238 -1571.85 0.898207 -0.233293 0.216295 204 204 214
56.6974 -177.242 -1570.7 0.909241 -0.186085 0.196534 204 204 214
-64.0295 326.902 -1573.65 0.6974 -0.024918 -0.342451 43 36 40
-64.8406 331.065 -1573.17 0.698429 -0.00105504 -0.38479 45 37 40
-59.609 342.225 -1569.78 0.697504 -0.191663 -0.371186 50 41 42
334.179 85.977 -1573 -0.0280928 -0.572577 0.787077 201 166 139
339.998 97.5738 -1570.97 0.187894 -0.0908385 0.960443 228 196 173
342.106 97.6049 -1571.44 0.207075 -0.100939 0.957155 228 196 173
333.785 100.866 -1569.33 0.172009 -0.0577219 0.973923 233 200 179
338.561 112.935 -1571.73 0.205659 0.181402 0.935963 250 219 202
340.835 112.054 -1572.19 0.176911 0.176695 0.944657 249 219 200
349.9 107.862 -1572.52 0.169837 -0.00855135 0.959051 244 213 192
337.09 118.351 -1573.17 0.209172 0.381381 0.874972 254 226 208
344.546 115.236 -1573.39 0.0580464 0.278223 0.93255 253 223 204
-160.397 -945.739 -1566.22 0.200668 0.451728 -0.868797 165 164 161
-165.13 -941.699 -1565.71 0.159939 0.490774 -0.852893 162 161 158
-181.351 -934.762 -1561.31 -0.021455 0.548061 -0.82115 159 158 156
-166.186 -936.326 -1562.13 0.0863485 0.532004 -0.832444 163 162 160
-182.9 -912.636 -1564.52 -0.0839912 0.399581 -0.793639 164 163 162
-158.536 -916.959 -1564.47 -0.0242645 0.41296 -0.761602 170 169 168
-160.053 -914.543 -1562.35 -0.0229019 0.427971 -0.771685 170 169 168
-155.511 -945.42 -1564.5 0.184757 0.440683 -0.879099 171 169 168
-144.149 -950.101 -1565.44 -0.0191342 0.448812 -0.87743 168 166 166
-144.687 -941.547 -1561 0.0321746 0.468887 -0.892647 186 183 184
-132.061 -945.264 -1566.99 -0.362152 0.513932 -0.783968 187 185 186
-135.868 -941.568 -1562.81 -0.248437 0.486733 -0.816089 187 185 186
-133.775 -923.424 -1562.8 0.103367 0.366028 -0.488718 181 179 180
-129.71 -934.13 -1561.85 -0.246911 0.387016 -0.640715 196 195 196
-127.377 -931.83 -1566.47 -0.102229 0.307156 -0.451923 191 190 191
-123.224 -924.909 -1564.08 0.650499 0.0663766 0.381973 191 191 192
-110.721 -931.079 -1560.78 0.207458 0.148987 0.00998085 193 193 194
-141.444 -920.512 -1560.37 0.241129 0.389928 -0.256961 189 188 189
-131.751 -903.028 -1562.14 0.725779 0.358243 0.53355 197 197 199
-124.443 -920.456 -1564 0.697415 0.128713 0.429247 193 194 195
-128.019 -913.072 -1562 0.678012 0.233603 0.440796 197 197 198
-127.163 -907.202 -1565.02 0.717643 0.280248 0.55891 194 194 196
-263.881 -894.091 -1563.68 -0.977925 -0.104061 0.0200393 183 179 181
-263.385 -879.252 -1564.93 -0.991539 0.0857534 -0.00800707 185 181 184
-263.592 -869.831 -1563.65 -1.00426 -0.0372243 -0.0373701 184 180 183
-264.349 -859.793 -1562.97 -0.998104 -0.0751422 0.020841 184 181 183
4.00727 -1053.56 -1561.01 0.565051 0.187652 -0.660882 193 188 187
-5.18635 -1048.34 -1566.72 0.539917 0.296816 -0.791583 192 188 187
3.03459 -1048.64 -1567.33 0.571152 0.213076 -0.68891 194 190 189
-15.9129 -1038.1 -1567.1 0.534065 0.324125 -0.784674 181 177 176
-3.41087 -1043.64 -1562.91 0.566354 0.311548 -0.793567 196 193 192
3.67594 -1044.03 -1566.06 0.596153 0.25247 -0.727253 196 192 191
-15.4874 -1025.86 -1564.55 0.509678 0.0552269 -0.837082 188 184 183
-11.0862 -1031.21 -1562.69 0.446636 0.11919 -0.860616 189 185 184
-14.0423 -1019.74 -1564.09 0.461734 -0.0144288 -0.859412 191 187 186
-5.819 -1023 -1560.85 0.295557 -0.126769 -0.943259 195 191 190
-17.9978 -1017.83 -1565.94 0.553266 0.00425264 -0.807035 187 183 182
-16.6823 -1010.53 -1565.71 0.469324 0.0135644 -0.852051 195 191 190
-7.28102 -1007.23 -1562.56 0.264216 0.0151189 -0.943151 197 193 192
4.11834 -1012.17 -1561.85 0.268517 -0.0702314 -0.917767 192 188 188
-3.35704 -1009.98 -1562.5 0.228666 -0.0340069 -0.948081 196 192 191
8.71369 -1094.37 -1560.44 -0.0609959 -0.0633435 -0.271684 179 172 171
10.2798 -1092.05 -1562.58 0.0786001 -0.109574 -0.119947 178 171 170
13.9554 -1086.17 -1561.92 0.210901 -0.153063 0.161789 178 171 170
23.0774 -1073.94 -1564.81 0.258513 -0.13989 0.670919 191 183 183
8.11893 -1072.64 -1567.15 0.0755073 0.0182398 -0.520684 183 177 177
21.5905 -1072.29 -1563.53 0.235128 -0.144583 0.562426 190 182 183
22.8051 -1066.67 -1562.18 0.301461 -0.237035 0.494509 190 182 181
29.8513 -1061.03 -1563.72 0.524309 -0.289539 0.773061 190 182 181
6.79148 -1049 -1561.13 0.472622 0.170824 -0.653481 191 186 186
30.3817 -1051.82 -1560.94 0.498059 -0.220623 0.848091 184 176 175
6.35208 -1036.51 -1563.91 0.48502 0.220672 -0.744636 195 191 191
74.2107 -599.402 -1563.49 0.991321 -0.0286649 -0.0994323 204 146 158
72.9092 -583.207 -1565.7 0.997124 0.0365077 -0.086882 207 201 207
72.5829 -576.785 -1563.97 1.00053 0.0228746 -0.0242368 210 202 209
72.3475 -564.964 -1563.73 0.994364 0.0297241 0.0214906 211 204 210
72.4159 -556.768 -1562.92 0.984282 -0.00121207 0.00311564 208 203 208
72.3705 -550.941 -1567.07 0.975539 0.033727 -0.0623701 207 201 207
73.3283 -537.598 -1564.91 0.97548 -0.0142836 -0.17879 206 201 206
73.4646 -528.206 -1565.69 0.97642 -0.0408769 -0.200568 206 202 207
74.5491 -519.18 -1563.76 0.980164 -0.112277 -0.13905 207 203 209
75.6696 -504.329 -1564.98 0.996401 -0.0400581 -0.0415555 203 199 204
76.0444 -497.34 -1562.98 0.99809 -0.0396027 -0.0314781 203 199 204
76.4613 -482.616 -1564.47 0.985679 0.00563391 -0.0807065 203 201 205
75.8783 -478.321 -1567.19 0.97865 0.0489051 -0.0866311 203 200 204
77.005 -462.774 -1565.14 0.973881 -0.0574722 -0.17043 206 203 208
77.639 -459.53 -1562.45 0.980927 -0.043875 -0.16044 207 204 210
75.8695 -442.651 -1565.99 0.987586 0.0850582 -0.0825504 203 199 205
76.4537 -427.072 -1566.54 0.985441 -0.106214 0.00492906 185 181 185
76.9144 -421.876 -1562.96 0.984999 -0.132755 0.05538 183 180 183
78.8299 -407.78 -1564.81 0.98496 -0.092508 0.0665272 206 202 211
-165.499 375.413 -1565.34 -0.438136 -0.216773 0.309179 25 24 34
-162.352 373.913 -1564.3 -0.498622 -0.228435 0.478866 25 25 34
-161.002 380.677 -1562.76 -0.590921 -0.189314 0.522638 27 26 35
-169.299 391.487 -1565.38 -0.585905 0.156049 0.399488 28 26 36
-168.977 393.729 -1563.07 -0.557524 0.0380741 0.262637 29 26 36
-167.149 403.281 -1562.32 -0.476176 -0.0662921 -0.238379 31 28 37
-160.603 405.549 -1564.94 -0.454844 -0.0972105 0.129132 30 26 36
-163.728 411.278 -1560.54 -0.27634 -0.495402 -0.203896 36 30 39
-156.761 365.998 -1563.35 -0.610293 -0.295762 0.397614 29 28 37
-156.842 407.8 -1567.2 -0.491716 -0.174718 0.594496 29 26 36
-166.699 422.158 -1563.27 -0.502021 -0.434248 0.579337 35 31 41
60.6917 -305.52 -1563.58 0.849367 0.341272 0.227439 232 229 237
75.6207 -346.202 -1565.64 0.956108 0.199323 0.0891397 222 218 232
75.3138 -341.073 -1564.63 0.970226 0.160442 0.0601354 221 217 231
72.4102 -329.513 -1563.41 0.911235 0.307424 0.108892 224 221 233
-59.5265 314.661 -1561.86 0.838048 -0.475304 -0.0364546 40 36 41
-60.3579 322.115 -1566.23 0.759074 -0.0633701 -0.196653 32 30 38
-62.2003 339.348 -1564.66 0.674003 -0.108514 -0.412748 48 39 41
-53.3524 341.936 -1561.21 0.683207 -0.250786 -0.337554 48 39 41
-20.9154 -1195.28 -1562.09 0.880334 -0.219733 -0.322781 82 65 56
-19.152 -1188.02 -1570.57 0.860281 -0.119206 -0.377809 128 101 89
96.8224 -1213.11 -1569.98 0.353697 0.605357 -0.103354 97 90 90
97.6085 -1215.99 -1570.15 0.355107 0.48628 -0.169589 114 108 108
105.329 -1215.01 -1560.9 0.258854 0.597142 -0.135 99 92 92
-284.654 15.9785 -1570.22 -0.404002 -0.0172394 -0.913704 120 122 128
-282.109 9.40645 -1568.69 -0.401797 -0.0756597 -0.908536 124 126 132
-281.572 4.66447 -1567.83 -0.531426 -0.136059 -0.805736 165 167 174
-291.649 25.5485 -1573.94 -0.460245 -0.00110078 -0.879369 135 137 143
-284.807 17.5123 -1570.35 -0.41832 -0.00128077 -0.903674 123 125 131
-285.951 26.7908 -1570.87 -0.480099 0.0127146 -0.869076 140 142 148
-286.723 36.6967 -1572.04 -0.556163 -0.0895428 -0.812262 177 179 189
-281.252 41.1356 -1569.83 -0.611109 -0.133059 -0.775962 203 205 216
-280.954 55.2982 -1573.2 -0.630553 -0.101138 -0.759839 225 227 235
-784.222 92.6266 -1564.99 -0.358494 -0.0906521 -0.45166 198 196 201
-143.333 -1165.58 -1559.81 -0.0781432 0.513673 0.345174 206 168 135
-136.28 -1162.83 -1557.51 -0.444684 -0.0175055 -0.123989 197 158 123
-151.356 -1151.9 -1560.61 -0.0446828 0.845465 0.543092 213 174 141
-145.106 -1153.97 -1557.27 0.00301189 0.817944 0.466361 213 174 139
-143.005 -1153.93 -1554.4 0.0360313 0.824992 0.463227 213 175 140
-153.757 -1128.37 -1556.93 -0.135881 0.398132 0.223749 201 167 144
-148.818 -1129.09 -1556.98 -0.150553 0.382872 0.195813 201 164 141
-143.993 -1130.96 -1559.99 -0.035338 0.495711 0.46778 198 165 143
-262.013 -1108.52 -1558.52 -0.839195 -0.291847 -0.287746 197 192 192
-263.302 -1103.26 -1555.44 -0.865683 -0.223987 -0.0830228 194 190 189
-262.366 -1089.02 -1557.43 -0.855314 0.249518 -0.0989366 188 183 184
-259.934 -1078.38 -1557.37 -0.923651 0.202181 -0.198816 189 183 185
-258.72 -1068.01 -1559.23 -0.837184 0.0950152 -0.367638 194 190 191
-261.013 -1054.86 -1555.16 -0.792532 -0.0124741 -0.394498 189 185 186
-260.785 -1049.18 -1555.37 -0.727265 0.00841975 -0.460846 188 184 185
-259.954 -1039.46 -1555.84 -0.781262 0.196851 -0.572007 186 181 183
-254.75 -1033.74 -1560.29 -0.613156 0.0671554 -0.696917 185 180 183
-271.332 -725.06 -1559.34 -0.91857 0.170988 0.0878734 191 188 191
-270.748 -717.598 -1559.56 -0.953767 0.13844 -0.0193578 184 181 185
-269.545 -701.8 -1557.69 -0.985885 0.0866512 -0.0581967 188 185 188
-268.927 -693.223 -1560.05 -0.974791 0.109324 -0.168786 196 193 196
-268.957 -685.644 -1556.91 -0.959253 0.107106 -0.231369 195 192 195
-118.875 -782.485 -1556.34 0.704538 -0.232179 0.660311 183 183 186
-116.5 -783.1 -1559.3 0.748122 -0.214306 0.613173 181 181 184
-116.527 -769.647 -1555.7 0.806175 -0.154651 0.560073 184 184 188
-115.784 -755.397 -1553.71 0.86908 -0.148525 0.473508 184 184 186
-111.675 -748.127 -1558.72 0.865169 -0.180534 0.485972 176 176 177
-111.171 -737.079 -1554.7 0.876257 -0.198315 0.437215 180 180 182
-109.716 -728.72 -1554.57 0.896352 -0.177763 0.41046 178 178 180
-108.328 -725.117 -1556.37 0.901856 -0.172878 0.394024 176 176 178
-103.612 -708.811 -1560.62 0.825488 -0.162305 0.347841 166 165 166
-103.741 -705.144 -1558.82 0.843485 -0.158077 0.415732 167 164 166
-11.9382 -995.425 -1560.36 0.403629 0.149224 -0.890317 188 185 184
-1.27221 -999.878 -1559.57 0.236372 0.102234 -0.949655 193 189 188
3.98061 -997.565 -1558.75 0.251732 0.0928559 -0.945085 191 188 187
-14.3913 -990.856 -1559.77 0.484557 0.111658 -0.862743 180 176 175
-4.18186 -987.161 -1559.88 0.0636806 -0.140934 -0.949114 176 172 170
1.09356 -991.516 -1558.86 0.136706 -0.0213117 -0.962129 186 182 181
-24.4196 -955.776 -1560.58 0.374844 0.216709 -0.893767 188 186 184
-1.88354 -966.358 -1560.06 0.0886775 0.213433 -0.961938 185 181 180
-9.41562 -959.632 -1556.98 0.234237 0.324519 -0.913461 193 190 188
-20.4752 -955.699 -1558.73 0.368091 0.238456 -0.89228 190 188 186
-7.46529 -954.712 -1554.19 0.234615 0.326716 -0.913972 193 191 189
4.8483 -963.821 -1558.53 0.13581 0.277683 -0.935049 183 179 178
-0.46979 -956.953 -1554.77 0.127882 0.363064 -0.927279 192 189 188
-20.8616 -938.574 -1557.25 0.545042 0.00400114 -0.839435 187 185 183
-26.2633 -925.409 -1559.86 0.476316 0.145057 -0.860256 189 187 185
-17.0837 -949.515 -1555.77 0.402881 0.168872 -0.890507 191 189 187
-18.0375 -933.99 -1554.86 0.532776 0.020986 -0.845432 188 186 183
-30.2435 -919.104 -1560.14 0.456258 0.15815 -0.872472 191 189 187
-30.3352 -911.089 -1558.04 0.489592 0.101346 -0.860431 194 191 189
-22.5086 -915.374 -1555.48 0.309372 0.144897 -0.918542 191 189 187
-28.7735 -909.878 -1556.84 0.474283 0.0882509 -0.857519 193 191 189
-28.1682 -901.151 -1556.61 0.464373 -0.141087 -0.805519 191 189 187
-17.1187 -922.386 -1554.89 0.392155 0.0168845 -0.905355 188 186 184
-16.47 -916.749 -1554.67 0.259501 0.0446627 -0.937585 190 188 185
75.8717 -498.617 -1554.18 0.994272 -0.0639954 -0.0222525 202 198 204
76.4574 -492.765 -1558.7 0.993486 -0.0630384 -0.0353111 203 199 204
77.9265 -474.275 -1553.8 0.992313 -0.0466619 -0.0689283 203 201 206
78.1602 -467.384 -1555.34 0.991356 -0.0515331 -0.104305 205 203 208
77.5201 -453.804 -1558.58 0.992803 0.0565107 -0.0723008 210 208 214
77.2441 -452.313 -1556.12 0.993758 0.078178 -0.0223634 211 209 215
75.4163 -433.36 -1556.16 0.993847 0.043777 0.0116844 199 196 201
75.3424 -431.585 -1556.11 0.992781 0.0269054 0.0240485 196 193 198
77.7919 -413.496 -1559.39 0.987363 -0.124729 0.0911089 188 185 191
77.8385 -406.743 -1554.11 0.984756 -0.0803455 0.111043 190 187 194
78.1388 -393.827 -1559.59 0.986474 0.0471156 0.145883 216 213 220
77.6319 -378.676 -1558.67 0.980952 -0.0087049 0.127498 206 203 212
77.0483 -374.058 -1556.82 0.949829 -0.00641043 0.220881 207 203 213
73.9375 -359.248 -1554.1 0.881868 0.188789 0.441055 232 228 242
76.6571 -363.276 -1558.16 0.917816 0.0867421 0.257041 220 216 229
-268.247 -346.635 -1559.91 -0.94161 0.101975 0.260886 209 206 214
-814.454 89.2764 -1558.47 -0.0435004 -0.582993 -0.0404896 134 119 119
-810.617 89.8439 -1561.42 -0.210855 -0.325662 -0.267624 167 159 162
-791.975 93.1831 -1559.23 -0.147313 -0.36983 -0.206078 152 148 152
-788.363 93.4834 -1559.2 -0.122982 -0.39733 -0.145223 151 145 147
-772.71 93.8495 -1554.69 0.156583 -0.661437 0.452186 132 110 96
-770.4 93.4084 -1554.61 0.190976 -0.694996 0.517373 128 105 90
-743.491 88.3076 -1558.14 -0.213327 -0.298058 0.0453837 174 162 158
-725.942 90.7218 -1555.84 -0.172265 -0.609604 0.170963 125 113 111
-719.205 89.0184 -1558.46 -0.249072 -0.521123 -0.0418341 137 128 130
-715.926 87.9045 -1558.12 -0.267364 -0.45843 -0.06791 148 140 141
-468.957 93.7218 -1555.37 -0.288703 -0.525142 -0.0245335 97 90 95
-460.535 94.8026 -1558.73 -0.294704 -0.302618 -0.356069 138 134 139
-450.639 90.6219 -1560.29 -0.310741 -0.226193 -0.399547 149 144 150
-448.32 91.2127 -1556.69 -0.314102 -0.506986 0.00947002 94 82 88
-10.676 273.713 -1557.07 0.314482 0.874196 0.0891485 196 166 153
-1.56624 270.316 -1555.72 0.355712 0.742632 0.472517 176 160 156
-35.3249 281.405 -1556.6 0.497361 0.852618 -0.0141541 194 148 116
-38.8767 282.932 -1556.55 0.524082 0.83544 -0.0440171 193 146 113
-27.5324 278.695 -1557.4 0.381436 0.890998 0.0800055 196 158 133
8.63458 268.322 -1559.31 0.313105 0.823328 0.372784 203 187 180
18.0851 265.805 -1559.77 0.239222 0.808725 0.440683 240 232 227
26.3629 263.339 -1555.91 -0.0863474 0.680447 0.668897 243 243 246
38.051 261.999 -1557.05 0.162324 0.859462 0.197091 251 249 249
48.2868 259.587 -1560.11 0.278395 0.947339 0.0104998 254 251 250
60.2074 256.38 -1557.05 0.237314 0.818463 0.0931131 250 247 247
69.0708 254.557 -1560.55 0.232475 0.443649 -0.249761 233 229 231
-253.029 -839.221 -1550.83 -0.451438 -0.0380684 0.758818 200 198 200
-256.584 -828.759 -1552.12 -0.588962 0.05352 0.726296 196 194 195
-249.963 -836.788 -1548.6 -0.404514 -0.010402 0.793644 202 200 202
-256.796 -825.346 -1553.38 -0.572586 0.194285 0.709111 196 193 194
-252.486 -825.739 -1551.54 -0.431651 0.219557 0.749534 198 196 197
-252.593 -819.951 -1553.75 -0.460788 0.382902 0.72007 196 193 194
-248.462 -806.805 -1551.99 -0.53303 -0.0690735 0.811134 185 183 185
-248.771 -804.707 -1551.73 -0.521047 -0.0815817 0.825319 184 182 184
-244.181 -801.593 -1547.76 -0.569303 -0.237377 0.778105 181 179 183
-256.385 -794.229 -1552.95 -0.501666 -0.194226 0.846037 185 182 185
-246.964 -796.191 -1547.39 -0.586373 -0.303443 0.74549 182 180 184
-147.204 -884.443 -1548.26 0.829593 0.24884 0.472504 206 206 207
-147.49 -879.029 -1550.05 0.873584 0.229564 0.435767 202 202 203
-149.905 -869.576 -1548.54 0.860004 0.164022 0.481027 191 191 193
-149.235 -863.081 -1550.83 0.800519 0.0141338 0.584511 179 179 181
-149.034 -859.816 -1551.35 0.758366 -0.0389561 0.633054 177 177 179
-150.398 -852.061 -1549.2 0.630794 -0.133848 0.749035 178 178 180
-150.611 -845.41 -1547.45 0.502631 -0.18212 0.848262 178 178 180
10.041 -1121.16 -1548.16 -0.224586 -0.692561 0.410424 183 154 136
18.2592 -1116.99 -1548.49 -0.2507 -0.206367 0.392745 165 152 148
-1.52973 -1107.94 -1548.32 0.965801 0.285016 -0.139616 168 136 123
-1.74966 -1100.96 -1548.67 0.740654 0.171245 -0.209895 166 140 130
1.26148 -1095.62 -1550.16 -0.167021 0.0549505 -0.352807 178 164 160
49.2321 -936.241 -1549.54 -0.00401418 0.139547 -0.889512 194 192 190
52.298 -929.682 -1549.15 0.0391064 0.116506 -0.887811 194 192 190
42.5016 -921.721 -1553.05 0.171126 0.0459092 -0.93227 195 194 193
40.9762 -912.974 -1553.8 0.187989 0.0531677 -0.94655 196 196 194
55.9859 -921.284 -1547.1 0.0531121 0.150661 -0.916209 191 190 189
47.5568 -907.797 -1550.36 0.249147 0.224539 -0.900965 188 187 188
46.5659 -896.054 -1553.38 0.497297 0.285617 -0.817075 182 182 184
48.8543 -903.28 -1549.49 0.264549 0.275005 -0.886877 186 185 186
62.628 -949.999 -1552.75 0.831253 -0.46143 0.356044 206 201 200
69.4949 -933.706 -1549.55 0.900295 -0.227664 -0.0221927 209 205 206
69.8617 -929.486 -1553.52 0.975401 -0.112711 -0.0764 213 208 208
70.4144 -910.918 -1546.45 0.852589 0.17505 -0.382002 212 208 208
64.9411 -902.382 -1552.53 0.903895 0.196496 -0.307497 211 207 206
65.3021 -899.974 -1550.55 0.894823 0.161749 -0.344685 209 205 205
-56.2388 -888.481 -1552.25 -0.0893295 -0.137905 0.509149 144 140 141
-47.5547 -881.646 -1547.45 -0.00526852 -0.184375 0.244928 154 151 151
-38.5266 -876.406 -1548.99 0.329175 -0.385089 -0.707148 190 188 187
75.4605 -501.343 -1548.58 0.990727 -0.0611878 -0.0145375 203 200 205
76.8372 -486.885 -1553.67 0.98661 -0.0735161 -0.0151849 202 199 204
77.887 -471.174 -1552.55 0.988874 -0.034431 -0.0399885 204 202 207
77.6735 -464.365 -1550.25 0.984215 0.0108136 0.0329822 207 205 211
75.1244 -447.193 -1547.96 0.970643 0.0905687 0.187448 212 210 218
76.0614 -443.599 -1553.93 0.992677 0.100937 0.0226955 210 208 215
75.0487 -437.069 -1548.57 0.98406 0.0451414 0.0984701 212 210 217
75.6808 -422.28 -1553.91 0.983084 -0.0750852 0.110307 184 181 186
75.433 -419.587 -1551.03 0.970172 -0.0993762 0.163853 180 178 183
77.6267 -405.196 -1551.92 0.97403 -0.0815038 0.136875 192 189 196
77.5788 -395.373 -1553.96 0.991496 0.0634149 0.104361 204 201 208
75.0898 -383.289 -1550.21 0.975074 0.0744549 0.177773 196 193 202
72.7931 -369.963 -1548.7 0.868428 0.12871 0.434436 213 210 220
74.6735 -366.397 -1552.77 0.862492 0.0954204 0.4799 221 217 228
73.0184 -355.131 -1552.64 0.911354 0.141358 0.389682 229 225 239
-266.215 -117.683 -1554.07 -0.907988 -0.0825065 0.290255 219 221 233
-248.133 -112.8 -1547.98 -0.901049 -0.0580025 0.253451 216 218 228
-265.603 -104.187 -1547.33 -0.768509 -0.0683465 0.459305 213 217 232
-249.488 -93.5635 -1552.46 -0.979317 0.0650358 -0.122317 215 216 227
-249.159 -90.6375 -1549.6 -0.975754 0.0259894 -0.0230175 215 216 227
-249.148 -79.6053 -1553.87 -1.005 -0.00245419 -0.109985 208 209 221
-296.894 -62.3321 -1553.34 -0.503652 -0.213393 0.806024 129 132 144
-289.622 -76.2937 -1551.8 -0.735229 -0.0397544 0.540829 158 162 176
-291.714 -66.1734 -1550.49 -0.608236 -0.195978 0.793108 146 150 164
-268.824 -74.3213 -1550.39 -0.71402 -0.0933253 0.589851 206 210 225
-270.245 -68.4525 -1551.61 -0.648 -0.101479 0.715271 204 209 226
-292.679 -55.4238 -1548.6 -0.423796 -0.221427 0.890928 168 172 187
-269.875 -61.8638 -1549.36 -0.712357 -0.0963015 0.600566 205 209 224
-304.163 -45.3527 -1553.81 -0.111118 -0.0749254 0.932147 155 158 171
-303.372 -40.5425 -1551.16 0.0414063 -0.03915 1.03258 149 152 165
-298.128 -40.3412 -1549.4 -0.0525298 -0.0459253 0.99106 166 170 183
-311.103 -27.2661 -1553.19 0.095233 -0.0244714 0.99379 150 153 166
-302.307 -32.6201 -1549.68 0.0620787 -0.0337841 1.00401 148 150 162
-301.818 -27.9258 -1548.57 0.0679758 -0.040032 0.992498 147 149 160
-290.578 -50.007 -1547.15 -0.416586 -0.15917 0.8793 188 192 208
-272.459 -46.8166 -1549.41 -0.600887 -0.0978881 0.81751 205 211 228
-272.636 -43.6567 -1548.6 -0.592858 -0.0939438 0.824042 206 212 229
-273.979 -35.8023 -1549.17 -0.57809 -0.0792771 0.82192 207 213 230
-249.346 -76.4645 -1548.85 -1.00662 0.00360349 -0.0465242 210 211 222
-249.421 -63.5721 -1552.04 -1.0149 -0.0272915 0.00516674 205 206 216
-250.783 -51.1027 -1553.05 -0.979345 -0.133884 0.0415102 201 203 213
-251.195 -50.0694 -1548.57 -0.992795 -0.135605 -0.0166313 203 204 214
-253.183 -34.5024 -1547.28 -0.991437 -0.0460012 0.00309711 204 205 215
-254.082 -25.1859 -1549.41 -0.926601 -0.186071 0.251562 202 202 213
237.523 143.998 -1548.66 0.0675627 -0.0809908 0.999784 255 255 255
236.682 151.731 -1548.64 0.11533 -0.0428236 0.990477 255 255 255
242.443 140.031 -1548.83 0.00967321 -0.0383421 1.0088 250 250 253
244.857 153.256 -1550.04 0.11113 0.0734567 0.977372 253 253 254
246.446 152.306 -1550 0.101098 0.0703363 0.981543 248 244 247
231.536 157.997 -1548.64 0.162305 0.0629359 0.967423 254 254 255
233.27 165.739 -1551.75 0.224852 0.256412 0.920603 255 255 255
244.09 159.257 -1552.29 0.206796 0.258558 0.924029 255 255 255
245.413 159.107 -1552.5 0.192351 0.273944 0.921225 255 255 255
256.602 138.781 -1551.1 0.217848 -0.0497228 0.952167 160 116 126
257.812 146.272 -1551.02 0.150356 0.0295946 0.981309 179 139 150
259.59 151.78 -1552.05 0.171559 0.0917069 0.953431 182 139 150
252.4 158.701 -1553.17 0.0773424 0.32282 0.923067 244 240 242
230.759 171.742 -1553.15 0.207516 0.337481 0.91153 253 255 255
225.607 174.598 -1553.17 0.261368 0.472673 0.833792 255 255 255
160.549 195.99 -1547.15 0.410748 0.428603 0.785547 253 254 254
159.943 206.643 -1553.34 0.464713 0.407284 0.782508 206 207 210
149.294 214.265 -1549.59 0.485808 0.212178 0.832446 222 223 225
147.9 221.389 -1551.13 0.398238 0.217611 0.869278 233 234 236
155.742 208.172 -1551.73 0.479733 0.360899 0.791848 207 209 210
-483.552 84.1138 -1552.5 -0.294596 -0.365029 0.384131 98 91 100
-335.302 28.801 -1547.49 0.181244 -0.0217248 0.856773 143 145 157
-337.696 25.7132 -1558.09 -0.0404822 -0.00435546 0.489035 163 164 175
-390.322 57.1579 -1556.63 -0.299527 0.187575 0.660532 94 95 106
-381.866 54.103 -1558.63 -0.267192 0.0974136 0.307168 149 151 162
-350.588 38.4043 -1557.84 -0.147314 0.0353667 0.0524383 191 193 203
-352.645 39.3526 -1558.82 -0.224217 0.0410206 -0.080446 197 199 209
-339.935 32.3317 -1549.43 0.218616 0.0204596 0.61828 157 160 171
-345.486 36.9624 -1550.06 0.234716 0.0437779 0.484622 167 169 181
-345.846 37.4645 -1549.76 0.237869 0.0405488 0.507257 166 169 180
-134.846 -1147.97 -1539.89 -0.0675827 0.408941 0.199118 210 171 136
-254.201 -1113.21 -1542.25 -0.862031 -0.427106 0.201911 178 171 173
-257.296 -1103.52 -1542.84 -0.898032 -0.233989 0.310843 189 183 184
-259.09 -1093.91 -1546.91 -0.871379 0.135801 0.471336 187 183 184
-256.269 -1080.96 -1541.72 -0.918058 0.0928363 0.382004 178 173 174
-257.445 -1075.6 -1546.06 -0.959312 0.0525414 0.237238 183 178 180
-257.789 -1060.7 -1542.42 -0.939906 -0.143804 0.337199 194 190 191
-259.545 -1055.15 -1543.88 -0.93032 -0.151316 0.30496 194 190 191
-259.524 -1048.69 -1542.17 -0.925733 -0.0805674 0.372881 197 193 194
-259.979 -1038.88 -1545.18 -0.958641 0.190538 0.243477 188 184 185
-258.518 -1030.96 -1547.12 -0.937053 0.0611561 -0.138864 183 179 180
