ply
format ascii 1.0
comment Created by Open3D
element vertex 1435
property double x
property double y
property double z
property uchar red
property uchar green
property uchar blue
end_header
-456.787 -1068.51 -1373 33 57 101
-725.43 -1015.76 -1309 47 61 82
-716.765 -1006.46 -1297 49 63 84
-711.443 -1001.82 -1291 45 60 87
-708.338 -1000.28 -1289 42 57 84
-705.788 -999.514 -1288 43 58 87
-703.24 -998.749 -1287 45 60 89
-700.696 -997.985 -1286 47 62 93
-697.612 -996.446 -1284 49 64 95
-692.91 -992.58 -1279 45 60 91
-688.223 -988.713 -1274 46 61 92
-683.551 -984.845 -1269 45 62 93
-678.359 -980.204 -1263 48 65 96
-674.792 -977.891 -1260 50 69 100
-672.302 -977.13 -1259 51 70 101
-670.349 -977.145 -1259 50 69 100
-668.925 -977.936 -1260 49 68 99
-665.912 -976.401 -1258 46 67 100
-663.433 -975.641 -1257 45 66 99
-660.956 -974.882 -1256 44 65 100
-658.484 -974.124 -1255 46 67 102
-655.491 -972.589 -1253 49 67 105
-651.984 -970.279 -1250 47 65 103
-650.046 -970.298 -1250 42 63 96
-648.108 -970.318 -1250 41 62 95
-645.137 -968.786 -1248 36 61 93
-642.687 -968.029 -1247 37 62 94
-639.727 -966.497 -1245 39 61 96
-638.823 -968.072 -1247 39 61 96
-636.89 -968.092 -1247 39 61 98
-634.449 -967.338 -1246 38 60 97
-633.027 -968.137 -1247 38 60 101
-631.602 -968.938 -1248 40 62 103
-630.173 -969.736 -1249 34 56 97
-627.737 -968.985 -1248 35 57 98
-625.304 -968.234 -1247 33 55 92
-623.373 -968.258 -1247 32 54 91
-621.442 -968.283 -1247 33 55 92
-618.022 -965.981 -1244 32 54 91
-615.107 -964.455 -1242 33 55 94
-612.197 -962.927 -1240 37 59 98
-610.278 -962.955 -1240 40 64 105
-608.85 -963.759 -1241 46 70 111
-605.464 -961.46 -1238 51 75 119
-602.085 -959.155 -1235 55 79 123
-600.175 -959.185 -1235 60 84 128
-598.265 -959.215 -1235 62 86 130
-595.388 -957.69 -1233 63 84 131
-592.519 -956.167 -1231 61 82 129
-592.055 -958.528 -1234 59 80 125
-591.102 -960.111 -1236 58 79 124
-589.669 -960.922 -1237 53 79 125
-588.707 -962.507 -1239 53 79 125
-588.211 -964.869 -1242 53 79 127
-587.708 -967.233 -1245 53 79 127
-586.724 -968.819 -1247 50 77 127
-585.265 -969.63 -1248 49 76 126
-583.804 -970.442 -1249 49 75 123
-582.805 -972.03 -1251 42 68 116
-582.264 -974.395 -1254 43 66 115
-581.713 -976.761 -1257 46 69 118
-581.154 -979.127 -1260 49 73 117
-579.667 -979.941 -1261 52 76 120
-578.634 -981.532 -1263 52 76 120
-577.595 -983.122 -1265 48 72 116
-576.095 -983.937 -1266 47 71 117
-574.592 -984.751 -1267 45 69 115
-573.086 -985.565 -1268 47 68 113
-572.477 -987.935 -1271 48 69 114
-570.962 -988.751 -1272 47 71 115
-568.996 -988.79 -1272 48 72 116
-567.921 -990.383 -1274 48 69 118
-566.84 -991.976 -1276 45 66 115
-565.311 -992.793 -1277 42 65 114
-563.778 -993.609 -1278 42 65 114
-562.682 -995.204 -1280 43 64 113
-562.017 -997.577 -1283 46 67 116
-560.471 -998.396 -1284 46 67 116
-560.226 -1001.55 -1288 44 65 114
-560.401 -1005.47 -1293 46 66 106
-561.425 -1010.96 -1300 42 62 102
-562.858 -1017.22 -1308 37 54 90
-566.409 -1027.37 -1321 15 32 68
-567.785 -1033.64 -1329 9 21 46
-568.284 -1038.35 -1335 11 23 48
-566.644 -1039.17 -1336 15 24 48
-564.155 -1038.43 -1335 15 24 48
-561.669 -1037.7 -1334 16 25 53
-558.348 -1035.41 -1331 25 34 62
-555.453 -1033.9 -1329 33 42 70
-552.565 -1032.39 -1327 36 45 73
-549.682 -1030.87 -1325 36 50 79
-548.045 -1031.69 -1326 40 54 83
-545.17 -1030.18 -1324 43 57 88
-542.301 -1028.67 -1322 43 57 88
-540.255 -1028.71 -1322 39 52 85
-537.803 -1027.98 -1321 35 48 81
-535.758 -1028.02 -1321 32 47 81
-533.309 -1027.29 -1320 33 48 82
-531.267 -1027.33 -1320 36 53 89
-528.822 -1026.6 -1319 38 55 91
-526.381 -1025.86 -1318 36 51 85
-524.34 -1025.9 -1318 35 50 84
-522.696 -1026.73 -1319 37 55 91
-520.653 -1026.77 -1319 41 59 95
-519.004 -1027.59 -1320 39 60 97
-517.351 -1028.41 -1321 43 64 101
-515.305 -1028.46 -1321 42 64 105
-513.259 -1028.5 -1321 44 66 107
-510.825 -1027.77 -1320 40 62 103
-508.779 -1027.81 -1320 40 62 103
-506.734 -1027.85 -1320 37 59 102
-505.07 -1028.68 -1321 36 58 101
-503.404 -1029.5 -1322 38 56 96
-501.355 -1029.54 -1322 39 57 97
-499.306 -1029.58 -1322 38 58 100
-497.256 -1029.63 -1322 41 61 103
-495.206 -1029.67 -1322 45 65 109
-492.783 -1028.94 -1321 44 64 108
-490.363 -1028.2 -1320 37 57 102
-487.946 -1027.46 -1319 33 53 98
-485.532 -1026.73 -1318 33 53 100
-483.12 -1025.99 -1317 29 49 96
-480.711 -1025.25 -1316 27 53 99
-479.397 -1026.86 -1318 29 55 101
-477.351 -1026.9 -1318 31 59 104
-476.028 -1028.5 -1320 32 60 105
-475.056 -1030.88 -1323 33 59 105
-474.432 -1034.04 -1327 38 64 110
-473.44 -1036.42 -1330 43 69 119
-472.438 -1038.8 -1333 39 65 115
-470.721 -1039.62 -1334 37 63 109
-470.406 -1043.56 -1339 36 62 108
-469.375 -1045.94 -1342 31 57 103
-468.335 -1048.32 -1345 29 55 101
-466.939 -1049.92 -1347 33 57 101
-466.227 -1053.08 -1351 33 57 101
-465.158 -1055.46 -1354 31 57 100
-463.396 -1056.28 -1355 33 59 102
-461.971 -1057.88 -1357 33 59 103
-460.2 -1058.7 -1358 32 58 102
-458.764 -1060.31 -1360 32 58 102
-458.329 -1064.25 -1365 32 58 102
-457.543 -1067.41 -1369 33 57 101
-457.743 -1072.91 -1376 33 57 101
-724.312 -1016.24 -1307 49 62 83
-716.754 -1008.48 -1297 50 63 84
-711.983 -1004.6 -1292 45 62 88
-708.327 -1002.28 -1289 42 59 85
-705.776 -1001.51 -1288 42 58 87
-703.228 -1000.74 -1287 43 59 88
-700.684 -999.979 -1286 46 61 92
-697.056 -997.659 -1283 50 65 96
-693.439 -995.339 -1280 45 60 91
-688.749 -991.463 -1275 45 60 91
-683.538 -986.812 -1269 45 61 92
-678.882 -982.937 -1264 48 64 95
-675.313 -980.618 -1261 49 67 99
-672.821 -979.854 -1260 51 69 101
-670.333 -979.092 -1259 51 70 101
-668.379 -979.107 -1259 49 68 99
-665.895 -978.344 -1258 47 68 101
-663.416 -977.584 -1257 45 66 99
-660.94 -976.822 -1256 44 65 100
-657.941 -975.283 -1254 46 67 102
-654.951 -973.745 -1252 49 68 106
-652.487 -972.984 -1251 46 65 103
-650.027 -972.226 -1250 41 62 96
-648.089 -972.244 -1250 40 61 95
-645.633 -971.485 -1249 36 61 94
-643.698 -971.506 -1249 38 63 96
-641.248 -970.747 -1248 40 62 97
-639.313 -970.768 -1248 38 60 95
-637.38 -970.789 -1248 38 60 98
-635.447 -970.812 -1248 37 59 97
-634.021 -971.611 -1249 37 59 100
-632.591 -972.41 -1250 38 60 101
-630.655 -972.434 -1250 33 55 95
-628.719 -972.457 -1250 34 56 96
-627.285 -973.26 -1251 33 55 92
-625.348 -973.284 -1251 31 53 90
-621.915 -970.974 -1248 32 54 91
-618.99 -969.444 -1246 31 53 90
-617.061 -969.47 -1246 32 54 92
-613.651 -967.161 -1243 37 59 97
-612.22 -967.966 -1244 38 62 103
-609.313 -966.437 -1242 42 66 107
-605.924 -964.129 -1239 47 71 114
-603.519 -963.378 -1238 52 76 119
-601.604 -963.407 -1238 59 82 126
-598.72 -961.88 -1236 62 85 129
-595.842 -960.352 -1234 60 81 127
-593.451 -959.601 -1233 57 78 124
-593.463 -962.745 -1237 59 81 127
-591.551 -962.777 -1237 57 79 125
-590.115 -963.586 -1238 54 79 125
-589.15 -965.173 -1240 54 79 125
-588.653 -967.54 -1243 54 79 126
-587.674 -969.127 -1245 53 78 125
-586.691 -970.717 -1247 48 75 125
-585.231 -971.528 -1248 47 74 124
-583.77 -972.342 -1249 48 74 122
-583.236 -974.709 -1252 44 70 118
-582.693 -977.079 -1255 46 69 118
-582.141 -979.45 -1258 49 72 121
-580.658 -980.264 -1259 50 74 118
-579.632 -981.857 -1261 52 76 120
-579.056 -984.227 -1264 53 77 121
-577.559 -985.042 -1265 50 74 118
-576.058 -985.857 -1266 51 73 120
-575.008 -987.45 -1268 49 71 118
-573.5 -988.267 -1269 49 70 114
-572.89 -990.641 -1272 48 69 113
-571.373 -991.457 -1273 46 69 113
-569.852 -992.274 -1274 47 70 114
-568.774 -993.869 -1276 47 68 117
-567.245 -994.686 -1277 44 65 114
-565.715 -995.505 -1278 40 63 112
-564.621 -997.101 -1280 42 65 114
-562.642 -997.141 -1280 42 63 112
-561.978 -999.518 -1283 41 62 111
-560.866 -1001.11 -1285 41 62 110
-560.62 -1004.27 -1289 43 64 112
-561.227 -1008.99 -1295 47 67 107
-562.68 -1015.26 -1303 43 63 103
-565.829 -1024.65 -1315 35 51 87
-567.654 -1031.71 -1324 15 31 67
-569.025 -1037.98 -1332 9 21 46
-569.093 -1041.92 -1337 11 23 48
-567.449 -1042.74 -1338 13 24 47
-564.957 -1042.01 -1337 12 23 46
-561.626 -1039.71 -1334 16 25 53
-558.724 -1038.2 -1332 28 37 65
-556.246 -1037.46 -1331 36 45 73
-553.354 -1035.94 -1329 41 50 78
-550.468 -1034.43 -1327 41 55 84
-548.415 -1034.47 -1327 43 57 86
-545.539 -1032.96 -1325 45 59 90
-542.668 -1031.44 -1323 45 59 90
-540.621 -1031.48 -1323 42 55 88
-538.166 -1030.75 -1322 39 52 85
-535.715 -1030.01 -1321 37 52 85
-533.67 -1030.05 -1321 36 51 84
-530.821 -1028.54 -1319 38 55 91
-529.18 -1029.36 -1320 40 57 93
-526.737 -1028.62 -1319 38 54 88
-524.695 -1028.67 -1319 36 52 86
-522.652 -1028.71 -1319 38 56 92
-520.609 -1028.75 -1319 41 59 95
-518.567 -1028.8 -1319 39 60 97
-516.524 -1028.84 -1319 44 65 102
-514.481 -1028.89 -1319 45 67 107
-512.826 -1029.71 -1320 44 66 106
-510.781 -1029.75 -1320 38 60 101
-508.351 -1029.01 -1319 38 60 101
-506.691 -1029.84 -1320 36 58 101
-504.645 -1029.88 -1320 37 59 102
-502.98 -1030.7 -1321 37 56 96
-500.932 -1030.75 -1321 39 58 98
-498.885 -1030.79 -1321 39 59 101
-496.837 -1030.83 -1321 41 61 103
-494.414 -1030.1 -1320 40 60 104
-492.367 -1030.14 -1320 35 55 99
-490.32 -1030.18 -1320 28 48 93
-487.533 -1028.66 -1318 26 46 91
-484.752 -1027.15 -1316 30 50 97
-482.711 -1027.19 -1316 29 49 96
-480.669 -1027.23 -1316 29 55 101
-479.355 -1028.84 -1318 32 58 104
-477.309 -1028.88 -1318 33 61 106
-476.346 -1031.26 -1321 33 61 106
-476.09 -1035.21 -1326 33 59 105
-475.82 -1039.15 -1331 37 63 109
-475.177 -1042.32 -1335 44 70 120
-473.105 -1042.36 -1335 38 64 114
-472.09 -1044.75 -1338 36 62 108
-471.066 -1047.13 -1341 34 60 106
-470.033 -1049.52 -1344 29 55 101
-468.293 -1050.34 -1345 27 53 99
-466.897 -1051.94 -1347 30 55 99
-465.84 -1054.33 -1350 32 57 101
-464.429 -1055.93 -1352 32 58 101
-463.012 -1057.54 -1354 34 60 103
-461.249 -1058.36 -1355 33 59 103
-459.82 -1059.96 -1357 31 57 101
-459.06 -1063.13 -1361 33 58 102
-459.294 -1068.64 -1368 33 58 102
-458.504 -1071.81 -1372 34 58 102
-460.029 -1080.44 -1383 35 59 103
-723.748 -1017.49 -1306 53 65 86
-716.744 -1010.49 -1297 51 63 84
-711.972 -1006.6 -1292 41 59 85
-708.316 -1004.28 -1289 40 58 84
-705.765 -1003.51 -1288 43 61 89
-703.216 -1002.74 -1287 44 62 90
-700.128 -1001.2 -1285 46 61 92
-697.587 -1000.43 -1284 47 62 93
-693.968 -998.102 -1281 44 59 90
-689.277 -994.218 -1276 46 61 92
-684.602 -990.335 -1271 48 63 94
-679.942 -986.452 -1266 50 65 96
-676.906 -984.908 -1264 50 67 99
-673.876 -983.364 -1262 51 68 100
-671.383 -982.598 -1261 50 69 100
-668.365 -981.055 -1259 49 68 99
-665.88 -980.289 -1258 49 70 103
-663.4 -979.526 -1257 46 67 100
-660.923 -978.762 -1256 43 64 99
-658.449 -977.999 -1255 45 66 101
-655.456 -976.457 -1253 47 68 105
-653.513 -976.475 -1253 44 65 102
-651.048 -975.712 -1252 40 61 96
-648.588 -974.951 -1251 38 59 94
-646.649 -974.97 -1251 37 62 96
-644.194 -974.21 -1250 38 63 97
-642.256 -974.229 -1250 41 63 98
-639.806 -973.47 -1249 40 62 97
-636.848 -971.93 -1247 39 61 100
-634.915 -971.951 -1247 37 59 98
-633.999 -973.532 -1249 35 57 98
-632.569 -974.332 -1250 33 55 96
-630.632 -974.355 -1250 34 56 95
-628.192 -973.597 -1249 34 56 95
-627.261 -975.18 -1251 32 54 91
-624.323 -973.643 -1249 31 53 90
-621.89 -972.888 -1248 32 54 91
-619.462 -972.134 -1247 31 53 90
-617.036 -971.38 -1246 31 53 90
-615.106 -971.404 -1246 34 56 93
-612.686 -970.652 -1245 34 58 99
-608.795 -967.557 -1241 39 63 104
-605.897 -966.025 -1239 46 70 113
-605.442 -968.393 -1242 51 75 118
-601.576 -965.3 -1238 58 79 124
-599.176 -964.548 -1237 60 81 126
-596.778 -963.795 -1236 57 78 123
-595.348 -964.605 -1237 55 76 121
-593.914 -965.414 -1238 54 78 124
-591.998 -965.443 -1238 53 77 123
-590.084 -965.474 -1238 53 77 123
-589.119 -967.064 -1240 55 79 125
-587.675 -967.875 -1241 55 79 125
-587.172 -970.246 -1244 52 76 122
-586.188 -971.837 -1246 46 73 123
-585.668 -974.209 -1249 45 72 122
-584.671 -975.802 -1251 47 73 121
-584.134 -978.175 -1254 45 71 119
-583.124 -979.768 -1256 47 70 119
-582.107 -981.362 -1258 50 73 122
-581.084 -982.957 -1260 51 75 119
-580.055 -984.551 -1262 53 77 121
-578.562 -985.366 -1263 55 79 123
-577.523 -986.962 -1265 54 78 122
-576.477 -988.558 -1267 55 76 123
-575.425 -990.155 -1269 54 75 122
-574.368 -991.753 -1271 52 74 117
-573.753 -994.129 -1274 50 72 115
-571.784 -994.167 -1274 51 72 117
-571.156 -996.546 -1277 52 73 118
-569.627 -997.363 -1278 51 72 121
-567.652 -997.401 -1278 49 70 119
-566.561 -999.001 -1280 44 67 116
-565.023 -999.819 -1281 45 68 117
-563.482 -1000.64 -1282 42 63 112
-562.814 -1003.02 -1285 39 60 109
-561.7 -1004.62 -1287 40 61 108
-561.45 -1007.78 -1291 44 65 112
-562.053 -1012.51 -1297 48 68 108
-563.071 -1018.01 -1304 44 64 104
-566.648 -1028.2 -1317 33 47 84
-568.469 -1035.27 -1326 14 28 65
-569.836 -1041.56 -1334 10 22 47
-569.901 -1045.5 -1339 11 23 48
-567.83 -1045.54 -1339 11 23 46
-565.337 -1044.81 -1338 11 23 46
-562.005 -1042.51 -1335 18 27 55
-559.101 -1040.99 -1333 27 36 64
-556.203 -1039.47 -1331 35 44 72
-553.727 -1038.73 -1330 40 49 77
-551.255 -1037.99 -1329 40 54 83
-548.786 -1037.25 -1328 41 55 84
-545.907 -1035.73 -1326 44 58 89
-543.035 -1034.21 -1324 45 59 90
-540.987 -1034.26 -1324 43 56 89
-538.53 -1033.52 -1323 41 54 87
-536.078 -1032.78 -1322 41 56 88
-533.627 -1032.04 -1321 39 54 86
-531.18 -1031.3 -1320 39 56 92
-529.537 -1032.13 -1321 41 58 94
-526.693 -1030.61 -1319 38 55 89
-524.651 -1030.65 -1319 36 53 87
-522.609 -1030.7 -1319 39 57 93
-520.566 -1030.74 -1319 42 60 96
-518.524 -1030.78 -1319 42 63 100
-516.481 -1030.82 -1319 46 67 104
-514.438 -1030.87 -1319 45 67 106
-512.783 -1031.69 -1320 41 63 102
-510.351 -1030.96 -1319 34 56 97
-508.307 -1031 -1319 36 58 99
-506.648 -1031.82 -1320 35 57 100
-504.602 -1031.87 -1320 37 59 102
-502.556 -1031.91 -1320 35 55 95
-500.51 -1031.95 -1320 35 55 95
-498.841 -1032.78 -1321 34 54 96
-496.418 -1032.04 -1320 33 53 95
-493.996 -1031.3 -1319 32 52 96
-492.324 -1032.12 -1320 29 49 93
-489.906 -1031.38 -1319 27 47 92
-487.121 -1029.86 -1317 29 49 94
-484.709 -1029.12 -1316 33 53 100
-482.668 -1029.17 -1316 36 56 103
-480.626 -1029.21 -1316 35 61 107
-479.312 -1030.81 -1318 37 63 109
-477.991 -1032.42 -1320 36 64 109
-477.385 -1035.59 -1324 33 61 106
-477.125 -1039.55 -1329 34 60 106
-476.849 -1043.5 -1334 40 66 112
-475.491 -1045.11 -1336 42 68 118
-474.125 -1046.71 -1338 37 63 113
-472.753 -1048.32 -1340 36 62 108
-471.726 -1050.71 -1343 32 58 104
-470.34 -1052.32 -1345 28 54 100
-468.599 -1053.14 -1346 29 55 101
-466.855 -1053.97 -1347 30 56 100
-465.453 -1055.57 -1349 31 57 101
-464.044 -1057.18 -1351 32 58 101
-462.286 -1058 -1352 35 61 104
-461.207 -1060.39 -1355 34 60 104
-460.117 -1062.78 -1358 32 58 102
-459.692 -1066.74 -1363 35 59 103
-459.924 -1072.26 -1370 36 60 104
-460.801 -1079.35 -1379 37 61 105
-461.651 -1086.43 -1388 38 62 106
-734.66 -1032 -1322 55 65 83
-724.292 -1020.3 -1307 55 68 90
-717.286 -1013.28 -1298 51 64 86
-711.963 -1008.61 -1292 41 58 84
-708.305 -1006.28 -1289 40 57 83
-705.754 -1005.51 -1288 44 60 90
-703.206 -1004.74 -1287 46 62 92
-700.66 -1003.97 -1286 45 60 91
-698.119 -1003.2 -1285 43 58 89
-694.498 -1000.87 -1282 45 60 91
-690.346 -997.759 -1278 47 62 93
-686.204 -994.646 -1274 50 65 96
-681.541 -990.757 -1269 51 66 97
-678.499 -989.208 -1267 49 66 98
-674.93 -986.879 -1264 50 67 99
-671.369 -984.549 -1261 49 68 99
-668.35 -983.002 -1259 50 69 100
-666.395 -983.016 -1259 50 70 104
-663.913 -982.25 -1258 46 66 100
-661.433 -981.484 -1257 45 65 100
-658.434 -979.938 -1255 46 66 101
-656.485 -979.953 -1255 45 66 103
-654.54 -979.972 -1255 43 64 101
-652.071 -979.207 -1254 39 61 96
-649.608 -978.443 -1253 36 58 93
-647.148 -977.681 -1252 36 61 95
-644.69 -976.918 -1251 35 60 94
-643.264 -977.717 -1252 37 59 95
-639.787 -975.395 -1249 37 59 95
-637.339 -974.631 -1248 36 58 97
-635.404 -974.652 -1248 36 58 97
-633.469 -974.671 -1248 35 57 98
-632.042 -975.475 -1249 34 56 97
-630.106 -975.496 -1249 37 59 97
-629.176 -977.078 -1251 37 59 97
-627.238 -977.103 -1251 35 57 94
-624.299 -975.561 -1249 34 56 93
-621.867 -974.804 -1248 34 56 93
-619.933 -974.827 -1248 33 55 92
-617.507 -974.072 -1247 31 53 91
-615.081 -973.315 -1246 31 53 91
-612.659 -972.558 -1245 30 53 93
-609.751 -971.021 -1243 34 57 97
-606.848 -969.484 -1241 42 66 108
-605.415 -970.294 -1242 45 69 111
-602.034 -967.975 -1239 51 72 116
-600.117 -968.003 -1239 55 76 120
-598.682 -968.811 -1240 55 76 121
-596.281 -968.057 -1239 55 76 121
-594.844 -968.868 -1240 51 75 120
-592.447 -968.115 -1239 51 75 120
-590.53 -968.143 -1239 53 77 122
-589.089 -968.956 -1240 56 80 125
-587.644 -969.767 -1241 56 80 126
-586.197 -970.58 -1242 54 78 124
-585.686 -972.955 -1245 50 76 125
-585.167 -975.33 -1248 49 75 124
-584.639 -977.706 -1251 47 73 121
-584.567 -980.865 -1255 46 72 120
-583.555 -982.461 -1257 49 72 121
-582.537 -984.058 -1259 50 73 122
-581.511 -985.653 -1261 52 76 120
-580.481 -987.251 -1263 54 78 122
-579.902 -989.631 -1266 56 80 124
-578.401 -990.447 -1267 56 80 124
-577.807 -992.828 -1270 55 76 123
-576.749 -994.426 -1272 54 75 122
-575.687 -996.026 -1274 52 74 117
-574.617 -997.626 -1276 51 73 116
-573.093 -998.444 -1277 53 74 119
-572.013 -1000.04 -1279 56 77 122
-570.482 -1000.87 -1280 56 77 126
-568.946 -1001.68 -1281 54 75 124
-568.293 -1004.07 -1284 50 73 122
-566.749 -1004.89 -1285 50 73 122
-565.202 -1005.71 -1286 44 65 114
-563.651 -1006.53 -1287 40 61 110
-562.534 -1008.13 -1289 42 63 110
-562.279 -1011.3 -1293 45 66 113
-562.014 -1014.47 -1297 48 69 107
-563.894 -1021.55 -1306 44 65 103
-567.467 -1031.75 -1319 30 44 80
-569.714 -1039.62 -1329 13 27 63
-571.076 -1045.92 -1337 11 22 49
-570.284 -1048.31 -1340 11 22 49
-568.213 -1048.35 -1340 11 23 46
-565.717 -1047.61 -1339 14 26 49
-562.804 -1046.09 -1337 20 29 56
-559.897 -1044.56 -1335 25 34 61
-556.996 -1043.04 -1333 28 37 65
-554.518 -1042.3 -1332 36 45 73
-552.042 -1041.56 -1331 38 50 80
-549.569 -1040.82 -1330 41 53 83
-546.688 -1039.3 -1328 45 59 90
-544.223 -1038.56 -1327 46 60 91
-541.761 -1037.82 -1326 43 56 89
-538.894 -1036.29 -1324 40 53 86
-536.44 -1035.55 -1323 39 53 85
-533.988 -1034.82 -1322 38 52 84
-531.54 -1034.08 -1321 36 53 89
-529.895 -1034.9 -1322 37 54 90
-527.05 -1033.38 -1320 36 53 87
-524.608 -1032.64 -1319 36 53 87
-522.566 -1032.68 -1319 38 56 92
-520.523 -1032.72 -1319 40 58 94
-518.874 -1033.55 -1320 44 63 101
-516.438 -1032.81 -1319 46 65 103
-514.395 -1032.85 -1319 43 65 104
-512.351 -1032.9 -1319 38 60 99
-510.308 -1032.94 -1319 32 54 94
-508.65 -1033.76 -1320 34 56 96
-506.605 -1033.81 -1320 32 54 96
-504.559 -1033.85 -1320 33 55 97
-502.513 -1033.89 -1320 33 53 93
-500.467 -1033.94 -1320 33 53 93
-498.799 -1034.76 -1321 31 51 93
-496.375 -1034.02 -1320 31 51 93
-494.328 -1034.06 -1320 31 51 95
-492.282 -1034.11 -1320 30 50 94
-489.492 -1032.58 -1318 31 51 96
-487.448 -1032.62 -1318 36 56 101
-485.035 -1031.88 -1317 42 62 109
-482.626 -1031.14 -1316 43 63 110
-480.949 -1031.97 -1317 40 66 112
-479.997 -1034.36 -1320 40 66 112
-479.035 -1036.75 -1323 38 66 111
-478.424 -1039.93 -1327 34 62 107
-478.519 -1044.68 -1333 34 60 106
-477.522 -1047.07 -1336 39 65 111
-476.16 -1048.68 -1338 38 64 113
-474.792 -1050.29 -1340 35 61 110
-473.417 -1051.9 -1342 34 60 106
-472.035 -1053.51 -1344 30 56 102
-470.647 -1055.12 -1346 27 53 99
-468.557 -1055.16 -1346 29 55 101
-467.159 -1056.77 -1348 28 54 99
-465.756 -1058.38 -1350 28 54 99
-464.002 -1059.21 -1351 28 54 97
-462.586 -1060.82 -1353 32 58 101
-461.165 -1062.43 -1355 34 60 104
-460.075 -1064.82 -1358 33 59 103
-460.325 -1070.35 -1365 36 60 103
-460.553 -1075.88 -1372 37 61 104
-461.093 -1082.2 -1380 38 62 105
-461.941 -1089.3 -1389 40 64 107
-737.43 -1037.97 -1327 54 64 83
-725.945 -1024.68 -1310 55 69 92
-717.278 -1015.3 -1298 51 65 88
-711.953 -1010.62 -1292 44 59 86
-708.845 -1009.06 -1290 40 55 82
-705.744 -1007.51 -1288 43 58 89
-703.742 -1007.52 -1288 45 60 91
-701.74 -1007.53 -1288 44 59 90
-698.652 -1005.98 -1286 44 59 90
-695.028 -1003.64 -1283 47 62 93
-691.413 -1001.3 -1280 48 63 94
-686.732 -997.404 -1275 50 65 97
-682.603 -994.287 -1271 51 66 98
-679.557 -992.735 -1269 49 66 98
-674.916 -988.836 -1264 50 67 99
-671.888 -987.285 -1262 50 69 100
-668.866 -985.733 -1260 50 69 100
-666.38 -984.964 -1259 49 67 103
-663.899 -984.197 -1258 47 65 101
-661.419 -983.428 -1257 47 65 101
-659.467 -983.443 -1257 47 65 101
-657.516 -983.458 -1257 45 66 103
-655.043 -982.691 -1256 43 64 101
-652.575 -981.926 -1255 39 61 96
-650.109 -981.16 -1254 35 57 92
-647.647 -980.395 -1253 33 58 92
-645.187 -979.629 -1252 31 56 90
-642.732 -978.866 -1251 35 57 94
-640.279 -978.101 -1250 37 59 96
-637.83 -977.337 -1249 38 60 99
-635.893 -977.357 -1249 38 60 99
-633.449 -976.593 -1248 38 60 101
-632.02 -977.395 -1249 36 58 99
-631.598 -979.765 -1252 40 62 99
-629.657 -979.785 -1252 41 63 100
-626.714 -978.241 -1250 41 63 100
-624.778 -978.265 -1250 39 61 98
-622.342 -977.504 -1249 37 59 96
-619.91 -976.744 -1248 35 57 94
-617.482 -975.985 -1247 32 54 93
-615.056 -975.225 -1246 29 51 90
-613.619 -976.033 -1247 30 52 91
-610.215 -973.708 -1244 31 53 92
-607.8 -972.951 -1243 35 59 100
-605.876 -972.977 -1243 37 61 102
-602.493 -970.654 -1240 43 65 108
-601.543 -972.247 -1242 50 72 115
-599.621 -972.275 -1242 53 74 119
-597.216 -971.518 -1241 54 75 120
-595.776 -972.329 -1242 51 75 119
-592.897 -970.791 -1240 50 74 118
-590.502 -970.037 -1239 51 75 119
-588.584 -970.065 -1239 53 77 121
-587.14 -970.877 -1240 55 79 125
-586.166 -972.474 -1242 55 79 125
-585.655 -974.852 -1245 51 77 125
-584.667 -976.449 -1247 49 75 123
-585.074 -980.396 -1252 43 69 117
-584.535 -982.776 -1255 45 71 119
-583.521 -984.373 -1257 49 72 121
-582.503 -985.972 -1259 49 72 121
-581.938 -988.354 -1262 49 73 117
-580.907 -989.955 -1264 50 74 118
-580.326 -992.339 -1267 52 76 120
-579.279 -993.938 -1269 54 78 122
-578.681 -996.322 -1272 56 77 124
-577.168 -997.141 -1273 56 77 124
-575.199 -997.177 -1273 53 75 118
-575.482 -1001.13 -1278 50 72 115
-573.954 -1001.95 -1279 52 73 118
-572.423 -1002.77 -1280 55 76 121
-570.889 -1003.59 -1281 55 76 125
-570.242 -1005.98 -1284 55 76 125
-569.14 -1007.58 -1286 52 75 124
-567.152 -1007.62 -1286 51 74 123
-565.163 -1007.65 -1286 45 66 115
-564.488 -1010.04 -1289 42 63 112
-563.367 -1011.65 -1291 44 65 112
-563.546 -1015.61 -1296 46 67 114
-565.008 -1021.91 -1304 49 70 107
-567.308 -1029.79 -1314 47 68 105
-569.148 -1036.88 -1323 29 44 78
-570.531 -1043.19 -1331 13 28 62
-571.462 -1048.72 -1338 11 22 50
-570.669 -1051.11 -1341 11 22 50
-569.019 -1051.94 -1342 11 23 46
-566.521 -1051.2 -1341 17 29 52
-563.183 -1048.89 -1338 22 31 57
-560.694 -1048.15 -1337 22 31 57
-558.207 -1047.4 -1336 24 31 60
-555.308 -1045.88 -1334 32 39 68
-553.244 -1045.92 -1334 35 46 76
-550.353 -1044.39 -1332 37 48 78
-548.292 -1044.44 -1332 40 54 85
-545.821 -1043.69 -1331 43 57 88
-542.535 -1041.38 -1328 41 54 87
-539.666 -1039.86 -1326 40 53 86
-537.208 -1039.12 -1325 38 51 84
-534.753 -1038.38 -1324 37 50 83
-532.704 -1038.42 -1324 35 52 88
-530.654 -1038.46 -1324 36 53 89
-527.406 -1036.15 -1321 36 53 87
-525.361 -1036.19 -1321 37 54 88
-523.315 -1036.23 -1321 38 56 92
-520.481 -1034.71 -1319 39 57 93
-518.438 -1034.75 -1319 44 62 100
-516.003 -1034.01 -1318 45 63 101
-513.962 -1034.05 -1318 40 62 101
-512.309 -1034.88 -1319 37 59 98
-509.879 -1034.14 -1318 32 54 93
-508.607 -1035.75 -1320 34 56 95
-506.562 -1035.79 -1320 30 52 93
-504.134 -1035.05 -1319 30 52 93
-502.47 -1035.88 -1320 32 52 92
-500.046 -1035.14 -1319 34 54 94
-498.378 -1035.96 -1320 35 55 97
-495.956 -1035.22 -1319 35 55 97
-493.911 -1035.26 -1319 34 54 98
-491.866 -1035.3 -1319 32 52 96
-489.45 -1034.56 -1318 35 55 100
-487.405 -1034.6 -1318 41 61 106
-485.361 -1034.65 -1318 47 67 114
-482.95 -1033.9 -1317 46 66 113
-481.272 -1034.73 -1318 38 64 110
-480.318 -1037.13 -1321 38 64 110
-479.355 -1039.53 -1324 37 65 110
-479.464 -1044.28 -1330 33 61 106
-478.476 -1046.68 -1333 31 57 103
-477.837 -1049.86 -1337 33 59 105
-476.473 -1051.47 -1339 35 61 109
-475.103 -1053.09 -1341 33 59 107
-473.374 -1053.91 -1342 33 59 105
-471.993 -1055.53 -1344 27 53 99
-470.605 -1057.14 -1346 25 51 97
-468.863 -1057.97 -1347 27 53 99
-467.118 -1058.8 -1348 25 51 97
-465.368 -1059.62 -1349 24 50 96
-463.96 -1061.23 -1351 24 50 94
-462.545 -1062.85 -1353 30 56 100
-461.123 -1064.46 -1355 32 58 102
-460.711 -1068.43 -1360 32 58 102
-460.958 -1073.97 -1367 35 59 102
-461.182 -1079.51 -1374 36 60 103
-461.719 -1085.84 -1382 37 61 104
-740.199 -1043.95 -1332 52 62 81
-725.382 -1025.93 -1309 52 66 89
-717.268 -1017.32 -1298 49 63 86
-712.494 -1013.41 -1293 42 57 84
-709.385 -1011.85 -1291 40 55 82
-705.734 -1009.51 -1288 42 56 87
-703.186 -1008.73 -1287 42 56 87
-701.184 -1008.74 -1287 40 55 86
-698.098 -1007.19 -1285 40 55 86
-695.558 -1006.41 -1284 45 60 91
-692.482 -1004.86 -1282 48 63 94
-688.336 -1001.73 -1278 50 65 97
-684.739 -999.392 -1275 50 65 97
-680.617 -996.27 -1271 47 64 96
-676.505 -993.145 -1267 48 65 97
-672.408 -990.023 -1263 49 68 99
-668.852 -987.683 -1260 48 67 98
-666.367 -986.914 -1259 46 64 100
-663.884 -986.143 -1258 49 67 103
-661.404 -985.373 -1257 50 69 106
-659.453 -985.388 -1257 49 68 105
-656.978 -984.618 -1256 45 66 104
-655.028 -984.633 -1256 43 64 102
-652.558 -983.864 -1255 38 60 95
-650.092 -983.096 -1254 35 57 92
-647.63 -982.329 -1253 33 58 92
-645.171 -981.563 -1252 32 57 91
-642.714 -980.795 -1251 36 58 95
-639.749 -979.244 -1249 38 60 97
-637.811 -979.262 -1249 38 61 100
-635.874 -979.281 -1249 39 62 101
-633.937 -979.3 -1249 39 61 102
-633.012 -980.887 -1251 36 58 99
-631.578 -981.693 -1252 35 57 94
-629.134 -980.928 -1251 41 63 100
-626.694 -980.166 -1250 40 62 98
-624.756 -980.186 -1250 38 60 96
-622.818 -980.208 -1250 36 58 95
-620.881 -980.23 -1250 32 54 91
-618.449 -979.468 -1249 32 54 92
-616.513 -979.49 -1249 31 53 91
-614.579 -979.514 -1249 28 50 88
-611.663 -977.97 -1247 29 51 89
-608.753 -976.425 -1245 29 53 93
-606.338 -975.666 -1244 31 55 95
-603.44 -974.123 -1242 38 60 102
-602.485 -975.716 -1244 45 67 109
-601.043 -976.529 -1245 50 71 115
-598.633 -975.77 -1244 51 72 116
-597.187 -976.581 -1245 50 73 116
-592.869 -972.686 -1240 49 72 115
-590.473 -971.93 -1239 50 74 118
-588.556 -971.958 -1239 52 76 120
-587.111 -972.77 -1240 51 75 121
-586.136 -974.368 -1242 51 75 121
-584.685 -975.182 -1243 50 75 123
-584.636 -978.351 -1247 48 73 121
-584.576 -981.52 -1251 50 75 123
-584.037 -983.903 -1254 47 72 120
-583.026 -985.504 -1256 51 74 123
-582.471 -987.889 -1259 53 76 125
-581.906 -990.276 -1262 51 75 119
-581.333 -992.664 -1265 50 74 118
-580.75 -995.05 -1268 51 75 119
-580.158 -997.438 -1271 51 75 119
-578.647 -998.256 -1272 52 73 120
-577.586 -999.859 -1274 53 74 121
-576.068 -1000.68 -1275 54 76 119
-575.897 -1003.85 -1279 54 76 119
-574.367 -1004.67 -1280 55 76 121
-573.282 -1006.28 -1282 56 77 122
-572.19 -1007.89 -1284 56 77 126
-571.093 -1009.49 -1286 56 77 126
-570.432 -1011.88 -1289 55 78 127
-568.437 -1011.92 -1289 52 75 124
-567.323 -1013.53 -1291 49 70 119
-566.202 -1015.14 -1293 48 69 118
-565.075 -1016.74 -1295 46 67 114
-565.246 -1020.71 -1300 46 67 114
-566.268 -1026.24 -1307 48 69 106
-567.269 -1031.78 -1314 42 63 100
-569.537 -1039.67 -1324 26 39 74
-570.49 -1045.21 -1331 12 25 60
-570.567 -1049.17 -1336 12 23 51
-569.776 -1051.57 -1339 11 22 50
-568.129 -1052.4 -1340 13 25 49
-566.056 -1052.44 -1340 15 27 51
-563.141 -1050.91 -1338 21 30 56
-560.652 -1050.16 -1337 23 32 58
-558.166 -1049.42 -1336 27 36 64
-556.098 -1049.46 -1336 27 36 64
-553.617 -1048.72 -1335 28 39 69
-551.137 -1047.97 -1334 33 44 74
-548.661 -1047.23 -1333 34 46 78
-545.368 -1044.92 -1330 37 49 81
-542.902 -1044.17 -1329 39 52 85
-540.437 -1043.43 -1328 41 54 87
-537.571 -1041.9 -1326 38 51 84
-535.115 -1041.16 -1325 40 53 86
-533.466 -1041.98 -1326 38 55 91
-531.414 -1042.03 -1326 37 54 90
-528.562 -1040.5 -1324 38 55 89
-526.114 -1039.75 -1323 40 57 91
-523.669 -1039.01 -1322 40 58 94
-521.622 -1039.05 -1322 41 59 95
-518.788 -1037.52 -1320 42 60 98
-516.352 -1036.78 -1319 42 60 98
-514.699 -1037.61 -1320 38 60 99
-513.043 -1038.43 -1321 35 57 96
-510.61 -1037.69 -1320 34 56 95
-508.95 -1038.52 -1321 35 57 96
-506.519 -1037.78 -1320 36 57 99
-504.855 -1038.6 -1321 36 57 99
-502.808 -1038.65 -1321 41 61 101
-500.003 -1037.12 -1319 43 63 103
-498.336 -1037.95 -1320 44 64 106
-495.914 -1037.2 -1319 42 62 104
-493.494 -1036.46 -1318 42 62 106
-491.824 -1037.29 -1319 38 58 102
-489.778 -1037.33 -1319 35 55 100
-487.733 -1037.37 -1319 44 64 109
-485.319 -1036.63 -1318 51 71 118
-483.642 -1037.46 -1319 50 70 117
-482.326 -1039.07 -1321 40 65 111
-481.367 -1041.47 -1324 40 65 111
-480.761 -1044.66 -1328 39 65 111
-480.142 -1047.85 -1332 34 60 106
-479.152 -1050.25 -1335 31 57 103
-478.152 -1052.65 -1338 27 53 99
-476.787 -1054.27 -1340 29 55 102
-475.061 -1055.1 -1341 31 57 104
-473.685 -1056.72 -1343 31 57 103
-472.302 -1058.33 -1345 27 53 99
-471.262 -1060.73 -1348 27 53 99
-469.169 -1060.78 -1348 27 53 99
-467.076 -1060.82 -1348 27 53 98
-465.327 -1061.65 -1349 27 53 98
-463.574 -1062.48 -1350 23 49 93
-462.845 -1065.67 -1354 28 54 98
-461.761 -1068.07 -1357 31 57 101
-461.347 -1072.05 -1362 32 58 102
-461.59 -1077.6 -1369 36 60 103
-461.812 -1083.15 -1376 36 60 103
-463.014 -1091.06 -1386 37 60 103
-727.036 -1030.32 -1312 48 64 86
-718.917 -1021.69 -1301 46 62 84
-713.036 -1016.2 -1294 44 59 86
-708.826 -1013.07 -1290 40 55 82
-705.724 -1011.51 -1288 39 53 84
-703.175 -1010.73 -1287 38 52 83
-701.175 -1010.74 -1287 38 53 84
-698.63 -1009.97 -1286 39 54 85
-696.631 -1009.98 -1286 44 59 91
-693.012 -1007.63 -1283 46 61 93
-689.402 -1005.29 -1280 48 63 95
-686.338 -1003.73 -1278 48 63 95
-682.746 -1001.38 -1275 46 63 95
-677.561 -996.681 -1269 48 65 97
-673.46 -993.552 -1265 47 66 97
-669.902 -991.207 -1262 46 65 96
-666.883 -989.649 -1260 47 65 101
-664.398 -988.877 -1259 50 68 104
-661.917 -988.104 -1258 50 71 108
-659.438 -987.332 -1257 48 69 106
-656.964 -986.561 -1256 47 67 107
-655.013 -986.574 -1256 46 66 106
-652.023 -985.019 -1254 42 64 99
-650.078 -985.035 -1254 38 60 95
-647.097 -983.48 -1252 35 60 94
-645.668 -984.28 -1253 35 60 94
-643.725 -984.298 -1253 39 61 98
-640.756 -982.743 -1251 40 62 99
-638.815 -982.761 -1251 38 62 101
-636.874 -982.778 -1251 38 62 101
-634.933 -982.796 -1251 39 61 102
-633.499 -983.6 -1252 36 58 99
-631.558 -983.62 -1252 36 58 95
-629.113 -982.854 -1251 43 65 102
-627.174 -982.874 -1251 42 64 99
-625.233 -982.892 -1251 40 62 97
-623.295 -982.915 -1251 37 59 96
-620.859 -982.15 -1250 33 55 92
-618.921 -982.172 -1250 33 55 92
-616.491 -981.41 -1249 31 53 90
-614.555 -981.431 -1249 29 51 88
-611.64 -979.884 -1247 27 49 86
-608.729 -978.335 -1245 24 48 87
-607.288 -979.145 -1246 27 51 90
-604.873 -978.385 -1245 34 56 97
-604.397 -980.766 -1248 41 63 104
-602.464 -980.791 -1248 44 66 109
-600.051 -980.032 -1247 45 67 110
-598.599 -980.843 -1248 49 71 114
-594.277 -976.942 -1243 50 72 115
-591.399 -975.397 -1241 51 75 119
-589.478 -975.423 -1241 53 77 121
-588.031 -976.238 -1242 54 78 124
-586.58 -977.052 -1243 53 77 123
-585.126 -977.866 -1244 54 77 126
-584.606 -980.253 -1247 53 76 125
-584.079 -982.642 -1250 53 76 125
-584.007 -985.816 -1254 48 71 120
-582.531 -986.632 -1255 46 69 118
-581.976 -989.021 -1258 47 70 119
-582.335 -992.983 -1263 47 71 115
-582.219 -996.16 -1267 47 71 115
-581.176 -997.766 -1269 45 69 113
-580.581 -1000.16 -1272 41 65 109
-579.523 -1001.76 -1274 45 66 113
-578.459 -1003.37 -1276 48 69 116
-577.389 -1004.98 -1278 52 74 117
-575.862 -1005.8 -1279 52 74 117
-574.781 -1007.4 -1281 51 72 117
-574.588 -1010.58 -1285 51 72 117
-573.492 -1012.19 -1287 55 76 125
-572.389 -1013.8 -1289 58 79 128
-572.165 -1016.98 -1293 56 79 128
-571.047 -1018.59 -1295 53 76 125
-569.483 -1019.42 -1296 51 72 121
-568.354 -1021.03 -1298 50 71 120
-566.782 -1021.85 -1299 48 68 115
-566.512 -1025.04 -1303 46 66 113
-567.096 -1029.79 -1309 46 67 104
-568.525 -1036.13 -1317 38 59 96
-570.358 -1043.25 -1326 26 39 74
-570.879 -1048.01 -1332 12 25 60
-570.953 -1051.98 -1337 12 23 51
-570.162 -1054.38 -1340 11 22 50
-568.936 -1056 -1342 12 24 49
-566.437 -1055.25 -1341 15 27 52
-563.942 -1054.5 -1340 22 31 57
-561.449 -1053.76 -1339 24 33 59
-558.959 -1053.01 -1338 26 35 63
-556.473 -1052.27 -1337 25 34 62
-553.989 -1051.52 -1336 25 36 66
-551.509 -1050.77 -1335 29 40 70
-548.62 -1049.24 -1333 33 44 76
-546.147 -1048.5 -1332 34 45 77
-543.677 -1047.75 -1331 36 49 82
-541.21 -1047 -1330 39 52 85
-538.34 -1045.47 -1328 40 53 86
-536.284 -1045.51 -1328 42 55 88
-534.229 -1045.56 -1328 38 55 91
-532.573 -1046.38 -1329 38 55 91
-529.717 -1044.85 -1327 41 58 92
-527.662 -1044.89 -1327 44 61 95
-525.211 -1044.15 -1326 45 62 98
-522.369 -1042.62 -1324 44 61 97
-519.533 -1041.08 -1322 46 64 102
-517.093 -1040.34 -1321 47 65 103
-515.437 -1041.17 -1322 44 66 105
-513.777 -1042 -1323 41 63 102
-510.954 -1040.47 -1321 36 58 97
-509.292 -1041.29 -1322 35 57 96
-507.628 -1042.12 -1323 38 58 100
-505.578 -1042.17 -1323 40 60 102
-503.528 -1042.21 -1323 43 63 103
-500.339 -1039.89 -1320 45 65 105
-498.293 -1039.93 -1320 45 65 107
-495.871 -1039.18 -1319 42 62 104
-493.827 -1039.23 -1319 42 62 106
-491.781 -1039.27 -1319 39 59 103
-490.107 -1040.1 -1320 35 55 100
-488.061 -1040.14 -1320 41 61 106
-486.382 -1040.97 -1321 47 67 114
-484.699 -1041.8 -1322 47 67 114
-483.744 -1044.21 -1325 41 65 111
-482.779 -1046.61 -1328 42 66 112
-482.167 -1049.81 -1332 39 65 111
-480.821 -1051.43 -1334 35 61 107
-479.469 -1053.05 -1336 31 57 103
-478.467 -1055.45 -1339 27 53 99
-477.101 -1057.07 -1341 28 54 100
-475.727 -1058.69 -1343 32 58 104
-473.995 -1059.52 -1344 32 58 104
-472.26 -1060.35 -1345 28 54 100
-471.22 -1062.76 -1348 27 53 99
-469.127 -1062.8 -1348 27 53 99
-467.033 -1062.84 -1348 27 53 97
-465.285 -1063.67 -1349 26 52 96
-463.876 -1065.29 -1351 24 50 94
-463.144 -1068.49 -1355 28 54 98
-462.4 -1071.68 -1359 31 57 101
-462.321 -1076.46 -1365 32 58 102
-462.56 -1082.02 -1372 36 60 103
-462.441 -1086.79 -1378 35 59 102
-463.306 -1093.93 -1387 35 57 100
-464.141 -1101.07 -1396 36 58 101
-727.027 -1032.36 -1312 47 63 85
-718.356 -1022.93 -1300 44 60 82
-713.028 -1018.21 -1294 41 56 84
-708.817 -1015.07 -1290 40 55 83
-705.167 -1012.72 -1287 39 53 84
-703.166 -1012.73 -1287 39 53 84
-701.165 -1012.74 -1287 38 54 85
-699.163 -1012.75 -1287 38 54 85
-697.705 -1013.55 -1288 39 54 86
-693.542 -1010.41 -1284 42 57 89
-691.546 -1010.42 -1284 45 60 92
-688.475 -1008.86 -1282 47 62 94
-683.806 -1004.93 -1277 46 63 95
-679.151 -1001.01 -1272 47 64 96
-675.046 -997.874 -1268 46 65 96
-670.421 -993.95 -1263 46 65 96
-667.399 -992.387 -1261 47 66 103
-664.913 -991.613 -1260 50 69 106
-661.904 -990.053 -1258 51 72 109
-659.425 -989.279 -1257 49 70 107
-656.426 -987.717 -1255 48 68 108
-654.478 -987.732 -1255 48 68 108
-652.009 -986.959 -1254 44 66 102
-649.543 -986.186 -1253 41 63 99
-648.115 -986.988 -1254 38 63 97
-646.168 -987.003 -1254 36 61 95
-644.735 -987.806 -1255 39 61 98
-641.763 -986.248 -1253 40 62 99
-639.308 -985.479 -1252 39 63 102
-637.365 -985.495 -1252 40 64 103
-635.423 -985.512 -1252 40 62 104
-633.987 -986.318 -1253 37 59 101
-631.539 -985.549 -1252 37 59 96
-629.596 -985.568 -1252 42 64 101
-627.154 -984.801 -1251 40 62 98
-625.714 -985.607 -1252 38 60 96
-623.274 -984.84 -1251 37 59 96
-621.335 -984.861 -1251 35 57 94
-618.9 -984.095 -1250 35 57 93
-616.963 -984.116 -1250 31 53 89
-615.025 -984.138 -1250 30 52 89
-612.107 -982.585 -1248 28 50 87
-610.663 -983.397 -1249 25 48 87
-608.24 -982.633 -1248 27 50 89
-605.821 -981.869 -1247 33 55 95
-604.855 -983.465 -1249 37 59 99
-602.921 -983.491 -1249 39 60 103
-601.469 -984.305 -1250 41 62 105
-599.051 -983.54 -1249 49 70 114
-595.207 -980.419 -1245 51 72 116
-592.802 -979.658 -1244 53 76 120
-591.826 -981.259 -1246 55 78 122
-588.949 -979.711 -1244 56 80 126
-587.023 -979.738 -1244 55 79 125
-586.038 -981.341 -1246 53 77 124
-585.047 -982.945 -1248 53 77 124
-584.516 -985.336 -1251 49 72 121
-583.977 -987.728 -1254 44 67 116
-582.501 -988.547 -1255 41 64 113
-581.946 -990.94 -1258 42 65 114
-582.305 -994.909 -1263 44 68 112
-582.188 -998.091 -1267 44 68 112
-581.144 -999.699 -1269 42 65 109
-580.092 -1001.3 -1271 36 59 103
-579.49 -1003.7 -1274 38 59 105
-578.426 -1005.31 -1276 40 61 107
-577.807 -1007.71 -1279 43 64 108
-575.827 -1007.74 -1279 45 66 110
-575.643 -1010.93 -1283 46 67 112
-575.001 -1013.33 -1286 47 68 113
-574.347 -1015.72 -1289 50 71 120
-574.129 -1018.91 -1293 53 74 123
-573.899 -1022.1 -1297 48 72 119
-572.333 -1022.92 -1298 46 70 117
-571.204 -1024.54 -1300 46 67 115
-570.068 -1026.15 -1302 49 70 118
-568.927 -1027.76 -1304 49 69 116
-568.649 -1030.95 -1308 47 67 114
-569.223 -1035.72 -1314 47 66 104
-569.78 -1040.48 -1320 38 57 95
-571.18 -1046.83 -1328 25 38 72
-571.268 -1050.81 -1333 10 23 57
-571.34 -1054.79 -1338 11 22 50
-570.547 -1057.2 -1341 10 21 49
-569.32 -1058.81 -1343 12 24 49
-566.819 -1058.06 -1342 15 27 52
-564.743 -1058.1 -1342 21 30 56
-561.828 -1056.57 -1340 20 29 55
-559.337 -1055.82 -1339 20 30 58
-557.264 -1055.86 -1339 20 30 58
-554.364 -1054.33 -1337 22 33 64
-551.881 -1053.58 -1336 26 37 68
-549.402 -1052.83 -1335 30 40 72
-547.335 -1052.87 -1335 31 41 73
-544.861 -1052.12 -1334 32 45 78
-542.389 -1051.38 -1333 39 52 85
-539.515 -1049.84 -1331 41 54 87
-537.454 -1049.88 -1331 43 56 89
-535.394 -1049.92 -1331 37 54 89
-533.734 -1050.75 -1332 35 52 87
-531.671 -1050.8 -1332 40 57 91
-528.813 -1049.26 -1330 44 61 95
-525.961 -1047.72 -1328 44 61 96
-523.116 -1046.19 -1326 44 61 96
-521.062 -1046.23 -1326 47 65 102
-517.834 -1043.91 -1323 47 65 102
-516.174 -1044.74 -1324 45 67 105
-514.123 -1044.78 -1324 42 64 102
-511.298 -1043.24 -1322 36 58 97
-510.021 -1044.86 -1324 35 57 96
-507.969 -1044.9 -1324 40 60 102
-505.918 -1044.95 -1324 43 63 105
-503.485 -1044.2 -1323 43 63 103
-500.298 -1041.87 -1320 47 67 107
-497.874 -1041.12 -1319 46 66 108
-495.454 -1040.38 -1318 41 61 103
-493.41 -1040.42 -1318 40 60 104
-491.367 -1040.46 -1318 37 57 101
-490.066 -1042.08 -1320 36 56 101
-488.019 -1042.12 -1320 42 62 107
-486.708 -1043.75 -1322 43 63 110
-485.758 -1046.16 -1325 44 64 111
-484.798 -1048.57 -1328 40 64 111
-483.465 -1050.19 -1330 41 65 112
-482.125 -1051.81 -1332 37 63 110
-480.779 -1053.43 -1334 34 60 107
-479.068 -1054.26 -1335 31 57 103
-477.711 -1055.88 -1337 28 54 100
-476.347 -1057.5 -1339 28 54 101
-474.977 -1059.13 -1341 32 58 105
-473.601 -1060.75 -1343 32 58 104
-472.218 -1062.37 -1345 29 55 101
-470.829 -1063.99 -1347 27 53 99
-468.737 -1064.03 -1347 28 54 100
-466.992 -1064.86 -1348 29 55 99
-465.588 -1066.49 -1350 28 54 98
-464.521 -1068.9 -1353 30 55 98
-463.444 -1071.31 -1356 33 58 101
-463.039 -1075.3 -1361 32 58 101
-462.618 -1079.29 -1366 32 58 101
-463.529 -1086.45 -1375 35 59 102
-464.077 -1092.81 -1383 34 58 101
-464.265 -1098.38 -1390 33 56 99
-740.174 -1050.16 -1332 55 65 84
-725.912 -1032.82 -1310 49 65 87
-718.348 -1024.95 -1300 44 60 82
-713.019 -1020.22 -1294 40 55 84
-708.809 -1017.08 -1290 39 54 83
-705.158 -1014.72 -1287 41 55 86
-703.157 -1014.73 -1287 43 57 88
-701.156 -1014.74 -1287 40 57 88
-699.698 -1015.54 -1288 38 55 86
-698.236 -1016.34 -1289 36 51 83
-695.692 -1015.56 -1288 40 55 87
-693.152 -1014.78 -1287 44 59 91
-689.539 -1012.42 -1284 47 62 94
-685.401 -1009.28 -1280 47 64 96
-680.742 -1005.35 -1275 48 65 97
-675.566 -1000.63 -1269 46 65 96
-671.47 -997.484 -1265 47 66 97
-668.447 -995.92 -1263 47 68 105
-663.846 -991.989 -1258 48 69 106
-661.365 -991.212 -1257 49 70 107
-658.362 -989.647 -1255 49 70 107
-655.89 -988.872 -1254 49 69 109
-653.942 -988.885 -1254 49 69 109
-651.996 -988.9 -1254 47 68 105
-650.047 -988.912 -1254 44 65 102
-648.1 -988.927 -1254 40 65 99
-646.153 -988.942 -1254 37 62 96
-644.72 -989.746 -1255 38 60 97
-642.259 -988.972 -1254 38 60 97
-640.313 -988.989 -1254 37 61 100
-638.366 -989.005 -1254 38 62 101
-636.421 -989.022 -1254 41 63 106
-634.981 -989.828 -1255 38 60 103
-632.529 -989.057 -1254 40 62 99
-630.08 -988.285 -1253 43 65 102
-627.637 -987.517 -1252 40 62 99
-625.694 -987.535 -1252 39 61 98
-623.751 -987.553 -1252 40 62 99
-621.313 -986.784 -1251 39 61 98
-619.375 -986.807 -1251 39 61 96
-617.434 -986.826 -1251 36 58 93
-615.987 -987.636 -1252 31 53 90
-613.555 -986.869 -1251 30 52 89
-611.127 -986.101 -1250 27 49 88
-608.704 -985.338 -1249 28 50 89
-606.282 -984.571 -1248 31 53 92
-605.801 -986.961 -1251 33 55 94
-604.345 -987.773 -1252 35 55 97
-602.406 -987.799 -1252 36 56 98
-599.506 -986.243 -1250 46 66 110
-596.136 -983.902 -1247 50 70 114
-595.635 -986.295 -1250 53 74 119
-592.749 -984.743 -1248 55 76 121
-590.342 -983.981 -1247 56 80 126
-588.411 -984.007 -1247 55 79 125
-586.48 -984.033 -1247 51 75 121
-585.957 -986.431 -1250 51 75 121
-584.956 -988.037 -1252 47 70 119
-583.948 -989.642 -1254 45 68 117
-582.007 -989.671 -1254 44 67 116
-581.916 -992.859 -1258 44 67 116
-581.813 -996.045 -1262 45 69 113
-581.697 -999.231 -1266 45 69 113
-581.112 -1001.63 -1269 45 66 111
-580.061 -1003.24 -1271 42 63 108
-579.913 -1006.43 -1275 41 62 107
-579.3 -1008.83 -1278 39 60 105
-577.321 -1008.86 -1278 40 60 104
-576.245 -1010.48 -1280 43 63 107
-576.058 -1013.67 -1284 45 66 111
-575.413 -1016.07 -1287 46 67 112
-574.758 -1018.47 -1290 44 65 114
-574.094 -1020.87 -1293 43 64 113
-574.306 -1024.86 -1298 38 62 108
-572.738 -1025.68 -1299 37 61 107
-572.047 -1028.09 -1302 41 62 109
-571.345 -1030.49 -1305 45 66 113
-569.762 -1031.32 -1306 46 66 113
-570.35 -1036.09 -1312 46 66 113
-570.053 -1039.29 -1316 47 65 103
-570.174 -1043.27 -1321 37 55 93
-570.712 -1048.05 -1327 19 32 65
-571.658 -1053.62 -1334 4 17 50
-572.156 -1058.4 -1340 7 18 46
-571.783 -1061.59 -1344 9 20 48
-570.128 -1062.42 -1345 12 24 49
-567.202 -1060.88 -1343 14 26 51
-564.703 -1060.13 -1342 19 27 53
-562.207 -1059.38 -1341 17 25 51
-560.131 -1059.42 -1341 15 26 54
-558.056 -1059.46 -1341 18 29 57
-554.737 -1057.13 -1338 22 33 65
-552.666 -1057.17 -1338 25 36 68
-550.595 -1057.21 -1338 29 38 70
-548.524 -1057.26 -1338 30 39 71
-546.044 -1056.51 -1337 31 44 77
-542.347 -1053.39 -1333 37 50 83
-539.879 -1052.64 -1332 41 54 87
-537.413 -1051.89 -1331 43 56 89
-535.352 -1051.93 -1331 36 53 87
-533.291 -1051.97 -1331 33 50 84
-531.629 -1052.8 -1332 35 52 86
-528.771 -1051.26 -1330 38 55 89
-526.316 -1050.51 -1329 41 58 92
-523.863 -1049.76 -1328 44 61 95
-521.02 -1048.23 -1326 48 65 101
-518.575 -1047.48 -1325 45 62 98
-516.522 -1047.52 -1325 40 62 99
-513.693 -1045.98 -1323 39 61 98
-512.03 -1046.81 -1324 35 57 96
-510.364 -1047.64 -1325 35 57 96
-508.311 -1047.69 -1325 40 60 102
-506.258 -1047.73 -1325 41 61 103
-503.063 -1045.4 -1322 36 56 96
-500.635 -1044.65 -1321 40 60 100
-497.832 -1043.11 -1319 39 59 101
-495.412 -1042.36 -1318 34 54 96
-492.994 -1041.61 -1317 34 54 98
-491.325 -1042.44 -1318 34 54 98
-490.395 -1044.86 -1321 36 56 101
-488.716 -1045.69 -1322 44 64 109
-487.771 -1048.1 -1325 44 64 111
-486.815 -1050.52 -1328 43 63 110
-485.486 -1052.14 -1330 40 63 112
-484.149 -1053.77 -1332 38 61 110
-482.445 -1054.6 -1333 33 59 107
-480.737 -1055.43 -1334 31 57 105
-479.026 -1056.27 -1335 31 57 103
-477.669 -1057.89 -1337 29 55 101
-476.305 -1059.51 -1339 28 55 103
-474.935 -1061.14 -1341 31 58 106
-473.559 -1062.76 -1343 32 58 104
-472.176 -1064.39 -1345 29 55 101
-470.787 -1066.01 -1347 27 53 99
-469.043 -1066.85 -1348 28 54 100
-467.296 -1067.68 -1349 30 56 100
-465.891 -1069.3 -1351 31 57 101
-464.822 -1071.72 -1354 37 61 104
-464.086 -1074.93 -1358 37 61 104
-463.337 -1078.13 -1362 35 61 104
-463.592 -1083.72 -1369 34 60 103
-464.499 -1090.88 -1378 35 59 102
-465.042 -1097.26 -1386 34 58 101
-464.891 -1102.05 -1392 32 56 99
-727.012 -1036.44 -1312 49 65 87
-719.445 -1028.55 -1302 45 61 83
-713.562 -1023.03 -1295 42 57 86
-709.35 -1019.87 -1291 41 56 85
-705.698 -1017.51 -1288 40 53 85
-703.694 -1017.52 -1288 40 53 85
-701.691 -1017.53 -1288 40 56 87
-700.233 -1018.33 -1289 41 57 88
-698.769 -1019.13 -1290 36 51 83
-695.682 -1017.56 -1288 39 54 86
-693.68 -1017.57 -1288 42 57 89
-690.603 -1016 -1286 47 62 94
-686.462 -1012.85 -1282 51 67 99
-681.8 -1008.91 -1277 51 67 99
-677.153 -1004.97 -1272 47 65 98
-673.583 -1002.61 -1269 47 65 98
-668.964 -998.668 -1264 46 67 104
-665.416 -996.309 -1261 46 67 104
-661.878 -993.95 -1258 47 68 105
-658.875 -992.382 -1256 49 70 107
-656.924 -992.396 -1256 49 71 110
-653.93 -990.827 -1254 49 71 110
-651.981 -990.84 -1254 47 68 105
-650.033 -990.852 -1254 45 66 103
-648.086 -990.867 -1254 40 65 100
-646.654 -991.672 -1255 38 63 98
-644.705 -991.686 -1255 38 61 98
-642.756 -991.7 -1255 36 59 96
-641.318 -992.505 -1256 33 57 97
-639.369 -992.523 -1256 34 58 98
-636.912 -991.748 -1255 38 60 103
-635.975 -993.344 -1257 38 60 103
-633.519 -992.57 -1256 40 62 99
-631.069 -991.799 -1255 43 65 102
-628.62 -991.026 -1254 41 63 99
-625.676 -989.465 -1252 42 64 100
-624.231 -990.273 -1253 42 64 101
-621.791 -989.501 -1252 39 61 98
-619.354 -988.731 -1251 39 61 96
-617.415 -988.752 -1251 37 59 94
-615.966 -989.561 -1252 34 56 92
-614.025 -989.583 -1252 32 54 90
-611.595 -988.814 -1251 29 51 89
-609.656 -988.836 -1251 27 49 87
-608.202 -989.648 -1252 28 50 88
-606.262 -989.671 -1252 29 51 89
-605.287 -991.275 -1254 30 50 92
-603.343 -991.298 -1254 31 51 93
-601.88 -992.113 -1255 36 56 100
-599.458 -991.348 -1254 43 63 107
-596.562 -989.791 -1252 48 69 113
-594.147 -989.025 -1251 52 73 117
-592.21 -989.051 -1251 54 76 122
-589.8 -988.287 -1250 54 76 122
-587.864 -988.313 -1250 51 75 121
-586.398 -989.131 -1251 52 76 122
-584.927 -989.948 -1252 51 74 123
-583.454 -990.766 -1253 49 72 121
-581.514 -990.795 -1253 47 70 119
-581.424 -993.987 -1257 47 70 119
-581.322 -997.18 -1261 46 70 114
-581.208 -1000.37 -1265 44 68 112
-580.623 -1002.77 -1268 45 66 111
-580.485 -1005.97 -1272 43 64 109
-579.881 -1008.37 -1275 44 65 110
-578.361 -1009.19 -1276 43 64 109
-577.29 -1010.81 -1278 43 63 107
-576.662 -1013.21 -1281 43 63 107
-576.474 -1016.41 -1285 42 63 108
-575.38 -1018.02 -1287 41 62 107
-574.278 -1019.64 -1289 38 59 108
-574.06 -1022.84 -1293 35 56 105
-574.714 -1027.62 -1299 34 58 104
-573.144 -1028.44 -1300 36 60 106
-573.328 -1032.43 -1305 40 61 108
-572.622 -1034.84 -1308 43 64 111
-571.908 -1037.25 -1311 42 62 108
-572.487 -1042.04 -1317 43 63 109
-571.748 -1044.45 -1320 44 62 100
-571.864 -1048.44 -1325 33 51 89
-571.964 -1052.43 -1330 13 26 59
-574.19 -1060.39 -1340 0 12 45
-573.825 -1063.59 -1344 4 15 43
-573.02 -1066 -1347 8 19 47
-571.784 -1067.62 -1349 10 22 47
-568.429 -1065.29 -1346 10 22 47
-565.504 -1063.74 -1344 16 24 50
-563.006 -1062.99 -1343 16 24 50
-560.51 -1062.24 -1342 18 28 56
-558.016 -1061.49 -1341 22 32 60
-555.112 -1059.95 -1339 25 36 68
-553.864 -1061.57 -1341 26 37 69
-551.789 -1061.61 -1341 29 39 71
-548.894 -1060.07 -1339 31 41 73
-546.412 -1059.32 -1338 31 44 77
-543.121 -1056.98 -1335 34 47 80
-540.648 -1056.23 -1334 39 51 83
-538.179 -1055.48 -1333 40 52 84
-535.31 -1053.94 -1331 33 50 84
-533.25 -1053.98 -1331 30 47 81
-531.189 -1054.02 -1331 31 48 82
-528.73 -1053.27 -1330 33 50 84
-526.67 -1053.31 -1330 36 53 87
-523.821 -1051.77 -1328 40 57 91
-520.979 -1050.22 -1326 44 61 97
-518.925 -1050.26 -1326 40 57 93
-516.481 -1049.51 -1325 34 56 93
-514.428 -1049.55 -1325 33 55 92
-512.375 -1049.6 -1325 30 52 90
-510.708 -1050.43 -1326 31 53 91
-508.269 -1049.68 -1325 34 54 96
-505.834 -1048.93 -1324 32 52 94
-503.021 -1047.38 -1322 29 51 90
-500.594 -1046.63 -1321 31 53 92
-497.791 -1045.09 -1319 32 52 94
-495.37 -1044.34 -1318 31 51 93
-492.953 -1043.59 -1317 32 52 95
-491.284 -1044.42 -1318 35 55 98
-490.725 -1047.63 -1322 41 61 106
-489.414 -1049.26 -1324 47 67 112
-488.465 -1051.68 -1327 46 66 113
-487.507 -1054.1 -1330 44 64 111
-486.174 -1055.73 -1332 39 62 111
-484.834 -1057.35 -1334 35 58 107
-482.765 -1057.39 -1334 29 55 103
-481.056 -1058.23 -1335 29 55 103
-479.343 -1059.06 -1336 29 55 101
-477.984 -1060.69 -1338 29 55 101
-476.263 -1061.52 -1339 30 57 104
-475.248 -1063.94 -1342 30 57 104
-473.87 -1065.57 -1344 33 59 105
-472.135 -1066.41 -1345 32 58 104
-470.745 -1068.03 -1347 29 55 101
-469.35 -1069.66 -1349 29 55 101
-467.601 -1070.5 -1350 31 57 101
-466.194 -1072.12 -1352 33 59 103
-464.781 -1073.75 -1354 36 60 103
-464.387 -1077.76 -1359 37 61 104
