ply
format ascii 1.0
comment Created by Open3D
element vertex 1420
property double x
property double y
property double z
property uchar red
property uchar green
property uchar blue
end_header
-613.842 -1259.27 -1430 80 102 145
-612.898 -1261.92 -1433 75 97 140
-610.239 -1261.05 -1432 71 93 136
-608.857 -1262.82 -1434 69 91 134
-606.622 -1262.82 -1434 67 89 132
-604.81 -1263.71 -1435 63 85 128
-602.994 -1264.6 -1436 60 82 125
-600.756 -1264.61 -1436 59 81 124
-599.353 -1266.38 -1438 56 79 121
-597.943 -1268.14 -1440 57 80 122
-596.527 -1269.91 -1442 58 81 122
-595.515 -1272.56 -1445 58 81 122
-595.317 -1276.97 -1450 54 76 117
-595.512 -1282.26 -1456 48 70 111
-594.873 -1285.79 -1460 45 67 107
-594.221 -1289.32 -1464 46 68 108
-593.962 -1293.74 -1469 41 65 106
-593.686 -1298.15 -1474 43 67 108
-592.192 -1299.91 -1476 39 62 103
-590.692 -1301.68 -1478 37 60 101
-589.184 -1303.45 -1480 37 59 100
-587.671 -1305.22 -1482 35 57 98
-585.361 -1305.23 -1482 42 58 94
-582.659 -1304.36 -1481 43 59 95
-546.731 -1312.43 -1490 45 46 63
-545.505 -1315.09 -1493 50 51 68
-544.27 -1317.74 -1496 55 57 78
-542.664 -1319.51 -1498 53 55 76
-540.33 -1319.52 -1498 41 50 76
-537.996 -1319.53 -1498 43 52 78
-535.662 -1319.54 -1498 45 53 79
-533.329 -1319.55 -1498 45 53 79
-529.577 -1316.04 -1494 47 55 81
-526.544 -1314.29 -1492 46 54 80
-522.111 -1309.02 -1486 43 57 87
-517.348 -1302.86 -1479 45 59 89
-514.347 -1301.11 -1477 44 60 92
-509.619 -1294.96 -1470 44 60 92
-506.984 -1294.09 -1469 46 63 97
-504.695 -1294.1 -1469 48 65 99
-501.04 -1290.59 -1465 49 66 102
-498.076 -1288.84 -1463 52 69 105
-494.441 -1285.33 -1459 55 74 113
-490.481 -1280.94 -1454 61 80 119
-486.874 -1277.43 -1450 66 85 126
-483.946 -1275.68 -1448 65 84 125
-480.692 -1273.05 -1445 63 83 126
-477.449 -1270.42 -1442 66 86 129
-474.872 -1269.55 -1441 68 91 134
-472.301 -1268.69 -1440 69 92 135
-469.078 -1266.06 -1437 68 91 134
-466.515 -1265.19 -1436 70 93 136
-463.631 -1263.44 -1434 68 92 135
-461.398 -1263.46 -1434 69 93 136
-458.844 -1262.59 -1433 74 98 143
-456.293 -1261.73 -1432 75 99 144
-454.379 -1262.62 -1433 74 95 139
-451.516 -1260.88 -1431 74 95 139
-449.287 -1260.89 -1431 76 98 141
-446.434 -1259.15 -1429 78 100 143
-443.586 -1257.4 -1427 79 101 142
-441.053 -1256.53 -1426 78 100 141
-438.525 -1255.67 -1425 76 99 143
-436.305 -1255.68 -1425 75 98 142
-434.39 -1256.58 -1426 78 101 145
-433.078 -1259.24 -1429 82 105 149
-431.455 -1261.02 -1431 82 107 153
-430.126 -1263.68 -1434 83 108 154
-429.981 -1269.87 -1441 77 103 149
-430.705 -1278.7 -1451 71 97 143
-430.216 -1284.01 -1457 71 94 138
-429.121 -1287.55 -1461 64 87 131
-427.138 -1288.45 -1462 56 77 122
-424.86 -1288.47 -1462 53 74 119
-422.872 -1289.36 -1463 52 72 116
-688.644 -1293.04 -1466 70 79 103
-684.021 -1288.64 -1461 74 83 107
-679.881 -1285.12 -1457 77 86 110
-673.893 -1278.08 -1449 80 89 113
-668.856 -1272.79 -1443 80 89 117
-665.224 -1270.15 -1440 77 86 114
-660.68 -1265.75 -1435 72 87 119
-657.069 -1263.12 -1432 76 91 123
-653.926 -1261.36 -1430 78 95 131
-651.243 -1260.49 -1429 81 98 134
-648.109 -1258.73 -1427 80 98 138
-644.077 -1255.21 -1423 77 95 135
-640.959 -1253.46 -1421 78 98 138
-638.747 -1253.46 -1421 85 105 145
-636.085 -1252.59 -1420 87 109 148
-632.981 -1250.83 -1418 86 108 147
-631.218 -1251.72 -1419 85 109 148
-628.564 -1250.85 -1418 86 110 149
-626.356 -1250.86 -1418 90 112 153
-624.147 -1250.86 -1418 90 112 153
-622.377 -1251.75 -1419 88 110 149
-620.604 -1252.64 -1420 84 106 145
-619.262 -1254.41 -1422 78 102 143
-617.915 -1256.19 -1424 77 101 142
-616.994 -1258.84 -1427 79 101 144
-615.632 -1260.61 -1429 80 102 145
-614.265 -1262.38 -1431 79 101 144
-612.891 -1264.15 -1433 77 99 142
-610.658 -1264.16 -1433 75 97 140
-608.851 -1265.05 -1434 73 95 138
-607.039 -1265.94 -1435 68 90 133
-604.804 -1265.95 -1435 63 85 128
-603.407 -1267.72 -1437 60 82 125
-601.169 -1267.72 -1437 60 82 125
-599.763 -1269.5 -1439 60 82 123
-598.351 -1271.27 -1441 61 83 124
-596.933 -1273.04 -1443 60 82 123
-596.745 -1277.46 -1448 58 80 121
-596.952 -1282.76 -1454 53 75 116
-595.914 -1285.41 -1457 46 68 109
-596.496 -1291.59 -1464 44 66 107
-595.431 -1294.25 -1467 47 69 110
-594.763 -1297.78 -1471 42 66 107
-593.68 -1300.44 -1474 40 64 105
-592.184 -1302.21 -1476 40 62 103
-590.684 -1303.98 -1478 40 62 103
-589.177 -1305.75 -1480 34 56 97
-587.267 -1306.64 -1481 29 51 92
-585.354 -1307.53 -1482 41 55 92
-581.865 -1304.89 -1479 46 60 97
-545.86 -1318.28 -1494 54 55 71
-544.26 -1320.06 -1496 59 61 82
-542.291 -1320.95 -1497 57 59 80
-539.959 -1320.96 -1497 42 50 76
-537.268 -1320.09 -1496 42 50 76
-534.936 -1320.1 -1496 41 49 75
-532.606 -1320.11 -1496 45 53 79
-528.857 -1316.59 -1492 47 55 81
-525.474 -1313.95 -1489 45 53 79
-521.748 -1310.43 -1485 41 55 84
-517.686 -1306.03 -1480 43 57 86
-513.639 -1301.63 -1475 43 58 90
-510.301 -1299 -1472 45 60 92
-508.008 -1299.01 -1472 44 61 95
-505.37 -1298.14 -1471 45 62 96
-502.395 -1296.38 -1469 49 64 98
-499.085 -1293.75 -1466 52 67 101
-495.446 -1290.23 -1462 55 73 111
-492.156 -1287.6 -1459 61 79 117
-488.54 -1284.08 -1455 65 83 123
-485.271 -1281.45 -1452 65 83 123
-482.011 -1278.81 -1449 62 82 124
-478.76 -1276.18 -1446 64 84 126
-475.519 -1273.54 -1443 67 91 134
-472.943 -1272.67 -1442 67 91 134
-470.043 -1270.92 -1440 66 90 134
-467.15 -1269.17 -1438 69 93 137
-463.94 -1266.53 -1435 70 94 138
-461.705 -1266.55 -1435 70 94 138
-459.149 -1265.68 -1434 73 97 141
-456.915 -1265.69 -1434 73 97 141
-454.682 -1265.71 -1434 76 96 140
-451.817 -1263.96 -1432 75 95 139
-449.272 -1263.09 -1431 75 97 140
-446.418 -1261.34 -1429 78 100 143
-443.881 -1260.47 -1428 79 101 142
-441.038 -1258.72 -1426 79 101 142
-438.509 -1257.86 -1425 76 100 144
-436.595 -1258.76 -1426 76 100 144
-434.983 -1260.54 -1428 79 100 145
-433.364 -1262.32 -1430 83 104 149
-432.343 -1265.86 -1434 82 106 152
-431.609 -1270.3 -1439 80 104 150
-431.755 -1277.38 -1447 71 97 143
-430.984 -1281.81 -1452 66 92 138
-430.494 -1287.12 -1458 68 89 134
-429.397 -1290.67 -1462 60 81 126
-427.412 -1291.57 -1463 53 74 119
-425.714 -1293.35 -1465 51 72 117
-424.009 -1295.13 -1467 49 69 113
-689.574 -1297.08 -1468 73 82 105
-684.949 -1292.68 -1463 74 83 106
-680.339 -1288.27 -1458 74 83 107
-673.883 -1280.32 -1449 77 86 110
-670.237 -1277.68 -1446 79 88 116
-664.752 -1271.51 -1439 79 88 116
-660.211 -1267.1 -1434 73 88 119
-657.061 -1265.34 -1432 77 92 123
-654.374 -1264.47 -1431 81 98 134
-651.691 -1263.59 -1430 82 99 135
-648.101 -1260.95 -1427 80 98 138
-644.522 -1258.31 -1424 78 96 136
-641.402 -1256.55 -1422 79 99 139
-638.738 -1255.67 -1421 84 104 144
-636.078 -1254.8 -1420 85 107 146
-632.973 -1253.04 -1418 85 107 146
-630.32 -1252.16 -1417 85 109 148
-628.557 -1253.05 -1418 86 110 149
-626.349 -1253.06 -1418 87 109 150
-624.139 -1253.07 -1418 89 111 152
-621.931 -1253.08 -1418 84 107 146
-620.596 -1254.85 -1420 81 104 143
-619.255 -1256.63 -1422 78 103 145
-617.909 -1258.4 -1424 76 101 143
-617.419 -1261.94 -1428 82 104 147
-615.625 -1262.83 -1429 81 103 146
-614.257 -1264.61 -1431 82 104 147
-612.883 -1266.38 -1433 77 99 142
-611.078 -1267.27 -1434 77 99 142
-609.693 -1269.05 -1436 76 98 141
-607.456 -1269.06 -1436 70 92 135
-605.218 -1269.06 -1436 65 87 130
-603.82 -1270.84 -1438 65 87 130
-601.998 -1271.73 -1439 64 86 129
-600.173 -1272.62 -1440 64 86 127
-598.76 -1274.39 -1442 63 85 126
-597.754 -1277.05 -1445 62 84 124
-598.386 -1283.24 -1452 58 80 120
-597.356 -1285.9 -1455 52 74 115
-597.542 -1291.21 -1461 48 70 111
-597.71 -1296.52 -1467 47 69 110
-595.831 -1297.41 -1468 46 68 109
-595.16 -1300.95 -1472 43 66 106
-593.671 -1302.73 -1474 41 64 104
-592.177 -1304.5 -1476 36 58 99
-590.676 -1306.28 -1478 29 51 92
-588.771 -1307.17 -1479 21 43 84
-587.26 -1308.95 -1481 21 43 84
-584.951 -1308.95 -1481 44 58 94
-581.07 -1305.42 -1477 47 61 97
-545.121 -1318.83 -1492 64 65 81
-543.523 -1320.61 -1494 67 68 88
-541.195 -1320.62 -1494 58 59 79
-539.228 -1321.51 -1495 41 49 74
-536.539 -1320.64 -1494 42 50 75
-533.854 -1319.76 -1493 40 46 72
-531.171 -1318.89 -1492 43 49 75
-527.783 -1316.25 -1489 45 53 78
-524.757 -1314.49 -1487 45 53 78
-521.034 -1310.96 -1483 42 54 84
-516.976 -1306.56 -1478 44 56 86
-513.28 -1303.03 -1474 44 59 91
-510.289 -1301.27 -1472 46 61 93
-507.651 -1300.4 -1471 45 61 94
-504.671 -1298.64 -1469 44 60 93
-503.067 -1300.42 -1471 44 59 92
-499.754 -1297.78 -1468 49 64 97
-496.111 -1294.26 -1464 52 70 107
-493.155 -1292.5 -1462 56 74 111
-489.199 -1288.09 -1457 60 78 117
-486.26 -1286.34 -1455 62 80 119
-482.995 -1283.7 -1452 63 82 123
-479.741 -1281.06 -1449 64 83 124
-476.493 -1278.42 -1446 65 88 131
-473.914 -1277.55 -1445 67 90 133
-471.009 -1275.79 -1443 66 90 133
-467.786 -1273.15 -1440 67 91 134
-464.573 -1270.52 -1437 70 94 137
-462.013 -1269.64 -1436 74 98 141
-459.455 -1268.77 -1435 74 98 141
-457.219 -1268.78 -1435 73 97 140
-454.984 -1268.8 -1435 73 93 137
-452.117 -1267.05 -1433 74 94 138
-449.571 -1266.18 -1432 74 96 139
-447.028 -1265.31 -1431 76 98 141
-443.866 -1262.67 -1428 78 100 141
-441.332 -1261.8 -1427 80 102 143
-439.109 -1261.81 -1427 78 102 146
-436.885 -1261.83 -1427 77 101 145
-435.272 -1263.62 -1429 80 101 145
-433.954 -1266.28 -1432 80 101 145
-432.93 -1269.84 -1436 77 101 147
-432.792 -1276.04 -1443 74 98 144
-432.334 -1281.36 -1449 69 94 140
-431.264 -1284.92 -1453 65 90 136
-430.772 -1290.24 -1459 62 83 127
-429.086 -1292.02 -1461 56 77 121
-427.687 -1294.7 -1464 51 72 117
-425.987 -1296.48 -1466 50 71 116
-424.859 -1300.04 -1470 48 68 112
-689.563 -1299.36 -1468 72 80 102
-685.406 -1295.83 -1464 74 82 104
-680.794 -1291.41 -1459 74 83 107
-676.664 -1287.89 -1455 76 85 109
-670.228 -1279.93 -1446 79 88 116
-665.205 -1274.63 -1440 79 88 116
-661.122 -1271.09 -1436 75 90 121
-657.051 -1267.56 -1432 78 93 124
-653.908 -1265.8 -1430 80 97 133
-650.77 -1264.04 -1428 82 99 135
-647.638 -1262.28 -1426 81 99 139
-644.513 -1260.52 -1424 79 97 137
-641.393 -1258.76 -1422 80 100 140
-639.18 -1258.77 -1422 85 105 145
-636.517 -1257.89 -1421 85 107 146
-632.966 -1255.24 -1418 84 106 145
-630.312 -1254.36 -1417 83 107 146
-628.106 -1254.37 -1417 84 108 147
-625.457 -1253.49 -1416 87 109 150
-624.132 -1255.27 -1418 87 109 150
-621.923 -1255.28 -1418 80 104 143
-620.152 -1256.17 -1419 79 103 142
-619.248 -1258.84 -1422 77 103 146
-618.334 -1261.5 -1425 76 102 145
-617.412 -1264.16 -1428 81 103 146
-615.618 -1265.06 -1429 78 100 143
-614.251 -1266.83 -1431 80 102 145
-612.449 -1267.73 -1432 78 100 143
-611.07 -1269.5 -1434 77 99 142
-609.261 -1270.4 -1435 74 96 139
-607.025 -1270.4 -1435 69 91 134
-605.211 -1271.3 -1436 66 88 131
-603.813 -1273.07 -1438 66 88 131
-602.409 -1274.85 -1440 64 86 129
-600.999 -1276.63 -1442 61 83 124
-599.998 -1279.29 -1445 61 83 124
-599.401 -1282.84 -1449 62 84 123
-599.204 -1287.27 -1454 58 80 119
-598.58 -1290.82 -1458 51 73 114
-598.354 -1295.26 -1463 47 69 110
-597.704 -1298.8 -1467 46 68 109
-597.041 -1302.35 -1471 44 66 107
-595.962 -1305.02 -1474 42 64 103
-594.068 -1305.91 -1475 41 63 102
-592.17 -1306.8 -1476 35 57 98
-590.669 -1308.58 -1478 30 52 93
-588.764 -1309.47 -1479 25 47 88
-586.855 -1310.36 -1480 27 49 90
-584.155 -1309.48 -1479 47 62 96
-580.669 -1306.84 -1476 47 62 96
-546.208 -1323.8 -1495 61 62 78
-543.514 -1322.93 -1494 67 68 88
-541.548 -1323.82 -1495 61 62 82
-539.218 -1323.83 -1495 40 48 72
-536.17 -1322.07 -1493 41 49 73
-533.128 -1320.31 -1491 45 50 75
-530.094 -1318.55 -1489 47 52 77
-527.064 -1316.78 -1487 44 52 76
-523.689 -1314.14 -1484 45 53 77
-520.321 -1311.49 -1481 44 55 85
-516.615 -1307.96 -1477 47 58 88
-513.269 -1305.31 -1474 45 60 92
-510.278 -1303.55 -1472 45 60 92
-506.95 -1300.91 -1469 45 60 92
-504.661 -1300.92 -1469 45 60 92
-503.739 -1304.47 -1473 45 60 92
-499.742 -1300.05 -1468 47 62 94
-496.1 -1296.52 -1464 50 67 103
-492.806 -1293.88 -1461 55 72 108
-489.187 -1290.35 -1457 61 78 116
-485.58 -1286.82 -1453 65 82 120
-482.652 -1285.06 -1451 65 83 123
-479.728 -1283.3 -1449 66 84 124
-477.471 -1283.31 -1449 63 85 128
-474.556 -1281.55 -1447 67 89 132
-471.323 -1278.91 -1444 68 92 135
-468.423 -1277.15 -1442 70 94 137
-465.53 -1275.39 -1440 72 96 139
-462.964 -1274.51 -1439 73 97 140
-460.402 -1273.64 -1438 73 97 140
-457.842 -1272.77 -1437 72 96 139
-455.287 -1271.9 -1436 73 93 137
-452.419 -1270.14 -1434 72 92 136
-449.871 -1269.27 -1433 73 95 138
-447.014 -1267.51 -1431 77 99 142
-444.163 -1265.75 -1429 80 102 143
-441.936 -1265.77 -1429 81 103 144
-439.709 -1265.78 -1429 78 102 146
-437.483 -1265.8 -1429 75 99 143
-435.866 -1267.58 -1431 78 100 143
-434.242 -1269.37 -1433 79 101 144
-433.819 -1274.7 -1439 77 101 147
-433.377 -1280.03 -1445 74 98 144
-432.617 -1284.47 -1450 68 92 138
-431.841 -1288.92 -1455 63 87 133
-430.46 -1291.59 -1458 60 82 125
-428.776 -1293.38 -1460 56 78 121
-427.963 -1297.83 -1465 52 72 117
-426.261 -1299.61 -1467 49 69 114
-424.553 -1301.4 -1469 47 67 111
-690.961 -1304.3 -1471 70 78 100
-686.332 -1299.87 -1466 72 80 102
-681.717 -1295.45 -1461 74 83 107
-675.723 -1288.37 -1453 76 85 109
-670.218 -1282.17 -1446 78 87 114
-665.196 -1276.86 -1440 80 89 116
-661.113 -1273.32 -1436 78 92 123
-657.043 -1269.79 -1432 79 93 124
-653.899 -1268.02 -1430 80 96 131
-650.761 -1266.26 -1428 82 98 133
-647.629 -1264.49 -1426 80 99 138
-644.052 -1261.84 -1423 78 97 136
-641.385 -1260.96 -1422 81 102 140
-639.171 -1260.97 -1422 86 107 145
-636.061 -1259.21 -1420 85 107 146
-632.957 -1257.44 -1418 84 106 145
-630.304 -1256.56 -1417 83 106 146
-627.654 -1255.69 -1416 84 107 147
-625.89 -1256.58 -1417 85 107 147
-624.124 -1257.48 -1418 84 106 146
-621.915 -1257.48 -1418 77 101 141
-620.581 -1259.27 -1420 78 102 142
-619.676 -1261.93 -1423 77 103 146
-619.195 -1265.49 -1427 77 103 146
-617.836 -1267.27 -1429 81 103 146
-616.042 -1268.16 -1430 76 98 141
-614.243 -1269.06 -1431 78 100 143
-612.87 -1270.84 -1433 78 100 143
-611.489 -1272.62 -1435 76 98 141
-609.678 -1273.51 -1436 72 94 137
-607.864 -1274.41 -1437 69 91 134
-606.468 -1276.19 -1439 70 92 135
-604.645 -1277.08 -1440 69 91 134
-603.657 -1279.75 -1443 65 87 130
-602.242 -1281.53 -1445 61 83 125
-602.067 -1285.97 -1450 62 84 126
-601.049 -1288.64 -1453 62 84 124
-600.845 -1293.08 -1458 58 80 120
-600.626 -1297.52 -1463 51 73 113
-599.983 -1301.08 -1467 48 70 110
-598.919 -1303.75 -1470 46 68 108
-597.44 -1305.53 -1472 44 66 106
-595.954 -1307.31 -1474 41 63 101
-594.463 -1309.09 -1476 41 63 101
-592.163 -1309.09 -1476 41 63 104
-590.263 -1309.99 -1477 43 65 106
-588.757 -1311.77 -1479 38 60 101
-587.245 -1313.55 -1481 36 58 99
-584.147 -1311.78 -1479 49 62 97
-545.833 -1325.24 -1494 48 48 64
-543.869 -1326.13 -1495 56 57 77
-541.539 -1326.14 -1495 65 66 86
-538.848 -1325.26 -1494 47 54 77
-535.802 -1323.5 -1492 43 50 73
-532.405 -1320.85 -1489 45 50 75
-529.371 -1319.08 -1487 46 51 76
-525.991 -1316.43 -1484 46 53 76
-523.326 -1315.55 -1483 46 53 76
-519.96 -1312.9 -1480 44 55 84
-516.605 -1310.25 -1477 47 58 87
-514.652 -1311.15 -1478 46 60 91
-510.962 -1307.61 -1474 46 60 91
-507.974 -1305.84 -1472 45 60 92
-505.68 -1305.85 -1472 46 61 93
-504.412 -1308.52 -1475 45 60 92
-501.093 -1305.87 -1472 47 62 94
-497.783 -1303.22 -1469 49 66 101
-494.482 -1300.57 -1466 54 71 106
-490.854 -1297.04 -1462 58 75 111
-486.905 -1292.61 -1457 62 79 115
-483.637 -1289.96 -1454 63 81 120
-480.378 -1287.31 -1451 64 82 121
-478.117 -1287.32 -1451 62 82 123
-474.873 -1284.67 -1448 65 85 126
-472.29 -1283.8 -1447 68 90 132
-469.385 -1282.04 -1445 70 92 134
-466.164 -1279.39 -1442 71 94 136
-463.596 -1278.51 -1441 73 96 138
-460.71 -1276.75 -1439 73 96 138
-458.149 -1275.88 -1438 72 95 137
-455.274 -1274.11 -1436 72 93 137
-452.721 -1273.24 -1435 70 91 135
-449.544 -1270.59 -1432 74 96 139
-446.687 -1268.83 -1430 79 101 144
-444.459 -1268.84 -1430 81 103 144
-441.922 -1267.97 -1429 82 104 145
-440.003 -1268.87 -1430 79 102 145
-437.775 -1268.88 -1430 76 99 142
-436.46 -1271.56 -1433 77 99 142
-435.743 -1276.01 -1438 80 102 145
-435.01 -1280.46 -1443 78 102 148
-433.961 -1284.03 -1447 74 98 144
-432.602 -1286.7 -1450 69 93 139
-431.826 -1291.15 -1455 62 86 132
-430.444 -1293.83 -1458 58 80 123
-428.76 -1295.62 -1460 55 77 120
-427.362 -1298.3 -1463 52 72 116
-425.953 -1300.98 -1466 47 67 111
-424.537 -1303.66 -1469 47 66 110
-691.891 -1308.36 -1473 68 76 98
-687.726 -1304.81 -1469 71 79 101
-682.174 -1298.61 -1462 72 81 105
-676.179 -1291.51 -1454 76 85 109
-671.135 -1286.19 -1448 79 88 114
-666.109 -1280.87 -1442 81 90 116
-661.104 -1275.55 -1436 79 93 124
-657.491 -1272.9 -1433 80 94 125
-654.347 -1271.13 -1431 80 95 129
-650.752 -1268.48 -1428 81 96 130
-647.621 -1266.71 -1426 78 99 136
-644.043 -1264.05 -1423 77 98 135
-641.375 -1263.17 -1422 81 102 139
-638.713 -1262.29 -1421 85 106 143
-636.053 -1261.41 -1420 87 107 147
-632.948 -1259.64 -1418 88 108 148
-630.296 -1258.77 -1417 87 109 150
-628.532 -1259.66 -1418 86 108 149
-626.324 -1259.67 -1418 83 105 144
-624.556 -1260.57 -1419 82 104 143
-622.785 -1261.46 -1420 76 100 141
-621.447 -1263.25 -1422 78 102 143
-620.975 -1266.81 -1426 78 104 147
-620.055 -1269.48 -1429 79 105 148
-618.694 -1271.27 -1431 82 104 147
-616.465 -1271.28 -1431 75 97 140
-615.094 -1273.06 -1433 73 95 138
-613.717 -1274.84 -1435 74 96 139
-611.482 -1274.85 -1435 73 95 138
-610.944 -1278.41 -1439 69 91 134
-609.548 -1280.2 -1441 69 91 134
-608.147 -1281.98 -1443 71 93 136
-606.319 -1282.88 -1444 69 91 134
-605.324 -1285.55 -1447 64 86 129
-604.736 -1289.11 -1451 62 84 127
-603.721 -1291.78 -1454 61 83 126
-602.697 -1294.45 -1457 60 82 123
-602.487 -1298.9 -1462 55 77 118
-601.851 -1302.46 -1466 47 69 108
-600.793 -1305.14 -1469 43 65 104
-599.319 -1306.92 -1471 44 64 104
-597.027 -1306.93 -1471 43 63 103
-595.947 -1309.6 -1474 43 64 101
-594.053 -1310.5 -1475 40 61 98
-591.755 -1310.5 -1475 41 63 104
-590.256 -1312.29 -1477 47 69 110
-589.148 -1314.96 -1480 42 64 105
-586.841 -1314.97 -1480 38 60 101
-546.19 -1328.44 -1495 38 36 53
-544.224 -1329.34 -1496 40 41 61
-541.168 -1327.57 -1494 60 61 81
-538.839 -1327.58 -1494 54 60 82
-535.794 -1325.82 -1492 46 52 74
-532.395 -1323.16 -1489 42 47 72
-529.006 -1320.5 -1486 44 49 74
-525.628 -1317.84 -1483 48 54 76
-522.61 -1316.07 -1481 48 54 76
-519.6 -1314.31 -1479 45 56 84
-516.945 -1313.43 -1478 46 57 85
-514.293 -1312.55 -1477 45 59 90
-510.952 -1309.89 -1474 45 59 90
-508.31 -1309.01 -1473 45 60 92
-506.357 -1309.91 -1474 46 61 93
-504.744 -1311.7 -1476 45 60 92
-501.423 -1309.04 -1473 46 61 93
-497.772 -1305.5 -1469 48 65 99
-494.808 -1303.73 -1467 51 68 102
-491.515 -1301.08 -1464 53 70 104
-487.229 -1295.75 -1458 55 72 106
-484.291 -1293.99 -1456 58 75 113
-481.029 -1291.33 -1453 60 77 115
-478.765 -1291.34 -1453 62 80 118
-475.845 -1289.58 -1451 62 80 118
-472.931 -1287.81 -1449 62 82 124
-470.023 -1286.05 -1447 65 85 127
-466.475 -1282.5 -1443 66 88 129
-463.905 -1281.63 -1442 70 92 133
-461.017 -1279.86 -1440 73 95 136
-458.137 -1278.09 -1438 73 95 136
-455.261 -1276.33 -1436 74 96 139
-452.393 -1274.56 -1434 72 94 137
-449.531 -1272.8 -1432 75 97 140
-446.987 -1271.92 -1431 80 102 145
-444.758 -1271.94 -1431 81 103 144
-442.527 -1271.95 -1431 81 103 144
-440.298 -1271.96 -1431 81 103 146
-438.679 -1273.75 -1433 79 101 144
-437.361 -1276.43 -1436 78 100 143
-436.638 -1280.89 -1441 81 103 146
-435.297 -1283.57 -1444 79 103 149
-434.547 -1288.03 -1449 76 100 146
-432.885 -1289.82 -1451 71 95 141
-432.405 -1295.17 -1457 63 87 133
-430.725 -1296.96 -1459 57 79 122
-429.039 -1298.75 -1461 54 76 119
-427.346 -1300.55 -1463 50 70 114
-425.938 -1303.23 -1466 47 67 111
-424.52 -1305.91 -1469 49 67 111
-693.288 -1313.31 -1476 69 77 98
-688.651 -1308.87 -1471 71 79 100
-683.563 -1303.54 -1465 72 81 105
-678.493 -1298.21 -1459 76 85 109
-672.978 -1292 -1452 78 87 113
-667.485 -1285.78 -1445 80 89 115
-662.474 -1280.45 -1439 78 92 123
-657.94 -1276.01 -1434 79 93 124
-654.336 -1273.35 -1431 79 94 128
-651.198 -1271.58 -1429 80 95 129
-647.157 -1268.03 -1425 77 98 135
-644.034 -1266.26 -1423 77 98 135
-641.368 -1265.38 -1422 82 101 139
-638.704 -1264.5 -1421 86 105 143
-636.491 -1264.51 -1421 88 109 147
-633.833 -1263.63 -1420 91 112 150
-630.732 -1261.86 -1418 90 112 152
-628.524 -1261.87 -1418 86 108 148
-627.2 -1263.66 -1420 86 108 147
-625.428 -1264.55 -1421 82 104 143
-624.092 -1266.34 -1423 74 98 139
-622.75 -1268.13 -1425 76 100 141
-621.838 -1270.81 -1428 78 104 147
-620.915 -1273.48 -1431 79 105 148
-619.983 -1276.16 -1434 81 103 146
-618.181 -1277.06 -1435 72 94 137
-616.804 -1278.85 -1437 71 93 136
-614.993 -1279.74 -1438 73 95 138
-612.753 -1279.75 -1438 74 96 139
-611.786 -1282.43 -1441 72 94 137
-610.387 -1284.22 -1443 72 94 137
-608.983 -1286 -1445 73 95 138
-608.411 -1289.57 -1449 70 92 135
-606.99 -1291.36 -1451 64 86 129
-605.979 -1294.03 -1454 62 84 127
-604.959 -1296.71 -1457 61 83 126
-603.102 -1297.61 -1458 59 81 121
-602.48 -1301.18 -1462 53 75 115
-601.843 -1304.74 -1466 44 66 105
-600.377 -1306.53 -1468 38 60 99
-598.497 -1307.43 -1469 40 60 100
-596.614 -1308.33 -1470 42 62 102
-595.132 -1310.11 -1472 43 62 100
-593.644 -1311.9 -1474 43 62 100
-591.748 -1312.8 -1475 41 63 103
-590.248 -1314.58 -1477 43 65 105
-588.345 -1315.48 -1478 38 59 101
-586.041 -1315.49 -1478 42 63 105
-546.547 -1331.66 -1496 47 46 61
-544.216 -1331.67 -1496 40 39 59
-541.884 -1331.67 -1496 55 54 74
-538.47 -1329.01 -1493 53 59 81
-535.066 -1326.35 -1490 47 53 75
-531.671 -1323.69 -1487 41 46 70
-528.285 -1321.02 -1484 46 51 75
-524.91 -1318.36 -1481 48 54 76
-521.896 -1316.59 -1479 50 56 78
-519.239 -1315.71 -1478 47 58 86
-516.586 -1314.83 -1477 45 56 84
-513.936 -1313.95 -1476 42 56 87
-511.636 -1313.96 -1476 43 57 88
-508.99 -1313.08 -1475 45 59 90
-506.692 -1313.09 -1475 46 60 91
-504.392 -1313.1 -1475 46 60 91
-500.732 -1309.54 -1471 46 60 91
-497.423 -1306.88 -1468 47 63 96
-494.461 -1305.11 -1466 48 64 97
-490.498 -1300.67 -1461 48 64 98
-487.886 -1299.79 -1460 49 65 99
-484.613 -1297.13 -1457 53 69 106
-481.35 -1294.47 -1454 55 71 108
-478.755 -1293.59 -1453 57 74 110
-476.161 -1292.71 -1452 58 75 111
-473.246 -1290.94 -1450 60 78 118
-470.337 -1289.17 -1448 63 81 121
-466.786 -1285.62 -1444 64 84 124
-463.893 -1283.85 -1442 67 87 127
-460.686 -1281.19 -1439 72 92 133
-458.125 -1280.32 -1438 75 95 136
-455.25 -1278.55 -1436 74 96 139
-452.381 -1276.78 -1434 72 94 137
-449.832 -1275.9 -1433 75 97 140
-447.287 -1275.02 -1432 79 101 144
-445.055 -1275.03 -1432 80 102 143
-442.824 -1275.05 -1432 83 105 146
-440.9 -1275.95 -1433 83 105 148
-439.279 -1277.74 -1435 79 101 144
-438.261 -1281.32 -1439 78 99 143
-436.927 -1284 -1442 80 101 145
-435.886 -1287.58 -1446 78 102 148
-435.132 -1292.04 -1451 74 98 144
-433.766 -1294.73 -1454 68 92 138
-432.687 -1298.3 -1458 60 84 130
-431.301 -1300.99 -1461 54 75 119
-429.318 -1301.89 -1462 51 72 116
-427.624 -1303.69 -1464 49 68 111
-425.632 -1304.59 -1465 50 69 112
-424.506 -1308.17 -1469 51 69 112
-695.156 -1319.16 -1480 68 76 96
-690.512 -1314.72 -1475 71 79 99
-685.418 -1309.38 -1469 72 81 105
-680.342 -1304.04 -1463 75 84 108
-674.358 -1296.92 -1455 77 86 112
-668.399 -1289.8 -1447 78 87 113
-662.924 -1283.57 -1440 76 90 121
-658.389 -1279.13 -1435 78 92 123
-654.784 -1276.46 -1432 79 94 128
-650.733 -1272.91 -1428 79 94 128
-647.147 -1270.24 -1425 74 95 132
-643.572 -1267.58 -1422 76 97 134
-640.906 -1266.7 -1421 82 100 138
-639.144 -1267.6 -1422 85 103 141
-636.483 -1266.72 -1421 87 108 145
-633.824 -1265.83 -1420 92 113 150
-630.723 -1264.06 -1418 91 113 152
-629.401 -1265.85 -1420 86 108 147
-627.633 -1266.75 -1421 85 107 146
-626.3 -1268.54 -1423 82 104 143
-624.961 -1270.33 -1425 73 97 138
-623.616 -1272.12 -1427 74 98 139
-622.264 -1273.92 -1429 75 101 144
-621.774 -1277.49 -1433 76 102 145
-620.407 -1279.28 -1435 79 101 144
-618.603 -1280.18 -1436 72 94 137
-617.225 -1281.97 -1438 72 94 137
-615.413 -1282.87 -1439 73 95 138
-614.876 -1286.45 -1443 74 96 139
-613.902 -1289.13 -1446 75 97 140
-612.495 -1290.92 -1448 74 96 139
-611.503 -1293.6 -1451 74 96 139
-610.502 -1296.28 -1454 69 91 134
-609.074 -1298.07 -1456 63 85 128
-608.056 -1300.75 -1459 60 82 125
-605.782 -1300.76 -1459 57 79 122
-604.751 -1303.44 -1462 55 77 116
-603.297 -1305.23 -1464 51 73 112
-602.247 -1307.92 -1467 43 65 104
-601.189 -1310.6 -1470 39 61 100
-598.491 -1309.71 -1469 41 61 101
-596.607 -1310.61 -1470 42 62 102
-595.125 -1312.4 -1472 43 61 99
-592.831 -1312.41 -1472 46 64 102
-591.741 -1315.09 -1475 42 62 102
-590.242 -1316.88 -1477 37 57 97
-588.338 -1317.78 -1478 30 50 92
-586.431 -1318.68 -1479 45 65 107
-545.809 -1332.2 -1494 61 60 74
-544.208 -1333.99 -1496 58 56 75
-541.876 -1334 -1496 62 60 79
-537.38 -1328.65 -1490 53 59 81
-533.981 -1325.99 -1487 46 52 74
-530.59 -1323.32 -1484 41 47 69
-527.566 -1321.55 -1482 45 51 73
-524.192 -1318.88 -1479 46 52 74
-521.181 -1317.1 -1477 49 55 77
-518.528 -1316.22 -1476 46 57 85
-516.227 -1316.23 -1476 44 55 83
-514.623 -1318.02 -1478 42 56 87
-511.973 -1317.14 -1477 43 57 88
-509.326 -1316.26 -1476 44 58 89
-506.682 -1315.37 -1475 44 58 89
-504.383 -1315.38 -1475 46 60 91
-500.722 -1311.82 -1471 46 60 91
-497.414 -1309.16 -1468 46 61 93
-494.451 -1307.38 -1466 46 61 93
-490.488 -1302.94 -1461 44 59 93
-487.876 -1302.05 -1460 44 59 93
-484.935 -1300.28 -1458 47 61 98
-481.008 -1295.83 -1453 51 65 102
-478.744 -1295.84 -1453 54 69 103
-476.152 -1294.96 -1452 55 70 104
-473.236 -1293.19 -1450 57 74 112
-470.651 -1292.31 -1449 62 79 117
-467.099 -1288.75 -1445 65 83 121
-463.56 -1285.19 -1441 68 86 124
-460.674 -1283.42 -1439 71 89 129
-457.795 -1281.65 -1437 73 91 131
-455.238 -1280.76 -1436 69 91 134
-452.369 -1278.99 -1434 70 92 135
-449.507 -1277.22 -1432 73 95 138
-446.963 -1276.34 -1431 75 97 140
-445.043 -1277.24 -1432 78 100 141
-443.12 -1278.15 -1433 84 106 147
-441.195 -1279.05 -1434 85 107 150
-439.878 -1281.74 -1437 80 102 145
-438.249 -1283.54 -1439 80 100 144
-436.915 -1286.22 -1442 79 99 143
-436.175 -1290.7 -1447 74 98 144
-435.119 -1294.28 -1451 69 93 139
-434.051 -1297.86 -1455 62 86 132
-432.674 -1300.55 -1458 54 78 124
-430.992 -1302.34 -1460 51 71 115
-429.304 -1304.14 -1462 47 67 111
-428.194 -1307.72 -1466 52 70 112
-426.49 -1309.52 -1468 53 71 113
-425.647 -1314 -1473 52 70 112
-690.969 -1317.9 -1476 73 80 100
-686.806 -1314.34 -1472 73 82 106
-682.191 -1309.88 -1467 73 82 106
-675.274 -1300.96 -1457 74 83 109
-668.85 -1292.94 -1448 77 86 112
-663.835 -1287.59 -1442 76 90 121
-659.296 -1283.14 -1437 78 92 123
-654.774 -1278.68 -1432 78 93 127
-651.178 -1276.01 -1429 77 92 126
-647.137 -1272.45 -1425 73 92 130
-643.562 -1269.78 -1422 75 94 132
-640.897 -1268.9 -1421 80 98 136
-639.135 -1269.8 -1422 84 102 140
-636.921 -1269.81 -1422 85 106 143
-634.261 -1268.93 -1421 89 110 147
-631.159 -1267.15 -1419 88 110 149
-629.836 -1268.95 -1421 84 106 145
-628.066 -1269.85 -1422 82 104 143
-626.291 -1270.75 -1423 81 103 142
-624.953 -1272.55 -1425 73 97 138
-624.045 -1275.23 -1428 73 97 138
-623.127 -1277.92 -1431 72 98 141
-622.2 -1280.61 -1434 71 97 140
-620.831 -1282.4 -1436 75 97 140
-619.026 -1283.3 -1437 71 93 136
-618.075 -1285.99 -1440 70 92 135
-617.116 -1288.68 -1443 67 89 132
-616.998 -1293.15 -1448 67 89 132
-616.017 -1295.84 -1451 69 91 134
-615.025 -1298.53 -1454 69 91 134
-613.603 -1300.32 -1456 69 91 134
-612.174 -1302.11 -1458 65 87 130
-611.577 -1305.69 -1462 58 80 123
-609.298 -1305.7 -1462 54 76 118
-607.021 -1305.71 -1462 49 71 113
-605.57 -1307.5 -1464 47 69 108
-604.114 -1309.3 -1466 45 67 106
-603.061 -1311.98 -1469 43 65 104
-600.772 -1311.99 -1469 41 63 102
-598.482 -1312 -1469 41 63 103
-596.6 -1312.9 -1470 40 62 102
-593.905 -1312.01 -1469 42 60 97
-592.825 -1314.7 -1472 41 59 96
-591.734 -1317.38 -1475 33 53 93
-590.634 -1320.07 -1478 24 44 84
-589.525 -1322.76 -1481 18 38 80
-586.425 -1320.98 -1479 40 60 102
-543.974 -1330.05 -1489 58 57 71
-542.381 -1331.85 -1491 63 61 80
-540.42 -1332.75 -1492 72 70 89
-537.373 -1330.97 -1490 56 62 83
-533.613 -1327.4 -1486 45 51 72
-529.867 -1323.84 -1482 42 48 70
-527.201 -1322.95 -1481 44 50 72
-523.829 -1320.28 -1478 46 52 73
-521.173 -1319.4 -1477 48 54 75
-518.519 -1318.51 -1476 44 54 82
-515.869 -1317.63 -1475 44 54 82
-514.266 -1319.42 -1477 42 56 87
-511.618 -1318.54 -1476 43 57 88
-508.973 -1317.65 -1475 44 58 89
-505.986 -1315.87 -1473 43 57 88
-504.032 -1316.78 -1474 46 58 89
-500.373 -1313.21 -1470 47 59 90
-496.727 -1309.65 -1466 47 61 92
-493.766 -1307.87 -1464 46 60 91
-490.142 -1304.31 -1460 43 58 91
-487.532 -1303.42 -1459 41 56 89
-484.261 -1300.75 -1456 43 59 95
-480.667 -1297.19 -1452 48 64 100
-478.734 -1298.09 -1453 52 67 101
-475.485 -1295.42 -1450 52 67 101
-472.899 -1294.54 -1449 53 69 106
-470.64 -1294.55 -1449 58 74 111
-467.412 -1291.88 -1446 60 78 115
-463.872 -1288.31 -1442 62 80 117
-460.664 -1285.64 -1439 65 82 120
-457.784 -1283.87 -1437 67 84 122
-454.91 -1282.09 -1435 64 85 128
-452.358 -1281.21 -1434 67 88 131
-449.495 -1279.43 -1432 68 89 133
-447.263 -1279.44 -1432 68 89 133
-445.032 -1279.45 -1432 74 96 137
-443.418 -1281.25 -1434 84 106 147
-441.799 -1283.05 -1436 86 108 151
-440.173 -1284.85 -1438 80 102 145
-438.541 -1286.65 -1440 78 98 141
-437.508 -1290.24 -1444 76 96 139
-436.464 -1293.82 -1448 69 93 139
-436.006 -1299.2 -1454 65 89 135
-434.932 -1302.78 -1458 59 83 129
-432.957 -1303.69 -1459 53 77 123
-431.864 -1307.27 -1463 50 70 114
-430.171 -1309.07 -1465 47 67 111
-428.764 -1311.77 -1468 52 70 113
-427.348 -1314.46 -1471 52 70 113
-425.922 -1317.16 -1474 50 68 111
-691.893 -1321.97 -1478 74 80 100
-687.728 -1318.4 -1474 74 82 106
-683.575 -1314.84 -1470 72 80 104
-676.189 -1305.01 -1459 73 82 108
-670.224 -1297.87 -1451 78 87 113
-665.205 -1292.51 -1445 77 91 122
-659.745 -1286.26 -1438 78 92 123
-655.678 -1282.69 -1434 77 92 126
-651.169 -1278.23 -1429 75 90 124
-646.674 -1273.77 -1424 73 91 129
-643.551 -1271.99 -1422 76 94 132
-641.338 -1272 -1422 80 98 136
-639.125 -1272.01 -1422 84 102 140
-636.464 -1271.13 -1421 83 104 141
-633.805 -1270.24 -1420 86 107 144
-631.595 -1270.25 -1420 84 106 145
-630.271 -1272.05 -1422 81 103 142
-628.94 -1273.85 -1424 80 102 141
-626.723 -1273.86 -1424 81 103 142
-625.382 -1275.65 -1426 73 97 138
-624.91 -1279.24 -1430 72 96 137
-623.99 -1281.93 -1433 70 96 139
-623.059 -1284.63 -1436 68 94 137
-622.121 -1287.32 -1439 72 94 137
-621.171 -1290.01 -1442 68 90 133
-620.213 -1292.7 -1445 68 90 133
-619.674 -1296.29 -1449 63 85 128
-618.269 -1298.09 -1451 62 84 127
-618.132 -1302.57 -1456 63 85 128
-616.709 -1304.36 -1458 62 84 127
-615.281 -1306.16 -1460 63 85 128
-613.845 -1307.96 -1462 62 84 127
-611.987 -1308.86 -1463 57 79 122
-609.291 -1307.97 -1462 52 74 115
-607.429 -1308.88 -1463 48 70 111
-605.977 -1310.67 -1465 44 66 105
-604.106 -1311.58 -1466 43 65 104
-602.233 -1312.48 -1467 42 64 103
-600.356 -1313.38 -1468 43 65 104
-598.884 -1315.18 -1470 43 65 106
-595.781 -1313.4 -1468 41 63 104
-594.706 -1316.09 -1471 43 61 97
-594.025 -1319.67 -1475 34 52 88
-592.128 -1320.57 -1476 25 45 85
-591.026 -1323.26 -1479 23 43 83
-589.12 -1324.17 -1480 20 40 82
-586.021 -1322.38 -1478 40 60 102
-543.601 -1331.47 -1488 45 44 58
-542.374 -1334.17 -1491 51 49 68
-540.05 -1334.17 -1491 71 69 88
-537.004 -1332.39 -1489 57 63 83
-532.528 -1327.03 -1483 45 51 71
-529.502 -1325.25 -1481 44 50 72
-526.481 -1323.46 -1479 45 51 73
-523.467 -1321.68 -1477 48 54 74
-520.812 -1320.8 -1476 49 55 75
-518.16 -1319.91 -1475 45 54 82
-515.511 -1319.02 -1474 44 53 81
-513.213 -1319.03 -1474 40 54 85
-511.263 -1319.93 -1475 41 55 86
-508.273 -1318.15 -1473 42 56 87
-505.29 -1316.37 -1471 42 56 87
-503.681 -1318.17 -1473 45 56 86
-499.343 -1312.81 -1467 46 57 87
-495.7 -1309.24 -1463 45 59 90
-492.746 -1307.46 -1461 46 60 91
-488.791 -1302.99 -1456 45 60 92
-486.186 -1302.1 -1455 44 59 91
-482.921 -1299.43 -1452 42 59 95
-479.665 -1296.76 -1449 46 63 99
-478.065 -1298.55 -1451 50 65 99
-475.147 -1296.77 -1449 50 65 99
-472.889 -1296.78 -1449 50 64 101
-469.981 -1295 -1447 52 66 103
-466.109 -1290.53 -1442 54 71 107
-462.897 -1287.86 -1439 56 73 109
-460.014 -1286.08 -1437 60 74 111
-457.137 -1284.3 -1435 64 78 115
-454.582 -1283.42 -1434 66 86 128
-452.032 -1282.53 -1433 67 87 129
-449.485 -1281.65 -1432 65 85 129
-447.253 -1281.66 -1432 63 83 127
-445.332 -1282.56 -1433 70 92 133
-443.717 -1284.36 -1435 83 105 146
-442.095 -1286.16 -1437 85 107 150
-440.468 -1287.97 -1439 76 98 141
-439.443 -1291.56 -1443 74 94 136
-438.405 -1295.15 -1447 72 92 134
-437.657 -1299.64 -1452 68 92 138
-437.193 -1305.02 -1458 65 89 135
-435.815 -1307.71 -1461 59 83 129
-434.725 -1311.31 -1465 54 78 124
-433.327 -1314 -1468 54 74 118
-431.333 -1314.91 -1469 52 72 116
-429.628 -1316.72 -1471 54 72 116
-427.916 -1318.52 -1473 54 72 116
-426.197 -1320.32 -1475 53 71 115
-692.35 -1325.16 -1479 74 81 100
-688.183 -1321.58 -1475 75 84 108
-683.098 -1316.22 -1469 72 81 105
-677.106 -1309.07 -1461 72 82 108
-671.599 -1302.8 -1454 76 86 112
-667.035 -1298.34 -1449 76 90 120
-661.568 -1292.07 -1442 79 93 123
-655.667 -1284.92 -1434 79 93 129
-650.702 -1279.55 -1428 78 92 128
-647.572 -1277.77 -1426 76 93 131
-643.994 -1275.09 -1423 73 90 128
-641.779 -1275.1 -1423 78 96 133
-638.666 -1273.32 -1421 82 100 137
-636.454 -1273.33 -1421 79 101 138
-634.242 -1273.34 -1421 80 102 139
-631.586 -1272.45 -1420 80 102 141
-630.704 -1275.15 -1423 81 103 142
-628.931 -1276.06 -1424 81 103 140
-627.154 -1276.96 -1425 77 99 136
-625.812 -1278.76 -1427 75 99 139
-625.339 -1282.36 -1431 75 99 139
-624.416 -1285.05 -1434 69 94 137
-623.919 -1288.65 -1438 67 92 135
-622.977 -1291.35 -1441 69 91 133
-622.025 -1294.04 -1444 66 88 130
-621.063 -1296.74 -1447 63 85 126
-620.093 -1299.44 -1450 62 84 125
-619.539 -1303.03 -1454 60 82 122
-618.548 -1305.73 -1457 59 81 121
-617.124 -1307.53 -1459 60 82 122
-616.116 -1310.22 -1462 60 82 122
-614.259 -1311.13 -1463 57 80 120
-612.397 -1312.03 -1464 55 78 118
-610.117 -1312.04 -1464 52 74 113
-608.251 -1312.94 -1465 46 68 107
-606.382 -1313.85 -1466 45 67 106
-604.511 -1314.75 -1467 43 65 104
-602.636 -1315.66 -1468 40 63 101
-600.758 -1316.56 -1469 40 63 101
-598.877 -1317.46 -1470 39 61 100
-596.585 -1317.47 -1470 40 62 101
-595.508 -1320.17 -1473 44 63 100
-593.615 -1321.07 -1474 38 57 94
-591.72 -1321.97 -1475 29 50 87
-591.42 -1326.46 -1480 22 43 80
-589.113 -1326.47 -1480 23 44 82
-586.012 -1324.68 -1478 40 61 99
-541.638 -1334.69 -1489 39 38 57
-539.318 -1334.7 -1489 61 60 79
-535.914 -1332.01 -1486 56 59 79
-532.521 -1329.33 -1483 49 52 72
-528.78 -1325.76 -1479 44 49 73
-525.405 -1323.07 -1476 48 53 77
-522.75 -1322.18 -1475 50 57 78
-520.098 -1321.3 -1474 54 61 82
-517.449 -1320.41 -1473 49 58 86
-515.153 -1320.41 -1473 44 53 81
-512.509 -1319.53 -1472 39 51 83
-510.214 -1319.53 -1472 40 52 84
-507.229 -1317.75 -1470 42 56 87
-504.939 -1317.76 -1470 41 55 86
-502.648 -1317.77 -1470 44 56 87
-498.654 -1313.29 -1465 46 58 89
-495.353 -1310.61 -1462 47 61 92
-492.4 -1308.83 -1460 47 61 92
-488.11 -1303.46 -1454 46 59 93
-485.51 -1302.57 -1453 46 59 93
-482.247 -1299.89 -1450 45 59 95
-479.324 -1298.1 -1448 44 58 94
-477.397 -1299.01 -1449 51 66 99
-474.811 -1298.12 -1448 51 66 99
-471.574 -1295.44 -1445 52 67 101
-468.997 -1294.55 -1444 52 67 101
-465.129 -1290.08 -1439 51 68 103
-461.922 -1287.4 -1436 52 69 104
-459.043 -1285.62 -1434 55 71 107
-456.49 -1284.73 -1433 55 71 107
-453.939 -1283.84 -1432 59 78 118
-451.075 -1282.06 -1430 63 82 122
-448.847 -1282.07 -1430 64 83 126
-447.242 -1283.87 -1432 64 83 126
-445.632 -1285.68 -1434 71 91 133
-443.706 -1286.58 -1435 79 99 141
-442.084 -1288.39 -1437 82 104 147
-441.069 -1291.98 -1441 72 94 137
-440.954 -1298.27 -1448 71 91 134
-439.606 -1300.97 -1451 68 88 131
-438.851 -1305.47 -1456 62 86 131
-437.781 -1309.06 -1460 58 82 127
-435.506 -1309.08 -1460 55 78 121
-434.713 -1313.57 -1465 49 72 115
-433.611 -1317.17 -1469 50 70 114
-431.908 -1318.97 -1471 53 73 117
-430.199 -1320.78 -1473 58 77 121
-428.193 -1321.69 -1474 58 77 121
-426.185 -1322.6 -1475 50 68 112
-692.805 -1328.34 -1480 64 72 91
-688.17 -1323.87 -1475 73 82 106
-683.551 -1319.39 -1470 73 82 106
-678.02 -1313.12 -1463 72 84 109
-673.897 -1309.54 -1459 75 87 112
-668.864 -1304.17 -1453 76 90 119
-662.475 -1296.1 -1444 79 93 122
-655.657 -1287.14 -1434 79 93 130
-652.514 -1285.36 -1432 77 91 128
-648.469 -1281.78 -1428 77 91 130
-644.889 -1279.09 -1425 76 90 129
-641.318 -1276.41 -1422 80 97 133
-638.655 -1275.52 -1421 83 100 136
-636.444 -1275.53 -1421 78 100 137
-634.232 -1275.54 -1421 79 101 138
-631.575 -1274.66 -1420 79 101 140
-630.695 -1277.36 -1423 80 102 141
-629.363 -1279.16 -1425 80 102 137
-628.024 -1280.97 -1427 77 99 134
-626.68 -1282.77 -1429 74 98 137
-625.766 -1285.48 -1432 73 97 136
-625.278 -1289.08 -1436 70 94 138
-624.778 -1292.68 -1440 68 92 136
-623.4 -1294.48 -1442 67 89 130
-621.585 -1295.39 -1443 63 85 126
-621.055 -1298.99 -1447 62 84 123
-620.939 -1303.48 -1452 61 83 122
-620.382 -1307.08 -1456 61 82 119
-618.54 -1307.99 -1457 60 81 118
-617.539 -1310.69 -1460 58 80 117
-616.108 -1312.49 -1462 56 78 115
-614.67 -1314.3 -1464 52 77 113
-612.808 -1315.2 -1465 51 76 112
-610.526 -1315.21 -1465 49 71 108
-608.659 -1316.12 -1466 44 66 103
-606.789 -1317.02 -1467 44 66 105
-604.915 -1317.93 -1468 43 65 104
-603.038 -1318.83 -1469 39 64 100
-601.159 -1319.74 -1470 40 65 101
-599.275 -1320.64 -1471 41 62 99
-597.39 -1321.55 -1472 40 61 98
-594.692 -1320.66 -1471 42 63 100
-593.205 -1322.46 -1473 46 67 104
-591.712 -1324.27 -1475 47 68 103
-591.412 -1328.76 -1480 42 63 98
-588.708 -1327.87 -1479 36 57 92
-586.799 -1328.78 -1480 44 65 100
-540.176 -1333.41 -1485 41 42 60
-538.223 -1334.32 -1486 58 59 77
-535.186 -1332.53 -1484 56 57 75
-531.796 -1329.84 -1481 51 52 70
-528.414 -1327.16 -1478 46 51 76
-525.398 -1325.37 -1476 47 52 77
-522.389 -1323.58 -1474 50 58 80
-519.385 -1321.79 -1472 53 61 83
-516.739 -1320.9 -1471 50 57 86
-514.446 -1320.91 -1471 47 54 83
-511.805 -1320.02 -1470 42 53 85
-509.167 -1319.13 -1469 41 52 84
-506.532 -1318.24 -1468 41 55 86
-503.557 -1316.45 -1466 41 55 86
-501.613 -1317.35 -1467 42 56 87
-497.965 -1313.77 -1463 43 57 88
-495.007 -1311.98 -1461 44 58 89
-491.717 -1309.3 -1458 45 59 90
-487.095 -1303.02 -1451 48 61 96
-485.167 -1303.92 -1452 49 62 97
-482.238 -1302.14 -1450 48 61 96
-478.985 -1299.45 -1447 46 59 94
-476.729 -1299.46 -1447 53 68 100
-473.162 -1295.88 -1443 54 69 101
-470.587 -1294.99 -1442 54 69 101
-468.013 -1294.1 -1441 54 69 101
-464.797 -1291.41 -1438 53 70 104
-461.913 -1289.63 -1436 54 71 105
-459.034 -1287.84 -1434 53 70 106
-456.48 -1286.95 -1433 52 69 105
-453.613 -1285.16 -1431 57 75 113
-451.066 -1284.27 -1430 61 79 117
-449.15 -1285.18 -1431 63 81 123
-447.233 -1286.09 -1432 63 81 123
-445.932 -1288.79 -1435 71 89 131
-444.314 -1290.6 -1437 79 97 139
-442.996 -1293.3 -1440 81 103 146
-442.282 -1297.8 -1445 71 93 136
-442.466 -1305 -1453 68 88 132
-441.11 -1307.7 -1456 65 85 129
-439.744 -1310.41 -1459 58 82 126
-438.97 -1314.91 -1464 55 79 123
-436.687 -1314.92 -1464 55 77 118
-436.186 -1320.32 -1470 53 75 116
-434.78 -1323.03 -1473 54 74 118
-432.777 -1323.94 -1474 55 75 119
-430.771 -1324.85 -1475 55 75 120
-428.762 -1325.76 -1476 58 78 123
-426.173 -1324.87 -1475 51 69 113
-692.792 -1330.63 -1480 61 69 88
-689.09 -1327.95 -1477 68 77 101
-684.933 -1324.37 -1473 72 81 105
-679.862 -1318.99 -1467 74 84 111
-675.733 -1315.4 -1463 76 86 113
-669.773 -1308.22 -1455 76 90 119
-662.922 -1299.24 -1445 80 94 123
-658.388 -1294.76 -1440 80 93 128
-654.325 -1291.17 -1436 79 92 127
-649.366 -1285.79 -1430 75 90 129
-645.331 -1282.2 -1426 76 91 130
-642.21 -1280.41 -1424 80 97 134
-639.094 -1278.63 -1422 82 99 136
-636.882 -1278.64 -1422 78 100 137
-634.222 -1277.75 -1421 80 102 139
-632.01 -1277.76 -1421 80 102 140
-630.242 -1278.67 -1422 79 101 139
-628.911 -1280.48 -1424 80 102 138
-628.015 -1283.18 -1427 77 99 135
-626.67 -1284.99 -1429 73 96 136
-626.194 -1288.6 -1433 71 94 134
-626.14 -1293.1 -1438 68 92 136
-625.202 -1295.81 -1441 67 91 135
-623.823 -1297.62 -1443 65 87 128
-622.438 -1299.43 -1445 61 83 124
-621.904 -1303.03 -1449 60 82 121
-621.359 -1306.64 -1453 58 80 119
-619.948 -1308.45 -1455 58 79 117
-618.531 -1310.25 -1457 58 79 117
-617.107 -1312.06 -1459 55 77 114
-615.256 -1312.97 -1460 52 74 111
-613.403 -1313.88 -1461 49 72 108
-611.127 -1313.88 -1461 49 72 108
-609.684 -1315.69 -1463 46 68 104
-607.82 -1316.6 -1464 43 65 101
-605.54 -1316.61 -1464 44 66 104
-604.907 -1320.21 -1468 43 65 103
-603.031 -1321.12 -1469 38 63 99
-601.151 -1322.02 -1470 38 63 99
-599.269 -1322.93 -1471 40 62 100
-596.571 -1322.04 -1470 40 62 100
-595.088 -1323.85 -1472 41 62 100
-593.199 -1324.76 -1473 47 68 106
-591.304 -1325.66 -1474 50 71 107
-591.405 -1331.06 -1480 48 69 105
-588.701 -1330.17 -1479 41 62 97
-586.792 -1331.08 -1480 44 65 100
-539.442 -1333.92 -1483 50 51 69
-537.491 -1334.83 -1484 60 61 79
-534.457 -1333.04 -1482 54 55 73
-531.429 -1331.24 -1480 46 47 65
-528.05 -1328.56 -1477 45 50 75
-524.679 -1325.86 -1474 48 53 78
-522.026 -1324.97 -1473 51 58 80
-519.025 -1323.18 -1471 55 62 84
-516.029 -1321.39 -1469 52 59 88
-513.39 -1320.5 -1468 50 57 86
-510.754 -1319.6 -1467 45 57 88
-508.12 -1318.71 -1466 42 54 85
-505.144 -1316.92 -1464 40 54 85
-501.832 -1314.23 -1461 40 54 85
-500.58 -1316.93 -1464 41 53 85
-496.595 -1312.44 -1459 42 54 86
-493.643 -1310.65 -1457 42 56 87
-490.697 -1308.86 -1455 45 59 90
-486.415 -1303.47 -1449 48 61 96
-483.822 -1302.58 -1448 50 63 98
-480.9 -1300.79 -1446 50 63 98
-477.984 -1299 -1444 48 61 96
-475.733 -1299.01 -1444 52 68 100
-472.498 -1296.31 -1441 56 72 104
-470.251 -1296.32 -1441 57 72 105
-467.355 -1294.53 -1439 56 71 104
-464.142 -1291.84 -1436 55 71 105
-461.26 -1290.05 -1434 55 71 105
-458.705 -1289.16 -1433 52 70 106
-455.834 -1287.37 -1431 54 72 108
-453.286 -1286.48 -1430 57 75 113
-451.057 -1286.49 -1430 61 79 117
-449.141 -1287.4 -1431 62 80 122
-447.535 -1289.21 -1433 62 80 122
-446.544 -1292.81 -1437 70 88 130
-445.231 -1295.52 -1440 79 97 139
-444.217 -1299.13 -1444 80 102 144
-443.802 -1304.54 -1450 69 91 133
-443.979 -1311.75 -1458 65 84 127
-442.008 -1312.65 -1459 63 82 125
-441.241 -1317.17 -1464 57 80 123
-441.057 -1323.47 -1471 55 78 121
-439.361 -1325.28 -1473 55 77 119
-437.658 -1327.09 -1475 55 77 119
-435.949 -1328.9 -1477 58 78 122
-433.646 -1328.91 -1477 58 78 122
-431.928 -1330.72 -1479 59 80 126
-429.331 -1329.84 -1478 59 80 126
-427.028 -1329.85 -1478 50 68 112
-696.49 -1335.62 -1483 52 60 80
-692.31 -1332.02 -1479 59 67 87
-689.077 -1330.24 -1477 63 72 96
-686.315 -1329.35 -1476 70 79 103
-680.776 -1323.06 -1469 75 84 112
-677.106 -1320.37 -1466 76 85 113
-671.603 -1314.08 -1459 76 90 119
-665.663 -1306.88 -1451 80 94 123
-661.577 -1303.29 -1447 80 93 126
-655.681 -1296.1 -1439 79 92 125
-650.263 -1289.8 -1432 73 90 128
-646.225 -1286.21 -1428 75 92 130
-643.101 -1284.42 -1426 79 96 134
-639.533 -1281.73 -1423 82 99 137
-636.871 -1280.84 -1422 80 101 138
-634.212 -1279.95 -1421 80 101 138
-632 -1279.96 -1421 80 101 138
-630.232 -1280.87 -1422 79 100 137
-629.344 -1283.59 -1425 80 102 139
-627.565 -1284.5 -1426 77 99 136
-627.538 -1289.01 -1431 73 95 136
-626.621 -1291.72 -1434 70 92 133
-626.131 -1295.34 -1438 66 90 134
-625.193 -1298.05 -1441 65 89 133
-623.382 -1298.96 -1442 63 85 126
-622.428 -1301.67 -1445 61 83 124
-621.895 -1305.28 -1449 58 80 119
-620.066 -1306.19 -1450 57 79 118
-618.661 -1308 -1452 56 76 116
-617.673 -1310.71 -1455 53 73 113
-616.253 -1312.52 -1457 50 72 109
-614.405 -1313.43 -1458 48 70 107
-612.134 -1313.44 -1458 48 70 105
-609.864 -1313.45 -1458 48 70 105
-608.842 -1316.16 -1461 44 65 100
-606.982 -1317.07 -1462 43 64 99
-605.118 -1317.98 -1463 43 65 102
-604.899 -1322.49 -1468 42 64 101
-603.023 -1323.4 -1469 36 61 97
-601.144 -1324.31 -1470 36 61 97
-599.261 -1325.22 -1471 40 62 101
-596.563 -1324.33 -1470 41 63 102
-595.486 -1327.04 -1473 44 64 104
-593.191 -1327.04 -1473 45 65 105
-591.697 -1328.85 -1475 43 64 101
-591.397 -1333.36 -1480 40 61 98
-589.091 -1333.37 -1480 36 57 92
-586.785 -1333.38 -1480 41 62 97
-537.123 -1336.23 -1483 61 62 80
-534.09 -1334.44 -1481 53 54 72
-531.063 -1332.65 -1479 44 45 63
-527.685 -1329.95 -1476 46 51 76
-524.316 -1327.25 -1473 51 56 81
-521.311 -1325.46 -1471 51 57 79
-518.312 -1323.66 -1469 55 61 83
-515.671 -1322.77 -1468 53 60 89
-512.683 -1320.97 -1466 52 59 88
-510.05 -1320.08 -1465 47 61 90
-507.766 -1320.09 -1465 43 57 86
-504.446 -1317.39 -1462 39 54 85
-501.824 -1316.5 -1461 38 53 84
-499.547 -1316.5 -1461 42 53 85
-495.907 -1312.91 -1457 43 54 86
-492.958 -1311.11 -1455 43 57 88
-489.679 -1308.42 -1452 45 59 90
-486.072 -1304.82 -1448 49 62 97
-483.48 -1303.93 -1447 51 64 99
-480.559 -1302.13 -1445 50 65 99
-477.313 -1299.44 -1442 48 63 97
-474.736 -1298.54 -1441 50 67 99
-471.834 -1296.75 -1439 55 72 104
-469.263 -1295.85 -1438 57 72 106
-466.373 -1294.06 -1436 55 70 104
-463.488 -1292.27 -1434 56 71 105
-460.609 -1290.47 -1432 56 71 105
-458.056 -1289.58 -1431 53 71 107
-455.188 -1287.79 -1429 58 76 112
-453.277 -1288.7 -1430 58 76 114
-451.364 -1289.61 -1431 61 79 117
-449.76 -1291.42 -1433 61 79 121
-448.15 -1293.23 -1435 60 78 120
-446.846 -1295.94 -1438 69 87 129
-445.531 -1298.65 -1441 78 96 138
-445.131 -1304.07 -1447 78 100 141
-445.936 -1313.09 -1457 66 88 129
-444.578 -1315.81 -1460 63 81 123
-443.21 -1318.52 -1463 61 79 121
-442.436 -1323.03 -1468 57 79 122
-441.347 -1326.65 -1472 57 79 122
-438.754 -1325.76 -1471 56 78 121
-437.054 -1327.57 -1473 57 79 122
-435.348 -1329.38 -1475 60 80 124
-433.636 -1331.2 -1477 60 80 124
-432.209 -1333.91 -1480 58 79 126
-429.902 -1333.92 -1480 56 77 124
-427.306 -1333.03 -1479 50 68 112
-695.537 -1336.1 -1481 51 59 80
-692.297 -1334.31 -1479 56 64 85
-690.931 -1336.13 -1481 58 67 90
-687.697 -1334.34 -1479 67 76 99
-682.153 -1328.04 -1472 74 83 110
-678.939 -1326.24 -1470 76 85 112
-673.432 -1319.94 -1463 76 88 118
-668.403 -1314.54 -1457 79 91 121
-663.851 -1310.04 -1452 78 91 123
-657.036 -1301.03 -1442 77 90 122
-652.068 -1295.63 -1436 73 88 127
-647.571 -1291.13 -1431 77 92 131
-644.443 -1289.34 -1429 81 98 135
-640.421 -1285.74 -1425 84 101 138
-636.86 -1283.05 -1422 80 101 138
-634.201 -1282.15 -1421 79 100 137
-631.99 -1282.17 -1421 78 99 136
-631.108 -1284.88 -1424 77 98 135
-628.891 -1284.89 -1424 79 101 138
-627.995 -1287.61 -1427 75 97 134
-629.282 -1294.84 -1435 71 93 133
-626.611 -1293.95 -1434 69 91 131
-626.12 -1297.57 -1438 66 89 132
-624.75 -1299.38 -1440 63 86 129
-622.94 -1300.29 -1441 62 84 124
-622.419 -1303.91 -1445 61 83 123
-620.169 -1303.92 -1445 57 79 118
-618.347 -1304.83 -1446 56 78 117
-617.373 -1307.55 -1449 54 74 114
-616.391 -1310.27 -1452 49 69 109
-614.975 -1312.08 -1454 46 68 105
-613.132 -1312.99 -1455 45 67 104
-610.866 -1313 -1455 45 67 102
-609.018 -1313.91 -1456 44 66 101
-608.001 -1316.63 -1459 42 63 98
-606.558 -1318.44 -1461 40 61 96
-605.11 -1320.25 -1463 40 62 99
-604.891 -1324.77 -1468 42 64 101
-602.604 -1324.78 -1468 37 62 98
-601.544 -1327.5 -1471 34 59 95
-600.068 -1329.31 -1473 39 61 100
-596.961 -1327.51 -1471 41 63 102
-595.073 -1328.42 -1472 43 63 103
-593.183 -1329.33 -1473 43 63 103
-592.091 -1332.05 -1476 41 60 98
-591.39 -1335.66 -1480 37 56 94
-589.88 -1337.48 -1482 35 55 90
-537.245 -1333.12 -1477 41 42 60
-536.754 -1337.64 -1482 51 52 70
-533.722 -1335.84 -1480 52 53 71
-530.697 -1334.04 -1478 48 49 67
-527.32 -1331.34 -1475 48 53 77
-523.954 -1328.64 -1472 53 58 82
-520.949 -1326.84 -1470 51 56 79
-517.953 -1325.04 -1468 54 59 82
-515.313 -1324.15 -1467 52 61 88
-512.326 -1322.35 -1465 52 61 88
-509.694 -1321.45 -1464 48 62 91
-507.412 -1321.46 -1464 46 60 89
-504.439 -1319.66 -1462 41 55 86
-501.473 -1317.86 -1460 40 54 85
-498.855 -1316.97 -1459 44 55 87
-495.559 -1314.27 -1456 45 56 88
-492.273 -1311.57 -1453 44 58 89
-489.334 -1309.77 -1451 47 61 92
-486.4 -1307.97 -1449 51 64 98
-483.473 -1306.17 -1447 53 66 100
-480.219 -1303.47 -1444 51 66 100
-476.643 -1299.87 -1440 49 64 98
-474.069 -1298.97 -1439 49 66 98
-471.498 -1298.08 -1438 53 70 102
-468.603 -1296.28 -1436 55 70 104
-465.715 -1294.48 -1434 53 68 102
-463.48 -1294.49 -1434 56 71 105
