ply
format ascii 1.0
comment Created by Open3D
element vertex 1388
property double x
property double y
property double z
property uchar red
property uchar green
property uchar blue
end_header
-438.216 -411.325 -1179 122 92 46
-436.731 -411.703 -1180 128 95 52
-435.242 -412.08 -1181 128 95 52
-433.383 -412.109 -1181 122 94 50
-431.159 -411.789 -1180 121 93 49
-429.664 -412.166 -1181 121 93 51
-427.442 -411.846 -1180 123 95 53
-425.944 -412.223 -1181 128 97 56
-424.083 -412.252 -1181 128 97 56
-421.865 -411.931 -1180 128 98 53
-421.073 -413.007 -1183 130 100 55
-419.208 -413.035 -1183 133 103 56
-417.343 -413.063 -1183 134 104 57
-415.828 -413.44 -1184 139 108 61
-414.311 -413.818 -1185 143 112 65
-412.79 -414.195 -1186 143 112 63
-411.265 -414.572 -1187 140 109 60
-409.737 -414.95 -1188 141 110 59
-408.548 -415.676 -1190 143 112 61
-407.354 -416.403 -1192 144 113 60
-405.472 -416.431 -1192 145 114 61
-403.928 -416.808 -1193 145 114 59
-402.044 -416.836 -1193 150 119 64
-400.495 -417.213 -1194 148 117 62
-398.609 -417.241 -1194 143 112 57
-396.722 -417.269 -1194 146 115 62
-395.496 -417.996 -1196 150 119 66
-393.935 -418.373 -1197 149 118 65
-392.698 -419.1 -1199 147 116 63
-391.454 -419.826 -1201 148 117 64
-390.203 -420.553 -1203 150 119 66
-389.591 -421.979 -1207 149 118 65
-387.682 -422.007 -1207 148 117 64
-386.731 -423.083 -1210 149 120 65
-385.452 -423.81 -1212 148 119 64
-384.483 -424.886 -1215 146 117 61
-383.505 -425.963 -1218 147 118 62
-381.889 -426.34 -1219 148 119 65
-380.582 -427.067 -1221 148 119 65
-379.269 -427.794 -1223 147 118 64
-377.948 -428.521 -1225 145 116 62
-376.622 -429.248 -1227 143 112 63
-375.593 -430.325 -1230 142 111 62
-374.859 -431.752 -1234 142 112 65
-374.112 -433.179 -1238 143 113 66
-373.351 -434.606 -1242 142 111 64
-372.877 -436.383 -1247 142 111 64
-372.684 -438.51 -1253 130 102 60
-374.247 -442.737 -1265 127 99 57
-374.3 -445.215 -1272 115 92 62
-375.501 -449.093 -1283 75 52 22
-377.249 -453.671 -1296 44 33 22
-376.929 -455.8 -1302 48 37 26
-375.15 -456.178 -1303 52 43 32
-555.195 -440.179 -1260 165 133 91
-549.276 -437.067 -1251 173 130 62
-543.822 -434.304 -1243 169 126 58
-539.7 -432.589 -1238 169 127 59
-536.462 -431.572 -1235 167 125 57
-533.234 -430.556 -1232 167 126 51
-529.583 -429.189 -1228 168 127 52
-525.944 -427.822 -1224 165 122 60
-523.174 -427.155 -1222 165 122 60
-519.984 -426.137 -1219 165 121 56
-517.227 -425.469 -1217 159 115 50
-514.476 -424.801 -1215 156 112 50
-511.731 -424.132 -1213 156 112 50
-509.413 -423.814 -1212 153 110 48
-505.841 -422.445 -1208 151 108 46
-503.115 -421.777 -1206 148 105 43
-500.396 -421.108 -1204 146 103 41
-497.268 -420.089 -1201 139 99 38
-494.15 -419.07 -1198 133 93 32
-491.04 -418.051 -1195 133 92 36
-488.349 -417.381 -1193 134 93 37
-485.256 -416.362 -1190 121 86 32
-482.579 -415.692 -1188 116 81 27
-480.312 -415.372 -1187 114 80 34
-477.644 -414.702 -1185 113 79 33
-475.385 -414.381 -1184 114 80 39
-473.128 -414.061 -1183 113 79 38
-470.873 -413.741 -1182 115 80 34
-469.019 -413.77 -1182 113 78 32
-466.769 -413.45 -1181 113 76 24
-464.521 -413.129 -1180 112 75 23
-462.669 -413.158 -1180 111 75 32
-460.816 -413.188 -1180 116 80 37
-459.352 -413.567 -1181 117 79 34
-457.497 -413.596 -1181 118 80 35
-455.642 -413.626 -1181 122 81 41
-453.787 -413.655 -1181 123 82 42
-451.548 -413.334 -1180 120 84 46
-449.694 -413.363 -1180 121 85 47
-447.459 -413.042 -1179 118 86 44
-445.227 -412.72 -1178 117 85 43
-443.751 -413.099 -1179 115 84 37
-442.272 -413.479 -1180 118 87 40
-440.789 -413.858 -1181 121 91 44
-438.931 -413.887 -1181 124 94 47
-437.443 -414.266 -1182 124 92 48
-435.582 -414.295 -1182 122 90 46
-434.089 -414.674 -1183 119 91 46
-431.861 -414.352 -1182 121 93 48
-430 -414.381 -1182 123 95 53
-427.776 -414.059 -1181 122 94 52
-425.915 -414.087 -1181 125 94 53
-424.055 -414.116 -1181 127 96 55
-422.194 -414.144 -1181 129 99 54
-420.688 -414.523 -1182 131 101 56
-419.18 -414.902 -1183 133 103 56
-417.314 -414.931 -1183 134 104 57
-415.8 -415.31 -1184 139 108 61
-414.283 -415.689 -1185 143 112 65
-412.761 -416.068 -1186 144 113 64
-410.89 -416.096 -1186 142 111 62
-409.709 -416.826 -1188 142 111 60
-408.521 -417.555 -1190 144 113 62
-406.984 -417.934 -1191 143 112 59
-405.104 -417.962 -1191 142 111 58
-403.9 -418.692 -1193 143 112 57
-402.016 -418.72 -1193 149 118 63
-400.467 -419.099 -1194 150 119 64
-398.581 -419.127 -1194 147 116 61
-396.694 -419.155 -1194 148 117 64
-395.469 -419.885 -1196 150 119 66
-393.907 -420.264 -1197 149 118 65
-392.67 -420.993 -1199 147 116 63
-391.426 -421.723 -1201 147 116 63
-390.176 -422.453 -1203 149 118 65
-389.241 -423.534 -1206 149 118 65
-387.976 -424.264 -1208 148 117 64
-386.704 -424.994 -1210 149 120 66
-385.743 -426.076 -1213 148 119 65
-384.772 -427.157 -1216 147 118 62
-384.107 -428.59 -1220 148 119 63
-382.175 -428.618 -1220 149 120 66
-380.555 -428.996 -1221 148 119 65
-379.551 -430.078 -1224 146 117 63
-377.921 -430.457 -1225 144 115 61
-376.594 -431.187 -1227 143 112 63
-375.566 -432.269 -1230 142 111 62
-374.832 -433.702 -1234 141 111 64
-374.386 -435.487 -1239 141 111 64
-373.925 -437.271 -1244 142 111 62
-373.149 -438.705 -1248 138 107 58
-372.954 -440.842 -1254 130 102 60
-373.331 -443.682 -1262 129 101 59
-374.86 -447.928 -1274 125 100 68
-376.936 -452.879 -1288 93 68 36
-559.341 -443.886 -1265 172 136 87
-552.519 -440.058 -1254 170 134 85
-547.487 -437.634 -1247 174 130 66
-542.915 -435.561 -1241 170 126 62
-539.668 -434.539 -1238 168 129 59
-535.996 -433.167 -1234 166 127 57
-533.202 -432.497 -1232 167 124 51
-529.983 -431.475 -1229 168 125 52
-527.202 -430.804 -1227 166 122 58
-523.571 -429.431 -1223 165 121 57
-520.806 -428.76 -1221 164 120 54
-517.621 -427.738 -1218 158 114 48
-514.869 -427.067 -1216 156 112 50
-512.122 -426.395 -1214 156 112 50
-509.382 -425.724 -1212 151 108 46
-506.648 -425.052 -1210 149 106 44
-503.502 -424.029 -1207 148 105 43
-500.781 -423.357 -1205 146 103 41
-497.652 -422.333 -1202 135 96 35
-494.532 -421.31 -1199 137 98 37
-491.421 -420.286 -1196 133 90 33
-489.138 -419.965 -1195 130 87 30
-486.449 -419.292 -1193 128 91 36
-484.173 -418.971 -1192 121 84 29
-481.496 -418.298 -1190 110 76 33
-478.824 -417.625 -1188 115 81 38
-476.559 -417.303 -1187 114 76 36
-474.298 -416.981 -1186 123 85 45
-472.039 -416.659 -1185 117 79 34
-469.386 -415.986 -1183 116 78 33
-467.134 -415.664 -1182 116 78 25
-464.886 -415.342 -1181 115 77 24
-463.424 -415.723 -1182 118 80 34
-461.568 -415.752 -1182 121 83 37
-460.101 -416.133 -1183 129 91 43
-458.243 -416.163 -1183 122 84 36
-456.385 -416.192 -1183 120 79 38
-454.526 -416.221 -1183 122 81 40
-452.284 -415.899 -1182 122 86 47
-450.046 -415.576 -1181 123 87 48
-447.81 -415.253 -1180 119 88 47
-445.954 -415.282 -1180 119 88 47
-444.099 -415.312 -1180 121 90 44
-442.618 -415.692 -1181 123 92 46
-441.133 -416.074 -1182 124 94 47
-439.645 -416.454 -1183 125 95 48
-437.784 -416.483 -1183 124 93 47
-436.29 -416.864 -1184 123 92 46
-434.427 -416.893 -1184 121 92 47
-432.197 -416.57 -1183 123 94 49
-430.335 -416.599 -1183 124 96 54
-428.109 -416.275 -1182 122 94 52
-426.247 -416.304 -1182 124 93 52
-424.385 -416.332 -1182 127 96 55
-422.165 -416.008 -1181 130 100 55
-420.66 -416.389 -1182 130 100 55
-419.151 -416.77 -1183 132 102 54
-417.286 -416.798 -1183 135 105 57
-415.772 -417.179 -1184 137 106 58
-414.254 -417.559 -1185 141 110 62
-412.733 -417.94 -1186 143 112 63
-410.862 -417.968 -1186 143 112 63
-409.681 -418.701 -1188 144 113 62
-408.149 -419.082 -1189 145 114 63
-406.956 -419.815 -1191 143 112 59
-405.076 -419.843 -1191 143 112 59
-403.872 -420.576 -1193 145 114 59
-401.988 -420.604 -1193 149 118 63
-400.104 -420.632 -1193 149 118 63
-398.553 -421.012 -1194 148 117 62
-396.334 -420.688 -1193 149 118 66
-395.11 -421.421 -1195 149 118 66
-393.551 -421.801 -1196 148 117 64
-392.315 -422.534 -1198 147 116 63
-391.073 -423.267 -1200 146 115 62
-389.824 -424 -1202 148 117 64
-389.536 -425.792 -1207 149 118 66
-387.948 -426.173 -1208 148 117 65
-386.676 -426.906 -1210 148 119 65
-385.715 -427.992 -1213 148 119 65
-385.061 -429.431 -1217 148 119 63
-384.079 -430.517 -1220 149 120 64
-381.834 -430.192 -1219 148 119 65
-380.527 -430.925 -1221 147 118 64
-379.214 -431.659 -1223 145 114 61
-377.894 -432.392 -1225 144 113 60
-376.567 -433.125 -1227 144 113 64
-375.539 -434.212 -1230 143 112 63
-375.108 -436.005 -1235 141 111 64
-374.359 -437.444 -1239 139 109 62
-373.597 -438.884 -1243 142 111 62
-372.822 -440.324 -1247 138 107 58
-372.926 -442.823 -1254 136 109 68
-374.487 -447.089 -1266 134 107 66
-376.304 -451.708 -1279 134 107 74
-574.389 -454.623 -1290 173 144 115
-564.389 -448.313 -1272 160 131 102
-556.656 -443.764 -1259 173 132 78
-551.165 -440.976 -1251 170 129 75
-546.577 -438.893 -1245 169 126 66
-542.445 -437.163 -1240 165 122 62
-539.2 -436.137 -1237 165 127 56
-535.965 -435.111 -1234 163 125 54
-533.171 -434.438 -1232 164 121 49
-530.382 -433.764 -1230 164 121 49
-527.6 -433.09 -1228 163 119 54
-523.968 -431.711 -1224 162 118 53
-521.201 -431.037 -1222 161 118 50
-518.015 -430.01 -1219 157 114 46
-514.838 -428.983 -1216 155 111 49
-512.091 -428.308 -1214 155 111 49
-509.771 -427.987 -1213 151 108 46
-506.617 -426.959 -1210 149 106 44
-503.888 -426.284 -1208 147 104 42
-500.75 -425.256 -1205 144 101 39
-497.621 -424.228 -1202 136 97 36
-494.914 -423.553 -1200 133 94 33
-492.212 -422.877 -1198 135 91 33
-489.926 -422.554 -1197 136 92 34
-487.235 -421.879 -1195 128 89 32
-484.956 -421.556 -1194 120 81 24
-482.275 -420.88 -1192 111 77 36
-479.6 -420.204 -1190 115 81 40
-477.332 -419.881 -1189 121 79 40
-474.668 -419.204 -1187 120 78 39
-472.407 -418.881 -1186 117 77 32
-469.753 -418.204 -1184 120 80 35
-467.5 -417.881 -1183 116 76 23
-465.643 -417.91 -1183 121 81 28
-463.394 -417.587 -1182 117 77 28
-461.539 -417.616 -1182 126 86 37
-460.071 -417.999 -1183 127 90 38
-458.601 -418.382 -1184 123 86 34
-457.127 -418.765 -1185 126 84 42
-454.881 -418.441 -1184 131 89 47
-452.638 -418.117 -1183 127 91 51
-450.397 -417.792 -1182 123 87 47
-448.16 -417.468 -1181 116 88 48
-446.303 -417.497 -1181 119 91 51
-444.446 -417.527 -1181 121 91 46
-442.964 -417.909 -1182 121 91 46
-441.104 -417.938 -1182 122 92 45
-439.988 -418.674 -1184 124 94 47
-438.495 -419.057 -1185 125 95 48
-436.63 -419.086 -1185 127 97 50
-434.765 -419.115 -1185 127 97 52
-432.534 -418.79 -1184 126 96 51
-430.67 -418.819 -1184 123 95 53
-428.443 -418.494 -1183 122 94 52
-426.579 -418.523 -1183 124 93 52
-424.357 -418.197 -1182 128 97 56
-422.494 -418.226 -1182 130 100 55
-420.632 -418.254 -1182 130 100 55
-419.123 -418.637 -1183 133 103 54
-417.611 -419.019 -1184 138 108 59
-415.744 -419.047 -1184 136 105 56
-414.226 -419.43 -1185 140 109 60
-412.705 -419.812 -1186 143 112 63
-411.181 -420.194 -1187 143 112 63
-409.652 -420.576 -1188 145 114 63
-408.121 -420.959 -1189 144 113 62
-406.586 -421.341 -1190 144 113 60
-405.047 -421.723 -1191 145 114 61
-403.506 -422.105 -1192 146 115 60
-401.623 -422.133 -1192 144 113 58
-400.076 -422.515 -1193 143 112 57
-398.191 -422.543 -1193 145 114 59
-396.306 -422.571 -1193 146 115 64
-395.083 -423.308 -1195 146 115 64
-393.523 -423.69 -1196 145 114 61
-392.287 -424.426 -1198 145 114 61
-391.045 -425.162 -1200 146 115 62
-390.12 -426.253 -1203 147 116 63
-389.186 -427.344 -1206 148 117 66
-387.92 -428.08 -1208 148 117 66
-386.648 -428.817 -1210 147 118 64
-385.687 -429.908 -1213 148 119 65
-384.717 -430.999 -1216 149 120 64
-383.422 -431.735 -1218 149 120 64
-381.807 -432.117 -1219 148 119 65
-380.812 -433.208 -1222 146 117 63
-379.496 -433.945 -1224 145 114 61
-378.175 -434.682 -1226 144 113 60
-376.846 -435.418 -1228 144 113 64
-375.511 -436.155 -1230 143 112 63
-374.777 -437.601 -1234 140 110 63
-374.029 -439.047 -1238 138 108 61
-373.269 -440.493 -1242 140 109 60
-372.795 -442.294 -1247 136 105 56
-373.196 -445.159 -1255 138 111 71
-374.755 -449.443 -1267 133 106 66
-375.687 -453.019 -1277 133 104 71
-569.013 -452.407 -1278 173 137 100
-561.25 -447.838 -1265 169 133 96
-555.296 -444.684 -1256 173 131 73
-550.251 -442.238 -1249 168 126 68
-545.667 -440.146 -1243 163 120 58
-541.976 -438.762 -1239 162 119 57
-538.733 -437.731 -1236 164 125 55
-535.933 -437.055 -1234 163 124 54
-533.139 -436.378 -1232 163 120 50
-530.782 -436.056 -1231 162 119 49
-527.569 -435.025 -1228 161 117 52
-524.365 -433.994 -1225 162 118 53
-521.169 -432.962 -1222 159 115 49
-518.408 -432.285 -1220 156 112 46
-515.23 -431.253 -1217 154 110 49
-512.482 -430.575 -1215 153 109 48
-509.32 -429.543 -1212 151 108 46
-506.586 -428.866 -1210 145 102 40
-503.857 -428.188 -1208 147 104 42
-500.719 -427.155 -1205 143 100 38
-497.591 -426.122 -1202 138 99 38
-494.883 -425.444 -1200 137 98 37
-492.593 -425.12 -1199 139 97 40
-489.896 -424.441 -1197 137 95 38
-487.612 -424.117 -1196 131 92 37
-485.331 -423.792 -1195 127 88 33
-483.054 -423.468 -1194 123 86 42
-479.973 -422.434 -1191 122 85 41
-477.302 -421.755 -1189 122 81 40
-475.038 -421.43 -1188 119 78 37
-472.776 -421.105 -1187 117 79 33
-470.12 -420.426 -1185 118 80 34
-467.865 -420.101 -1184 117 79 27
-465.614 -419.776 -1183 117 79 27
-463.365 -419.45 -1182 121 82 33
-462.29 -420.19 -1184 125 86 37
-460.82 -420.574 -1185 131 92 44
-458.958 -420.604 -1185 125 86 38
-457.097 -420.633 -1185 118 77 38
-454.851 -420.308 -1184 122 81 42
-452.608 -419.982 -1183 122 86 50
-450.368 -419.657 -1182 124 88 52
-448.51 -419.686 -1182 119 88 50
-446.274 -419.36 -1181 122 91 53
-444.417 -419.389 -1181 123 90 46
-442.935 -419.774 -1182 124 91 47
-441.822 -420.513 -1184 124 93 47
-440.331 -420.897 -1185 124 93 47
-438.466 -420.926 -1185 126 94 49
-436.969 -421.311 -1186 127 95 50
-435.103 -421.34 -1186 126 96 51
-432.87 -421.013 -1185 125 95 50
-431.005 -421.042 -1185 123 94 51
-428.776 -420.716 -1184 121 92 49
-426.911 -420.745 -1184 124 92 51
-425.046 -420.773 -1184 127 95 54
-422.823 -420.446 -1183 129 98 53
-421.315 -420.83 -1184 130 99 54
-419.449 -420.859 -1184 132 101 53
-417.582 -420.887 -1184 135 104 56
-416.066 -421.271 -1185 139 107 58
-414.198 -421.3 -1185 141 109 60
-412.677 -421.684 -1186 144 113 63
-410.806 -421.712 -1186 145 114 64
-409.279 -422.096 -1187 143 112 61
-407.749 -422.48 -1188 142 111 60
-406.558 -423.219 -1190 143 112 60
-404.679 -423.247 -1190 145 114 62
-403.477 -423.987 -1192 147 115 60
-401.595 -424.015 -1192 149 117 62
-400.048 -424.399 -1193 144 113 60
-398.497 -424.783 -1194 143 112 59
-396.611 -424.81 -1194 146 114 64
-395.055 -425.194 -1195 147 115 65
-393.495 -425.578 -1196 147 116 63
-392.587 -426.673 -1199 145 114 61
-391.017 -427.057 -1200 144 113 59
-390.092 -428.152 -1203 147 116 62
-389.158 -429.248 -1206 147 116 64
-387.571 -429.632 -1207 146 115 63
-386.301 -430.371 -1209 145 116 62
-385.342 -431.467 -1212 146 117 63
-384.689 -432.919 -1216 146 117 61
-383.709 -434.015 -1219 147 118 62
-382.406 -434.754 -1221 147 118 63
-381.407 -435.85 -1224 147 118 63
-380.089 -436.59 -1226 147 116 63
-379.072 -437.686 -1229 145 114 61
-377.125 -437.714 -1229 145 114 66
-376.399 -439.166 -1233 146 115 67
-375.66 -440.619 -1237 142 112 65
-374.908 -442.071 -1241 136 106 59
-373.842 -443.167 -1244 135 104 56
-373.365 -444.976 -1249 138 107 59
-373.763 -447.854 -1257 135 108 67
-374.431 -451.089 -1266 133 106 65
-564.973 -451.219 -1269 171 129 85
-558.556 -447.696 -1259 170 128 84
-553.495 -445.239 -1252 171 128 66
-549.338 -443.494 -1247 166 123 61
-545.196 -441.747 -1242 164 122 57
-541.506 -440.357 -1238 163 121 56
-538.701 -439.678 -1236 166 124 56
-535.901 -438.998 -1234 165 123 55
-533.107 -438.319 -1232 162 120 52
-530.319 -437.639 -1230 162 120 52
-527.537 -436.959 -1228 160 116 51
-524.333 -435.923 -1225 159 115 50
-521.138 -434.887 -1222 158 114 49
-518.377 -434.207 -1220 156 112 47
-515.199 -433.17 -1217 155 111 51
-512.029 -432.134 -1214 154 110 50
-509.289 -431.453 -1212 152 109 47
-506.973 -431.128 -1211 146 103 41
-503.827 -430.091 -1208 147 104 42
-500.689 -429.053 -1205 143 100 38
-497.974 -428.372 -1203 134 95 34
-495.265 -427.691 -1201 134 95 34
-492.562 -427.009 -1199 136 97 40
-490.274 -426.683 -1198 135 96 39
-487.582 -426.002 -1196 132 92 39
-485.707 -426.032 -1196 129 89 36
-483.023 -425.35 -1194 128 88 39
-480.346 -424.667 -1192 128 88 39
-477.674 -423.985 -1190 122 84 39
-475.407 -423.659 -1189 120 82 37
-473.144 -423.333 -1188 118 83 35
-470.884 -423.006 -1187 118 83 35
-468.626 -422.68 -1186 117 80 30
-466.371 -422.353 -1185 115 78 28
-464.511 -422.383 -1185 117 80 30
-463.041 -422.769 -1186 119 82 32
-461.179 -422.799 -1186 129 89 44
-459.316 -422.829 -1186 127 87 42
-457.068 -422.502 -1185 119 78 43
-455.206 -422.531 -1185 121 80 45
-453.344 -422.561 -1185 121 84 53
-451.101 -422.234 -1184 124 87 56
-448.86 -421.906 -1183 118 86 49
-446.623 -421.579 -1182 119 87 50
-445.14 -421.965 -1183 122 86 43
-443.655 -422.351 -1184 127 91 48
-442.166 -422.737 -1185 126 94 50
-440.673 -423.123 -1186 125 93 49
-438.807 -423.152 -1186 128 94 50
-436.94 -423.181 -1186 129 95 51
-435.074 -423.21 -1186 126 96 51
-433.207 -423.239 -1186 125 95 50
-431.339 -423.268 -1186 122 92 47
-429.472 -423.297 -1186 121 91 46
-427.243 -422.969 -1185 124 92 50
-425.376 -422.998 -1185 128 96 54
-423.152 -422.67 -1184 130 98 54
-421.286 -422.698 -1184 130 98 54
-419.42 -422.727 -1184 133 102 55
-417.554 -422.755 -1184 137 106 59
-416.038 -423.141 -1185 141 107 59
-414.169 -423.169 -1185 143 109 61
-412.648 -423.555 -1186 143 112 61
-410.777 -423.583 -1186 144 113 62
-409.251 -423.969 -1187 143 112 61
-407.721 -424.354 -1188 142 111 60
-406.188 -424.74 -1189 142 111 60
-404.651 -425.125 -1190 143 112 61
-403.111 -425.511 -1191 147 114 59
-401.23 -425.539 -1191 149 116 61
-400.02 -426.282 -1193 144 113 62
-398.469 -426.667 -1194 145 114 63
-396.583 -426.695 -1194 149 115 67
-395.027 -427.08 -1195 149 115 67
-393.796 -427.823 -1197 147 116 63
-392.559 -428.566 -1199 143 112 59
-391.315 -429.309 -1201 144 113 58
-390.389 -430.409 -1204 145 114 59
-389.453 -431.509 -1207 144 113 60
-387.865 -431.895 -1208 144 113 60
-386.593 -432.638 -1210 146 117 63
-385.632 -433.738 -1213 148 119 65
-384.662 -434.839 -1216 147 118 62
-383.681 -435.939 -1219 148 119 63
-382.378 -436.682 -1221 149 120 64
-381.379 -437.783 -1224 148 119 63
-380.371 -438.884 -1227 149 118 65
-378.736 -439.269 -1228 147 116 63
-377.712 -440.37 -1231 145 115 68
-376.372 -441.113 -1233 144 114 67
-375.633 -442.572 -1237 141 111 64
-374.881 -444.031 -1241 137 107 60
-374.115 -445.49 -1245 136 106 59
-373.636 -447.307 -1250 137 107 60
-374.033 -450.197 -1258 133 105 63
-375.291 -454.162 -1269 136 108 66
-569.154 -454.969 -1274 165 137 107
-561.823 -450.716 -1262 172 131 79
-556.305 -447.892 -1254 169 128 76
-551.695 -445.782 -1248 170 128 64
-547.543 -444.028 -1243 167 125 61
-543.408 -442.274 -1238 165 123 58
-540.599 -441.592 -1236 164 122 57
-537.797 -440.909 -1234 165 123 55
-535.435 -440.584 -1233 164 122 54
-532.642 -439.901 -1231 162 120 52
-529.856 -439.218 -1229 161 119 51
-527.505 -438.893 -1228 160 116 51
-524.301 -437.852 -1225 158 114 49
-520.68 -436.454 -1221 157 113 48
-517.921 -435.771 -1219 156 112 47
-514.744 -434.729 -1216 156 112 52
-511.998 -434.046 -1214 155 111 51
-509.258 -433.362 -1212 153 110 49
-506.524 -432.678 -1210 146 103 42
-503.379 -431.636 -1207 146 105 42
-500.242 -430.594 -1204 142 101 38
-497.943 -430.267 -1203 137 98 37
-495.234 -429.583 -1201 135 96 35
-492.942 -429.256 -1200 133 94 37
-490.244 -428.571 -1198 132 93 36
-488.367 -428.601 -1198 131 92 38
-486.083 -428.274 -1197 130 91 37
-483.398 -427.589 -1195 130 90 40
-481.121 -427.262 -1194 130 90 40
-478.446 -426.576 -1192 124 86 39
-476.177 -426.249 -1191 123 85 38
-473.512 -425.563 -1189 122 86 37
-471.25 -425.235 -1188 120 84 35
-469.386 -425.265 -1188 116 79 29
-467.128 -424.937 -1187 112 75 25
-465.265 -424.967 -1187 114 76 28
-463.402 -424.997 -1187 116 78 30
-461.538 -425.026 -1187 127 87 41
-459.674 -425.056 -1187 129 89 43
-457.424 -424.728 -1186 121 80 42
-455.945 -425.116 -1187 121 80 42
-453.697 -424.787 -1186 120 84 49
-451.452 -424.458 -1185 125 89 54
-449.21 -424.13 -1184 120 87 48
-446.971 -423.801 -1183 120 87 48
-445.487 -424.188 -1184 123 88 44
-443.625 -424.218 -1184 128 93 49
-442.136 -424.605 -1185 126 94 50
-440.644 -424.993 -1186 125 93 49
-438.778 -425.022 -1186 129 95 51
-437.28 -425.41 -1187 130 96 52
-435.045 -425.081 -1186 126 95 50
-433.178 -425.11 -1186 125 94 49
-431.674 -425.497 -1187 122 92 47
-429.443 -425.168 -1186 120 90 45
-427.575 -425.197 -1186 124 92 49
-425.707 -425.226 -1186 128 96 53
-423.838 -425.254 -1186 131 99 55
-421.969 -425.283 -1186 131 99 55
-419.746 -424.953 -1185 135 104 57
-417.878 -424.982 -1185 140 109 62
-416.009 -425.01 -1185 141 107 59
-414.141 -425.039 -1185 142 108 60
-412.272 -425.067 -1185 141 110 59
-410.749 -425.455 -1186 142 111 60
-409.223 -425.842 -1187 143 112 61
-407.35 -425.87 -1187 143 112 61
-405.818 -426.257 -1188 143 112 61
-404.623 -427.003 -1190 143 112 61
-402.744 -427.031 -1190 146 113 58
-401.539 -427.777 -1192 148 115 60
-399.992 -428.164 -1193 146 115 63
-398.441 -428.551 -1194 147 116 64
-396.887 -428.938 -1195 148 116 67
-395.66 -429.684 -1197 148 116 67
-394.426 -430.43 -1199 147 116 63
-393.186 -431.176 -1201 144 113 60
-391.939 -431.922 -1203 143 112 57
-390.685 -432.668 -1205 143 112 57
-389.748 -433.773 -1208 142 111 58
-388.158 -434.16 -1209 144 113 60
-386.884 -434.907 -1211 147 118 64
-385.604 -435.653 -1213 148 119 65
-384.317 -436.399 -1215 147 118 63
-383.653 -437.864 -1219 147 118 63
-382.037 -438.251 -1220 149 120 65
-381.352 -439.715 -1224 149 120 65
-380.343 -440.821 -1227 150 119 66
-379.017 -441.567 -1229 148 117 64
-377.991 -442.673 -1232 146 116 68
-376.649 -443.419 -1234 144 114 66
-375.909 -444.884 -1238 141 111 63
-375.155 -446.35 -1242 140 110 62
-374.388 -447.815 -1246 138 108 60
-374.206 -449.999 -1252 139 109 61
-374.005 -452.184 -1258 135 107 66
-374.967 -455.806 -1268 139 111 70
-565.993 -454.463 -1267 162 134 91
-560.455 -451.627 -1259 169 129 70
-555.828 -449.507 -1253 167 127 68
-551.662 -447.746 -1248 169 127 62
-547.511 -445.985 -1243 169 127 62
-543.814 -444.582 -1239 167 125 60
-540.567 -443.537 -1236 165 123 58
-537.765 -442.852 -1234 164 122 54
-534.968 -442.166 -1232 163 121 53
-532.178 -441.48 -1230 160 118 50
-529.393 -440.794 -1228 159 117 49
-527.044 -440.467 -1227 160 116 51
-523.842 -439.422 -1224 159 115 50
-520.648 -438.377 -1221 157 113 48
-517.464 -437.331 -1218 156 112 47
-514.289 -436.285 -1215 155 112 52
-511.545 -435.599 -1213 154 111 51
-508.807 -434.912 -1211 153 110 50
-506.074 -434.224 -1209 147 104 44
-503.347 -433.537 -1207 146 106 43
-500.211 -432.491 -1204 142 102 39
-497.912 -432.162 -1203 138 99 38
-495.616 -431.834 -1202 137 98 37
-492.912 -431.146 -1200 136 95 39
-491.032 -431.177 -1200 134 93 37
-488.744 -430.848 -1199 133 94 39
-486.459 -430.519 -1198 131 92 37
-484.176 -430.19 -1197 129 89 38
-481.494 -429.502 -1195 129 89 38
-478.817 -428.814 -1193 125 88 38
-476.547 -428.485 -1192 124 87 37
-474.279 -428.155 -1191 123 86 36
-472.014 -427.826 -1190 120 83 33
-470.146 -427.856 -1190 116 79 29
-467.885 -427.527 -1189 114 77 27
-465.627 -427.197 -1188 116 78 31
-463.762 -427.227 -1188 117 79 32
-462.286 -427.616 -1189 124 84 37
-460.031 -427.287 -1188 129 89 42
-457.78 -426.957 -1187 122 81 41
-456.299 -427.346 -1188 120 79 39
-454.05 -427.016 -1187 119 83 45
-451.804 -426.686 -1186 124 88 50
-449.56 -426.356 -1185 122 88 47
-447.697 -426.385 -1185 122 88 47
-445.834 -426.415 -1185 124 90 46
-443.971 -426.444 -1185 127 93 49
-442.48 -426.834 -1186 125 93 49
-440.986 -427.223 -1187 125 93 49
-439.118 -427.252 -1187 131 97 53
-437.251 -427.281 -1187 131 97 53
-435.382 -427.311 -1187 125 93 49
-433.514 -427.34 -1187 124 92 48
-431.645 -427.369 -1187 123 93 48
-429.414 -427.038 -1186 122 92 47
-427.906 -427.427 -1187 125 93 49
-426.037 -427.456 -1187 128 96 52
-424.167 -427.485 -1187 130 98 54
-422.296 -427.514 -1187 131 99 55
-420.071 -427.182 -1186 135 104 57
-418.202 -427.211 -1186 140 109 62
-416.332 -427.24 -1186 141 107 59
-414.112 -426.908 -1185 141 107 59
-412.591 -427.297 -1186 138 107 56
-410.721 -427.325 -1186 139 108 57
-409.194 -427.714 -1187 142 111 60
-407.665 -428.103 -1188 144 113 62
-406.131 -428.492 -1189 144 113 62
-404.595 -428.88 -1190 145 114 63
-402.716 -428.909 -1190 147 114 59
-401.511 -429.658 -1192 148 115 60
-400.299 -430.407 -1194 147 116 63
-398.747 -430.796 -1195 147 116 63
-397.523 -431.545 -1197 146 115 66
-396.293 -432.294 -1199 146 115 66
-395.056 -433.043 -1201 147 116 63
-393.485 -433.432 -1202 146 115 62
-391.911 -433.821 -1203 143 112 57
-390.981 -434.93 -1206 143 112 57
-389.72 -435.68 -1208 142 111 58
-388.13 -436.068 -1209 144 113 60
-386.537 -436.457 -1210 147 118 64
-385.258 -437.206 -1212 147 118 64
-383.973 -437.956 -1214 145 116 62
-383.311 -439.427 -1218 145 116 62
-382.009 -440.176 -1220 147 118 64
-381.012 -441.286 -1223 148 119 65
-380.315 -442.758 -1227 149 118 65
-378.989 -443.507 -1229 148 117 64
-377.963 -444.618 -1232 146 116 67
-376.927 -445.728 -1235 144 114 65
-376.184 -447.2 -1239 142 112 63
-376.033 -449.393 -1245 141 111 62
-374.661 -450.143 -1247 139 109 60
-374.477 -452.337 -1253 138 108 59
-373.977 -454.17 -1258 134 106 66
-374.939 -457.808 -1268 135 107 67
-571.523 -459.306 -1275 167 136 82
-563.727 -454.656 -1262 163 132 78
-558.641 -452.167 -1255 170 129 67
-554.021 -450.038 -1249 169 128 66
-550.745 -448.99 -1246 169 128 64
-547.479 -447.941 -1243 171 130 66
-543.782 -446.532 -1239 169 127 62
-540.972 -445.843 -1237 164 122 57
-537.733 -444.794 -1234 162 120 52
-535.37 -444.466 -1233 162 120 52
-532.146 -443.417 -1230 160 118 50
-529.361 -442.728 -1228 158 116 48
-526.583 -442.038 -1226 158 114 49
-522.954 -440.628 -1222 157 113 48
-520.19 -439.939 -1220 158 114 49
-517.008 -438.888 -1217 156 112 47
-514.258 -438.199 -1215 153 110 50
-511.513 -437.509 -1213 152 109 49
-508.775 -436.818 -1211 152 109 49
-506.043 -436.128 -1209 147 104 44
-503.316 -435.438 -1207 147 107 44
-500.18 -434.387 -1204 142 102 39
-497.881 -434.057 -1203 139 100 39
-495.585 -433.727 -1202 139 100 39
-493.292 -433.397 -1201 139 98 42
-491.41 -433.428 -1201 137 96 40
-489.121 -433.098 -1200 134 94 40
-487.24 -433.128 -1200 131 91 37
-484.55 -432.437 -1198 130 90 39
-481.866 -431.746 -1196 130 90 39
-479.59 -431.415 -1195 125 88 37
-477.316 -431.085 -1194 123 86 35
-474.647 -430.393 -1192 122 85 35
-472.777 -430.423 -1192 122 85 35
-470.906 -430.453 -1192 122 83 33
-468.642 -430.122 -1191 123 84 34
-466.381 -429.791 -1190 122 83 35
-464.513 -429.821 -1190 120 81 33
-462.645 -429.851 -1190 122 82 34
-460.389 -429.52 -1189 130 90 42
-458.135 -429.189 -1188 124 84 41
-456.653 -429.58 -1189 124 84 41
-454.785 -429.61 -1189 122 86 46
-452.536 -429.278 -1188 125 89 49
-450.289 -428.946 -1187 124 90 48
-448.423 -428.976 -1187 125 91 49
-446.557 -429.006 -1187 125 91 46
-444.691 -429.035 -1187 127 93 48
-442.824 -429.065 -1187 126 94 49
-441.328 -429.455 -1188 127 95 50
-439.459 -429.485 -1188 132 98 54
-437.59 -429.514 -1188 131 97 53
-435.353 -429.182 -1187 125 93 49
-433.485 -429.211 -1187 124 92 48
-431.616 -429.24 -1187 124 94 49
-429.747 -429.27 -1187 125 95 50
-427.877 -429.299 -1187 127 95 51
-426.008 -429.328 -1187 129 97 53
-424.495 -429.718 -1188 130 98 54
-422.623 -429.747 -1188 132 100 56
-420.751 -429.776 -1188 136 103 57
-418.526 -429.443 -1187 139 106 60
-416.654 -429.472 -1187 141 107 59
-414.433 -429.139 -1186 141 107 59
-412.563 -429.167 -1186 138 107 56
-411.038 -429.558 -1187 139 108 57
-409.166 -429.586 -1187 142 111 60
-407.636 -429.977 -1188 144 113 62
-405.761 -430.005 -1188 144 113 62
-404.566 -430.757 -1190 144 113 62
-402.688 -430.786 -1190 148 115 60
-401.482 -431.538 -1192 147 114 59
-400.271 -432.29 -1194 146 115 62
-399.052 -433.043 -1196 147 116 63
-397.495 -433.433 -1197 146 115 66
-396.265 -434.186 -1199 147 116 67
-395.028 -434.938 -1201 147 116 63
-393.457 -435.328 -1202 146 115 62
-392.208 -436.081 -1204 145 114 59
-390.953 -436.833 -1206 145 114 59
-389.692 -437.586 -1208 143 112 59
-388.102 -437.976 -1209 143 112 59
-386.509 -438.366 -1210 146 117 63
-385.231 -439.119 -1212 147 118 64
-383.945 -439.871 -1214 144 115 61
-382.968 -440.986 -1217 142 113 59
-381.668 -441.739 -1219 146 117 63
-381.296 -443.579 -1224 147 118 64
-380.288 -444.694 -1227 148 117 65
-378.961 -445.447 -1229 146 115 63
-378.242 -446.925 -1233 145 115 66
-376.899 -447.677 -1235 144 114 65
-376.764 -449.88 -1241 142 112 63
-375.703 -450.996 -1244 140 110 61
-374.933 -452.474 -1248 140 110 60
-374.748 -454.677 -1254 137 107 57
-374.246 -456.518 -1259 134 107 68
-374.911 -459.81 -1268 129 102 63
-576.627 -463.811 -1282 159 137 94
-567.904 -458.417 -1267 165 131 67
-561.907 -455.194 -1258 164 130 66
-558.163 -453.78 -1254 169 127 62
-553.989 -452.003 -1249 167 125 60
-550.713 -450.95 -1246 165 125 62
-547.446 -449.897 -1243 166 126 63
-543.75 -448.482 -1239 165 123 58
-540.94 -447.79 -1237 162 120 55
-538.136 -447.099 -1235 160 118 50
-535.338 -446.407 -1233 162 120 52
-532.114 -445.353 -1230 160 118 50
-529.329 -444.661 -1228 156 114 46
-526.551 -443.968 -1226 158 114 49
-522.922 -442.552 -1222 157 113 48
-519.732 -441.497 -1219 159 115 50
-517.401 -441.166 -1218 155 111 46
-514.65 -440.473 -1216 152 109 49
-511.904 -439.781 -1214 150 107 47
-509.164 -439.087 -1212 151 108 48
-506.43 -438.394 -1210 147 104 44
-503.702 -437.701 -1208 147 107 44
-500.565 -436.645 -1205 142 102 39
-498.264 -436.314 -1204 141 102 41
-495.966 -435.982 -1203 141 102 41
-493.671 -435.651 -1202 140 99 43
-491.788 -435.682 -1202 138 97 41
-489.497 -435.35 -1201 135 94 40
-487.209 -435.018 -1200 133 92 38
-484.52 -434.324 -1198 131 91 40
-482.239 -433.992 -1197 132 92 41
-479.96 -433.66 -1196 127 90 38
-477.285 -432.965 -1194 127 90 38
-475.413 -432.996 -1194 128 91 41
-473.54 -433.026 -1194 129 92 42
-471.666 -433.056 -1194 131 91 40
-469.399 -432.724 -1193 132 92 41
-467.135 -432.392 -1192 129 89 40
-464.873 -432.059 -1191 123 83 34
-463.003 -432.089 -1191 125 85 36
-460.746 -431.756 -1190 132 92 43
-458.491 -431.423 -1189 127 87 42
-456.623 -431.453 -1189 130 90 45
-454.755 -431.483 -1189 127 91 48
-452.887 -431.513 -1189 127 91 48
-450.639 -431.18 -1188 126 92 48
-448.772 -431.21 -1188 127 93 49
-446.904 -431.239 -1188 126 92 46
-445.036 -431.269 -1188 127 93 47
-443.167 -431.298 -1188 126 95 48
-441.299 -431.328 -1188 128 97 50
-439.43 -431.357 -1188 133 99 55
-437.56 -431.387 -1188 131 97 53
-435.691 -431.416 -1188 124 92 48
-433.455 -431.082 -1187 123 91 47
-431.587 -431.111 -1187 124 94 49
-429.718 -431.141 -1187 126 96 51
-427.848 -431.17 -1187 129 97 53
-426.338 -431.562 -1188 131 99 55
-424.466 -431.591 -1188 132 100 56
-422.95 -431.984 -1189 133 101 57
-420.722 -431.649 -1188 137 103 57
-418.849 -431.678 -1188 138 104 58
-416.626 -431.343 -1187 140 106 58
-414.754 -431.372 -1187 141 107 59
-412.882 -431.401 -1187 139 108 57
-410.664 -431.066 -1186 140 109 58
-409.137 -431.458 -1187 143 112 61
-407.608 -431.85 -1188 145 114 63
-406.074 -432.242 -1189 145 114 63
-404.538 -432.634 -1190 145 114 63
-402.659 -432.662 -1190 147 114 59
-401.791 -433.782 -1193 147 114 59
-400.578 -434.537 -1195 147 116 63
-399.024 -434.929 -1196 148 117 64
-397.799 -435.685 -1198 147 116 67
-396.567 -436.441 -1200 147 116 67
-395.329 -437.196 -1202 146 115 62
-394.084 -437.952 -1204 147 116 63
-392.506 -438.344 -1205 147 116 61
-390.925 -438.736 -1206 147 116 61
-389.986 -439.855 -1209 144 113 60
-388.074 -439.883 -1209 143 112 59
-386.801 -440.639 -1211 144 115 61
-385.52 -441.395 -1213 146 117 63
-384.55 -442.515 -1216 144 115 61
-383.255 -443.271 -1218 144 115 61
-382.266 -444.39 -1221 146 117 63
-381.268 -445.51 -1224 147 118 64
-380.26 -446.63 -1227 148 117 66
-379.242 -447.75 -1230 146 115 64
-378.521 -449.234 -1234 145 115 66
-376.871 -449.626 -1235 144 114 65
-376.129 -451.111 -1239 141 111 62
-375.675 -452.959 -1244 139 109 60
-374.905 -454.443 -1248 135 105 54
-375.019 -457.021 -1255 133 103 52
-374.218 -458.505 -1259 133 106 68
-374.883 -461.811 -1268 128 101 63
-574.344 -464.011 -1277 162 136 86
-567.422 -460.047 -1266 169 132 67
-562.32 -457.537 -1259 167 130 65
-558.576 -456.116 -1255 169 125 64
-553.956 -453.968 -1249 168 124 63
-550.68 -452.911 -1246 165 125 63
-546.973 -451.489 -1242 165 125 63
-543.278 -450.068 -1238 160 119 54
-541.345 -450.1 -1238 158 117 52
-538.104 -449.042 -1235 159 117 49
-535.74 -448.711 -1234 161 119 51
-532.514 -447.652 -1231 159 117 49
-529.297 -446.593 -1228 156 114 46
-526.089 -445.534 -1225 158 114 49
-522.891 -444.475 -1222 158 114 49
-520.127 -443.779 -1220 159 115 50
-517.37 -443.084 -1218 155 111 46
-515.041 -442.752 -1217 150 107 47
-512.716 -442.419 -1216 149 106 46
-509.973 -441.723 -1214 150 107 47
-507.236 -441.027 -1212 147 104 44
-504.505 -440.33 -1210 147 107 44
-501.78 -439.634 -1208 142 102 39
-499.061 -438.937 -1206 140 101 39
-496.76 -438.604 -1205 141 102 40
-494.462 -438.271 -1204 142 101 44
-492.167 -437.938 -1203 141 100 43
-489.874 -437.605 -1202 139 98 43
-487.584 -437.272 -1201 136 95 40
-485.298 -436.939 -1200 133 93 42
-483.014 -436.605 -1199 131 91 40
-480.331 -435.908 -1197 131 92 42
-478.054 -435.574 -1196 133 94 44
-475.78 -435.241 -1195 135 98 48
-474.302 -435.635 -1196 136 99 49
-472.031 -435.301 -1195 138 98 46
-469.762 -434.968 -1194 139 99 47
-467.496 -434.634 -1193 136 96 45
-465.624 -434.664 -1193 130 90 39
-463.362 -434.33 -1192 131 91 41
-461.103 -433.995 -1191 136 96 46
-459.232 -434.025 -1191 129 89 43
-456.978 -433.691 -1190 132 92 46
-455.49 -434.085 -1191 128 92 49
-453.238 -433.751 -1190 127 91 48
-450.989 -433.416 -1189 126 92 48
-449.12 -433.446 -1189 126 92 48
-447.25 -433.476 -1189 128 93 47
-445.006 -433.141 -1188 129 94 48
-443.138 -433.17 -1188 127 94 48
-441.641 -433.565 -1189 129 96 50
-439.77 -433.594 -1189 132 98 53
-437.899 -433.624 -1189 131 97 52
-435.661 -433.288 -1188 125 93 49
-433.061 -432.588 -1186 123 91 47
-431.557 -432.982 -1187 123 93 48
-429.689 -433.012 -1187 125 95 50
-427.819 -433.041 -1187 129 97 53
-425.95 -433.07 -1187 131 99 55
-424.437 -433.464 -1188 133 101 56
-422.921 -433.858 -1189 135 103 58
-421.047 -433.887 -1189 138 104 58
-419.173 -433.916 -1189 139 105 59
-417.299 -433.945 -1189 139 105 57
-415.075 -433.609 -1188 140 106 58
-413.201 -433.637 -1188 140 109 58
-411.328 -433.666 -1188 141 110 59
-409.798 -434.06 -1189 143 112 61
-408.265 -434.453 -1190 146 115 64
-406.388 -434.482 -1190 147 116 65
-404.849 -434.876 -1191 146 115 64
-402.969 -434.904 -1191 145 113 59
-401.763 -435.663 -1193 146 114 60
-400.549 -436.422 -1195 148 117 64
-399.329 -437.18 -1197 149 118 65
-398.102 -437.939 -1199 148 117 68
-397.2 -439.064 -1202 147 116 67
-395.958 -439.823 -1204 145 114 62
-394.055 -439.851 -1204 148 117 65
-392.478 -440.244 -1205 147 116 62
-391.221 -441.003 -1207 147 116 62
-389.958 -441.762 -1209 145 114 62
-388.367 -442.156 -1210 143 112 60
-386.772 -442.549 -1211 144 115 61
-385.81 -443.674 -1214 145 116 62
-384.206 -444.067 -1215 145 116 62
-383.227 -445.192 -1218 147 118 64
-381.925 -445.951 -1220 147 118 64
-380.617 -446.71 -1222 147 118 64
-379.612 -447.835 -1225 148 117 65
-378.289 -448.594 -1227 148 117 65
-377.879 -450.45 -1232 146 116 68
-376.538 -451.209 -1234 145 115 67
-377.011 -454.162 -1242 142 112 64
-376.251 -455.653 -1246 140 110 62
-375.478 -457.144 -1250 139 111 59
-375.29 -459.367 -1256 136 108 56
-374.19 -460.492 -1259 135 108 70
-375.15 -464.178 -1269 129 102 64
-572.062 -464.195 -1272 162 132 75
-567.389 -462.039 -1266 169 129 64
-562.734 -459.882 -1260 169 129 64
-558.542 -458.09 -1255 170 126 68
-554.366 -456.298 -1250 168 124 66
-550.647 -454.871 -1246 161 121 60
-546.94 -453.443 -1242 156 116 55
-543.685 -452.381 -1239 159 119 54
-541.312 -452.048 -1238 157 117 52
-538.507 -451.35 -1236 157 115 47
-535.708 -450.652 -1234 160 118 50
-532.915 -449.954 -1232 158 116 48
-529.265 -448.526 -1228 156 114 46
-526.057 -447.462 -1225 158 114 49
-522.859 -446.398 -1222 156 112 47
-520.095 -445.699 -1220 158 114 49
-517.338 -445.001 -1218 154 110 45
-515.009 -444.667 -1217 150 107 47
-513.106 -444.699 -1217 148 105 45
-510.781 -444.365 -1216 150 107 47
-507.623 -443.3 -1213 147 104 44
-504.89 -442.601 -1211 147 107 44
-501.749 -441.535 -1208 141 101 38
-499.03 -440.836 -1206 141 101 38
-496.729 -440.501 -1205 141 101 38
-494.431 -440.167 -1204 142 102 43
-492.136 -439.832 -1203 141 101 42
-489.843 -439.498 -1202 138 97 41
-487.554 -439.163 -1201 137 96 40
-485.267 -438.828 -1200 136 96 45
-482.983 -438.493 -1199 135 95 44
-480.702 -438.158 -1198 135 95 46
-478.423 -437.823 -1197 137 97 48
-476.148 -437.488 -1196 139 102 52
-474.272 -437.519 -1196 140 103 53
-472.395 -437.549 -1196 142 102 49
-470.125 -437.214 -1195 144 104 51
-467.858 -436.878 -1194 143 103 50
-465.984 -436.909 -1194 137 97 44
-463.72 -436.573 -1193 140 99 48
-461.46 -436.237 -1192 142 101 50
-459.202 -435.901 -1191 131 91 44
-457.332 -435.931 -1191 133 93 46
-455.843 -436.328 -1192 129 93 50
-453.589 -435.992 -1191 128 92 49
-451.338 -435.655 -1190 128 94 50
-449.467 -435.685 -1190 127 93 49
-447.221 -435.349 -1189 130 92 47
-445.351 -435.379 -1189 132 94 49
-443.481 -435.408 -1189 130 96 50
-441.611 -435.438 -1189 130 96 50
-439.74 -435.468 -1189 130 96 50
-437.87 -435.497 -1189 129 95 49
-435.632 -435.16 -1188 126 94 50
-433.397 -434.824 -1187 125 93 49
-431.528 -434.853 -1187 122 92 47
-429.659 -434.882 -1187 124 94 49
-427.79 -434.911 -1187 128 96 52
-426.279 -435.307 -1188 131 99 55
-424.765 -435.703 -1189 134 103 56
-422.892 -435.732 -1189 136 105 58
-421.018 -435.761 -1189 140 106 60
-419.144 -435.79 -1189 141 107 61
-417.27 -435.819 -1189 140 106 58
-415.046 -435.481 -1188 140 106 58
-413.52 -435.877 -1189 140 109 58
-411.991 -436.272 -1190 141 110 59
-410.114 -436.301 -1190 143 112 61
-408.237 -436.329 -1190 146 115 64
-406.7 -436.725 -1191 148 117 66
-404.821 -436.753 -1191 147 116 65
-403.617 -437.515 -1193 145 114 61
-402.408 -438.277 -1195 145 114 61
-400.856 -438.673 -1196 148 117 64
-399.301 -439.068 -1197 148 117 64
-398.406 -440.197 -1200 149 118 69
-397.832 -441.693 -1204 148 117 68
-395.93 -441.721 -1204 145 114 63
-394.354 -442.116 -1205 149 118 67
-392.775 -442.512 -1206 147 116 63
-391.193 -442.907 -1207 146 115 62
-389.93 -443.669 -1209 143 112 61
-388.339 -444.064 -1210 143 112 61
-386.744 -444.459 -1211 146 117 63
-385.464 -445.222 -1213 147 118 64
-384.177 -445.984 -1215 146 117 63
-383.199 -447.113 -1218 147 118 64
-381.584 -447.508 -1219 148 119 65
-380.278 -448.27 -1221 147 118 64
-379.274 -449.4 -1224 149 118 65
-378.261 -450.529 -1227 150 119 66
-378.158 -452.761 -1233 147 117 70
-377.12 -453.89 -1236 145 115 68
-376.983 -456.122 -1242 144 114 67
-376.223 -457.619 -1246 143 113 66
-376.051 -459.851 -1252 135 108 56
-375.262 -461.348 -1256 133 106 54
-374.162 -462.478 -1259 131 104 66
-375.713 -466.915 -1271 131 104 66
-571.129 -465.462 -1270 164 130 72
-566.907 -463.663 -1265 170 129 66
-562.701 -461.864 -1260 167 126 63
-558.954 -460.431 -1256 168 124 65
-554.777 -458.631 -1251 168 124 65
-551.498 -457.564 -1248 161 121 60
-548.229 -456.497 -1245 160 120 59
-544.968 -455.43 -1242 157 117 52
-541.717 -454.362 -1239 155 115 50
-538.91 -453.662 -1237 156 114 46
-536.11 -452.961 -1235 157 115 47
-532.882 -451.893 -1232 156 114 46
-529.233 -450.458 -1228 155 113 45
-526.455 -449.756 -1226 156 113 47
-523.682 -449.055 -1224 156 113 47
-520.49 -447.986 -1221 155 112 46
-518.155 -447.651 -1220 152 109 43
-516.247 -447.683 -1220 148 105 45
-513.495 -446.981 -1218 147 104 44
-511.17 -446.645 -1217 149 106 46
-508.428 -445.943 -1215 148 105 45
-505.693 -445.241 -1213 144 104 41
-502.548 -444.171 -1210 144 104 41
-499.826 -443.468 -1208 143 103 39
-497.522 -443.132 -1207 142 102 38
-494.81 -442.429 -1205 142 102 42
-492.104 -441.726 -1203 142 102 42
-489.812 -441.39 -1202 139 98 42
-487.523 -441.054 -1201 137 96 40
-485.236 -440.717 -1200 136 96 44
-482.952 -440.381 -1199 135 95 43
-480.671 -440.044 -1198 134 94 44
-478.393 -439.708 -1197 134 94 44
-476.516 -439.739 -1197 137 98 48
-474.638 -439.769 -1197 139 100 50
-472.365 -439.432 -1196 140 100 47
-470.488 -439.463 -1196 141 101 48
-468.219 -439.126 -1195 141 101 48
-466.344 -439.156 -1195 137 97 44
-464.079 -438.819 -1194 139 98 47
-461.817 -438.482 -1193 140 99 48
-459.943 -438.512 -1193 133 93 47
-457.685 -438.175 -1192 135 95 49
-456.195 -438.573 -1193 130 93 51
-453.94 -438.235 -1192 130 93 51
-451.687 -437.897 -1191 128 94 51
-449.438 -437.56 -1190 127 93 50
-447.567 -437.59 -1190 131 93 48
-446.07 -437.987 -1191 132 94 49
-443.451 -437.281 -1189 131 97 51
-441.581 -437.311 -1189 131 97 51
-439.711 -437.341 -1189 129 95 49
-437.84 -437.37 -1189 128 94 48
-435.969 -437.4 -1189 126 94 49
-433.367 -436.694 -1187 124 92 47
-431.499 -436.723 -1187 123 92 47
-429.63 -436.753 -1187 124 93 48
-427.761 -436.782 -1187 129 96 51
-426.25 -437.179 -1188 131 98 53
-424.736 -437.576 -1189 136 103 57
-423.218 -437.974 -1190 138 105 59
-421.343 -438.003 -1190 138 104 58
-419.468 -438.032 -1190 141 107 61
-417.592 -438.061 -1190 140 106 58
-415.716 -438.09 -1190 141 107 59
-413.839 -438.119 -1190 139 108 57
-411.962 -438.148 -1190 140 109 58
-410.43 -438.545 -1191 142 111 60
-408.551 -438.573 -1191 143 112 61
-406.672 -438.602 -1191 143 112 60
-404.792 -438.631 -1191 144 113 61
-403.589 -439.396 -1193 145 114 61
-402.716 -440.53 -1196 147 116 63
-401.498 -441.295 -1198 147 116 63
-400.273 -442.06 -1200 147 116 63
-399.041 -442.825 -1202 148 117 67
-398.134 -443.959 -1205 148 117 67
-396.23 -443.988 -1205 146 115 64
-394.326 -444.016 -1205 146 115 64
-392.747 -444.413 -1206 146 115 62
-391.165 -444.81 -1207 145 114 61
-389.901 -445.575 -1209 144 113 62
-388.31 -445.972 -1210 144 113 62
-386.716 -446.369 -1211 144 115 61
-385.436 -447.134 -1213 146 117 63
-384.149 -447.9 -1215 146 117 63
-382.856 -448.665 -1217 145 116 62
-381.556 -449.431 -1219 147 118 64
-380.249 -450.196 -1221 148 119 65
-379.246 -451.33 -1224 150 119 66
-378.541 -452.833 -1228 150 119 66
-378.13 -454.705 -1233 146 116 69
-378.007 -456.946 -1239 144 114 67
-377.259 -458.45 -1243 143 113 66
-376.799 -460.322 -1248 141 111 64
-376.623 -462.563 -1254 138 111 61
-376.428 -464.805 -1260 134 107 57
-375.917 -466.678 -1265 131 104 66
-376.867 -470.395 -1275 132 105 67
-581.848 -472.912 -1285 158 130 87
-576.686 -470.369 -1278 168 131 72
-571.545 -467.827 -1271 167 130 71
-567.322 -466.02 -1266 171 128 68
-563.56 -464.581 -1262 167 124 64
-558.921 -462.406 -1256 164 121 61
-554.744 -460.598 -1251 164 121 61
-551.023 -459.159 -1247 160 120 59
-547.756 -458.087 -1244 160 120 59
-544.497 -457.015 -1241 154 114 49
-541.684 -456.311 -1239 155 115 50
-538.878 -455.607 -1237 158 116 48
-536.511 -455.272 -1236 158 116 48
-532.85 -453.831 -1232 156 114 46
-529.632 -452.758 -1229 155 113 45
-526.852 -452.053 -1227 155 113 47
-524.078 -451.349 -1225 155 113 47
-520.884 -450.275 -1222 154 112 46
-518.548 -449.939 -1221 152 110 44
-516.638 -449.971 -1221 149 106 46
-514.307 -449.634 -1220 147 104 44
-511.558 -448.929 -1218 147 104 44
-508.815 -448.224 -1216 147 104 44
-506.078 -447.518 -1214 145 105 42
-503.347 -446.812 -1212 145 105 42
-500.622 -446.107 -1210 143 103 38
-497.903 -445.401 -1208 140 100 35
-495.19 -444.694 -1206 140 100 39
-492.483 -443.988 -1204 140 100 39
-490.189 -443.651 -1203 138 97 41
-488.303 -443.682 -1203 137 96 40
-485.609 -442.975 -1201 137 96 43
-483.324 -442.637 -1200 135 94 41
-481.041 -442.299 -1199 136 95 44
-478.762 -441.961 -1198 137 96 45
-476.883 -441.992 -1198 140 100 49
-474.607 -441.654 -1197 141 101 50
-472.729 -441.684 -1197 140 99 46
-470.851 -441.715 -1197 140 99 46
-468.581 -441.376 -1196 143 102 48
-466.703 -441.407 -1196 143 102 48
-464.437 -441.068 -1195 140 99 48
-462.561 -441.099 -1195 139 98 47
-460.299 -440.76 -1194 130 88 44
-458.039 -440.421 -1193 133 91 47
-456.165 -440.451 -1193 131 93 52
-454.291 -440.481 -1193 133 95 54
-451.657 -439.773 -1191 130 96 54
-449.785 -439.803 -1191 130 96 54
-447.913 -439.833 -1191 134 96 51
-446.04 -439.863 -1191 134 96 51
-443.795 -439.524 -1190 131 97 51
-441.923 -439.553 -1190 130 96 50
-440.051 -439.583 -1190 128 94 48
-438.179 -439.613 -1190 127 93 47
-435.939 -439.273 -1189 125 94 47
-433.703 -438.933 -1188 125 94 47
-431.469 -438.593 -1187 124 92 48
-429.601 -438.623 -1187 127 95 51
-428.092 -439.021 -1188 133 99 53
-426.221 -439.051 -1188 133 99 53
-424.707 -439.45 -1189 135 101 55
-423.189 -439.848 -1190 138 104 58
-421.314 -439.878 -1190 138 104 58
-419.438 -439.907 -1190 141 107 61
-417.563 -439.936 -1190 141 107 59
-415.687 -439.965 -1190 142 108 60
-413.81 -439.994 -1190 140 109 58
-412.28 -440.393 -1191 142 111 60
-410.401 -440.421 -1191 144 113 62
-408.522 -440.45 -1191 143 112 61
-406.643 -440.479 -1191 142 111 58
-405.443 -441.247 -1193 142 111 58
-404.237 -442.016 -1195 144 113 60
-403.024 -442.784 -1197 146 115 62
-401.804 -443.553 -1199 147 116 63
-400.911 -444.691 -1202 147 116 63
-399.345 -445.09 -1203 147 116 65
-398.436 -446.229 -1206 145 114 63
-396.53 -446.257 -1206 145 114 63
-394.625 -446.286 -1206 145 114 63
-393.044 -446.684 -1207 142 111 58
-391.46 -447.083 -1208 142 111 58
-390.196 -447.851 -1210 142 111 60
-388.282 -447.88 -1210 143 112 61
-387.007 -448.648 -1212 143 114 60
-385.726 -449.417 -1214 145 116 62
-384.437 -450.186 -1216 146 117 63
-383.142 -450.954 -1218 146 117 63
-381.528 -451.353 -1219 146 117 63
-380.221 -452.121 -1221 146 117 63
-378.908 -452.89 -1223 149 118 65
-378.513 -454.77 -1228 150 119 66
-378.102 -456.65 -1233 148 118 71
-378.284 -459.27 -1240 146 116 69
-377.534 -460.78 -1244 143 113 66
-377.676 -463.401 -1251 141 111 64
-377.496 -465.652 -1257 137 110 62
-376.699 -467.162 -1261 135 108 60
-376.483 -469.414 -1267 132 105 67
-580.003 -473.453 -1281 162 130 81
-574.847 -470.9 -1274 164 125 66
-570.162 -468.716 -1268 164 125 66
-566.392 -467.271 -1264 167 123 61
-562.634 -465.826 -1260 164 120 58
-558.443 -464.011 -1255 161 120 55
-554.71 -462.565 -1251 162 121 56
-550.99 -461.119 -1247 159 120 57
-547.723 -460.043 -1244 159 120 57
-544.903 -459.336 -1242 154 114 49
-541.651 -458.26 -1239 157 117 52
-538.845 -457.553 -1237 159 117 49
-536.478 -457.216 -1236 157 115 47
-533.25 -456.138 -1233 155 113 45
-530.03 -455.061 -1230 155 113 45
-526.82 -453.983 -1227 155 113 47
-524.474 -453.646 -1226 154 112 46
-521.278 -452.568 -1223 156 114 48
-518.941 -452.23 -1222 154 112 46
-516.606 -451.892 -1221 151 108 48
-514.275 -451.554 -1220 148 105 45
-511.526 -450.845 -1218 145 104 43
-508.783 -450.137 -1216 145 104 43
-506.463 -449.798 -1215 144 104 42
-503.731 -449.09 -1213 143 103 41
-501.004 -448.381 -1211 146 105 40
-498.284 -447.672 -1209 141 100 35
-495.569 -446.962 -1207 138 98 37
-492.86 -446.253 -1205 138 98 37
-490.972 -446.284 -1205 136 95 38
-488.678 -445.945 -1204 135 94 37
-485.983 -445.236 -1202 136 95 42
-484.099 -445.267 -1202 135 94 41
-481.813 -444.927 -1201 135 94 41
-479.53 -444.588 -1200 135 94 41
-477.25 -444.248 -1199 135 95 43
-475.369 -444.279 -1199 136 96 44
-473.094 -443.939 -1198 136 95 42
-471.214 -443.97 -1198 136 95 42
-468.942 -443.63 -1197 139 98 44
-466.673 -443.29 -1196 141 100 46
-464.795 -443.32 -1196 139 98 48
-462.917 -443.351 -1196 138 97 47
-460.268 -442.64 -1194 129 87 43
-458.009 -442.299 -1193 132 90 46
-456.517 -442.701 -1194 131 93 51
-454.26 -442.36 -1193 132 94 52
-452.006 -442.019 -1192 131 96 53
-449.755 -441.679 -1191 132 97 54
-448.259 -442.079 -1192 136 98 53
-446.385 -442.109 -1192 136 98 53
-444.138 -441.768 -1191 131 97 51
-441.893 -441.427 -1190 129 95 49
-440.021 -441.457 -1190 129 94 48
-437.781 -441.116 -1189 129 94 48
-435.543 -440.775 -1188 127 94 48
-433.674 -440.804 -1188 128 95 49
-431.803 -440.834 -1188 126 94 50
-429.933 -440.863 -1188 129 97 53
-428.062 -440.893 -1188 133 99 53
-426.191 -440.922 -1188 133 99 53
-424.677 -441.323 -1189 137 103 56
-423.16 -441.723 -1190 140 106 59
-421.285 -441.752 -1190 139 105 58
-419.409 -441.782 -1190 140 106 59
-417.534 -441.811 -1190 143 109 60
-415.658 -441.84 -1190 142 108 59
