ply
format ascii 1.0
comment Created by Open3D
element vertex 1458
property double x
property double y
property double z
property uchar red
property uchar green
property uchar blue
end_header
-574.186 -1334.2 -1277 48 66 92
-572.208 -1334.22 -1277 49 67 93
-570.231 -1334.25 -1277 51 69 97
-569.143 -1336.36 -1279 52 70 98
-567.162 -1336.38 -1279 52 70 98
-565.182 -1336.4 -1279 53 71 99
-563.641 -1337.47 -1280 49 67 95
-561.22 -1336.45 -1279 50 68 96
-559.676 -1337.51 -1280 51 69 97
-558.129 -1338.58 -1281 51 69 97
-556.579 -1339.65 -1282 50 67 98
-555.025 -1340.72 -1283 48 65 96
-554.33 -1343.87 -1286 48 65 96
-553.197 -1345.98 -1288 47 64 95
-551.201 -1346.01 -1288 49 68 101
-549.205 -1346.03 -1288 45 64 97
-546.784 -1345 -1287 43 62 93
-544.367 -1343.98 -1286 41 60 91
-542.795 -1345.05 -1287 36 57 90
-540.381 -1344.02 -1286 38 59 92
-537.969 -1343 -1285 42 63 98
-536.394 -1344.07 -1286 43 64 99
-534.816 -1345.13 -1287 40 65 99
-533.235 -1346.2 -1288 39 64 98
-532.476 -1349.36 -1291 41 63 98
-530.475 -1349.38 -1291 40 62 97
-529.702 -1352.53 -1294 38 60 93
-529.734 -1357.78 -1299 37 59 92
-528.126 -1358.85 -1300 37 59 92
-526.92 -1360.96 -1302 37 59 92
-693.767 -1467.23 -1403 83 83 83
-679.767 -1442.16 -1379 73 80 86
-666.333 -1418.13 -1356 69 76 82
-654.929 -1398.29 -1337 67 73 84
-645.048 -1381.58 -1321 65 71 82
-637.651 -1370.1 -1310 59 68 83
-632.714 -1363.85 -1304 57 66 81
-628.763 -1359.69 -1300 54 64 83
-624.823 -1355.53 -1296 52 62 81
-621.858 -1353.46 -1294 50 60 79
-619.856 -1353.49 -1294 50 60 79
-617.854 -1353.51 -1294 48 60 83
-615.377 -1352.49 -1293 48 60 83
-611.954 -1349.37 -1290 47 61 84
-609.012 -1347.31 -1288 49 63 86
-607.019 -1347.33 -1288 50 64 89
-603.617 -1344.21 -1285 50 64 89
-601.629 -1344.24 -1285 48 64 88
-600.107 -1345.31 -1286 49 65 89
-596.256 -1341.15 -1282 49 65 89
-594.272 -1341.17 -1282 48 64 88
-592.288 -1341.19 -1282 45 63 87
-589.383 -1339.12 -1280 45 63 87
-586.943 -1338.1 -1279 44 62 85
-584.963 -1338.12 -1279 44 62 85
-582.071 -1336.05 -1277 44 62 86
-580.549 -1337.12 -1278 45 63 87
-578.117 -1336.1 -1277 45 63 87
-576.14 -1336.12 -1277 47 65 89
-574.163 -1336.14 -1277 47 65 91
-572.186 -1336.17 -1277 49 67 93
-570.655 -1337.24 -1278 51 69 97
-569.121 -1338.3 -1279 49 67 95
-567.14 -1338.33 -1279 47 65 93
-565.601 -1339.4 -1280 49 67 95
-563.619 -1339.42 -1280 49 67 95
-561.198 -1338.39 -1279 50 68 96
-559.653 -1339.46 -1280 50 68 96
-558.542 -1341.58 -1282 50 68 96
-556.556 -1341.6 -1282 49 66 97
-555.436 -1343.71 -1284 46 63 94
-554.308 -1345.83 -1286 44 61 92
-552.745 -1346.9 -1287 43 60 91
-551.179 -1347.97 -1288 43 61 95
-549.184 -1347.99 -1288 43 61 95
-546.763 -1346.96 -1287 43 62 93
-544.345 -1345.94 -1286 43 62 93
-543.196 -1348.05 -1288 39 60 93
-540.779 -1347.03 -1287 41 62 95
-538.785 -1347.05 -1287 43 64 99
-537.624 -1349.16 -1289 43 64 99
-535.211 -1348.14 -1288 41 66 100
-534.042 -1350.25 -1290 39 64 98
-533.28 -1353.41 -1293 40 62 97
-530.864 -1352.39 -1292 39 61 96
-530.499 -1356.6 -1296 37 59 92
-529.713 -1359.76 -1299 35 57 90
-528.105 -1360.83 -1300 33 55 88
-527.303 -1363.99 -1303 33 55 88
-692.257 -1466.23 -1400 84 84 84
-677.276 -1439.02 -1374 75 82 88
-663.85 -1414.96 -1351 71 78 84
-651.964 -1394.04 -1331 68 75 85
-642.582 -1378.35 -1316 66 73 83
-635.68 -1367.9 -1306 60 69 85
-631.234 -1362.69 -1301 57 66 82
-627.287 -1358.52 -1297 54 64 83
-623.835 -1355.41 -1294 52 62 81
-621.834 -1355.43 -1294 50 60 79
-619.832 -1355.45 -1294 50 60 79
-617.353 -1354.43 -1293 47 59 82
-614.877 -1353.41 -1292 48 60 83
-611.93 -1351.34 -1290 47 61 84
-609.461 -1350.31 -1289 49 63 86
-606.995 -1349.29 -1288 50 64 89
-603.124 -1345.12 -1284 49 63 88
-601.137 -1345.14 -1284 46 62 86
-598.683 -1344.12 -1283 46 62 86
-596.233 -1343.1 -1282 44 60 84
-594.249 -1343.12 -1282 43 59 83
-592.264 -1343.14 -1282 42 60 84
-589.36 -1341.07 -1280 43 61 85
-587.379 -1341.09 -1280 44 62 86
-585.397 -1341.12 -1280 43 61 85
-582.96 -1340.09 -1279 43 61 85
-580.072 -1338.02 -1277 42 60 84
-577.642 -1336.99 -1276 43 61 85
-576.118 -1338.06 -1277 46 64 88
-574.59 -1339.14 -1278 46 64 90
-572.163 -1338.11 -1277 48 66 92
-570.632 -1339.18 -1278 50 68 96
-569.098 -1340.25 -1279 46 64 92
-567.561 -1341.32 -1280 42 60 88
-565.579 -1341.34 -1280 44 62 90
-563.597 -1341.37 -1280 48 66 94
-560.737 -1339.29 -1278 48 66 94
-559.631 -1341.41 -1280 48 66 94
-558.084 -1342.48 -1281 47 65 93
-556.535 -1343.55 -1282 46 63 94
-555.413 -1345.67 -1284 43 60 91
-553.855 -1346.74 -1285 41 58 89
-551.865 -1346.76 -1285 42 59 90
-551.157 -1349.93 -1288 43 60 94
-549.162 -1349.95 -1288 43 60 94
-546.741 -1348.92 -1287 43 62 93
-544.747 -1348.94 -1287 43 62 93
-543.596 -1351.06 -1289 40 61 94
-540.758 -1348.99 -1287 41 62 95
-538.763 -1349.01 -1287 43 64 99
-538.437 -1353.22 -1291 44 65 100
-536.021 -1352.19 -1290 40 65 99
-534.849 -1354.31 -1292 40 65 99
-534.083 -1357.48 -1295 42 64 99
-530.844 -1354.36 -1292 40 62 97
-530.478 -1358.57 -1296 37 59 92
-529.692 -1361.74 -1299 33 55 88
-528.084 -1362.8 -1300 30 52 85
-527.687 -1367.02 -1304 28 50 83
-690.747 -1465.21 -1397 85 85 85
-675.278 -1436.92 -1370 75 82 88
-660.876 -1410.72 -1345 72 79 85
-649.49 -1390.82 -1326 68 75 86
-640.604 -1376.16 -1312 66 73 84
-634.682 -1367.79 -1304 58 68 84
-630.239 -1362.57 -1299 56 66 82
-626.78 -1359.45 -1296 54 64 84
-623.811 -1357.37 -1294 51 61 81
-621.81 -1357.4 -1294 49 59 79
-619.329 -1356.37 -1293 49 59 79
-616.852 -1355.35 -1292 45 58 82
-614.377 -1354.32 -1291 47 60 84
-611.906 -1353.3 -1290 46 60 83
-609.437 -1352.27 -1289 47 61 84
-606.972 -1351.25 -1288 48 62 87
-603.1 -1347.07 -1284 48 62 87
-600.645 -1346.05 -1283 44 60 84
-598.66 -1346.07 -1283 42 58 82
-596.21 -1345.05 -1282 42 58 82
-594.226 -1345.07 -1282 43 59 83
-592.242 -1345.09 -1282 42 60 84
-589.337 -1343.02 -1280 43 61 85
-587.815 -1344.09 -1281 42 60 84
-585.374 -1343.06 -1280 42 60 84
-582.481 -1340.99 -1278 42 60 84
-580.049 -1339.96 -1277 42 60 84
-577.619 -1338.93 -1276 42 60 84
-575.644 -1338.96 -1276 45 63 87
-574.118 -1340.03 -1277 46 64 90
-571.693 -1339 -1276 48 66 92
-570.61 -1341.12 -1278 50 68 95
-569.076 -1342.2 -1279 46 64 91
-567.539 -1343.27 -1280 41 59 87
-565.557 -1343.29 -1280 44 62 90
-563.134 -1342.26 -1279 46 64 92
-560.714 -1341.24 -1278 46 64 92
-559.609 -1343.36 -1280 46 64 92
-558.062 -1344.43 -1281 45 63 91
-556.512 -1345.5 -1282 43 60 91
-555.391 -1347.62 -1284 41 58 89
-553.402 -1347.64 -1284 40 57 88
-552.272 -1349.76 -1286 42 59 90
-551.135 -1351.88 -1288 44 61 94
-549.14 -1351.91 -1288 44 61 94
-546.719 -1350.88 -1287 44 63 94
-545.149 -1351.95 -1288 43 62 93
-543.996 -1354.07 -1290 40 61 94
-541.157 -1351.99 -1288 40 61 94
-539.579 -1353.06 -1289 42 63 98
-538.832 -1356.24 -1292 43 64 99
-536.415 -1355.21 -1291 40 64 98
-535.655 -1358.38 -1294 42 66 100
-534.062 -1359.45 -1295 43 65 100
-531.233 -1357.37 -1293 40 62 97
-530.866 -1361.59 -1297 36 58 91
-530.078 -1364.76 -1300 33 55 88
-528.876 -1366.88 -1302 30 52 85
-528.475 -1371.1 -1306 29 51 84
-658.394 -1407.51 -1340 73 80 86
-647.016 -1387.58 -1321 67 74 86
-639.115 -1375 -1309 64 71 83
-633.684 -1367.67 -1302 57 67 83
-629.73 -1363.5 -1298 55 65 81
-626.272 -1360.37 -1295 52 62 83
-623.787 -1359.34 -1294 49 59 80
-621.305 -1358.32 -1293 48 58 79
-619.305 -1358.34 -1293 49 59 80
-616.828 -1357.31 -1292 43 57 82
-614.353 -1356.29 -1291 44 58 83
-611.408 -1354.21 -1289 45 59 82
-608.941 -1353.18 -1288 46 60 83
-606.477 -1352.16 -1287 47 61 86
-603.077 -1349.03 -1284 47 61 86
-600.622 -1348 -1283 44 60 84
-598.637 -1348.02 -1283 42 58 82
-596.186 -1347 -1282 46 62 86
-594.666 -1348.07 -1283 46 62 86
-592.68 -1348.09 -1283 44 62 86
-589.774 -1346.01 -1281 43 61 85
-587.333 -1344.99 -1280 43 61 85
-584.894 -1343.96 -1279 42 60 84
-582.459 -1342.93 -1278 42 60 84
-579.572 -1340.85 -1276 42 60 84
-577.144 -1339.82 -1275 40 58 82
-575.17 -1339.85 -1275 40 58 82
-573.196 -1339.87 -1275 41 59 85
-572.119 -1341.99 -1277 44 62 88
-571.034 -1344.12 -1279 48 66 92
-569.498 -1345.19 -1280 45 63 89
-567.516 -1345.21 -1280 43 61 89
-565.976 -1346.29 -1281 46 64 92
-563.992 -1346.31 -1281 45 63 91
-561.57 -1345.28 -1280 45 63 91
-560.025 -1346.35 -1281 44 62 90
-558.476 -1347.43 -1282 45 63 91
-556.924 -1348.5 -1283 44 61 92
-555.802 -1350.63 -1285 42 59 90
-554.242 -1351.7 -1286 41 58 89
-552.68 -1352.77 -1287 43 60 91
-550.686 -1352.79 -1287 46 63 95
-548.692 -1352.82 -1287 45 62 94
-546.698 -1352.84 -1287 44 63 94
-545.127 -1353.91 -1288 44 63 94
-543.974 -1356.03 -1290 41 62 95
-541.555 -1355 -1289 40 61 94
-539.976 -1356.08 -1290 41 62 97
-539.228 -1359.25 -1293 41 62 97
-536.809 -1358.22 -1292 40 62 97
-535.634 -1360.35 -1294 42 64 99
-533.628 -1360.37 -1294 41 63 98
-532.034 -1361.44 -1295 37 59 94
-532.073 -1366.72 -1300 35 57 90
-530.873 -1368.84 -1302 35 57 90
-530.073 -1372.02 -1305 34 56 89
-529.264 -1375.19 -1308 33 55 88
-656.403 -1405.34 -1336 73 80 86
-646.012 -1387.49 -1319 66 73 85
-638.602 -1375.94 -1308 62 69 81
-633.659 -1369.65 -1302 56 66 82
-629.706 -1365.47 -1298 53 63 79
-626.731 -1363.39 -1296 50 60 81
-623.763 -1361.31 -1294 48 58 79
-621.762 -1361.33 -1294 47 58 79
-619.76 -1361.36 -1294 48 59 80
-616.804 -1359.28 -1292 42 56 81
-614.329 -1358.25 -1291 43 57 82
-611.384 -1356.17 -1289 45 59 82
-608.444 -1354.09 -1287 46 60 83
-606.453 -1354.11 -1287 46 60 85
-603.523 -1352.03 -1285 47 61 86
-601.067 -1351 -1284 46 62 86
-599.08 -1351.03 -1284 45 61 85
-596.163 -1348.95 -1282 47 63 87
-594.643 -1350.02 -1283 46 62 86
-592.195 -1348.99 -1282 44 62 86
-589.751 -1347.96 -1281 44 62 86
-587.309 -1346.93 -1280 43 61 85
-584.871 -1345.9 -1279 41 59 83
-582.436 -1344.87 -1278 41 59 83
-579.549 -1342.79 -1276 41 59 83
-577.121 -1341.76 -1275 38 56 80
-575.148 -1341.79 -1275 36 54 78
-573.174 -1341.81 -1275 37 55 81
-572.543 -1344.99 -1278 43 61 87
-571.011 -1346.06 -1279 47 65 91
-569.921 -1348.19 -1281 45 63 89
-567.494 -1347.16 -1280 45 63 91
-565.954 -1348.24 -1281 49 67 95
-563.53 -1347.21 -1280 48 66 94
-561.547 -1347.23 -1280 46 64 92
-560.002 -1348.3 -1281 45 63 91
-558.454 -1349.38 -1282 46 64 92
-556.903 -1350.45 -1283 46 63 94
-555.78 -1352.58 -1285 44 61 92
-554.22 -1353.65 -1286 44 61 92
-552.658 -1354.73 -1287 44 61 92
-550.664 -1354.75 -1287 47 64 96
-548.67 -1354.77 -1287 45 62 94
-547.101 -1355.85 -1288 43 62 93
-545.528 -1356.92 -1289 42 61 92
-544.374 -1359.05 -1291 39 60 93
-541.954 -1358.02 -1290 41 62 95
-540.792 -1360.14 -1292 43 64 99
-540.041 -1363.32 -1295 42 63 98
-537.618 -1362.29 -1294 41 63 98
-536.441 -1364.42 -1296 41 63 98
-534.844 -1365.49 -1297 39 61 96
-533.245 -1366.57 -1298 37 59 94
-532.87 -1370.8 -1302 36 58 91
-532.482 -1375.03 -1306 38 60 93
-530.864 -1376.11 -1307 38 60 93
-529.647 -1378.23 -1309 36 58 91
-645.007 -1387.38 -1317 64 71 83
-638.089 -1376.87 -1307 60 67 79
-633.148 -1370.58 -1301 55 64 80
-630.166 -1368.5 -1299 53 62 78
-626.707 -1365.36 -1296 49 59 80
-623.739 -1363.28 -1294 47 57 78
-622.218 -1364.35 -1295 46 58 79
-619.736 -1363.32 -1294 47 59 80
-617.257 -1362.3 -1293 43 57 82
-614.782 -1361.27 -1292 43 57 82
-611.36 -1358.13 -1289 46 60 83
-608.421 -1356.05 -1287 47 61 84
-606.43 -1356.07 -1287 46 62 86
-603.969 -1355.04 -1286 45 61 85
-601.511 -1354.01 -1285 46 62 86
-599.056 -1352.98 -1284 47 63 87
-596.14 -1350.89 -1282 44 60 84
-594.619 -1351.97 -1283 45 61 85
-592.634 -1351.99 -1283 44 62 86
-590.188 -1350.96 -1282 45 63 87
-587.286 -1348.88 -1280 42 60 84
-584.848 -1347.85 -1279 38 56 80
-582.413 -1346.82 -1278 38 56 80
-579.981 -1345.79 -1277 41 59 83
-577.551 -1344.76 -1276 40 58 82
-575.576 -1344.78 -1276 37 55 79
-573.601 -1344.8 -1276 40 58 84
-572.521 -1346.93 -1278 47 65 91
-571.435 -1349.06 -1280 49 67 93
-569.898 -1350.14 -1281 47 65 91
-566.585 -1347 -1278 48 66 94
-565.49 -1349.13 -1280 53 71 99
-563.507 -1349.15 -1280 52 70 98
-561.964 -1350.23 -1281 49 67 95
-559.98 -1350.25 -1281 48 66 94
-558.432 -1351.33 -1282 48 66 94
-556.88 -1352.4 -1283 46 63 94
-555.758 -1354.53 -1285 44 61 92
-554.199 -1355.61 -1286 45 62 93
-552.636 -1356.69 -1287 45 62 93
-550.642 -1356.71 -1287 45 62 94
-549.074 -1357.78 -1288 44 61 93
-547.504 -1358.86 -1289 44 63 94
-545.93 -1359.94 -1290 43 62 93
-544.774 -1362.07 -1292 40 61 94
-542.352 -1361.03 -1291 43 64 97
-541.189 -1363.16 -1293 44 65 100
-540.436 -1366.35 -1296 40 61 96
-538.843 -1367.42 -1297 40 62 97
-537.661 -1369.55 -1299 40 62 97
-536.06 -1370.63 -1300 40 61 96
-534.455 -1371.71 -1301 39 60 95
-534.076 -1375.94 -1305 38 60 93
-532.869 -1378.08 -1307 39 61 94
-530.843 -1378.1 -1307 39 60 93
-530.03 -1381.28 -1310 38 59 92
-644.493 -1388.33 -1316 63 70 82
-637.576 -1377.81 -1306 58 65 77
-633.61 -1373.61 -1302 53 63 80
-630.142 -1370.47 -1299 52 62 79
-626.683 -1367.33 -1296 48 59 81
-625.16 -1368.41 -1297 47 58 80
-622.194 -1366.32 -1295 46 59 81
-619.233 -1364.24 -1293 47 60 82
-616.278 -1362.15 -1291 43 57 82
-613.806 -1361.12 -1290 42 56 81
-610.388 -1357.98 -1287 42 56 79
-607.924 -1356.95 -1286 44 58 81
-605.935 -1356.97 -1286 45 61 85
-603.476 -1355.94 -1285 45 61 85
-601.488 -1355.96 -1285 45 61 85
-599.033 -1354.93 -1284 45 61 85
-596.581 -1353.9 -1283 44 60 84
-594.596 -1353.92 -1283 44 60 84
-592.611 -1353.95 -1283 42 60 84
-590.165 -1352.91 -1282 41 59 83
-587.264 -1350.83 -1280 42 60 84
-584.825 -1349.79 -1279 41 59 83
-582.39 -1348.76 -1278 39 57 81
-579.958 -1347.73 -1277 38 56 80
-577.981 -1347.75 -1277 42 60 84
-575.553 -1346.72 -1276 40 58 82
-574.027 -1347.8 -1277 44 62 88
-572.946 -1349.93 -1279 51 69 95
-571.859 -1352.06 -1281 54 72 98
-569.431 -1351.03 -1280 52 70 96
-567.449 -1351.05 -1280 52 70 98
-565.909 -1352.13 -1281 54 72 100
-563.925 -1352.15 -1281 54 72 100
-561.941 -1352.18 -1281 52 70 98
-559.958 -1352.2 -1281 47 65 93
-558.409 -1353.28 -1282 46 64 92
-557.292 -1355.41 -1284 46 63 94
-555.303 -1355.43 -1284 45 62 93
-553.745 -1356.51 -1285 43 60 91
-552.184 -1357.59 -1286 43 60 91
-551.048 -1359.72 -1288 44 61 93
-549.053 -1359.74 -1288 44 61 93
-547.482 -1360.82 -1289 42 61 91
-546.754 -1364.01 -1292 42 61 91
-545.174 -1365.09 -1293 42 62 95
-543.59 -1366.16 -1294 41 61 94
-543.26 -1370.41 -1298 40 61 95
-541.666 -1371.49 -1299 41 62 96
-539.237 -1370.45 -1298 40 62 97
-537.639 -1371.53 -1299 40 62 97
-536.451 -1373.66 -1301 41 62 97
-536.078 -1377.91 -1305 40 61 96
-535.692 -1382.15 -1309 38 60 93
-534.07 -1383.23 -1310 38 60 93
-533.258 -1386.42 -1313 40 61 94
-532.032 -1388.55 -1315 40 61 94
-652.889 -1404.04 -1329 66 76 81
-643.978 -1389.28 -1315 61 68 80
-638.04 -1380.85 -1307 57 64 76
-634.072 -1376.65 -1303 53 63 81
-630.118 -1372.45 -1299 53 63 81
-627.625 -1371.41 -1298 49 61 84
-625.136 -1370.38 -1297 47 59 82
-621.689 -1367.23 -1294 46 60 83
-618.73 -1365.15 -1292 46 60 83
-615.777 -1363.06 -1290 43 57 82
-613.306 -1362.02 -1289 43 57 82
-609.415 -1357.82 -1285 44 58 81
-607.901 -1358.9 -1286 45 59 82
-605.911 -1358.92 -1286 46 62 86
-603.452 -1357.89 -1285 46 62 86
-601.464 -1357.92 -1285 46 62 86
-599.009 -1356.88 -1284 45 61 85
-597.023 -1356.91 -1284 43 59 83
-594.573 -1355.87 -1283 41 57 81
-592.587 -1355.9 -1283 39 57 81
-590.142 -1354.86 -1282 39 57 81
-587.24 -1352.77 -1280 41 59 83
-584.345 -1350.68 -1278 41 59 83
-582.367 -1350.7 -1278 40 58 82
-580.389 -1350.73 -1278 40 58 82
-578.411 -1350.75 -1278 43 61 85
-576.433 -1350.77 -1278 45 63 87
-574.454 -1350.79 -1278 49 67 93
-573.372 -1352.93 -1280 54 72 98
-571.39 -1352.95 -1280 56 74 100
-569.408 -1352.98 -1280 56 74 100
-568.314 -1355.11 -1282 55 73 101
-565.886 -1354.08 -1281 55 73 101
-563.903 -1354.1 -1281 53 71 99
-561.919 -1354.12 -1281 48 66 94
-559.935 -1354.15 -1281 43 61 89
-558.823 -1356.28 -1283 43 61 89
-556.836 -1356.3 -1283 44 61 92
-555.281 -1357.38 -1284 44 61 92
-553.723 -1358.46 -1285 42 59 90
-552.592 -1360.6 -1287 42 59 90
-551.453 -1362.74 -1289 40 57 89
-549.031 -1361.7 -1288 41 58 90
-548.734 -1365.95 -1292 42 61 91
-547.156 -1367.03 -1293 44 63 93
-545.996 -1369.17 -1295 44 63 96
-545.669 -1373.42 -1299 43 62 95
-544.075 -1374.5 -1300 42 63 96
-542.06 -1374.52 -1300 43 64 97
-539.631 -1373.48 -1299 41 63 98
-538.445 -1375.62 -1301 41 63 98
-537.666 -1378.81 -1304 41 62 97
-537.288 -1383.06 -1308 40 61 96
-536.898 -1387.32 -1312 38 60 93
-536.087 -1390.51 -1315 37 59 92
-535.267 -1393.7 -1318 38 59 92
-533.629 -1394.78 -1319 38 59 92
-664.281 -1426.14 -1348 70 79 86
-652.372 -1405 -1328 65 74 81
-644.443 -1392.33 -1316 58 67 80
-638.991 -1384.95 -1309 54 63 76
-634.534 -1379.69 -1304 53 63 81
-630.578 -1375.48 -1300 53 63 81
-627.601 -1373.39 -1298 50 62 85
-624.148 -1370.24 -1295 49 61 84
-621.665 -1369.2 -1294 47 61 84
-618.706 -1367.11 -1292 47 61 84
-616.231 -1366.08 -1291 46 60 85
-613.758 -1365.04 -1290 46 60 85
-610.34 -1361.89 -1287 46 60 83
-608.822 -1362.97 -1288 47 61 84
-606.359 -1361.94 -1287 47 63 87
-603.898 -1360.9 -1286 46 62 86
-601.441 -1359.87 -1285 46 62 86
-599.452 -1359.89 -1285 45 61 85
-597.464 -1359.92 -1285 41 57 81
-595.013 -1358.88 -1284 40 56 80
-593.026 -1358.9 -1284 38 56 81
-590.119 -1356.81 -1282 39 57 82
-587.217 -1354.72 -1280 38 56 81
-584.779 -1353.68 -1279 39 57 82
-583.255 -1354.76 -1280 41 59 83
-581.274 -1354.79 -1280 43 61 85
-578.84 -1353.75 -1279 45 63 88
-576.861 -1353.77 -1279 48 66 91
-575.331 -1354.86 -1280 52 70 96
-573.349 -1354.88 -1280 55 73 99
-570.921 -1353.84 -1279 57 75 101
-569.386 -1354.92 -1280 59 77 103
-567.847 -1356 -1281 59 77 105
-565.422 -1354.97 -1280 56 74 102
-563.44 -1354.99 -1280 52 70 98
-561.458 -1355.01 -1280 45 63 91
-559.913 -1356.09 -1281 39 57 85
-558.8 -1358.23 -1283 40 58 86
-557.248 -1359.31 -1284 42 60 89
-555.691 -1360.39 -1285 44 62 91
-554.563 -1362.53 -1287 44 61 92
-553.428 -1364.67 -1289 43 60 91
-551.859 -1365.75 -1290 39 56 87
-550.288 -1366.84 -1291 39 56 87
-549.561 -1370.03 -1294 40 59 89
-547.98 -1371.11 -1295 44 63 93
-547.238 -1374.31 -1298 46 65 98
-546.908 -1378.57 -1302 46 65 98
-545.309 -1379.65 -1303 44 65 98
-542.873 -1378.61 -1302 44 65 98
-542.517 -1382.87 -1306 42 64 99
-541.32 -1385.01 -1308 41 63 98
-540.118 -1387.15 -1310 41 62 96
-538.91 -1389.29 -1312 41 62 96
-538.922 -1394.61 -1317 38 60 93
-538.104 -1397.8 -1320 36 58 91
-536.464 -1398.88 -1321 36 57 89
-534.821 -1399.97 -1322 37 58 90
-651.856 -1405.96 -1327 65 74 82
-644.418 -1394.33 -1316 59 69 83
-638.967 -1386.94 -1309 54 64 78
-634.996 -1382.73 -1305 52 62 80
-630.554 -1377.45 -1300 53 63 81
-627.093 -1374.3 -1297 50 62 85
-624.124 -1372.2 -1295 49 61 84
-621.641 -1371.17 -1294 48 62 85
-619.64 -1371.19 -1294 48 62 85
-616.684 -1369.1 -1292 48 62 87
-613.734 -1367 -1290 47 61 86
-610.791 -1364.91 -1288 47 61 84
-608.798 -1364.93 -1288 48 62 85
-606.335 -1363.89 -1287 48 64 88
-603.875 -1362.86 -1286 47 63 87
-601.885 -1362.88 -1286 46 62 86
-599.895 -1362.91 -1286 44 60 84
-597.906 -1362.93 -1286 42 58 82
-595.453 -1361.89 -1285 42 58 82
-593.465 -1361.92 -1285 40 58 84
-590.096 -1358.76 -1282 40 58 84
-587.194 -1356.66 -1280 38 56 82
-585.67 -1357.75 -1281 39 57 83
-583.688 -1357.77 -1281 43 61 85
-581.705 -1357.79 -1281 45 63 87
-579.723 -1357.82 -1281 46 64 90
-577.289 -1356.78 -1280 50 68 94
-575.308 -1356.8 -1280 52 70 96
-573.326 -1356.82 -1280 51 69 95
-570.898 -1355.79 -1279 52 70 96
-569.363 -1356.87 -1280 55 73 99
-567.382 -1356.89 -1280 55 73 101
-565.4 -1356.91 -1280 53 71 99
-563.418 -1356.94 -1280 50 68 96
-561.875 -1358.02 -1281 43 61 89
-560.328 -1359.1 -1282 38 56 84
-558.778 -1360.18 -1283 39 57 85
-557.659 -1362.33 -1285 42 60 88
-556.534 -1364.47 -1287 45 63 91
-555.403 -1366.61 -1289 45 62 93
-553.835 -1367.69 -1290 44 61 92
-552.693 -1369.84 -1292 40 57 88
-551.544 -1371.98 -1294 40 57 88
-550.389 -1374.12 -1296 42 59 90
-549.65 -1377.32 -1299 45 62 93
-548.903 -1380.53 -1302 45 64 97
-548.566 -1384.79 -1306 46 65 98
-546.124 -1383.75 -1305 44 65 98
-544.519 -1384.83 -1306 43 64 97
-544.572 -1390.16 -1311 41 63 98
-543.368 -1392.3 -1313 39 61 96
-541.333 -1392.32 -1313 39 60 93
-540.941 -1396.59 -1317 39 60 93
-540.946 -1401.91 -1322 39 60 93
-539.305 -1402.99 -1323 38 59 92
-537.66 -1404.07 -1324 38 59 90
-535.608 -1404.1 -1324 38 59 90
-651.34 -1406.92 -1326 64 73 81
-644.393 -1396.33 -1316 59 69 83
-639.43 -1389.99 -1310 55 65 79
-635.459 -1385.77 -1306 51 62 80
-631.499 -1381.55 -1302 51 62 80
-628.036 -1378.39 -1299 49 61 84
-624.581 -1375.23 -1296 50 62 85
-622.097 -1374.2 -1295 48 62 85
-619.616 -1373.16 -1294 48 62 85
-616.183 -1370 -1291 48 62 87
-612.759 -1366.84 -1288 47 61 86
-610.292 -1365.8 -1287 48 62 86
-608.302 -1365.83 -1287 49 63 87
-605.84 -1364.79 -1286 49 65 89
-603.851 -1364.81 -1286 48 64 88
-602.329 -1365.9 -1287 45 61 85
-600.338 -1365.92 -1287 43 59 83
-597.883 -1364.88 -1286 44 60 84
-595.893 -1364.91 -1286 44 60 84
-593.441 -1363.87 -1285 43 61 87
-590.072 -1360.71 -1282 41 59 85
-587.63 -1359.67 -1281 40 58 84
-585.648 -1359.69 -1281 42 60 86
-583.665 -1359.72 -1281 45 63 87
-581.683 -1359.74 -1281 47 65 89
-579.7 -1359.76 -1281 48 66 92
-577.266 -1358.72 -1280 51 69 95
-575.285 -1358.75 -1280 52 70 96
-573.751 -1359.83 -1281 48 66 92
-571.322 -1358.79 -1280 44 62 88
-569.341 -1358.81 -1280 44 62 88
-567.359 -1358.84 -1280 44 62 90
-565.819 -1359.92 -1281 44 62 90
-564.276 -1361.01 -1282 44 62 90
-563.168 -1363.15 -1284 40 58 86
-560.306 -1361.05 -1282 38 56 84
-559.627 -1364.26 -1285 39 57 85
-558.505 -1366.4 -1287 41 59 87
-556.944 -1367.49 -1288 44 62 90
-555.811 -1369.63 -1290 44 61 92
-554.672 -1371.78 -1292 42 59 90
-553.954 -1374.99 -1295 42 59 90
-553.227 -1378.19 -1298 43 60 91
-552.49 -1381.4 -1301 45 62 93
-552.167 -1385.67 -1305 45 62 93
-550.989 -1387.82 -1307 44 63 96
-549.384 -1388.9 -1308 45 64 97
-547.357 -1388.92 -1308 43 64 97
-546.582 -1392.13 -1311 42 63 96
-546.627 -1397.46 -1316 40 62 97
-544.174 -1396.42 -1315 38 60 95
-542.548 -1397.5 -1316 38 59 92
-542.563 -1402.84 -1321 38 59 92
-541.743 -1406.04 -1324 40 61 94
-540.098 -1407.13 -1325 41 62 95
-538.045 -1407.15 -1325 41 62 93
-535.991 -1407.17 -1325 39 60 91
-650.824 -1407.87 -1325 63 72 80
-644.368 -1398.33 -1316 58 68 82
-639.893 -1393.04 -1311 54 64 78
-634.948 -1386.69 -1305 51 63 81
-631.475 -1383.53 -1302 51 63 81
-628.011 -1380.37 -1299 49 61 84
-624.557 -1377.2 -1296 49 61 84
-622.073 -1376.16 -1295 48 62 85
-619.113 -1374.06 -1293 46 60 83
-615.681 -1370.9 -1290 45 59 84
-612.735 -1368.8 -1288 46 60 85
-610.269 -1367.76 -1287 47 61 86
-608.278 -1367.78 -1287 49 63 88
-605.816 -1366.74 -1286 49 65 89
-604.297 -1367.83 -1287 48 64 88
-602.774 -1368.92 -1288 45 61 85
-600.782 -1368.94 -1288 43 59 83
-598.324 -1367.9 -1287 44 60 84
-596.333 -1367.92 -1287 46 62 86
-593.418 -1365.82 -1285 45 63 89
-590.509 -1363.72 -1283 43 61 87
-588.065 -1362.68 -1282 42 60 86
-586.082 -1362.7 -1282 45 63 89
-584.098 -1362.73 -1282 47 65 89
-582.114 -1362.75 -1282 48 66 90
-579.677 -1361.71 -1281 48 66 92
-577.694 -1361.73 -1281 50 68 94
-575.712 -1361.75 -1281 49 67 93
-573.729 -1361.78 -1281 45 63 89
-571.299 -1360.74 -1280 40 58 84
-569.763 -1361.82 -1281 37 55 81
-567.78 -1361.85 -1281 37 55 83
-565.796 -1361.87 -1281 37 55 83
-565.134 -1365.08 -1284 40 58 86
-563.146 -1365.1 -1284 39 57 85
-561.157 -1365.12 -1284 39 57 85
-560.476 -1368.34 -1287 40 58 86
-558.917 -1369.42 -1288 41 59 87
-557.355 -1370.51 -1289 43 61 89
-556.22 -1372.66 -1291 42 59 90
-555.938 -1376.93 -1295 40 57 88
-555.215 -1380.14 -1298 43 60 91
-554.483 -1383.36 -1301 46 63 94
-554.167 -1387.63 -1305 47 64 95
-552.991 -1389.78 -1307 46 63 94
-551.388 -1390.87 -1308 44 63 96
-550.202 -1393.01 -1310 45 64 97
-548.591 -1394.1 -1311 43 64 97
-548.227 -1398.38 -1315 41 62 95
-547.02 -1400.52 -1317 40 62 97
-544.566 -1399.48 -1316 38 60 95
-544.176 -1403.76 -1320 38 59 92
-543.773 -1408.03 -1324 38 59 92
-542.539 -1410.18 -1326 39 60 93
-540.484 -1410.2 -1326 42 63 96
-538.429 -1410.23 -1326 42 63 94
-650.798 -1409.88 -1325 62 71 79
-644.343 -1400.33 -1316 58 68 82
-638.893 -1392.91 -1309 55 65 79
-634.436 -1387.61 -1304 53 64 82
-630.965 -1384.44 -1301 52 63 81
-627.02 -1380.21 -1297 48 60 83
-624.051 -1378.11 -1295 48 60 83
-621.568 -1377.07 -1294 46 60 83
-619.089 -1376.03 -1293 45 59 82
-616.134 -1373.92 -1291 44 58 83
-613.187 -1371.82 -1289 45 59 84
-610.245 -1369.71 -1287 46 60 85
-608.255 -1369.74 -1287 48 62 87
-606.264 -1369.76 -1287 47 63 87
-605.212 -1371.91 -1289 46 62 86
-603.686 -1373 -1290 45 61 85
-601.224 -1371.96 -1289 45 61 85
-598.765 -1370.92 -1288 45 61 85
-596.773 -1370.94 -1288 47 63 87
-593.856 -1368.84 -1286 46 64 90
-590.946 -1366.73 -1284 45 63 89
-588.501 -1365.69 -1283 44 62 88
-586.059 -1364.65 -1282 45 63 89
-584.53 -1365.74 -1283 46 64 88
-582.545 -1365.76 -1283 47 65 89
-580.107 -1364.72 -1282 46 64 90
-578.123 -1364.74 -1282 46 64 90
-575.689 -1363.7 -1281 45 63 89
-573.706 -1363.72 -1281 43 61 87
-571.723 -1363.75 -1281 40 58 84
-569.74 -1363.77 -1281 38 56 82
-567.757 -1363.79 -1281 38 56 84
-566.216 -1364.88 -1282 38 56 84
-565.111 -1367.03 -1284 40 58 85
-563.562 -1368.12 -1285 41 59 86
-561.572 -1368.14 -1285 42 60 88
-560.453 -1370.29 -1287 43 61 89
-558.894 -1371.38 -1288 45 63 91
-557.765 -1373.53 -1290 44 62 90
-557.49 -1377.81 -1294 43 60 91
-556.774 -1381.03 -1297 42 59 90
-556.048 -1384.25 -1300 44 61 92
-555.313 -1387.46 -1303 47 64 95
-554.145 -1389.62 -1305 47 64 95
-552.969 -1391.77 -1307 45 62 93
-551.788 -1393.92 -1309 44 63 96
-551.44 -1398.2 -1313 45 64 97
-550.242 -1400.35 -1315 42 63 96
-549.039 -1402.5 -1317 41 62 95
-546.998 -1402.53 -1317 41 63 98
-545.785 -1404.68 -1319 40 62 97
-545.39 -1408.96 -1323 40 61 94
-544.572 -1412.18 -1326 39 60 93
-542.518 -1412.2 -1326 39 60 93
-540.87 -1413.29 -1327 40 61 94
-649.299 -1408.7 -1322 62 71 79
-642.85 -1399.14 -1313 59 69 83
-637.892 -1392.77 -1307 56 66 80
-634.412 -1389.59 -1304 55 65 84
-630.941 -1386.42 -1301 53 63 82
-626.996 -1382.18 -1297 47 59 82
-624.509 -1381.14 -1296 46 58 81
-622.024 -1380.1 -1295 43 59 81
-619.065 -1377.99 -1293 42 58 80
-616.11 -1375.89 -1291 43 57 82
-612.687 -1372.71 -1288 44 58 83
-610.221 -1371.67 -1287 46 60 85
-608.231 -1371.69 -1287 46 60 85
-606.711 -1372.78 -1288 44 60 84
-605.188 -1373.87 -1289 44 60 84
-603.663 -1374.96 -1290 45 61 85
-601.201 -1373.92 -1289 47 63 87
-599.207 -1373.94 -1289 47 63 87
-596.749 -1372.9 -1288 48 64 88
-593.833 -1370.79 -1286 45 63 89
-590.923 -1368.68 -1284 45 63 89
-588.936 -1368.71 -1284 46 64 90
-586.492 -1367.67 -1283 46 64 90
-584.507 -1367.69 -1283 44 62 86
-582.976 -1368.78 -1284 44 62 86
-580.084 -1366.67 -1282 45 63 89
-577.649 -1365.63 -1281 44 62 88
-576.115 -1366.71 -1282 44 62 88
-573.683 -1365.67 -1281 42 60 86
-572.147 -1366.76 -1282 41 59 85
-570.162 -1366.78 -1282 40 58 84
-568.621 -1367.87 -1283 41 59 87
-567.518 -1370.03 -1285 43 61 89
-566.409 -1372.18 -1287 44 62 88
-564.416 -1372.2 -1287 45 63 89
-562.861 -1373.29 -1288 46 64 92
-561.302 -1374.38 -1289 47 65 93
-559.74 -1375.47 -1290 49 67 95
-559.039 -1378.69 -1293 47 65 93
-558.76 -1382.98 -1297 45 62 93
-558.039 -1386.2 -1300 45 62 93
-556.882 -1388.35 -1302 44 61 92
-556.57 -1392.64 -1306 47 64 95
-555.396 -1394.8 -1308 48 65 96
-553.793 -1395.89 -1309 45 62 93
-553.03 -1399.11 -1312 43 62 95
-551.837 -1401.26 -1314 43 62 95
-550.639 -1403.42 -1316 42 63 96
-549.016 -1404.51 -1317 44 65 98
-547.807 -1406.66 -1319 43 64 99
-547.005 -1409.88 -1322 42 63 98
-546.605 -1414.17 -1326 41 62 95
-544.55 -1414.19 -1326 40 61 94
-542.496 -1414.21 -1326 38 59 92
-540.848 -1415.3 -1327 38 59 92
-647.31 -1406.44 -1318 63 73 83
-641.356 -1397.93 -1310 56 67 83
-637.867 -1394.75 -1307 53 64 80
-634.387 -1391.58 -1304 50 61 80
-630.916 -1388.4 -1301 47 58 77
-627.938 -1386.29 -1299 44 57 80
-624.967 -1384.18 -1297 44 57 80
-622 -1382.07 -1295 42 58 81
-618.562 -1378.89 -1292 43 59 82
-615.132 -1375.71 -1289 43 57 83
-612.188 -1373.6 -1287 45 59 85
-610.197 -1373.63 -1287 45 59 84
-608.207 -1373.65 -1287 43 57 82
-606.687 -1374.74 -1288 42 58 82
-604.695 -1374.76 -1288 44 60 84
-603.639 -1376.92 -1290 46 62 86
-601.643 -1376.95 -1290 46 62 86
-599.183 -1375.9 -1289 46 63 89
-597.189 -1375.93 -1289 47 64 90
-593.81 -1372.75 -1286 45 63 89
-591.36 -1371.7 -1285 45 63 89
-589.372 -1371.73 -1285 45 64 89
-586.469 -1369.62 -1283 44 63 88
-584.484 -1369.64 -1283 44 62 87
-582.499 -1369.66 -1283 44 62 87
-580.061 -1368.62 -1282 47 65 91
-578.077 -1368.64 -1282 45 63 89
-576.093 -1368.66 -1282 44 62 88
-574.109 -1368.69 -1282 45 63 89
-573.017 -1370.84 -1284 47 65 91
-571.474 -1371.93 -1285 47 65 91
-569.928 -1373.02 -1286 47 65 92
-569.262 -1376.25 -1289 48 66 93
-567.267 -1376.27 -1289 47 66 92
-565.271 -1376.29 -1289 46 65 91
-564.149 -1378.45 -1291 48 66 94
-562.15 -1378.48 -1291 49 67 95
-561.019 -1380.63 -1293 48 66 95
-559.882 -1382.79 -1295 46 64 93
-560.03 -1388.15 -1300 45 62 93
-558.875 -1390.31 -1302 45 62 93
-558.142 -1393.54 -1305 44 63 93
-557.826 -1397.83 -1309 42 61 91
-556.223 -1398.92 -1310 43 62 92
-555.04 -1401.08 -1312 43 62 92
-553.851 -1403.24 -1314 42 61 93
-552.235 -1404.33 -1315 43 62 94
-550.616 -1405.42 -1316 45 65 98
-549.411 -1407.58 -1318 46 66 99
-548.615 -1410.8 -1321 42 64 99
-548.224 -1415.1 -1325 40 62 97
-546.995 -1417.25 -1327 43 63 98
-544.528 -1416.21 -1326 42 62 97
-542.473 -1416.23 -1326 37 59 92
-541.234 -1418.39 -1328 39 61 94
-646.303 -1406.31 -1316 60 70 82
-640.842 -1398.85 -1309 54 66 84
-637.354 -1395.67 -1306 52 64 82
-633.876 -1392.49 -1303 49 61 80
-630.892 -1390.38 -1301 47 59 78
-627.914 -1388.26 -1299 42 56 79
-624.942 -1386.15 -1297 41 55 78
-621.976 -1384.04 -1295 41 57 81
-618.059 -1379.78 -1291 43 59 83
-614.631 -1376.6 -1288 44 58 85
-612.164 -1375.56 -1287 45 59 86
-610.173 -1375.58 -1287 45 61 85
-608.656 -1376.67 -1288 44 60 84
-607.135 -1377.77 -1289 44 60 84
-606.08 -1379.93 -1291 45 61 85
-605.019 -1382.09 -1293 46 62 86
-602.553 -1381.04 -1292 46 62 86
-600.089 -1380 -1291 45 63 91
-597.629 -1378.95 -1290 44 62 90
-594.248 -1375.77 -1287 42 60 86
-592.257 -1375.79 -1287 42 60 86
-589.349 -1373.68 -1285 41 60 84
-586.446 -1371.56 -1283 41 60 84
-584.916 -1372.66 -1284 42 60 86
-582.93 -1372.68 -1284 42 60 86
-580.49 -1371.63 -1283 46 64 90
-578.956 -1372.73 -1284 47 65 91
-576.968 -1372.75 -1284 48 66 92
-574.981 -1372.77 -1284 50 68 94
-573.886 -1374.93 -1286 53 71 97
-571.896 -1374.96 -1286 53 71 97
-569.905 -1374.98 -1286 53 71 97
-569.681 -1379.28 -1290 55 73 99
-567.244 -1378.23 -1289 49 68 94
-565.687 -1379.32 -1290 47 66 92
-564.127 -1380.41 -1291 47 65 93
-562.999 -1382.58 -1293 48 66 94
-561.864 -1384.74 -1295 49 66 97
-561.156 -1387.97 -1298 47 64 95
-560.869 -1392.27 -1302 46 63 94
-559.711 -1394.43 -1304 45 62 93
-558.975 -1397.66 -1307 43 62 92
-558.229 -1400.89 -1310 41 60 90
-556.625 -1401.98 -1311 40 59 89
-555.441 -1404.14 -1313 40 59 89
-554.671 -1407.37 -1316 39 58 89
-552.633 -1407.39 -1316 42 61 92
-551.012 -1408.49 -1317 45 64 97
-549.806 -1410.65 -1319 45 64 97
-549.008 -1413.88 -1322 39 64 98
-548.615 -1418.18 -1326 37 62 96
-546.561 -1418.2 -1326 42 60 98
-544.095 -1417.15 -1325 41 59 97
-542.451 -1418.24 -1326 37 59 92
-541.212 -1420.41 -1328 40 62 95
-645.787 -1407.24 -1315 58 68 81
-640.328 -1399.77 -1308 53 65 83
-636.842 -1396.58 -1305 51 63 81
-633.365 -1393.4 -1302 49 61 81
-630.868 -1392.35 -1301 46 58 78
-628.373 -1391.31 -1300 42 56 79
-624.918 -1388.12 -1297 41 55 78
-621.472 -1384.93 -1294 41 57 81
-617.077 -1379.61 -1289 42 58 82
-614.13 -1377.49 -1287 44 58 84
-612.14 -1377.51 -1287 45 59 85
-610.15 -1377.54 -1287 45 61 85
-609.577 -1380.77 -1290 46 62 86
-608.053 -1381.87 -1291 45 61 85
-606.995 -1384.03 -1293 45 61 85
-605.931 -1386.2 -1295 45 60 86
-602.996 -1384.08 -1293 46 61 87
-600.53 -1383.03 -1292 41 59 87
-598.069 -1381.98 -1291 41 59 87
-594.687 -1378.8 -1288 40 58 84
-592.234 -1377.75 -1287 39 57 83
-589.784 -1376.7 -1286 37 56 80
-586.88 -1374.58 -1284 37 56 80
-585.349 -1375.68 -1285 40 58 84
-582.906 -1374.63 -1284 43 61 87
-580.92 -1374.65 -1284 48 66 92
-579.834 -1376.82 -1286 51 69 95
-577.844 -1376.84 -1286 52 70 96
-575.406 -1375.79 -1285 53 71 97
-574.31 -1377.96 -1287 56 74 100
-571.429 -1375.84 -1285 57 75 101
-569.883 -1376.93 -1286 57 75 101
-569.658 -1381.24 -1290 59 77 103
-567.221 -1380.19 -1289 52 71 98
-565.664 -1381.28 -1290 49 68 95
-564.541 -1383.45 -1292 47 65 93
-564.282 -1387.75 -1296 47 65 93
-563.143 -1389.92 -1298 46 63 94
-561.998 -1392.08 -1300 46 63 94
-561.708 -1396.39 -1304 44 63 92
-560.118 -1397.48 -1305 44 63 92
-559.38 -1400.71 -1308 44 63 93
-559.059 -1405.02 -1312 42 61 91
-556.602 -1403.97 -1311 41 60 90
-555.841 -1407.21 -1314 40 59 89
-555.07 -1410.44 -1317 39 58 89
-553.45 -1411.54 -1318 42 61 92
-551.827 -1412.63 -1319 44 63 96
-550.617 -1414.79 -1321 43 62 95
-549.401 -1416.96 -1323 36 60 94
-548.179 -1419.12 -1325 36 60 94
-546.126 -1419.14 -1325 41 59 96
-544.073 -1419.17 -1325 40 58 95
-542.429 -1420.26 -1326 37 59 92
-540.782 -1421.35 -1327 40 62 95
-644.289 -1406.02 -1312 57 67 81
-640.303 -1401.76 -1308 54 66 84
-636.329 -1397.49 -1304 51 63 81
-633.827 -1396.45 -1303 49 61 82
-631.813 -1396.47 -1303 47 59 80
-628.348 -1393.28 -1300 44 58 81
-624.893 -1390.09 -1297 43 57 80
-620.967 -1385.83 -1293 42 58 82
-618.011 -1383.71 -1291 42 58 82
-615.06 -1381.59 -1289 43 59 83
-612.592 -1380.54 -1288 43 59 83
-610.126 -1379.49 -1287 45 61 85
-609.081 -1381.66 -1289 45 61 85
-607.558 -1382.75 -1290 45 61 85
-606.502 -1384.92 -1292 45 61 85
-605.44 -1387.09 -1294 44 59 86
-602.972 -1386.04 -1293 44 59 86
-600.507 -1384.99 -1292 38 56 84
-598.045 -1383.95 -1291 38 56 84
-595.125 -1381.82 -1289 39 57 83
-592.671 -1380.78 -1288 39 57 83
-589.761 -1378.66 -1286 35 54 78
-586.857 -1376.53 -1284 35 54 78
-585.326 -1377.63 -1285 40 58 84
-583.338 -1377.65 -1285 43 61 87
-580.897 -1376.6 -1284 48 66 92
-579.361 -1377.7 -1285 52 70 96
-577.372 -1377.72 -1285 53 71 97
-575.831 -1378.82 -1286 53 71 97
-574.733 -1380.98 -1288 55 73 99
-572.295 -1379.93 -1287 55 73 99
-570.746 -1381.03 -1288 55 73 99
-569.636 -1383.2 -1290 58 76 102
-567.639 -1383.22 -1290 54 72 100
-566.08 -1384.31 -1291 50 68 96
-565.392 -1387.55 -1294 46 64 92
-564.695 -1390.79 -1297 44 62 90
-563.555 -1392.96 -1299 43 60 91
-562.84 -1396.2 -1302 43 60 91
-561.255 -1397.29 -1303 43 62 90
-560.525 -1400.53 -1306 43 62 90
-560.213 -1404.85 -1310 43 62 92
-559.463 -1408.09 -1313 42 61 91
-557.005 -1407.04 -1312 41 60 90
-556.665 -1411.35 -1316 41 60 90
-555.891 -1414.59 -1319 40 59 90
-553.428 -1413.54 -1318 41 60 91
-552.223 -1415.71 -1320 42 61 94
-551.012 -1417.87 -1322 40 59 92
-548.964 -1417.9 -1322 35 57 92
-547.744 -1420.06 -1324 36 58 93
-545.28 -1419.01 -1323 41 59 95
-543.641 -1420.11 -1324 41 59 95
-541.998 -1421.2 -1325 38 60 93
-540.76 -1423.37 -1327 38 60 93
-643.773 -1406.94 -1311 59 69 83
-639.788 -1402.67 -1307 55 67 85
-636.304 -1399.48 -1304 53 65 83
-634.289 -1399.5 -1304 50 62 83
-631.789 -1398.45 -1303 48 60 81
-627.841 -1394.18 -1299 46 60 83
-624.387 -1390.99 -1296 45 59 82
-621.423 -1388.86 -1294 44 60 84
-618.465 -1386.74 -1292 43 59 83
-615.513 -1384.62 -1290 42 58 82
-612.092 -1381.42 -1287 43 59 83
-609.628 -1380.37 -1286 44 60 84
-608.584 -1382.54 -1288 44 60 84
-607.534 -1384.71 -1290 44 60 84
-606.478 -1386.89 -1292 44 60 84
-605.416 -1389.06 -1294 43 58 85
-602.948 -1388.01 -1293 42 57 84
-600.484 -1386.96 -1292 40 58 86
-598.022 -1385.91 -1291 39 57 85
-595.101 -1383.78 -1289 39 57 83
-592.647 -1382.73 -1288 39 57 83
-590.196 -1381.68 -1287 36 55 80
-586.834 -1378.48 -1284 36 55 80
-585.758 -1380.66 -1286 40 58 84
-583.315 -1379.61 -1285 43 61 87
-580.874 -1378.55 -1284 47 65 91
-579.338 -1379.65 -1285 51 69 95
-577.799 -1380.75 -1286 52 70 96
-576.256 -1381.84 -1287 53 71 97
-575.603 -1385.09 -1290 55 73 99
-572.717 -1382.96 -1288 53 71 97
-570.723 -1382.99 -1288 52 70 96
-569.613 -1385.16 -1290 54 72 98
-567.616 -1385.18 -1290 52 70 98
-566.934 -1388.42 -1293 48 66 94
-565.807 -1390.59 -1295 44 62 90
-564.673 -1392.76 -1297 41 59 87
-563.966 -1396.01 -1300 41 58 89
-562.818 -1398.18 -1302 42 59 90
-561.663 -1400.35 -1304 41 60 88
-560.932 -1403.59 -1307 40 59 87
-560.618 -1407.91 -1311 42 61 91
-559.44 -1410.08 -1313 40 59 89
-557.407 -1410.1 -1313 42 61 91
-557.065 -1414.42 -1317 43 62 92
-556.29 -1417.67 -1320 42 61 92
-554.245 -1417.69 -1320 42 61 92
-553.037 -1419.86 -1322 42 61 94
-551.406 -1420.96 -1323 41 60 93
-548.942 -1419.9 -1322 38 60 94
-547.307 -1421 -1323 37 59 93
-545.258 -1421.02 -1323 42 60 96
-543.208 -1421.04 -1323 41 59 95
-541.567 -1422.14 -1324 39 61 94
-540.331 -1424.31 -1326 37 59 92
-643.748 -1408.93 -1311 61 71 85
-640.253 -1405.73 -1308 57 69 87
-637.256 -1403.61 -1306 53 65 83
-634.751 -1402.55 -1305 50 62 83
-631.279 -1399.36 -1302 49 61 82
-627.333 -1395.08 -1298 47 61 84
-624.845 -1394.03 -1297 47 61 84
-621.879 -1391.9 -1295 44 60 84
-618.441 -1388.7 -1292 43 59 83
-615.49 -1386.58 -1290 42 58 82
-612.544 -1384.45 -1288 43 59 83
-610.552 -1384.48 -1288 44 60 84
-609.033 -1385.58 -1289 43 59 83
-607.982 -1387.75 -1291 43 59 83
-606.924 -1389.92 -1293 43 59 83
-605.392 -1391.02 -1294 42 57 84
-602.924 -1389.97 -1293 42 57 84
-600.925 -1389.99 -1293 40 58 86
-598.462 -1388.94 -1292 39 57 85
-595.078 -1385.74 -1289 39 57 83
-592.624 -1384.69 -1288 40 58 84
-590.173 -1383.64 -1287 37 56 82
-587.725 -1382.59 -1286 38 57 83
-585.735 -1382.61 -1286 42 60 86
-583.745 -1382.63 -1286 46 64 90
-581.755 -1382.65 -1286 47 65 91
-580.216 -1383.75 -1287 51 69 95
-578.225 -1383.78 -1287 52 70 96
-576.681 -1384.87 -1288 53 71 97
-575.134 -1385.97 -1289 54 72 98
-572.25 -1383.84 -1287 51 69 95
-570.7 -1384.94 -1288 47 65 91
-568.707 -1384.97 -1288 47 65 91
-567.154 -1386.06 -1289 47 65 93
-566.473 -1389.31 -1292 45 63 91
-565.784 -1392.56 -1295 43 61 89
-564.65 -1394.73 -1297 42 60 88
-563.943 -1397.98 -1300 42 59 90
-563.228 -1401.23 -1303 42 59 90
-562.502 -1404.48 -1306 40 59 87
-561.767 -1407.73 -1309 39 58 86
-561.023 -1410.98 -1312 41 60 90
-559.844 -1413.15 -1314 40 59 89
-557.809 -1413.17 -1314 42 61 91
-557.889 -1418.57 -1319 43 62 92
-557.531 -1422.9 -1323 42 61 92
-555.063 -1421.85 -1322 42 61 92
-554.27 -1425.09 -1325 44 63 96
-551.801 -1424.04 -1324 44 63 96
-548.919 -1421.91 -1322 41 63 96
-547.699 -1424.09 -1324 40 62 95
-545.236 -1423.03 -1323 44 62 98
-542.775 -1421.98 -1322 42 60 96
-540.727 -1422 -1322 39 60 93
-643.723 -1410.92 -1311 61 71 86
-640.228 -1407.72 -1308 57 69 87
-637.231 -1405.59 -1306 53 65 83
-634.24 -1403.46 -1304 48 61 82
-630.77 -1400.26 -1301 47 60 81
-627.309 -1397.05 -1298 47 61 84
-624.821 -1396 -1297 47 61 84
-621.855 -1393.87 -1295 44 59 85
-618.896 -1391.74 -1293 42 57 83
-616.42 -1390.69 -1292 43 58 84
-613.471 -1388.56 -1290 43 58 84
-611.476 -1388.59 -1290 43 60 85
-609.954 -1389.69 -1291 43 60 85
-608.9 -1391.86 -1293 43 58 84
-606.9 -1391.89 -1293 42 57 83
-605.368 -1392.99 -1294 42 57 84
-602.901 -1391.93 -1293 43 58 85
-600.901 -1391.96 -1293 38 57 85
-598.438 -1390.9 -1292 38 57 85
-595.055 -1387.7 -1289 38 57 84
-593.06 -1387.72 -1289 39 58 85
-590.608 -1386.67 -1288 39 58 84
-587.701 -1384.54 -1286 39 58 84
-586.167 -1385.64 -1287 42 61 87
-584.176 -1385.66 -1287 47 66 92
-582.185 -1385.68 -1287 48 66 92
-580.193 -1385.71 -1287 49 67 93
-578.202 -1385.73 -1287 50 68 94
-576.21 -1385.75 -1287 49 67 93
-574.665 -1386.85 -1288 49 67 93
-572.227 -1385.8 -1287 47 65 91
-570.235 -1385.82 -1287 43 61 87
-568.685 -1386.92 -1288 42 60 86
-567.131 -1388.02 -1289 44 62 89
-566.889 -1392.35 -1293 44 62 89
-565.762 -1394.53 -1295 44 62 90
-564.627 -1396.7 -1297 43 61 89
-564.788 -1402.11 -1302 42 59 90
-563.637 -1404.29 -1304 42 59 90
-563.341 -1408.62 -1308 40 59 88
-562.174 -1410.79 -1310 39 58 87
-561.428 -1414.05 -1313 39 58 88
-559.821 -1415.15 -1314 38 57 87
-558.211 -1416.25 -1315 40 59 89
-559.135 -1423.81 -1322 40 59 89
-557.931 -1425.98 -1324 39 58 89
-555.88 -1426.01 -1324 40 59 90
-554.666 -1428.18 -1326 43 62 95
-552.195 -1427.13 -1325 44 63 96
-549.312 -1425 -1323 41 63 96
-547.677 -1426.1 -1324 40 62 95
-544.389 -1422.89 -1321 45 63 98
-542.343 -1422.91 -1321 42 60 95
-643.698 -1412.91 -1311 59 69 85
-640.204 -1409.7 -1308 54 66 85
-636.719 -1406.49 -1305 52 64 83
-633.243 -1403.29 -1302 47 61 82
-629.776 -1400.08 -1299 46 60 81
-627.285 -1399.02 -1298 46 60 83
-624.796 -1397.97 -1297 45 59 82
-622.311 -1396.92 -1296 43 58 85
-619.35 -1394.78 -1294 43 58 85
-616.873 -1393.73 -1293 44 59 86
-614.398 -1392.68 -1292 44 59 86
-612.401 -1392.7 -1292 43 61 87
-610.403 -1392.72 -1292 43 61 87
-608.405 -1392.75 -1292 44 59 86
-606.407 -1392.77 -1292 42 57 84
-605.345 -1394.95 -1294 43 58 85
-602.411 -1392.82 -1292 44 59 86
-600.413 -1392.84 -1292 39 58 86
-597.951 -1391.79 -1291 38 57 85
-595.493 -1390.73 -1290 38 57 85
-593.497 -1390.76 -1290 39 58 86
-591.043 -1389.7 -1289 41 60 86
-587.678 -1386.49 -1286 40 59 85
-586.144 -1387.59 -1287 41 60 86
-584.607 -1388.69 -1288 45 64 90
-582.614 -1388.72 -1288 45 63 89
-580.17 -1387.66 -1287 46 64 90
-578.179 -1387.69 -1287 44 62 88
-576.187 -1387.71 -1287 43 61 87
-574.642 -1388.81 -1288 44 62 88
-572.649 -1388.83 -1288 45 63 89
-570.655 -1388.86 -1288 44 62 88
-568.662 -1388.88 -1288 42 60 86
-567.548 -1391.06 -1290 44 62 88
-567.305 -1395.39 -1294 44 62 88
-566.176 -1397.57 -1296 44 62 90
-565.911 -1401.91 -1300 43 61 89
-564.766 -1404.09 -1302 43 60 91
-564.047 -1407.35 -1305 43 60 91
-563.749 -1411.68 -1309 42 59 90
-562.151 -1412.78 -1310 40 57 88
-561.406 -1416.04 -1313 37 56 86
-560.225 -1418.22 -1315 37 56 86
-559.037 -1420.4 -1317 39 58 88
-559.535 -1426.89 -1323 39 58 88
-558.329 -1429.07 -1325 38 57 88
-556.697 -1430.17 -1326 41 60 91
-555.062 -1431.28 -1327 45 64 97
-552.173 -1429.14 -1325 45 64 97
-549.29 -1427.01 -1323 41 63 96
-546.827 -1425.95 -1322 39 61 94
-544.367 -1424.89 -1321 44 63 96
-542.321 -1424.92 -1321 41 60 93
-644.165 -1415.98 -1312 55 66 82
-640.179 -1411.69 -1308 54 66 85
-636.206 -1407.4 -1304 51 63 82
-632.732 -1404.18 -1301 47 61 82
-629.751 -1402.05 -1299 46 60 81
-627.26 -1400.99 -1298 45 59 82
-624.772 -1399.94 -1297 44 58 81
-622.287 -1398.88 -1296 43 58 85
-619.805 -1397.83 -1295 44 59 86
-617.326 -1396.77 -1294 43 58 85
-615.325 -1396.8 -1294 43 58 85
-612.851 -1395.74 -1293 43 61 87
-610.852 -1395.77 -1293 43 61 87
-608.381 -1394.71 -1292 43 58 85
-606.853 -1395.81 -1293 43 58 85
-604.853 -1395.84 -1293 43 60 86
-602.387 -1394.78 -1292 43 60 86
-600.389 -1394.81 -1292 42 61 89
-597.928 -1393.75 -1291 40 59 87
-595.469 -1392.69 -1290 38 57 85
-593.474 -1392.72 -1290 40 59 87
-590.561 -1390.58 -1288 41 60 87
-588.112 -1389.52 -1287 41 60 87
-586.576 -1390.63 -1288 41 60 86
-584.584 -1390.65 -1288 42 61 87
-582.138 -1389.59 -1287 42 60 86
-580.147 -1389.62 -1287 44 62 88
-578.156 -1389.64 -1287 43 61 87
-576.164 -1389.66 -1287 41 59 85
-574.173 -1389.69 -1287 43 61 87
-572.626 -1390.79 -1288 44 62 88
-570.633 -1390.81 -1288 43 61 87
-568.639 -1390.83 -1288 44 62 88
-567.525 -1393.02 -1290 44 62 89
-566.844 -1396.28 -1293 43 61 88
-566.59 -1400.62 -1297 42 61 89
-565.888 -1403.88 -1300 41 60 88
-564.309 -1404.99 -1301 41 60 90
-564.456 -1410.41 -1306 41 60 90
-563.727 -1413.67 -1309 40 59 89
-562.558 -1415.85 -1311 39 58 88
-561.383 -1418.04 -1313 38 57 87
-561.054 -1422.38 -1317 39 58 88
-559.864 -1424.56 -1319 38 57 87
-560.359 -1431.06 -1325 37 56 86
-558.728 -1432.17 -1326 39 58 89
-556.675 -1432.19 -1326 43 62 93
-555.457 -1434.37 -1328 45 64 97
-552.151 -1431.15 -1325 45 64 97
-549.683 -1430.1 -1324 41 63 96
-546.805 -1427.96 -1322 38 60 93
-544.345 -1426.9 -1321 40 59 92
-542.709 -1428 -1322 41 60 93
-644.631 -1419.06 -1313 53 66 81
-640.644 -1414.76 -1309 51 63 82
-635.694 -1408.3 -1303 49 61 80
-632.707 -1406.16 -1301 46 60 81
-629.727 -1404.02 -1299 46 60 81
-626.753 -1401.88 -1297 45 61 83
-624.748 -1401.91 -1297 44 60 82
-621.783 -1399.77 -1295 44 59 86
-619.302 -1398.71 -1294 45 60 87
-618.256 -1400.9 -1296 42 57 84
-615.301 -1398.76 -1294 42 57 84
-612.827 -1397.71 -1293 41 59 85
-610.828 -1397.73 -1293 42 60 86
-608.357 -1396.67 -1292 44 59 86
-606.829 -1397.78 -1293 45 60 87
-604.362 -1396.72 -1292 43 61 87
-602.363 -1396.74 -1292 42 60 86
-599.901 -1395.69 -1291 40 59 87
-597.904 -1395.71 -1291 39 58 86
-595.446 -1394.65 -1290 39 58 86
-593.45 -1394.68 -1290 40 59 87
-590.538 -1392.54 -1288 42 61 89
-588.089 -1391.48 -1287 42 61 89
-586.553 -1392.58 -1288 42 61 87
-584.107 -1391.53 -1287 42 61 87
-582.116 -1391.55 -1287 45 63 89
-580.124 -1391.57 -1287 47 65 91
-577.684 -1390.51 -1286 46 64 90
-575.694 -1390.54 -1286 45 63 89
-573.704 -1390.56 -1286 46 64 90
-571.714 -1390.58 -1286 46 64 90
-569.724 -1390.6 -1286 45 63 89
-568.175 -1391.71 -1287 46 64 90
-567.063 -1393.89 -1289 43 61 89
-566.383 -1397.16 -1292 43 61 89
-565.694 -1400.43 -1295 42 61 89
-564.995 -1403.69 -1298 42 61 89
-565.154 -1409.12 -1303 43 62 92
-564.433 -1412.39 -1306 42 61 91
-563.273 -1414.58 -1308 40 59 89
-562.535 -1417.84 -1311 38 57 87
-562.215 -1422.19 -1315 37 56 86
-561.883 -1426.54 -1319 38 57 87
-560.69 -1428.73 -1321 37 56 86
-560.336 -1433.08 -1325 37 56 86
-558.706 -1434.18 -1326 39 58 89
-557.072 -1435.28 -1327 42 61 92
-555.435 -1436.39 -1328 44 63 96
-552.961 -1435.33 -1327 45 64 97
-550.491 -1434.27 -1326 41 62 95
-547.197 -1431.05 -1323 39 60 93
-544.323 -1428.91 -1321 40 59 92
-543.919 -1433.25 -1325 40 59 92
-644.606 -1421.05 -1313 54 66 83
-640.13 -1415.66 -1308 51 64 83
-636.157 -1411.36 -1304 48 61 80
-632.683 -1408.13 -1301 45 59 81
-629.703 -1405.99 -1299 45 59 81
-626.245 -1402.77 -1296 44 60 83
-624.242 -1402.8 -1296 44 60 83
-621.279 -1400.66 -1294 43 60 86
-619.757 -1401.76 -1295 43 60 86
-618.232 -1402.87 -1296 41 58 83
-615.753 -1401.81 -1295 42 59 84
-613.751 -1401.83 -1295 42 60 86
-611.276 -1400.78 -1294 42 60 86
-608.805 -1399.72 -1293 43 59 87
-606.805 -1399.74 -1293 43 59 87
-604.806 -1399.76 -1293 41 59 86
-601.874 -1397.62 -1291 42 60 87
-599.877 -1397.65 -1291 41 60 88
-597.881 -1397.67 -1291 41 60 88
-595.422 -1396.61 -1290 42 61 89
-593.427 -1396.63 -1290 43 62 90
-590.973 -1395.57 -1289 43 62 90
-588.523 -1394.52 -1288 43 62 90
-586.53 -1394.54 -1288 44 63 89
-584.084 -1393.48 -1287 45 64 90
-581.64 -1392.42 -1286 47 65 91
-579.651 -1392.44 -1286 49 67 93
-577.212 -1391.38 -1285 49 67 93
-575.223 -1391.41 -1285 47 65 91
-573.681 -1392.51 -1286 47 65 91
-571.691 -1392.53 -1286 46 64 90
-569.701 -1392.56 -1286 45 63 89
-568.152 -1393.66 -1287 45 63 89
-567.04 -1395.85 -1289 44 62 91
-566.36 -1399.12 -1292 44 62 91
-565.671 -1402.39 -1295 43 62 90
-565.408 -1406.75 -1299 44 63 91
-565.565 -1412.19 -1304 44 63 93
-564.411 -1414.37 -1306 43 62 92
-563.681 -1417.65 -1309 40 59 89
-563.371 -1422 -1313 38 57 87
-563.048 -1426.36 -1317 38 57 87
-561.861 -1428.54 -1319 38 57 87
-561.092 -1431.82 -1322 38 57 87
-560.736 -1436.17 -1326 39 58 88
-559.104 -1437.28 -1327 40 59 90
-557.049 -1437.3 -1327 41 60 91
-555.413 -1438.41 -1328 42 61 94
-552.939 -1437.34 -1327 43 62 95
-549.639 -1434.12 -1324 39 60 92
-547.174 -1433.06 -1323 38 59 91
-544.713 -1431.99 -1322 40 59 91
-545.128 -1438.52 -1328 39 58 90
-648.087 -1426.27 -1316 58 70 88
-644.09 -1421.96 -1312 55 67 85
-640.594 -1418.73 -1309 51 66 84
-637.108 -1415.51 -1306 48 63 81
-632.658 -1410.11 -1301 45 59 82
-629.193 -1406.88 -1298 44 58 81
-625.738 -1403.66 -1295 44 60 84
-623.736 -1403.68 -1295 44 60 84
-621.734 -1403.7 -1295 41 59 85
-620.211 -1404.81 -1296 41 59 85
-618.685 -1405.92 -1297 41 59 83
-616.204 -1404.86 -1296 42 60 84
-614.201 -1404.89 -1296 42 60 86
-611.725 -1403.82 -1295 42 60 86
-609.251 -1402.76 -1294 42 60 88
-607.251 -1402.79 -1294 40 58 86
-604.782 -1401.73 -1293 40 58 86
-601.85 -1399.58 -1291 41 59 87
-600.318 -1400.69 -1292 42 61 89
-597.857 -1399.63 -1291 42 61 89
-594.938 -1397.49 -1289 44 63 91
-593.404 -1398.59 -1290 45 64 92
-590.95 -1397.53 -1289 45 64 92
-588.499 -1396.47 -1288 46 65 93
-586.507 -1396.49 -1288 49 68 94
-584.06 -1395.43 -1287 51 70 96
-581.617 -1394.37 -1286 52 70 96
-579.628 -1394.4 -1286 53 71 97
-577.189 -1393.33 -1285 52 70 96
-575.648 -1394.44 -1286 50 68 94
-574.104 -1395.55 -1287 48 66 92
-571.668 -1394.49 -1286 45 63 89
-570.121 -1395.59 -1287 43 61 87
-568.571 -1396.7 -1288 43 61 87
-567.897 -1399.98 -1291 45 62 93
-567.215 -1403.25 -1294 45 62 93
