ply
format ascii 1.0
comment Created by Open3D
element vertex 1346
property double x
property double y
property double z
property uchar red
property uchar green
property uchar blue
end_header
-37.0774 -31.4207 -1187 254 253 219
-34.7202 -31.4194 -1187 253 252 220
-32.3633 -31.4182 -1187 252 252 220
-30.0319 -31.4436 -1188 252 252 222
-27.6502 -31.4161 -1187 252 252 221
-25.2726 -31.3887 -1186 252 252 220
-22.9186 -31.3879 -1186 253 252 221
-20.5474 -31.3606 -1185 253 252 222
-18.2111 -31.3864 -1186 252 252 222
-15.8709 -31.4123 -1187 252 252 222
-13.5383 -31.4647 -1189 252 252 222
-11.1791 -31.4642 -1189 253 252 222
-8.82731 -31.4903 -1190 253 252 222
-6.46623 -31.4901 -1190 252 251 220
-4.1052 -31.4899 -1190 252 252 221
-1.74128 -31.4369 -1188 253 253 223
0.616253 -31.4633 -1189 252 252 221
2.97526 -31.4634 -1189 253 252 221
5.33428 -31.4635 -1189 255 253 221
7.69982 -31.4902 -1190 254 252 222
10.0694 -31.517 -1191 253 252 222
12.4326 -31.5174 -1191 253 252 220
14.8207 -31.5708 -1193 253 252 220
17.1881 -31.5714 -1193 253 252 219
19.5556 -31.572 -1193 254 253 219
21.9232 -31.5728 -1193 254 253 219
24.2911 -31.5736 -1193 253 252 216
26.6591 -31.5745 -1193 253 252 215
29.0517 -31.6019 -1194 252 252 214
31.4748 -31.6559 -1196 252 252 211
33.8777 -31.6836 -1197 251 251 210
36.3153 -31.7377 -1199 252 251 208
38.6965 -31.7391 -1199 251 250 206
41.1122 -31.767 -1200 252 251 207
43.496 -31.7685 -1200 253 252 207
45.8802 -31.77 -1200 250 250 203
48.305 -31.7982 -1201 249 250 201
50.7763 -31.8529 -1203 251 249 200
53.2561 -31.9077 -1205 250 248 199
55.7903 -31.989 -1208 248 245 196
58.337 -32.0705 -1211 245 242 193
60.896 -32.1521 -1214 243 241 192
63.4674 -32.2339 -1217 240 239 190
65.943 -32.2626 -1218 236 234 186
68.5916 -32.371 -1222 230 228 181
71.1403 -32.4264 -1224 223 220 179
73.9981 -32.6144 -1231 217 213 175
77.0086 -32.8556 -1240 208 204 173
80.5044 -33.2823 -1256 202 198 169
-222.328 -36.3297 -1264 169 169 152
-216.091 -35.7177 -1243 173 173 148
-211.66 -35.3932 -1232 174 174 145
-207.615 -35.1265 -1223 178 178 146
-204.279 -34.9749 -1218 183 182 149
-201.131 -34.8524 -1214 191 191 157
-197.838 -34.7011 -1209 196 196 157
-194.89 -34.6073 -1206 204 203 163
-191.796 -34.485 -1202 213 212 172
-188.72 -34.363 -1198 222 219 178
-185.662 -34.241 -1194 230 228 185
-182.775 -34.1478 -1191 235 233 187
-179.75 -34.0261 -1187 236 234 186
-177.042 -33.9618 -1185 236 234 186
-174.638 -33.9551 -1185 239 237 189
-172.09 -33.9198 -1184 245 243 196
-169.548 -33.8844 -1183 249 247 203
-167.152 -33.878 -1183 252 249 200
-164.619 -33.843 -1182 253 250 199
-161.954 -33.7794 -1180 252 250 206
-159.568 -33.7732 -1180 252 250 207
-156.918 -33.7099 -1178 253 251 209
-154.539 -33.7039 -1178 253 250 209
-152.032 -33.6694 -1177 253 250 209
-149.404 -33.6063 -1175 254 251 210
-147.035 -33.6006 -1175 255 252 213
-144.79 -33.6236 -1176 255 252 215
-142.3 -33.5894 -1175 254 254 216
-140.054 -33.6127 -1176 254 254 216
-137.805 -33.6359 -1177 253 252 218
-135.322 -33.602 -1176 253 252 220
-132.958 -33.597 -1176 252 252 222
-130.706 -33.6204 -1177 253 252 222
-128.342 -33.6154 -1177 253 252 222
-126.086 -33.6392 -1178 253 252 222
-123.617 -33.6057 -1177 253 252 223
-121.05 -33.544 -1175 253 252 224
-118.694 -33.5393 -1175 252 252 226
-116.339 -33.5349 -1175 252 252 226
-113.985 -33.5304 -1175 253 253 225
-111.727 -33.5547 -1176 254 254 226
-109.559 -33.6076 -1178 253 253 225
-107.111 -33.5748 -1177 252 252 226
-104.934 -33.6278 -1179 252 252 225
-102.664 -33.6524 -1180 253 252 224
-100.39 -33.677 -1181 253 252 223
-98.1128 -33.7017 -1182 253 252 222
-95.7516 -33.698 -1182 253 252 222
-93.3123 -33.666 -1181 254 253 223
-90.8775 -33.6338 -1180 254 253 225
-88.5226 -33.6304 -1180 254 253 221
-86.2414 -33.6556 -1181 254 253 219
-84.0279 -33.7094 -1183 254 254 216
-81.7381 -33.7347 -1184 254 254 216
-79.445 -33.76 -1185 253 253 215
-77.1485 -33.7855 -1186 253 252 216
-74.7856 -33.7827 -1186 253 252 217
-72.3622 -33.7514 -1185 254 253 218
-70.0615 -33.7772 -1186 254 253 218
-67.5862 -33.7176 -1184 255 254 220
-65.2846 -33.7436 -1185 255 254 219
-62.9265 -33.7411 -1185 254 253 218
-60.5689 -33.7388 -1185 252 252 214
-58.2118 -33.7365 -1185 253 252 217
-55.9494 -33.7913 -1187 254 253 221
-53.5891 -33.7891 -1187 254 253 223
-51.2294 -33.7871 -1187 254 253 222
-48.9112 -33.8137 -1188 254 253 218
-46.5111 -33.7834 -1187 254 253 221
-44.1525 -33.7817 -1187 253 252 222
-41.7943 -33.78 -1187 253 252 218
-39.4363 -33.7785 -1187 254 253 219
-37.0787 -33.7771 -1187 254 253 219
-34.7215 -33.7757 -1187 253 252 218
-32.3644 -33.7744 -1187 253 252 218
-29.9824 -33.7448 -1186 253 252 220
-27.6279 -33.7437 -1186 253 252 219
-25.2736 -33.7427 -1186 253 252 218
-22.9194 -33.7418 -1186 253 252 221
-20.5655 -33.7409 -1186 253 252 222
-18.2118 -33.7402 -1186 253 252 222
-15.8581 -33.7396 -1186 253 252 222
-13.5274 -33.7959 -1188 253 252 222
-11.1701 -33.7954 -1188 253 252 222
-8.8128 -33.7951 -1188 253 252 222
-6.4556 -33.7948 -1188 253 252 220
-4.09845 -33.7946 -1188 252 252 221
-1.73988 -33.766 -1187 252 252 222
0.615759 -33.7944 -1188 252 252 222
2.97286 -33.7945 -1188 253 252 222
5.33448 -33.8231 -1189 254 253 221
7.69363 -33.8234 -1189 253 252 222
10.0613 -33.8522 -1190 253 252 222
12.4226 -33.8526 -1190 253 252 220
14.8088 -33.91 -1192 253 252 219
17.1743 -33.9106 -1192 253 252 218
19.5399 -33.9113 -1192 253 252 217
21.9057 -33.9121 -1192 254 253 218
24.2716 -33.913 -1192 253 253 215
26.6377 -33.9139 -1192 253 253 215
29.0284 -33.9435 -1193 252 252 214
31.4233 -33.9731 -1194 252 252 209
33.8507 -34.0312 -1196 252 252 209
36.2863 -34.0895 -1198 253 251 206
38.6979 -34.1193 -1199 251 250 205
41.0795 -34.1209 -1199 252 251 205
43.4976 -34.1509 -1200 254 252 206
45.9201 -34.1811 -1201 251 251 203
48.347 -34.2113 -1202 250 251 201
50.7782 -34.2417 -1203 251 249 200
53.2581 -34.3006 -1205 250 248 199
55.7462 -34.3596 -1207 248 245 194
58.3391 -34.4758 -1211 246 244 194
60.848 -34.535 -1213 244 242 193
63.4176 -34.6228 -1216 237 238 186
65.9454 -34.6822 -1218 231 231 182
68.538 -34.7701 -1221 226 224 180
71.1429 -34.8582 -1224 221 215 177
74.0008 -35.0603 -1231 214 208 173
76.9493 -35.2911 -1239 203 199 178
81.0201 -36.0062 -1264 199 196 174
-222.864 -38.9568 -1267 170 169 149
-216.969 -38.3634 -1248 172 172 148
-212.184 -37.9549 -1235 174 174 147
-208.302 -37.7004 -1227 175 175 146
-204.958 -37.5382 -1222 180 179 147
-201.637 -37.3762 -1217 185 184 151
-198.337 -37.2144 -1212 190 189 153
-195.221 -37.0834 -1208 200 199 161
-191.963 -36.9219 -1203 210 210 171
-188.885 -36.7912 -1199 221 218 177
-185.825 -36.6606 -1195 227 224 182
-182.936 -36.5611 -1192 231 229 182
-179.757 -36.4002 -1187 233 231 183
-177.198 -36.3622 -1186 235 233 185
-174.792 -36.3548 -1186 238 236 188
-172.243 -36.3171 -1185 243 241 194
-169.555 -36.2486 -1183 246 244 200
-167.3 -36.2724 -1184 250 247 198
-164.486 -36.1737 -1181 252 249 198
-161.823 -36.1057 -1179 252 250 205
-159.439 -36.099 -1179 252 250 205
-157.057 -36.0924 -1179 252 250 206
-154.545 -36.0554 -1178 253 251 207
-152.168 -36.0491 -1178 254 252 207
-149.537 -35.9817 -1176 254 251 210
-147.041 -35.945 -1175 253 251 212
-144.673 -35.939 -1175 253 252 215
-142.185 -35.9026 -1174 253 253 215
-139.821 -35.8968 -1174 253 253 215
-137.576 -35.9216 -1175 253 252 218
-135.213 -35.916 -1175 253 252 219
-132.85 -35.9104 -1175 252 252 221
-130.6 -35.9357 -1176 253 252 221
-128.238 -35.9303 -1176 253 252 221
-125.984 -35.9557 -1177 253 252 222
-123.412 -35.8894 -1175 253 252 222
-120.952 -35.8538 -1174 253 252 223
-118.598 -35.849 -1174 252 252 225
-116.344 -35.8747 -1175 252 252 225
-113.99 -35.87 -1175 253 253 225
-111.637 -35.8654 -1175 253 253 225
-109.377 -35.8913 -1176 253 253 225
-107.024 -35.8869 -1176 252 252 225
-104.76 -35.913 -1177 253 252 224
-102.494 -35.9393 -1178 253 252 223
-100.309 -35.9962 -1180 253 252 221
-97.9507 -35.9921 -1180 253 252 221
-95.6745 -36.0187 -1181 253 252 222
-93.2369 -35.9843 -1180 253 252 222
-90.8041 -35.9501 -1179 254 253 223
-88.4511 -35.9464 -1179 254 253 220
-86.1717 -35.9733 -1180 254 253 219
-83.8892 -36.0003 -1181 254 254 216
-81.6032 -36.0275 -1182 253 253 215
-79.314 -36.0547 -1183 253 253 215
-76.9564 -36.0515 -1183 253 252 215
-74.6624 -36.0788 -1184 253 252 216
-72.2429 -36.0453 -1183 254 253 218
-69.887 -36.0424 -1183 254 253 218
-67.4747 -36.0092 -1182 254 253 218
-65.177 -36.0369 -1183 253 252 217
-62.8228 -36.0343 -1183 253 252 217
-60.5201 -36.0623 -1184 253 253 215
-58.1649 -36.0599 -1184 254 253 218
-55.9045 -36.1185 -1186 254 253 221
-53.5462 -36.1163 -1186 254 253 221
-51.1882 -36.114 -1186 254 253 221
-48.872 -36.1424 -1187 254 253 218
-46.4737 -36.11 -1186 253 252 220
-44.1171 -36.1082 -1186 253 252 222
-41.7607 -36.1065 -1186 253 252 218
-39.4379 -36.1353 -1187 254 253 219
-37.049 -36.1033 -1186 253 252 218
-34.6936 -36.1018 -1186 253 252 218
-32.3384 -36.1004 -1186 253 252 218
-29.9836 -36.0992 -1186 253 252 220
-27.6057 -36.0676 -1185 253 252 219
-25.2532 -36.0665 -1185 253 252 218
-22.901 -36.0655 -1185 253 252 220
-20.549 -36.0646 -1185 253 252 220
-18.1818 -36.0334 -1184 253 252 222
-15.8454 -36.0632 -1185 253 252 222
-13.5052 -36.093 -1186 253 252 222
-11.1611 -36.1229 -1187 253 252 222
-8.80572 -36.1225 -1187 253 252 222
-6.45585 -36.1527 -1188 253 252 220
-4.09516 -36.122 -1187 253 252 221
-1.73848 -36.0915 -1186 253 252 222
0.615266 -36.1219 -1187 253 253 221
2.97048 -36.1219 -1187 253 253 221
5.3302 -36.1526 -1188 253 252 219
7.69394 -36.1832 -1189 253 252 221
10.0532 -36.1836 -1189 253 252 222
12.4231 -36.2145 -1190 253 252 220
14.797 -36.2455 -1191 253 252 219
17.1462 -36.2157 -1190 253 252 217
19.5079 -36.2165 -1190 253 252 217
21.8698 -36.2173 -1190 253 252 217
24.2318 -36.2182 -1190 253 253 215
26.6164 -36.2497 -1191 252 252 214
29.0052 -36.2813 -1192 251 251 213
31.4245 -36.3434 -1194 251 251 208
33.852 -36.4056 -1196 251 251 207
36.2877 -36.4679 -1198 253 251 205
38.6994 -36.4999 -1199 253 251 206
41.1153 -36.5319 -1200 254 252 206
43.4994 -36.5337 -1200 254 252 206
45.8837 -36.5355 -1200 252 251 203
48.3489 -36.5983 -1202 250 251 201
50.7381 -36.6003 -1202 249 249 200
53.2602 -36.6938 -1205 248 248 198
55.7484 -36.7569 -1207 246 244 194
58.3414 -36.8812 -1211 243 241 192
60.8504 -36.9445 -1213 240 238 189
63.4722 -37.0689 -1217 232 231 181
66.0563 -37.1629 -1220 225 224 176
68.7091 -37.2875 -1224 219 217 173
71.3782 -37.4122 -1228 214 209 173
74.3043 -37.6589 -1236 208 202 168
77.5736 -38.058 -1249 198 194 172
82.6899 -39.3107 -1290 196 194 174
-223.402 -41.5962 -1270 170 169 149
-217.847 -41.0296 -1253 171 171 147
-213.052 -40.5945 -1240 173 173 147
-208.82 -40.2577 -1230 173 173 145
-205.638 -40.1177 -1226 177 176 144
-202.142 -39.9124 -1220 180 179 147
-198.836 -39.74 -1215 183 182 147
-195.552 -39.5677 -1210 191 191 154
-192.291 -39.3957 -1205 207 206 169
-189.051 -39.2238 -1200 222 219 178
-185.988 -39.0848 -1196 225 222 180
-183.097 -38.9786 -1193 229 227 179
-180.068 -38.84 -1189 231 229 181
-177.355 -38.7667 -1187 233 231 183
-174.8 -38.7262 -1186 236 234 186
-172.104 -38.6534 -1184 240 238 191
-169.705 -38.6458 -1184 244 242 197
-167.166 -38.6058 -1183 247 244 195
-164.493 -38.5333 -1181 250 247 196
-161.693 -38.4281 -1178 251 249 202
-159.311 -38.4211 -1178 251 249 202
-156.931 -38.4142 -1178 252 250 203
-154.552 -38.4074 -1178 253 251 204
-152.045 -38.3681 -1177 253 251 204
-149.543 -38.3288 -1176 253 251 209
-147.047 -38.2896 -1175 253 251 211
-144.679 -38.2834 -1175 252 252 213
-142.191 -38.2445 -1174 252 252 214
-139.946 -38.2708 -1175 253 253 215
-137.465 -38.2322 -1174 253 252 216
-135.218 -38.2587 -1175 253 252 218
-132.856 -38.2528 -1175 253 252 219
-130.495 -38.2472 -1175 253 252 219
-128.135 -38.2415 -1175 253 252 220
-125.775 -38.2359 -1175 253 252 221
-123.312 -38.198 -1174 253 252 221
-120.854 -38.16 -1173 253 252 221
-118.603 -38.1874 -1174 252 252 223
-116.25 -38.1822 -1174 252 252 223
-113.995 -38.2098 -1175 252 252 224
-111.641 -38.2048 -1175 252 252 224
-109.382 -38.2325 -1176 252 252 224
-107.028 -38.2277 -1176 253 252 223
-104.765 -38.2557 -1177 253 252 223
-102.498 -38.2836 -1178 253 252 221
-100.228 -38.3117 -1179 253 252 220
-97.8718 -38.3074 -1179 253 252 220
-95.5164 -38.3032 -1179 253 252 221
-93.0828 -38.2665 -1178 253 252 222
-90.7309 -38.2626 -1178 253 252 222
-88.3047 -38.2262 -1177 253 252 219
-86.0294 -38.2548 -1178 253 252 218
-83.8217 -38.3161 -1180 253 253 215
-81.5377 -38.345 -1181 253 253 215
-79.2503 -38.374 -1182 253 253 215
-76.8946 -38.3706 -1182 253 253 215
-74.5394 -38.3673 -1182 253 253 215
-72.1238 -38.3316 -1181 253 252 216
-69.8309 -38.361 -1182 253 252 217
-67.4204 -38.3255 -1181 253 252 217
-65.1246 -38.3551 -1182 253 252 216
-62.8254 -38.3848 -1183 253 252 216
-60.4716 -38.3821 -1183 253 253 215
-58.1182 -38.3796 -1183 253 253 217
-55.8597 -38.442 -1185 253 252 220
-53.4581 -38.4072 -1184 253 252 220
-51.1041 -38.4048 -1184 253 252 220
-48.7917 -38.4351 -1185 254 253 218
-46.4365 -38.433 -1185 253 252 220
-44.0817 -38.431 -1185 253 252 221
-41.7625 -38.4616 -1186 253 252 218
-39.4064 -38.4599 -1186 253 252 218
-37.0505 -38.4582 -1186 253 252 216
-34.6658 -38.4242 -1185 253 252 216
-32.3398 -38.4552 -1186 253 252 216
-29.9848 -38.4539 -1186 253 252 219
-27.6068 -38.4202 -1185 253 252 219
-25.2543 -38.419 -1185 253 252 218
-22.9213 -38.4504 -1186 253 252 219
-20.5499 -38.4171 -1185 253 252 219
-18.1825 -38.3838 -1184 253 252 221
-15.846 -38.4155 -1185 253 252 221
-13.5057 -38.4473 -1186 253 252 221
-11.1522 -38.4467 -1186 253 252 221
-8.79867 -38.4463 -1186 253 252 221
-6.44525 -38.446 -1186 253 252 220
-4.09188 -38.4458 -1186 253 252 221
-1.73708 -38.4132 -1185 253 252 221
0.614776 -38.4456 -1186 253 253 220
2.97061 -38.4781 -1187 253 253 220
5.33043 -38.5107 -1188 253 252 218
7.68132 -38.4786 -1187 253 252 220
10.0452 -38.5114 -1188 253 252 221
12.4132 -38.5443 -1189 253 252 219
14.7852 -38.5773 -1190 253 252 218
17.1469 -38.578 -1190 253 252 217
19.5087 -38.5788 -1190 253 252 216
21.8707 -38.5797 -1190 253 252 216
24.2328 -38.5807 -1190 253 253 215
26.5952 -38.5818 -1190 252 252 213
28.9821 -38.6154 -1191 251 251 212
31.3995 -38.6816 -1193 251 251 207
33.8251 -38.7478 -1195 252 252 207
36.259 -38.8142 -1197 253 251 204
38.701 -38.8807 -1199 254 252 205
41.1171 -38.9148 -1200 254 252 206
43.5737 -38.9815 -1202 253 251 205
45.9621 -38.9835 -1202 252 251 203
48.3913 -39.018 -1203 249 250 200
50.7824 -39.0203 -1203 247 248 198
53.3066 -39.1198 -1206 246 247 197
55.7507 -39.1546 -1207 244 242 193
58.3438 -39.2868 -1211 240 238 189
60.9031 -39.3868 -1214 236 233 185
63.527 -39.5192 -1218 228 225 177
66.0592 -39.5869 -1220 222 219 173
68.8242 -39.7845 -1226 216 213 171
71.4975 -39.9174 -1230 211 207 172
74.5479 -40.2451 -1240 202 198 165
78.3843 -40.9625 -1262 197 193 170
-224.115 -44.2827 -1274 170 169 149
-218.031 -43.5772 -1254 169 169 146
-213.577 -43.1849 -1243 173 173 147
-209.849 -42.9317 -1236 173 173 145
-206.151 -42.6789 -1229 177 176 143
-202.649 -42.4609 -1223 178 178 144
-199.173 -42.2432 -1217 180 181 145
-195.885 -42.0604 -1212 182 182 146
-192.459 -41.8431 -1206 195 194 158
-189.217 -41.6607 -1201 216 213 172
-186.308 -41.5479 -1198 228 225 183
-183.259 -41.4005 -1194 229 227 180
-180.379 -41.2879 -1191 230 228 180
-177.513 -41.1755 -1188 232 230 182
-174.955 -41.1327 -1187 234 232 184
-172.403 -41.0899 -1186 238 236 189
-169.856 -41.0472 -1185 242 240 194
-167.174 -40.9702 -1183 245 243 193
-164.501 -40.8931 -1181 248 246 195
-161.7 -40.7816 -1178 249 247 199
-159.318 -40.7742 -1178 251 249 200
-156.805 -40.7321 -1177 252 250 201
-154.296 -40.6903 -1176 253 251 202
-151.922 -40.6832 -1176 253 251 202
-149.423 -40.6416 -1175 253 251 207
-146.928 -40.6001 -1174 252 251 209
-144.562 -40.5933 -1174 251 251 211
-142.076 -40.5521 -1173 252 252 212
-139.833 -40.5801 -1174 253 253 213
-137.354 -40.5391 -1173 253 253 215
-135.109 -40.5673 -1174 253 252 217
-132.636 -40.5265 -1173 253 252 218
-130.39 -40.555 -1174 253 252 218
-127.922 -40.5144 -1173 253 252 218
-125.674 -40.543 -1174 253 252 220
-123.213 -40.5027 -1173 253 252 220
-120.86 -40.4971 -1173 253 252 220
-118.608 -40.526 -1174 252 252 222
-116.156 -40.4861 -1173 252 252 222
-113.806 -40.4807 -1173 252 252 222
-111.551 -40.5101 -1174 252 252 222
-109.294 -40.5394 -1175 252 252 222
-106.851 -40.5 -1174 253 252 222
-104.591 -40.5295 -1175 253 252 222
-102.329 -40.5593 -1176 253 252 220
-99.9775 -40.5546 -1176 253 252 220
-97.7102 -40.5844 -1177 253 252 220
-95.3587 -40.58 -1177 253 252 220
-93.087 -40.6102 -1178 253 252 221
-90.735 -40.6058 -1178 253 252 222
-88.3838 -40.6017 -1178 253 252 219
-86.0333 -40.5977 -1178 253 252 217
-83.7544 -40.6282 -1179 253 253 215
-81.4032 -40.6244 -1179 253 253 215
-79.1198 -40.6551 -1180 252 252 214
-76.7679 -40.6516 -1180 252 252 214
-74.4797 -40.6826 -1181 252 252 214
-72.1271 -40.6792 -1181 253 253 215
-69.775 -40.6758 -1181 253 252 216
-67.4234 -40.6727 -1181 253 252 217
-65.0725 -40.6696 -1181 252 252 215
-62.7751 -40.7011 -1182 252 252 214
-60.3721 -40.6639 -1181 252 252 214
-58.0717 -40.6956 -1182 253 252 216
-55.7679 -40.7274 -1183 253 252 218
-53.3702 -40.6905 -1182 253 252 220
-51.0201 -40.6881 -1182 253 252 220
-48.7527 -40.7546 -1184 253 252 217
-46.3994 -40.7523 -1184 253 252 219
-44.0093 -40.7158 -1183 253 252 220
-41.7291 -40.7827 -1185 253 252 217
-39.4081 -40.8152 -1186 252 251 216
-36.9897 -40.7446 -1184 252 252 215
-34.6381 -40.743 -1184 253 253 215
-32.314 -40.7759 -1185 253 253 215
-29.9356 -40.74 -1184 253 252 218
-27.5615 -40.7043 -1183 253 252 218
-25.2341 -40.7375 -1184 253 252 218
-22.9223 -40.8052 -1186 253 252 218
-20.5508 -40.7698 -1185 253 252 218
-18.1987 -40.7689 -1185 253 252 220
-15.8601 -40.8025 -1186 253 252 220
-13.5063 -40.8019 -1186 253 252 220
-11.1527 -40.8013 -1186 253 252 220
-8.79164 -40.7664 -1185 253 252 220
-6.44554 -40.8005 -1186 254 253 221
-4.08861 -40.7659 -1185 253 252 220
-1.73569 -40.7313 -1184 253 252 220
0.614287 -40.7657 -1185 253 252 218
2.96824 -40.8002 -1186 253 252 218
5.31721 -40.766 -1185 253 252 217
7.6752 -40.8007 -1186 253 252 219
10.0372 -40.8355 -1187 253 252 220
12.4033 -40.8704 -1188 253 252 218
14.761 -40.871 -1188 253 252 218
17.1332 -40.9062 -1189 253 252 217
19.4932 -40.907 -1189 252 252 215
21.8533 -40.908 -1189 252 252 214
24.2136 -40.909 -1189 252 252 214
26.5964 -40.9446 -1190 252 252 212
28.9591 -40.9459 -1190 251 251 211
31.3746 -41.0161 -1192 251 251 207
33.77 -41.052 -1193 251 251 206
36.2303 -41.1569 -1196 253 251 203
38.6705 -41.2274 -1198 253 251 204
41.0846 -41.2636 -1199 253 251 205
43.5394 -41.3344 -1201 252 250 204
45.9643 -41.3709 -1202 251 250 202
48.3532 -41.3732 -1202 248 249 199
50.7847 -41.4099 -1203 246 247 197
53.309 -41.5156 -1206 245 245 196
55.7994 -41.5869 -1208 242 240 191
58.3464 -41.6928 -1211 239 236 188
60.8557 -41.7644 -1213 235 232 184
63.4778 -41.905 -1217 228 225 177
66.1163 -42.0457 -1221 222 219 174
68.8834 -42.2555 -1227 215 212 173
71.7332 -42.4998 -1234 207 206 172
75.333 -43.1575 -1253 199 196 165
-218.39 -46.1659 -1256 170 170 147
-213.759 -45.7142 -1244 171 171 146
-210.029 -45.4464 -1237 172 172 144
-206.496 -45.2156 -1231 175 175 141
-202.824 -44.9484 -1224 177 176 142
-199.673 -44.7915 -1220 179 180 144
-196.056 -44.5247 -1213 179 178 143
-192.787 -44.3316 -1208 183 182 147
-189.383 -44.102 -1202 200 198 157
-186.317 -43.9459 -1198 222 220 178
-183.421 -43.8266 -1195 229 227 182
-180.539 -43.7077 -1192 232 230 183
-177.671 -43.5888 -1189 233 231 183
-175.111 -43.5434 -1188 234 232 184
-172.266 -43.4248 -1185 236 234 186
-169.721 -43.3797 -1184 239 237 191
-167.041 -43.2982 -1182 243 241 192
-164.369 -43.2167 -1180 247 245 195
-161.708 -43.1355 -1178 249 247 197
-159.326 -43.1275 -1178 250 248 198
-156.812 -43.0831 -1177 252 250 200
-154.304 -43.0389 -1176 252 250 200
-152.059 -43.0678 -1177 253 251 201
-149.557 -43.0238 -1176 253 251 204
-146.935 -42.9434 -1174 252 250 205
-144.446 -42.8996 -1173 252 251 209
-141.962 -42.856 -1172 253 252 210
-139.602 -42.8491 -1172 253 252 210
-137.126 -42.8057 -1171 253 253 214
-134.771 -42.799 -1171 253 253 216
-132.529 -42.829 -1172 253 252 218
-130.174 -42.8225 -1172 253 252 218
-127.819 -42.8163 -1172 253 252 218
-125.573 -42.8465 -1173 253 252 218
-123.219 -42.8404 -1173 253 252 218
-120.762 -42.798 -1172 253 252 219
-118.513 -42.8286 -1173 252 252 221
-116.162 -42.8228 -1173 252 252 221
-113.811 -42.8172 -1173 252 252 221
-111.557 -42.8481 -1174 252 252 221
-109.206 -42.8428 -1174 252 252 221
-106.856 -42.8374 -1174 253 252 221
-104.507 -42.8323 -1174 253 252 220
-102.246 -42.8636 -1175 253 252 219
-99.8972 -42.8587 -1175 253 252 219
-97.6318 -42.8904 -1176 253 252 219
-95.3633 -42.9221 -1177 253 252 219
-93.0915 -42.954 -1178 253 252 220
-90.7393 -42.9495 -1178 253 252 221
-88.3879 -42.9451 -1178 253 252 218
-85.9643 -42.9044 -1177 253 252 217
-83.6873 -42.9367 -1178 253 253 214
-81.3381 -42.9327 -1178 253 253 214
-79.0564 -42.9651 -1179 252 252 213
-76.7065 -42.9614 -1179 252 252 214
-74.4201 -42.9941 -1180 252 252 214
-72.0694 -42.9906 -1180 253 253 215
-69.6601 -42.9507 -1179 253 253 215
-67.3124 -42.9473 -1179 253 251 215
-64.9654 -42.944 -1179 251 251 213
-62.6718 -42.9774 -1180 251 251 213
-60.3238 -42.9744 -1180 252 252 214
-58.0253 -43.0079 -1181 254 253 217
-55.7234 -43.0416 -1182 253 252 218
-53.3276 -43.0025 -1181 253 252 220
-50.9793 -43 -1181 253 252 219
-48.7138 -43.0704 -1183 252 251 215
-46.3624 -43.0681 -1183 253 252 217
-43.9741 -43.0293 -1182 253 252 219
-41.6959 -43.1001 -1184 252 251 216
-39.3768 -43.1345 -1185 252 251 216
-36.9603 -43.0598 -1183 252 251 215
-34.6104 -43.0581 -1183 253 253 215
-32.2882 -43.0929 -1184 253 253 215
-29.8865 -43.0186 -1182 253 252 218
-27.5395 -43.0172 -1182 253 252 217
-25.214 -43.0523 -1183 253 252 217
-22.9234 -43.1603 -1186 254 252 218
-20.5691 -43.1593 -1186 254 252 218
-18.2149 -43.1583 -1186 253 252 219
-15.8609 -43.1575 -1186 253 252 218
-13.507 -43.1568 -1186 253 252 218
-11.1438 -43.1198 -1185 253 252 219
-8.78464 -43.0829 -1184 253 252 219
-6.43497 -43.0826 -1184 254 253 219
-4.0819 -43.0459 -1183 253 252 219
-1.7343 -43.0458 -1183 253 252 219
0.6138 -43.0821 -1184 253 252 218
2.96338 -43.0822 -1184 253 252 218
5.31297 -43.0824 -1184 253 252 217
7.66909 -43.1191 -1185 253 252 218
10.0292 -43.156 -1186 253 252 219
12.3934 -43.1929 -1187 253 252 218
14.7493 -43.1935 -1187 253 252 217
17.1196 -43.2307 -1188 253 252 216
19.4777 -43.2316 -1188 252 252 214
21.8359 -43.2326 -1188 252 252 214
24.1943 -43.2337 -1188 252 252 211
26.5976 -43.3078 -1190 251 251 210
28.9848 -43.3455 -1191 251 251 209
31.4024 -43.4198 -1193 250 250 205
33.7999 -43.4577 -1194 251 250 205
36.232 -43.5322 -1196 253 251 203
38.6723 -43.6069 -1198 252 251 204
41.1209 -43.6818 -1200 251 250 204
43.5414 -43.7202 -1201 251 249 203
45.9665 -43.7588 -1202 251 249 202
48.3957 -43.7975 -1203 249 247 198
50.8293 -43.8363 -1204 246 245 196
53.2673 -43.8753 -1205 245 243 194
55.7559 -43.9507 -1207 241 238 189
58.301 -44.0628 -1210 237 233 186
60.8586 -44.1749 -1213 233 229 183
63.4809 -44.3236 -1217 227 223 178
66.1736 -44.5089 -1222 220 216 174
69.0551 -44.8035 -1230 211 208 172
72.1435 -45.2078 -1241 201 200 167
76.1182 -46.1222 -1266 197 195 165
-225.545 -49.705 -1282 173 172 156
-218.922 -48.8017 -1259 171 171 148
-214.286 -48.3252 -1247 170 170 145
-209.869 -47.888 -1236 171 171 143
-206.507 -47.6834 -1231 174 174 140
-203 -47.4402 -1225 175 176 141
-199.684 -47.2361 -1220 178 179 143
-196.066 -46.9547 -1213 179 179 143
-192.957 -46.7897 -1209 180 179 144
-189.551 -46.5476 -1203 188 188 148
-186.637 -46.4216 -1200 210 209 168
-183.584 -46.2572 -1196 227 225 181
-180.851 -46.1704 -1194 235 233 186
-177.979 -46.045 -1191 234 232 184
-175.267 -45.9584 -1189 233 231 183
-172.275 -45.7948 -1185 235 233 185
-169.73 -45.7473 -1184 238 236 190
-167.049 -45.6612 -1182 242 240 192
-164.238 -45.5367 -1179 245 243 194
-161.716 -45.4896 -1178 248 246 195
-159.199 -45.4426 -1177 250 248 197
-156.82 -45.4344 -1177 252 250 199
-154.311 -45.3877 -1176 252 250 199
-151.937 -45.3797 -1176 252 250 199
-149.438 -45.3334 -1175 253 251 202
-146.818 -45.2485 -1173 253 251 204
-144.33 -45.2023 -1172 253 251 206
-141.848 -45.1563 -1171 254 252 207
-139.49 -45.149 -1171 254 252 208
-137.016 -45.1033 -1170 253 253 212
-134.662 -45.0962 -1170 253 252 214
-132.31 -45.0893 -1170 253 252 217
-130.069 -45.121 -1171 253 252 217
-127.608 -45.0759 -1170 254 252 217
-125.365 -45.1079 -1171 253 252 217
-123.015 -45.1014 -1171 253 252 217
-120.665 -45.0951 -1171 253 252 218
-118.418 -45.1275 -1172 253 252 219
-116.068 -45.1214 -1172 253 252 219
-113.72 -45.1154 -1172 252 252 220
-111.467 -45.1481 -1173 252 252 220
-109.212 -45.1808 -1174 252 252 219
-106.862 -45.1753 -1174 253 252 219
-104.424 -45.1313 -1173 253 252 219
-102.165 -45.1645 -1174 253 252 218
-99.8173 -45.1592 -1174 253 252 218
-97.5538 -45.1926 -1175 253 252 218
-95.287 -45.2262 -1176 253 252 218
-93.0961 -45.2981 -1178 253 252 218
-90.6669 -45.255 -1177 253 252 219
-88.3174 -45.2504 -1177 253 252 218
-85.8955 -45.2074 -1176 253 252 216
-83.5494 -45.2031 -1176 252 252 212
-81.204 -45.1989 -1176 252 252 212
-78.8593 -45.1948 -1176 252 252 212
-76.5802 -45.2291 -1177 252 252 213
-74.2977 -45.2636 -1178 252 252 214
-71.9508 -45.2599 -1178 252 252 214
-69.6045 -45.2563 -1178 253 252 214
-67.2588 -45.2528 -1178 254 251 214
-64.9135 -45.2493 -1178 253 252 214
-62.6219 -45.2844 -1179 252 252 214
-60.3268 -45.3197 -1180 253 253 214
-57.9791 -45.3166 -1180 253 253 217
-55.7261 -45.3905 -1182 253 252 218
-53.3754 -45.3878 -1182 253 252 220
-51.025 -45.3851 -1182 253 252 219
-48.7163 -45.4209 -1183 252 252 214
-46.3647 -45.4185 -1183 253 252 216
-43.9763 -45.3778 -1182 254 253 219
-41.6627 -45.414 -1183 252 251 216
-39.3123 -45.4118 -1183 253 252 216
-36.9309 -45.3714 -1182 252 251 216
-34.583 -45.3696 -1182 253 252 215
-32.2354 -45.3679 -1182 253 253 215
-29.8879 -45.3663 -1182 253 252 217
-27.5408 -45.3648 -1182 253 252 216
-25.2152 -45.4019 -1183 253 253 215
-22.9052 -45.4774 -1185 254 252 216
-20.5528 -45.4763 -1185 255 252 217
-18.2005 -45.4753 -1185 253 252 218
-15.8483 -45.4744 -1185 253 252 218
-13.4963 -45.4737 -1185 253 252 217
-11.1255 -45.3963 -1183 253 252 218
-8.77765 -45.3958 -1183 253 252 218
-6.42985 -45.3954 -1183 253 252 217
-4.08211 -45.3951 -1183 253 252 218
-1.73586 -45.4333 -1184 254 253 219
0.613833 -45.4333 -1184 253 252 217
2.96352 -45.4334 -1184 253 252 216
5.31324 -45.4336 -1184 253 252 216
7.663 -45.434 -1184 253 252 217
10.0213 -45.4728 -1185 252 251 217
12.3836 -45.5117 -1186 253 252 217
14.7376 -45.5124 -1186 253 252 216
17.0917 -45.5133 -1186 253 253 215
19.4623 -45.5526 -1187 252 252 214
21.8186 -45.5536 -1187 252 252 213
24.1752 -45.5548 -1187 251 251 209
26.5766 -45.6329 -1189 251 251 209
28.9619 -45.6727 -1190 251 251 208
31.3513 -45.7126 -1191 251 251 205
33.7733 -45.791 -1193 252 251 205
36.2035 -45.8696 -1195 253 251 203
38.6097 -45.9099 -1196 251 251 204
41.0544 -45.9887 -1198 249 249 203
43.5075 -46.0678 -1200 251 249 203
45.9305 -46.1085 -1201 250 248 201
48.3981 -46.1877 -1203 247 245 196
50.8318 -46.2287 -1204 244 242 193
53.3142 -46.3081 -1206 243 241 192
55.8048 -46.3877 -1208 239 236 187
58.3521 -46.5058 -1211 234 230 184
60.962 -46.6625 -1215 229 225 181
63.5884 -46.8193 -1219 221 217 175
66.2852 -47.0147 -1224 213 209 170
69.3393 -47.4407 -1235 206 203 170
72.5542 -47.9439 -1248 197 196 164
-219.108 -51.3686 -1260 171 171 147
-214.125 -50.7859 -1246 170 170 144
-210.39 -50.489 -1239 172 172 143
-206.685 -50.1922 -1232 173 174 140
-203.011 -49.8958 -1225 174 175 140
-199.858 -49.7217 -1221 177 178 142
-196.238 -49.4259 -1214 177 178 143
-192.967 -49.2115 -1209 177 178 143
-189.718 -48.9976 -1204 182 182 143
-186.803 -48.8651 -1201 195 195 155
-183.901 -48.7329 -1198 215 214 170
-181.164 -48.6415 -1196 229 228 182
-178.287 -48.5096 -1193 234 232 185
-175.277 -48.3373 -1189 234 232 184
-172.429 -48.2058 -1186 234 232 185
-169.739 -48.1151 -1184 236 234 188
-166.917 -47.984 -1181 238 236 188
-164.247 -47.8936 -1179 242 240 191
-161.587 -47.8035 -1177 245 244 191
-159.207 -47.7947 -1177 248 246 194
-156.695 -47.7455 -1176 250 248 197
-154.057 -47.6558 -1174 251 249 198
-151.687 -47.6474 -1174 252 250 199
-149.191 -47.5985 -1173 252 250 200
-146.7 -47.5499 -1172 253 251 202
-144.215 -47.5014 -1171 253 251 206
-141.855 -47.4937 -1171 253 251 206
-139.378 -47.4453 -1170 253 251 206
-137.023 -47.4378 -1170 251 251 208
-134.669 -47.4304 -1170 252 252 212
-132.204 -47.3825 -1169 253 252 215
-129.854 -47.3754 -1169 254 252 215
-127.505 -47.3685 -1169 255 253 216
-125.158 -47.3616 -1169 254 253 216
-122.916 -47.3953 -1170 253 252 217
-120.569 -47.3887 -1170 253 252 217
-118.323 -47.4226 -1171 253 252 217
-115.877 -47.3758 -1170 253 252 218
-113.532 -47.3696 -1170 253 252 218
-111.283 -47.4039 -1171 253 252 218
-109.031 -47.4384 -1172 253 252 217
-106.685 -47.4325 -1172 253 252 217
-104.34 -47.4269 -1172 253 252 217
-102.083 -47.4616 -1173 253 252 217
-99.7375 -47.4562 -1173 253 252 217
-97.4759 -47.4912 -1174 253 252 217
-95.13 -47.4861 -1174 253 252 218
-93.022 -47.6024 -1177 253 252 218
-90.5946 -47.5568 -1176 253 252 218
-88.247 -47.552 -1176 253 252 216
-85.827 -47.5069 -1175 252 252 215
-83.4828 -47.5022 -1175 252 252 212
-81.1393 -47.4978 -1175 252 252 212
-78.8634 -47.5339 -1176 252 252 212
-76.5842 -47.5702 -1177 252 252 212
-74.3647 -47.6468 -1179 252 252 213
-71.9546 -47.6025 -1178 254 251 212
-69.6673 -47.639 -1179 254 251 213
-67.2623 -47.595 -1178 254 251 213
-64.9169 -47.5914 -1178 254 251 212
-62.6252 -47.6284 -1179 254 251 213
-60.33 -47.6653 -1180 253 253 214
-58.0313 -47.7025 -1181 254 254 216
-55.682 -47.6995 -1181 253 252 218
-53.3782 -47.7369 -1182 253 252 218
-50.9414 -47.6533 -1180 252 251 217
-48.6365 -47.6911 -1181 252 252 213
-46.2887 -47.6885 -1181 253 252 216
-43.9414 -47.6861 -1181 253 252 217
-41.5945 -47.6838 -1181 253 253 215
-39.2811 -47.722 -1182 254 253 216
-36.9015 -47.6794 -1181 253 253 215
-34.5555 -47.6775 -1181 253 253 214
-32.2098 -47.6757 -1181 253 253 213
-29.839 -47.6336 -1180 253 253 215
-27.4957 -47.6321 -1180 253 253 215
-25.1953 -47.7114 -1182 253 253 215
-22.8871 -47.7908 -1184 254 252 215
-20.5191 -47.7493 -1183 255 252 215
-18.186 -47.7886 -1184 253 252 217
-15.8357 -47.7877 -1184 253 252 217
-13.4742 -47.7466 -1183 253 253 216
-11.1073 -47.6652 -1181 253 252 217
-8.76327 -47.6647 -1181 252 251 216
-6.41932 -47.6642 -1181 252 251 216
-4.07542 -47.664 -1181 253 252 217
-1.73155 -47.6638 -1181 253 252 217
0.61283 -47.7041 -1182 253 253 215
2.95617 -47.6639 -1181 254 254 216
5.30455 -47.7045 -1182 253 253 216
7.65046 -47.7048 -1182 252 252 216
10.0134 -47.786 -1184 252 251 216
12.3634 -47.7866 -1184 252 251 216
14.7259 -47.8277 -1185 253 252 216
17.0926 -47.8689 -1186 252 252 214
19.4633 -47.9103 -1187 252 252 213
21.8198 -47.9114 -1187 252 252 212
24.1968 -47.953 -1188 251 251 209
26.6004 -48.0351 -1190 251 251 208
28.9391 -47.9963 -1189 251 251 207
31.353 -48.0786 -1191 253 252 206
33.7185 -48.0804 -1191 253 252 205
36.1448 -48.1631 -1193 253 251 203
38.5471 -48.2055 -1194 251 250 204
41.0223 -48.3288 -1197 249 249 203
43.4373 -48.3715 -1198 252 250 204
45.9329 -48.495 -1201 251 249 201
48.3604 -48.5379 -1202 247 245 196
50.8345 -48.6214 -1204 243 241 192
53.317 -48.7049 -1206 240 238 189
55.8078 -48.7886 -1208 237 232 185
58.307 -48.8725 -1210 230 225 180
60.9151 -49.0373 -1214 225 221 178
63.6439 -49.283 -1220 216 212 173
66.4511 -49.5694 -1227 208 204 168
69.5675 -50.0579 -1239 203 199 168
73.2557 -50.9102 -1260 198 196 166
-220.338 -54.1964 -1267 170 170 146
-214.825 -53.4567 -1250 171 171 145
-210.912 -53.1023 -1242 171 171 141
-207.368 -52.8337 -1236 171 171 139
-203.685 -52.5227 -1229 174 174 142
-200.524 -52.34 -1225 175 176 140
-196.734 -51.9867 -1217 178 179 143
-193.457 -51.7619 -1212 177 178 143
-189.887 -51.4519 -1205 179 179 141
-186.969 -51.3129 -1202 186 186 147
-183.757 -51.0889 -1197 202 202 158
-181.174 -51.0357 -1196 219 218 173
-178.148 -50.8546 -1192 230 228 182
-175.287 -50.7164 -1189 234 232 184
-172.439 -50.5785 -1186 234 232 184
-169.748 -50.4833 -1184 234 232 186
-166.926 -50.3457 -1181 236 234 186
-164.256 -50.2509 -1179 240 238 189
-161.871 -50.2417 -1179 244 243 188
-159.351 -50.1898 -1178 246 244 191
-156.837 -50.138 -1177 249 247 196
-154.197 -50.044 -1175 251 249 198
-151.696 -49.9926 -1174 250 248 198
-149.199 -49.9414 -1173 251 249 198
-146.583 -49.8477 -1171 252 250 202
-143.976 -49.7543 -1169 253 251 204
-141.742 -49.7887 -1170 253 251 204
-139.386 -49.7807 -1170 253 251 204
-137.031 -49.7728 -1170 252 251 206
-134.677 -49.765 -1170 253 252 209
-132.211 -49.7147 -1169 253 252 213
-129.639 -49.6222 -1167 255 252 213
-127.403 -49.6575 -1168 255 252 214
-125.058 -49.6502 -1168 253 253 214
-122.713 -49.6431 -1168 253 253 215
-120.369 -49.6362 -1168 253 253 215
-118.128 -49.6718 -1169 253 252 216
-115.685 -49.6226 -1168 253 252 216
-113.344 -49.6162 -1168 253 252 218
-111.194 -49.6947 -1170 253 252 217
-109.037 -49.7733 -1172 253 252 216
-106.691 -49.7672 -1172 253 252 216
-104.257 -49.7186 -1171 253 252 216
-102.089 -49.7978 -1173 253 252 216
-99.658 -49.7495 -1172 253 252 217
-97.3982 -49.7864 -1173 253 252 217
-95.0543 -49.7808 -1173 253 252 216
-92.9481 -49.9028 -1176 253 252 216
-90.5226 -49.8552 -1175 253 252 216
-88.1768 -49.8501 -1175 252 252 214
-85.8318 -49.8451 -1175 252 252 213
-83.4874 -49.8404 -1175 252 252 211
-81.1438 -49.8356 -1175 252 252 211
-78.8678 -49.8735 -1176 252 252 211
-76.5885 -49.9115 -1177 253 252 212
-74.3058 -49.9497 -1178 253 252 212
-71.9586 -49.9454 -1178 254 251 212
-69.612 -49.9414 -1178 254 251 212
-67.2661 -49.9375 -1178 254 251 212
-64.9205 -49.9338 -1178 254 251 212
-62.5755 -49.9302 -1178 254 251 212
-60.2311 -49.9267 -1178 253 253 213
-57.9362 -49.9656 -1179 253 253 215
-55.6379 -50.0048 -1180 253 252 217
-53.336 -50.0441 -1181 253 252 218
-50.9442 -49.9988 -1180 252 251 216
-48.6392 -50.0383 -1181 252 252 212
-46.2521 -49.9933 -1180 253 252 214
-43.9066 -49.9908 -1180 253 252 216
-41.5616 -49.9883 -1180 253 253 214
-39.2833 -50.0708 -1182 253 253 214
-36.8723 -49.9839 -1180 253 253 214
-34.5282 -49.9819 -1180 253 253 213
-32.1843 -49.98 -1180 253 253 212
-29.8406 -49.9781 -1180 253 253 215
-27.4972 -49.9765 -1180 253 253 215
-25.154 -49.975 -1180 253 253 215
-22.869 -50.1007 -1183 254 252 214
-20.5029 -50.0571 -1182 255 252 214
-18.1717 -50.0984 -1183 253 253 215
-15.8232 -50.0974 -1183 253 253 215
-13.4635 -50.0543 -1182 254 252 214
-11.1079 -50.0112 -1181 254 252 215
-8.76375 -50.0107 -1181 254 252 215
-6.41423 -49.9679 -1180 253 252 217
-4.07219 -49.9676 -1180 253 252 216
-1.73017 -49.9674 -1180 252 251 215
0.61183 -49.9674 -1180 253 253 214
2.95133 -49.9252 -1179 253 253 214
5.29587 -49.9677 -1180 253 253 214
7.64442 -50.0105 -1181 253 252 215
9.99699 -50.0533 -1182 252 251 215
12.3536 -50.0963 -1183 252 251 215
14.7143 -50.1394 -1184 253 252 215
17.0791 -50.1827 -1185 252 252 213
19.448 -50.226 -1186 252 252 211
21.821 -50.2695 -1187 252 252 211
24.1982 -50.3132 -1188 251 251 209
26.6019 -50.3994 -1190 251 251 208
28.965 -50.4009 -1190 252 251 207
31.3547 -50.445 -1191 254 252 205
33.7203 -50.447 -1191 253 251 204
36.1468 -50.5337 -1193 253 251 202
38.517 -50.5358 -1193 252 251 204
40.9561 -50.6228 -1195 251 250 204
43.4034 -50.7099 -1197 253 251 205
45.859 -50.7971 -1199 250 248 201
48.3229 -50.8845 -1201 247 245 196
50.7951 -50.9721 -1203 244 242 193
53.2757 -51.0598 -1205 240 237 188
55.8109 -51.19 -1208 236 230 184
58.3104 -51.2779 -1210 230 225 182
60.9687 -51.4932 -1215 224 220 178
63.6474 -51.7088 -1220 214 211 174
66.6714 -52.1787 -1231 207 203 169
69.9646 -52.8184 -1246 202 197 169
74.597 -54.391 -1283 199 195 168
-220.525 -56.7841 -1268 172 172 148
-215.353 -56.0992 -1253 172 172 146
-211.094 -55.6386 -1243 170 170 140
-207.548 -55.3574 -1237 169 169 137
-204.36 -55.1658 -1233 173 173 141
-200.863 -54.8852 -1227 174 175 140
-197.069 -54.5153 -1219 177 178 144
-193.628 -54.2353 -1213 177 178 145
-190.371 -54.0001 -1208 178 179 142
-187.291 -53.8099 -1204 180 181 143
-184.075 -53.5753 -1199 194 194 150
-181.336 -53.475 -1197 208 208 163
-178.308 -53.2854 -1193 221 221 175
-175.297 -53.0961 -1189 232 230 182
-172.304 -52.907 -1185 233 231 183
-169.615 -52.8074 -1183 233 231 183
-166.794 -52.6634 -1180 235 233 185
-164.266 -52.6088 -1179 239 237 188
-161.743 -52.5543 -1178 242 241 186
-159.225 -52.5001 -1177 244 243 189
-156.846 -52.4905 -1177 247 245 194
-154.206 -52.3921 -1175 250 248 198
-151.705 -52.3382 -1174 251 249 200
-149.081 -52.2401 -1172 251 249 200
-146.592 -52.1866 -1171 251 249 201
-143.862 -52.0442 -1168 252 250 202
-141.629 -52.0801 -1169 252 250 201
-139.156 -52.0272 -1168 253 251 202
-136.805 -52.0189 -1168 253 251 203
-134.455 -52.0108 -1168 254 252 207
-132.106 -52.0029 -1168 254 251 210
-129.647 -51.9505 -1167 255 252 211
-127.411 -51.9873 -1168 255 252 211
-124.958 -51.9353 -1167 253 253 213
-122.615 -51.9278 -1167 253 253 213
-120.17 -51.8761 -1166 253 253 213
-117.933 -51.9134 -1167 253 253 215
-115.494 -51.8619 -1166 253 253 215
-113.254 -51.8996 -1167 253 252 217
-111.106 -51.9818 -1169 253 253 216
-108.858 -52.0197 -1170 253 253 215
-106.606 -52.0578 -1171 253 253 215
-104.263 -52.0514 -1171 253 253 215
-102.095 -52.1343 -1173 253 253 215
-99.7488 -52.1282 -1173 253 252 216
-97.3209 -52.0778 -1172 253 252 217
-94.9788 -52.0721 -1172 253 253 215
-92.7955 -52.1554 -1174 253 253 215
-90.3738 -52.1054 -1173 253 252 215
-88.1069 -52.1446 -1174 252 252 213
-85.7637 -52.1393 -1174 252 252 212
-83.4923 -52.1787 -1175 252 252 210
-81.1485 -52.1739 -1175 252 252 210
-78.8724 -52.2134 -1176 252 252 210
-76.5929 -52.2532 -1177 253 251 212
-74.247 -52.2488 -1177 254 251 212
-71.9628 -52.2888 -1178 254 251 212
-69.6161 -52.2845 -1178 254 251 212
-67.2128 -52.2361 -1177 254 251 212
-64.8692 -52.2322 -1177 254 251 212
-62.5792 -52.2728 -1178 254 251 212
-60.2857 -52.3135 -1179 253 253 213
-57.9888 -52.3544 -1180 253 253 215
-55.6883 -52.3953 -1181 253 252 217
-53.3843 -52.4364 -1182 253 252 218
-50.9472 -52.3446 -1180 252 251 216
-48.6008 -52.3417 -1180 252 252 210
-46.1765 -52.2502 -1178 253 253 213
-43.8721 -52.2919 -1179 253 253 215
-41.4935 -52.245 -1178 253 253 213
-39.2191 -52.3313 -1180 253 253 213
-36.8745 -52.3291 -1180 253 253 213
-34.5009 -52.2826 -1179 253 253 212
-32.1316 -52.2363 -1178 253 253 211
-29.8171 -52.2788 -1179 253 253 215
-27.4755 -52.2771 -1179 253 253 215
-25.1341 -52.2755 -1179 253 253 215
-22.8317 -52.3627 -1181 254 251 213
-20.4868 -52.3614 -1181 255 252 213
-18.142 -52.3602 -1181 253 253 213
-15.784 -52.3149 -1180 254 253 213
-13.4415 -52.314 -1180 255 252 213
-11.0991 -52.3133 -1180 255 252 213
-8.75684 -52.3127 -1180 255 252 213
-6.40373 -52.2236 -1178 253 252 217
-4.06552 -52.2233 -1178 253 252 216
-1.72734 -52.2231 -1178 253 253 215
0.611349 -52.2674 -1179 252 252 212
2.95151 -52.2676 -1179 253 253 212
5.29618 -52.3121 -1180 252 252 212
7.64486 -52.3568 -1181 252 252 213
9.99757 -52.4017 -1182 252 252 214
12.3439 -52.4024 -1182 252 252 214
14.7027 -52.4475 -1183 252 252 213
17.0513 -52.4485 -1183 252 252 212
19.4327 -52.5382 -1185 252 252 210
21.8039 -52.5838 -1186 252 252 209
24.1588 -52.5853 -1186 251 251 209
26.5587 -52.6753 -1188 252 251 208
28.918 -52.6771 -1188 253 251 207
31.3039 -52.7232 -1189 253 251 203
33.694 -52.7695 -1190 253 251 202
36.1186 -52.8603 -1192 252 250 199
38.5194 -52.9068 -1193 251 249 201
40.9585 -52.9979 -1195 250 248 202
43.4059 -53.0891 -1197 250 248 202
45.8616 -53.1804 -1199 247 245 197
48.3257 -53.2719 -1201 242 240 191
50.798 -53.3636 -1203 240 238 189
53.2788 -53.4554 -1205 236 233 185
55.8142 -53.5917 -1208 232 226 181
58.3619 -53.7283 -1211 227 222 181
61.0224 -53.9537 -1216 219 215 176
63.8597 -54.3123 -1224 210 207 172
66.7836 -54.7156 -1233 203 199 168
70.5863 -55.7847 -1257 200 195 169
-221.93 -59.7037 -1276 174 174 150
-216.398 -58.8945 -1259 174 174 147
-212.296 -58.46 -1250 171 171 141
-208.736 -58.1661 -1244 170 170 138
-205.036 -57.8257 -1237 171 171 139
-201.694 -57.5791 -1232 173 173 141
-198.051 -57.2394 -1225 176 176 144
-194.757 -56.9934 -1220 178 178 146
-190.855 -56.5608 -1211 179 180 145
-187.769 -56.3621 -1207 178 179 142
-184.394 -56.0702 -1201 189 189 145
-181.499 -55.9185 -1198 202 202 157
-178.319 -55.6739 -1193 213 213 167
-175.603 -55.5695 -1191 226 224 176
-172.46 -55.3251 -1186 231 229 181
-169.912 -55.2677 -1185 233 231 183
-167.229 -55.1639 -1183 235 233 184
-164.555 -55.0602 -1181 238 236 187
-161.89 -54.9567 -1179 241 240 185
-159.371 -54.9 -1178 244 242 189
-156.856 -54.8434 -1177 246 244 194
-154.216 -54.7405 -1175 248 246 198
-151.585 -54.6377 -1173 251 249 201
-148.963 -54.5351 -1171 252 250 202
-146.476 -54.4793 -1170 252 250 201
-143.87 -54.377 -1168 252 250 201
-141.396 -54.3216 -1167 253 251 201
-139.045 -54.3128 -1167 253 251 201
-136.93 -54.3971 -1169 253 251 203
-134.578 -54.3887 -1169 253 251 205
-132.114 -54.3338 -1168 254 252 209
-129.766 -54.3256 -1168 254 252 209
-127.528 -54.3641 -1169 255 253 210
-124.966 -54.2632 -1167 253 253 211
-122.623 -54.2555 -1167 252 252 212
-120.178 -54.2014 -1166 253 253 213
-117.738 -54.1474 -1165 253 253 214
-115.303 -54.0936 -1164 253 253 214
-113.067 -54.1329 -1165 253 252 216
-110.922 -54.219 -1167 253 253 215
-108.771 -54.305 -1169 253 253 214
-106.522 -54.3447 -1170 253 253 214
-104.18 -54.3382 -1170 253 253 214
-102.014 -54.4246 -1172 253 253 214
-99.6699 -54.4184 -1172 253 252 215
-97.2438 -54.3657 -1171 253 252 216
-94.9845 -54.4062 -1172 253 253 215
-92.7221 -54.4467 -1173 252 252 214
-90.3793 -54.4411 -1173 252 252 214
-88.1123 -54.4819 -1174 252 252 212
-85.769 -54.4765 -1174 252 252 211
-83.4974 -54.5175 -1175 252 252 210
-81.1534 -54.5125 -1175 252 252 210
-78.8101 -54.5075 -1175 252 252 210
-76.5326 -54.549 -1176 254 251 211
-74.1885 -54.5443 -1176 254 251 211
-71.9061 -54.5862 -1177 254 251 211
-69.5612 -54.5819 -1177 254 251 211
-67.2169 -54.5775 -1177 254 251 211
-64.8731 -54.5734 -1177 254 251 212
-62.583 -54.6158 -1178 254 251 212
-60.2382 -54.612 -1178 253 253 213
-57.9432 -54.6548 -1179 253 252 214
-55.6445 -54.6976 -1180 253 252 216
-53.2972 -54.6942 -1180 254 252 218
-50.9503 -54.6909 -1180 253 251 216
-48.5625 -54.6415 -1179 253 252 210
-46.14 -54.5458 -1177 253 251 212
-43.8375 -54.5894 -1178 253 251 214
-41.5313 -54.6331 -1179 254 252 213
-39.2214 -54.677 -1180 254 252 213
-36.8767 -54.6746 -1180 253 252 212
-34.5323 -54.6724 -1180 253 252 211
-32.1608 -54.624 -1179 253 252 210
-29.8189 -54.6221 -1179 253 251 213
-27.4772 -54.6203 -1179 253 251 213
-25.1357 -54.6187 -1179 253 251 213
-22.7944 -54.6171 -1179 254 251 211
-20.4533 -54.6157 -1179 254 251 211
-18.1124 -54.6146 -1179 253 253 213
-15.7716 -54.6135 -1179 254 253 212
-13.4196 -54.5663 -1178 255 252 212
-11.0904 -54.6118 -1179 255 252 213
-8.74994 -54.6112 -1179 255 252 213
-6.39868 -54.5181 -1177 253 252 216
-4.06576 -54.5641 -1178 252 252 214
-1.72597 -54.5176 -1177 253 253 215
0.610871 -54.5639 -1178 254 253 212
2.94919 -54.564 -1178 253 251 210
5.2965 -54.6569 -1180 252 252 210
7.63885 -54.6573 -1180 253 252 213
9.99818 -54.7505 -1182 253 251 214
12.3342 -54.7049 -1181 254 251 213
14.7036 -54.7984 -1183 254 252 213
17.0523 -54.7995 -1183 253 252 212
19.4339 -54.8931 -1185 253 251 208
21.7868 -54.8944 -1185 252 251 208
24.1603 -54.9422 -1186 251 251 208
26.5379 -54.9902 -1187 252 251 207
28.9198 -55.0383 -1188 253 251 207
31.3058 -55.0865 -1189 252 250 202
33.696 -55.1348 -1190 252 250 200
36.1208 -55.2295 -1192 251 249 198
38.5217 -55.2783 -1193 251 249 202
40.9267 -55.3271 -1194 249 247 201
43.3723 -55.4223 -1196 250 246 201
45.8644 -55.5641 -1199 246 243 196
48.2884 -55.6134 -1200 240 238 189
50.8011 -55.7555 -1203 238 236 187
53.282 -55.8516 -1205 233 231 183
55.8638 -56.0403 -1209 228 224 179
58.4618 -56.2293 -1213 221 217 176
61.1766 -56.5111 -1219 213 209 170
63.968 -56.8395 -1226 206 202 168
67.4378 -57.7245 -1245 201 197 167
71.4891 -59.0271 -1273 198 192 169
-221.944 -62.2657 -1276 178 178 154
-216.756 -61.5193 -1261 174 174 148
-212.819 -61.1148 -1253 172 172 144
-209.253 -60.8083 -1247 172 172 140
-205.712 -60.502 -1241 172 172 140
-202.362 -60.2448 -1236 172 172 140
-198.711 -59.8905 -1229 174 174 142
-195.249 -59.5852 -1223 176 176 144
-191.498 -59.1827 -1215 177 178 144
-188.248 -58.9266 -1210 176 177 140
-184.866 -58.6222 -1204 181 181 139
-181.662 -58.3668 -1199 193 193 149
-178.48 -58.1115 -1194 206 206 160
-175.761 -58.0025 -1192 219 217 169
-172.616 -57.7478 -1187 225 223 175
-169.78 -57.5907 -1184 229 227 179
-167.24 -57.5309 -1183 232 230 181
-164.565 -57.4227 -1181 235 233 184
-162.038 -57.3634 -1180 239 237 184
-159.381 -57.2557 -1178 242 241 189
-156.999 -57.2453 -1178 244 242 193
-154.226 -57.0894 -1175 246 244 196
-151.724 -57.0308 -1174 249 247 199
-148.973 -56.8752 -1171 251 249 202
-146.485 -56.817 -1170 251 249 201
-143.757 -56.6618 -1167 252 250 200
-141.526 -56.7009 -1168 252 250 199
-139.054 -56.6433 -1167 253 251 199
-136.822 -56.6829 -1168 253 251 202
-134.471 -56.6739 -1168 253 251 204
-132.122 -56.6652 -1168 253 251 207
-129.774 -56.6567 -1168 254 252 208
-127.536 -56.6968 -1169 254 252 208
-125.081 -56.6401 -1168 252 252 210
-122.525 -56.535 -1166 252 252 211
-120.082 -56.4786 -1165 253 253 212
-117.745 -56.4709 -1165 253 253 213
-115.31 -56.4148 -1164 253 253 213
-113.074 -56.4558 -1165 253 253 215
-110.93 -56.5454 -1167 253 253 214
-108.778 -56.6352 -1169 253 253 213
-106.438 -56.6282 -1169 253 253 213
-104.098 -56.6213 -1169 253 253 213
-101.933 -56.7115 -1171 253 253 213
-99.5912 -56.7049 -1171 253 253 214
-97.25 -56.6986 -1171 253 253 215
-94.9906 -56.7407 -1172 253 253 214
-92.728 -56.7831 -1173 252 252 214
-90.385 -56.777 -1173 252 252 214
-88.1179 -56.8197 -1174 252 252 211
-85.7744 -56.814 -1174 252 252 210
-83.5027 -56.8569 -1175 252 252 210
-81.2277 -56.8999 -1176 252 252 210
-78.9493 -56.9431 -1177 252 252 210
-76.6025 -56.9381 -1177 254 251 210
-74.2563 -56.9333 -1177 254 251 210
-71.9717 -56.9768 -1178 254 251 210
-69.6248 -56.9722 -1178 254 251 210
-67.2212 -56.9194 -1177 254 251 210
-64.8773 -56.9152 -1177 254 251 211
-62.587 -56.9593 -1178 254 251 212
-60.2421 -56.9553 -1178 252 252 212
-57.9468 -56.9999 -1179 252 252 213
-55.648 -57.0446 -1180 252 252 214
-53.2553 -56.9927 -1179 255 252 217
-50.8671 -56.941 -1178 255 252 216
-48.4833 -56.8895 -1177 254 251 210
-46.1037 -56.838 -1176 253 250 211
-43.803 -56.8834 -1177 254 251 213
-41.4987 -56.929 -1178 254 251 212
-39.1907 -56.9747 -1179 254 251 212
-36.8165 -56.9239 -1178 254 251 212
-34.4759 -56.9217 -1178 254 251 211
-32.1083 -56.8712 -1177 254 251 210
-29.7702 -56.8692 -1177 254 251 212
-27.4323 -56.8674 -1177 254 251 212
-25.0947 -56.8657 -1177 254 251 212
-22.7765 -56.9124 -1178 254 251 210
-20.4546 -56.9594 -1179 254 252 209
-18.1135 -56.9581 -1179 253 253 212
-15.7592 -56.9087 -1178 254 253 212
-13.4204 -56.9076 -1178 255 252 211
-11.0817 -56.907 -1178 255 252 212
-8.74307 -56.9062 -1178 255 252 213
-6.39365 -56.8091 -1176 254 254 215
-4.06256 -56.8571 -1177 253 252 214
-1.72608 -56.8569 -1177 253 252 214
0.610394 -56.8569 -1177 254 251 210
2.94687 -56.857 -1177 253 250 209
5.29235 -56.9539 -1179 251 251 209
7.62639 -56.906 -1178 253 251 212
9.9819 -57.0032 -1180 254 251 213
12.3245 -57.0039 -1180 254 251 212
14.6797 -57.0532 -1181 254 251 212
17.0245 -57.0542 -1181 254 251 211
19.4023 -57.152 -1183 253 251 208
21.7514 -57.1534 -1183 252 250 206
24.1415 -57.2515 -1185 251 251 206
26.4949 -57.2531 -1185 252 251 206
28.8972 -57.3515 -1187 252 250 206
31.2814 -57.4018 -1188 252 250 201
33.7265 -57.5489 -1191 251 249 200
36.1535 -57.6478 -1193 251 249 198
38.5564 -57.6985 -1194 250 248 201
40.9979 -57.7977 -1196 248 246 200
43.4113 -57.8488 -1197 248 244 199
45.8673 -57.9483 -1199 244 241 194
48.2914 -57.9997 -1200 240 238 189
50.8043 -58.1479 -1203 236 234 185
53.3297 -58.2964 -1206 231 228 180
55.8673 -58.4449 -1209 225 221 176
58.4655 -58.642 -1213 217 212 172
61.2307 -58.9843 -1220 208 203 165
64.1285 -59.4234 -1229 202 197 166
