ply
format ascii 1.0
comment Created by Open3D
element vertex 1375
property double x
property double y
property double z
property uchar red
property uchar green
property uchar blue
end_header
-93.3752 -127.489 -634 255 235 213
-92.073 -127.464 -634 255 238 212
-90.9148 -127.64 -635 255 239 213
-89.6121 -127.615 -635 255 238 212
-88.3102 -127.59 -635 255 237 214
-87.1461 -127.767 -636 255 235 211
-85.7086 -127.543 -635 255 234 209
-84.5418 -127.72 -636 255 231 207
-83.1099 -127.496 -635 255 230 206
-81.8116 -127.473 -635 255 231 207
-80.5139 -127.451 -635 255 233 209
-79.3418 -127.63 -636 255 235 211
-77.9207 -127.408 -635 255 239 214
-76.6251 -127.387 -635 255 239 214
-75.4487 -127.566 -636 255 233 210
-74.2689 -127.746 -637 255 230 205
-72.9711 -127.726 -637 255 229 203
-71.6739 -127.706 -637 255 230 204
-70.3773 -127.687 -637 255 230 205
-69.0812 -127.668 -637 255 229 205
-67.7858 -127.649 -637 255 227 204
-66.5953 -127.831 -638 252 222 199
-65.5036 -128.214 -640 252 220 197
-64.5047 -128.797 -643 253 219 197
-63.3959 -129.18 -645 254 218 196
-62.2794 -129.564 -647 249 221 196
-61.438 -130.548 -652 245 215 190
-60.3925 -131.132 -655 244 211 186
-59.2451 -131.516 -657 241 205 180
-58.0901 -131.9 -659 231 194 168
-56.9275 -132.285 -661 228 189 163
-55.505 -132.069 -660 249 211 188
-54.251 -132.254 -661 255 221 199
-52.8335 -132.04 -660 255 223 201
-51.6545 -132.426 -662 254 219 197
-50.2398 -132.212 -661 251 217 191
-48.8295 -131.998 -660 245 213 187
-47.3518 -131.585 -658 237 207 180
-45.8125 -130.973 -655 211 184 169
-43.8783 -129.161 -646 166 141 126
-129.22 -136.824 -670 166 168 176
-126.869 -135.767 -665 179 178 184
-125.294 -135.527 -664 225 203 190
-123.351 -134.88 -661 242 216 198
-121.606 -134.438 -659 246 216 193
-119.871 -133.996 -657 243 213 190
-118.325 -133.758 -656 243 213 190
-116.428 -133.114 -653 246 215 194
-114.897 -132.878 -652 247 217 197
-113.196 -132.438 -650 246 216 197
-111.333 -131.796 -647 244 214 195
-109.654 -131.357 -645 244 213 193
-108.151 -131.123 -644 246 214 193
-106.819 -131.093 -644 247 214 193
-105.161 -130.657 -642 247 214 194
-103.997 -130.831 -643 248 216 198
-102.351 -130.395 -641 250 217 197
-100.871 -130.163 -640 252 218 196
-99.0858 -129.525 -637 255 219 197
-97.7739 -129.498 -637 255 228 206
-96.0084 -128.861 -634 255 237 214
-94.7043 -128.835 -634 255 237 214
-93.2537 -128.605 -633 255 236 214
-91.9532 -128.579 -633 255 237 210
-90.6535 -128.554 -633 255 238 211
-89.4957 -128.732 -634 255 238 211
-88.1955 -128.707 -634 255 236 212
-87.0331 -128.886 -635 255 236 212
-85.5973 -128.659 -634 255 234 209
-84.2992 -128.636 -634 255 232 208
-83.0019 -128.612 -634 255 228 204
-81.7053 -128.589 -634 255 228 204
-80.4093 -128.567 -634 255 230 206
-79.114 -128.545 -634 255 233 209
-77.8195 -128.523 -634 255 239 214
-76.5255 -128.502 -634 255 238 213
-75.4695 -128.886 -636 255 232 210
-74.1727 -128.865 -636 255 229 205
-72.9912 -129.047 -637 255 230 205
-71.6936 -129.027 -637 255 229 203
-70.3966 -129.008 -637 255 229 205
-68.9918 -128.786 -636 255 228 206
-67.698 -128.767 -636 255 226 203
-66.5092 -128.951 -637 253 222 199
-65.4192 -129.338 -639 251 219 196
-64.4221 -129.927 -642 251 218 195
-63.4132 -130.516 -645 253 217 195
-62.3928 -131.106 -648 247 215 192
-61.4549 -131.898 -652 243 211 187
-60.5935 -132.893 -657 240 204 178
-59.3516 -133.078 -658 237 197 171
-58.106 -133.264 -659 220 178 152
-56.857 -133.451 -660 229 187 162
-55.436 -133.233 -659 251 212 187
-54.1017 -133.218 -659 255 221 198
-52.7679 -133.203 -659 255 222 200
-51.5125 -133.391 -660 255 221 199
-50.1775 -133.377 -660 255 220 196
-48.7689 -133.161 -659 252 217 191
-47.2927 -132.744 -657 246 212 185
-45.8251 -132.327 -655 237 206 189
-43.9582 -130.699 -647 211 182 165
-128.292 -137.195 -665 171 168 171
-125.951 -136.127 -660 205 196 196
-124.386 -135.886 -659 240 212 196
-122.639 -135.438 -657 245 216 198
-121.087 -135.197 -656 245 216 195
-119.54 -134.957 -655 243 213 190
-118.178 -134.924 -655 244 214 191
-116.282 -134.272 -652 250 217 195
-114.753 -134.034 -651 250 218 197
-113.054 -133.59 -649 248 216 196
-111.365 -133.147 -647 244 214 195
-109.684 -132.704 -645 244 213 194
-108.181 -132.467 -644 246 214 193
-106.683 -132.231 -643 246 213 192
-105.027 -131.79 -641 245 212 192
-103.703 -131.761 -641 247 217 200
-102.22 -131.526 -640 251 219 199
-100.742 -131.292 -639 252 218 196
-99.1136 -130.853 -637 254 218 196
-97.6477 -130.62 -636 255 228 206
-96.0353 -130.182 -634 255 235 213
-94.7309 -130.155 -634 255 235 213
-93.2798 -129.923 -633 255 235 213
-91.9789 -129.897 -633 255 237 209
-90.6788 -129.871 -633 255 238 210
-89.3795 -129.846 -633 255 238 210
-88.081 -129.821 -633 255 236 210
-86.9203 -130.002 -634 255 236 210
-85.6212 -129.978 -634 255 234 209
-84.3228 -129.954 -634 255 232 207
-82.8941 -129.725 -633 255 229 205
-81.5991 -129.702 -633 255 227 203
-80.3049 -129.68 -633 254 227 203
-79.0113 -129.657 -633 255 231 207
-77.7183 -129.635 -633 255 235 210
-76.4261 -129.614 -633 255 234 209
-75.2531 -129.797 -634 255 229 207
-73.9601 -129.776 -634 255 228 205
-72.7822 -129.96 -635 255 229 205
-71.4884 -129.94 -635 255 228 202
-70.3056 -130.125 -636 255 229 204
-69.0109 -130.106 -636 255 227 206
-67.7168 -130.087 -636 255 225 202
-66.5277 -130.272 -637 254 222 199
-65.4374 -130.663 -639 251 219 196
-64.44 -131.258 -642 249 215 193
-63.4309 -131.854 -645 248 212 190
-62.4101 -132.449 -648 248 213 189
-61.5662 -133.454 -653 240 205 180
-60.6103 -134.254 -657 242 201 176
-59.4582 -134.646 -659 228 184 158
-58.1221 -134.63 -659 212 166 140
-56.7865 -134.614 -659 232 189 164
-55.4514 -134.598 -659 255 217 192
-54.0346 -134.379 -658 255 223 198
-52.7024 -134.364 -658 255 225 202
-51.3706 -134.349 -658 255 224 202
-50.0393 -134.335 -658 255 222 200
-48.6343 -134.117 -657 254 218 193
-47.1618 -133.696 -655 250 214 188
-45.7678 -133.479 -654 244 209 190
-43.9024 -131.834 -646 234 201 183
-41.2125 -127.536 -625 207 181 166
-130.304 -139.251 -668 166 168 174
-127.557 -137.755 -661 188 179 177
-125.223 -136.676 -656 226 210 203
-123.666 -136.432 -655 244 215 197
-122.301 -136.397 -655 245 216 197
-120.752 -136.154 -654 245 216 197
-119.209 -135.912 -653 244 213 190
-118.031 -136.086 -654 244 213 189
-116.137 -135.428 -651 249 215 193
-114.609 -135.187 -650 252 219 198
-112.912 -134.739 -648 251 219 198
-111.224 -134.291 -646 247 217 197
-109.545 -133.844 -644 247 217 196
-108.044 -133.605 -643 246 214 192
-106.216 -132.951 -640 244 211 190
-104.729 -132.713 -639 245 211 191
-103.409 -132.683 -639 245 215 198
-101.929 -132.446 -638 249 217 198
-100.455 -132.21 -637 250 216 195
-98.986 -131.974 -636 250 216 194
-97.5218 -131.739 -635 255 229 207
-96.0625 -131.504 -634 255 236 213
-94.6082 -131.269 -633 255 234 211
-93.1587 -131.035 -632 255 233 211
-91.7142 -130.802 -631 255 235 208
-90.5612 -130.983 -632 255 238 210
-89.1223 -130.75 -631 255 237 209
-87.9667 -130.932 -632 255 235 210
-86.8077 -131.115 -633 255 236 211
-85.5102 -131.09 -633 255 233 208
-84.2135 -131.066 -633 255 231 207
-82.9175 -131.042 -633 255 229 205
-81.4932 -130.812 -632 255 228 204
-80.2006 -130.789 -632 253 226 202
-78.9087 -130.767 -632 254 229 205
-77.4946 -130.538 -631 255 233 209
-76.206 -130.516 -631 255 232 207
-75.0368 -130.701 -632 255 228 206
-73.7475 -130.68 -632 255 227 204
-72.688 -131.073 -634 255 227 203
-71.3958 -131.053 -634 254 226 200
-70.1043 -131.033 -634 255 227 202
-68.9218 -131.22 -635 255 226 205
-67.6293 -131.2 -635 255 224 202
-66.4419 -131.388 -636 254 222 199
-65.4558 -131.989 -639 250 218 195
-64.3576 -132.384 -641 246 212 190
-63.3503 -132.986 -644 243 207 185
-62.5239 -134 -649 243 204 181
-61.6778 -135.015 -654 239 199 175
-60.7195 -135.824 -658 238 193 167
-59.5651 -136.219 -660 218 171 144
-58.1384 -135.997 -659 199 151 124
-56.8886 -136.187 -660 234 190 166
-55.4669 -135.965 -659 255 219 194
-54.0497 -135.743 -658 255 224 198
-52.637 -135.522 -657 255 225 202
-51.3069 -135.507 -657 255 224 202
-49.9772 -135.493 -657 255 223 202
-48.5739 -135.273 -656 254 219 196
-47.103 -134.847 -654 251 214 190
-45.6405 -134.421 -652 246 210 189
-43.8467 -132.966 -645 238 205 185
-41.8177 -130.686 -634 214 185 170
-129.756 -140.02 -665 175 170 173
-127.015 -138.509 -658 212 197 189
-124.877 -137.631 -654 235 212 197
-123.324 -137.385 -653 248 219 202
-121.962 -137.349 -653 249 220 202
-120.417 -137.104 -652 246 217 198
-119.06 -137.069 -652 245 213 189
-117.704 -137.035 -652 245 213 188
-115.992 -136.581 -650 250 217 195
-114.466 -136.337 -649 254 221 199
-112.596 -135.674 -646 253 221 200
-111.084 -135.432 -645 252 222 201
-109.407 -134.98 -643 250 219 197
-107.907 -134.739 -642 244 211 188
-106.08 -134.079 -639 241 208 187
-104.595 -133.838 -638 246 212 192
-103.114 -133.599 -637 247 215 199
-101.639 -133.36 -636 250 217 199
-100.168 -133.121 -635 248 213 193
-98.703 -132.883 -634 250 216 194
-97.3961 -132.854 -634 255 232 209
-95.9384 -132.617 -633 255 237 214
-94.4857 -132.38 -632 255 234 211
-93.0379 -132.144 -631 255 232 210
-91.595 -131.908 -630 255 234 207
-90.4437 -132.091 -631 255 236 209
-89.1478 -132.065 -631 255 236 208
-87.9918 -132.249 -632 255 235 210
-86.6953 -132.224 -632 255 235 210
-85.5346 -132.409 -633 255 232 207
-84.1044 -132.175 -632 255 230 206
-82.81 -132.151 -632 255 229 205
-81.3874 -131.919 -631 255 227 203
-80.0965 -131.896 -631 253 226 202
-78.6813 -131.664 -630 255 231 207
-77.3938 -131.642 -630 255 234 210
-76.1069 -131.62 -630 255 232 208
-74.9394 -131.807 -631 254 227 205
-73.6517 -131.786 -631 254 227 204
-72.4793 -131.974 -632 255 228 204
-71.3035 -132.162 -633 255 227 201
-70.0135 -132.142 -633 255 228 203
-68.8328 -132.331 -634 255 225 204
-67.6485 -132.52 -635 254 223 201
-66.4607 -132.71 -636 253 221 199
-65.4743 -133.317 -639 251 218 195
-64.3758 -133.716 -641 245 211 188
-63.565 -134.74 -646 241 204 182
-62.5416 -135.348 -649 242 198 176
-61.7896 -136.581 -655 239 194 171
-60.6444 -136.981 -657 235 183 157
-59.4917 -137.381 -659 197 145 119
-58.0666 -137.156 -658 195 144 118
-56.7323 -137.139 -658 240 195 171
-55.3984 -137.123 -658 255 219 194
-53.9828 -136.9 -657 255 224 197
-52.5718 -136.676 -656 255 224 201
-51.2433 -136.661 -656 255 223 201
-49.9152 -136.647 -656 255 223 203
-48.4395 -136.216 -654 255 220 199
-46.9722 -135.786 -652 253 215 195
-45.5134 -135.357 -650 249 214 191
-43.7231 -133.886 -643 234 200 178
-41.2357 -130.127 -625 214 182 166
-129.208 -140.779 -662 191 181 180
-126.666 -139.465 -656 224 206 195
-124.532 -138.578 -652 237 211 193
-122.982 -138.329 -651 247 221 206
-121.624 -138.294 -651 249 222 206
-120.453 -138.471 -652 243 214 194
-118.912 -138.223 -651 243 211 187
-117.377 -137.976 -650 249 216 191
-115.669 -137.518 -648 253 220 199
-113.97 -137.06 -646 254 222 201
-112.454 -136.815 -645 252 220 199
-110.944 -136.57 -644 249 219 198
-109.268 -136.114 -642 247 217 195
-107.77 -135.87 -641 244 210 188
-105.945 -135.203 -638 243 209 188
-104.625 -135.173 -638 247 213 193
-103.144 -134.931 -637 250 216 200
-101.668 -134.689 -636 252 218 200
-100.04 -134.236 -634 249 213 193
-98.7315 -134.207 -634 251 219 196
-97.2706 -133.967 -633 255 235 212
-95.8145 -133.727 -632 255 237 214
-94.3634 -133.488 -631 255 233 210
-92.9173 -133.25 -630 255 232 210
-91.6215 -133.223 -630 255 234 208
-90.3264 -133.196 -630 255 235 209
-89.0321 -133.17 -630 255 236 209
-87.8778 -133.356 -631 255 236 210
-86.7202 -133.542 -632 255 235 210
-85.4241 -133.517 -632 255 233 208
-84.1286 -133.493 -632 255 229 205
-82.7028 -133.257 -631 255 227 204
-81.1528 -132.811 -629 254 226 202
-79.8656 -132.788 -629 255 229 204
-78.579 -132.765 -629 255 232 208
-77.1702 -132.532 -628 255 233 210
-75.8871 -132.509 -628 254 231 209
-74.8421 -132.91 -630 254 228 206
-73.5561 -132.888 -630 254 229 205
-72.3854 -133.078 -631 255 230 206
-71.2112 -133.268 -632 255 229 203
-70.0336 -133.459 -633 255 228 204
-68.8525 -133.65 -634 255 225 204
-67.6679 -133.841 -635 255 224 203
-66.4798 -134.032 -636 254 222 201
-65.4931 -134.645 -639 250 216 194
-64.4947 -135.259 -642 243 207 186
-63.6816 -136.294 -647 238 201 179
-62.7523 -137.118 -651 242 194 173
-61.9016 -138.153 -656 236 187 165
-60.7541 -138.557 -658 213 158 135
-59.5087 -138.75 -659 173 119 94
-58.0832 -138.523 -658 212 158 133
-56.6622 -138.296 -657 251 207 182
-55.2458 -138.069 -656 255 220 195
-53.8339 -137.843 -655 255 226 199
-52.4264 -137.617 -654 255 227 203
-51.0235 -137.392 -653 255 227 204
-49.7011 -137.378 -653 255 224 204
-48.231 -136.943 -651 255 221 201
-46.9135 -136.929 -651 255 216 197
-45.4563 -136.495 -649 245 211 185
-43.6675 -135.01 -642 235 202 178
-41.3794 -131.844 -627 212 179 163
-128.856 -141.74 -660 210 195 190
-126.51 -140.629 -655 231 210 197
-124.377 -139.733 -651 241 213 193
-123.018 -139.696 -651 247 222 205
-121.66 -139.66 -651 246 220 202
-120.303 -139.624 -651 239 209 188
-118.764 -139.374 -650 241 209 185
-117.231 -139.125 -649 250 217 193
-115.524 -138.662 -647 254 223 201
-113.827 -138.2 -645 254 223 201
-112.313 -137.952 -644 250 219 198
-110.804 -137.705 -643 246 216 195
-109.13 -137.244 -641 244 214 192
-107.634 -136.998 -640 244 211 188
-105.976 -136.539 -638 244 210 188
-104.492 -136.294 -637 247 213 192
-103.012 -136.05 -636 249 217 199
-101.378 -135.592 -634 251 218 199
-99.911 -135.348 -633 248 214 194
-98.4488 -135.105 -632 253 222 201
-97.1452 -135.077 -632 255 235 213
-95.6908 -134.835 -631 255 237 214
-94.391 -134.807 -631 255 233 209
-92.9444 -134.566 -630 255 233 209
-91.5027 -134.325 -629 255 235 211
-90.2093 -134.299 -629 255 235 211
-88.9167 -134.272 -629 254 236 210
-87.7641 -134.46 -630 255 234 209
-86.6082 -134.648 -631 255 233 208
-85.3137 -134.623 -631 255 230 207
-84.0199 -134.598 -631 255 228 205
-82.5957 -134.36 -630 255 225 202
-81.0473 -133.91 -628 255 227 201
-79.7617 -133.886 -628 255 231 205
-78.4769 -133.863 -628 255 235 210
-77.0697 -133.628 -627 255 234 211
-75.7882 -133.605 -627 255 230 208
-74.6262 -133.796 -628 255 229 205
-73.3438 -133.775 -628 255 230 206
-72.1769 -133.967 -629 255 230 206
-71.0065 -134.159 -630 254 229 207
-69.8326 -134.351 -631 254 229 206
-68.7638 -134.757 -633 255 227 204
-67.5809 -134.95 -634 254 226 203
-66.3944 -135.143 -635 247 219 196
-65.4095 -135.762 -638 247 213 191
-64.5134 -136.595 -642 237 199 176
-63.7 -137.64 -647 237 193 170
-62.7705 -138.472 -651 239 187 167
-61.9195 -139.518 -656 229 176 156
-60.7717 -139.925 -658 180 122 100
-59.4356 -139.908 -658 168 111 88
-57.9234 -139.465 -656 227 171 147
-56.5923 -139.449 -656 255 213 190
-55.1775 -139.22 -655 255 221 198
-53.7672 -138.992 -654 255 227 202
-52.3614 -138.764 -653 255 228 204
-50.9601 -138.536 -652 255 227 203
-49.5632 -138.309 -651 255 225 204
-48.1708 -138.083 -650 255 221 200
-46.7829 -137.856 -649 255 216 195
-45.2592 -137.206 -646 244 211 187
-43.476 -135.706 -639 233 200 179
-41.0613 -132.084 -622 212 179 163
-128.308 -142.478 -657 225 205 193
-126.161 -141.572 -653 234 211 195
-124.223 -140.884 -650 241 215 195
-122.677 -140.631 -649 244 218 198
-121.509 -140.811 -650 243 216 196
-119.969 -140.558 -649 238 208 187
-118.434 -140.306 -648 242 210 188
-116.904 -140.055 -647 250 218 195
-115.201 -139.587 -645 252 222 199
-113.507 -139.12 -643 251 221 199
-111.823 -138.654 -641 249 219 198
-110.32 -138.405 -640 246 216 195
-108.822 -138.156 -639 244 214 192
-107.329 -137.908 -638 243 211 188
-105.841 -137.66 -637 244 211 188
-104.359 -137.413 -636 248 215 192
-102.881 -137.166 -635 248 218 199
-101.248 -136.703 -633 248 216 197
-99.7826 -136.458 -632 250 216 196
-98.322 -136.212 -631 254 226 206
-96.8664 -135.968 -630 255 237 216
-95.4157 -135.723 -629 255 238 214
-93.9699 -135.48 -628 255 234 210
-92.529 -135.236 -627 255 233 208
-91.2386 -135.209 -627 255 234 211
-89.9489 -135.182 -627 255 235 211
-88.8014 -135.371 -628 255 236 210
-87.7899 -135.776 -630 255 234 209
-86.4964 -135.751 -630 255 231 207
-85.2035 -135.725 -630 255 228 205
-83.7782 -135.485 -629 255 226 203
-82.3577 -135.245 -628 255 225 202
-80.8129 -134.79 -626 255 229 203
-79.5311 -134.767 -626 255 234 208
-78.2499 -134.743 -626 255 235 210
-76.9694 -134.72 -626 255 234 211
-75.5686 -134.483 -625 255 231 210
-74.4103 -134.676 -626 255 229 205
-73.1317 -134.654 -626 255 231 207
-71.9685 -134.848 -627 255 231 207
-70.9145 -135.257 -629 255 230 207
-69.7423 -135.451 -630 255 230 207
-68.6753 -135.861 -632 255 228 203
-67.6006 -136.271 -634 253 225 199
-66.4138 -136.466 -635 249 222 196
-65.4286 -137.091 -638 242 207 184
-64.5323 -137.932 -642 239 198 175
-63.7186 -138.987 -647 239 189 165
-62.8852 -140.042 -652 235 178 158
-61.9376 -140.883 -656 204 146 127
-60.697 -141.08 -657 150 87 65
-59.3626 -141.062 -657 183 123 102
-57.9403 -140.83 -656 246 190 168
-56.5226 -140.599 -655 253 211 192
-55.1093 -140.368 -654 255 220 202
-53.7006 -140.137 -653 255 227 208
-52.2162 -139.693 -651 254 229 206
-50.8967 -139.678 -651 252 229 204
-49.5015 -139.448 -650 255 224 202
-48.1107 -139.22 -649 255 220 198
-46.6523 -138.777 -647 254 215 192
-45.2023 -138.334 -645 243 211 189
-43.3525 -136.606 -637 229 197 177
-40.9411 -132.948 -620 208 178 163
-131.302 -145.652 -665 191 186 193
-128.151 -143.642 -656 230 208 195
-126.199 -142.947 -653 232 208 193
-124.452 -142.471 -651 236 210 190
-122.713 -141.996 -649 237 211 191
-121.359 -141.959 -649 238 212 192
-119.82 -141.704 -648 238 208 187
-118.104 -141.231 -646 242 211 188
-116.578 -140.977 -645 249 217 194
-114.878 -140.505 -643 251 221 200
-113.365 -140.252 -642 251 221 200
-111.856 -140 -641 249 219 198
-110.353 -139.748 -640 245 215 194
-108.854 -139.497 -639 244 214 192
-107.361 -139.246 -638 244 212 189
-105.873 -138.996 -637 245 212 189
-104.225 -138.528 -635 246 214 191
-102.749 -138.279 -634 248 218 199
-100.958 -137.594 -631 246 214 195
-99.6544 -137.564 -631 251 217 197
-98.0396 -137.098 -629 255 231 209
-96.5876 -136.851 -628 255 238 216
-95.1406 -136.605 -627 255 238 214
-93.8482 -136.576 -627 255 236 212
-92.4089 -136.331 -626 255 235 210
-91.2657 -136.521 -627 255 235 212
-89.9757 -136.494 -627 255 236 212
-88.8278 -136.685 -628 255 235 210
-87.816 -137.094 -630 255 232 208
-86.3847 -136.85 -629 255 229 205
-85.0936 -136.825 -629 255 224 201
-83.5366 -136.365 -627 255 224 201
-81.9886 -135.905 -625 255 226 203
-80.4495 -135.446 -623 255 229 203
-79.3005 -135.639 -624 255 234 208
-78.023 -135.616 -624 255 236 211
-76.7462 -135.593 -624 255 234 212
-75.47 -135.57 -624 255 233 212
-74.3134 -135.765 -625 255 230 206
-73.1533 -135.961 -626 255 230 206
-71.8749 -135.939 -626 255 230 206
-70.9355 -136.569 -629 255 230 205
-69.6522 -136.548 -629 255 229 205
-68.5869 -136.962 -631 254 224 199
-67.4073 -137.159 -632 254 222 196
-66.3288 -137.573 -634 249 217 190
-65.3454 -138.204 -637 244 207 181
-64.5513 -139.27 -642 234 193 169
-63.7375 -140.335 -647 231 181 158
-62.9038 -141.401 -652 215 158 137
-61.9559 -142.25 -656 155 97 76
-60.6225 -142.232 -656 144 81 60
-59.2897 -142.214 -656 205 145 124
-57.7807 -141.763 -654 250 198 176
-56.4529 -141.746 -654 255 214 197
-54.957 -141.296 -652 255 221 204
-53.5519 -141.063 -651 255 227 208
-52.0711 -140.615 -649 255 229 206
-50.7553 -140.599 -649 255 228 204
-49.3637 -140.368 -648 255 224 202
-47.9766 -140.137 -647 255 219 197
-46.5217 -139.69 -645 252 214 191
-45.0053 -139.027 -642 241 208 187
-43.0249 -136.848 -632 227 194 174
-127.604 -144.361 -653 230 207 194
-125.851 -143.88 -651 231 207 191
-124.298 -143.621 -650 233 207 187
-122.562 -143.141 -648 235 209 189
-121.021 -142.883 -647 235 208 188
-119.672 -142.847 -647 238 207 186
-117.957 -142.369 -645 242 210 188
-116.432 -142.113 -644 248 216 193
-114.734 -141.636 -642 250 219 198
-113.222 -141.381 -641 251 220 199
-111.541 -140.906 -639 250 220 199
-110.041 -140.652 -638 248 218 197
-108.546 -140.398 -637 245 215 193
-107.225 -140.365 -637 244 212 189
-105.739 -140.113 -636 243 211 188
-104.257 -139.861 -635 244 212 189
-102.78 -139.609 -634 247 215 197
-100.989 -138.918 -631 246 214 195
-99.5265 -138.667 -630 252 219 199
-97.9131 -138.197 -628 255 232 210
-96.4628 -137.948 -627 255 238 216
-95.0174 -137.699 -626 255 239 215
-93.5769 -137.45 -625 255 238 213
-92.2891 -137.422 -625 255 237 211
-91.0019 -137.395 -625 255 235 212
-89.8591 -137.587 -626 255 235 212
-88.713 -137.78 -627 254 233 208
-87.7029 -138.193 -629 255 227 202
-86.4106 -138.167 -629 253 221 197
-84.9837 -137.921 -628 254 222 199
-83.5616 -137.676 -627 255 225 202
-82.0132 -137.212 -625 255 227 204
-80.3444 -136.529 -622 255 229 203
-79.07 -136.505 -622 255 232 207
-77.9213 -136.701 -623 255 235 210
-76.6461 -136.678 -623 255 234 211
-75.3716 -136.655 -623 255 232 210
-74.2167 -136.852 -624 255 231 207
-73.0583 -137.049 -625 255 230 206
-71.7816 -137.027 -625 255 230 206
-70.8439 -137.663 -628 255 229 204
-69.5622 -137.642 -628 254 227 201
-68.4986 -138.06 -630 255 224 199
-67.3207 -138.259 -631 254 220 194
-66.244 -138.677 -633 245 209 182
-65.1596 -139.095 -635 240 199 173
-64.47 -140.39 -641 232 187 163
-63.6579 -141.466 -646 222 171 148
-62.7295 -142.323 -650 174 117 95
-61.7853 -143.18 -654 117 59 38
-60.4557 -143.162 -654 160 99 77
-59.1265 -143.144 -654 223 165 144
-57.6211 -142.689 -652 253 205 184
-56.297 -142.672 -652 255 217 201
-54.8047 -142.217 -650 255 224 207
-53.4033 -141.982 -649 255 228 209
-51.9261 -141.529 -647 255 229 207
-50.6139 -141.514 -647 255 227 204
-49.226 -141.28 -646 255 222 200
-47.8425 -141.047 -645 254 218 195
-46.4634 -140.814 -644 248 211 187
-44.8784 -139.926 -640 241 206 186
-42.561 -136.634 -625 227 193 174
-127.839 -145.961 -654 230 206 193
-125.889 -145.253 -651 233 208 193
-124.336 -144.991 -650 235 209 189
-122.599 -144.507 -648 235 206 187
-120.871 -144.023 -646 234 205 186
-119.523 -143.986 -646 239 206 186
-117.993 -143.727 -645 243 211 189
-116.287 -143.245 -643 248 216 193
-114.948 -143.21 -643 250 218 197
-113.257 -142.73 -641 252 220 199
-111.575 -142.25 -639 250 220 199
-110.075 -141.993 -638 249 219 198
-108.579 -141.737 -637 245 215 194
-107.089 -141.482 -636 244 212 189
-105.438 -141.004 -634 242 210 187
-103.96 -140.75 -633 243 211 188
-102.325 -140.274 -631 241 209 190
-100.699 -139.798 -629 245 213 194
-99.2407 -139.545 -628 252 220 200
-97.787 -139.293 -627 255 232 211
-96.3382 -139.041 -626 255 238 216
-94.8944 -138.79 -625 255 239 215
-93.6053 -138.761 -625 255 238 213
-92.1693 -138.511 -624 254 235 209
-91.0295 -138.705 -625 255 233 209
-89.7428 -138.677 -625 255 232 208
-88.5984 -138.872 -626 254 228 204
-87.59 -139.289 -628 252 220 196
-86.2993 -139.262 -628 247 212 188
-84.8741 -139.015 -627 254 222 199
-83.3203 -138.546 -625 255 225 202
-81.7754 -138.077 -623 255 226 203
-80.3687 -137.831 -622 255 228 204
-79.0939 -137.807 -622 255 232 207
-77.8197 -137.783 -622 255 234 209
-76.5462 -137.759 -622 255 232 209
-75.3944 -137.958 -623 255 231 208
-74.1201 -137.935 -623 255 231 206
-72.8465 -137.913 -623 255 229 204
-71.6883 -138.112 -624 255 229 205
-70.6396 -138.533 -626 255 228 203
-69.3616 -138.512 -626 254 226 201
-68.3017 -138.934 -628 254 219 196
-67.0208 -138.913 -628 249 211 187
-65.9499 -139.336 -630 243 204 178
-64.8713 -139.758 -632 238 192 167
-64.1876 -141.065 -638 226 179 155
-63.5785 -142.594 -645 190 138 116
-62.6518 -143.459 -649 126 69 48
-61.7094 -144.324 -653 117 59 38
-60.2889 -144.085 -652 177 119 97
-58.9634 -144.067 -652 235 180 159
-57.4616 -143.607 -650 254 208 188
-56.0548 -143.369 -649 255 216 200
-54.5681 -142.911 -647 255 222 206
-53.2547 -142.894 -647 255 226 208
-51.7811 -142.437 -645 255 226 205
-50.4726 -142.421 -645 255 225 203
-49.0883 -142.186 -644 255 221 199
-47.7826 -142.171 -644 253 216 193
-46.2609 -141.495 -641 246 208 185
-44.5412 -140.156 -635 231 197 176
-41.9607 -135.95 -616 218 185 165
-130.04 -148.283 -658 200 191 193
-127.683 -147.116 -653 230 206 193
-125.735 -146.401 -650 233 208 194
-123.992 -145.912 -648 235 207 189
-122.258 -145.423 -646 235 207 189
-120.722 -145.16 -645 235 206 188
-119.375 -145.123 -645 238 205 187
-118.029 -145.086 -645 242 209 188
-116.323 -144.6 -643 248 216 193
-114.805 -144.34 -642 248 216 195
-113.292 -144.079 -641 252 220 199
-111.435 -143.37 -638 251 221 200
-110.108 -143.336 -638 252 222 201
-108.442 -142.853 -636 248 218 197
-107.122 -142.82 -636 243 211 188
-105.471 -142.338 -634 240 208 185
-103.828 -141.856 -632 238 206 183
-102.032 -141.151 -629 236 206 187
-100.41 -140.671 -627 244 213 194
-98.7969 -140.192 -625 253 224 203
-97.3489 -139.937 -624 255 234 212
-96.0599 -139.907 -624 255 237 215
-94.6198 -139.654 -623 255 238 214
-93.3344 -139.625 -623 255 237 213
-91.9021 -139.372 -622 254 236 210
-90.9117 -139.792 -624 255 232 207
-89.6267 -139.764 -624 254 230 206
-88.4839 -139.961 -625 252 224 200
-87.4773 -140.382 -627 246 212 188
-86.1883 -140.355 -627 242 206 182
-84.6292 -139.881 -625 255 223 200
-83.0791 -139.408 -623 255 226 203
-81.5378 -138.935 -621 255 227 204
-80.1347 -138.687 -620 255 229 206
-78.8636 -138.662 -620 255 233 209
-77.5931 -138.638 -620 255 235 210
-76.4465 -138.838 -621 255 233 209
-75.2963 -139.038 -622 255 231 207
-73.9047 -138.792 -621 255 229 204
-72.7517 -138.993 -622 255 227 202
-71.5952 -139.194 -623 255 225 202
-70.5482 -139.62 -625 255 225 201
-69.2719 -139.598 -625 254 223 200
-68.1049 -139.8 -626 252 215 194
-66.8277 -139.78 -626 243 203 180
-65.5511 -139.76 -626 234 192 167
-64.4803 -140.186 -628 229 182 158
-63.7039 -141.283 -633 206 158 134
-63.2034 -143.049 -641 148 98 76
-62.3812 -144.145 -646 117 62 42
-61.4446 -145.019 -650 137 81 61
-60.0297 -144.777 -649 199 142 121
-58.6195 -144.536 -648 243 190 169
-57.1254 -144.072 -646 254 208 189
-55.8126 -144.055 -646 255 218 202
-54.4159 -143.815 -645 255 222 205
-53.0238 -143.576 -644 255 226 208
-51.6362 -143.337 -643 255 225 205
-50.2531 -143.099 -642 255 223 201
-48.9507 -143.084 -642 255 220 198
-47.5745 -142.846 -641 251 214 192
-46.0583 -142.163 -638 244 204 181
-44.274 -140.59 -631 229 194 174
-41.6327 -136.121 -611 215 180 160
-130.08 -149.674 -658 200 190 190
-127.723 -148.496 -653 228 205 192
-125.774 -147.774 -650 232 207 193
-124.031 -147.28 -648 235 206 190
-122.297 -146.787 -646 239 210 194
-120.759 -146.522 -645 237 208 192
-119.412 -146.484 -645 238 205 187
-118.066 -146.447 -645 242 209 189
-116.178 -145.729 -642 248 215 192
-114.841 -145.693 -642 250 218 197
-113.327 -145.43 -641 251 219 198
-111.644 -144.942 -639 251 221 200
-109.97 -144.453 -637 251 221 200
-108.476 -144.192 -636 247 217 196
-107.156 -144.159 -636 244 212 189
-105.337 -143.446 -633 236 204 181
-103.696 -142.96 -631 235 203 180
-101.902 -142.248 -628 238 206 187
-100.121 -141.537 -625 245 213 195
-98.5113 -141.053 -623 254 226 205
-97.2231 -141.023 -623 255 234 213
-95.9357 -140.993 -623 255 236 215
-94.4972 -140.737 -622 255 238 214
-93.3633 -140.934 -623 255 238 213
-92.0783 -140.905 -623 255 236 210
-90.9398 -141.103 -624 255 232 208
-89.6544 -141.075 -624 255 228 204
-88.5112 -141.273 -625 250 218 194
-87.3648 -141.472 -626 239 204 180
-85.9399 -141.219 -625 246 209 185
-84.3844 -140.741 -623 255 225 202
-82.8379 -140.263 -621 255 226 203
-81.3003 -139.786 -619 255 228 205
-79.9009 -139.535 -618 255 230 207
-78.6335 -139.511 -618 255 233 209
-77.3667 -139.486 -618 255 236 211
-76.2237 -139.688 -619 255 234 209
-75.1984 -140.116 -621 255 231 205
-73.9275 -140.093 -621 255 227 202
-72.7741 -140.296 -622 255 226 201
-71.6173 -140.499 -623 254 224 199
-70.344 -140.477 -623 255 223 198
-69.0714 -140.456 -623 252 219 194
-67.7993 -140.435 -623 247 207 186
-66.3143 -139.963 -621 236 195 172
-64.838 -139.492 -619 227 185 160
-63.1649 -138.571 -615 210 167 146
-62.2071 -145.046 -644 119 68 48
-61.2743 -145.928 -648 146 94 73
-59.7706 -145.459 -646 214 160 139
-58.366 -145.215 -645 245 193 173
-56.8775 -144.747 -643 254 210 191
-55.5704 -144.73 -643 255 218 203
-54.1795 -144.488 -642 255 220 205
-52.793 -144.247 -641 255 224 204
-51.411 -144.006 -640 255 224 204
-50.0336 -143.765 -639 255 221 200
-48.7369 -143.75 -639 254 217 195
-47.3663 -143.51 -638 249 211 189
-45.7835 -142.596 -634 240 200 177
-43.9366 -140.783 -626 228 191 171
-129.924 -150.836 -657 206 193 190
-127.176 -149.188 -650 227 204 191
-125.427 -148.689 -648 233 208 193
-123.878 -148.42 -647 238 208 193
-122.146 -147.923 -645 242 213 198
-120.61 -147.655 -644 236 207 192
-119.45 -147.846 -645 231 198 180
-117.92 -147.58 -644 235 202 182
-116.215 -147.084 -642 241 207 185
-114.877 -147.048 -642 245 213 192
-113.363 -146.783 -641 251 219 198
-111.504 -146.06 -638 253 223 202
-109.832 -145.568 -636 253 223 202
-108.34 -145.304 -635 249 219 198
-106.852 -145.042 -634 244 212 189
-105.203 -144.551 -632 234 202 179
-103.399 -143.832 -629 233 201 178
-101.609 -143.113 -626 240 206 188
-99.9919 -142.625 -624 250 216 198
-98.2258 -141.908 -621 255 228 208
-96.9413 -141.877 -621 255 234 213
-95.6576 -141.847 -621 255 237 216
-94.3747 -141.817 -621 255 238 214
-93.0926 -141.788 -621 255 236 212
-91.8114 -141.759 -621 255 234 209
-90.6767 -141.958 -622 255 234 209
-89.5386 -142.158 -623 255 227 203
-88.3972 -142.358 -624 247 214 189
-87.1128 -142.331 -624 239 203 179
-85.6916 -142.076 -623 252 214 191
-84.1398 -141.593 -621 255 227 204
-82.7303 -141.339 -620 255 227 204
-81.1942 -140.857 -618 255 228 207
-79.7964 -140.604 -617 255 232 208
-78.5306 -140.579 -617 255 233 209
-77.2655 -140.555 -617 255 235 210
-76.1242 -140.759 -618 255 234 208
-74.9795 -140.963 -619 254 231 204
-73.7122 -140.94 -619 255 226 201
-72.5626 -141.145 -620 255 226 201
-71.5245 -141.578 -622 254 223 198
-70.14 -141.328 -621 253 219 193
-68.871 -141.306 -621 248 212 187
-67.385 -140.83 -619 239 199 175
-65.8008 -140.127 -616 226 187 163
-63.496 -137.832 -606 203 165 144
-61.9365 -145.712 -641 120 74 54
-60.9149 -146.375 -644 161 114 92
-59.604 -146.356 -644 224 172 152
-58.1125 -145.883 -642 251 200 181
-56.7181 -145.638 -641 255 212 193
-55.4147 -145.621 -641 255 218 204
-54.0274 -145.377 -640 255 220 205
-52.6445 -145.133 -639 255 223 203
-51.2662 -144.89 -638 255 221 200
-49.9707 -144.874 -638 255 218 196
-48.5993 -144.632 -637 253 213 192
-47.1581 -144.163 -635 246 206 184
-45.5809 -143.24 -631 235 195 171
-43.5992 -140.956 -621 220 184 163
-129.767 -151.996 -656 209 194 191
-127.217 -150.564 -650 228 205 192
-125.467 -150.061 -648 237 212 197
-123.918 -149.789 -647 246 214 200
-122.185 -149.287 -645 251 220 205
-120.648 -149.017 -644 243 214 198
-119.303 -148.978 -644 230 197 179
-117.958 -148.941 -644 231 198 178
-116.252 -148.441 -642 240 206 184
-114.734 -148.173 -641 243 210 191
-113.222 -147.905 -640 252 220 201
-111.365 -147.176 -637 254 224 203
-109.694 -146.679 -635 254 225 204
-108.203 -146.413 -634 250 220 199
-106.886 -146.379 -634 244 212 189
-105.07 -145.653 -631 233 201 178
-103.268 -144.927 -628 233 201 178
-101.316 -143.972 -624 244 210 191
-99.5426 -143.248 -621 255 223 204
-97.9404 -142.755 -619 255 231 212
-96.6596 -142.724 -619 255 235 214
-95.3796 -142.694 -619 255 239 218
-94.2525 -142.894 -620 255 239 215
-92.9721 -142.864 -620 255 237 212
-91.6924 -142.835 -620 255 233 208
-90.7052 -143.267 -622 255 228 205
-89.4231 -143.238 -622 252 221 198
-88.2833 -143.441 -623 243 207 183
-87.0006 -143.413 -623 240 202 178
-85.581 -143.155 -622 253 218 195
-83.8951 -142.438 -619 255 224 202
-82.4893 -142.182 -618 255 227 205
-80.9569 -141.696 -616 255 229 208
-79.6921 -141.67 -616 255 232 209
-78.3007 -141.416 -615 255 234 210
-76.914 -141.161 -614 255 235 210
-75.9017 -141.597 -616 255 234 208
-74.8819 -142.033 -618 254 231 204
-73.4971 -141.78 -617 255 227 202
-72.4683 -142.216 -619 255 225 200
-71.3169 -142.423 -620 254 221 196
-69.936 -142.171 -619 251 214 189
-68.5598 -141.92 -618 243 204 178
-66.8616 -140.98 -614 230 190 165
-64.7529 -139.122 -606 209 171 149
-61.5692 -146.137 -637 124 82 62
-60.5555 -146.806 -640 185 140 118
-59.3448 -147.017 -641 234 184 163
-57.9495 -146.769 -640 255 208 188
-56.5588 -146.522 -639 255 214 197
-55.2591 -146.504 -639 255 217 204
-53.9598 -146.487 -639 255 217 204
-52.5785 -146.241 -638 255 216 198
-51.2822 -146.225 -638 255 214 193
-49.9079 -145.98 -637 253 211 188
-48.5382 -145.735 -636 246 203 183
-47.0985 -145.262 -634 241 199 177
-45.3784 -143.873 -628 231 191 166
-43.1212 -140.652 -614 215 177 157
-129.018 -152.451 -652 211 195 190
-126.866 -151.474 -648 231 208 195
-125.12 -150.966 -646 240 215 200
-123.766 -150.926 -646 252 219 206
-122.034 -150.419 -644 255 225 210
-120.687 -150.38 -644 250 221 205
-119.155 -150.108 -643 233 199 181
-117.629 -149.836 -642 226 192 172
-115.927 -149.332 -640 237 203 181
-114.413 -149.061 -639 244 210 192
-112.727 -148.558 -637 251 218 199
-111.051 -148.056 -635 255 225 204
-109.384 -147.554 -633 255 226 205
-107.896 -147.286 -632 252 224 202
-106.414 -147.019 -631 248 216 193
-104.771 -146.519 -629 236 204 181
-102.972 -145.787 -626 235 203 180
-101.024 -144.823 -622 250 216 197
-99.2537 -144.092 -619 255 227 209
-97.6551 -143.595 -617 255 234 215
-96.2218 -143.331 -616 255 237 217
-95.1018 -143.533 -617 255 240 218
-93.8263 -143.503 -617 255 239 215
-92.7017 -143.706 -618 255 236 212
-91.5737 -143.909 -619 255 231 207
-90.5883 -144.345 -621 255 225 203
-89.3077 -144.316 -621 251 216 193
-88.1696 -144.52 -622 236 199 175
-86.8885 -144.492 -622 240 202 179
-85.4705 -144.232 -621 253 220 197
-83.7862 -143.508 -618 255 225 203
-82.2485 -143.017 -616 255 227 206
-80.7197 -142.527 -614 255 229 208
-79.3291 -142.27 -613 255 230 207
-77.9434 -142.012 -612 255 233 209
-76.6878 -141.988 -612 255 233 208
-75.6793 -142.427 -614 255 232 206
-74.542 -142.635 -615 253 231 204
-73.2821 -142.612 -615 255 226 201
-72.1399 -142.821 -616 252 222 197
-71.1093 -143.262 -618 249 216 191
-69.6191 -142.776 -616 247 208 183
-68.0266 -142.058 -613 239 197 172
-66.1202 -140.647 -607 220 180 155
-61.1053 -146.316 -632 137 97 79
-60.2906 -147.454 -637 205 161 139
-59.1783 -147.898 -639 238 191 171
-57.7867 -147.648 -638 255 209 191
-56.3996 -147.398 -637 255 213 197
-55.1035 -147.381 -637 255 215 202
-53.8079 -147.364 -637 255 216 203
-52.5127 -147.347 -637 255 214 197
-51.218 -147.33 -637 254 212 191
-49.8453 -147.083 -636 250 208 185
-48.4771 -146.836 -635 242 199 179
-46.9647 -146.127 -632 236 193 172
-45.2481 -144.726 -626 224 184 159
-42.643 -140.319 -607 205 166 147
-128.268 -152.89 -648 213 196 188
-126.32 -152.141 -645 234 209 197
-124.967 -152.1 -645 243 216 202
-123.615 -152.06 -645 254 222 209
-121.884 -151.548 -643 255 227 213
-120.539 -151.509 -643 255 226 211
-119.194 -151.47 -643 241 207 189
-117.667 -151.195 -642 225 191 172
-115.964 -150.687 -640 232 198 176
-114.271 -150.178 -638 244 210 192
-112.587 -149.671 -636 251 218 200
-110.562 -148.693 -632 254 224 203
-108.9 -148.187 -630 255 226 205
-107.419 -147.917 -629 255 227 205
-105.942 -147.647 -628 253 222 199
-104.305 -147.143 -626 242 210 187
-102.511 -146.404 -623 243 211 188
-100.731 -145.666 -620 253 221 201
-98.9649 -144.929 -617 255 226 208
-97.5282 -144.663 -616 255 233 213
-96.0965 -144.397 -615 255 237 216
-94.9782 -144.6 -616 255 238 216
-93.7044 -144.57 -616 254 236 212
-92.5814 -144.774 -617 253 233 209
-91.4551 -144.979 -618 255 228 205
-90.4714 -145.419 -620 254 220 198
-89.1925 -145.39 -620 243 206 184
-88.0561 -145.596 -621 229 190 167
-86.7767 -145.568 -621 244 207 184
-85.2226 -145.071 -619 255 224 200
-83.6775 -144.575 -617 255 225 203
-82.1413 -144.08 -615 255 226 204
-80.614 -143.585 -613 255 228 207
-79.3546 -143.56 -613 255 231 209
-77.9684 -143.3 -612 255 232 210
-76.7123 -143.275 -612 255 231 207
-75.5802 -143.485 -613 254 229 203
-74.4445 -143.695 -614 252 228 199
-73.1863 -143.671 -614 254 225 198
-72.0458 -143.882 -615 249 219 192
-70.9018 -144.093 -616 244 211 186
-69.3022 -143.369 -613 240 201 176
-67.4933 -142.177 -608 232 190 165
-64.9427 -139.35 -596 197 160 137
-60.9313 -147.175 -630 158 120 102
-60.0258 -148.09 -634 219 175 153
-59.0119 -148.772 -637 244 198 178
-57.6239 -148.52 -636 254 210 192
-56.3289 -148.501 -636 255 216 200
-54.948 -148.25 -635 255 216 203
-53.7405 -148.466 -636 255 216 203
-52.4469 -148.449 -636 255 214 197
-51.1538 -148.433 -636 254 212 192
-49.7828 -148.183 -635 248 207 184
-48.4161 -147.934 -634 239 194 174
-46.831 -146.986 -630 227 183 162
-44.9733 -145.105 -622 213 172 147
-42.1646 -139.959 -600 190 151 132
-128.112 -154.028 -647 215 196 188
-126.165 -153.272 -644 235 210 198
-124.62 -152.993 -643 247 218 204
-123.272 -152.952 -643 255 223 210
-121.735 -152.674 -642 255 227 214
-120.203 -152.397 -641 255 227 214
-118.862 -152.357 -641 252 218 200
-117.339 -152.081 -640 235 201 182
-115.64 -151.567 -638 233 199 177
-113.95 -151.055 -636 244 210 190
-112.269 -150.543 -634 252 218 200
-110.423 -149.794 -631 254 224 203
-108.763 -149.283 -629 255 226 205
-107.283 -149.011 -628 255 228 207
-105.808 -148.738 -627 253 223 200
-104.005 -147.993 -624 243 213 190
-102.216 -147.247 -621 245 214 191
-100.602 -146.74 -619 253 221 202
-98.6761 -145.759 -615 255 226 208
-97.2432 -145.49 -614 255 232 212
-95.8151 -145.222 -613 255 235 214
-94.7005 -145.428 -614 255 236 214
-93.4305 -145.397 -614 254 234 210
-92.3113 -145.604 -615 254 232 208
-91.1888 -145.81 -616 255 225 201
-90.2088 -146.254 -618 252 215 192
-88.9336 -146.225 -618 235 196 174
-87.6591 -146.196 -618 231 190 167
-86.5252 -146.404 -619 251 214 191
-84.9747 -145.904 -617 255 223 200
-83.4332 -145.403 -615 255 224 202
-81.9006 -144.904 -613 255 225 204
-80.5085 -144.641 -612 255 228 207
-79.2507 -144.615 -612 255 230 208
-77.8661 -144.353 -611 255 230 208
-76.6117 -144.328 -611 255 230 206
-75.4812 -144.54 -612 255 229 204
-74.3473 -144.751 -613 254 226 201
-73.0907 -144.727 -613 254 225 197
-71.8347 -144.704 -613 247 217 190
-70.5793 -144.681 -613 242 208 184
-68.9852 -143.95 -610 234 195 171
-66.8488 -142.041 -602 219 179 154
-60.6607 -147.792 -627 180 142 126
-59.8557 -148.951 -632 231 187 167
-58.7529 -149.403 -634 253 209 189
-57.4611 -149.384 -634 255 212 194
-56.1698 -149.366 -634 255 216 200
-54.879 -149.348 -634 255 216 202
-53.6732 -149.566 -635 255 214 200
-52.3813 -149.549 -635 255 213 196
-51.1702 -149.768 -636 253 211 191
-49.7987 -149.516 -635 245 205 182
-48.4317 -149.265 -634 238 192 172
-46.7716 -148.072 -629 224 179 159
-44.9154 -146.174 -621 211 168 146
-41.7563 -139.805 -594 175 138 120
-127.758 -154.923 -645 216 198 189
-126.011 -154.401 -643 237 212 200
-124.467 -154.119 -642 250 221 207
-123.121 -154.078 -642 255 226 211
-121.585 -153.797 -641 255 227 214
-120.243 -153.757 -641 255 227 216
-118.716 -153.478 -640 255 224 208
-117.194 -153.199 -639 241 206 189
-115.497 -152.681 -637 233 198 176
-113.629 -151.924 -634 242 208 187
-111.775 -151.168 -631 252 218 198
-110.109 -150.652 -629 255 226 205
-108.453 -150.137 -627 255 228 207
-106.976 -149.862 -626 255 227 206
-105.505 -149.588 -625 253 223 201
-103.539 -148.596 -621 244 214 192
-101.92 -148.083 -619 246 216 195
-100.31 -147.572 -617 254 224 204
-98.548 -146.821 -614 255 228 210
-97.1166 -146.55 -613 255 232 213
-95.8465 -146.518 -613 255 235 214
-94.5773 -146.487 -613 255 235 212
-93.3088 -146.456 -613 255 234 209
-92.0412 -146.425 -613 255 232 207
-90.9224 -146.634 -614 255 224 199
-89.9463 -147.082 -616 249 211 186
-88.6748 -147.053 -616 228 188 163
-87.404 -147.024 -616 235 194 171
-86.2738 -147.234 -617 255 218 196
-84.8647 -146.967 -616 255 221 200
-83.189 -146.224 -613 255 222 203
-81.7937 -145.958 -612 255 223 204
-80.4032 -145.693 -611 255 225 203
-79.147 -145.667 -611 255 227 204
-77.764 -145.403 -610 255 228 205
-76.5112 -145.378 -610 255 228 204
-75.3825 -145.591 -611 255 226 203
-74.1289 -145.567 -611 255 225 203
-72.9953 -145.781 -612 253 223 196
-71.6237 -145.519 -611 246 216 189
-70.2567 -145.258 -610 240 204 181
-68.3289 -143.806 -604 229 190 166
-65.9819 -141.404 -594 202 163 139
-60.4868 -148.635 -625 205 166 153
-59.6857 -149.804 -630 246 199 186
-58.5865 -150.261 -632 255 213 198
-57.2984 -150.242 -632 255 216 202
-56.0994 -150.461 -633 255 218 203
-54.8102 -150.443 -633 255 219 204
-53.606 -150.663 -634 255 217 202
-52.3157 -150.646 -634 255 213 194
-51.1063 -150.866 -635 251 209 187
-49.7364 -150.612 -634 241 200 176
-48.2181 -149.884 -631 236 191 175
-46.5636 -148.681 -626 221 177 160
-44.2064 -145.104 -611 206 162 144
-129.958 -157.309 -649 181 179 184
-127.404 -155.811 -643 215 200 189
-125.661 -155.284 -641 239 215 202
-124.121 -155 -640 252 222 207
-122.586 -154.717 -639 254 228 210
-121.246 -154.676 -639 255 229 215
-119.908 -154.635 -639 255 227 218
-118.384 -154.353 -638 255 224 211
-116.866 -154.072 -637 243 209 194
-115.354 -153.792 -636 237 201 179
-113.487 -153.028 -633 243 210 187
-111.635 -152.265 -630 252 220 197
-109.971 -151.745 -628 255 228 207
-108.489 -151.467 -627 255 229 208
-106.67 -150.706 -624 255 228 207
-105.034 -150.188 -622 250 220 199
-103.24 -149.429 -619 242 212 191
-101.624 -148.912 -617 248 218 197
-99.8549 -148.155 -614 254 225 205
-98.4201 -147.88 -613 255 229 209
-97.1488 -147.848 -613 255 232 213
-95.7219 -147.575 -612 255 234 214
-94.4542 -147.543 -612 255 235 212
-93.1874 -147.512 -612 255 233 211
-91.9214 -147.481 -612 255 231 208
-90.8043 -147.692 -613 254 222 197
-89.6839 -147.903 -614 243 206 181
-88.416 -147.873 -614 224 184 159
-87.2909 -148.085 -615 244 203 180
-86.0226 -148.056 -615 255 221 199
-84.6171 -147.787 -614 255 223 202
-83.0807 -147.278 -612 255 224 205
-81.5533 -146.77 -610 255 225 205
-80.1664 -146.502 -609 255 224 203
-78.9139 -146.476 -609 255 224 203
-77.6621 -146.45 -609 255 226 203
-76.4109 -146.424 -609 255 228 204
-75.1604 -146.399 -609 255 227 203
-73.9105 -146.375 -609 255 225 202
-72.7806 -146.591 -610 251 220 194
-71.2954 -146.087 -608 244 212 185
-69.7038 -145.342 -605 237 198 173
-67.6724 -143.638 -598 221 182 158
-65.0035 -140.494 -585 166 130 107
-60.4098 -149.711 -624 218 178 166
-59.7052 -151.13 -630 249 203 191
-58.513 -151.351 -631 255 211 199
-57.3172 -151.572 -632 255 215 203
-56.0292 -151.553 -632 255 219 205
-54.7415 -151.535 -632 255 220 206
-53.539 -151.757 -633 255 218 204
-52.2503 -151.739 -633 255 215 194
-50.962 -151.722 -633 252 210 187
-49.5957 -151.466 -632 242 200 175
-48.081 -150.731 -629 236 190 174
-46.3556 -149.278 -623 222 175 159
-44.2208 -146.388 -611 207 160 143
-129.802 -158.447 -648 180 177 184
-127.447 -157.181 -643 219 201 193
-125.703 -156.649 -641 243 217 205
-124.163 -156.363 -640 254 223 209
-122.627 -156.076 -639 255 228 212
-121.097 -155.791 -638 255 228 213
-119.76 -155.75 -638 255 227 216
-118.424 -155.71 -638 255 224 210
-116.722 -155.182 -636 244 210 194
-115.211 -154.899 -635 238 202 180
-113.346 -154.129 -632 246 212 190
-111.495 -153.36 -629 254 224 201
-109.832 -152.835 -627 255 228 207
-108.179 -152.311 -625 255 229 208
-106.364 -151.543 -622 255 226 205
-104.731 -151.021 -620 247 216 195
-103.108 -150.499 -618 244 214 193
-101.493 -149.977 -616 251 221 200
-99.8883 -149.457 -614 255 226 205
-98.453 -149.18 -613 255 230 209
-97.0227 -148.904 -612 255 232 212
-95.7538 -148.871 -612 255 233 212
-94.4858 -148.84 -612 255 233 210
-93.2185 -148.808 -612 255 232 210
-91.9521 -148.777 -612 255 230 207
-90.8346 -148.989 -613 253 219 195
-89.7138 -149.202 -614 238 200 175
-88.4455 -149.172 -614 226 186 160
-87.036 -148.9 -613 252 211 188
-85.7713 -148.871 -613 255 221 198
-84.2316 -148.357 -611 255 219 198
-82.8368 -148.086 -610 255 219 199
-81.3129 -147.574 -608 255 220 200
-80.0614 -147.547 -608 255 220 199
-78.8105 -147.52 -608 255 220 198
-77.5604 -147.494 -608 255 222 200
-76.1853 -147.226 -607 254 226 202
-75.0619 -147.443 -608 255 226 202
-73.8137 -147.418 -608 255 223 199
-72.566 -147.394 -608 250 217 191
-71.0844 -146.885 -606 241 207 180
-69.4964 -146.135 -603 235 192 166
-67.3552 -144.173 -595 207 169 143
-60.2361 -150.542 -622 221 181 168
-59.6301 -152.216 -629 246 202 188
-58.4396 -152.438 -630 255 210 197
-57.2454 -152.661 -631 255 215 203
-56.0476 -152.884 -632 255 219 207
-54.7596 -152.866 -632 255 219 207
-53.5567 -153.09 -633 255 216 204
-52.2675 -153.072 -633 255 215 192
-50.9788 -153.055 -633 253 211 187
-49.6121 -152.797 -632 245 201 177
-47.9439 -151.572 -627 238 190 173
-46.0732 -149.622 -619 225 178 160
-43.6562 -145.74 -603 203 159 138
-129.445 -159.336 -646 182 177 186
-127.293 -158.305 -642 223 202 196
-125.55 -157.769 -640 244 217 207
-124.011 -157.48 -639 254 223 210
-122.477 -157.191 -638 255 228 213
-120.949 -156.904 -637 255 227 213
-119.613 -156.863 -637 255 226 214
-118.093 -156.576 -636 255 223 208
-116.211 -155.797 -633 243 209 192
-114.705 -155.512 -632 241 205 183
-112.846 -154.735 -629 249 215 193
-111.001 -153.959 -626 254 224 202
-109.344 -153.43 -624 255 226 205
-107.869 -153.147 -623 255 227 206
-106.058 -152.373 -620 252 221 200
-104.429 -151.846 -618 246 214 193
-102.809 -151.32 -616 249 217 196
-101.198 -150.794 -614 254 224 203
-99.5966 -150.269 -612 255 226 205
-98.1649 -149.99 -611 255 228 207
-96.8968 -149.957 -611 255 231 210
-95.6296 -149.924 -611 255 230 209
-94.3631 -149.892 -611 254 230 208
-93.0975 -149.86 -611 255 229 207
-91.8327 -149.829 -611 255 226 204
-90.5687 -149.798 -611 251 217 193
-89.4516 -150.013 -612 232 194 169
-88.187 -149.983 -612 232 192 166
-86.7812 -149.708 -611 255 217 195
-85.3802 -149.434 -610 255 218 196
-83.9841 -149.161 -609 253 214 193
-82.457 -148.643 -607 250 214 193
-81.2064 -148.615 -607 252 216 196
-79.8248 -148.343 -606 255 218 197
-78.5776 -148.317 -606 255 219 197
-77.2035 -148.046 -605 255 220 198
-75.9597 -148.02 -605 254 223 200
-74.7166 -147.994 -605 255 224 200
-73.474 -147.97 -605 254 221 196
-72.2321 -147.945 -605 251 215 188
-70.6389 -147.187 -602 240 203 176
-68.9432 -146.186 -598 230 186 157
-66.4718 -143.475 -587 187 148 123
-60.2562 -151.854 -622 227 185 172
-59.5552 -153.299 -628 246 203 189
-58.3663 -153.523 -629 255 210 197
-57.1737 -153.748 -630 255 213 200
-55.8889 -153.729 -630 255 215 202
-54.6912 -153.954 -631 255 215 203
-53.4053 -153.936 -631 255 214 202
-52.1198 -153.918 -631 254 211 189
-50.9152 -154.145 -632 251 205 184
-49.4715 -153.64 -630 242 195 175
-47.8069 -152.405 -625 235 187 169
-45.8652 -150.195 -616 225 178 158
-43.2362 -145.547 -597 192 152 129
-129.49 -160.715 -646 186 179 188
-127.138 -159.427 -641 225 200 196
-125.593 -159.135 -640 243 214 207
-124.053 -158.843 -639 254 221 209
-122.519 -158.552 -638 255 226 214
-120.99 -158.262 -637 255 225 213
-119.654 -158.22 -637 255 225 212
-117.948 -157.683 -635 255 222 206
-116.251 -157.146 -633 242 208 191
-114.563 -156.61 -631 244 208 186
-112.705 -155.826 -628 251 216 195
-110.861 -155.044 -625 254 223 202
-109.206 -154.51 -623 255 226 205
-107.56 -153.977 -621 254 225 204
-105.752 -153.196 -618 249 217 196
-103.957 -152.417 -615 247 215 194
-102.176 -151.638 -612 252 220 199
-100.573 -151.108 -610 251 220 199
-99.1421 -150.826 -609 253 221 201
-97.8769 -150.792 -609 255 225 206
-96.6125 -150.759 -609 255 228 209
-95.349 -150.726 -609 255 229 208
-94.2407 -150.941 -610 255 228 205
-92.9768 -150.909 -610 255 225 202
-91.8639 -151.125 -611 253 222 199
-90.5995 -151.094 -611 249 211 187
-89.3358 -151.063 -611 229 190 165
-88.0728 -151.033 -611 240 200 175
-86.6686 -150.756 -610 255 218 196
-85.2692 -150.48 -609 253 215 193
-83.8746 -150.204 -608 252 214 193
-82.3491 -149.682 -606 250 214 192
-81.1001 -149.654 -606 251 215 194
-79.8518 -149.627 -606 253 216 195
-78.4745 -149.353 -605 253 216 194
-77.1019 -149.079 -604 251 215 193
-75.8598 -149.054 -604 251 217 195
-74.6183 -149.028 -604 252 218 195
-73.2559 -148.756 -603 250 214 188
-72.0177 -148.731 -603 244 205 179
-70.4279 -147.967 -600 233 192 167
-68.5051 -146.464 -594 216 171 143
-60.0826 -152.675 -620 223 181 169
-59.3855 -154.132 -626 242 200 187
-58.2003 -154.358 -627 252 206 193
-57.0114 -154.585 -628 254 209 196
-55.8189 -154.812 -629 253 209 196
-54.5362 -154.793 -629 252 206 194
-53.3385 -155.021 -630 253 207 195
-52.0546 -155.003 -630 249 203 183
-50.7712 -154.986 -630 246 198 179
-49.331 -154.477 -628 240 191 173
-47.4404 -152.493 -620 233 185 165
-45.5826 -150.51 -612 217 171 150
-128.933 -161.343 -643 188 181 190
-126.984 -160.546 -640 225 200 196
-125.44 -160.251 -639 242 214 207
-123.708 -159.706 -637 254 221 209
