ply
format ascii 1.0
comment Created by Open3D
element vertex 1425
property double x
property double y
property double z
property uchar red
property uchar green
property uchar blue
end_header
-200.349 -261.898 -1288 37 39 41
-197.083 -261.029 -1284 37 39 39
-193.683 -259.958 -1279 35 37 37
-190.305 -258.888 -1274 34 36 36
-187.244 -258.226 -1271 35 38 35
-184.052 -257.362 -1267 35 38 35
-180.734 -256.296 -1262 35 38 33
-177.58 -255.434 -1258 35 36 33
-174.722 -254.979 -1256 38 38 36
-171.873 -254.524 -1254 38 38 40
-169.034 -254.071 -1252 38 38 40
-166.205 -253.619 -1250 38 38 38
-163.385 -253.167 -1248 37 37 36
-160.446 -252.514 -1245 36 36 34
-157.521 -251.861 -1242 38 38 34
-154.859 -251.615 -1241 41 41 38
-151.957 -250.965 -1238 41 39 37
-149.309 -250.72 -1237 40 38 34
-146.667 -250.477 -1236 40 38 34
-143.914 -250.031 -1234 41 39 35
-141.17 -249.586 -1232 39 37 32
-138.548 -249.345 -1231 39 37 31
-135.82 -248.902 -1229 40 36 35
-133.211 -248.662 -1228 41 38 36
-130.819 -248.828 -1229 43 40 36
-128.32 -248.793 -1229 43 40 38
-125.72 -248.555 -1228 41 38 36
-123.124 -248.318 -1227 41 38 36
-120.633 -248.285 -1227 42 39 32
-118.142 -248.252 -1227 45 43 31
-115.558 -248.017 -1226 49 45 30
-112.979 -247.783 -1225 54 50 33
-110.495 -247.752 -1225 74 71 50
-107.924 -247.52 -1224 85 80 59
-105.444 -247.491 -1224 80 75 54
-102.965 -247.462 -1224 72 69 49
-100.568 -247.636 -1225 64 61 42
-98.169 -247.811 -1226 58 55 37
-95.6884 -247.784 -1226 53 49 39
-93.2085 -247.758 -1226 50 46 36
-90.8034 -247.935 -1227 48 44 36
-88.395 -248.112 -1228 46 43 31
-85.9832 -248.29 -1229 42 40 27
-83.704 -248.873 -1232 49 44 36
-81.4135 -249.456 -1235 50 43 33
-79.2392 -250.444 -1240 73 65 51
-77.1692 -251.836 -1247 154 136 117
-75.2511 -253.835 -1257 199 178 157
-35.9477 -134.863 -668 225 196 175
-34.9634 -136.266 -675 234 203 182
-33.7023 -136.66 -677 244 210 188
-32.3855 -136.853 -678 251 215 193
-31.0193 -136.844 -678 254 218 196
-29.6971 -137.038 -679 255 220 198
-28.3293 -137.03 -679 255 221 200
-26.9221 -136.821 -678 255 222 202
-25.5568 -136.813 -678 255 223 203
-24.156 -136.605 -677 255 225 205
-22.7932 -136.598 -677 255 227 206
-21.3989 -136.391 -676 255 227 206
-20.0087 -136.183 -675 255 228 207
-18.6228 -135.976 -674 255 228 209
-17.2923 -136.173 -675 255 227 208
-15.9343 -136.168 -675 255 228 209
-14.5764 -136.164 -675 255 229 210
-13.2578 -136.564 -677 255 229 210
-11.9137 -136.762 -678 255 229 210
-10.5345 -136.557 -677 255 230 211
-9.17304 -136.555 -677 255 229 210
-7.81161 -136.552 -677 255 229 209
-6.44071 -136.349 -676 255 230 210
-5.06637 -135.944 -674 255 229 209
-3.7112 -135.942 -674 255 227 208
-2.35598 -135.942 -674 255 227 208
-1.00227 -136.143 -675 255 225 206
0.354939 -136.143 -675 255 223 205
1.71714 -136.546 -677 255 222 204
3.08293 -136.749 -678 253 220 202
4.4462 -136.75 -678 250 217 198
5.82657 -137.155 -680 246 213 192
7.20453 -137.358 -681 233 205 189
8.58657 -137.562 -682 211 185 171
9.95809 -137.565 -682 174 164 166
11.3795 -138.173 -685 156 154 160
12.9621 -140.395 -696 153 156 167
-232.633 -281.455 -1368 49 51 55
-224.09 -274.397 -1334 48 50 53
-218.344 -270.632 -1316 45 47 49
-214.641 -269.337 -1310 40 42 44
-210.641 -267.632 -1302 37 39 41
-207.155 -266.546 -1297 36 38 42
-203.376 -265.049 -1290 36 38 41
-200.094 -264.171 -1286 37 39 41
-196.831 -263.293 -1282 37 39 39
-193.585 -262.417 -1278 36 38 38
-190.358 -261.542 -1274 34 36 36
-187.149 -260.667 -1270 34 36 35
-183.958 -259.794 -1266 34 36 35
-180.641 -258.717 -1261 35 38 34
-177.629 -258.051 -1258 35 36 33
-174.631 -257.387 -1255 37 37 33
-171.921 -257.133 -1254 37 39 39
-168.946 -256.47 -1251 35 36 36
-166.385 -256.423 -1251 36 36 34
-163.431 -255.762 -1248 36 37 36
-160.62 -255.307 -1246 34 36 35
-157.565 -254.442 -1242 36 38 37
-154.902 -254.194 -1241 40 40 38
-151.999 -253.536 -1238 42 40 38
-149.351 -253.289 -1237 41 39 35
-146.708 -253.043 -1236 39 37 33
-144.07 -252.798 -1235 40 38 34
-141.209 -252.144 -1232 40 38 33
-138.586 -251.9 -1231 39 37 33
-135.968 -251.657 -1230 38 37 35
-133.356 -251.415 -1229 39 38 36
-130.855 -251.378 -1229 39 38 34
-128.356 -251.342 -1229 39 38 34
-125.857 -251.306 -1229 37 37 33
-123.259 -251.067 -1228 41 40 37
-120.764 -251.033 -1228 40 39 38
-118.271 -251 -1228 38 38 38
-115.684 -250.763 -1227 43 40 39
-113.102 -250.526 -1226 40 37 34
-110.526 -250.291 -1225 41 39 33
-107.954 -250.056 -1224 41 37 32
-105.559 -250.231 -1225 43 39 34
-102.993 -249.997 -1224 43 41 35
-100.596 -250.173 -1225 40 38 33
-98.1962 -250.35 -1226 42 40 35
-95.7148 -250.323 -1226 44 41 41
-93.1582 -250.092 -1225 45 42 42
-90.8285 -250.475 -1227 46 43 43
-88.4194 -250.654 -1228 45 42 42
-86.007 -250.834 -1229 46 43 43
-83.7272 -251.423 -1232 51 47 47
-81.4359 -252.012 -1235 49 44 42
-79.1971 -252.806 -1239 60 54 48
-77.1286 -254.213 -1246 136 119 103
-75.0324 -255.619 -1253 194 173 156
-35.9577 -136.244 -668 224 194 173
-34.8176 -137.05 -672 232 201 180
-33.612 -137.653 -675 243 209 187
-32.2989 -137.847 -676 250 215 193
-30.9363 -137.839 -676 253 218 196
-29.6177 -138.034 -677 255 220 197
-28.2536 -138.026 -677 255 221 199
-26.85 -137.815 -676 255 223 202
-25.4884 -137.807 -676 255 223 202
-24.127 -137.8 -676 255 224 203
-22.7658 -137.794 -676 255 226 205
-21.4048 -137.788 -676 255 227 206
-20.0142 -137.578 -675 255 228 207
-18.6279 -137.369 -674 255 228 209
-17.2714 -137.364 -674 255 227 208
-15.8678 -136.952 -672 255 228 209
-14.5156 -136.948 -672 255 229 210
-13.2027 -137.351 -674 255 229 210
-11.8642 -137.552 -675 255 228 209
-10.5063 -137.549 -675 255 229 210
-9.162 -137.75 -676 255 229 210
-7.80223 -137.747 -676 255 229 209
-6.42341 -137.338 -674 255 229 209
-5.06025 -137.133 -673 255 228 209
-3.70666 -137.131 -673 255 227 208
-2.3531 -137.131 -673 255 227 208
-0.99955 -137.13 -673 255 225 206
0.354514 -137.334 -674 255 223 204
1.71514 -137.742 -676 255 222 204
3.07928 -137.946 -677 254 220 200
4.44082 -137.947 -677 252 218 198
5.82819 -138.56 -680 248 214 192
7.20659 -138.765 -681 236 206 189
8.58899 -138.971 -682 219 191 176
9.96088 -138.974 -682 185 170 168
11.3827 -139.588 -685 158 153 158
-232.359 -283.898 -1366 43 45 49
-223.818 -276.767 -1332 45 47 50
-218.572 -273.588 -1317 44 46 48
-214.538 -271.864 -1309 40 42 44
-210.539 -270.142 -1301 38 40 42
-207.214 -269.252 -1297 37 39 43
-203.591 -267.948 -1291 36 38 41
-200.151 -266.853 -1286 36 38 40
-196.733 -265.759 -1281 36 38 38
-193.792 -265.289 -1279 36 38 38
-190.562 -264.405 -1275 35 38 37
-187.349 -263.521 -1271 35 37 37
-184.301 -262.847 -1268 34 36 36
-180.979 -261.758 -1263 34 37 34
-177.962 -261.086 -1260 35 36 33
-174.82 -260.207 -1256 37 37 34
-172.107 -259.951 -1255 34 37 35
-169.264 -259.488 -1253 36 38 36
-166.431 -259.026 -1251 35 36 33
-163.608 -258.565 -1249 34 36 35
-160.665 -257.898 -1246 36 38 37
-157.609 -257.026 -1242 38 39 39
-154.946 -256.774 -1241 38 38 39
-152.042 -256.11 -1238 41 40 41
-149.393 -255.861 -1237 41 40 39
-146.749 -255.612 -1236 40 39 37
-144.111 -255.364 -1235 41 40 38
-141.363 -254.91 -1233 40 39 36
-138.85 -254.871 -1233 40 38 35
-136.117 -254.419 -1231 37 38 37
-133.502 -254.174 -1230 38 39 37
-130.998 -254.136 -1230 39 40 37
-128.496 -254.1 -1230 41 42 39
-125.995 -254.064 -1230 38 39 36
-123.294 -253.616 -1228 37 39 36
-120.798 -253.581 -1228 38 39 37
-118.304 -253.548 -1228 40 42 41
-115.717 -253.308 -1227 38 37 36
-113.134 -253.069 -1226 42 41 40
-110.556 -252.832 -1225 40 39 36
-108.072 -252.801 -1225 41 39 37
-105.589 -252.771 -1225 46 44 42
-103.022 -252.535 -1224 41 41 41
-100.624 -252.713 -1225 40 39 39
-98.3038 -253.097 -1227 43 42 40
-95.7416 -252.864 -1226 44 43 42
-93.1843 -252.631 -1225 44 43 42
-90.9279 -253.224 -1228 44 44 40
-88.5882 -253.611 -1230 47 45 46
-86.101 -253.586 -1230 48 45 48
-83.8186 -254.181 -1233 47 43 44
-81.4587 -254.57 -1235 50 46 45
-79.2193 -255.372 -1239 56 51 46
-77.0882 -256.587 -1245 124 108 94
-75.0534 -258.214 -1253 189 170 154
-35.6985 -136.597 -663 219 190 169
-34.7237 -138.029 -670 231 200 179
-33.5715 -138.844 -674 242 208 186
-32.2601 -139.04 -675 248 214 192
-30.8992 -139.032 -675 252 218 197
-29.5385 -139.023 -675 255 220 196
-28.178 -139.015 -675 255 221 198
-26.7781 -138.801 -674 255 222 200
-25.4201 -138.794 -674 255 223 201
-24.0623 -138.787 -674 255 224 202
-22.7385 -138.987 -675 255 226 205
-21.3473 -138.774 -674 255 227 206
-19.9308 -138.357 -672 255 227 206
-18.5502 -138.146 -671 255 227 208
-17.2249 -138.347 -672 255 227 208
-15.825 -137.93 -670 255 229 210
-14.4764 -137.926 -670 255 229 210
-13.1475 -138.128 -671 255 229 210
-11.8148 -138.33 -672 255 228 209
-10.4625 -138.327 -672 255 228 209
-9.13743 -138.736 -674 255 227 208
-7.78128 -138.734 -674 255 227 208
-6.40616 -138.32 -672 255 227 208
-5.05414 -138.318 -672 255 227 208
-3.7022 -138.317 -672 255 226 207
-2.3468 -138.111 -671 255 226 207
-0.998321 -138.316 -672 255 225 207
0.354089 -138.522 -673 255 224 205
1.71306 -138.934 -675 255 222 203
3.071 -138.934 -675 254 220 200
4.43552 -139.141 -676 253 219 198
5.81267 -139.554 -678 249 215 193
7.18742 -139.762 -679 240 210 192
8.56616 -139.97 -680 229 200 184
9.93438 -139.973 -680 198 178 174
11.3526 -140.593 -683 166 157 160
12.783 -141.214 -686 152 151 159
14.432 -143.894 -699 152 153 165
-232.085 -286.334 -1364 41 43 46
-223.714 -279.342 -1331 44 46 48
-218.801 -276.55 -1318 45 45 46
-214.436 -274.39 -1308 42 43 44
-210.276 -272.441 -1299 39 41 42
-206.953 -271.542 -1295 38 40 44
-203.334 -270.225 -1289 38 39 42
-200.208 -269.538 -1286 37 37 39
-196.943 -268.642 -1282 34 36 36
-193.999 -268.167 -1280 36 38 38
-190.766 -267.274 -1276 35 39 38
-187.55 -266.382 -1272 35 37 37
-184.353 -265.491 -1268 35 37 37
-181.031 -264.392 -1263 34 37 34
-178.154 -263.921 -1261 35 37 35
-175.148 -263.243 -1258 37 37 37
-172.43 -262.984 -1257 34 38 33
-169.583 -262.517 -1255 35 39 34
-166.745 -262.05 -1253 36 39 34
-163.786 -261.375 -1250 36 39 36
-160.969 -260.911 -1248 34 37 34
-157.908 -260.029 -1244 40 40 40
-155.115 -259.566 -1242 39 38 41
-152.085 -258.686 -1238 38 37 43
-149.435 -258.434 -1237 38 38 40
-146.672 -257.974 -1235 37 37 39
-144.035 -257.724 -1234 39 39 39
-141.404 -257.474 -1233 40 39 37
-138.89 -257.434 -1233 42 40 38
-136.266 -257.186 -1232 37 38 38
-133.648 -256.939 -1231 37 39 37
-131.142 -256.901 -1231 36 39 36
-128.532 -256.655 -1230 37 40 37
-125.928 -256.411 -1229 37 40 37
-123.328 -256.166 -1228 39 41 39
-120.833 -256.132 -1228 39 41 38
-118.338 -256.098 -1228 40 43 40
-115.749 -255.856 -1227 40 40 38
-113.351 -256.032 -1228 41 41 38
-110.768 -255.791 -1227 40 40 38
-108.279 -255.76 -1227 40 40 39
-105.705 -255.521 -1226 40 40 40
-103.22 -255.491 -1226 39 39 42
-100.653 -255.254 -1225 39 39 41
-98.2515 -255.434 -1226 42 42 42
-95.7687 -255.407 -1226 42 42 40
-93.2867 -255.38 -1226 44 44 41
-90.9536 -255.77 -1228 44 46 40
-88.6852 -256.37 -1231 44 44 43
-86.2654 -256.553 -1232 45 43 46
-83.8423 -256.737 -1233 46 44 43
-81.4817 -257.13 -1235 48 45 44
-79.1777 -257.732 -1238 48 44 42
-76.9861 -258.751 -1243 108 94 81
-74.9547 -260.394 -1251 182 165 150
-35.6547 -137.763 -662 217 188 167
-34.6298 -139.001 -668 231 200 179
-33.5311 -140.032 -673 241 207 185
-32.2214 -140.231 -674 247 213 192
-30.8621 -140.222 -674 252 218 198
-29.503 -140.213 -674 255 220 196
-28.1442 -140.205 -674 255 221 197
-26.7459 -139.989 -673 255 222 200
-25.3895 -139.982 -673 255 223 201
-24.0334 -139.975 -673 255 223 202
-22.6774 -139.968 -673 255 225 204
-21.29 -139.754 -672 255 227 206
-19.9068 -139.54 -671 255 227 206
-18.5277 -139.327 -670 255 227 208
-17.1785 -139.322 -670 255 228 209
-15.8058 -139.109 -669 255 228 209
-14.4589 -139.105 -669 255 229 210
-13.112 -139.101 -669 255 229 210
-11.7829 -139.305 -670 255 228 209
-10.4343 -139.302 -670 255 227 208
-9.0993 -139.507 -671 255 227 208
-7.74883 -139.505 -671 255 227 208
-6.39841 -139.503 -671 255 226 207
-5.04804 -139.501 -671 255 226 207
-3.69776 -139.5 -671 255 225 207
-2.34392 -139.291 -670 255 224 206
-0.997177 -139.499 -671 255 224 206
0.352612 -139.291 -670 255 224 204
1.70591 -139.707 -672 255 224 203
3.06281 -139.916 -673 254 220 200
4.42367 -140.125 -674 252 218 198
5.79724 -140.542 -676 249 215 193
7.16825 -140.752 -677 243 214 196
8.54342 -140.962 -678 234 206 190
9.9372 -141.38 -680 206 184 176
11.3725 -142.215 -684 172 161 161
12.7493 -142.218 -684 156 153 157
14.2295 -143.262 -689 150 151 163
-231.642 -288.553 -1361 37 39 41
-224.115 -282.551 -1333 43 44 46
-219.363 -279.943 -1321 44 44 45
-214.826 -277.549 -1310 41 43 44
-210.822 -275.792 -1302 40 42 43
-207.333 -274.672 -1297 38 40 44
-203.393 -272.919 -1289 38 40 42
-200.11 -272.013 -1285 37 38 40
-196.692 -270.897 -1280 33 35 35
-193.903 -270.629 -1279 35 37 37
-190.671 -269.727 -1275 34 38 37
-187.457 -268.826 -1271 35 36 36
-184.261 -267.926 -1267 38 39 39
-181.083 -267.027 -1263 37 38 37
-178.206 -266.552 -1261 35 36 35
-175.199 -265.867 -1258 33 35 35
-172.48 -265.605 -1257 34 37 34
-169.632 -265.133 -1255 36 38 36
-166.793 -264.662 -1253 37 37 36
-163.833 -263.981 -1250 36 37 35
-161.144 -263.722 -1249 36 37 35
-158.081 -262.832 -1245 39 39 38
-155.159 -262.153 -1242 41 41 40
-152.374 -261.687 -1240 41 41 41
-149.478 -261.01 -1237 39 39 37
-146.833 -260.756 -1236 37 37 35
-144.193 -260.503 -1235 38 38 37
-141.559 -260.251 -1234 38 38 35
-138.93 -260 -1233 36 36 32
-136.416 -259.96 -1233 36 37 32
-133.795 -259.71 -1232 37 38 33
-131.286 -259.672 -1232 38 39 35
-128.674 -259.424 -1231 37 38 35
-126.067 -259.177 -1230 39 39 37
-123.464 -258.93 -1229 39 39 37
-120.867 -258.684 -1228 39 40 38
-118.372 -258.65 -1228 41 42 40
-115.877 -258.616 -1228 42 42 39
-113.383 -258.583 -1228 42 42 38
-110.8 -258.34 -1227 40 40 36
-108.222 -258.098 -1226 39 39 37
-105.649 -257.857 -1225 39 39 38
-103.165 -257.827 -1225 42 42 42
-100.682 -257.798 -1225 42 42 42
-98.1994 -257.769 -1225 43 43 43
-95.796 -257.952 -1226 42 42 40
-93.3894 -258.135 -1227 43 43 41
-91.0537 -258.529 -1229 43 44 41
-88.7105 -258.924 -1231 42 44 39
-86.3601 -259.32 -1233 42 44 38
-83.9341 -259.506 -1234 42 44 39
-81.5709 -259.903 -1236 45 45 42
-79.2003 -260.3 -1238 47 43 42
-77.0081 -261.329 -1243 96 82 74
-74.8562 -262.568 -1249 179 161 151
-35.6648 -139.135 -662 217 187 167
-34.5878 -140.176 -667 229 199 177
-33.4909 -141.217 -672 240 206 183
-32.1828 -141.418 -673 247 213 192
-30.8251 -141.409 -673 251 217 197
-29.4676 -141.4 -673 255 220 196
-28.1104 -141.392 -673 255 220 197
-26.7137 -141.174 -672 255 222 200
-25.3213 -140.957 -671 255 223 201
-23.9688 -140.949 -671 255 223 201
-22.6165 -140.943 -671 255 225 204
-21.2327 -140.726 -670 255 226 205
-19.8531 -140.511 -669 255 227 206
-18.4777 -140.295 -668 255 228 209
-17.1321 -140.29 -668 255 228 209
-15.7866 -140.285 -668 255 228 209
-14.4197 -140.071 -667 255 229 210
-13.0962 -140.277 -668 255 229 210
-11.7863 -140.693 -670 255 228 209
-10.4372 -140.69 -670 255 227 208
-9.08831 -140.687 -670 255 227 208
-7.75103 -140.895 -671 255 227 208
-6.40021 -140.893 -671 255 226 207
-5.04195 -140.681 -670 255 225 206
-3.69323 -140.68 -670 255 225 207
-2.34112 -140.469 -669 255 225 207
-0.994464 -140.469 -669 255 224 206
0.352714 -140.679 -670 255 224 204
1.70638 -141.099 -672 255 224 203
3.05909 -141.1 -672 255 222 202
4.41838 -141.311 -673 253 219 198
5.78174 -141.522 -674 250 216 194
7.14909 -141.734 -675 243 214 198
8.5206 -141.946 -676 237 210 195
9.8962 -142.159 -677 218 193 183
11.3092 -142.792 -680 186 172 169
12.7157 -143.215 -682 162 155 157
-231.88 -291.618 -1362 38 40 42
-225.021 -286.412 -1338 41 42 44
-219.759 -283.137 -1323 42 43 45
-215.545 -281.147 -1314 40 42 44
-211.532 -279.372 -1306 40 42 44
-207.394 -277.386 -1297 40 42 44
-203.294 -275.401 -1288 39 41 43
-200.48 -275.128 -1287 36 38 40
-197.365 -274.428 -1284 34 36 36
-194.111 -273.516 -1280 34 36 36
-190.876 -272.605 -1276 34 36 36
-187.659 -271.695 -1272 34 35 35
-184.315 -270.572 -1267 38 38 38
-181.279 -269.878 -1264 38 38 38
-178.257 -269.185 -1261 35 36 36
-175.389 -268.707 -1259 35 37 37
-172.667 -268.442 -1258 35 37 37
-169.816 -267.965 -1256 35 37 37
-166.975 -267.489 -1254 37 37 37
-164.012 -266.801 -1251 38 38 37
-161.191 -266.327 -1249 37 37 35
-158.126 -265.428 -1245 39 39 37
-155.454 -265.169 -1244 39 39 37
-152.664 -264.698 -1242 39 39 37
-149.884 -264.227 -1240 39 39 35
-146.995 -263.545 -1237 37 37 34
-144.352 -263.289 -1236 38 38 36
-141.715 -263.035 -1235 37 37 34
-139.082 -262.781 -1234 36 36 32
-136.566 -262.74 -1234 36 36 31
-133.943 -262.488 -1233 38 38 33
-131.324 -262.237 -1232 40 40 37
-128.606 -261.773 -1230 39 39 36
-126 -261.524 -1229 37 37 35
-123.5 -261.487 -1229 39 39 37
-120.902 -261.239 -1228 39 39 37
-118.406 -261.204 -1228 39 39 37
-115.91 -261.17 -1228 41 41 38
-113.416 -261.137 -1228 42 42 39
-110.832 -260.892 -1227 40 40 37
-108.253 -260.647 -1226 40 40 37
-105.766 -260.616 -1226 40 40 38
-103.279 -260.586 -1226 43 43 43
-100.711 -260.344 -1225 43 43 43
-98.3079 -260.527 -1226 42 42 42
-95.9019 -260.712 -1227 41 41 39
-93.4164 -260.684 -1227 43 43 41
-91.154 -261.295 -1230 43 43 41
-88.8082 -261.694 -1232 41 43 38
-86.3849 -261.881 -1233 41 44 37
-83.9583 -262.068 -1234 40 42 37
-81.6605 -262.681 -1237 46 46 42
-79.223 -262.87 -1238 46 42 41
-77.0302 -263.909 -1243 85 72 65
-74.9377 -265.374 -1250 172 155 147
-73.3389 -268.749 -1266 214 188 170
-35.5673 -140.085 -660 215 186 167
-34.5459 -141.348 -666 229 199 178
-33.4008 -142.187 -670 239 206 182
-32.0963 -142.39 -671 248 214 192
-30.7881 -142.593 -672 251 217 196
-29.4323 -142.584 -672 255 220 196
-28.035 -142.364 -671 255 220 197
-26.6419 -142.144 -670 255 222 200
-25.2531 -141.924 -669 255 222 200
-23.8685 -141.705 -668 255 223 202
-22.5218 -141.698 -668 255 225 204
-21.1754 -141.692 -668 255 226 205
-19.7994 -141.474 -667 255 227 206
-18.4553 -141.468 -667 255 227 208
-17.1113 -141.463 -667 255 228 209
-15.7675 -141.458 -667 255 229 209
-14.4023 -141.242 -666 255 229 210
-13.0803 -141.45 -667 255 228 209
-11.7368 -141.446 -667 255 229 209
-10.3935 -141.443 -667 255 227 207
-9.06379 -141.653 -668 255 227 207
-7.73014 -141.862 -669 255 226 206
-6.38298 -141.86 -669 254 225 205
-5.03587 -141.859 -669 254 224 204
-3.6888 -141.857 -669 255 224 205
-2.33475 -141.432 -667 255 223 204
-0.991754 -141.432 -667 255 222 204
0.351765 -141.644 -668 255 223 203
1.69931 -141.856 -669 255 223 202
3.04179 -141.645 -668 255 221 202
4.39997 -142.07 -670 252 220 200
5.75766 -142.283 -671 250 219 197
7.11942 -142.497 -672 245 215 198
8.48526 -142.712 -673 243 213 197
9.84058 -142.714 -673 233 203 188
11.2459 -143.354 -676 203 181 173
12.6447 -143.781 -678 168 153 149
13.969 -143.361 -676 149 151 161
-231.268 -293.609 -1358 45 47 49
-225.256 -289.433 -1339 38 40 42
-220.156 -286.341 -1325 39 41 43
-216.265 -284.764 -1318 40 42 44
-212.404 -283.188 -1311 40 42 44
-207.935 -280.75 -1300 40 42 44
-204.302 -279.393 -1294 40 42 44
-200.384 -277.606 -1286 38 40 42
-197.115 -276.683 -1282 36 38 38
-194.017 -275.978 -1279 34 36 36
-190.783 -275.058 -1275 34 36 36
-187.714 -274.355 -1272 34 34 34
-184.223 -273.006 -1266 37 37 37
-181.332 -272.52 -1264 37 37 37
-178.451 -272.036 -1262 36 37 37
-175.58 -271.553 -1260 36 38 38
-172.718 -271.07 -1258 36 39 37
-170.001 -270.804 -1257 35 38 36
-167.024 -270.108 -1254 38 38 38
-164.06 -269.413 -1251 38 38 37
-161.239 -268.934 -1249 38 38 36
-158.173 -268.026 -1245 38 38 36
-155.375 -267.549 -1243 38 38 36
-152.586 -267.073 -1241 39 39 37
-149.928 -266.814 -1240 38 38 36
-147.156 -266.34 -1238 36 36 34
-144.511 -266.082 -1237 37 37 35
-141.756 -265.609 -1235 37 37 33
-139.236 -265.568 -1235 38 38 34
-136.496 -265.097 -1233 37 37 33
-133.982 -265.058 -1233 37 37 34
-131.256 -264.589 -1231 41 41 39
-128.644 -264.336 -1230 40 40 38
-126.037 -264.083 -1229 37 37 35
-123.637 -264.261 -1230 38 38 36
-121.036 -264.011 -1229 40 40 38
-118.44 -263.761 -1228 37 37 35
-115.944 -263.726 -1228 38 38 36
-113.449 -263.693 -1228 41 41 39
-110.864 -263.445 -1227 39 39 37
-108.285 -263.198 -1226 40 40 39
-105.883 -263.382 -1227 42 42 41
-103.309 -263.136 -1226 43 43 43
-100.822 -263.106 -1226 43 43 43
-98.3366 -263.077 -1226 43 43 43
-95.9298 -263.263 -1227 42 42 40
-93.5197 -263.45 -1228 43 43 41
-91.1064 -263.638 -1229 43 43 41
-88.834 -264.255 -1232 41 42 37
-86.41 -264.444 -1233 41 44 37
-83.9827 -264.633 -1234 40 40 37
-81.6842 -265.252 -1237 47 45 42
-79.2461 -265.443 -1238 47 43 42
-77.1766 -266.921 -1245 79 65 59
-74.8396 -267.542 -1248 164 148 139
-35.5776 -141.456 -660 211 186 168
-34.5559 -142.731 -666 226 199 180
-33.3606 -143.364 -669 239 207 185
-32.1057 -143.783 -671 248 214 191
-30.7054 -143.56 -670 253 217 194
-29.3971 -143.765 -671 254 219 196
-28.0013 -143.543 -670 255 221 199
-26.6098 -143.321 -669 255 222 200
-25.2226 -143.099 -668 255 222 200
-23.8397 -142.877 -667 255 223 201
-22.4609 -142.656 -666 255 225 203
-21.1181 -142.65 -666 255 226 205
-19.7458 -142.43 -665 255 227 206
-18.4053 -142.424 -665 255 228 209
-17.0907 -142.633 -666 255 230 210
-15.7485 -142.629 -666 255 230 208
-14.3848 -142.41 -665 255 228 209
-13.0645 -142.62 -666 255 228 209
-11.7226 -142.617 -666 255 229 207
-10.3653 -142.399 -665 255 228 206
-9.02568 -142.396 -665 255 228 206
-7.6977 -142.608 -666 255 227 205
-6.35618 -142.606 -666 254 226 204
-5.02227 -142.818 -667 255 225 204
-3.67885 -142.817 -667 255 224 203
-2.32838 -142.388 -665 255 223 202
-0.990531 -142.602 -666 254 221 202
0.350288 -142.388 -665 255 222 202
1.6947 -142.816 -667 255 223 202
3.03353 -142.603 -666 253 220 202
4.38156 -142.818 -667 250 218 200
5.74216 -143.248 -669 248 219 198
7.10027 -143.464 -670 249 216 199
8.44985 -143.466 -670 248 215 199
9.8142 -143.683 -671 242 209 191
11.1992 -144.114 -673 221 195 183
12.5551 -144.118 -673 189 168 160
13.8904 -143.907 -672 148 149 157
-231.507 -296.676 -1359 49 53 54
-225.828 -292.897 -1342 37 41 42
-220.887 -289.993 -1329 38 40 42
-217.15 -288.618 -1323 37 39 41
-212.792 -286.372 -1313 37 39 41
-208.637 -284.346 -1304 39 41 43
-204.205 -281.886 -1293 41 43 45
-200.599 -280.518 -1287 39 41 43
-197.174 -279.368 -1282 38 40 40
-194.075 -278.656 -1279 36 38 38
-190.84 -277.727 -1275 34 36 36
-187.475 -276.582 -1270 35 36 36
-184.424 -275.873 -1267 37 37 37
-181.243 -274.947 -1263 36 36 36
-178.363 -274.458 -1261 37 38 38
-175.632 -274.188 -1260 37 39 39
-172.907 -273.918 -1259 36 39 36
-170.187 -273.649 -1258 35 38 35
-167.34 -273.164 -1256 38 38 38
-164.371 -272.462 -1253 39 39 38
-161.286 -271.544 -1249 39 39 37
-158.347 -270.844 -1246 39 39 37
-155.546 -270.363 -1244 38 38 36
-152.631 -269.665 -1241 39 39 38
-149.852 -269.185 -1239 38 38 37
-147.081 -268.707 -1237 36 36 34
-144.554 -268.663 -1237 37 37 35
-141.683 -267.969 -1234 37 37 35
-139.164 -267.927 -1234 39 39 36
-136.425 -267.452 -1232 38 38 36
-133.913 -267.412 -1232 38 38 36
-131.188 -266.939 -1230 40 40 38
-128.577 -266.683 -1229 39 39 37
-125.972 -266.428 -1228 38 38 36
-123.472 -266.391 -1228 39 39 37
-120.973 -266.355 -1228 39 39 37
-118.475 -266.32 -1228 38 38 36
-115.978 -266.285 -1228 38 38 36
-113.482 -266.251 -1228 41 41 39
-110.897 -266.001 -1227 39 39 37
-108.317 -265.752 -1226 40 40 39
-105.914 -265.937 -1227 41 41 41
-103.424 -265.906 -1227 42 42 42
-100.852 -265.659 -1226 42 42 42
-98.3655 -265.629 -1226 43 43 43
-95.958 -265.817 -1227 43 43 41
-93.5473 -266.006 -1228 44 44 42
-91.1332 -266.195 -1229 44 44 42
-88.788 -266.602 -1231 42 42 39
-86.3654 -266.792 -1232 43 43 39
-84.0074 -267.2 -1234 41 41 38
-81.6421 -267.609 -1236 44 42 40
-79.2694 -268.018 -1238 48 44 43
-77.1993 -269.51 -1245 74 62 56
-75.0415 -270.787 -1251 153 139 132
-35.5342 -142.611 -659 211 185 168
-34.4623 -143.683 -664 224 198 179
-33.2707 -144.322 -667 238 206 185
-32.0194 -144.745 -669 247 213 190
-30.6686 -144.736 -669 252 216 192
-29.318 -144.727 -669 253 217 195
-28.0095 -144.935 -670 255 220 198
-26.5779 -144.494 -668 255 221 199
-25.1923 -144.27 -667 255 222 200
-23.8109 -144.047 -666 255 223 201
-22.4001 -143.608 -664 255 224 202
-21.0609 -143.601 -664 255 227 205
-19.6922 -143.379 -663 255 228 207
-18.3553 -143.373 -663 255 228 207
-17.0187 -143.368 -663 255 230 209
-15.7058 -143.579 -664 255 230 208
-14.3457 -143.359 -663 255 229 209
-13.029 -143.571 -664 255 229 210
-11.6909 -143.567 -664 254 228 206
-10.3528 -143.564 -664 255 228 206
-9.01475 -143.561 -664 255 227 205
-7.68839 -143.775 -665 254 226 204
-6.3485 -143.773 -665 254 226 204
-5.00867 -143.771 -665 255 225 204
-3.66883 -143.77 -665 255 225 204
-2.3221 -143.337 -663 255 224 203
-0.987822 -143.553 -664 254 222 201
0.349339 -143.336 -663 253 221 200
1.68756 -143.553 -664 253 221 200
3.0299 -143.77 -665 252 219 201
4.37621 -143.987 -666 250 218 199
5.72667 -144.205 -667 249 218 197
7.09172 -144.639 -669 248 216 199
8.43974 -144.641 -669 246 213 197
9.80245 -144.86 -670 243 210 192
11.1692 -145.08 -671 230 204 191
12.5401 -145.299 -672 200 179 170
13.8532 -144.871 -670 160 156 163
-231.406 -299.31 -1358 43 47 48
-226.065 -295.935 -1343 36 40 41
-221.286 -293.224 -1331 35 37 39
-217.544 -291.835 -1325 35 37 39
-213.505 -290.008 -1317 36 38 40
-209.02 -287.522 -1306 38 40 42
-204.74 -285.258 -1296 39 41 43
-200.66 -283.216 -1287 38 40 42
-197.233 -282.056 -1282 37 39 39
-193.981 -281.117 -1278 35 37 37
-190.598 -279.959 -1273 35 37 37
-187.827 -279.682 -1272 36 37 37
-184.479 -278.526 -1267 37 37 37
-181.297 -277.592 -1263 36 36 36
-178.133 -276.659 -1259 36 37 37
-175.545 -276.605 -1259 35 37 37
-172.821 -276.333 -1258 37 39 37
-170.103 -276.062 -1257 37 39 37
-167.257 -275.572 -1255 39 39 39
-164.42 -275.083 -1253 38 38 37
-161.335 -274.156 -1249 36 36 34
-158.267 -273.23 -1245 37 37 35
-155.592 -272.963 -1244 39 39 38
-152.677 -272.259 -1241 39 39 39
-149.896 -271.774 -1239 38 38 37
-147.125 -271.291 -1237 37 37 35
-144.714 -271.466 -1238 38 38 36
-141.726 -270.546 -1234 39 39 37
-139.093 -270.285 -1233 40 40 38
-136.466 -270.025 -1232 39 39 36
-133.953 -269.984 -1232 40 40 37
-131.121 -269.287 -1229 40 40 38
-128.616 -269.248 -1229 37 37 35
-126.112 -269.21 -1229 38 38 36
-123.609 -269.172 -1229 39 39 38
-121.108 -269.136 -1229 39 39 37
-118.607 -269.1 -1229 39 39 37
-116.107 -269.065 -1229 41 41 39
-113.516 -268.811 -1228 42 42 40
-110.93 -268.559 -1227 41 41 39
-108.349 -268.307 -1226 40 40 40
-105.859 -268.275 -1226 38 38 38
-103.454 -268.463 -1227 39 39 39
-100.882 -268.213 -1226 41 41 41
-98.3948 -268.184 -1226 44 44 44
-95.9865 -268.373 -1227 43 43 42
-93.575 -268.564 -1228 45 45 43
-91.1603 -268.755 -1229 45 45 43
-88.8144 -269.165 -1231 42 42 39
-86.4611 -269.576 -1233 42 42 38
-84.0324 -269.77 -1234 42 42 40
-81.7324 -270.401 -1237 41 40 38
-79.421 -271.032 -1240 47 43 42
-77.2843 -272.32 -1246 68 57 52
-75.1238 -273.609 -1252 142 129 122
-73.6934 -277.739 -1271 206 182 165
-35.4908 -143.764 -658 209 184 166
-34.4725 -145.065 -664 223 196 178
-33.2805 -145.71 -667 236 204 183
-31.9331 -145.7 -667 245 211 188
-30.586 -145.691 -667 250 214 191
-29.239 -145.682 -667 252 216 194
-27.9342 -145.892 -668 254 219 197
-26.546 -145.665 -667 254 220 198
-25.1619 -145.439 -666 255 221 199
-23.7464 -144.995 -664 255 222 200
-22.3729 -144.77 -663 255 224 202
-20.9719 -144.327 -661 255 226 205
-19.6088 -144.103 -660 255 228 207
-18.2777 -144.097 -660 255 229 208
-16.9723 -144.31 -661 255 228 207
-15.6395 -144.305 -661 255 230 208
-14.3067 -144.301 -661 255 229 209
-12.9937 -144.515 -662 255 228 208
-11.6767 -144.73 -663 255 228 206
-10.3246 -144.508 -662 255 227 206
-9.00385 -144.723 -663 255 226 205
-7.66752 -144.721 -663 254 225 204
-6.33125 -144.719 -663 254 225 204
-4.99507 -144.717 -663 255 226 205
-3.65889 -144.716 -663 255 224 203
-2.31923 -144.497 -662 255 223 202
-0.986683 -144.715 -663 254 222 201
0.349445 -144.714 -663 252 220 199
1.68812 -144.933 -664 252 220 199
3.02628 -144.934 -664 252 219 199
4.37095 -145.153 -665 251 219 199
5.71977 -145.373 -666 250 219 198
7.08327 -145.811 -668 249 216 198
8.41703 -145.595 -667 247 214 197
9.77609 -145.816 -668 242 211 192
11.1226 -145.819 -668 234 208 193
12.4692 -145.823 -668 215 193 181
13.7539 -145.172 -665 178 170 175
-231.988 -302.833 -1361 30 34 36
-226.47 -299.203 -1345 26 30 32
-221.686 -296.465 -1333 27 29 32
-217.939 -295.063 -1327 32 34 37
-213.732 -292.996 -1318 35 37 40
-209.564 -290.931 -1309 37 39 41
-204.644 -287.756 -1295 37 39 41
-200.877 -286.139 -1288 38 40 42
-197.293 -284.746 -1282 37 39 40
-194.192 -284.02 -1279 35 37 39
-190.955 -283.073 -1275 36 38 40
-188.031 -282.571 -1273 36 38 39
-184.681 -281.404 -1268 37 39 39
-181.639 -280.683 -1265 34 36 36
-178.471 -279.741 -1261 34 36 36
-175.738 -279.465 -1260 34 36 36
-172.874 -278.968 -1258 36 38 38
-170.29 -278.916 -1258 37 39 39
-167.44 -278.421 -1256 38 39 39
-164.47 -277.706 -1253 38 38 37
-161.383 -276.77 -1249 36 36 34
-158.442 -276.057 -1246 37 37 35
-155.514 -275.344 -1243 41 41 40
-152.6 -274.633 -1240 40 40 40
-149.942 -274.366 -1239 39 39 38
-147.169 -273.878 -1237 37 37 35
-144.641 -273.833 -1237 38 38 36
-141.883 -273.347 -1235 40 40 38
-139.361 -273.305 -1235 41 41 39
-136.507 -272.599 -1232 39 39 35
-133.993 -272.558 -1232 41 41 37
-131.267 -272.076 -1230 39 39 37
-128.655 -271.815 -1229 36 36 34
-126.047 -271.555 -1228 39 39 37
-123.647 -271.739 -1229 41 41 41
-121.243 -271.923 -1230 39 39 38
-118.643 -271.665 -1229 41 41 39
-116.142 -271.63 -1229 43 43 41
-113.643 -271.595 -1229 41 41 39
-111.054 -271.34 -1228 41 41 39
-108.47 -271.086 -1227 42 42 41
-106.064 -271.275 -1228 38 38 38
-103.485 -271.022 -1227 37 37 37
-100.995 -270.991 -1227 41 41 41
-98.5045 -270.961 -1227 44 44 44
-96.0936 -271.153 -1228 44 44 42
-93.6031 -271.124 -1228 47 47 45
-91.1876 -271.317 -1229 46 46 44
-88.7689 -271.511 -1230 42 42 39
-86.4169 -271.925 -1232 42 42 38
-83.9895 -272.121 -1233 42 42 40
-81.6248 -272.537 -1235 42 41 39
-79.3808 -273.395 -1239 46 42 41
-77.2453 -274.696 -1245 60 51 45
-75.0863 -275.997 -1251 128 117 110
-73.5995 -279.945 -1269 202 178 162
-35.4474 -144.914 -657 206 181 164
-34.3789 -146.006 -662 222 196 177
-33.2406 -146.878 -666 236 204 183
-31.8948 -146.869 -666 244 209 188
-30.5492 -146.859 -666 250 214 192
-29.2478 -147.071 -667 253 217 195
-27.9007 -147.062 -667 253 218 196
-26.5141 -146.833 -666 253 219 197
-25.1317 -146.605 -665 255 221 199
-23.7177 -146.157 -663 255 222 200
-22.3121 -145.709 -661 255 224 202
-20.9465 -145.482 -660 255 225 204
-19.585 -145.256 -659 255 227 206
-18.2554 -145.25 -659 255 229 208
-16.9261 -145.245 -659 255 228 207
-15.5968 -145.24 -659 255 228 207
-14.2676 -145.235 -659 255 228 207
-12.9583 -145.452 -660 255 227 205
-11.6097 -145.228 -659 255 227 205
-10.2809 -145.224 -659 255 227 205
-8.96578 -145.442 -660 255 225 204
-7.63509 -145.439 -660 255 225 204
-6.30449 -145.437 -660 255 226 205
-4.98148 -145.656 -661 255 226 205
-3.64895 -145.655 -661 255 224 203
-2.31646 -145.654 -661 255 223 201
-0.983976 -145.653 -661 253 221 200
0.348496 -145.653 -661 252 220 199
1.68606 -146.094 -663 250 218 197
3.02258 -146.095 -663 250 218 197
4.3657 -146.316 -664 250 218 197
5.71288 -146.538 -665 251 219 198
7.06414 -146.761 -666 249 216 197
8.3817 -146.322 -664 249 216 197
9.7351 -146.545 -665 244 213 194
11.0593 -146.328 -664 237 210 194
12.4169 -146.552 -665 224 200 186
13.6959 -145.895 -662 194 183 182
15.031 -145.899 -662 166 159 162
-241.1 -313.856 -1397 44 49 56
-232.401 -306.145 -1363 22 27 30
-227.382 -303.155 -1350 19 23 26
-222.253 -299.942 -1336 26 28 32
-218.006 -297.853 -1327 30 32 36
-213.473 -295.318 -1316 32 34 38
-209.468 -293.458 -1308 35 37 39
-204.865 -290.702 -1296 38 40 42
-201.094 -289.069 -1289 39 41 43
-197.2 -287.214 -1281 40 42 44
-194.403 -286.929 -1280 38 40 42
-191.163 -285.973 -1276 36 38 40
-188.237 -285.467 -1274 37 39 41
-184.883 -284.289 -1269 38 40 41
-181.695 -283.337 -1265 36 38 38
-178.242 -281.938 -1259 34 36 36
-175.792 -282.107 -1260 35 37 37
-172.926 -281.606 -1258 38 40 40
-170.206 -281.329 -1257 37 39 39
-167.492 -281.053 -1256 38 40 41
-164.651 -280.555 -1254 37 38 38
-161.562 -279.61 -1250 35 36 34
-158.745 -279.114 -1248 37 37 35
-155.812 -278.394 -1245 41 42 40
-152.77 -277.453 -1241 42 43 43
-149.987 -276.959 -1239 40 42 40
-147.095 -276.243 -1236 39 41 39
-144.568 -276.199 -1236 41 41 39
-141.926 -275.931 -1235 44 44 42
-139.403 -275.888 -1235 45 45 43
-136.66 -275.399 -1233 44 44 41
-133.925 -274.911 -1231 41 41 39
-131.2 -274.424 -1229 40 40 38
-128.694 -274.384 -1229 40 40 38
-126.086 -274.122 -1228 41 41 39
-123.583 -274.084 -1228 43 43 43
-121.082 -274.047 -1228 42 42 42
-118.582 -274.01 -1228 42 42 40
-116.083 -273.974 -1228 43 43 41
-113.585 -273.939 -1228 41 41 40
-111.088 -273.905 -1228 42 42 41
-108.591 -273.871 -1228 43 43 43
-106.096 -273.839 -1228 41 41 41
-103.601 -273.807 -1228 40 40 40
-101.025 -273.553 -1227 42 42 42
-98.5344 -273.522 -1227 44 44 44
-96.0444 -273.493 -1227 44 44 43
-93.6315 -273.687 -1228 45 45 43
-91.1411 -273.658 -1228 44 44 42
-88.7236 -273.854 -1229 41 41 39
-86.3729 -274.273 -1231 42 42 39
-84.0149 -274.692 -1233 43 43 41
-81.6495 -275.113 -1235 44 44 42
-79.2767 -275.534 -1237 47 44 43
-77.1446 -276.846 -1243 54 45 41
-75.1089 -278.605 -1251 118 107 101
-73.2157 -281.032 -1262 196 172 156
-35.4042 -146.061 -656 206 181 164
-34.4413 -147.609 -663 221 194 176
-33.2506 -148.266 -666 234 202 181
-31.9044 -148.257 -666 242 208 187
-30.5585 -148.247 -666 249 214 192
-29.2127 -148.238 -666 253 217 195
-27.8673 -148.229 -666 252 216 194
-26.4823 -147.999 -665 252 218 196
-25.1015 -147.768 -664 255 221 199
-23.6891 -147.316 -662 255 222 200
-22.2851 -146.864 -660 255 223 201
-20.8893 -146.412 -658 255 225 202
-19.5315 -146.183 -657 255 226 203
-18.2055 -146.178 -657 255 227 206
-16.8798 -146.172 -657 255 226 205
-15.5541 -146.167 -657 255 226 205
-14.207 -145.94 -656 255 227 205
-12.9032 -146.159 -657 255 227 205
-11.5604 -145.933 -656 255 227 205
-10.2372 -145.929 -656 255 226 203
-8.91413 -145.927 -656 254 224 201
-7.6027 -146.146 -657 255 225 204
-6.28728 -146.367 -658 255 226 205
-4.96789 -146.588 -659 255 226 205
-3.64454 -146.809 -660 255 224 202
-2.3136 -146.808 -660 255 223 200
-0.984248 -147.03 -661 252 220 199
0.348076 -146.807 -660 251 219 198
1.68154 -147.03 -661 250 218 197
3.01441 -147.031 -661 250 218 197
4.35387 -147.254 -662 250 218 197
5.6889 -147.256 -662 249 217 196
7.03449 -147.48 -663 248 216 195
8.35892 -147.26 -662 247 215 194
9.70875 -147.485 -663 245 211 193
11.0294 -147.266 -662 238 208 192
12.346 -147.047 -661 231 204 189
13.6587 -146.829 -660 207 192 187
14.9675 -146.61 -659 180 169 169
16.2476 -146.17 -657 156 152 159
-233.667 -310.603 -1370 24 28 32
-228.127 -306.904 -1354 24 28 31
-222.655 -303.207 -1338 34 36 40
-218.566 -301.326 -1330 31 33 37
-213.539 -298.087 -1316 28 30 34
-209.373 -295.983 -1307 32 34 36
-204.771 -293.201 -1295 38 40 42
-201 -291.553 -1288 40 42 44
-197.415 -290.133 -1282 42 44 46
-194.767 -290.072 -1282 40 42 44
-191.222 -288.655 -1276 36 38 40
-188.295 -288.143 -1274 38 40 42
-185.086 -287.18 -1270 39 41 43
-182.039 -286.445 -1267 36 38 38
-178.58 -285.033 -1261 34 36 36
-175.986 -284.978 -1261 35 37 37
-173.117 -284.472 -1259 34 36 36
-170.259 -283.966 -1257 34 36 36
-167.543 -283.688 -1256 36 38 40
-164.702 -283.185 -1254 37 39 39
-161.612 -282.231 -1250 36 39 36
-158.667 -281.504 -1247 38 38 37
-155.86 -281.004 -1245 40 40 39
-152.94 -280.279 -1242 41 43 43
-150.034 -279.555 -1239 41 43 42
-147.26 -279.058 -1237 42 44 42
-144.612 -278.787 -1236 44 44 43
-141.97 -278.518 -1235 46 46 44
-139.446 -278.474 -1235 47 47 45
-136.923 -278.431 -1235 49 49 48
-134.184 -277.939 -1233 47 47 46
-131.347 -277.222 -1230 45 45 44
-128.838 -277.182 -1230 46 46 44
-126.227 -276.917 -1229 46 46 44
-123.521 -276.428 -1227 47 47 47
-121.021 -276.39 -1227 47 47 46
-118.522 -276.353 -1227 47 47 45
-115.929 -276.092 -1226 46 46 45
-113.527 -276.282 -1227 44 44 42
-111.122 -276.472 -1228 44 44 44
-108.624 -276.438 -1228 46 46 46
-106.042 -276.18 -1227 46 46 46
-103.633 -276.373 -1228 44 44 44
-101.056 -276.116 -1227 44 44 44
-98.5646 -276.086 -1227 45 45 45
-96.1521 -276.281 -1228 44 44 42
-93.6602 -276.251 -1228 45 45 43
-91.1689 -276.223 -1228 44 44 41
-88.7507 -276.42 -1229 41 40 39
-86.3994 -276.843 -1231 42 41 40
-84.0406 -277.267 -1233 43 43 41
-81.6745 -277.691 -1235 45 44 42
-79.365 -278.341 -1238 46 44 42
-77.1061 -279.216 -1242 52 45 40
-75.0118 -280.766 -1249 103 95 89
-73.7023 -285.464 -1270 189 165 150
-35.469 -147.654 -657 205 180 163
-34.3479 -148.543 -661 219 192 175
-33.1609 -149.206 -664 232 200 180
-31.8183 -149.196 -664 240 207 186
-30.5219 -149.412 -665 247 213 191
-29.1778 -149.402 -665 252 216 194
-27.834 -149.394 -665 251 216 194
-26.4107 -148.936 -663 253 219 197
-24.9957 -148.479 -661 255 221 199
-23.589 -148.022 -659 254 220 198
-22.1905 -147.566 -657 255 222 200
-20.8321 -147.335 -656 255 224 201
-19.4779 -147.104 -655 255 225 202
-18.1557 -147.098 -655 255 227 206
-16.8335 -147.093 -655 255 226 205
-15.5115 -147.088 -655 255 227 206
-14.168 -146.859 -654 255 228 207
-12.8679 -147.079 -655 255 228 207
-11.5286 -146.851 -654 255 228 206
-10.2091 -146.848 -654 255 226 203
-8.88965 -146.845 -654 254 224 201
-7.58184 -147.067 -655 255 225 204
-6.26053 -147.065 -655 255 226 205
-4.95431 -147.512 -657 255 226 205
-3.62909 -147.511 -657 255 224 202
-2.30382 -147.51 -657 255 223 200
-0.980054 -147.734 -658 253 221 200
0.347128 -147.734 -658 252 220 198
1.67439 -147.734 -658 251 219 197
3.00167 -147.735 -658 252 218 198
4.34205 -148.185 -660 250 217 197
5.66483 -147.962 -659 247 217 196
7.00484 -148.189 -660 248 216 195
8.33623 -148.191 -660 247 215 194
9.66776 -148.194 -660 246 212 194
10.9994 -148.197 -660 240 209 192
12.3311 -148.2 -660 236 207 190
13.6629 -148.204 -660 219 200 190
14.9948 -148.209 -660 192 178 173
16.3268 -148.214 -660 162 154 158
17.6857 -148.443 -661 147 149 159
-228.536 -310.215 -1356 30 34 38
-223.058 -306.484 -1340 39 41 45
-218.635 -304.127 -1330 36 38 42
-213.444 -300.63 -1315 29 31 35
-208.637 -297.592 -1302 29 31 33
-204.36 -295.241 -1292 34 36 38
-200.751 -293.807 -1286 38 40 42
-197.477 -292.83 -1282 40 42 44
-194.828 -292.769 -1282 41 43 45
-191.582 -291.795 -1278 39 41 43
-188.649 -291.278 -1276 39 41 43
-185.29 -290.078 -1271 40 42 44
-182.095 -289.108 -1267 39 41 41
-178.778 -287.911 -1262 36 38 38
-176.04 -287.627 -1261 35 37 37
-173.034 -286.888 -1258 36 38 38
-170.176 -286.378 -1256 36 38 38
-167.195 -285.641 -1253 38 40 41
-164.359 -285.134 -1251 39 41 41
-161.533 -284.627 -1249 39 41 40
-158.843 -284.349 -1248 40 40 40
-156.034 -283.844 -1246 41 42 41
-153.234 -283.34 -1244 42 44 44
-150.444 -282.837 -1242 42 44 44
-147.544 -282.107 -1239 44 46 46
-144.774 -281.607 -1237 48 48 48
-142.129 -281.334 -1236 48 48 47
-139.489 -281.063 -1235 49 49 47
-136.966 -281.019 -1235 50 50 50
-134.226 -280.522 -1233 51 51 51
-131.602 -280.253 -1232 50 50 50
-128.983 -279.985 -1231 49 49 48
-126.369 -279.718 -1230 48 48 46
-123.66 -279.224 -1228 47 47 47
-121.157 -279.186 -1228 47 47 47
-118.462 -278.694 -1226 49 49 47
-115.965 -278.658 -1226 48 48 48
-113.47 -278.622 -1226 46 46 46
-111.065 -278.814 -1227 46 46 46
-108.481 -278.553 -1226 46 46 46
-106.075 -278.747 -1227 46 46 46
-103.581 -278.714 -1227 47 47 47
-101.087 -278.682 -1227 46 46 46
-98.5951 -278.651 -1227 46 46 44
-96.1819 -278.848 -1228 44 44 42
-93.6891 -278.819 -1228 45 45 43
-91.2714 -279.017 -1229 44 44 40
-88.8503 -279.216 -1230 43 42 40
-86.4963 -279.643 -1232 44 41 42
-84.1347 -280.07 -1234 43 43 41
-81.6996 -280.272 -1235 44 43 41
-79.3894 -280.927 -1238 44 43 41
-77.1299 -281.811 -1242 50 45 40
-75.0349 -283.375 -1249 88 81 75
-35.48 -149.027 -657 203 177 163
-34.3585 -149.923 -661 218 191 175
-33.1711 -150.593 -664 230 200 181
-31.7802 -150.356 -663 238 205 185
-30.4395 -150.346 -663 245 211 189
-29.099 -150.337 -663 249 213 191
-27.7169 -150.102 -662 251 216 194
-26.2993 -149.64 -660 252 218 196
-24.9277 -149.405 -659 254 220 198
-23.4888 -148.718 -656 255 221 199
-22.1298 -148.484 -655 255 222 200
-20.775 -148.251 -654 255 223 201
-19.4542 -148.244 -654 255 225 202
-18.1335 -148.239 -654 255 226 205
-16.813 -148.233 -654 255 226 205
-15.4689 -148.002 -653 255 227 206
-14.1507 -147.997 -653 255 228 207
-12.8129 -147.766 -652 255 228 207
-11.4793 -147.536 -651 255 229 207
-10.1654 -147.532 -651 255 227 204
-8.86518 -147.756 -652 255 225 202
-7.56103 -147.98 -653 255 225 204
-6.24333 -147.978 -653 255 225 204
-4.93318 -148.203 -654 255 225 204
-3.61908 -148.428 -655 255 224 201
-2.29746 -148.427 -655 255 223 200
-0.975859 -148.427 -655 253 221 200
0.345654 -148.427 -655 253 220 198
1.66725 -148.427 -655 252 219 196
2.98886 -148.428 -655 252 218 198
4.32365 -148.882 -657 250 217 197
5.64076 -148.657 -656 246 216 195
6.98572 -149.112 -658 247 215 194
8.31354 -149.115 -658 247 215 194
9.64142 -149.117 -658 248 213 195
10.9695 -149.121 -658 245 213 194
12.3162 -149.351 -659 241 211 191
13.6256 -149.128 -658 229 205 191
14.954 -149.133 -658 209 188 180
16.2823 -149.138 -658 179 163 162
17.5841 -148.916 -657 152 149 155
-236.716 -320.308 -1387 29 35 39
-229.282 -313.999 -1360 30 36 39
-223.628 -310.002 -1343 40 42 46
-218.375 -306.47 -1328 43 45 49
-213.186 -302.94 -1313 37 39 43
-208.703 -300.336 -1302 34 36 38
-204.267 -297.733 -1291 33 35 37
-200.815 -296.516 -1286 36 38 40
-197.385 -295.3 -1281 39 41 43
-194.586 -295.007 -1280 39 41 43
-191.492 -294.255 -1277 40 42 44
-188.413 -293.503 -1274 42 44 46
-185.348 -292.753 -1271 42 44 46
-182.297 -292.004 -1268 40 42 42
-178.976 -290.795 -1263 39 41 41
-176.236 -290.509 -1262 40 42 42
-173.226 -289.763 -1259 41 43 43
-170.23 -289.018 -1256 41 43 43
-167.381 -288.505 -1254 41 43 43
-164.411 -287.762 -1251 42 44 44
-161.454 -287.021 -1248 40 42 42
-158.766 -286.74 -1247 42 42 42
-155.957 -286.231 -1245 45 45 45
-153.159 -285.722 -1243 43 45 46
-150.612 -285.674 -1243 43 45 45
-147.709 -284.938 -1240 44 46 46
-145.054 -284.662 -1239 49 49 49
-142.289 -284.157 -1237 51 51 51
-139.646 -283.883 -1236 51 51 50
-137.009 -283.61 -1235 48 48 48
-134.377 -283.337 -1234 49 49 49
-131.643 -282.836 -1232 48 48 48
-129.023 -282.566 -1231 48 48 47
-126.409 -282.296 -1230 50 50 48
-123.698 -281.798 -1228 51 51 51
-121.096 -281.53 -1227 51 51 50
-118.402 -281.033 -1225 51 51 49
-115.907 -280.997 -1225 51 51 51
-113.413 -280.961 -1225 49 49 49
-110.919 -280.925 -1225 49 49 50
-108.426 -280.891 -1225 48 48 49
-106.021 -281.086 -1226 48 48 48
-103.613 -281.283 -1227 48 48 48
-101.201 -281.48 -1228 47 47 46
-98.6258 -281.22 -1227 47 47 45
-96.2118 -281.418 -1228 45 45 43
-93.7183 -281.388 -1228 45 45 43
-91.2998 -281.588 -1229 43 43 39
-88.8058 -281.56 -1229 43 41 40
-86.453 -281.991 -1231 44 41 42
-84.0927 -282.422 -1233 41 41 39
-81.6589 -282.625 -1234 43 43 41
-79.2859 -283.058 -1236 44 43 41
-77.1539 -284.408 -1242 50 45 41
-75.0583 -285.987 -1249 74 68 63
-35.545 -150.629 -658 200 175 160
-34.3172 -151.076 -660 216 189 174
-33.0815 -151.523 -662 229 199 180
-31.7421 -151.513 -662 236 204 183
-30.403 -151.503 -662 243 209 187
-29.0203 -151.265 -661 248 212 190
-27.6418 -151.027 -660 251 215 193
-26.2277 -150.561 -658 252 218 196
-24.8598 -150.324 -657 252 218 196
-23.4245 -149.631 -654 253 219 197
-22.0691 -149.395 -653 254 220 198
-20.7179 -149.159 -652 255 223 200
-19.4007 -149.153 -652 255 224 201
-18.0837 -149.147 -652 255 225 204
-16.7668 -149.142 -652 255 226 205
-15.4263 -148.908 -651 255 226 205
-14.1117 -148.903 -651 255 227 206
-12.7775 -148.67 -650 255 228 207
-11.4475 -148.438 -649 255 230 208
-10.1217 -148.206 -648 255 228 206
-8.82712 -148.432 -649 255 226 203
-7.52859 -148.658 -650 255 225 204
-6.22613 -148.884 -651 255 225 204
-4.91964 -149.111 -652 255 223 202
-3.60915 -149.339 -653 255 224 201
-2.29118 -149.338 -653 255 223 200
-0.971745 -149.108 -652 254 222 200
0.344259 -149.108 -652 253 220 198
1.66019 -149.109 -652 252 218 196
2.98069 -149.338 -653 251 217 196
4.31184 -149.797 -655 250 217 197
5.62537 -149.57 -654 247 217 196
6.95607 -149.8 -655 247 216 194
8.29085 -150.031 -656 248 215 194
9.61517 -150.034 -656 250 214 196
10.9562 -150.266 -657 248 214 194
12.3013 -150.498 -658 246 213 192
13.6506 -150.731 -659 236 208 192
15.004 -150.964 -660 224 199 187
16.3369 -150.969 -660 197 177 170
17.6164 -150.517 -658 164 156 157
18.9455 -150.523 -658 153 147 150
-231.042 -319.201 -1370 30 36 39
-224.199 -313.536 -1346 36 38 42
-218.445 -309.273 -1328 40 42 46
-213.092 -305.478 -1312 43 45 49
-208.288 -302.384 -1299 43 45 47
-204.174 -300.223 -1290 39 41 43
-200.566 -298.762 -1284 35 37 39
-197.294 -297.767 -1280 36 38 40
-194.496 -297.472 -1279 37 39 41
-191.253 -296.48 -1275 41 43 45
-188.325 -295.954 -1273 43 45 47
-184.969 -294.732 -1268 43 45 47
-182.067 -294.209 -1266 41 43 44
-178.891 -293.222 -1262 41 43 43
-176.012 -292.7 -1260 42 44 44
-173.006 -291.948 -1257 43 45 45
-170.284 -291.661 -1256 43 45 45
-167.167 -290.678 -1252 43 45 46
-164.332 -290.161 -1250 44 46 46
-161.505 -289.645 -1248 41 43 43
-158.816 -289.362 -1247 42 42 41
-156.132 -289.08 -1246 44 44 44
-153.331 -288.566 -1244 45 47 49
-150.781 -288.518 -1244 44 46 47
-147.875 -287.775 -1241 44 46 46
-145.1 -287.264 -1239 47 48 48
-142.334 -286.755 -1237 48 49 49
-139.69 -286.478 -1236 49 49 49
-136.941 -285.971 -1234 49 49 49
-134.31 -285.696 -1233 50 50 49
-131.684 -285.422 -1232 49 49 48
-129.064 -285.149 -1231 48 48 47
-126.346 -284.645 -1229 49 49 48
-123.637 -284.142 -1227 52 52 52
-121.036 -283.872 -1226 52 52 52
-118.343 -283.371 -1224 53 53 51
-115.849 -283.334 -1224 53 53 53
-113.356 -283.297 -1224 52 52 52
-110.954 -283.493 -1225 50 50 52
-108.549 -283.69 -1226 49 49 50
-106.055 -283.656 -1226 48 48 48
-103.73 -284.086 -1228 47 47 47
-101.233 -284.053 -1228 46 46 45
-98.7373 -284.021 -1228 47 47 45
-96.2421 -283.991 -1228 46 46 44
-93.7478 -283.96 -1228 45 45 43
-91.3286 -284.162 -1229 43 43 39
-88.8337 -284.134 -1229 42 40 39
-86.4802 -284.569 -1231 43 40 42
-84.1192 -285.004 -1233 43 43 42
-81.7508 -285.44 -1235 43 43 42
-79.375 -285.877 -1237 43 43 41
-77.1781 -287.007 -1242 49 45 41
-75.3224 -289.525 -1253 66 61 56
-35.5021 -151.775 -657 200 175 161
-34.2759 -152.226 -659 214 188 172
-33.0419 -152.677 -661 226 196 177
-31.6082 -152.205 -659 234 202 182
-30.2747 -152.195 -659 242 208 187
-28.8976 -151.955 -658 249 213 191
-27.5247 -151.715 -657 251 216 194
-26.1163 -151.245 -655 252 218 196
-24.7919 -151.237 -655 252 218 196
-23.396 -150.767 -653 252 218 196
-22.0422 -150.529 -652 254 220 198
-20.6926 -150.292 -651 255 222 200
-19.377 -150.285 -651 255 224 201
-18.0338 -150.049 -650 255 223 203
-16.7463 -150.274 -651 255 224 204
-15.4074 -150.038 -650 255 226 205
-14.0728 -149.803 -649 255 227 206
-12.7422 -149.567 -648 255 228 207
-11.4159 -149.333 -647 255 228 207
-10.0936 -149.099 -646 255 228 206
-8.78909 -149.096 -646 255 226 203
-7.4962 -149.324 -647 255 226 205
-6.19937 -149.553 -648 255 225 204
-4.89097 -149.551 -648 255 224 203
-3.5937 -150.011 -650 255 223 201
-2.2814 -150.01 -650 255 223 200
-0.970532 -150.241 -651 254 222 199
0.34384 -150.24 -651 253 220 198
1.65559 -150.01 -650 252 218 196
2.96796 -150.011 -650 251 217 195
4.29344 -150.473 -652 250 217 195
5.6099 -150.475 -652 248 216 195
6.92641 -150.477 -652 248 216 193
8.28082 -151.172 -655 249 217 194
9.61816 -151.405 -656 249 215 197
10.9429 -151.409 -656 247 213 193
12.2865 -151.643 -657 248 214 192
13.6342 -151.878 -658 245 215 196
14.9406 -151.652 -657 238 211 195
16.2925 -151.887 -658 218 195 182
17.5683 -151.431 -656 185 173 168
18.8938 -151.437 -656 164 154 152
-225.105 -317.556 -1351 36 38 42
-219.009 -312.783 -1331 37 39 43
-213.486 -308.719 -1314 40 42 46
-208.516 -305.362 -1300 46 48 50
-204.714 -303.651 -1293 45 47 49
-200.787 -301.707 -1285 40 42 44
-197.357 -300.468 -1280 38 40 42
-194.102 -299.466 -1276 35 37 39
-191.015 -298.7 -1273 39 41 43
-188.09 -298.17 -1271 40 42 44
-184.883 -297.171 -1267 42 44 46
-182.125 -296.877 -1266 42 45 46
-178.948 -295.881 -1262 42 45 45
-175.929 -295.121 -1259 43 45 45
-172.923 -294.361 -1256 44 46 47
-170.203 -294.072 -1255 44 46 48
-166.954 -292.846 -1250 45 47 48
-164.121 -292.324 -1248 46 48 49
-161.428 -292.037 -1247 46 48 48
-158.74 -291.752 -1246 47 47 46
