ply
format ascii 1.0
comment Created by Open3D
element vertex 1404
property double x
property double y
property double z
property uchar red
property uchar green
property uchar blue
end_header
256.598 85.2691 -1258 245 202 182
259.205 85.293 -1258 245 202 182
261.605 85.2493 -1257 241 202 184
264.635 85.4093 -1259 238 200 183
267.25 85.4339 -1259 239 201 184
270.082 85.5268 -1260 240 202 185
272.92 85.6198 -1261 241 203 186
275.547 85.6453 -1261 242 204 188
277.734 85.5352 -1259 242 205 192
280.138 85.4931 -1258 243 206 193
282.99 85.5873 -1259 243 206 193
285.622 85.6138 -1259 244 206 193
288.485 85.7085 -1260 244 206 192
291.355 85.8036 -1261 245 207 192
294.464 85.967 -1263 243 206 193
297.114 85.9946 -1263 243 205 192
299.292 85.8863 -1261 244 207 193
301.943 85.9143 -1261 242 205 190
304.355 85.8746 -1260 240 203 186
307.253 85.9713 -1261 241 203 186
309.912 86.0002 -1261 242 204 185
313.07 86.1659 -1263 239 202 186
315.738 86.1954 -1263 237 201 185
318.41 86.225 -1263 236 200 185
321.338 86.3234 -1264 234 201 187
323.248 86.1488 -1261 232 199 184
326.182 86.2476 -1262 231 198 182
328.862 86.2785 -1262 232 198 179
331.808 86.378 -1263 237 201 181
334.232 86.3409 -1262 238 202 183
337.188 86.441 -1263 239 202 185
339.882 86.473 -1263 239 201 186
342.308 86.4367 -1262 238 200 185
344.46 86.3321 -1260 238 200 185
347.708 86.5019 -1262 236 198 183
349.857 86.3978 -1260 235 197 183
353.679 86.7055 -1264 233 196 179
356.676 86.8077 -1265 233 196 177
359.68 86.9104 -1266 229 195 178
362.978 87.082 -1268 224 194 178
366.288 87.254 -1270 221 193 178
369.029 87.289 -1270 217 191 179
372.651 87.5305 -1273 213 191 173
375.405 87.5661 -1273 209 188 171
378.162 87.602 -1273 206 185 169
383.017 88.1201 -1280 201 182 168
386.7 88.3635 -1283 195 180 167
390.4 88.6072 -1286 189 177 168
393.811 88.7825 -1288 181 174 168
398.466 89.2341 -1294 177 172 170
-533.379 78.1899 -1123 160 163 171
-528.261 77.789 -1118 160 163 170
-525.524 77.7363 -1118 161 163 171
-521.857 77.5452 -1116 160 162 169
-519.601 77.5628 -1117 161 162 169
-516.882 77.5114 -1117 162 161 168
-515.09 77.5989 -1119 163 160 165
-512.377 77.5479 -1119 162 159 165
-509.67 77.4973 -1119 163 161 168
-506.514 77.3778 -1118 162 159 166
-504.27 77.3971 -1119 160 160 167
-502.027 77.4166 -1120 159 161 168
-499.784 77.4363 -1121 158 161 168
-499.758 77.8015 -1127 158 161 169
-497.944 77.8904 -1129 160 162 171
-493.932 77.6348 -1126 160 163 171
-492.122 77.7243 -1128 159 162 174
-491.174 77.9516 -1132 157 160 172
-487.192 77.6972 -1129 158 161 173
-484.945 77.7184 -1130 155 159 173
-489.1 78.771 -1146 153 158 172
-488.941 79.1355 -1152 155 159 173
-408.968 78.2085 -1158 158 158 170
-405.67 78.0349 -1156 158 158 168
-403.781 78.1317 -1158 158 158 168
-400.847 78.0263 -1157 160 158 168
-398.953 78.1235 -1159 161 158 166
-396.713 78.1534 -1160 160 157 165
-393.792 78.0489 -1159 161 158 163
-390.542 77.8774 -1157 160 157 161
-387.639 77.7735 -1156 161 157 162
-384.079 77.5356 -1153 162 158 163
-382.189 77.6341 -1155 163 159 163
-378.651 77.3969 -1152 165 161 165
-376.762 77.4959 -1154 168 160 165
-373.895 77.3937 -1153 171 163 167
-370.714 77.2247 -1151 175 168 170
-367.545 77.0561 -1149 179 172 172
-364.705 76.9549 -1148 183 177 176
-361.874 76.8541 -1147 195 192 189
-357.796 76.4856 -1142 239 237 224
-354.678 76.3185 -1140 254 252 237
-351.571 76.1519 -1138 254 252 235
-348.476 75.9856 -1136 254 251 231
-345.393 75.8196 -1134 255 252 230
-342.624 75.7209 -1133 255 253 225
-339.863 75.6225 -1132 254 251 221
-337.109 75.5244 -1131 255 252 220
-334.067 75.3598 -1129 255 253 219
-331.623 75.3291 -1129 255 253 220
-328.891 75.2319 -1128 255 253 219
-326.456 75.2017 -1128 255 252 218
-323.737 75.1051 -1127 254 251 217
-321.595 75.1419 -1128 253 252 217
-319.168 75.1124 -1128 253 253 216
-316.744 75.0832 -1128 253 253 215
-314.045 74.9877 -1127 253 252 216
-310.799 74.7594 -1124 253 252 216
-308.392 74.731 -1124 253 253 215
-306.261 74.7693 -1125 252 253 218
-303.857 74.7413 -1125 252 253 219
-301.456 74.7137 -1125 253 252 220
-299.324 74.7526 -1126 253 252 218
-296.926 74.7253 -1126 253 252 218
-294.27 74.632 -1125 255 252 218
-291.62 74.5389 -1124 254 252 218
-289.234 74.5124 -1124 254 253 218
-286.341 74.3537 -1122 253 252 218
-283.711 74.2614 -1121 253 252 218
-281.339 74.2357 -1121 252 251 217
-278.721 74.144 -1120 252 251 216
-276.356 74.1188 -1120 252 251 216
-273.994 74.0938 -1120 253 252 217
-271.634 74.0691 -1120 253 253 216
-269.517 74.1106 -1121 253 253 215
-267.159 74.0863 -1121 253 252 217
-265.04 74.1282 -1122 253 252 217
-262.685 74.1043 -1122 253 252 218
-260.1 74.0146 -1121 253 252 221
-257.982 74.0572 -1122 253 252 222
-255.406 73.9681 -1121 253 252 220
-253.062 73.9451 -1121 253 252 220
-250.944 73.9883 -1122 253 252 220
-249.045 74.0976 -1124 253 252 220
-246.702 74.0753 -1124 253 252 219
-244.36 74.0532 -1124 253 253 215
-242.236 74.0972 -1125 253 253 215
-239.896 74.0755 -1125 253 253 215
-237.558 74.054 -1125 252 252 214
-235.641 74.1644 -1127 253 252 214
-233.303 74.1433 -1127 254 251 214
-230.968 74.1224 -1127 252 251 210
-228.837 74.1676 -1128 252 252 210
-226.302 74.0815 -1127 242 242 202
-223.575 73.9299 -1125 242 241 199
-221.054 73.8442 -1124 252 250 206
-218.929 73.8902 -1125 253 251 205
-216.609 73.8707 -1125 252 250 204
-214.1 73.7858 -1124 251 248 200
-211.785 73.7668 -1124 252 249 206
-209.473 73.748 -1124 255 252 211
-207.162 73.7294 -1124 255 252 218
-204.67 73.6454 -1123 255 253 221
-202.365 73.6273 -1123 254 253 225
-200.239 73.6749 -1124 255 253 227
-198.111 73.7227 -1125 255 253 228
-196.155 73.8362 -1127 253 251 226
-194.02 73.8844 -1128 252 251 225
-191.882 73.9326 -1129 253 252 224
-189.407 73.8502 -1128 253 252 222
-187.102 73.8335 -1128 255 254 224
-184.636 73.7516 -1127 254 253 225
-182.337 73.7353 -1127 255 254 227
-179.88 73.6538 -1126 254 252 227
-177.743 73.7033 -1127 253 252 222
-175.293 73.6222 -1126 254 253 223
-173.002 73.6068 -1126 255 254 220
-170.712 73.5916 -1126 253 253 220
-168.274 73.5113 -1125 252 252 220
-165.989 73.4965 -1125 253 252 220
-163.56 73.4166 -1124 254 253 219
-161.424 73.4675 -1125 252 252 214
-159.001 73.388 -1124 250 250 210
-156.724 73.3741 -1124 233 233 193
-154.585 73.4256 -1125 208 206 160
-152.308 73.412 -1125 213 211 164
-149.766 73.2682 -1123 217 215 167
-147.627 73.3204 -1124 221 219 171
-145.485 73.3726 -1125 211 209 161
-143.213 73.3599 -1125 166 163 122
-140.816 73.2822 -1124 121 118 84
-138.918 73.4654 -1127 52 48 27
-136.403 73.323 -1125 37 33 26
-133.54 72.9852 -1120 31 27 24
-130.58 72.5826 -1114 30 27 22
-127.185 71.9198 -1104 33 29 26
-124.397 71.583 -1099 33 29 28
-121.63 71.2466 -1094 36 32 33
-118.993 70.9755 -1090 33 29 30
-116.481 70.7699 -1087 32 28 28
-114.192 70.6946 -1086 34 30 31
-112.114 70.7497 -1087 35 31 33
-110.033 70.8051 -1088 34 30 33
-107.454 70.5353 -1084 34 30 33
-105.182 70.4608 -1083 39 32 36
-103.011 70.4517 -1083 37 32 35
-100.84 70.4428 -1083 36 32 35
-98.8527 70.5642 -1085 37 33 36
-96.947 70.7506 -1088 34 30 33
-94.8559 70.8073 -1089 31 28 31
-92.7615 70.864 -1090 34 31 34
-90.5809 70.8561 -1090 34 31 34
-88.482 70.9132 -1091 34 31 36
-86.0635 70.7105 -1088 33 30 35
-84.2744 71.0281 -1093 28 25 30
-82.1657 71.0857 -1094 24 21 26
-79.9805 71.0787 -1094 27 24 29
-77.6538 70.9419 -1092 29 26 33
-75.6812 71.13 -1095 29 26 32
-73.3616 70.9936 -1093 30 27 32
-71.6367 71.4419 -1100 30 27 32
-69.8846 71.8903 -1107 31 28 33
-68.0438 72.2739 -1113 39 35 36
-66.0615 72.5278 -1117 48 43 42
-64.0065 72.7169 -1120 61 54 48
-61.885 72.8413 -1122 109 103 82
-59.756 72.9658 -1124 174 169 142
-57.5683 73.0256 -1125 202 197 164
-55.328 73.0207 -1125 215 211 173
-53.088 73.016 -1125 223 221 177
-50.8938 73.0763 -1126 232 228 185
-48.7823 73.2667 -1129 242 238 195
-46.6593 73.4572 -1132 240 236 195
-44.5247 73.6479 -1135 212 208 161
-42.4902 74.0334 -1141 172 169 115
-40.2561 74.0947 -1142 186 183 124
-38.0182 74.1562 -1143 238 236 177
-35.7766 74.2178 -1144 229 226 169
-33.5021 74.2148 -1144 209 205 155
-31.1733 74.0822 -1142 197 193 150
-28.9286 74.1445 -1143 127 122 88
-26.6568 74.142 -1143 116 111 78
-24.4066 74.2047 -1144 87 82 48
-22.1526 74.2676 -1145 172 169 138
-19.9121 74.3955 -1147 248 248 218
-17.6177 74.329 -1146 248 248 217
-15.3543 74.3924 -1147 252 251 220
-13.0756 74.3912 -1147 253 252 220
-10.8064 74.4549 -1148 253 253 224
-8.51835 74.3893 -1147 252 252 225
-6.24534 74.4535 -1148 254 254 230
-3.96495 74.453 -1148 254 254 231
-1.68606 74.5176 -1149 255 254 234
0.596797 74.5825 -1150 254 254 231
2.88363 74.6475 -1151 253 253 229
5.17445 74.7127 -1152 253 253 225
7.4693 74.7781 -1153 253 252 222
9.77663 74.9085 -1155 254 253 221
12.0711 74.9095 -1155 253 252 218
14.3905 75.0404 -1157 252 251 217
16.7182 75.1715 -1159 253 252 215
19.0373 75.2379 -1160 252 251 216
21.3054 75.1099 -1158 252 251 216
23.6065 75.1119 -1158 253 252 218
25.9078 75.114 -1158 252 251 216
28.258 75.2462 -1160 252 251 214
30.59 75.3136 -1161 250 249 214
32.9829 75.511 -1164 253 252 218
35.3577 75.6437 -1166 252 251 218
37.7086 75.7118 -1167 252 252 216
40.0635 75.78 -1168 252 252 214
42.4228 75.8485 -1169 251 250 214
44.7481 75.8524 -1169 251 250 214
47.1545 75.9861 -1171 251 251 213
49.4845 75.9904 -1171 250 250 210
51.8592 76.0597 -1172 248 248 206
54.1459 75.9994 -1171 244 245 195
56.5254 76.0691 -1172 246 247 197
58.8089 76.0093 -1171 249 250 201
61.2457 76.1444 -1173 246 246 202
63.5823 76.1498 -1173 248 248 206
65.9196 76.1555 -1173 253 253 217
68.3155 76.2263 -1174 254 251 216
70.7762 76.3622 -1176 253 250 215
73.1211 76.3685 -1176 248 247 206
75.6589 76.5698 -1179 228 227 183
78.1434 76.7065 -1181 239 238 189
80.5682 76.7784 -1182 250 249 206
82.9977 76.8505 -1183 247 246 203
85.5039 76.9877 -1185 247 245 200
87.9447 77.0604 -1186 247 245 201
90.3902 77.1331 -1187 247 245 201
92.7623 77.1412 -1187 246 244 198
95.2955 77.2793 -1189 245 243 197
97.5909 77.2228 -1188 246 244 197
100.051 77.2965 -1189 247 245 199
102.517 77.3704 -1190 248 246 201
105.075 77.5095 -1192 246 246 201
107.552 77.5839 -1193 246 244 198
110.126 77.7234 -1195 243 241 195
112.521 77.7332 -1195 245 243 196
115.013 77.8083 -1196 248 246 201
117.509 77.8836 -1197 247 245 201
120.011 77.9591 -1198 246 244 198
122.62 78.0998 -1200 245 243 197
125.238 78.2409 -1202 245 243 197
127.865 78.3822 -1204 247 243 198
130.392 78.4587 -1205 248 244 200
133.035 78.6005 -1207 247 243 200
135.575 78.6775 -1208 246 243 199
138.12 78.7546 -1209 247 244 201
140.438 78.7017 -1208 248 246 202
143.108 78.8445 -1210 250 248 204
145.666 78.9225 -1211 252 250 206
148.108 78.9354 -1211 249 247 201
150.675 79.0138 -1212 246 244 198
153.5 79.2227 -1215 249 247 201
155.953 79.2364 -1215 250 248 199
158.668 79.3807 -1217 253 251 203
161.526 79.5905 -1220 252 250 206
164.531 79.8659 -1224 252 250 206
167.826 80.2721 -1230 248 241 201
171.009 80.6135 -1235 233 215 185
173.932 80.8246 -1238 236 217 190
176.584 80.9053 -1239 235 214 190
179.096 80.921 -1239 243 214 195
181.757 81.0023 -1240 242 213 197
184.424 81.0839 -1241 242 213 198
187.246 81.231 -1243 244 214 199
189.926 81.3131 -1244 245 212 196
192.611 81.3955 -1245 245 211 195
194.989 81.3472 -1244 247 210 195
197.999 81.5609 -1247 245 208 192
200.862 81.7094 -1249 246 208 191
203.572 81.7928 -1250 246 208 191
206.453 81.9419 -1252 245 208 190
209.176 82.0258 -1253 246 209 191
211.568 81.9791 -1252 245 208 190
214.128 81.998 -1252 245 207 189
217.036 82.1482 -1254 244 206 188
219.604 82.1677 -1254 244 205 189
222.174 82.1873 -1254 244 206 190
224.925 82.2728 -1255 245 206 191
227.138 82.1619 -1253 245 206 191
229.712 82.1822 -1253 244 205 190
232.658 82.3341 -1255 242 205 189
235.239 82.355 -1255 243 205 188
238.391 82.573 -1258 243 206 188
240.982 82.5945 -1258 243 206 188
243.77 82.6818 -1259 242 205 187
246.172 82.6381 -1258 243 205 189
248.769 82.6602 -1258 243 205 190
251.169 82.6169 -1257 242 205 190
254.173 82.7711 -1259 242 205 188
256.371 82.6624 -1257 244 205 188
258.975 82.6856 -1257 244 205 188
261.79 82.7747 -1258 242 204 188
264.821 82.93 -1260 241 203 187
267.226 82.8881 -1259 242 204 187
270.272 83.044 -1261 242 204 187
273.112 83.1343 -1262 242 204 187
275.74 83.1591 -1262 244 206 187
277.929 83.0522 -1260 244 207 194
280.335 83.0115 -1259 243 206 193
283.189 83.1028 -1260 245 207 194
285.822 83.1286 -1260 245 205 192
288.688 83.2206 -1261 245 205 191
291.559 83.3127 -1262 246 207 192
294.437 83.4053 -1263 243 205 189
297.087 83.4321 -1263 241 204 189
299.265 83.327 -1261 241 204 188
302.155 83.4203 -1262 239 202 186
304.811 83.4478 -1262 237 202 184
307.956 83.608 -1264 238 202 184
310.621 83.6361 -1264 238 200 181
313.536 83.7306 -1265 235 199 180
315.959 83.693 -1264 235 199 181
318.632 83.7219 -1264 238 201 185
321.308 83.751 -1264 235 201 185
323.73 83.7142 -1263 233 199 183
326.41 83.7439 -1263 232 198 182
329.092 83.7737 -1263 232 198 178
331.777 83.8039 -1263 237 201 180
334.73 83.9007 -1264 237 201 181
337.691 83.9979 -1265 237 201 182
339.851 83.8961 -1263 239 201 184
342.277 83.8609 -1262 239 202 185
344.701 83.826 -1261 238 201 184
347.675 83.9242 -1262 237 201 185
350.657 84.0228 -1263 235 200 185
353.646 84.1217 -1264 235 198 181
356.925 84.2874 -1266 237 198 177
360.215 84.4536 -1268 234 198 178
362.658 84.4203 -1267 232 198 179
366.254 84.6538 -1270 231 198 180
369.866 84.8878 -1273 227 196 181
371.738 84.722 -1270 225 195 172
374.78 84.8231 -1271 221 193 170
378.126 84.9914 -1273 219 191 170
380.886 85.0265 -1273 216 190 170
384.554 85.2624 -1276 213 188 169
387.935 85.4319 -1278 210 187 170
391.022 85.5349 -1279 205 186 171
393.81 85.5713 -1279 202 184 171
396.6 85.6081 -1279 199 181 169
399.395 85.6451 -1279 195 178 166
403.451 85.9503 -1283 189 174 164
407.211 86.1891 -1286 180 173 173
412.901 86.8306 -1295 176 169 174
415.103 86.7351 -1293 174 167 173
-556.705 76.7007 -1131 162 165 175
-553.401 76.5787 -1130 160 163 174
-547.671 76.1185 -1124 159 162 171
-541.977 75.6593 -1118 160 162 170
-538.248 75.4715 -1116 161 162 170
-533.574 75.149 -1112 164 165 172
-528.926 74.8273 -1108 174 166 171
-524.303 74.5062 -1104 176 168 172
-521.595 74.4556 -1104 179 170 173
-518.422 74.3379 -1103 180 171 174
-517.13 74.4901 -1106 181 172 175
-515.364 74.5749 -1108 183 174 176
-513.593 74.66 -1110 187 175 175
-512.738 74.8796 -1114 188 175 173
-510.038 74.8304 -1114 186 174 173
-506.887 74.7144 -1113 187 176 176
-504.2 74.666 -1113 190 177 177
-501.067 74.5508 -1112 185 176 177
-499.737 74.7039 -1115 180 174 174
-496.615 74.5894 -1114 179 175 175
-494.832 74.676 -1116 179 174 174
-493.045 74.7626 -1118 178 172 173
-490.814 74.7827 -1119 174 170 172
-489.02 74.8697 -1121 169 167 176
-487.222 74.9569 -1123 166 164 174
-484.556 74.9108 -1123 165 163 172
-482.324 74.9316 -1124 162 161 171
-482.225 75.2858 -1130 160 160 171
-479.133 75.1737 -1129 159 159 170
-476.894 75.1951 -1130 159 158 169
-476.334 75.4828 -1135 158 159 169
-476.172 75.8368 -1141 159 161 171
-474.742 75.9914 -1144 158 160 171
-474.54 76.3452 -1150 155 158 168
-474.316 76.6988 -1156 155 158 170
-472.436 76.787 -1158 154 159 172
-469.739 76.7428 -1158 151 156 168
-466.645 76.6327 -1157 149 154 166
-465.163 76.7878 -1160 149 156 168
-452.483 76.2858 -1155 152 158 169
-447.488 75.8478 -1149 152 157 168
-444.462 75.7403 -1148 151 156 167
-441.829 75.6991 -1148 150 155 166
-438.817 75.5923 -1147 0 0 0
-412.419 75.1336 -1146 166 165 170
-410.555 75.227 -1148 167 166 171
-407.975 75.1894 -1148 169 166 171
-405.045 75.0866 -1147 172 164 169
-402.124 74.9843 -1146 175 167 169
-400.605 75.1438 -1149 177 170 172
-398.385 75.1727 -1150 181 172 175
-395.819 75.1364 -1150 183 173 175
-393.94 75.231 -1152 183 173 174
-391.377 75.1952 -1152 186 173 171
-389.156 75.2249 -1153 192 178 176
-385.256 74.9288 -1149 198 184 182
-383.044 74.9591 -1150 201 186 184
-381.162 75.0547 -1152 204 190 188
-378.616 75.0202 -1152 208 194 192
-376.075 74.986 -1152 214 196 195
-374.185 75.0821 -1154 214 198 196
-370.68 74.8533 -1151 216 201 197
-366.551 74.4949 -1146 218 201 196
-363.719 74.3969 -1145 217 203 197
-360.263 74.1693 -1142 233 222 214
-356.824 73.9422 -1139 252 249 233
-353.712 73.7803 -1137 255 253 234
-350.921 73.6838 -1136 254 251 229
-347.831 73.5226 -1134 255 252 226
-344.753 73.3618 -1132 255 250 223
-341.686 73.2014 -1130 255 251 218
-339.232 73.1709 -1130 255 252 218
-336.78 73.1406 -1130 255 253 219
-334.036 73.0457 -1129 255 253 217
-331.593 73.016 -1129 255 253 217
-328.862 72.9218 -1128 255 253 216
-326.427 72.8925 -1128 255 253 215
-323.707 72.7988 -1127 254 252 215
-321.565 72.8346 -1128 252 253 217
-318.856 72.7414 -1127 252 253 217
-316.435 72.7132 -1127 252 253 217
-313.738 72.6206 -1126 252 253 218
-311.048 72.5283 -1125 253 252 217
-308.365 72.4363 -1124 253 252 216
-305.961 72.409 -1124 252 253 215
-303.56 72.3819 -1124 252 253 216
-300.893 72.2908 -1123 253 252 218
-299.031 72.3929 -1125 253 252 217
-296.636 72.3665 -1125 253 252 217
-293.982 72.276 -1124 254 252 218
-291.594 72.2501 -1124 253 252 217
-288.951 72.1602 -1123 253 252 217
-286.315 72.0706 -1122 253 252 218
-283.433 71.9169 -1120 252 251 217
-281.063 71.892 -1120 252 251 216
-278.447 71.8032 -1119 253 252 216
-276.332 71.8429 -1120 253 252 216
-273.969 71.8187 -1120 253 253 214
-271.61 71.7947 -1120 253 253 214
-269.493 71.835 -1121 252 252 213
-267.135 71.8114 -1121 252 251 215
-265.017 71.8521 -1122 252 251 215
-262.662 71.829 -1122 253 252 217
-260.309 71.806 -1122 252 251 218
-258.189 71.8473 -1123 252 251 218
-255.839 71.8247 -1123 252 251 217
-253.265 71.7385 -1122 252 251 217
-250.922 71.7165 -1122 252 251 217
-248.802 71.7585 -1123 252 251 217
-246.46 71.7369 -1123 252 251 216
-244.338 71.7794 -1124 252 252 212
-242.214 71.822 -1125 252 252 212
-239.875 71.801 -1125 252 252 211
-237.537 71.7801 -1125 252 252 211
-235.411 71.8234 -1126 253 252 212
-233.076 71.803 -1126 254 251 212
-230.742 71.7828 -1126 252 252 210
-228.614 71.8266 -1127 253 253 211
-226.081 71.7431 -1126 245 245 204
-223.555 71.6598 -1125 244 243 200
-221.035 71.5768 -1124 252 250 205
-218.715 71.5578 -1124 250 248 200
-216.59 71.6026 -1125 247 244 196
-214.081 71.5202 -1124 251 248 200
-211.955 71.5654 -1125 252 249 205
-209.454 71.4836 -1124 255 253 212
-207.144 71.4656 -1124 255 253 219
-204.652 71.3842 -1123 255 254 222
-202.347 71.3666 -1123 255 253 226
-200.044 71.3492 -1123 255 253 229
-197.918 71.3956 -1124 255 253 229
-195.964 71.5056 -1126 253 251 226
-193.831 71.5523 -1127 252 251 224
-191.696 71.5992 -1128 253 252 223
-189.39 71.5827 -1128 253 252 221
-187.086 71.5665 -1128 255 254 223
-184.62 71.487 -1127 255 254 225
-182.159 71.4079 -1126 255 254 226
-179.864 71.3923 -1126 254 253 226
-177.255 71.2502 -1124 253 252 222
-174.966 71.235 -1124 254 253 222
-172.679 71.2201 -1124 254 253 220
-170.394 71.2053 -1124 253 254 220
-167.96 71.1275 -1123 253 254 219
-165.975 71.2398 -1125 254 253 219
-163.546 71.1624 -1124 253 252 218
-161.266 71.1485 -1124 252 252 214
-158.987 71.1347 -1124 253 253 213
-156.85 71.1845 -1125 242 242 202
-154.572 71.1712 -1125 228 226 179
-152.295 71.158 -1125 226 224 176
-149.886 71.0819 -1124 219 217 169
-147.614 71.0691 -1124 224 222 173
-145.343 71.0566 -1124 211 209 160
-142.818 70.9179 -1122 171 168 128
-140.679 70.9689 -1123 94 91 59
-138.783 71.1466 -1126 40 37 19
-136.149 70.9453 -1123 34 30 24
-133.29 70.618 -1118 31 27 24
-130.334 70.2278 -1112 30 26 23
-127.174 69.7116 -1104 31 27 25
-124.047 69.1958 -1096 34 30 29
-121.508 68.9959 -1093 37 33 34
-118.765 68.6701 -1088 34 30 31
-116.792 68.7863 -1090 31 27 27
-114.287 68.5871 -1087 33 29 29
-112.001 68.5144 -1086 32 28 29
-110.024 68.6312 -1088 31 27 30
-107.643 68.4957 -1086 36 32 35
-105.173 68.2975 -1083 38 31 35
-103.002 68.2886 -1083 36 31 34
-101.018 68.4061 -1085 37 33 36
-98.753 68.3345 -1084 38 34 37
-96.9386 68.5784 -1088 35 31 34
-95.1961 68.8853 -1093 32 29 32
-92.9237 68.8143 -1092 34 30 33
-90.8224 68.8696 -1093 33 30 33
-88.5555 68.7989 -1092 35 32 37
-86.3724 68.7915 -1092 34 31 36
-84.4214 68.9733 -1095 29 26 31
-82.3089 69.0292 -1096 25 22 27
-80.0467 68.9593 -1095 26 23 28
-77.7182 68.8267 -1093 28 23 31
-75.8129 69.0721 -1097 28 24 31
-73.4895 68.9398 -1095 30 27 32
-71.7608 69.3744 -1102 29 28 32
-69.9417 69.746 -1108 29 28 33
-68.1602 70.1808 -1115 39 35 36
-66.1149 70.3639 -1118 46 42 41
-64.001 70.4843 -1120 56 49 45
-61.8797 70.6048 -1122 107 101 82
-59.6977 70.6626 -1123 166 161 135
-57.5122 70.7206 -1124 197 192 159
-55.274 70.7158 -1124 210 205 169
-53.0835 70.7742 -1125 223 219 176
-50.9346 70.8956 -1127 226 223 180
-48.8645 71.143 -1131 239 236 193
-46.7377 71.3277 -1134 232 228 185
-44.5993 71.5125 -1137 204 201 151
-42.4866 71.7604 -1141 173 171 113
-40.2526 71.8198 -1142 212 210 150
-37.9817 71.8165 -1142 244 242 182
-35.7423 71.8763 -1143 233 231 172
-33.4992 71.9362 -1144 211 209 156
-31.1706 71.8077 -1142 210 207 161
-28.9261 71.8681 -1143 159 154 120
-26.6545 71.8657 -1143 130 125 91
-24.3832 71.8635 -1143 79 74 41
-22.1119 71.8616 -1143 136 132 102
-19.8757 71.9855 -1145 241 239 211
-17.5855 71.9211 -1144 250 250 218
-15.3262 71.9826 -1145 252 251 219
-13.063 72.0443 -1146 253 252 219
-10.796 72.1061 -1147 253 253 222
-8.5102 72.0425 -1146 252 252 222
-6.23937 72.1047 -1147 253 253 227
-3.96116 72.1043 -1147 254 254 230
-1.68445 72.1669 -1148 255 254 234
0.596224 72.2297 -1149 254 254 231
2.88087 72.2928 -1150 253 253 229
5.16503 72.2931 -1150 253 253 226
7.46218 72.4194 -1152 252 252 222
9.75887 72.483 -1153 254 253 221
12.0701 72.6096 -1155 252 251 217
14.3893 72.7364 -1157 252 251 216
16.7166 72.8635 -1159 253 253 215
19.0193 72.865 -1159 252 252 216
21.3036 72.8038 -1158 252 251 216
23.5841 72.7428 -1157 252 251 216
25.8832 72.745 -1157 253 252 215
28.2312 72.873 -1159 252 252 213
30.5874 73.0013 -1161 247 246 210
32.9518 73.1297 -1163 252 251 216
35.3244 73.2584 -1165 252 251 217
37.6729 73.3243 -1166 252 252 216
40.0258 73.3905 -1167 252 252 213
42.3829 73.4569 -1168 251 251 213
44.7826 73.5863 -1170 251 251 213
47.1906 73.7161 -1172 251 251 213
49.5226 73.7201 -1172 251 251 210
51.8548 73.7244 -1172 249 249 206
54.1874 73.7289 -1172 246 247 197
56.5206 73.7336 -1172 243 243 194
58.8541 73.7385 -1172 246 246 197
61.2925 73.8694 -1174 249 248 203
63.6311 73.8747 -1174 246 245 202
65.97 73.8802 -1174 252 252 213
68.3678 73.9488 -1175 253 251 215
70.8302 74.0805 -1177 254 252 217
73.2391 74.1496 -1178 246 244 202
75.6525 74.2189 -1179 225 223 177
78.2027 74.4143 -1182 237 235 184
80.6294 74.484 -1183 249 246 204
82.9905 74.4909 -1183 249 246 204
85.4965 74.624 -1185 246 244 198
87.9371 74.6943 -1186 244 243 198
90.3824 74.7649 -1187 243 241 197
92.8325 74.8357 -1188 243 241 195
95.3674 74.9696 -1190 243 241 194
97.7468 74.9778 -1190 243 241 193
100.211 75.0492 -1191 243 241 194
102.68 75.1209 -1192 242 241 195
105.066 75.1297 -1192 241 241 195
107.543 75.2018 -1193 241 239 192
110.025 75.2741 -1194 238 236 188
112.511 75.3466 -1195 240 238 190
115.003 75.4193 -1196 244 242 196
117.597 75.5553 -1198 245 243 199
120.001 75.5654 -1198 243 241 195
122.507 75.6388 -1199 241 239 193
125.227 75.8387 -1202 243 241 195
127.747 75.9126 -1203 246 242 197
130.273 75.9867 -1204 246 242 197
132.803 76.061 -1205 244 240 197
135.564 76.2618 -1208 244 240 197
137.994 76.2735 -1208 246 242 199
140.426 76.2853 -1208 247 245 201
143.095 76.4237 -1210 250 248 204
145.654 76.4992 -1211 251 249 205
148.217 76.5749 -1212 247 245 199
150.786 76.6509 -1213 244 242 196
153.36 76.7271 -1214 248 246 200
155.94 76.8036 -1215 248 246 196
158.524 76.8802 -1216 252 250 202
161.379 77.0836 -1219 251 249 205
164.382 77.3505 -1223 253 251 206
167.675 77.7442 -1229 246 240 199
170.717 78.0118 -1233 232 213 183
173.776 78.2796 -1237 234 215 188
176.426 78.3579 -1238 238 217 191
178.936 78.3731 -1238 242 213 194
181.448 78.3886 -1238 242 213 196
184.408 78.5943 -1241 242 213 197
187.079 78.6736 -1242 244 214 199
189.604 78.6898 -1242 245 213 197
192.285 78.7696 -1243 247 213 197
194.972 78.8495 -1244 247 210 195
197.664 78.9298 -1245 247 210 195
200.362 79.0103 -1246 247 209 194
203.228 79.1545 -1248 247 209 194
206.27 79.3625 -1251 246 208 193
208.991 79.4438 -1252 245 207 192
211.549 79.462 -1252 245 207 192
214.281 79.5438 -1253 246 208 193
217.19 79.6894 -1255 246 208 193
219.585 79.6447 -1254 245 207 193
222.509 79.7909 -1256 243 205 191
225.264 79.8737 -1257 245 207 193
227.481 79.7662 -1255 246 208 193
229.875 79.7225 -1254 244 206 192
232.452 79.7425 -1254 244 206 192
235.218 79.8263 -1255 243 206 190
237.991 79.9104 -1256 243 206 190
240.77 79.9948 -1257 243 207 191
243.554 80.0795 -1258 244 207 192
246.15 80.1007 -1258 244 207 192
249.143 80.2495 -1260 244 206 192
251.347 80.1439 -1258 243 207 192
254.352 80.2933 -1260 244 207 191
256.552 80.1881 -1258 244 206 190
259.364 80.2743 -1259 244 206 190
261.767 80.2332 -1258 243 206 190
264.587 80.3199 -1259 243 205 190
266.778 80.2154 -1257 243 205 189
269.605 80.3026 -1258 245 206 190
272.222 80.3263 -1258 245 205 189
274.841 80.3502 -1258 245 206 187
277.463 80.3743 -1258 244 206 192
279.865 80.3348 -1257 244 206 192
282.939 80.4872 -1259 245 206 192
286.024 80.64 -1261 245 204 189
288.662 80.6652 -1261 244 203 188
291.533 80.7546 -1262 243 202 187
294.411 80.8443 -1263 241 203 185
297.061 80.8703 -1263 238 201 183
299.476 80.8324 -1262 236 199 181
302.368 80.9229 -1263 236 199 181
304.783 80.8855 -1262 233 198 179
308.172 81.1048 -1265 231 196 177
310.593 81.0679 -1264 231 195 175
313.756 81.2237 -1266 230 194 174
316.181 81.1873 -1265 230 194 174
318.856 81.2153 -1265 232 195 178
321.279 81.1794 -1264 232 195 177
323.445 81.0794 -1262 232 197 180
326.381 81.1724 -1263 231 197 181
329.063 81.2013 -1263 232 198 178
332.273 81.3592 -1265 234 199 177
335.23 81.4531 -1266 235 199 178
337.927 81.483 -1266 237 201 180
340.089 81.3844 -1264 236 200 180
342.246 81.2858 -1262 237 202 182
344.67 81.2519 -1261 235 201 181
347.644 81.3471 -1262 234 201 185
350.903 81.5072 -1264 232 202 187
353.894 81.603 -1265 233 200 184
356.892 81.6993 -1266 236 198 179
359.898 81.7958 -1267 236 200 180
362.911 81.8926 -1268 235 201 182
365.932 81.9897 -1269 234 200 182
369.251 82.1519 -1271 232 199 183
371.704 82.1204 -1270 232 199 178
374.156 82.0891 -1269 229 196 175
376.607 82.058 -1268 227 194 174
379.655 82.1566 -1269 226 193 173
382.711 82.2557 -1270 225 192 172
386.078 82.4197 -1272 225 193 173
389.152 82.5194 -1273 223 192 173
392.85 82.7491 -1276 219 188 171
395.324 82.7197 -1275 218 187 170
398.421 82.8204 -1276 215 185 168
402.47 83.1162 -1280 212 183 167
405.274 83.1527 -1280 203 182 176
409.357 83.4494 -1284 197 178 174
411.213 83.2914 -1281 195 176 172
414.677 83.4589 -1283 192 174 171
416.851 83.3664 -1281 189 172 168
427.993 84.0024 -1289 176 171 168
431.85 84.237 -1292 176 170 167
436.733 84.6678 -1298 175 170 167
441.308 85.034 -1303 173 169 169
-577.844 74.5047 -1128 0 0 0
-572.44 74.1197 -1123 0 0 0
-567.575 73.8015 -1119 0 0 0
-567.783 74.1429 -1125 161 162 169
-561.439 73.6281 -1118 163 163 170
-557.135 73.3775 -1115 165 164 171
-553.348 73.1932 -1113 167 163 169
-550.567 73.1409 -1113 168 161 164
-545.824 72.8263 -1109 172 162 164
-544.533 72.9717 -1112 177 164 165
-540.311 72.7237 -1109 181 170 170
-537.563 72.6729 -1109 187 175 173
-533.856 72.4914 -1107 194 181 178
-530.645 72.3759 -1106 202 187 185
-526.966 72.1954 -1104 211 192 181
-523.778 72.0807 -1103 217 197 185
-520.128 71.9012 -1101 223 202 189
-517.433 71.8526 -1101 223 202 188
-516.146 72 -1104 225 204 190
-513.92 72.0171 -1105 228 206 193
-512.619 72.1647 -1108 230 207 196
-510.849 72.2473 -1110 232 206 195
-507.701 72.1348 -1109 230 206 195
-505.018 72.0877 -1109 229 206 196
-502.341 72.041 -1109 231 206 199
-499.668 71.9945 -1109 226 206 199
-496.553 71.8835 -1108 224 206 198
-494.785 71.9674 -1110 222 206 196
-492.569 71.9866 -1111 222 205 194
-490.353 72.006 -1112 221 204 194
-488.137 72.0256 -1113 219 202 194
-485.921 72.0455 -1114 216 199 198
-484.14 72.1302 -1116 210 194 193
-482.353 72.215 -1118 204 189 189
-479.704 72.1708 -1118 196 182 181
-478.767 72.385 -1122 187 174 174
-475.694 72.2768 -1121 179 166 166
-473.474 72.2978 -1122 170 160 163
-471.674 72.3835 -1124 167 158 162
-470.703 72.598 -1128 165 158 163
-470.134 72.8768 -1133 163 158 165
-468.72 73.0269 -1136 163 159 166
-467.707 73.2414 -1140 164 160 167
-465.049 73.199 -1140 160 159 167
-461.584 73.0285 -1138 158 159 165
-457.326 72.7303 -1134 157 158 163
-455.497 72.8172 -1136 158 157 163
-453.264 72.8401 -1137 158 155 161
-449.843 72.6712 -1135 156 153 157
-447.223 72.6307 -1135 158 153 154
-444.999 72.6544 -1136 163 157 156
-442.774 72.6783 -1137 165 158 157
-440.55 72.7024 -1138 167 160 159
-438.325 72.7267 -1139 174 165 165
-436.865 72.8789 -1142 181 170 171
-434.634 72.9036 -1143 185 172 174
-432.404 72.9284 -1144 189 176 177
-429.797 72.8899 -1144 193 180 181
-428.314 73.0425 -1147 193 180 182
-425.338 72.9407 -1146 196 183 185
-422.001 72.7756 -1144 199 185 186
-419.41 72.738 -1144 199 185 184
-416.095 72.5736 -1142 204 191 187
-413.155 72.4732 -1141 208 194 191
-410.583 72.4365 -1141 210 196 195
-409.088 72.5904 -1144 213 197 195
-406.516 72.5542 -1144 215 199 195
-404.302 72.5816 -1145 217 199 193
-401.386 72.4825 -1144 219 201 194
-399.175 72.5104 -1145 221 203 196
-396.617 72.4752 -1145 222 204 197
-394.751 72.5668 -1147 224 204 197
-392.537 72.5953 -1148 226 206 199
-390.663 72.6872 -1150 231 207 197
-387.096 72.4633 -1147 233 207 198
-384.887 72.4925 -1148 234 208 198
-382.344 72.4587 -1148 237 211 201
-380.466 72.5513 -1150 237 211 201
-377.268 72.3919 -1148 236 210 200
-375.388 72.485 -1150 241 210 204
-372.531 72.3892 -1149 240 211 203
-369.681 72.2936 -1148 240 212 203
-365.879 72.0096 -1144 240 212 203
-363.051 71.9148 -1143 234 210 200
-359.916 71.7574 -1141 245 230 217
-355.852 71.4117 -1136 255 251 235
-352.436 71.1922 -1133 255 251 233
-350.272 71.2244 -1134 255 252 229
-347.187 71.0684 -1132 255 253 224
-344.113 70.9128 -1130 255 251 220
-341.656 70.883 -1130 255 251 214
-339.202 70.8534 -1130 255 252 216
-336.453 70.7613 -1129 255 253 218
-333.711 70.6696 -1128 255 254 217
-331.27 70.6408 -1128 255 254 216
-328.541 70.5496 -1127 255 253 214
-325.819 70.4587 -1126 255 253 212
-323.392 70.4306 -1126 254 253 213
-320.967 70.4028 -1126 250 253 217
-318.545 70.3752 -1126 252 253 218
-316.126 70.3478 -1126 252 253 218
-313.432 70.2582 -1125 252 253 218
-310.744 70.1688 -1124 253 252 217
-308.063 70.0798 -1123 253 252 217
-305.662 70.0534 -1123 253 253 210
-303.263 70.0272 -1123 253 253 212
-300.599 69.9389 -1122 253 253 214
-298.739 70.0379 -1124 253 253 215
-296.346 70.0123 -1124 253 253 215
-293.695 69.9247 -1123 253 252 217
-291.309 69.8997 -1123 252 251 216
-288.669 69.8126 -1122 252 251 216
-286.035 69.7258 -1121 252 251 217
-283.155 69.5771 -1119 253 252 217
-280.788 69.553 -1119 253 252 216
-278.174 69.467 -1118 252 252 214
-276.061 69.5055 -1119 252 252 213
-273.946 69.5442 -1120 251 251 211
-271.829 69.583 -1121 252 252 212
-269.71 69.622 -1122 253 253 213
-267.351 69.5992 -1122 253 253 214
-265.23 69.6386 -1123 252 251 214
-262.873 69.6161 -1123 251 250 215
-260.519 69.5939 -1123 252 251 215
-258.167 69.5719 -1123 251 250 214
-255.817 69.5501 -1123 251 250 213
-253.469 69.5285 -1123 251 250 213
-250.9 69.4452 -1122 251 251 214
-248.78 69.486 -1123 252 251 214
-246.439 69.4651 -1123 251 251 212
-244.317 69.5061 -1124 252 252 209
-241.978 69.4856 -1124 251 251 208
-239.641 69.4652 -1124 251 251 208
-237.517 69.5069 -1125 251 251 208
-235.182 69.487 -1125 252 251 209
-232.849 69.4672 -1125 254 251 210
-230.723 69.5094 -1126 252 251 209
-228.391 69.4901 -1126 252 252 210
-226.062 69.471 -1126 246 246 204
-223.337 69.3287 -1124 245 244 200
-220.819 69.2484 -1123 253 251 204
-218.502 69.2299 -1123 245 243 194
-216.186 69.2117 -1123 241 239 189
-214.063 69.2553 -1124 251 248 198
-211.749 69.2374 -1124 251 248 204
-209.25 69.1582 -1123 255 253 211
-206.942 69.1408 -1123 255 254 220
-204.453 69.0619 -1122 255 254 222
-201.97 68.9834 -1121 255 254 227
-199.849 69.0281 -1122 255 253 229
-197.725 69.073 -1123 255 253 230
-195.599 69.1181 -1124 253 251 226
-193.642 69.2248 -1126 252 251 224
-191.679 69.3317 -1128 253 252 222
-189.374 69.3158 -1128 253 252 220
-187.236 69.3615 -1129 254 253 221
-184.604 69.2231 -1127 255 254 224
-182.144 69.1465 -1126 255 254 225
-179.689 69.07 -1125 254 253 225
-177.24 68.9937 -1124 253 252 222
-174.64 68.8563 -1122 253 252 222
-172.511 68.9033 -1123 254 253 221
-170.38 68.9504 -1124 252 253 219
-168.096 68.9363 -1124 251 252 217
-165.961 68.9837 -1125 253 252 218
-163.532 68.9088 -1124 253 252 217
-161.252 68.8953 -1124 253 253 215
-158.833 68.8207 -1123 253 253 214
-156.697 68.8689 -1124 246 246 206
-154.696 68.9785 -1126 230 229 181
-152.282 68.9045 -1125 231 230 181
-149.873 68.8308 -1124 221 219 170
-147.601 68.8185 -1124 223 221 172
-145.33 68.8063 -1124 220 218 169
-142.806 68.672 -1122 171 168 129
-140.667 68.7215 -1123 78 75 46
-138.648 68.8323 -1125 38 35 22
-136.016 68.6374 -1122 33 29 25
-133.398 68.4428 -1119 30 26 24
-130.441 68.065 -1113 29 25 22
-127.509 67.6874 -1107 31 27 25
-124.828 67.4324 -1103 36 32 31
-121.943 67.0555 -1097 39 36 36
-119.301 66.801 -1093 35 31 32
-116.783 66.6079 -1090 32 28 27
-114.488 66.5373 -1089 33 29 29
-112.095 66.4058 -1087 31 27 28
-110.116 66.5188 -1089 30 26 29
-107.832 66.4488 -1088 35 31 34
-105.65 66.44 -1088 36 29 33
-103.183 66.2482 -1085 35 30 33
-101.102 66.3008 -1086 37 33 36
-99.018 66.3536 -1087 38 34 37
-96.9305 66.4067 -1088 34 30 33
-94.9269 66.5208 -1090 34 30 33
-92.916 66.6352 -1092 33 29 32
-90.7317 66.6276 -1092 31 28 31
-88.467 66.5592 -1091 35 32 37
-86.4443 66.674 -1093 35 32 37
-84.4144 66.789 -1095 31 28 33
-82.2269 66.7822 -1095 29 26 31
-80.1132 66.8365 -1096 29 26 31
-77.6406 66.5862 -1092 29 24 32
-75.4611 66.5798 -1092 29 24 32
-73.2821 66.5737 -1092 30 27 32
-71.6897 67.1164 -1101 30 29 33
-69.7465 67.3545 -1105 30 30 34
-68.0323 67.8365 -1113 40 35 36
-66.0503 68.0748 -1117 46 41 41
-64.0528 68.3132 -1121 51 45 42
-61.9297 68.4299 -1123 94 88 70
-59.6927 68.4249 -1123 138 132 109
-57.5586 68.542 -1125 171 166 133
-55.3678 68.5983 -1126 192 187 151
-53.0791 68.5329 -1125 217 213 170
-50.9756 68.7114 -1128 219 216 172
-48.8604 68.8901 -1131 237 235 190
-46.775 69.1297 -1135 222 218 172
-44.5956 69.2478 -1137 190 187 135
-42.4459 69.427 -1140 183 181 122
-40.214 69.4845 -1141 228 226 166
-37.9453 69.4813 -1141 245 243 183
-35.708 69.5392 -1142 232 230 170
-33.4672 69.5973 -1143 225 223 169
-31.168 69.5338 -1142 211 209 161
-28.9237 69.5921 -1143 195 191 152
-26.629 69.529 -1142 129 125 88
-24.3384 69.4661 -1141 96 91 58
-22.0714 69.4642 -1141 107 103 74
-19.8393 69.5842 -1143 224 220 193
-17.5533 69.5218 -1142 252 251 219
-15.2982 69.5813 -1143 251 250 218
-13.0392 69.641 -1144 254 253 219
-10.7857 69.7618 -1146 251 251 218
-8.50208 69.7002 -1145 255 254 221
-6.23342 69.7604 -1146 254 253 225
-3.95738 69.76 -1146 254 253 227
-1.68285 69.8207 -1147 254 254 232
0.595652 69.8815 -1148 254 254 230
2.87813 69.9425 -1149 253 253 229
5.1601 69.9429 -1149 254 252 227
7.4486 70.0042 -1150 253 251 223
9.74959 70.1267 -1152 253 252 220
12.0482 70.1884 -1153 252 251 217
14.3632 70.3113 -1155 251 251 216
16.7008 70.4953 -1158 253 253 215
19.0176 70.5575 -1159 252 252 216
21.3018 70.4984 -1158 253 252 217
23.6025 70.5002 -1158 252 252 214
25.9034 70.5022 -1158 253 253 214
28.2045 70.5044 -1158 252 252 212
30.5585 70.6286 -1160 243 243 205
32.949 70.8139 -1163 250 250 213
35.3214 70.9385 -1165 252 251 217
37.6698 71.0023 -1166 253 252 215
39.9882 71.0055 -1166 252 252 212
42.3794 71.1307 -1168 251 251 213
44.7789 71.256 -1170 250 250 212
47.1867 71.3816 -1172 251 251 213
49.5183 71.3856 -1172 252 252 210
51.8947 71.4506 -1173 250 250 206
54.1829 71.3941 -1172 246 247 200
56.5158 71.3986 -1172 239 239 191
58.799 71.3425 -1171 243 241 192
61.2352 71.4693 -1173 248 247 199
63.5715 71.4743 -1173 246 244 198
65.9084 71.4797 -1173 251 251 210
68.3039 71.5461 -1174 252 251 214
70.8244 71.7346 -1177 255 253 218
73.233 71.8015 -1178 244 242 199
75.6461 71.8686 -1179 224 222 175
78.1963 72.0578 -1182 235 233 182
80.5546 72.0643 -1182 246 244 198
82.9836 72.132 -1183 244 242 197
85.4895 72.2608 -1185 241 241 193
88.004 72.3899 -1187 241 239 193
90.4511 72.4582 -1188 239 237 192
92.981 72.5878 -1190 240 238 190
95.4395 72.6565 -1191 240 238 190
97.8208 72.6645 -1191 239 237 189
100.287 72.7336 -1192 237 235 187
102.758 72.803 -1193 237 236 187
105.057 72.7505 -1192 238 239 190
107.534 72.8203 -1193 238 237 188
109.923 72.8293 -1193 236 234 185
112.408 72.8995 -1194 240 238 191
114.897 72.9699 -1195 241 239 193
117.391 73.0405 -1196 240 238 192
119.89 73.1113 -1197 239 237 190
122.395 73.1824 -1198 239 237 190
125.008 73.3148 -1200 242 239 193
127.63 73.4474 -1202 242 238 193
130.154 73.5192 -1203 240 236 191
132.792 73.6522 -1205 239 235 190
135.552 73.8467 -1208 241 237 193
138.097 73.9192 -1209 243 239 195
140.53 73.9307 -1209 245 242 199
143.202 74.0647 -1211 249 246 202
145.882 74.199 -1213 250 248 204
148.327 74.2112 -1213 245 243 196
150.898 74.2847 -1214 243 241 194
153.6 74.4197 -1216 248 246 199
156.055 74.4325 -1216 248 246 194
158.772 74.568 -1218 251 249 200
161.63 74.765 -1221 251 249 205
164.502 74.9622 -1224 253 251 207
167.524 75.2209 -1228 247 241 200
170.564 75.48 -1232 232 213 184
173.621 75.7394 -1236 235 216 188
176.268 75.8152 -1237 238 217 191
178.921 75.8912 -1238 243 214 195
181.433 75.9061 -1238 244 214 197
184.392 76.1053 -1241 243 214 197
187.063 76.1821 -1242 244 214 199
189.588 76.1978 -1242 246 213 197
192.578 76.3977 -1245 246 211 195
195.112 76.4139 -1245 247 210 195
197.965 76.553 -1247 248 210 196
200.506 76.5696 -1247 248 209 196
203.211 76.6479 -1248 247 209 196
205.923 76.7263 -1249 247 209 196
208.806 76.8665 -1251 247 209 196
211.363 76.8841 -1251 246 208 195
213.92 76.9018 -1251 246 208 195
216.826 77.0427 -1253 245 208 195
219.567 77.1225 -1254 244 207 193
222.313 77.2024 -1255 243 205 192
225.065 77.2827 -1256 243 206 193
227.099 77.117 -1253 244 207 194
229.672 77.1362 -1253 245 205 193
232.247 77.1555 -1253 246 205 193
234.823 77.1751 -1253 245 204 192
237.592 77.2565 -1254 245 206 194
240.557 77.3998 -1256 245 207 194
243.34 77.4817 -1257 243 205 192
245.933 77.5023 -1257 243 205 190
248.726 77.5848 -1258 244 206 189
250.926 77.4824 -1256 245 207 190
254.129 77.6887 -1259 245 206 188
256.53 77.6486 -1258 245 205 186
259.342 77.732 -1259 245 205 187
261.744 77.6922 -1258 246 206 191
264.775 77.838 -1260 246 205 191
267.179 77.7986 -1259 246 205 191
269.796 77.8213 -1259 246 204 189
272.415 77.8442 -1259 245 203 188
275.036 77.8673 -1259 247 204 188
277.44 77.8289 -1258 244 206 190
280.064 77.8525 -1258 243 204 188
283.139 78.0001 -1260 243 204 187
285.772 78.0243 -1260 242 202 183
288.637 78.1105 -1261 240 199 181
291.97 78.321 -1264 238 195 178
294.852 78.4079 -1265 234 196 177
297.505 78.4331 -1265 232 194 174
299.687 78.3345 -1263 229 191 170
302.82 78.4841 -1265 229 191 171
305.24 78.448 -1264 225 189 168
308.389 78.5983 -1266 223 187 166
311.058 78.6247 -1266 225 187 166
314.225 78.7756 -1268 224 188 166
316.653 78.7404 -1267 223 187 166
319.584 78.8297 -1268 225 189 170
321.76 78.7328 -1266 227 191 172
324.186 78.6982 -1265 228 193 176
326.869 78.7261 -1265 229 195 178
329.816 78.8164 -1266 229 195 175
332.244 78.7825 -1265 232 196 175
334.936 78.8112 -1265 235 199 177
337.631 78.84 -1265 235 199 178
340.059 78.8068 -1264 238 199 180
342.216 78.7115 -1262 240 202 183
345.186 78.8034 -1263 239 202 183
348.164 78.8956 -1264 235 200 183
351.427 79.0507 -1266 233 200 184
354.143 79.0811 -1266 236 201 185
356.861 79.1117 -1266 238 200 183
359.866 79.2052 -1267 236 201 183
363.166 79.3615 -1269 238 203 185
366.477 79.5182 -1271 236 202 184
369.509 79.6126 -1272 234 201 184
372.549 79.7073 -1273 236 200 181
374.713 79.6145 -1271 235 199 181
376.277 79.3964 -1267 232 197 179
379.322 79.4919 -1268 231 196 177
381.773 79.4623 -1267 232 196 178
384.527 79.4956 -1267 230 195 176
388.201 79.7176 -1270 230 195 177
391.584 79.8771 -1272 229 195 178
394.669 79.9742 -1273 228 193 176
397.762 80.0716 -1274 226 191 174
401.806 80.358 -1278 222 188 171
404.288 80.3303 -1277 219 188 177
407.407 80.4287 -1278 215 185 174
409.893 80.4016 -1277 213 184 173
412.378 80.3746 -1276 213 184 173
414.536 80.2849 -1274 209 182 171
418.983 80.6366 -1279 201 180 170
419.828 80.2951 -1273 201 181 170
424.634 80.7108 -1279 198 180 169
428.469 80.9377 -1282 195 177 167
431.647 81.0388 -1283 195 178 167
435.173 81.2034 -1285 191 176 167
439.734 81.5579 -1290 184 173 168
460.926 82.4936 -1301 172 168 173
-581.436 71.323 -1113 157 156 164
-574.955 70.821 -1106 156 156 162
-570.586 70.5758 -1103 156 156 160
-568.297 70.587 -1104 158 158 162
-566.521 70.6625 -1106 160 160 164
-562.193 70.4187 -1103 162 162 166
-559.915 70.4308 -1104 164 163 166
-559.151 70.6344 -1108 172 167 169
-555.863 70.5193 -1107 180 173 174
-552.086 70.3411 -1105 188 179 179
-548.823 70.2269 -1104 198 183 182
-546.065 70.1768 -1104 206 187 184
-541.836 69.9364 -1101 215 193 187
-540.076 70.0139 -1103 221 197 188
-536.363 69.8379 -1101 226 202 192
-534.12 69.8525 -1102 229 204 192
-531.878 69.8672 -1103 229 203 192
-528.676 69.7557 -1102 231 204 192
-525.486 69.6445 -1101 234 205 193
-522.305 69.5338 -1100 239 209 196
-519.608 69.4866 -1100 244 213 200
-516.446 69.3765 -1099 244 214 199
-515.164 69.5192 -1102 243 213 197
-512.477 69.4727 -1102 244 213 197
-511.184 69.6156 -1105 246 214 198
-508.961 69.6327 -1106 248 215 198
-506.739 69.6499 -1107 246 215 198
-504.061 69.6045 -1107 245 215 199
-501.389 69.5593 -1107 246 215 202
-498.722 69.5145 -1107 244 215 202
-496.508 69.5327 -1108 241 214 201
-493.403 69.4257 -1107 238 213 198
-491.637 69.507 -1109 240 214 199
-489.867 69.5885 -1111 240 214 199
-487.216 69.545 -1111 239 213 200
-485.877 69.6893 -1114 240 213 202
-483.662 69.7088 -1115 237 210 200
-481.447 69.7284 -1116 238 212 201
-477.945 69.5609 -1114 235 209 199
-476.59 69.7058 -1117 230 205 195
-474.378 69.7261 -1118 222 198 189
-472.165 69.7465 -1119 211 191 188
-469.533 69.7049 -1119 201 184 181
-468.575 69.9126 -1123 193 178 175
-468.017 70.1825 -1128 185 172 172
-466.203 70.2657 -1130 182 169 169
-464.384 70.3491 -1132 179 167 168
-462.152 70.3705 -1133 178 169 170
-459.92 70.3921 -1134 177 169 168
-456.882 70.2898 -1133 178 170 169
-455.055 70.3739 -1135 181 171 170
-453.224 70.4581 -1137 186 175 174
-449.803 70.2947 -1135 193 180 177
-446.789 70.1937 -1134 200 184 176
-444.176 70.1547 -1134 211 193 183
-441.956 70.178 -1135 217 198 189
-439.737 70.2013 -1136 221 201 192
-437.516 70.225 -1137 224 202 193
-435.678 70.3105 -1139 226 204 195
-433.075 70.2728 -1139 229 204 196
-430.854 70.297 -1140 229 204 196
-428.256 70.2597 -1140 229 204 196
-426.41 70.346 -1142 229 205 197
-423.816 70.3092 -1142 230 205 197
-420.857 70.2111 -1141 230 205 197
-417.907 70.1134 -1140 231 206 199
-414.601 69.9545 -1138 234 208 199
-411.67 69.8575 -1137 234 208 199
-409.108 69.8222 -1137 234 208 200
-407.264 69.9098 -1139 236 209 200
-405.06 69.9363 -1140 237 210 200
-402.502 69.9016 -1140 237 210 199
-399.948 69.8672 -1140 238 211 199
-397.746 69.8943 -1141 239 212 200
-394.85 69.7992 -1140 241 214 202
-392.651 69.8267 -1141 243 215 202
-390.452 69.8544 -1142 245 216 203
-388.251 69.8823 -1143 245 213 200
-386.05 69.9105 -1144 245 213 200
-383.512 69.8777 -1144 248 215 202
-381.311 69.9061 -1145 250 216 203
-378.448 69.8128 -1144 249 215 202
-376.578 69.9027 -1146 248 214 201
-373.724 69.8098 -1145 251 214 203
-371.85 69.9002 -1147 252 216 204
-369.327 69.8687 -1147 251 218 205
-366.167 69.7158 -1145 251 218 206
-363.338 69.6241 -1144 243 215 201
-359.569 69.3501 -1140 248 233 216
-356.135 69.1374 -1137 255 250 233
-352.406 68.8643 -1133 255 251 233
-349.933 68.8347 -1133 255 252 228
-346.544 68.6231 -1130 255 252 222
-343.779 68.5334 -1129 255 252 219
-341.324 68.5045 -1129 255 252 213
-338.572 68.4153 -1128 255 253 217
-336.126 68.3869 -1128 255 252 218
-333.978 68.4194 -1129 255 252 215
-331.242 68.331 -1128 255 253 216
-328.513 68.2427 -1127 255 254 216
-326.081 68.2153 -1127 255 253 213
-323.077 68.0672 -1125 254 251 212
-320.655 68.0402 -1125 251 253 215
-318.235 68.0135 -1125 251 253 216
-315.538 67.9266 -1124 252 253 216
-313.127 67.9004 -1124 252 252 217
-310.718 67.8744 -1124 252 252 216
-308.037 67.7883 -1123 253 252 215
-305.636 67.7628 -1123 253 252 207
-303.237 67.7374 -1123 252 252 208
-300.574 67.652 -1122 252 252 211
-298.448 67.6874 -1123 253 253 213
-296.058 67.6627 -1123 252 251 212
-293.67 67.6383 -1123 252 252 215
-291.284 67.6141 -1123 252 252 215
-288.387 67.4697 -1121 252 252 214
-286.011 67.446 -1121 252 251 216
-283.131 67.3021 -1119 252 251 216
-280.764 67.2788 -1119 251 251 214
-278.151 67.1956 -1118 251 251 212
-275.791 67.1728 -1118 251 251 211
-273.678 67.2102 -1119 251 251 211
-271.806 67.3078 -1121 252 252 211
-269.687 67.3456 -1122 252 252 210
-267.566 67.3835 -1123 251 251 212
-265.444 67.4215 -1124 250 250 212
-263.085 67.3998 -1124 251 250 213
-260.729 67.3783 -1124 251 250 211
-258.375 67.357 -1124 250 250 210
-256.023 67.3359 -1124 249 249 207
-253.448 67.2551 -1123 249 249 207
-250.879 67.1745 -1122 250 250 208
-248.76 67.214 -1123 250 250 208
-246.419 67.1937 -1123 250 250 207
-244.297 67.2335 -1124 250 250 205
-241.958 67.2136 -1124 250 250 206
-239.834 67.2537 -1125 250 250 206
-237.497 67.2343 -1125 251 251 206
-235.162 67.2149 -1125 252 251 207
-232.83 67.1959 -1125 253 250 209
-230.499 67.177 -1125 250 250 207
-228.17 67.1584 -1125 251 251 207
-225.642 67.0802 -1124 245 245 201
-223.12 67.0022 -1123 245 244 198
-220.604 66.9246 -1122 252 250 201
-218.484 66.9664 -1123 240 238 188
-216.168 66.9487 -1123 240 238 187
-213.855 66.9313 -1123 249 246 196
-211.731 66.9736 -1124 249 247 201
-209.233 66.897 -1123 254 252 208
-206.74 66.8205 -1122 255 254 220
-204.254 66.7443 -1121 255 254 222
-201.773 66.6683 -1120 255 254 227
-199.654 66.7117 -1121 255 253 229
-197.533 66.7551 -1122 255 253 230
-195.409 66.7987 -1123 253 251 226
-193.283 66.8425 -1124 253 251 224
-191.324 66.9459 -1126 254 253 223
-189.191 66.99 -1127 253 252 220
-187.055 67.0342 -1128 254 253 221
-184.589 66.9598 -1127 254 253 223
-182.129 66.8856 -1126 254 253 224
-179.674 66.8117 -1125 254 253 225
-177.225 66.7379 -1124 252 252 222
-174.626 66.605 -1122 252 252 222
-172.343 66.5911 -1122 253 252 220
-170.214 66.6366 -1123 253 253 219
-167.932 66.6231 -1123 252 253 218
-165.8 66.6689 -1124 254 253 219
-163.519 66.6557 -1124 252 252 217
-161.383 66.702 -1125 253 253 215
-158.961 66.6298 -1124 254 254 214
-156.684 66.6172 -1124 249 249 209
-154.683 66.7232 -1126 228 228 180
-152.27 66.6516 -1125 228 228 179
-149.861 66.5803 -1124 221 219 168
-147.458 66.5092 -1123 216 214 165
-145.319 66.5567 -1124 226 224 175
-142.667 66.3675 -1121 164 161 124
-140.53 66.4154 -1122 72 69 42
-138.267 66.4043 -1122 37 34 26
-135.763 66.275 -1120 35 31 28
-133.506 66.2642 -1120 28 24 22
-130.313 65.7804 -1112 25 21 18
-127.613 65.5334 -1108 32 29 26
-125.384 65.5234 -1108 35 33 31
-122.489 65.1587 -1102 35 32 32
-119.4 64.676 -1094 34 30 31
-117.202 64.6666 -1094 34 30 29
-114.584 64.421 -1090 33 29 29
-111.88 64.1164 -1085 30 26 27
-109.803 64.1667 -1086 31 27 30
-107.526 64.0989 -1085 35 30 34
-105.35 64.0905 -1085 35 28 32
-103.27 64.1412 -1086 34 28 32
-101.001 64.074 -1085 36 32 35
-99.01 64.1842 -1087 37 33 36
-96.9227 64.2354 -1088 33 29 32
-94.9192 64.3459 -1090 34 30 33
-92.7383 64.3384 -1090 33 29 32
-90.6413 64.3901 -1091 31 28 31
-88.2977 64.265 -1089 36 33 38
-86.3582 64.4351 -1092 36 33 38
-84.4076 64.6054 -1095 33 30 35
-82.2202 64.5987 -1095 30 27 32
-79.8874 64.4743 -1093 28 25 30
-77.5632 64.3501 -1091 30 25 33
-75.6622 64.5799 -1095 30 25 33
-73.4104 64.515 -1094 30 27 32
-71.4886 64.7452 -1098 31 29 34
-69.8671 65.2702 -1107 30 30 34
-67.9046 65.5006 -1111 40 34 35
-66.045 65.8491 -1117 45 39 39
-63.9334 65.9618 -1119 48 42 39
-61.9247 66.1926 -1123 82 76 59
-59.6879 66.1878 -1123 116 110 88
-57.554 66.301 -1125 148 143 112
-55.3141 66.2965 -1125 178 173 138
