ply
format ascii 1.0
comment Created by Open3D
element vertex 1497
property double x
property double y
property double z
property uchar red
property uchar green
property uchar blue
end_header
151.412 273.89 -1832 12 11 17
155.099 273.921 -1832 14 13 20
159.134 274.551 -1836 15 14 21
162.832 274.584 -1836 14 13 20
166.622 274.767 -1837 15 14 21
170.232 274.652 -1836 16 15 22
174.028 274.836 -1837 16 15 22
177.443 274.423 -1834 15 14 21
181.243 274.609 -1835 13 12 19
185.048 274.796 -1836 13 12 19
188.653 274.684 -1835 13 12 19
192.151 274.424 -1833 14 13 20
195.962 274.613 -1834 14 13 20
199.78 274.803 -1835 16 16 20
203.492 274.844 -1835 15 15 19
207.432 275.185 -1837 14 14 18
211.496 275.677 -1840 14 14 18
215.224 275.721 -1840 13 13 17
219.191 276.065 -1842 14 14 18
223.047 276.26 -1843 12 12 16
226.786 276.306 -1843 16 16 20
230.777 276.652 -1845 18 18 22
234.651 276.85 -1846 17 17 21
238.402 276.898 -1846 18 18 22
242.285 277.097 -1847 18 18 22
246.309 277.447 -1849 29 24 27
257.882 277.902 -1851 130 112 102
262.363 278.706 -1856 132 113 105
266.148 278.76 -1856 131 110 103
270.082 278.965 -1857 135 114 106
273.726 278.87 -1856 137 116 108
277.818 279.227 -1858 138 117 111
281.465 279.134 -1857 141 120 114
285.418 279.343 -1858 142 120 115
289.533 279.703 -1860 142 121 114
293.974 280.364 -1864 148 124 115
297.475 280.124 -1862 153 125 114
301.618 280.487 -1864 151 125 116
305.608 280.699 -1865 153 127 117
309.438 280.763 -1865 156 131 119
313.271 280.827 -1865 156 130 119
317.107 280.891 -1865 156 129 117
321.118 281.108 -1866 154 125 113
325.309 281.476 -1868 150 125 110
329.335 281.694 -1869 148 122 108
332.477 281.159 -1865 149 122 109
336.687 281.53 -1867 148 123 103
340.544 281.6 -1867 144 119 97
344.034 281.369 -1865 144 118 94
348.265 281.742 -1867 140 116 96
352.319 281.965 -1868 138 113 96
-417.095 263.105 -1755 19 18 26
-412.445 262.42 -1751 20 19 25
-409.45 262.785 -1754 22 22 27
-406.677 263.3 -1758 25 24 31
-404.349 264.115 -1764 26 26 31
-401.318 264.481 -1767 25 24 29
-398.728 265.147 -1772 21 21 26
-395.229 265.215 -1773 18 18 23
-391.949 265.433 -1775 19 18 23
-387.353 264.755 -1771 18 17 22
-382.776 264.078 -1767 20 20 26
-379.507 264.298 -1769 20 19 27
-375.383 263.922 -1767 19 18 26
-372.322 264.293 -1770 18 17 25
-369.46 264.814 -1774 16 15 22
-365.554 264.59 -1773 15 14 21
-362.063 264.665 -1774 15 14 21
-358.167 264.442 -1773 16 15 22
-354.478 264.369 -1773 18 17 23
-350.397 263.999 -1771 19 19 19
-346.523 263.779 -1770 19 19 21
-342.849 263.708 -1770 20 20 24
-338.604 263.192 -1767 19 19 23
-335.511 263.57 -1770 18 18 23
-331.846 263.502 -1770 17 16 23
-328.74 263.881 -1773 16 15 22
-325.258 263.963 -1774 16 15 22
-322.681 264.79 -1780 15 14 21
-319.724 265.32 -1784 14 13 20
-316.398 265.552 -1786 14 13 21
-313.592 266.232 -1791 13 12 19
-310.422 266.614 -1794 13 12 19
-307.414 267.146 -1798 13 12 19
-304.391 267.678 -1802 12 11 18
-301.021 267.914 -1804 12 11 18
-298.304 268.744 -1810 14 13 19
-295.077 269.129 -1813 13 12 19
-292.322 269.96 -1819 14 13 20
-288.435 269.753 -1818 15 14 21
-285.65 270.585 -1824 14 13 21
-281.452 270.083 -1821 14 13 21
-278.031 270.323 -1823 15 15 22
-273.852 269.822 -1820 16 16 22
-270.282 269.916 -1821 16 16 22
-266.27 269.565 -1819 20 20 26
-262.413 269.363 -1818 22 21 28
-258.989 269.607 -1820 22 21 27
-255.139 269.407 -1819 18 17 24
-251.156 269.06 -1817 16 15 23
-247.048 268.566 -1814 15 14 22
-243.356 268.516 -1814 16 15 23
-239.27 268.024 -1811 19 18 27
-235.198 267.532 -1808 19 19 29
-231.268 267.189 -1806 19 18 26
-226.844 266.255 -1800 18 18 26
-222.322 265.175 -1793 18 17 26
-217.953 264.243 -1787 18 17 23
-214.09 263.904 -1785 19 19 23
-210 263.27 -1781 17 17 20
-206.392 263.228 -1781 17 17 20
-202.331 262.596 -1777 18 18 22
-198.511 262.26 -1775 19 19 22
-194.151 261.187 -1768 19 18 22
-190.145 260.558 -1764 21 20 24
-186.368 260.224 -1762 19 19 23
-182.808 260.187 -1762 18 18 22
-178.741 259.413 -1757 18 18 22
-175.294 259.525 -1758 16 16 20
-171.552 259.195 -1756 15 15 18
-168.01 259.161 -1756 14 14 18
-164.563 259.275 -1757 14 14 18
-161.572 260.128 -1763 13 13 17
-157.841 259.801 -1761 12 12 16
-154.557 260.212 -1764 13 13 17
-151.091 260.329 -1765 14 14 18
-147.622 260.447 -1766 15 15 18
-143.906 260.123 -1764 15 15 19
-140.359 260.095 -1764 15 15 19
-136.967 260.362 -1766 15 15 19
-133.72 260.924 -1770 14 14 18
-130.605 261.783 -1776 12 12 16
-127.323 262.346 -1780 11 10 15
-124.375 263.648 -1789 10 9 15
-120.918 263.918 -1791 8 8 15
-117.389 264.042 -1792 9 9 17
-113.857 264.166 -1793 12 12 20
-110.26 264.143 -1793 10 11 18
-106.843 264.564 -1796 9 9 16
-103.357 264.837 -1798 10 9 15
-100.086 265.701 -1804 9 8 15
-96.7916 266.565 -1810 8 7 14
-93.268 266.841 -1812 8 7 14
-89.6877 266.97 -1813 9 8 14
-86.0566 266.952 -1813 10 9 14
-82.3354 266.641 -1811 11 10 16
-78.6228 266.33 -1809 11 11 16
-74.9602 266.168 -1808 13 12 19
-71.105 265.27 -1802 16 15 22
-67.3494 264.667 -1798 15 14 21
-63.6812 264.36 -1796 14 13 19
-59.988 263.906 -1793 14 13 20
-56.4018 263.895 -1793 14 13 21
-52.6982 263.295 -1789 14 13 20
-49.0932 263.138 -1788 14 13 20
-45.4929 262.981 -1787 14 13 20
-41.9437 263.12 -1788 15 14 20
-38.3909 263.259 -1789 17 17 22
-34.8148 263.252 -1789 16 16 22
-31.2391 263.245 -1789 16 15 22
-27.7101 263.681 -1792 16 15 23
-24.1558 263.97 -1794 16 15 22
-20.6051 264.407 -1797 16 15 22
-17.0332 264.697 -1799 14 13 20
-13.4534 264.988 -1801 14 13 20
-9.84951 264.839 -1800 14 13 21
-6.24945 264.69 -1799 15 14 21
-2.65343 264.542 -1798 15 14 21
0.940961 265.131 -1802 15 14 21
4.544 265.278 -1803 14 13 20
8.15559 265.574 -1805 14 13 20
11.7752 265.87 -1807 13 12 20
15.4113 266.314 -1810 13 12 20
19.0386 266.465 -1811 11 10 17
22.6826 266.763 -1813 11 10 17
26.3491 267.21 -1816 13 12 19
30.0114 267.51 -1818 14 13 19
33.645 267.516 -1818 13 12 19
37.2584 267.376 -1817 12 11 18
40.8905 267.384 -1817 13 12 19
44.5475 267.539 -1818 13 12 19
48.2353 267.843 -1820 13 12 19
51.9315 268.147 -1822 14 13 20
55.6666 268.599 -1825 15 14 21
59.3492 268.758 -1826 15 14 21
62.8982 268.329 -1823 14 13 20
66.4724 268.047 -1821 14 13 19
70.1159 268.061 -1821 14 14 18
73.7195 267.928 -1820 15 15 19
77.3199 267.796 -1819 15 15 19
81.0949 268.253 -1822 14 15 19
84.7893 268.417 -1823 14 15 19
88.3431 268.14 -1821 15 15 21
92.1421 268.6 -1824 15 15 21
95.7963 268.618 -1824 16 16 23
99.3423 268.343 -1822 16 15 22
102.994 268.363 -1822 14 14 21
106.705 268.532 -1823 12 13 20
110.24 268.259 -1821 10 12 18
113.83 268.134 -1820 10 11 18
117.61 268.452 -1822 11 11 16
121.466 268.917 -1825 10 10 14
125.335 269.384 -1828 11 11 15
129.076 269.557 -1829 11 11 15
132.822 269.731 -1830 10 10 14
136.648 270.052 -1832 12 12 16
140.253 269.932 -1831 12 12 16
144.012 270.108 -1832 13 13 17
147.696 270.137 -1832 13 12 19
151.629 270.61 -1835 13 12 19
155.322 270.641 -1835 14 13 20
159.275 271.114 -1838 15 14 21
162.976 271.147 -1838 15 14 21
166.77 271.327 -1839 15 14 21
170.197 270.918 -1836 18 17 24
173.899 270.953 -1836 18 17 24
177.311 270.545 -1833 15 14 21
181.108 270.729 -1834 14 13 20
184.809 270.765 -1834 15 14 21
188.615 270.95 -1835 14 13 20
192.426 271.136 -1836 14 13 19
196.137 271.175 -1836 15 14 19
199.739 271.067 -1835 14 14 18
203.451 271.108 -1835 13 13 17
207.39 271.444 -1837 13 13 17
211.223 271.634 -1838 13 13 17
214.829 271.529 -1837 13 13 17
218.908 272.016 -1840 14 14 18
222.518 271.913 -1839 14 14 18
226.494 272.254 -1841 16 16 20
230.73 272.891 -1845 18 18 22
234.476 272.938 -1845 18 18 22
238.224 272.986 -1845 18 18 22
241.58 272.59 -1842 16 16 20
245.859 273.231 -1846 34 26 29
249.21 272.837 -1843 111 99 101
253.373 273.332 -1846 141 121 108
257.273 273.532 -1847 139 120 110
261.603 274.176 -1851 136 116 110
265.664 274.526 -1853 134 116 109
269.59 274.728 -1854 132 113 105
273.818 275.227 -1857 132 111 103
277.313 274.987 -1855 132 111 106
281.256 275.191 -1856 138 117 111
285.514 275.694 -1859 141 119 113
289.474 275.9 -1860 140 119 110
293.914 276.553 -1864 145 121 112
297.574 276.464 -1863 151 124 114
301.88 276.97 -1866 150 125 116
305.873 277.18 -1867 152 127 117
309.541 277.094 -1866 155 130 119
313.207 277.009 -1865 154 130 118
317.722 277.667 -1869 152 127 115
321.052 277.286 -1866 150 124 112
324.894 277.352 -1866 150 126 111
328.563 277.269 -1865 152 127 113
333.3 278.08 -1870 154 127 115
336.798 277.851 -1868 152 128 112
340.656 277.92 -1868 150 127 109
344.148 277.692 -1866 144 122 103
348.007 277.762 -1866 140 120 104
352.247 278.132 -1868 140 119 105
356.307 278.353 -1869 141 119 108
360.181 278.426 -1869 142 120 110
365.033 279.245 -1874 139 115 106
368.333 278.873 -1871 137 111 103
371.823 278.65 -1869 133 109 101
376.112 279.025 -1871 136 110 101
-437.826 259.116 -1749 23 23 30
-435.599 259.915 -1755 21 23 28
-432.12 259.975 -1756 23 22 28
-429.128 260.331 -1759 22 21 27
-425.402 260.243 -1759 21 20 27
-421.679 260.157 -1759 20 19 26
-417.722 259.924 -1758 18 17 24
-413.067 259.248 -1754 18 17 23
-409.833 259.46 -1756 19 18 24
-406.594 259.672 -1758 18 17 24
-404.037 260.328 -1763 19 19 24
-400.782 260.542 -1765 19 19 23
-397.522 260.756 -1767 18 18 22
-394.033 260.823 -1768 18 18 22
-390.103 260.596 -1767 17 17 21
-385.743 260.075 -1764 17 17 21
-381.832 259.85 -1763 17 17 22
-378.357 259.92 -1764 18 17 25
-374.457 259.697 -1763 19 18 26
-371.615 260.21 -1767 19 18 26
-368.344 260.43 -1769 16 15 22
-365.067 260.65 -1771 16 15 22
-361.173 260.43 -1770 16 15 22
-357.287 260.21 -1769 17 16 23
-353.407 259.992 -1768 16 15 21
-349.535 259.774 -1767 17 17 17
-345.474 259.41 -1765 17 17 19
-342.005 259.488 -1766 18 18 22
-337.96 259.125 -1764 19 19 23
-334.685 259.352 -1766 17 16 21
-331.592 259.725 -1769 15 14 21
-328.489 260.099 -1772 16 15 22
-324.826 260.034 -1772 16 15 22
-321.71 260.409 -1775 16 15 22
-318.942 261.078 -1780 16 15 22
-315.449 261.161 -1781 15 14 22
-312.304 261.538 -1784 14 13 20
-309.149 261.916 -1787 14 13 20
-305.984 262.294 -1790 14 13 20
-302.641 262.526 -1792 14 13 20
-300.126 263.491 -1799 14 13 20
-297.585 264.456 -1806 14 13 20
-294.367 264.837 -1809 13 12 19
-291.942 265.949 -1817 14 13 20
-287.742 265.452 -1814 14 13 20
-284.653 265.98 -1818 12 11 19
-280.468 265.485 -1815 13 12 20
-277.366 266.014 -1819 15 14 22
-272.744 265.082 -1813 16 15 22
-269.931 265.905 -1819 17 16 23
-266.363 265.998 -1820 21 20 27
-261.928 265.215 -1815 22 21 28
-258.368 265.309 -1816 20 19 26
-254.527 265.112 -1815 17 16 23
-250.553 264.77 -1813 18 17 25
-246.454 264.282 -1810 16 15 23
-242.636 264.088 -1809 16 15 23
-238.694 263.748 -1807 19 18 27
-234.761 263.409 -1805 21 20 30
-230.838 263.071 -1803 20 19 27
-226.673 262.442 -1799 19 18 26
-222.03 261.231 -1791 18 17 25
-217.788 260.458 -1786 17 16 22
-213.927 260.124 -1784 18 18 22
-209.958 259.644 -1781 17 17 19
-206.004 259.166 -1778 17 17 20
-202.176 258.834 -1776 17 17 21
-198.024 258.066 -1771 19 19 23
-194.112 257.59 -1768 20 20 24
-189.999 256.823 -1763 21 21 25
-186.014 256.203 -1759 19 19 23
-182.461 256.167 -1759 20 20 24
-178.401 255.403 -1754 19 19 23
-175.16 255.805 -1757 16 16 20
-171.518 255.625 -1756 14 14 18
-168.168 255.883 -1758 13 13 17
-164.437 255.559 -1756 13 13 17
-161.356 256.255 -1761 13 13 17
-157.63 255.932 -1759 12 12 16
-154.176 256.047 -1760 12 12 16
-150.633 256.017 -1760 14 14 18
-147.008 255.842 -1759 14 14 18
-143.633 256.104 -1761 14 14 18
-140.172 256.222 -1762 13 13 17
-136.862 256.631 -1765 14 14 18
-133.618 257.186 -1769 14 14 18
-130.505 258.032 -1775 10 10 14
-127.37 258.879 -1781 10 10 14
-124.28 259.871 -1788 10 10 15
-120.692 259.847 -1788 10 9 16
-117.235 260.115 -1790 12 11 19
-113.708 260.237 -1791 14 13 21
-110.177 260.361 -1792 11 10 17
-106.703 260.63 -1794 9 8 15
-103.337 261.19 -1798 9 8 15
-99.9553 261.751 -1802 8 7 14
-96.4516 262.023 -1804 8 7 14
-92.9408 262.294 -1806 9 8 15
-89.571 263.003 -1811 9 9 14
-85.9447 262.985 -1811 10 10 14
-82.1827 262.533 -1808 11 11 15
-78.5638 262.517 -1808 12 11 16
-74.7382 261.777 -1803 14 13 20
-70.9332 261.036 -1798 17 16 23
-67.2987 260.877 -1797 17 16 23
-63.5622 260.284 -1793 16 15 22
-59.9428 260.127 -1792 15 14 22
-56.3278 259.97 -1791 15 14 22
-52.6877 259.669 -1789 14 13 20
-49.0287 259.224 -1786 13 12 19
-45.4584 259.215 -1786 14 13 20
-41.8884 259.206 -1786 17 16 22
-38.3618 259.488 -1788 17 16 22
-34.7496 259.191 -1786 17 17 21
-31.2156 259.475 -1788 17 17 21
-27.6737 259.759 -1790 15 14 21
-24.1376 260.19 -1793 13 12 19
-20.6125 260.911 -1798 14 13 20
-17.0299 261.052 -1799 15 14 21
-13.4434 261.194 -1800 14 13 20
-9.83647 260.902 -1798 13 12 19
-6.24131 260.755 -1797 13 12 19
-2.64998 260.609 -1796 14 13 20
0.9392 261.044 -1799 14 13 20
4.53808 261.335 -1801 13 12 19
8.14498 261.626 -1803 14 13 20
11.7727 262.209 -1807 14 13 21
15.3998 262.502 -1809 12 11 19
19.0347 262.795 -1811 11 10 16
22.6905 263.235 -1814 10 9 16
26.344 263.53 -1816 12 11 18
30.0056 263.826 -1818 13 13 17
33.6568 263.977 -1819 13 12 17
37.2715 263.839 -1818 12 11 18
40.9049 263.847 -1818 12 11 18
44.5877 264.145 -1820 12 11 18
48.2258 264.154 -1820 13 12 19
51.9498 264.6 -1823 13 12 19
55.6252 264.755 -1824 15 14 21
59.305 264.912 -1825 16 15 22
62.9203 264.779 -1824 15 14 20
66.5322 264.646 -1823 14 14 18
70.102 264.369 -1821 14 14 18
73.7051 264.238 -1820 15 15 19
77.3471 264.253 -1820 15 15 19
80.9896 264.269 -1820 13 14 18
84.7261 264.575 -1822 13 15 19
88.3257 264.447 -1821 13 15 21
92.0735 264.755 -1823 12 14 20
95.6723 264.629 -1822 13 14 20
99.3226 264.648 -1822 12 14 20
102.861 264.377 -1820 11 13 19
106.509 264.398 -1820 11 11 19
110.157 264.419 -1820 11 10 18
113.807 264.441 -1820 10 10 18
117.651 264.9 -1823 11 10 16
121.442 265.214 -1825 11 11 16
125.379 265.82 -1829 11 11 15
129.121 265.99 -1830 13 13 17
132.941 266.307 -1832 12 12 16
136.621 266.333 -1832 13 13 17
140.225 266.215 -1831 14 14 18
143.984 266.388 -1832 13 13 17
147.667 266.417 -1832 12 11 19
151.599 266.883 -1835 13 12 20
155.291 266.913 -1835 14 13 21
159.244 267.381 -1838 14 13 21
162.767 267.121 -1836 12 11 19
166.646 267.445 -1838 14 13 20
169.978 266.896 -1834 15 14 21
173.675 266.93 -1834 13 12 19
177.082 266.528 -1831 15 14 21
180.874 266.709 -1832 15 14 21
184.671 266.891 -1833 16 15 22
188.577 267.219 -1835 17 16 23
192.283 267.256 -1835 15 14 20
196.097 267.441 -1836 13 13 18
199.808 267.48 -1836 11 11 15
203.632 267.665 -1837 12 12 16
207.235 267.56 -1836 12 12 16
211.066 267.747 -1837 13 13 17
214.786 267.79 -1837 15 15 19
218.746 268.124 -1839 17 17 21
222.231 267.876 -1837 18 17 22
226.202 268.212 -1839 18 17 22
230.184 268.549 -1841 17 17 22
233.921 268.595 -1841 18 18 22
237.789 268.788 -1842 16 16 20
241.795 269.128 -1844 19 18 22
245.677 269.322 -1845 51 42 43
249.43 269.371 -1845 131 117 117
253.46 269.713 -1847 155 134 122
257.082 269.618 -1846 152 131 123
260.985 269.816 -1847 145 125 120
264.751 269.868 -1847 144 127 121
269.1 270.505 -1851 139 120 113
272.731 270.413 -1850 138 117 109
276.958 270.907 -1853 136 115 108
281.351 271.547 -1857 139 117 109
285.61 272.042 -1860 141 118 109
289.727 272.392 -1862 140 117 107
294.013 272.89 -1865 143 120 111
297.674 272.802 -1864 147 122 115
301.819 273.155 -1866 149 124 118
305.975 273.508 -1868 150 126 119
309.81 273.57 -1868 151 127 120
313.648 273.632 -1868 152 127 120
317.488 273.695 -1868 151 127 117
320.987 273.466 -1866 149 126 113
324.655 273.384 -1865 151 127 112
328.497 273.45 -1865 153 129 115
332.876 273.956 -1868 155 130 118
335.829 273.29 -1863 155 132 117
340.405 273.945 -1867 153 129 111
344.816 274.454 -1870 146 122 100
348.123 274.083 -1867 148 125 107
351.798 274.006 -1866 151 127 111
356.425 274.665 -1870 145 122 107
360.108 274.59 -1869 145 122 112
364.764 275.251 -1873 146 121 112
368.258 275.031 -1871 145 118 110
372.544 275.399 -1873 139 114 107
376.84 275.769 -1875 140 113 105
380.742 275.846 -1875 137 110 101
384.442 275.776 -1874 133 106 94
388.97 276.295 -1877 132 107 93
393.095 276.522 -1878 125 101 86
396.594 276.307 -1876 121 98 85
-654.738 255.286 -1701 179 161 146
-650.821 255.148 -1701 179 161 147
-647.292 255.16 -1702 178 159 146
-644.897 255.623 -1706 176 157 144
-641.74 255.786 -1708 173 155 142
-638.953 256.1 -1711 173 156 144
-635.044 255.966 -1711 171 152 139
-631.142 255.832 -1711 168 149 135
-441.205 255.44 -1748 21 20 27
-438.739 256.082 -1753 19 18 24
-436.503 256.87 -1759 21 21 25
-432.524 256.637 -1758 23 23 27
-429.529 256.988 -1761 22 22 26
-425.557 256.756 -1760 21 20 27
-420.875 256.087 -1756 19 18 25
-416.688 255.711 -1754 18 17 24
-413.219 255.774 -1755 18 17 24
-409.75 255.837 -1756 18 17 24
-406.512 256.046 -1758 18 17 24
-403.727 256.548 -1762 17 17 21
-400.02 256.467 -1762 17 17 21
-396.542 256.533 -1763 19 19 23
-393.286 256.745 -1765 20 20 24
-389.804 256.812 -1766 19 19 23
-385.884 256.589 -1765 19 19 23
-382.188 256.513 -1765 18 17 22
-378.281 256.291 -1764 16 15 23
-374.806 256.362 -1765 17 16 24
-371.541 256.578 -1767 17 16 24
-367.645 256.359 -1766 15 14 21
-364.582 256.721 -1769 16 15 22
-360.285 256.214 -1766 16 15 22
-356.811 256.288 -1767 17 16 23
-352.337 255.637 -1763 16 15 21
-349.069 255.857 -1765 15 15 15
-345.209 255.643 -1764 16 16 18
-341.55 255.575 -1764 16 16 20
-337.701 255.363 -1763 17 17 21
-334.429 255.586 -1765 16 16 20
-331.151 255.81 -1767 13 12 19
-327.867 256.034 -1769 14 13 20
-324.395 256.114 -1770 15 14 21
-321.283 256.484 -1773 15 14 21
-318.342 257 -1777 15 14 21
-315.209 257.371 -1780 15 14 22
-311.716 257.454 -1781 14 13 20
-308.914 258.115 -1786 14 13 20
-305.24 258.054 -1786 13 12 19
-302.074 258.428 -1789 13 12 19
-299.566 259.38 -1796 14 13 20
-297.197 260.476 -1804 13 12 19
-293.983 260.851 -1807 13 12 19
-291.242 261.659 -1813 14 13 20
-288.003 262.035 -1816 13 12 19
-284.597 262.268 -1818 11 10 18
-280.567 261.924 -1816 11 10 18
-276.701 261.725 -1815 13 12 20
-273.292 261.959 -1817 16 15 22
-269.284 261.617 -1815 18 17 24
-265.286 261.277 -1813 20 19 26
-262.164 261.801 -1817 20 19 26
-258.317 261.606 -1816 18 17 24
-254.196 261.124 -1813 18 17 24
-250.366 260.93 -1812 19 18 26
-246.269 260.45 -1809 17 16 24
-242.589 260.402 -1809 15 14 22
-238.646 260.067 -1807 18 17 26
-234.844 259.877 -1806 20 19 29
-231.304 259.975 -1807 21 20 28
-226.754 258.923 -1800 20 19 27
-222.358 258.016 -1794 17 16 24
-217.867 256.967 -1787 17 16 22
-213.765 256.349 -1783 18 18 22
-209.799 255.877 -1780 17 17 19
-205.847 255.405 -1777 17 17 20
-201.795 254.79 -1773 17 17 21
-197.985 254.464 -1771 19 19 23
-193.745 253.564 -1765 19 19 23
-189.962 253.239 -1763 18 18 22
-186.083 252.771 -1760 18 18 22
-182.218 252.305 -1757 19 19 23
-178.366 251.839 -1754 18 18 22
-174.826 251.804 -1754 16 16 20
-171.289 251.771 -1754 16 16 20
-167.657 251.594 -1753 14 14 18
-164.498 252.136 -1757 14 14 18
-161.05 252.248 -1758 13 13 17
-157.509 252.217 -1758 12 12 16
-154.146 252.474 -1760 14 14 18
-150.689 252.587 -1761 14 14 18
-147.063 252.415 -1760 13 13 17
-143.605 252.53 -1761 12 12 16
-140.303 252.933 -1764 12 12 16
-136.913 253.193 -1766 12 12 16
-133.818 254.026 -1772 12 12 16
-130.553 254.574 -1776 10 10 14
-127.416 255.409 -1782 11 11 15
-124.048 255.815 -1785 12 12 17
-120.601 256.078 -1787 13 12 19
-117.016 256.055 -1787 14 13 21
-113.558 256.319 -1789 14 13 21
-109.971 256.297 -1789 11 10 17
-106.504 256.563 -1791 10 9 16
-103.259 257.402 -1797 10 9 16
-99.8248 257.812 -1800 9 8 15
-96.2725 257.936 -1801 9 8 15
-92.8712 258.491 -1805 9 8 15
-89.3063 258.616 -1806 10 9 14
-85.5958 258.313 -1804 10 10 14
-81.9395 258.154 -1803 10 10 14
-78.1574 257.565 -1799 13 12 17
-74.5165 257.408 -1798 16 15 22
-70.8011 256.964 -1795 18 17 24
-67.1357 256.664 -1793 17 16 23
-63.5499 256.652 -1793 17 16 23
-59.8642 256.21 -1790 16 15 22
-56.2224 255.913 -1788 15 14 21
-52.5891 255.616 -1786 14 13 20
-48.9369 255.177 -1783 13 12 19
-45.3987 255.311 -1784 15 14 21
-41.763 254.873 -1781 17 16 23
-38.2471 255.152 -1783 17 16 23
-34.6844 255.145 -1783 17 17 21
-31.1222 255.138 -1783 17 17 21
-27.5756 255.276 -1784 16 15 22
-24.0925 256.129 -1790 13 12 19
-20.5399 256.411 -1792 12 11 18
-16.9887 256.837 -1795 14 13 20
-13.4109 256.977 -1796 14 13 20
-9.83461 257.261 -1798 12 11 18
-6.24014 257.116 -1797 13 12 19
-2.65097 257.115 -1797 14 13 20
0.939008 257.401 -1799 14 13 20
4.5372 257.688 -1801 14 13 20
8.14772 258.119 -1804 14 13 20
11.764 258.407 -1806 12 11 18
15.4137 259.125 -1811 11 11 18
19.0311 259.128 -1811 11 10 16
22.6737 259.418 -1813 11 11 17
26.3242 259.709 -1815 13 12 19
29.9832 260.001 -1817 12 11 18
33.6317 260.15 -1818 11 10 17
37.2437 260.014 -1817 11 10 17
40.8969 260.165 -1818 11 10 17
44.5545 260.316 -1819 11 10 17
48.2162 260.468 -1820 13 12 19
51.8825 260.621 -1821 12 11 18
55.6142 261.061 -1824 14 13 20
59.3258 261.358 -1826 15 14 21
62.8735 260.94 -1823 14 13 19
66.4826 260.81 -1822 14 14 18
70.0883 260.68 -1821 15 15 19
73.6502 260.408 -1819 16 16 20
77.332 260.565 -1820 15 15 19
81.0628 260.867 -1822 13 14 19
84.7561 261.026 -1823 12 14 19
88.4053 261.043 -1823 11 13 19
92.0554 261.061 -1823 10 12 18
95.6537 260.936 -1822 12 14 20
99.3578 261.098 -1823 11 13 18
102.954 260.974 -1822 9 11 16
106.605 260.994 -1822 11 10 18
110.317 261.159 -1823 12 11 19
113.91 261.037 -1822 11 10 18
117.693 261.346 -1824 12 11 18
121.485 261.656 -1826 12 11 17
125.354 262.11 -1829 10 10 15
129.096 262.278 -1830 12 12 16
132.987 262.733 -1833 11 11 15
136.668 262.76 -1833 12 12 16
140.274 262.643 -1832 13 13 17
144.034 262.814 -1833 13 13 17
147.719 262.842 -1833 13 12 20
151.487 263.015 -1834 13 12 20
155.176 263.045 -1834 13 12 20
159.039 263.362 -1836 15 14 22
162.735 263.393 -1836 14 13 21
166.522 263.569 -1837 14 13 20
170.038 263.315 -1835 15 14 21
173.64 263.205 -1834 16 15 22
177.047 262.808 -1831 15 14 21
180.839 262.987 -1832 14 13 20
184.635 263.166 -1833 15 14 21
188.54 263.489 -1835 14 13 20
192.245 263.527 -1835 13 12 19
196.272 263.995 -1838 12 11 18
199.878 263.89 -1837 11 11 15
203.592 263.93 -1837 12 12 16
207.195 263.826 -1836 13 13 17
211.025 264.011 -1837 14 14 18
214.744 264.052 -1837 16 16 20
218.465 264.094 -1837 17 17 21
222.188 264.137 -1837 17 15 21
226.158 264.469 -1839 19 17 24
230.014 264.657 -1840 16 15 22
234.002 264.99 -1842 17 17 22
237.742 265.037 -1842 16 16 20
241.485 265.083 -1842 24 21 22
245.495 265.419 -1844 71 61 60
249.246 265.467 -1844 140 126 123
253.547 266.093 -1848 157 136 128
257.17 265.999 -1847 156 135 128
261.075 266.193 -1848 150 129 123
264.842 266.245 -1848 145 127 124
269.047 266.73 -1851 144 125 122
272.972 266.927 -1852 144 123 119
277.202 267.414 -1855 143 122 115
281.296 267.757 -1857 142 120 112
285.707 268.389 -1861 142 119 110
290.292 269.167 -1866 143 118 111
294.112 269.225 -1866 142 117 109
297.775 269.139 -1865 144 118 110
301.598 269.198 -1865 146 121 114
305.587 269.402 -1866 149 124 117
309.583 269.607 -1867 148 123 115
313.586 269.813 -1868 147 123 115
317.425 269.875 -1868 152 128 118
320.236 269.071 -1862 150 127 115
324.416 269.424 -1864 151 128 113
328.96 270.066 -1868 153 129 116
332.097 269.553 -1864 154 129 118
336.483 270.053 -1867 154 131 117
339.972 269.831 -1865 152 129 112
343.456 269.609 -1863 154 129 107
347.494 269.822 -1864 154 130 111
351.728 270.181 -1866 154 130 112
356.163 270.686 -1869 147 122 107
360.229 270.902 -1870 146 122 110
364.496 271.263 -1872 148 122 112
368.382 271.336 -1872 147 120 112
373.066 271.99 -1876 140 114 108
377.166 272.209 -1877 143 117 109
381.681 272.72 -1880 141 114 106
385.185 272.506 -1878 136 109 99
390.342 273.454 -1884 133 108 95
394.063 273.387 -1883 127 103 88
397.571 273.176 -1881 131 108 96
401.715 273.401 -1882 131 108 96
406.297 273.917 -1885 127 104 92
410.025 273.853 -1884 122 99 89
414.632 274.372 -1887 123 97 86
418.367 274.31 -1886 122 96 85
428.428 273.4 -1878 124 98 90
-679.382 251.613 -1694 195 176 162
-674.64 251.174 -1692 197 178 164
-670.706 251.032 -1692 195 177 162
-668.75 251.633 -1697 190 174 157
-665.209 251.641 -1698 189 173 156
-661.671 251.65 -1699 188 172 156
-658.909 251.956 -1702 188 171 157
-654.985 251.819 -1702 191 172 158
-651.832 251.978 -1704 187 168 154
-648.296 251.99 -1705 188 169 155
-645.896 252.446 -1709 188 169 155
-643.108 252.755 -1712 184 166 153
-639.566 252.769 -1713 184 167 155
-636.025 252.783 -1714 182 163 151
-631.748 252.504 -1713 176 159 144
-627.848 252.373 -1713 173 157 140
-624.319 252.391 -1714 172 155 143
-621.515 252.703 -1717 174 157 145
-617.264 252.428 -1716 174 157 145
-614.096 252.595 -1718 169 153 136
-444.073 251.481 -1745 19 18 26
-441.369 251.969 -1749 20 19 26
-438.401 252.314 -1752 21 21 27
-435.424 252.659 -1755 21 21 25
-432.192 252.861 -1757 20 20 24
-428.224 252.631 -1756 19 19 23
-424.505 252.547 -1756 19 18 25
-420.791 252.463 -1756 19 18 25
-416.842 252.236 -1755 18 17 24
-413.137 252.154 -1755 17 16 23
-410.135 252.504 -1758 16 15 22
-406.662 252.567 -1759 19 18 25
-403.417 252.774 -1761 19 19 23
-399.714 252.694 -1761 19 19 23
-396.463 252.903 -1763 19 19 23
-392.317 252.538 -1761 19 19 23
-389.064 252.748 -1763 19 19 23
-385.152 252.528 -1762 20 20 24
-381.03 252.166 -1760 18 18 23
-377.992 252.522 -1763 16 15 23
-374.307 252.448 -1763 16 15 23
-370.836 252.518 -1764 15 14 22
-367.156 252.445 -1764 13 12 19
-363.686 252.516 -1765 15 14 21
-359.602 252.159 -1763 16 15 22
-356.135 252.232 -1764 16 15 22
-352.068 251.877 -1762 16 15 21
-348.21 251.666 -1761 16 16 16
-344.75 251.741 -1762 16 16 18
-341.095 251.674 -1762 15 15 19
-337.826 251.893 -1764 15 15 19
-334.552 252.113 -1766 15 15 20
-331.086 252.19 -1767 13 12 19
-327.803 252.411 -1769 12 11 18
-324.148 252.348 -1769 15 14 21
-320.858 252.57 -1771 15 14 21
-317.384 252.651 -1772 13 12 20
-314.085 252.874 -1774 14 13 21
-311.13 253.384 -1778 15 14 21
-307.47 253.323 -1778 14 13 20
-303.984 253.406 -1779 12 11 18
-301.34 254.202 -1785 12 11 18
-298.507 254.856 -1790 12 11 18
-296.644 256.364 -1801 14 13 20
-294.088 257.303 -1808 14 13 20
-290.382 257.246 -1808 13 12 19
-286.836 257.332 -1809 13 12 20
-283.759 257.846 -1813 13 12 19
-279.122 256.938 -1807 13 12 20
-276.037 257.453 -1811 14 13 21
-272.788 257.827 -1814 18 17 24
-268.786 257.49 -1812 19 18 25
-265.088 257.438 -1812 17 16 23
-261.104 257.103 -1810 17 16 23
-257.272 256.911 -1809 17 16 23
-253.446 256.72 -1808 19 18 25
-249.212 256.103 -1804 18 17 25
-245.54 256.056 -1804 18 17 25
-241.737 255.867 -1803 17 16 24
-237.94 255.678 -1802 17 16 25
-234.279 255.633 -1802 19 18 28
-230.619 255.588 -1802 20 19 27
-226.332 254.835 -1797 19 18 26
-221.82 253.799 -1790 18 17 25
-217.459 252.906 -1784 17 17 22
-213.364 252.298 -1780 17 17 21
-209.405 251.832 -1777 16 16 19
-205.576 251.509 -1775 17 17 21
-201.756 251.186 -1773 19 19 23
-197.947 250.864 -1771 20 20 24
-194.147 250.543 -1769 17 17 21
-190.033 249.798 -1764 16 16 20
-186.153 249.337 -1761 16 16 20
-182.286 248.877 -1758 16 16 20
-178.433 248.418 -1755 17 17 21
-174.793 248.243 -1754 17 17 21
-171.256 248.209 -1754 17 17 21
-167.72 248.177 -1754 17 17 21
-164.279 248.286 -1755 16 16 20
-160.744 248.255 -1755 14 14 18
-157.121 248.083 -1754 14 14 18
-153.678 248.195 -1755 14 14 18
-150.318 248.449 -1757 14 14 18
-146.868 248.562 -1758 12 12 16
-143.659 249.1 -1762 11 11 15
-140.276 249.355 -1764 11 11 15
-137.119 250.035 -1769 11 11 15
-133.792 250.433 -1772 11 11 15
-130.381 250.691 -1774 11 11 15
-127.249 251.514 -1780 12 12 16
-123.815 251.773 -1782 12 12 17
-120.443 252.173 -1785 13 12 19
-116.862 252.15 -1785 14 13 20
-113.537 252.693 -1789 14 13 20
-110.012 252.813 -1790 12 11 18
-106.543 253.075 -1792 11 10 17
-103.239 253.761 -1797 11 10 17
-99.6393 253.742 -1797 10 9 16
-96.147 254.005 -1799 10 9 16
-92.6476 254.27 -1801 10 9 16
-88.9925 254.111 -1800 11 11 16
-85.2948 253.812 -1798 12 12 16
-81.6511 253.655 -1797 11 11 15
-77.8384 252.934 -1792 13 13 18
-74.2535 252.92 -1792 17 16 23
-70.5903 252.624 -1790 18 17 24
-67.048 252.752 -1791 17 16 23
-63.3251 252.175 -1787 18 17 24
-59.719 252.022 -1786 16 15 22
-56.0544 251.588 -1783 15 14 21
-52.5202 251.718 -1784 14 13 20
-48.9 251.427 -1782 14 13 20
-45.3645 251.559 -1783 15 14 21
-41.755 251.268 -1781 16 15 22
-38.2183 251.402 -1782 16 15 22
-34.6584 251.395 -1782 16 16 20
-31.1337 251.671 -1784 15 15 19
-27.5858 251.806 -1785 16 15 22
-24.0879 252.506 -1790 14 13 20
-20.5245 252.643 -1791 11 10 17
-16.9761 253.063 -1794 13 12 19
-13.4157 253.483 -1797 14 13 20
-9.82185 253.34 -1796 15 14 21
-6.2353 253.339 -1796 15 14 21
-2.64901 253.338 -1796 16 15 22
0.938819 253.761 -1799 14 13 20
4.53634 254.043 -1801 14 13 20
8.14618 254.468 -1804 13 12 19
11.7553 254.611 -1805 12 11 18
15.4023 255.319 -1810 12 11 17
19.038 255.604 -1812 12 12 16
22.6567 255.608 -1812 13 12 18
26.3048 255.895 -1814 12 11 18
29.9609 256.182 -1816 11 10 17
33.5884 256.188 -1816 10 9 16
37.2365 256.336 -1817 12 11 18
40.9115 256.626 -1819 12 11 18
44.6194 257.057 -1822 11 10 17
48.2334 256.925 -1821 13 12 19
51.9295 257.217 -1823 11 10 17
55.6036 257.368 -1824 13 12 19
59.3145 257.661 -1826 15 14 21
62.827 257.109 -1822 14 13 20
66.47 257.121 -1822 14 13 18
70.1134 257.134 -1822 15 14 19
73.717 257.007 -1821 16 16 20
77.402 257.162 -1822 15 15 19
81.1362 257.46 -1824 13 14 19
84.8327 257.617 -1825 11 13 19
88.3398 257.21 -1822 9 11 17
92.0377 257.368 -1823 9 11 17
95.5827 257.104 -1821 10 12 18
99.2296 257.122 -1821 11 13 17
102.877 257.142 -1821 11 13 17
106.701 257.585 -1824 12 11 18
110.296 257.465 -1823 12 11 18
113.951 257.486 -1823 12 11 18
117.864 258.073 -1827 12 11 18
121.661 258.379 -1829 12 11 18
125.399 258.544 -1830 10 9 16
129.141 258.709 -1831 10 10 14
133.034 259.158 -1834 11 11 15
136.717 259.184 -1834 13 13 17
140.324 259.069 -1833 13 13 17
144.006 259.097 -1833 12 12 16
147.69 259.125 -1833 12 11 18
151.375 259.153 -1833 13 12 19
155.146 259.324 -1834 13 12 19
159.009 259.637 -1836 13 12 20
162.615 259.526 -1835 15 14 22
166.4 259.699 -1836 16 15 22
170.005 259.59 -1835 17 16 23
173.702 259.623 -1835 17 16 23
177.11 259.232 -1832 15 14 21
180.804 259.267 -1832 13 12 19
184.6 259.443 -1833 13 12 19
188.504 259.762 -1835 12 11 18
192.313 259.94 -1836 11 10 17
196.128 260.119 -1837 10 9 16
199.839 260.157 -1837 11 11 15
203.442 260.054 -1836 12 12 16
207.042 259.952 -1835 13 13 17
210.754 259.992 -1835 14 14 18
214.586 260.175 -1836 16 16 20
218.422 260.358 -1837 16 16 20
222.144 260.401 -1837 14 13 18
225.868 260.444 -1837 18 16 22
229.719 260.63 -1838 16 17 22
233.702 260.958 -1840 16 16 21
237.567 261.145 -1841 16 16 20
241.7 261.617 -1844 26 22 23
245.714 261.948 -1846 93 82 80
249.738 262.28 -1848 150 135 132
253.635 262.47 -1849 156 135 129
257.12 262.236 -1847 157 136 130
260.883 262.286 -1847 154 133 126
264.36 262.052 -1845 149 131 129
268.123 262.104 -1845 151 131 129
272.035 262.298 -1846 151 129 128
276.102 262.636 -1848 149 127 120
280.786 263.542 -1854 148 126 118
285.958 264.877 -1863 147 124 115
289.769 264.932 -1863 147 122 116
293.582 264.989 -1863 145 119 112
297.238 264.904 -1862 145 118 109
301.539 265.389 -1865 146 119 111
305.364 265.448 -1865 146 120 111
309.025 265.365 -1864 146 121 111
313.188 265.711 -1866 151 124 114
317.193 265.914 -1867 153 128 117
320.517 265.549 -1864 151 128 117
324.352 265.612 -1864 152 129 118
328.367 265.818 -1865 154 130 120
331.854 265.597 -1863 154 129 119
336.237 266.09 -1866 154 131 116
340.27 266.299 -1867 153 130 114
343.389 265.795 -1863 157 133 114
347.799 266.29 -1866 156 130 114
352.036 266.644 -1868 155 128 113
355.712 266.57 -1867 151 124 110
359.58 266.64 -1867 149 125 111
364.035 267.14 -1870 149 124 112
368.112 267.354 -1871 148 121 112
372.395 267.713 -1873 145 118 111
376.891 268.215 -1876 149 122 115
381.402 268.718 -1879 146 119 112
385.314 268.793 -1879 141 114 105
390.472 269.728 -1885 142 117 105
394.194 269.662 -1884 138 114 100
398.549 270.026 -1886 135 111 99
401.849 269.675 -1883 135 111 98
406.432 270.184 -1886 132 107 96
410.814 270.551 -1888 133 108 98
415.428 271.063 -1891 135 108 96
419.614 271.288 -1892 132 105 94
423.808 271.515 -1893 127 101 90
427.106 271.169 -1890 127 101 91
429.939 270.536 -1885 129 102 93
433.215 270.19 -1882 129 102 92
436.715 269.989 -1880 129 103 90
440.913 270.22 -1881 127 103 89
444.882 270.307 -1881 123 100 85
-690.569 246.958 -1683 191 175 160
-687.44 247.108 -1685 194 179 162
-685.525 247.698 -1690 196 177 163
-683.594 248.288 -1695 195 176 162
-680.042 248.293 -1696 197 178 164
-676.093 248.153 -1696 199 180 166
-672.548 248.159 -1697 198 181 165
-667.822 247.728 -1695 193 177 160
-663.896 247.59 -1695 194 178 161
-661.533 248.037 -1699 194 177 161
-657.611 247.901 -1699 192 174 160
-653.31 247.62 -1698 194 175 161
-650.932 248.069 -1702 193 174 160
-648.162 248.372 -1705 192 173 159
-645.006 248.531 -1707 191 172 158
-641.848 248.689 -1709 188 171 158
-638.687 248.849 -1711 188 171 159
-635.151 248.864 -1712 187 168 156
-631.249 248.734 -1712 183 166 151
-626.986 248.46 -1711 181 165 148
-623.098 248.332 -1711 180 163 151
-620.663 248.786 -1715 179 162 150
-616.778 248.659 -1715 179 162 150
-613.255 248.679 -1716 176 160 143
-610.09 248.844 -1718 175 158 142
-607.627 249.299 -1722 174 156 140
-603.398 249.032 -1721 169 152 136
-480.513 248.356 -1742 26 25 33
-477.86 248.831 -1746 28 26 34
-472.478 247.883 -1740 37 34 42
-468.743 247.79 -1740 66 65 72
-448.216 248.244 -1747 21 20 27
-445.003 248.441 -1749 17 16 23
-442.291 248.922 -1753 18 17 24
-438.814 248.978 -1754 21 20 27
-435.338 249.034 -1755 21 21 26
-432.107 249.233 -1757 21 20 25
-428.383 249.149 -1757 20 20 25
-424.422 248.924 -1756 20 19 26
-420.468 248.699 -1755 20 19 26
-416.523 248.476 -1754 19 18 25
-412.821 248.395 -1754 17 16 22
-410.288 249.023 -1759 16 15 22
-406.582 248.943 -1759 18 17 24
-403.338 249.148 -1761 18 17 22
-399.635 249.069 -1761 17 17 21
-396.161 249.134 -1762 17 17 21
-392.24 248.915 -1761 17 17 21
-389.209 249.264 -1764 17 17 21
-385.295 249.047 -1763 18 18 22
-381.388 248.832 -1762 16 16 21
-377.918 248.899 -1763 15 14 22
-373.81 248.544 -1761 16 15 23
-370.554 248.754 -1763 14 13 21
-367.085 248.824 -1764 12 11 18
-363.615 248.894 -1765 14 13 20
-359.328 248.401 -1762 16 15 22
-355.662 248.332 -1762 17 16 23
-351.6 247.982 -1760 16 15 21
-347.944 247.915 -1760 16 16 16
-344.292 247.848 -1760 16 16 19
-341.029 248.064 -1762 17 17 21
-337.378 247.998 -1762 17 17 21
-334.109 248.215 -1764 18 17 22
-330.647 248.292 -1765 15 14 21
-327.183 248.369 -1766 13 12 19
-323.719 248.447 -1767 15 14 21
-320.434 248.666 -1769 14 13 20
-316.785 248.605 -1769 13 12 20
-313.493 248.826 -1771 14 13 21
-309.846 248.766 -1771 16 15 22
-307.065 249.409 -1776 14 13 20
-303.413 249.351 -1776 12 11 18
-300.775 250.135 -1782 12 11 18
-298.283 251.06 -1789 12 11 18
-295.764 251.985 -1796 14 13 20
-292.731 252.49 -1800 14 13 20
-289.523 252.855 -1803 14 13 20
-286.306 253.221 -1806 15 14 21
-282.296 252.886 -1804 16 15 22
-278.914 253.113 -1806 16 15 23
-275.222 253.06 -1806 16 15 22
-271.532 253.008 -1806 18 17 24
-267.993 253.097 -1807 19 18 25
-264.306 253.046 -1807 16 15 22
-260.332 252.716 -1805 16 15 22
-256.653 252.667 -1805 17 16 23
-253.117 252.758 -1806 17 16 23
-249.026 252.29 -1803 16 15 23
-245.221 252.104 -1802 17 16 24
-241.289 251.777 -1800 17 16 24
-238.158 252.291 -1804 17 16 25
-234.104 251.827 -1801 17 16 26
-230.191 251.503 -1799 19 18 26
-226.289 251.18 -1797 19 18 26
-221.653 250.02 -1789 18 17 25
-217.295 249.14 -1783 18 17 22
-213.203 248.54 -1779 17 17 21
-209.247 248.081 -1776 15 15 19
-205.421 247.762 -1774 18 18 22
-201.604 247.444 -1772 20 20 24
-197.909 247.267 -1771 21 21 25
-194 246.811 -1768 17 17 21
-190.104 246.356 -1765 16 16 20
-186.223 245.901 -1762 16 16 20
-182.459 245.587 -1760 17 17 21
-178.5 244.995 -1756 18 18 22
-174.759 244.683 -1754 18 18 22
-171.125 244.51 -1753 17 17 21
-167.401 244.199 -1751 16 16 20
-163.78 244.029 -1750 15 15 19
-160.347 244.138 -1751 15 15 19
-156.912 244.247 -1752 15 15 19
-153.736 244.775 -1756 14 14 18
-150.289 244.886 -1757 14 14 18
-146.923 245.137 -1759 13 13 17
-143.713 245.667 -1763 12 12 16
-140.409 246.058 -1766 11 11 15
-137.016 246.31 -1768 10 10 14
-133.767 246.842 -1772 10 10 14
-130.43 247.235 -1775 10 10 14
-127.01 247.489 -1777 11 11 15
-123.584 247.744 -1779 12 12 17
-120.15 248 -1781 13 12 19
-116.774 248.395 -1784 13 12 19
-113.325 248.652 -1786 12 11 18
-109.683 248.492 -1785 12 11 18
-106.285 248.889 -1788 12 11 18
-102.933 249.426 -1792 11 10 18
-99.3432 249.407 -1792 11 10 17
-95.9151 249.806 -1795 11 10 17
-92.4243 250.067 -1797 12 11 18
-88.9756 250.467 -1800 14 13 18
-84.9941 249.338 -1792 15 15 19
-81.3177 249.044 -1790 15 15 19
-77.6066 248.612 -1787 16 16 21
-73.9908 248.458 -1786 17 16 23
-70.4192 248.445 -1786 16 15 22
-66.8108 248.293 -1785 15 14 21
-63.1714 248.002 -1783 15 14 21
-59.6074 247.991 -1783 14 13 21
-55.9496 247.563 -1780 13 12 19
-52.3631 247.414 -1779 14 13 20
-48.7536 247.126 -1777 14 13 20
-45.2288 247.256 -1778 15 14 21
-41.7003 247.387 -1779 16 15 22
-38.2111 247.797 -1782 16 15 22
-34.574 247.234 -1778 13 13 18
-31.0754 247.645 -1781 13 13 17
-27.5651 248.056 -1784 14 13 20
-24.0429 248.469 -1787 14 13 20
-20.4977 248.743 -1789 13 12 19
-16.9539 249.156 -1792 13 12 19
-13.3983 249.57 -1795 16 15 22
-9.82005 249.707 -1796 17 16 23
-6.23416 249.706 -1796 17 16 23
-2.65149 249.983 -1798 15 14 21
0.938633 250.122 -1799 14 13 20
4.53549 250.401 -1801 14 13 20
8.14467 250.819 -1804 12 11 18
11.7659 251.238 -1807 12 11 18
15.4079 251.797 -1811 12 11 18
19.0448 252.078 -1813 12 12 16
22.665 252.082 -1813 13 12 18
26.2852 252.086 -1813 12 11 18
29.9386 252.37 -1815 12 11 18
33.582 252.515 -1816 12 11 18
37.2294 252.661 -1817 13 12 19
40.8813 252.807 -1818 12 11 18
44.6109 253.371 -1822 11 10 17
48.1978 253.102 -1820 12 11 18
51.9197 253.529 -1823 12 11 18
55.6236 253.817 -1825 13 12 19
59.3356 254.106 -1827 15 14 21
62.9184 253.839 -1825 14 13 20
66.5667 253.851 -1825 14 13 20
70.1385 253.586 -1823 14 14 18
73.7839 253.599 -1823 15 15 19
77.4298 253.614 -1823 15 15 19
81.1208 253.768 -1824 14 14 19
84.8631 254.062 -1826 12 12 19
88.4201 253.8 -1824 11 12 18
92.0708 253.817 -1824 11 11 17
95.6696 253.695 -1823 10 10 16
99.2109 253.435 -1821 10 11 15
103.027 253.872 -1824 13 14 18
106.74 254.031 -1825 12 11 18
110.517 254.33 -1827 12 11 18
114.179 254.351 -1827 13 12 19
117.97 254.651 -1829 13 12 19
121.771 254.952 -1831 12 11 18
125.512 255.115 -1832 10 9 16
129.258 255.278 -1833 10 10 14
133.154 255.721 -1836 11 11 15
136.84 255.746 -1836 13 13 17
140.527 255.772 -1836 13 13 17
144.136 255.66 -1835 13 13 17
147.823 255.687 -1835 12 11 18
151.511 255.716 -1835 12 11 18
155.201 255.745 -1835 13 12 19
158.892 255.774 -1835 14 13 21
162.584 255.805 -1835 16 15 22
166.277 255.836 -1835 17 16 23
169.972 255.867 -1835 17 16 23
173.668 255.9 -1835 16 15 22
177.269 255.794 -1834 14 13 20
180.967 255.828 -1834 15 14 21
184.766 256.002 -1835 13 12 19
188.673 256.316 -1837 10 9 16
192.381 256.352 -1837 10 9 16
196.197 256.529 -1838 10 9 16
200.019 256.706 -1839 12 12 16
203.514 256.465 -1837 12 12 16
207.228 256.504 -1837 13 13 17
211.059 256.683 -1838 15 15 19
214.778 256.723 -1838 16 16 20
218.619 256.904 -1839 15 15 19
222.102 256.667 -1837 13 13 17
225.948 256.849 -1838 14 14 18
229.925 257.172 -1840 14 16 20
233.785 257.355 -1841 16 16 21
237.651 257.54 -1842 16 16 20
242.047 258.285 -1847 37 31 32
245.667 258.191 -1846 111 97 97
249.555 258.378 -1847 156 138 136
253.175 258.286 -1846 161 137 133
257.21 258.615 -1848 164 141 136
260.55 258.244 -1845 161 140 133
264.739 258.714 -1848 159 139 136
268.362 258.625 -1847 161 139 137
271.835 258.396 -1845 158 134 133
276.647 259.429 -1852 153 129 123
280.732 259.763 -1854 151 127 120
285.289 260.517 -1859 149 126 117
289.557 260.993 -1862 147 123 117
293.84 261.469 -1865 146 121 114
297.5 261.385 -1864 147 120 111
300.996 261.162 -1862 146 119 111
304.814 261.22 -1862 145 119 110
308.303 260.998 -1860 147 122 112
312.96 261.759 -1865 153 126 116
316.622 261.679 -1864 152 126 115
320.455 261.74 -1864 151 127 114
324.116 261.662 -1863 150 126 114
328.479 262.146 -1866 153 128 116
332.324 262.209 -1866 157 130 119
336.352 262.414 -1867 156 132 117
339.475 261.917 -1863 155 131 116
343.322 261.982 -1863 156 133 117
346.986 261.908 -1862 157 130 115
351.591 262.538 -1866 155 128 114
355.643 262.747 -1867 153 126 112
359.703 262.957 -1868 151 126 111
363.965 263.308 -1870 150 124 111
368.237 263.66 -1872 147 121 111
372.323 263.872 -1873 143 117 109
376.818 264.367 -1876 145 118 111
381.125 264.723 -1878 145 118 112
385.239 264.938 -1879 141 114 106
389.361 265.154 -1880 136 111 101
393.28 265.229 -1880 135 110 98
397.837 265.729 -1883 136 112 100
401.344 265.524 -1881 134 110 97
405.922 266.026 -1884 136 112 99
410.299 266.388 -1886 138 111 99
414.688 266.75 -1888 137 110 96
419.311 267.255 -1891 137 110 96
423.725 267.62 -1893 134 110 96
427.249 267.42 -1891 132 108 95
430.083 266.796 -1886 131 106 94
433.821 266.739 -1885 133 106 94
437.79 266.824 -1885 129 105 92
441.764 266.909 -1885 127 104 90
446.923 267.704 -1890 128 105 90
451.869 268.358 -1894 129 105 90
455.392 268.164 -1892 127 103 87
459.153 268.111 -1891 122 98 82
464.138 268.769 -1895 120 98 80
467.168 268.292 -1891 123 99 86
471.93 268.81 -1894 117 93 81
475.954 268.903 -1894 119 96 85
478.969 268.429 -1890 123 100 87
481.971 267.955 -1886 123 100 85
484.445 267.197 -1880 119 97 82
-715.669 243.508 -1677 191 171 155
-711.69 243.36 -1677 194 174 158
-708.14 243.359 -1678 199 180 164
-707.111 244.227 -1685 200 181 165
-702.3 243.792 -1683 200 182 166
-698.75 243.793 -1684 197 180 166
-695.615 243.939 -1686 197 180 166
-692.067 243.941 -1687 201 184 169
-688.929 244.088 -1689 203 187 170
-685.383 244.092 -1690 205 186 172
-683.453 244.674 -1695 204 185 171
-679.1 244.39 -1694 203 184 170
-675.556 244.396 -1695 200 182 168
-671.221 244.114 -1694 200 182 167
-667.685 244.121 -1695 198 181 165
-664.151 244.13 -1696 199 183 166
-659.451 243.707 -1694 198 180 165
-655.928 243.717 -1695 197 178 164
-653.176 244.015 -1698 197 178 164
-649.652 244.027 -1699 198 179 165
-647.649 244.613 -1704 198 179 166
-644.497 244.769 -1706 194 175 162
-641.717 245.069 -1709 193 174 162
-637.81 244.94 -1709 191 173 161
-634.651 245.098 -1711 192 173 160
-630.752 244.97 -1711 189 171 157
-627.225 244.987 -1712 188 170 155
-622.607 244.575 -1710 187 169 157
-619.814 244.879 -1713 185 168 155
-615.934 244.754 -1713 183 166 154
-612.06 244.631 -1713 182 166 149
-608.901 244.794 -1715 181 164 146
-605.74 244.958 -1717 175 158 140
-601.874 244.837 -1717 173 157 139
-597.317 244.432 -1715 178 162 144
-594.851 244.882 -1719 180 164 147
-591.686 245.049 -1721 182 167 150
-488.863 243.62 -1732 24 22 25
-486.525 244.228 -1737 24 21 27
-484.726 245.118 -1744 26 23 30
-481.797 245.445 -1747 25 23 31
-479.134 245.913 -1751 24 22 30
-475.101 245.68 -1750 26 23 30
-470.268 245.027 -1746 21 19 26
-465.723 244.515 -1743 22 19 26
-462.521 244.706 -1745 23 20 27
-459.052 244.756 -1746 23 20 27
-456.364 245.228 -1750 24 21 28
-452.629 245.14 -1750 22 21 28
-449.668 245.473 -1753 20 19 26
-445.171 244.967 -1750 14 13 20
-441.448 244.881 -1750 18 17 24
-437.979 244.936 -1751 18 17 24
-434.261 244.852 -1751 21 20 27
-431.039 245.048 -1753 20 19 26
-427.325 244.966 -1753 19 18 25
-423.856 245.023 -1754 18 17 24
-419.189 244.383 -1750 18 17 24
-416.205 244.722 -1753 18 17 24
-412.741 244.782 -1754 16 16 20
-409.509 244.982 -1756 14 14 19
-406.042 245.043 -1757 16 15 22
-403.26 245.523 -1761 17 17 21
-399.558 245.447 -1761 14 14 18
-395.859 245.37 -1761 15 15 19
-391.941 245.156 -1760 17 17 21
-388.693 245.359 -1762 18 18 22
-384.347 244.868 -1759 17 17 21
-380.666 244.795 -1759 14 14 19
-377.202 244.861 -1760 14 13 21
-373.101 244.512 -1758 16 15 23
-369.642 244.58 -1759 14 13 21
-366.182 244.649 -1760 13 12 19
-362.721 244.718 -1761 14 13 20
-359.055 244.65 -1761 15 14 21
-355.392 244.582 -1761 16 15 22
-351.532 244.375 -1760 15 14 20
-347.68 244.17 -1759 17 17 17
-344.421 244.382 -1761 18 18 21
-340.383 244.039 -1759 18 18 22
-337.505 244.53 -1763 20 20 24
-334.045 244.605 -1764 20 19 25
-330.584 244.681 -1765 18 17 24
-326.936 244.618 -1765 15 14 21
-323.657 244.834 -1767 16 15 22
-320.191 244.911 -1768 16 15 22
-316.546 244.851 -1768 15 14 21
-312.725 244.653 -1767 16 15 23
-309.087 244.594 -1767 17 16 23
-306.142 245.09 -1771 15 14 21
-302.672 245.171 -1772 13 12 19
-299.706 245.667 -1776 13 12 19
-297.226 246.579 -1783 14 13 20
-294.72 247.491 -1790 13 12 19
-291.374 247.713 -1792 14 14 20
-288.826 248.625 -1799 16 16 21
-284.666 248.157 -1796 18 17 24
-280.991 248.104 -1796 19 18 25
-277.626 248.327 -1798 18 17 24
-274.256 248.552 -1800 17 16 23
-271.03 248.915 -1803 17 16 23
-267.053 248.588 -1801 18 17 24
-263.232 248.4 -1800 17 16 23
-259.562 248.351 -1800 16 15 22
-255.894 248.303 -1800 17 16 23
-251.668 247.703 -1796 16 15 22
-248.15 247.794 -1797 16 15 23
-244.495 247.748 -1797 17 16 24
-240.305 247.151 -1793 17 16 24
-236.926 247.382 -1795 16 15 23
-233.15 247.2 -1794 16 15 23
-229.38 247.019 -1793 17 16 24
-225.491 246.701 -1791 18 17 25
-220.992 245.695 -1784 18 17 25
-217.011 245.241 -1781 19 18 23
-212.924 244.65 -1777 19 19 23
-209.09 244.336 -1775 16 16 20
-205.266 244.022 -1773 18 18 22
-201.452 243.708 -1771 20 20 24
-197.76 243.534 -1770 20 20 24
-193.744 242.947 -1766 18 18 22
-189.853 242.498 -1763 19 19 23
-186.188 242.326 -1762 17 17 21
-182.321 241.879 -1759 17 17 21
-178.365 241.295 -1755 20 20 24
-174.826 241.262 -1755 19 19 23
-171.191 241.093 -1754 18 18 22
-167.37 240.649 -1751 14 14 18
-163.656 240.343 -1749 13 13 17
-160.226 240.45 -1750 14 14 18
-156.793 240.558 -1751 13 13 17
-153.445 240.804 -1753 13 13 17
-150.176 241.188 -1756 13 13 17
-146.979 241.71 -1760 13 13 17
-143.849 242.369 -1765 11 11 15
-140.541 242.755 -1768 10 10 14
-137.068 242.866 -1769 10 10 14
-133.742 243.253 -1772 11 11 15
-130.332 243.503 -1774 11 11 15
-126.843 243.616 -1775 12 12 16
-123.421 243.868 -1777 12 12 16
-119.925 243.982 -1778 13 13 17
-116.622 244.509 -1782 13 12 19
-113.24 244.9 -1785 12 11 18
-109.602 244.742 -1784 11 10 17
-106.146 244.996 -1786 12 11 19
-102.856 245.663 -1791 13 12 20
-99.3247 245.781 -1792 13 12 19
-95.7904 245.9 -1793 13 12 19
-92.0985 245.608 -1791 14 13 20
-88.6131 245.866 -1793 15 14 20
-84.6463 244.753 -1785 16 16 20
-81.0299 244.6 -1784 16 16 20
-77.3315 244.174 -1781 17 17 22
-73.6457 243.749 -1778 17 16 23
-70.0119 243.462 -1776 16 15 22
-66.5738 243.86 -1779 15 14 21
-62.9471 243.574 -1777 14 13 20
-59.3624 243.426 -1776 13 12 19
-55.782 243.278 -1775 13 12 20
-52.2945 243.542 -1777 13 12 19
-48.7445 243.533 -1777 12 11 18
-45.2458 243.798 -1779 14 13 20
-41.6223 243.379 -1776 15 15 21
-38.1397 243.783 -1779 15 15 19
-34.5871 243.776 -1779 12 12 16
-31.0522 243.907 -1780 12 12 16
-27.56 244.45 -1784 13 12 19
-24.0251 244.719 -1786 14 13 20
-20.4824 244.989 -1788 15 14 21
-16.9318 245.259 -1790 14 13 20
-13.381 245.668 -1793 15 14 21
-9.80167 245.666 -1793 15 14 21
-6.2261 245.801 -1794 14 13 20
-2.64659 245.937 -1795 14 13 20
0.936884 246.074 -1796 14 13 20
4.52962 246.486 -1799 14 13 20
8.13415 246.898 -1802 12 11 18
11.7572 247.448 -1806 12 11 19
15.3879 247.861 -1809 13 12 19
19.0413 248.413 -1813 14 13 19
22.6732 248.554 -1814 13 12 19
26.2802 248.421 -1813 13 12 19
29.9167 248.563 -1814 13 12 18
33.5387 248.569 -1814 13 12 18
37.1611 248.576 -1814 13 12 19
40.8062 248.72 -1815 13 12 19
44.5536 249.413 -1820 13 12 19
48.1624 249.285 -1819 12 11 18
51.8531 249.568 -1821 13 12 19
55.4911 249.578 -1821 15 14 21
59.2597 250.137 -1825 14 13 20
62.8033 249.737 -1822 14 13 20
66.4814 249.886 -1823 14 13 20
70.1253 249.899 -1823 14 14 18
73.77 249.912 -1823 15 15 19
77.4579 250.063 -1824 15 15 19
81.1503 250.215 -1825 14 14 19
84.7544 250.093 -1824 12 11 18
88.4035 250.109 -1824 12 11 18
92.0534 250.126 -1824 13 12 19
95.5993 249.869 -1822 12 11 18
99.3556 250.162 -1824 11 10 16
103.064 250.318 -1825 12 12 17
106.72 250.337 -1825 12 11 19
110.436 250.494 -1826 13 12 19
114.22 250.79 -1828 15 14 21
117.948 250.948 -1829 13 12 19
121.682 251.108 -1830 11 10 17
125.557 251.543 -1833 10 9 16
129.304 251.704 -1834 10 10 15
133.129 252.002 -1836 12 12 16
