ply
format ascii 1.0
comment Created by Open3D
element vertex 927
property double x
property double y
property double z
property uchar red
property uchar green
property uchar blue
end_header
-98.5499 167.693 -986 180 146 138
-96.9473 168.351 -990 194 158 150
-94.562 167.649 -986 207 171 163
-85.5415 165.526 -974 190 153 145
-106.74 169.274 -1007 188 149 140
-102.621 165.888 -987 194 156 151
-99.9103 164.689 -980 217 180 174
-98.0276 164.834 -981 229 193 185
-96.6313 165.82 -987 232 195 189
-94.3485 165.294 -984 231 192 188
-92.7357 165.945 -988 229 189 182
-90.6483 165.756 -987 223 182 176
-88.2063 164.896 -982 208 168 161
-85.0829 162.693 -969 199 160 154
-81.9268 160.324 -955 208 169 164
-78.5766 157.452 -938 220 176 172
-76.3584 156.763 -934 229 186 182
-74.5556 156.913 -935 234 194 190
-119.438 168.031 -1011 213 182 177
-120.288 172.158 -1036 207 174 167
-119.213 173.627 -1045 201 165 154
-116.534 172.769 -1040 202 165 155
-113.216 170.916 -1029 198 163 155
-109.619 168.566 -1015 196 160 151
-106.504 166.881 -1005 203 166 156
-103.222 164.864 -993 223 185 179
-100.499 163.679 -986 241 203 196
-98.5049 163.657 -986 242 204 195
-96.903 164.299 -990 236 199 195
-94.7106 163.945 -988 233 197 195
-92.6208 163.758 -987 235 195 192
-89.7096 162.079 -977 227 188 184
-86.7495 160.234 -966 211 172 167
-82.869 156.566 -944 200 161 156
-79.2495 153.231 -924 201 162 157
-76.6325 151.721 -915 216 172 166
-74.7064 151.538 -914 228 185 180
-73.1038 152.019 -917 237 195 191
-71.8005 153.163 -924 235 196 189
-70.621 154.639 -933 233 194 187
-69.0374 155.286 -937 228 188 176
-120.001 166.781 -1016 212 177 170
-119.681 169.217 -1031 199 162 154
-118.388 170.339 -1038 203 168 159
-115.499 169.164 -1031 200 166 157
-111.65 166.514 -1015 195 165 157
-108.299 164.521 -1003 205 173 165
-105.42 163.185 -995 224 191 182
-102.471 161.686 -986 238 201 194
-100.171 161.171 -983 242 205 198
-98.1832 161.149 -983 242 203 195
-96.1963 161.127 -983 237 201 196
-94.0185 160.778 -981 236 201 198
-91.8495 160.43 -979 240 201 197
-87.4862 156.149 -953 230 192 187
-86.1016 157.113 -959 218 179 175
-80.8319 150.87 -921 211 172 168
-78.117 149.214 -911 215 177 172
-75.7781 148.214 -905 216 175 169
-73.9542 148.197 -905 215 173 167
-72.2904 148.509 -907 218 176 170
-71.0076 149.639 -914 226 187 177
-69.6971 150.769 -921 227 190 178
-68.0643 151.245 -924 225 187 178
-66.2768 151.394 -925 220 181 172
-63.7894 149.906 -916 217 175 166
-61.8122 149.565 -914 219 179 173
-59.6465 148.733 -909 214 173 169
-57.8832 148.884 -910 198 158 160
-55.9931 148.708 -909 187 148 150
-54.5842 149.841 -916 172 134 136
-118.794 160.351 -989 215 181 175
-119.502 164.054 -1012 205 169 163
-118.262 165.162 -1019 203 165 159
-116.081 164.974 -1018 207 170 165
-112.674 163.005 -1006 211 175 171
-109.206 160.874 -993 218 187 184
-106.871 160.364 -990 222 192 188
-104.655 160.017 -988 229 199 194
-102.552 159.832 -987 238 203 197
-100.149 159.162 -983 240 204 197
-98.2613 159.302 -984 240 203 195
-96.0772 158.957 -982 237 202 195
-93.3269 157.641 -974 238 203 197
-90.1409 155.517 -961 234 196 191
-86.5491 152.585 -943 229 191 186
-82.9409 149.492 -924 223 184 180
-79.5856 146.724 -907 231 190 186
-77.2425 145.736 -901 232 191 187
-75.3427 145.558 -900 224 179 173
-73.5294 145.542 -900 209 163 158
-71.9557 146.011 -903 201 154 150
-70.6035 146.965 -909 196 151 145
-69.1521 147.758 -914 219 176 169
-67.6075 148.39 -918 222 179 172
-65.904 148.699 -920 216 173 165
-63.5665 147.553 -913 219 175 167
-61.5957 147.216 -911 215 171 167
-59.6334 146.88 -909 198 155 152
-57.8069 146.867 -909 182 140 142
-55.9807 146.854 -909 178 138 140
-54.3935 147.488 -913 169 131 133
-52.9632 148.607 -920 157 120 122
-118.648 158.168 -988 207 173 166
-118.06 160.064 -1000 203 167 161
-114.523 157.958 -987 215 177 172
-111.496 156.493 -978 220 185 181
-108.506 155.029 -969 225 191 186
-105.774 153.886 -962 229 195 189
-104.473 154.823 -968 231 196 190
-103.15 155.76 -974 231 198 190
-101.803 156.697 -980 240 203 196
-99.7194 156.515 -979 240 204 197
-97.9404 156.813 -981 239 204 197
-95.5671 156.153 -977 235 200 193
-92.7318 154.694 -968 236 201 193
-88.9021 151.478 -948 232 194 189
-85.4291 148.743 -931 224 186 180
-82.2049 146.329 -916 227 188 182
-79.305 144.394 -904 235 192 187
-77.1399 143.739 -900 225 181 175
-75.2426 143.562 -899 215 168 165
-73.4317 143.546 -899 199 151 149
-71.7807 143.85 -901 190 142 141
-70.2775 144.473 -905 181 134 132
-68.8345 145.256 -910 189 143 140
-67.2982 145.88 -914 207 161 157
-65.3884 145.706 -913 217 170 165
-63.4134 145.373 -911 210 164 157
-61.4471 145.04 -909 190 146 141
-59.5548 144.868 -908 177 133 130
-57.7307 144.855 -908 171 129 131
-55.907 144.843 -908 168 128 130
-54.3816 145.628 -913 160 122 124
-53.0668 147.052 -922 158 120 122
-116.461 153.304 -970 215 181 173
-114.021 152.647 -966 225 191 183
-110.322 150.253 -951 233 198 191
-106.912 148.176 -938 225 195 190
-104.452 147.363 -933 222 191 186
-102.783 147.657 -935 224 187 180
-102.185 149.53 -947 228 189 181
-101.645 151.561 -960 232 193 185
-101.158 153.749 -974 238 200 192
-99.4942 154.201 -977 240 203 195
-97.6198 154.338 -978 239 203 196
-95.0575 153.37 -972 234 199 191
-92.0414 151.615 -961 233 198 189
-87.7578 147.652 -936 234 197 188
-84.4933 145.267 -921 222 184 175
-81.6489 143.514 -910 224 183 176
-79.2003 142.393 -903 216 172 165
-77.1233 141.904 -900 198 153 146
-75.2264 141.73 -899 190 143 142
-73.4159 141.714 -899 179 132 132
-71.6856 141.856 -900 171 124 126
-70.2624 142.629 -905 171 124 125
-68.8197 143.402 -910 166 118 119
-67.1366 143.702 -912 167 119 118
-65.3743 143.846 -913 192 144 141
-63.4694 143.675 -912 188 140 135
-61.4339 143.189 -909 172 126 122
-59.6076 143.176 -909 167 122 119
-57.7819 143.163 -909 162 120 122
-56.0181 143.308 -910 156 117 119
-54.4295 143.927 -914 153 115 117
-53.4007 146.12 -928 154 116 117
-52.6493 149.257 -948 154 119 122
-115.476 150.075 -962 225 191 183
-111.872 147.867 -948 232 198 190
-108.211 145.504 -933 230 196 188
-105.294 144.078 -924 219 189 182
-102.975 143.432 -920 214 183 177
-101.112 143.411 -920 207 171 164
-99.8976 144.325 -926 197 158 149
-98.4478 144.927 -930 196 154 145
-98.5403 147.867 -949 211 172 162
-97.844 149.716 -961 233 195 186
-96.6011 150.786 -968 234 197 189
-94.2551 150.142 -964 233 197 188
-91.2557 148.41 -953 236 200 190
-87.6454 145.588 -935 230 192 182
-84.4753 143.39 -921 212 173 164
-81.6315 141.66 -910 199 156 149
-79.2711 140.709 -904 184 140 132
-77.1926 140.225 -901 172 127 119
-75.3778 140.209 -901 166 125 124
-73.5636 140.194 -901 159 117 117
-71.9093 140.489 -903 157 114 116
-70.4804 141.252 -908 151 110 111
-68.9563 141.86 -912 143 102 103
-67.4167 142.467 -916 130 88 87
-65.5036 142.298 -915 147 105 103
-63.6647 142.284 -915 155 112 108
-61.6235 141.805 -912 152 110 106
-59.7261 141.636 -911 151 109 107
-58.0238 141.935 -913 147 108 108
-56.3755 142.389 -916 145 107 108
-55.0133 143.621 -924 149 111 113
-54.0797 146.096 -940 152 115 117
-53.3045 149.193 -960 155 120 122
-52.2889 151.824 -977 144 118 122
-119.356 148.16 -962 222 188 179
-118.624 149.675 -972 227 192 183
-115.212 147.803 -960 235 201 193
-111.377 145.316 -944 231 197 189
-107.492 142.677 -927 225 191 183
-104.702 141.423 -919 224 192 185
-102.282 140.632 -914 221 188 182
-100.322 140.457 -913 207 171 165
-98.5823 140.59 -914 192 151 144
-97.4747 141.647 -921 178 134 127
-97.2738 144.087 -937 173 132 121
-96.7037 146.065 -950 206 165 155
-95.6828 147.429 -959 223 182 172
-93.942 147.717 -961 229 190 181
-90.9494 146.007 -950 238 199 190
-87.4396 143.376 -933 221 182 173
-84.4576 141.514 -921 195 154 145
-81.8834 140.267 -913 171 128 119
-79.5175 139.329 -907 157 114 106
-77.4334 138.851 -904 153 110 102
-75.5293 138.682 -903 152 114 115
-73.7931 138.82 -904 148 110 111
-72.2127 139.265 -907 147 109 111
-70.6208 139.711 -910 137 101 102
-69.3198 140.771 -917 122 86 86
-67.7705 141.371 -921 115 78 77
-66.0625 141.664 -923 127 88 87
-63.9297 141.037 -919 136 95 93
-61.8809 140.563 -916 135 97 94
-60.0414 140.551 -916 138 101 98
-58.2658 140.692 -917 140 104 102
-56.856 141.754 -924 140 103 103
-55.5376 143.123 -933 142 104 105
-54.8737 146.332 -954 149 114 116
-53.8485 148.775 -970 149 116 118
-52.813 151.372 -987 140 114 117
-51.0918 152.128 -992 110 93 102
-49.1529 152.27 -993 130 115 125
-42.1404 148.562 -969 173 157 170
-37.6273 146.093 -953 171 155 166
-35.6068 145.625 -950 177 159 166
-33.4921 144.698 -944 182 165 173
-121.285 146.222 -962 219 188 178
-121.44 148.781 -979 227 193 182
-119.209 148.452 -977 232 197 187
-115.547 146.301 -963 236 202 194
-111.354 143.391 -944 229 195 187
-107.238 140.483 -925 225 190 182
-104.453 139.246 -917 227 190 185
-101.925 138.313 -911 219 182 177
-99.9713 138.141 -910 207 170 162
-98.1305 138.12 -910 187 146 139
-96.7137 138.707 -914 168 124 117
-95.8005 140.053 -923 161 120 112
-95.3607 142.158 -937 179 137 128
-95.1642 144.717 -954 205 161 151
-93.5316 145.153 -957 221 179 170
-91.122 144.375 -952 231 189 180
-87.7026 141.931 -936 214 172 164
-84.8069 140.245 -925 186 144 135
-82.4045 139.318 -919 156 114 105
-80.027 138.392 -913 142 102 94
-77.9312 137.921 -910 142 102 95
-76.1826 138.057 -911 138 103 104
-74.3491 138.041 -911 136 101 102
-72.9142 138.784 -916 135 100 102
-71.3821 139.375 -920 128 94 94
-70.2124 140.724 -929 111 77 77
-68.6393 141.316 -933 107 74 73
-66.9791 141.756 -936 121 85 84
-64.6815 140.834 -930 129 91 89
-62.6111 140.367 -927 126 91 89
-60.6843 140.202 -926 129 96 93
-58.9526 140.493 -928 133 99 97
-57.7056 141.995 -938 135 101 100
-56.5974 143.951 -951 141 107 106
-55.955 147.27 -973 146 113 114
-54.6699 149.074 -985 145 113 115
-53.2836 150.728 -996 131 105 107
-51.3902 151.02 -998 108 88 95
-49.1427 150.253 -993 119 101 110
-46.8683 149.335 -987 136 121 134
-44.5272 148.116 -979 163 146 159
-42.3056 147.199 -973 176 157 171
-40.1913 146.586 -969 181 162 172
-38.0933 145.972 -965 183 163 173
-36.0491 145.511 -962 188 168 174
-33.9108 144.596 -956 191 171 179
-31.6295 142.926 -945 186 165 175
-122.899 146.209 -975 224 191 181
-121.787 147.234 -982 228 194 182
-119.673 147.059 -981 231 198 186
-116.484 145.536 -971 233 199 191
-111.803 142.066 -948 227 193 185
-107.564 139.047 -928 221 184 176
-104.545 137.527 -918 214 172 167
-102.016 136.607 -912 199 157 152
-100.171 136.587 -912 188 148 141
-98.2182 136.417 -911 174 132 126
-96.694 136.846 -914 162 118 113
-95.3659 137.575 -919 153 112 107
-95.1376 139.951 -935 162 120 113
-94.6461 142.027 -949 182 137 128
-93.2194 142.756 -954 209 163 155
-90.7206 141.84 -948 223 177 170
-88.0594 140.625 -940 209 165 158
-85.4311 139.41 -932 180 137 130
-83.0152 138.496 -926 148 108 100
-80.7117 137.731 -921 132 96 89
-78.9428 137.865 -922 131 95 88
-76.9196 137.55 -920 126 93 94
-75.0683 137.535 -920 129 96 97
-73.4564 137.968 -923 130 96 97
-72.2985 139.298 -932 124 92 92
-71.256 140.928 -943 112 80 80
-69.6551 141.511 -947 107 77 76
-67.9671 141.946 -950 116 83 82
-65.6418 141.036 -944 123 87 86
-63.8814 141.321 -946 120 88 86
-61.9169 141.159 -945 124 93 90
-60.1474 141.446 -947 125 94 92
-58.7394 142.629 -955 126 95 92
-57.5974 144.558 -968 132 101 98
-56.5761 146.936 -984 138 106 107
-55.1027 148.269 -993 133 104 105
-53.6472 149.751 -1003 114 90 91
-51.4312 149.143 -999 104 82 89
-49.1822 148.386 -994 123 102 109
-46.7638 147.033 -985 144 119 132
-44.5182 146.128 -979 167 142 155
-42.2535 145.075 -972 187 162 175
-40.2246 144.768 -970 203 175 185
-38.2039 144.462 -968 206 178 187
-36.1916 144.156 -966 200 176 182
-34.1167 143.552 -962 197 172 180
-31.9576 142.5 -955 190 164 175
-123.323 140.277 -948 212 186 177
-123.445 142.619 -964 217 189 180
-123.378 144.813 -979 219 188 178
-121.887 145.38 -983 225 192 180
-119.893 145.356 -983 227 194 182
-117.06 144.297 -976 229 196 186
-112.841 141.465 -957 222 186 177
-108.237 138.043 -934 201 162 155
-104.98 136.249 -922 187 142 136
-102.331 135.193 -915 175 130 124
-100.26 134.878 -913 167 123 118
-98.414 134.858 -913 157 113 108
-96.886 135.281 -916 149 105 101
-95.8654 136.443 -924 143 104 101
-95.4236 138.491 -938 150 109 105
-94.7267 140.244 -950 156 113 107
-93.396 141.111 -956 190 143 138
-90.9893 140.354 -951 214 166 161
-88.6036 139.598 -946 201 156 150
-85.8722 138.253 -937 170 128 121
-83.9845 138.236 -937 144 106 98
-81.8345 137.777 -934 129 96 89
-79.7829 137.466 -932 123 91 85
-77.5728 136.86 -928 126 93 94
-76.1953 137.73 -934 129 96 96
-74.7147 138.452 -939 130 96 97
-73.3697 139.469 -946 127 95 94
-72.2994 141.076 -957 120 88 87
-70.6706 141.651 -961 114 83 83
-69.0264 142.227 -965 119 85 84
-67.1581 142.361 -966 122 87 85
-65.2864 142.495 -967 116 86 83
-63.2145 142.188 -965 119 89 86
-61.8499 143.501 -974 120 91 88
-60.4495 144.815 -983 121 92 89
-58.7161 145.392 -987 121 93 90
-57.3121 146.854 -997 123 93 94
-55.48 147.284 -1000 105 78 79
-53.4225 147.126 -999 90 68 68
-51.2665 146.674 -996 97 74 79
-49.024 145.928 -991 120 96 103
-46.4696 144.151 -979 164 131 144
-44.4638 143.995 -978 199 166 178
-42.2885 143.25 -973 214 180 191
-40.3409 143.242 -973 222 185 193
-38.3541 143.087 -972 215 178 186
-36.2967 142.638 -969 207 174 181
-34.2163 142.042 -965 204 171 181
-32.152 141.447 -961 198 167 179
-30.0097 140.41 -954 178 158 173
-124.339 139.512 -956 212 183 173
-124.061 141.384 -969 209 181 171
-123.479 142.965 -980 212 185 175
-121.986 143.524 -984 220 187 174
-119.991 143.5 -984 221 188 175
-117.276 142.601 -978 219 186 175
-113.998 140.975 -967 209 172 163
-109.606 137.891 -946 179 139 132
-105.528 135.101 -927 164 117 112
-102.758 133.914 -919 157 110 106
-100.679 133.603 -917 152 108 105
-98.8255 133.583 -917 144 102 99
-97.8184 134.729 -925 140 99 96
-96.2612 135.147 -928 140 101 99
-96.0149 137.458 -944 144 105 102
-94.2094 137.584 -945 141 100 96
-93.4751 139.313 -957 160 114 111
-91.1626 138.712 -953 185 137 135
-89.2415 138.695 -953 180 136 131
-86.5882 137.513 -945 156 116 110
-84.5055 137.205 -943 139 103 97
-82.4314 136.898 -941 128 97 91
-80.5374 136.882 -941 125 93 88
-78.5604 136.721 -940 128 96 95
-76.9958 137.287 -944 132 99 98
-75.2568 137.563 -946 133 99 98
-74.2857 139.293 -958 131 99 96
-73.0404 140.587 -967 127 95 93
-71.5389 141.445 -973 122 90 90
-70.0855 142.449 -980 122 89 88
-67.9789 142.144 -978 122 88 86
-66.4884 143.149 -985 117 87 84
-64.7084 143.572 -988 118 89 86
-63.0439 144.286 -993 116 90 86
-61.3598 145 -998 114 88 84
-59.4182 145.133 -999 107 82 78
-57.4731 145.267 -1000 97 68 68
-55.3027 144.82 -997 82 57 55
-53.3585 144.955 -998 87 66 64
-50.8962 143.637 -989 104 78 81
-48.6681 142.901 -984 114 86 91
-46.4605 142.166 -979 152 113 126
-44.4096 141.867 -977 191 150 161
-42.3236 141.423 -974 214 169 177
-40.4158 141.56 -975 218 170 177
-38.386 141.262 -973 210 162 169
-36.3271 140.819 -970 205 165 172
-34.2804 140.376 -967 203 165 176
-32.2125 139.789 -963 192 155 170
-30.161 139.202 -959 170 147 162
-123.534 136.701 -950 212 176 166
-123.396 138.692 -964 211 176 167
-122.951 140.394 -976 207 173 165
-121.715 141.233 -982 210 172 160
-120.089 141.641 -985 213 174 163
-117.493 140.899 -980 212 176 166
-114.565 139.726 -972 203 164 156
-110.627 137.26 -955 175 134 127
-106.987 135.083 -940 160 112 107
-103.52 133.051 -926 148 102 98
-101.538 132.887 -925 141 98 98
-99.6681 132.868 -925 134 95 93
-98.4336 133.71 -931 135 96 94
-97.1758 134.553 -937 141 101 100
-96.4029 136.114 -948 138 99 97
-95.088 136.956 -954 129 90 87
-93.9451 138.086 -962 131 87 85
-91.8142 137.781 -960 148 103 101
-89.6922 137.477 -958 148 108 105
-87.5789 137.172 -956 142 104 100
-85.3848 136.725 -953 131 96 92
-83.0284 135.991 -948 123 91 88
-81.3773 136.406 -951 127 95 92
-79.5477 136.534 -952 130 96 95
-77.7147 136.662 -953 134 100 98
-76.6737 138.224 -964 135 101 100
-75.3566 139.356 -972 135 102 98
-74.0078 140.489 -980 130 96 93
-72.4071 141.191 -985 125 92 90
-70.7153 141.751 -989 125 90 89
-68.869 142.024 -991 126 91 90
-67.3528 143.014 -998 121 91 89
-65.6125 143.574 -1002 120 91 88
-63.7933 143.991 -1005 115 89 85
-62.0855 144.695 -1010 109 84 80
-59.9418 144.397 -1008 92 68 64
-57.7493 143.956 -1005 79 51 50
-55.4028 143.086 -999 79 53 51
-53.1343 142.359 -994 92 68 66
-50.6804 141.06 -985 106 76 79
-48.5597 140.621 -982 109 78 82
-46.5463 140.468 -981 128 88 98
-44.4918 140.173 -979 155 112 121
-42.4023 139.735 -976 186 140 146
-40.4494 139.727 -976 203 153 158
-38.418 139.433 -974 200 151 156
-36.3948 139.14 -972 195 152 158
-34.3446 138.704 -969 188 148 159
-32.3066 138.268 -966 175 138 153
-30.1865 137.403 -960 155 133 146
-124.267 129.589 -913 217 180 179
-124.019 131.268 -925 207 166 160
-123.195 132.38 -933 197 155 149
-122.6 133.775 -943 195 149 143
-122.093 135.311 -954 195 150 143
-122.424 137.841 -972 202 160 152
-121.567 139.093 -981 206 161 149
-120.066 139.637 -985 203 159 148
-117.83 139.331 -983 205 164 155
-115.014 138.316 -976 207 166 158
-111.416 136.311 -962 185 143 136
-107.649 134.023 -946 161 116 110
-104.618 132.585 -936 145 102 98
-102.506 132.282 -934 137 97 99
-100.618 132.263 -934 132 94 94
-99.4717 133.235 -941 134 97 96
-97.9865 133.782 -945 144 103 103
-96.8926 134.896 -953 139 98 98
-95.3686 135.444 -957 128 87 86
-94.5128 136.982 -968 121 80 79
-92.657 137.106 -969 126 86 84
-90.8917 137.371 -971 131 93 90
-88.6612 136.929 -968 133 96 93
-86.3537 136.347 -964 126 91 88
-83.9756 135.623 -959 119 86 85
-82.6449 136.597 -966 124 92 90
-81.0361 137.147 -970 129 95 93
-79.1673 137.273 -971 132 98 96
-78.1698 138.955 -983 134 100 98
-76.7373 139.929 -990 135 102 98
-75.1261 140.621 -995 130 97 92
-73.1281 140.607 -995 126 92 88
-71.631 141.583 -1002 126 91 90
-69.7591 141.852 -1004 126 90 91
-68.0146 142.404 -1008 121 91 90
-66.1891 142.815 -1011 120 91 89
-64.1618 142.802 -1011 115 88 85
-62.3194 143.214 -1014 106 80 76
-60.0492 142.637 -1010 84 59 55
-57.7956 142.061 -1006 73 45 44
-55.4476 141.203 -1000 88 62 60
-52.9637 139.922 -991 103 77 75
-50.6192 138.924 -984 113 82 84
-48.5009 138.491 -981 117 84 87
-46.4899 138.34 -980 124 84 93
-44.4833 138.191 -979 136 93 100
-42.3941 137.759 -976 155 108 113
-40.4002 137.61 -975 173 125 129
-38.4106 137.461 -974 183 135 139
-36.3879 137.172 -972 183 139 144
-34.338 136.742 -969 176 136 146
-32.3004 136.312 -966 167 131 144
-30.1493 135.318 -959 146 125 137
-125.687 127.335 -910 216 188 189
-125.196 128.71 -920 222 183 180
-124.264 129.665 -927 204 159 155
-122.908 130.201 -931 192 147 142
-121.666 130.877 -936 190 140 136
-121.302 132.532 -948 178 126 120
-121.267 134.606 -963 184 130 124
-120.429 135.841 -972 193 140 131
-119.555 137.076 -981 190 139 130
-117.448 136.913 -980 196 149 142
-114.992 136.333 -976 210 165 157
-111.974 135.054 -967 191 147 139
-108.652 133.357 -955 161 117 110
-105.603 131.941 -945 146 104 100
-103.254 131.363 -941 139 101 102
-101.461 131.483 -942 134 98 98
-99.8755 131.882 -945 137 101 101
-98.5898 132.701 -951 145 104 103
-97.3824 133.659 -958 140 98 98
-96.1475 134.617 -965 134 92 92
-95.0805 135.855 -974 127 89 90
-93.8823 136.953 -982 126 89 89
-92.6526 138.051 -990 128 91 89
-90.5673 137.894 -989 130 94 92
-88.1286 137.18 -984 125 91 88
-86.1484 137.163 -984 121 87 86
-84.1689 137.147 -984 123 90 89
-82.6913 137.968 -990 125 93 89
-81.7608 139.764 -1003 130 96 94
-79.7452 139.749 -1003 129 95 93
-77.9627 140.152 -1006 128 97 92
-75.7913 139.859 -1004 124 93 88
-73.9225 140.123 -1006 124 93 87
-71.9748 140.249 -1007 126 92 91
-70.3016 140.932 -1012 124 88 90
-68.4739 141.336 -1015 119 88 88
-66.4384 141.324 -1015 120 89 88
-64.5303 141.59 -1017 114 85 82
-62.5533 141.717 -1018 102 75 71
-60.3351 141.288 -1015 81 53 49
-57.8995 140.302 -1008 77 49 49
-55.4371 139.178 -1000 100 72 71
-52.9537 137.915 -991 110 82 81
-50.661 137.071 -985 118 83 84
-48.5412 136.644 -982 119 82 85
-46.5286 136.496 -981 122 82 90
-44.4749 136.209 -979 128 87 94
-42.4296 135.923 -977 135 93 98
-40.434 135.776 -976 149 105 108
-38.3639 135.351 -973 166 123 125
-36.3436 135.066 -971 170 127 131
-34.2961 134.642 -968 161 123 130
-32.2274 134.079 -964 154 121 131
-30.0493 132.961 -956 142 123 134
-125.939 125.759 -912 196 164 166
-125.445 127.114 -922 197 156 152
-124.374 127.918 -928 188 140 137
-123.016 128.446 -932 180 132 129
-121.903 129.25 -938 171 123 120
-121.023 130.329 -946 160 110 105
-120.614 131.96 -958 163 112 106
-120.158 133.59 -970 169 120 112
-119.289 134.807 -979 169 120 112
-117.545 135.06 -981 179 133 126
-114.97 134.35 -976 196 152 143
-112.3 133.503 -970 190 146 137
-108.973 131.831 -958 160 116 108
-106.366 130.985 -952 147 105 99
-103.784 130.14 -946 140 102 100
-102.303 130.671 -950 136 100 98
-100.596 130.927 -952 137 102 99
-99.0895 131.459 -956 140 101 99
-98.0756 132.678 -965 137 99 97
-97.026 133.897 -974 133 94 92
-96.2338 135.529 -986 130 93 93
-94.8205 136.336 -992 128 91 92
-94.3195 138.517 -1008 130 94 93
-92.2899 138.499 -1008 131 96 94
-90.3507 138.62 -1009 126 91 89
-88.6707 139.153 -1013 122 88 88
-86.7188 139.274 -1014 123 89 88
-84.5966 139.12 -1013 123 91 87
-82.5605 139.105 -1013 127 93 90
-80.4456 138.952 -1012 125 91 89
-78.413 138.938 -1012 124 94 89
-76.6073 139.335 -1015 122 92 86
-74.5699 139.321 -1015 123 93 86
-72.6045 139.445 -1016 130 96 97
-70.7746 139.843 -1019 129 93 96
-68.7984 139.967 -1020 121 89 89
-66.6878 139.818 -1019 119 88 87
-64.7086 139.943 -1020 111 81 78
-62.6031 139.794 -1019 101 71 66
-60.3238 139.233 -1015 87 57 53
-58.0036 138.537 -1010 93 65 65
-55.5376 137.429 -1002 109 79 79
-53.0507 136.184 -993 114 84 83
-50.703 135.215 -986 118 85 85
-48.6309 134.931 -984 117 82 84
-46.6621 134.923 -984 117 81 87
-44.5574 134.503 -981 124 86 93
-42.465 134.083 -978 130 90 97
-40.4679 133.939 -977 137 98 100
-38.3173 133.246 -972 148 109 112
-36.2994 132.965 -970 147 111 115
-34.2188 132.41 -966 145 113 120
-32.1546 131.856 -962 145 117 126
-126.054 124.04 -913 162 133 134
-125.285 125.103 -921 168 129 125
-124.217 125.895 -927 164 122 117
-122.862 126.416 -931 157 115 111
-121.621 127.072 -936 148 109 105
-120.361 127.728 -941 141 101 96
-120.088 129.471 -954 141 99 92
-119.517 130.941 -965 149 103 99
-118.414 131.869 -972 146 101 96
-117.404 132.933 -980 153 108 103
-115.184 132.64 -978 175 131 122
-113.09 132.483 -977 181 137 127
-109.976 131.107 -967 160 117 110
-107.351 130.274 -961 147 106 101
-104.642 129.305 -954 141 103 101
-102.823 129.422 -955 138 102 98
-101.106 129.674 -957 136 101 97
-99.7967 130.469 -963 137 99 96
-98.3622 131.128 -968 136 98 95
-97.9045 133.142 -983 131 93 89
-97.6798 135.561 -1001 128 90 91
-96.8099 137.169 -1013 129 91 92
-95.4248 138.099 -1020 133 96 96
-93.7376 138.623 -1024 133 96 96
-91.6769 138.606 -1024 125 90 88
-89.7045 138.725 -1025 123 87 86
-87.4723 138.438 -1023 125 90 88
-85.2489 138.151 -1021 125 91 87
-83.1972 138.136 -1021 128 94 90
-81.0667 137.986 -1020 129 95 92
-78.8633 137.7 -1018 127 97 92
-76.8951 137.821 -1019 126 96 90
-74.85 137.808 -1019 128 96 91
-72.8055 137.794 -1019 130 98 95
-70.9005 138.051 -1021 128 94 93
-68.9206 138.174 -1022 118 86 85
-66.8063 138.026 -1021 113 81 79
-64.7601 138.014 -1021 109 78 76
-62.7144 138.002 -1021 101 70 67
-60.4315 137.451 -1017 92 62 58
-58.1078 136.764 -1012 103 72 71
-55.7491 135.943 -1006 113 83 81
-53.308 134.852 -998 116 86 83
-51.0022 134.032 -992 117 87 87
-48.8691 133.617 -989 114 85 86
-46.701 133.068 -985 115 83 88
-44.64 132.79 -983 119 86 92
-42.5006 132.241 -979 126 90 98
-40.3776 131.693 -975 131 96 100
-38.1921 130.876 -969 129 95 99
-36.143 130.464 -966 127 99 103
-33.9646 129.512 -959 135 110 116
-125.262 123.232 -921 145 112 110
-124.194 124.012 -927 142 105 101
-122.839 124.525 -931 135 99 95
-121.729 125.305 -937 132 99 95
-120.595 126.085 -943 129 98 93
-120.318 127.801 -956 127 95 90
-119.371 128.849 -964 133 95 93
-118.514 130.03 -973 131 92 90
-116.903 130.41 -976 131 92 90
-115.399 130.923 -980 152 112 107
-113.185 130.635 -978 164 124 119
-110.525 129.813 -972 152 114 111
-108.114 129.259 -968 144 106 104
-105.719 128.706 -964 140 102 100
-103.773 128.687 -964 134 98 95
-102.25 129.202 -968 133 98 94
-100.815 129.851 -973 138 100 97
-99.8683 131.168 -983 139 101 97
-99.3803 133.151 -998 132 94 90
-99.3206 135.801 -1018 126 89 89
-97.8434 136.584 -1024 130 93 94
-96.7169 137.9 -1034 135 97 98
-94.7273 138.016 -1035 131 94 94
-92.7344 138.132 -1036 122 86 84
-90.3882 137.716 -1033 122 86 85
-87.9693 137.167 -1029 128 92 90
-85.6508 136.751 -1026 129 94 90
-83.2635 136.203 -1022 130 96 92
-81.2109 136.188 -1022 130 97 93
-79.1588 136.174 -1022 128 98 94
-77.1829 136.293 -1023 127 96 92
-75.2036 136.412 -1024 126 93 90
-73.078 136.266 -1023 124 93 88
-71.1653 136.519 -1025 122 91 86
-69.1103 136.506 -1025 119 87 85
-66.9905 136.361 -1024 118 87 84
-64.8752 136.216 -1023 113 82 79
-62.8259 136.204 -1023 103 73 70
-60.5394 135.661 -1019 101 71 69
-58.212 134.984 -1014 109 78 77
-55.8497 134.175 -1008 117 87 85
-53.5119 133.367 -1002 117 88 86
-51.0958 132.293 -994 118 89 88
-49.0084 132.018 -992 117 88 88
-46.7873 131.344 -987 118 86 90
-44.6774 130.936 -984 123 88 94
-42.4929 130.263 -979 129 91 99
-40.3289 129.59 -974 133 98 102
-38.0275 128.386 -965 127 93 97
-35.9494 127.847 -961 128 102 106
-122.421 122.239 -928 123 94 92
-121.707 123.403 -937 126 97 95
-121.212 124.83 -948 125 95 93
-120.171 125.73 -955 126 96 94
-119.226 126.761 -963 129 94 93
-118.371 127.925 -972 132 96 96
-117.481 129.088 -981 129 93 93
-116.202 129.857 -987 138 100 99
-113.743 129.31 -983 146 108 106
-111.756 129.29 -983 140 104 104
-109.211 128.613 -978 139 103 103
-107.016 128.33 -976 135 98 97
-104.83 128.048 -974 129 94 90
-102.97 128.161 -975 128 93 89
-101.625 128.932 -981 134 98 94
-101.983 131.936 -1004 139 101 97
-100.856 133.101 -1013 130 92 87
-100.083 134.791 -1026 124 89 89
-98.4945 135.43 -1031 128 93 94
-97.0737 136.332 -1038 131 94 94
-95.0763 136.446 -1039 127 92 89
-92.8968 136.298 -1038 124 89 85
-90.6345 136.02 -1036 126 89 88
-88.2101 135.479 -1032 130 93 92
-85.8024 134.938 -1028 130 96 92
-83.5745 134.661 -1026 129 96 93
-81.3553 134.383 -1024 129 96 94
-79.2996 134.369 -1024 127 97 95
-77.3954 134.618 -1026 126 96 94
-75.2636 134.473 -1025 124 93 92
-73.1364 134.329 -1024 120 90 85
-71.222 134.578 -1026 120 90 83
-69.1654 134.566 -1026 124 94 89
-67.1093 134.554 -1026 123 94 89
-64.9904 134.411 -1025 114 86 81
-62.9375 134.399 -1025 100 73 71
-60.7068 133.995 -1022 100 73 71
-58.4887 133.591 -1019 111 83 82
-56.1168 132.795 -1013 117 89 88
-53.8228 132.129 -1008 117 89 88
-51.395 131.071 -1000 120 89 90
-49.1973 130.538 -996 119 88 89
-46.9686 129.874 -991 121 87 91
-44.7602 129.211 -986 125 90 95
-42.5288 128.417 -980 127 92 98
-40.3631 127.755 -975 129 98 102
-37.8237 125.782 -960 126 99 102
-121.702 123.425 -952 125 96 97
-121.282 124.959 -964 125 95 96
-120.071 125.716 -970 132 98 98
-119.811 127.509 -984 134 99 100
-117.7 127.359 -983 135 99 100
-116.77 128.504 -992 136 99 99
-114.417 128.095 -989 139 101 102
-112.759 128.464 -992 133 97 99
-110.866 128.574 -993 134 98 99
-108.751 128.425 -992 130 96 94
-106.964 128.665 -994 127 94 88
-105.486 129.293 -999 126 93 87
-103.679 129.534 -1001 130 95 90
-102.676 130.81 -1011 131 96 90
-101.635 132.086 -1021 126 90 84
-101.138 134.138 -1037 125 90 89
-99.2413 134.379 -1039 129 94 93
-97.6176 135.008 -1044 129 93 92
-95.4255 134.862 -1043 126 90 88
-93.2383 134.716 -1042 127 91 87
-90.9684 134.441 -1040 130 92 90
-88.3655 133.65 -1034 130 92 90
-85.8708 132.989 -1029 128 94 90
-83.7227 132.845 -1028 125 93 91
-81.5792 132.701 -1027 125 93 92
-79.4405 132.558 -1026 124 94 93
-77.5327 132.802 -1028 125 95 94
-75.4706 132.789 -1028 126 96 95
-73.2664 132.518 -1026 127 97 92
-71.4178 132.893 -1029 126 96 89
-69.288 132.751 -1028 125 95 90
-67.2283 132.739 -1028 123 93 88
-65.0424 132.469 -1026 118 89 84
-62.9878 132.458 -1026 104 78 75
-60.7555 132.06 -1023 99 74 71
-58.6505 131.921 -1022 110 81 82
-56.4393 131.523 -1019 115 87 87
-53.9735 130.481 -1011 119 91 91
-51.5915 129.569 -1004 122 93 94
-49.485 129.302 -1002 120 91 93
-47.0551 128.132 -993 117 88 92
-44.7977 127.35 -987 116 88 93
-42.3478 125.923 -976 117 90 96
-39.6938 123.723 -959 100 82 85
-120.156 125.898 -987 133 99 99
-118.996 126.77 -994 135 99 101
-117.691 127.515 -1000 137 100 101
-115.785 127.622 -1001 138 102 102
-114.103 127.985 -1004 132 98 99
-104.892 131.566 -1033 127 92 86
-103.209 132.058 -1037 126 90 84
-101.901 133.059 -1045 124 88 87
-99.6061 132.787 -1043 130 94 93
-97.8811 133.279 -1047 132 94 93
-95.7749 133.262 -1047 129 91 89
-93.4906 132.991 -1045 129 91 88
-91.1276 132.594 -1042 131 92 89
-88.6065 131.942 -1037 130 92 89
-86.1896 131.418 -1033 128 94 92
-83.871 131.022 -1030 124 92 91
-81.7239 130.88 -1029 123 91 91
-79.5816 130.739 -1028 123 93 92
-77.5946 130.853 -1029 125 95 94
-75.5309 130.84 -1029 128 98 97
-73.325 130.573 -1027 132 101 96
-71.4054 130.815 -1029 131 100 93
-69.2761 130.675 -1028 128 98 93
-67.2167 130.664 -1028 127 97 92
-65.0946 130.525 -1027 131 101 96
-63.0383 130.514 -1027 119 93 88
-60.8638 130.249 -1025 107 82 78
-58.8699 130.366 -1026 118 87 90
-56.5956 129.848 -1022 119 90 91
-54.3912 129.457 -1019 119 91 91
-51.9423 128.432 -1011 119 92 94
-49.9208 128.423 -1011 118 92 94
-47.3786 127.018 -1000 110 85 90
-44.9715 125.867 -991 92 70 76
-98.6121 132.165 -1055 129 94 92
-96.3073 131.898 -1053 129 93 90
-93.8324 131.381 -1049 129 94 90
-91.2869 130.739 -1044 130 95 91
-88.7622 130.098 -1039 128 94 91
-86.4252 129.707 -1036 126 93 91
-84.0195 129.192 -1032 125 93 91
-81.8688 129.053 -1031 125 93 91
-79.7227 128.914 -1030 125 94 92
-77.7322 129.026 -1031 125 95 93
-75.7382 129.138 -1032 126 96 94
-73.5267 128.875 -1030 128 97 93
-71.4626 128.863 -1030 128 97 93
-69.3316 128.726 -1029 131 101 97
-67.2707 128.714 -1029 130 100 96
-65.0835 128.453 -1027 134 104 101
-62.9662 128.317 -1026 128 98 96
-60.8534 128.182 -1025 123 93 90
-58.8025 128.171 -1025 127 96 99
-56.4199 127.411 -1019 128 99 101
-54.2752 127.152 -1017 125 98 100
-51.8821 126.268 -1010 118 97 100
-93.906 129.386 -1050 119 89 84
-91.359 128.754 -1045 122 92 87
-88.7473 128 -1039 123 93 89
-86.5775 127.862 -1038 126 94 91
-84.1682 127.355 -1034 126 94 91
-82.0139 127.218 -1033 124 92 90
-79.7094 126.835 -1030 126 94 92
-77.8699 127.192 -1033 129 98 95
-75.5788 126.809 -1030 128 97 94
-73.5144 126.797 -1030 128 97 95
-71.3813 126.662 -1029 128 98 96
-69.2527 126.527 -1028 130 100 99
-67.1286 126.393 -1027 128 98 96
-64.9458 126.136 -1025 130 100 98
-62.9556 126.248 -1026 131 100 98
-60.6652 125.746 -1022 134 103 102
-58.5059 125.49 -1020 131 103 106
-56.2444 124.988 -1016 130 105 107
-84.3171 125.511 -1036 123 92 88
-82.2385 125.498 -1036 123 92 88
-80.1605 125.484 -1036 122 92 88
-78.2339 125.714 -1038 126 96 92
-76.0799 125.58 -1037 126 96 92
-73.7877 125.204 -1034 125 97 95
-71.5082 124.829 -1031 127 100 98
-68.9719 123.97 -1024 124 99 98
-66.8562 123.838 -1023 122 96 95
-64.6818 123.585 -1021 122 96 94
-62.3931 123.091 -1017 125 100 98
-60.1804 122.718 -1014 121 96 94
