ply
format ascii 1.0
comment Created by Open3D
element vertex 1418
property double x
property double y
property double z
property uchar red
property uchar green
property uchar blue
end_header
-2.46139 -611.489 -1605 51 48 55
0.875204 -611.87 -1606 45 42 48
4.22929 -614.157 -1612 43 39 42
7.57543 -613.779 -1611 42 37 45
-174.243 -620.649 -1613 70 67 74
-170.32 -618.632 -1608 67 64 71
-166.834 -618.156 -1607 61 60 68
-163.457 -618.066 -1607 61 60 69
-160.379 -619.132 -1610 60 59 69
-156.705 -617.893 -1607 61 60 70
-153.141 -617.04 -1605 58 57 67
-149.399 -615.421 -1601 56 55 65
-146.041 -615.341 -1601 53 52 60
-142.238 -613.341 -1596 54 53 61
-138.893 -613.265 -1596 55 54 64
-135.379 -612.422 -1594 56 55 65
-131.708 -610.814 -1590 55 54 64
-128.541 -611.511 -1592 54 53 63
-125.287 -611.827 -1593 53 52 64
-122.107 -612.528 -1595 52 51 63
-118.771 -612.463 -1595 52 51 61
-115.363 -612.016 -1594 54 51 60
-111.75 -610.419 -1590 56 53 61
-108.359 -609.976 -1589 56 55 63
-104.973 -609.535 -1588 55 53 60
-101.528 -608.711 -1586 55 52 59
-98.2781 -609.041 -1587 59 54 62
-95.2644 -610.907 -1592 61 55 63
-91.884 -610.473 -1591 64 57 65
-88.6758 -611.192 -1593 66 58 66
-85.2455 -610.378 -1591 67 59 67
-81.8244 -609.566 -1589 65 57 65
-78.363 -608.372 -1586 58 53 62
-75.104 -608.714 -1587 55 50 60
-71.932 -609.825 -1590 52 48 59
-68.5755 -609.403 -1589 47 44 54
-65.3881 -610.518 -1592 54 51 61
-61.9548 -609.333 -1589 57 54 62
-58.7191 -610.068 -1591 59 56 64
-55.3362 -609.27 -1589 57 55 63
-52.0605 -609.625 -1590 50 49 57
-48.781 -609.981 -1591 48 47 55
-45.5263 -610.722 -1593 49 48 56
-42.2903 -611.849 -1596 53 50 57
-38.9199 -611.06 -1594 55 52 59
-35.5584 -610.274 -1592 54 51 58
-32.2459 -610.256 -1592 55 52 59
-28.9518 -610.622 -1593 54 50 56
-25.654 -610.991 -1594 54 50 55
-22.3941 -612.511 -1598 54 47 54
-19.1179 -614.033 -1602 54 47 54
-15.8349 -615.94 -1607 56 49 57
-12.4924 -615.933 -1607 55 50 58
-9.15016 -615.927 -1607 56 52 60
-5.79348 -614.39 -1603 57 52 60
-2.46423 -615.538 -1606 50 45 53
0.878028 -617.07 -1610 45 40 47
4.23956 -618.988 -1615 41 37 40
7.58898 -618.225 -1613 40 35 43
-170.094 -621.165 -1605 66 65 72
-166.821 -621.46 -1606 61 60 68
-163.749 -622.531 -1609 64 63 72
-160.566 -623.216 -1611 66 65 75
-156.693 -621.195 -1606 66 65 77
-153.319 -621.111 -1606 61 60 71
-149.76 -620.255 -1604 55 54 64
-145.572 -616.695 -1595 52 51 59
-142.137 -616.23 -1594 54 53 61
-138.707 -615.767 -1593 55 54 64
-135.537 -616.465 -1595 56 55 65
-131.946 -615.233 -1592 56 55 65
-128.853 -616.322 -1595 54 53 63
-125.434 -615.866 -1594 52 51 63
-122.02 -615.412 -1593 51 50 62
-118.761 -615.733 -1594 51 50 60
-115.281 -614.897 -1592 55 52 61
-111.881 -614.449 -1591 56 53 61
-108.349 -613.231 -1588 57 54 62
-105.03 -613.173 -1588 58 54 62
-101.583 -612.344 -1586 58 53 61
-98.641 -614.607 -1592 57 52 60
-95.4955 -615.712 -1595 59 53 61
-92.1649 -615.661 -1595 63 56 64
-88.6122 -614.068 -1591 65 57 65
-85.3989 -614.793 -1593 65 57 65
-81.8172 -612.818 -1588 63 55 63
-78.4053 -612.003 -1586 59 54 63
-75.1446 -612.347 -1587 57 52 61
-71.8804 -612.693 -1588 56 51 62
-68.6126 -613.041 -1589 51 48 58
-65.4645 -614.548 -1593 58 55 65
-62.0272 -613.356 -1590 60 55 64
-58.677 -612.937 -1589 59 56 64
-55.3313 -612.521 -1588 56 53 61
-52.0886 -613.263 -1590 52 51 59
-48.7153 -612.464 -1588 49 48 56
-45.4651 -613.21 -1590 48 47 55
-42.154 -613.187 -1590 54 51 58
-38.9653 -615.093 -1595 56 53 60
-35.5551 -613.53 -1591 55 52 59
-32.2835 -614.283 -1593 52 49 56
-28.9492 -613.881 -1592 53 49 55
-25.6516 -614.252 -1593 56 50 56
-22.3641 -615.01 -1595 55 48 54
-19.0923 -616.541 -1599 55 48 55
-15.804 -618.074 -1603 60 53 60
-12.4603 -617.681 -1602 57 52 60
-9.13808 -618.446 -1604 56 51 58
-5.80397 -618.828 -1605 56 52 58
-2.46861 -619.982 -1608 52 48 53
0.876833 -619.596 -1607 49 45 50
4.23388 -621.525 -1612 46 42 45
-166.809 -624.766 -1605 61 60 68
-163.431 -624.675 -1605 63 62 70
-160.255 -625.365 -1607 63 62 70
-156.583 -624.11 -1604 63 62 74
-153.212 -624.025 -1604 60 59 71
-149.562 -622.775 -1601 56 55 66
-145.834 -621.139 -1597 55 54 62
-142.214 -619.893 -1594 55 54 62
-138.695 -619.038 -1592 57 56 66
-135.441 -619.352 -1593 58 57 67
-132.101 -619.279 -1593 58 57 67
-128.923 -619.985 -1595 56 55 65
-125.66 -620.304 -1596 54 53 65
-122.393 -620.625 -1597 53 52 64
-118.974 -620.17 -1596 53 52 64
-115.561 -619.717 -1595 55 52 62
-112.012 -618.489 -1592 55 52 60
-108.545 -617.652 -1590 54 51 59
-105.087 -616.817 -1588 56 52 60
-101.702 -616.372 -1587 59 54 62
-98.5708 -617.483 -1590 59 54 62
-95.188 -617.041 -1589 60 54 62
-92.215 -619.32 -1595 64 57 65
-88.8278 -618.882 -1594 66 58 66
-85.4453 -618.447 -1593 63 55 63
-81.9132 -616.848 -1589 63 55 63
-78.6458 -617.192 -1590 60 55 64
-75.1854 -615.986 -1587 59 54 63
-71.8741 -615.946 -1587 62 57 68
-68.5202 -615.519 -1586 55 52 62
-65.2945 -616.259 -1588 58 55 64
-61.9829 -616.225 -1588 59 54 63
-58.7088 -616.58 -1589 59 55 64
-55.3265 -615.773 -1587 57 53 62
-52.0841 -616.519 -1589 54 53 61
-48.711 -615.716 -1587 52 51 59
-45.4898 -616.854 -1590 49 48 56
-42.2034 -617.218 -1591 52 49 57
-38.8888 -617.196 -1591 54 51 58
-35.6192 -617.951 -1593 52 49 56
-32.2402 -616.769 -1590 50 47 55
-28.965 -617.528 -1592 54 49 56
-25.6494 -617.514 -1592 59 51 57
-22.3902 -619.052 -1596 59 51 56
-19.0907 -619.817 -1598 59 52 57
-15.7928 -620.971 -1601 61 53 59
-12.4593 -620.963 -1601 60 54 59
-9.1429 -622.121 -1604 57 51 57
-5.80704 -622.504 -1605 57 51 57
-2.47453 -624.829 -1611 55 48 54
0.879461 -624.829 -1611 54 48 54
-166.796 -628.073 -1604 66 64 72
-163.317 -627.59 -1603 64 63 71
-159.844 -627.11 -1602 62 61 69
-156.767 -628.196 -1605 62 61 72
-153.2 -627.328 -1603 60 59 70
-149.831 -627.244 -1603 58 57 68
-145.732 -624.033 -1595 57 56 65
-142.114 -622.78 -1592 58 57 66
-138.51 -621.529 -1589 59 58 68
-135.515 -623.018 -1593 60 59 70
-132.09 -622.553 -1592 59 58 69
-128.832 -622.872 -1593 56 56 68
-125.729 -623.975 -1596 56 55 67
-122.384 -623.907 -1596 55 54 66
-119.04 -623.84 -1596 54 53 66
-115.624 -623.385 -1595 55 53 63
-112.144 -622.541 -1593 56 53 61
-108.604 -621.308 -1590 56 51 60
-105.343 -621.64 -1591 57 52 61
-101.886 -620.801 -1589 58 53 62
-98.8109 -622.309 -1593 58 55 63
-95.42 -621.865 -1592 61 56 64
-92.2656 -622.985 -1595 65 58 66
-88.709 -621.373 -1591 64 56 64
-85.2774 -620.544 -1589 64 56 64
-81.9065 -620.108 -1588 63 55 63
-78.491 -619.283 -1586 64 56 65
-75.0845 -618.459 -1584 61 53 63
-71.9134 -619.591 -1587 60 55 66
-68.5145 -618.771 -1585 52 49 58
-65.3303 -619.906 -1588 56 53 61
-61.9778 -619.48 -1587 58 55 63
-58.7409 -620.228 -1589 57 55 66
-55.3567 -619.416 -1587 57 55 67
-52.047 -619.387 -1587 52 55 64
-48.707 -618.969 -1586 52 53 61
-45.4861 -620.113 -1589 50 49 57
-42.1999 -620.48 -1590 51 48 56
-38.9833 -622.018 -1594 52 49 56
-35.6386 -621.608 -1593 52 49 56
-32.3187 -621.589 -1593 55 52 60
-29.0171 -621.963 -1594 57 52 59
-25.6795 -621.557 -1593 59 51 57
-22.3744 -621.934 -1594 62 52 54
-19.0891 -623.094 -1597 61 52 56
-15.7916 -624.255 -1600 62 54 60
-12.4661 -624.637 -1601 59 51 53
-9.15366 -626.192 -1605 56 48 52
-5.81737 -626.968 -1607 57 50 56
-149.914 -630.942 -1603 61 60 70
-146.178 -629.285 -1599 60 59 69
-142.371 -627.238 -1594 60 59 69
-138.935 -626.766 -1593 58 57 67
-135.505 -626.296 -1592 58 57 68
-132.246 -626.616 -1593 57 56 67
-129.146 -627.723 -1596 53 54 68
-125.798 -627.653 -1596 53 53 65
-122.605 -628.37 -1598 52 51 63
-119.18 -627.91 -1597 53 52 66
-115.833 -627.845 -1597 55 52 62
-112.276 -626.602 -1594 55 51 59
-108.732 -625.362 -1591 59 52 60
-105.335 -624.91 -1590 59 53 61
-101.942 -624.459 -1589 55 49 58
-98.6792 -624.797 -1590 54 51 59
-95.4726 -625.529 -1592 59 54 62
-92.0849 -625.084 -1591 64 57 64
-88.6464 -624.249 -1589 63 55 63
-85.5392 -625.772 -1593 62 54 62
-82.0548 -624.547 -1590 61 53 60
-78.6827 -624.11 -1589 64 55 64
-75.1257 -622.104 -1584 63 55 65
-71.8625 -622.456 -1585 60 55 66
-68.4657 -621.632 -1583 52 48 57
-65.1604 -621.595 -1583 56 53 61
-61.9728 -622.738 -1586 61 58 66
-58.6993 -623.097 -1587 58 56 66
-55.3872 -623.065 -1587 58 57 68
-52.0756 -623.036 -1587 57 60 67
-48.7645 -623.008 -1587 56 57 64
-45.511 -623.767 -1589 56 55 63
-42.2497 -624.528 -1591 57 54 62
-38.9803 -625.291 -1593 56 53 60
-35.6358 -624.877 -1592 56 52 59
-32.377 -626.036 -1595 58 52 61
-29.0514 -626.019 -1595 61 54 60
-25.7259 -626.004 -1595 63 55 59
-22.4709 -627.953 -1600 64 54 56
-19.1474 -628.334 -1601 61 52 55
-15.8298 -629.11 -1603 61 53 59
-12.5431 -631.849 -1610 62 54 56
-9.21581 -633.805 -1615 57 49 53
-145.802 -630.999 -1594 60 59 69
-142.361 -630.523 -1593 62 61 71
-138.926 -630.049 -1592 60 59 69
-135.58 -629.972 -1592 57 55 65
-132.486 -631.085 -1595 58 56 66
-129.299 -631.803 -1597 54 55 67
-126.105 -632.523 -1599 54 54 66
-122.903 -633.245 -1601 56 55 67
-119.47 -632.781 -1600 56 55 69
-115.97 -631.925 -1598 56 54 65
-112.62 -631.861 -1598 54 51 59
-109.066 -630.613 -1595 58 51 57
-105.658 -630.158 -1594 61 54 60
-102.384 -630.496 -1595 60 53 59
-99.1687 -631.23 -1597 57 51 59
-95.8256 -631.176 -1597 60 55 62
-92.4255 -630.728 -1596 69 62 68
-88.9188 -629.492 -1593 67 59 66
-85.5866 -629.444 -1593 64 56 63
-82.0487 -627.817 -1589 62 54 60
-78.6768 -627.377 -1588 63 54 64
-75.3098 -626.939 -1587 63 54 64
-71.8568 -625.713 -1584 60 55 66
-68.5037 -625.279 -1583 55 49 59
-65.2789 -626.032 -1585 55 50 58
-62.0072 -626.391 -1586 61 55 63
-58.7688 -627.148 -1588 59 56 66
-55.4877 -627.511 -1589 59 58 68
-52.1701 -627.481 -1589 57 59 66
-48.8529 -627.453 -1589 58 57 64
-45.6222 -628.611 -1592 60 58 65
-42.3793 -629.771 -1595 61 58 65
-39.0753 -630.143 -1596 59 55 63
-35.7451 -630.123 -1596 57 52 60
-32.4965 -631.683 -1600 61 54 61
-29.1585 -631.666 -1600 62 54 59
-25.8047 -631.256 -1599 64 55 58
-22.5536 -633.611 -1605 65 55 56
-19.2299 -634.389 -1607 63 53 56
-15.9374 -636.748 -1613 62 52 57
-12.6279 -639.503 -1620 67 58 60
-129.533 -636.291 -1599 59 58 70
-126.491 -637.811 -1603 56 55 67
-123.279 -638.537 -1605 57 56 66
-119.836 -638.071 -1604 57 56 68
-116.543 -638.402 -1605 57 55 65
-112.965 -637.144 -1602 60 56 64
-109.469 -636.286 -1600 65 58 63
-106.116 -636.226 -1600 66 59 64
-102.827 -636.565 -1601 65 58 62
-99.5968 -637.304 -1603 64 58 66
-96.1193 -636.454 -1601 68 61 68
-92.7668 -636.401 -1601 71 64 70
-89.4711 -636.747 -1602 67 59 65
-85.8495 -634.711 -1597 64 56 62
-82.5594 -635.061 -1598 61 53 59
-79.0181 -633.427 -1594 63 54 62
-75.4942 -631.794 -1590 62 54 63
-71.9423 -629.766 -1585 62 55 66
-68.7151 -630.521 -1587 59 54 62
-65.3153 -629.689 -1585 55 50 57
-62.159 -631.242 -1589 60 53 61
-58.8756 -631.606 -1590 61 56 66
-55.6933 -633.163 -1594 60 57 67
-52.4292 -633.927 -1596 57 59 66
-49.1878 -635.09 -1599 59 57 64
-45.8197 -634.666 -1598 59 56 63
-42.5093 -635.039 -1599 59 54 62
-39.2686 -636.605 -1603 59 54 62
-35.9219 -636.584 -1603 59 53 61
-32.6364 -637.756 -1606 60 53 59
-29.4118 -640.518 -1613 61 53 57
-25.9967 -639.312 -1610 65 55 57
-22.7911 -643.666 -1621 68 58 58
-19.444 -644.845 -1624 69 58 60
-16.144 -648.409 -1633 70 59 63
-12.8533 -654.357 -1648 68 57 59
-123.963 -645.454 -1613 63 61 70
-120.8 -646.585 -1616 61 59 70
-117.481 -646.918 -1617 62 59 68
-114.087 -646.853 -1617 64 59 67
-110.558 -645.989 -1615 69 61 64
-107.171 -645.928 -1615 71 63 66
-103.848 -646.268 -1616 68 61 64
-100.274 -645.011 -1613 68 61 68
-97.0743 -646.155 -1616 71 63 70
-93.6306 -645.702 -1615 71 63 68
-90.1361 -644.85 -1613 66 58 64
-86.4893 -642.802 -1608 66 58 64
-83.2261 -643.553 -1610 64 56 62
-79.3601 -639.51 -1600 66 58 66
-75.9641 -639.067 -1599 66 58 66
-72.5731 -638.626 -1598 67 59 68
-69.1003 -637.387 -1595 65 57 64
-65.723 -636.949 -1594 61 53 60
-62.5853 -638.911 -1599 63 55 61
-59.2792 -639.276 -1600 61 56 64
-56.144 -641.641 -1606 62 58 67
-52.7872 -641.61 -1606 60 59 67
-49.7386 -645.577 -1616 61 58 66
-46.247 -643.952 -1612 61 57 65
-43.0119 -645.924 -1617 59 54 62
-39.6093 -645.501 -1616 61 55 62
-36.2783 -646.279 -1618 67 59 65
-32.919 -646.659 -1619 63 55 61
-29.5742 -647.44 -1621 61 52 56
-26.2374 -648.623 -1624 67 57 59
-23.0289 -653.801 -1637 72 60 61
-19.7065 -656.984 -1645 74 62 64
-16.4399 -663.763 -1662 76 64 67
-121.467 -653.552 -1624 68 65 74
-118.201 -654.289 -1626 72 67 74
-115.14 -656.234 -1631 71 64 69
-111.716 -656.17 -1631 70 62 64
-108.758 -658.924 -1638 73 66 67
-104.936 -656.449 -1632 71 64 65
-101.389 -655.586 -1630 69 62 68
-98.3313 -657.943 -1636 71 63 69
-94.5537 -655.475 -1630 71 63 67
-91.4171 -657.433 -1635 71 63 69
-87.5069 -653.764 -1626 71 63 69
-84.1524 -654.117 -1627 68 60 66
-80.199 -649.648 -1616 69 60 67
-77.0528 -651.614 -1621 69 59 67
-73.1139 -646.748 -1609 71 62 70
-69.8328 -647.511 -1611 70 61 67
-66.5027 -647.874 -1612 67 58 63
-63.1689 -648.239 -1613 69 59 66
-59.9427 -649.812 -1617 65 58 67
-56.8054 -652.592 -1624 67 61 70
-53.6391 -655.374 -1631 64 62 70
-50.167 -654.54 -1629 65 61 68
-46.7897 -654.915 -1630 65 59 66
-43.5684 -657.702 -1637 65 59 66
-39.9748 -654.866 -1630 71 63 69
-36.5904 -655.246 -1631 76 66 71
-33.2632 -656.833 -1635 70 61 66
-29.9195 -658.422 -1639 70 59 63
-26.5431 -659.611 -1642 73 61 63
-23.3093 -665.221 -1656 72 60 60
-19.9453 -668.422 -1664 72 60 60
-122.584 -662.991 -1638 74 71 80
-119.723 -666.16 -1646 75 70 75
-116.265 -666.092 -1646 75 67 69
-113.082 -667.645 -1650 76 67 67
-109.485 -666.773 -1648 78 69 70
-106.025 -666.711 -1648 76 68 70
-102.629 -667.056 -1649 73 65 69
-99.3496 -668.212 -1652 72 64 68
-95.8263 -667.752 -1651 72 64 68
-92.2524 -666.889 -1649 73 65 71
-88.6336 -665.625 -1646 74 66 72
-85.2354 -665.979 -1647 76 68 74
-81.2873 -661.888 -1637 79 68 75
-77.8576 -661.843 -1637 76 65 72
-74.1558 -659.374 -1631 76 65 72
-70.5665 -657.716 -1627 77 65 71
-67.2009 -658.08 -1628 73 62 67
-64.1061 -661.277 -1636 71 60 67
-60.6445 -660.837 -1635 68 59 67
-57.5026 -664.037 -1643 67 60 67
-54.1632 -665.217 -1646 66 63 70
-50.7809 -665.996 -1648 69 63 70
-47.3045 -665.564 -1647 71 64 70
-43.9659 -667.154 -1651 71 63 69
-40.4883 -666.726 -1650 74 64 69
-37.0377 -666.704 -1650 76 64 69
-33.567 -666.28 -1649 74 62 66
-30.2103 -668.282 -1654 72 60 62
-26.7199 -667.458 -1652 71 59 59
-23.4211 -671.888 -1663 69 58 56
-120.374 -673.246 -1654 72 67 72
-117.109 -674.398 -1657 76 68 70
-114.038 -676.774 -1663 79 69 69
-110.611 -677.116 -1664 77 68 69
-107.18 -677.461 -1665 75 67 68
-103.622 -676.993 -1664 74 65 68
-100.249 -677.748 -1666 75 66 68
-96.4039 -675.251 -1660 76 67 70
-93.0328 -676.01 -1662 73 65 70
-89.3309 -674.331 -1658 73 65 70
-86.009 -675.501 -1661 78 70 76
-82.1784 -672.606 -1654 81 71 78
-78.8063 -673.373 -1656 81 70 77
-75.017 -670.483 -1649 82 70 75
-71.4748 -669.627 -1647 80 68 73
-67.9827 -669.181 -1646 77 64 70
-64.5348 -669.143 -1646 76 62 68
-61.273 -671.139 -1651 72 62 68
-57.7806 -670.699 -1650 69 61 68
-54.5234 -673.105 -1656 72 66 72
-51.1183 -673.888 -1658 76 68 74
-47.619 -673.453 -1657 77 69 75
-44.1509 -673.427 -1657 75 67 73
-40.6833 -673.403 -1657 77 66 72
-37.1936 -672.974 -1656 77 65 70
-33.749 -673.36 -1657 76 61 62
-30.3739 -675.373 -1662 72 58 58
-26.9132 -675.764 -1663 71 57 56
-23.5613 -679.406 -1672 67 56 54
-120.881 -679.557 -1660 71 66 71
-117.46 -679.897 -1661 76 67 69
-114.378 -682.286 -1667 75 65 64
-110.874 -682.221 -1667 69 59 59
-107.435 -682.567 -1668 69 60 59
-103.806 -681.687 -1666 73 62 64
-100.547 -683.265 -1670 74 63 65
-96.8662 -681.98 -1667 75 65 67
-93.4224 -682.335 -1668 71 63 66
-89.8136 -681.464 -1666 73 64 69
-86.473 -682.64 -1669 76 67 72
-82.7726 -680.955 -1665 77 66 72
-79.1373 -679.681 -1662 80 68 74
-75.5154 -678.41 -1659 82 69 74
-71.9067 -677.141 -1656 80 67 71
-68.3938 -676.691 -1655 79 66 70
-64.9249 -676.653 -1655 81 65 70
-61.5681 -677.843 -1658 78 66 71
-58.1292 -678.217 -1659 78 68 73
-54.6536 -678.185 -1659 75 68 74
-51.2711 -679.38 -1662 76 68 73
-47.8188 -679.761 -1663 78 70 74
-44.3629 -680.143 -1664 82 73 78
-40.8786 -680.118 -1664 84 72 77
-37.4621 -681.322 -1667 84 70 75
-33.9519 -680.893 -1666 80 64 64
-30.5192 -682.1 -1669 73 59 58
-27.042 -682.492 -1670 71 57 56
-23.603 -684.112 -1674 69 56 53
-117.386 -682.951 -1659 77 67 69
-114.376 -685.765 -1666 75 65 63
-111.072 -686.934 -1669 70 60 58
-107.562 -686.871 -1669 71 61 59
-103.928 -685.986 -1667 73 61 62
-100.425 -685.926 -1667 72 60 62
-96.806 -685.046 -1665 70 60 62
-93.4205 -685.814 -1667 67 59 63
-89.8657 -685.349 -1666 70 61 66
-86.5231 -686.532 -1669 72 61 66
-82.9698 -686.072 -1668 75 64 69
-79.4214 -685.613 -1667 82 70 75
-75.7868 -684.334 -1664 84 69 74
-72.1221 -682.646 -1660 82 67 70
-68.6401 -682.605 -1660 84 69 72
-65.1195 -682.155 -1659 88 71 75
-61.7524 -683.352 -1662 83 70 74
-58.1277 -681.673 -1658 81 70 75
-54.7841 -683.284 -1662 80 72 78
-51.3007 -683.254 -1662 79 71 76
-47.8753 -684.047 -1664 81 72 76
-44.4152 -684.431 -1665 84 73 78
-41.0006 -685.64 -1668 86 73 78
-37.5512 -686.439 -1670 85 71 75
-34.0939 -687.241 -1672 80 65 65
-117.738 -688.486 -1663 79 67 70
-114.786 -691.73 -1671 73 62 58
-111.07 -690.422 -1668 72 61 57
-107.496 -689.944 -1667 71 61 58
-103.927 -689.468 -1666 72 61 63
-100.484 -689.822 -1667 70 60 62
-96.8043 -688.523 -1664 68 58 60
-93.3629 -688.882 -1665 72 62 66
-90.08 -690.483 -1669 75 65 70
-86.6254 -690.845 -1670 76 65 70
-83.1674 -691.209 -1671 79 68 73
-79.5153 -689.921 -1668 83 72 76
-75.9677 -689.462 -1667 85 71 72
-72.3379 -688.177 -1664 85 69 71
-68.8456 -688.136 -1664 88 70 72
-65.3146 -687.684 -1663 93 76 79
-61.8255 -687.646 -1663 87 73 77
-58.2668 -686.784 -1661 86 73 77
-54.9149 -688.405 -1665 85 75 80
-51.3614 -687.547 -1663 83 72 76
-47.9319 -688.345 -1665 83 71 75
-44.4944 -689.145 -1667 85 73 78
-41.172 -692.014 -1674 87 73 77
-37.6405 -691.577 -1673 86 71 74
-34.1545 -691.97 -1674 80 64 64
-117.595 -691.133 -1660 87 73 69
-114.648 -694.395 -1668 88 72 66
-111.268 -695.161 -1670 88 73 67
-107.559 -693.848 -1667 86 70 65
-104.05 -693.785 -1667 82 67 65
-100.301 -692.061 -1663 78 63 63
-97.0357 -693.667 -1667 75 63 66
-93.3615 -692.363 -1664 77 64 68
-90.0248 -693.557 -1667 79 66 70
-86.5205 -693.505 -1667 78 65 72
-83.3158 -695.951 -1673 80 67 71
-79.7528 -695.487 -1672 83 70 73
-76.149 -694.61 -1670 91 71 75
-72.5108 -693.318 -1667 90 71 71
-69.0515 -693.692 -1668 90 71 70
-65.4707 -692.821 -1666 94 73 75
-62.0105 -693.199 -1667 97 76 76
-58.336 -691.085 -1662 99 77 77
-54.881 -691.468 -1663 97 78 75
-51.4533 -692.268 -1665 91 75 74
-47.96 -692.239 -1665 86 72 72
-44.4938 -692.627 -1666 84 72 75
-41.1469 -695.097 -1672 88 73 76
-37.6401 -695.074 -1672 89 72 74
-34.1337 -695.053 -1672 88 68 65
-114.234 -695.378 -1661 99 81 71
-111.001 -696.986 -1665 98 80 71
-107.493 -696.921 -1665 95 75 68
-103.862 -696.021 -1663 91 74 70
-100.481 -696.798 -1665 87 71 68
-97.0348 -697.158 -1666 82 69 69
-93.5288 -697.101 -1666 85 69 70
-90.1319 -697.884 -1668 87 71 73
-86.5196 -696.995 -1666 86 70 74
-83.2653 -699.036 -1671 89 74 76
-79.5135 -696.897 -1666 92 77 77
-76.0114 -696.851 -1666 95 75 73
-72.51 -696.807 -1666 96 76 70
-69.0923 -697.601 -1668 97 77 69
-65.5093 -696.725 -1666 103 81 75
-62.0842 -697.524 -1668 108 85 78
-58.5108 -696.652 -1666 110 85 78
-55.0455 -697.036 -1667 105 82 77
-51.4836 -696.169 -1665 98 79 75
-48.0459 -696.975 -1667 93 76 73
-44.5468 -696.948 -1667 88 73 74
-41.0972 -697.759 -1669 91 75 76
-37.6622 -698.99 -1672 91 74 76
-34.1129 -698.132 -1670 91 70 65
-30.6455 -698.95 -1672 84 66 60
-20.1463 -699.741 -1674 78 63 60
-114.027 -697.598 -1657 101 82 72
-110.866 -699.636 -1662 101 82 72
-107.492 -700.413 -1664 101 81 74
-104.111 -701.191 -1666 97 81 76
-100.48 -700.289 -1664 90 74 70
-97.1507 -701.492 -1667 90 74 70
-93.4721 -700.173 -1664 92 74 70
-90.0233 -700.539 -1665 94 76 73
-86.5709 -700.908 -1666 93 76 74
-83.215 -702.119 -1669 97 80 78
-79.4651 -699.967 -1664 97 80 78
-76.0108 -700.342 -1665 95 78 68
-72.5095 -700.298 -1665 100 81 68
-69.1332 -701.517 -1668 107 87 72
-65.5088 -700.215 -1665 112 88 75
-62.1583 -701.86 -1669 113 89 75
-58.6159 -701.403 -1668 113 89 75
-55.1111 -701.369 -1668 112 87 79
-51.4523 -699.235 -1663 109 87 80
-48.0455 -700.467 -1666 105 85 79
-44.5998 -701.281 -1668 96 77 75
-41.1462 -702.096 -1670 94 76 75
-37.662 -702.493 -1671 93 75 74
-34.0513 -700.369 -1666 93 72 67
-30.5902 -701.191 -1668 88 67 62
-27.0886 -701.174 -1668 84 64 59
-23.672 -703.681 -1674 78 63 59
-20.1462 -703.248 -1673 81 65 62
-113.613 -698.536 -1650 103 86 76
-110.799 -702.702 -1660 101 83 74
-107.427 -703.483 -1662 102 82 75
-104.298 -705.959 -1668 101 84 78
-100.782 -705.898 -1668 98 80 74
-97.3254 -706.262 -1669 96 77 70
-93.6403 -704.935 -1666 97 76 68
-90.2934 -706.149 -1669 97 77 68
-86.7266 -705.673 -1668 97 77 70
-83.2148 -705.622 -1668 99 79 73
-79.4648 -703.458 -1663 99 79 72
-76.0106 -703.835 -1664 98 81 67
-72.4221 -702.945 -1662 101 81 64
-68.9257 -702.902 -1662 107 87 68
-65.4297 -702.862 -1662 113 89 73
-62.1581 -705.361 -1668 113 89 72
-58.6508 -705.325 -1668 116 92 74
-55.2432 -706.56 -1671 116 91 80
-51.6067 -704.836 -1667 117 93 83
-48.1607 -705.652 -1669 115 92 82
-44.7067 -706.47 -1671 107 85 81
-41.1461 -705.599 -1669 103 81 77
-37.6168 -705.152 -1668 100 79 74
-33.9693 -702.172 -1661 93 72 67
-30.5717 -704.266 -1666 88 67 62
-27.0073 -702.558 -1662 84 64 59
-23.6012 -705.079 -1668 80 64 60
-20.122 -705.912 -1670 83 66 63
-110.666 -705.34 -1657 104 87 79
-107.492 -707.403 -1662 104 84 77
-104.361 -709.893 -1668 103 83 78
-100.843 -709.831 -1668 103 83 78
-97.4422 -710.622 -1670 103 81 73
-93.7529 -709.288 -1667 104 81 72
-90.4018 -710.509 -1670 102 79 69
-86.6747 -708.753 -1666 99 77 67
-83.2149 -709.128 -1667 101 79 70
-79.6081 -708.228 -1665 103 81 72
-76.0105 -707.33 -1663 103 83 73
-72.422 -706.435 -1661 106 84 69
-68.967 -706.818 -1662 110 88 71
-65.7054 -709.329 -1668 115 91 76
-62.3073 -710.566 -1671 115 91 75
-58.5805 -707.979 -1665 116 92 77
-55.2102 -709.645 -1669 119 92 79
-51.6687 -709.188 -1668 121 96 83
-48.1607 -709.158 -1668 121 97 84
-44.6265 -708.705 -1667 115 90 82
-41.0721 -707.829 -1665 109 84 77
-37.549 -707.38 -1664 104 79 73
-33.9897 -706.083 -1661 92 71 65
-30.5349 -706.914 -1663 87 66 61
-27.0233 -706.471 -1662 85 65 60
-23.6579 -710.282 -1671 82 64 61
-20.1702 -711.119 -1673 84 65 62
-110.666 -708.828 -1656 101 85 77
-107.622 -711.757 -1663 104 84 77
-104.549 -714.689 -1670 100 80 74
-100.843 -713.343 -1667 104 83 76
-97.5011 -714.566 -1670 106 81 73
-93.8659 -713.652 -1668 105 80 71
-90.3481 -713.597 -1668 101 76 67
-86.8312 -713.543 -1668 101 76 68
-83.3651 -713.919 -1669 104 79 71
-79.6562 -712.159 -1665 108 83 75
-76.1021 -711.684 -1664 106 84 76
-72.5529 -711.211 -1663 109 86 74
-69.0087 -710.741 -1662 115 92 77
-65.548 -711.127 -1663 118 94 80
-62.0837 -711.516 -1664 116 90 77
-58.827 -714.473 -1671 115 89 76
-55.3759 -715.293 -1673 118 89 75
-51.8859 -715.688 -1674 121 93 79
-48.3053 -714.803 -1672 119 93 79
-44.6801 -713.065 -1668 115 88 77
-41.0475 -710.902 -1663 112 86 75
-37.5491 -710.878 -1663 107 80 71
-33.9897 -709.574 -1660 93 69 63
-30.4799 -709.127 -1659 88 66 59
-26.9908 -709.11 -1659 87 66 59
-23.587 -711.659 -1665 86 66 61
-20.1462 -713.783 -1670 87 67 62
-107.817 -716.554 -1665 100 80 73
-104.801 -719.932 -1673 98 78 70
-101.086 -718.578 -1670 103 81 74
-97.6773 -719.378 -1672 107 82 74
-94.0356 -718.459 -1670 104 79 71
-90.6741 -719.693 -1673 101 76 68
-86.884 -717.488 -1668 103 78 72
-83.5657 -719.157 -1672 106 81 74
-79.7525 -716.526 -1666 110 85 77
-76.2399 -716.479 -1666 110 87 79
-72.7717 -716.864 -1667 110 87 75
-69.2168 -716.39 -1666 115 92 77
-65.6273 -715.489 -1664 117 93 78
-62.2335 -716.74 -1667 117 91 78
-58.7924 -717.563 -1669 120 93 80
-55.4426 -719.678 -1674 118 89 74
-51.7312 -717.066 -1668 120 91 77
-48.3057 -718.325 -1671 118 90 76
-44.5464 -714.428 -1662 115 88 76
-40.9488 -712.683 -1658 113 87 76
-37.4589 -712.659 -1658 105 79 71
-33.9693 -712.637 -1658 100 75 67
-30.5352 -713.907 -1661 96 73 65
-27.0398 -713.889 -1661 94 72 64
-23.6014 -715.593 -1665 89 69 64
-20.1463 -717.299 -1669 88 68 63
-16.6846 -719.437 -1674 87 67 62
-104.74 -723.033 -1671 103 83 75
-101.088 -722.105 -1669 104 83 76
-97.6201 -722.476 -1670 110 85 77
-94.2058 -723.282 -1672 109 83 75
-87.0414 -722.306 -1670 107 82 77
-83.5668 -722.686 -1671 108 83 78
-80.0408 -722.636 -1671 110 85 79
-76.4239 -721.723 -1669 111 88 79
-72.7725 -720.38 -1666 110 87 73
-69.1344 -719.039 -1663 111 88 71
-65.6674 -719.431 -1664 115 91 75
-62.3088 -721.121 -1668 119 92 77
-58.9339 -722.813 -1672 125 96 82
-51.9181 -723.177 -1673 126 97 82
-48.2195 -720.553 -1667 124 95 80
-44.6005 -718.796 -1663 119 91 79
-40.9492 -716.176 -1657 115 89 79
-37.4592 -716.152 -1657 107 82 74
-33.949 -715.698 -1656 104 79 70
-30.4618 -715.678 -1656 100 75 67
-27.04 -717.389 -1660 100 75 67
-23.5874 -718.67 -1663 95 74 69
-20.1224 -719.953 -1666 92 71 66
-16.6648 -722.103 -1671 89 68 63
-104.741 -726.567 -1670 107 85 76
-101.029 -725.198 -1667 110 87 79
-97.6219 -726.007 -1669 112 88 79
-94.0383 -725.513 -1668 110 85 76
-90.6769 -726.761 -1671 110 85 75
-86.9907 -725.401 -1668 110 86 78
-83.5681 -726.218 -1670 109 85 79
-79.9462 -725.298 -1668 110 86 80
-76.5167 -726.119 -1670 111 88 77
-72.9046 -725.204 -1668 111 88 73
-69.3016 -724.29 -1666 112 88 70
-65.8657 -725.118 -1668 116 89 74
-62.3097 -724.644 -1667 122 93 78
-58.9349 -726.345 -1671 126 97 82
-55.3448 -725.441 -1669 124 97 82
-51.8256 -725.407 -1669 126 98 83
-48.2492 -724.508 -1667 126 97 82
-44.5742 -721.871 -1661 121 92 80
-40.999 -720.541 -1658 116 90 80
-37.4595 -719.648 -1656 110 87 78
-33.9904 -720.06 -1657 104 79 70
-30.5357 -720.91 -1659 102 77 69
-27.1218 -723.065 -1664 102 77 69
-23.6019 -722.614 -1663 95 74 68
-20.1588 -724.774 -1668 92 71 65
-16.6949 -726.935 -1673 90 69 63
-101.213 -730.039 -1669 109 84 76
-97.7994 -730.852 -1671 108 86 77
-94.435 -732.105 -1674 108 85 74
-90.8416 -731.61 -1673 109 85 73
-87.2011 -730.68 -1671 109 86 75
-83.72 -731.064 -1672 109 86 76
-80.1397 -730.576 -1671 112 89 80
-76.5641 -730.09 -1670 116 93 84
-72.906 -728.732 -1667 118 93 80
-69.4278 -729.125 -1668 117 92 75
-65.867 -728.646 -1667 118 90 76
-62.3483 -728.607 -1667 121 92 78
-58.9714 -730.317 -1671 124 95 81
-55.3458 -728.971 -1668 120 97 83
-51.8267 -728.937 -1668 122 97 83
-48.2211 -727.595 -1665 123 96 82
-44.6554 -726.693 -1663 124 95 83
-41.0986 -725.792 -1661 120 94 84
-37.5959 -725.768 -1661 112 89 80
-34.0524 -724.872 -1659 104 79 71
-30.5914 -725.726 -1661 102 77 69
-27.1058 -726.144 -1662 101 76 68
-23.6448 -727.44 -1665 94 73 66
-20.2075 -730.047 -1671 93 72 65
-16.6753 -729.599 -1670 93 71 64
-97.8603 -734.835 -1671 103 82 74
-90.9525 -736.036 -1674 105 82 71
-87.2555 -734.662 -1671 111 87 75
-83.7221 -734.608 -1671 114 89 78
-80.1415 -734.117 -1670 116 90 79
-76.4742 -732.75 -1667 118 93 84
-72.9515 -732.703 -1667 122 95 83
-69.3877 -732.219 -1666 123 95 80
-65.9079 -732.617 -1667 121 93 79
-62.3122 -731.698 -1665 120 93 79
-58.7609 -731.22 -1664 121 93 80
-55.2474 -731.185 -1664 122 96 81
-51.7345 -731.152 -1664 124 97 83
-48.251 -731.56 -1665 123 96 82
-44.71 -731.091 -1664 123 95 83
-41.1737 -730.625 -1663 121 95 84
-37.6419 -730.161 -1662 115 90 81
-34.1352 -730.139 -1662 105 83 76
-30.6104 -729.68 -1661 105 81 75
-27.1717 -731.419 -1665 105 81 74
-23.6737 -731.842 -1666 99 76 69
-20.1958 -733.146 -1669 97 73 67
-16.7056 -734.453 -1672 95 71 65
-98.0388 -739.71 -1673 101 80 75
-90.9551 -739.591 -1673 104 81 74
-87.2578 -738.209 -1670 115 87 76
-83.6241 -737.271 -1668 121 92 80
-79.9996 -736.336 -1666 124 94 81
-76.3843 -735.402 -1664 124 96 83
-72.9095 -735.798 -1665 126 98 83
-69.4311 -736.195 -1666 127 98 82
-65.8701 -735.711 -1665 123 95 81
-62.3512 -735.67 -1665 120 92 79
-58.8329 -735.632 -1665 120 93 80
-55.282 -735.155 -1664 122 95 81
-51.7669 -735.121 -1664 122 96 82
-48.3393 -736.415 -1667 121 97 82
-44.7649 -735.502 -1665 121 95 83
-41.2737 -735.917 -1666 118 92 81
-37.7334 -735.45 -1665 115 90 79
-34.1976 -734.986 -1664 108 86 78
-30.6848 -734.966 -1664 106 82 75
-27.2539 -737.156 -1669 105 80 73
-23.7168 -736.699 -1668 102 77 71
-20.2447 -738.451 -1672 99 74 68
-16.7161 -738.44 -1672 96 72 66
-13.1952 -738.872 -1673 89 69 63
-9.65314 -737.982 -1671 84 65 61
-94.6127 -744.096 -1674 108 85 75
-90.8492 -742.259 -1670 110 87 76
-87.3129 -742.203 -1670 122 93 78
-83.6768 -741.26 -1668 127 96 79
-80.0019 -739.875 -1665 132 99 81
-76.4324 -739.381 -1664 129 99 83
-72.9554 -739.779 -1665 131 99 84
-69.3915 -739.289 -1664 132 98 82
-65.8324 -738.802 -1663 125 94 79
-62.3155 -738.762 -1663 121 91 77
-58.8346 -739.168 -1664 122 93 79
-55.3168 -739.132 -1664 119 94 79
-51.8306 -739.542 -1665 118 93 78
-48.3986 -740.843 -1668 120 96 81
-44.9006 -741.258 -1669 124 98 85
-41.3741 -741.231 -1669 121 96 83
-37.7798 -739.873 -1666 120 94 81
-34.2603 -739.851 -1666 113 88 78
-30.7041 -738.942 -1664 109 83 73
-27.2056 -739.368 -1665 105 79 69
-23.7317 -740.684 -1668 100 75 68
-20.2212 -741.114 -1669 97 73 66
-16.7164 -741.991 -1671 95 72 64
-13.1798 -741.537 -1670 92 72 65
-9.65343 -741.53 -1670 87 68 64
-98.0456 -746.828 -1671 108 84 71
-90.9613 -746.708 -1671 119 94 78
-87.3158 -745.758 -1669 131 100 79
-83.7299 -745.256 -1668 138 104 83
-80.1008 -744.311 -1666 148 113 90
-76.5269 -743.815 -1665 146 112 94
-72.9578 -743.32 -1664 142 107 89
-69.5189 -744.168 -1666 137 101 84
-65.9136 -743.232 -1664 134 100 84
-62.3924 -743.191 -1664 132 99 84
-58.8719 -743.153 -1664 131 98 82
-55.2852 -742.223 -1662 122 92 77
-51.8322 -743.083 -1664 120 91 77
-48.4002 -744.39 -1667 123 94 80
-44.9021 -744.807 -1668 126 97 83
-41.3506 -744.333 -1667 126 96 82
-37.8263 -744.308 -1667 124 94 80
-34.2407 -742.946 -1664 123 91 80
-30.705 -742.479 -1663 118 87 76
-27.1738 -742.014 -1662 115 84 72
-23.704 -743.337 -1665 104 78 70
-20.1611 -742.431 -1663 100 76 67
-16.697 -744.651 -1668 98 75 66
-13.1803 -745.088 -1669 94 74 67
-9.65373 -745.081 -1669 89 70 65
-6.13436 -745.969 -1671 84 65 63
-2.60679 -746.859 -1673 80 64 61
-98.1081 -750.841 -1671 113 86 71
-91.0194 -750.72 -1671 125 96 78
-87.3192 -749.315 -1668 136 103 79
-83.6326 -747.913 -1665 144 109 85
-80.1518 -748.31 -1666 154 117 93
-76.5296 -747.362 -1664 153 117 96
-73.0482 -747.763 -1665 145 108 87
-69.4379 -746.819 -1663 143 105 86
-65.9953 -747.674 -1665 146 109 91
-62.5073 -748.082 -1666 146 109 91
-58.9447 -747.594 -1665 144 108 90
-55.3871 -747.109 -1664 144 107 90
-51.8964 -747.523 -1665 147 110 95
-48.4892 -749.287 -1669 145 109 96
-44.8499 -747.462 -1665 144 106 95
-41.3769 -748.332 -1667 142 104 93
-37.8277 -747.858 -1666 136 98 87
-34.1802 -745.142 -1660 132 95 81
-30.6507 -744.672 -1659 127 92 77
-27.1256 -744.205 -1658 121 87 73
-23.6479 -745.086 -1660 106 79 67
-20.1376 -745.072 -1660 103 78 67
-16.6775 -747.305 -1665 102 79 70
-13.1728 -748.193 -1667 96 76 69
-9.65963 -749.084 -1669 93 72 67
-6.13819 -749.976 -1671 89 69 65
-94.7372 -755.703 -1673 123 94 76
-91.0232 -754.288 -1670 129 99 80
-87.3752 -753.328 -1668 136 103 79
-83.7867 -752.821 -1667 143 107 85
-80.1069 -751.413 -1664 150 112 90
-76.6707 -752.266 -1666 151 112 91
-73.1827 -752.67 -1667 149 110 89
-69.6077 -752.172 -1666 152 113 91
-65.9979 -751.226 -1664 149 110 90
-62.4347 -750.733 -1663 148 109 90
-58.9825 -751.597 -1665 150 111 92
-55.3892 -750.657 -1663 154 110 93
-51.9296 -751.526 -1665 157 115 100
-48.462 -752.396 -1667 159 118 105
-44.9325 -752.366 -1667 157 116 105
-41.3289 -750.984 -1664 158 117 105
-37.761 -750.056 -1662 154 113 102
-34.2226 -749.582 -1661 148 109 92
-30.6702 -748.659 -1659 139 100 84
-27.1267 -747.738 -1657 129 92 76
-23.606 -747.27 -1656 112 83 68
-20.1261 -748.159 -1658 106 80 65
-16.6681 -750.403 -1663 105 81 67
-13.1811 -752.198 -1667 101 79 68
-9.68893 -754.898 -1673 98 75 67
-94.7984 -759.736 -1673 124 94 78
-91.191 -759.222 -1672 128 98 82
-87.5888 -758.709 -1671 136 102 82
-83.891 -757.292 -1668 143 107 87
-80.3513 -757.239 -1668 149 111 92
-76.7662 -756.734 -1667 151 111 90
-73.3178 -757.593 -1669 153 112 90
-69.6944 -756.639 -1667 154 112 89
-66.0404 -755.234 -1664 147 107 86
-62.5876 -756.1 -1666 147 107 87
-59.0914 -756.514 -1667 153 113 94
-55.5249 -756.024 -1666 157 115 96
-52.0567 -756.897 -1668 160 118 101
-48.4933 -756.41 -1667 164 122 108
-44.9345 -755.926 -1666 162 121 110
-41.4052 -755.898 -1666 159 118 106
-37.7853 -754.058 -1662 152 112 99
-34.224 -753.127 -1660 153 112 97
-30.6529 -751.746 -1657 141 102 86
-27.144 -751.727 -1657 133 95 78
-23.6211 -751.257 -1656 123 90 73
-20.1512 -752.604 -1659 119 87 70
-16.6788 -754.406 -1663 118 88 70
-13.1896 -756.211 -1667 110 82 67
-9.68953 -758.472 -1672 106 79 65
-94.6897 -762.406 -1670 123 95 82
-91.3048 -763.715 -1673 126 97 83
-87.6981 -763.201 -1672 135 101 81
-83.8448 -760.406 -1666 143 107 88
-80.4998 -762.178 -1670 149 111 92
-76.8621 -761.215 -1668 153 111 91
-73.3654 -761.622 -1669 154 112 90
-69.7396 -760.663 -1667 153 111 88
-66.2421 -761.075 -1668 146 106 85
-62.6658 -760.577 -1667 146 107 87
-59.1652 -760.993 -1668 151 111 92
-55.5942 -760.5 -1667 155 117 97
-52.0592 -760.465 -1667 156 118 101
-48.5538 -760.889 -1668 159 121 106
-44.9096 -759.034 -1664 160 122 109
-41.4071 -759.462 -1665 157 119 105
-37.8325 -758.524 -1663 150 112 96
-34.2256 -756.676 -1659 146 105 92
-30.6913 -756.199 -1658 139 99 85
-27.1943 -756.636 -1659 133 94 77
-23.6221 -754.795 -1655 127 92 72
-20.1521 -756.149 -1658 126 92 70
-16.6795 -757.961 -1662 126 92 69
-13.1901 -759.776 -1666 122 91 69
-9.68994 -762.049 -1671 114 83 64
-94.7516 -766.447 -1670 121 94 82
-91.3098 -767.304 -1672 124 97 82
-87.7029 -766.787 -1671 137 104 83
-83.7989 -763.519 -1664 145 110 90
-80.3594 -764.383 -1666 149 112 91
-76.7278 -763.414 -1664 153 110 90
-73.1933 -763.365 -1664 153 111 90
-69.6596 -763.318 -1664 154 111 90
-66.2456 -764.649 -1667 147 109 91
-62.7442 -765.066 -1668 148 110 92
-59.2037 -765.026 -1668 148 110 93
-55.6638 -764.989 -1668 150 112 91
-52.0306 -763.578 -1665 152 114 96
-48.5271 -764.003 -1666 154 116 101
-44.9389 -763.056 -1664 155 117 104
-41.3595 -762.11 -1662 155 117 102
-37.7888 -761.168 -1660 147 109 92
-34.2685 -761.144 -1660 145 104 93
-30.7484 -761.123 -1660 141 101 87
-27.2449 -761.562 -1661 137 97 80
-23.7089 -761.087 -1660 133 97 75
-20.2017 -761.531 -1661 137 100 75
-16.7104 -762.895 -1664 137 99 73
-13.1987 -763.802 -1666 127 93 68
-9.68456 -765.17 -1669 121 87 66
-6.15757 -766.54 -1672 115 82 63
-90.9873 -768.128 -1665 124 98 80
-87.7079 -770.376 -1670 136 105 83
-83.9042 -768.013 -1665 144 111 89
-80.557 -769.804 -1669 149 114 92
-76.7782 -767.446 -1664 151 111 91
-73.3294 -768.319 -1666 150 109 90
-69.6633 -766.888 -1663 151 110 92
-66.2094 -767.766 -1665 149 111 95
-62.7478 -768.646 -1667 153 114 98
-59.2071 -768.606 -1667 152 113 96
-55.6669 -768.568 -1667 154 111 89
-52.096 -768.072 -1666 155 113 94
-48.5589 -768.039 -1666 156 114 98
-44.9413 -766.625 -1663 155 113 101
-41.4363 -767.058 -1664 154 112 99
-37.8592 -766.11 -1662 147 105 90
-34.3322 -766.086 -1662 142 101 90
-30.787 -765.603 -1661 139 99 84
-27.2627 -765.585 -1661 140 100 83
-23.753 -766.029 -1662 138 101 77
-20.2757 -767.858 -1666 141 103 76
-16.7213 -766.924 -1664 139 100 71
-13.1836 -766.453 -1663 131 95 69
-9.685 -768.75 -1668 125 89 66
-6.14697 -768.745 -1668 122 86 66
-2.61346 -770.125 -1671 113 83 65
0.931991 -771.046 -1673 106 79 65
-91.2114 -773.564 -1668 125 98 78
-87.7133 -773.968 -1669 135 103 80
-83.9091 -771.593 -1664 140 107 84
-80.5135 -772.93 -1667 140 106 84
-76.7826 -771.023 -1663 146 107 88
-73.3337 -771.9 -1665 150 110 91
-69.7932 -771.853 -1665 156 115 97
-66.293 -772.272 -1666 150 111 93
-62.7514 -772.229 -1666 150 111 92
-59.2106 -772.189 -1666 152 112 93
-55.6368 -771.687 -1665 155 112 92
-52.0991 -771.652 -1665 157 114 97
-48.5035 -770.692 -1663 155 112 98
-44.9438 -770.197 -1662 152 109 98
-41.4387 -770.632 -1663 153 110 97
-37.8842 -770.142 -1662 152 109 95
-34.3548 -770.119 -1662 147 106 94
-30.8443 -770.56 -1663 145 105 88
-27.3628 -771.931 -1666 146 106 86
-23.8401 -772.378 -1667 146 107 82
-20.3134 -772.827 -1668 145 106 79
-16.7826 -773.277 -1669 142 103 74
-13.2081 -771.414 -1665 134 97 70
-9.67965 -771.87 -1666 127 91 68
-6.13983 -771.402 -1665 124 88 68
-2.61212 -773.252 -1669 119 86 62
0.932201 -774.641 -1672 113 82 62
-91.0531 -775.758 -1664 126 98 76
-87.6664 -777.098 -1667 135 100 76
-83.864 -774.71 -1662 140 104 82
-80.567 -776.986 -1667 139 103 83
-76.8798 -775.535 -1664 146 108 91
-73.4265 -776.417 -1666 154 114 95
-69.7975 -775.437 -1664 158 116 96
-66.2573 -775.392 -1664 154 111 91
-62.6424 -774.417 -1662 155 114 93
-59.1076 -774.377 -1662 156 116 95
-55.5065 -773.407 -1660 160 120 101
-52.0083 -773.837 -1661 162 121 105
-48.4772 -773.803 -1661 162 119 107
-44.9736 -774.238 -1662 161 118 107
-41.4661 -774.675 -1663 158 115 103
-37.932 -774.649 -1663 155 112 98
-34.3983 -774.625 -1663 149 108 94
-30.9019 -775.535 -1665 145 105 87
-27.3973 -776.447 -1667 147 107 86
-23.8559 -776.43 -1667 148 108 83
-20.2903 -775.484 -1665 148 108 82
-16.7535 -775.472 -1665 144 105 77
-13.2009 -774.53 -1663 137 100 73
-9.67453 -774.989 -1664 131 94 71
-6.129 -773.586 -1661 125 89 69
-2.60901 -775.912 -1666 122 88 66
0.931081 -777.309 -1669 115 84 65
4.48929 -779.639 -1674 114 84 67
-87.6723 -780.694 -1666 134 100 75
-84.1725 -781.105 -1667 140 106 83
-80.7175 -781.987 -1669 148 112 92
-77.0236 -780.528 -1666 152 115 98
-73.5196 -780.947 -1667 159 121 102
-69.928 -780.43 -1666 160 120 99
-66.3015 -779.447 -1664 163 120 100
-62.6464 -777.999 -1661 165 123 103
-59.0758 -777.49 -1660 163 123 102
-55.4431 -776.047 -1657 161 121 102
-52.0117 -777.416 -1660 161 120 104
-48.4803 -777.382 -1660 164 121 109
-45.0036 -778.287 -1662 165 122 111
-41.4439 -777.79 -1661 159 116 103
-37.9801 -779.168 -1664 154 111 97
-34.4212 -778.676 -1663 151 110 96
-30.9225 -779.591 -1665 148 107 89
-27.4155 -780.508 -1667 151 111 89
-23.9003 -781.427 -1669 152 112 86
-20.3526 -781.412 -1669 151 111 85
-16.7948 -780.932 -1668 146 106 80
-13.2494 -780.922 -1668 143 106 80
-9.7041 -780.914 -1668 132 95 73
-6.14793 -779.504 -1665 123 87 67
-2.61239 -780.438 -1667 124 90 69
0.931853 -781.374 -1669 118 86 69
4.48707 -782.78 -1672 112 82 66
-91.5038 -786.709 -1670 132 103 82
-87.9944 -787.119 -1671 138 105 79
-84.5321 -788.003 -1673 144 110 86
-81.0137 -788.419 -1674 150 115 95
-77.4454 -788.365 -1674 154 117 102
-73.7454 -786.901 -1671 157 119 101
-70.017 -784.97 -1667 160 120 99
-66.3461 -783.511 -1664 165 122 103
-62.6507 -781.584 -1660 167 125 106
-59.0086 -780.131 -1657 166 126 105
-55.4134 -779.151 -1655 163 123 104
-52.0466 -781.469 -1660 164 124 108
-48.5713 -782.376 -1662 166 125 113
-45.0879 -783.286 -1664 165 122 111
-41.5716 -783.728 -1665 159 116 104
-38.0056 -783.23 -1664 153 110 96
-34.4856 -783.676 -1665 147 106 92
-30.9432 -783.655 -1665 146 106 87
-27.3681 -782.694 -1663 153 113 90
-23.8304 -782.677 -1663 155 115 89
-20.3051 -783.132 -1664 154 114 88
-16.7859 -784.061 -1666 154 114 87
-13.2503 -784.522 -1667 147 110 85
-9.71067 -784.985 -1668 137 100 78
-6.16298 -784.979 -1668 129 93 73
-2.61712 -785.447 -1669 125 91 72
0.931853 -784.976 -1668 119 88 71
4.47949 -784.978 -1668 112 82 67
8.04618 -786.864 -1672 105 79 68
-81.0199 -792.042 -1673 155 121 102
-77.3588 -791.042 -1671 157 120 104
-73.6628 -789.571 -1668 155 116 98
-70.0643 -789.049 -1667 160 120 99
-66.3509 -787.109 -1663 164 124 105
-62.6553 -785.173 -1659 164 124 105
-58.9416 -782.765 -1654 160 120 101
-55.4173 -782.726 -1654 156 116 95
-51.9561 -783.636 -1656 163 122 105
-48.4871 -784.549 -1658 163 122 110
-45.0371 -785.937 -1661 161 120 108
-41.6496 -788.746 -1667 161 119 106
-38.0541 -787.773 -1665 156 113 99
-34.5296 -788.222 -1666 148 107 93
-30.964 -787.727 -1665 150 110 92
-27.4029 -787.234 -1664 158 118 97
-23.8751 -787.69 -1665 160 120 94
-20.331 -787.675 -1665 159 120 92
-16.8274 -789.555 -1669 162 123 94
-13.2831 -790.017 -1670 153 116 92
-9.74618 -791.429 -1673 141 105 83
-6.18198 -790.951 -1672 133 97 77
-2.6268 -791.894 -1674 125 91 73
0.934308 -790.474 -1671 118 87 71
4.49318 -790.949 -1672 113 83 68
-91.7925 -796.322 -1673 136 104 83
-73.8453 -795.088 -1671 157 119 101
-70.1959 -794.088 -1669 159 119 99
-66.2362 -789.284 -1659 156 116 98
-62.6977 -789.24 -1659 148 108 90
-59.1242 -788.722 -1658 144 105 86
-55.5554 -788.208 -1657 150 110 89
-51.9286 -786.744 -1654 162 122 104
-48.5492 -789.088 -1659 163 122 109
-45.0675 -790.008 -1661 160 119 107
-41.5777 -790.929 -1663 160 118 104
-38.0341 -790.903 -1663 160 117 101
-34.553 -792.305 -1666 153 113 97
-30.9478 -790.856 -1663 153 113 95
-27.4545 -792.263 -1666 155 115 94
-23.8482 -790.343 -1662 154 114 89
-20.3447 -791.754 -1665 159 120 91
-16.8186 -792.693 -1667 160 121 91
-13.2681 -792.683 -1667 156 116 95
-9.74116 -794.577 -1671 146 108 88
-6.186 -795.047 -1672 136 100 80
-2.62842 -795.995 -1674 125 91 75
0.934873 -794.568 -1671 119 88 73
4.50174 -795.997 -1674 114 84 69
-77.6033 -800.681 -1674 157 123 105
-73.8073 -798.238 -1669 157 121 103
-70.0334 -795.797 -1664 158 120 101
-66.3214 -793.838 -1660 156 116 99
-62.7028 -792.837 -1658 149 110 92
-59.0574 -791.361 -1655 149 111 92
-55.5598 -791.8 -1656 161 121 100
-51.9954 -791.285 -1655 164 123 105
-48.5824 -793.163 -1659 164 123 109
-45.0983 -794.087 -1661 165 124 112
-41.6561 -795.97 -1665 165 123 109
-38.1287 -796.42 -1666 159 117 101
-34.6181 -797.352 -1668 153 113 95
-31.0433 -796.851 -1667 155 115 95
-27.4566 -795.875 -1665 154 114 93
-23.9506 -797.292 -1668 154 114 89
-20.3708 -796.321 -1666 156 117 89
-16.8805 -799.176 -1672 156 118 88
-13.309 -798.688 -1671 153 113 92
-9.75949 -799.636 -1673 146 108 88
-6.19026 -799.152 -1672 138 102 82
0.936778 -799.627 -1673 127 94 81
-77.6102 -804.322 -1673 151 117 100
-73.858 -802.347 -1669 155 120 103
-70.0815 -799.894 -1664 160 122 103
-66.327 -797.444 -1659 154 116 99
-62.7457 -796.918 -1658 146 108 90
-59.2765 -797.838 -1660 150 112 93
-55.7322 -797.798 -1660 157 117 96
-52.0941 -796.319 -1657 161 120 102
-48.645 -797.726 -1660 162 121 107
-45.1564 -798.655 -1662 161 120 108
-41.6847 -800.067 -1665 161 121 107
-38.1777 -801 -1667 159 119 102
-34.6833 -802.417 -1670 157 117 98
-31.1018 -801.914 -1669 157 117 96
-27.492 -800.452 -1666 157 117 96
-23.9671 -801.396 -1668 156 116 91
-20.3847 -800.419 -1666 156 117 89
-16.8314 -800.407 -1666 156 117 88
-13.2782 -800.397 -1666 150 110 89
-9.74262 -801.83 -1669 144 106 86
-6.18341 -801.824 -1669 139 103 83
0.937007 -803.262 -1672 129 95 83
-77.7102 -808.933 -1674 150 116 100
-73.9976 -807.431 -1671 154 119 102
-70.2563 -805.449 -1667 156 118 101
-66.5728 -803.952 -1664 154 116 99
-62.9405 -802.941 -1662 151 113 96
-59.4246 -803.381 -1663 156 118 99
-55.8378 -802.859 -1662 160 120 99
-52.2243 -801.855 -1660 159 119 101
-48.7372 -802.786 -1662 159 118 104
-45.3235 -805.169 -1667 158 117 105
-41.7635 -805.139 -1667 159 119 105
-38.204 -805.111 -1667 159 119 102
-34.728 -807.018 -1671 160 120 102
-31.1793 -807.478 -1672 156 116 95
-27.5274 -805.043 -1667 156 116 94
-23.9403 -804.059 -1665 157 117 92
-20.4111 -805.01 -1667 157 118 91
-16.8632 -805.48 -1668 157 118 88
-13.2873 -804.504 -1666 150 110 90
-9.74349 -805.461 -1668 144 107 87
-6.19119 -806.422 -1670 143 107 87
-2.62904 -806.902 -1671 136 101 90
0.937021 -806.901 -1671 130 96 84
-74.1376 -812.534 -1673 150 114 97
-70.4316 -811.027 -1670 147 109 91
-66.6991 -809.036 -1666 150 112 95
-63.1737 -809.477 -1667 155 117 99
-59.6447 -809.919 -1668 155 118 99
-56.0447 -809.394 -1667 157 117 94
-52.418 -808.385 -1665 157 117 98
-48.8883 -808.835 -1666 157 116 102
-45.3549 -809.288 -1667 157 116 104
-41.8176 -809.743 -1668 158 117 103
-38.2306 -809.23 -1667 158 118 101
-34.7313 -810.661 -1670 159 119 102
-31.1076 -809.182 -1667 155 115 95
-27.5465 -809.161 -1667 156 116 95
-23.9857 -809.143 -1667 156 116 90
-20.4251 -809.128 -1667 158 118 90
-16.8547 -808.63 -1666 155 116 86
-13.2965 -808.619 -1666 153 113 94
-9.76192 -810.553 -1670 147 109 90
-6.19549 -810.547 -1670 145 108 90
-2.63068 -811.03 -1671 137 102 93
0.938377 -811.514 -1672 131 97 86
-70.6496 -817.116 -1674 149 111 94
-66.946 -815.603 -1671 151 113 95
-63.2937 -814.582 -1669 154 116 98
-59.7221 -814.539 -1669 155 117 99
-56.1847 -814.986 -1670 156 116 94
-52.5175 -813.484 -1667 155 115 96
-49.0693 -815.401 -1671 157 118 103
-45.4954 -815.367 -1671 155 116 102
-41.8719 -814.361 -1669 155 116 101
-38.2572 -813.357 -1667 155 117 100
-34.7138 -813.82 -1668 151 113 91
-31.1106 -812.821 -1666 147 109 85
-27.5823 -813.776 -1668 149 111 85
-24.0024 -813.27 -1667 152 114 90
-20.4761 -814.718 -1670 153 116 89
-16.8764 -813.242 -1667 152 114 87
-13.3297 -814.207 -1669 152 112 93
-9.76869 -814.687 -1670 145 107 92
-6.20352 -815.169 -1671 141 104 92
-2.63255 -815.166 -1671 136 101 93
-70.6993 -821.271 -1674 151 114 99
-63.5279 -821.177 -1674 153 115 97
-59.8715 -820.152 -1672 153 115 98
-52.6806 -819.583 -1671 151 112 93
-49.1037 -819.547 -1671 151 113 98
-45.5818 -820.494 -1673 151 113 98
-41.9514 -819.483 -1671 153 115 99
-38.261 -817.003 -1666 150 112 95
-34.7382 -817.958 -1668 149 112 88
-31.1697 -817.935 -1668 145 108 83
-27.6181 -818.404 -1669 145 108 81
-24.0481 -818.386 -1669 149 111 89
-20.5396 -820.822 -1674 151 114 90
-16.9288 -819.338 -1671 153 117 91
-13.355 -819.328 -1671 152 112 93
-9.76378 -817.848 -1668 144 106 91
-6.2153 -820.294 -1673 141 104 91
-2.63422 -819.311 -1671 137 102 94
0.940322 -820.291 -1673 133 99 89
-63.5727 -825.341 -1674 155 117 100
-59.9496 -824.804 -1673 152 114 97
-52.8124 -825.217 -1674 151 112 93
-41.981 -823.638 -1671 152 114 98
-38.242 -820.159 -1664 145 107 90
-34.721 -821.119 -1666 145 107 85
-31.1916 -822.081 -1668 144 107 82
-27.6872 -824.032 -1672 141 104 78
-24.1371 -824.999 -1674 144 106 85
-9.78817 -823.473 -1671 143 105 90
-2.63926 -824.45 -1673 138 103 94
-77.9371 -829.219 -1673 147 113 99
-63.6179 -829.513 -1674 149 111 94
-56.4386 -829.427 -1674 151 113 92
-52.8183 -828.893 -1673 151 113 95
-49.1732 -827.866 -1671 152 114 99
-45.6191 -828.328 -1672 151 113 98
-41.9856 -827.306 -1670 149 111 95
-38.2692 -824.305 -1664 142 104 87
-34.7665 -825.765 -1667 140 103 82
-31.2325 -826.732 -1669 143 106 83
-27.74 -829.188 -1674 140 103 77
-77.9927 -833.399 -1673 145 111 97
-63.5872 -832.698 -1672 143 105 88
-60.0708 -833.65 -1674 150 112 95
-52.8875 -833.569 -1674 151 113 95
-49.2378 -832.537 -1672 153 115 100
-45.7062 -833.498 -1674 149 112 97
-42.0156 -831.475 -1670 142 105 89
-38.3195 -828.957 -1665 137 100 83
-34.8121 -830.425 -1668 133 97 77
-31.2173 -829.903 -1667 136 100 78
-27.6935 -831.376 -1670 136 100 76
-24.1425 -832.353 -1672 138 102 82
-16.985 -832.821 -1673 146 110 89
-88.8396 -837.768 -1673 139 112 95
-85.2928 -838.206 -1674 133 104 88
-81.6937 -838.146 -1674 135 105 90
-77.8155 -835.084 -1668 143 110 96
-74.4533 -837.533 -1673 144 110 96
-63.5948 -836.382 -1671 149 113 96
-56.4519 -836.797 -1672 149 112 93
-52.8939 -837.258 -1673 149 111 94
-49.273 -836.72 -1672 152 114 100
-45.7116 -837.187 -1673 149 112 97
-42.0709 -836.154 -1671 142 105 90
-38.3929 -834.124 -1667 137 100 84
-34.837 -834.598 -1668 132 98 81
-31.2022 -833.073 -1665 132 98 79
-27.6966 -835.054 -1669 134 100 77
-24.1453 -836.035 -1671 140 106 88
-88.8506 -841.464 -1672 131 106 90
-77.9184 -839.773 -1669 144 112 97
-74.507 -841.73 -1673 144 111 97
-67.313 -841.628 -1673 148 114 98
-63.6407 -840.574 -1671 150 115 99
-60.1573 -842.038 -1674 147 110 93
-56.5603 -841.996 -1674 141 105 86
-52.9637 -841.956 -1674 144 108 91
-42.1516 -841.35 -1673 144 108 92
-38.536 -840.818 -1672 139 105 89
-34.9249 -840.289 -1671 135 101 85
-31.2622 -838.254 -1667 133 99 80
-27.6999 -838.735 -1668 134 100 80
-24.1626 -840.225 -1671 139 105 88
-20.6127 -841.717 -1674 139 105 88
-88.9153 -845.669 -1672 131 108 93
-63.7631 -845.786 -1673 145 110 94
-56.5336 -845.192 -1672 138 101 84
-52.9705 -845.658 -1673 140 103 88
-49.3738 -845.621 -1673 145 108 95
-34.992 -845.498 -1673 132 98 83
-31.3036 -842.947 -1668 129 95 78
-27.7367 -843.431 -1669 131 97 78
-24.1946 -844.928 -1672 138 104 89
-20.6277 -845.923 -1674 140 107 91
-63.8478 -850.508 -1674 142 108 93
-31.3828 -848.671 -1671 125 91 76
-27.7735 -848.142 -1670 129 95 77
