ply
format ascii 1.0
comment Created by Open3D
element vertex 1503
property double x
property double y
property double z
property uchar red
property uchar green
property uchar blue
end_header
58.8407 264.65 -1704 18 18 23
62.3985 265.284 -1708 20 19 25
65.7803 265.142 -1707 18 17 24
69.2397 265.312 -1708 17 16 23
72.6611 265.327 -1708 18 17 25
76.0831 265.342 -1708 19 18 26
79.5988 265.669 -1710 18 17 25
83.3661 266.774 -1717 18 17 25
86.8586 266.947 -1718 18 17 25
-501.712 269.377 -1709 25 22 28
-497.994 269.268 -1709 20 17 22
-494.571 269.317 -1710 15 12 18
-489.999 268.737 -1707 20 17 22
-487.154 269.102 -1710 25 22 27
-483.452 268.996 -1710 25 22 27
-480.035 269.048 -1711 24 21 26
-475.783 268.629 -1709 23 20 25
-472.096 268.526 -1709 25 21 26
-467.317 267.795 -1705 25 21 26
-462.831 267.223 -1702 23 20 25
-458.363 266.651 -1699 23 20 25
-454.447 266.395 -1698 26 23 28
-449.211 265.356 -1692 26 23 28
-445.322 265.102 -1691 24 21 26
-440.919 264.536 -1688 24 21 26
-436.792 264.127 -1686 24 21 26
-432.677 263.72 -1684 22 20 25
-428.575 263.313 -1682 21 21 25
-425.243 263.377 -1683 20 19 26
-421.158 262.973 -1681 18 17 25
-417.335 262.726 -1680 20 19 27
-414.011 262.792 -1681 21 20 28
-410.199 262.547 -1680 21 20 28
-406.395 262.303 -1679 20 19 29
-403.318 262.528 -1681 19 18 28
-399.761 262.441 -1681 21 20 28
-395.972 262.2 -1680 21 20 28
-392.424 262.115 -1680 21 20 28
-389.11 262.187 -1681 21 20 30
-385.567 262.104 -1681 20 19 27
-381.8 261.865 -1680 19 18 25
-377.589 261.316 -1677 19 18 25
-373.618 260.924 -1675 19 18 25
-369.659 260.533 -1673 20 19 26
-365.93 260.299 -1672 19 19 23
-362.641 260.376 -1673 19 19 23
-359.137 260.299 -1673 21 21 25
-355.424 260.067 -1672 23 23 27
-351.718 259.836 -1671 21 21 25
-347.811 259.45 -1669 17 17 21
-343.295 258.599 -1664 20 20 24
-339.621 258.371 -1663 20 20 24
-335.348 257.678 -1659 20 19 25
-331.694 257.452 -1658 19 18 25
-327.849 257.071 -1656 18 17 24
-324.211 256.846 -1655 18 17 24
-320.58 256.622 -1654 20 19 26
-316.573 256.089 -1651 20 19 26
-312.96 255.867 -1650 20 19 26
-309.354 255.646 -1649 21 20 27
-305.94 255.581 -1649 20 20 25
-301.978 255.052 -1646 18 18 22
-298.576 254.988 -1646 17 17 21
-295.176 254.925 -1646 17 17 21
-291.601 254.708 -1645 19 19 23
-287.857 254.337 -1643 20 19 25
-284.471 254.276 -1643 20 19 25
-280.745 253.907 -1641 21 21 25
-277.198 253.693 -1640 22 22 26
-274.159 253.944 -1642 20 20 24
-270.784 253.887 -1642 20 20 24
-267.412 253.83 -1642 19 19 23
-264.524 254.238 -1645 19 18 25
-260.991 254.028 -1644 18 17 24
-257.621 253.973 -1644 17 16 23
-254.407 254.073 -1645 16 15 22
-251.192 254.175 -1646 17 16 23
-247.824 254.122 -1646 18 17 24
-244.607 254.225 -1647 17 16 23
-241.534 254.482 -1649 17 16 23
-238.022 254.277 -1648 18 17 24
-234.658 254.228 -1648 18 17 23
-231.437 254.333 -1649 16 16 20
-228.352 254.593 -1651 16 16 19
-225.396 255.008 -1654 17 17 20
-222.833 255.886 -1660 16 17 21
-219.719 256.148 -1662 13 15 20
-216.859 256.719 -1666 12 14 20
-213.472 256.673 -1666 15 14 22
-210.086 256.629 -1666 14 13 21
-206.702 256.585 -1666 13 12 19
-203.32 256.542 -1666 14 14 19
-199.94 256.5 -1666 15 15 19
-196.561 256.459 -1666 17 17 21
-193.068 256.264 -1665 19 19 23
-189.695 256.224 -1665 18 18 22
-186.323 256.185 -1665 17 17 21
-182.733 255.838 -1663 18 18 22
-179.044 255.339 -1660 18 18 22
-175.476 254.995 -1658 17 17 21
-171.812 254.497 -1655 17 17 21
-168.061 253.846 -1651 19 19 23
-164.127 252.889 -1645 20 20 24
-160.513 252.394 -1642 18 19 23
-157.103 252.207 -1641 17 18 22
-153.511 251.714 -1638 18 18 22
-150.3 251.836 -1639 17 17 21
-147.085 251.959 -1640 15 15 19
-143.868 252.082 -1641 17 17 21
-140.562 252.052 -1641 17 16 21
-137.174 251.87 -1640 17 16 22
-133.872 251.842 -1640 17 16 23
-130.492 251.66 -1639 19 18 25
-127.273 251.787 -1640 19 18 25
-124.05 251.915 -1641 18 17 24
-120.824 252.043 -1642 17 16 23
-117.739 252.478 -1645 18 17 24
-114.364 252.301 -1644 18 17 24
-111.399 253.044 -1649 16 15 22
-108.088 253.022 -1649 14 13 20
-105.031 253.613 -1653 13 12 19
-101.775 253.745 -1654 14 13 20
-98.4557 253.724 -1654 16 15 22
-95.2525 254.011 -1656 16 15 22
-91.9866 254.145 -1657 15 14 22
-88.7173 254.28 -1658 15 14 22
-85.3418 254.108 -1657 15 14 22
-82.1195 254.398 -1659 16 15 23
-78.8423 254.534 -1660 15 14 22
-75.6528 254.978 -1663 15 14 21
-72.4518 255.423 -1666 15 14 21
-69.2809 256.021 -1670 16 15 22
-65.9761 256.16 -1671 16 15 22
-62.7429 256.607 -1674 16 15 22
-59.3916 256.594 -1674 16 15 22
-56.1077 256.889 -1676 15 15 21
-52.722 256.724 -1675 14 16 20
-49.3996 256.867 -1676 16 16 22
-46.0187 256.704 -1675 16 15 22
-42.7185 257.001 -1677 13 12 20
-39.3402 256.84 -1676 15 13 21
-36.0093 256.985 -1677 18 15 23
-32.6746 257.131 -1678 18 18 22
-29.3012 256.972 -1677 18 18 23
-25.9321 256.813 -1676 17 16 24
-22.5941 256.961 -1677 16 15 22
-19.2753 257.416 -1680 15 14 21
-15.9446 257.872 -1683 14 14 18
-12.6169 258.635 -1688 13 13 17
-9.25302 258.94 -1690 16 16 20
-5.87075 258.785 -1689 17 16 22
-2.49548 258.937 -1690 16 15 22
0.884291 259.243 -1692 15 14 21
4.26702 259.244 -1692 17 16 23
7.65411 259.398 -1693 17 16 23
11.052 259.707 -1695 14 13 20
14.4324 259.556 -1694 13 12 19
17.8301 259.713 -1695 15 14 21
21.2318 259.87 -1696 18 17 24
24.6086 259.722 -1695 18 17 24
27.9982 259.727 -1695 15 14 21
31.4064 259.887 -1696 15 14 21
34.7779 259.74 -1695 18 17 24
38.1457 259.595 -1694 17 16 23
41.4852 259.296 -1692 14 13 20
44.8968 259.459 -1693 16 15 22
48.2556 259.315 -1692 16 15 22
51.733 259.785 -1695 16 15 22
55.1901 260.103 -1697 18 18 22
58.7248 260.728 -1701 18 18 22
62.2393 261.2 -1704 17 17 22
65.6895 261.367 -1705 16 15 22
69.1037 261.381 -1705 16 15 22
72.6035 261.702 -1707 15 14 22
76.1564 262.177 -1710 15 14 22
79.5357 262.04 -1709 14 13 21
83.3001 263.131 -1716 15 14 22
86.7393 263.148 -1716 15 14 22
90.3896 263.78 -1720 15 14 22
94.0019 264.259 -1723 15 14 22
-509.347 266.18 -1710 24 21 25
-505.324 265.915 -1709 24 21 25
-501.603 265.806 -1709 21 18 23
-497.303 265.387 -1707 13 10 15
-493.596 265.28 -1707 17 14 19
-489.892 265.173 -1707 20 17 22
-487.333 265.689 -1711 23 20 25
-483.63 265.584 -1711 23 20 25
-479.931 265.481 -1711 24 21 26
-475.958 265.222 -1710 22 19 24
-471.717 264.81 -1708 26 22 26
-466.394 263.779 -1702 26 22 27
-461.916 263.215 -1699 24 21 27
-457.455 262.651 -1696 23 20 25
-454.616 263.018 -1699 26 23 28
-448.849 261.683 -1691 27 24 29
-444.963 261.433 -1690 23 20 25
-440.824 261.028 -1688 22 19 23
-436.957 260.78 -1687 22 19 22
-431.813 259.76 -1681 22 20 23
-428.228 259.668 -1681 19 19 23
-424.393 259.422 -1680 16 15 23
-420.567 259.178 -1679 19 18 26
-416.997 259.089 -1679 22 21 29
-413.676 259.154 -1680 22 21 29
-410.111 259.067 -1680 22 21 29
-406.55 258.98 -1680 20 19 29
-403.232 259.048 -1681 19 18 28
-399.913 259.117 -1682 19 18 28
-396.123 258.878 -1681 20 19 27
-392.573 258.794 -1681 20 19 27
-389.259 258.865 -1682 20 19 29
-385.714 258.783 -1682 20 19 27
-381.264 258.087 -1678 20 19 26
-377.284 257.699 -1676 20 19 26
-373.316 257.312 -1674 20 19 26
-369.801 257.233 -1674 20 19 26
-365.852 256.848 -1672 19 19 23
-362.564 256.925 -1673 18 18 22
-358.632 256.542 -1671 18 18 22
-355.136 256.467 -1671 22 22 26
-351.012 255.932 -1668 21 21 25
-347.112 255.551 -1666 17 17 21
-343.223 255.172 -1664 18 18 22
-339.754 255.1 -1664 19 19 23
-335.883 254.723 -1662 20 19 26
-331.624 254.039 -1658 19 18 25
-327.978 253.817 -1657 20 19 26
-324.339 253.595 -1656 19 18 25
-320.125 252.915 -1652 21 20 27
-316.314 252.542 -1650 19 18 25
-312.325 252.017 -1647 20 19 26
-308.913 251.952 -1647 20 19 26
-305.319 251.735 -1646 18 17 23
-301.548 251.366 -1644 17 17 21
-298.513 251.609 -1646 17 17 21
-295.113 251.546 -1646 18 18 22
-291.717 251.485 -1646 19 19 23
-288.147 251.272 -1645 20 20 26
-284.584 251.059 -1644 22 21 28
-280.857 250.695 -1642 24 24 28
-277.478 250.637 -1642 23 23 27
-273.935 250.427 -1641 20 20 24
-270.892 250.675 -1643 20 20 24
-267.681 250.771 -1644 20 20 24
-264.147 250.564 -1643 18 17 24
-260.777 250.509 -1643 17 16 23
-257.253 250.303 -1642 17 16 23
-254.045 250.402 -1643 17 16 23
-250.834 250.502 -1644 17 16 23
-247.772 250.755 -1646 17 16 23
-244.556 250.856 -1647 17 16 23
-241.191 250.805 -1647 18 17 24
-237.828 250.756 -1647 19 18 25
-234.609 250.859 -1648 18 18 24
-231.248 250.811 -1648 17 17 21
-228.304 251.22 -1651 15 15 19
-225.213 251.477 -1653 15 15 19
-222.384 252.039 -1657 13 15 21
-219.277 252.298 -1659 11 13 19
-216.293 252.709 -1662 10 12 18
-212.915 252.664 -1662 13 12 19
-209.664 252.773 -1663 13 12 19
-206.659 253.186 -1666 13 12 19
-203.034 252.839 -1664 14 13 18
-199.778 252.95 -1665 16 16 20
-196.402 252.909 -1665 17 17 21
-192.912 252.717 -1664 18 18 22
-189.428 252.525 -1663 18 18 22
-186.172 252.638 -1664 17 17 21
-182.695 252.449 -1663 18 18 22
-179.007 251.956 -1660 19 19 23
-175.333 251.464 -1657 17 17 21
-171.673 250.973 -1654 17 17 21
-167.823 250.18 -1649 18 18 22
-164.093 249.539 -1645 20 20 24
-160.382 248.898 -1641 18 20 24
-156.975 248.714 -1640 16 17 21
-153.48 248.379 -1638 17 17 21
-150.269 248.499 -1639 17 17 21
-147.055 248.62 -1640 16 16 20
-143.926 248.894 -1642 16 16 20
-140.533 248.713 -1641 17 16 22
-137.313 248.836 -1642 18 17 24
-133.926 248.656 -1641 17 16 23
-130.704 248.781 -1642 18 17 24
-127.169 248.3 -1639 20 19 26
-123.873 248.274 -1639 18 17 24
-120.652 248.4 -1640 17 16 23
-117.5 248.679 -1642 17 16 23
-114.271 248.807 -1643 17 16 23
-111.174 249.238 -1646 16 15 22
-108 249.518 -1648 14 13 20
-104.882 249.95 -1651 13 12 19
-101.692 250.232 -1653 13 12 19
-98.3758 250.212 -1653 14 13 20
-95.2328 250.646 -1656 16 15 22
-91.912 250.627 -1656 16 15 23
-88.592 250.608 -1656 15 14 22
-85.3242 250.742 -1657 15 14 22
-82.0531 250.876 -1658 16 15 23
-78.7786 251.011 -1659 16 15 23
-75.5462 251.298 -1661 15 14 21
-72.3934 251.888 -1665 16 15 22
-69.1423 252.176 -1667 18 17 24
-65.8836 252.464 -1669 17 16 23
-62.58 252.602 -1670 15 14 21
-59.273 252.741 -1671 16 15 22
-55.9289 252.729 -1671 15 14 21
-52.5223 252.416 -1669 14 13 20
-49.2715 252.859 -1672 16 15 22
-45.9268 252.849 -1672 17 16 23
-42.5823 252.84 -1672 14 13 21
-39.3087 253.286 -1675 14 13 21
-35.9804 253.429 -1676 17 15 23
-32.6484 253.573 -1677 18 17 24
-29.2603 253.265 -1675 18 17 24
-25.8959 253.108 -1674 17 16 24
-22.5626 253.254 -1675 16 15 22
-19.2484 253.703 -1678 16 15 22
-15.9129 254.002 -1680 14 14 17
-12.592 254.755 -1685 13 13 16
-9.23476 255.055 -1687 15 15 19
-5.86612 255.205 -1688 16 15 21
-2.49352 255.355 -1689 15 14 21
0.882533 255.355 -1689 16 15 22
4.26343 255.658 -1691 18 17 24
7.64352 255.659 -1691 17 16 23
11.0302 255.813 -1692 15 14 20
14.4124 255.815 -1692 14 13 19
17.8053 255.97 -1693 15 14 21
21.1898 255.974 -1693 16 15 22
24.5599 255.827 -1692 16 15 22
27.9593 255.984 -1693 14 13 20
31.3444 255.99 -1693 13 12 19
34.7297 255.997 -1693 16 15 22
38.0928 255.853 -1692 16 15 22
41.4032 255.407 -1689 14 13 20
44.7814 255.416 -1689 14 13 20
48.1602 255.426 -1689 16 15 21
51.6002 255.738 -1691 17 16 22
55.0485 256.052 -1693 15 15 19
58.5401 256.517 -1696 18 18 23
62.0439 256.983 -1699 16 15 20
65.4449 256.996 -1699 14 13 20
68.9679 257.464 -1702 15 14 21
72.3757 257.478 -1702 15 14 22
75.9624 258.099 -1706 16 15 23
79.5192 258.569 -1709 16 15 23
83.1857 259.342 -1714 17 16 24
86.7213 259.662 -1716 15 14 22
90.4234 260.437 -1721 16 15 23
93.8734 260.456 -1721 17 16 24
97.5505 261.081 -1725 17 16 24
101.127 261.404 -1727 18 17 25
104.834 262.03 -1731 18 18 25
108.432 262.355 -1733 21 21 27
112.169 262.983 -1737 15 17 23
-529.178 263.777 -1714 28 25 30
-524.806 263.356 -1712 25 22 27
-521.969 263.705 -1715 25 24 28
-517.915 263.44 -1714 23 23 27
-513.57 263.022 -1712 22 19 24
-508.94 262.452 -1709 26 23 27
-504.033 261.73 -1705 23 20 23
-499.734 261.315 -1703 19 16 21
-495.449 260.902 -1701 18 15 20
-491.755 260.797 -1701 17 14 19
-488.066 260.693 -1701 20 17 22
-485.52 261.202 -1705 22 19 24
-482.678 261.559 -1708 21 18 23
-478.987 261.456 -1708 23 19 24
-474.743 261.049 -1706 23 19 24
-470.512 260.643 -1704 26 23 26
-465.746 259.932 -1700 26 22 26
-461.817 259.681 -1699 23 20 27
-457.357 259.125 -1696 22 20 25
-452.647 258.417 -1692 26 24 28
-448.488 258.017 -1690 27 24 28
-444.079 257.465 -1687 22 20 23
-440.208 257.218 -1686 20 19 21
-436.087 256.821 -1684 21 18 22
-431.465 256.12 -1680 20 18 22
-427.628 255.877 -1679 18 17 22
-423.546 255.482 -1677 16 15 23
-419.977 255.394 -1677 19 18 26
-416.66 255.458 -1678 21 20 28
-413.343 255.523 -1679 21 20 28
-409.537 255.284 -1678 22 21 29
-405.98 255.199 -1678 21 20 30
-402.667 255.266 -1679 19 18 28
-399.116 255.182 -1679 19 18 27
-395.568 255.099 -1679 19 18 26
-392.257 255.168 -1680 20 19 27
-388.945 255.238 -1681 20 19 27
-385.404 255.157 -1681 20 19 26
-381.411 254.774 -1679 19 18 25
-377.43 254.391 -1677 19 18 25
-373.014 253.706 -1673 20 19 26
-369.502 253.629 -1673 22 21 27
-365.556 253.249 -1671 20 20 24
-362.488 253.476 -1673 19 19 23
-358.771 253.25 -1672 19 19 23
-355.062 253.024 -1671 20 20 24
-350.728 252.345 -1667 19 19 23
-347.247 252.272 -1667 18 18 22
-342.945 251.595 -1663 18 18 22
-339.478 251.525 -1663 18 18 22
-335.005 250.698 -1658 18 17 24
-331.355 250.478 -1657 21 20 28
-327.513 250.108 -1655 20 19 26
-323.683 249.738 -1653 18 17 24
-320.058 249.52 -1652 19 19 24
-316.44 249.303 -1651 20 19 24
-312.26 248.635 -1647 19 19 24
-308.661 248.419 -1646 19 18 24
-305.441 248.507 -1647 19 18 23
-301.668 248.142 -1645 17 17 21
-298.451 248.231 -1646 18 18 22
-295.231 248.321 -1647 20 20 24
-291.656 248.11 -1646 19 19 23
-287.737 247.598 -1643 18 18 23
-284.352 247.539 -1643 20 20 25
-280.628 247.18 -1641 21 21 25
-277.083 246.972 -1640 20 20 24
-273.711 246.915 -1640 19 19 23
-270.836 247.311 -1643 18 18 22
-267.463 247.255 -1643 20 20 25
-263.931 247.05 -1642 18 18 23
-260.565 246.996 -1642 16 16 21
-257.043 246.793 -1641 18 17 23
-253.683 246.741 -1641 20 20 25
-250.63 246.989 -1643 19 18 24
-247.571 247.239 -1645 18 17 24
-244.209 247.189 -1645 18 17 24
-241.141 247.439 -1647 17 16 23
-237.49 247.09 -1645 17 17 22
-234.134 247.042 -1645 17 17 22
-230.78 246.994 -1645 16 16 20
-227.842 247.398 -1648 16 16 19
-225.031 247.952 -1652 15 15 18
-222.204 248.507 -1656 14 15 19
-219.1 248.762 -1658 14 15 20
-215.989 249.017 -1660 14 15 20
-212.743 249.124 -1661 14 13 19
-209.369 249.08 -1661 13 12 18
-206.245 249.338 -1663 13 12 19
-202.992 249.446 -1664 12 12 17
-199.738 249.555 -1665 14 14 18
-196.126 249.215 -1663 17 17 21
-192.757 249.175 -1663 17 17 21
-189.161 248.837 -1661 18 18 22
-185.911 248.949 -1662 18 18 22
-182.438 248.761 -1661 19 19 23
-178.863 248.425 -1659 18 18 22
-175.403 248.239 -1658 16 16 20
-171.534 247.456 -1653 17 17 21
-167.89 246.972 -1650 19 19 23
-164.16 246.34 -1646 20 20 24
-160.447 245.708 -1642 17 18 22
-156.943 245.377 -1640 17 17 21
-153.448 245.046 -1638 16 16 20
-150.238 245.165 -1639 16 16 20
-146.935 245.135 -1639 16 16 20
-143.634 245.105 -1639 16 16 20
-140.419 245.226 -1640 18 17 22
-137.034 245.048 -1639 19 18 24
-133.654 244.871 -1638 20 19 26
-130.359 244.845 -1638 19 18 25
-127.065 244.819 -1638 18 17 24
-123.848 244.943 -1639 16 15 22
-120.628 245.067 -1640 14 13 20
-117.547 245.491 -1643 16 15 22
-114.386 245.767 -1645 16 15 22
-111.151 245.893 -1646 15 14 21
-107.978 246.17 -1648 14 13 20
-104.797 246.447 -1650 15 14 21
-101.61 246.725 -1652 15 14 21
-98.4153 247.004 -1654 14 13 20
-95.1559 247.133 -1655 15 14 21
-91.8933 247.264 -1656 15 14 22
-88.5206 247.096 -1655 14 13 21
-85.2554 247.228 -1656 14 13 24
-81.9374 247.211 -1656 16 15 24
-78.6676 247.344 -1657 17 16 24
-75.3944 247.478 -1658 17 16 23
-72.1614 247.761 -1660 16 15 22
-68.9208 248.046 -1662 15 14 21
-65.6729 248.331 -1664 15 14 21
-62.38 248.467 -1665 15 14 21
-59.119 248.753 -1667 14 13 20
-55.8171 248.891 -1668 14 13 20
-52.5117 249.029 -1669 14 13 20
-49.2026 249.168 -1670 16 15 22
-45.89 249.308 -1671 17 16 24
-42.5483 249.299 -1671 14 13 21
-39.2773 249.738 -1674 13 12 19
-35.9302 249.731 -1674 15 14 21
-32.6029 249.873 -1675 17 16 23
-29.2369 249.717 -1674 20 19 26
-25.8906 249.712 -1674 18 17 25
-22.531 249.558 -1673 16 15 22
-19.2216 250.001 -1676 16 15 21
-15.8908 250.296 -1678 14 14 17
-12.567 250.89 -1682 13 12 16
-9.21654 251.186 -1684 13 13 18
-5.85455 251.333 -1685 14 13 19
-2.48861 251.482 -1686 14 13 20
0.881617 251.78 -1688 16 15 22
4.25754 251.93 -1689 17 16 23
7.63748 252.08 -1690 16 15 22
11.028 252.38 -1692 14 14 19
14.4011 252.234 -1691 14 13 19
17.7806 252.237 -1691 15 14 21
21.1729 252.39 -1692 15 14 21
24.5694 252.544 -1693 15 14 21
27.9371 252.4 -1692 16 15 22
31.3195 252.406 -1692 15 14 21
34.6816 252.263 -1691 14 13 20
38.0175 251.972 -1689 14 13 20
41.3458 251.682 -1687 14 13 20
44.7458 251.84 -1688 15 14 21
48.1503 251.999 -1689 17 16 22
51.5896 252.307 -1691 18 18 22
55.07 252.765 -1694 17 17 21
58.5281 253.075 -1696 16 16 21
61.9217 253.088 -1696 14 13 20
65.316 253.1 -1696 16 15 22
68.8322 253.562 -1699 14 13 20
72.276 253.725 -1700 13 12 19
75.8135 254.188 -1703 15 14 22
79.317 254.502 -1705 13 12 20
82.9263 255.116 -1709 17 16 24
86.5017 255.581 -1712 18 17 25
90.0898 256.046 -1715 17 16 24
93.6906 256.513 -1718 16 15 23
97.361 257.129 -1722 18 17 25
100.989 257.597 -1725 17 19 25
104.631 258.066 -1728 17 18 24
108.16 258.237 -1729 18 20 24
111.694 258.409 -1730 16 18 24
115.033 258.133 -1728 12 13 19
118.16 257.41 -1723 14 13 20
121.126 256.388 -1716 17 16 23
124.065 255.367 -1709 21 20 27
127.2 254.795 -1705 28 27 34
130.551 254.671 -1704 40 39 47
134.37 255.446 -1709 47 46 54
138.614 256.968 -1719 42 41 48
142.734 258.192 -1727 24 23 30
-596.854 263.6 -1723 36 27 25
-590.578 262.402 -1716 38 28 27
-569.901 262.725 -1723 32 24 29
-565.743 262.452 -1722 29 23 28
-562.248 262.484 -1723 29 25 31
-556.485 261.451 -1717 28 25 30
-551.72 260.876 -1714 28 25 29
-548.251 260.911 -1715 29 26 31
-544.149 260.643 -1714 29 26 32
-540.055 260.376 -1713 28 25 31
-536.284 260.262 -1713 28 25 31
-532.518 260.149 -1713 28 25 30
-529.065 260.188 -1714 25 22 27
-525.307 260.076 -1714 24 21 27
-520.945 259.662 -1712 25 22 29
-516.294 259.098 -1709 21 19 25
-512.261 258.838 -1708 21 18 23
-507.939 258.427 -1706 23 20 25
-503.039 257.715 -1702 21 18 22
-498.455 257.155 -1699 18 15 20
-494.762 257.051 -1699 16 13 18
-491.362 257.098 -1700 18 15 20
-487.389 256.844 -1699 21 18 23
-485.132 257.498 -1704 22 19 24
-482.294 257.85 -1707 21 18 23
-478.325 257.598 -1706 21 18 23
-474.087 257.196 -1704 23 20 25
-470.137 256.947 -1703 24 21 25
-465.374 256.245 -1699 22 20 24
-461.177 255.847 -1697 21 20 24
-456.992 255.45 -1695 21 21 23
-453.086 255.204 -1694 24 23 26
-448.659 254.658 -1691 24 23 25
-444.512 254.264 -1689 20 20 22
-440.377 253.871 -1687 19 18 20
-436.255 253.478 -1685 20 17 24
-431.888 252.937 -1682 20 17 23
-427.284 252.246 -1678 20 17 22
-423.205 251.857 -1676 19 18 26
-419.889 251.92 -1677 20 19 27
-416.325 251.833 -1677 19 18 26
-413.01 251.898 -1678 19 18 26
-409.451 251.812 -1678 20 19 27
-405.896 251.728 -1678 20 19 29
-402.344 251.644 -1678 20 19 28
-398.795 251.562 -1678 19 18 26
-395.25 251.48 -1678 19 18 25
-391.942 251.548 -1679 20 19 26
-388.402 251.468 -1679 19 18 25
-385.094 251.538 -1680 19 18 25
-381.105 251.159 -1678 18 17 24
-377.126 250.782 -1676 18 17 24
-372.937 250.256 -1673 20 19 25
-369.426 250.18 -1673 22 22 26
-365.481 249.805 -1671 23 23 27
-362.197 249.88 -1672 21 21 25
-358.483 249.656 -1671 20 20 24
-354.563 249.285 -1669 19 19 23
-350.445 248.764 -1666 17 17 21
-346.967 248.693 -1666 18 18 22
-343.08 248.324 -1664 18 18 22
-339.408 248.105 -1663 18 18 22
-335.34 247.588 -1660 20 19 26
-331.486 247.222 -1658 20 19 27
-327.446 246.707 -1655 18 17 24
-323.813 246.491 -1654 18 18 23
-320.186 246.277 -1653 18 18 22
-316.375 245.914 -1651 17 17 21
-312.385 245.403 -1648 17 17 21
-308.598 245.042 -1646 17 17 21
-305.193 244.979 -1646 17 17 21
-301.423 244.62 -1644 18 18 22
-298.39 244.856 -1646 20 20 24
-295.171 244.945 -1647 21 21 25
-291.774 244.885 -1647 19 19 23
-287.853 244.38 -1644 18 18 22
-284.64 244.471 -1645 18 18 22
-280.741 243.968 -1642 18 18 22
-277.195 243.762 -1641 18 18 22
-273.822 243.706 -1641 17 17 21
-270.616 243.8 -1642 17 17 21
-267.246 243.745 -1642 19 19 23
-263.878 243.691 -1642 17 17 21
-260.511 243.638 -1642 16 16 20
-256.835 243.289 -1640 19 19 23
-253.786 243.534 -1642 20 20 24
-250.426 243.483 -1642 18 18 23
-247.52 243.878 -1645 18 17 24
-244.307 243.976 -1646 18 17 24
-240.946 243.927 -1646 18 17 24
-237.298 243.583 -1644 17 17 21
-233.944 243.535 -1644 16 16 20
-230.593 243.488 -1644 16 16 20
-227.381 243.59 -1645 16 16 18
-224.576 244.137 -1649 15 15 17
-221.489 244.388 -1651 15 15 19
-218.395 244.64 -1653 15 15 19
-215.294 244.892 -1655 15 15 19
-212.316 245.293 -1658 15 15 19
-209.201 245.547 -1660 14 14 19
-205.955 245.653 -1661 13 12 19
-202.707 245.76 -1662 13 12 17
-199.457 245.867 -1663 12 12 16
-195.969 245.68 -1662 13 13 17
-192.37 245.345 -1660 16 16 20
-189.009 245.307 -1660 18 18 22
-185.761 245.417 -1661 18 18 22
-182.181 245.084 -1659 18 18 22
-178.827 245.048 -1659 17 17 21
-175.262 244.717 -1657 16 16 20
-171.707 244.387 -1655 18 18 22
-167.856 243.615 -1650 19 19 23
-164.226 243.139 -1647 18 18 22
-160.512 242.516 -1643 16 16 20
-157.103 242.336 -1642 16 16 20
-153.605 242.01 -1640 16 16 20
-150.391 242.127 -1641 18 18 22
-146.906 241.802 -1639 18 18 22
-143.78 242.068 -1641 17 17 21
-140.476 242.04 -1641 18 18 22
-137.09 241.865 -1640 17 17 21
-133.709 241.69 -1639 18 17 24
-130.253 241.369 -1637 21 20 27
-126.962 241.343 -1637 19 18 25
-123.672 241.318 -1637 15 14 21
-120.603 241.736 -1640 15 14 20
-117.381 241.86 -1641 15 14 21
-114.363 242.426 -1645 15 14 21
-111.061 242.404 -1645 14 13 20
-107.891 242.677 -1647 13 12 19
-104.713 242.95 -1649 13 12 19
-101.528 243.224 -1651 14 13 20
-98.2171 243.204 -1651 15 14 21
-95.1369 243.774 -1655 16 15 22
-91.8194 243.755 -1655 15 14 22
-88.6097 244.032 -1657 14 13 21
-85.1868 243.72 -1655 13 12 23
-81.8715 243.704 -1655 14 13 23
-78.6518 243.982 -1657 17 16 24
-75.3339 243.967 -1657 16 15 22
-72.06 244.099 -1658 17 16 23
-68.7412 244.085 -1658 17 16 23
-65.5808 244.661 -1662 16 15 22
-62.2551 244.648 -1662 14 13 20
-59.0009 244.93 -1664 14 13 20
-55.7056 245.066 -1665 15 14 21
-52.4383 245.35 -1667 15 14 21
-49.1045 245.34 -1667 15 14 22
-45.8258 245.625 -1669 16 15 23
-42.5652 246.057 -1672 15 14 22
-39.2694 246.344 -1674 14 14 20
-35.9445 246.483 -1675 15 15 19
-32.6158 246.624 -1676 17 16 23
-29.2135 246.176 -1673 20 19 26
-25.87 246.171 -1673 20 19 26
-22.5131 246.019 -1672 17 16 22
-19.1718 246.014 -1672 15 15 19
-15.8592 246.452 -1675 13 13 17
-12.5496 247.185 -1680 11 11 16
-9.20929 247.625 -1683 12 11 18
-5.85343 247.917 -1685 13 13 18
-2.48814 248.064 -1686 15 15 19
0.880911 248.211 -1687 15 14 21
4.25165 248.211 -1687 17 16 23
7.62695 248.359 -1688 16 15 23
11.0128 248.656 -1690 14 13 21
14.381 248.511 -1689 15 14 21
17.7666 248.661 -1690 17 16 23
21.1437 248.665 -1690 18 17 24
24.5209 248.67 -1690 16 15 22
27.8819 248.528 -1689 17 16 24
31.2762 248.681 -1690 16 15 23
34.6337 248.54 -1689 16 15 22
37.9649 248.253 -1687 15 14 21
41.3375 248.261 -1687 14 13 20
44.7369 248.417 -1688 16 15 22
48.1407 248.573 -1689 19 18 24
51.5793 248.878 -1691 20 19 25
55.0264 249.183 -1693 16 15 21
58.3783 249.047 -1692 16 15 22
61.8365 249.353 -1694 14 13 20
65.1874 249.219 -1693 15 14 21
68.6158 249.379 -1694 16 15 22
72.0915 249.687 -1696 15 14 21
75.6648 250.291 -1700 15 14 21
79.1615 250.601 -1702 15 14 22
82.861 251.501 -1708 16 15 24
86.3327 251.665 -1709 16 15 24
89.8616 251.977 -1711 17 16 24
93.5082 252.584 -1715 16 15 23
97.0588 252.898 -1717 20 19 27
100.618 253.212 -1719 18 18 26
104.246 253.675 -1722 18 19 25
107.888 254.138 -1725 19 20 25
111.413 254.307 -1726 19 20 26
114.81 254.182 -1725 15 16 22
118.067 253.763 -1722 15 14 21
121.242 253.198 -1718 15 14 21
124.33 252.485 -1713 18 17 24
127.697 252.363 -1712 19 18 25
131.291 252.684 -1714 17 16 24
135.129 253.448 -1719 14 13 21
138.909 254.065 -1723 14 13 20
142.87 254.978 -1729 13 12 20
146.519 255.302 -1731 12 11 19
150.61 256.364 -1738 13 12 21
154.021 256.247 -1737 16 15 25
157.429 256.13 -1736 17 16 24
164.332 256.047 -1735 17 16 25
167.541 255.638 -1732 18 17 25
170.936 255.524 -1731 18 17 25
174.43 255.559 -1731 20 19 27
259.958 261.296 -1763 157 130 109
263.26 261.052 -1761 161 132 109
267.769 261.995 -1767 160 131 109
271.384 262.05 -1767 159 129 107
274.689 261.808 -1765 157 127 106
278.304 261.864 -1765 156 126 107
282.24 262.218 -1767 154 125 111
286.187 262.572 -1769 155 123 109
289.654 262.482 -1768 155 124 110
293.45 262.69 -1769 155 126 112
297.085 262.75 -1769 155 126 112
300.043 262.216 -1765 155 125 112
304.191 262.723 -1768 156 126 114
307.831 262.785 -1768 152 125 115
311.298 262.7 -1767 154 128 117
-678.034 263.753 -1730 188 170 149
-673.251 263.302 -1728 193 174 151
-670.808 263.766 -1732 195 175 150
-667.198 263.775 -1733 193 172 152
-665.12 264.392 -1738 189 169 149
-659.222 263.489 -1733 189 170 149
-658.268 264.564 -1741 191 171 143
-655.03 264.727 -1743 190 170 141
-651.041 264.587 -1743 190 170 139
-645.574 263.841 -1739 191 167 150
-641.607 263.703 -1739 188 165 148
-637.646 263.567 -1739 184 161 146
-631.869 262.674 -1734 183 163 148
-626.846 262.085 -1731 176 157 144
-622.921 261.952 -1731 137 120 109
-619.003 261.82 -1731 44 33 22
-615.445 261.84 -1732 37 25 18
-611.536 261.709 -1732 34 23 19
-606.931 261.278 -1730 32 22 20
-602.69 260.998 -1729 33 24 23
-598.458 260.72 -1728 32 26 25
-593.893 260.292 -1726 32 24 28
-590.709 260.468 -1728 33 25 29
-586.504 260.193 -1727 33 25 29
-582.645 260.07 -1727 34 23 28
-579.128 260.098 -1728 30 20 25
-575.611 260.127 -1729 31 23 27
-571.433 259.856 -1728 30 26 31
-566.937 259.435 -1726 30 26 31
-563.108 259.316 -1726 29 26 33
-556.368 257.847 -1717 29 26 32
-554.5 258.631 -1723 29 26 32
-548.455 257.465 -1716 28 25 30
-544.668 257.35 -1716 25 22 27
-540.572 257.087 -1715 23 20 25
-536.484 256.824 -1714 23 20 25
-532.406 256.563 -1713 23 20 25
-527.72 256.003 -1710 23 20 25
-523.358 255.594 -1708 23 20 27
-519.619 255.485 -1708 26 23 30
-515.582 255.228 -1707 25 22 29
-511.554 254.971 -1706 22 19 24
-507.535 254.716 -1705 22 19 24
-502.343 253.864 -1700 20 17 22
-498.351 253.611 -1699 19 16 21
-494.076 253.21 -1697 18 15 20
-490.104 252.958 -1696 20 17 22
-486.427 252.857 -1696 23 20 25
-484.178 253.502 -1701 24 21 26
-481.064 253.7 -1703 23 20 25
-477.104 253.452 -1702 23 20 25
-473.71 253.503 -1703 23 20 25
-469.211 252.959 -1700 23 20 25
-465.826 253.011 -1701 22 20 24
-461.081 252.321 -1697 21 21 23
-457.436 252.227 -1697 21 21 23
-452.725 251.539 -1693 21 21 23
-448.036 250.852 -1689 22 22 24
-443.894 250.463 -1687 20 20 22
-439.764 250.076 -1685 18 18 20
-435.647 249.689 -1683 20 17 24
-430.772 248.858 -1678 18 15 21
-426.686 248.474 -1676 19 16 21
-423.117 248.387 -1676 20 19 27
-419.803 248.449 -1677 20 19 27
-415.991 248.215 -1676 20 19 27
-412.925 248.427 -1678 20 19 27
-408.879 248.047 -1676 19 18 26
-405.329 247.964 -1676 19 18 28
-402.021 248.029 -1677 19 18 28
-398.713 248.095 -1678 19 18 26
-395.169 248.015 -1678 19 18 25
-391.629 247.935 -1678 20 19 26
-388.091 247.855 -1678 20 19 26
-384.786 247.924 -1679 19 18 25
-380.8 247.551 -1677 17 16 23
-376.599 247.032 -1674 19 18 25
-372.861 246.808 -1673 20 20 25
-369.571 246.88 -1674 22 22 26
-365.406 246.363 -1671 23 23 27
-361.906 246.29 -1671 20 20 24
-358.41 246.217 -1671 19 19 23
-354.279 245.703 -1668 18 18 22
-350.374 245.337 -1666 18 18 22
-346.689 245.119 -1665 17 17 21
-342.598 244.608 -1662 17 17 21
-338.931 244.392 -1661 20 20 24
-335.07 244.03 -1659 22 21 28
-331.219 243.669 -1657 20 19 26
-326.984 243.014 -1653 18 17 24
-323.747 243.096 -1654 19 18 24
-319.928 242.737 -1652 17 17 21
-316.311 242.526 -1651 15 15 19
-312.512 242.169 -1649 16 16 20
-308.723 241.813 -1647 17 17 21
-305.502 241.898 -1648 18 18 22
-301.729 241.544 -1646 18 18 22
-298.329 241.483 -1646 20 20 24
-294.932 241.424 -1646 20 20 24
-291.361 241.218 -1645 20 20 24
-287.62 240.867 -1643 20 20 24
-284.237 240.81 -1643 19 19 23
-280.685 240.607 -1642 19 19 23
-277.308 240.551 -1642 18 18 22
-273.767 240.349 -1641 16 16 20
-270.397 240.295 -1641 17 17 21
-267.192 240.388 -1642 17 17 21
-263.503 240.042 -1640 16 16 20
-260.142 239.99 -1640 16 16 20
-256.626 239.792 -1639 19 19 23
-253.581 240.034 -1641 20 20 24
-249.919 239.691 -1639 18 18 23
-247.17 240.226 -1643 19 18 25
-243.962 240.324 -1644 18 17 24
-240.312 239.983 -1642 17 16 23
-236.961 239.936 -1642 16 16 20
-233.613 239.889 -1642 16 16 20
-230.266 239.843 -1642 18 18 22
-227.336 240.235 -1645 16 16 18
-224.531 240.774 -1649 16 16 18
-221.444 241.022 -1651 16 16 20
-218.351 241.27 -1653 15 15 19
-215.251 241.519 -1655 14 14 18
-211.889 241.477 -1655 15 15 19
-208.655 241.581 -1656 15 15 20
-205.666 241.978 -1659 14 13 20
-202.423 242.083 -1660 13 13 18
-199.178 242.189 -1661 13 13 17
-195.812 242.15 -1661 12 12 16
-192.332 241.966 -1660 16 16 20
-188.857 241.782 -1659 17 17 21
-185.612 241.891 -1660 18 18 22
-182.035 241.563 -1658 17 17 21
-178.683 241.528 -1658 16 16 20
-175.121 241.201 -1656 16 16 20
-171.673 241.021 -1655 18 18 22
-168.026 240.551 -1652 19 19 23
-164.493 240.227 -1650 18 18 22
-160.773 239.612 -1646 17 17 21
-157.358 239.436 -1645 16 16 20
-153.855 239.114 -1643 16 16 20
-150.453 238.938 -1642 17 17 21
-147.056 238.763 -1641 19 19 23
-143.751 238.735 -1641 19 19 23
-140.363 238.561 -1640 18 18 22
-136.812 238.097 -1637 16 16 20
-133.519 238.071 -1637 16 15 22
-130.148 237.9 -1636 21 20 27
-126.937 238.02 -1637 20 19 26
-123.723 238.14 -1638 15 15 20
-120.653 238.552 -1641 15 15 19
-117.429 238.674 -1642 13 12 19
-114.202 238.797 -1643 14 13 20
-110.904 238.775 -1643 13 12 19
-107.804 239.189 -1646 12 11 18
-104.565 239.314 -1647 12 11 18
-101.385 239.584 -1649 13 12 19
-98.0787 239.564 -1649 15 14 21
-94.9456 239.981 -1652 16 15 22
-91.6904 240.108 -1653 16 15 23
-88.4318 240.236 -1654 14 13 22
-85.0671 240.073 -1653 12 11 22
-81.8059 240.202 -1654 13 12 21
-78.5889 240.477 -1656 15 14 22
-75.2735 240.462 -1656 16 15 22
-71.9154 240.302 -1655 17 16 23
-68.6862 240.579 -1657 17 16 23
-65.4495 240.856 -1659 17 16 23
-62.1305 240.843 -1659 16 15 22
-58.9892 241.558 -1664 15 14 21
-55.6946 241.691 -1665 15 14 21
-52.4594 242.116 -1668 17 16 23
-49.1242 242.106 -1668 17 16 24
-45.8992 242.678 -1672 16 15 23
-42.5313 242.524 -1671 16 15 23
-39.2851 243.096 -1675 15 14 21
-35.9588 243.234 -1676 15 15 19
-32.6288 243.372 -1677 18 17 24
-29.2078 242.786 -1673 20 19 26
-25.8494 242.635 -1672 20 19 26
-22.4952 242.486 -1671 17 17 22
-19.168 242.627 -1672 15 15 19
-15.8371 242.768 -1673 13 13 17
-12.5472 243.781 -1680 11 11 16
-9.20733 244.215 -1683 13 12 19
-5.84537 244.213 -1683 14 13 20
-2.48325 244.212 -1683 16 15 21
0.880206 244.647 -1686 15 14 20
4.25082 244.793 -1687 16 16 22
7.62095 244.794 -1687 16 15 23
11.017 245.377 -1691 15 14 22
14.3782 245.089 -1689 16 15 23
17.7629 245.237 -1690 19 18 25
21.127 245.096 -1689 20 19 26
24.5016 245.1 -1689 17 16 23
27.86 244.96 -1688 15 14 22
31.2514 245.111 -1689 15 14 22
34.6063 244.973 -1688 16 15 22
37.9349 244.689 -1686 16 15 22
41.3293 244.842 -1687 14 13 20
44.7281 244.996 -1688 17 16 23
48.1027 245.005 -1688 19 18 25
51.5692 245.45 -1691 19 18 25
54.9831 245.606 -1692 16 15 21
58.3324 245.472 -1691 17 16 22
61.7877 245.774 -1693 16 15 22
65.0975 245.496 -1691 17 16 23
68.5619 245.8 -1693 17 16 23
72.0348 246.104 -1695 15 14 22
75.5607 246.554 -1698 15 14 22
79.0529 246.86 -1700 14 13 21
82.6022 247.311 -1703 14 13 23
86.1642 247.763 -1706 15 14 23
89.5287 247.635 -1705 15 14 22
93.1626 248.234 -1709 14 13 21
96.7005 248.544 -1711 17 16 24
100.364 249.144 -1715 19 18 26
103.863 249.309 -1716 18 17 24
107.429 249.621 -1718 17 16 23
110.875 249.642 -1718 15 14 21
114.322 249.664 -1718 12 11 18
117.427 248.961 -1713 13 12 19
121.007 249.275 -1715 16 15 22
124.233 248.863 -1712 18 17 24
127.746 249.033 -1713 17 16 23
131.341 249.349 -1715 15 14 21
135.26 250.248 -1721 14 13 20
138.881 250.566 -1723 15 14 21
142.842 251.466 -1729 13 12 19
146.574 251.931 -1732 13 12 19
150.58 252.833 -1738 13 12 21
153.547 251.99 -1732 16 15 23
156.944 251.875 -1731 18 17 25
160.339 251.761 -1730 19 18 26
163.731 251.648 -1729 17 16 24
167.121 251.535 -1728 18 17 25
170.803 251.859 -1730 17 16 25
174.395 252.039 -1731 18 17 27
178.506 252.948 -1737 17 16 25
182.119 253.129 -1738 16 15 23
186.271 254.039 -1744 17 16 25
237.533 256.523 -1757 58 56 61
241.247 256.717 -1758 135 124 124
244.827 256.765 -1758 144 130 126
248.409 256.814 -1758 148 131 123
251.707 256.572 -1756 153 129 112
255.725 257.061 -1759 155 129 110
259.758 257.55 -1762 157 129 107
263.656 257.895 -1764 157 128 105
267.716 258.386 -1767 156 126 103
271.483 258.586 -1768 158 127 104
274.945 258.495 -1767 156 126 105
278.563 258.55 -1767 154 124 105
282.343 258.752 -1768 156 127 112
285.968 258.809 -1768 160 129 114
289.432 258.72 -1767 161 131 116
293.557 259.218 -1770 162 132 118
297.193 259.277 -1770 158 129 114
300.832 259.337 -1770 156 127 112
304.645 259.544 -1771 161 132 117
308.291 259.605 -1771 159 131 117
311.764 259.521 -1770 159 131 117
315.769 259.877 -1772 163 134 119
319.425 259.941 -1772 159 132 117
322.901 259.858 -1771 157 130 116
326.561 259.924 -1771 157 130 120
-692.355 258.69 -1716 186 171 159
-691.961 259.899 -1725 188 174 159
-688.342 259.902 -1726 195 175 159
-687.5 260.96 -1734 194 174 156
-683.869 260.964 -1735 197 175 155
-681.024 261.27 -1738 198 176 149
-676.223 260.825 -1736 200 177 149
-671.826 260.531 -1735 199 176 146
-667.825 260.389 -1735 196 174 151
-665.743 260.998 -1740 194 174 151
-660.983 260.557 -1738 192 173 151
-657.75 260.717 -1740 195 173 144
-654.139 260.728 -1741 198 176 145
-650.903 260.89 -1743 198 177 144
-645.065 260.005 -1738 198 174 155
-640.733 259.72 -1737 196 172 155
-636.045 259.286 -1735 193 169 153
-631.371 258.854 -1733 192 172 156
-628.161 259.02 -1735 185 166 152
-624.948 259.187 -1737 114 96 85
-620.66 258.907 -1736 42 30 18
-617.092 258.927 -1737 35 24 16
-611.76 258.202 -1733 31 20 16
-607.154 257.776 -1731 29 19 17
-602.214 257.203 -1728 31 23 21
-599.025 257.375 -1730 31 25 24
-594.112 256.805 -1727 30 22 26
-590.927 256.978 -1729 32 24 28
-586.041 256.41 -1726 30 22 26
-582.861 256.585 -1728 31 20 25
-578.336 256.168 -1726 28 18 23
-575.158 256.345 -1728 29 21 25
-570.653 255.929 -1726 30 25 30
-567.476 256.107 -1728 29 25 31
-562.991 255.694 -1726 26 23 30
-557.872 254.986 -1722 26 23 28
-552.775 254.278 -1718 25 22 28
-548.341 253.869 -1716 27 24 29
-544.238 253.608 -1715 25 22 27
-540.144 253.348 -1714 22 19 24
-535.747 252.942 -1712 22 19 24
-532.296 252.979 -1713 23 20 25
-527.919 252.575 -1711 23 20 25
-523.863 252.319 -1710 24 21 28
-519.511 251.917 -1708 28 25 32
-514.871 251.368 -1705 29 26 33
-509.35 250.379 -1699 25 22 27
-505.942 250.422 -1700 22 19 24
-501.648 250.024 -1698 20 17 22
-497.368 249.628 -1696 20 17 22
-492.81 249.085 -1693 20 17 22
-489.425 249.131 -1694 21 18 23
-485.753 249.032 -1694 23 20 25
-483.509 249.668 -1699 24 21 26
-480.117 249.717 -1700 24 21 26
-476.726 249.766 -1701 23 20 25
-473.335 249.816 -1702 23 20 25
-469.391 249.573 -1701 24 21 26
-464.909 249.038 -1698 24 22 26
-460.987 248.798 -1697 20 20 22
-456.534 248.265 -1694 20 20 22
-452.366 247.879 -1692 20 20 22
-447.679 247.202 -1688 20 20 22
-443.014 246.526 -1684 20 19 22
-439.414 246.437 -1684 19 19 21
-435.041 245.91 -1681 18 15 22
-430.428 245.237 -1677 18 15 21
-427.109 245.297 -1678 21 18 23
-423.536 245.211 -1678 20 19 27
-419.717 244.98 -1677 18 17 25
-416.403 245.041 -1678 20 19 27
-413.088 245.104 -1679 21 20 28
-409.284 244.875 -1678 19 18 26
-405.972 244.939 -1679 17 16 26
-402.18 244.712 -1678 17 16 25
-398.87 244.777 -1679 18 17 25
-395.089 244.552 -1678 20 19 26
-391.55 244.473 -1678 19 18 25
-387.55 244.103 -1676 19 18 25
-384.021 244.026 -1676 17 16 23
-380.269 243.804 -1675 17 16 23
-376.524 243.583 -1674 17 16 23
-372.786 243.362 -1673 20 19 25
-369.276 243.288 -1673 22 22 26
-365.333 242.924 -1671 22 22 26
-361.617 242.706 -1670 21 21 25
-357.909 242.489 -1669 20 20 24
-353.783 241.982 -1666 19 19 23
-349.883 241.621 -1664 19 19 23
-345.995 241.262 -1662 17 17 21
-342.117 240.903 -1660 17 17 21
-338.456 240.69 -1659 20 20 24
-334.599 240.333 -1657 23 22 29
-331.153 240.267 -1657 21 20 27
-327.314 239.912 -1655 20 19 26
-323.682 239.702 -1654 21 21 26
-319.864 239.348 -1652 20 20 24
-316.248 239.14 -1651 16 16 20
-312.449 238.788 -1649 16 16 20
-308.849 238.582 -1648 17 17 21
-305.441 238.521 -1648 17 17 21
-301.669 238.172 -1646 18 18 22
-298.089 237.968 -1645 19 19 23
-294.694 237.909 -1645 18 18 22
-291.125 237.707 -1644 20 20 24
-287.213 237.216 -1641 20 20 24
-284.18 237.448 -1643 20 20 24
-280.8 237.393 -1643 19 19 23
-277.253 237.193 -1642 16 16 20
-273.879 237.139 -1642 17 17 21
-270.673 237.23 -1643 17 17 21
-267.302 237.177 -1643 16 16 20
-263.612 236.836 -1641 15 15 19
-260.408 236.928 -1642 16 16 20
-256.889 236.733 -1641 19 19 23
-253.53 236.683 -1641 19 19 23
-250.022 236.489 -1640 19 19 24
-246.971 236.729 -1642 20 19 26
-243.617 236.681 -1642 19 18 25
-240.265 236.633 -1642 17 16 23
-236.915 236.587 -1642 16 16 20
-233.709 236.684 -1643 17 17 21
-230.221 236.495 -1642 16 16 20
-227.015 236.594 -1643 16 16 18
-223.943 236.838 -1645 16 16 18
-220.596 236.794 -1645 16 16 20
-217.516 237.039 -1647 14 14 18
-214.559 237.429 -1650 14 14 18
-211.463 237.675 -1652 16 15 21
-208.362 237.922 -1654 17 16 22
-205.378 238.313 -1657 16 15 22
-202.261 238.56 -1659 16 16 21
-198.899 238.521 -1659 15 15 19
-195.538 238.483 -1659 13 13 17
-192.062 238.301 -1658 12 12 16
-188.707 238.264 -1658 13 13 17
-185.352 238.228 -1658 17 17 21
-181.78 237.904 -1656 18 18 22
-178.541 238.013 -1657 17 17 21
-175.087 237.835 -1656 15 15 19
-171.639 237.658 -1655 17 17 21
-167.993 237.194 -1652 18 18 22
-164.66 237.161 -1652 17 17 21
-160.937 236.555 -1648 17 17 21
-157.423 236.237 -1646 15 15 19
-153.825 235.777 -1643 15 15 19
-150.698 236.034 -1645 16 16 20
-147.116 235.575 -1642 19 19 23
-143.723 235.403 -1641 21 21 25
-140.335 235.232 -1640 19 18 23
-136.869 234.918 -1638 16 15 21
-133.412 234.605 -1636 15 14 21
-130.123 234.579 -1636 19 18 25
-126.912 234.698 -1637 20 19 26
-123.623 234.673 -1637 17 16 21
-120.556 235.08 -1640 15 15 19
-117.263 235.057 -1640 13 12 19
-114.179 235.464 -1643 14 13 20
-110.815 235.299 -1642 13 12 19
-107.717 235.708 -1645 12 11 18
-104.418 235.687 -1645 13 12 19
-101.304 236.097 -1648 13 12 19
-98.0001 236.078 -1648 15 14 21
-94.8697 236.489 -1651 16 15 22
-91.5061 236.328 -1650 16 15 23
-88.3077 236.597 -1652 14 13 21
-84.999 236.58 -1652 13 12 22
-81.7899 236.85 -1654 14 13 22
-78.4787 236.835 -1654 14 13 21
-75.2589 237.106 -1656 15 14 21
-71.9014 236.949 -1655 16 15 22
-68.6314 237.078 -1656 17 16 23
-65.3973 237.352 -1658 17 16 23
-62.0809 237.339 -1658 16 15 22
-58.9068 237.9 -1662 15 14 21
-55.6838 238.319 -1665 16 15 22
-52.3862 238.451 -1666 17 16 23
-49.0851 238.585 -1667 17 16 24
-45.8354 239.005 -1670 17 16 24
-42.4976 238.996 -1670 16 15 23
-39.2071 239.275 -1672 16 15 21
-35.9089 239.553 -1674 17 17 21
-32.5641 239.547 -1674 18 17 24
-29.1847 239.255 -1672 19 18 25
-25.8289 239.106 -1671 18 17 24
-22.4639 238.816 -1669 16 16 21
-19.13 238.811 -1669 16 16 20
-15.8246 239.237 -1672 15 15 19
-12.5223 239.95 -1677 13 13 18
-9.20012 240.663 -1682 13 12 19
-5.84775 240.948 -1684 14 13 20
-2.4828 240.804 -1683 17 16 23
0.878461 240.804 -1683 16 16 20
4.24497 241.091 -1685 18 17 22
7.60574 240.949 -1684 18 17 24
10.9954 241.523 -1688 17 16 24
14.3668 241.525 -1688 18 17 24
17.7385 241.528 -1688 19 18 25
21.0979 241.389 -1687 20 19 26
24.4823 241.537 -1688 17 16 23
27.8215 241.256 -1686 15 14 21
31.1898 241.261 -1686 15 14 21
34.579 241.411 -1687 16 15 22
37.9275 241.275 -1686 16 15 22
41.3213 241.426 -1687 17 16 23
44.6927 241.434 -1687 18 17 24
48.0932 241.586 -1688 19 18 25
51.5285 241.882 -1690 18 17 24
54.9722 242.178 -1692 16 16 20
58.3209 242.046 -1691 17 16 21
61.7756 242.344 -1693 16 15 22
65.0462 241.927 -1690 17 16 23
68.4675 242.083 -1691 18 17 24
71.8932 242.24 -1692 16 15 23
75.4125 242.684 -1695 15 14 22
78.898 242.985 -1697 14 13 21
82.392 243.287 -1699 14 13 23
85.9958 243.876 -1703 15 14 24
89.4588 244.036 -1704 17 16 24
92.981 244.341 -1706 16 15 23
96.512 244.645 -1708 17 16 24
100.169 245.237 -1712 18 17 25
103.419 244.827 -1709 16 15 23
107.033 245.278 -1712 16 15 22
110.66 245.728 -1715 13 12 19
114.1 245.75 -1715 13 12 19
117.267 245.2 -1711 13 12 19
120.772 245.366 -1712 17 16 23
124.136 245.247 -1711 17 16 23
127.796 245.701 -1714 15 14 21
131.239 245.726 -1714 13 12 19
134.998 246.326 -1718 14 13 20
138.612 246.639 -1720 15 14 21
142.566 247.527 -1726 14 13 20
146.038 247.555 -1726 12 11 18
149.944 248.301 -1731 13 12 20
153.34 248.187 -1730 14 13 21
156.914 248.36 -1731 17 16 24
160.03 247.817 -1727 18 17 25
163.699 248.136 -1729 18 17 25
166.991 247.881 -1727 17 16 24
170.671 248.201 -1729 16 15 24
174.562 248.809 -1733 17 16 26
178.163 248.987 -1734 18 17 25
181.978 249.453 -1737 17 16 24
186.234 250.494 -1744 17 16 24
189.541 250.243 -1742 17 16 24
193.507 250.855 -1746 18 17 26
196.925 250.75 -1745 17 16 26
199.652 249.782 -1738 16 15 23
203.054 249.678 -1737 19 18 26
207.167 250.437 -1742 19 18 26
211.06 250.909 -1745 19 18 29
214.844 251.238 -1747 18 17 28
222.06 251.468 -1748 19 18 27
225.739 251.655 -1749 17 16 24
229.161 251.556 -1748 19 18 26
233.247 252.177 -1752 19 20 27
237.486 252.943 -1757 38 40 46
241.473 253.421 -1760 128 114 111
245.196 253.613 -1761 148 131 122
249.066 253.95 -1763 149 130 114
252.66 253.999 -1763 150 128 106
255.965 253.761 -1761 154 130 107
260.149 254.388 -1765 153 125 103
263.753 254.439 -1765 152 124 100
267.511 254.636 -1766 151 122 98
270.968 254.544 -1765 150 119 96
275.202 255.175 -1769 151 121 100
278.508 254.941 -1767 153 122 103
282.447 255.285 -1769 155 123 109
286.073 255.341 -1769 158 126 112
289.702 255.398 -1769 160 128 113
293.499 255.599 -1770 161 129 114
296.966 255.513 -1769 161 129 115
300.602 255.572 -1769 163 132 117
304.413 255.776 -1770 165 135 119
308.056 255.837 -1770 166 136 121
311.702 255.898 -1770 163 133 118
315.528 256.105 -1771 162 133 119
319.722 256.601 -1774 161 133 119
323.019 256.376 -1772 160 133 120
326.496 256.295 -1771 157 131 120
330.343 256.505 -1772 155 129 119
333.444 256.136 -1769 154 128 119
336.916 256.058 -1768 151 126 119
340.773 256.27 -1769 152 127 120
344.246 256.193 -1768 152 127 120
347.916 256.262 -1768 148 123 118
350.992 255.897 -1765 149 124 121
358.333 256.038 -1765 150 125 121
361.803 255.964 -1764 147 122 120
-703.09 256.362 -1723 196 176 167
-699.463 256.362 -1724 196 178 167
-696.645 256.661 -1727 195 178 165
-694.622 257.257 -1732 196 180 164
-690.589 257.112 -1732 199 179 163
-688.544 257.709 -1737 197 176 157
-683.725 257.268 -1735 199 177 154
-679.705 257.125 -1735 198 176 149
-674.912 256.686 -1733 199 176 149
-671.685 256.841 -1735 197 174 146
-667.299 256.553 -1734 193 171 150
-664.073 256.71 -1736 194 173 153
-660.083 256.572 -1736 193 173 154
-657.234 256.877 -1739 195 172 147
-654.002 257.036 -1741 197 175 147
-649.273 256.605 -1739 196 175 145
-643.817 255.88 -1735 197 173 153
-639.861 255.747 -1735 194 170 152
-634.446 255.025 -1731 194 170 154
-631.239 255.189 -1733 193 173 157
-627.306 255.058 -1733 188 169 155
-623.739 255.076 -1734 104 85 73
-620.173 255.094 -1735 44 31 18
-615.187 254.525 -1732 35 23 15
-611.28 254.399 -1732 36 25 21
-605.976 253.686 -1728 32 22 20
-602.438 253.708 -1729 30 22 20
-598.208 253.438 -1728 30 24 23
-593.645 253.022 -1726 30 22 26
-589.78 252.9 -1726 29 21 25
-585.92 252.78 -1726 27 19 23
-582.403 252.806 -1727 29 18 23
-577.882 252.395 -1725 28 18 22
-574.373 252.423 -1726 28 20 24
-570.866 252.452 -1727 28 24 29
-565.717 251.751 -1723 28 24 30
-561.897 251.636 -1723 25 22 29
-556.785 250.938 -1719 23 20 26
-552.662 250.679 -1718 22 19 24
-548.229 250.275 -1716 25 22 27
-545.078 250.455 -1718 25 22 27
-540.979 250.199 -1717 25 22 27
-536.576 249.798 -1715 23 20 25
-532.498 249.544 -1714 24 21 26
-528.12 249.145 -1712 24 21 26
-523.756 248.747 -1710 23 20 26
-519.405 248.351 -1708 27 24 30
-514.766 247.81 -1705 27 24 31
-509.546 246.98 -1700 26 23 28
-505.542 246.732 -1699 25 22 27
-500.66 246.05 -1695 21 18 23
-496.388 245.659 -1693 19 16 21
-492.71 245.559 -1693 20 17 22
-488.459 245.17 -1691 20 17 22
-484.508 244.927 -1690 21 18 23
-482.273 245.554 -1695 22 19 24
-479.738 246.037 -1699 23 20 25
-475.789 245.796 -1698 22 19 24
-472.683 245.991 -1700 23 20 25
-469.021 245.896 -1700 25 22 27
-464.541 245.369 -1697 24 21 26
-460.351 244.987 -1695 21 19 23
-456.172 244.606 -1693 20 18 22
-451.205 243.793 -1688 21 18 23
-446.794 243.27 -1685 21 18 23
-442.399 242.749 -1682 20 18 22
-438.804 242.661 -1682 20 17 22
-434.695 242.285 -1680 19 16 23
-430.598 241.911 -1678 19 16 22
-427.277 241.969 -1679 21 18 23
-423.704 241.885 -1679 21 20 28
-419.884 241.657 -1678 18 17 25
-416.568 241.718 -1679 18 17 25
-412.759 241.491 -1678 18 17 25
-408.959 241.266 -1677 17 16 24
-405.649 241.329 -1678 17 16 26
-402.1 241.249 -1678 17 16 24
-399.028 241.457 -1680 19 18 26
-395.246 241.235 -1679 19 18 25
-391.705 241.157 -1679 18 17 24
-387.473 240.649 -1676 18 17 24
-383.487 240.286 -1674 18 17 24
-379.966 240.21 -1674 18 17 24
-376.224 239.992 -1673 19 18 25
-372.489 239.775 -1672 20 20 25
-369.203 239.845 -1673 21 21 25
-365.479 239.63 -1672 22 22 26
-361.329 239.128 -1669 22 22 26
-357.838 239.058 -1669 21 21 25
-353.925 238.701 -1667 22 22 26
-349.814 238.203 -1664 23 23 27
-345.718 237.705 -1661 22 22 26
-342.05 237.494 -1660 18 18 22
-338.389 237.284 -1659 18 18 22
-334.331 236.79 -1656 21 20 26
-330.688 236.581 -1655 21 20 27
-327.25 236.517 -1655 21 20 27
-323.619 236.31 -1654 22 22 27
-319.801 235.962 -1652 23 23 27
-316.186 235.757 -1651 21 21 25
-312.577 235.553 -1650 19 19 23
-309.163 235.492 -1650 17 17 21
-305.751 235.432 -1650 16 16 20
-301.976 235.087 -1648 17 17 21
-298.211 234.743 -1646 18 18 22
-294.637 234.543 -1645 17 17 21
-291.068 234.343 -1644 16 16 20
-287.332 234.002 -1642 15 15 19
-283.952 233.947 -1642 16 16 20
-280.574 233.892 -1642 17 17 21
-277.03 233.695 -1641 16 16 20
-273.659 233.642 -1641 17 17 21
-270.29 233.589 -1641 20 20 24
-266.762 233.394 -1640 17 17 21
-263.56 233.485 -1641 17 17 21
-260.04 233.292 -1640 17 17 21
-256.682 233.242 -1640 17 17 21
-253.172 233.05 -1639 17 17 21
-249.821 233.002 -1639 18 18 23
-246.471 232.953 -1639 20 19 26
-243.124 232.906 -1639 19 18 25
-239.779 232.859 -1639 18 17 24
-236.58 232.955 -1640 18 18 22
-233.379 233.052 -1641 17 17 21
-230.036 233.007 -1641 15 15 19
-226.694 232.963 -1641 16 16 18
-223.491 233.062 -1642 16 16 18
-220.553 233.445 -1645 16 16 20
-217.473 233.686 -1647 15 15 19
-214.257 233.786 -1648 15 15 19
-211.166 234.029 -1650 16 15 22
-208.196 234.414 -1653 18 17 24
-204.842 234.374 -1653 17 16 23
-201.735 234.619 -1655 16 16 20
-198.62 234.864 -1657 15 15 19
-195.146 234.684 -1656 15 15 19
-191.794 234.647 -1656 15 15 19
-188.556 234.752 -1657 13 13 17
-185.205 234.716 -1657 14 14 18
-181.745 234.539 -1656 16 16 20
-178.506 234.646 -1657 17 17 21
-175.053 234.471 -1656 16 16 20
-171.71 234.437 -1656 17 17 21
-168.062 233.98 -1653 18 18 22
-164.528 233.665 -1651 18 18 22
-160.906 233.209 -1648 16 16 20
-157.297 232.754 -1645 15 15 19
-153.795 232.441 -1643 15 15 19
-150.577 232.554 -1644 17 17 21
-147.178 232.384 -1643 19 19 23
-143.695 232.073 -1641 19 19 23
-140.308 231.904 -1640 17 17 22
-136.759 231.454 -1637 16 15 21
-133.304 231.145 -1635 15 14 21
-129.938 230.978 -1634 17 16 23
-126.733 231.095 -1635 19 18 25
-123.599 231.354 -1637 18 17 23
-120.386 231.472 -1638 16 16 20
-117.169 231.591 -1639 16 15 22
-114.019 231.851 -1641 15 14 21
-110.726 231.83 -1641 14 13 20
-107.696 232.374 -1645 14 13 20
-104.461 232.495 -1646 14 13 20
-101.284 232.758 -1648 15 14 21
-97.9813 232.739 -1648 16 15 22
-94.7365 232.861 -1649 17 16 23
-91.433 232.844 -1649 16 15 23
-88.2906 233.25 -1652 14 13 21
