ply
format ascii 1.0
comment Created by Open3D
element vertex 1458
property double x
property double y
property double z
property uchar red
property uchar green
property uchar blue
end_header
-159.516 -470.893 -1982 54 58 57
-155.564 -471.079 -1983 53 57 56
-151.914 -472.217 -1988 55 59 58
-147.947 -472.406 -1989 56 60 59
-144.051 -472.833 -1991 54 58 57
-140.077 -473.025 -1992 54 58 57
-136.168 -473.455 -1994 52 56 55
-132.12 -473.411 -1994 52 56 55
-128.137 -473.606 -1995 54 58 57
-124.213 -474.04 -1997 55 59 58
-120.222 -474.238 -1998 58 61 60
-116.287 -474.674 -2000 60 62 62
-112.4 -475.349 -2003 58 62 61
-108.61 -476.499 -2008 56 60 59
-104.697 -477.177 -2011 53 57 56
-100.972 -478.804 -2018 54 57 57
-96.9801 -479.247 -2020 55 57 58
-93.1187 -480.402 -2025 57 59 59
-89.1499 -481.084 -2028 57 59 59
-85.2954 -482.479 -2034 54 56 56
-81.3376 -483.401 -2038 55 56 54
-77.5159 -485.273 -2046 57 58 56
-73.4472 -485.723 -2048 59 62 59
-69.6416 -488.071 -2058 60 61 61
-65.7326 -489.946 -2066 63 63 65
-62.2388 -495.38 -2089 65 67 68
-282.516 -493.426 -2050 57 64 60
-275.985 -489.242 -2033 55 62 58
-270.329 -486.505 -2022 53 60 56
-265.642 -485.454 -2018 52 59 55
-260.973 -484.405 -2014 52 59 55
-256.196 -483.117 -2009 52 59 55
-251.566 -482.071 -2005 51 58 54
-246.092 -479.344 -1994 50 57 53
-241.757 -478.782 -1992 48 55 51
-237.074 -477.502 -1987 47 55 51
-232.883 -477.184 -1986 51 58 54
-228.928 -477.348 -1987 52 59 56
-224.745 -477.033 -1986 51 57 56
-220.679 -476.96 -1986 52 58 57
-216.069 -475.687 -1981 55 61 60
-212.017 -475.616 -1981 57 63 62
-207.546 -474.587 -1977 61 65 64
-203.3 -474.039 -1975 60 64 63
-199.265 -473.973 -1975 54 58 57
-195.133 -473.668 -1974 57 61 59
-191.007 -473.364 -1973 60 64 61
-186.697 -472.583 -1970 61 65 62
-182.957 -473.241 -1973 61 65 62
-178.844 -472.942 -1972 61 65 64
-175.091 -473.603 -1975 61 65 64
-171.067 -473.546 -1975 57 61 60
-167.553 -474.929 -1981 56 60 59
-163.602 -475.114 -1982 54 58 57
-159.81 -475.781 -1985 52 56 55
-155.771 -475.729 -1985 53 57 56
-151.963 -476.397 -1988 54 58 58
-147.996 -476.588 -1989 53 57 58
-143.881 -476.3 -1988 53 57 56
-140.052 -476.972 -1991 53 57 56
-136.144 -477.406 -1993 51 55 54
-132.163 -477.602 -1994 51 55 54
-128.179 -477.798 -1995 53 57 56
-124.129 -477.757 -1995 53 57 56
-120.262 -478.435 -1998 55 59 58
-116.441 -479.354 -2002 57 59 59
-112.436 -479.556 -2003 56 60 59
-108.754 -481.196 -2010 54 58 57
-104.835 -481.879 -2013 53 57 56
-100.955 -482.803 -2017 54 57 58
-97.1077 -483.967 -2022 56 58 60
-93.241 -485.133 -2027 56 58 58
-89.1349 -485.103 -2027 56 58 58
-85.407 -487.228 -2036 53 55 55
-81.2443 -486.962 -2035 54 54 53
-77.5031 -489.329 -2045 58 58 56
-73.471 -490.022 -2048 57 60 57
-69.5289 -491.434 -2054 60 61 61
-65.754 -494.283 -2066 62 63 64
-282.886 -498.247 -2052 54 61 57
-276.077 -493.54 -2033 54 61 57
-270.954 -491.75 -2026 54 61 57
-265.467 -489.233 -2016 52 59 55
-260.671 -487.932 -2011 51 58 54
-256.026 -486.876 -2007 52 59 55
-251.148 -485.336 -2001 51 58 54
-246.544 -484.282 -1997 50 57 53
-241.958 -483.231 -1993 47 55 51
-237.272 -481.939 -1988 48 56 52
-233.077 -481.618 -1987 50 57 53
-229.234 -482.026 -1989 51 57 55
-225.159 -481.95 -1989 49 55 54
-220.863 -481.391 -1987 52 58 57
-216.359 -480.35 -1983 56 62 61
-212.515 -480.763 -1985 56 62 61
-207.825 -479.24 -1979 59 65 64
-203.573 -478.687 -1977 59 65 64
-199.331 -478.136 -1975 54 58 57
-195.297 -478.07 -1975 54 58 57
-190.973 -477.28 -1972 58 62 61
-186.949 -477.217 -1972 60 64 62
-182.832 -476.914 -1971 60 64 63
-178.813 -476.854 -1971 58 62 61
-174.972 -477.279 -1973 58 62 61
-171.037 -477.464 -1974 56 60 59
-167.439 -478.617 -1979 54 58 57
-163.573 -479.046 -1981 54 58 57
-159.943 -480.201 -1986 52 56 55
-155.901 -480.149 -1986 52 56 56
-151.937 -480.339 -1987 53 57 57
-147.97 -480.532 -1988 54 58 59
-144.073 -480.967 -1990 55 59 58
-139.957 -480.678 -1989 55 59 58
-136.052 -481.116 -1991 52 56 55
-132.14 -481.554 -1993 51 55 54
-128.157 -481.753 -1994 52 56 55
-124.108 -481.711 -1994 52 56 55
-120.181 -482.154 -1996 53 56 56
-116.479 -483.564 -2002 56 58 58
-112.53 -484.009 -2004 56 59 59
-108.735 -485.18 -2009 52 56 55
-104.869 -486.111 -2013 52 56 56
-101.088 -487.526 -2019 54 57 59
-96.9955 -487.493 -2019 56 58 60
-93.2257 -489.152 -2026 53 55 55
-89.2522 -489.846 -2029 53 55 55
-85.3512 -491.024 -2034 51 53 53
-81.3509 -491.721 -2037 52 52 51
-77.4907 -493.384 -2044 55 55 53
-73.5311 -494.566 -2049 55 58 55
-69.6533 -496.474 -2057 57 59 58
-65.9666 -500.071 -2072 60 61 62
-283.119 -502.835 -2053 55 61 58
-276.17 -497.843 -2033 54 60 57
-270.643 -495.302 -2023 54 60 57
-265.819 -493.988 -2018 52 58 55
-261.018 -492.675 -2013 49 55 52
-255.984 -490.875 -2006 49 56 52
-251.232 -489.566 -2001 50 57 54
-246.379 -488.015 -1995 51 58 55
-241.553 -486.465 -1989 51 58 55
-237.112 -485.651 -1986 50 58 55
-232.803 -485.083 -1984 50 57 53
-228.619 -484.761 -1983 49 55 53
-224.781 -485.174 -1985 49 55 54
-220.714 -485.099 -1985 53 60 58
-216.431 -484.537 -1983 55 62 61
-212.479 -484.709 -1984 57 63 62
-207.894 -483.417 -1979 57 63 62
-203.744 -483.104 -1978 58 64 63
-199.499 -482.548 -1976 53 58 57
-195.461 -482.481 -1976 53 58 57
-191.134 -481.684 -1973 59 64 63
-187.201 -481.865 -1974 61 64 63
-182.986 -481.315 -1972 60 63 62
-179.144 -481.742 -1974 56 60 59
-175.119 -481.683 -1974 56 60 59
-171.268 -482.113 -1976 56 60 59
-167.41 -482.544 -1978 54 58 57
-163.628 -483.221 -1981 53 57 56
-159.916 -484.142 -1985 52 56 55
-155.796 -483.845 -1984 51 55 56
-151.911 -484.282 -1986 51 55 56
-147.87 -484.232 -1986 54 58 59
-143.903 -484.427 -1987 55 60 59
-140.004 -484.867 -1989 54 59 58
-136.371 -486.283 -1995 52 56 55
-132.25 -485.995 -1994 53 57 56
-128.135 -485.708 -1993 53 57 56
-124.461 -487.128 -1999 48 52 51
-120.522 -487.574 -2001 51 54 53
-116.518 -487.778 -2002 55 58 58
-112.567 -488.227 -2004 54 58 58
-108.771 -489.408 -2009 53 57 57
-104.852 -490.103 -2012 51 55 56
-101.172 -492.018 -2020 54 57 58
-97.1719 -492.472 -2022 54 56 58
-93.4407 -494.389 -2030 52 54 55
-89.2378 -493.871 -2028 52 54 54
-85.3795 -495.303 -2034 51 53 53
-81.5377 -496.98 -2041 52 53 51
-77.5164 -497.684 -2044 52 53 51
-73.4836 -498.389 -2047 53 55 54
-69.8119 -501.774 -2061 54 57 56
-66.1159 -505.403 -2076 57 60 59
-291.651 -514.696 -2083 66 72 74
-282.939 -506.691 -2051 57 63 62
-275.856 -501.409 -2030 53 59 58
-270.601 -499.34 -2022 53 59 57
-265.514 -497.521 -2015 51 57 56
-260.587 -495.95 -2009 50 56 54
-256.198 -495.368 -2007 50 57 53
-251.317 -493.801 -2001 49 56 52
-246.463 -492.236 -1995 51 57 56
-241.878 -491.167 -1991 51 57 56
-237.79 -491.085 -1991 51 57 56
-233.351 -490.265 -1988 50 57 53
-229.042 -489.694 -1986 49 56 53
-224.97 -489.617 -1986 51 57 56
-220.677 -489.048 -1984 52 60 58
-216.722 -489.221 -1985 54 61 59
-212.444 -488.655 -1983 55 61 60
-208.07 -487.845 -1980 55 61 60
-203.71 -487.036 -1977 56 62 61
-199.566 -486.721 -1976 53 59 58
-195.527 -486.655 -1976 52 58 57
-191.102 -485.604 -1972 55 61 60
-187.453 -486.525 -1976 58 60 60
-183.326 -486.216 -1975 58 61 61
-179.114 -485.662 -1973 55 59 58
-175 -485.357 -1972 54 58 57
-171.325 -486.283 -1976 54 58 57
-167.381 -486.472 -1977 53 57 58
-163.765 -487.646 -1982 53 57 57
-159.889 -488.083 -1984 54 58 57
-155.848 -488.03 -1984 53 57 56
-151.886 -488.224 -1985 54 58 57
-147.846 -488.174 -1985 56 60 61
-143.879 -488.37 -1986 54 59 59
-139.769 -488.077 -1985 52 58 57
-136.075 -489.259 -1990 52 56 55
-132.096 -489.46 -1991 54 58 57
-128.371 -490.645 -1996 53 57 56
-124.378 -490.849 -1997 49 53 52
-120.562 -491.79 -2001 50 54 53
-116.557 -491.996 -2002 53 57 58
-112.605 -492.449 -2004 53 57 58
-108.862 -493.886 -2010 53 57 58
-104.783 -493.85 -2010 51 55 56
-101.106 -495.781 -2018 52 55 57
-97.1564 -496.485 -2021 52 54 56
-93.3338 -497.927 -2027 53 55 57
-89.2236 -497.896 -2027 52 54 55
-85.5341 -500.323 -2037 51 53 53
-81.4851 -500.786 -2039 51 54 51
-77.6183 -502.478 -2046 51 54 51
-73.6518 -503.681 -2051 51 53 52
-69.903 -506.604 -2063 51 54 54
-66.4247 -511.983 -2085 46 50 49
-291.751 -519.115 -2083 66 72 75
-282.346 -509.796 -2046 55 61 62
-275.542 -504.967 -2027 52 58 57
-270.828 -503.877 -2023 51 57 56
-265.868 -502.29 -2017 50 56 55
-260.936 -500.706 -2011 50 56 55
-256.413 -499.87 -2008 52 58 56
-251.403 -498.041 -2001 50 56 55
-246.794 -496.96 -1997 51 57 56
-242.325 -496.13 -1994 51 57 56
-237.512 -494.555 -1988 51 57 56
-233.313 -494.226 -1987 50 57 53
-228.89 -493.4 -1984 51 57 55
-225.047 -493.82 -1986 52 58 57
-220.53 -492.749 -1982 53 61 59
-216.796 -493.42 -1985 52 59 57
-212.623 -493.098 -1984 54 60 59
-208.246 -492.281 -1981 55 61 60
-203.882 -491.465 -1978 57 63 62
-199.836 -491.396 -1978 52 58 57
-195.791 -491.329 -1978 50 56 55
-191.457 -490.518 -1975 55 61 60
-187.707 -491.198 -1978 57 59 59
-183.481 -490.638 -1976 58 60 60
-179.447 -490.576 -1976 53 57 56
-175.414 -490.516 -1976 52 56 55
-171.643 -491.201 -1979 53 57 56
-167.692 -491.392 -1980 52 56 57
-163.821 -491.831 -1982 52 56 56
-159.943 -492.273 -1984 51 55 54
-155.901 -492.219 -1984 52 56 55
-151.937 -492.415 -1985 53 57 57
-147.821 -492.116 -1984 52 56 57
-143.928 -492.562 -1986 52 58 57
-139.817 -492.266 -1985 52 58 57
-136.052 -493.211 -1989 53 57 56
-132.207 -493.909 -1992 53 57 56
-128.479 -495.104 -1997 51 55 54
-124.482 -495.309 -1998 50 54 53
-120.603 -496.011 -2001 51 55 55
-116.596 -496.219 -2002 52 56 57
-112.587 -496.428 -2003 53 57 58
-108.736 -497.382 -2007 53 57 58
-104.975 -498.832 -2013 51 55 56
-101.29 -500.779 -2021 52 55 57
-97.2372 -500.994 -2022 53 55 57
-93.5496 -503.191 -2031 50 52 54
-89.4739 -503.408 -2032 50 52 54
-85.5209 -504.369 -2036 51 53 54
-81.6724 -506.075 -2043 51 54 52
-77.7583 -507.534 -2049 50 53 50
-73.7486 -508.499 -2053 50 53 50
-70.0961 -512.19 -2068 51 53 52
-66.6702 -518.111 -2092 47 50 49
-291.852 -523.538 -2083 65 71 74
-282.719 -514.643 -2048 54 60 60
-276.045 -510.024 -2030 51 57 56
-270.787 -507.919 -2022 51 57 56
-265.696 -506.068 -2015 50 56 55
-260.636 -504.219 -2008 50 56 55
-256.118 -503.376 -2005 52 58 57
-251.741 -502.786 -2003 52 58 57
-247.25 -501.947 -2000 50 56 55
-242.652 -500.859 -1996 51 57 56
-238.311 -500.274 -1994 51 57 56
-233.981 -499.691 -1992 52 59 55
-229.199 -498.106 -1986 53 59 56
-225.124 -498.028 -1986 53 59 58
-220.494 -496.697 -1981 51 59 57
-216.652 -497.123 -1983 52 60 58
-212.16 -496.046 -1979 56 62 61
-208.107 -495.974 -1979 57 63 62
-203.746 -495.151 -1976 59 65 64
-199.803 -495.332 -1977 52 58 57
-195.759 -495.264 -1977 48 54 53
-191.814 -495.448 -1978 54 60 59
-187.676 -495.132 -1977 56 58 58
-183.637 -495.068 -1977 56 59 58
-179.781 -495.507 -1979 53 57 56
-175.741 -495.445 -1979 53 57 56
-171.876 -495.886 -1981 50 54 53
-167.919 -496.078 -1982 48 52 53
-163.877 -496.021 -1982 49 53 53
-160.078 -496.716 -1985 48 52 51
-156.19 -497.162 -1987 49 53 52
-151.989 -496.609 -1985 50 54 54
-148.021 -496.808 -1986 50 54 55
-144.05 -497.008 -1987 51 57 57
-139.864 -496.459 -1985 52 58 58
-136.167 -497.662 -1990 53 57 56
-132.252 -498.116 -1992 51 55 55
-128.394 -498.822 -1995 52 56 55
-124.4 -499.028 -1996 51 55 55
-120.705 -500.486 -2002 51 55 55
-116.636 -500.446 -2002 52 56 57
-112.737 -501.156 -2005 54 58 59
-108.882 -502.118 -2009 54 58 59
-105.063 -503.331 -2014 52 56 57
-101.224 -504.545 -2019 53 56 57
-97.2704 -505.261 -2022 52 54 56
-93.4893 -506.977 -2029 50 52 54
-89.5485 -507.946 -2033 50 52 54
-85.7603 -509.914 -2041 51 53 55
-81.8603 -511.385 -2047 50 52 52
-77.9745 -513.106 -2054 49 51 50
-73.9533 -514.079 -2058 48 51 49
-70.4251 -518.8 -2077 48 50 50
-67.1392 -526.02 -2106 49 51 51
-291.533 -527.207 -2080 66 72 75
-282.541 -518.489 -2046 56 62 62
-276.141 -514.338 -2030 52 58 57
-271.015 -512.468 -2023 50 56 55
-266.184 -511.108 -2018 49 55 54
-261.506 -510.003 -2014 49 55 54
-256.591 -508.394 -2008 52 58 57
-252.079 -507.545 -2005 53 59 58
-247.706 -506.952 -2003 51 57 56
-243.222 -506.107 -2000 50 56 55
-238.513 -504.758 -1995 50 56 55
-234.062 -503.917 -1992 51 58 54
-228.932 -501.559 -1983 52 59 56
-225.089 -501.986 -1985 51 57 56
-220.571 -500.897 -1981 50 58 56
-216.618 -501.074 -1982 54 61 60
-212.448 -500.747 -1981 58 64 63
-208.284 -500.421 -1980 57 63 62
-203.919 -499.591 -1977 60 66 65
-199.973 -499.774 -1978 54 60 59
-195.827 -499.452 -1977 46 52 51
-191.783 -499.385 -1977 51 57 56
-187.646 -499.066 -1976 53 57 56
-183.7 -499.255 -1977 54 58 57
-179.571 -498.939 -1976 53 57 56
-175.801 -499.635 -1979 51 55 54
-171.935 -500.079 -1981 45 49 48
-167.977 -500.273 -1982 47 51 52
-164.099 -500.72 -1984 49 53 53
-159.972 -500.412 -1983 49 53 52
-155.772 -499.852 -1981 49 53 54
-152.118 -501.061 -1986 50 54 55
-148.146 -501.261 -1987 52 56 57
-143.954 -500.706 -1985 50 56 57
-139.983 -500.909 -1986 52 58 59
-136.214 -501.87 -1990 53 57 58
-132.165 -501.823 -1990 51 55 56
-128.374 -502.787 -1994 52 56 57
-124.443 -503.248 -1996 51 55 56
-120.686 -504.466 -2001 50 54 55
-116.618 -504.425 -2001 51 55 56
-112.664 -504.889 -2003 53 57 58
-109.082 -507.119 -2012 52 56 57
-105.099 -507.586 -2014 52 56 57
-101.309 -509.063 -2020 53 56 58
-97.4482 -510.289 -2025 52 54 56
-93.5214 -511.264 -2029 50 52 54
-89.7556 -513.248 -2037 50 52 54
-86.0839 -515.989 -2048 51 53 55
-82.0084 -516.464 -2050 50 52 52
-78.0773 -517.948 -2056 48 50 50
-74.1585 -519.685 -2063 49 51 51
-70.6867 -524.95 -2084 50 52 52
-292.056 -532.4 -2083 67 73 76
-282.917 -523.354 -2048 57 63 63
-276.374 -518.911 -2031 53 59 58
-271.244 -517.026 -2024 52 58 57
-266.277 -515.399 -2018 50 56 55
-261.467 -514.029 -2013 48 54 53
-256.425 -512.151 -2006 51 57 56
-251.79 -511.041 -2002 53 59 58
-247.669 -510.953 -2002 52 58 57
-243.307 -510.356 -2000 51 57 56
-238.597 -508.996 -1995 49 55 54
-234.026 -507.892 -1991 50 56 54
-229.359 -506.535 -1986 51 57 55
-224.827 -505.435 -1982 49 55 54
-220.314 -504.337 -1978 50 57 55
-216.256 -504.261 -1978 53 61 59
-212.2 -504.186 -1978 55 61 60
-208.251 -504.367 -1979 55 61 60
-203.991 -503.785 -1977 58 64 63
-200.144 -504.224 -1979 53 59 58
-195.994 -503.899 -1978 47 53 53
-191.85 -503.577 -1977 51 57 57
-187.616 -503.001 -1975 54 58 58
-183.672 -503.191 -1976 55 59 60
-179.633 -503.127 -1976 53 57 58
-175.863 -503.829 -1979 50 54 54
-171.908 -504.022 -1980 45 49 50
-168.205 -504.981 -1984 47 51 52
-164.239 -505.177 -1985 50 54 55
-160.27 -505.375 -1986 49 53 52
-156.141 -505.065 -1985 48 52 53
-152.248 -505.52 -1987 51 55 56
-148.198 -505.468 -1987 53 57 59
-144.149 -505.417 -1987 50 55 57
-140.173 -505.622 -1988 52 58 59
-136.33 -506.336 -1991 53 57 58
-132.343 -506.544 -1992 52 56 57
-128.483 -507.261 -1995 52 56 57
-124.486 -507.471 -1996 51 55 56
-120.728 -508.699 -2001 51 55 56
-116.775 -509.167 -2003 51 55 56
-112.928 -510.143 -2007 49 53 55
-109.12 -511.375 -2012 47 51 54
-105.396 -513.117 -2019 48 52 53
-101.445 -513.843 -2022 52 55 56
-97.5301 -514.825 -2026 51 53 55
-93.7383 -516.571 -2033 51 53 55
-89.5221 -516.03 -2031 51 53 55
-85.9036 -519.049 -2043 51 53 55
-81.9968 -520.544 -2049 50 52 52
-78.1803 -522.802 -2058 49 51 51
-74.2202 -524.3 -2064 49 51 51
-70.7452 -529.609 -2085 49 52 52
-292.019 -536.58 -2082 65 71 74
-283.155 -527.974 -2049 57 63 64
-276.336 -522.979 -2030 53 59 58
-271.742 -522.109 -2027 52 58 57
-266.636 -520.21 -2020 50 56 55
-261.82 -518.829 -2015 50 56 55
-256.899 -517.192 -2009 50 56 55
-252.383 -516.329 -2006 51 57 56
-247.633 -514.954 -2001 51 57 56
-243.028 -513.837 -1997 49 55 54
-238.561 -512.98 -1994 49 55 54
-233.874 -511.61 -1989 50 56 55
-229.324 -510.5 -1985 51 57 56
-224.566 -508.876 -1979 49 55 54
-220.28 -508.283 -1977 48 56 54
-216.223 -508.206 -1977 52 59 57
-212.275 -508.387 -1978 54 60 59
-208.325 -508.57 -1979 54 60 59
-204.372 -508.754 -1980 55 61 60
-200.215 -508.425 -1979 51 57 57
-196.063 -508.098 -1978 47 53 53
-191.917 -507.773 -1977 51 57 58
-187.777 -507.449 -1976 55 59 60
-183.829 -507.64 -1977 57 61 62
-179.787 -507.576 -1977 56 60 61
-176.013 -508.283 -1980 50 54 55
-171.968 -508.222 -1980 46 50 51
-168.264 -509.189 -1984 49 53 54
-164.297 -509.387 -1985 51 55 55
-160.246 -509.329 -1985 49 53 53
-156.275 -509.53 -1986 47 51 52
-152.148 -509.219 -1985 49 53 55
-148.25 -509.679 -1987 51 55 58
-144.345 -510.141 -1989 50 56 57
-140.292 -510.091 -1989 51 57 58
-136.309 -510.299 -1990 53 57 58
-132.323 -510.508 -1991 52 56 57
-128.592 -511.744 -1996 51 55 56
-124.592 -511.956 -1997 48 52 53
-120.649 -512.425 -1999 47 51 52
-116.699 -512.896 -2001 47 51 52
-112.967 -514.393 -2007 49 53 56
-109.158 -515.636 -2012 47 51 54
-105.329 -516.879 -2017 47 50 52
-101.581 -518.637 -2024 51 53 56
-97.5644 -519.114 -2026 53 55 58
-93.7711 -520.874 -2033 52 54 56
-89.9062 -522.379 -2039 52 54 56
-86.0177 -523.885 -2045 49 51 53
-82.1856 -525.905 -2053 49 51 52
-78.2457 -527.414 -2059 50 52 53
-74.39 -529.692 -2068 49 51 51
-71.0075 -535.814 -2092 47 50 51
-291.422 -539.721 -2077 63 69 74
-282.703 -531.303 -2045 55 61 64
-276.026 -526.527 -2027 53 59 60
-271.705 -526.169 -2026 51 57 56
-266.731 -524.515 -2020 50 56 55
-261.783 -522.862 -2014 51 57 56
-256.863 -521.212 -2008 50 56 55
-252.221 -520.083 -2004 50 56 55
-247.35 -518.436 -1998 51 57 56
-242.749 -517.311 -1994 48 54 53
-238.527 -516.965 -1993 49 55 54
-233.957 -515.843 -1989 50 56 55
-229.29 -514.464 -1984 51 57 56
-224.646 -513.086 -1979 51 57 56
-220.247 -512.229 -1976 48 56 54
-215.971 -511.633 -1974 50 58 56
-212.35 -512.593 -1978 54 60 59
-208.293 -512.518 -1978 56 62 61
-204.135 -512.185 -1977 56 62 61
-200.184 -512.372 -1978 50 56 57
-196.133 -512.302 -1978 46 51 52
-191.694 -511.197 -1974 52 56 57
-187.654 -511.129 -1974 56 60 61
-183.987 -512.099 -1978 56 60 61
-180.124 -512.552 -1980 54 60 61
-176.254 -513.006 -1982 51 56 57
-172.29 -513.203 -1983 48 52 53
-168.493 -513.918 -1986 50 54 55
-164.52 -514.118 -1987 50 54 55
-160.464 -514.06 -1987 48 52 53
-156.409 -514.004 -1987 47 51 54
-152.508 -514.466 -1989 49 53 56
-148.377 -514.154 -1988 49 53 56
-144.106 -513.326 -1985 50 55 57
-140.271 -514.052 -1988 54 60 61
-136.495 -515.037 -1992 56 60 61
-132.503 -515.247 -1993 54 58 59
-128.573 -515.718 -1995 52 56 57
-124.699 -516.449 -1998 49 53 54
-120.873 -517.439 -2002 48 52 53
-116.857 -517.655 -2003 47 51 52
-113.064 -518.907 -2008 47 51 54
-109.359 -520.676 -2015 45 49 52
-105.471 -521.671 -2019 45 47 49
-101.617 -522.926 -2024 48 50 53
-97.7432 -524.183 -2029 50 52 56
-93.8504 -525.441 -2034 52 54 56
-89.9821 -526.958 -2040 52 54 56
-86.0481 -528.218 -2045 49 51 53
-82.2146 -530.255 -2053 49 51 53
-78.2733 -531.776 -2059 49 51 53
-74.7041 -536.14 -2076 47 49 49
-291.386 -543.893 -2076 63 68 73
-283.082 -536.193 -2047 57 62 65
-276.262 -531.115 -2028 57 63 64
-271.669 -530.23 -2025 56 62 62
-266.695 -528.562 -2019 54 60 60
-262.397 -528.205 -2018 54 60 59
-257.211 -526.017 -2010 50 56 55
-252.311 -524.355 -2004 50 56 55
-247.439 -522.695 -1998 52 58 57
-242.837 -521.56 -1994 49 55 55
-238.492 -520.95 -1992 49 55 55
-233.923 -519.819 -1988 51 57 56
-229.488 -518.951 -1985 51 57 56
-225.294 -518.608 -1984 50 56 55
-220.549 -516.96 -1978 49 57 55
-216.596 -517.142 -1979 50 58 56
-212.749 -517.587 -1981 53 59 58
-208.684 -517.512 -1981 55 61 61
-204.311 -516.654 -1978 55 61 61
-200.155 -516.32 -1977 47 53 54
-196.104 -516.249 -1977 44 49 50
-191.957 -515.918 -1976 52 56 57
-188.006 -516.111 -1977 57 61 62
-184.146 -516.566 -1979 56 60 61
-180.279 -517.022 -1981 55 61 62
-176.317 -517.219 -1982 54 59 60
-172.265 -517.157 -1982 49 53 54
-168.299 -517.357 -1983 48 52 55
-164.496 -518.08 -1986 48 52 54
-160.279 -517.5 -1984 48 52 53
-156.543 -518.486 -1988 47 51 54
-152.409 -518.17 -1987 48 52 55
-148.355 -518.116 -1987 48 52 55
-144.23 -517.803 -1986 48 53 55
-140.251 -518.013 -1987 53 59 60
-136.269 -518.224 -1988 55 59 60
-132.484 -519.218 -1992 53 57 58
-128.554 -519.693 -1994 51 55 56
-124.868 -521.211 -2000 49 53 54
-120.977 -521.949 -2003 49 53 54
-117.191 -523.209 -2008 49 53 56
-113.217 -523.689 -2010 48 52 55
-109.561 -525.733 -2018 45 49 52
-105.613 -526.476 -2021 45 47 51
-101.753 -527.742 -2026 47 49 53
-97.8262 -528.748 -2030 50 52 56
-93.9299 -530.016 -2035 53 55 58
-90.1024 -531.806 -2042 51 53 57
-86.2891 -533.858 -2050 49 51 55
-82.364 -535.39 -2056 50 52 54
-78.4912 -537.445 -2064 49 51 53
-74.9826 -542.365 -2083 48 50 50
-291.633 -548.595 -2077 64 67 73
-283.323 -540.831 -2048 57 61 65
-276.771 -536.24 -2031 53 59 60
-272.17 -535.348 -2028 49 55 56
-267.056 -533.402 -2021 46 52 53
-262.363 -532.25 -2017 47 53 52
-256.664 -528.989 -2005 47 53 52
-252.151 -528.105 -2002 51 57 56
-247.528 -526.959 -1998 53 59 58
-242.925 -525.815 -1994 51 57 57
-238.579 -525.2 -1992 49 55 56
-233.89 -523.796 -1987 50 56 56
-229.687 -523.448 -1986 52 58 57
-225.148 -522.311 -1982 51 57 56
-220.74 -521.439 -1979 49 57 55
-216.455 -520.833 -1977 50 58 56
-212.503 -521.019 -1978 49 55 54
-208.443 -520.943 -1978 53 59 60
-204.385 -520.867 -1978 57 63 64
-200.227 -520.531 -1977 50 56 57
-196.175 -520.459 -1977 45 50 51
-191.929 -519.862 -1975 51 55 56
-188.074 -520.32 -1977 56 60 61
-184.212 -520.778 -1979 55 59 60
-180.435 -521.502 -1982 54 60 61
-176.469 -521.7 -1983 54 59 60
-172.501 -521.9 -1984 49 53 54
-168.529 -522.102 -1985 47 51 54
-164.638 -522.567 -1987 47 51 53
-160.579 -522.509 -1987 46 50 52
-156.678 -522.977 -1989 46 50 53
-152.541 -522.658 -1988 46 50 53
-148.483 -522.604 -1988 47 51 54
-144.5 -522.814 -1989 48 53 55
-140.372 -522.5 -1988 51 57 59
-136.387 -522.712 -1989 54 58 60
-132.398 -522.926 -1990 52 56 58
-128.988 -525.507 -2000 50 54 56
-125.038 -525.987 -2002 47 51 53
-121.141 -526.73 -2005 48 52 54
-117.35 -528.001 -2010 46 50 53
-113.595 -529.535 -2016 44 47 51
-109.763 -530.808 -2021 41 43 47
-105.86 -531.82 -2025 43 45 49
-101.991 -533.095 -2030 46 48 52
-98.1024 -534.372 -2035 50 52 56
-94.1945 -535.65 -2040 54 56 60
-90.2671 -536.93 -2045 54 56 60
-86.3623 -538.474 -2051 52 54 58
-82.4336 -540.018 -2057 50 52 55
-78.6335 -542.615 -2067 50 52 54
-75.1895 -548.099 -2088 48 50 50
-282.873 -544.147 -2044 54 59 62
-276.872 -540.583 -2031 49 55 56
-272.538 -540.216 -2030 46 52 53
-267.418 -538.254 -2023 48 54 54
-262.198 -536.029 -2015 49 55 54
-257.27 -534.337 -2009 49 55 54
-252.243 -532.382 -2002 52 58 57
-247.495 -530.961 -1997 53 59 58
-243.013 -530.074 -1994 53 59 59
-238.666 -529.454 -1992 50 56 57
-234.211 -528.57 -1989 50 56 57
-229.655 -527.422 -1985 53 59 59
-225.344 -526.807 -1983 50 56 55
-220.821 -525.663 -1979 48 56 54
-216.644 -525.317 -1978 48 56 54
-212.688 -525.504 -1979 49 55 54
-208.519 -525.161 -1978 53 59 59
-204.253 -524.555 -1976 58 64 65
-200.3 -524.746 -1977 53 59 60
-196.246 -524.674 -1977 46 51 52
-192.194 -524.603 -1977 50 54 55
-188.238 -524.799 -1978 55 59 60
-184.373 -525.261 -1980 55 59 60
-180.41 -525.46 -1981 53 59 60
-176.355 -525.395 -1981 53 58 59
-172.737 -526.657 -1986 51 55 56
-168.591 -526.33 -1985 49 53 56
-164.698 -526.799 -1987 47 51 54
-160.718 -527.005 -1988 46 50 53
-156.578 -526.682 -1987 44 48 51
-152.596 -526.89 -1988 44 48 51
-148.537 -526.835 -1988 49 53 56
-144.407 -526.517 -1987 50 56 59
-140.423 -526.73 -1988 51 57 60
-136.436 -526.945 -1989 53 57 60
-132.446 -527.161 -1990 53 57 60
-128.647 -528.173 -1994 53 57 60
-125.145 -530.51 -2003 49 53 56
-121.306 -531.525 -2007 49 53 56
-117.567 -533.07 -2013 46 50 53
-113.862 -534.882 -2020 43 46 50
-109.966 -535.9 -2024 40 42 47
-105.95 -536.391 -2026 42 44 48
-101.977 -537.147 -2029 46 48 52
-98.2826 -539.493 -2038 50 52 56
-94.2286 -539.988 -2040 53 55 58
-90.5206 -542.601 -2050 54 56 60
-86.562 -543.892 -2055 53 55 59
-82.7441 -546.243 -2064 51 53 56
-78.8523 -548.331 -2072 51 53 55
-75.649 -555.713 -2100 47 49 49
-290.864 -555.609 -2070 64 67 73
-282.839 -548.256 -2043 57 61 65
-277.383 -545.737 -2034 54 60 61
-272.639 -544.562 -2030 51 57 58
-267.913 -543.389 -2026 51 57 58
-262.685 -541.145 -2018 52 58 57
-257.493 -538.904 -2010 51 57 56
-252.462 -536.933 -2003 54 60 59
-247.71 -535.5 -1998 53 59 58
-243.347 -534.873 -1996 54 60 59
-239.113 -534.516 -1995 52 58 59
-234.297 -532.821 -1989 52 58 59
-229.739 -531.664 -1985 52 58 59
-225.427 -531.044 -1983 50 56 55
-220.79 -529.623 -1978 49 57 55
-216.614 -529.274 -1977 50 58 56
-212.551 -529.195 -1977 53 59 58
-208.596 -529.385 -1978 54 60 60
-204.535 -529.309 -1978 56 62 63
-200.374 -528.967 -1977 52 58 59
-196.417 -529.161 -1978 44 50 51
-192.361 -529.089 -1978 44 48 49
-188.212 -528.752 -1977 51 55 56
-184.161 -528.683 -1977 56 60 61
-180.203 -528.883 -1978 55 61 62
-176.42 -529.62 -1981 53 58 59
-172.453 -529.823 -1982 54 58 59
-168.652 -530.562 -1985 48 52 54
-164.759 -531.035 -1987 47 51 53
-160.858 -531.51 -1989 47 51 52
-156.793 -531.451 -1989 45 48 53
-152.652 -531.127 -1988 44 47 53
-148.517 -530.805 -1987 49 53 56
-144.532 -531.018 -1988 50 56 59
-140.404 -530.699 -1987 49 55 58
-136.555 -531.449 -1990 51 55 58
-132.495 -531.399 -1990 52 56 59
-128.759 -532.687 -1995 53 57 60
-125.004 -533.975 -2000 50 54 57
-121.471 -536.333 -2009 47 51 54
-117.493 -536.823 -2011 46 50 53
-113.904 -539.183 -2020 44 46 51
-109.952 -539.942 -2023 42 44 50
-106.094 -541.237 -2028 41 43 47
-102.316 -543.067 -2035 43 45 49
-98.3667 -544.097 -2039 47 49 53
-94.4941 -545.663 -2045 51 53 56
-90.6419 -547.497 -2052 52 54 57
-86.6356 -548.532 -2056 50 52 56
-82.8946 -551.435 -2067 50 52 56
-79.2236 -555.14 -2081 49 51 54
-283.221 -553.177 -2045 57 61 65
-277.623 -550.367 -2035 53 59 61
-272.606 -548.642 -2029 52 58 59
-268.013 -547.73 -2026 52 58 58
-263.174 -546.279 -2021 52 58 57
-257.333 -542.668 -2008 53 59 58
-252.556 -541.222 -2003 52 58 57
-247.926 -540.048 -1999 51 57 57
-243.559 -539.416 -1997 53 59 60
-239.202 -538.786 -1995 53 59 60
-234.62 -537.617 -1991 51 57 58
-230.172 -536.72 -1988 52 58 59
-225.738 -535.826 -1985 50 56 56
-221.095 -534.393 -1980 49 56 55
-216.913 -534.042 -1979 52 59 58
-212.63 -533.422 -1977 53 59 58
-208.462 -533.074 -1976 54 59 59
-204.403 -532.997 -1976 54 59 60
-200.347 -532.922 -1976 52 57 58
-196.192 -532.578 -1975 45 50 51
-192.335 -533.045 -1977 42 46 47
-188.377 -533.244 -1978 49 54 55
-184.322 -533.175 -1978 54 59 61
-180.178 -532.838 -1977 53 59 60
-176.485 -533.849 -1981 52 57 59
-172.69 -534.593 -1984 52 57 59
-168.8 -535.069 -1986 49 53 55
-164.902 -535.546 -1988 49 53 55
-160.917 -535.755 -1989 48 52 55
-156.929 -535.965 -1990 46 49 54
-152.555 -534.83 -1986 46 49 54
-148.721 -535.582 -1989 49 52 56
-144.658 -535.528 -1989 49 53 57
-140.597 -535.475 -1989 49 54 57
-136.674 -535.962 -1991 50 54 57
-132.744 -536.45 -1993 52 56 59
-129 -537.748 -1998 53 57 60
-125.175 -538.777 -2002 49 53 56
-121.637 -541.154 -2011 45 49 52
-117.946 -542.993 -2018 43 47 50
-114.228 -544.833 -2025 41 44 48
-110.264 -545.599 -2028 41 43 48
-106.447 -547.173 -2034 40 42 47
-102.505 -548.21 -2038 43 45 50
-98.5959 -549.518 -2043 46 48 52
-94.6213 -550.558 -2047 52 54 58
-90.7194 -552.138 -2053 51 53 57
-86.5411 -552.105 -2053 49 51 56
-82.885 -555.57 -2066 52 53 56
-79.4051 -560.649 -2085 50 51 54
-282.774 -556.476 -2041 54 59 64
-277.864 -555.007 -2036 52 58 61
-272.708 -552.995 -2029 51 57 59
-268.643 -553.166 -2030 51 57 58
-263.012 -550.068 -2019 52 58 57
-258.455 -549.153 -2016 54 60 60
-253.029 -546.333 -2006 52 58 59
-248.143 -544.605 -2000 50 58 58
-243.65 -543.696 -1997 52 59 59
-239.052 -542.516 -1993 52 58 59
-234.826 -542.154 -1992 51 57 58
-230.026 -540.434 -1986 51 57 58
-225.481 -539.26 -1982 50 56 57
-221.178 -538.632 -1980 50 55 55
-216.885 -538.006 -1978 52 56 55
-212.602 -537.382 -1976 51 55 54
-208.54 -537.302 -1976 54 58 58
-204.48 -537.225 -1976 56 60 61
-200.421 -537.149 -1976 55 59 60
-196.365 -537.075 -1976 48 52 53
-192.407 -537.274 -1977 46 50 51
-188.351 -537.202 -1977 48 53 56
-184.298 -537.133 -1977 49 55 58
-180.337 -537.336 -1978 50 56 57
-176.64 -538.356 -1982 50 56 58
-172.581 -538.29 -1982 48 54 57
-168.778 -539.041 -1985 48 52 55
-164.964 -539.793 -1988 49 53 57
-160.977 -540.004 -1989 49 52 58
-156.909 -539.944 -1989 47 51 55
-152.688 -539.344 -1987 46 50 53
-148.777 -539.83 -1989 47 50 56
-144.639 -539.504 -1988 48 51 56
-140.649 -539.722 -1989 49 53 56
-136.931 -541.027 -1994 51 55 58
-132.926 -541.248 -1995 52 56 59
-129.177 -542.555 -2000 52 56 59
-125.221 -543.05 -2002 50 54 57
-121.803 -545.988 -2013 47 51 54
-117.931 -547.028 -2017 43 47 50
-114.101 -548.341 -2022 43 47 50
-110.36 -550.197 -2029 43 47 50
-106.643 -552.326 -2037 41 43 49
-102.593 -552.829 -2039 42 44 49
-98.6326 -553.876 -2043 45 47 51
-94.7027 -555.196 -2048 48 51 57
-90.6648 -555.974 -2051 47 50 56
-86.6154 -556.754 -2054 50 52 58
-82.9157 -559.975 -2066 50 51 54
-79.7013 -566.992 -2092 53 53 55
-282.188 -559.487 -2036 56 62 66
-277.15 -557.732 -2030 52 58 61
-272.542 -556.804 -2027 50 56 57
-268.347 -556.701 -2027 52 58 59
-263.242 -554.678 -2020 52 58 58
-258.296 -552.931 -2014 52 58 59
-253.125 -550.638 -2006 51 57 58
-248.237 -548.896 -2000 48 56 56
-243.498 -547.431 -1995 50 57 58
-239.022 -546.516 -1992 51 57 58
-234.56 -545.603 -1989 52 58 59
-230.345 -545.241 -1988 52 58 59
-226.135 -544.88 -1987 53 59 60
-221.708 -543.973 -1984 52 57 56
-217.076 -542.519 -1979 52 56 55
-212.79 -541.89 -1977 49 53 53
-208.619 -541.536 -1976 53 57 58
-204.35 -540.91 -1974 56 60 61
-200.395 -541.107 -1975 56 60 61
-196.24 -540.758 -1974 50 54 55
-192.479 -541.507 -1977 48 52 53
-188.422 -541.435 -1977 49 54 57
-184.647 -542.186 -1980 49 55 58
-180.496 -541.843 -1979 50 56 57
-176.617 -542.323 -1981 50 56 58
-172.645 -542.531 -1982 48 54 57
-168.756 -543.014 -1984 47 51 54
-165.026 -544.046 -1988 48 52 55
-160.876 -543.711 -1987 48 51 55
-156.731 -543.377 -1986 47 51 54
-152.669 -543.319 -1986 46 50 53
-148.832 -544.083 -1989 45 48 54
-144.694 -543.754 -1988 46 50 54
-140.702 -543.974 -1989 47 51 54
-136.844 -544.742 -1992 49 53 56
-132.976 -545.512 -1995 53 57 60
-129.161 -546.556 -1999 54 58 61
-125.456 -548.148 -2005 54 58 61
-121.97 -550.835 -2015 50 54 57
-118.034 -551.61 -2018 45 49 52
-114.369 -553.753 -2026 42 46 49
-110.564 -555.351 -2032 41 45 48
-106.893 -557.77 -2041 42 44 50
-102.833 -558.277 -2043 42 44 49
-98.7661 -558.785 -2045 44 46 50
-94.6918 -559.296 -2047 49 51 57
-90.8314 -561.173 -2054 47 49 55
-86.69 -561.413 -2055 50 52 58
-83.1475 -565.752 -2071 51 51 54
-80.1503 -574.463 -2103 53 53 55
-290.037 -570.902 -2061 59 65 70
-282.296 -563.867 -2036 56 62 66
-277.119 -561.822 -2029 52 58 61
-272.108 -560.055 -2023 51 57 58
-268.449 -561.059 -2027 55 61 62
-262.951 -558.19 -2017 54 60 61
-258.523 -557.537 -2015 52 58 59
-253.347 -555.225 -2007 52 58 59
-247.959 -552.363 -1997 48 56 56
-243.469 -551.439 -1994 50 57 57
-238.873 -550.241 -1990 51 57 58
-234.65 -549.874 -1989 54 60 61
-230.548 -549.785 -1989 56 62 63
-226.563 -549.974 -1990 54 60 61
-221.904 -548.507 -1985 51 56 56
-217.707 -548.147 -1984 52 56 55
-213.194 -546.96 -1980 52 56 57
-208.803 -546.05 -1977 57 61 62
-204.531 -545.419 -1975 59 63 64
-200.471 -545.342 -1975 59 63 64
-196.414 -545.266 -1975 52 56 57
-192.455 -545.469 -1976 51 55 56
-188.494 -545.672 -1977 51 56 59
-184.53 -545.877 -1978 52 58 61
-180.564 -546.083 -1979 51 57 58
-176.595 -546.291 -1980 49 55 57
-172.885 -547.328 -1984 48 54 57
-168.905 -547.539 -1985 50 54 57
-165.088 -548.303 -1988 47 51 54
-161.18 -548.793 -1990 46 50 53
-157.027 -548.457 -1989 46 50 53
-153.111 -548.949 -1991 45 49 52
-149.038 -548.892 -1991 45 48 53
-144.894 -548.56 -1990 45 49 53
-140.826 -548.506 -1990 46 50 53
-136.965 -549.28 -1993 50 54 57
-132.893 -549.229 -1993 52 56 59
-129.274 -551.108 -2000 53 57 60
-125.566 -552.713 -2006 55 59 62
-122.076 -555.421 -2016 52 56 59
-118.254 -556.753 -2021 45 49 52
-114.469 -558.362 -2027 42 46 49
-110.606 -559.696 -2032 39 43 46
-106.776 -561.308 -2038 39 41 47
-102.872 -562.645 -2043 39 41 46
-98.9 -563.709 -2047 43 45 49
-94.7739 -563.947 -2048 46 48 54
-90.954 -566.115 -2056 49 51 57
-86.8493 -566.632 -2058 51 53 58
-83.46 -572.106 -2078 51 52 56
-80.7525 -583.087 -2118 49 50 53
-282.543 -568.532 -2037 57 61 66
-277.089 -565.912 -2028 54 60 63
-271.944 -563.852 -2021 52 58 59
-267.625 -563.469 -2020 54 60 61
-263.313 -563.088 -2019 52 58 59
-257.98 -560.477 -2010 52 58 59
-252.94 -558.427 -2003 54 60 61
-248.427 -557.494 -2000 50 58 58
-243.074 -554.612 -1990 50 57 58
-238.484 -553.405 -1986 51 57 58
-234.74 -554.15 -1989 54 60 61
-230.637 -554.06 -1989 58 64 65
-226.536 -553.972 -1989 54 60 61
-222.101 -553.05 -1986 51 56 55
-217.901 -552.687 -1985 52 56 55
-213.167 -550.934 -1979 50 54 55
-208.989 -550.574 -1978 52 56 57
-204.506 -549.381 -1974 55 59 60
-200.65 -549.86 -1976 58 62 63
-196.588 -549.784 -1976 53 57 58
-192.821 -550.544 -1979 51 55 56
-188.757 -550.47 -1979 51 57 59
-184.787 -550.677 -1980 53 59 62
-180.724 -550.607 -1980 50 56 57
-176.752 -550.816 -1981 48 54 56
-173.038 -551.861 -1985 50 56 59
-169.055 -552.073 -1986 51 55 58
-165.234 -552.843 -1989 48 52 55
-161.403 -553.615 -1992 46 50 53
-157.087 -552.72 -1989 46 50 53
-153.323 -553.772 -1993 45 49 52
-149.17 -553.436 -1992 44 48 51
-145.022 -553.102 -1991 46 50 53
-140.738 -552.214 -1988 47 51 54
-137.086 -553.827 -1994 48 52 55
-133.01 -553.776 -1994 50 54 57
-129.388 -555.669 -2001 52 56 59
-125.676 -557.286 -2007 54 58 61
-122.244 -560.294 -2018 53 57 60
-118.533 -562.191 -2025 46 50 53
-114.851 -564.367 -2033 41 45 48
-110.866 -565.157 -2036 39 43 46
-107.131 -567.336 -2044 39 41 47
-102.911 -567.018 -2043 39 41 46
-99.0826 -568.922 -2050 40 42 46
-94.9025 -568.885 -2050 43 45 51
-90.9886 -570.515 -2056 50 52 57
-87.009 -571.868 -2061 52 54 58
-83.773 -578.494 -2085 50 52 56
-292.092 -583.443 -2074 62 65 71
-282.93 -573.486 -2039 57 61 65
-277.06 -570.002 -2027 53 59 62
-272.049 -568.208 -2021 52 58 60
-267.464 -567.26 -2018 52 58 59
-262.371 -565.189 -2011 49 55 56
-257.695 -563.964 -2007 50 56 57
-252.532 -561.617 -1999 52 58 59
-247.529 -559.553 -1992 49 57 57
-242.801 -558.054 -1987 48 56 56
-238.817 -558.241 -1988 51 57 58
-234.948 -558.711 -1990 52 58 59
-230.494 -557.778 -1987 53 59 60
-226.623 -558.251 -1989 53 59 60
-221.963 -556.761 -1984 51 56 57
-217.655 -556.114 -1982 54 58 58
-213.25 -555.189 -1979 54 58 59
-209.175 -555.107 -1979 56 60 61
-204.792 -554.185 -1976 57 61 62
-200.829 -554.387 -1977 57 61 62
-196.963 -554.871 -1979 53 57 58
-192.895 -554.795 -1979 48 52 53
-188.925 -555.002 -1980 49 55 57
-184.672 -554.369 -1978 51 57 60
-180.885 -555.139 -1981 49 55 58
-176.909 -555.35 -1982 47 53 56
-173.018 -555.843 -1984 48 54 57
-169.205 -556.617 -1987 52 56 58
-165.381 -557.393 -1990 49 53 55
-161.465 -557.89 -1992 46 50 53
-157.306 -557.548 -1991 46 50 53
-153.536 -558.608 -1995 45 49 52
-149.302 -557.99 -1993 45 49 52
-145.224 -557.933 -1993 46 50 53
-140.863 -556.758 -1989 46 50 53
-137.139 -558.104 -1994 48 52 55
-132.995 -557.772 -1993 50 54 57
-129.438 -559.96 -2001 51 55 58
-125.411 -560.191 -2002 51 55 58
-122.048 -563.501 -2014 54 58 61
-118.462 -565.972 -2023 48 52 55
-114.557 -567.047 -2027 42 46 49
-110.854 -569.241 -2035 40 44 47
-106.962 -570.598 -2040 39 41 46
-103.001 -571.676 -2044 38 40 44
-99.0723 -573.035 -2049 41 43 47
-95.0315 -573.837 -2052 44 47 51
-91.1121 -575.479 -2058 45 48 52
-87.2957 -577.961 -2067 50 52 56
-84.3678 -586.875 -2099 52 54 58
-292.488 -588.488 -2076 58 62 66
-283.041 -577.888 -2039 56 61 64
-277.031 -574.094 -2026 52 58 61
-271.752 -571.72 -2018 52 58 60
-267.038 -570.481 -2014 51 57 58
-262.082 -568.678 -2008 49 55 56
-257.025 -566.593 -2001 49 55 56
-252.757 -566.21 -2000 51 57 58
-247.501 -563.565 -1991 50 57 58
-243.751 -564.317 -1994 50 57 57
-239.03 -562.808 -1989 51 57 58
-235.04 -562.998 -1990 52 58 59
-230.352 -561.493 -1985 51 57 58
-226.37 -561.686 -1986 50 56 57
-222.05 -561.033 -1984 53 58 59
-217.74 -560.381 -1982 54 58 59
-213.333 -559.449 -1979 54 58 59
-209.257 -559.366 -1979 55 59 60
-204.871 -558.438 -1976 56 60 61
-200.907 -558.641 -1977 56 60 61
-196.94 -558.846 -1978 53 57 58
-192.97 -559.052 -1979 48 52 53
-188.712 -558.413 -1977 49 54 56
-184.93 -559.187 -1980 51 56 59
-180.773 -558.833 -1979 52 58 61
-176.71 -558.764 -1979 51 56 59
-173.085 -560.107 -1984 48 54 57
-169.441 -561.452 -1989 53 57 58
-165.611 -562.234 -1992 50 54 55
-161.69 -562.734 -1994 47 51 54
-157.604 -562.672 -1994 46 50 53
-153.596 -562.894 -1995 43 47 50
-149.36 -562.27 -1993 43 47 50
-145.28 -562.213 -1993 44 48 51
-141.13 -561.875 -1992 45 49 52
-137.192 -562.385 -1994 46 50 53
-133.246 -562.897 -1996 47 51 54
-129.359 -563.692 -1999 50 54 57
-125.648 -565.334 -2005 53 57 60
-121.914 -566.978 -2011 56 60 63
-118.097 -568.341 -2016 51 55 58
-114.544 -571.114 -2026 44 48 51
-110.842 -573.326 -2034 41 45 48
-107.056 -575.257 -2041 38 40 44
-103.192 -576.907 -2047 38 40 44
-99.2073 -577.995 -2051 40 42 46
-95.2535 -579.366 -2056 41 45 48
-91.3245 -581.02 -2062 44 48 51
-87.6675 -584.649 -2075 51 53 57
-84.883 -594.758 -2111 52 54 59
-292.885 -593.547 -2078 59 64 67
-283.291 -582.58 -2040 54 59 62
-277.277 -578.757 -2027 54 60 63
-271.724 -575.794 -2017 52 58 61
-266.878 -574.26 -2012 51 57 60
-262.055 -572.728 -2007 50 56 57
-256.869 -570.343 -1999 48 54 55
-252.224 -569.101 -1995 49 55 56
-247.474 -567.576 -1990 50 56 57
-243.847 -568.62 -1994 51 57 58
-239.364 -567.669 -1991 53 59 60
-235.487 -568.146 -1993 53 59 60
-230.79 -566.629 -1988 50 56 57
-226.231 -565.399 -1984 50 55 56
-221.801 -564.455 -1981 52 57 58
-217.716 -564.369 -1981 53 57 58
-213.416 -563.714 -1979 53 57 58
-209.233 -563.346 -1978 53 57 58
-204.952 -562.695 -1976 53 57 58
-200.884 -562.615 -1976 53 57 58
-196.917 -562.821 -1977 52 56 57
-192.753 -562.46 -1976 47 51 52
-188.881 -562.954 -1978 49 53 55
-184.909 -563.165 -1979 51 55 58
-180.935 -563.378 -1980 51 55 58
-177.047 -563.877 -1982 51 55 58
-173.327 -564.946 -1986 51 55 58
-169.763 -566.585 -1992 49 53 54
-165.926 -567.372 -1995 47 51 53
-161.916 -567.592 -1996 47 51 54
-157.745 -567.245 -1995 45 49 52
-153.656 -567.184 -1995 45 49 52
-149.793 -567.978 -1998 43 47 50
-145.483 -567.067 -1995 43 47 50
-141.398 -567.011 -1995 45 49 52
-137.452 -567.524 -1997 46 50 53
-133.298 -567.187 -1996 44 48 51
-129.28 -567.42 -1997 45 49 52
-125.509 -568.79 -2002 50 54 57
-121.658 -569.878 -2006 56 60 63
-118.085 -572.388 -2015 53 57 60
-114.419 -574.615 -2023 44 48 51
-110.831 -577.411 -2033 39 43 46
-107.203 -580.209 -2043 37 39 43
-103.434 -582.439 -2051 37 39 43
-99.3428 -582.968 -2053 39 41 45
-95.4761 -584.917 -2060 43 46 49
-91.4486 -586.016 -2064 46 49 52
-88.1242 -591.943 -2085 49 51 55
-293.002 -598.045 -2078 60 64 68
-282.987 -586.131 -2037 53 57 60
-277.114 -582.567 -2025 52 58 61
-271.967 -580.444 -2018 52 58 61
-267.117 -578.898 -2013 52 58 61
-262.289 -577.355 -2008 50 56 58
-257.357 -575.527 -2002 49 55 57
-252.83 -574.563 -1999 49 55 56
-247.945 -572.738 -1993 50 56 57
-244.311 -573.79 -1997 53 59 60
-239.58 -572.257 -1992 54 60 61
-235.817 -573.024 -1995 51 57 58
-230.417 -569.772 -1984 50 56 57
-226.092 -569.107 -1982 51 55 56
-221.665 -568.157 -1979 50 55 56
-217.802 -568.644 -1981 51 55 56
-213.609 -568.271 -1980 51 55 56
-209.104 -567.039 -1976 52 56 57
-205.033 -566.957 -1976 52 56 57
-200.76 -566.303 -1974 52 56 57
-196.796 -566.511 -1975 51 55 56
-192.829 -566.72 -1976 45 50 51
-188.86 -566.932 -1977 47 52 54
-184.889 -567.144 -1978 50 54 57
-180.915 -567.359 -1979 47 51 54
-177.296 -568.721 -1984 48 52 55
-173.396 -569.225 -1986 49 53 56
-169.744 -570.59 -1991 46 50 52
-166.074 -571.956 -1996 45 49 50
-161.979 -571.891 -1996 47 51 54
-157.807 -571.542 -1995 46 50 53
-153.793 -571.766 -1996 47 51 54
-149.777 -571.993 -1997 48 52 55
-145.686 -571.934 -1997 45 49 52
-141.595 -571.878 -1997 47 51 54
-137.575 -572.109 -1998 47 51 54
-133.551 -572.341 -1999 44 48 51
-129.59 -572.862 -2001 43 47 50
-125.558 -573.098 -2002 46 50 53
-121.767 -574.48 -2007 54 58 61
-118.073 -576.437 -2014 51 55 58
-114.408 -578.68 -2022 44 48 51
-110.984 -582.356 -2035 39 43 46
-107.245 -584.602 -2043 36 38 42
-103.525 -587.136 -2052 36 38 42
-99.527 -588.24 -2056 38 40 44
-95.6063 -589.919 -2062 41 43 46
-91.7948 -592.456 -2071 45 47 50
-88.4548 -598.428 -2092 47 49 53
-293.542 -603.418 -2081 60 65 68
-283.239 -590.834 -2038 54 59 62
-277.362 -587.243 -2026 52 58 61
-272.076 -584.814 -2018 50 56 59
-267.356 -583.546 -2014 51 57 60
-262.394 -581.702 -2008 50 56 59
-257.331 -579.57 -2001 50 56 58
-252.805 -578.598 -1998 49 55 56
-248.293 -577.629 -1995 50 56 57
-244.286 -577.82 -1996 54 60 61
-240.397 -578.302 -1998 54 60 61
-235.911 -577.338 -1995 49 55 56
-231.322 -576.087 -1991 50 56 57
-226.296 -573.681 -1983 52 56 57
-221.641 -572.144 -1978 51 55 56
-217.339 -571.478 -1976 52 56 57
-213.262 -571.392 -1976 51 55 56
-209.082 -571.018 -1975 51 55 56
-205.115 -571.225 -1976 52 56 57
-200.941 -570.854 -1975 52 56 58
-196.874 -570.775 -1975 51 55 57
-192.808 -570.697 -1975 44 50 51
-188.84 -570.91 -1976 46 50 53
-184.775 -570.835 -1976 50 54 57
-180.895 -571.34 -1978 47 51 54
-177.366 -573.001 -1984 47 51 54
-173.464 -573.509 -1986 49 53 56
-169.812 -574.884 -1991 49 53 54
-165.891 -575.395 -1993 43 47 48
-162.044 -576.195 -1996 44 48 51
-157.948 -576.131 -1996 47 51 54
-153.932 -576.358 -1997 47 51 54
-149.912 -576.586 -1998 48 52 55
-145.889 -576.815 -1999 46 50 53
-141.793 -576.758 -1999 47 51 54
-137.836 -577.28 -2001 46 50 53
-133.805 -577.514 -2002 47 51 54
-129.641 -577.173 -2001 48 52 55
-125.671 -577.699 -2003 47 51 54
-121.754 -578.515 -2006 52 56 59
-118.119 -580.774 -2014 51 55 58
-114.566 -583.612 -2024 45 49 52
-111.028 -586.738 -2035 40 44 46
-107.393 -589.578 -2045 36 38 41
-103.566 -591.554 -2052 35 37 40
-99.6633 -593.243 -2058 37 39 43
-95.6905 -594.646 -2063 42 44 46
-91.9642 -597.779 -2074 41 43 45
-88.8705 -605.525 -2101 43 45 49
-292.955 -606.472 -2076 60 65 69
-283.91 -596.423 -2042 55 59 62
-277.611 -591.928 -2027 52 58 61
-272.725 -590.357 -2022 50 56 59
-267.597 -588.204 -2015 50 56 59
-263.154 -587.513 -2013 50 56 59
-258.335 -585.948 -2008 49 55 57
-253.287 -583.802 -2001 49 55 56
-248.518 -582.242 -1996 49 55 56
-244.507 -582.434 -1997 53 59 60
-239.892 -581.17 -1993 53 59 60
-235.769 -581.073 -1993 50 56 57
-230.951 -579.23 -1987 51 57 58
-226.501 -578.263 -1984 53 57 58
-222.067 -577.298 -1981 52 56 57
-217.756 -576.627 -1979 52 56 57
-213.996 -577.414 -1982 51 55 56
-209.377 -575.872 -1977 51 55 56
-205.508 -576.371 -1979 53 57 58
-201.226 -575.706 -1977 54 58 60
-197.053 -575.335 -1976 52 56 59
-192.886 -574.965 -1975 46 52 53
-188.82 -574.888 -1975 46 51 53
-184.756 -574.813 -1975 49 53 56
-180.876 -575.322 -1977 49 53 56
-177.258 -576.705 -1982 48 52 55
-173.534 -577.798 -1986 49 53 56
-169.88 -579.183 -1991 49 53 54
-166.124 -580.279 -1995 44 48 49
-162.271 -581.086 -1998 45 49 52
-158.091 -580.731 -1997 47 51 54
-154.225 -581.54 -2000 45 49 52
-150.197 -581.77 -2001 45 49 52
-146.167 -582.001 -2002 46 50 53
-141.992 -581.652 -2001 47 51 54
-138.098 -582.468 -2004 46 50 53
-133.992 -582.414 -2004 48 52 55
-129.823 -582.07 -2003 48 52 55
-125.847 -582.6 -2005 48 52 55
-121.985 -583.712 -2009 52 56 59
-118.167 -585.117 -2014 52 56 59
-114.838 -589.137 -2028 46 50 52
-111.236 -591.997 -2038 41 45 46
-107.593 -594.858 -2048 36 38 40
-103.658 -596.268 -2053 35 37 40
-99.8 -598.26 -2060 37 39 43
-95.8216 -599.673 -2065 41 43 45
-92.3558 -604.572 -2082 40 42 45
-292.933 -610.687 -2075 62 66 70
-283.469 -599.68 -2038 55 59 62
-277.724 -596.33 -2027 51 57 60
-272.701 -594.452 -2021 51 57 60
-267.706 -592.577 -2015 50 56 59
-263.13 -591.587 -2012 49 55 58
-258.311 -590.01 -2007 49 55 57
-253.389 -588.142 -2001 49 55 56
-248.744 -586.864 -1997 50 56 57
-244.606 -586.764 -1997 50 56 57
-240.23 -586.077 -1995 50 56 57
-235.983 -585.687 -1994 52 58 59
-231.626 -585.004 -1992 52 58 59
-226.707 -582.855 -1985 53 57 58
-222.493 -582.47 -1984 53 57 58
-217.954 -581.207 -1980 51 55 56
-213.758 -580.826 -1979 50 54 55
-209.356 -579.859 -1976 51 55 56
-205.592 -580.655 -1979 52 56 57
-201.307 -579.985 -1977 53 57 59
-197.033 -579.318 -1975 52 56 59
-193.061 -579.532 -1976 47 53 55
-188.896 -579.161 -1975 47 52 55
-184.831 -579.086 -1975 50 54 57
-180.949 -579.598 -1977 52 56 59
-177.419 -581.284 -1983 50 54 57
-173.429 -581.506 -1984 49 53 56
-169.863 -583.195 -1990 52 56 57
-166.191 -584.592 -1995 50 54 55
-162.336 -585.404 -1998 50 54 57
-158.075 -584.754 -1996 49 53 56
-154.287 -585.862 -2000 47 51 54
-150.408 -586.679 -2003 45 49 52
-146.299 -586.619 -2003 45 49 52
-142.262 -586.854 -2004 45 49 52
-138.291 -587.382 -2006 45 49 52
-134.113 -587.035 -2005 47 51 54
-130.069 -587.274 -2006 48 52 55
-126.023 -587.515 -2007 49 53 56
-122.156 -588.635 -2011 52 56 59
-118.625 -591.514 -2021 53 57 60
-114.998 -594.101 -2030 46 50 52
-111.554 -597.859 -2043 41 45 46
-107.899 -600.741 -2053 37 39 41
-103.952 -602.161 -2058 37 39 41
-99.8401 -602.706 -2060 37 39 43
-95.7673 -603.544 -2063 38 40 42
-92.5261 -609.942 -2085 40 43 45
-292.63 -614.31 -2072 61 67 71
-283.724 -604.408 -2039 55 60 63
-277.7 -600.44 -2026 51 57 60
-272.813 -598.845 -2021 52 58 61
-267.682 -596.659 -2014 51 57 61
-263.107 -595.662 -2011 50 56 58
-258.288 -594.074 -2006 50 56 57
-253.873 -593.376 -2004 49 55 56
-248.97 -591.497 -1998 49 55 56
-244.706 -591.099 -1997 49 55 56
-240.329 -590.408 -1995 49 55 56
-235.843 -589.422 -1992 51 57 58
-231.837 -589.622 -1993 53 59 60
-226.914 -587.457 -1986 55 59 60
-222.584 -586.774 -1984 52 56 57
-218.374 -586.387 -1983 50 54 55
-214.17 -586.003 -1982 49 53 54
-209.653 -584.734 -1978 51 55 56
-205.675 -584.944 -1979 51 55 56
-201.491 -584.565 -1978 50 54 56
-197.313 -584.188 -1977 50 54 56
-193.14 -583.813 -1976 48 52 55
-189.069 -583.735 -1976 47 51 53
-184.906 -583.363 -1975 51 55 57
-180.932 -583.584 -1976 53 57 60
-177.402 -585.282 -1982 51 55 58
-173.5 -585.801 -1984 50 55 59
-169.847 -587.207 -1989 52 55 57
-166.175 -588.615 -1994 50 52 54
-162.321 -589.433 -1997 48 52 55
-158.377 -589.958 -1999 48 52 55
-154.658 -591.37 -2004 47 51 54
-150.694 -591.897 -2006 46 48 52
-146.578 -591.837 -2006 45 48 51
-142.462 -591.778 -2006 43 47 50
-138.485 -592.311 -2008 43 47 50
-134.368 -592.255 -2008 43 47 50
-130.187 -591.906 -2007 46 50 53
-126.011 -591.559 -2006 49 53 56
-122.084 -592.393 -2009 50 54 57
-118.556 -595.293 -2019 53 57 58
-115.045 -598.488 -2030 47 51 52
-111.599 -602.275 -2043 40 44 45
-107.995 -605.473 -2054 38 40 43
-104.095 -607.198 -2060 37 39 42
-100.075 -608.335 -2064 37 39 43
-96.1776 -610.359 -2071 40 41 45
-92.9631 -617.098 -2094 43 44 48
-292.468 -618.224 -2070 58 64 68
-284.12 -609.445 -2041 52 58 61
-277.952 -605.148 -2027 51 57 60
-273.196 -603.84 -2023 51 57 61
-268.059 -601.638 -2016 50 56 61
-263.084 -599.738 -2010 49 55 56
-258.524 -598.735 -2007 49 55 56
-253.851 -597.435 -2003 50 56 57
-249.197 -596.138 -1999 50 56 57
-244.93 -595.738 -1998 49 55 56
-240.789 -595.637 -1998 49 55 56
-235.821 -593.452 -1991 50 56 57
-231.816 -593.654 -1992 51 57 58
-227.122 -592.069 -1987 53 57 58
-222.9 -591.678 -1986 51 55 56
-218.353 -590.395 -1982 50 54 55
-214.042 -589.71 -1980 49 53 54
-209.74 -589.027 -1978 52 56 57
-205.552 -588.644 -1977 53 57 58
-201.472 -588.56 -1977 52 56 57
-197.294 -588.18 -1976 50 54 55
-193.219 -588.099 -1976 49 51 55
-189.051 -587.723 -1975 48 51 53
-184.888 -587.348 -1974 50 54 55
-181.006 -587.868 -1976 53 57 60
-177.385 -589.281 -1981 51 55 59
-173.571 -590.101 -1984 50 56 60
-170.002 -591.815 -1990 51 54 56
-166.493 -593.828 -1997 50 52 54
-162.469 -594.057 -1998 48 52 55
-158.442 -594.289 -1999 49 53 56
-154.722 -595.711 -2004 47 51 54
-150.831 -596.54 -2007 46 48 52
-146.711 -596.478 -2007 45 48 51
-142.591 -596.419 -2007 44 48 51
-138.611 -596.956 -2009 44 48 51
-134.423 -596.602 -2008 43 47 50
-130.24 -596.251 -2007 45 49 52
-126.188 -596.495 -2008 48 52 55
-122.377 -597.929 -2013 50 54 57
-118.604 -599.662 -2019 54 58 59
-115.318 -604.069 -2034 48 52 53
-111.918 -608.18 -2048 40 44 45
-108.145 -610.511 -2056 39 41 45
-104.239 -612.249 -2062 37 39 43
-100.212 -613.394 -2066 38 40 44
-96.3562 -615.729 -2074 40 40 46
-291.459 -620.33 -2062 54 61 65
-283.96 -613.292 -2039 52 58 61
-277.931 -609.264 -2026 52 58 61
-273.174 -607.946 -2022 51 57 60
-268.17 -606.03 -2016 50 56 61
-263.587 -605.017 -2013 50 56 57
