ply
format ascii 1.0
comment Created by Open3D
element vertex 1433
property double x
property double y
property double z
property uchar red
property uchar green
property uchar blue
end_header
-556.188 49.5877 -2095 253 230 216
-552.787 49.6643 -2099 254 233 219
-548.068 49.6227 -2098 255 236 223
-544.393 49.6758 -2101 255 240 227
-539.683 49.6346 -2100 255 239 226
-535.492 49.6407 -2101 254 238 225
-531.301 49.647 -2102 254 237 224
-526.86 49.6298 -2102 254 237 224
-523.666 49.7309 -2107 253 235 222
-517.991 49.5959 -2102 253 232 220
-513.808 49.6028 -2103 254 231 219
-508.656 49.5155 -2100 253 228 215
-504.722 49.5462 -2102 252 227 214
-500.307 49.5301 -2102 253 226 213
-496.605 49.5845 -2105 250 224 211
-491.959 49.5451 -2104 247 221 207
-487.785 49.5528 -2105 249 218 203
-483.611 49.5608 -2106 247 216 201
-479.209 49.5452 -2106 244 213 199
-475.037 49.5534 -2107 242 211 197
-471.759 49.6557 -2112 240 209 195
-467.136 49.6171 -2111 239 208 193
-463.397 49.6727 -2114 237 207 193
-459.216 49.6813 -2115 233 205 191
-455.25 49.7136 -2117 230 202 189
-451.066 49.7225 -2118 228 200 188
-447.093 49.755 -2120 226 199 188
-442.698 49.7408 -2120 225 198 186
-438.307 49.7266 -2120 222 195 183
-434.328 49.7596 -2122 217 193 179
-430.143 49.7692 -2123 213 191 177
-426.157 49.8024 -2125 210 188 174
-421.77 49.7889 -2125 209 187 174
-417.779 49.8223 -2127 207 186 172
-413.783 49.8559 -2129 203 182 168
-409.398 49.8427 -2129 199 180 170
-404.827 49.8064 -2128 197 179 171
-400.827 49.8403 -2130 189 168 155
-396.45 49.8276 -2130 126 108 98
-391.341 49.7216 -2126 57 45 41
-386.797 49.6858 -2125 42 37 39
-382.26 49.6502 -2124 37 33 36
-377.909 49.6381 -2124 39 35 39
-372.857 49.5326 -2120 43 39 44
-368.694 49.5443 -2121 45 41 48
-364.701 49.5793 -2123 37 32 40
-360.364 49.5678 -2123 30 25 33
-356.198 49.5798 -2124 33 30 38
-351.533 49.522 -2122 38 35 43
-346.716 49.4409 -2119 44 41 50
-341.914 49.36 -2116 47 44 54
-337.606 49.3492 -2116 46 43 53
-333.143 49.3152 -2115 42 39 49
-329.465 49.3981 -2119 38 36 46
-325.159 49.3877 -2119 41 38 48
-320.704 49.3542 -2118 47 44 54
-315.957 49.2743 -2115 46 44 54
-311.52 49.241 -2114 45 44 54
-306.653 49.1381 -2110 47 45 55
-302.235 49.1052 -2109 45 43 53
-297.823 49.0725 -2108 45 48 57
-293.975 49.133 -2111 48 51 60
-289.569 49.1006 -2110 50 53 62
-285.439 49.1148 -2111 50 53 62
-280.908 49.0593 -2109 51 54 63
-276.256 48.9808 -2106 51 54 63
-271.747 48.9256 -2104 51 54 63
-267.503 48.9172 -2104 53 56 65
-263.512 48.9553 -2106 53 57 68
-259.392 48.9704 -2107 52 56 67
-255.512 49.032 -2110 54 57 66
-251.264 49.024 -2110 58 61 70
-247.136 49.0394 -2111 59 62 71
-242.545 48.9621 -2108 58 61 70
-238.195 48.9313 -2107 61 63 72
-234.184 48.9703 -2109 83 83 95
-230.275 49.0327 -2112 197 194 199
-226.143 49.0488 -2113 254 252 251
-222.323 49.1346 -2117 254 250 252
-218.592 49.2438 -2122 252 248 247
-214.539 49.2834 -2124 240 229 222
-210.283 49.2767 -2124 230 214 203
-205.931 49.247 -2123 227 208 194
-201.775 49.2639 -2124 229 206 193
-197.616 49.2808 -2125 229 206 193
-193 49.182 -2121 229 206 194
-188.847 49.1991 -2122 229 207 196
-184.256 49.1006 -2118 228 206 196
-179.937 49.0717 -2117 230 207 196
-175.624 49.043 -2116 231 208 197
-171.56 49.0839 -2118 232 209 198
-167.33 49.0786 -2118 232 209 198
-163.488 49.1894 -2123 232 209 198
-159.401 49.2306 -2125 230 207 196
-155.235 49.2489 -2126 228 205 194
-151.137 49.2905 -2128 228 205 193
-146.825 49.2626 -2127 227 205 194
-142.72 49.3044 -2129 227 205 194
-138.347 49.2537 -2127 229 206 193
-134.173 49.2727 -2128 230 206 194
-130.057 49.3149 -2130 230 206 194
-125.934 49.3571 -2132 228 205 195
-121.69 49.3533 -2132 228 205 195
-117.336 49.3033 -2130 226 203 192
-113.257 49.3692 -2133 226 203 192
-109.014 49.3657 -2133 226 203 192
-104.968 49.455 -2137 227 203 192
-100.907 49.5443 -2141 227 203 192
-96.6052 49.5181 -2140 228 204 192
-92.4808 49.5846 -2143 230 205 195
-88.2216 49.5817 -2143 229 204 195
-83.924 49.5559 -2142 235 214 203
-79.5937 49.5071 -2140 241 222 212
-75.4481 49.5741 -2143 221 205 200
-71.1584 49.5487 -2142 118 107 108
-66.8419 49.5003 -2140 69 61 65
-62.5924 49.4983 -2140 63 60 70
-58.2616 49.427 -2137 62 59 70
-53.9938 49.4021 -2136 57 56 67
-49.7536 49.4005 -2136 55 54 68
-45.5139 49.399 -2136 55 54 68
-41.2938 49.4208 -2137 55 54 66
-37.0874 49.4659 -2139 54 53 65
-32.858 49.4879 -2140 53 52 64
-28.5982 49.4638 -2139 50 51 63
-24.3881 49.5324 -2142 50 51 63
-20.1758 49.6242 -2146 49 50 62
-15.9551 49.7393 -2151 50 50 62
-11.6929 49.762 -2152 50 49 61
-7.44762 49.9235 -2159 46 46 58
-3.16286 49.9002 -2158 43 43 55
1.11842 49.9002 -2158 43 42 54
5.3997 49.9003 -2158 47 46 58
9.68104 49.9006 -2158 50 49 61
14.0013 50.0397 -2164 42 42 54
18.3285 50.1327 -2168 36 36 48
22.6405 50.1564 -2169 39 38 50
26.9566 50.1803 -2170 42 40 52
31.3057 50.2506 -2173 45 42 54
35.6341 50.2748 -2174 43 45 56
39.9301 50.2528 -2173 39 41 51
44.2835 50.3004 -2175 38 40 49
48.6228 50.325 -2176 45 47 56
52.9422 50.3265 -2176 47 49 58
57.262 50.3282 -2176 51 53 62
61.554 50.307 -2175 52 53 64
65.8727 50.3089 -2175 49 50 61
70.2243 50.3342 -2176 50 47 55
74.5461 50.3364 -2176 54 51 59
78.941 50.3851 -2178 58 53 62
83.4975 50.5264 -2184 60 58 61
87.7969 50.5059 -2183 118 116 118
92.1774 50.5319 -2184 236 230 228
-894.131 47.0028 -2098 192 154 146
-887.489 46.8847 -2094 189 149 140
-881.719 46.8119 -2092 185 141 129
-871.482 46.7338 -2091 158 109 90
-867.831 46.7732 -2094 139 90 70
-860.877 46.6343 -2089 134 87 64
-855.185 46.5625 -2087 151 102 82
-849.51 46.491 -2085 179 126 109
-842.233 46.3305 -2079 198 150 131
-835.797 46.2149 -2075 229 187 165
-830.589 46.1664 -2074 247 209 186
-825.792 46.1403 -2074 253 220 195
-819.024 46.0033 -2069 255 224 204
-813.862 45.9555 -2068 254 225 206
-809.102 45.9299 -2068 253 226 206
-803.962 45.8825 -2067 255 228 207
-800.381 45.9239 -2070 255 228 207
-797.947 46.0321 -2076 253 224 204
-794.346 46.0737 -2079 250 224 207
-789.98 46.0712 -2080 248 222 206
-785.995 46.0908 -2082 243 217 201
-783.134 46.1771 -2087 227 199 182
-779.138 46.197 -2089 207 177 159
-774.77 46.1949 -2090 184 153 135
-770.774 46.2152 -2092 163 133 117
-768.24 46.3238 -2098 155 125 110
-765.686 46.4324 -2104 156 126 115
-762.39 46.4971 -2108 156 127 117
-761.239 46.6941 -2118 158 130 119
-757.193 46.7147 -2120 159 132 119
-752.79 46.7133 -2121 158 131 119
-746.979 46.6241 -2118 160 133 122
-741.188 46.5353 -2115 158 132 116
-735.417 46.4465 -2112 158 130 115
-730.705 46.4239 -2112 163 132 118
-727.031 46.4674 -2115 168 134 116
-721.984 46.4233 -2114 168 135 118
-718.306 46.467 -2117 169 138 121
-712.935 46.4012 -2115 171 141 123
-707.58 46.3356 -2113 174 144 126
-701.908 46.2483 -2110 176 146 127
-696.585 46.183 -2108 179 148 127
-691.278 46.1181 -2106 181 151 130
-686.313 46.0751 -2105 182 152 133
-681.681 46.0543 -2105 184 154 136
-677.056 46.0336 -2105 188 157 139
-672.757 46.0349 -2106 192 162 143
-668.142 46.0145 -2106 196 164 145
-662.588 45.9288 -2103 200 168 149
-657.991 45.9087 -2103 199 170 158
-653.091 45.867 -2102 201 173 159
-647.891 45.8037 -2100 205 177 162
-643.626 45.8059 -2101 210 182 167
-639.666 45.8301 -2103 212 184 169
-634.797 45.789 -2102 215 187 172
-629.938 45.7482 -2101 220 191 177
-625.089 45.7075 -2100 221 192 177
-620.545 45.6886 -2100 221 192 177
-615.714 45.6483 -2099 221 192 178
-610.31 45.5646 -2096 225 197 182
-605.214 45.5028 -2094 228 200 186
-600.132 45.4413 -2092 230 201 187
-594.779 45.3581 -2089 232 201 188
-590.574 45.3621 -2090 233 205 189
-587.211 45.4313 -2094 235 207 191
-583.559 45.4788 -2097 237 208 193
-578.518 45.418 -2095 238 210 195
-573.49 45.3575 -2093 239 211 196
-569.564 45.3836 -2095 241 212 198
-563.746 45.2585 -2090 243 215 199
-559.56 45.2633 -2091 247 219 203
-555.906 45.3116 -2094 248 220 205
-551.716 45.3167 -2095 250 224 209
-547.789 45.3436 -2097 251 227 213
-543.34 45.3274 -2097 253 231 216
-540.181 45.4194 -2102 253 231 216
-535.73 45.4033 -2102 251 229 214
-531.285 45.3875 -2102 250 228 213
-527.345 45.415 -2104 250 227 213
-523.153 45.4209 -2105 249 224 210
-518.468 45.384 -2104 248 220 207
-514.036 45.3686 -2104 249 219 206
-509.367 45.3319 -2103 248 218 204
-505.186 45.3385 -2104 248 217 203
-501.006 45.3451 -2105 246 215 201
-497.062 45.3734 -2107 244 212 198
-493.347 45.4234 -2110 243 211 197
-489.16 45.4305 -2111 245 208 192
-484.515 45.3946 -2110 242 206 191
-479.877 45.3589 -2109 239 204 191
-475.925 45.3878 -2111 237 202 188
-471.968 45.4169 -2113 235 201 186
-467.785 45.4245 -2114 234 201 186
-463.822 45.4538 -2116 233 202 187
-459.636 45.4617 -2117 231 201 186
-455.666 45.4912 -2119 230 199 186
-451.053 45.4564 -2118 228 198 185
-447.08 45.4862 -2120 225 197 184
-442.476 45.4517 -2119 225 196 184
-438.707 45.5031 -2122 223 195 182
-433.906 45.4475 -2120 222 198 183
-429.927 45.4777 -2122 221 198 182
-426.344 45.5509 -2126 218 196 180
-421.757 45.517 -2125 218 196 180
-417.963 45.5691 -2128 217 194 179
-413.771 45.5783 -2129 215 192 177
-409.771 45.6091 -2131 213 192 179
-405.195 45.5759 -2130 211 190 178
-401.379 45.6283 -2133 203 181 168
-396.81 45.5953 -2132 158 139 129
-392.249 45.5624 -2131 78 63 57
-387.513 45.5083 -2129 43 37 38
-382.788 45.4544 -2127 34 30 32
-377.719 45.3578 -2123 34 30 33
-373.021 45.3042 -2121 38 34 39
-368.682 45.2935 -2121 42 38 45
-364.346 45.2829 -2121 40 35 43
-360.014 45.2724 -2121 35 30 38
-356.187 45.326 -2124 32 29 36
-351.688 45.2944 -2123 33 30 38
-346.706 45.1989 -2119 41 38 46
-342.389 45.189 -2119 45 42 52
-337.756 45.1364 -2117 45 42 52
-333.133 45.084 -2115 45 42 52
-329.299 45.1384 -2118 39 36 46
-324.842 45.1077 -2117 35 32 42
-320.997 45.1623 -2120 42 39 49
-316.097 45.0679 -2116 44 42 52
-311.805 45.0589 -2116 43 42 52
-306.934 44.9648 -2112 44 43 53
-302.512 44.9347 -2111 47 46 56
-298.097 44.9047 -2110 46 49 58
-293.966 44.9174 -2111 48 51 60
-289.56 44.8878 -2110 50 53 62
-285.16 44.8582 -2109 49 52 61
-280.766 44.8289 -2108 49 52 61
-275.854 44.7145 -2103 51 54 63
-271.481 44.6854 -2102 52 55 64
-267.114 44.6563 -2101 52 55 64
-263.254 44.7125 -2104 52 57 68
-259.015 44.705 -2104 52 57 68
-255.383 44.8039 -2109 52 55 64
-251.138 44.7966 -2109 56 59 68
-246.777 44.7682 -2108 59 62 71
-242.423 44.74 -2107 57 60 69
-237.849 44.6694 -2104 59 62 71
-233.732 44.6839 -2105 75 75 86
-229.941 44.7621 -2109 182 180 185
-226.457 44.9041 -2116 251 249 248
-222.631 44.9825 -2120 255 252 255
-218.379 44.9762 -2120 254 251 252
-214.331 45.0125 -2122 248 239 234
-209.979 44.9852 -2121 240 225 214
-205.828 45.0005 -2122 234 216 202
-201.579 44.9946 -2122 232 209 196
-197.238 44.9677 -2121 230 207 195
-192.721 44.8985 -2118 229 206 195
-188.485 44.893 -2118 228 207 197
-183.989 44.8242 -2115 227 206 197
-179.677 44.7979 -2114 231 208 197
-175.453 44.7927 -2114 232 209 198
-171.393 44.8302 -2116 232 209 198
-167.325 44.8676 -2118 232 209 198
-163.329 44.9265 -2121 231 208 197
-159.246 44.9643 -2123 231 208 197
-155.011 44.9599 -2123 230 207 196
-150.777 44.9554 -2123 229 207 196
-146.614 44.9724 -2124 228 207 196
-142.447 44.9894 -2125 228 207 196
-138.213 44.9855 -2125 229 206 194
-134.169 45.0451 -2128 229 206 194
-129.748 44.9778 -2125 229 206 195
-125.576 44.9953 -2126 228 205 196
-121.172 44.9283 -2123 228 205 195
-117.278 45.0519 -2129 227 204 193
-113.095 45.0698 -2130 227 204 193
-108.96 45.109 -2132 228 205 194
-104.867 45.1694 -2135 228 205 194
-100.904 45.2934 -2141 227 204 193
-96.5572 45.2482 -2139 230 205 195
-92.3486 45.2667 -2140 231 206 197
-88.1778 45.3064 -2142 232 207 199
-83.9215 45.304 -2142 240 219 208
-79.703 45.3228 -2143 243 223 213
-75.4459 45.3206 -2143 227 211 205
-71.1562 45.2974 -2142 126 116 117
-66.7774 45.2109 -2138 72 64 68
-62.5028 45.1879 -2137 64 61 71
-58.1236 45.0804 -2132 61 59 70
-53.9163 45.1 -2133 56 55 67
-49.6823 45.0985 -2133 55 54 67
-45.406 45.0549 -2131 55 54 68
-41.196 45.0748 -2132 54 53 65
-37.0343 45.1583 -2136 52 51 63
-32.8264 45.1996 -2138 51 50 62
-28.584 45.1987 -2138 51 51 63
-24.376 45.2614 -2141 50 51 63
-20.1564 45.3242 -2144 49 50 61
-15.962 45.4928 -2152 49 49 60
-11.7089 45.5558 -2155 49 48 60
-7.45085 45.6612 -2160 45 46 58
-3.16131 45.5977 -2157 44 45 57
1.11942 45.661 -2160 47 46 58
5.40705 45.6823 -2161 48 47 59
9.68972 45.6614 -2160 45 44 56
13.9944 45.7251 -2163 35 36 47
18.3111 45.789 -2166 33 33 45
22.6189 45.8107 -2167 39 38 50
26.9433 45.8537 -2169 45 42 54
31.2759 45.8968 -2171 47 43 56
35.6331 45.9612 -2174 43 44 56
39.9473 45.9623 -2174 38 39 50
44.2822 45.9846 -2175 38 39 49
48.5991 45.9859 -2175 44 45 55
52.9406 46.0085 -2176 45 46 56
57.2603 46.0101 -2176 45 46 56
61.5805 46.0118 -2176 44 45 56
65.9011 46.0136 -2176 46 46 58
70.1899 45.9944 -2175 51 48 55
74.5097 45.9964 -2175 53 50 57
78.9387 46.0621 -2178 57 53 60
83.3421 46.1067 -2180 58 53 55
87.8747 46.2148 -2185 184 178 179
92.2169 46.2174 -2185 249 237 233
96.56 46.2201 -2185 252 241 235
100.858 46.2017 -2184 252 241 233
-900.07 42.8766 -2112 147 101 91
-872.706 42.4094 -2094 149 98 81
-867.39 42.3642 -2093 168 118 100
-860.027 42.2181 -2087 201 153 132
-855.159 42.1935 -2087 238 187 167
-849.892 42.1488 -2086 254 209 189
-842.612 42.0034 -2080 254 212 189
-836.174 41.8986 -2076 251 209 185
-830.965 41.8547 -2075 245 205 180
-825.768 41.8109 -2074 245 209 182
-820.187 41.7471 -2072 252 221 199
-815.411 41.7238 -2072 250 221 202
-811.034 41.7208 -2073 249 221 200
-805.883 41.6778 -2072 250 222 200
-801.517 41.6751 -2073 248 220 198
-799.076 41.773 -2079 239 211 190
-796.997 41.8909 -2086 232 207 190
-791.856 41.8484 -2085 225 202 186
-788.614 41.9064 -2089 219 195 179
-785.362 41.9643 -2093 198 170 154
-782.845 42.0625 -2099 167 138 121
-779.566 42.1207 -2103 155 126 111
-703.504 42.2663 -2129 162 138 122
-697.166 42.1476 -2124 166 141 125
-692.161 42.1086 -2123 170 143 128
-686.519 42.0301 -2120 173 144 131
-681.218 41.9715 -2118 177 147 135
-676.57 41.9527 -2118 183 152 140
-671.295 41.8946 -2116 187 154 141
-665.089 41.7772 -2111 188 156 142
-659.85 41.7194 -2109 188 159 144
-654.936 41.6816 -2108 187 160 143
-649.723 41.6241 -2106 190 164 146
-645.139 41.6064 -2106 195 168 153
-640.56 41.5887 -2106 195 168 153
-635.986 41.5713 -2106 197 170 155
-630.519 41.4947 -2103 204 174 161
-625.368 41.4381 -2101 206 176 162
-619.936 41.3619 -2098 207 177 164
-615.696 41.3648 -2099 208 179 165
-610.293 41.2888 -2096 210 181 167
-606.931 41.351 -2100 214 185 171
-601.836 41.2953 -2098 216 185 171
-596.755 41.2395 -2096 218 185 171
-591.97 41.2037 -2095 220 187 171
-588.597 41.2663 -2099 223 192 176
-584.099 41.2504 -2099 225 195 179
-579.882 41.2543 -2100 230 197 183
-574.844 41.1993 -2098 230 197 183
-569.82 41.1445 -2096 231 198 182
-564 41.031 -2091 232 199 182
-559.276 40.9962 -2090 237 204 186
-555.624 41.04 -2093 239 206 190
-552.491 41.123 -2098 241 210 195
-548.557 41.1473 -2100 242 214 199
-544.361 41.1521 -2101 246 216 201
-539.908 41.1376 -2101 247 218 203
-535.715 41.1426 -2102 247 218 203
-531.522 41.1479 -2103 246 216 201
-528.332 41.2315 -2108 244 214 199
-523.883 41.2173 -2108 242 210 196
-519.439 41.2033 -2108 240 206 192
-514.755 41.1698 -2107 240 204 191
-510.079 41.1365 -2106 239 203 188
-505.893 41.1425 -2107 237 200 185
-501.23 41.1095 -2106 233 197 182
-497.755 41.1741 -2110 233 195 181
-493.801 41.1999 -2112 233 195 180
-490.305 41.2647 -2116 233 193 176
-486.338 41.2907 -2118 230 192 177
-482.139 41.2972 -2119 229 191 178
-477.039 41.226 -2116 227 189 174
-473.071 41.2523 -2118 224 187 172
-468.878 41.2592 -2119 223 187 172
-464.685 41.2662 -2120 222 189 174
-459.841 41.215 -2118 221 189 175
-455.868 41.2418 -2120 224 190 176
-451.04 41.1907 -2118 222 190 176
-447.067 41.2176 -2120 220 189 176
-442.672 41.2058 -2120 221 189 176
-438.488 41.2136 -2121 222 190 177
-434.303 41.2214 -2122 221 193 181
-430.32 41.2489 -2124 222 195 182
-426.533 41.2957 -2127 222 195 183
-421.944 41.2651 -2126 221 195 182
-418.344 41.3316 -2130 222 195 182
-413.954 41.3206 -2130 224 196 183
-409.952 41.3485 -2132 221 196 182
-405.184 41.2989 -2130 217 194 179
-401.368 41.3464 -2133 209 188 175
-396.986 41.3359 -2133 185 166 155
-392.606 41.3254 -2133 110 93 86
-387.684 41.2571 -2130 47 40 39
-383.138 41.2276 -2129 38 32 33
-378.42 41.1788 -2127 33 29 32
-373.714 41.1302 -2125 34 30 34
-369.194 41.1011 -2124 41 37 42
-364.68 41.072 -2123 42 37 45
-360.852 41.1205 -2126 36 31 39
-356.68 41.1305 -2127 33 30 37
-351.844 41.0631 -2124 30 27 35
-346.86 40.9767 -2120 36 33 41
-342.541 40.9676 -2120 44 39 50
-337.906 40.92 -2118 46 42 53
-333.282 40.8726 -2116 48 45 55
-329.446 40.9219 -2119 40 37 47
-325.14 40.9133 -2119 29 26 36
-320.988 40.9242 -2120 34 31 41
-315.939 40.8193 -2115 42 40 50
-311.944 40.8497 -2117 43 42 52
-306.781 40.7258 -2111 41 40 50
-302.791 40.7564 -2113 49 48 58
-298.23 40.71 -2111 45 48 57
-294.098 40.7215 -2112 47 50 59
-289.689 40.6947 -2111 48 51 60
-285.152 40.6485 -2109 48 51 60
-280.625 40.6027 -2107 49 52 61
-275.846 40.5184 -2103 51 54 63
-271.344 40.4726 -2101 52 55 64
-266.852 40.4271 -2099 51 54 63
-262.871 40.4587 -2101 51 56 67
-258.638 40.452 -2101 51 56 67
-254.891 40.5223 -2105 51 54 63
-250.773 40.535 -2106 55 58 67
-246.536 40.5285 -2106 58 61 70
-242.186 40.5029 -2105 56 59 68
-237.955 40.4966 -2105 56 59 68
-233.726 40.4905 -2105 64 65 75
-229.935 40.5615 -2109 158 156 161
-226.344 40.6709 -2115 247 246 246
-222.415 40.7227 -2118 253 250 253
-218.579 40.794 -2122 255 251 252
-214.325 40.7883 -2122 252 245 240
-209.875 40.7443 -2120 249 235 226
-205.628 40.739 -2120 242 225 213
-201.193 40.6952 -2118 238 215 203
-196.861 40.6709 -2117 231 208 197
-192.443 40.6274 -2115 228 205 194
-188.302 40.6417 -2116 229 207 198
-183.984 40.6176 -2115 228 207 198
-179.672 40.5938 -2114 232 209 198
-175.282 40.5508 -2112 232 209 198
-171.226 40.5847 -2114 233 210 199
-167.242 40.6379 -2117 233 210 199
-163.247 40.6913 -2120 231 208 197
-159.317 40.7639 -2124 231 208 197
-155.007 40.7405 -2123 231 209 198
-150.844 40.7558 -2124 229 208 197
-146.334 40.6752 -2120 228 207 196
-142.175 40.6907 -2121 228 207 196
-137.884 40.6679 -2120 229 206 195
-133.85 40.7219 -2123 229 206 195
-129.378 40.6418 -2119 229 206 195
-125.218 40.6577 -2120 229 206 197
-121.055 40.6737 -2121 228 205 196
-116.889 40.6898 -2122 228 205 196
-112.985 40.8019 -2128 229 206 196
-108.855 40.8374 -2130 229 206 195
-104.864 40.9305 -2135 229 206 195
-100.807 41.0046 -2139 229 205 194
-96.5546 41.0019 -2139 231 206 196
-92.1735 40.942 -2136 236 211 202
-87.9285 40.9397 -2136 241 216 208
-83.7232 40.9566 -2137 245 224 213
-79.552 40.9929 -2139 245 225 215
-75.303 40.9909 -2139 231 215 209
-71.0214 40.9698 -2138 133 123 124
-66.6819 40.9106 -2135 73 65 70
-62.3841 40.8706 -2133 63 60 70
-58.122 40.8499 -2132 59 57 68
-53.7885 40.7718 -2128 55 54 66
-49.5645 40.7705 -2128 55 54 67
-45.3621 40.7884 -2129 55 54 68
-41.1562 40.8065 -2130 56 55 67
-36.9466 40.8246 -2131 53 52 64
-32.7794 40.9004 -2135 51 50 62
-28.5832 40.957 -2138 50 51 63
-24.4095 41.0713 -2144 50 51 63
-20.1746 41.109 -2146 49 50 60
-15.9393 41.166 -2149 49 49 60
-11.6977 41.2423 -2153 49 48 60
-7.43685 41.2995 -2156 45 46 58
-3.15976 41.2994 -2156 46 47 59
1.11835 41.3377 -2158 50 51 63
5.39689 41.3186 -2157 50 49 61
9.69394 41.3954 -2161 41 40 52
13.994 41.434 -2163 29 30 40
18.3021 41.4728 -2165 33 33 44
22.6183 41.5116 -2167 42 41 53
26.9302 41.5314 -2168 48 44 57
31.2751 41.5896 -2171 48 44 57
35.5993 41.6097 -2172 43 44 56
39.9646 41.6681 -2175 39 40 51
44.3013 41.6884 -2176 38 39 49
48.5977 41.6704 -2175 44 46 53
52.9635 41.71 -2177 44 45 53
57.2851 41.7114 -2177 38 39 49
61.5788 41.6938 -2176 36 36 48
65.869 41.6763 -2175 42 41 53
70.188 41.678 -2175 49 46 53
74.5419 41.6991 -2176 51 48 55
78.9003 41.7202 -2177 50 47 53
83.4545 41.8373 -2183 98 89 91
87.7919 41.8395 -2183 231 222 222
92.2988 41.9185 -2187 251 236 231
96.6014 41.9017 -2186 254 236 229
100.901 41.8851 -2185 255 236 228
105.101 41.8303 -2182 255 237 229
109.39 41.814 -2181 255 239 230
114.041 41.9319 -2187 255 239 230
-861.652 37.9192 -2091 233 185 166
-855.955 37.8609 -2089 240 193 176
-849.869 37.7847 -2086 244 199 184
-842.995 37.6725 -2081 238 196 179
-838.166 37.6509 -2081 233 195 176
-833.345 37.6294 -2081 224 188 168
-829.727 37.6624 -2084 226 191 171
-824.124 37.6051 -2082 230 200 183
-819.718 37.6023 -2083 233 205 191
-814.142 37.5454 -2081 232 204 189
-808.972 37.5067 -2080 230 204 188
-804.588 37.5041 -2081 227 202 186
-801.745 37.5738 -2086 218 193 177
-800.032 37.6975 -2094 207 184 170
-797.911 37.8033 -2101 196 175 162
-793.5 37.801 -2102 178 158 146
-791.344 37.9068 -2109 160 139 126
-669.482 37.6997 -2125 168 143 134
-664.525 37.6655 -2124 170 147 136
-659.579 37.6315 -2123 171 147 135
-654.643 37.5975 -2122 174 150 137
-650.023 37.5815 -2122 178 154 144
-645.409 37.5655 -2122 179 154 145
-640.801 37.5498 -2122 180 155 146
-635 37.4634 -2118 185 156 144
-628.626 37.3417 -2112 189 161 149
-622.875 37.2557 -2108 191 162 151
-618.614 37.2582 -2109 189 162 150
-613.189 37.1901 -2106 191 165 153
-608.649 37.1752 -2106 196 170 157
-604.975 37.2132 -2109 201 171 157
-599.586 37.1456 -2106 204 171 157
-594.215 37.0782 -2103 205 174 157
-590.264 37.099 -2105 209 179 162
-585.197 37.0494 -2103 211 182 165
-581.248 37.0705 -2105 214 183 167
-576.199 37.0212 -2103 216 183 168
-570.077 36.9017 -2097 216 182 165
-565.064 36.8527 -2095 217 183 165
-560.065 36.8038 -2093 219 185 167
-556.141 36.8254 -2095 222 188 170
-552.477 36.8647 -2098 222 190 172
-549.066 36.9217 -2102 224 193 176
-545.642 36.9787 -2106 231 195 179
-540.409 36.9129 -2103 233 197 182
-536.976 36.9701 -2107 235 199 185
-532.52 36.9572 -2107 234 198 184
-528.068 36.9444 -2107 233 196 182
-524.367 36.9843 -2110 230 192 178
-520.165 36.9893 -2111 226 187 173
-515.23 36.9417 -2109 224 184 169
-511.035 36.9468 -2110 221 182 166
-506.84 36.9522 -2111 218 178 162
-502.645 36.9575 -2112 216 176 160
-498.686 36.9804 -2114 216 175 159
-494.723 37.0035 -2116 215 173 158
-491.22 37.0616 -2120 212 173 157
-487.015 37.0675 -2121 212 173 159
-483.265 37.1082 -2124 212 174 161
-478.379 37.0618 -2122 210 171 156
-474.846 37.1202 -2126 208 169 154
-469.53 37.0391 -2122 210 171 155
-465.112 37.0279 -2122 208 171 158
-460.48 36.9994 -2121 208 172 160
-456.717 37.0408 -2124 211 173 159
-451.454 36.9603 -2120 211 174 161
-447.899 37.0192 -2124 209 174 162
-443.079 36.9738 -2122 212 175 163
-438.89 36.9808 -2123 214 177 165
-434.292 36.9528 -2122 211 176 164
-430.309 36.9774 -2124 213 179 167
-426.322 37.002 -2126 215 182 169
-422.528 37.0443 -2129 214 182 169
-418.53 37.069 -2131 216 184 171
-414.138 37.0591 -2131 218 185 173
-410.326 37.1016 -2134 215 185 169
-405.744 37.0744 -2133 213 184 167
-402.111 37.1344 -2137 199 178 167
-396.976 37.0555 -2133 194 174 164
-392.78 37.0635 -2134 144 126 118
-387.857 37.0022 -2131 61 51 51
-383.308 36.9757 -2130 42 34 35
-378.411 36.9146 -2127 36 33 35
-373.529 36.8537 -2124 33 30 33
-369.184 36.8449 -2124 35 32 37
-364.671 36.8189 -2123 41 36 44
-360.504 36.8277 -2124 39 34 42
-356.168 36.8193 -2124 35 32 39
-352.167 36.8455 -2126 29 26 34
-347.506 36.8027 -2124 31 28 36
-343.179 36.7946 -2124 40 35 46
-338.536 36.7519 -2122 44 39 50
-333.903 36.7094 -2120 48 45 55
-330.059 36.7535 -2123 42 39 49
-325.439 36.7111 -2121 32 29 39
-321.132 36.7035 -2121 32 29 39
-316.678 36.6788 -2120 39 36 46
-312.083 36.6368 -2118 41 40 50
-307.209 36.5604 -2114 40 39 49
-302.783 36.5359 -2113 47 46 56
-298.223 36.4944 -2111 44 47 56
-293.951 36.4873 -2111 46 49 58
-289.545 36.4633 -2110 48 51 60
-285.145 36.4393 -2109 49 52 61
-280.485 36.3808 -2106 49 52 61
-275.577 36.2879 -2101 50 53 62
-271.079 36.247 -2099 52 54 63
-266.719 36.2235 -2098 52 54 63
-262.615 36.2345 -2099 52 56 67
-258.386 36.2285 -2099 50 55 66
-254.764 36.3088 -2104 50 53 62
-250.767 36.3373 -2106 53 56 65
-246.53 36.3315 -2106 56 59 68
-241.835 36.2569 -2102 54 57 66
-237.61 36.2513 -2102 54 57 66
-233.498 36.263 -2103 55 57 67
-229.711 36.3266 -2107 114 113 119
-225.91 36.3903 -2111 232 229 232
-222.199 36.4712 -2116 253 250 252
-218.471 36.5523 -2121 255 253 253
-214.219 36.5473 -2121 254 248 243
-209.771 36.5078 -2119 254 242 233
-205.429 36.4858 -2118 249 233 222
-201.093 36.4639 -2117 246 224 213
-196.67 36.4248 -2115 237 214 203
-192.256 36.3859 -2113 231 208 197
-188.119 36.3986 -2114 229 207 198
-183.806 36.3771 -2113 230 209 200
-179.583 36.3729 -2113 232 209 198
-175.195 36.3343 -2111 233 210 199
-171.141 36.3647 -2113 234 211 200
-167.159 36.4125 -2116 232 210 199
-163.089 36.443 -2118 231 209 198
-159.088 36.4909 -2121 232 209 198
-154.638 36.4357 -2118 231 209 198
-150.415 36.4322 -2118 229 208 197
-146.054 36.3943 -2116 228 207 196
-142.038 36.4426 -2119 227 206 195
-137.686 36.4049 -2117 229 206 195
-133.721 36.4706 -2121 229 206 195
-129.253 36.3987 -2117 229 206 195
-125.215 36.4474 -2120 228 206 197
-120.767 36.3758 -2116 228 206 197
-116.721 36.4246 -2119 229 206 196
-112.823 36.5251 -2125 230 207 196
-108.852 36.6084 -2130 230 207 196
-104.861 36.6918 -2135 231 208 198
-100.757 36.741 -2138 232 209 199
-96.4168 36.7044 -2136 234 209 200
-92.1281 36.685 -2135 244 219 211
-88.0086 36.7345 -2138 252 227 220
-83.6037 36.6638 -2134 252 231 220
-79.4757 36.7135 -2137 252 232 222
-75.1956 36.6945 -2136 237 221 215
-70.9201 36.6756 -2135 137 127 129
-66.5242 36.5882 -2130 72 64 70
-62.2656 36.5695 -2129 60 57 67
-58.0116 36.5509 -2128 57 55 65
-53.7619 36.5325 -2127 54 53 65
-49.5633 36.5485 -2128 55 54 67
-45.2971 36.513 -2126 57 56 70
-41.1552 36.5807 -2130 57 56 68
-36.9804 36.6313 -2133 55 54 66
-32.7633 36.6477 -2134 53 52 64
-28.5692 36.6985 -2137 49 50 62
-24.3634 36.7494 -2140 49 50 62
-20.1459 36.8004 -2143 49 50 60
-15.9389 36.9031 -2149 49 48 60
-11.6811 36.9199 -2150 48 47 59
-7.42977 36.9884 -2154 45 46 58
-3.15968 37.0226 -2156 45 46 58
1.11832 37.0569 -2158 47 48 60
5.40176 37.0742 -2159 42 42 54
9.70267 37.1431 -2163 32 31 43
14.0066 37.1777 -2165 29 29 39
18.3017 37.178 -2165 36 36 47
22.5969 37.1785 -2165 45 44 56
26.9295 37.2306 -2168 49 46 59
31.2743 37.2828 -2171 50 46 59
35.5821 37.2836 -2171 43 44 55
39.8901 37.2845 -2171 41 42 52
44.2392 37.3198 -2173 42 43 53
48.5965 37.3552 -2175 46 47 56
52.9379 37.3735 -2176 42 43 51
57.31 37.4092 -2178 35 37 45
61.6056 37.3934 -2177 37 37 47
65.9279 37.3948 -2177 42 41 52
70.2831 37.4136 -2178 49 46 53
74.5401 37.3809 -2176 52 50 55
79.0796 37.4858 -2182 55 54 58
83.6054 37.5735 -2187 162 151 151
87.9908 37.5927 -2188 237 225 223
92.1699 37.526 -2184 249 229 223
96.6432 37.5798 -2187 253 233 225
100.852 37.5305 -2184 255 234 226
105.146 37.5157 -2183 255 235 227
109.337 37.4667 -2180 255 236 228
113.986 37.5724 -2186 255 236 228
118.389 37.5923 -2187 255 237 230
122.965 37.6639 -2191 255 239 232
127.559 37.7355 -2195 255 240 230
132.169 37.8073 -2199 255 241 231
136.672 37.8448 -2201 255 241 230
141.056 37.848 -2201 253 240 230
-857.574 33.5525 -2093 214 172 157
-852.293 33.517 -2092 212 174 162
-845.405 33.4177 -2087 201 168 155
-842.979 33.4946 -2093 199 167 153
-839.332 33.5235 -2096 192 162 148
-618.415 33.1758 -2124 169 145 137
-614.704 33.2093 -2127 175 152 141
-609.551 33.1648 -2125 184 155 143
-604.127 33.1049 -2122 188 157 143
-597.874 32.9983 -2116 188 160 144
-592.494 32.9388 -2113 191 163 147
-587.131 32.8793 -2110 192 164 148
-582.891 32.8823 -2111 194 166 150
-577.282 32.8074 -2107 197 167 151
-571.967 32.7483 -2104 200 168 150
-566.4 32.674 -2100 199 166 149
-561.39 32.6307 -2098 200 167 150
-557.721 32.6653 -2101 206 170 152
-555.097 32.7622 -2108 206 172 154
-550.098 32.7193 -2106 205 172 155
-545.889 32.7232 -2107 212 173 157
-541.424 32.7115 -2107 215 176 160
-537.473 32.731 -2109 217 178 164
-532.508 32.6885 -2107 215 176 162
-529.309 32.7547 -2112 214 175 161
-525.598 32.79 -2115 212 171 157
-521.632 32.8098 -2117 209 168 153
-516.44 32.7522 -2114 207 165 150
-512.961 32.8033 -2118 205 163 148
-508.749 32.8079 -2119 200 158 143
-504.062 32.7816 -2118 198 156 141
-499.618 32.771 -2118 197 155 140
-495.881 32.8069 -2121 196 154 139
-492.367 32.8582 -2125 192 155 140
-489.07 32.9251 -2130 194 156 142
-485.074 32.9456 -2132 195 157 144
-481.299 32.9819 -2135 196 155 141
-476.399 32.9408 -2133 195 154 140
-471.068 32.869 -2129 199 157 141
-466.636 32.8591 -2129 198 158 146
-461.121 32.7721 -2124 197 159 148
-457.782 32.8395 -2129 198 158 145
-452.722 32.7837 -2126 198 159 146
-448.733 32.805 -2128 198 161 148
-443.695 32.7493 -2125 199 160 148
-440.121 32.8017 -2129 202 162 150
-435.305 32.7617 -2127 202 162 148
-431.718 32.8141 -2131 203 165 151
-427.516 32.8205 -2132 204 167 154
-423.114 32.8115 -2132 204 168 155
-419.109 32.8335 -2134 205 169 156
-415.1 32.8555 -2136 206 170 157
-410.893 32.8622 -2137 204 171 153
-406.686 32.869 -2138 204 172 152
-402.29 32.8605 -2138 193 172 162
-397.339 32.806 -2135 191 170 160
-392.956 32.7977 -2135 167 147 137
-388.212 32.7589 -2133 84 73 71
-383.839 32.7508 -2133 46 38 38
-378.758 32.6815 -2129 36 33 35
-373.873 32.6275 -2126 33 30 34
-369.698 32.6351 -2127 30 27 32
-365.35 32.6274 -2127 37 33 40
-361.005 32.6199 -2127 44 39 47
-356.496 32.5971 -2126 40 37 44
-352.656 32.6357 -2129 33 30 37
-347.498 32.5518 -2124 30 27 35
-343.333 32.5599 -2125 33 28 39
-338.847 32.5374 -2124 38 34 45
-334.211 32.4998 -2122 46 43 53
-330.052 32.5082 -2123 46 43 53
-325.738 32.5014 -2123 39 36 46
-321.276 32.4793 -2122 32 29 39
-316.521 32.4268 -2119 36 34 44
-312.077 32.4049 -2118 40 38 48
-307.202 32.3374 -2114 41 40 50
-302.633 32.3005 -2112 44 43 53
-298.075 32.2637 -2110 45 47 56
-293.805 32.2575 -2110 47 49 58
-289.127 32.2056 -2107 49 52 61
-284.463 32.1538 -2104 49 52 61
-279.946 32.1174 -2102 48 51 60
-275.046 32.0353 -2097 49 52 61
-270.686 32.0144 -2096 52 54 63
-266.459 32.0088 -2096 53 55 64
-262.359 32.0186 -2097 51 55 66
-258.134 32.0132 -2097 50 54 65
-254.395 32.069 -2101 51 54 63
-250.405 32.0944 -2103 52 55 64
-246.057 32.074 -2102 53 56 65
-241.715 32.0536 -2101 53 56 65
-237.379 32.0334 -2100 55 58 67
-233.271 32.0439 -2101 54 56 67
-229.161 32.0543 -2102 67 67 75
-225.584 32.1412 -2108 164 162 167
-221.775 32.1975 -2112 239 237 239
-217.745 32.2235 -2114 253 251 252
-213.81 32.2647 -2117 254 250 247
-209.568 32.2604 -2117 255 247 239
-205.037 32.2104 -2114 253 239 229
-200.614 32.1758 -2112 250 230 220
-196.387 32.1716 -2112 242 222 212
-191.979 32.1372 -2110 233 211 201
-187.759 32.1334 -2110 228 207 197
-183.454 32.1142 -2109 229 208 199
-179.324 32.1258 -2110 231 208 197
-175.108 32.1222 -2110 233 210 199
-170.894 32.1187 -2110 233 210 200
-166.76 32.1303 -2111 232 210 200
-162.701 32.1574 -2113 231 210 199
-158.71 32.1998 -2116 233 210 199
-154.416 32.1814 -2115 231 209 198
-150.269 32.1935 -2116 230 209 198
-145.913 32.1599 -2114 228 207 196
-141.834 32.1874 -2116 228 206 195
-137.553 32.1694 -2115 229 207 196
-133.277 32.1514 -2114 229 206 195
-129.067 32.1487 -2114 229 206 195
-124.799 32.1309 -2113 229 207 198
-120.65 32.1436 -2114 229 208 198
-116.718 32.2172 -2119 230 207 196
-112.715 32.2757 -2123 230 207 196
-108.492 32.2733 -2123 231 208 197
-104.564 32.3624 -2129 233 210 201
-100.425 32.3907 -2131 234 211 202
-96.0988 32.3583 -2129 240 216 208
-91.824 32.3412 -2128 250 226 219
-87.6773 32.3697 -2130 255 233 227
-83.4451 32.368 -2130 255 238 227
-79.2136 32.3663 -2130 254 239 229
-74.9827 32.3648 -2130 238 222 217
-70.7524 32.3633 -2130 136 126 129
-66.4603 32.3315 -2128 70 63 69
-62.2058 32.315 -2127 58 55 65
-57.9558 32.2986 -2126 56 54 65
-53.6849 32.267 -2124 54 53 65
-49.4923 32.2812 -2125 55 54 67
-45.2748 32.2802 -2125 56 55 69
-41.135 32.3401 -2129 55 54 66
-36.9102 32.3393 -2129 54 53 65
-32.7472 32.3993 -2133 52 51 63
-28.5686 32.4595 -2137 49 50 62
-24.3856 32.5349 -2142 50 51 63
-20.1549 32.5648 -2144 50 51 61
-15.946 32.6556 -2150 47 47 58
-11.6863 32.6705 -2151 46 45 57
-7.41582 32.6551 -2150 41 42 53
-3.15229 32.6702 -2151 39 40 52
1.1157 32.7005 -2153 38 39 51
5.40414 32.8069 -2160 33 33 45
9.68452 32.7919 -2159 27 26 38
14.0063 32.8833 -2165 32 31 41
18.3182 32.914 -2167 43 41 52
22.6277 32.9296 -2168 49 46 58
26.9289 32.9301 -2168 48 44 57
31.2736 32.9763 -2171 47 43 56
35.5813 32.9769 -2171 42 43 53
39.9076 32.9929 -2172 43 43 53
44.2993 33.0545 -2176 45 44 54
48.6625 33.0859 -2178 46 45 56
53.0098 33.1021 -2179 37 37 46
57.3351 33.1032 -2179 31 33 40
61.6608 33.1044 -2179 37 37 46
65.9871 33.1057 -2179 39 38 48
70.3461 33.1223 -2180 45 40 48
74.7097 33.139 -2181 51 48 54
79.1141 33.171 -2183 86 88 90
83.6036 33.2334 -2187 198 185 183
88.0291 33.2656 -2189 236 220 216
92.2945 33.237 -2187 241 220 213
96.6853 33.2541 -2188 247 223 217
100.896 33.2106 -2185 250 225 219
105.337 33.2431 -2187 252 228 222
109.636 33.2301 -2186 251 228 223
113.879 33.2021 -2184 251 230 225
118.603 33.3109 -2191 253 232 229
122.85 33.2829 -2189 255 234 231
127.44 33.3463 -2193 255 236 229
132.046 33.4098 -2197 255 239 230
136.607 33.4581 -2200 255 240 230
140.924 33.4457 -2199 255 238 226
145.504 33.4943 -2202 255 238 225
149.756 33.4669 -2200 255 238 224
-593.519 28.8977 -2133 168 145 135
-588.126 28.846 -2130 172 148 137
-581.38 28.7266 -2122 174 149 137
-576.033 28.6752 -2119 179 150 135
-570.164 28.5969 -2114 182 152 138
-564.857 28.5457 -2111 184 153 139
-560.364 28.5352 -2111 188 155 141
-556.929 28.5789 -2115 190 157 142
-552.699 28.582 -2116 190 157 142
-547.951 28.5583 -2115 193 160 145
-544.497 28.6021 -2119 193 160 145
-540.266 28.6055 -2120 192 159 145
-535.53 28.582 -2119 190 158 144
-531.805 28.6125 -2122 189 157 143
-527.824 28.6297 -2124 188 155 141
-523.839 28.6469 -2126 186 152 141
-519.117 28.6237 -2125 183 149 139
-514.888 28.6276 -2126 181 144 135
-511.38 28.672 -2130 179 143 133
-506.67 28.6491 -2129 176 142 132
-502.203 28.6398 -2129 175 140 130
-498.911 28.6978 -2134 175 140 130
-495.138 28.7289 -2137 172 139 126
-491.586 28.7736 -2141 174 141 127
-488.705 28.8587 -2148 177 144 130
-484.445 28.8632 -2149 178 143 127
-479.963 28.8543 -2149 177 141 126
-474.378 28.7784 -2144 179 142 128
-469.695 28.7563 -2143 178 143 133
-464.152 28.6806 -2138 178 145 136
-460.138 28.6988 -2140 180 146 135
-454.63 28.6235 -2135 180 147 136
-450.2 28.6151 -2135 181 148 138
-445.148 28.5667 -2132 182 148 139
-441.766 28.6256 -2137 184 149 140
-436.525 28.5639 -2133 185 151 138
-432.519 28.5828 -2135 185 152 140
-428.109 28.5749 -2135 186 155 143
-423.701 28.5671 -2135 189 156 144
-418.709 28.5192 -2132 191 158 145
-415.286 28.5786 -2137 191 158 145
-411.462 28.6111 -2140 191 159 144
-406.488 28.5635 -2137 190 159 144
-402.659 28.5963 -2140 190 161 149
-398.634 28.6156 -2142 188 161 149
-393.868 28.5817 -2140 172 150 138
-388.568 28.5079 -2135 115 100 96
-383.832 28.4742 -2133 56 44 41
-379.285 28.4539 -2132 38 35 40
-374.217 28.3936 -2128 32 29 35
-369.69 28.3736 -2127 30 26 33
-365.171 28.3535 -2126 33 31 39
-360.998 28.3603 -2127 40 38 46
-356.656 28.3538 -2127 43 40 48
-352.152 28.334 -2126 38 36 44
-347.491 28.301 -2124 32 30 38
-343.326 28.3081 -2125 31 27 38
-338.841 28.2886 -2124 35 32 43
-334.52 28.2825 -2124 40 39 50
-329.89 28.2498 -2122 43 41 53
-326.039 28.2839 -2125 42 41 52
-321.724 28.2779 -2125 38 35 45
-316.665 28.2057 -2120 37 35 45
-312.07 28.1734 -2118 41 38 48
-307.196 28.1147 -2114 45 43 53
-302.484 28.0693 -2111 45 42 52
-297.786 28.0239 -2108 44 44 54
-293.382 28.0053 -2107 49 50 60
-288.847 27.9734 -2105 49 52 61
-284.322 27.9417 -2103 47 50 59
-279.408 27.8702 -2098 48 51 60
-275.041 27.852 -2097 50 53 62
-270.293 27.794 -2093 52 55 64
-266.072 27.7891 -2093 52 55 64
-261.853 27.7843 -2093 52 55 65
-257.759 27.7929 -2094 50 54 63
-253.664 27.8017 -2095 50 53 62
-249.685 27.8237 -2097 51 54 63
-245.35 27.8059 -2096 52 55 64
-241.365 27.8282 -2098 50 54 63
-237.148 27.8238 -2098 52 56 65
-232.822 27.8064 -2097 56 55 64
-228.83 27.8287 -2099 53 55 64
-225.152 27.891 -2104 68 71 80
-221.245 27.9267 -2107 139 141 149
-217.226 27.9493 -2109 196 197 205
-213.301 27.9852 -2112 228 226 230
-208.97 27.9682 -2111 244 239 238
-204.645 27.9513 -2110 249 240 236
-200.04 27.8946 -2106 249 236 230
-195.639 27.8646 -2104 241 228 221
-191.157 27.8213 -2101 233 218 210
-187.222 27.8577 -2104 228 209 200
-183.189 27.8809 -2106 227 207 198
-178.98 27.8777 -2106 229 207 196
-174.939 27.9009 -2108 230 208 197
-170.81 27.9111 -2109 233 210 200
-166.678 27.9213 -2110 232 210 201
-162.467 27.9184 -2110 230 209 200
-158.332 27.9288 -2111 232 209 198
-154.194 27.9392 -2112 231 208 198
-150.053 27.9497 -2113 229 208 198
-145.772 27.9338 -2112 229 207 196
-141.697 27.9578 -2114 229 206 195
-137.42 27.9421 -2113 228 207 197
-133.274 27.9529 -2114 229 207 197
-128.881 27.9109 -2111 230 207 196
-124.855 27.9483 -2114 229 207 196
-120.59 27.9329 -2113 231 208 198
-116.661 27.9968 -2118 232 208 197
-112.607 28.0344 -2121 232 208 197
-108.592 28.0853 -2125 234 209 199
-104.366 28.0834 -2125 236 213 202
-100.188 28.0948 -2126 239 216 206
-95.9615 28.0931 -2126 244 225 215
-91.6928 28.0782 -2125 252 235 226
-87.3052 28.0238 -2121 255 241 233
-83.2085 28.0619 -2124 255 244 238
-79.0262 28.0736 -2125 254 241 235
-74.8757 28.0987 -2127 222 209 206
-70.585 28.071 -2125 112 106 112
-66.4278 28.0962 -2127 61 58 68
-62.2046 28.0951 -2127 56 54 66
-57.9274 28.0676 -2125 56 54 66
-53.7092 28.0666 -2125 55 54 66
-49.5147 28.0789 -2126 54 53 66
-45.274 28.0648 -2125 56 55 68
-41.0956 28.0905 -2127 52 52 66
-36.9442 28.1426 -2131 52 52 65
-32.7619 28.1816 -2134 51 50 62
-28.568 28.2207 -2137 48 49 60
-24.3738 28.273 -2141 48 49 60
-20.1545 28.3123 -2144 47 48 58
-15.9309 28.3648 -2148 44 44 54
-11.6752 28.3777 -2149 44 43 54
-7.42602 28.4304 -2153 38 39 48
-3.15663 28.4435 -2154 34 36 45
1.11827 28.4963 -2158 30 33 42
5.40154 28.5096 -2159 29 30 41
9.6933 28.5361 -2161 28 28 40
13.9996 28.5759 -2164 34 33 44
18.3009 28.5894 -2165 45 43 55
22.6168 28.6162 -2167 47 45 57
26.9284 28.6298 -2168 43 42 54
31.2442 28.6436 -2169 42 41 53
35.5478 28.6442 -2169 43 42 54
39.8701 28.658 -2170 43 44 55
44.2577 28.7116 -2174 42 43 54
48.6169 28.7389 -2176 36 35 48
53.0087 28.7794 -2179 31 30 42
57.3603 28.7936 -2180 37 33 41
61.7162 28.8078 -2181 41 38 46
66.0767 28.8222 -2182 43 40 48
70.4416 28.8366 -2183 44 44 51
74.8453 28.8643 -2185 57 55 59
79.3663 28.9317 -2190 139 133 131
83.6784 28.92 -2189 214 198 193
88.2285 28.9876 -2194 226 208 202
92.4616 28.9495 -2191 233 211 202
96.816 28.9512 -2191 238 215 207
101.125 28.9398 -2190 241 217 211
105.479 28.9416 -2190 243 219 213
109.935 28.97 -2192 245 222 216
114.138 28.9323 -2189 245 224 218
118.492 28.9344 -2189 248 226 219
122.736 28.9102 -2187 252 230 223
127.205 28.9388 -2189 251 229 220
131.623 28.9544 -2190 251 230 220
136.294 29.0228 -2195 252 231 221
140.665 29.0253 -2195 254 235 222
145.369 29.094 -2200 255 235 222
149.753 29.0966 -2200 255 235 222
154.558 29.1786 -2206 255 237 223
158.813 29.155 -2204 255 237 223
163.653 29.2373 -2210 255 238 224
167.681 29.1741 -2205 255 238 225
-552.864 24.4873 -2134 169 144 132
-547.828 24.4557 -2132 168 142 131
-458.242 24.5183 -2152 158 130 123
-453.777 24.5112 -2152 160 132 124
-448.69 24.47 -2149 161 133 126
-445.066 24.5086 -2153 162 134 127
-440.406 24.4903 -2152 163 135 124
-436.564 24.5176 -2155 164 138 128
-431.31 24.4654 -2151 165 141 131
-427.266 24.4814 -2153 171 143 133
-421.255 24.3838 -2145 173 145 135
-417.222 24.4 -2147 173 145 134
-413.378 24.4277 -2150 173 145 133
-408.573 24.3986 -2148 174 146 134
-403.969 24.381 -2147 179 149 136
-399.744 24.3861 -2148 175 148 136
-395.334 24.38 -2148 163 140 129
-389.836 24.3058 -2142 131 115 111
-384.725 24.2544 -2138 71 57 54
-380.168 24.2371 -2137 41 38 44
-374.562 24.1519 -2130 34 30 37
-369.858 24.1234 -2128 32 28 35
-365.337 24.1065 -2127 29 28 36
-361.162 24.1123 -2128 31 30 38
-356.651 24.0954 -2127 38 35 43
-352.643 24.1125 -2129 38 36 44
-348.14 24.0958 -2128 34 33 41
-343.482 24.0679 -2126 31 28 38
-339.154 24.0626 -2126 32 29 39
-334.356 24.0234 -2123 34 33 44
-330.04 24.0184 -2123 39 37 48
-325.42 23.9906 -2121 42 40 52
-321.567 24.0197 -2124 42 39 49
-316.51 23.9582 -2119 41 38 48
-312.065 23.942 -2118 42 39 49
-306.9 23.8695 -2112 46 43 53
-302.622 23.8648 -2112 46 43 53
-297.499 23.7924 -2106 45 45 55
-293.238 23.788 -2106 48 49 59
-288.705 23.7608 -2104 47 50 59
-284.047 23.7226 -2101 47 50 59
-279.67 23.707 -2100 47 50 59
-274.774 23.6463 -2095 50 53 62
-270.805 23.6648 -2097 51 54 63
-266.195 23.6266 -2094 51 54 63
-262.099 23.634 -2095 51 54 63
-257.755 23.6188 -2094 49 52 61
-253.538 23.6147 -2094 49 52 61
-249.324 23.6109 -2094 50 53 62
-245.111 23.6072 -2094 50 53 62
-240.786 23.5922 -2093 49 54 63
-236.579 23.5885 -2093 52 56 64
-232.597 23.6075 -2095 57 56 64
-228.826 23.6491 -2099 53 55 65
-224.613 23.6457 -2099 53 58 69
-220.717 23.676 -2102 54 57 68
-216.707 23.6951 -2104 73 75 87
-212.591 23.7032 -2105 104 104 114
-208.274 23.6888 -2104 130 128 133
-204.06 23.6857 -2104 154 150 152
-199.467 23.6376 -2100 174 169 170
-195.171 23.6232 -2099 189 183 183
-190.972 23.6202 -2099 203 195 191
-186.952 23.6399 -2101 213 201 196
-182.838 23.6483 -2102 219 206 199
-179.062 23.7019 -2107 226 209 201
-174.687 23.6767 -2105 229 210 204
-170.726 23.7079 -2108 230 210 204
-166.438 23.6941 -2107 228 210 203
-162.156 23.6804 -2106 229 211 204
-157.879 23.6666 -2105 231 210 202
-153.826 23.6867 -2107 230 209 200
-149.838 23.7182 -2110 230 209 200
-145.632 23.7158 -2110 230 207 197
-141.493 23.7249 -2111 229 206 195
-137.223 23.7115 -2110 231 208 198
-132.831 23.6758 -2107 232 209 199
-128.635 23.6738 -2107 231 208 197
-124.617 23.7056 -2110 231 209 200
-120.303 23.6813 -2108 231 209 200
-116.163 23.6908 -2109 233 211 203
-112.339 23.7677 -2116 234 212 204
-108.284 23.7997 -2119 234 211 204
-103.873 23.7532 -2115 236 216 209
-99.7622 23.7741 -2117 244 224 217
-95.5086 23.7614 -2116 250 237 228
-91.3893 23.7824 -2118 254 244 237
-87.2215 23.7923 -2119 255 247 241
-83.0112 23.791 -2119 255 250 247
-78.8017 23.7898 -2119 236 227 225
-74.6633 23.8111 -2121 154 145 147
-70.4842 23.8212 -2122 73 70 78
-66.333 23.8427 -2124 55 54 67
-62.1158 23.8417 -2124 56 55 67
-57.8719 23.8296 -2123 54 53 65
-53.683 23.8399 -2124 54 53 65
-49.4673 23.8392 -2124 55 54 65
-45.2519 23.8384 -2124 55 54 65
-41.0949 23.8715 -2127 51 52 66
-36.9263 23.9045 -2130 52 53 66
-32.7153 23.9152 -2131 52 51 63
-28.5408 23.9597 -2135 48 49 59
-24.3848 24.0378 -2142 49 50 60
-20.1542 24.0599 -2144 47 48 58
-15.9158 24.0821 -2146 45 45 55
-11.6533 24.0707 -2145 45 44 54
-7.41211 24.1154 -2149 37 39 46
-3.15218 24.1378 -2151 32 34 42
1.11669 24.1827 -2155 27 30 39
5.39894 24.2164 -2158 26 28 39
9.69763 24.2614 -2162 28 29 41
14.0123 24.3065 -2166 38 38 50
18.326 24.3291 -2168 43 43 55
22.6373 24.3407 -2169 45 44 56
26.9528 24.3523 -2170 43 42 54
31.2725 24.3639 -2171 42 41 53
35.58 24.3644 -2171 44 43 55
39.9062 24.3762 -2172 44 44 56
44.2977 24.4218 -2176 38 40 52
48.6608 24.4449 -2178 29 29 42
53.0565 24.4794 -2181 32 30 43
57.4383 24.5026 -2183 40 35 44
61.7718 24.5035 -2183 41 38 46
66.1059 24.5045 -2183 47 44 51
70.6018 24.5617 -2188 49 50 56
74.9126 24.5515 -2187 96 92 94
79.365 24.5864 -2190 189 176 171
83.7917 24.6101 -2192 226 205 198
88.1466 24.6114 -2192 234 212 203
92.5022 24.6127 -2192 235 212 201
96.8586 24.6142 -2192 237 213 205
101.216 24.6157 -2192 238 214 208
105.622 24.6285 -2193 241 216 211
110.033 24.6413 -2194 243 219 214
114.24 24.6093 -2191 243 222 216
118.491 24.5886 -2189 246 223 216
122.846 24.5904 -2189 249 225 217
127.261 24.6036 -2190 250 226 216
131.741 24.628 -2192 249 227 216
136.354 24.6749 -2196 250 229 218
140.791 24.6883 -2197 251 230 218
145.036 24.668 -2195 253 231 219
149.478 24.6814 -2196 255 233 220
154.135 24.7288 -2200 255 233 219
158.594 24.7424 -2201 255 234 219
163.354 24.801 -2206 255 237 222
167.755 24.8035 -2206 255 237 223
172.079 24.795 -2205 255 237 224
176.24 24.7639 -2202 255 237 224
180.474 24.7441 -2200 255 238 226
-416.064 20.2418 -2164 153 130 121
-411.611 20.2364 -2164 149 126 116
-406.785 20.2128 -2162 155 132 122
-402.53 20.2169 -2163 152 131 122
-398.089 20.2117 -2163 142 125 118
-392.56 20.1506 -2157 120 108 105
-386.699 20.0708 -2149 83 73 71
-380.874 19.9914 -2141 46 43 48
-374.733 19.8932 -2131 39 36 41
-370.027 19.8697 -2129 38 34 39
-365.332 19.8463 -2127 30 29 37
-360.817 19.8325 -2126 26 25 33
-356.981 19.8558 -2129 31 27 35
-352.804 19.8608 -2130 35 32 40
-348.626 19.8655 -2131 36 35 43
-343.639 19.8237 -2127 36 33 41
-339.309 19.8195 -2127 34 31 40
-334.667 19.7965 -2125 34 31 42
-330.502 19.8017 -2126 37 34 44
-325.875 19.7788 -2124 40 37 47
-321.411 19.7655 -2123 43 40 50
-316.804 19.7427 -2121 43 40 50
-312.061 19.7109 -2118 43 40 50
-306.751 19.642 -2111 45 42 52
-302.331 19.6287 -2110 46 43 53
-297.495 19.5878 -2106 43 44 54
-293.373 19.5932 -2107 46 48 58
-288.563 19.5524 -2103 46 49 58
-283.772 19.5117 -2099 47 50 59
-279.399 19.4987 -2098 47 50 59
-274.508 19.4488 -2093 48 51 60
-270.285 19.4454 -2093 50 53 62
-266.064 19.4419 -2093 51 54 63
-261.97 19.4479 -2094 50 53 62
-257.752 19.4447 -2094 49 52 61
-253.414 19.4323 -2093 49 52 61
-249.201 19.4289 -2093 50 53 62
-245.108 19.4351 -2094 50 53 62
-240.782 19.4229 -2093 49 54 63
-236.689 19.4292 -2094 50 54 63
-232.704 19.4448 -2096 57 56 63
-228.496 19.4417 -2096 55 56 66
-224.182 19.4296 -2095 55 58 69
-220.189 19.4454 -2097 55 58 71
-216.086 19.452 -2098 60 62 75
-211.881 19.4494 -2098 59 60 72
-207.776 19.456 -2099 60 63 73
-203.378 19.435 -2097 61 66 75
-198.894 19.4044 -2094 57 63 69
-194.61 19.3927 -2093 54 58 63
-190.423 19.3903 -2093 54 56 60
-186.415 19.4065 -2095 65 64 63
-182.488 19.432 -2098 82 79 77
-178.635 19.4668 -2102 124 113 111
-174.519 19.4739 -2103 155 142 140
-170.481 19.4903 -2105 187 173 171
-166.278 19.4882 -2105 206 191 189
-161.846 19.4584 -2102 214 200 196
-157.727 19.4656 -2103 220 204 200
-153.605 19.473 -2104 225 207 201
-149.552 19.4893 -2106 230 209 200
-145.422 19.4968 -2107 234 211 201
-141.357 19.5135 -2109 233 210 199
-137.156 19.5118 -2109 230 205 195
-132.766 19.4823 -2106 229 205 195
-128.511 19.4715 -2105 232 209 198
-124.261 19.4606 -2104 234 216 209
-120.073 19.4591 -2104 231 214 208
-116.272 19.5224 -2111 232 214 210
-112.125 19.5302 -2112 234 217 214
-108.078 19.5566 -2115 236 219 216
-103.872 19.5553 -2115 239 224 222
-99.6665 19.554 -2115 246 233 231
-95.3719 19.5343 -2113 249 238 234
-91.2154 19.5424 -2114 250 242 238
-86.9321 19.5228 -2112 240 234 230
-82.8534 19.5495 -2115 198 192 193
-78.6519 19.5485 -2115 116 110 112
-74.5918 19.5845 -2119 67 62 69
-70.3504 19.5743 -2118 56 54 65
-66.2384 19.6012 -2121 55 54 68
-61.998 19.5912 -2120 56 55 67
-57.8166 19.5997 -2121 52 51 63
-53.657 19.6175 -2123 53 52 64
-49.42 19.6076 -2122 54 53 63
-45.2726 19.6347 -2125 53 52 62
-41.1136 19.6619 -2128 51 52 66
-36.8911 19.6614 -2128 52 52 65
-32.7149 19.6887 -2131 52 51 63
-28.5538 19.7345 -2136 48 49 59
-24.3503 19.7619 -2139 48 49 59
-20.1163 19.7709 -2140 48 49 59
-15.9082 19.8168 -2145 46 46 56
-11.6531 19.8167 -2145 45 44 54
-7.41546 19.8627 -2150 35 37 44
-3.15507 19.8904 -2153 31 34 41
1.11823 19.9366 -2158 28 31 40
5.40137 19.9458 -2159 29 30 41
9.69749 19.9737 -2162 32 33 45
13.9991 19.9923 -2164 40 41 53
18.2919 19.9925 -2164 44 44 56
22.5953 20.002 -2165 43 42 54
26.94 20.0392 -2169 41 40 52
31.2721 20.0581 -2171 43 42 54
35.6123 20.077 -2173 41 40 52
39.9056 20.0682 -2172 36 36 49
44.3378 20.1242 -2178 31 32 45
48.7048 20.1432 -2180 29 29 42
53.0558 20.1531 -2181 29 29 41
57.4638 20.1815 -2184 35 33 44
61.9124 20.2192 -2188 40 37 47
66.2564 20.22 -2188 49 46 55
70.6976 20.2486 -2191 56 51 54
75.1171 20.268 -2193 156 146 145
79.4364 20.2597 -2192 222 203 195
83.8288 20.27 -2193 243 219 208
88.1856 20.271 -2193 245 219 208
92.501 20.2629 -2192 242 218 205
96.9014 20.2734 -2193 244 220 212
101.214 20.2653 -2192 245 220 215
105.572 20.2666 -2192 245 220 215
109.831 20.2495 -2190 245 221 217
114.343 20.2786 -2193 244 223 219
118.543 20.2523 -2190 246 222 218
122.9 20.2538 -2190 247 223 218
127.085 20.2276 -2187 250 225 217
131.679 20.2662 -2191 249 225 216
136.29 20.3049 -2195 250 227 216
140.725 20.3159 -2196 249 228 217
145.298 20.3454 -2199 251 230 218
149.748 20.3565 -2200 253 230 219
