ply
format ascii 1.0
comment Created by Open3D
element vertex 1458
property double x
property double y
property double z
property uchar red
property uchar green
property uchar blue
end_header
-126.101 -378.712 -2042 66 69 67
-121.988 -378.68 -2042 58 61 58
-118.223 -379.763 -2048 56 59 56
-114.268 -380.29 -2051 56 60 57
-110.355 -381.003 -2055 57 61 58
-106.324 -381.347 -2057 59 63 60
-102.881 -383.916 -2071 62 66 63
-99.2881 -386.115 -2083 65 69 66
-95.4647 -387.573 -2091 62 66 61
-91.8718 -390.145 -2105 63 67 62
-88.3899 -393.458 -2123 64 68 63
-85.3515 -399.181 -2154 67 71 66
-313.792 -402.558 -2134 67 75 71
-305.791 -397.762 -2109 75 82 77
-299.468 -395.044 -2095 73 80 75
-293.909 -393.271 -2086 69 75 72
-288.529 -391.688 -2078 57 61 58
-283.867 -391.048 -2075 59 62 59
-279.625 -390.976 -2075 63 69 64
-274.323 -389.397 -2067 62 69 63
-269.579 -388.574 -2063 63 70 64
-264.596 -387.375 -2057 63 70 64
-260.019 -386.743 -2054 63 70 64
-254.835 -385.171 -2046 64 68 63
-250.787 -385.294 -2047 64 68 63
-246.256 -384.666 -2044 63 67 62
-242.094 -384.603 -2044 58 62 57
-237.585 -383.977 -2041 57 61 56
-233.548 -384.105 -2042 59 63 58
-228.947 -383.293 -2038 58 62 57
-224.695 -383.047 -2037 55 59 54
-220.341 -382.614 -2035 54 58 53
-216.209 -382.558 -2035 52 56 51
-211.871 -382.127 -2033 50 54 49
-207.542 -381.697 -2031 51 55 50
-203.524 -381.833 -2032 52 56 51
-199.307 -381.593 -2031 51 55 48
-195.095 -381.355 -2030 52 57 50
-190.796 -380.93 -2028 50 57 51
-186.598 -380.694 -2027 52 57 51
-182.406 -380.459 -2026 55 59 54
-178.131 -380.037 -2024 54 58 53
-174.124 -380.18 -2025 51 55 51
-170.114 -380.324 -2026 49 53 50
-166.101 -380.469 -2027 49 53 50
-162.086 -380.614 -2028 48 52 49
-158.302 -381.324 -2032 51 55 52
-154.275 -381.472 -2033 58 62 59
-150.246 -381.621 -2034 61 65 62
-146.142 -381.583 -2034 62 66 65
-142.039 -381.546 -2034 57 60 59
-137.937 -381.511 -2034 44 46 45
-133.968 -381.851 -2036 49 54 53
-129.928 -382.005 -2037 68 73 72
-125.886 -382.16 -2038 63 65 64
-122.019 -382.878 -2042 58 61 59
-118.253 -383.973 -2048 56 59 56
-114.186 -384.131 -2049 56 60 57
-110.383 -385.227 -2055 57 61 58
-106.764 -387.074 -2065 58 62 59
-102.808 -387.797 -2069 61 65 62
-99.1225 -389.645 -2079 65 69 66
-95.4888 -391.869 -2091 64 68 63
-91.8514 -394.282 -2104 65 69 64
-88.4123 -397.819 -2123 65 69 64
-85.3732 -403.606 -2154 65 69 64
-313.579 -406.595 -2132 68 76 72
-305.145 -401.175 -2104 75 82 77
-298.831 -398.427 -2090 70 76 70
-293.422 -396.825 -2082 59 63 61
-288.742 -396.177 -2079 49 53 50
-283.941 -395.34 -2075 60 63 60
-279.158 -394.505 -2071 63 70 64
-274.128 -393.29 -2065 63 70 64
-269.91 -393.219 -2065 63 70 64
-264.407 -391.246 -2055 62 69 63
-259.833 -390.607 -2052 64 71 65
-254.9 -389.398 -2046 64 68 63
-250.729 -389.332 -2046 64 68 63
-245.958 -388.316 -2041 62 66 61
-242.038 -388.634 -2043 58 62 57
-237.647 -388.191 -2041 55 59 54
-233.494 -388.13 -2041 55 59 55
-229.119 -387.689 -2039 55 59 54
-224.753 -387.25 -2037 55 59 54
-220.398 -386.812 -2035 53 57 52
-216.052 -386.376 -2033 51 55 50
-211.717 -385.94 -2031 51 55 50
-207.595 -385.886 -2031 51 55 50
-203.476 -385.833 -2031 52 56 51
-199.063 -385.211 -2028 52 56 49
-195.146 -385.54 -2030 53 57 51
-190.657 -384.73 -2026 51 58 52
-186.278 -384.112 -2023 51 56 50
-182.092 -383.874 -2022 53 57 52
-177.912 -383.638 -2021 53 57 52
-174.082 -384.162 -2024 51 55 51
-169.989 -384.117 -2024 49 53 50
-166.062 -384.454 -2026 48 52 49
-161.968 -384.411 -2026 46 50 47
-158.031 -384.75 -2028 48 52 49
-154.011 -384.899 -2029 54 58 55
-149.989 -385.049 -2030 56 60 57
-145.964 -385.201 -2031 58 62 61
-142.005 -385.543 -2033 57 61 60
-137.837 -385.317 -2032 52 54 54
-133.871 -385.662 -2034 61 67 65
-129.962 -386.196 -2037 63 69 67
-125.918 -386.353 -2038 58 60 59
-121.991 -386.89 -2041 56 59 57
-118.11 -387.617 -2045 58 61 58
-114.159 -388.156 -2048 57 61 58
-110.358 -389.264 -2054 59 63 60
-106.585 -390.563 -2061 60 64 61
-102.884 -392.241 -2070 62 66 63
-99.1001 -393.731 -2078 63 67 64
-95.7417 -397.116 -2096 64 68 63
-92.1806 -399.934 -2111 65 68 63
-88.5599 -402.753 -2126 66 70 65
-85.4345 -408.224 -2155 65 68 63
-311.896 -408.699 -2120 75 82 77
-304.21 -404.184 -2097 76 82 75
-298.48 -402.178 -2087 70 75 68
-293.358 -400.943 -2081 53 57 55
-288.818 -400.481 -2079 46 49 47
-284.289 -400.021 -2077 62 65 62
-279.366 -398.984 -2072 65 71 66
-274.598 -398.141 -2068 64 71 65
-269.719 -397.106 -2063 63 70 64
-264.991 -396.266 -2059 64 70 64
-260.154 -395.235 -2054 65 70 65
-255.341 -394.205 -2049 65 69 64
-250.795 -393.562 -2046 63 67 62
-246.384 -393.112 -2044 62 66 59
-242.338 -393.24 -2045 59 63 57
-237.942 -392.792 -2043 56 60 55
-233.555 -392.346 -2041 57 61 58
-229.178 -391.901 -2039 56 60 57
-225.032 -391.841 -2039 55 59 54
-220.563 -391.206 -2036 52 56 51
-216.215 -390.765 -2034 51 55 50
-211.876 -390.325 -2032 52 56 51
-207.445 -389.694 -2029 51 55 50
-203.328 -389.64 -2029 51 55 50
-198.919 -389.011 -2026 51 55 48
-194.812 -388.96 -2026 51 56 49
-190.518 -388.525 -2024 50 57 51
-186.142 -387.9 -2021 51 56 51
-181.959 -387.661 -2020 54 58 53
-177.871 -387.613 -2020 54 58 53
-173.955 -387.951 -2022 51 55 51
-170.118 -388.482 -2025 50 54 51
-166.269 -389.013 -2028 49 53 50
-162.25 -389.162 -2029 47 51 48
-158.384 -389.696 -2032 47 51 48
-154.051 -389.08 -2029 49 53 50
-150.028 -389.232 -2030 50 54 51
-146.002 -389.385 -2031 53 57 56
-141.903 -389.348 -2031 56 60 59
-137.805 -389.311 -2031 58 62 61
-133.708 -389.276 -2031 64 71 67
-129.932 -390.2 -2036 56 63 59
-125.827 -390.166 -2036 56 59 56
-121.843 -390.517 -2038 57 60 57
-117.968 -391.252 -2042 60 63 60
-114.244 -392.563 -2049 60 64 61
-110.44 -393.684 -2055 60 64 61
-106.561 -394.613 -2060 61 65 62
-102.911 -396.501 -2070 62 66 63
-99.3166 -398.774 -2082 61 65 62
-95.7664 -401.43 -2096 63 66 61
-92.117 -403.895 -2109 63 66 61
-88.5827 -407.127 -2126 66 69 64
-85.417 -412.466 -2154 66 70 65
-311.096 -411.926 -2114 76 84 79
-303.71 -407.752 -2093 75 81 75
-298.13 -405.919 -2084 67 72 66
-293.012 -404.672 -2078 48 52 51
-288.339 -404.01 -2075 46 50 49
-283.543 -403.155 -2071 61 66 63
-279.17 -402.886 -2070 63 70 65
-274.273 -401.839 -2065 65 73 68
-269.398 -400.794 -2060 63 71 65
-264.803 -400.139 -2057 64 71 65
-260.097 -399.291 -2053 67 72 67
-255.533 -398.64 -2050 65 69 65
-250.861 -397.795 -2046 64 68 63
-246.449 -397.34 -2044 61 65 59
-242.284 -397.275 -2044 58 62 57
-237.888 -396.823 -2042 57 62 57
-233.502 -396.372 -2040 56 61 58
-229.239 -396.116 -2039 55 59 56
-224.871 -395.667 -2037 54 58 53
-220.621 -395.414 -2036 53 57 52
-216.165 -394.773 -2033 52 56 51
-211.932 -394.523 -2032 51 55 50
-207.499 -393.885 -2029 51 55 50
-203.382 -393.83 -2029 52 56 51
-199.069 -393.389 -2027 50 54 48
-194.671 -392.755 -2024 50 54 49
-190.286 -392.122 -2021 50 55 50
-186.006 -391.684 -2019 51 56 52
-181.737 -391.247 -2017 53 57 53
-177.741 -391.394 -2018 54 58 54
-173.915 -391.929 -2021 54 58 54
-169.994 -392.272 -2023 52 56 52
-166.231 -393.003 -2027 52 56 53
-162.212 -393.153 -2028 51 55 52
-158.191 -393.305 -2029 47 51 48
-153.94 -392.876 -2027 47 51 48
-149.919 -393.03 -2028 47 51 48
-145.896 -393.185 -2029 49 53 51
-141.87 -393.34 -2030 51 55 53
-137.773 -393.304 -2030 62 63 62
-133.743 -393.462 -2031 64 68 64
-129.774 -393.814 -2033 58 62 58
-125.613 -393.587 -2032 55 59 56
-121.815 -394.523 -2037 56 59 56
-118.056 -395.653 -2043 59 62 59
-114.107 -396.204 -2046 60 64 61
-110.254 -397.142 -2051 62 66 63
-106.589 -398.856 -2060 61 65 62
-102.888 -400.572 -2069 61 64 61
-99.3902 -403.255 -2083 63 66 63
-95.7914 -405.746 -2096 66 69 64
-92.1411 -408.238 -2109 65 68 63
-88.5643 -411.311 -2125 67 70 65
-85.2807 -416.127 -2150 65 69 65
-310.296 -415.132 -2108 73 81 77
-303.066 -411.111 -2088 67 75 71
-297.924 -409.849 -2082 59 66 62
-293.232 -409.179 -2079 46 50 49
-288.416 -408.313 -2075 52 57 55
-283.618 -407.449 -2071 62 69 65
-278.84 -406.586 -2067 62 69 65
-273.947 -405.529 -2062 62 70 66
-269.208 -404.669 -2058 61 69 63
-264.488 -403.811 -2054 62 70 64
-259.532 -402.561 -2048 63 70 64
-255.352 -402.492 -2048 66 70 67
-250.928 -402.031 -2046 63 67 63
-246.394 -401.375 -2043 60 64 59
-242.111 -401.113 -2042 57 63 57
-238.068 -401.245 -2043 55 62 56
-233.564 -400.592 -2040 55 61 58
-229.412 -400.53 -2040 56 61 57
-224.931 -399.881 -2037 56 60 55
-220.68 -399.625 -2036 54 58 53
-216.223 -398.977 -2033 54 58 53
-211.884 -398.528 -2031 54 58 53
-207.555 -398.079 -2029 53 57 52
-203.035 -397.239 -2025 53 57 52
-198.729 -396.793 -2023 51 55 50
-194.626 -396.741 -2023 51 55 50
-190.43 -396.493 -2022 51 55 50
-186.056 -395.855 -2019 52 56 52
-181.695 -395.217 -2016 54 58 55
-177.7 -395.366 -2017 55 59 56
-173.875 -395.907 -2020 55 59 55
-170.039 -396.449 -2023 55 59 54
-166.275 -397.188 -2027 55 59 55
-162.415 -397.732 -2030 52 56 53
-158.311 -397.689 -2030 48 52 49
-154.132 -397.451 -2029 47 51 48
-150.033 -397.411 -2029 44 48 45
-145.863 -397.175 -2028 39 43 40
-141.838 -397.333 -2029 51 54 52
-137.674 -397.1 -2028 62 62 61
-133.713 -397.455 -2030 60 63 59
-129.681 -397.616 -2031 56 59 54
-125.832 -398.365 -2035 54 58 55
-121.967 -399.115 -2039 56 59 56
-117.856 -399.083 -2039 59 62 59
-114.137 -400.422 -2046 60 64 61
-110.391 -401.762 -2053 60 64 61
-106.617 -403.103 -2060 61 65 62
-102.816 -404.445 -2067 62 65 62
-99.1779 -406.571 -2078 64 67 64
-95.8168 -410.066 -2096 65 69 64
-92.0781 -412.193 -2107 66 70 65
-88.5459 -415.495 -2124 67 71 66
-309.644 -418.515 -2103 74 82 79
-302.712 -414.85 -2085 64 71 68
-297.718 -413.773 -2080 53 58 55
-292.606 -412.5 -2074 45 49 46
-288.077 -412.023 -2072 55 60 57
-283.284 -411.15 -2068 62 69 64
-278.376 -410.079 -2063 63 70 65
-273.357 -408.812 -2057 62 69 64
-268.888 -408.341 -2055 59 66 62
-264.173 -407.474 -2051 58 65 60
-259.602 -406.806 -2048 57 64 60
-255.171 -406.339 -2046 64 68 65
-250.75 -405.874 -2044 63 67 63
-246.098 -405.012 -2040 60 64 59
-241.939 -404.946 -2040 56 62 56
-237.782 -404.881 -2040 54 61 55
-233.398 -404.42 -2038 56 61 58
-229.361 -404.556 -2039 58 62 58
-224.991 -404.097 -2037 57 61 56
-220.631 -403.64 -2035 54 58 53
-216.175 -402.986 -2032 54 58 53
-211.836 -402.532 -2030 54 58 53
-207.406 -401.88 -2027 54 58 53
-203.089 -401.428 -2025 54 58 53
-198.685 -400.779 -2022 52 56 51
-194.582 -400.726 -2022 52 56 51
-190.293 -400.278 -2020 52 56 51
-186.014 -399.831 -2018 53 57 53
-181.654 -399.187 -2015 55 59 56
-177.836 -399.732 -2018 55 59 56
-173.922 -400.081 -2020 54 58 55
-170.085 -400.629 -2023 54 58 53
-166.319 -401.376 -2027 54 58 55
-162.459 -401.925 -2030 51 55 52
-158.276 -401.684 -2029 49 53 50
-154.022 -401.246 -2027 46 50 47
-149.925 -401.205 -2027 44 48 45
-145.542 -400.374 -2023 44 46 46
-141.596 -400.731 -2025 56 59 58
-137.507 -400.693 -2025 60 62 62
-133.551 -401.052 -2027 56 60 56
-129.716 -401.808 -2031 54 58 53
-125.803 -402.368 -2034 54 58 55
-121.82 -402.73 -2036 57 60 57
-117.946 -403.489 -2040 60 63 60
-114.112 -404.446 -2045 60 64 61
-110.097 -404.812 -2047 59 63 60
-106.49 -406.76 -2057 60 64 61
-102.694 -408.116 -2064 61 65 62
-99.1089 -410.462 -2076 62 66 63
-95.6595 -413.599 -2092 64 68 63
-92.2338 -417.132 -2110 67 71 66
-88.5279 -419.678 -2123 67 71 66
-317.037 -426.995 -2123 75 81 82
-308.698 -421.479 -2096 71 79 77
-302.214 -418.379 -2081 63 69 67
-297.084 -417.09 -2075 52 56 54
-292.263 -416.205 -2071 50 54 51
-287.877 -415.925 -2070 55 60 56
-283.088 -415.042 -2066 59 66 60
-278.317 -414.162 -2062 61 68 62
-273.432 -413.082 -2057 62 69 63
-268.7 -412.204 -2053 60 67 63
-263.987 -411.328 -2049 58 65 61
-259.42 -410.654 -2046 56 62 59
-255.116 -410.383 -2045 62 66 63
-250.573 -409.711 -2042 62 66 63
-246.286 -409.443 -2041 59 63 58
-242.005 -409.175 -2040 56 61 56
-237.73 -408.909 -2039 55 60 55
-233.232 -408.243 -2036 57 61 57
-229.086 -408.179 -2036 57 61 57
-224.721 -407.716 -2034 56 60 55
-220.583 -407.655 -2034 53 57 52
-216.34 -407.395 -2033 51 55 50
-211.894 -406.736 -2030 54 58 53
-207.565 -406.278 -2028 55 59 54
-203.145 -405.62 -2025 54 58 53
-198.935 -405.365 -2024 54 58 53
-194.539 -404.711 -2021 53 57 52
-190.439 -404.658 -2021 52 56 51
-186.064 -404.006 -2018 53 57 54
-181.793 -403.555 -2016 55 59 56
-177.884 -403.907 -2018 54 58 55
-173.797 -403.859 -2018 53 57 54
-169.879 -404.212 -2020 55 59 54
-166.118 -404.967 -2024 54 58 55
-162.423 -405.922 -2029 52 56 53
-158.163 -405.479 -2027 50 54 51
-153.988 -405.236 -2026 44 48 45
-149.892 -405.195 -2026 39 43 40
-145.509 -404.354 -2022 52 54 54
-141.494 -404.515 -2023 58 60 60
-137.476 -404.677 -2024 58 60 60
-133.719 -405.64 -2029 54 58 55
-129.687 -405.804 -2030 53 57 53
-125.899 -406.769 -2035 55 58 55
-121.793 -406.735 -2035 57 60 57
-117.92 -407.502 -2039 59 62 59
-114.031 -408.27 -2043 60 64 61
-110.127 -409.039 -2047 59 63 60
-106.26 -410.009 -2052 60 64 61
-102.821 -412.777 -2066 61 65 62
-98.9925 -414.148 -2073 63 67 64
-95.4566 -416.919 -2087 63 67 62
-91.909 -419.89 -2102 68 72 67
-88.4267 -423.461 -2120 67 71 66
-316.378 -430.397 -2118 73 79 80
-307.899 -424.621 -2090 65 71 70
-302.008 -422.301 -2079 60 65 64
-296.88 -420.999 -2073 52 56 55
-292.061 -420.105 -2069 54 58 55
-287.4 -419.416 -2066 53 58 54
-282.481 -418.321 -2061 57 64 58
-277.854 -417.635 -2058 59 66 60
-273.108 -416.747 -2054 62 69 63
-268.512 -416.063 -2051 60 67 63
-263.931 -415.38 -2048 59 65 61
-259.618 -415.105 -2047 58 62 58
-255.062 -414.425 -2044 60 64 60
-250.642 -413.95 -2042 61 65 62
-246.113 -413.273 -2039 60 64 59
-241.835 -413.003 -2038 58 62 57
-237.563 -412.733 -2037 56 60 55
-232.953 -411.858 -2033 56 60 55
-228.587 -411.389 -2031 55 59 54
-224.341 -411.124 -2030 54 58 53
-220.21 -411.062 -2030 53 57 52
-215.867 -410.597 -2028 51 55 50
-211.639 -410.336 -2027 53 57 52
-207.417 -410.075 -2026 54 58 53
-203 -409.411 -2023 52 56 51
-198.597 -408.749 -2020 52 56 51
-194.4 -408.492 -2019 52 56 51
-190.209 -408.237 -2018 52 56 51
-186.115 -408.185 -2018 53 57 53
-181.843 -407.73 -2016 54 58 55
-177.845 -407.882 -2017 54 58 55
-173.844 -408.036 -2018 53 57 53
-170.009 -408.595 -2021 54 58 54
-166 -408.751 -2022 55 59 56
-162.227 -409.514 -2026 54 58 55
-158.128 -409.47 -2026 50 54 51
-153.802 -408.821 -2023 43 47 44
-149.711 -408.779 -2023 44 48 45
-145.405 -408.133 -2020 57 59 59
-141.463 -408.497 -2022 56 58 58
-137.514 -408.863 -2024 54 56 56
-133.689 -409.634 -2028 53 57 54
-129.722 -410.001 -2030 53 57 54
-125.81 -410.572 -2033 54 57 54
-121.946 -411.346 -2037 55 59 56
-117.894 -411.515 -2038 59 63 60
-113.951 -412.089 -2041 59 63 60
-110.157 -413.269 -2047 59 63 60
-106.341 -414.451 -2053 60 64 61
-102.6 -416.037 -2061 60 64 61
-99.0672 -418.633 -2074 61 65 62
-95.2997 -420.423 -2083 63 67 62
-91.7591 -423.425 -2098 69 73 68
-88.576 -428.446 -2123 68 72 67
-316.467 -434.808 -2118 70 76 76
-307.691 -428.562 -2088 63 69 67
-301.511 -425.808 -2075 59 64 62
-296.819 -425.109 -2072 53 57 56
-292.001 -424.205 -2068 53 57 56
-287.342 -423.509 -2065 55 59 57
-282.697 -422.813 -2062 59 66 61
-277.931 -421.915 -2058 61 68 63
-273.317 -421.222 -2055 63 70 65
-268.718 -420.531 -2052 60 67 63
-264.005 -419.637 -2048 59 65 61
-259.31 -418.744 -2044 58 62 57
-254.883 -418.263 -2042 60 63 59
-250.467 -417.782 -2040 61 64 59
-245.94 -417.098 -2037 60 64 59
-241.665 -416.825 -2036 59 63 58
-237.395 -416.554 -2035 57 61 56
-232.674 -415.464 -2030 55 59 54
-228.312 -414.991 -2028 55 59 54
-224.072 -414.723 -2027 53 57 52
-220.054 -414.865 -2028 53 57 52
-215.927 -414.804 -2028 53 57 52
-211.698 -414.54 -2027 54 58 53
-207.372 -414.073 -2025 54 58 53
-202.855 -413.198 -2021 53 57 52
-198.652 -412.937 -2020 51 55 50
-194.261 -412.269 -2017 53 57 52
-190.167 -412.216 -2017 53 57 52
-185.982 -411.959 -2016 52 56 52
-181.893 -411.907 -2016 53 57 54
-177.983 -412.266 -2018 53 57 54
-173.806 -412.013 -2017 52 56 53
-169.804 -412.169 -2018 53 57 54
-165.963 -412.735 -2021 53 57 54
-162.112 -413.302 -2024 53 57 54
-157.859 -412.849 -2022 49 53 50
-153.692 -412.601 -2021 46 50 47
-149.752 -412.967 -2023 58 62 59
-145.374 -412.11 -2019 59 62 59
-141.502 -412.682 -2022 56 59 57
-137.62 -413.256 -2025 55 57 57
-133.792 -414.034 -2029 53 57 55
-129.886 -414.61 -2032 55 59 56
-125.969 -415.187 -2035 55 59 56
-121.92 -415.356 -2036 55 59 56
-117.869 -415.527 -2037 59 63 60
-113.982 -416.31 -2041 60 64 61
-110.08 -417.095 -2045 58 62 59
-106.266 -418.289 -2051 60 64 61
-102.628 -420.299 -2061 60 64 61
-98.9034 -422.107 -2070 60 64 61
-95.4176 -425.138 -2085 63 67 64
-92.0031 -428.782 -2103 69 73 69
-88.8091 -433.855 -2128 68 72 67
-314.613 -436.527 -2105 74 80 79
-307.63 -432.706 -2087 64 71 67
-301.741 -430.339 -2076 57 63 60
-296.76 -429.218 -2071 55 59 58
-292.084 -428.512 -2068 54 58 57
-287.284 -427.601 -2064 55 60 58
-282.502 -426.692 -2060 57 64 60
-277.604 -425.577 -2055 59 66 62
-272.995 -424.878 -2052 60 67 63
-268.663 -424.594 -2051 61 66 63
-264.208 -424.104 -2049 60 66 62
-259.764 -423.616 -2047 58 62 58
-255.08 -422.715 -2043 57 61 56
-250.537 -422.023 -2040 57 60 55
-245.888 -421.126 -2036 58 61 56
-241.614 -420.85 -2035 58 62 57
-237.112 -420.162 -2032 57 61 56
-232.739 -419.682 -2030 55 59 54
-228.264 -418.997 -2027 54 58 53
-223.913 -418.52 -2025 55 59 54
-219.899 -418.663 -2026 55 59 54
-215.668 -418.395 -2025 53 57 52
-211.548 -418.335 -2025 53 57 52
-207.43 -418.276 -2025 55 59 54
-203.013 -417.598 -2022 54 58 53
-198.806 -417.335 -2021 53 57 52
-194.508 -416.867 -2019 53 57 52
-190.409 -416.813 -2019 51 55 50
-186.127 -416.347 -2017 51 55 51
-182.035 -416.295 -2017 54 58 55
-178.121 -416.657 -2019 53 57 54
-174.027 -416.607 -2019 51 55 52
-170.02 -416.765 -2020 54 58 55
-166.01 -416.924 -2021 54 58 55
-161.997 -417.085 -2022 51 55 52
-157.747 -416.627 -2020 47 51 48
-153.507 -416.171 -2018 49 53 51
-149.572 -416.541 -2020 53 57 56
-145.486 -416.499 -2020 51 54 51
-141.402 -416.459 -2020 55 57 55
-137.726 -417.657 -2026 56 58 58
-133.83 -418.237 -2029 55 57 55
-129.858 -418.612 -2031 56 59 56
-125.88 -418.988 -2033 56 60 57
-121.954 -419.572 -2036 55 59 56
-117.902 -419.744 -2037 56 60 57
-114.014 -420.536 -2041 58 62 59
-110.003 -420.917 -2043 60 64 61
-106.141 -421.916 -2048 60 64 61
-102.508 -423.947 -2058 60 64 61
-98.8354 -425.979 -2068 61 65 62
-95.4441 -429.453 -2085 66 70 67
-91.8975 -432.517 -2100 70 74 70
-88.8338 -438.258 -2128 68 72 68
-314.703 -440.918 -2105 70 76 75
-307.423 -436.64 -2085 62 69 65
-301.537 -434.249 -2074 57 63 60
-296.558 -433.116 -2069 56 60 59
-292.026 -432.613 -2067 55 59 58
-287.366 -431.903 -2064 56 60 59
-282.445 -430.775 -2059 57 64 60
-277.548 -429.649 -2054 58 65 61
-273.073 -429.151 -2052 58 65 61
-268.346 -428.237 -2048 61 65 62
-264.154 -428.161 -2048 61 65 62
-259.711 -427.668 -2046 59 63 60
-255.152 -426.967 -2043 57 60 55
-250.608 -426.268 -2040 58 61 56
-246.079 -425.57 -2037 59 62 57
-241.564 -424.874 -2034 58 62 57
-237.063 -424.179 -2031 56 60 55
-232.805 -423.903 -2030 55 59 54
-228.104 -422.793 -2025 56 60 55
-223.866 -422.52 -2024 56 60 55
-219.961 -422.874 -2026 55 59 54
-215.623 -422.395 -2024 53 57 52
-211.504 -422.334 -2024 52 56 51
-207.387 -422.274 -2024 52 56 51
-202.97 -421.59 -2021 53 57 52
-198.764 -421.324 -2020 53 57 52
-194.66 -421.268 -2020 52 56 51
-190.274 -420.588 -2017 52 56 51
-186.272 -420.743 -2018 52 56 53
-181.815 -419.856 -2014 54 58 55
-177.73 -419.805 -2014 53 57 54
-173.904 -420.38 -2017 52 56 53
-169.9 -420.54 -2018 52 56 53
-165.728 -420.284 -2017 53 57 55
-161.802 -420.654 -2019 51 55 53
-157.792 -420.817 -2020 51 55 52
-153.626 -420.564 -2019 55 59 57
-149.688 -420.938 -2021 52 56 55
-145.671 -421.104 -2022 49 53 51
-141.582 -421.063 -2022 52 56 54
-137.697 -421.649 -2025 56 58 59
-133.801 -422.235 -2028 57 60 58
-129.831 -422.613 -2030 57 59 57
-125.853 -422.994 -2032 56 60 57
-121.869 -423.375 -2034 56 60 57
-117.819 -423.549 -2035 57 61 58
-113.934 -424.349 -2039 59 63 60
-110.034 -425.149 -2043 59 63 60
-106.222 -426.367 -2049 58 62 59
-102.537 -428.21 -2058 59 63 60
-98.6721 -429.43 -2064 60 64 61
-95.4252 -433.564 -2084 64 68 65
-92.1861 -438.114 -2106 69 73 70
-89.1095 -443.913 -2134 68 72 69
-314.196 -444.467 -2101 63 69 70
-307.069 -440.358 -2082 61 67 65
-301.624 -438.578 -2074 58 64 62
-296.93 -437.857 -2071 58 62 61
-292.534 -437.56 -2070 56 60 58
-287.866 -436.842 -2067 58 62 60
-282.664 -435.28 -2060 57 64 60
-277.493 -433.72 -2053 59 65 61
-273.019 -433.218 -2051 60 64 61
-268.555 -432.717 -2049 59 63 60
-263.972 -432.006 -2046 59 63 60
-259.658 -431.72 -2045 60 64 61
-254.976 -430.801 -2041 61 64 60
-250.435 -430.095 -2038 62 65 60
-245.787 -429.179 -2034 63 66 61
-241.277 -428.476 -2031 61 64 59
-237.131 -428.407 -2031 57 60 55
-232.758 -427.917 -2029 56 60 55
-228.394 -427.429 -2027 56 60 55
-224.373 -427.574 -2028 56 60 55
-219.915 -426.878 -2025 55 59 54
-215.578 -426.394 -2023 53 57 52
-211.251 -425.911 -2021 52 56 51
-207.139 -425.85 -2021 53 57 52
-202.827 -425.37 -2019 55 59 54
-198.624 -425.101 -2018 54 58 53
-194.619 -425.256 -2019 53 57 52
-190.423 -424.99 -2018 53 57 52
-186.14 -424.514 -2016 53 57 53
-181.867 -424.04 -2014 53 57 54
-177.869 -424.199 -2015 54 58 55
-173.781 -424.149 -2015 54 58 55
-170.032 -424.941 -2019 50 54 51
-165.94 -424.893 -2019 49 53 51
-161.929 -425.056 -2020 53 57 55
-157.837 -425.01 -2020 53 57 54
-153.746 -424.966 -2020 54 58 56
-149.805 -425.343 -2022 54 58 57
-145.713 -425.301 -2022 52 56 55
-141.692 -425.47 -2023 55 58 57
-137.736 -425.85 -2025 57 59 61
-133.642 -425.811 -2025 58 60 60
-129.804 -426.614 -2029 55 57 57
-125.703 -426.578 -2029 55 59 56
-121.903 -427.593 -2034 56 60 57
-117.853 -427.769 -2035 57 61 58
-114.078 -428.997 -2041 58 62 59
-110.173 -429.806 -2045 57 61 58
-106.356 -431.036 -2051 57 61 58
-102.516 -432.267 -2057 58 62 59
-98.9872 -434.97 -2070 59 63 60
-95.544 -438.304 -2086 64 68 65
-92.256 -442.69 -2107 68 72 69
-89.2183 -448.757 -2136 66 70 67
-313.839 -448.217 -2098 60 66 67
-307.307 -444.922 -2083 60 66 65
-301.566 -442.697 -2073 59 64 63
-297.16 -442.396 -2072 58 62 61
-292.337 -441.455 -2068 56 60 58
-287.532 -440.517 -2064 57 61 58
-282.746 -439.579 -2060 57 64 60
-277.844 -438.431 -2055 59 65 61
-272.832 -437.07 -2049 61 65 62
-268.633 -436.991 -2049 60 63 60
-264.049 -436.274 -2046 60 63 60
-259.607 -435.771 -2044 59 63 60
-255.05 -435.056 -2041 60 63 59
-250.753 -434.769 -2040 61 64 59
-245.858 -433.418 -2034 63 66 61
-241.703 -433.347 -2034 61 64 59
-237.2 -432.638 -2031 57 60 55
-232.825 -432.144 -2029 54 58 53
-228.348 -431.437 -2026 55 59 54
-224.327 -431.584 -2027 57 61 56
-219.87 -430.881 -2024 55 59 54
-215.641 -430.605 -2023 52 56 51
-211.207 -429.904 -2020 51 55 50
-207.198 -430.056 -2021 53 57 52
-202.886 -429.571 -2019 54 58 53
-198.583 -429.087 -2017 54 58 53
-194.675 -429.455 -2019 53 57 52
-190.289 -428.761 -2016 53 57 52
-185.825 -427.856 -2012 53 57 53
-181.649 -427.59 -2011 54 58 55
-177.655 -427.751 -2012 55 59 56
-173.487 -427.487 -2011 56 60 57
-169.745 -428.287 -2015 50 54 51
-165.905 -428.876 -2018 46 50 49
-161.895 -429.041 -2019 53 57 56
-157.804 -428.995 -2019 52 56 53
-153.867 -429.375 -2021 50 54 52
-149.774 -429.331 -2021 52 56 55
-145.827 -429.713 -2023 53 57 56
-141.803 -429.883 -2024 55 59 59
-137.844 -430.268 -2026 57 59 61
-133.878 -430.653 -2028 57 59 59
-129.777 -430.615 -2028 57 60 59
-125.802 -431.003 -2030 55 59 56
-121.999 -432.028 -2035 54 59 56
-118.118 -432.843 -2039 52 57 54
-114.167 -433.446 -2042 55 59 56
-110.366 -434.687 -2048 58 62 59
-106.542 -435.929 -2054 58 62 59
-102.745 -437.385 -2061 59 63 60
-99.1112 -439.69 -2072 62 66 63
-95.6631 -443.057 -2088 65 69 67
-92.5016 -448.122 -2112 68 72 70
-89.3693 -453.824 -2139 65 69 66
-314.081 -452.821 -2099 58 64 63
-307.25 -449.062 -2082 58 64 63
-301.655 -447.031 -2073 58 64 63
-297.247 -446.727 -2072 58 62 61
-292.14 -445.346 -2066 57 61 59
-287.756 -445.045 -2065 58 62 59
-282.418 -443.236 -2057 57 64 60
-277.926 -442.723 -2055 59 65 61
-272.779 -441.134 -2048 60 64 61
-268.581 -441.053 -2048 60 63 60
-263.997 -440.329 -2045 60 63 60
-259.683 -440.036 -2044 59 63 60
-254.875 -438.884 -2039 60 63 59
-250.704 -438.81 -2039 61 64 59
-245.93 -437.661 -2034 62 65 60
-241.536 -437.158 -2032 61 64 59
-237.152 -436.658 -2030 58 61 56
-233.123 -436.804 -2031 54 58 53
-228.527 -435.876 -2027 54 58 53
-224.172 -435.379 -2025 54 58 53
-219.826 -434.884 -2023 53 57 52
-215.49 -434.39 -2021 52 56 51
-211.165 -433.897 -2019 51 55 50
-207.156 -434.051 -2020 51 55 50
-202.744 -433.346 -2017 51 55 50
-198.641 -433.287 -2017 53 57 52
-194.25 -432.585 -2014 53 57 52
-190.062 -432.314 -2013 52 56 51
-185.786 -431.829 -2011 51 55 52
-181.702 -431.775 -2011 53 57 54
-177.619 -431.723 -2011 55 59 56
-173.537 -431.671 -2011 54 58 55
-169.71 -432.265 -2014 47 51 48
-165.954 -433.074 -2018 50 54 52
-161.862 -433.026 -2018 51 55 54
-157.772 -432.979 -2018 50 54 51
-153.835 -433.362 -2020 51 55 53
-149.818 -433.533 -2021 52 56 55
-145.942 -434.133 -2024 54 57 56
-141.774 -433.876 -2023 55 59 58
-137.884 -434.479 -2026 56 58 59
-133.653 -434.01 -2024 55 58 58
-129.815 -434.829 -2028 55 59 58
-125.776 -435.006 -2029 55 59 56
-121.914 -435.828 -2033 54 59 56
-118.037 -436.65 -2037 52 59 55
-114.312 -438.117 -2044 55 59 56
-110.398 -438.941 -2048 58 62 59
-106.677 -440.624 -2056 59 63 60
-102.924 -442.308 -2064 59 64 61
-99.0921 -443.778 -2071 61 65 62
-95.6451 -447.178 -2087 64 68 67
-92.5723 -452.721 -2113 68 72 70
-89.4371 -458.48 -2140 64 68 65
-314.324 -457.433 -2100 55 61 60
-307.636 -453.855 -2084 57 63 62
-301.599 -451.151 -2072 58 64 63
-297.049 -450.626 -2070 59 63 62
-291.802 -449.014 -2063 61 64 62
-287.284 -448.493 -2061 59 62 60
-282.227 -447.102 -2055 56 63 59
-277.873 -446.801 -2054 58 64 61
-272.993 -445.631 -2049 60 64 61
-268.791 -445.55 -2049 60 63 60
-264.076 -444.602 -2045 59 62 59
-259.887 -444.523 -2045 59 63 60
-254.95 -443.143 -2039 61 64 60
-250.778 -443.067 -2039 61 64 59
-246.366 -442.559 -2037 60 63 57
-241.964 -442.052 -2035 60 63 57
-237.222 -440.894 -2030 58 61 56
-232.847 -440.39 -2028 55 59 54
-228.257 -439.453 -2024 55 59 54
-224.016 -439.169 -2023 56 60 55
-219.565 -438.452 -2020 54 58 53
-215.447 -438.387 -2020 55 59 54
-211.018 -437.673 -2017 55 59 54
-206.91 -437.611 -2017 53 57 52
-202.603 -437.116 -2015 53 57 52
-198.108 -436.189 -2011 53 57 52
-194.018 -436.131 -2011 52 56 51
-189.834 -435.857 -2010 52 56 51
-185.472 -435.151 -2007 51 55 51
-181.484 -435.314 -2008 51 55 52
-177.583 -435.694 -2010 55 59 56
-173.416 -435.425 -2009 54 58 55
-169.507 -435.808 -2011 46 50 47
-165.674 -436.408 -2014 51 55 53
-161.749 -436.793 -2016 51 55 54
-157.818 -437.179 -2018 49 53 50
-153.881 -437.567 -2020 52 56 54
-149.788 -437.522 -2020 56 60 59
-145.768 -437.694 -2021 58 61 59
-141.816 -438.085 -2023 54 57 55
-137.925 -438.694 -2026 53 57 56
-133.824 -438.653 -2026 53 58 57
-129.853 -439.047 -2028 52 57 56
-125.813 -439.226 -2029 54 58 57
-122.01 -440.272 -2034 54 59 57
-118.13 -441.102 -2038 54 61 57
-114.29 -442.15 -2043 56 61 58
-110.485 -443.415 -2049 59 63 60
-106.76 -445.114 -2057 60 64 61
-102.954 -446.598 -2064 58 64 60
-99.3127 -448.948 -2075 59 65 61
-95.8564 -452.381 -2091 63 67 66
-92.6432 -457.329 -2114 68 72 70
-314.868 -462.493 -2103 54 60 60
-308.172 -458.881 -2087 56 62 61
-301.69 -455.491 -2072 58 64 63
-297.138 -454.961 -2070 60 64 63
-291.89 -453.333 -2063 61 65 64
-287.37 -452.807 -2061 60 62 61
-282.311 -451.403 -2055 58 64 61
-278.092 -451.318 -2055 59 64 61
-273.341 -450.357 -2051 60 64 61
-269.134 -450.275 -2051 60 63 59
-264.284 -449.097 -2046 59 62 58
-259.965 -448.799 -2045 59 62 59
-255.027 -447.405 -2039 60 63 59
-250.607 -446.89 -2037 59 62 58
-245.956 -445.938 -2033 60 63 56
-241.561 -445.426 -2031 60 63 57
-236.943 -444.477 -2027 58 61 56
-232.802 -444.406 -2027 57 60 55
-228.325 -443.68 -2024 57 60 55
-223.751 -442.735 -2020 57 61 56
-219.63 -442.668 -2020 57 61 56
-215.298 -442.165 -2018 57 61 56
-210.976 -441.663 -2016 55 59 55
-206.766 -441.381 -2015 54 58 54
-202.361 -440.663 -2012 54 58 54
-198.069 -440.165 -2010 53 57 52
-193.882 -439.887 -2009 53 57 52
-189.607 -439.392 -2007 53 57 53
-185.527 -439.336 -2007 51 55 52
-181.448 -439.281 -2007 49 54 51
-177.547 -439.665 -2009 53 57 54
-173.381 -439.394 -2008 55 59 56
-169.389 -439.561 -2009 50 54 51
-165.641 -440.386 -2013 51 55 54
-161.557 -440.337 -2013 52 56 55
-157.787 -441.164 -2017 53 56 53
-153.774 -441.337 -2018 54 58 56
-149.684 -441.292 -2018 58 62 60
-145.739 -441.685 -2020 58 61 59
-141.788 -442.079 -2022 55 59 57
-137.761 -442.256 -2023 54 58 57
-133.798 -442.653 -2025 54 59 58
-129.892 -443.269 -2028 53 58 57
-125.726 -443.012 -2027 53 57 56
-121.986 -444.287 -2033 53 57 56
-118.165 -445.344 -2038 55 60 58
-114.268 -446.183 -2042 59 63 60
-110.41 -447.242 -2047 59 63 60
-106.636 -448.739 -2054 60 64 60
-102.835 -450.237 -2061 59 64 61
-99.0069 -451.736 -2068 59 64 61
-95.7473 -456.076 -2088 62 66 65
-92.8021 -462.382 -2117 69 73 72
-315.562 -467.792 -2107 56 62 65
-308.265 -463.256 -2087 55 61 61
-302.072 -460.278 -2074 59 65 64
-296.941 -458.856 -2068 58 64 64
-291.695 -457.213 -2061 59 63 62
-287.178 -456.681 -2059 63 66 64
-282.397 -455.707 -2055 59 63 62
-278.04 -455.4 -2054 59 63 62
-273.424 -454.651 -2051 58 62 61
-269.084 -454.347 -2050 58 62 58
-264.493 -453.601 -2047 60 64 59
-259.408 -451.971 -2040 61 64 60
-255.103 -451.671 -2039 60 63 59
-250.56 -450.93 -2036 59 63 60
-246.03 -450.19 -2033 62 65 59
-241.515 -449.452 -2030 60 63 58
-236.897 -448.493 -2026 55 58 53
-232.642 -448.201 -2025 55 58 53
-228.055 -447.246 -2021 56 59 54
-223.708 -446.735 -2019 57 61 56
-219.37 -446.225 -2017 58 62 57
-215.15 -445.938 -2016 56 60 55
-210.935 -445.653 -2015 52 56 53
-206.521 -444.926 -2012 53 57 54
-202.623 -445.306 -2014 54 58 55
-198.227 -444.582 -2011 54 58 53
-194.037 -444.302 -2010 52 56 51
-189.664 -443.581 -2007 52 56 53
-185.675 -443.745 -2008 52 57 53
-181.412 -443.248 -2006 52 59 55
-177.424 -443.415 -2007 54 58 55
-173.26 -443.141 -2006 52 56 53
-169.355 -443.531 -2008 53 57 54
-165.526 -444.143 -2011 54 58 56
-161.605 -444.535 -2013 55 59 58
-157.6 -444.708 -2014 57 60 57
-153.744 -445.323 -2017 57 61 58
-149.877 -445.94 -2020 59 63 60
-145.711 -445.675 -2019 59 63 62
-141.76 -446.073 -2021 57 61 60
-137.803 -446.472 -2023 57 61 60
-133.706 -446.431 -2023 57 61 60
-130.059 -447.936 -2030 55 59 58
-125.95 -447.897 -2030 55 59 58
-121.963 -448.301 -2032 57 61 60
-118.084 -449.148 -2036 58 62 61
-114.358 -450.657 -2043 59 63 60
-110.497 -451.726 -2048 60 64 61
-106.824 -453.678 -2057 61 65 60
-102.916 -454.749 -2062 59 63 60
-99.0846 -456.263 -2069 58 62 59
-95.7301 -460.203 -2087 60 64 63
-316.558 -473.559 -2113 58 65 68
-308.359 -467.637 -2087 52 60 59
-302.165 -464.63 -2074 55 63 62
-296.601 -462.522 -2065 57 63 64
-291.36 -460.864 -2058 59 63 61
-286.708 -460.103 -2055 61 64 61
-282.483 -460.016 -2055 59 63 61
-278.261 -459.929 -2055 59 63 61
-273.507 -458.95 -2051 57 61 60
-268.773 -457.971 -2047 57 61 57
-264.445 -457.666 -2046 59 63 59
-259.868 -456.914 -2043 61 64 60
-254.681 -455.046 -2035 61 65 61
-250.144 -454.298 -2032 60 64 61
-245.5 -453.328 -2028 62 65 60
-241.113 -452.807 -2026 60 63 58
-236.502 -451.839 -2022 56 59 56
-232.254 -451.544 -2021 56 59 55
-228.012 -451.25 -2020 56 59 54
-223.443 -450.288 -2016 56 60 55
-219.111 -449.773 -2014 56 60 55
-215.002 -449.707 -2014 54 58 55
-210.894 -449.642 -2014 52 56 53
-206.481 -448.909 -2011 53 57 54
-202.584 -449.292 -2013 54 58 55
-198.287 -448.785 -2011 54 58 53
-194.096 -448.502 -2010 54 58 53
-189.817 -447.997 -2008 53 57 54
-185.824 -448.163 -2009 51 57 53
-181.558 -447.661 -2007 51 58 54
-177.655 -448.052 -2009 53 57 54
-173.572 -447.998 -2009 53 57 54
-169.491 -447.946 -2009 52 56 53
-165.658 -448.564 -2012 54 58 56
-161.654 -448.737 -2013 55 59 58
-157.647 -448.911 -2014 58 61 58
-153.638 -449.087 -2015 58 62 59
-149.848 -449.932 -2019 60 64 61
-145.755 -449.887 -2019 61 65 64
-141.803 -450.289 -2021 59 63 62
-137.776 -450.469 -2022 58 62 61
-133.813 -450.873 -2024 58 62 61
-129.906 -451.501 -2027 58 62 61
-125.864 -451.685 -2028 58 62 61
-122 -452.538 -2032 58 62 61
-118.178 -453.615 -2037 57 61 60
-114.337 -454.693 -2042 58 62 60
-110.422 -455.55 -2046 59 63 60
-106.597 -456.853 -2052 58 62 57
-102.797 -458.379 -2059 57 61 57
-99.1145 -460.575 -2069 56 60 57
-95.8049 -464.775 -2088 61 65 64
-93.0773 -472.314 -2122 66 71 70
-318.454 -480.714 -2125 58 65 68
-309.194 -473.152 -2092 52 60 59
-302.113 -468.76 -2073 52 60 58
-296.549 -466.632 -2064 58 63 64
-291.591 -465.41 -2059 61 65 64
-286.657 -464.19 -2054 57 60 57
-282.295 -463.876 -2053 57 61 58
-277.94 -463.563 -2052 56 60 57
-273.459 -463.026 -2050 55 59 58
-268.593 -461.813 -2045 56 60 57
-264.138 -461.279 -2043 58 61 58
-259.312 -460.069 -2038 59 62 59
-254.384 -458.635 -2032 59 63 60
-249.974 -458.105 -2030 58 62 59
-245.939 -458.254 -2031 60 63 58
-241.068 -456.825 -2025 60 63 58
-236.457 -455.849 -2021 58 61 58
-232.44 -456.002 -2022 58 61 56
-228.082 -455.48 -2020 56 59 54
-223.623 -454.734 -2017 56 60 55
-219.504 -454.665 -2017 55 59 55
-215.281 -454.373 -2016 55 59 56
-210.959 -453.857 -2014 53 57 54
-206.75 -453.567 -2013 52 56 53
-202.747 -453.729 -2014 53 57 54
-198.447 -453.217 -2012 54 58 54
-194.349 -453.156 -2012 54 58 53
-189.875 -452.196 -2008 53 57 54
-185.788 -452.138 -2008 51 56 53
-181.523 -451.631 -2006 51 57 54
-177.532 -451.801 -2007 53 57 54
-173.366 -451.522 -2006 53 57 54
-169.458 -451.919 -2008 51 55 52
-165.544 -452.318 -2010 53 57 56
-161.704 -452.942 -2013 56 60 59
-157.696 -453.118 -2014 58 61 58
-153.685 -453.295 -2015 58 62 59
-149.746 -453.699 -2017 58 62 59
-145.727 -453.878 -2018 60 64 63
-141.566 -453.609 -2017 59 63 62
-137.682 -454.241 -2020 58 62 61
-133.787 -454.874 -2023 57 61 60
-129.882 -455.508 -2026 58 62 61
-125.903 -455.918 -2028 58 62 61
-122.037 -456.779 -2032 59 63 62
-118.214 -457.866 -2037 58 62 61
-114.372 -458.954 -2042 59 63 60
-110.672 -460.718 -2050 59 63 60
-106.837 -462.033 -2056 57 61 57
-103.128 -464.023 -2065 57 61 57
-99.2405 -465.34 -2071 56 60 57
-95.9718 -469.804 -2091 59 63 62
-310.03 -478.692 -2097 54 61 61
-302.353 -473.346 -2074 55 62 61
-296.067 -470.057 -2060 60 64 65
-290.974 -468.596 -2054 61 64 64
-286.327 -467.821 -2051 58 60 60
-281.971 -467.504 -2050 54 58 55
-277.35 -466.732 -2047 52 56 54
-273.01 -466.418 -2046 53 57 56
-268.414 -465.65 -2043 56 60 58
-263.833 -464.883 -2040 57 61 58
-259.138 -463.89 -2036 57 60 57
-254.588 -463.126 -2033 57 60 57
-249.929 -462.136 -2029 56 60 57
-245.288 -461.147 -2025 59 62 57
-240.785 -460.388 -2022 60 63 58
-236.414 -459.859 -2020 59 62 59
-232.282 -459.786 -2020 58 61 57
-227.701 -458.803 -2016 55 58 53
-223.581 -458.733 -2016 57 61 56
-219.464 -458.664 -2016 55 59 55
-215.241 -458.368 -2015 56 60 57
-211.129 -458.302 -2015 54 58 55
-206.916 -458.01 -2014 52 56 53
-202.911 -458.173 -2015 53 57 54
-198.607 -457.656 -2013 55 59 55
-194.313 -457.14 -2011 54 58 53
-189.934 -456.398 -2008 50 54 51
-185.753 -456.113 -2007 51 55 52
-181.488 -455.601 -2005 54 58 55
-177.322 -455.318 -2004 52 56 53
-173.333 -455.491 -2005 49 53 50
-169.426 -455.892 -2007 51 55 52
-165.513 -456.294 -2009 56 60 58
-161.593 -456.698 -2011 59 63 62
-157.588 -456.875 -2012 60 63 60
-153.656 -457.281 -2014 61 64 61
-149.643 -457.461 -2015 60 64 61
-145.556 -457.415 -2015 58 62 61
-141.68 -458.051 -2018 58 62 61
-137.929 -459.143 -2023 57 61 60
-133.829 -459.101 -2023 57 61 60
-129.922 -459.741 -2026 58 62 61
-126.004 -460.382 -2029 58 62 61
-121.954 -460.57 -2030 58 62 61
-118.076 -461.44 -2034 60 64 63
-114.407 -463.219 -2042 60 64 61
-110.598 -464.545 -2048 59 63 60
-106.87 -466.326 -2056 58 62 59
-103.16 -468.335 -2065 59 63 60
-99.367 -470.118 -2073 59 63 60
-96.0473 -474.396 -2092 61 65 64
-310.719 -484.027 -2101 55 61 61
-303.031 -478.631 -2078 58 64 63
-296.304 -474.621 -2061 60 64 64
-290.782 -472.456 -2052 58 62 61
-286.138 -471.674 -2049 57 60 59
-281.647 -471.124 -2047 53 57 55
-276.895 -470.115 -2043 53 57 56
-272.562 -469.798 -2042 55 59 58
-267.71 -468.562 -2037 58 61 58
-263.527 -468.478 -2037 58 61 58
-258.965 -467.706 -2034 58 61 57
-254.668 -467.395 -2033 57 61 58
-250.007 -466.396 -2029 56 60 58
-245.729 -466.088 -2028 58 61 57
-241.218 -465.322 -2025 59 62 58
-236.722 -464.557 -2022 57 60 57
-232.24 -463.794 -2019 57 60 56
-228.224 -463.951 -2020 55 58 54
-223.984 -463.65 -2019 57 61 58
-219.75 -463.351 -2018 56 60 56
-215.522 -463.053 -2017 55 59 56
-211.51 -463.215 -2018 53 57 54
-207.084 -462.461 -2015 53 57 54
-202.873 -462.167 -2014 55 59 56
-198.669 -461.874 -2013 55 59 55
-194.277 -461.124 -2010 54 58 53
-189.804 -460.146 -2006 53 56 53
-185.811 -460.317 -2007 51 54 51
-181.364 -459.342 -2003 51 55 52
-177.2 -459.056 -2002 51 55 52
-173.214 -459.23 -2003 48 52 49
-169.31 -459.635 -2005 48 52 49
-165.482 -460.27 -2008 55 59 57
-161.724 -461.136 -2012 58 62 61
-157.715 -461.315 -2013 59 62 59
-153.78 -461.724 -2015 59 62 60
-149.839 -462.135 -2017 59 63 61
-145.673 -461.86 -2016 58 62 61
-141.724 -462.273 -2018 57 61 60
-137.904 -463.145 -2022 57 61 60
-133.937 -463.561 -2024 58 62 61
-130.026 -464.207 -2027 59 63 62
-126.167 -465.083 -2031 57 61 60
-122.173 -465.501 -2033 57 61 60
-118.113 -465.693 -2034 57 61 60
-114.498 -467.717 -2043 56 60 58
-110.903 -469.971 -2053 57 61 59
-107.059 -471.311 -2059 58 62 59
-103.242 -472.88 -2066 57 61 58
-99.4938 -474.908 -2075 58 62 59
-96.0772 -478.768 -2092 62 66 65
-312.593 -491.243 -2113 55 61 61
-304.295 -484.867 -2086 56 62 61
-297.405 -480.588 -2068 57 61 60
-291.016 -477.008 -2053 56 60 59
-286.509 -476.451 -2051 53 57 56
-281.599 -475.199 -2046 52 56 55
-276.847 -474.181 -2042 53 57 56
-272.114 -473.165 -2038 56 60 59
-267.926 -473.079 -2038 59 62 60
-263.352 -472.298 -2035 60 63 60
-259.047 -471.982 -2034 59 62 57
-254.373 -470.972 -2030 58 61 58
-250.456 -471.356 -2032 58 61 60
-245.686 -470.117 -2027 59 63 60
-241.175 -469.344 -2024 58 61 58
-236.914 -469.036 -2023 56 59 56
-232.544 -468.498 -2021 56 59 56
-228.183 -467.961 -2019 56 59 56
-223.722 -467.194 -2016 57 61 58
-219.711 -467.355 -2017 57 61 58
-215.484 -467.054 -2016 56 60 57
-211.367 -466.986 -2016 52 56 53
-207.047 -466.457 -2014 52 56 53
-202.938 -466.392 -2014 55 58 55
-198.633 -465.865 -2012 54 58 54
-194.241 -465.108 -2009 54 58 53
-189.958 -464.584 -2007 53 56 53
-185.685 -464.062 -2005 52 55 52
-181.693 -464.235 -2006 50 54 51
-177.433 -463.715 -2004 53 57 55
-173.442 -463.891 -2005 47 51 49
-169.448 -464.068 -2006 48 52 50
-165.535 -464.478 -2008 52 56 55
-161.614 -464.889 -2010 56 60 59
-157.53 -464.838 -2010 58 62 59
-153.6 -465.251 -2012 56 60 58
-149.737 -465.897 -2015 56 60 59
-145.647 -465.85 -2015 57 62 61
-141.628 -466.036 -2016 56 61 60
-137.879 -467.147 -2021 57 62 61
-133.979 -467.798 -2024 57 62 61
-130.067 -468.45 -2027 57 61 60
-126.02 -468.64 -2028 56 60 59
-122.211 -469.756 -2033 56 60 59
-118.208 -470.181 -2035 55 59 58
-114.478 -471.761 -2042 53 57 56
-110.667 -473.112 -2048 55 59 58
-107.093 -475.618 -2059 57 61 59
-103.225 -476.971 -2065 56 60 57
-99.4771 -479.018 -2074 57 61 58
-96.1533 -483.375 -2093 62 66 65
-313.878 -497.575 -2121 56 61 60
-304.976 -490.203 -2090 55 60 58
-298.363 -486.353 -2074 54 58 57
-291.819 -482.507 -2058 52 55 54
-286.601 -480.772 -2051 51 54 53
-281.964 -479.978 -2048 51 55 54
-277.071 -478.716 -2043 51 54 54
-272.335 -477.69 -2039 54 56 56
-267.749 -476.9 -2036 58 61 59
-263.178 -476.112 -2033 59 62 59
-258.875 -475.794 -2032 57 60 55
-254.579 -475.477 -2031 57 60 57
-250.536 -475.63 -2032 58 61 60
-246.006 -474.848 -2029 60 63 60
-241.491 -474.068 -2026 58 61 58
-237.107 -473.523 -2024 55 58 55
-232.963 -473.448 -2024 55 58 55
-228.482 -472.672 -2021 55 58 55
-224.127 -472.132 -2019 56 59 56
-220.326 -472.762 -2022 57 60 57
-215.659 -471.523 -2017 54 57 54
-211.539 -471.455 -2017 51 54 51
-207.215 -470.92 -2015 52 55 52
-203.002 -470.621 -2014 54 57 54
-198.696 -470.089 -2012 53 56 53
-194.206 -469.092 -2008 55 59 56
-189.924 -468.563 -2006 53 56 53
-185.651 -468.036 -2004 53 56 53
-181.479 -467.744 -2003 50 54 51
-177.224 -467.219 -2001 54 58 56
-173.151 -467.163 -2001 48 52 51
-169.249 -467.575 -2003 49 53 52
-165.34 -467.989 -2005 50 54 53
-161.424 -468.403 -2007 55 59 58
-157.58 -469.052 -2010 58 62 61
-153.725 -469.703 -2013 56 60 59
-149.711 -469.888 -2014 56 60 59
-145.621 -469.84 -2014 56 62 61
-141.603 -470.028 -2015 56 62 61
-137.65 -470.45 -2017 57 63 62
-133.823 -471.339 -2021 58 63 62
-129.98 -472.23 -2025 57 61 60
-126.185 -473.355 -2030 56 60 59
-122.31 -474.248 -2034 55 59 58
-118.42 -475.142 -2038 56 60 59
-114.571 -476.271 -2043 54 58 57
-110.81 -477.867 -2050 56 60 59
-106.971 -479.231 -2056 57 61 60
-103.257 -481.295 -2065 54 58 56
-99.4126 -482.894 -2072 56 60 57
-96.0459 -487.058 -2090 59 63 62
-314.868 -503.472 -2127 60 65 65
-305.805 -495.797 -2095 53 57 54
-299.036 -491.676 -2078 52 55 54
-292.481 -487.794 -2062 51 53 53
-287.532 -486.517 -2057 51 53 53
-282.055 -484.296 -2048 52 55 54
-277.297 -483.259 -2044 52 55 54
-272.824 -482.697 -2042 53 55 55
-268.23 -481.9 -2039 57 60 58
-263.651 -481.104 -2036 57 60 57
-259.086 -480.311 -2033 55 58 54
-254.286 -479.046 -2028 57 59 57
-250.247 -479.201 -2029 59 61 61
-245.843 -478.648 -2027 60 63 60
-241.45 -478.096 -2025 55 58 56
-237.066 -477.547 -2023 53 55 54
-232.578 -476.762 -2020 52 55 53
-228.33 -476.452 -2019 51 54 51
-223.866 -475.671 -2016 54 57 54
-219.743 -475.599 -2016 56 59 56
-215.194 -474.585 -2012 52 55 52
-211.083 -474.516 -2012 50 53 50
-206.974 -474.449 -2012 53 56 53
-202.866 -474.382 -2012 53 56 53
-198.661 -474.081 -2011 52 56 53
-194.462 -473.782 -2010 54 58 55
-190.174 -473.249 -2008 54 57 54
-185.896 -472.717 -2006 54 57 54
-181.718 -472.422 -2005 53 56 53
-177.546 -472.128 -2004 54 57 56
-173.553 -472.307 -2005 49 52 52
-169.557 -472.487 -2006 51 55 54
-165.393 -472.198 -2005 50 55 54
-161.476 -472.616 -2007 54 59 58
-157.474 -472.8 -2008 57 61 60
-153.545 -473.221 -2010 56 60 59
-149.758 -474.114 -2014 56 60 59
-145.74 -474.301 -2015 54 60 59
-141.718 -474.49 -2016 53 59 58
-137.831 -475.152 -2019 52 58 57
-133.932 -475.814 -2022 55 60 59
-130.086 -476.712 -2026 57 61 60
-126.349 -478.083 -2032 56 60 59
-122.409 -478.749 -2035 54 58 57
-118.574 -479.886 -2040 55 59 58
-114.551 -480.319 -2042 55 59 58
-110.846 -482.164 -2050 56 60 59
-106.953 -483.305 -2055 56 60 59
-103.24 -485.388 -2064 53 57 55
-99.4924 -487.472 -2073 54 58 55
-95.9387 -490.733 -2087 58 62 61
-306.489 -501.177 -2099 54 58 55
-299.133 -496.064 -2078 52 54 54
-292.293 -491.67 -2060 49 50 51
-287.486 -490.621 -2056 50 51 52
-282.01 -488.38 -2047 51 53 53
-277.523 -487.811 -2045 53 55 55
-272.913 -487.005 -2042 53 55 55
-268.186 -485.962 -2038 57 59 58
-263.608 -485.16 -2035 58 60 58
-259.044 -484.359 -2032 55 58 55
-254.619 -483.798 -2030 55 58 56
-250.206 -483.239 -2028 56 58 58
-246.045 -483.157 -2028 55 58 56
-241.528 -482.363 -2025 52 56 53
-237.261 -482.047 -2024 53 55 55
-232.884 -481.493 -2022 53 56 54
-228.404 -480.703 -2019 52 55 52
-224.05 -480.153 -2017 55 58 55
-219.705 -479.605 -2015 55 58 55
-215.371 -479.058 -2013 52 55 52
-211.361 -479.226 -2014 51 54 51
-207.144 -478.92 -2013 51 54 51
-202.831 -478.377 -2011 51 54 52
-198.825 -478.55 -2012 51 55 52
-194.622 -478.248 -2011 53 57 54
-190.236 -477.471 -2008 53 55 54
-185.957 -476.935 -2006 52 55 53
-181.868 -476.875 -2006 52 55 52
-177.781 -476.816 -2006 52 54 54
-173.696 -476.759 -2006 48 50 50
-169.781 -477.178 -2008 51 55 54
-165.694 -477.124 -2008 50 55 54
-161.77 -477.546 -2010 52 58 57
-157.682 -477.494 -2010 55 59 58
-153.748 -477.918 -2012 56 60 59
-149.881 -478.581 -2015 56 60 59
-145.859 -478.77 -2016 52 58 57
-141.764 -478.724 -2016 51 57 56
-137.67 -478.678 -2016 51 57 56
-133.909 -479.821 -2021 53 58 57
-130.064 -480.728 -2025 55 59 58
-126.39 -482.348 -2032 54 58 57
-122.569 -483.495 -2037 51 55 54
-118.671 -484.405 -2041 52 56 55
-114.644 -484.841 -2043 52 56 55
-110.936 -486.703 -2051 54 58 57
-106.987 -487.617 -2055 56 60 59
-103.124 -489.007 -2061 55 59 58
-99.3806 -491.109 -2070 57 61 59
-95.9238 -494.874 -2086 60 64 63
-306.736 -505.856 -2100 52 56 53
-299.376 -500.698 -2079 50 52 52
-293.099 -497.228 -2065 46 47 48
-287.441 -494.724 -2055 50 50 52
-282.654 -493.667 -2051 50 52 52
-277.886 -492.611 -2047 52 54 54
-273.404 -492.039 -2045 51 53 53
-268.801 -491.227 -2042 53 54 53
-263.565 -489.215 -2034 55 56 54
-259.384 -489.128 -2034 51 54 51
-254.703 -488.081 -2030 51 53 51
-249.918 -486.796 -2025 52 54 54
-246.004 -487.195 -2027 51 54 52
-241.488 -486.393 -2024 51 55 52
-237.221 -486.074 -2023 53 57 56
-233.076 -485.996 -2023 54 58 56
-228.14 -484.239 -2016 55 58 55
-223.79 -483.684 -2014 53 56 53
-219.668 -483.611 -2014 52 55 52
-215.228 -482.819 -2011 52 55 52
-211.116 -482.749 -2011 52 55 52
-207.212 -483.16 -2013 51 54 51
-203.099 -483.092 -2013 51 53 53
-198.89 -482.786 -2012 51 54 52
-194.686 -482.481 -2011 50 54 51
-190.298 -481.698 -2008 51 53 53
-185.925 -480.917 -2005 51 53 52
-181.928 -481.096 -2006 51 54 51
-177.928 -481.277 -2007 51 53 53
-173.839 -481.219 -2007 47 49 49
-170.005 -481.882 -2010 51 55 54
-165.913 -481.827 -2010 51 56 55
-161.661 -481.293 -2008 52 58 57
-157.576 -481.241 -2008 55 59 58
-153.645 -481.669 -2010 56 60 59
-149.633 -481.859 -2011 55 59 58
-145.618 -482.05 -2012 55 61 60
-141.881 -483.201 -2017 55 61 60
-137.852 -483.394 -2018 52 58 57
-134.151 -484.787 -2024 52 57 56
-130.106 -484.983 -2025 55 59 58
-126.369 -486.378 -2031 55 59 58
-122.429 -487.056 -2034 52 56 55
-118.593 -488.213 -2039 50 54 53
-114.682 -489.133 -2043 52 56 55
-110.701 -489.814 -2046 53 57 56
-106.866 -491.215 -2052 55 59 58
-103.107 -493.095 -2060 55 59 58
-99.3649 -495.217 -2069 57 61 60
-95.6789 -497.817 -2080 59 63 62
-306.108 -509.086 -2095 48 52 49
-298.468 -503.396 -2072 47 49 49
-292.486 -500.382 -2060 45 47 47
-287.257 -498.585 -2053 49 50 52
-282.886 -498.247 -2052 49 50 51
-277.843 -496.696 -2046 51 53 53
-273.629 -496.604 -2046 50 52 53
-269.022 -495.785 -2043 50 51 50
-264.56 -495.211 -2041 51 51 49
-259.342 -493.183 -2033 49 50 48
-255.039 -492.855 -2032 48 50 48
-250.741 -492.528 -2031 50 52 52
-245.965 -491.232 -2026 51 55 53
-241.807 -491.151 -2026 52 56 54
-237.183 -490.102 -2022 53 57 56
-232.692 -489.296 -2019 55 58 56
-228.102 -488.25 -2015 55 58 55
-223.975 -488.175 -2015 52 55 52
-219.741 -487.859 -2014 52 55 52
-215.62 -487.787 -2014 52 55 52
-211.291 -487.231 -2012 52 55 52
-207.28 -487.404 -2013 52 55 52
-203.065 -487.094 -2012 53 55 55
-198.659 -486.3 -2009 51 55 53
-194.363 -485.751 -2007 49 53 50
-190.077 -485.203 -2005 51 53 53
-185.708 -484.415 -2002 52 55 54
-181.988 -485.322 -2006 53 56 53
-177.898 -485.262 -2006 52 55 54
-173.983 -485.687 -2008 46 49 48
-169.977 -485.872 -2009 52 56 55
-165.885 -485.816 -2009 51 57 56
-161.715 -485.521 -2008 52 58 57
-157.55 -485.226 -2007 55 60 59
-153.696 -485.899 -2010 55 60 59
-149.608 -485.849 -2010 55 59 58
-145.883 -487.009 -2015 54 60 59
-141.787 -486.961 -2015 55 61 60
-137.897 -487.64 -2018 52 58 57
-134.195 -489.045 -2024 52 58 57
-130.149 -489.243 -2025 53 59 58
-126.287 -490.166 -2029 53 57 56
-122.409 -491.092 -2033 49 53 52
-118.69 -492.743 -2040 50 54 53
-114.72 -493.429 -2043 53 57 57
-110.846 -494.599 -2048 53 57 57
-107.11 -496.495 -2056 54 58 58
-103.241 -497.909 -2062 54 58 58
-99.3975 -499.566 -2069 56 60 59
-95.7565 -502.431 -2081 59 63 62
-306.796 -514.505 -2099 50 54 51
-299.144 -508.765 -2076 48 50 50
-293.295 -505.97 -2065 47 49 50
-288.053 -504.157 -2058 49 51 52
-283.257 -503.08 -2054 49 51 52
-278.615 -502.251 -2051 51 53 53
-274.122 -501.668 -2049 51 53 54
-269.244 -500.352 -2044 51 52 52
-264.519 -499.283 -2040 51 51 49
-259.685 -497.972 -2035 50 50 49
-255.124 -497.151 -2032 49 50 49
-250.949 -497.066 -2032 49 51 51
-246.411 -496.248 -2029 52 55 54
-242.008 -495.677 -2027 52 56 55
-237.614 -495.107 -2025 52 56 55
-232.77 -493.561 -2019 54 57 55
-228.292 -492.751 -2016 55 58 55
-224.05 -492.43 -2015 53 56 54
-219.596 -491.623 -2012 52 55 52
-215.478 -491.55 -2012 51 54 51
-211.466 -491.722 -2013 50 53 50
-207.555 -492.141 -2015 51 54 52
-203.032 -491.095 -2011 52 54 54
-198.824 -490.783 -2010 51 54 52
