ply
format ascii 1.0
comment Created by Open3D
element vertex 1430
property double x
property double y
property double z
property uchar red
property uchar green
property uchar blue
end_header
-370.365 7.08164 -2131 32 29 36
-366.181 7.08334 -2132 28 27 34
-362.166 7.08837 -2134 29 28 35
-357.81 7.08678 -2134 27 26 33
-353.789 7.09159 -2136 25 25 33
-349.762 7.09667 -2138 25 26 33
-345.73 7.10178 -2140 23 24 31
-341.055 7.09362 -2138 24 25 32
-336.075 7.07885 -2134 28 27 33
-331.737 7.07711 -2134 27 27 34
-326.634 7.05908 -2129 29 29 36
-321.857 7.0477 -2126 31 30 38
-316.796 7.02971 -2121 31 31 39
-312.642 7.03163 -2122 27 29 36
-307.179 7.00375 -2114 26 27 34
-301.894 6.97921 -2107 27 27 35
-297.487 6.97431 -2106 28 27 35
-292.669 6.95976 -2102 29 28 36
-288.007 6.94854 -2099 33 32 40
-283.36 6.93734 -2096 35 34 42
-279.126 6.93609 -2096 35 34 42
-274.501 6.92493 -2093 33 32 40
-269.761 6.91049 -2089 33 32 39
-265.04 6.89607 -2085 33 32 39
-260.462 6.88473 -2082 33 32 40
-256.145 6.88027 -2081 32 31 39
-251.954 6.87914 -2081 33 32 39
-247.409 6.86812 -2078 35 34 42
-243.112 6.86372 -2077 36 35 43
-238.821 6.85934 -2076 35 34 42
-234.761 6.86159 -2077 36 34 42
-230.367 6.85395 -2075 43 39 44
-226.527 6.86284 -2078 45 44 52
-222.571 6.86845 -2080 42 43 52
-218.608 6.87407 -2082 76 72 66
-214.33 6.8698 -2081 106 101 94
-210.361 6.87546 -2083 82 74 63
-206.484 6.88443 -2086 66 57 46
-201.433 6.85382 -2077 62 53 41
-144.245 6.88562 -2090 52 45 49
-140.349 6.89816 -2094 54 47 51
-136.502 6.91401 -2099 50 43 47
-132.006 6.89694 -2094 46 39 43
-127.714 6.88977 -2092 46 39 43
-123.49 6.88592 -2091 46 38 42
-119.385 6.88867 -2092 47 40 44
-115.223 6.88814 -2092 44 40 43
-111.326 6.9041 -2097 50 45 49
-107.462 6.92336 -2103 58 51 57
-103.231 6.9196 -2102 45 41 46
-99.287 6.9356 -2107 38 34 39
-95.0986 6.93517 -2107 35 32 37
-90.9972 6.94133 -2109 31 28 33
-86.7653 6.93765 -2108 32 29 34
-82.8513 6.9603 -2115 35 32 39
-78.6871 6.96323 -2116 34 31 38
-74.5547 6.96947 -2118 35 32 39
-70.3818 6.97243 -2119 35 32 39
-66.2679 6.982 -2122 35 32 39
-62.2012 6.99816 -2127 36 33 41
-58.006 7.00118 -2128 36 33 40
-53.9337 7.02067 -2134 36 33 40
-49.838 7.04018 -2140 36 33 40
-45.7188 7.0597 -2146 37 34 41
-41.499 7.06609 -2148 34 31 39
-37.3236 7.08236 -2153 31 29 36
-33.1285 7.09865 -2158 29 28 35
-28.914 7.11496 -2163 29 28 36
-24.7026 7.13786 -2170 28 27 35
-20.473 7.16408 -2178 26 27 37
-16.2044 7.18702 -2185 26 25 35
-11.8864 7.19683 -2188 26 24 34
-7.56357 7.21323 -2193 26 24 33
-3.21068 7.20663 -2191 26 23 33
1.1353 7.20662 -2191 26 23 33
5.49129 7.21979 -2195 27 25 33
9.86769 7.23628 -2200 28 25 33
14.2381 7.23962 -2201 29 23 32
18.6295 7.24956 -2204 28 24 33
23.0121 7.25294 -2205 25 24 34
27.4113 7.25964 -2207 26 25 34
31.8474 7.27293 -2211 29 28 37
435.156 7.4206 -2227 169 136 128
438.562 7.4028 -2221 183 150 139
442.746 7.39807 -2219 197 164 150
446.925 7.39363 -2217 199 169 149
451.304 7.39226 -2216 205 178 157
456.917 7.41094 -2221 215 189 167
462.554 7.42991 -2226 226 199 185
467.586 7.43863 -2228 233 206 192
472.206 7.44096 -2228 237 209 195
476.189 7.43302 -2225 243 212 199
479.515 7.41534 -2219 246 217 203
482.601 7.39405 -2212 247 219 205
487.205 7.39617 -2212 243 217 199
491.812 7.39859 -2212 241 214 199
497.771 7.42082 -2218 241 214 198
503.985 7.44671 -2225 231 205 187
509.775 7.46566 -2230 232 205 190
514.899 7.47487 -2232 246 216 199
519.803 7.48075 -2233 253 221 201
523.541 7.46963 -2229 248 219 200
527.977 7.46884 -2228 237 210 194
532.654 7.47115 -2228 234 207 191
538.299 7.48718 -2232 238 209 190
542.506 7.4831 -2230 240 211 194
547.936 7.49554 -2233 242 214 198
552.889 7.50157 -2234 243 215 202
558.1 7.51098 -2236 242 214 200
-901.301 2.81153 -2014 207 198 196
-892.468 2.79716 -2005 219 208 205
-886.787 2.79232 -2003 224 210 207
-883.767 2.7961 -2007 228 213 209
-876.794 2.78735 -2002 237 220 216
-872.904 2.78836 -2004 248 229 216
-869.879 2.79216 -2008 251 231 220
-864.689 2.78875 -2007 253 232 221
-859.085 2.78422 -2005 251 228 217
-854.777 2.78387 -2006 254 227 213
-850.896 2.78491 -2008 254 226 213
-846.172 2.78318 -2008 253 228 219
-841.456 2.78146 -2008 253 228 219
-836.332 2.77836 -2007 252 227 218
-831.22 2.77528 -2006 252 227 218
-826.534 2.77358 -2006 254 229 222
-821.446 2.77052 -2005 254 231 223
-815.556 2.7647 -2002 254 233 224
-812.118 2.76717 -2005 255 237 227
-807.868 2.76689 -2006 255 241 229
-804.423 2.76937 -2009 255 242 230
-800.574 2.77048 -2011 255 244 231
-797.911 2.77572 -2016 255 242 230
-792.084 2.76995 -2013 255 242 231
-789.408 2.7752 -2018 252 237 226
-784.384 2.7722 -2017 252 234 221
-780.918 2.77496 -2020 246 226 212
-778.599 2.78159 -2026 239 216 202
-773.967 2.77998 -2026 232 208 188
-773.141 2.79209 -2036 220 195 174
-768.124 2.78912 -2035 194 169 150
-765.37 2.79438 -2040 177 152 135
-760.364 2.79168 -2039 185 160 143
-756.851 2.79421 -2042 184 157 143
-751.122 2.78854 -2039 184 159 143
-747.611 2.79107 -2042 188 165 147
-743.365 2.79088 -2043 196 171 154
-739.483 2.79232 -2045 203 177 159
-735.24 2.79214 -2046 208 182 163
-731.356 2.79333 -2048 213 189 168
-727.471 2.79479 -2050 215 190 171
-722.877 2.79326 -2050 214 188 171
-718.642 2.79311 -2051 213 187 170
-714.06 2.7916 -2051 213 187 168
-711.56 2.79852 -2057 212 186 167
-706.634 2.79566 -2056 209 184 164
-702.402 2.79553 -2057 207 180 160
-698.173 2.79566 -2058 205 175 156
-693.608 2.79419 -2058 205 174 153
-690.054 2.79705 -2061 201 169 150
-686.161 2.7983 -2063 201 168 150
-682.265 2.79955 -2065 200 166 147
-678.695 2.80243 -2068 198 164 145
-674.792 2.80369 -2070 195 161 143
-670.238 2.80251 -2070 195 161 143
-666.012 2.80243 -2071 193 159 141
-662.747 2.80668 -2075 192 158 139
-657.883 2.80391 -2074 193 159 139
-653.66 2.80411 -2075 194 159 139
-649.752 2.80541 -2077 191 157 136
-645.219 2.80427 -2077 190 156 134
-640.692 2.80288 -2077 189 154 132
-637.09 2.8058 -2080 192 157 137
-632.872 2.80578 -2081 193 157 138
-628.958 2.80736 -2083 192 156 137
-625.64 2.81139 -2087 191 155 134
-620.822 2.80894 -2086 193 156 135
-616.014 2.80625 -2085 192 154 134
-611.51 2.80516 -2085 193 156 134
-607.592 2.80652 -2087 199 162 139
-603.094 2.80545 -2087 201 163 141
-599.175 2.80708 -2089 201 163 141
-594.399 2.80442 -2088 203 165 143
-590.762 2.80741 -2091 206 169 144
-586.277 2.80611 -2091 209 171 146
-582.074 2.80642 -2092 215 176 151
-578.978 2.8121 -2097 220 181 157
-576.413 2.8202 -2104 226 185 162
-570.833 2.81382 -2100 228 186 162
-567.163 2.81683 -2103 230 187 163
-562.414 2.81424 -2102 235 191 167
-557.941 2.81324 -2102 234 192 163
-553.209 2.81092 -2101 229 188 156
-550.053 2.81637 -2106 223 182 147
-545.326 2.81406 -2105 220 175 143
-542.921 2.82379 -2113 216 171 139
-538.703 2.8239 -2114 207 164 132
-535.497 2.82963 -2119 199 155 124
-531.271 2.83002 -2120 193 149 119
-527.543 2.83308 -2123 190 148 117
-522.575 2.82922 -2121 187 146 122
-518.841 2.83229 -2124 184 145 125
-515.099 2.83537 -2127 185 144 124
-510.869 2.83553 -2128 185 145 125
-506.638 2.83596 -2129 186 145 127
-502.409 2.83639 -2130 188 146 129
-498.88 2.84082 -2134 191 149 132
-494.412 2.83994 -2134 193 147 131
-490.178 2.84013 -2135 194 148 132
-486.855 2.84591 -2140 195 148 132
-481.936 2.84238 -2138 195 148 129
-477.7 2.84286 -2139 195 147 129
-473.243 2.84174 -2139 194 147 128
-469.228 2.84356 -2141 191 147 128
-464.558 2.8414 -2140 190 147 128
-459.895 2.83924 -2139 188 147 129
-455.241 2.8371 -2138 187 146 128
-450.594 2.83496 -2137 186 145 127
-447 2.8392 -2141 183 144 126
-443.599 2.84503 -2146 182 143 125
-440.182 2.85087 -2151 182 144 122
-435.937 2.85141 -2152 180 142 122
-431.692 2.85196 -2153 177 140 120
-428.24 2.85781 -2158 172 137 121
-423.2 2.85281 -2155 170 137 122
-418.953 2.85338 -2156 165 136 125
-414.513 2.85263 -2156 155 133 124
-409.887 2.85057 -2155 134 116 108
-403.763 2.83793 -2146 59 54 56
-398.424 2.8306 -2141 39 35 37
-393.109 2.82328 -2136 33 29 32
-388.363 2.81993 -2134 28 28 35
-383.629 2.81634 -2132 27 27 35
-379.262 2.81565 -2132 34 29 37
-375.426 2.81893 -2135 32 28 36
-371.233 2.81958 -2136 31 28 35
-366.867 2.81892 -2136 28 27 34
-362.843 2.8209 -2138 29 28 35
-358.647 2.82157 -2139 26 25 32
-353.787 2.81697 -2136 25 25 32
-349.924 2.82029 -2139 23 25 32
-345.89 2.8223 -2141 24 26 33
-341.054 2.81772 -2138 26 28 35
-336.389 2.81422 -2136 28 28 35
-331.736 2.81098 -2134 26 25 32
-327.093 2.80775 -2132 26 25 32
-321.856 2.79926 -2126 28 27 35
-317.691 2.8 -2127 28 28 35
-312.346 2.79022 -2120 26 27 35
-307.469 2.78439 -2116 27 26 34
-302.323 2.77595 -2110 27 26 34
-297.769 2.77277 -2108 29 28 36
-292.807 2.76566 -2103 31 30 38
-288.006 2.75988 -2099 34 33 41
-283.359 2.75542 -2096 34 33 41
-279.391 2.75754 -2098 30 29 37
-274.763 2.75309 -2095 30 29 37
-270.406 2.75128 -2094 30 29 36
-265.802 2.74686 -2091 31 30 37
-261.212 2.74244 -2088 32 31 38
-256.636 2.73803 -2085 32 31 38
-252.317 2.73625 -2084 33 32 39
-248.004 2.73423 -2083 33 32 40
-243.462 2.72985 -2080 33 32 40
-239.28 2.72941 -2080 32 31 39
-235.213 2.73029 -2081 29 27 35
-230.81 2.72725 -2079 40 36 42
-226.854 2.72945 -2081 41 40 47
-222.784 2.73036 -2082 40 41 50
-218.817 2.73258 -2084 51 48 42
-214.741 2.7335 -2085 101 97 90
-210.663 2.73442 -2086 81 74 61
-206.78 2.73797 -2089 69 60 48
-201.917 2.72843 -2082 59 49 37
-182.762 2.69034 -2054 65 56 41
-143.9 2.72795 -2085 40 35 38
-139.946 2.73162 -2088 52 46 49
-136.176 2.73921 -2094 53 46 50
-131.69 2.73243 -2089 47 40 44
-127.652 2.73481 -2091 51 44 48
-123.549 2.73589 -2092 51 44 48
-119.556 2.73959 -2095 47 40 44
-115.332 2.73807 -2094 40 36 39
-111.432 2.7444 -2099 45 40 44
-107.512 2.75073 -2104 49 43 49
-103.279 2.74923 -2103 38 34 39
-99.3338 2.75559 -2108 32 28 33
-95.1435 2.75541 -2108 31 28 33
-90.9971 2.75655 -2109 30 27 32
-86.7238 2.75377 -2107 33 30 35
-82.7335 2.76015 -2112 35 32 39
-78.5009 2.7587 -2111 36 33 40
-74.4137 2.76248 -2114 36 33 40
-70.3816 2.76888 -2119 37 34 41
-66.2365 2.77137 -2121 39 36 43
-62.1425 2.77648 -2125 40 37 44
-58.033 2.78159 -2129 40 37 44
-53.9335 2.78802 -2134 38 35 42
-49.8145 2.79446 -2139 35 32 39
-45.7187 2.80352 -2146 37 34 42
-41.4602 2.80344 -2146 36 34 42
-37.3928 2.81774 -2157 33 31 39
-33.1745 2.8229 -2161 29 28 35
-29.0075 2.8346 -2170 30 29 37
-24.8049 2.8463 -2179 28 27 35
-20.5857 2.86063 -2190 29 30 40
-16.2933 2.86974 -2197 27 26 36
-11.957 2.87494 -2201 28 25 35
-7.59804 2.87753 -2203 29 26 36
-3.22385 2.87361 -2200 26 24 34
1.13841 2.86969 -2197 27 24 34
5.50128 2.87231 -2199 28 26 36
9.88559 2.87885 -2204 27 24 34
14.2704 2.88149 -2206 29 25 34
18.6633 2.88413 -2208 27 24 34
23.0538 2.88547 -2209 26 25 35
27.4733 2.88944 -2212 26 25 35
445.738 2.9589 -2234 148 123 115
449.343 2.95308 -2229 156 131 116
452.932 2.94726 -2224 167 142 127
458.355 2.95338 -2228 176 152 137
464.63 2.96481 -2236 187 162 151
468.424 2.96034 -2232 197 173 161
473.264 2.96279 -2233 204 179 168
477.685 2.96231 -2232 210 184 173
481.458 2.95786 -2228 217 191 180
484.345 2.9481 -2220 218 191 179
488.745 2.94764 -2219 226 197 182
492.922 2.94614 -2217 232 202 188
498.218 2.95101 -2220 240 211 196
503.53 2.95589 -2223 244 215 199
509.088 2.96211 -2227 238 209 193
513.744 2.96303 -2227 235 205 186
518.637 2.96555 -2228 240 209 188
523.069 2.96515 -2227 245 216 197
527.739 2.96608 -2227 240 212 195
532.413 2.96703 -2227 241 212 196
538.056 2.97359 -2231 245 214 194
543.72 2.97988 -2235 244 209 188
548.671 2.98219 -2236 238 202 184
553.63 2.9845 -2237 227 192 177
559.097 2.98977 -2240 218 183 169
-907.362 -1.43986 -2006 245 224 220
-900.287 -1.43559 -2001 254 234 226
-893.692 -1.43179 -1997 255 239 229
-887.572 -1.42896 -1994 255 239 228
-882.359 -1.42732 -1993 254 234 225
-880.243 -1.4307 -1999 253 231 221
-874.604 -1.42861 -1997 250 228 217
-869.854 -1.42769 -1997 246 220 207
-865.979 -1.42846 -1999 241 216 205
-862.966 -1.43041 -2003 241 217 206
-858.227 -1.42976 -2003 243 221 210
-854.776 -1.431 -2006 254 229 214
-850.472 -1.43106 -2007 255 234 220
-845.75 -1.43016 -2007 252 229 220
-841.036 -1.42953 -2007 248 223 215
-835.498 -1.42721 -2005 249 224 216
-830.805 -1.42658 -2005 253 228 219
-825.709 -1.42498 -2004 255 231 222
-821.036 -1.42436 -2004 255 234 224
-816.37 -1.42348 -2004 255 235 224
-812.928 -1.42499 -2007 255 237 227
-808.271 -1.42412 -2007 255 238 226
-804.023 -1.42421 -2008 255 240 227
-799.777 -1.42405 -2009 255 240 227
-796.723 -1.42628 -2013 254 236 224
-792.083 -1.42568 -2013 249 231 218
-789.017 -1.42765 -2017 241 220 208
-786.328 -1.43059 -2022 241 217 204
-781.304 -1.42902 -2021 237 210 196
-779.751 -1.43408 -2029 228 199 186
-776.641 -1.43631 -2033 212 185 168
-774.659 -1.4404 -2040 190 165 145
-771.143 -1.44193 -2043 164 142 126
-768.747 -1.44532 -2049 147 126 112
-763.346 -1.44332 -2047 166 145 133
-759.816 -1.44485 -2050 165 141 131
-753.332 -1.44049 -2045 162 140 126
-750.173 -1.44273 -2049 164 142 125
-746.639 -1.444 -2052 179 155 139
-743.46 -1.44624 -2056 183 157 141
-739.911 -1.44778 -2059 187 161 144
-736.713 -1.44977 -2063 192 168 149
-732.083 -1.4492 -2063 193 170 154
-727.461 -1.44864 -2063 191 169 155
-722.846 -1.44782 -2063 190 168 153
-718.237 -1.44726 -2063 189 167 152
-714.673 -1.44881 -2066 189 167 150
-710.071 -1.448 -2066 186 164 147
-705.817 -1.44816 -2067 188 163 146
-701.226 -1.44761 -2067 191 163 148
-695.63 -1.44497 -2064 192 161 145
-691.728 -1.44557 -2066 187 156 140
-687.824 -1.44644 -2068 186 155 140
-683.917 -1.4473 -2070 186 153 138
-681.648 -1.45141 -2077 185 152 137
-678.377 -1.45367 -2081 181 149 133
-673.799 -1.45315 -2081 180 147 132
-668.906 -1.45193 -2080 178 145 130
-664.982 -1.45254 -2082 177 144 130
-661.372 -1.45412 -2085 176 141 126
-656.18 -1.45221 -2083 176 141 125
-652.254 -1.45309 -2085 174 141 122
-647.393 -1.45163 -2084 173 139 119
-641.926 -1.44904 -2081 171 136 115
-638.315 -1.45062 -2084 172 136 117
-633.48 -1.44943 -2083 172 136 119
-630.769 -1.45285 -2089 173 136 120
-627.438 -1.45514 -2093 173 137 118
-622.607 -1.45395 -2092 173 137 118
-617.786 -1.45277 -2091 172 135 116
-614.149 -1.45437 -2094 170 134 113
-609.048 -1.45224 -2092 169 134 113
-604.25 -1.45107 -2091 170 133 112
-600.896 -1.45338 -2095 169 133 114
-596.107 -1.45221 -2094 171 136 116
-592.457 -1.45382 -2097 175 138 117
-587.678 -1.4524 -2096 179 139 118
-584.022 -1.45402 -2099 185 143 121
-580.358 -1.45564 -2102 193 149 126
-577.234 -1.45865 -2107 200 157 133
-571.92 -1.45611 -2104 204 161 139
-567.971 -1.45705 -2106 205 161 140
-562.682 -1.45427 -2103 204 160 138
-559.002 -1.4559 -2106 203 160 134
-553.472 -1.45269 -2102 201 159 130
-550.575 -1.4564 -2108 200 157 125
-545.844 -1.45527 -2107 200 157 127
-543.692 -1.46106 -2116 200 158 128
-538.958 -1.45994 -2115 197 155 125
-535.749 -1.4627 -2120 190 148 119
-531.772 -1.46365 -2122 181 139 111
-528.288 -1.46599 -2126 175 136 107
-524.792 -1.46833 -2130 174 136 113
-520.306 -1.46791 -2130 173 135 118
-516.552 -1.46957 -2133 172 134 115
-513.509 -1.47329 -2139 172 134 115
-509.494 -1.474 -2141 172 133 116
-505.003 -1.47359 -2141 173 133 118
-501.685 -1.47663 -2146 174 132 118
-497.656 -1.47761 -2148 179 134 118
-493.393 -1.4779 -2149 179 135 119
-488.447 -1.47613 -2147 179 134 118
-484.19 -1.47643 -2148 178 133 115
-480.38 -1.47811 -2151 178 134 116
-475.898 -1.47772 -2151 179 134 116
-471.2 -1.47666 -2150 176 134 116
-467.162 -1.47739 -2152 174 134 115
-462.69 -1.47701 -2152 170 132 115
-458.221 -1.47664 -2152 172 133 116
-396.053 -1.47156 -2152 30 26 29
-390.183 -1.46577 -2144 28 27 35
-384.888 -1.46204 -2139 28 27 37
-380.329 -1.46105 -2138 32 27 35
-376.48 -1.46279 -2141 30 25 33
-372.101 -1.46249 -2141 30 27 34
-367.725 -1.46219 -2141 26 25 32
-363.522 -1.46257 -2142 29 28 35
-359.318 -1.46296 -2143 28 27 34
-354.284 -1.45994 -2139 25 26 33
-350.251 -1.46102 -2141 22 24 31
-345.729 -1.46005 -2140 23 25 32
-340.894 -1.45773 -2137 25 27 34
-336.547 -1.45745 -2137 25 27 33
-332.202 -1.45718 -2137 24 24 31
-327.093 -1.4535 -2132 23 22 29
-322.31 -1.45119 -2129 25 24 32
-318.139 -1.45161 -2130 26 25 33
-312.788 -1.44658 -2123 27 26 34
-308.34 -1.44565 -2122 29 28 36
-303.469 -1.44242 -2118 30 29 37
-298.475 -1.43877 -2113 32 31 39
-293.225 -1.43376 -2106 34 33 41
-288.555 -1.43148 -2103 32 31 39
-283.764 -1.42852 -2099 27 26 34
-279.524 -1.42829 -2099 23 22 30
-274.894 -1.42602 -2096 25 24 31
-270.664 -1.4258 -2096 26 25 32
-266.056 -1.42354 -2093 29 28 35
-261.712 -1.42264 -2092 32 31 38
-257.252 -1.42107 -2090 32 31 38
-253.043 -1.42086 -2090 31 30 37
-248.48 -1.41862 -2087 29 28 35
-244.164 -1.41773 -2086 30 29 36
-239.74 -1.41618 -2084 29 28 36
-235.1 -1.41326 -2080 26 25 33
-230.81 -1.41239 -2079 35 30 38
-226.963 -1.41424 -2082 33 32 39
-222.891 -1.41474 -2083 35 37 44
-218.607 -1.41388 -2082 52 49 43
-214.947 -1.41709 -2087 89 86 78
-210.966 -1.41828 -2089 83 77 62
-206.78 -1.4181 -2089 71 62 49
-183.474 -1.39898 -2062 69 60 47
-144.176 -1.41593 -2089 43 38 42
-139.946 -1.41514 -2088 46 42 45
-136.111 -1.41841 -2093 50 43 47
-131.816 -1.41695 -2091 50 43 47
-127.652 -1.41684 -2091 51 44 48
-123.253 -1.41403 -2087 51 44 48
-119.442 -1.41799 -2093 47 41 44
-115.277 -1.41789 -2093 41 37 40
-111.326 -1.42051 -2097 44 40 44
-107.41 -1.42381 -2102 44 40 45
-103.328 -1.42507 -2104 37 33 38
-99.2395 -1.42634 -2106 33 29 34
-95.0983 -1.42694 -2107 31 28 33
-90.997 -1.42822 -2109 31 28 33
-86.7238 -1.42679 -2107 35 32 37
-82.6943 -1.42943 -2111 39 36 43
-78.5752 -1.43072 -2113 40 37 44
-74.4841 -1.43268 -2116 39 36 43
-70.3815 -1.43466 -2119 39 36 43
-66.2364 -1.43595 -2121 41 38 45
-62.1424 -1.43861 -2125 41 38 45
-58.0603 -1.44194 -2130 41 38 45
-54.0093 -1.44664 -2137 38 35 42
-49.7912 -1.44727 -2138 35 32 40
-45.7613 -1.454 -2148 36 33 41
-41.5182 -1.45464 -2149 35 34 44
-37.3927 -1.46002 -2157 32 31 40
-33.1898 -1.46338 -2162 31 30 37
-29.0609 -1.47147 -2174 31 30 38
-24.896 -1.48025 -2187 31 31 39
-20.6797 -1.48903 -2200 33 34 44
-3.2429 -1.49779 -2213 28 27 37
1.1467 -1.49779 -2213 26 25 35
9.93044 -1.49848 -2214 27 26 36
14.3351 -1.49984 -2216 29 27 37
18.6971 -1.49715 -2212 29 27 37
23.1164 -1.49919 -2215 31 30 40
483.035 -1.54891 -2257 157 137 128
486.212 -1.5445 -2250 164 142 135
489.144 -1.53967 -2242 174 150 142
493.15 -1.53801 -2239 189 159 148
496.702 -1.53497 -2234 195 164 153
502.033 -1.53743 -2237 209 179 167
506.475 -1.53715 -2236 228 199 186
510.917 -1.53687 -2235 240 211 195
515.358 -1.53659 -2234 232 204 186
519.568 -1.53563 -2232 226 198 179
523.539 -1.53398 -2229 231 202 183
528.212 -1.5344 -2229 234 203 186
533.369 -1.53647 -2231 241 210 192
539.502 -1.54104 -2237 249 215 196
545.666 -1.5456 -2243 251 215 193
550.634 -1.54673 -2244 252 214 194
-905.102 -5.66982 -2001 241 206 197
-896.24 -5.6409 -1992 239 209 194
-891.904 -5.64006 -1993 238 209 194
-886.683 -5.63384 -1992 239 211 195
-882.362 -5.63303 -1993 240 215 200
-879.805 -5.64379 -1998 240 216 200
-875.044 -5.64043 -1998 242 218 202
-870.292 -5.63709 -1998 241 213 200
-866.848 -5.64197 -2001 243 217 208
-862.537 -5.64147 -2002 250 226 217
-857.373 -5.63534 -2001 254 235 224
-853.926 -5.6405 -2004 252 230 217
-850.05 -5.64285 -2006 246 224 212
-844.066 -5.63115 -2003 244 222 213
-838.943 -5.62483 -2002 246 222 213
-834.666 -5.62441 -2003 250 226 217
-829.979 -5.62119 -2003 255 232 222
-825.299 -5.61799 -2003 255 233 221
-821.857 -5.62321 -2006 254 232 220
-818.001 -5.62563 -2008 254 232 219
-814.145 -5.62832 -2010 254 230 217
-809.481 -5.62516 -2010 247 226 212
-806.026 -5.63041 -2013 243 224 210
-801.77 -5.63007 -2014 242 219 206
-798.308 -5.63534 -2017 232 208 194
-794.053 -5.63502 -2018 229 205 190
-790.974 -5.64334 -2022 229 202 188
-787.885 -5.65141 -2026 220 190 175
-783.625 -5.65112 -2027 218 186 170
-782.827 -5.67617 -2037 209 176 162
-780.845 -5.6926 -2044 188 161 146
-780.357 -5.72015 -2055 160 137 120
-778.317 -5.73682 -2062 135 117 106
-778.128 -5.76713 -2074 115 99 91
-718.321 -5.77181 -2090 163 145 132
-708.352 -5.76106 -2088 166 145 135
-703.046 -5.75269 -2086 166 142 131
-673.607 -5.79544 -2109 160 132 123
-666.766 -5.77372 -2102 158 130 120
-660.907 -5.76027 -2098 160 131 122
-657.574 -5.7688 -2102 160 131 118
-654.539 -5.78008 -2107 157 127 113
-648.096 -5.7612 -2101 156 125 111
-627.668 -5.77146 -2109 154 121 108
-623.992 -5.77732 -2112 154 121 107
-620.602 -5.78593 -2116 151 119 104
-614.872 -5.77267 -2112 146 114 99
-609.742 -5.7649 -2110 142 110 94
-596.696 -5.76379 -2112 141 110 96
-591.325 -5.75336 -2109 144 110 96
-587.64 -5.75957 -2112 149 112 97
-583.12 -5.75735 -2112 157 117 98
-579.427 -5.76332 -2115 162 123 103
-573.824 -5.75023 -2111 163 127 107
-570.669 -5.76193 -2116 168 130 112
-565.358 -5.7516 -2113 168 130 112
-561.923 -5.76033 -2117 168 130 108
-556.896 -5.75301 -2115 166 129 103
-553.711 -5.76448 -2120 164 127 98
-549.213 -5.76263 -2120 165 129 103
-546.52 -5.77955 -2127 167 132 105
-542.527 -5.78289 -2129 165 132 106
-535.783 -5.80344 -2138 157 125 101
-532.762 -5.81792 -2144 152 121 98
-529.474 -5.82943 -2149 152 121 104
-385.969 -5.76606 -2145 30 27 36
-381.397 -5.76206 -2144 31 28 35
-377.009 -5.7605 -2144 29 26 33
-372.623 -5.75922 -2144 28 25 32
-368.241 -5.75795 -2144 24 23 30
-364.202 -5.76207 -2146 27 26 33
-359.654 -5.75815 -2145 27 26 33
-354.947 -5.75155 -2143 25 24 32
-350.416 -5.7474 -2142 25 25 33
-346.214 -5.74889 -2143 27 29 36
-341.214 -5.73698 -2139 26 28 35
-337.02 -5.73849 -2140 22 24 31
-332.358 -5.73198 -2138 21 22 29
-328.321 -5.73621 -2140 21 22 28
-322.462 -5.70803 -2130 24 23 31
-317.692 -5.69889 -2127 27 26 34
-313.231 -5.69512 -2126 27 26 34
-308.631 -5.6887 -2124 29 28 36
-303.613 -5.67425 -2119 33 32 40
-298.476 -5.65715 -2113 34 33 41
-293.504 -5.64275 -2108 32 31 39
-288.693 -5.63104 -2104 26 25 33
-283.765 -5.61667 -2099 23 22 30
-279.259 -5.61035 -2097 23 22 30
-275.025 -5.60914 -2097 24 23 30
-271.052 -5.61355 -2099 23 22 29
-266.311 -5.60192 -2095 24 23 30
-261.838 -5.59566 -2093 24 23 30
-257.745 -5.59744 -2094 24 23 30
-253.286 -5.59121 -2092 24 23 30
-248.718 -5.58232 -2089 22 21 28
-244.633 -5.58415 -2090 23 22 29
-240.316 -5.58064 -2089 24 23 30
-235.665 -5.56913 -2085 23 22 29
-231.366 -5.56565 -2084 31 28 36
-227.181 -5.56486 -2084 28 28 35
-223.106 -5.56675 -2085 29 31 38
-218.923 -5.56598 -2085 59 57 52
-214.536 -5.55989 -2083 85 81 75
-210.562 -5.5645 -2085 86 78 63
-206.483 -5.56619 -2086 73 64 48
-202.015 -5.55748 -2083 59 49 33
-197.559 -5.54878 -2080 52 43 24
-183.474 -5.49879 -2062 68 58 46
-179.091 -5.49016 -2059 54 44 33
-142.934 -5.51711 -2071 51 46 50
-139.544 -5.54592 -2082 42 38 41
-136.046 -5.57208 -2092 39 32 37
-131.753 -5.56629 -2090 44 37 42
-127.653 -5.5685 -2091 47 40 45
-123.726 -5.57871 -2095 46 39 43
-119.785 -5.58894 -2099 44 37 41
-115.498 -5.58321 -2097 43 39 42
-111.485 -5.5908 -2100 44 40 44
-107.41 -5.59574 -2102 41 37 42
-103.28 -5.59804 -2103 35 31 36
-99.1455 -5.60035 -2104 32 29 34
-95.1436 -5.61066 -2108 32 29 34
-90.954 -5.61033 -2108 33 30 35
-86.7651 -5.61002 -2108 38 35 40
-82.6161 -5.61239 -2109 42 39 46
-78.501 -5.61743 -2111 42 39 46
-74.4138 -5.62515 -2114 40 37 44
-70.282 -5.63022 -2116 39 36 43
-66.1741 -5.63796 -2119 40 37 44
-62.1426 -5.6537 -2125 43 40 47
-58.0059 -5.66148 -2128 42 39 46
-53.9841 -5.68256 -2136 40 37 44
-49.8146 -5.69036 -2139 38 35 42
-45.7188 -5.70882 -2146 35 32 40
-41.4989 -5.71399 -2148 36 34 44
-37.4622 -5.74843 -2161 35 34 42
-33.3127 -5.77225 -2170 34 33 40
-29.2348 -5.81736 -2187 33 33 41
505.849 -6.09416 -2254 149 126 120
508.741 -6.07453 -2246 183 160 151
516.282 -6.05663 -2238 220 198 185
519.802 -6.04485 -2233 228 206 193
524.01 -6.04147 -2231 240 210 193
528.687 -6.04325 -2231 231 197 178
534.804 -6.06158 -2237 221 186 167
-899.844 -9.89202 -2000 222 184 170
-893.252 -9.86608 -1996 234 198 183
-889.359 -9.86983 -1998 242 213 197
-885.023 -9.86866 -1999 246 222 208
-882.012 -9.88231 -2003 248 225 209
-875.925 -9.86145 -2000 249 225 207
-870.732 -9.85049 -1999 250 224 209
-865.986 -9.84449 -1999 253 228 215
-861.249 -9.83851 -1999 252 228 216
-856.52 -9.83256 -1999 247 221 209
-852.652 -9.83647 -2001 244 213 197
-848.36 -9.83573 -2002 245 214 199
-844.071 -9.83476 -2003 248 222 211
-839.367 -9.8289 -2003 255 230 218
-835.921 -9.83804 -2006 254 231 218
-831.641 -9.83713 -2007 251 226 213
-827.776 -9.84139 -2009 248 216 203
-823.5 -9.84051 -2010 241 210 197
-819.635 -9.84481 -2012 237 207 194
-816.579 -9.85864 -2016 234 205 192
-812.707 -9.86296 -2018 225 198 184
-808.433 -9.86241 -2019 215 190 176
-805.357 -9.87653 -2023 208 180 167
-801.083 -9.87575 -2024 203 175 161
-796.418 -9.87038 -2024 199 171 157
-794.108 -9.89427 -2030 188 161 146
-791.39 -9.91329 -2035 182 154 139
-788.269 -9.92744 -2039 177 148 132
-788.596 -9.98538 -2052 170 142 129
-788.49 -10.0384 -2064 153 132 121
-789.475 -10.106 -2079 125 108 97
-387.05 -10.0942 -2151 33 28 37
-382.288 -10.0822 -2149 31 28 35
-377.538 -10.0705 -2147 27 24 31
-373.494 -10.0774 -2149 25 22 29
-369.274 -10.0798 -2150 26 25 32
-365.052 -10.0823 -2151 28 27 34
-360.662 -10.0801 -2151 26 25 33
-355.943 -10.0683 -2149 25 24 31
-351.235 -10.0568 -2147 26 25 32
-346.7 -10.05 -2146 22 24 31
-341.853 -10.0336 -2143 24 26 33
-337.651 -10.0363 -2144 25 27 34
-332.826 -10.0202 -2141 24 26 32
-328.169 -10.0088 -2139 19 21 28
-323.221 -9.98788 -2135 26 25 33
-318.44 -9.9719 -2132 28 27 35
-313.674 -9.95595 -2129 26 25 33
-308.633 -9.93069 -2124 29 28 36
-304.044 -9.91948 -2122 34 33 41
-299.042 -9.89402 -2117 33 32 40
-294.063 -9.86885 -2112 30 29 37
-289.106 -9.84372 -2107 26 25 33
-284.172 -9.81862 -2102 26 25 33
-279.659 -9.80757 -2100 27 26 33
-275.289 -9.80095 -2099 26 25 32
-270.795 -9.78996 -2097 23 22 29
-266.312 -9.77899 -2095 20 19 26
-262.09 -9.77738 -2095 20 19 26
-257.869 -9.7758 -2095 21 20 27
-253.408 -9.76491 -2093 23 22 29
-249.077 -9.75871 -2092 21 20 27
-244.751 -9.75255 -2091 21 20 27
-240.087 -9.73216 -2087 22 21 28
-235.779 -9.72605 -2086 23 22 29
-231.256 -9.71064 -2083 28 26 34
-227.073 -9.70924 -2083 27 26 33
-222.893 -9.70787 -2083 27 28 34
-218.819 -9.71118 -2084 54 52 48
-214.537 -9.7052 -2083 82 79 72
-210.462 -9.70856 -2084 86 78 61
-206.484 -9.7166 -2086 79 69 50
-202.015 -9.70138 -2083 71 60 40
-197.845 -9.70016 -2083 59 51 30
-193.676 -9.69897 -2083 61 53 33
-188.781 -9.66055 -2075 68 58 42
-183.653 -9.6082 -2064 65 55 43
-179.352 -9.59753 -2062 53 42 33
-142.728 -9.61658 -2068 48 44 47
-139.478 -9.67616 -2081 42 38 41
-135.852 -9.71251 -2089 36 29 35
-131.628 -9.70705 -2088 39 32 38
-127.775 -9.7295 -2093 42 35 41
-123.845 -9.74732 -2097 43 36 41
-119.671 -9.74657 -2097 41 34 38
-115.443 -9.7412 -2096 40 36 39
-111.486 -9.7591 -2100 39 35 39
-107.36 -9.76308 -2101 36 32 37
-103.182 -9.76243 -2101 36 33 38
-99.0517 -9.76646 -2102 36 33 38
-95.0538 -9.78445 -2106 36 33 38
-90.825 -9.77923 -2105 38 35 40
-86.8067 -9.79727 -2109 44 41 46
-82.6557 -9.80139 -2110 46 43 50
-78.613 -9.81948 -2114 45 42 49
-74.4142 -9.81901 -2114 42 39 46
-70.3156 -9.8325 -2117 42 39 46
-66.2057 -9.84601 -2120 42 39 46
-62.1429 -9.86884 -2125 43 40 47
-58.0334 -9.88705 -2129 40 37 44
-53.9844 -9.91921 -2136 37 34 41
-49.908 -9.9514 -2143 38 35 42
-45.7616 -9.97433 -2148 38 35 43
-41.5764 -9.99263 -2152 36 34 44
-37.497 -10.0435 -2163 34 32 41
-33.3743 -10.0943 -2174 34 33 40
-896.934 -14.2088 -2015 249 218 204
-889.458 -14.1576 -2009 246 219 205
-885.102 -14.1561 -2010 248 221 206
-879.436 -14.1332 -2008 249 220 205
-871.611 -14.0752 -2001 246 217 198
-865.127 -14.0384 -1997 241 213 197
-860.825 -14.0371 -1998 238 211 197
-856.527 -14.0355 -1999 237 210 197
-851.807 -14.0272 -1999 245 213 199
-847.519 -14.0259 -2000 252 220 207
-844.499 -14.0455 -2004 253 222 211
-841.05 -14.0583 -2007 249 219 207
-837.595 -14.0711 -2010 238 207 194
-834.548 -14.0909 -2014 224 192 179
-831.491 -14.1107 -2018 212 178 165
-828.423 -14.1305 -2022 204 170 159
-824.938 -14.1434 -2025 195 161 151
-821.447 -14.1563 -2028 183 149 139
-817.949 -14.1691 -2031 172 140 129
-814.446 -14.1823 -2034 162 133 121
-810.141 -14.1813 -2035 156 126 114
-806.63 -14.1944 -2038 153 123 110
-801.933 -14.1865 -2038 150 121 107
-799.591 -14.2206 -2044 144 118 104
-797.618 -14.2614 -2051 134 109 95
-796.78 -14.3233 -2061 136 111 97
-389.392 -14.4931 -2164 33 30 38
-383.892 -14.4495 -2158 30 27 34
-378.772 -14.4192 -2154 29 26 33
-374.54 -14.4226 -2155 26 23 30
-370.307 -14.4258 -2156 24 23 30
-366.243 -14.436 -2158 22 21 28
-361.838 -14.4326 -2158 25 24 32
-357.602 -14.4362 -2159 24 23 31
-353.692 -14.4529 -2162 28 27 34
-348.965 -14.4365 -2160 23 25 32
-343.77 -14.4001 -2155 26 28 35
-339.071 -14.3835 -2153 25 27 34
-334.072 -14.3539 -2149 24 26 33
-328.939 -14.3176 -2144 23 25 32
-323.677 -14.2744 -2138 27 26 34
-319.189 -14.265 -2137 28 27 35
-313.677 -14.2088 -2129 26 25 33
-308.345 -14.1591 -2122 30 28 37
-303.903 -14.1498 -2121 34 32 41
-299.185 -14.1272 -2118 29 28 36
-294.204 -14.0913 -2113 27 26 34
-289.382 -14.0618 -2109 29 28 36
-284.715 -14.0393 -2106 32 31 38
-279.928 -14.0102 -2102 32 31 38
-275.684 -14.0077 -2102 30 30 35
-271.314 -13.9984 -2101 27 26 32
-266.696 -13.9761 -2098 22 21 28
-262.467 -13.9738 -2098 25 24 31
-257.871 -13.9516 -2095 25 24 31
-253.531 -13.9427 -2094 26 25 32
-249.079 -13.9269 -2092 23 22 29
-244.987 -13.9314 -2093 22 21 28
-240.549 -13.916 -2091 23 22 29
-236.007 -13.8939 -2088 23 22 29
-231.369 -13.8653 -2084 27 25 33
-227.402 -13.8766 -2086 26 26 33
-223.108 -13.868 -2085 30 30 36
-218.925 -13.8658 -2085 51 51 47
-214.744 -13.8639 -2085 75 73 66
-210.565 -13.862 -2085 89 83 64
-206.387 -13.8602 -2085 92 83 60
-201.823 -13.8318 -2081 85 73 48
-197.657 -13.8301 -2081 69 61 36
-193.306 -13.8151 -2079 59 50 27
-188.783 -13.7868 -2075 62 52 35
-183.654 -13.7121 -2064 61 50 38
-179.441 -13.7039 -2063 51 40 31
-142.936 -13.744 -2071 38 34 37
-139.546 -13.8158 -2082 39 35 38
-135.983 -13.8743 -2091 38 31 37
-131.944 -13.8864 -2093 40 33 39
-127.898 -13.8985 -2095 44 37 43
-123.846 -13.9107 -2097 44 37 41
-119.786 -13.9229 -2099 41 34 38
-115.719 -13.9351 -2101 39 35 38
-111.433 -13.9208 -2099 36 32 36
-107.156 -13.9066 -2097 34 30 35
-103.084 -13.919 -2099 37 34 39
-98.864 -13.9114 -2098 38 35 40
-94.9191 -13.9437 -2103 40 37 42
-90.7394 -13.9429 -2103 43 40 45
-86.8074 -13.9819 -2109 48 45 50
-82.6563 -13.9878 -2110 49 46 53
-78.5392 -14.0004 -2112 48 45 52
-74.3795 -14.0063 -2113 47 44 51
-70.3161 -14.0322 -2117 45 42 49
-66.2374 -14.0581 -2121 43 40 47
-62.0848 -14.0708 -2123 43 40 47
-58.0066 -14.1034 -2128 40 37 44
-53.9595 -14.1493 -2135 36 33 40
-49.8618 -14.1886 -2141 37 34 42
-45.698 -14.2147 -2145 38 35 43
-41.596 -14.2673 -2153 35 33 45
-37.532 -14.3465 -2165 33 32 42
-33.4973 -14.4588 -2182 37 36 44
-891.277 -18.5233 -2024 196 163 151
-882.512 -18.4296 -2015 193 157 144
-872.056 -18.2993 -2002 200 162 141
-865.137 -18.2425 -1997 234 201 184
-860.404 -18.2315 -1997 254 225 210
-858.251 -18.2753 -2003 252 229 218
-853.948 -18.2734 -2004 249 224 214
-850.495 -18.2898 -2007 242 215 205
-846.616 -18.2971 -2009 232 197 187
-844.412 -18.3409 -2015 211 176 166
-840.938 -18.3574 -2018 180 146 135
-839.116 -18.4105 -2025 158 125 114
-838.505 -18.4905 -2035 152 117 108
-835.808 -18.5254 -2040 149 114 107
-833.502 -18.5691 -2046 139 105 100
-829.557 -18.5767 -2048 127 93 88
-827.624 -18.6297 -2055 123 91 85
-822.464 -18.6102 -2054 118 88 80
-818.51 -18.6179 -2056 116 88 79
-815.347 -18.6438 -2060 116 88 79
-813.747 -18.7058 -2068 116 88 78
-811.727 -18.7588 -2075 112 87 79
-385.853 -18.8702 -2169 33 30 37
-380.358 -18.8137 -2163 31 28 35
-376.282 -18.8266 -2165 31 28 35
-372.2 -18.8395 -2167 27 26 33
-368.113 -18.8527 -2169 21 20 27
-336.408 -18.7804 -2164 25 27 34
-330.477 -18.6898 -2154 25 26 33
-324.74 -18.6078 -2145 29 28 36
-319.342 -18.5434 -2138 28 27 35
-314.269 -18.4962 -2133 27 26 34
-308.929 -18.432 -2126 31 28 38
-304.049 -18.3939 -2122 32 29 39
-299.189 -18.3555 -2118 27 26 34
-294.346 -18.3175 -2114 27 26 34
-289.797 -18.2969 -2112 30 29 37
-284.853 -18.25 -2107 34 33 40
-280.064 -18.2122 -2103 33 32 39
-275.425 -18.1831 -2100 32 32 36
-271.188 -18.1797 -2100 30 29 35
-266.571 -18.1507 -2097 31 30 37
-262.094 -18.1304 -2095 29 28 34
-258.12 -18.1447 -2097 27 26 32
-253.655 -18.1243 -2095 27 26 33
-248.962 -18.0868 -2091 25 24 31
-244.873 -18.0927 -2092 23 22 29
-240.321 -18.064 -2089 23 22 29
-235.671 -18.0267 -2085 22 21 28
-231.26 -18.0065 -2083 27 26 34
-227.404 -18.0298 -2086 27 26 34
-223.218 -18.0272 -2086 34 32 40
-218.928 -18.0161 -2085 37 39 34
-214.952 -18.0309 -2087 80 80 72
-210.567 -18.0112 -2085 112 106 87
-206.389 -18.0088 -2085 108 99 72
-201.922 -17.9803 -2082 96 85 53
-198.134 -18.0126 -2086 77 69 41
-193.866 -18.0017 -2085 62 54 28
-189.785 -18.0082 -2086 64 54 35
-184.546 -17.9024 -2074 58 47 34
-143.282 -17.9007 -2076 32 27 31
-139.681 -17.9681 -2084 36 32 35
-135.984 -18.0269 -2091 38 31 37
-132.072 -18.0598 -2095 38 31 37
-128.083 -18.0842 -2098 43 36 42
-123.906 -18.0828 -2098 45 39 43
-120.016 -18.1245 -2103 37 32 35
-115.721 -18.1059 -2101 34 30 33
-111.541 -18.1046 -2101 32 28 32
-107.311 -18.0947 -2100 33 29 34
-103.233 -18.1107 -2102 37 34 40
-98.865 -18.0751 -2098 37 34 40
-94.9201 -18.1171 -2103 38 35 40
-90.7404 -18.116 -2103 42 39 44
-86.8082 -18.1667 -2109 48 45 50
-82.6572 -18.1743 -2110 49 46 53
-78.6144 -18.2079 -2114 49 46 53
-74.4507 -18.2156 -2115 50 47 54
-70.3833 -18.2492 -2119 46 43 50
-66.2693 -18.2743 -2122 44 41 48
-62.1147 -18.2908 -2124 41 38 45
-58.089 -18.3504 -2131 37 34 41
-53.9601 -18.3842 -2135 36 33 40
-49.8856 -18.4439 -2142 37 34 41
-45.7198 -18.4777 -2146 39 36 44
-41.6544 -18.5633 -2156 36 36 48
-37.6017 -18.6748 -2169 35 34 45
-859.073 -22.6191 -2016 221 197 188
-856.016 -22.6505 -2020 196 170 162
-853.371 -22.693 -2025 168 138 131
-850.71 -22.7356 -2030 131 101 95
-849.285 -22.8119 -2038 111 82 76
-849.073 -22.9217 -2049 106 79 71
-850.879 -23.0873 -2065 107 77 71
-848.521 -23.141 -2071 106 78 73
-846.551 -23.2058 -2078 110 83 80
-382.474 -23.2762 -2175 34 31 38
-378.372 -23.2921 -2177 32 29 36
-325.653 -22.9586 -2151 30 29 37
-319.794 -22.8474 -2141 27 26 34
-314.568 -22.7787 -2135 28 27 35
-309.078 -22.689 -2127 31 29 38
-304.053 -22.6311 -2122 30 27 37
-299.334 -22.5949 -2119 28 27 35
-294.489 -22.5479 -2115 29 28 36
-289.664 -22.5012 -2111 29 28 36
-284.856 -22.4545 -2107 33 32 39
-280.068 -22.4077 -2103 34 33 40
-275.56 -22.3825 -2101 34 34 38
-271.191 -22.3678 -2100 31 31 36
-266.448 -22.3214 -2096 33 32 39
-261.972 -22.2964 -2094 32 32 36
-257.631 -22.2819 -2093 30 30 34
-253.053 -22.2464 -2090 30 29 36
-248.846 -22.2429 -2090 28 27 34
-244.759 -22.2501 -2091 26 25 32
-240.324 -22.2251 -2089 25 24 31
-236.126 -22.2218 -2089 22 21 28
-231.929 -22.2185 -2089 24 22 30
-227.625 -22.2047 -2088 27 25 33
-223.648 -22.2228 -2090 26 23 31
-219.245 -22.1981 -2088 57 60 55
-215.058 -22.1951 -2088 119 120 112
-210.368 -22.139 -2083 117 111 91
-206.194 -22.136 -2083 103 95 65
-201.731 -22.1013 -2080 101 90 56
-197.756 -22.1198 -2082 96 89 56
-193.775 -22.138 -2084 85 77 47
-189.97 -22.1778 -2088 76 66 45
-185.082 -22.0902 -2080 58 48 34
-172.86 -22.1145 -2083 42 34 34
-148.63 -22.2071 -2093 29 23 29
-143.974 -22.1305 -2086 30 25 29
-140.152 -22.1815 -2091 31 27 30
-136.246 -22.222 -2095 32 25 31
-132.199 -22.2414 -2097 33 26 32
-128.207 -22.2713 -2100 37 30 36
-124.203 -22.3014 -2103 39 34 38
-120.017 -22.2997 -2103 30 26 29
-115.667 -22.2662 -2100 28 24 27
-111.861 -22.3388 -2107 29 25 29
-107.363 -22.2737 -2101 31 27 32
-103.234 -22.2828 -2102 35 30 38
-99.0076 -22.2707 -2101 33 28 36
-95.0116 -22.3118 -2105 30 27 32
-90.8709 -22.3211 -2106 34 31 36
-86.8094 -22.3516 -2109 43 40 45
-82.6974 -22.3716 -2111 47 44 51
-78.6154 -22.4023 -2114 48 45 52
-74.4516 -22.4118 -2115 47 44 51
-70.351 -22.4426 -2118 46 43 50
-66.3326 -22.5052 -2124 46 43 50
-62.2032 -22.536 -2127 40 37 44
-58.117 -22.5882 -2132 36 33 40
-53.9102 -22.598 -2133 36 33 40
-49.8862 -22.6926 -2142 35 32 40
-45.7417 -22.7449 -2147 35 32 40
-41.7129 -22.8714 -2159 34 35 47
-37.7409 -23.0615 -2177 35 35 46
-327.021 -27.3716 -2160 27 28 36
-320.247 -27.1632 -2144 29 30 38
-315.163 -27.0946 -2139 24 24 33
-309.665 -26.9879 -2131 29 27 36
-304.918 -26.9448 -2128 32 29 37
-299.903 -26.8762 -2123 34 32 39
-294.772 -26.7953 -2117 33 31 39
-289.805 -26.727 -2112 32 31 39
-284.861 -26.6589 -2107 32 31 39
-279.939 -26.5907 -2102 34 33 40
-275.564 -26.5735 -2101 32 31 38
-270.808 -26.5181 -2097 33 32 38
-266.325 -26.4883 -2095 32 31 37
-262.102 -26.4839 -2095 31 30 36
-257.635 -26.4541 -2093 31 30 36
-253.42 -26.4498 -2093 30 29 36
-249.207 -26.4457 -2093 28 27 34
-244.763 -26.416 -2091 26 25 32
-240.673 -26.4246 -2092 24 23 30
-236.242 -26.3954 -2090 23 21 28
-232.155 -26.4041 -2091 26 24 30
-227.956 -26.4001 -2091 28 25 31
-223.866 -26.4089 -2092 42 39 44
-219.459 -26.38 -2090 93 92 87
-215.164 -26.3637 -2089 99 97 89
-210.775 -26.3347 -2087 83 79 60
-206.791 -26.3565 -2089 95 89 62
-202.413 -26.3278 -2087 112 105 73
-198.519 -26.3623 -2090 105 97 64
-194.336 -26.359 -2090 95 86 56
-190.428 -26.3937 -2093 81 70 48
-169.594 -26.391 -2094 33 30 34
-167.072 -26.6528 -2115 30 26 31
-158.481 -26.6222 -2113 24 21 26
-154.12 -26.5944 -2111 26 22 27
-149.2 -26.4659 -2101 27 22 28
-144.736 -26.413 -2097 27 23 26
-140.556 -26.4104 -2097 27 23 26
-136.574 -26.4458 -2100 27 22 26
-132.391 -26.4436 -2100 29 23 28
-128.514 -26.5044 -2105 30 23 29
-124.205 -26.4771 -2103 30 25 30
-120.133 -26.5002 -2105 26 22 26
-115.779 -26.4605 -2102 25 22 26
-111.863 -26.5215 -2107 24 21 26
-107.62 -26.5071 -2106 25 22 27
-103.481 -26.5179 -2107 29 26 31
-99.2447 -26.5036 -2106 29 26 32
-95.1485 -26.5272 -2108 28 25 30
-90.9587 -26.5256 -2108 29 26 31
-86.8519 -26.5493 -2110 35 32 37
-82.8162 -26.5982 -2114 41 38 45
-78.6909 -26.622 -2116 44 41 48
-74.5232 -26.6333 -2117 44 41 48
-70.3852 -26.6572 -2119 43 40 46
-66.3961 -26.7442 -2126 41 37 43
-62.2627 -26.7808 -2129 37 34 41
-58.2542 -26.8805 -2137 35 32 39
-54.0374 -26.8921 -2138 34 31 38
-49.9801 -26.9918 -2146 34 32 40
-45.8915 -27.0917 -2154 36 34 42
-41.7329 -27.1664 -2160 34 36 44
-321.896 -31.6089 -2155 29 31 39
-315.905 -31.4414 -2144 25 26 36
-310.397 -31.3179 -2136 30 28 37
-305.21 -31.2237 -2130 29 26 34
-300.192 -31.1447 -2125 33 30 37
-295.056 -31.0507 -2119 35 33 40
-289.673 -30.9279 -2111 32 31 38
-284.866 -30.8635 -2107 32 31 38
-279.811 -30.7702 -2101 32 31 38
-275.438 -30.75 -2100 32 31 38
-270.813 -30.7008 -2097 34 33 39
-266.584 -30.6954 -2097 34 33 38
-261.981 -30.6464 -2094 33 32 38
-258.009 -30.6704 -2096 31 30 37
-253.425 -30.6216 -2093 30 29 36
-249.212 -30.6167 -2093 29 28 35
-245.001 -30.6117 -2093 28 27 34
-241.023 -30.6363 -2095 24 23 30
-236.699 -30.6168 -2094 23 22 29
-232.492 -30.6123 -2094 30 27 32
-228.287 -30.6078 -2094 35 32 36
-224.084 -30.6035 -2094 47 44 47
-219.463 -30.5405 -2090 62 60 55
-215.271 -30.5363 -2090 60 58 50
-210.981 -30.5176 -2089 75 72 56
-206.399 -30.4551 -2085 102 97 75
-202.319 -30.4655 -2086 112 106 80
-198.428 -30.5055 -2089 100 91 62
-194.34 -30.5163 -2090 86 77 50
-190.522 -30.571 -2094 78 67 46
-186.156 -30.5381 -2092 55 46 34
-182.495 -30.6221 -2098 39 31 23
-178.897 -30.7205 -2105 33 29 33
-175.024 -30.7755 -2109 31 27 32
-170.407 -30.6992 -2104 31 28 33
-167.075 -30.8564 -2115 27 24 29
-163.47 -30.9699 -2123 29 26 31
-158.633 -30.8501 -2115 25 22 27
-153.685 -30.7012 -2105 26 22 27
-149.345 -30.6691 -2103 25 21 26
-145.152 -30.6663 -2103 24 20 23
-140.827 -30.6344 -2101 25 21 24
-136.706 -30.6462 -2102 24 20 24
-132.645 -30.6725 -2104 26 21 26
-128.577 -30.6992 -2106 27 20 26
-124.325 -30.6821 -2105 24 20 25
-120.135 -30.6798 -2105 23 19 24
-116.057 -30.7066 -2107 23 20 25
-111.811 -30.6899 -2106 22 19 24
-107.725 -30.7169 -2108 23 20 25
-103.581 -30.7294 -2109 25 22 27
-99.3879 -30.7274 -2109 26 23 28
-95.2405 -30.7401 -2110 25 22 27
-91.0466 -30.7383 -2110 24 21 26
-86.8947 -30.7511 -2111 28 25 30
-82.7785 -30.7786 -2113 35 32 39
-78.618 -30.7916 -2114 39 36 43
-74.5245 -30.8338 -2117 39 36 43
-70.453 -30.8907 -2121 38 34 40
-66.4285 -30.9767 -2127 37 33 38
-62.41 -31.0774 -2134 36 33 40
-58.2825 -31.1345 -2138 36 33 40
-54.1648 -31.2062 -2143 37 34 41
-50.0509 -31.2926 -2149 36 35 42
-45.871 -31.3499 -2153 37 36 44
-41.8882 -31.5675 -2168 34 36 42
-317.238 -35.8749 -2153 25 26 36
-311.275 -35.6848 -2142 29 27 35
-305.79 -35.5445 -2134 32 29 37
-300.48 -35.421 -2127 33 30 37
-295.48 -35.3313 -2122 33 31 38
-289.817 -35.1582 -2112 31 30 37
-284.737 -35.0517 -2106 32 31 38
-279.684 -34.9457 -2100 33 32 39
-275.312 -34.9228 -2099 33 32 39
-270.819 -34.8835 -2097 35 34 40
-266.716 -34.894 -2098 33 32 39
-262.237 -34.855 -2096 34 33 40
-258.137 -34.8657 -2097 34 33 40
-253.551 -34.8102 -2094 34 33 40
-249.336 -34.8044 -2094 34 33 40
-245.123 -34.799 -2094 31 30 37
-240.798 -34.7771 -2093 26 25 32
-236.591 -34.7716 -2093 24 23 30
-232.497 -34.7831 -2094 29 26 33
-228.183 -34.7611 -2093 32 29 35
-223.768 -34.723 -2091 35 32 37
-219.467 -34.7015 -2090 42 40 35
-214.967 -34.6469 -2087 59 57 51
-210.682 -34.6254 -2086 87 84 72
-206.601 -34.6374 -2087 110 105 88
-202.712 -34.6827 -2090 96 90 70
-198.622 -34.6949 -2091 71 63 41
-194.716 -34.7401 -2094 69 60 40
-190.799 -34.7857 -2097 70 59 44
-186.694 -34.7981 -2098 45 37 30
-182.934 -34.877 -2103 33 26 22
-178.816 -34.8896 -2104 30 26 29
-175.277 -35.0183 -2112 30 27 30
-170.572 -34.9148 -2106 32 29 34
-166.684 -34.9774 -2110 26 23 28
-162.78 -35.0401 -2114 27 24 29
-158.637 -35.0531 -2115 25 22 29
-153.615 -34.8674 -2104 25 22 28
-149.206 -34.8143 -2101 24 20 25
-145.086 -34.8277 -2102 22 18 21
-140.83 -34.8079 -2101 22 18 21
-136.644 -34.8049 -2101 23 19 23
-132.648 -34.8516 -2104 24 20 25
-128.58 -34.8816 -2106 24 19 24
-124.505 -34.9119 -2108 23 19 24
-120.138 -34.8596 -2105 23 19 24
-116.004 -34.8735 -2106 22 19 24
-111.867 -34.8876 -2107 23 20 25
-107.829 -34.9348 -2110 24 21 26
-103.485 -34.8828 -2107 26 23 28
-99.4371 -34.9303 -2110 27 24 29
-95.2424 -34.9281 -2110 28 25 30
-91.1348 -34.9592 -2112 27 24 29
-86.9377 -34.9572 -2112 29 26 31
-82.8586 -35.005 -2115 35 32 39
-78.694 -35.0198 -2116 39 36 43
-74.5965 -35.0677 -2119 38 35 42
-70.4876 -35.1158 -2122 35 31 37
-66.5236 -35.2466 -2130 35 31 36
-62.4698 -35.3445 -2136 35 32 39
-58.3382 -35.4094 -2140 36 33 40
-54.267 -35.5239 -2147 38 35 42
-50.0985 -35.589 -2151 37 36 44
-45.8933 -35.6375 -2154 37 36 44
-41.947 -35.9178 -2171 39 39 45
-317.982 -40.2702 -2158 28 29 39
-311.864 -40.0383 -2146 28 27 35
-306.084 -39.8442 -2136 32 29 37
-300.77 -39.706 -2129 29 27 34
-295.487 -39.5679 -2122 28 26 33
-290.235 -39.4299 -2115 27 26 33
-285.149 -39.3111 -2109 30 29 36
-280.09 -39.1921 -2103 37 36 43
-275.45 -39.1291 -2100 37 36 43
-270.696 -39.0479 -2096 35 34 41
-266.596 -39.0597 -2097 34 33 40
-262.118 -39.0159 -2095 34 33 40
-257.897 -39.0093 -2095 36 35 42
-253.557 -38.9844 -2094 36 35 42
-249.461 -38.9966 -2095 36 35 42
-245.246 -38.9906 -2095 34 33 40
-241.033 -38.9843 -2095 30 29 36
-237.049 -39.0157 -2097 27 26 33
-232.724 -38.9911 -2096 27 25 32
-228.515 -38.9854 -2096 33 31 37
-223.88 -38.9054 -2092 33 31 37
-219.683 -38.8997 -2092 38 36 34
-215.178 -38.8386 -2089 71 69 66
-210.99 -38.8334 -2089 93 90 82
-206.804 -38.8282 -2089 77 72 62
-202.716 -38.8415 -2090 52 47 36
-198.437 -38.818 -2089 57 50 37
-194.627 -38.8875 -2093 71 63 51
-190.895 -38.9757 -2098 55 47 39
-187.054 -39.0451 -2102 36 31 28
-183.287 -39.1334 -2107 33 29 29
-179.16 -39.1475 -2108 30 26 29
-175.447 -39.2545 -2114 29 25 29
-170.657 -39.1203 -2107 32 29 34
-166.371 -39.0973 -2106 27 24 29
-162.399 -39.149 -2109 24 21 26
-158.116 -39.1264 -2108 27 24 31
-153.326 -38.9741 -2100 26 22 29
-149.139 -38.9704 -2100 23 19 24
-144.883 -38.9482 -2099 24 20 23
-140.766 -38.9632 -2100 24 20 23
-136.777 -39.0155 -2103 22 18 23
-132.588 -39.0122 -2103 23 19 24
-128.522 -39.046 -2105 24 20 25
-124.449 -39.08 -2107 25 21 26
-120.198 -39.0582 -2106 25 21 26
-116.062 -39.0738 -2107 24 21 26
-111.816 -39.0525 -2106 23 20 25
-107.78 -39.1054 -2109 24 21 26
-103.389 -39.0286 -2105 28 25 30
-99.298 -39.0632 -2107 30 27 32
-95.1995 -39.0979 -2109 29 26 31
-91.0938 -39.1326 -2111 30 27 32
-86.8573 -39.1119 -2110 32 29 34
-82.7822 -39.1654 -2113 36 33 40
-78.6958 -39.219 -2116 37 34 41
-74.563 -39.2542 -2118 36 33 40
-70.5225 -39.3451 -2123 36 33 38
-66.4627 -39.436 -2128 37 33 38
-62.4713 -39.5827 -2136 37 34 41
-58.3123 -39.6368 -2139 38 35 42
-54.243 -39.7651 -2146 39 36 43
-50.1463 -39.8935 -2153 37 35 43
-46.1287 -40.1147 -2165 36 35 43
-312.599 -44.4291 -2151 31 30 39
-306.378 -44.152 -2138 28 27 35
-301.06 -43.9989 -2131 28 27 34
-295.634 -43.8257 -2123 28 27 34
-290.792 -43.7349 -2119 25 24 31
-285.697 -43.603 -2113 30 29 36
-280.63 -43.4713 -2107 38 37 44
-275.982 -43.4019 -2104 37 36 43
-271.349 -43.3323 -2101 35 34 41
-267.238 -43.3454 -2102 35 34 41
-262.626 -43.2763 -2099 34 33 40
-258.396 -43.269 -2099 35 34 41
-253.927 -43.2208 -2097 36 35 42
-249.706 -43.2137 -2097 35 34 41
-245.37 -43.1861 -2096 35 34 41
-241.04 -43.1589 -2095 33 32 39
-236.829 -43.1524 -2095 33 32 39
-232.398 -43.1046 -2093 33 32 39
-228.194 -43.0983 -2093 34 33 40
-223.886 -43.0713 -2092 42 41 48
-219.583 -43.0447 -2091 63 60 62
-215.184 -42.9976 -2089 66 63 64
-211.198 -43.0327 -2091 62 58 55
-207.007 -43.0271 -2091 44 40 38
-203.11 -43.0832 -2094 34 30 28
-198.822 -43.0569 -2093 47 42 36
-194.632 -43.0515 -2093 55 49 44
-190.808 -43.1286 -2097 44 38 35
-186.792 -43.1645 -2099 34 31 32
-182.769 -43.2004 -2101 27 24 27
-178.655 -43.216 -2102 31 27 30
-175.036 -43.3551 -2109 29 25 29
-170.419 -43.2476 -2104 29 26 31
-166.376 -43.2841 -2106 27 24 29
-162.095 -43.2591 -2105 25 22 27
-158.045 -43.2956 -2107 32 29 36
-153.403 -43.168 -2101 29 26 32
-149.213 -43.1639 -2101 25 21 26
-144.956 -43.1393 -2100 26 22 25
-140.904 -43.1765 -2102 26 22 25
-136.781 -43.1932 -2103 22 18 23
-132.654 -43.2101 -2104 22 18 23
-128.464 -43.2065 -2104 25 21 26
-124.452 -43.2647 -2107 24 20 25
-120.087 -43.1998 -2104 24 20 25
-116.12 -43.2784 -2108 24 21 26
-111.819 -43.2342 -2106 24 21 26
-107.732 -43.2723 -2108 26 23 28
-103.441 -43.2283 -2106 29 26 31
-99.2535 -43.2256 -2106 30 27 32
-95.0665 -43.2229 -2106 30 27 32
-91.0962 -43.323 -2111 35 32 37
-86.9008 -43.3205 -2111 37 34 39
-82.8627 -43.4003 -2115 37 34 41
-78.7723 -43.4597 -2118 35 32 39
-74.6354 -43.4986 -2120 34 31 38
-70.5576 -43.5787 -2124 35 32 37
-66.3707 -43.5973 -2125 38 34 39
-62.4144 -43.7802 -2134 39 36 43
-58.2593 -43.8401 -2137 40 37 44
-54.1686 -43.9617 -2143 41 38 45
-50.0777 -44.1038 -2150 39 37 45
-46.1513 -44.4307 -2166 37 36 44
-312.899 -48.7722 -2153 34 34 42
-305.957 -48.3551 -2135 30 29 37
-300.504 -48.1646 -2127 28 27 34
-295.504 -48.0423 -2122 26 25 33
-290.8 -47.9654 -2119 26 25 33
-285.841 -47.8434 -2114 29 28 35
-281.171 -47.7671 -2111 37 36 43
-276.252 -47.6454 -2106 36 35 42
-271.486 -47.5465 -2102 36 35 41
-266.865 -47.4704 -2099 36 35 41
-262.383 -47.4173 -2097 36 35 42
-258.034 -47.3867 -2096 37 36 43
-253.813 -47.3788 -2096 40 39 46
-249.713 -47.3939 -2097 40 39 46
-245.494 -47.3863 -2097 39 38 45
-241.162 -47.3564 -2096 38 37 44
-236.949 -47.3491 -2096 38 37 44
-232.626 -47.3195 -2095 38 37 43
-228.31 -47.2898 -2094 39 38 44
-223.999 -47.2604 -2093 39 38 45
-220.22 -47.3439 -2097 42 39 44
-215.808 -47.2922 -2095 47 44 49
-211.709 -47.3084 -2096 38 35 37
-207.31 -47.2567 -2094 30 27 31
-203.213 -47.2732 -2095 29 27 31
-198.827 -47.222 -2093 39 36 35
-194.731 -47.2385 -2094 38 34 34
-190.996 -47.3455 -2099 31 27 28
-186.976 -47.3849 -2101 26 24 27
-182.949 -47.4245 -2103 30 29 33
-178.745 -47.4189 -2103 31 27 31
-174.875 -47.5038 -2107 30 26 30
-170.505 -47.4535 -2105 30 27 32
-166.46 -47.4935 -2107 29 26 31
-162.254 -47.4886 -2107 30 27 32
-158.049 -47.4838 -2107 33 30 35
-153.408 -47.3437 -2101 29 26 32
-149.147 -47.3166 -2100 24 21 26
-145.029 -47.3348 -2101 25 21 25
-140.975 -47.3755 -2103 25 21 24
-136.85 -47.3939 -2104 21 18 23
-132.847 -47.4574 -2107 21 18 23
-128.712 -47.476 -2108 24 20 25
-124.515 -47.4722 -2108 24 21 26
-120.204 -47.4235 -2106 24 21 26
-116.123 -47.465 -2108 25 22 27
-111.876 -47.4388 -2107 24 21 26
-107.735 -47.4581 -2108 27 24 29
-103.395 -47.3874 -2105 32 29 34
-99.2563 -47.4068 -2106 32 30 35
