ply
format ascii 1.0
comment Created by Open3D
element vertex 1499
property double x
property double y
property double z
property uchar red
property uchar green
property uchar blue
end_header
-494.691 285.707 -1575 32 28 35
-490.592 285.219 -1573 30 27 33
-485.887 284.37 -1569 27 24 29
-481.819 283.885 -1567 25 22 28
-476.238 282.496 -1560 26 23 30
-471.904 281.833 -1557 23 22 29
-467.588 281.171 -1554 22 21 28
-462.99 280.33 -1550 22 21 27
-459.008 279.852 -1548 25 24 31
-455.332 279.556 -1547 26 25 32
-451.957 279.442 -1547 27 26 34
-448.587 279.328 -1547 25 24 32
-444.932 279.035 -1546 23 22 29
-441.858 279.104 -1547 24 23 30
-438.216 278.813 -1546 24 23 30
-434.582 278.523 -1545 24 23 30
-430.957 278.235 -1544 25 24 31
-427.339 277.947 -1543 24 23 30
-423.456 277.48 -1541 24 23 30
-420.129 277.375 -1541 22 21 28
-416.537 277.09 -1540 23 22 29
-413.22 276.986 -1540 25 24 32
-409.641 276.704 -1539 24 23 31
-406.862 276.961 -1541 22 21 29
-402.769 276.321 -1538 25 24 31
-399.991 276.581 -1540 26 25 32
-396.435 276.302 -1539 25 24 32
-392.376 275.665 -1536 23 22 30
-388.587 275.209 -1534 22 21 29
-385.061 274.934 -1533 18 17 24
-381.542 274.659 -1532 19 18 25
-377.784 274.206 -1530 22 21 28
-374.528 274.113 -1530 27 26 33
-370.547 273.484 -1527 28 27 34
-367.063 273.213 -1526 27 26 33
-362.871 272.407 -1522 21 20 27
-359.881 272.496 -1523 22 21 28
-355.485 271.513 -1518 23 22 29
-352.273 271.426 -1518 22 22 26
-348.605 270.982 -1516 23 23 27
-345.403 270.896 -1516 24 24 28
-341.528 270.276 -1513 22 22 26
-338.115 270.013 -1512 21 21 25
-335.375 270.287 -1514 23 23 25
-331.531 269.67 -1511 22 22 25
-328.79 269.946 -1513 21 21 25
-325.828 270.043 -1514 21 21 25
-322.651 269.964 -1514 20 20 24
-319.266 269.707 -1513 21 21 25
-316.306 269.807 -1514 23 23 27
-312.931 269.551 -1513 24 24 28
-309.358 269.119 -1511 23 22 29
-305.999 268.866 -1510 23 22 29
-303.047 268.969 -1511 21 20 27
-299.499 268.539 -1509 22 22 26
-296.551 268.644 -1510 22 22 26
-293.212 268.394 -1509 22 21 28
-290.072 268.323 -1509 22 21 26
-287.316 268.608 -1511 20 20 24
-283.989 268.361 -1510 19 18 25
-281.226 268.647 -1512 19 18 25
-277.906 268.401 -1511 19 18 25
-274.775 268.334 -1511 19 18 25
-271.645 268.267 -1511 19 18 25
-268.696 268.379 -1512 18 18 22
-265.569 268.314 -1512 17 17 21
-263.313 269.137 -1517 17 17 22
-260.523 269.428 -1519 16 16 20
-257.897 269.897 -1522 15 15 20
-255.428 270.544 -1526 16 15 22
-252.614 270.837 -1528 15 13 19
-249.631 270.953 -1529 16 13 18
-246.645 271.07 -1530 17 14 21
-243.499 271.011 -1530 17 14 20
-240.354 270.952 -1530 17 15 20
-237.212 270.894 -1530 18 17 21
-234.377 271.191 -1532 20 20 24
-231.084 270.958 -1531 24 21 24
-228.094 271.079 -1532 25 22 25
-224.808 270.848 -1531 26 23 26
-221.529 270.617 -1530 25 22 25
-217.684 269.68 -1525 23 20 23
-213.862 268.743 -1520 26 23 24
-209.785 267.455 -1513 25 22 24
-206.147 266.698 -1509 23 20 22
-202.663 266.118 -1506 22 19 22
-199.325 265.716 -1504 20 17 20
-196.388 265.845 -1505 18 15 18
-193.192 265.622 -1504 17 14 18
-190.507 266.105 -1507 16 13 18
-187.687 266.413 -1509 14 11 16
-184.983 266.898 -1512 16 12 17
-182.389 267.559 -1516 18 15 20
-179.661 268.045 -1519 18 15 20
-176.691 268.179 -1520 19 16 21
-173.832 268.49 -1522 21 18 23
-170.966 268.801 -1524 20 17 22
-167.873 268.76 -1524 21 18 23
-164.89 268.897 -1525 22 19 24
-161.692 268.681 -1524 20 17 22
-158.603 268.643 -1524 19 16 23
-155.72 268.957 -1526 19 16 22
-152.73 269.097 -1527 19 16 21
-149.737 269.237 -1528 21 18 23
-146.646 269.201 -1528 21 18 23
-143.18 268.462 -1524 21 18 23
-140.007 268.252 -1523 20 17 22
-136.569 267.514 -1519 22 19 24
-133.588 267.658 -1520 22 19 24
-130.347 267.274 -1518 19 17 21
-127.45 267.595 -1520 17 17 21
-124.301 267.389 -1519 17 17 21
-121.635 268.24 -1524 16 16 20
-118.484 268.035 -1523 15 15 19
-115.641 268.535 -1526 16 16 21
-112.565 268.508 -1526 15 14 21
-109.562 268.657 -1527 18 17 24
-106.625 268.983 -1529 18 17 24
-103.682 269.31 -1531 17 16 23
-100.6 269.286 -1531 17 16 23
-97.6457 269.614 -1533 16 15 22
-94.6228 269.767 -1534 16 15 22
-91.4773 269.568 -1533 18 17 24
-88.3942 269.547 -1533 18 17 24
-85.3118 269.526 -1533 16 15 22
-82.2838 269.682 -1534 17 16 23
-79.2525 269.839 -1535 17 17 19
-76.2177 269.996 -1536 16 16 18
-73.2271 270.33 -1538 16 16 20
-70.1836 270.488 -1539 19 19 23
-67.1802 270.823 -1541 17 17 21
-64.4604 272.389 -1550 14 14 18
-61.8633 274.659 -1563 13 13 17
-58.8388 275.172 -1566 14 14 18
-55.9451 276.388 -1573 15 15 19
-52.7552 276.199 -1572 18 18 22
-49.5066 275.66 -1569 19 19 23
-46.3296 275.473 -1568 19 19 22
-43.157 275.287 -1567 18 18 21
-40.0397 275.452 -1568 18 18 22
-36.8483 275.092 -1566 18 18 22
-33.7512 275.435 -1568 17 16 21
-30.5879 275.251 -1567 15 15 20
-27.4638 275.42 -1568 16 15 20
-24.3515 275.765 -1570 17 17 22
-21.1908 275.584 -1569 17 17 22
-18.0803 276.107 -1572 17 16 21
-14.9199 275.927 -1571 18 17 24
-11.7561 275.573 -1569 18 17 24
-8.606 275.395 -1568 18 17 25
-5.45653 275.042 -1566 18 17 25
-2.3179 275.041 -1566 17 16 24
0.81948 274.689 -1564 18 17 25
3.9539 274.69 -1564 17 16 24
7.09309 274.867 -1565 17 16 23
10.2296 274.869 -1565 17 16 24
13.3918 275.399 -1568 17 16 23
16.5769 276.105 -1572 23 22 30
-526.045 283.533 -1575 40 35 36
-522.196 283.22 -1574 40 35 37
-518.687 283.089 -1574 30 26 28
-514.527 282.599 -1572 28 25 28
-511.356 282.649 -1573 26 23 27
-509.155 283.239 -1577 27 24 31
-505.978 283.291 -1578 28 25 32
-502.484 283.164 -1578 29 26 33
-498.045 282.5 -1575 29 26 33
-494.566 282.376 -1575 28 25 32
-489.844 281.535 -1571 30 27 34
-484.836 280.518 -1566 27 24 31
-479.853 279.501 -1561 24 21 28
-475.507 278.845 -1558 22 19 26
-471.179 278.19 -1555 20 19 26
-466.869 277.536 -1552 21 20 26
-463.173 277.241 -1551 20 19 24
-458.892 276.59 -1548 20 19 25
-455.218 276.297 -1547 22 21 28
-451.552 276.006 -1546 26 25 33
-447.605 275.537 -1544 26 25 32
-444.533 275.605 -1545 24 23 30
-440.891 275.316 -1544 23 22 29
-437.539 275.207 -1544 24 23 30
-433.63 274.743 -1542 25 24 31
-430.012 274.458 -1541 24 23 30
-426.679 274.352 -1541 24 23 30
-422.801 273.891 -1539 26 25 32
-419.48 273.786 -1539 25 24 31
-416.163 273.683 -1539 23 22 29
-412.849 273.581 -1539 24 23 31
-409.539 273.479 -1539 25 24 32
-406.234 273.379 -1539 24 23 31
-402.669 273.101 -1538 24 23 30
-399.373 273.003 -1538 26 25 32
-395.822 272.727 -1537 25 24 31
-392.024 272.276 -1535 23 22 29
-387.984 271.648 -1532 23 22 29
-384.463 271.376 -1531 17 16 23
-380.95 271.105 -1530 15 14 21
-377.444 270.834 -1529 20 19 26
-374.191 270.742 -1529 26 25 32
-369.97 269.943 -1525 28 27 34
-366.732 269.853 -1525 25 24 31
-362.544 269.056 -1521 23 22 29
-359.084 268.791 -1520 26 25 32
-355.632 268.527 -1519 24 23 30
-351.955 268.087 -1517 24 24 28
-348.519 267.825 -1516 22 22 26
-344.863 267.387 -1514 23 23 27
-341.219 266.95 -1512 23 23 27
-338.256 267.044 -1513 23 23 27
-335.071 266.962 -1513 23 23 25
-331.45 266.528 -1511 21 21 24
-328.709 266.801 -1513 21 21 25
-325.318 266.545 -1512 20 20 24
-322.146 266.466 -1512 20 20 24
-318.555 266.036 -1510 21 21 25
-315.811 266.312 -1512 21 21 25
-312.234 265.883 -1510 22 22 26
-308.873 265.632 -1509 21 20 27
-305.519 265.382 -1508 21 20 27
-302.372 265.308 -1508 21 20 27
-299.029 265.06 -1507 21 20 25
-295.693 264.812 -1506 22 21 26
-292.752 264.917 -1507 22 21 28
-289.425 264.67 -1506 22 21 26
-286.676 264.952 -1508 21 21 25
-283.544 264.884 -1508 20 19 26
-280.414 264.816 -1508 20 19 26
-277.103 264.573 -1507 20 19 26
-274.344 264.858 -1509 21 20 27
-270.861 264.441 -1507 21 20 27
-267.92 264.552 -1508 20 19 26
-265.154 264.838 -1510 20 19 25
-262.555 265.301 -1513 19 18 24
-259.946 265.764 -1516 17 17 21
-257.326 266.228 -1519 15 15 20
-255.032 267.043 -1524 14 13 20
-252.388 267.508 -1527 15 12 18
-249.244 267.447 -1527 16 13 18
-246.425 267.738 -1529 17 14 21
-243.281 267.68 -1529 17 15 21
-240.296 267.797 -1530 17 15 20
-237.155 267.74 -1530 18 18 22
-234.474 268.208 -1533 19 19 23
-231.028 267.803 -1531 24 21 24
-227.89 267.748 -1531 24 21 24
-224.608 267.519 -1530 26 23 26
-221.041 266.941 -1527 26 23 26
-217.061 265.84 -1521 25 22 24
-213.389 265.09 -1517 25 22 23
-209.596 264.166 -1512 23 20 22
-205.961 263.417 -1508 22 19 22
-202.614 263.019 -1506 22 19 22
-199.144 262.447 -1503 21 18 21
-196.21 262.575 -1504 18 15 18
-193.146 262.529 -1504 16 13 18
-190.082 262.483 -1504 16 13 18
-187.269 262.787 -1506 15 12 17
-184.694 263.441 -1510 17 14 19
-181.864 263.746 -1512 21 18 23
-179.264 264.401 -1516 19 16 21
-176.416 264.707 -1518 19 16 21
-173.448 264.84 -1519 21 18 23
-170.589 265.148 -1521 20 17 22
-167.393 264.934 -1520 20 17 22
-164.418 265.069 -1521 20 17 22
-161.229 264.856 -1520 20 17 22
-158.254 264.992 -1521 18 17 24
-155.275 265.129 -1522 18 17 24
-152.194 265.093 -1522 17 15 22
-149.114 265.057 -1522 20 17 22
-146.323 265.544 -1525 21 18 23
-142.864 264.814 -1521 21 18 23
-139.789 264.78 -1521 19 16 21
-136.357 264.051 -1517 21 18 23
-133.293 264.019 -1517 21 18 23
-129.972 263.466 -1514 17 15 20
-127.168 263.958 -1517 17 17 21
-124.026 263.754 -1516 17 17 21
-121.287 264.421 -1520 16 16 20
-118.222 264.393 -1520 17 17 21
-115.462 265.061 -1524 17 16 22
-112.464 265.208 -1525 17 16 23
-109.464 265.355 -1526 19 18 25
-106.461 265.504 -1527 20 19 26
-103.522 265.827 -1529 18 17 24
-100.51 265.977 -1530 17 16 23
-97.6225 266.475 -1533 16 15 22
-94.6003 266.626 -1534 16 15 22
-91.3959 266.256 -1532 18 17 24
-88.3732 266.409 -1533 18 17 24
-85.2916 266.388 -1533 16 15 22
-82.2106 266.369 -1533 17 16 23
-79.1304 266.35 -1533 17 17 19
-76.15 266.679 -1535 16 16 19
-73.0195 266.487 -1534 16 16 20
-69.939 266.471 -1534 16 16 20
-66.9463 266.802 -1536 16 16 20
-64.1125 267.829 -1542 14 14 18
-61.4134 269.551 -1552 12 12 16
-58.5995 270.926 -1560 12 12 16
-55.754 272.302 -1568 14 14 18
-52.642 272.463 -1569 17 16 21
-49.4003 271.93 -1566 18 17 23
-46.23 271.745 -1565 18 18 22
-43.0091 271.214 -1562 16 16 20
-39.9281 271.551 -1564 16 16 20
-36.7219 271.021 -1561 17 17 22
-33.6356 271.36 -1563 17 16 23
-30.4831 271.179 -1562 17 16 21
-27.4223 271.867 -1566 17 17 21
-24.2371 271.34 -1563 18 18 22
-21.1183 271.508 -1564 17 16 21
-18.007 271.851 -1566 16 15 21
-14.8405 271.326 -1563 16 15 22
-11.7084 271.323 -1563 17 16 23
-8.56564 270.973 -1561 17 16 24
-5.43789 270.972 -1561 17 16 23
-2.30851 270.797 -1560 18 17 24
0.818231 271.144 -1562 18 17 24
3.95046 271.318 -1563 16 15 22
7.08673 271.493 -1564 16 15 22
10.2142 271.322 -1563 17 17 22
13.3631 271.672 -1565 17 17 21
16.5413 272.37 -1569 22 22 26
19.7607 273.415 -1575 20 20 24
22.9463 273.768 -1577 18 18 22
32.4081 273.614 -1576 20 19 27
-544.826 283.219 -1589 22 19 25
-540.577 282.727 -1587 16 13 18
-538.035 283.126 -1590 13 10 15
-535.148 283.348 -1592 18 15 20
-530.254 282.503 -1588 24 21 26
-526.045 282.015 -1586 25 22 27
-520.863 280.996 -1581 26 23 28
-516.034 280.156 -1577 26 23 28
-511.878 279.673 -1575 25 22 27
-508.705 279.723 -1576 26 23 30
-504.89 279.42 -1575 28 25 32
-501.085 279.118 -1574 28 25 32
-496.972 278.639 -1572 26 23 30
-493.815 278.694 -1573 26 23 30
-488.164 277.332 -1566 29 26 33
-483.167 276.326 -1561 26 23 30
-478.504 275.5 -1557 23 21 28
-474.169 274.851 -1554 23 21 28
-470.759 274.734 -1554 21 20 27
-466.452 274.089 -1551 21 20 27
-462.759 273.797 -1550 22 21 28
-459.075 273.507 -1549 22 21 28
-455.105 273.042 -1547 24 23 30
-451.149 272.577 -1545 27 26 34
-447.494 272.29 -1544 25 24 32
-444.136 272.181 -1544 24 23 30
-440.496 271.896 -1543 23 22 29
-437.148 271.788 -1543 23 22 29
-433.242 271.33 -1541 25 24 31
-429.627 271.048 -1540 25 24 31
-426.297 270.943 -1540 25 24 31
-422.422 270.488 -1538 27 26 33
-419.104 270.385 -1538 27 26 33
-415.79 270.283 -1538 22 21 28
-413.016 270.533 -1540 21 20 28
-409.439 270.257 -1539 23 22 30
-406.134 270.158 -1539 23 22 30
-402.571 269.884 -1538 23 22 29
-399.015 269.611 -1537 25 24 31
-395.468 269.339 -1536 24 23 30
-391.928 269.068 -1535 24 23 30
-388.143 268.623 -1533 23 22 29
-384.621 268.354 -1532 17 16 23
-381.355 268.261 -1532 16 15 22
-377.599 267.819 -1530 22 21 28
-373.855 267.378 -1528 24 23 30
-369.88 266.763 -1525 24 23 30
-366.643 266.674 -1525 22 21 28
-362.456 265.887 -1521 24 23 30
-358.997 265.625 -1520 25 24 31
-355.077 265.014 -1517 24 23 30
-352.101 265.104 -1518 24 24 28
-347.975 264.321 -1514 23 23 27
-344.552 264.063 -1513 24 24 28
-341.136 263.806 -1512 24 24 28
-337.727 263.55 -1511 23 23 27
-334.326 263.295 -1510 22 22 25
-330.931 263.04 -1509 20 20 24
-328.413 263.484 -1512 21 21 25
-325.024 263.231 -1511 21 21 25
-321.856 263.154 -1511 21 21 25
-318.479 262.903 -1510 20 20 24
-315.109 262.653 -1509 20 20 24
-311.539 262.23 -1507 21 21 25
-308.185 261.982 -1506 21 20 27
-304.838 261.735 -1505 20 19 26
-301.898 261.836 -1506 21 20 27
-298.561 261.59 -1505 21 21 26
-295.426 261.519 -1505 21 21 25
-292.488 261.623 -1506 21 20 27
-289.164 261.38 -1505 22 22 27
-286.417 261.659 -1507 22 22 26
-283.1 261.417 -1506 21 20 27
-279.975 261.35 -1506 20 19 26
-276.67 261.11 -1505 21 20 27
-273.734 261.218 -1506 22 21 28
-270.257 260.807 -1504 20 19 26
-267.146 260.743 -1504 20 19 26
-264.388 261.026 -1506 19 18 25
-261.972 261.657 -1510 19 18 25
-259.198 261.942 -1512 16 16 20
-256.926 262.747 -1517 13 13 18
-254.302 263.206 -1520 12 11 18
-251.997 264.011 -1525 15 12 18
-249.021 264.125 -1526 15 12 17
-246.044 264.24 -1527 17 14 21
-243.064 264.355 -1528 18 16 22
-240.082 264.471 -1529 18 18 22
-236.943 264.414 -1529 19 19 23
-233.959 264.531 -1530 19 19 23
-230.822 264.477 -1530 20 17 20
-227.687 264.422 -1530 21 18 21
-224.261 264.023 -1528 25 22 25
-220.844 263.625 -1526 25 22 25
-216.867 262.537 -1520 24 21 24
-213.338 261.968 -1517 26 23 25
-209.546 261.055 -1512 24 21 24
-206.049 260.488 -1509 23 20 23
-202.566 259.922 -1506 23 20 23
-199.362 259.703 -1505 23 20 23
-196.425 259.829 -1506 20 17 20
-192.843 259.093 -1502 17 14 19
-190.037 259.393 -1504 18 15 20
-187.349 259.866 -1507 17 14 19
-184.528 260.167 -1509 17 14 19
-181.701 260.469 -1511 20 17 22
-179.103 261.116 -1515 19 16 21
-176.258 261.419 -1517 21 18 23
-173.178 261.378 -1517 21 18 23
-170.324 261.682 -1519 20 17 22
-167.133 261.47 -1518 21 18 23
-163.839 261.087 -1516 21 18 23
-160.979 261.393 -1518 20 18 23
-157.696 261.012 -1516 18 17 24
-154.525 260.803 -1515 18 17 24
-151.558 260.939 -1516 18 17 24
-148.393 260.732 -1515 18 16 21
-145.521 261.042 -1517 19 17 22
-142.548 261.18 -1518 19 16 21
-139.481 261.147 -1518 17 15 20
-136.235 260.771 -1516 19 17 22
-133.262 260.911 -1517 21 19 24
-129.856 260.193 -1513 18 16 21
-126.887 260.335 -1514 16 16 20
-123.751 260.133 -1513 16 16 20
-120.94 260.621 -1516 17 17 21
-117.961 260.765 -1517 18 18 22
-115.283 261.597 -1522 18 17 23
-112.217 261.57 -1522 19 18 25
-109.367 262.06 -1525 20 19 26
-106.436 262.378 -1527 21 20 27
-103.565 262.869 -1530 18 17 24
-100.552 263.017 -1531 16 15 22
-97.5997 263.338 -1533 16 15 22
-94.5165 263.315 -1533 16 15 22
-91.4341 263.294 -1533 18 17 24
-88.2372 262.929 -1531 18 17 24
-85.2716 263.253 -1533 17 16 23
-82.1378 263.061 -1532 17 16 23
-79.0087 262.871 -1531 16 16 19
-75.8842 262.681 -1530 16 16 19
-72.8119 262.664 -1530 16 16 20
-69.7859 262.819 -1531 16 16 20
-66.8436 263.318 -1534 16 16 20
-63.8897 263.818 -1537 16 16 20
-61.2013 265.52 -1547 13 13 17
-58.3605 266.707 -1554 11 11 15
-55.3855 267.38 -1558 14 14 18
-52.3613 267.883 -1561 16 16 21
-49.1995 267.699 -1560 17 16 23
-46.0125 267.345 -1558 17 17 22
-42.8063 266.82 -1555 16 16 20
-39.7912 267.497 -1559 16 16 20
-36.6664 267.488 -1559 17 17 21
-33.6063 267.994 -1562 17 17 21
-30.4954 268.159 -1563 19 19 23
-27.3634 268.152 -1563 19 19 23
-24.216 267.974 -1562 17 17 21
-21.0593 267.626 -1560 16 16 21
-17.8878 266.935 -1556 15 14 21
-14.7705 266.931 -1556 14 13 20
-11.6457 266.757 -1555 15 14 21
-8.51965 266.411 -1553 15 14 22
-5.41211 266.581 -1554 16 15 23
-2.30652 267.438 -1559 18 17 24
0.816462 267.438 -1559 17 16 23
3.94198 267.61 -1560 15 14 21
7.07606 267.954 -1562 15 14 21
10.2051 267.957 -1562 15 15 20
13.3429 268.131 -1563 17 17 21
16.4952 268.477 -1565 21 21 25
19.6933 269.339 -1570 21 21 25
22.8828 269.859 -1573 17 17 21
26.0842 270.379 -1576 17 17 21
29.2051 270.043 -1574 17 17 22
32.3593 270.05 -1574 18 17 24
35.4914 269.886 -1573 19 18 23
38.595 269.552 -1571 20 20 25
41.7176 269.389 -1570 18 17 24
44.9507 269.914 -1573 19 18 25
48.1047 269.925 -1573 21 20 28
51.1938 269.594 -1571 20 19 27
-552.186 280.291 -1590 30 27 32
-547.572 279.626 -1587 27 23 28
-544.69 279.843 -1589 18 15 18
-540.784 279.533 -1588 12 9 14
-537.563 279.575 -1589 16 13 18
-534.007 279.443 -1589 24 21 26
-529.121 278.608 -1585 25 22 27
-525.252 278.303 -1584 23 20 25
-520.734 277.647 -1581 21 18 23
-516.234 276.992 -1578 26 23 28
-512.402 276.69 -1577 26 23 29
-508.902 276.565 -1577 26 23 30
-505.086 276.265 -1576 28 25 32
-500.643 275.616 -1573 27 24 31
-495.901 274.793 -1569 25 22 29
-490.869 273.797 -1564 27 24 31
-486.174 272.977 -1560 28 25 32
-481.811 272.334 -1557 25 22 29
-477.465 271.692 -1554 23 21 28
-473.442 271.226 -1552 23 22 29
-470.038 271.111 -1552 22 21 28
-466.037 270.648 -1550 22 21 28
-462.945 270.709 -1551 22 21 28
-458.667 270.074 -1548 21 20 27
-454.7 269.614 -1546 23 22 29
-451.038 269.329 -1545 26 25 33
-447.095 268.872 -1543 22 21 28
-443.453 268.589 -1542 20 19 26
-439.818 268.308 -1541 21 20 27
-436.192 268.028 -1540 23 22 29
-432.574 267.749 -1539 24 23 30
-428.965 267.471 -1538 24 23 30
-425.64 267.367 -1538 26 25 32
-422.594 267.439 -1539 26 25 32
-419.275 267.337 -1539 23 22 29
-415.96 267.236 -1539 21 20 27
-412.648 267.137 -1539 19 18 26
-409.074 266.864 -1538 19 18 26
-405.508 266.593 -1537 20 19 27
-401.688 266.149 -1535 21 20 27
-398.4 266.053 -1535 22 21 28
-394.857 265.784 -1534 22 21 28
-391.323 265.516 -1533 25 24 31
-387.29 264.903 -1530 25 24 31
-384.026 264.811 -1530 22 21 28
-380.765 264.719 -1530 21 20 27
-376.768 264.11 -1527 23 22 29
-373.031 263.674 -1525 24 23 30
-369.549 263.413 -1524 25 24 31
-365.834 262.979 -1522 24 23 30
-361.892 262.374 -1519 24 23 30
-358.911 262.461 -1520 23 22 29
-354.992 261.858 -1517 22 21 28
-351.785 261.774 -1517 22 22 26
-347.892 261.173 -1514 23 23 27
-344.242 260.745 -1512 25 25 29
-340.603 260.319 -1510 24 24 28
-337.423 260.239 -1510 24 24 28
-334.025 259.987 -1509 21 21 25
-330.852 259.908 -1509 19 19 23
-327.683 259.829 -1509 21 21 25
-324.732 259.924 -1510 21 21 25
-321.353 259.676 -1509 21 21 25
-317.981 259.428 -1508 21 21 25
-314.616 259.181 -1507 21 21 25
-311.052 258.763 -1505 22 22 26
-307.498 258.346 -1503 20 19 26
-304.361 258.274 -1503 18 17 24
-301.225 258.202 -1503 20 19 26
-298.291 258.303 -1504 22 22 26
-294.963 258.062 -1503 20 20 24
-292.03 258.164 -1504 19 18 25
-288.903 258.096 -1504 20 20 25
-285.779 258.028 -1504 22 22 26
-282.657 257.961 -1504 22 21 28
-279.537 257.895 -1504 21 20 27
-276.42 257.83 -1504 22 21 28
-273.124 257.594 -1503 22 21 28
-270.013 257.53 -1503 20 19 26
-267.083 257.638 -1504 18 17 24
-264.15 257.747 -1505 18 17 23
-261.563 258.199 -1508 19 18 25
-258.794 258.481 -1510 17 17 21
-256.358 259.105 -1514 14 14 18
-253.74 259.558 -1517 13 12 19
-251.442 260.355 -1522 14 12 18
-248.8 260.809 -1525 15 12 17
-246.308 261.435 -1529 16 13 20
-243.007 261.207 -1528 19 17 23
-239.869 261.151 -1528 20 20 24
-236.733 261.095 -1528 20 20 24
-233.752 261.211 -1529 21 21 25
-230.467 260.986 -1528 18 15 18
-227.485 261.103 -1529 20 17 20
-224.062 260.709 -1527 24 21 24
-220.503 260.145 -1524 24 21 24
-216.674 259.241 -1519 24 21 24
-212.866 258.338 -1514 25 22 25
-209.22 257.606 -1510 25 22 25
-206.001 257.387 -1509 23 21 23
-202.384 256.657 -1505 24 21 24
-199.448 256.781 -1506 24 22 24
-196.249 256.565 -1505 21 18 21
-193.055 256.349 -1504 18 15 20
-189.867 256.134 -1503 20 17 22
-187.057 256.431 -1505 18 15 20
-184.118 256.558 -1506 18 15 20
-181.178 256.686 -1507 20 17 22
-178.47 257.156 -1510 19 16 21
-175.52 257.285 -1511 21 18 23
-172.453 257.245 -1511 23 20 25
-169.612 257.545 -1513 22 19 24
-166.544 257.506 -1513 21 18 23
-163.369 257.298 -1512 21 18 23
-160.306 257.261 -1512 21 18 23
-157.243 257.224 -1512 19 18 25
-154.183 257.188 -1512 20 19 26
-151.123 257.152 -1512 20 19 26
-148.065 257.118 -1512 19 19 23
-145.008 257.084 -1512 17 17 21
-142.14 257.391 -1514 17 17 21
-139.173 257.528 -1515 16 16 20
-136.113 257.497 -1515 17 17 21
-132.967 257.296 -1514 19 19 23
-129.568 256.586 -1510 18 18 22
-126.522 256.556 -1510 17 17 21
-123.395 256.357 -1509 16 16 20
-120.592 256.839 -1512 18 18 22
-117.701 257.151 -1514 20 20 24
-114.878 257.634 -1517 18 18 23
-111.97 257.947 -1519 19 18 25
-109.126 258.431 -1522 21 20 27
-106.202 258.746 -1524 21 20 27
-103.271 259.061 -1526 17 16 23
-100.332 259.377 -1528 16 15 22
-97.3225 259.524 -1529 16 15 22
-94.2481 259.502 -1529 16 15 22
-91.2937 259.82 -1531 17 16 23
-88.0439 259.291 -1528 18 17 24
-85.1406 259.78 -1531 17 16 23
-82.1188 259.93 -1532 16 15 22
-79.042 259.912 -1532 14 14 18
-75.817 259.385 -1529 15 15 18
-72.8427 259.707 -1531 16 16 20
-69.8154 259.86 -1532 17 17 21
-66.7845 260.014 -1533 17 17 21
-63.7918 260.338 -1535 18 18 22
-60.9498 261.342 -1541 17 17 21
-58.0842 262.345 -1547 14 14 18
-55.2306 263.519 -1554 15 15 19
-52.1146 263.507 -1554 16 16 20
-49.0304 263.665 -1555 16 15 22
-45.8542 263.315 -1553 16 16 21
-42.6864 262.966 -1551 16 16 20
-39.6034 263.126 -1552 17 17 21
-36.4932 263.117 -1552 18 18 22
-33.4695 263.787 -1556 18 18 22
-30.3518 263.78 -1556 19 19 23
-27.2345 263.773 -1556 19 19 23
-24.1174 263.768 -1556 17 17 21
-20.96 263.254 -1553 16 15 21
-17.8148 262.741 -1550 15 14 21
-14.7007 262.568 -1549 14 13 20
-11.6057 262.734 -1550 14 13 21
-8.50131 262.732 -1550 15 14 22
-5.40396 263.069 -1552 16 15 22
-2.30158 263.746 -1556 17 16 23
0.815742 264.085 -1558 16 15 22
3.94109 264.425 -1560 16 15 21
7.06089 264.257 -1559 13 12 18
10.1898 264.428 -1560 14 14 18
13.3143 264.431 -1560 15 15 19
16.4494 264.604 -1561 18 18 22
19.6262 265.286 -1565 19 19 23
22.8338 266.138 -1570 17 17 21
26.0285 266.653 -1573 16 16 20
29.1798 266.659 -1573 17 16 21
32.3724 267.005 -1575 18 17 24
35.4831 266.674 -1573 20 20 25
38.6597 266.852 -1574 21 21 25
41.8408 267.031 -1575 19 18 25
45.0832 267.549 -1578 20 19 26
48.2158 267.391 -1577 22 21 29
51.4099 267.571 -1578 19 18 26
54.6776 268.092 -1581 18 17 25
-570.735 277.95 -1592 32 26 34
-564.23 278.02 -1594 33 29 35
-561.683 278.405 -1597 28 25 30
-557.38 277.919 -1595 28 25 30
-554.133 277.957 -1596 33 30 35
-548.817 276.951 -1591 22 19 23
-544.214 276.295 -1588 15 11 15
-540.31 275.989 -1587 19 16 21
-536.416 275.684 -1586 26 23 28
-532.868 275.553 -1586 24 21 26
-528.323 274.903 -1583 22 19 24
-524.46 274.601 -1582 21 18 23
-519.948 273.953 -1579 22 19 24
-515.453 273.307 -1576 27 24 29
-511.302 272.835 -1574 28 25 31
-507.81 272.712 -1574 28 25 32
-503.361 272.069 -1571 28 25 32
-499.566 271.775 -1570 26 23 30
-495.149 271.135 -1567 27 24 31
-490.122 270.151 -1562 28 25 32
-485.744 269.514 -1559 29 26 33
-480.456 268.36 -1553 27 24 31
-476.735 268.072 -1552 22 20 27
-473.023 267.785 -1551 19 18 25
-469.622 267.671 -1551 22 21 28
-465.924 267.386 -1550 24 23 30
-463.131 267.619 -1552 25 24 31
-458.852 266.991 -1549 23 22 29
-454.884 266.537 -1547 24 23 30
-450.929 266.084 -1545 25 24 32
-447.277 265.804 -1544 21 20 27
-443.346 265.353 -1542 21 20 27
-439.427 264.903 -1540 23 22 29
-436.087 264.798 -1540 24 23 30
-432.47 264.522 -1539 23 22 29
-428.583 264.076 -1537 23 22 29
-425.261 263.974 -1537 23 22 29
-421.944 263.873 -1537 21 20 27
-418.902 263.944 -1538 21 20 27
-415.32 263.673 -1537 21 20 28
-412.013 263.575 -1537 20 19 27
-408.444 263.306 -1536 18 17 25
-404.884 263.038 -1535 18 17 24
-401.592 262.942 -1535 18 17 24
-398.305 262.847 -1535 19 18 25
-395.021 262.753 -1535 20 19 26
-391.485 262.489 -1534 23 22 29
-387.957 262.225 -1533 23 22 29
-384.436 261.963 -1532 25 24 31
-380.924 261.701 -1531 24 23 30
-376.925 261.099 -1528 23 22 29
-372.943 260.498 -1525 25 24 31
-369.461 260.239 -1524 25 24 31
-365.987 259.982 -1523 22 21 28
-362.283 259.555 -1521 22 21 28
-359.298 259.64 -1522 22 21 28
-355.376 259.044 -1519 21 20 27
-351.702 258.62 -1517 22 21 27
-347.81 258.027 -1514 22 21 26
-343.933 257.434 -1511 24 24 28
-340.072 256.843 -1508 23 23 27
-336.897 256.763 -1508 23 23 27
-333.725 256.685 -1508 20 20 24
-330.555 256.607 -1508 19 19 23
-327.389 256.53 -1508 19 19 23
-324.655 256.793 -1510 20 19 25
-321.064 256.378 -1508 21 21 26
-317.696 256.133 -1507 23 23 27
-314.125 255.719 -1505 23 23 27
-310.979 255.646 -1505 23 23 27
-307.221 255.065 -1502 20 20 25
-304.087 254.993 -1502 20 19 25
-300.754 254.753 -1501 21 20 26
-298.023 255.023 -1503 21 21 26
-294.698 254.784 -1502 20 20 24
-291.768 254.885 -1503 18 17 23
-288.836 254.987 -1504 18 18 22
-286.092 255.26 -1506 21 21 25
-282.591 254.854 -1504 23 22 27
-279.658 254.959 -1505 21 21 27
-276.356 254.725 -1504 21 20 27
-273.06 254.491 -1503 21 20 27
-269.591 254.09 -1501 22 21 27
-266.843 254.366 -1503 20 19 24
-263.562 254.136 -1502 18 17 23
-260.982 254.582 -1505 19 18 25
-258.391 255.03 -1508 18 17 23
-255.96 255.646 -1512 17 16 23
-253.346 256.095 -1515 15 14 21
-251.219 257.05 -1521 14 12 17
-248.579 257.5 -1524 14 11 16
-246.09 258.118 -1528 15 12 19
-243.109 258.231 -1529 17 15 21
-239.813 258.006 -1528 17 17 21
-236.678 257.951 -1528 18 18 22
-233.544 257.897 -1528 21 21 25
-230.262 257.675 -1527 18 18 20
-227.135 257.622 -1527 19 18 20
-223.863 257.401 -1526 23 22 24
-220.307 256.844 -1523 24 23 25
-216.338 255.782 -1517 24 24 26
-212.958 255.396 -1515 23 22 24
-209.171 254.504 -1510 23 23 25
-205.817 254.12 -1508 22 22 24
-202.338 253.567 -1505 23 22 24
-199.27 253.521 -1505 23 22 25
-196.073 253.307 -1504 20 19 23
-193.01 253.262 -1504 18 17 21
-189.823 253.05 -1503 19 17 22
-186.89 253.175 -1504 20 17 22
-183.832 253.133 -1504 20 17 22
-180.895 253.259 -1505 22 19 24
-177.957 253.387 -1506 22 19 24
-174.899 253.346 -1506 22 19 24
-171.957 253.475 -1507 24 21 26
-168.9 253.436 -1507 23 21 26
-165.955 253.565 -1508 21 20 24
-162.791 253.36 -1507 19 17 22
-159.845 253.491 -1508 19 18 22
-156.791 253.455 -1508 20 20 25
-153.841 253.587 -1509 21 20 26
-150.589 253.216 -1507 22 21 26
-147.737 253.518 -1509 20 20 24
-144.687 253.485 -1509 16 16 20
-142.013 254.124 -1513 17 17 21
-139.049 254.26 -1514 18 18 22
-135.992 254.229 -1514 18 18 22
-132.761 253.862 -1512 18 18 22
-129.539 253.496 -1510 19 19 23
-126.41 253.299 -1509 19 19 23
-123.285 253.103 -1508 17 17 21
-120.326 253.243 -1509 18 18 22
-117.518 253.72 -1512 18 18 22
-114.624 254.029 -1514 18 18 23
-111.723 254.338 -1516 18 17 24
-108.886 254.817 -1519 21 20 27
-106.038 255.295 -1522 20 19 26
-103.179 255.775 -1525 16 15 22
-100.112 255.752 -1525 15 14 21
-97.0456 255.729 -1525 16 15 22
-93.98 255.708 -1525 16 15 22
-90.9748 255.854 -1526 16 15 22
-87.9086 255.834 -1526 16 15 22
-84.8988 255.982 -1527 17 16 23
-81.9393 256.298 -1529 15 14 21
-78.9208 256.448 -1530 14 14 18
-75.7997 256.262 -1529 13 13 17
-72.8736 256.748 -1532 14 14 18
-69.7994 256.732 -1532 17 17 21
-66.7257 256.717 -1532 18 18 22
-63.7772 257.204 -1535 19 19 23
-60.8568 257.861 -1539 18 18 22
-57.8082 258.015 -1540 16 16 20
-54.9337 259.007 -1546 15 15 19
-51.935 259.497 -1549 15 15 19
-48.8301 259.486 -1549 15 14 20
-45.7552 259.643 -1550 16 16 21
-42.5941 259.298 -1548 18 18 22
-39.5178 259.456 -1549 18 18 22
-36.5084 260.117 -1553 19 19 23
-33.3973 260.109 -1553 19 19 24
-30.345 260.605 -1556 19 19 23
-27.2458 260.766 -1557 17 17 21
-24.0964 260.425 -1555 16 16 20
-20.9282 259.75 -1551 16 15 21
-17.7877 259.243 -1548 15 14 21
-14.6879 259.239 -1548 16 15 22
-11.5805 259.069 -1547 15 14 22
-8.49945 259.569 -1550 15 14 22
-5.3993 259.735 -1551 16 15 22
-2.30109 260.571 -1556 16 15 22
0.815025 260.739 -1557 16 15 22
3.93515 260.907 -1558 16 15 21
7.05913 261.076 -1559 14 14 18
10.1808 261.077 -1559 12 12 16
13.3026 261.08 -1559 14 14 18
16.4139 260.916 -1558 16 16 20
19.5716 261.423 -1561 18 18 22
22.7414 261.93 -1564 15 15 19
25.9068 262.27 -1566 13 13 17
29.1175 262.946 -1570 15 15 20
32.2829 263.121 -1571 18 17 24
35.43 263.129 -1571 21 20 25
38.6264 263.472 -1573 20 20 24
41.8312 263.816 -1575 16 15 22
45.0157 263.994 -1576 16 15 23
48.2965 264.674 -1580 19 18 26
51.5936 265.356 -1584 18 17 25
54.7342 265.2 -1583 17 16 24
57.8348 264.878 -1581 19 18 26
60.8892 264.389 -1578 22 21 29
240.128 274.131 -1625 155 128 116
243.305 274.018 -1624 155 127 113
246.48 273.906 -1623 156 129 114
250.115 274.301 -1625 156 129 114
253.917 274.866 -1628 153 127 109
257.89 275.6 -1632 153 127 111
261.563 275.998 -1634 153 127 114
265.57 276.735 -1638 155 127 118
269.431 277.303 -1641 159 130 121
272.31 276.859 -1638 164 134 124
275.683 276.922 -1638 160 135 120
278.377 276.31 -1634 159 134 121
281.575 276.206 -1633 155 130 121
284.421 275.764 -1630 146 124 111
288.141 276.169 -1632 147 125 112
-582.913 275.672 -1596 36 31 40
-580.005 275.876 -1598 35 30 41
-576.733 275.908 -1599 31 26 37
-572.029 275.25 -1596 28 23 34
-568.056 274.939 -1595 28 23 34
-564.446 274.802 -1595 29 24 32
-561.194 274.838 -1596 29 26 32
-555.847 273.842 -1591 28 25 30
-552.609 273.879 -1592 29 26 31
-546.959 272.715 -1586 20 17 22
-543.739 272.755 -1587 15 11 17
-538.477 271.765 -1582 22 19 24
-535.272 271.807 -1583 26 23 28
-531.395 271.507 -1582 22 19 24
-526.193 270.522 -1577 21 18 23
-522.013 270.053 -1575 24 21 26
-518.176 269.756 -1574 24 21 26
-514.675 269.632 -1574 26 23 28
-510.854 269.338 -1573 28 25 30
-507.365 269.216 -1573 28 25 32
-503.56 268.924 -1572 27 24 31
-498.492 267.948 -1567 28 25 32
-494.398 267.488 -1565 29 26 33
-489.69 266.687 -1561 27 24 31
-485.004 265.887 -1557 28 25 32
-479.722 264.748 -1551 23 20 27
-476.621 264.804 -1552 19 17 24
-472.604 264.35 -1550 18 17 24
-469.206 264.238 -1550 21 20 27
-465.813 264.127 -1550 24 23 30
-462.125 263.846 -1549 24 23 30
-458.446 263.567 -1548 23 22 29
-454.482 263.118 -1546 24 23 30
-450.53 262.67 -1544 23 22 30
-447.171 262.564 -1544 21 20 28
-442.953 261.948 -1541 22 21 29
-439.037 261.504 -1539 23 22 29
-435.417 261.231 -1538 22 21 28
-431.806 260.959 -1537 22 21 28
-428.481 260.857 -1537 23 22 29
-425.161 260.757 -1537 22 21 28
-422.118 260.827 -1538 20 19 26
-418.803 260.728 -1538 21 20 27
-414.951 260.291 -1536 21 20 27
-411.648 260.193 -1536 21 20 27
-407.55 259.589 -1533 19 18 25
-404.261 259.494 -1533 17 16 23
-400.974 259.399 -1533 19 18 25
-397.692 259.306 -1533 20 19 26
-394.413 259.213 -1533 20 19 26
-391.393 259.29 -1534 21 20 27
-387.612 258.861 -1532 20 19 26
-383.844 258.433 -1530 25 24 31
-380.337 258.175 -1529 24 23 30
-376.343 257.58 -1526 21 20 27
-372.366 256.986 -1523 24 23 30
-368.89 256.731 -1522 27 26 33
-365.181 256.308 -1520 23 22 29
-361.722 256.055 -1519 23 22 29
-358.506 255.971 -1519 22 21 28
-354.825 255.551 -1517 20 19 26
-351.388 255.301 -1516 23 22 29
-347.269 254.546 -1512 22 21 27
-343.625 254.129 -1510 23 23 27
-339.993 253.713 -1508 22 22 26
-337.265 253.971 -1510 21 21 25
-333.868 253.725 -1509 20 20 24
-330.917 253.817 -1510 20 20 24
-327.53 253.572 -1509 20 20 24
-324.58 253.665 -1510 22 21 28
-320.99 253.254 -1508 23 22 28
-317.622 253.013 -1507 22 22 26
-314.261 252.772 -1506 24 24 28
-311.113 252.7 -1506 25 25 29
-307.355 252.125 -1503 25 25 29
-304.219 252.055 -1503 24 24 28
-300.684 251.65 -1501 24 24 28
-297.756 251.748 -1502 23 23 27
-294.434 251.513 -1501 21 21 25
-291.506 251.613 -1502 19 19 23
-288.577 251.714 -1503 20 20 24
-285.836 251.983 -1505 21 21 25
-282.338 251.583 -1503 23 23 27
-279.408 251.685 -1504 22 22 27
-276.292 251.622 -1504 21 20 26
-272.997 251.391 -1503 20 19 26
-269.529 250.995 -1501 22 21 28
-266.427 250.933 -1501 21 21 25
-263.151 250.706 -1500 19 18 24
-260.575 251.147 -1503 19 18 25
-257.818 251.422 -1505 19 18 25
-255.393 252.031 -1509 19 18 25
-252.787 252.474 -1512 16 15 22
-250.831 253.586 -1519 14 12 17
-248.522 254.363 -1524 14 11 16
-245.872 254.807 -1527 14 11 18
-243.054 255.085 -1529 15 13 19
-239.915 255.03 -1529 15 15 19
-236.469 254.643 -1527 18 18 22
-233.338 254.589 -1527 21 21 25
-230.059 254.37 -1526 19 19 21
-226.934 254.318 -1526 20 20 22
-223.665 254.1 -1525 23 23 25
-220.112 253.549 -1522 24 24 26
-216.289 252.667 -1517 24 24 26
-212.909 252.285 -1515 22 22 24
-209.262 251.571 -1511 22 22 24
-205.77 251.025 -1508 21 21 23
-202.291 250.479 -1505 21 21 23
-199.224 250.433 -1505 22 22 24
-196.028 250.222 -1504 20 20 24
-192.838 250.012 -1503 17 17 21
-189.653 249.802 -1502 17 17 21
-186.599 249.759 -1502 20 18 23
-183.545 249.718 -1502 19 16 21
-180.374 249.51 -1501 20 17 22
-177.325 249.47 -1501 20 18 23
-174.395 249.596 -1502 21 18 23
-171.462 249.723 -1503 23 21 26
-168.526 249.851 -1504 24 23 28
-165.257 249.481 -1502 22 22 26
-162.43 249.776 -1504 18 18 22
-159.596 250.072 -1506 18 18 22
-156.444 249.87 -1505 20 20 24
-153.501 250.001 -1506 20 20 24
-150.455 249.967 -1506 20 20 24
-147.508 250.099 -1507 17 17 21
-144.558 250.232 -1508 15 15 19
-141.887 250.864 -1512 17 17 21
-138.742 250.666 -1511 19 19 23
-135.782 250.801 -1512 20 20 24
-132.643 250.605 -1511 19 19 23
-129.338 250.078 -1508 20 20 24
-126.297 250.049 -1508 19 19 23
-123.094 249.689 -1506 16 16 20
-120.139 249.828 -1507 16 16 20
-117.336 250.298 -1510 17 17 21
-114.371 250.438 -1511 19 18 24
-111.477 250.744 -1513 18 17 24
-108.503 250.885 -1514 20 19 26
-105.666 251.358 -1517 19 18 25
-102.75 251.666 -1519 16 15 22
-99.6956 251.644 -1519 15 14 21
-96.5783 251.456 -1518 16 15 22
-93.6507 251.766 -1520 15 14 21
-90.7753 252.242 -1523 16 15 22
-87.6584 252.056 -1522 16 15 22
-84.7128 252.368 -1524 15 14 21
-81.8672 253.012 -1528 14 13 20
-78.7482 252.828 -1527 14 14 18
-75.7331 252.976 -1528 14 14 18
-72.7621 253.291 -1530 14 14 18
-69.7381 253.44 -1531 16 16 20
-66.6671 253.425 -1531 19 19 23
-63.5967 253.41 -1531 18 18 22
-60.6454 253.893 -1534 16 16 20
-57.6825 254.376 -1537 15 15 19
-54.7437 255.026 -1541 15 15 19
-51.7892 255.676 -1545 15 15 19
-48.7876 256.161 -1548 14 14 18
-45.6858 256.15 -1548 17 17 21
-42.557 255.975 -1547 20 20 24
-39.4579 255.966 -1547 20 20 24
-36.3592 255.957 -1547 19 19 24
-33.2823 256.115 -1548 19 18 25
-30.2016 256.273 -1549 18 18 23
-27.1347 256.598 -1551 17 17 21
-24.029 256.592 -1551 16 16 20
-20.856 255.76 -1546 15 15 20
-17.7608 255.756 -1546 15 14 21
-14.6655 255.752 -1546 17 16 23
-11.563 255.584 -1545 17 16 23
-8.48098 255.912 -1547 17 16 24
-5.39118 256.242 -1549 16 15 22
-2.29469 256.737 -1552 15 14 21
0.812217 256.737 -1552 17 16 23
3.92652 257.234 -1555 16 16 22
7.03494 257.069 -1554 15 15 19
10.159 257.402 -1556 13 13 17
13.2654 257.239 -1555 14 14 18
16.3996 257.574 -1557 15 15 19
19.5044 257.412 -1556 16 16 20
22.6635 257.913 -1559 14 14 18
25.8346 258.415 -1562 13 13 17
28.981 258.587 -1563 16 15 20
32.1522 258.924 -1565 16 15 22
35.3317 259.263 -1567 18 17 24
38.4949 259.437 -1568 19 18 24
41.7155 259.942 -1571 18 17 25
45.0056 260.779 -1576 15 14 22
48.2855 261.451 -1580 16 15 23
51.5494 261.959 -1583 14 13 21
54.7219 261.971 -1583 16 15 23
57.8582 261.818 -1582 18 17 25
60.9912 261.666 -1581 17 16 24
64.4047 262.673 -1587 21 20 28
67.7148 263.185 -1590 23 22 30
228.043 272.079 -1634 159 139 118
230.955 271.631 -1631 160 140 117
234.575 272.017 -1633 165 141 121
237.04 271.072 -1627 162 136 120
240.22 270.959 -1626 161 134 122
243.1 270.514 -1623 163 134 120
246.576 270.737 -1624 161 133 118
250.058 270.96 -1625 160 132 116
253.858 271.518 -1628 158 132 113
257.831 272.243 -1632 159 133 115
261.503 272.636 -1634 160 133 116
264.86 272.696 -1634 157 128 113
268.384 272.924 -1635 157 128 114
272.081 273.32 -1637 162 133 121
275.62 273.549 -1638 159 135 120
278.143 272.778 -1633 162 138 124
281.165 272.507 -1631 165 141 127
283.833 271.904 -1627 155 132 117
287.368 272.136 -1628 153 130 115
290.732 272.202 -1628 156 133 118
294.099 272.269 -1628 157 132 122
298.381 273.174 -1633 157 133 123
302.502 273.912 -1637 150 127 118
306.268 274.316 -1639 146 122 117
309.668 274.387 -1639 152 130 121
312.497 273.956 -1636 150 129 118
316.281 274.364 -1638 145 124 112
318.906 273.767 -1634 146 126 113
322.109 273.673 -1633 144 124 110
-633.558 272.599 -1585 44 34 28
-630.26 272.617 -1586 40 33 31
-627.359 272.807 -1588 35 30 34
-624.454 272.998 -1590 35 30 35
-622.717 273.705 -1595 35 31 36
-619.023 273.554 -1595 33 29 34
-616.106 273.746 -1597 33 29 34
-613.187 273.94 -1599 36 32 37
-609.501 273.792 -1599 34 31 35
-604.306 272.96 -1595 37 34 38
-599.889 272.472 -1593 36 33 37
-594.738 271.644 -1589 33 31 37
-590.355 271.159 -1587 34 32 38
-587.465 271.358 -1589 31 30 36
-584.572 271.559 -1591 32 27 35
-582.406 272.101 -1595 33 28 36
-579.865 272.472 -1598 31 26 34
-575.512 271.993 -1596 30 25 34
-571.532 271.684 -1595 28 25 33
-566.851 271.037 -1592 28 25 33
-562.895 270.731 -1591 29 25 30
-558.598 270.257 -1589 30 26 30
-555.014 270.124 -1589 31 27 31
-549.7 269.142 -1584 27 24 31
-546.483 269.181 -1585 21 18 24
-542.238 268.711 -1583 21 18 24
-538.348 268.413 -1582 23 20 25
-534.468 268.115 -1581 23 20 25
-530.261 267.649 -1579 23 20 25
-526.401 267.354 -1578 19 16 21
-522.22 266.891 -1576 26 23 28
-517.723 266.26 -1573 26 23 28
-513.898 265.968 -1572 24 21 26
-509.758 265.509 -1570 27 24 29
-506.599 265.557 -1571 28 25 32
-502.479 265.1 -1569 26 23 30
-498.055 264.475 -1566 27 24 30
-493.649 263.851 -1563 28 25 32
-488.947 263.06 -1559 27 24 31
-483.955 262.102 -1554 25 22 29
-479.609 261.483 -1551 20 17 24
-476.201 261.37 -1551 17 16 23
-472.188 260.922 -1549 18 17 24
-469.096 260.98 -1550 20 19 26
-465.703 260.87 -1550 22 21 28
-462.016 260.593 -1549 22 21 28
-458.042 260.148 -1547 21 20 27
-454.375 259.873 -1546 23 22 29
-450.424 259.431 -1544 24 23 30
-446.486 258.991 -1542 23 22 30
-442.561 258.551 -1540 22 21 28
-438.649 258.112 -1538 19 18 25
-435.032 257.842 -1537 20 19 26
-431.705 257.741 -1537 19 18 25
-427.823 257.306 -1535 21 20 27
-424.785 257.374 -1536 23 22 29
-421.745 257.443 -1537 22 21 28
-418.161 257.178 -1536 23 22 29
-414.314 256.747 -1534 21 20 27
-411.284 256.818 -1535 19 18 25
-407.19 256.221 -1532 18 17 24
-404.166 256.295 -1533 19 18 25
-400.881 256.201 -1533 21 20 27
-397.34 255.942 -1532 21 20 27
-394.321 256.017 -1533 21 20 27
-391.047 255.927 -1533 20 19 26
-387.522 255.67 -1532 19 18 25
-383.504 255.08 -1529 22 21 28
-380 254.825 -1528 22 21 28
-375.763 254.071 -1524 21 20 27
-371.791 253.485 -1521 22 21 28
-368.078 253.067 -1519 25 24 31
-364.616 252.816 -1518 22 21 28
-361.162 252.566 -1517 21 20 27
-358.187 252.65 -1518 21 20 27
-354.509 252.235 -1516 21 20 27
-351.075 251.988 -1515 23 22 29
-347.189 251.409 -1512 22 21 27
-343.546 250.997 -1510 22 22 26
-339.689 250.42 -1507 22 22 26
-336.741 250.509 -1508 21 21 25
-333.349 250.266 -1507 21 21 25
-330.183 250.19 -1507 20 20 24
-327.02 250.115 -1507 20 20 24
-324.075 250.207 -1508 22 21 28
-320.49 249.801 -1506 23 22 28
-317.338 249.729 -1506 23 23 27
-313.98 249.491 -1505 24 24 28
-310.629 249.254 -1504 25 25 29
-307.284 249.018 -1503 25 25 29
-304.149 248.948 -1503 25 25 29
-300.415 248.383 -1500 24 24 28
-297.49 248.48 -1501 21 21 25
-293.974 248.082 -1499 20 20 24
-291.052 248.181 -1500 20 20 24
-287.935 248.115 -1500 21 21 25
-285.581 248.712 -1504 20 20 24
-282.273 248.482 -1503 23 23 27
-279.344 248.584 -1504 23 23 28
-276.045 248.356 -1503 21 21 25
-272.935 248.294 -1503 21 20 27
-269.468 247.902 -1501 23 22 29
-266.366 247.841 -1501 23 23 27
-263.266 247.781 -1501 20 20 25
-260.343 247.887 -1502 20 19 26
-257.417 247.994 -1503 20 19 26
-254.658 248.266 -1505 18 17 24
-252.395 249.033 -1510 16 15 22
-250.113 249.801 -1515 15 13 18
-247.976 250.734 -1521 15 12 17
-245.495 251.338 -1525 14 12 19
-242.522 251.448 -1526 13 13 18
-239.547 251.558 -1527 14 14 18
-236.415 251.505 -1527 18 18 22
-233.133 251.287 -1526 21 21 24
-229.856 251.071 -1525 20 20 22
-226.734 251.019 -1525 21 21 23
-223.468 250.804 -1524 24 24 26
-219.918 250.261 -1521 26 26 28
-216.24 249.554 -1517 24 24 26
-212.72 249.012 -1514 20 20 22
-209.215 248.472 -1511 20 20 22
-205.587 247.767 -1507 19 19 21
-201.977 247.064 -1503 19 19 21
-198.915 247.019 -1503 19 19 22
-195.854 246.975 -1503 19 19 23
-192.666 246.767 -1502 18 18 22
-189.484 246.56 -1501 19 19 23
-186.432 246.518 -1501 19 18 23
-183.26 246.313 -1500 17 17 21
-180.213 246.272 -1500 19 19 23
-177.167 246.232 -1500 20 20 24
-174.124 246.193 -1500 19 19 23
-171.081 246.154 -1500 21 20 24
-168.04 246.116 -1500 21 21 25
-164.89 245.915 -1499 20 20 24
-162.178 246.371 -1502 19 19 23
-159.243 246.499 -1503 18 18 22
-156.201 246.464 -1503 19 19 23
-153.364 246.757 -1505 19 19 23
-150.421 246.887 -1506 19 19 23
-147.279 246.69 -1505 17 17 21
-144.334 246.822 -1506 15 15 19
-141.574 247.282 -1509 16 16 20
-138.436 247.086 -1508 19 19 23
-135.482 247.22 -1509 20 20 24
-132.438 247.19 -1509 20 20 24
-129.395 247.161 -1509 18 18 22
-126.353 247.133 -1509 18 18 22
-123.312 247.105 -1509 16 16 20
-120.192 246.914 -1508 16 16 20
-117.155 246.888 -1508 17 17 21
-114.194 247.026 -1509 19 18 24
-111.304 247.328 -1511 17 16 23
-108.479 247.795 -1514 17 16 23
-105.573 248.098 -1516 17 16 23
-102.592 248.239 -1517 17 16 23
-99.6734 248.544 -1519 16 15 22
-96.4931 248.195 -1517 16 15 22
-93.5682 248.501 -1519 17 16 23
-90.5764 248.644 -1520 16 15 22
-87.5236 248.624 -1520 15 14 21
-84.4716 248.605 -1520 15 14 21
-81.7418 249.568 -1526 14 13 20
-78.6791 249.55 -1526 14 14 18
-75.6666 249.697 -1527 14 14 18
-72.6983 250.007 -1529 15 15 19
-69.7226 250.318 -1531 17 17 21
-66.6087 250.14 -1530 19 19 23
-63.4995 249.962 -1529 18 18 22
-60.5133 250.275 -1531 17 17 21
-57.5571 250.753 -1534 15 15 19
-54.6249 251.394 -1538 13 13 17
-51.6436 251.873 -1541 14 14 18
-48.6192 252.188 -1543 13 13 17
-45.6167 252.668 -1546 17 17 21
-42.52 252.658 -1546 19 19 23
-39.4237 252.649 -1546 19 19 23
-36.3511 252.804 -1547 18 18 23
-33.2749 252.96 -1548 19 18 25
-30.1755 252.953 -1548 18 17 23
-27.0937 253.11 -1549 16 15 21
-23.9927 253.105 -1549 16 15 21
-20.8515 252.61 -1546 15 14 21
-17.7338 252.278 -1544 14 13 20
-14.6433 252.275 -1544 14 13 20
-11.5604 252.435 -1545 15 14 22
-8.46821 252.433 -1545 17 16 24
-5.38288 252.758 -1547 15 14 22
-2.28978 253.084 -1549 14 13 20
0.810983 253.248 -1550 15 14 21
3.92061 253.738 -1553 16 15 21
7.03342 253.903 -1554 14 14 18
10.1566 254.232 -1556 14 14 18
13.2796 254.398 -1557 16 16 20
16.3959 254.401 -1557 16 16 20
19.5126 254.405 -1557 17 17 21
22.6294 254.41 -1557 17 17 21
25.7462 254.415 -1557 16 16 20
28.8819 254.584 -1558 17 16 21
32.0424 254.918 -1560 16 15 22
35.2337 255.416 -1563 17 16 23
38.3882 255.587 -1564 17 16 23
41.6265 256.25 -1568 17 16 24
44.9098 257.077 -1573 15 14 22
48.2136 257.904 -1578 14 13 21
51.5054 258.569 -1582 13 12 19
54.6406 258.417 -1581 15 14 21
57.8819 258.757 -1583 17 16 24
60.9003 258.116 -1579 16 15 23
64.3091 259.111 -1585 17 16 24
67.7848 260.27 -1592 18 17 25
71.0664 260.612 -1594 16 15 23
74.31 260.792 -1595 16 15 23
77.461 260.645 -1594 14 13 21
80.6086 260.499 -1593 17 16 24
99.8004 260.619 -1593 60 59 69
103.39 261.623 -1599 26 25 33
106.737 261.974 -1601 16 15 23
110.094 262.325 -1603 15 14 21
113.389 262.514 -1604 17 16 24
116.398 262.048 -1601 21 20 28
122.612 261.61 -1598 42 41 49
217.328 267.755 -1629 160 132 118
221.054 268.297 -1632 162 135 121
223.97 267.854 -1629 166 144 123
227.852 268.562 -1633 166 144 120
230.478 267.791 -1628 164 142 115
233.661 267.679 -1627 165 138 114
236.695 267.403 -1625 164 137 119
240.018 267.456 -1625 163 136 122
243.194 267.346 -1624 163 134 120
246.672 267.566 -1625 161 132 116
250.155 267.786 -1626 161 132 115
254.113 268.502 -1630 159 133 113
257.299 268.395 -1629 160 134 113
260.963 268.782 -1631 160 134 113
264.476 269.006 -1632 161 132 114
267.831 269.066 -1632 161 132 116
271.022 268.962 -1631 164 135 121
274.043 268.694 -1629 161 137 122
277.399 268.756 -1629 162 138 122
280.239 268.324 -1626 166 142 125
283.419 268.223 -1625 162 139 124
286.774 268.287 -1625 157 134 118
290.488 268.683 -1627 155 132 117
294.212 269.08 -1629 155 131 117
298.496 269.973 -1634 157 134 121
301.879 270.041 -1634 156 133 122
305.825 270.605 -1637 153 130 121
309.597 271.006 -1639 154 132 122
312.807 270.911 -1638 154 133 120
316.016 270.817 -1637 153 133 117
319.419 270.889 -1637 152 132 117
322.232 270.466 -1634 148 128 114
324.239 269.38 -1627 147 126 113
328.233 269.951 -1630 147 127 116
331.428 269.861 -1629 142 122 113
335.445 270.434 -1632 141 120 109
379.066 270.832 -1628 124 105 92
383.447 271.585 -1632 127 108 95
389.033 273.172 -1641 122 103 92
392.269 273.095 -1640 118 99 90
396.711 273.852 -1644 119 100 92
474.48 278.146 -1657 110 90 81
477.501 277.921 -1655 118 99 93
479.937 277.361 -1651 128 110 106
483.238 277.306 -1650 141 116 108
485.359 276.579 -1645 140 112 105
488.057 276.189 -1642 137 111 102
490.447 275.63 -1638 127 102 92
577.454 285.255 -1680 129 108 97
-716.808 272.991 -1586 200 178 160
-714.759 273.502 -1590 207 182 166
-711.805 273.67 -1592 210 182 165
-708.404 273.667 -1593 211 183 165
-705.004 273.665 -1594 212 186 167
-702.048 273.835 -1596 213 186 166
-698.214 273.664 -1596 215 186 167
-694.387 273.493 -1596 214 183 165
-690.567 273.323 -1596 210 183 163
-688.045 273.668 -1599 208 180 159
-682.948 272.987 -1596 205 177 156
-679.574 272.992 -1597 207 179 159
-675.356 272.656 -1596 207 179 160
-671.992 272.663 -1597 208 181 162
-666.956 271.988 -1594 204 176 160
-663.605 271.996 -1595 204 177 160
-661.083 272.347 -1598 201 174 159
-656.085 271.676 -1595 198 172 158
-651.926 271.347 -1594 191 168 152
-647.372 270.85 -1592 128 110 97
-642.43 270.184 -1589 44 33 24
-638.713 270.029 -1589 40 29 22
-636.202 270.385 -1592 37 28 25
-632.491 270.232 -1592 38 30 32
-629.181 270.249 -1593 29 26 31
-626.266 270.438 -1595 28 25 30
-622.176 270.118 -1594 28 25 30
-618.486 269.969 -1594 30 28 33
-615.572 270.16 -1596 31 28 33
-611.889 270.013 -1596 34 31 36
-607.83 269.698 -1595 28 28 32
-604.161 269.553 -1595 29 29 33
-599.368 268.902 -1592 28 28 31
-595.343 268.59 -1591 27 26 33
-590.957 268.111 -1589 29 28 34
-587.694 268.14 -1590 30 28 35
-585.535 268.675 -1594 31 27 34
-581.902 268.536 -1594 30 26 33
-578.638 268.566 -1595 28 25 31
-574.654 268.261 -1594 29 25 32
-570.321 267.789 -1592 28 25 31
-565.292 266.982 -1588 26 23 29
-560.639 266.344 -1585 28 24 28
-557.06 266.212 -1585 30 26 30
-552.787 265.745 -1583 30 26 29
-547.835 264.944 -1579 27 24 31
-543.595 264.48 -1577 26 23 30
-540.055 264.352 -1577 29 26 33
-536.52 264.225 -1577 24 21 26
-532.651 263.932 -1576 22 19 24
-528.121 263.305 -1573 22 19 24
-524.276 263.014 -1572 22 19 24
-520.44 262.724 -1571 25 22 27
-516.614 262.436 -1570 25 22 27
-512.797 262.148 -1569 25 22 27
-509.638 262.196 -1570 26 23 29
-505.835 261.91 -1569 27 24 31
-501.721 261.458 -1567 27 24 30
-497.62 261.008 -1565 26 23 29
-493.217 260.392 -1562 27 24 31
-487.891 259.278 -1556 27 24 31
-483.842 258.832 -1554 23 20 27
-479.496 258.22 -1551 18 17 24
-475.783 257.943 -1550 17 16 23
-472.077 257.666 -1549 18 17 24
-468.684 257.557 -1549 21 20 27
-464.994 257.283 -1548 22 21 28
-461.909 257.342 -1549 20 19 26
-457.936 256.903 -1547 21 20 27
-454.269 256.631 -1546 24 23 30
-450.319 256.195 -1544 24 23 30
-446.962 256.091 -1544 21 20 28
-443.033 255.657 -1542 19 18 26
-438.832 255.058 -1539 19 18 25
-434.931 254.626 -1537 19 18 25
-431.605 254.526 -1537 19 18 25
-428.003 254.262 -1536 21 20 27
-424.686 254.164 -1536 23 22 29
-421.648 254.232 -1537 21 20 27
-418.608 254.301 -1538 23 22 29
-414.488 253.709 -1535 21 20 27
-411.189 253.615 -1535 18 17 24
-407.361 253.191 -1533 17 16 23
-404.337 253.263 -1534 19 18 25
-400.789 253.006 -1533 22 21 28
-397.508 252.914 -1533 20 19 26
-393.974 252.659 -1532 19 18 25
-390.702 252.57 -1532 18 17 24
-386.928 252.151 -1530 20 19 26
-382.915 251.569 -1527 23 22 29
-379.167 251.153 -1525 23 22 29
-374.691 250.244 -1520 22 21 28
-370.973 249.83 -1518 23 22 29
-367.267 249.417 -1516 24 23 30
-364.293 249.498 -1517 23 22 29
-360.603 249.087 -1515 22 21 28
-357.869 249.334 -1517 23 22 29
-354.428 249.089 -1516 24 23 30
-350.763 248.681 -1514 24 23 30
-347.11 248.273 -1512 23 22 28
