ply
format ascii 1.0
comment Created by Open3D
element vertex 1457
property double x
property double y
property double z
property uchar red
property uchar green
property uchar blue
end_header
-117.346 400.719 -1668 111 84 78
-114.094 401.161 -1670 97 76 69
-110.967 402.085 -1674 106 84 78
-107.696 402.529 -1676 101 76 72
-104.605 403.695 -1681 87 66 63
-101.434 404.622 -1685 83 63 60
-98.5973 406.99 -1695 81 61 55
-96.0011 410.56 -1710 69 51 47
-93.2908 413.89 -1724 53 37 35
-90.264 416.02 -1733 55 41 42
-86.8511 416.471 -1735 70 56 58
-251.771 407.145 -1700 98 71 58
-246.945 404.907 -1691 125 98 85
-240.287 399.56 -1669 139 118 110
-235.566 397.327 -1660 140 119 112
-231.444 396.053 -1655 140 119 113
-228.309 396.456 -1657 154 129 124
-225.168 396.86 -1659 150 126 121
-222.02 397.265 -1661 142 120 115
-217.945 395.996 -1656 137 113 108
-214.151 395.208 -1653 130 106 102
-210.117 393.943 -1648 131 104 96
-206.481 393.396 -1646 127 100 96
-203.101 393.329 -1646 125 99 97
-199.603 393.024 -1645 126 100 95
-196.348 393.198 -1646 125 100 94
-192.857 392.895 -1645 125 98 93
-189.256 392.355 -1643 126 96 90
-185.778 392.055 -1642 121 91 85
-182.306 391.755 -1641 121 90 85
-178.512 390.741 -1637 152 120 113
-174.308 388.774 -1629 180 143 135
-170.244 387.047 -1622 185 151 138
-166.723 386.515 -1620 169 135 122
-163.616 386.938 -1622 146 112 100
-160.404 387.123 -1623 119 85 75
-157.672 388.502 -1629 97 63 55
-155.012 390.12 -1636 87 57 50
-152.14 391.262 -1641 90 61 55
-148.976 391.69 -1643 102 74 69
-145.806 392.119 -1645 112 82 77
-142.542 392.31 -1646 116 86 81
-139.359 392.74 -1648 120 90 83
-136.087 392.934 -1649 113 84 77
-132.732 392.89 -1649 109 82 73
-129.535 393.323 -1651 114 84 75
-126.33 393.758 -1653 115 85 76
-122.97 393.717 -1653 113 83 74
-119.973 394.869 -1658 111 84 76
-116.956 396.021 -1663 115 89 83
-113.647 396.221 -1664 116 94 87
-110.666 397.613 -1670 108 85 79
-107.597 398.768 -1675 92 67 63
-104.633 400.4 -1682 89 67 63
-101.341 400.842 -1684 82 61 57
-98.6814 403.904 -1697 79 61 54
-96.082 407.442 -1712 66 49 45
-93.1522 409.791 -1722 55 40 39
-90.1304 411.903 -1731 66 52 53
-86.5224 411.399 -1729 78 65 67
-247.156 401.809 -1693 117 91 78
-240.784 396.983 -1673 138 116 107
-235.915 394.532 -1663 145 123 116
-231.368 392.558 -1655 140 119 113
-228.097 392.72 -1656 149 124 118
-225.23 393.595 -1660 157 131 126
-221.947 393.759 -1661 147 123 119
-217.874 392.502 -1656 134 111 107
-214.34 392.195 -1655 130 106 101
-210.43 391.178 -1651 135 108 100
-206.664 390.399 -1648 132 106 101
-203.282 390.332 -1648 128 104 102
-199.659 389.793 -1646 128 103 97
-196.403 389.965 -1647 123 97 91
-192.677 389.192 -1644 122 95 89
-189.309 389.13 -1644 124 94 87
-185.831 388.832 -1643 116 85 78
-182.246 388.299 -1641 130 99 93
-178.018 386.348 -1633 159 126 119
-173.931 384.634 -1626 176 141 133
-169.978 383.159 -1620 187 153 141
-166.566 382.868 -1619 170 137 124
-163.16 382.578 -1618 145 112 99
-160.45 383.944 -1624 118 84 74
-157.524 384.838 -1628 100 66 58
-154.773 386.206 -1634 90 61 54
-151.812 387.102 -1638 85 56 49
-148.837 387.998 -1642 93 66 60
-145.581 388.187 -1643 106 77 71
-142.582 389.085 -1647 114 84 78
-139.145 388.803 -1646 118 88 82
-135.961 389.231 -1648 118 89 82
-132.769 389.66 -1650 115 88 80
-129.493 389.854 -1651 118 90 81
-126.06 389.576 -1650 119 90 81
-122.781 389.772 -1651 118 89 80
-119.644 390.441 -1654 116 90 83
-116.566 391.347 -1658 114 89 83
-113.542 392.49 -1663 105 81 75
-110.63 394.106 -1670 94 70 64
-107.626 395.486 -1676 89 64 60
-104.599 396.868 -1682 91 69 64
-101.429 397.778 -1686 83 62 57
-98.7657 400.813 -1699 77 60 54
-96.0508 403.848 -1712 61 46 42
-93.2842 406.884 -1725 61 47 46
-247.222 398.47 -1694 114 88 75
-241.281 394.393 -1677 137 114 105
-235.98 391.258 -1664 146 124 118
-231.433 389.302 -1656 144 123 118
-228.023 389.228 -1656 148 121 115
-224.614 389.154 -1656 154 128 123
-221.341 389.317 -1657 155 131 127
-217.408 388.307 -1653 145 121 117
-213.882 388.002 -1652 137 113 108
-209.98 386.994 -1648 136 109 101
-206.346 386.458 -1646 130 106 101
-202.599 385.687 -1643 126 105 101
-199.23 385.622 -1643 127 102 96
-196.101 386.028 -1645 123 97 91
-192.263 385.027 -1641 122 95 87
-189.133 385.434 -1643 121 92 84
-185.771 385.374 -1643 117 86 79
-182.188 384.846 -1641 142 111 102
-177.96 382.912 -1633 161 129 120
-173.767 380.98 -1625 177 144 135
-169.714 379.283 -1618 188 155 143
-166.204 378.761 -1616 172 139 126
-163.107 379.176 -1618 145 112 99
-160.201 380.062 -1622 118 85 75
-157.28 380.948 -1626 100 67 59
-154.723 382.772 -1634 87 60 52
-151.763 383.66 -1638 81 54 46
-148.88 384.782 -1643 87 62 54
-145.445 384.501 -1642 103 75 67
-142.363 385.157 -1645 109 79 72
-139.1 385.346 -1646 113 83 78
-135.669 385.068 -1645 120 91 85
-132.405 385.259 -1646 119 92 84
-129.216 385.685 -1648 118 91 83
-125.867 385.644 -1648 116 89 80
-122.519 385.605 -1648 111 83 75
-119.389 386.268 -1651 103 77 71
-116.318 387.166 -1655 101 77 71
-113.505 389 -1663 95 70 64
-110.66 390.836 -1671 91 66 61
-107.72 392.438 -1678 90 65 61
-104.69 393.807 -1684 86 64 58
-101.637 395.177 -1690 84 64 57
-98.7921 397.483 -1700 77 61 56
-95.9639 400.024 -1711 60 45 42
-241.347 391.09 -1678 134 111 101
-236.329 388.45 -1667 145 124 118
-232.197 387.209 -1662 148 127 122
-228.087 385.971 -1657 153 128 120
-224.677 385.898 -1657 158 133 128
-221.27 385.827 -1657 163 139 135
-217.338 384.826 -1653 148 123 119
-213.555 384.058 -1650 142 117 112
-209.785 383.292 -1647 141 112 105
-205.904 382.295 -1643 137 112 106
-202.411 381.997 -1642 132 111 105
-198.803 381.468 -1640 130 104 96
-195.204 380.94 -1638 122 95 88
-192.201 381.575 -1641 114 87 79
-188.842 381.515 -1641 110 81 74
-185.485 381.455 -1641 114 85 77
-181.907 380.931 -1639 145 114 104
-177.794 379.247 -1632 163 133 122
-173.605 377.332 -1624 181 151 140
-169.345 375.187 -1615 187 155 143
-166.048 375.133 -1615 172 139 127
-162.652 374.849 -1614 144 111 98
-159.656 375.494 -1617 118 87 76
-156.746 376.372 -1621 101 70 61
-154.295 378.412 -1630 91 64 56
-151.437 379.524 -1635 85 59 51
-148.56 380.637 -1640 87 62 54
-145.311 380.823 -1641 102 74 67
-142.317 381.705 -1645 111 82 75
-139.056 381.892 -1646 112 83 78
-135.791 382.081 -1647 120 93 87
-132.523 382.27 -1648 119 93 86
-129.331 382.693 -1650 115 88 81
-125.979 382.652 -1650 113 86 79
-122.405 381.917 -1647 112 85 78
-119.279 382.574 -1650 105 81 73
-116.281 383.696 -1655 102 79 71
-113.264 384.819 -1660 97 71 64
-110.493 386.869 -1669 89 64 58
-107.622 388.689 -1677 88 66 61
-104.408 389.351 -1680 86 65 59
-101.304 390.477 -1685 82 61 55
-98.5863 393.226 -1697 72 57 54
-95.7091 395.512 -1707 62 47 44
-236.537 385.401 -1669 139 119 112
-232.123 383.71 -1662 140 121 115
-228.427 383.175 -1660 151 126 119
-224.335 381.949 -1655 159 134 129
-220.665 381.417 -1653 160 135 132
-216.612 380.194 -1648 142 117 113
-212.969 379.665 -1646 138 112 107
-209.209 378.906 -1643 139 109 101
-205.588 378.379 -1641 132 106 98
-201.731 377.392 -1637 128 104 96
-198.376 377.329 -1637 127 98 89
-195.023 377.267 -1637 121 92 83
-191.906 377.667 -1639 116 87 77
-188.667 377.837 -1640 111 83 73
-185.313 377.778 -1640 124 95 86
-181.739 377.259 -1638 151 121 110
-177.738 375.82 -1632 166 137 125
-173.55 373.923 -1624 175 146 134
-169.71 372.717 -1619 178 146 134
-166.201 372.204 -1617 167 134 123
-162.802 371.922 -1616 146 112 101
-160 373.022 -1621 123 90 80
-156.987 373.662 -1624 110 78 69
-154.435 375.453 -1632 104 75 68
-151.389 376.095 -1635 96 68 61
-148.513 377.198 -1640 88 63 55
-145.265 377.382 -1641 97 70 63
-142.013 377.567 -1642 116 89 82
-138.843 377.982 -1644 120 92 85
-135.666 378.399 -1646 123 97 89
-132.401 378.586 -1647 121 96 89
-129.212 379.005 -1649 122 93 87
-125.863 378.965 -1649 122 94 87
-122.292 378.236 -1646 117 89 83
-119.169 378.888 -1649 109 83 75
-115.963 379.31 -1651 101 76 68
-113.16 381.112 -1659 97 70 62
-110.127 382.226 -1664 92 67 60
-107.395 384.488 -1674 84 62 57
-104.251 385.374 -1678 80 59 54
-101.151 386.49 -1683 76 57 52
-98.4971 389.444 -1696 61 47 44
-236.321 381.66 -1668 129 113 105
-231.77 379.756 -1660 133 116 109
-227.805 378.769 -1656 149 124 119
-224.264 378.469 -1655 155 130 128
-220.329 377.485 -1651 158 132 132
-216.806 377.187 -1650 145 120 115
-213.031 376.434 -1647 137 111 104
-209.397 375.911 -1645 136 107 96
-205.774 375.389 -1643 136 107 95
-202.037 374.639 -1640 135 106 94
-198.677 374.576 -1640 133 102 91
-195.319 374.515 -1640 126 95 83
-191.963 374.454 -1640 125 94 81
-188.608 374.394 -1640 129 97 84
-185.481 374.792 -1642 148 116 103
-181.792 374.05 -1639 153 124 112
-178.009 373.081 -1635 162 132 121
-174.029 371.657 -1629 160 131 119
-169.971 370.006 -1622 164 133 120
-166.354 369.269 -1619 154 123 111
-163.153 369.446 -1620 140 105 97
-160.345 370.536 -1625 125 90 81
-157.324 371.17 -1628 112 77 67
-154.481 372.261 -1633 107 76 69
-151.527 373.125 -1637 102 73 66
-148.648 374.218 -1642 92 65 59
-145.307 374.172 -1642 90 63 56
-142.055 374.355 -1643 110 83 76
-138.968 374.995 -1646 134 106 94
-135.705 375.18 -1647 138 109 99
-132.44 375.366 -1648 136 107 98
-129.093 375.325 -1648 134 104 95
-125.747 375.285 -1648 133 102 94
-122.477 375.474 -1649 122 93 86
-119.131 375.437 -1649 113 83 76
-115.857 375.628 -1650 106 77 69
-112.988 377.186 -1657 98 71 63
-109.894 378.061 -1661 90 64 57
-107.041 379.848 -1669 85 61 54
-104.094 381.409 -1676 78 59 54
-100.88 382.06 -1679 71 53 48
-236.247 378.154 -1668 123 106 97
-231.977 376.721 -1662 137 120 111
-228.008 375.743 -1658 150 125 121
-223.787 374.313 -1652 152 126 124
-219.86 373.337 -1648 159 133 133
-216.213 372.817 -1646 159 133 128
-212.577 372.297 -1644 153 127 120
-209.078 372.005 -1643 154 125 113
-205.584 371.714 -1642 152 122 111
-202.22 371.651 -1642 152 122 111
-198.736 371.362 -1641 153 122 111
-195.377 371.301 -1641 145 114 102
-192.254 371.693 -1643 142 111 98
-188.894 371.634 -1643 148 116 104
-185.536 371.576 -1643 158 127 115
-181.957 371.067 -1641 146 114 102
-178.062 369.88 -1636 140 108 96
-173.975 368.243 -1629 143 110 100
-170.233 367.286 -1625 147 112 101
-166.919 367.234 -1625 134 99 88
-163.606 367.183 -1625 121 86 78
-160.492 367.584 -1627 109 75 66
-157.565 368.439 -1631 99 64 55
-154.622 369.294 -1635 97 66 59
-151.757 370.376 -1640 100 71 64
-148.421 370.329 -1640 94 67 61
-145.262 370.736 -1642 89 62 56
-142.097 371.143 -1644 106 79 73
-138.841 371.325 -1645 134 106 95
-135.581 371.508 -1646 140 111 102
-132.399 371.918 -1648 140 110 101
-129.053 371.878 -1648 139 108 99
-125.785 372.064 -1649 138 107 98
-122.365 371.8 -1648 129 99 91
-119.094 371.989 -1649 120 90 83
-115.961 372.629 -1652 106 76 69
-112.817 373.271 -1655 92 65 57
-109.794 374.364 -1660 85 58 50
-106.944 376.135 -1668 82 56 49
-103.813 377.004 -1672 75 57 50
-231.486 372.558 -1659 134 114 104
-228.075 372.487 -1659 143 119 114
-224.124 371.519 -1655 142 117 115
-220.192 370.553 -1651 150 124 124
-216.803 370.485 -1651 157 132 126
-212.899 369.522 -1647 161 135 128
-209.267 369.008 -1645 164 135 123
-205.646 368.495 -1643 164 134 122
-202.404 368.657 -1644 161 131 120
-198.917 368.371 -1643 160 129 118
-195.674 368.534 -1644 155 124 112
-192.545 368.923 -1646 154 124 111
-189.066 368.64 -1645 152 121 109
-185.479 368.135 -1643 134 103 92
-181.901 367.63 -1641 107 73 60
-177.899 366.231 -1635 99 64 52
-174.242 365.505 -1632 121 84 74
-170.494 364.556 -1628 124 86 76
-167.175 364.504 -1628 114 76 67
-164.059 364.901 -1630 106 70 62
-160.936 365.299 -1632 93 59 51
-157.806 365.698 -1634 80 46 38
-154.858 366.545 -1638 75 44 37
-151.526 366.498 -1638 82 53 46
-148.375 366.9 -1640 89 62 56
-145.395 367.75 -1644 89 62 56
-142.14 367.929 -1645 96 69 63
-138.882 368.11 -1646 119 92 83
-135.539 368.068 -1646 135 107 98
-132.358 368.474 -1648 138 108 99
-129.17 368.881 -1650 135 105 96
-125.899 369.066 -1651 133 102 93
-122.476 368.805 -1650 128 97 89
-119.274 369.215 -1652 118 88 80
-115.996 369.402 -1653 101 71 64
-112.782 369.814 -1655 88 61 53
-109.694 370.674 -1659 83 56 49
-106.462 371.088 -1661 82 55 49
-103.347 371.949 -1665 73 55 49
-230.02 366.853 -1649 122 101 91
-227.318 367.895 -1654 132 110 104
-223.785 367.604 -1653 135 111 108
-219.991 366.869 -1650 141 116 115
-216.605 366.802 -1650 147 122 116
-212.834 366.07 -1647 156 130 122
-209.203 365.561 -1645 160 131 119
-205.958 365.72 -1646 162 133 121
-202.711 365.88 -1647 158 129 117
-199.098 365.374 -1645 160 129 118
-196.09 365.981 -1648 163 133 120
-192.487 365.477 -1646 167 138 124
-189.008 365.197 -1645 157 126 114
-185.309 364.474 -1642 121 90 79
-181.624 363.753 -1639 94 58 46
-177.735 362.588 -1634 96 57 47
-174.296 362.313 -1633 107 67 58
-170.861 362.039 -1632 108 65 57
-167.638 362.209 -1633 102 60 52
-164.512 362.602 -1635 96 57 50
-161.38 362.996 -1637 88 53 45
-157.951 362.726 -1636 80 46 38
-154.717 362.9 -1637 75 44 37
-151.572 363.297 -1639 75 45 39
-148.33 363.473 -1640 81 54 48
-145.173 363.872 -1642 89 62 56
-141.751 363.607 -1641 96 69 63
-138.587 364.008 -1643 111 84 75
-135.333 364.188 -1644 127 100 91
-132.238 364.812 -1647 132 104 96
-128.974 364.994 -1648 130 100 92
-125.86 365.62 -1651 126 96 89
-122.587 365.803 -1652 120 90 82
-119.094 365.324 -1650 108 80 72
-115.82 365.51 -1651 94 66 59
-112.748 366.361 -1655 86 61 54
-109.661 367.213 -1659 83 58 51
-106.366 367.401 -1660 79 54 48
-229.811 363.176 -1648 122 101 90
-227.661 365.09 -1657 124 104 98
-224.394 365.242 -1658 132 111 108
-220.324 364.074 -1653 139 117 116
-217.064 364.228 -1654 141 116 109
-213.157 363.282 -1650 150 124 116
-209.776 363.218 -1650 158 129 117
-206.146 362.715 -1648 161 132 121
-202.895 362.874 -1649 158 128 118
-199.643 363.033 -1650 162 132 121
-196.268 362.973 -1650 167 138 125
-192.779 362.695 -1649 170 141 127
-189.295 362.417 -1648 168 137 125
-185.479 361.481 -1644 143 112 100
-181.458 360.107 -1638 118 83 71
-177.573 358.953 -1633 120 82 72
-174.029 358.461 -1631 119 79 70
-170.81 358.629 -1632 116 72 64
-167.587 358.798 -1633 109 66 58
-164.462 359.187 -1635 99 59 52
-160.838 358.479 -1632 93 57 49
-157.614 358.651 -1633 84 49 41
-154.386 358.824 -1634 81 50 43
-151.341 359.436 -1637 83 53 47
-148.195 359.831 -1639 88 61 55
-145.218 360.665 -1643 96 69 63
-141.967 360.841 -1644 97 70 64
-138.629 360.799 -1644 102 75 67
-135.375 360.977 -1645 112 85 77
-132.358 361.815 -1649 121 94 86
-129.092 361.995 -1650 127 98 91
-125.899 362.396 -1652 123 94 87
-122.698 362.797 -1654 113 84 78
-119.274 362.541 -1653 104 76 69
-115.926 362.506 -1653 93 66 59
-112.442 362.033 -1651 86 61 56
-109.694 363.974 -1660 83 58 53
-106.27 363.722 -1659 76 51 46
-103.223 364.787 -1664 62 46 41
-228.766 358.198 -1641 118 98 88
-227.73 361.84 -1658 117 100 94
-224.326 361.772 -1658 130 111 107
-220.258 360.615 -1653 139 119 116
-216.868 360.549 -1653 137 114 105
-213.222 360.049 -1651 144 120 110
-209.712 359.767 -1650 155 126 114
-206.209 359.487 -1649 160 130 120
-202.958 359.644 -1650 157 128 118
-199.704 359.802 -1651 163 135 123
-196.21 359.525 -1650 166 137 125
-192.604 359.031 -1648 165 136 122
-189.009 358.538 -1646 169 138 125
-185.198 357.611 -1642 160 128 115
-181.515 356.903 -1639 147 114 101
-177.411 355.326 -1632 138 102 91
-174.191 355.491 -1633 138 100 90
-170.758 355.222 -1632 133 90 81
-167.537 355.389 -1633 124 82 74
-164.212 355.34 -1633 115 74 67
-160.79 355.074 -1632 102 66 58
-157.567 355.244 -1633 90 55 47
-154.34 355.415 -1634 85 54 47
-151.111 355.587 -1635 83 54 47
-147.97 355.978 -1637 84 57 50
-145.086 357.021 -1642 93 66 60
-141.752 356.979 -1642 96 69 63
-138.504 357.154 -1643 102 75 67
-135.335 357.548 -1645 106 79 71
-132.319 358.378 -1649 115 89 81
-129.132 358.774 -1651 118 91 83
-125.937 359.171 -1653 115 88 81
-122.736 359.568 -1655 111 84 78
-119.383 359.532 -1655 105 78 72
-116.242 360.149 -1658 95 68 62
-112.749 359.681 -1656 87 63 59
-109.991 361.602 -1665 84 60 55
-106.494 361.136 -1663 76 52 48
-227.525 358.156 -1657 110 94 90
-224.665 358.953 -1661 124 107 102
-220.459 357.591 -1655 132 114 109
-217.066 357.526 -1655 140 117 106
-213.287 356.814 -1652 144 119 108
-209.904 356.751 -1652 156 127 115
-206.523 356.69 -1652 160 132 121
-203.266 356.845 -1653 162 134 123
-199.644 356.354 -1651 164 136 125
-196.389 356.511 -1652 163 135 124
-192.43 355.375 -1647 159 132 119
-188.608 354.455 -1643 156 125 112
-185.143 354.184 -1642 143 112 99
-181.24 353.052 -1637 135 102 89
-177.467 352.136 -1633 135 100 89
-174.139 352.084 -1633 139 103 93
-170.708 351.818 -1632 137 97 88
-167.487 351.984 -1633 132 92 83
-164.163 351.935 -1633 132 93 84
-160.743 351.671 -1632 121 85 77
-157.327 351.409 -1631 104 69 61
-154.2 351.794 -1633 91 60 52
-150.882 351.749 -1633 85 55 47
-148.016 352.782 -1638 80 53 46
-145.132 353.816 -1643 84 57 51
-141.969 354.204 -1645 87 60 54
-138.8 354.593 -1647 96 69 61
-135.541 354.768 -1648 103 77 69
-132.36 355.159 -1650 111 86 78
-129.172 355.551 -1652 114 88 81
-126.052 356.16 -1655 113 87 80
-122.774 356.338 -1656 108 81 75
-119.42 356.303 -1656 101 74 68
-116.278 356.913 -1659 94 67 61
-112.988 357.095 -1660 84 62 57
-110.025 358.353 -1666 78 56 52
-106.527 357.891 -1664 72 51 47
-227.046 354.051 -1654 104 92 88
-224.734 355.697 -1662 114 99 93
-220.926 354.99 -1659 120 103 97
-217.133 354.283 -1656 137 115 102
-213.354 353.578 -1653 147 123 111
-210.224 353.944 -1655 157 128 116
-206.587 353.455 -1653 160 132 120
-203.206 353.395 -1653 160 133 120
-199.586 352.909 -1651 154 127 117
-195.975 352.424 -1649 146 120 109
-192.257 351.726 -1646 131 105 94
-188.668 351.242 -1644 128 98 85
-185.088 350.761 -1642 131 100 87
-181.408 350.066 -1639 141 107 94
-177.632 349.159 -1635 156 121 110
-174.408 349.322 -1636 160 124 114
-170.553 348.204 -1631 153 115 105
-167.438 348.581 -1633 145 107 97
-163.814 347.893 -1630 146 108 98
-160.695 348.272 -1632 140 104 96
-157.185 347.799 -1630 127 92 85
-154.155 348.394 -1633 116 85 77
-151.115 348.989 -1636 103 74 66
-147.792 348.945 -1636 86 59 51
-145.001 350.182 -1642 79 52 45
-141.842 350.567 -1644 76 49 43
-138.844 351.379 -1648 78 51 44
-135.502 351.339 -1648 84 59 52
-132.321 351.727 -1650 97 72 65
-129.212 352.328 -1653 105 80 74
-125.939 352.504 -1654 107 81 75
-122.812 353.107 -1657 105 78 72
-119.529 353.285 -1658 97 69 64
-116.664 354.742 -1665 90 62 57
-113.227 354.496 -1664 78 57 52
-110.257 355.741 -1670 71 51 47
-106.816 355.497 -1669 66 47 44
-224.804 352.439 -1663 114 100 94
-220.995 351.739 -1660 118 102 96
-217.07 350.828 -1656 134 113 98
-213.291 350.13 -1653 145 123 108
-210.035 350.28 -1654 154 127 115
-206.277 349.585 -1651 153 124 111
-203.024 349.737 -1652 148 119 106
-199.648 349.679 -1652 126 99 89
-195.918 348.986 -1649 110 84 74
-192.318 348.507 -1647 102 77 67
-188.728 348.028 -1645 119 90 78
-185.147 347.551 -1643 144 114 102
-181.576 347.075 -1641 159 123 111
-177.907 346.389 -1638 152 116 105
-174.357 345.915 -1636 149 112 102
-170.713 345.231 -1633 152 114 104
-167.287 344.97 -1632 147 110 100
-163.666 344.289 -1629 138 101 91
-160.55 344.664 -1631 120 85 78
-157.139 344.407 -1630 106 72 66
-154.205 345.207 -1634 103 72 65
-150.978 345.374 -1635 104 75 68
-147.659 345.331 -1635 99 72 64
-145.312 347.612 -1646 89 62 56
-142.059 347.782 -1647 78 51 45
-138.972 348.375 -1650 67 42 36
-135.545 348.124 -1649 66 41 35
-132.363 348.508 -1651 75 50 44
-129.175 348.892 -1653 91 66 60
-126.055 349.489 -1656 102 76 70
-122.777 349.664 -1657 101 74 68
-119.927 351.106 -1664 93 65 61
-116.98 352.338 -1670 84 56 53
-113.67 352.516 -1671 70 50 47
-110.555 353.327 -1675 63 43 40
-107.105 353.085 -1674 60 42 40
-224.468 348.551 -1661 105 92 86
-221.33 348.907 -1663 113 98 91
-217.662 348.424 -1661 130 110 94
-213.875 347.733 -1658 141 119 104
-210.102 347.043 -1655 145 118 106
-206.342 346.354 -1652 144 115 103
-202.72 345.876 -1650 131 102 90
-198.987 345.19 -1647 100 75 65
-195.267 344.504 -1644 92 67 57
-191.912 344.449 -1644 101 77 66
-188.214 343.766 -1641 126 97 85
-184.868 343.712 -1641 139 109 97
-181.635 343.869 -1642 130 94 82
-178.073 343.399 -1640 127 89 79
-174.52 342.93 -1638 124 84 75
-170.873 342.252 -1635 125 84 75
-167.649 342.413 -1636 122 81 72
-163.92 341.529 -1632 107 69 59
-160.799 341.901 -1634 92 58 51
-157.768 342.483 -1637 88 54 48
-154.443 342.438 -1637 88 57 50
-151.397 343.022 -1640 89 60 53
-148.159 343.188 -1641 88 61 53
-145.182 343.983 -1645 85 58 51
-141.932 344.151 -1646 77 50 45
-139.016 345.156 -1651 70 45 40
-135.67 345.117 -1651 65 42 37
-132.325 345.079 -1651 64 42 37
-129.138 345.46 -1653 81 57 52
-125.943 345.841 -1655 95 70 65
-122.889 346.642 -1659 95 69 64
-119.677 347.025 -1661 86 60 56
-117.017 349.08 -1671 77 51 47
-113.978 350.092 -1676 64 45 43
-110.721 350.478 -1678 55 37 35
-221.932 346.481 -1668 105 92 83
-218.255 346.003 -1666 124 104 88
-213.814 344.28 -1658 137 114 100
-210.042 343.597 -1655 142 115 102
-206.533 343.33 -1654 140 112 100
-202.539 342.234 -1649 122 94 83
-198.93 341.762 -1647 99 74 64
-195.33 341.291 -1645 96 72 61
-191.974 341.236 -1645 97 74 63
-188.39 340.767 -1643 108 79 67
-184.703 340.092 -1640 107 76 64
-181.583 340.455 -1642 102 65 53
-178.13 340.197 -1641 111 71 61
-174.683 339.939 -1640 113 72 63
-170.929 339.061 -1636 107 62 54
-167.704 339.221 -1637 105 62 53
-164.275 338.966 -1636 95 55 46
-160.852 338.713 -1635 83 48 41
-157.724 339.082 -1637 82 47 41
-154.4 339.038 -1637 76 45 38
-151.723 340.445 -1644 73 44 37
-148.387 340.402 -1644 72 45 37
-145.406 341.189 -1648 74 46 41
-141.892 340.734 -1646 75 48 44
-139.145 342.143 -1653 75 51 46
-135.714 341.898 -1652 73 51 46
-132.448 342.067 -1653 70 49 44
-129.101 342.03 -1653 83 59 55
-125.983 342.615 -1656 90 66 62
-122.929 343.407 -1660 87 62 58
-119.859 344.2 -1664 79 54 50
-116.984 345.615 -1671 68 44 40
-113.946 346.616 -1676 59 41 39
-110.558 346.585 -1676 52 35 32
-222.136 343.42 -1670 102 89 80
-218.586 343.152 -1669 108 87 74
-214.398 341.858 -1663 124 101 87
-210.49 340.976 -1659 141 114 100
-206.724 340.3 -1656 141 114 103
-203.096 339.832 -1654 117 90 79
-199.115 338.748 -1649 101 76 66
-195.275 337.871 -1645 97 73 62
-191.803 337.611 -1644 86 63 50
-188.452 337.558 -1644 89 60 48
-184.651 336.684 -1640 90 59 47
-181.532 337.043 -1642 104 67 55
-178.297 337.198 -1643 117 75 66
-175.06 337.354 -1644 122 78 70
-171.507 336.895 -1642 106 58 51
-168.066 336.642 -1641 99 53 45
-164.731 336.596 -1641 89 44 36
-161.102 335.935 -1638 82 46 38
-157.775 335.89 -1638 85 50 42
-154.733 336.461 -1641 81 50 42
-151.588 336.828 -1643 78 49 41
-148.255 336.787 -1643 73 46 38
-145.365 337.77 -1648 72 44 40
-142.111 337.935 -1649 78 51 47
-138.853 338.101 -1650 84 59 53
-135.594 338.267 -1651 80 58 51
-132.491 338.844 -1654 76 55 49
-129.221 339.013 -1655 88 64 60
-126.024 339.387 -1657 88 64 60
-123.116 340.581 -1663 81 57 53
-119.897 340.956 -1665 73 49 45
-116.951 342.152 -1671 60 36 32
-113.982 343.348 -1677 54 36 34
-222.339 340.354 -1672 88 77 70
-218.656 339.885 -1670 92 76 68
-214.467 338.604 -1664 102 84 75
-210.177 337.12 -1657 122 102 90
-206.417 336.452 -1654 133 109 100
-202.794 335.988 -1652 119 94 85
-199.301 335.729 -1651 104 79 68
-195.577 335.064 -1648 104 78 67
-191.866 334.4 -1645 111 86 75
-188.743 334.754 -1647 118 89 77
-184.712 333.483 -1641 131 100 88
-181.592 333.838 -1643 145 109 99
-178.573 334.398 -1646 156 115 106
-175.331 334.552 -1647 160 118 109
-171.877 334.3 -1646 157 112 104
-168.429 334.05 -1645 145 101 93
-164.886 333.598 -1643 136 94 85
-161.155 332.74 -1639 128 92 82
-158.117 333.305 -1642 126 92 82
-154.69 333.059 -1641 115 85 75
-151.453 333.219 -1642 100 72 62
-148.304 333.584 -1644 85 58 49
-145.412 334.557 -1649 85 58 52
-141.985 334.315 -1648 91 64 57
-138.815 334.682 -1650 93 67 59
-135.802 335.455 -1654 86 62 56
-132.534 335.621 -1655 81 57 51
-129.341 335.99 -1657 88 65 62
-126.293 336.766 -1661 84 61 58
-123.23 337.542 -1665 76 52 49
-119.936 337.711 -1666 68 45 40
-116.849 338.489 -1670 59 36 32
-114.086 340.282 -1679 49 32 31
726.408 374.37 -1751 126 113 100
-219.511 337.825 -1677 73 63 61
-215.438 336.758 -1672 81 70 64
-210.88 334.887 -1663 103 90 81
-206.734 333.621 -1657 124 102 93
-202.983 332.961 -1654 113 90 81
-199.005 331.899 -1649 110 86 73
-195.404 331.442 -1647 122 96 84
-191.93 331.188 -1646 138 111 100
-188.576 331.135 -1646 144 115 102
-184.999 330.682 -1644 145 114 102
-181.762 330.832 -1645 146 111 101
-178.741 331.386 -1648 153 114 104
-175.601 331.74 -1650 163 122 113
-172.247 331.692 -1650 161 120 111
-168.689 331.243 -1648 149 109 100
-165.241 330.996 -1647 145 107 98
-161.504 330.148 -1643 139 105 93
-158.266 330.305 -1644 129 96 84
-154.836 330.061 -1643 112 83 72
-151.873 330.822 -1647 101 73 63
-148.624 330.982 -1648 94 66 57
-145.549 331.544 -1651 97 70 60
-142.463 332.107 -1654 101 73 64
-139.197 332.269 -1655 99 72 62
-136.093 332.834 -1658 94 68 61
-132.738 332.797 -1658 85 60 54
-129.462 332.962 -1659 83 62 59
-126.258 333.328 -1661 78 55 53
-123.196 334.097 -1665 74 50 48
-119.759 333.863 -1664 67 45 41
-116.397 333.831 -1664 53 32 27
-113.647 335.605 -1673 48 31 33
725.772 370.326 -1750 126 111 98
726.586 368.853 -1742 125 110 97
-215.508 333.487 -1673 79 68 63
-210.568 331.037 -1661 94 82 73
-206.428 329.785 -1655 106 86 77
-202.805 329.33 -1653 108 87 76
-199.312 329.076 -1652 121 97 82
-195.588 328.425 -1649 134 107 93
-192.227 328.372 -1649 144 115 101
-189.212 328.918 -1652 145 117 102
-185.286 327.871 -1647 143 112 99
-182.155 328.219 -1649 143 108 97
-179.125 328.767 -1652 139 100 91
-175.766 328.719 -1652 135 95 86
-172.304 328.473 -1651 131 93 85
-168.643 327.83 -1648 123 86 78
-165.297 327.784 -1648 120 84 77
-161.46 326.746 -1643 115 80 72
-158.415 327.299 -1646 110 76 67
-154.982 327.057 -1645 101 71 63
-152.016 327.811 -1649 98 68 62
-148.854 328.168 -1651 96 66 60
-145.685 328.525 -1653 97 68 62
-142.596 329.083 -1656 99 70 64
-139.327 329.243 -1657 101 74 68
-136.138 329.603 -1659 95 69 64
-133.022 330.163 -1662 85 60 54
-129.66 330.127 -1662 76 53 50
-126.376 330.291 -1663 70 47 44
-123.311 331.052 -1667 67 43 41
-119.942 331.019 -1667 57 36 34
-116.295 330.193 -1663 51 32 30
-113.209 330.956 -1667 47 30 32
723.473 367.33 -1755 125 109 96
727.212 367.338 -1754 126 111 98
727.618 365.67 -1745 124 108 96
730.086 365.05 -1741 123 108 94
731.276 363.802 -1734 121 106 92
-215.192 329.623 -1671 73 63 58
-210.511 327.593 -1661 85 74 67
-206.497 326.55 -1656 93 77 67
-202.995 326.298 -1655 101 83 72
-199.379 325.85 -1653 124 100 85
-195.772 325.402 -1651 137 110 94
-192.525 325.547 -1652 138 109 93
-189.275 325.693 -1653 134 105 89
-186.023 325.839 -1654 130 99 83
-182.657 325.79 -1654 126 92 79
-179.511 326.135 -1656 118 80 70
-176.251 326.284 -1657 107 69 59
-172.571 325.646 -1654 102 65 57
-169.007 325.207 -1652 96 60 52
-165.352 324.571 -1649 89 54 47
-162.006 324.527 -1649 93 58 51
-158.757 324.681 -1650 95 61 54
-155.411 324.639 -1650 95 63 57
-152.436 325.385 -1654 94 63 59
-148.994 325.147 -1653 95 65 61
-146.263 326.485 -1660 98 68 64
-143.074 326.839 -1662 100 71 67
-139.626 326.605 -1661 97 71 67
-136.512 327.158 -1664 90 64 59
-133.226 327.318 -1665 82 57 51
-129.938 327.479 -1666 70 48 42
-126.646 327.641 -1667 63 40 37
-123.425 328.001 -1669 62 39 37
-120.414 328.951 -1674 49 31 29
720.814 369.887 -1790 129 112 102
721.9 366.591 -1772 134 118 105
723.21 365.355 -1765 130 113 101
725.73 364.741 -1761 124 108 96
728.239 364.128 -1757 126 111 98
727.818 362.063 -1746 126 110 98
731.48 360.214 -1735 125 110 96
-210.075 323.566 -1658 70 60 55
-206.442 323.12 -1656 84 71 62
-202.941 322.87 -1655 93 78 67
-199.446 322.622 -1654 113 90 74
-195.957 322.374 -1653 130 102 84
-192.939 322.907 -1656 136 106 87
-189.339 322.466 -1654 136 107 88
-186.085 322.611 -1655 133 103 86
-182.94 322.952 -1657 131 98 85
-179.679 323.099 -1658 124 88 77
-175.991 322.467 -1655 112 76 66
-172.316 321.836 -1652 101 66 56
-168.86 321.596 -1651 92 57 48
-165.509 321.551 -1651 90 56 48
-162.454 322.092 -1654 90 55 49
-159.003 321.855 -1653 95 60 54
-155.652 321.813 -1653 101 67 63
-152.487 322.161 -1655 103 70 67
-149.315 322.511 -1657 107 75 73
-146.312 323.25 -1661 106 74 72
-142.864 323.017 -1660 103 73 70
-140.093 324.342 -1667 93 68 64
-136.639 324.11 -1666 84 59 53
-133.511 324.658 -1669 77 52 46
-130.137 324.623 -1669 65 44 37
-127.144 325.562 -1674 57 36 32
-123.762 325.528 -1674 54 34 33
-120.669 326.274 -1678 40 24 25
719.395 365.379 -1787 130 113 103
725.517 360.9 -1761 122 107 94
726.77 357.84 -1744 124 111 98
730.421 356.009 -1733 127 112 99
-206.885 320.465 -1660 69 57 49
-203.623 320.603 -1661 83 68 59
-199.875 319.971 -1658 97 75 60
-196.142 319.34 -1655 113 87 71
-192.888 319.482 -1656 130 101 85
-189.403 319.239 -1655 140 111 94
-186.261 319.575 -1657 142 112 96
-182.671 319.141 -1655 144 112 99
-179.523 319.479 -1657 143 107 96
-175.944 319.046 -1655 140 104 92
-172.479 318.808 -1654 133 98 86
-169.019 318.57 -1653 126 91 80
-165.866 318.911 -1655 122 87 76
-162.804 319.446 -1658 112 77 71
-159.538 319.597 -1659 111 77 71
-156.364 319.94 -1661 109 75 70
-152.631 319.129 -1657 106 74 70
-149.456 319.475 -1659 107 76 72
-146.362 320.014 -1662 104 74 71
-143.256 320.553 -1665 99 70 66
-140.224 321.286 -1669 86 61 55
-136.931 321.442 -1670 75 51 45
-133.955 322.369 -1675 70 46 40
-130.648 322.527 -1676 57 40 34
-127.49 323.071 -1679 47 30 28
-124.099 323.038 -1679 41 24 26
715.564 359.673 -1778 132 113 103
735.556 347.787 -1707 123 110 95
736.184 346.372 -1699 126 113 98
737.653 345.364 -1693 0 0 0
-207.703 318.368 -1667 56 44 38
-204.55 318.696 -1669 70 56 48
-200.907 318.261 -1667 82 62 49
-197.038 317.446 -1663 98 74 60
-193.303 316.823 -1660 121 96 81
-189.811 316.582 -1659 138 109 94
-186.325 316.342 -1658 143 114 99
-182.844 316.103 -1657 149 119 105
-179.585 316.247 -1658 155 119 107
-175.898 315.628 -1655 157 121 109
-172.538 315.583 -1655 155 120 108
-168.975 315.157 -1653 149 115 102
-166.023 315.876 -1657 141 107 94
-162.859 316.215 -1659 131 98 91
-159.977 317.126 -1664 127 94 87
-156.135 316.132 -1659 118 85 78
-152.868 316.282 -1660 109 78 72
-149.237 315.672 -1657 107 77 72
-146.147 316.205 -1660 100 72 68
-142.961 316.548 -1662 92 65 60
-140.188 317.845 -1669 77 53 45
-136.978 318.19 -1671 65 45 38
-134.16 319.487 -1678 59 39 32
-131.16 320.405 -1683 46 33 29
-128.14 321.323 -1688 38 25 24
-125.028 322.052 -1692 31 19 22
736.403 342.853 -1700 127 114 100
737.438 341.654 -1693 130 117 102
-205.599 316.948 -1678 64 47 41
-201.578 315.951 -1673 74 54 43
-197.58 314.955 -1668 89 67 56
-193.835 314.338 -1665 105 83 71
-189.762 313.156 -1659 120 93 80
-186.276 312.919 -1658 133 105 92
-182.686 312.494 -1656 142 113 98
-179.538 312.825 -1658 146 113 100
-175.428 311.459 -1651 145 111 98
-172.702 312.546 -1657 141 108 95
-169.238 312.313 -1656 130 98 85
-166.381 313.213 -1661 122 90 77
-163.112 313.359 -1662 116 85 77
-160.032 313.883 -1665 114 84 75
-156.471 313.465 -1663 105 77 67
-153.012 313.237 -1662 100 73 65
-149.108 312.068 -1656 98 72 64
-145.846 312.218 -1657 88 63 58
-142.666 312.558 -1659 78 56 49
-140.068 314.217 -1668 67 48 39
-137.106 315.124 -1673 55 38 33
-134.445 316.784 -1682 45 29 25
-131.749 318.445 -1691 33 25 22
-129.094 320.295 -1701 29 20 19
-126.399 322.145 -1711 30 20 21
-123.234 322.866 -1715 32 20 23
326.021 330.867 -1740 152 133 120
705.844 352.934 -1786 126 105 98
705.641 350.959 -1775 124 102 95
707.792 350.169 -1770 124 103 94
711.134 349.973 -1768 126 105 96
715.688 350.372 -1769 129 109 99
717.404 349.386 -1763 128 110 99
719.509 348.598 -1758 130 115 103
723.244 348.604 -1757 123 106 94
724.498 347.42 -1750 127 111 100
739.839 339.145 -1699 130 117 102
739.216 335.574 -1679 0 0 0
-202.49 313.992 -1681 67 48 38
-198.121 312.446 -1673 79 58 49
-193.786 310.902 -1665 88 67 58
-189.828 309.92 -1660 96 72 61
-186.229 309.499 -1658 108 84 71
-182.419 308.705 -1654 120 95 80
-179.276 309.032 -1656 124 94 83
-175.596 308.428 -1653 118 88 77
-172.554 308.943 -1656 111 83 71
-169.093 308.713 -1655 99 72 60
-166.438 309.976 -1662 92 64 53
-162.972 309.748 -1661 89 64 56
-160.184 310.825 -1667 92 67 59
-156.432 310.039 -1663 88 65 56
-153.249 310.373 -1665 84 63 55
-149.61 309.775 -1662 79 58 50
-146.16 309.551 -1661 71 51 45
-142.544 308.956 -1658 63 46 40
-139.696 310.038 -1664 50 37 29
-137.235 312.052 -1675 40 28 24
-134.89 314.439 -1688 37 25 22
-132.728 317.386 -1704 25 19 18
-130.427 320.146 -1719 22 15 14
-127.622 321.79 -1728 27 18 17
-124.28 322.13 -1730 43 30 33
-120.372 320.982 -1724 57 43 44
307.002 325.901 -1735 160 137 130
310.775 326.169 -1736 159 135 127
314.736 326.625 -1738 157 132 121
318.342 326.707 -1738 157 137 120
321.765 326.602 -1737 159 139 123
325.936 327.25 -1740 158 139 123
329.554 327.334 -1740 156 139 125
333.558 327.797 -1742 159 143 128
341.012 328.16 -1743 153 136 128
347.488 327.585 -1739 155 135 126
350.717 327.299 -1737 152 133 123
354.758 327.767 -1739 152 132 122
696.38 346.334 -1773 123 102 95
698.14 345.355 -1767 124 103 96
699.482 344.181 -1760 127 103 97
703.996 344.572 -1761 127 106 97
707.316 344.377 -1759 127 108 98
711.847 344.771 -1760 126 107 97
715.575 344.775 -1759 126 107 97
718.897 344.583 -1757 130 109 100
721.806 344.196 -1754 125 104 95
724.293 343.613 -1750 127 107 98
727.602 343.424 -1748 121 102 93
731.327 343.433 -1747 119 101 91
738.367 338.167 -1715 121 108 95
738.322 334.836 -1696 130 117 102
739.005 331.897 -1679 123 110 97
-208.311 314.271 -1701 51 33 25
-204.486 313.664 -1698 52 33 23
-199.373 311.028 -1684 56 36 29
-194.9 309.316 -1675 66 46 39
-190.466 307.605 -1666 80 59 50
-186.631 306.82 -1662 85 64 53
-182.813 306.035 -1658 93 71 59
-179.339 305.804 -1657 100 75 65
-175.87 305.575 -1656 94 69 60
-172.927 306.269 -1660 81 59 49
-169.663 306.411 -1661 70 48 39
-166.296 306.369 -1661 66 44 36
-163.029 306.512 -1662 70 51 44
-160.047 307.209 -1666 74 55 48
-156.486 306.8 -1664 71 55 47
-153.119 306.761 -1664 68 52 46
-149.662 306.539 -1663 64 47 42
-146.387 306.686 -1664 57 42 38
-143.024 306.65 -1664 50 37 33
-140.081 307.536 -1669 36 27 23
-138.102 310.633 -1686 26 18 17
-136.055 313.731 -1703 25 16 16
-133.707 316.276 -1717 20 14 13
-131.076 318.269 -1728 25 17 15
-128.255 319.894 -1737 38 28 25
-124.751 319.862 -1737 58 42 42
-121.179 319.648 -1736 64 47 47
46.6743 322.509 -1754 17 17 19
50.1958 322.521 -1754 17 17 19
53.7484 322.718 -1755 16 16 18
57.3704 323.283 -1758 13 12 19
61.0051 323.85 -1761 15 14 21
188.75 318.75 -1727 16 15 22
196.447 319.954 -1733 18 17 26
203.846 320.609 -1736 16 15 23
207.14 320.292 -1734 18 17 24
210.305 319.79 -1731 18 17 24
213.337 319.105 -1727 18 17 24
216.856 319.159 -1727 19 18 24
220.633 319.584 -1729 20 20 24
300.436 322.889 -1739 158 133 131
303.508 322.409 -1736 158 134 130
307.277 322.673 -1737 158 134 125
310.338 322.194 -1734 158 134 123
314.655 323.017 -1738 157 133 119
318.443 323.284 -1739 159 139 122
321.868 323.18 -1738 162 142 126
325.478 323.263 -1738 163 144 131
329.091 323.346 -1738 160 143 134
332.515 323.245 -1737 159 143 134
335.164 322.4 -1732 160 144 134
339.164 322.859 -1734 159 143 138
342.978 323.132 -1735 155 139 133
347.198 323.78 -1738 156 138 131
350.829 323.869 -1738 157 138 128
354.87 324.333 -1740 159 140 128
358.099 324.051 -1738 157 138 124
361.946 324.33 -1739 156 137 120
365.591 324.424 -1739 153 136 121
369.239 324.518 -1739 151 134 121
372.676 324.427 -1738 152 135 121
376.328 324.524 -1738 151 134 121
379.547 324.248 -1736 145 128 115
383.201 324.346 -1736 147 128 115
386.859 324.445 -1736 146 127 114
389.621 323.798 -1732 143 124 111
393.959 324.46 -1735 144 125 113
398.083 324.936 -1737 145 126 116
401.757 325.04 -1737 142 123 112
404.501 324.396 -1733 141 122 110
408.88 325.063 -1736 137 120 110
434.735 325.829 -1736 130 113 105
437.938 325.568 -1734 130 113 103
442.411 326.246 -1737 131 114 103
449.075 325.915 -1734 124 105 90
687.771 340.187 -1762 122 101 93
691.083 339.99 -1760 121 100 93
693.997 339.601 -1757 122 101 96
696.905 339.212 -1754 128 104 98
703.402 340.565 -1760 133 112 103
706.316 340.179 -1757 130 110 101
710.436 340.374 -1757 121 101 92
713.75 340.184 -1755 122 101 92
717.879 340.381 -1755 125 100 92
722.016 340.581 -1755 118 92 84
724.505 340.005 -1751 118 93 85
728.231 340.012 -1750 112 89 80
731.959 340.02 -1749 112 91 82
738.904 338.104 -1736 124 109 94
738.339 336.167 -1725 124 109 96
738.159 334.424 -1715 118 105 92
738.805 333.07 -1707 118 107 93
736.809 330.544 -1693 127 114 100
736.066 328.602 -1682 130 117 102
737.917 327.831 -1677 124 112 98
-209.973 313.322 -1715 58 39 27
-206.361 313.087 -1714 43 23 9
-201.572 311.027 -1703 43 25 15
-196.829 308.969 -1692 47 29 20
-192.475 307.46 -1684 62 45 37
-188.043 305.769 -1675 67 51 44
-184.421 305.358 -1673 69 54 47
-180.701 304.765 -1670 75 57 52
-176.887 303.991 -1666 71 53 48
-173.509 303.947 -1666 60 46 40
-170.029 303.722 -1665 51 36 31
-166.455 303.315 -1663 46 32 28
-163.184 303.457 -1664 51 38 35
-160.295 304.328 -1669 54 42 38
-157.105 304.654 -1671 51 41 37
-153.724 304.615 -1671 50 40 36
-150.435 304.76 -1672 48 37 34
-147.23 305.087 -1674 41 31 29
-144.191 305.78 -1678 34 25 24
-141.304 306.838 -1684 27 18 19
-139.132 309.536 -1699 22 14 15
-136.979 312.417 -1715 20 12 13
-134.297 314.205 -1725 24 16 16
-131.347 315.447 -1732 40 29 27
-128.37 316.689 -1739 57 43 40
-125.295 317.751 -1745 61 42 40
-121.777 317.72 -1745 67 48 46
-118.667 318.783 -1751 66 46 44
-13.1818 319.567 -1758 13 12 19
-9.6722 320.11 -1761 12 12 16
-6.14044 320.108 -1761 12 11 18
25.459 317.766 -1748 14 13 20
39.6228 318.889 -1754 14 14 18
43.1672 319.081 -1755 15 15 19
46.6361 318.729 -1753 16 16 20
50.1548 318.741 -1753 16 16 18
53.6431 318.572 -1752 13 13 15
57.2256 318.949 -1754 12 11 18
60.8168 319.328 -1756 15 14 21
64.3799 319.525 -1757 19 18 25
95.5059 317.52 -1745 23 22 29
98.733 316.634 -1740 16 15 22
151.619 317.646 -1743 19 18 26
155.143 317.684 -1743 15 14 21
158.667 317.723 -1743 14 13 20
161.914 317.216 -1740 14 13 20
165.34 317.074 -1739 17 16 23
168.861 317.116 -1739 19 18 26
172.382 317.158 -1739 19 18 25
175.4 316.289 -1734 16 15 22
178.708 315.969 -1732 16 15 22
182.326 316.196 -1733 16 15 22
185.52 315.694 -1730 15 14 21
189.249 316.106 -1732 15 14 21
192.766 316.153 -1732 15 14 23
196.511 316.567 -1734 15 14 24
199.804 316.251 -1732 15 14 24
203.443 316.484 -1733 16 15 23
206.969 316.535 -1733 18 17 24
210.374 316.405 -1732 18 17 24
213.654 316.092 -1730 18 18 23
217.053 315.963 -1729 19 19 23
220.45 315.835 -1728 19 19 23
224.363 316.439 -1731 17 17 21
227.895 316.495 -1731 14 14 18
231.696 316.919 -1733 32 32 30
235.508 317.343 -1735 109 105 103
263.934 317.843 -1735 150 129 118
293.683 319.687 -1742 149 125 120
296.938 319.394 -1740 152 128 125
299.842 318.735 -1736 158 134 132
303.78 319.178 -1738 159 135 131
306.845 318.704 -1735 161 139 128
309.901 318.231 -1732 158 135 123
313.671 318.493 -1733 157 134 119
317.813 319.124 -1736 158 138 122
321.045 318.837 -1734 163 143 128
324.459 318.735 -1733 164 145 133
327.871 318.634 -1732 164 146 142
331.665 318.901 -1733 162 144 140
335.272 318.985 -1733 163 145 141
338.491 318.703 -1731 161 145 142
343.088 319.71 -1736 160 144 140
346.91 319.981 -1737 163 146 140
349.73 319.333 -1733 163 144 134
353.556 319.606 -1734 163 144 131
356.977 319.512 -1733 161 142 126
360.814 319.788 -1734 161 143 121
364.237 319.695 -1733 159 142 123
368.72 320.527 -1737 157 141 124
372.366 320.621 -1737 155 138 124
375.583 320.347 -1735 157 140 129
380.105 321.182 -1739 153 136 125
383.545 321.095 -1738 156 137 127
387.651 321.562 -1740 153 134 122
390.646 321.107 -1737 151 132 119
394.539 321.392 -1738 151 132 120
398.668 321.864 -1740 149 130 118
403.041 322.521 -1743 148 128 117
405.33 321.514 -1737 148 128 116
409.716 322.174 -1740 146 127 117
412.694 321.724 -1737 143 123 116
417.34 322.571 -1741 143 123 117
420.797 322.494 -1740 146 125 116
425.23 323.158 -1743 142 123 118
428.449 322.897 -1741 139 121 116
431.167 322.266 -1737 138 121 115
435.624 322.934 -1740 138 120 112
439.592 323.232 -1741 135 118 107
443.569 323.531 -1742 136 118 105
446.527 323.089 -1739 139 122 107
451.289 323.948 -1743 134 115 99
453.983 323.321 -1739 131 112 96
457.98 323.625 -1740 130 111 94
461.985 323.93 -1741 129 110 96
467.069 324.98 -1746 125 106 96
470.291 324.73 -1744 130 110 103
474.596 325.224 -1746 132 112 107
478.64 325.534 -1747 129 109 106
482.417 325.659 -1747 127 108 102
487.032 326.344 -1750 125 106 96
490.543 326.284 -1749 133 111 98
494.903 326.786 -1751 137 117 106
498.136 326.542 -1749 134 115 105
501.365 326.298 -1747 139 119 109
505.167 326.429 -1747 143 121 110
508.101 326.001 -1744 140 118 109
511.026 325.573 -1741 138 117 108
514.534 325.52 -1740 135 114 103
517.149 324.906 -1736 131 109 98
521.252 325.229 -1737 127 107 95
524.456 324.992 -1735 130 110 98
528.266 325.129 -1735 139 120 110
532.388 325.456 -1736 142 123 111
535.9 325.409 -1735 139 121 109
538.792 324.987 -1732 136 119 107
543.554 325.692 -1735 130 113 101
546.758 325.46 -1733 123 106 91
571.585 323.255 -1715 113 94 78
576.093 323.784 -1717 112 94 79
580.616 324.315 -1719 119 101 87
585.153 324.847 -1721 125 102 87
587.65 324.248 -1717 129 106 91
591.169 324.216 -1716 133 111 97
594.689 324.184 -1715 133 111 98
599.258 324.722 -1717 130 109 95
605.245 326.017 -1723 124 103 91
647.62 331.131 -1742 123 99 86
653.488 332.257 -1747 122 98 83
675.17 333.916 -1751 134 107 99
678.839 333.908 -1750 132 107 99
685.242 335.238 -1756 129 105 97
688.539 335.043 -1754 128 105 95
694.202 335.995 -1758 128 106 97
696.714 335.419 -1754 138 111 104
702.01 336.184 -1757 140 112 104
705.318 335.993 -1755 128 102 93
709.433 336.186 -1755 114 89 80
713.96 336.571 -1756 107 82 73
718.091 336.767 -1756 109 82 74
723.051 337.348 -1758 104 78 70
725.133 336.587 -1753 103 77 70
728.862 336.594 -1752 99 74 67
730.502 335.641 -1746 90 67 59
733.804 335.458 -1744 103 86 77
736.997 333.553 -1732 114 99 84
735.995 331.444 -1720 122 107 93
737.094 330.298 -1713 120 106 93
738.167 329.152 -1706 114 103 89
738.344 327.619 -1697 124 111 98
738.485 326.085 -1688 126 113 98
739.911 325.131 -1682 118 108 92
740.873 323.983 -1675 0 0 0
-213.289 309.66 -1714 128 109 94
-211.39 311.957 -1727 92 73 58
-207.755 311.724 -1726 56 36 19
-203.179 310.048 -1717 43 25 14
-198.641 308.374 -1708 37 19 9
-194.599 307.423 -1703 42 28 21
-189.568 304.849 -1689 45 34 29
-185.478 303.72 -1683 44 36 32
-181.63 302.953 -1679 46 35 34
-177.693 302.006 -1674 44 33 33
-173.882 301.242 -1670 40 31 30
-170.6 301.38 -1671 36 27 27
-166.714 300.436 -1666 33 24 24
-163.634 300.937 -1669 32 23 23
-160.448 301.258 -1671 34 26 25
-157.442 301.94 -1675 32 25 25
-154.054 301.902 -1675 31 25 24
-151.117 302.765 -1680 30 24 23
-147.986 303.269 -1683 25 20 21
-145.358 304.855 -1692 22 16 18
-142.78 306.621 -1702 22 13 18
-140.571 309.289 -1717 23 14 16
-137.984 311.236 -1728 27 19 20
-134.808 311.923 -1732 40 30 29
-131.694 312.791 -1737 55 40 39
-128.486 313.479 -1741 64 46 43
-125.407 314.528 -1747 67 46 41
-122.026 314.858 -1749 65 44 39
-119.045 316.269 -1757 67 47 44
-115.966 317.5 -1764 62 45 41
-112.796 318.552 -1770 58 42 37
-20.1602 314.895 -1752 13 12 20
-16.6469 314.89 -1752 14 13 21
-13.1336 314.887 -1752 14 13 20
-9.6315 315.243 -1754 13 13 17
-6.11439 315.241 -1754 14 14 20
-2.59607 315.06 -1753 13 12 19
0.917919 314.701 -1751 14 13 20
4.42895 314.702 -1751 15 14 22
7.9262 314.164 -1748 14 13 21
11.4182 313.807 -1746 16 15 22
14.9023 313.451 -1744 14 13 20
18.4311 313.994 -1747 16 15 23
21.9597 314.358 -1749 17 16 22
25.4091 313.645 -1745 13 13 18
28.9586 314.191 -1748 13 12 18
32.4832 314.378 -1749 13 13 17
36.0121 314.566 -1750 13 13 16
39.5227 314.576 -1750 14 14 18
43.0828 314.945 -1752 16 16 20
46.5981 314.956 -1752 17 17 21
50.1138 314.968 -1752 16 16 20
53.6298 314.981 -1752 15 15 18
57.1791 315.174 -1753 13 12 18
60.7326 315.368 -1754 17 16 22
64.3641 315.923 -1757 20 19 25
67.8148 315.579 -1755 19 19 23
71.4613 316.136 -1758 17 17 21
74.9073 315.794 -1756 17 17 20
78.4351 315.813 -1756 19 18 23
88.769 314.975 -1751 19 18 24
92.1842 314.637 -1749 20 19 26
95.5918 314.3 -1747 20 19 26
98.9356 313.784 -1744 15 14 20
102.386 313.629 -1743 13 13 17
105.65 312.935 -1739 15 15 19
108.837 312.061 -1734 18 18 22
112.587 312.808 -1738 18 18 22
116.288 313.376 -1741 11 11 15
119.933 313.765 -1743 14 14 18
123.445 313.795 -1743 16 15 21
127.104 314.186 -1745 16 15 21
130.547 314.037 -1744 17 17 21
133.988 313.89 -1743 20 20 24
137.662 314.283 -1745 16 16 21
141.103 314.137 -1744 17 16 23
144.707 314.352 -1745 19 18 25
148.316 314.568 -1746 19 18 25
151.669 314.245 -1744 19 18 25
154.926 313.742 -1741 19 18 25
158.355 313.6 -1740 16 15 22
161.874 313.639 -1740 14 13 20
165.204 313.319 -1738 15 14 21
168.528 312.999 -1736 16 15 22
172.043 313.041 -1736 17 16 23
175.357 312.723 -1734 15 14 21
178.664 312.406 -1732 14 13 20
182.07 312.27 -1731 13 12 19
185.581 312.315 -1731 14 13 20
188.984 312.181 -1730 16 15 22
192.384 312.047 -1729 14 13 22
196.122 312.456 -1731 13 12 22
199.524 312.324 -1730 14 13 23
203.158 312.555 -1731 14 13 22
206.559 312.424 -1730 16 15 22
210.322 312.837 -1732 17 16 21
213.231 311.986 -1727 18 18 22
216.748 312.039 -1727 19 19 23
220.267 312.093 -1727 18 18 22
224.177 312.69 -1730 18 18 22
227.838 312.927 -1731 15 15 19
231.505 313.164 -1732 38 36 32
235.042 313.222 -1732 134 129 125
238.994 313.823 -1735 164 148 148
242.401 313.702 -1734 167 148 145
245.949 313.762 -1734 171 151 147
249.786 314.185 -1736 169 146 140
253.195 314.067 -1735 167 146 140
255.863 313.043 -1729 166 145 138
259.408 313.107 -1729 163 143 125
262.803 312.991 -1728 157 136 122
266.813 313.6 -1731 154 133 120
270.057 313.304 -1729 157 136 124
273.611 313.372 -1729 157 136 131
277.168 313.44 -1729 155 134 131
284.288 313.58 -1729 156 133 132
288.352 314.195 -1732 154 131 129
292.766 315.174 -1737 153 130 127
296.01 314.885 -1735 152 131 127
299.766 315.14 -1736 155 134 131
303.18 315.034 -1735 154 133 128
306.415 314.747 -1733 156 136 124
309.644 314.46 -1731 156 135 122
313.23 314.538 -1731 156 136 119
317.184 314.98 -1733 159 139 123
320.594 314.878 -1732 160 140 125
324.377 315.14 -1733 160 141 131
327.789 315.04 -1732 165 147 144
331.007 314.758 -1730 165 147 145
334.414 314.66 -1729 163 145 145
338.211 314.926 -1730 163 146 144
341.816 315.011 -1730 162 146 142
346.024 315.644 -1733 164 147 141
349.239 315.366 -1731 164 147 135
353.263 315.819 -1733 164 146 132
356.887 315.908 -1733 164 145 129
360.514 315.998 -1733 163 145 123
363.935 315.907 -1732 158 141 123
367.99 316.364 -1734 156 139 124
372.272 317.004 -1737 157 140 130
376.137 317.281 -1738 157 140 132
379.572 317.193 -1737 154 137 129
383.889 317.838 -1740 153 134 124
387.553 317.935 -1740 150 131 121
390.996 317.85 -1739 148 129 118
394.892 318.132 -1740 148 129 118
398.567 318.233 -1740 151 132 120
402.245 318.334 -1740 150 130 119
405.694 318.253 -1739 148 127 116
409.848 318.722 -1741 148 129 119
413.301 318.644 -1740 149 129 121
417.473 319.115 -1742 151 131 123
420.448 318.672 -1739 151 132 122
424.878 319.329 -1742 146 129 122
428.34 319.254 -1741 142 125 118
431.305 318.813 -1738 141 124 118
435.512 319.29 -1740 144 124 116
439.732 319.768 -1742 142 122 111
443.201 319.697 -1741 137 118 104
447.183 319.994 -1742 140 121 105
451.173 320.293 -1743 137 118 102
453.866 319.673 -1739 138 119 102
458.389 320.341 -1742 137 118 101
461.601 320.091 -1740 136 117 103
466.414 320.945 -1744 131 111 100
470.17 321.065 -1744 131 111 102
474.746 321.738 -1747 133 113 108
478.791 322.045 -1748 134 114 110
483.396 322.721 -1751 133 114 108
487.741 323.214 -1753 131 112 102
491.819 323.524 -1754 133 109 97
495.34 323.467 -1753 135 113 103
499.146 323.595 -1753 138 117 109
502.095 323.17 -1750 144 123 114
505.326 322.93 -1748 146 122 110
508.552 322.691 -1746 146 123 113
512.067 322.638 -1745 142 121 112
514.992 322.216 -1742 140 118 107
518.802 322.349 -1742 141 119 108
522.016 322.114 -1740 137 116 104
525.529 322.064 -1739 137 116 105
529.346 322.2 -1739 139 118 108
533.475 322.524 -1740 144 123 112
536.687 322.292 -1738 143 123 111
