ply
format ascii 1.0
comment Created by Open3D
element vertex 1459
property double x
property double y
property double z
property uchar red
property uchar green
property uchar blue
end_header
-113.804 -503.221 -1419 44 43 51
-110.854 -503.165 -1419 46 45 52
-107.829 -502.756 -1418 48 47 54
-104.513 -500.931 -1413 53 52 59
-101.434 -500.171 -1411 58 57 64
-98.295 -499.058 -1408 55 54 60
-95.3723 -499.01 -1408 58 55 60
-92.3848 -498.609 -1407 61 58 63
-89.5295 -498.918 -1408 54 51 56
-86.4247 -497.812 -1405 47 44 49
-83.1548 -495.644 -1399 46 43 48
-80.14 -494.895 -1397 46 43 48
-77.1894 -494.502 -1396 40 39 46
-74.2437 -494.11 -1395 41 40 47
-71.3027 -493.72 -1394 42 41 48
-68.5629 -494.748 -1397 46 45 52
-65.5761 -494.007 -1395 45 44 52
-62.778 -494.683 -1397 43 42 50
-59.9292 -495.007 -1398 42 41 49
-57.1585 -496.04 -1401 43 42 50
-54.4145 -497.429 -1405 42 41 49
-51.6544 -498.819 -1409 38 37 45
-48.8437 -499.856 -1412 36 35 43
-45.9234 -499.832 -1412 37 36 44
-43.0035 -499.81 -1412 36 35 43
-40.1692 -500.852 -1415 35 34 42
-37.2701 -501.187 -1416 37 36 44
-34.4885 -503.293 -1422 37 36 44
-31.5936 -503.984 -1424 38 37 45
-28.7914 -506.447 -1431 34 33 43
-25.8882 -507.495 -1434 33 32 41
-22.893 -506.775 -1432 36 35 43
-20.0036 -508.534 -1437 37 36 44
-17.0345 -508.525 -1437 34 33 41
-14.095 -509.579 -1440 35 34 41
-11.1585 -511.342 -1445 38 37 45
-8.2185 -514.168 -1453 36 35 43
-5.24193 -516.642 -1460 36 35 43
-2.24563 -521.24 -1473 39 38 48
0.813762 -531.856 -1503 43 42 52
-190.157 -530.673 -1482 75 72 77
-184.393 -523.059 -1461 66 63 68
-179.712 -518.314 -1448 59 58 62
-175.941 -516.077 -1442 57 57 61
-172.077 -513.485 -1435 52 52 56
-168.715 -512.326 -1432 49 49 52
-165.599 -511.885 -1431 48 48 50
-162.374 -511.087 -1429 47 47 51
-159.383 -511.006 -1429 47 47 51
-156.502 -511.285 -1430 48 48 50
-153.404 -510.85 -1429 45 45 47
-150.206 -510.059 -1427 46 46 49
-147.224 -509.984 -1427 49 48 55
-143.738 -508.125 -1422 47 46 56
-140.967 -508.768 -1424 48 47 56
-137.801 -507.984 -1422 47 46 53
-134.93 -508.273 -1423 47 46 53
-131.777 -507.492 -1421 47 46 53
-128.724 -507.069 -1420 47 46 54
-125.765 -507.006 -1420 47 46 54
-122.721 -506.587 -1419 49 48 55
-120.02 -507.597 -1422 45 44 51
-117.06 -507.538 -1422 43 42 49
-114.101 -507.48 -1422 43 42 49
-110.987 -506.71 -1420 44 43 50
-108.034 -506.655 -1420 47 46 53
-104.935 -505.889 -1418 51 50 57
-101.628 -504.054 -1413 56 55 62
-98.4835 -502.934 -1410 55 54 61
-95.4875 -502.529 -1409 61 58 63
-92.4964 -502.125 -1408 61 58 63
-89.7012 -502.793 -1410 52 49 54
-86.6522 -502.036 -1408 47 44 48
-83.434 -500.211 -1403 47 44 49
-80.352 -499.1 -1400 46 43 48
-77.3384 -498.348 -1398 39 38 45
-74.2806 -497.241 -1395 42 41 48
-71.287 -496.492 -1393 44 43 50
-68.4986 -497.17 -1395 46 45 52
-65.6086 -497.136 -1395 43 42 50
-62.8091 -497.817 -1397 41 40 48
-59.9589 -498.143 -1398 41 40 48
-57.146 -498.827 -1400 43 42 50
-54.4027 -500.224 -1404 43 42 50
-51.68 -501.979 -1409 40 39 47
-48.7987 -502.31 -1410 38 37 45
-45.9788 -503.355 -1413 40 39 47
-43.0553 -503.333 -1413 37 36 44
-40.2459 -504.737 -1417 35 34 42
-37.3676 -505.43 -1419 37 36 44
-34.5541 -507.193 -1424 36 35 43
-31.698 -508.602 -1428 35 34 42
-28.8459 -510.367 -1433 35 34 44
-25.9372 -511.422 -1436 33 32 42
-22.9843 -511.766 -1437 35 34 42
-20.0413 -512.468 -1439 36 35 43
-17.0904 -513.171 -1441 33 32 40
-14.1509 -514.588 -1445 33 32 39
-11.1872 -515.65 -1448 37 36 44
-8.22257 -517.425 -1453 38 37 45
-5.23717 -519.203 -1458 37 36 44
-2.25725 -527.035 -1480 39 38 47
0.817936 -537.718 -1510 44 43 53
-185.244 -528.521 -1467 69 67 73
-180.424 -523.386 -1453 58 57 62
-176.396 -520.414 -1445 54 54 58
-172.524 -517.805 -1438 54 54 58
-169.154 -516.638 -1435 53 53 56
-165.682 -515.114 -1431 50 50 52
-162.683 -515.031 -1431 48 48 52
-159.575 -514.59 -1430 49 49 52
-156.362 -513.79 -1428 51 51 53
-153.374 -513.712 -1428 48 48 50
-150.281 -513.276 -1427 44 44 47
-146.885 -511.762 -1423 46 45 52
-143.81 -511.33 -1422 46 45 55
-141.137 -512.337 -1425 47 46 56
-137.871 -511.188 -1422 47 46 53
-134.808 -510.76 -1421 47 46 53
-131.75 -510.333 -1420 48 47 54
-128.607 -509.549 -1418 48 47 55
-125.474 -508.766 -1416 47 46 53
-122.61 -509.063 -1417 47 46 53
-119.742 -509.361 -1418 42 41 48
-117.119 -510.739 -1422 41 40 47
-113.998 -509.962 -1420 42 41 48
-110.964 -509.547 -1419 45 44 51
-108.012 -509.492 -1419 49 48 55
-104.913 -508.72 -1417 53 52 59
-101.535 -506.514 -1411 54 53 60
-98.8123 -507.541 -1414 56 55 61
-95.6708 -506.415 -1411 61 58 63
-92.6741 -506.009 -1410 59 56 61
-89.746 -505.963 -1410 52 49 54
-86.634 -504.843 -1407 50 47 50
-83.4757 -503.365 -1403 51 48 52
-80.2773 -501.53 -1398 46 43 48
-77.2663 -500.773 -1396 38 37 44
-74.3709 -500.735 -1396 43 42 49
-71.4762 -500.698 -1396 45 44 51
-68.5329 -500.305 -1395 45 44 51
-65.6885 -500.63 -1396 43 42 49
-62.8405 -500.956 -1397 40 39 47
-59.9459 -500.925 -1397 39 38 46
-57.1745 -501.972 -1400 42 41 49
-54.4299 -503.378 -1404 42 41 49
-51.6324 -504.427 -1407 40 39 47
-48.823 -505.477 -1410 38 37 45
-45.9691 -506.17 -1412 38 37 45
-43.1073 -506.865 -1414 36 35 43
-40.2375 -507.561 -1416 33 32 40
-37.3335 -507.9 -1417 31 30 38
-34.5228 -509.674 -1422 31 30 38
-31.7139 -511.808 -1428 31 30 38
-28.7999 -512.51 -1430 31 30 39
-25.9321 -514.288 -1435 32 31 39
-22.9797 -514.634 -1436 34 33 41
-20.0932 -516.774 -1442 35 34 42
-17.1227 -517.123 -1443 35 34 42
-14.1873 -518.907 -1448 34 33 41
-11.2005 -519.259 -1449 36 35 43
-8.22667 -520.688 -1453 39 38 46
-5.26853 -525.343 -1466 38 37 45
-2.25838 -530.358 -1480 39 38 48
-185.338 -531.84 -1467 69 68 75
-180.764 -527.397 -1455 59 58 63
-176.73 -524.406 -1447 56 56 60
-172.731 -521.419 -1439 56 56 60
-169.122 -519.52 -1434 54 54 57
-165.187 -516.537 -1426 49 49 51
-162.766 -518.265 -1431 49 49 53
-159.432 -517.096 -1428 52 52 56
-156.331 -516.654 -1427 52 52 55
-153.344 -516.576 -1427 50 50 53
-150.252 -516.136 -1426 46 46 50
-147.063 -515.337 -1424 47 46 53
-144.085 -515.263 -1424 47 46 55
-141.307 -515.914 -1426 48 47 56
-138.134 -515.12 -1424 46 45 52
-134.971 -514.328 -1422 42 41 48
-131.817 -513.537 -1420 43 42 49
-128.763 -513.109 -1419 45 44 52
-125.715 -512.683 -1418 45 45 51
-122.931 -513.343 -1420 45 44 50
-119.971 -513.282 -1420 42 41 48
-117.095 -513.583 -1421 41 40 47
-114.055 -513.163 -1420 42 41 48
-111.177 -513.467 -1421 46 45 52
-108.219 -513.412 -1421 50 49 56
-104.966 -511.913 -1417 53 52 59
-101.874 -511.138 -1415 55 54 61
-98.7922 -510.365 -1413 57 56 62
-95.8548 -510.316 -1413 60 57 62
-92.7209 -509.185 -1410 59 56 61
-89.6639 -508.416 -1408 57 54 59
-86.6776 -508.011 -1407 55 52 55
-83.6367 -507.246 -1405 52 49 53
-80.49 -505.76 -1401 45 42 47
-77.4713 -504.998 -1399 37 36 43
-74.4616 -504.238 -1397 44 43 50
-71.5634 -504.201 -1397 46 45 52
-68.5674 -503.444 -1395 45 44 51
-65.6744 -503.41 -1395 41 40 47
-62.872 -504.1 -1397 37 36 44
-60.1049 -505.151 -1400 38 37 45
-57.285 -505.843 -1402 42 41 49
-54.4572 -506.536 -1404 43 42 50
-51.6583 -507.592 -1407 40 39 47
-48.8129 -508.288 -1409 40 39 47
-45.9922 -509.346 -1412 38 37 45
-43.1899 -510.767 -1416 35 34 42
-40.3146 -511.467 -1418 34 33 41
-37.4577 -512.53 -1421 32 31 39
-34.5887 -513.593 -1424 29 28 36
-31.7298 -515.019 -1428 28 27 35
-28.7942 -515.365 -1429 31 30 38
-25.9089 -516.794 -1433 34 33 41
-23.0073 -518.224 -1437 35 34 42
-20.1311 -520.738 -1444 36 35 43
-17.1787 -521.81 -1447 37 36 44
-14.214 -522.884 -1450 37 36 44
-11.2215 -523.238 -1451 37 36 44
-8.25911 -525.758 -1458 38 37 45
-5.27118 -528.639 -1466 36 35 43
-186.191 -537.353 -1473 68 67 74
-181.229 -531.787 -1458 58 58 63
-176.82 -527.684 -1447 55 55 59
-172.94 -525.042 -1440 55 55 59
-169.09 -522.402 -1433 52 52 55
-165.387 -520.129 -1427 48 48 50
-162.394 -520.045 -1427 48 48 52
-159.178 -519.234 -1425 48 47 52
-156.192 -519.154 -1425 47 47 52
-153.207 -519.075 -1425 48 48 52
-150.118 -518.633 -1424 49 48 53
-147.138 -518.557 -1424 49 48 55
-144.159 -518.483 -1424 48 47 55
-141.28 -518.774 -1425 47 46 54
-138.205 -518.338 -1424 45 44 51
-134.849 -516.813 -1420 42 41 48
-131.791 -516.381 -1419 40 39 46
-128.647 -515.587 -1417 41 40 47
-125.601 -515.158 -1416 44 43 49
-122.82 -515.822 -1418 43 42 48
-119.779 -515.397 -1417 42 41 48
-116.99 -516.064 -1419 40 39 46
-113.872 -515.278 -1417 42 41 48
-110.92 -515.22 -1417 50 49 56
-107.817 -514.438 -1415 54 53 60
-104.945 -514.747 -1416 55 54 61
-101.71 -513.24 -1412 57 55 61
-98.7723 -513.189 -1412 58 56 62
-95.8354 -513.14 -1412 63 60 65
-92.5046 -510.912 -1406 62 59 64
-89.5819 -510.865 -1406 60 57 62
-86.4134 -509.367 -1402 55 52 56
-83.3813 -508.597 -1400 52 49 53
-80.3583 -507.829 -1398 46 43 48
-77.4551 -507.789 -1398 39 38 45
-74.446 -507.024 -1396 46 45 52
-71.5484 -506.987 -1396 48 47 54
-68.6513 -506.951 -1396 46 44 51
-65.7548 -506.917 -1396 41 39 46
-62.9939 -507.974 -1399 36 35 43
-60.0064 -507.217 -1397 37 36 44
-57.1913 -507.913 -1399 44 43 51
-54.3684 -508.611 -1401 45 44 52
-51.5743 -509.673 -1404 40 39 47
-48.7336 -510.373 -1406 37 36 44
-45.9828 -512.164 -1411 37 36 46
-43.1507 -513.231 -1414 34 33 41
-40.3065 -514.298 -1417 33 32 40
-37.4503 -515.368 -1420 33 32 40
-34.5576 -516.075 -1422 32 31 39
-31.7014 -517.51 -1426 32 31 39
-28.7482 -517.494 -1426 31 30 38
-25.9039 -519.658 -1432 34 33 41
-23.0189 -521.46 -1437 37 36 44
-20.1273 -523.627 -1443 36 35 43
-17.1873 -525.069 -1447 36 35 43
-14.2506 -527.238 -1453 37 36 44
-11.2813 -529.046 -1458 40 39 47
-8.28008 -530.129 -1461 39 38 46
-5.28103 -532.666 -1468 39 38 46
-186.287 -540.695 -1473 68 66 70
-181.073 -534.361 -1456 59 58 61
-176.789 -530.599 -1446 54 54 56
-172.788 -527.574 -1438 55 55 57
-169.059 -525.284 -1432 51 51 53
-165.704 -524.098 -1429 50 50 52
-162.363 -522.913 -1426 48 48 52
-159.26 -522.464 -1425 46 46 51
-156.162 -522.016 -1424 47 46 53
-153.285 -522.303 -1425 45 45 50
-150.3 -522.225 -1425 47 47 52
-147.316 -522.148 -1425 48 47 54
-144.334 -522.073 -1425 46 45 54
-141.551 -522.733 -1427 44 43 53
-138.275 -521.562 -1424 43 42 49
-135.203 -521.125 -1423 44 43 50
-132.044 -520.324 -1421 45 44 51
-128.804 -519.159 -1418 44 43 50
-125.665 -518.361 -1416 46 45 52
-122.71 -518.298 -1416 45 44 51
-119.84 -518.601 -1417 42 41 48
-116.967 -518.906 -1418 39 38 45
-113.93 -518.481 -1417 41 40 47
-110.977 -518.424 -1417 50 49 56
-108.177 -519.099 -1419 55 54 61
-105.147 -518.679 -1418 55 54 61
-102.05 -517.894 -1416 55 52 58
-99.0327 -517.477 -1415 56 53 59
-95.9523 -516.696 -1413 60 57 62
-92.7494 -515.185 -1409 60 57 62
-89.8188 -515.138 -1409 59 56 61
-86.6424 -513.63 -1405 55 52 56
-83.4835 -512.125 -1401 53 50 54
-80.4568 -511.352 -1399 49 46 51
-77.6055 -511.677 -1400 43 42 49
-74.5906 -510.907 -1398 46 45 52
-71.6873 -510.869 -1398 48 47 54
-68.6862 -510.103 -1396 46 44 52
-65.9768 -511.53 -1400 41 39 47
-63.026 -511.131 -1399 40 39 46
-60.1659 -511.465 -1400 42 41 49
-57.3841 -512.531 -1403 46 45 53
-54.5514 -513.233 -1405 46 45 53
-51.6741 -513.571 -1406 40 39 47
-48.7238 -513.181 -1405 35 34 42
-45.9736 -514.983 -1410 37 36 46
-43.1727 -516.421 -1414 34 33 42
-40.327 -517.495 -1417 34 33 41
-37.4957 -518.936 -1421 34 33 41
-34.6238 -520.013 -1424 31 30 38
-31.6953 -520.361 -1425 30 29 37
-28.8032 -521.441 -1428 32 31 39
-25.8989 -522.523 -1431 35 34 42
-23.0306 -524.701 -1437 36 35 43
-20.1097 -526.151 -1441 36 35 43
-17.1961 -528.332 -1447 36 35 43
-14.2284 -529.419 -1450 35 34 42
-11.2561 -530.873 -1454 36 35 43
-8.26743 -532.329 -1458 36 35 43
-5.2909 -536.707 -1470 41 40 48
-186.889 -545.521 -1477 72 69 72
-181.54 -538.777 -1459 60 59 61
-176.758 -533.515 -1445 52 52 54
-172.878 -530.84 -1438 54 54 56
-169.028 -528.167 -1431 53 53 55
-165.906 -527.712 -1430 52 52 54
-162.219 -525.412 -1424 47 47 51
-159.342 -525.698 -1425 48 48 52
-156.133 -524.879 -1423 48 48 53
-153.257 -525.167 -1424 46 46 50
-150.167 -524.72 -1423 48 48 52
-147.289 -525.012 -1424 48 47 55
-144.307 -524.936 -1424 46 45 54
-141.425 -525.231 -1425 46 45 54
-138.249 -524.421 -1423 46 45 52
-135.083 -523.614 -1421 47 46 53
-131.926 -522.808 -1419 49 48 55
-128.597 -521.267 -1415 48 47 54
-125.552 -520.833 -1414 47 46 53
-122.6 -520.769 -1414 44 43 50
-119.563 -520.338 -1413 42 41 48
-116.697 -520.645 -1414 40 39 45
-113.828 -520.954 -1415 41 40 45
-110.956 -521.264 -1416 49 48 56
-108.08 -521.575 -1417 53 52 60
-105.053 -521.152 -1416 54 53 61
-102.103 -521.099 -1416 56 54 61
-99.0136 -520.311 -1414 59 56 62
-96.0016 -519.893 -1413 61 58 63
-92.797 -518.373 -1409 60 57 62
-89.7374 -517.59 -1407 56 53 58
-86.5635 -516.073 -1403 56 53 56
-83.5264 -515.293 -1401 54 51 55
-80.4982 -514.516 -1399 49 46 51
-77.5899 -514.475 -1399 43 42 49
-74.6823 -514.436 -1399 47 46 53
-71.8781 -515.133 -1401 49 48 55
-69.0168 -515.465 -1402 45 44 52
-66.0577 -515.062 -1401 41 40 48
-63.1485 -515.029 -1401 42 41 48
-60.2398 -514.997 -1401 44 43 51
-57.3725 -515.335 -1402 45 44 52
-54.4239 -514.938 -1401 45 44 52
-51.6271 -516.014 -1404 42 41 49
-48.7487 -516.355 -1405 35 34 42
-45.9646 -517.801 -1409 34 33 43
-43.1337 -518.881 -1412 34 33 41
-40.3761 -521.064 -1418 35 34 42
-37.4621 -521.411 -1419 36 35 43
-34.6415 -523.23 -1424 32 31 39
-31.7337 -523.948 -1426 30 29 37
-28.7978 -524.3 -1427 33 32 40
-25.876 -525.021 -1429 35 34 42
-23.0423 -527.947 -1437 37 36 44
-20.0641 -527.936 -1437 38 37 45
-17.1692 -530.498 -1444 36 35 43
-14.216 -531.96 -1448 34 33 41
-11.2695 -534.525 -1455 35 34 42
-8.28297 -536.357 -1460 34 33 41
-5.29719 -540.394 -1471 37 36 44
-181.012 -540.24 -1454 63 61 64
-176.728 -536.431 -1444 55 55 57
-172.727 -533.368 -1436 55 55 57
-169.234 -531.793 -1432 56 56 58
-165.876 -530.592 -1429 51 51 53
-162.645 -529.764 -1427 46 46 49
-159.537 -529.308 -1426 48 48 52
-156.214 -528.113 -1423 48 48 52
-153.337 -528.403 -1424 47 46 52
-150.139 -527.582 -1422 47 46 52
-147.158 -527.504 -1422 47 46 54
-144.179 -527.428 -1422 47 46 54
-141.399 -528.096 -1424 46 45 53
-138.224 -527.281 -1422 46 45 52
-135.153 -526.84 -1421 48 47 54
-132.088 -526.399 -1420 49 48 55
-128.846 -525.219 -1417 47 46 53
-125.706 -524.412 -1415 45 44 51
-122.75 -524.347 -1415 42 41 48
-119.625 -523.543 -1413 41 40 47
-116.84 -524.223 -1415 40 39 46
-114.048 -524.904 -1417 40 39 45
-111.091 -524.845 -1417 48 47 54
-108.136 -524.788 -1417 53 52 60
-105.033 -523.992 -1415 56 55 63
-102.156 -524.309 -1416 59 57 64
-99.1349 -523.886 -1415 60 57 64
-96.1192 -523.465 -1414 61 58 63
-93.0427 -522.676 -1412 59 56 61
-90.0391 -522.258 -1411 53 50 55
-86.917 -521.102 -1408 52 49 53
-83.6888 -519.207 -1403 52 50 54
-80.77 -519.164 -1403 47 47 51
-77.6855 -518.013 -1400 47 46 53
-74.7743 -517.974 -1400 52 51 58
-72.0178 -519.046 -1403 53 52 59
-68.954 -517.899 -1400 46 45 53
-66.0447 -517.864 -1400 43 42 50
-63.0909 -517.461 -1399 46 45 52
-60.2279 -517.799 -1400 46 45 53
-57.3612 -518.138 -1401 44 43 51
-54.5297 -518.849 -1403 43 42 50
-51.6536 -519.191 -1404 43 42 50
-48.8086 -519.905 -1406 38 37 45
-45.9883 -520.99 -1409 35 34 44
-43.1253 -521.706 -1411 34 33 42
-40.3115 -523.164 -1415 34 33 41
-37.5078 -524.992 -1420 35 34 42
-34.6836 -526.822 -1425 36 35 43
-31.75 -527.174 -1426 36 35 43
-28.853 -528.268 -1429 36 35 43
-25.8712 -527.884 -1428 37 36 44
-23.0061 -530.089 -1434 38 37 45
-20.0324 -530.078 -1434 39 38 46
-17.1185 -531.917 -1439 36 35 43
-14.1644 -533.018 -1442 33 32 40
-11.2443 -536.338 -1451 34 33 41
-8.27016 -538.551 -1457 35 34 42
-5.3071 -544.461 -1473 37 36 44
-181.606 -545.05 -1458 64 62 65
-176.453 -538.601 -1441 57 57 59
-172.697 -536.267 -1435 57 57 59
-168.968 -533.935 -1429 58 58 60
-165.73 -533.1 -1427 53 53 55
-162.389 -531.893 -1424 46 46 50
-159.397 -531.808 -1424 47 47 51
-156.406 -531.725 -1424 47 47 51
-153.309 -531.271 -1423 49 49 55
-150.218 -530.818 -1422 49 48 55
-147.132 -530.366 -1421 48 47 55
-144.051 -529.917 -1420 47 46 54
-141.175 -530.215 -1421 47 46 54
-138.102 -529.769 -1420 46 45 52
-135.033 -529.324 -1419 46 45 52
-131.971 -528.881 -1418 48 47 54
-129.004 -528.813 -1418 47 46 53
-125.683 -527.255 -1414 45 44 51
-122.901 -527.935 -1416 40 39 46
-119.942 -527.872 -1416 43 42 49
-116.901 -527.437 -1415 43 42 50
-114.027 -527.749 -1416 44 43 50
-111.149 -528.063 -1417 48 47 55
-108.04 -527.261 -1415 52 51 59
-104.939 -526.46 -1413 54 53 61
-102.064 -526.778 -1414 56 54 61
-99.0464 -526.353 -1413 58 55 62
-96.0333 -525.93 -1412 61 58 63
-93.0252 -525.508 -1411 59 56 61
-90.086 -525.46 -1411 51 48 53
-86.9622 -524.297 -1408 50 47 52
-83.6727 -522.018 -1402 49 47 53
-80.6968 -521.603 -1401 45 44 50
-77.8369 -521.934 -1402 48 47 54
-74.9735 -522.266 -1403 50 49 56
-71.8499 -520.739 -1399 51 50 57
-69.0391 -521.447 -1401 47 46 54
-66.0791 -521.039 -1400 47 46 54
-63.1237 -520.633 -1399 46 45 53
-60.087 -519.485 -1396 44 43 51
-57.309 -520.571 -1399 41 40 48
-54.4803 -521.286 -1401 41 40 48
-51.6069 -521.63 -1402 41 40 48
-48.7645 -522.348 -1404 42 41 49
-46.0122 -524.183 -1409 39 38 48
-43.1172 -524.532 -1410 38 37 47
-40.3324 -526.37 -1415 38 37 46
-37.5008 -527.838 -1419 36 35 43
-34.7017 -530.051 -1425 37 36 44
-31.7442 -530.034 -1425 38 37 45
-28.9083 -532.25 -1431 39 38 46
-25.9571 -532.608 -1432 39 38 46
-23.002 -532.967 -1433 38 37 45
-20.0429 -533.327 -1434 37 36 44
-17.1155 -534.805 -1438 37 36 44
-14.1815 -536.657 -1443 35 34 42
-11.2579 -539.997 -1452 31 32 40
-8.26872 -541.48 -1456 34 34 42
-181.203 -546.874 -1454 65 63 65
-176.668 -542.266 -1442 57 55 58
-172.547 -538.789 -1433 57 57 59
-169.057 -537.195 -1429 57 57 59
-165.701 -535.979 -1426 55 55 57
-162.816 -536.268 -1427 50 50 54
-159.593 -535.431 -1425 46 46 50
-156.598 -535.348 -1425 47 47 51
-153.39 -534.514 -1423 48 48 53
-150.085 -533.307 -1420 50 50 54
-147.002 -532.853 -1419 48 47 55
-144.026 -532.777 -1419 48 47 55
-141.051 -532.701 -1419 48 47 55
-138.077 -532.628 -1419 43 42 49
-135.39 -533.682 -1422 44 43 50
-132.133 -532.485 -1419 47 46 53
-129.163 -532.416 -1419 46 45 52
-126.016 -531.599 -1417 46 45 52
-123.052 -531.533 -1417 47 46 53
-120.005 -531.094 -1416 44 43 51
-117.045 -531.032 -1416 46 45 53
-114.248 -531.721 -1418 49 48 55
-111.286 -531.661 -1418 51 50 57
-108.402 -531.979 -1419 51 50 58
-105.217 -530.798 -1416 50 49 57
-102.19 -530.368 -1415 53 51 58
-99.0982 -529.566 -1413 57 55 62
-96.0836 -529.14 -1412 61 58 63
-93.1399 -529.09 -1412 62 59 64
-90.0693 -528.292 -1410 55 53 58
-87.0695 -527.871 -1409 52 49 54
-83.8359 -525.953 -1404 48 47 53
-80.8544 -525.535 -1403 44 43 50
-77.9333 -525.494 -1403 43 42 49
-75.0128 -525.453 -1403 45 44 51
-71.9389 -524.291 -1400 48 47 54
-69.1738 -525.378 -1403 48 47 55
-66.0664 -523.844 -1399 47 46 54
-63.1567 -523.81 -1399 44 43 51
-60.2907 -524.152 -1400 43 42 50
-57.421 -524.496 -1401 44 43 51
-54.5477 -524.841 -1402 44 43 51
-51.7443 -525.936 -1405 45 44 53
-48.8595 -526.284 -1406 46 45 54
-46.1015 -528.131 -1411 42 41 51
-43.2314 -528.856 -1413 38 37 47
-40.382 -529.957 -1416 40 39 49
-37.5205 -531.059 -1419 37 36 45
-34.7198 -533.286 -1425 36 35 43
-31.8946 -535.514 -1431 38 37 45
-29.0042 -536.995 -1435 40 39 47
-26.0251 -536.98 -1435 40 39 47
-23.0621 -537.341 -1436 39 38 46
-20.0533 -536.582 -1434 37 36 44
-17.1125 -537.694 -1437 37 36 44
-14.1594 -538.809 -1440 37 36 44
-11.2404 -542.17 -1449 36 38 45
-8.27865 -545.158 -1457 37 38 45
-181.923 -552.09 -1459 67 64 67
-177.007 -546.319 -1444 60 57 60
-172.639 -542.065 -1433 58 57 59
-168.91 -539.704 -1427 59 58 60
-165.673 -538.859 -1425 55 55 57
-162.56 -538.393 -1424 50 50 54
-159.453 -537.93 -1423 49 49 53
-156.461 -537.845 -1423 51 50 56
-153.363 -537.385 -1422 48 48 52
-150.059 -536.171 -1419 46 46 50
-146.976 -535.714 -1418 47 46 54
-144 -535.637 -1418 49 48 56
-141.125 -535.939 -1419 46 45 53
-138.15 -535.865 -1419 43 42 49
-135.557 -537.303 -1423 43 42 49
-132.389 -536.476 -1421 44 43 50
-129.413 -536.407 -1421 45 44 51
-126.261 -535.584 -1419 44 43 50
-123.378 -535.895 -1420 44 43 50
-120.068 -534.321 -1416 44 43 51
-117.107 -534.258 -1416 47 46 54
-114.066 -533.82 -1415 50 49 56
-111.109 -533.76 -1415 50 49 57
-108.153 -533.702 -1415 49 48 56
-105.05 -532.891 -1413 50 49 57
-102.1 -532.837 -1413 52 51 58
-99.0803 -532.406 -1412 55 53 60
-96.1342 -532.355 -1412 58 58 62
-93.189 -532.304 -1412 60 60 64
-90.1167 -531.502 -1410 57 57 61
-87.0536 -530.701 -1408 50 50 54
-83.9996 -529.902 -1406 46 46 51
-81.1276 -530.236 -1407 45 44 51
-77.9743 -528.686 -1403 43 42 49
-75.0523 -528.646 -1403 44 43 50
-72.0282 -527.853 -1401 46 45 52
-69.0622 -527.439 -1400 46 45 53
-66.0539 -526.65 -1398 43 42 50
-63.2351 -527.369 -1400 41 40 48
-60.2363 -526.583 -1398 40 39 48
-57.4102 -527.306 -1400 42 41 49
-54.4985 -527.276 -1400 43 42 50
-51.7716 -529.131 -1405 43 42 52
-48.8852 -529.481 -1406 44 43 53
-46.1585 -531.715 -1412 41 40 50
-43.2542 -532.068 -1413 38 37 47
-40.3747 -532.799 -1415 40 39 49
-37.5137 -533.908 -1418 39 38 48
-34.665 -535.395 -1422 38 37 46
-31.8444 -537.637 -1428 41 40 48
-28.9588 -539.127 -1432 40 39 47
-26.0205 -539.865 -1434 39 38 46
-23.0742 -540.605 -1436 39 38 46
-20.1058 -540.97 -1437 37 36 44
-17.1453 -541.714 -1439 38 37 45
-14.1864 -542.835 -1442 39 38 46
-11.2774 -546.969 -1453 38 40 47
-8.30567 -549.975 -1461 37 39 46
-181.895 -555.051 -1458 65 62 67
-176.734 -548.484 -1441 61 58 61
-172.611 -544.965 -1432 60 57 60
-169.119 -543.351 -1428 61 58 61
-166.111 -543.261 -1428 55 55 57
-162.647 -541.651 -1424 53 53 56
-159.762 -541.945 -1425 55 55 59
-156.765 -541.861 -1425 55 54 61
-153.229 -539.877 -1420 51 51 56
-150.245 -539.795 -1420 47 47 51
-147.158 -539.336 -1419 46 45 52
-144.179 -539.258 -1419 46 45 52
-141.499 -540.321 -1422 43 42 50
-138.613 -540.627 -1423 43 42 49
-135.629 -540.553 -1423 43 42 49
-132.739 -540.862 -1424 44 43 50
-129.664 -540.411 -1423 46 45 52
-126.417 -539.204 -1420 45 44 51
-123.443 -539.137 -1420 44 43 50
-120.302 -538.313 -1418 44 43 51
-117.169 -537.49 -1416 47 46 54
-114.208 -537.429 -1416 50 49 56
-111.247 -537.369 -1416 50 49 57
-108.211 -536.931 -1415 50 49 57
-105.18 -536.494 -1414 50 49 57
-102.298 -536.818 -1415 52 51 58
-99.1329 -535.627 -1412 54 53 60
-96.1172 -535.195 -1411 56 55 61
-93.1724 -535.145 -1411 59 59 64
-90.1006 -534.338 -1409 59 59 63
-87.1617 -534.29 -1409 51 51 55
-84.1637 -533.866 -1408 45 44 49
-81.113 -533.063 -1406 43 42 49
-78.0713 -532.263 -1404 42 41 48
-75.1992 -532.601 -1405 42 41 48
-72.0664 -531.046 -1401 42 41 49
-69.0989 -530.629 -1400 43 42 50
-66.2781 -531.351 -1402 43 42 50
-63.3591 -531.317 -1402 41 40 48
-60.4406 -531.284 -1402 39 38 48
-57.5637 -531.631 -1403 39 38 48
-54.6053 -531.223 -1402 42 41 49
-51.7621 -531.952 -1404 42 41 50
-48.9806 -533.441 -1408 42 41 51
-46.1502 -534.552 -1411 41 40 50
-43.2465 -534.907 -1412 41 40 50
-40.4247 -536.4 -1416 44 43 53
-37.4806 -536.38 -1416 43 42 52
-34.6588 -538.254 -1421 40 39 48
-31.7944 -539.752 -1425 40 39 47
-28.9134 -541.251 -1429 37 36 44
-26.0162 -542.751 -1433 36 35 43
-23.0542 -543.117 -1434 38 37 45
-20.1164 -544.242 -1437 35 34 42
-17.1424 -544.611 -1438 37 36 44
-14.194 -546.117 -1442 40 39 47
-11.2833 -550.277 -1453 39 41 48
-8.32722 -554.437 -1464 37 39 46
-182.368 -559.544 -1461 63 60 64
-177.197 -552.937 -1444 60 57 60
-173.065 -549.397 -1435 59 56 59
-169.447 -547.39 -1430 60 57 60
-165.967 -545.769 -1426 55 55 57
-162.62 -544.532 -1423 52 52 56
-159.512 -544.063 -1422 54 54 58
-156.189 -542.83 -1419 53 52 58
-152.988 -541.982 -1417 52 52 57
-149.902 -541.517 -1416 49 49 53
-147.134 -542.202 -1418 48 47 54
-144.154 -542.124 -1418 45 44 51
-141.376 -542.812 -1420 43 42 50
-138.785 -544.265 -1424 42 41 48
-135.797 -544.191 -1424 45 44 51
-132.717 -543.737 -1423 44 43 50
-129.825 -544.049 -1424 47 46 53
-126.573 -542.834 -1421 48 47 54
-123.423 -542.002 -1419 43 42 49
-120.366 -541.555 -1418 45 44 51
-117.149 -540.346 -1415 46 45 52
-114.107 -539.902 -1414 50 49 56
-110.992 -539.078 -1412 52 51 59
-108.116 -539.401 -1413 50 49 57
-105.236 -539.725 -1414 49 48 56
-102.208 -539.288 -1413 50 49 56
-99.186 -538.852 -1412 52 51 59
-96.1686 -538.418 -1411 55 54 61
-93.0901 -537.604 -1409 57 57 63
-90.0848 -537.174 -1408 57 56 62
-87.2083 -537.508 -1409 51 51 55
-84.2086 -537.08 -1408 46 46 51
-81.1563 -536.273 -1406 42 43 49
-78.1686 -535.849 -1405 41 40 47
-75.1857 -535.427 -1404 41 40 47
-72.1562 -534.625 -1402 40 39 47
-69.1851 -534.205 -1401 40 39 47
-66.3606 -534.932 -1403 41 40 48
-63.4833 -535.278 -1404 42 41 49
-60.5591 -535.245 -1404 42 41 50
-57.6354 -535.213 -1404 42 41 51
-54.6734 -534.802 -1403 44 43 51
-51.7897 -535.155 -1404 44 43 52
-48.9719 -536.271 -1407 42 41 51
-46.1093 -537.008 -1409 41 40 50
-43.3002 -538.509 -1413 40 39 49
-40.5033 -540.392 -1418 41 40 50
-37.5535 -540.371 -1418 40 39 49
-34.6773 -541.495 -1421 39 38 47
-31.7889 -542.62 -1424 36 35 43
-28.9085 -544.128 -1428 33 32 40
-25.9937 -545.257 -1431 35 34 42
-23.0665 -546.387 -1434 37 36 44
-20.1271 -547.518 -1437 33 32 40
-17.2231 -550.175 -1444 35 34 42
-14.2507 -551.31 -1447 39 38 46
-11.3049 -554.351 -1455 37 38 45
-8.31449 -556.632 -1461 37 38 45
-176.802 -554.713 -1440 62 59 62
-172.918 -551.922 -1433 61 58 61
-169.301 -549.903 -1428 59 56 59
-166.173 -549.428 -1427 55 55 57
-162.937 -548.568 -1425 53 53 56
-159.598 -547.326 -1422 51 51 55
-156.273 -546.086 -1419 48 47 52
-153.178 -545.617 -1418 49 49 53
-150.089 -545.15 -1417 49 49 53
-147.109 -545.07 -1417 49 48 55
-144.436 -546.144 -1420 47 46 54
-141.552 -546.451 -1421 48 47 55
-139.153 -548.683 -1427 47 46 53
-135.87 -547.455 -1424 48 47 54
-132.882 -547.382 -1424 44 43 50
-129.53 -545.774 -1420 46 45 52
-126.463 -545.32 -1419 50 49 56
-123.315 -544.484 -1417 47 46 53
-120.176 -543.65 -1415 45 44 51
-117.212 -543.586 -1415 45 44 51
-114.007 -542.371 -1412 50 49 56
-111.288 -543.462 -1415 54 53 60
-108.327 -543.403 -1415 51 50 58
-105.442 -543.729 -1416 47 46 54
-102.553 -544.057 -1417 48 47 55
-99.4502 -543.235 -1415 50 49 57
-96.4248 -542.798 -1414 53 52 59
-93.2724 -541.595 -1411 54 54 60
-90.0692 -540.01 -1407 53 53 60
-87.1931 -540.346 -1408 52 52 56
-84.4335 -541.451 -1411 49 49 54
-81.2576 -539.872 -1407 42 44 50
-78.2106 -539.061 -1405 41 40 47
-75.1725 -538.253 -1403 43 42 49
-72.195 -537.829 -1402 42 41 49
-69.2717 -537.791 -1402 39 38 46
-66.491 -538.905 -1405 39 39 47
-63.5174 -538.487 -1404 42 41 49
-60.721 -539.604 -1407 44 43 53
-57.7485 -539.189 -1406 45 44 54
-54.9366 -540.309 -1409 46 45 53
-51.9282 -539.513 -1407 45 44 54
-48.9285 -538.719 -1405 42 41 51
-46.1668 -540.611 -1410 40 39 49
-43.2927 -541.353 -1412 39 38 48
-40.4678 -542.864 -1416 38 37 47
-37.5737 -543.61 -1418 37 36 46
-34.7691 -545.891 -1424 38 37 46
-31.806 -545.873 -1424 37 36 44
-28.9241 -547.39 -1428 37 36 44
-26.0258 -548.908 -1432 36 35 43
-23.0467 -548.895 -1432 37 36 44
-20.18 -551.95 -1440 34 33 41
-17.2204 -553.09 -1443 35 34 42
-14.2682 -554.998 -1448 38 37 45
-11.3031 -557.291 -1454 36 38 45
-8.33023 -560.735 -1463 36 38 45
-177.39 -559.577 -1444 62 59 62
-173.374 -556.381 -1436 59 56 59
-169.631 -553.963 -1430 57 54 57
-166.38 -553.096 -1428 56 55 57
-162.911 -551.457 -1424 55 54 58
-159.572 -550.207 -1421 52 52 56
-156.248 -548.96 -1418 47 47 50
-153.045 -548.101 -1416 46 46 49
-149.959 -547.631 -1415 48 48 52
-147.085 -547.937 -1416 49 48 56
-144.413 -549.019 -1419 50 49 57
-141.529 -549.328 -1420 50 49 57
-138.643 -549.638 -1421 50 49 56
-135.753 -549.95 -1422 47 46 53
-132.768 -549.877 -1422 46 45 52
-129.418 -548.259 -1418 48 47 54
-126.354 -547.803 -1417 49 48 55
-123.295 -547.348 -1416 49 48 55
-120.156 -546.509 -1414 45 44 52
-117.11 -546.058 -1413 45 44 52
-113.908 -544.836 -1410 50 49 57
-111.033 -545.161 -1411 53 52 60
-108.232 -545.874 -1413 51 50 58
-105.424 -546.589 -1415 48 47 55
-102.464 -546.532 -1415 46 45 53
-99.5744 -546.863 -1416 49 48 55
-96.4771 -546.038 -1414 52 52 57
-93.5212 -545.986 -1414 51 52 57
-90.3741 -544.778 -1411 50 52 58
-87.4262 -544.73 -1411 52 51 58
-84.4791 -544.683 -1411 48 48 55
-81.2438 -542.708 -1406 43 45 51
-78.3642 -543.051 -1407 42 41 48
-75.2668 -541.851 -1404 44 43 50
-72.2856 -541.426 -1403 43 42 50
-69.3091 -541.001 -1402 38 39 46
-66.4322 -541.35 -1403 36 38 45
-63.6422 -542.472 -1406 42 41 49
-60.7107 -542.439 -1406 44 43 53
-57.8208 -542.792 -1407 46 45 55
-54.8102 -541.99 -1405 46 45 53
-51.9932 -543.119 -1408 45 44 53
-49.0595 -543.091 -1408 43 42 52
-46.1917 -543.837 -1410 41 40 51
-43.3468 -544.97 -1413 41 40 50
-40.5469 -546.876 -1418 40 39 49
-37.6735 -548.011 -1421 40 39 49
-34.739 -548.377 -1422 42 41 50
-31.7784 -548.359 -1422 41 40 48
-28.8585 -549.114 -1424 38 37 46
-25.9489 -550.256 -1427 36 35 44
-23.0913 -552.942 -1434 38 37 45
-20.1768 -554.859 -1439 37 36 44
-17.2654 -557.547 -1446 35 34 42
-14.2857 -558.696 -1449 38 37 45
-11.3403 -562.159 -1458 36 37 44
-8.35758 -565.623 -1467 38 38 46
-177.364 -562.515 -1443 58 55 58
-173.107 -558.52 -1433 55 52 55
-169.605 -556.867 -1429 55 52 55
-166.472 -556.385 -1428 56 53 56
-163 -554.736 -1424 54 53 57
-160.222 -555.426 -1426 53 53 57
-156.774 -553.781 -1422 48 48 51
-153.454 -552.528 -1419 47 47 51
-150.359 -552.055 -1418 47 47 51
-147.374 -551.974 -1418 49 48 56
-144.695 -553.061 -1421 52 51 58
-141.407 -551.815 -1418 52 51 58
-138.914 -553.684 -1423 51 51 56
-135.636 -552.441 -1420 49 49 54
-132.653 -552.368 -1420 49 48 55
-129.306 -550.74 -1416 49 48 55
-126.244 -550.281 -1415 50 49 56
-123.188 -549.824 -1414 48 47 55
-120.052 -548.98 -1412 47 46 54
-117.34 -550.081 -1415 50 49 57
-114.455 -550.407 -1416 52 51 59
-111.487 -550.345 -1416 51 50 58
-108.598 -550.673 -1417 48 47 55
-105.705 -551.003 -1418 47 46 54
-102.664 -550.558 -1417 45 44 51
-99.699 -550.502 -1417 48 47 52
-96.6661 -550.06 -1416 49 48 54
-93.506 -548.843 -1413 49 49 55
-90.4234 -548.016 -1411 48 50 56
-87.4738 -547.967 -1411 49 48 55
-84.525 -547.92 -1411 47 47 54
-81.4036 -546.71 -1408 41 43 49
-78.3512 -545.89 -1406 42 43 50
-75.3077 -545.072 -1404 42 42 50
-72.3248 -544.643 -1403 41 40 48
-69.4952 -545.381 -1405 38 38 47
-66.5156 -544.955 -1404 38 38 47
-63.6768 -545.696 -1406 42 41 49
-60.7437 -545.662 -1406 43 42 50
-57.8934 -546.406 -1408 42 41 49
-54.9962 -546.763 -1409 44 43 51
-52.1323 -547.51 -1411 45 44 54
-49.1558 -547.095 -1410 43 42 54
-46.2824 -547.845 -1412 42 41 53
-43.4931 -549.76 -1417 41 40 52
-40.6548 -551.289 -1421 40 39 51
-37.7205 -551.656 -1422 39 38 48
-34.7824 -552.024 -1423 39 38 48
-31.8851 -553.169 -1426 38 37 47
-28.9757 -554.317 -1429 38 37 47
-25.9812 -553.914 -1428 36 35 45
-23.0877 -555.84 -1433 37 36 46
-20.2017 -558.543 -1440 40 39 47
-17.2748 -560.86 -1446 38 37 45
-14.3132 -562.791 -1451 38 37 45
-11.3309 -564.723 -1456 44 41 49
-8.3563 -568.597 -1466 41 39 47
-177.831 -567.022 -1446 58 55 60
-173.565 -563.004 -1436 56 53 57
-169.699 -560.165 -1429 59 56 59
-166.33 -558.896 -1426 57 54 57
-162.861 -557.237 -1422 53 52 55
-159.86 -557.148 -1422 49 49 53
-156.64 -556.277 -1420 48 48 52
-153.646 -556.191 -1420 48 48 52
-150.548 -555.715 -1419 48 48 52
-147.351 -554.85 -1417 49 48 55
-144.265 -554.378 -1416 52 51 58
-141.285 -554.299 -1416 52 51 58
-138.502 -555.005 -1418 53 53 55
-135.52 -554.929 -1418 52 51 55
-132.539 -554.855 -1418 51 50 57
-129.286 -553.609 -1415 51 50 57
-126.224 -553.147 -1414 49 48 55
-123.168 -552.688 -1413 47 46 54
-120.118 -552.229 -1412 47 46 54
-117.238 -552.555 -1413 50 49 57
-114.679 -554.446 -1418 52 51 59
-111.47 -553.211 -1415 51 50 58
-108.504 -553.151 -1415 49 48 56
-105.689 -553.873 -1417 47 46 54
-102.648 -553.425 -1416 46 46 52
-99.5424 -552.588 -1414 47 47 51
-96.5826 -552.534 -1414 49 48 55
-93.6235 -552.482 -1414 49 49 56
-90.537 -551.65 -1412 46 48 54
-87.5838 -551.601 -1412 48 47 54
-84.5714 -551.163 -1411 46 46 53
-81.5061 -550.336 -1409 40 42 48
-78.2825 -548.339 -1404 41 41 49
-75.349 -548.297 -1404 43 43 51
-72.5192 -549.037 -1406 41 40 48
-69.4838 -548.217 -1404 38 37 47
-66.5995 -548.57 -1405 41 40 50
-63.8022 -549.706 -1408 41 40 48
-60.7337 -548.501 -1405 41 40 48
-57.9251 -549.639 -1408 38 37 45
-54.9482 -549.218 -1407 40 39 47
-52.1607 -550.75 -1411 44 43 53
-49.2525 -551.112 -1412 43 42 54
-46.4717 -553.038 -1417 40 39 51
-43.5783 -553.793 -1419 39 38 49
-40.7342 -555.331 -1423 39 38 48
-37.741 -554.92 -1422 38 37 47
-34.9481 -557.631 -1429 37 36 45
-31.8578 -555.662 -1424 36 35 44
-28.9509 -556.816 -1427 36 35 45
-26.0499 -558.362 -1431 38 37 47
-23.1648 -560.689 -1437 38 37 46
-20.2268 -562.238 -1441 40 39 47
-17.3201 -565.349 -1449 40 39 47
-14.3408 -566.901 -1453 41 40 48
-11.3682 -569.625 -1460 45 42 50
-177.315 -568.393 -1441 63 60 65
-173.419 -565.535 -1434 60 57 61
-169.674 -563.073 -1428 59 56 59
-166.539 -562.585 -1427 58 55 58
-163.295 -561.705 -1425 53 52 55
-160.511 -562.403 -1427 48 48 52
-157.058 -560.738 -1423 49 49 53
-153.948 -560.258 -1422 52 52 56
-150.843 -559.779 -1421 52 52 56
-147.745 -559.302 -1420 53 52 59
-144.753 -559.221 -1420 52 51 58
-141.563 -558.354 -1418 50 49 56
-138.774 -559.064 -1420 51 50 54
-135.69 -558.594 -1419 50 50 54
-132.8 -558.913 -1420 51 50 57
-129.449 -557.266 -1416 53 52 59
-126.384 -556.801 -1415 51 50 57
-123.324 -556.339 -1414 49 48 55
-120.354 -556.271 -1414 49 48 56
-117.552 -556.992 -1416 49 48 56
-114.662 -557.321 -1417 51 50 58
-111.847 -558.045 -1419 52 51 59
-108.871 -557.983 -1419 52 51 59
-105.747 -557.138 -1417 49 48 56
-102.705 -556.687 -1416 47 47 53
-99.527 -555.451 -1413 47 47 51
-96.5675 -555.397 -1413 48 47 54
-93.6089 -555.344 -1413 48 48 55
-90.587 -554.9 -1412 47 49 55
-87.57 -554.458 -1411 49 48 55
-84.558 -554.018 -1410 47 47 54
-81.4353 -552.793 -1407 43 45 51
-78.4372 -552.356 -1406 42 42 49
-75.4979 -552.313 -1406 42 41 49
-72.4559 -551.487 -1404 39 38 46
-69.6706 -552.626 -1407 37 36 46
-66.731 -552.588 -1407 42 41 51
-63.9281 -553.73 -1410 41 40 48
-60.8969 -552.91 -1408 40 39 47
-58.0392 -553.663 -1410 39 38 46
-55.1347 -554.025 -1411 42 41 49
-52.4484 -556.743 -1418 44 43 53
-49.489 -556.715 -1418 43 42 54
-46.6285 -557.866 -1421 42 41 53
-43.6637 -557.841 -1421 39 38 49
-40.7279 -558.211 -1422 38 37 47
-37.8149 -558.974 -1424 40 39 49
-34.8938 -559.739 -1426 37 36 45
-31.8752 -558.936 -1424 35 34 42
-28.9668 -560.096 -1427 36 35 45
-26.0278 -560.866 -1429 40 39 48
-23.1453 -563.208 -1435 39 38 46
-20.2098 -564.765 -1439 42 41 49
-17.3296 -568.68 -1449 42 41 49
-14.3091 -568.671 -1449 41 40 48
-11.3511 -571.804 -1457 44 41 49
-8.34844 -574.153 -1463 44 41 49
-184.474 -584.53 -1473 70 67 72
-177.783 -572.921 -1444 64 61 66
-173.879 -570.045 -1437 59 56 60
-170.363 -568.362 -1433 57 54 57
-166.982 -567.078 -1430 57 54 57
-163.501 -565.399 -1426 55 53 57
-160.151 -564.119 -1423 54 54 58
-157.035 -563.634 -1422 52 52 56
-154.034 -563.547 -1422 53 53 57
-150.821 -562.669 -1420 54 54 58
-147.827 -562.585 -1420 57 56 63
-144.834 -562.504 -1420 56 55 62
-141.742 -562.027 -1419 52 51 58
-138.949 -562.741 -1421 50 50 54
-135.957 -562.664 -1421 51 51 55
-132.873 -562.193 -1420 51 50 57
-129.704 -561.328 -1418 51 50 57
-126.543 -560.465 -1416 50 49 56
-123.654 -560.791 -1417 49 48 55
-120.592 -560.327 -1416 50 49 56
-117.784 -561.052 -1418 49 48 56
-114.644 -560.196 -1416 51 50 58
-111.751 -560.528 -1417 53 52 60
-108.701 -560.071 -1416 54 53 61
-105.806 -560.407 -1417 50 49 57
-102.689 -559.558 -1415 47 46 52
-99.6527 -559.106 -1414 48 48 52
-96.6212 -558.656 -1413 50 49 56
-93.5946 -558.208 -1412 49 49 55
-90.7656 -558.947 -1414 47 49 55
-87.6808 -558.107 -1412 48 47 54
-84.725 -558.059 -1412 45 45 52
-81.5383 -556.432 -1408 43 45 51
-78.5366 -555.992 -1407 43 42 50
-75.486 -555.159 -1405 42 41 49
-72.5994 -555.513 -1406 38 37 45
-69.8579 -557.054 -1410 38 37 47
-66.8629 -556.621 -1409 41 40 50
-64.0995 -558.164 -1413 43 42 50
-60.9739 -556.549 -1409 41 40 48
-58.0714 -556.911 -1410 40 39 47
-55.1262 -556.88 -1410 42 41 50
-52.4405 -559.615 -1417 45 44 54
-49.5164 -559.981 -1418 44 43 55
-46.6871 -561.534 -1422 43 42 54
-43.6878 -561.114 -1421 40 39 50
-40.7505 -561.485 -1422 40 39 49
-37.7295 -560.674 -1420 40 39 49
-34.8887 -562.628 -1425 38 37 46
-31.9377 -563.004 -1426 35 34 42
-29.0437 -564.567 -1430 38 37 47
-26.0422 -564.157 -1429 41 40 49
-23.1904 -567.301 -1437 41 40 48
-20.2069 -567.684 -1438 43 42 50
-17.3033 -570.832 -1446 40 39 47
-14.317 -572.007 -1449 39 38 46
-11.3495 -574.763 -1456 40 37 45
-8.37574 -579.1 -1467 40 37 45
-183.45 -584.355 -1464 71 68 73
-177.39 -574.674 -1440 66 63 68
-173.735 -572.58 -1435 58 55 59
-169.864 -569.69 -1428 56 53 56
-166.959 -569.994 -1429 57 54 57
-163.593 -568.705 -1426 56 55 58
-160.241 -567.417 -1423 52 52 56
-157.123 -566.929 -1422 50 50 54
-154.12 -566.841 -1422 51 51 55
-151.119 -566.755 -1422 53 53 57
-148.014 -566.273 -1421 55 54 61
-145.323 -567.386 -1424 55 54 61
-142.321 -567.305 -1424 53 52 59
-139.222 -566.827 -1423 50 50 54
-136.225 -566.75 -1423 49 49 53
-133.135 -566.276 -1422 50 49 56
-129.868 -565.007 -1419 49 48 55
-126.704 -564.139 -1417 48 47 54
-123.723 -564.069 -1417 49 48 56
-120.744 -564 -1417 49 48 56
-117.85 -564.331 -1418 49 48 56
-114.871 -564.266 -1418 51 50 58
-112.05 -564.998 -1420 54 53 61
-108.839 -563.742 -1417 54 53 61
-105.865 -563.682 -1417 51 50 58
-102.747 -562.828 -1415 48 47 54
-99.7789 -562.771 -1415 48 47 53
-96.6067 -561.523 -1412 48 47 54
-93.6469 -561.47 -1412 49 49 56
-90.6879 -561.418 -1412 49 50 56
-87.6054 -560.573 -1410 47 46 53
-84.5322 -559.73 -1408 43 42 49
-81.5259 -559.286 -1407 41 41 48
-78.4687 -558.446 -1405 40 40 47
-75.4744 -558.005 -1404 40 39 47
-72.6399 -558.759 -1406 41 40 48
-69.8472 -559.911 -1409 44 43 52
-66.9952 -560.667 -1411 41 40 50
-64.1353 -561.425 -1413 43 41 49
-61.0945 -560.596 -1411 42 40 48
-58.2274 -561.357 -1413 40 39 47
-55.2742 -561.325 -1413 41 40 50
-52.4696 -562.884 -1417 43 42 52
-49.5091 -562.856 -1417 44 43 54
-46.6804 -564.417 -1421 38 37 49
-43.7738 -565.187 -1423 37 36 47
-40.7732 -564.766 -1422 40 39 49
-37.8037 -564.744 -1422 41 40 50
-34.9326 -566.312 -1426 39 38 47
-32.0003 -567.088 -1428 39 38 46
-28.9786 -566.276 -1426 42 41 49
-26.1114 -568.644 -1432 40 39 47
-23.1871 -570.218 -1436 41 40 48
-20.19 -570.206 -1436 43 42 50
-17.2769 -572.975 -1443 39 38 46
-14.3052 -574.555 -1447 37 36 44
-11.3402 -577.327 -1454 45 42 50
-182.676 -584.947 -1457 73 70 73
-177.737 -578.824 -1442 65 62 67
-173.833 -575.914 -1435 58 55 60
-170.317 -574.211 -1431 55 52 57
-166.82 -572.511 -1427 56 53 58
-163.456 -571.214 -1424 58 56 61
-160.106 -569.919 -1421 52 52 56
-156.991 -569.428 -1420 45 45 49
-153.991 -569.34 -1420 48 48 52
-150.991 -569.253 -1420 53 53 57
-148.098 -569.569 -1421 53 52 59
-145.303 -570.288 -1423 53 52 59
-142.501 -571.008 -1425 52 51 58
-139.399 -570.527 -1424 48 47 52
-136.302 -570.049 -1423 46 46 50
-133.304 -569.972 -1423 50 49 56
-130.033 -568.696 -1420 51 50 57
-126.864 -567.823 -1418 49 48 55
-123.793 -567.352 -1417 49 48 56
-120.642 -566.482 -1415 48 47 55
-117.833 -567.215 -1417 49 48 56
-114.773 -566.749 -1416 51 50 58
-111.877 -567.085 -1417 54 53 61
-108.67 -565.823 -1414 55 54 62
-105.775 -566.162 -1415 52 51 59
-102.732 -565.703 -1414 49 48 56
-99.835 -566.046 -1415 48 47 54
-96.7294 -565.191 -1413 49 48 55
-93.7659 -565.137 -1413 49 48 55
-90.7389 -564.685 -1412 50 49 56
-87.5925 -563.435 -1409 46 45 52
-84.6997 -563.786 -1410 42 41 48
-81.6876 -563.34 -1409 41 40 47
-78.5688 -562.095 -1406 41 40 48
-75.5706 -561.652 -1405 39 38 46
-72.7324 -562.41 -1407 41 40 48
-69.8865 -563.169 -1409 44 43 52
-67.1278 -564.729 -1413 42 41 50
-64.4892 -567.49 -1420 44 41 49
-61.3021 -565.456 -1415 43 40 48
-58.3425 -565.422 -1415 41 39 47
-55.3835 -565.39 -1415 41 40 50
-52.4991 -566.159 -1417 41 40 50
-49.5368 -566.13 -1417 38 37 47
-46.6407 -566.902 -1419 40 39 50
-43.6752 -566.877 -1419 37 36 47
-40.71 -566.853 -1419 38 37 47
-37.8249 -568.03 -1422 40 39 49
-35.0013 -570.406 -1428 41 40 49
-31.9061 -568.39 -1423 41 40 48
-29.1778 -573.166 -1435 42 41 49
-26.199 -573.549 -1436 41 40 48
-23.2485 -574.734 -1439 42 41 49
-20.2153 -573.923 -1437 41 40 48
-17.2746 -575.909 -1442 40 39 47
-14.2934 -577.098 -1445 40 39 47
-11.3153 -579.088 -1450 42 39 47
-183.156 -589.551 -1460 74 71 74
-177.345 -580.565 -1438 61 58 63
-173.326 -577.236 -1430 58 55 60
-169.938 -575.927 -1427 58 55 60
-166.564 -574.62 -1424 57 56 61
-163.319 -573.719 -1422 57 56 60
-160.197 -573.223 -1421 52 52 56
-157.302 -573.536 -1422 46 46 50
-154.078 -572.64 -1420 49 49 53
-151.183 -572.957 -1421 54 54 58
-148.494 -574.081 -1424 55 54 60
-145.59 -574.4 -1425 53 52 59
-142.582 -574.318 -1425 51 50 57
-139.674 -574.641 -1426 47 47 52
-136.571 -574.159 -1425 47 47 51
-133.38 -573.276 -1423 50 49 56
-130.198 -572.396 -1421 51 50 57
-127.026 -571.517 -1419 51 50 57
-123.863 -570.64 -1417 51 50 58
-120.966 -570.973 -1418 49 48 56
-117.816 -570.1 -1416 49 48 56
-114.838 -570.034 -1416 51 50 58
-111.94 -570.372 -1417 51 50 58
-108.808 -569.504 -1415 49 48 56
-105.835 -569.444 -1415 47 46 54
-102.79 -568.982 -1414 49 48 56
-99.8916 -569.327 -1415 50 49 56
-96.7842 -568.466 -1413 51 50 57
-93.8854 -568.814 -1414 49 48 55
-90.7901 -567.957 -1412 48 47 54
-87.6421 -566.7 -1409 44 43 50
-84.6875 -566.651 -1409 40 39 46
-81.5598 -565.398 -1406 40 39 46
-78.6131 -565.352 -1406 41 40 47
-75.7748 -566.113 -1408 41 40 47
-72.8769 -566.473 -1409 41 40 47
-70.0748 -567.638 -1412 41 40 48
-67.1182 -567.599 -1412 42 41 49
-64.2984 -568.768 -1415 44 41 48
-61.3367 -568.732 -1415 44 41 48
-58.4168 -569.1 -1416 44 41 49
-55.4148 -568.666 -1415 42 41 51
-52.4916 -569.038 -1416 42 41 51
-49.5648 -569.411 -1417 41 40 50
-46.6999 -570.589 -1420 41 40 50
-43.7922 -571.367 -1422 37 36 46
-40.819 -571.343 -1422 36 35 45
-37.9261 -572.526 -1425 39 38 47
-34.9719 -572.907 -1426 40 39 48
-32.0587 -574.093 -1429 39 38 46
-29.1333 -575.281 -1432 37 36 44
-26.2503 -577.676 -1438 38 37 45
-23.2131 -576.859 -1436 40 39 47
-20.2549 -578.052 -1439 38 37 45
-17.2724 -578.844 -1441 39 38 46
-14.3113 -580.844 -1446 40 39 47
-11.3138 -582.042 -1449 42 39 46
-182.634 -590.926 -1455 70 68 71
-177.57 -584.324 -1439 61 58 63
-173.789 -581.787 -1433 60 57 62
-170.035 -579.253 -1427 60 58 63
-166.66 -577.938 -1424 59 59 63
-163.413 -577.032 -1422 56 56 60
-160.289 -576.533 -1421 53 53 57
-157.281 -576.442 -1421 49 49 53
-154.275 -576.353 -1421 49 49 53
-151.27 -576.265 -1421 52 52 56
-148.371 -576.585 -1422 53 52 58
-145.571 -577.311 -1424 52 51 58
-142.464 -576.823 -1423 50 49 56
-139.558 -577.148 -1424 47 46 53
-136.457 -576.663 -1423 48 47 53
-133.55 -576.991 -1424 51 50 57
-130.272 -575.7 -1421 51 50 57
-127.367 -576.032 -1422 52 51 58
-124.021 -574.339 -1418 53 52 60
-121.035 -574.27 -1418 52 51 59
-118.05 -574.201 -1418 54 53 61
-114.904 -573.324 -1416 53 52 60
-111.925 -573.26 -1416 50 49 57
-108.793 -572.387 -1414 48 47 55
-105.82 -572.326 -1414 48 47 55
-102.776 -571.861 -1413 49 48 55
-100.09 -573.422 -1417 50 49 56
-96.9764 -572.556 -1415 51 50 57
-94.0052 -572.502 -1415 49 48 55
-91.0349 -572.449 -1415 46 45 52
-88.0653 -572.398 -1415 44 43 51
-84.7959 -570.326 -1410 43 42 50
-81.7803 -569.874 -1409 44 43 50
-78.8817 -570.233 -1410 44 43 50
-75.8717 -569.784 -1409 44 43 50
-72.9184 -569.742 -1409 43 42 49
-70.1146 -570.914 -1412 43 42 50
-67.2515 -571.683 -1414 43 42 50
-64.3805 -572.454 -1416 46 43 50
-61.3282 -571.61 -1414 44 41 49
-58.5325 -573.193 -1418 43 40 48
-55.4463 -571.948 -1415 42 41 51
-52.5214 -572.321 -1416 43 42 52
-49.5579 -572.292 -1416 44 43 53
-46.6935 -573.477 -1419 42 41 51
-43.7862 -574.26 -1421 39 38 48
-40.8709 -575.044 -1423 37 36 46
-37.921 -575.425 -1424 37 36 44
-35.0408 -577.021 -1428 39 38 46
-32.234 -580.235 -1436 38 37 45
-29.1904 -579.409 -1434 35 34 42
-26.2468 -580.605 -1437 33 32 40
-23.291 -581.803 -1440 33 32 40
-20.2804 -581.791 -1440 32 31 39
-17.3061 -582.992 -1443 35 34 42
-14.3491 -585.408 -1449 40 39 47
-11.3437 -586.612 -1452 45 42 49
-181.734 -591.057 -1447 66 66 68
-177.055 -585.644 -1434 62 59 64
-172.797 -581.459 -1424 61 59 63
-169.537 -580.543 -1422 59 59 63
-166.404 -580.038 -1421 57 57 61
-163.507 -580.351 -1422 56 56 60
-160.268 -579.441 -1420 54 54 58
-157.482 -580.165 -1422 52 52 56
-154.581 -580.483 -1423 52 52 56
-151.676 -580.803 -1424 52 52 56
-148.352 -579.493 -1421 51 50 56
-145.552 -580.223 -1423 50 49 56
-142.445 -579.733 -1422 49 48 55
-139.54 -580.059 -1423 49 48 55
-136.344 -579.164 -1421 50 49 56
-133.532 -579.901 -1423 53 52 60
-130.439 -579.418 -1422 55 54 62
-127.53 -579.751 -1423 55 54 61
-124.268 -578.456 -1420 54 53 61
-121.275 -578.386 -1420 53 52 60
-118.201 -577.909 -1419 53 52 60
-115.051 -577.028 -1417 51 50 58
-111.91 -576.148 -1415 50 49 57
-108.932 -576.085 -1415 49 48 56
-105.881 -575.616 -1414 46 45 53
-102.762 -574.742 -1412 48 48 55
-99.935 -575.497 -1414 48 49 55
-96.8263 -574.627 -1412 49 48 55
-93.9926 -575.386 -1414 49 48 55
-91.087 -575.74 -1415 48 47 54
-87.9289 -574.468 -1412 48 47 55
-84.9046 -574.011 -1411 46 45 53
-81.8853 -573.557 -1410 45 44 51
-78.9268 -573.51 -1410 47 46 53
-76.0767 -574.279 -1412 45 44 51
-73.219 -575.05 -1414 44 43 50
-70.2044 -574.602 -1413 46 44 52
-67.2899 -574.969 -1414 47 45 53
-64.4173 -575.745 -1416 44 41 48
-61.3199 -574.489 -1413 43 40 48
-58.5246 -576.081 -1417 44 41 49
-55.5956 -576.455 -1418 46 45 55
-52.6628 -576.83 -1419 47 46 56
-49.6563 -576.394 -1418 47 46 56
-46.7202 -576.773 -1419 44 43 53
-43.9346 -579.186 -1425 41 40 50
-40.8943 -578.349 -1423 37 36 46
-38.0492 -580.358 -1428 35 34 42
-35.1099 -581.15 -1430 36 35 43
-32.185 -582.35 -1433 37 36 44
-29.2682 -583.958 -1437 36 35 43
-26.3167 -585.161 -1440 34 33 41
-23.3528 -586.366 -1443 34 33 41
-20.3484 -586.76 -1444 34 33 41
-17.34 -587.155 -1445 36 35 43
-14.3771 -589.585 -1451 41 40 47
-11.3423 -589.577 -1451 44 41 48
-181.714 -594.032 -1446 66 66 68
-176.911 -588.177 -1432 63 60 65
-173.019 -585.201 -1425 60 57 62
-169.994 -585.101 -1425 57 57 61
-166.735 -584.182 -1423 55 55 59
-163.602 -583.675 -1422 55 55 59
-160.587 -583.581 -1422 53 53 57
-157.463 -583.078 -1421 52 52 56
-154.453 -582.987 -1421 52 52 56
-151.551 -583.309 -1422 53 53 57
-148.438 -582.812 -1421 50 49 55
-145.432 -582.726 -1421 49 48 55
-142.227 -581.823 -1419 51 50 57
-139.621 -583.381 -1423 52 51 58
-136.519 -582.891 -1422 49 48 55
-133.61 -583.222 -1423 52 51 59
-130.514 -582.736 -1422 54 53 61
-127.514 -582.661 -1422 54 53 60
-124.427 -582.178 -1421 55 54 62
-121.346 -581.698 -1420 56 55 63
-118.186 -580.809 -1418 55 54 62
-115.036 -579.922 -1416 53 52 60
-111.975 -579.447 -1415 54 53 61
-108.687 -577.745 -1411 54 53 61
-105.717 -577.683 -1411 51 50 58
-102.748 -577.623 -1411 50 50 57
-99.8512 -577.974 -1412 47 49 55
-96.8821 -577.917 -1412 50 49 56
-94.0468 -578.68 -1414 50 49 56
-91.1395 -579.036 -1415 51 50 57
-88.1042 -578.575 -1414 49 48 56
-85.1341 -578.525 -1414 48 47 55
-82.0486 -577.658 -1412 44 43 50
-79.0842 -577.612 -1412 45 44 51
-76.2283 -578.385 -1414 46 45 52
-73.3648 -579.16 -1416 47 46 53
-70.394 -579.118 -1416 49 47 54
-67.4239 -579.079 -1416 49 46 54
-64.4999 -579.45 -1417 49 46 53
-61.442 -578.595 -1415 50 47 55
-58.5583 -579.378 -1417 53 50 58
-55.6275 -579.754 -1418 52 50 60
-52.656 -579.723 -1418 49 47 57
-49.7899 -580.92 -1421 46 45 55
-46.8789 -581.71 -1423 46 45 55
-43.9598 -582.501 -1425 44 43 53
-40.9465 -582.068 -1424 38 37 47
-38.0177 -582.863 -1426 35 34 42
-35.1547 -584.885 -1431 37 36 44
-32.181 -585.275 -1432 38 37 45
-29.3666 -588.935 -1441 37 36 44
-26.3318 -588.51 -1440 36 35 43
-23.3986 -590.54 -1445 38 37 45
-20.36 -590.118 -1444 36 35 43
-17.362 -590.925 -1446 37 36 43
-14.4051 -593.776 -1453 39 38 45
-11.3957 -595.403 -1457 43 40 47
-8.47848 -604.797 -1480 45 43 50
-181.192 -595.357 -1441 66 66 68
-176.767 -590.708 -1430 61 58 63
-173.12 -588.54 -1425 57 55 59
-169.973 -588.027 -1424 56 56 60
-166.598 -586.689 -1421 53 53 59
-163.812 -587.418 -1423 52 51 58
-160.567 -586.498 -1421 51 51 55
-157.776 -587.23 -1423 51 51 55
-154.217 -585.076 -1418 52 52 56
-151.533 -586.224 -1421 54 54 58
-148.42 -585.724 -1420 51 51 57
-145.619 -586.463 -1422 49 48 55
-142.31 -585.142 -1419 52 51 58
-139.702 -586.709 -1423 52 51 58
-136.598 -586.216 -1422 50 49 56
-133.687 -586.549 -1423 53 52 59
-130.682 -586.472 -1423 55 54 61
-127.767 -586.809 -1424 55 54 61
-124.587 -585.911 -1422 55 54 64
-121.502 -585.427 -1421 55 54 63
-118.338 -584.534 -1419 57 56 64
