ply
format ascii 1.0
comment Created by Open3D
element vertex 1467
property double x
property double y
property double z
property uchar red
property uchar green
property uchar blue
end_header
-141.525 166.822 -900 205 172 161
-139.52 166.601 -899 206 173 162
-137.979 166.936 -901 205 174 163
-136.884 167.828 -906 204 173 162
-135.621 168.534 -910 201 170 159
-133.755 168.5 -910 202 167 159
-132.759 169.577 -916 197 163 157
-131.597 170.469 -921 186 154 152
-130.275 171.177 -925 170 143 142
-128.799 171.699 -928 151 125 124
-128.132 173.331 -937 133 112 109
-127.16 174.594 -944 120 99 97
-127.354 177.521 -960 106 86 84
-126.831 179.523 -971 97 85 87
-126.521 181.894 -984 101 89 92
-125.78 183.71 -994 105 91 92
-125.248 185.896 -1006 105 88 91
-124.056 187.158 -1013 102 84 88
-123.198 188.975 -1023 101 84 86
-122.181 190.606 -1032 102 85 88
-121.711 193.161 -1046 99 82 85
-124.278 220.108 -1193 86 73 72
-122.472 221.184 -1199 65 53 52
-120.943 222.814 -1208 38 28 30
-118.887 223.521 -1212 22 17 20
-117.393 225.336 -1222 19 15 18
-116.518 228.441 -1239 17 14 21
-115.207 230.808 -1252 16 13 20
-113.664 232.808 -1263 16 13 20
-112.078 234.807 -1274 17 13 21
-110.534 236.99 -1286 23 18 26
-108.607 238.437 -1294 19 15 21
-106.238 238.963 -1297 18 14 21
-103.939 239.673 -1301 18 13 21
-101.546 240.2 -1304 12 12 16
-98.99 240.359 -1305 12 12 16
-96.7263 241.256 -1310 13 13 16
-94.587 242.521 -1317 13 13 17
-92.9785 245.26 -1332 12 12 16
-91.0392 247.262 -1343 12 12 16
-89.1221 249.448 -1355 13 13 17
-86.7111 250.347 -1360 14 14 18
-84.2188 251.062 -1364 16 16 20
-81.532 251.225 -1365 17 17 21
-79.1304 252.309 -1371 14 14 18
-76.8167 253.762 -1379 13 12 18
-74.7936 256.319 -1393 14 13 20
-72.6113 258.509 -1405 14 13 20
-71.0769 263.274 -1431 13 12 19
-68.5328 264.545 -1438 11 10 17
-65.9156 265.632 -1444 11 7 16
-63.2311 266.535 -1449 13 8 17
-60.4854 267.256 -1453 14 9 17
-57.8826 268.712 -1461 16 12 19
-55.2482 270.17 -1469 15 12 20
-52.8668 273.099 -1485 13 12 19
-50.1193 274.373 -1492 14 13 20
-47.5967 277.119 -1507 15 14 20
-45.1326 280.601 -1526 16 16 21
-43.3369 289.049 -1572 18 18 23
-40.82 293.635 -1597 15 15 17
-38.0147 296.751 -1614 14 14 16
-34.9045 297.845 -1620 16 16 20
-31.6728 298.02 -1621 17 16 23
-28.3671 297.461 -1618 19 18 25
-160.813 152.24 -827 185 162 148
-156.726 154.839 -842 190 161 147
-155.346 155.167 -844 190 160 147
-154.687 156.231 -850 191 161 149
-152.566 155.825 -848 195 165 156
-151.698 156.705 -853 197 165 161
-150.285 157.034 -855 196 164 162
-149.385 157.915 -860 196 164 159
-148.123 158.428 -863 196 164 156
-146.34 158.391 -863 195 162 148
-144.727 158.538 -864 193 160 148
-144.269 159.97 -872 193 160 149
-142.962 160.484 -875 191 162 150
-140.952 162.246 -885 196 165 154
-140.075 163.311 -891 203 170 159
-138.398 163.459 -892 203 170 159
-137.331 164.341 -897 204 171 160
-136.245 165.222 -902 203 171 160
-134.991 165.921 -906 201 169 159
-133.721 166.62 -910 200 166 158
-132.726 167.685 -916 194 160 154
-131.135 168.018 -918 185 153 151
-129.82 168.717 -922 170 144 142
-128.35 169.234 -925 151 126 124
-127.69 170.849 -934 134 113 110
-126.32 171.548 -938 120 99 97
-126.394 174.26 -953 105 85 84
-125.755 176.057 -963 94 82 85
-125.847 178.95 -979 98 86 88
-124.99 180.564 -988 102 88 89
-124.221 182.36 -998 103 86 89
-123.413 184.156 -1008 102 84 88
-122.444 185.77 -1017 101 84 86
-121.44 187.383 -1026 101 84 86
-120.517 189.18 -1036 100 83 87
-124.455 218.017 -1195 85 74 72
-122.748 219.263 -1202 64 53 52
-121.113 220.692 -1210 38 28 28
-119.054 221.392 -1214 22 15 18
-117.46 223.004 -1223 19 13 16
-116.113 225.163 -1235 15 12 19
-114.166 226.228 -1241 15 12 20
-112.826 228.57 -1254 16 13 21
-111.522 231.093 -1268 17 14 22
-109.733 232.706 -1277 18 14 22
-108.412 235.412 -1292 16 12 18
-106.13 236.115 -1296 17 14 20
-103.913 236.999 -1301 17 13 20
-101.676 237.885 -1306 13 13 16
-99.1171 238.042 -1307 12 12 16
-96.7023 238.564 -1310 13 13 17
-94.4198 239.451 -1315 13 13 17
-92.6064 241.613 -1327 12 12 16
-90.8132 243.957 -1340 13 13 17
-88.9027 246.119 -1352 14 14 17
-86.562 247.19 -1358 13 13 17
-84.0127 247.715 -1361 15 15 19
-81.3326 247.876 -1362 18 18 22
-78.9376 248.949 -1368 16 16 20
-76.7419 250.749 -1378 13 13 19
-74.614 252.914 -1390 12 11 18
-72.49 255.261 -1403 13 12 19
-70.7116 259.064 -1424 13 12 19
-68.4681 261.412 -1437 10 9 16
-65.8993 262.668 -1444 11 8 17
-63.1718 263.38 -1448 13 9 19
-60.4288 264.092 -1452 15 10 18
-57.7495 265.169 -1458 16 12 19
-55.1593 266.792 -1467 15 12 18
-52.7113 269.325 -1481 12 10 17
-50.0733 271.13 -1491 12 11 17
-47.4902 273.482 -1504 13 12 20
-45.0327 276.926 -1523 13 12 19
-42.9127 283.097 -1557 14 13 20
-40.5543 288.541 -1587 16 16 20
-37.9582 293.077 -1612 16 16 20
-34.8097 293.795 -1616 15 15 19
-31.6454 294.514 -1620 16 15 20
-28.3952 294.507 -1620 18 18 23
-171.974 134.348 -734 200 182 187
-172.278 135.768 -742 200 182 188
-170.248 135.359 -740 201 177 185
-165.316 133.811 -732 207 182 189
-161.088 131.577 -720 212 183 188
-160.19 149.977 -824 207 182 164
-159.051 150.483 -827 212 186 166
-158.473 151.535 -833 207 180 166
-156.741 151.495 -833 208 179 163
-155.011 151.456 -833 211 180 163
-153.283 151.418 -833 211 178 164
-152.647 152.47 -839 210 177 163
-151.088 152.614 -840 205 174 163
-149.527 152.758 -841 205 172 165
-147.435 152.358 -839 203 169 165
-146.048 152.685 -841 199 165 161
-144.139 152.467 -840 194 160 154
-141.727 151.705 -836 193 160 149
-140.504 152.215 -839 194 160 148
-140.594 154.175 -850 193 158 146
-140.149 155.591 -858 188 159 147
-139.512 156.826 -865 192 162 151
-139.006 158.241 -873 195 164 153
-138.311 159.476 -880 195 163 152
-136.347 159.26 -879 194 162 151
-135.767 160.676 -887 199 166 155
-134.399 161.186 -890 202 169 159
-134.063 162.964 -900 202 171 160
-132.806 163.655 -904 198 164 156
-131.823 164.708 -910 189 156 150
-130.103 164.857 -911 181 150 148
-129.506 166.453 -920 170 144 142
-127.902 166.783 -922 153 128 126
-127.384 168.56 -932 137 116 113
-125.885 169.072 -935 122 101 100
-125.965 171.753 -950 109 89 89
-125.462 173.71 -961 96 82 85
-125.687 176.752 -978 95 81 84
-125.085 178.709 -989 99 85 86
-124.315 180.485 -999 102 85 89
-123.26 181.899 -1007 102 84 88
-122.534 183.856 -1018 101 84 86
-121.292 185.09 -1025 102 85 87
-120.138 186.505 -1033 103 86 90
-119.525 188.822 -1046 100 83 87
-120.206 193.305 -1071 92 75 79
-122.77 201.036 -1114 86 69 71
-125.255 212.884 -1180 88 74 75
-124.737 216.1 -1198 85 74 72
-122.819 216.972 -1203 67 56 55
-121.083 218.204 -1210 40 30 31
-119.319 219.437 -1217 23 15 19
-117.335 220.309 -1222 19 12 16
-115.426 221.362 -1228 14 11 18
-113.862 223.137 -1238 15 12 20
-112.079 224.551 -1246 18 15 23
-110.879 227.227 -1261 18 15 22
-109.276 229.182 -1272 16 12 20
-107.63 231.137 -1283 14 9 17
-106.022 233.273 -1295 16 12 19
-103.807 234.147 -1300 17 14 21
-101.651 235.203 -1306 14 14 16
-99.1684 235.538 -1308 12 12 15
-96.6784 235.875 -1310 12 12 16
-94.253 236.391 -1313 13 13 16
-92.3046 238.169 -1323 14 14 17
-90.3167 239.947 -1333 14 14 18
-88.7493 242.985 -1350 13 13 16
-86.2858 243.683 -1354 12 12 15
-83.8069 244.382 -1358 13 13 15
-81.2529 244.902 -1361 14 14 17
-78.6875 245.422 -1364 14 14 18
-76.3333 246.663 -1371 15 14 20
-74.381 249.343 -1386 13 12 19
-72.3689 252.024 -1401 13 12 19
-70.4957 255.424 -1420 13 12 19
-68.2132 257.565 -1432 11 10 17
-65.7918 259.348 -1442 13 11 19
-63.0691 260.051 -1446 14 11 21
-60.2892 260.576 -1449 15 11 19
-57.6165 261.64 -1455 15 11 18
-55.033 263.245 -1464 14 10 15
-52.5204 265.389 -1476 13 10 15
-49.7923 266.636 -1483 13 10 16
-47.1945 268.781 -1495 14 13 21
-44.7556 272.186 -1514 15 14 22
-42.2409 275.591 -1533 15 14 22
-39.9313 280.974 -1563 19 18 24
-37.6664 287.616 -1600 19 19 24
-34.6504 289.225 -1609 18 18 23
-31.54 290.295 -1615 18 17 22
-28.3181 290.468 -1616 16 16 21
-174.195 133.402 -737 205 185 193
-172.868 133.54 -738 206 182 188
-172.466 134.401 -743 205 179 184
-170.896 134.358 -743 209 176 181
-160.86 131.12 -726 210 170 173
-157.577 129.636 -718 210 168 170
-156.937 130.319 -722 214 167 169
-154.97 131.144 -727 213 170 168
-154.849 133.592 -741 216 174 171
-158.307 140.683 -781 224 186 180
-161.003 146.007 -811 220 191 184
-161.277 147.767 -821 216 190 180
-160.733 148.807 -827 218 189 176
-159.973 149.667 -832 221 192 177
-158.623 149.987 -834 219 192 178
-156.514 149.589 -832 218 189 172
-153.857 148.651 -827 219 187 169
-151.957 148.434 -826 216 182 166
-150.245 148.397 -826 212 179 164
-148.533 148.36 -826 209 176 165
-145.935 147.426 -821 204 172 163
-142.831 145.954 -813 198 168 159
-139.588 144.303 -804 198 165 161
-137.07 143.372 -799 194 161 156
-134.912 142.8 -796 192 160 150
-134.107 143.664 -801 194 161 150
-134.771 146.142 -815 190 157 146
-135.542 148.798 -830 189 158 147
-135.769 150.916 -842 188 158 147
-136.265 153.392 -856 191 160 150
-135.92 154.971 -865 189 158 147
-134.143 154.938 -865 188 156 145
-133.897 156.696 -875 190 157 146
-133.762 158.633 -886 193 159 151
-132.69 159.495 -891 195 161 153
-132.186 161.074 -900 191 157 149
-131.212 162.115 -906 185 153 147
-129.786 162.62 -909 178 149 146
-128.63 163.483 -914 170 143 143
-127.177 163.988 -917 154 129 128
-126.67 165.745 -927 137 116 113
-125.585 166.787 -933 124 102 102
-125.801 169.617 -949 115 94 94
-125.432 171.73 -961 98 84 87
-125.4 174.38 -976 93 79 82
-124.802 176.315 -987 95 81 84
-123.911 177.892 -996 101 85 88
-122.618 178.934 -1002 101 83 87
-121.903 180.868 -1013 102 85 87
-121.026 182.624 -1023 104 87 90
-119.76 183.844 -1030 105 88 92
-119.153 186.135 -1043 103 86 90
-120.289 191.281 -1072 96 79 82
-122.41 198.21 -1111 84 67 69
-124.482 205.316 -1151 85 70 71
-124.907 209.923 -1177 85 71 72
-124.29 212.925 -1194 82 71 69
-122.994 214.856 -1205 64 53 53
-121.353 216.253 -1213 38 28 30
-119.486 217.293 -1219 22 15 18
-117.499 218.155 -1224 19 12 16
-115.21 218.484 -1226 14 11 18
-113.559 220.06 -1235 14 11 19
-111.782 221.458 -1243 16 13 21
-109.797 222.5 -1249 16 13 20
-108.906 225.858 -1268 15 11 18
-107.436 228.147 -1281 13 8 16
-105.587 229.724 -1290 14 11 18
-103.622 231.123 -1298 15 12 19
-101.626 232.523 -1306 13 13 15
-99.0685 232.677 -1307 12 12 15
-96.655 233.187 -1310 12 12 16
-94.1583 233.52 -1312 13 13 15
-92.0728 234.921 -1320 13 13 15
-90.1592 236.857 -1331 14 14 18
-88.4649 239.504 -1346 13 13 16
-86.1375 240.551 -1352 12 12 14
-83.6632 241.242 -1356 12 12 15
-81.1735 241.934 -1360 13 13 16
-78.6684 242.626 -1364 14 14 18
-76.4261 244.208 -1373 14 13 19
-74.3629 246.502 -1386 13 12 19
-72.2997 248.974 -1400 11 10 17
-70.3793 252.158 -1418 11 10 17
-68.0062 253.92 -1428 10 10 14
-65.8215 256.571 -1443 12 11 17
-63.0973 257.266 -1447 13 11 19
-60.3162 257.785 -1450 12 10 18
-57.5629 258.481 -1454 12 10 17
-54.8693 259.535 -1460 13 11 17
-52.2944 261.299 -1470 12 10 17
-49.7803 263.598 -1483 13 11 19
-47.1198 265.363 -1493 14 13 21
-44.4197 267.13 -1503 15 14 22
-41.7899 269.608 -1517 16 14 22
-37.163 280.607 -1579 20 19 25
-34.4698 284.508 -1601 20 19 26
-31.4543 286.277 -1611 17 16 23
-28.2762 286.803 -1614 15 14 21
-176.19 132.266 -739 215 182 193
-174.86 132.401 -740 215 181 192
-173.293 132.358 -740 210 175 182
-172.424 132.852 -743 208 170 174
-164.143 132.287 -741 206 158 160
-161.926 131.712 -738 205 157 158
-159.723 131.137 -735 205 151 152
-156.637 131.059 -735 205 155 151
-155.307 131.199 -736 206 160 157
-154.184 131.518 -738 210 165 162
-155.228 136.391 -766 225 183 175
-156.036 138.49 -778 221 189 183
-157.986 141.655 -796 222 194 184
-159.47 144.463 -812 220 195 183
-158.945 145.491 -818 223 196 182
-158.396 146.52 -824 223 195 181
-157.063 146.837 -826 222 195 180
-154.407 145.91 -821 223 194 177
-151.959 145.162 -817 223 192 173
-150.448 145.303 -818 220 186 170
-148.935 145.444 -819 214 180 165
-146.519 144.698 -815 208 175 164
-144.3 144.13 -812 203 172 163
-140.337 141.788 -799 200 170 163
-135.215 138.206 -779 196 166 161
-132.062 136.576 -770 190 160 153
-129.965 136.013 -767 188 158 146
-128.551 136.159 -768 190 158 146
-133.208 148.259 -837 186 155 146
-133.844 150.883 -852 186 155 144
-132.87 151.736 -857 186 154 143
-132.334 153.12 -865 187 154 143
-131.466 154.151 -871 187 154 145
-131.913 156.773 -886 191 157 149
-130.832 157.626 -891 189 158 150
-130.022 158.833 -898 185 155 149
-128.755 159.509 -902 179 151 149
-127.614 160.362 -907 170 144 143
-126.592 161.392 -913 156 131 131
-126.366 163.483 -925 139 117 116
-125.15 164.336 -930 127 105 105
-124.976 166.603 -943 116 94 95
-124.488 168.516 -954 101 87 90
-124.342 170.959 -968 94 80 83
-123.886 173.048 -980 95 81 84
-123.135 174.784 -990 99 82 86
-122.343 176.52 -1000 101 83 87
-121.753 178.608 -1012 99 82 84
-120.76 180.167 -1021 104 87 90
-120.08 182.256 -1033 103 86 90
-119.695 184.873 -1048 102 86 90
-120.372 189.254 -1073 98 81 85
-122.821 196.632 -1115 82 65 67
-124.992 203.832 -1156 80 65 66
-125.407 208.387 -1182 84 70 71
-124.885 211.53 -1200 81 70 68
-123.168 212.734 -1207 61 50 50
-121.324 213.762 -1213 35 25 27
-119.359 214.614 -1218 20 13 16
-117.182 215.114 -1221 19 12 16
-115.277 216.143 -1227 15 12 19
-113.347 217.173 -1233 14 11 18
-111.125 217.674 -1236 14 11 19
-109.771 219.937 -1249 16 13 20
-108.193 221.848 -1260 16 13 20
-107.075 224.815 -1277 13 10 17
-105.316 226.55 -1287 13 10 17
-103.438 228.109 -1296 14 11 18
-101.291 229.141 -1302 10 10 13
-98.8932 229.645 -1305 11 11 14
-96.558 230.326 -1309 12 12 16
-94.0639 230.655 -1311 12 12 14
-91.8416 231.688 -1317 12 12 14
-89.6635 232.898 -1324 13 13 17
-87.9179 235.339 -1338 13 13 16
-85.9257 237.253 -1349 12 12 14
-83.5197 238.112 -1354 13 13 17
-81.0347 238.796 -1358 13 13 17
-78.5342 239.48 -1362 13 13 17
-76.2965 241.044 -1371 13 12 18
-74.1305 242.96 -1382 12 11 18
-72.0242 245.228 -1395 10 9 16
-70.1143 248.375 -1413 10 9 16
-67.9422 250.819 -1427 10 10 15
-65.6689 253.088 -1440 12 11 17
-63.0386 254.128 -1446 12 11 18
-60.2185 254.464 -1448 13 12 20
-57.5095 255.329 -1453 13 12 19
-54.7434 256.019 -1457 12 11 18
-52.2107 257.939 -1468 11 10 18
-49.6006 259.683 -1478 12 11 19
-46.8561 260.902 -1485 12 11 19
-44.0841 262.121 -1492 14 12 19
-41.6147 265.449 -1511 16 13 20
-34.3108 280.002 -1594 18 17 24
-31.3296 281.926 -1605 18 17 24
-28.2345 283.149 -1612 15 14 22
-24.9874 282.967 -1611 14 13 21
-176.624 131.079 -741 212 170 178
-174.581 130.682 -739 203 160 166
-173.25 130.816 -740 199 153 156
-172.149 131.128 -742 197 151 151
-171.041 131.439 -744 197 149 146
-167.228 132.022 -748 197 143 143
-165.432 131.805 -747 192 140 139
-162.983 131.059 -743 192 140 140
-160.335 130.138 -738 200 144 146
-158.571 129.923 -737 211 156 157
-156.386 129.356 -734 218 165 165
-154.426 128.966 -732 222 172 173
-153.102 129.105 -733 228 178 179
-154.394 135.469 -770 222 184 186
-155.964 138.246 -786 222 189 186
-157.075 140.67 -800 224 197 188
-158.129 143.094 -814 226 201 188
-156.82 143.407 -816 227 202 188
-155.504 143.721 -818 223 197 181
-153.43 143.332 -816 219 190 172
-150.992 142.593 -812 214 184 165
-149.125 142.381 -811 212 178 163
-147.262 142.17 -810 209 175 161
-144.327 140.907 -803 201 169 160
-141.067 139.293 -794 197 167 161
-136.089 135.927 -775 197 167 164
-132.752 134.141 -765 202 171 166
-129.973 132.882 -758 204 172 166
-127.731 132.15 -754 208 176 165
-126.344 132.295 -755 208 175 164
-131.613 146.676 -838 182 151 140
-131.753 148.744 -850 182 150 139
-131.385 150.288 -859 184 151 140
-130.68 151.481 -866 185 151 142
-130.691 153.548 -878 186 152 144
-129.48 154.217 -882 185 154 147
-128.977 155.759 -891 180 150 146
-127.725 156.428 -895 175 147 146
-126.739 157.446 -901 167 140 140
-125.868 158.639 -908 156 130 130
-125.243 160.181 -917 140 118 117
-124.313 161.374 -924 127 105 105
-124.018 163.44 -936 115 93 94
-123.545 165.331 -947 102 86 90
-123.028 167.222 -958 98 82 86
-122.846 169.637 -972 95 80 83
-122.484 171.876 -985 98 81 85
-122.314 174.464 -1000 101 83 87
-121.724 176.528 -1012 100 83 85
-120.613 177.895 -1020 102 85 88
-119.819 179.785 -1031 103 86 90
-119.438 182.372 -1046 103 88 92
-119.894 186.353 -1069 94 78 82
-122.681 194.168 -1114 83 67 69
-125.503 202.33 -1161 77 62 64
-126.013 207.006 -1188 80 66 67
-125.167 209.589 -1203 80 67 66
-123.445 210.779 -1210 60 48 48
-121.595 211.795 -1216 34 24 26
-119.428 212.289 -1219 19 12 16
-117.442 213.132 -1224 19 12 16
-115.343 213.801 -1228 16 13 20
-113.412 214.818 -1234 14 11 18
-111.279 215.488 -1238 13 10 17
-109.393 216.68 -1245 15 12 19
-107.996 218.917 -1258 16 13 20
-106.63 221.328 -1272 15 12 19
-105.045 223.391 -1284 14 11 18
-103.094 224.758 -1292 13 10 17
-101.033 225.951 -1299 10 10 13
-98.8696 226.971 -1305 10 10 13
-96.3875 227.296 -1307 11 11 15
-94.0416 227.969 -1311 11 11 14
-91.8197 228.99 -1317 11 11 14
-89.7099 230.36 -1325 12 12 16
-87.7657 232.251 -1336 13 13 16
-85.7779 234.143 -1347 12 12 15
-83.4382 235.166 -1353 13 13 17
-81.0155 236.016 -1358 13 13 17
-78.5732 236.866 -1363 14 13 18
-76.2784 238.238 -1371 15 14 20
-74.1665 240.305 -1383 12 11 18
-72.0071 242.373 -1395 11 10 17
-69.8993 244.789 -1409 11 10 17
-67.7834 247.378 -1424 12 11 18
-65.4709 249.447 -1436 12 11 18
-62.8058 250.301 -1441 11 10 17
-60.0379 250.807 -1444 13 12 20
-57.2981 251.488 -1448 13 12 20
-54.5802 252.343 -1453 13 12 19
-52.056 254.241 -1464 13 12 20
-49.2533 254.924 -1468 12 11 19
-46.8767 258.038 -1486 10 9 17
-44.0145 258.722 -1490 12 9 17
-41.2469 260.101 -1498 15 12 19
-33.9369 273.791 -1577 17 16 23
-31.2442 277.95 -1601 16 15 23
-28.1927 279.505 -1610 17 16 24
-25.0124 280.02 -1613 16 15 23
-175.011 129.492 -741 188 139 137
-173.208 129.275 -740 184 130 125
-172.108 129.583 -742 182 129 126
-171 129.891 -744 179 128 126
-169.885 130.199 -746 179 127 125
-168.989 130.682 -749 180 129 127
-168.081 131.164 -752 186 134 132
-166.056 130.775 -750 193 140 139
-163.382 129.864 -745 204 152 150
-160.731 128.954 -740 222 166 169
-158.533 128.393 -737 228 172 176
-156.348 127.833 -734 230 175 180
-154.388 127.447 -732 230 177 182
-153.065 127.584 -733 230 178 182
-153.545 134.532 -774 212 176 174
-153.504 135.886 -782 206 176 172
-154.401 138.108 -795 208 180 170
-154.669 139.808 -805 207 180 167
-153.567 140.292 -808 203 177 159
-151.889 140.256 -808 206 176 158
-149.841 139.873 -806 208 176 158
-147.802 139.49 -804 204 171 157
-145.591 138.935 -801 199 167 155
-142.496 137.513 -793 196 164 157
-138.724 135.399 -781 200 166 161
-134.476 132.766 -766 212 175 171
-131.506 131.348 -758 222 182 179
-129.256 130.624 -754 224 184 180
-127.024 129.901 -750 227 185 181
-125.478 129.871 -750 220 181 177
-130.791 145.955 -844 177 146 135
-130.283 147.308 -852 183 150 139
-130.045 149.006 -862 187 155 145
-129.023 149.839 -867 185 152 144
-128.862 151.71 -878 183 152 145
-127.789 152.543 -883 180 150 146
-126.696 153.377 -888 177 149 148
-125.725 154.384 -894 166 140 140
-125.007 155.735 -902 153 127 127
-124.804 157.778 -914 139 116 115
-123.88 158.957 -921 125 103 103
-123.989 161.516 -936 114 92 93
-123.255 163.04 -945 103 86 90
-122.87 165.081 -957 100 83 87
-122.206 169.508 -983 98 81 85
-121.918 171.893 -997 99 82 86
-121.094 173.588 -1007 100 83 86
-120.111 175.111 -1016 102 85 89
-119.558 177.324 -1029 103 86 90
-118.953 179.536 -1042 103 87 91
-119.53 183.642 -1066 91 77 80
-122.322 191.366 -1111 82 68 70
-125.473 199.948 -1161 76 61 63
-125.984 204.569 -1188 79 65 66
-125.242 207.294 -1204 80 66 65
-123.314 208.126 -1209 59 47 47
-121.267 208.786 -1213 34 24 26
-119.204 209.446 -1217 20 13 17
-117.223 210.279 -1222 19 12 16
-115.128 210.94 -1226 15 12 19
-113.386 212.289 -1234 13 11 18
-111.163 212.779 -1237 12 11 18
-109.192 213.786 -1243 15 12 19
-107.627 215.652 -1254 16 13 20
-106.27 218.034 -1268 18 15 22
-104.694 220.073 -1280 16 13 20
-102.83 221.596 -1289 13 10 17
-100.854 222.948 -1297 10 10 14
-98.6949 223.956 -1303 9 9 13
-96.2174 224.277 -1305 9 9 13
-93.9478 225.114 -1310 10 10 14
-91.5891 225.779 -1314 10 10 14
-89.3504 226.789 -1320 12 12 16
-87.2197 228.143 -1328 13 13 17
-85.5032 230.7 -1343 14 14 18
-83.2953 232.054 -1351 12 12 16
-80.9964 233.237 -1358 11 11 16
-78.4971 233.906 -1362 14 13 20
-76.1493 235.09 -1369 15 14 21
-74.1492 237.476 -1383 13 12 19
-71.8871 239.177 -1393 12 11 18
-69.9325 242.079 -1410 12 11 18
-67.7674 244.466 -1424 12 11 18
-65.41 246.339 -1435 12 11 18
-62.7476 247.183 -1440 12 11 18
-59.9407 247.511 -1442 11 10 18
-57.2451 248.356 -1447 11 10 17
-54.4923 249.03 -1451 12 11 18
-51.9372 250.733 -1461 14 13 21
-49.4766 253.124 -1475 12 11 19
-46.7711 254.486 -1483 9 8 16
-43.9747 255.505 -1489 11 9 16
-41.1821 256.696 -1496 15 12 19
-31.0027 272.619 -1589 17 16 25
-28.1512 275.872 -1608 18 17 26
-24.9911 276.552 -1612 17 16 26
-175.205 128.122 -742 175 127 125
-173.401 127.908 -741 171 119 115
-172.066 128.04 -742 169 117 114
-171.189 128.516 -745 171 120 118
-170.527 129.166 -749 182 130 128
-169.399 129.47 -751 192 140 138
-168.265 129.775 -753 202 150 148
-166.459 129.563 -752 214 161 159
-163.782 128.662 -747 223 170 168
-160.693 127.418 -740 231 174 175
-158.71 127.036 -738 230 173 176
-156.524 126.482 -735 227 171 176
-154.562 126.101 -733 223 167 174
-153.028 126.065 -733 219 164 170
-152.116 126.545 -736 210 159 161
-150.524 131.692 -767 195 161 160
-152.034 134.403 -783 195 165 160
-152.712 136.427 -795 198 168 162
-152.01 137.249 -800 200 171 161
-150.725 137.556 -802 201 172 159
-149.062 137.521 -802 200 170 155
-146.848 136.972 -799 200 167 153
-144.467 136.252 -795 201 167 155
-131.128 129.442 -756 228 184 182
-128.883 128.727 -752 223 179 177
-126.824 128.183 -749 217 174 170
-125.114 127.983 -748 208 167 162
-123.904 128.296 -750 197 157 151
-129.366 142.68 -835 180 148 137
-130.253 145.554 -852 182 149 138
-129.864 147.061 -861 183 152 142
-128.546 147.543 -864 181 149 140
-127.658 148.538 -870 183 152 145
-127.035 149.874 -878 180 151 147
-125.668 150.356 -881 177 149 148
-124.711 151.351 -887 166 141 140
-123.454 152.005 -891 154 129 128
-123.136 153.852 -902 143 119 118
-122.641 155.529 -912 130 107 107
-122.635 157.888 -926 117 95 96
-122.574 160.246 -940 103 86 90
-122.585 162.775 -955 99 82 86
-122.03 164.621 -966 101 84 88
-121.929 167.149 -981 99 82 86
-122.012 170.017 -998 98 81 85
-121.186 171.692 -1008 100 83 87
-119.847 172.686 -1014 103 86 90
-119.414 175.042 -1028 103 86 90
-119.268 177.909 -1045 103 86 90
-120.062 182.307 -1071 90 74 78
-122.954 190.109 -1117 82 68 71
-125.984 198.419 -1166 77 63 65
-126.484 202.984 -1193 80 66 67
-125.316 204.997 -1205 78 64 63
-123.285 205.648 -1209 57 44 45
-121.138 206.13 -1212 31 21 23
-119.275 207.123 -1218 20 13 17
-117.291 207.946 -1223 18 11 16
-115.101 208.429 -1226 15 12 19
-113.359 209.762 -1234 13 11 18
-111.227 210.416 -1238 10 9 16
-109.254 211.411 -1244 13 10 17
-107.43 212.745 -1252 15 12 19
-106.161 215.269 -1267 17 14 21
-104.588 217.284 -1279 16 13 20
-102.807 218.958 -1289 13 10 17
-100.753 220.124 -1296 10 10 14
-98.5964 221.12 -1302 9 9 13
-96.1951 221.607 -1305 9 9 13
-93.9977 222.604 -1311 10 10 14
-91.5679 223.092 -1314 10 10 14
-89.3297 224.09 -1320 10 10 14
-87.0682 225.088 -1326 13 13 17
-85.1015 226.935 -1337 14 14 18
-82.9679 228.443 -1346 12 12 16
-80.6199 229.443 -1352 11 11 15
-78.3061 230.613 -1359 11 10 17
-76.076 232.122 -1368 13 12 19
-74.0785 234.48 -1382 13 12 19
-71.922 236.499 -1394 12 11 18
-70.2138 240.215 -1416 13 12 19
-67.6566 241.217 -1422 12 11 18
-65.3494 243.237 -1434 12 11 18
-62.6894 244.071 -1439 12 11 18
-59.8853 244.396 -1441 10 9 17
-57.1528 245.061 -1445 9 8 16
-54.4046 245.726 -1449 12 11 18
-51.7476 246.901 -1456 14 13 21
-49.4317 249.942 -1474 13 12 20
-46.8233 251.796 -1485 10 9 17
-43.935 252.294 -1488 12 10 17
-41.1176 253.302 -1494 15 12 19
-38.3275 254.649 -1502 16 16 20
-174.062 126.879 -744 166 117 114
-172.721 127.009 -745 166 117 115
-171.608 127.309 -747 176 127 125
-170.942 127.95 -751 199 147 146
-169.81 128.251 -753 210 158 156
-168.895 128.722 -756 213 161 159
-167.084 128.513 -755 220 166 164
-164.182 127.453 -749 221 167 165
-161.306 126.394 -743 225 166 168
-158.888 125.676 -739 222 164 168
-156.913 125.299 -737 217 159 165
-154.737 124.752 -734 210 151 158
-153.201 124.716 -734 204 146 152
-151.873 124.851 -735 194 141 143
-148.526 128.41 -757 179 140 139
-149.281 130.41 -769 181 143 140
-149.027 131.563 -776 182 146 142
-149.885 133.732 -789 182 149 142
-149.563 134.883 -796 184 152 142
-148.284 135.187 -798 193 161 148
-146.63 135.153 -798 203 168 156
-143.525 133.765 -790 212 175 165
-129.024 127.346 -753 206 160 158
-126.964 126.809 -750 199 155 151
-125.252 126.61 -749 195 152 146
-123.875 126.751 -750 185 143 137
-126.703 138.092 -818 182 150 138
-129.764 143.295 -849 182 151 140
-129.23 144.615 -857 186 151 144
-128.665 145.935 -865 188 153 146
-126.601 145.568 -863 185 154 147
-125.704 146.551 -869 181 151 147
-124.355 147.028 -872 177 147 146
-123.417 148.011 -878 164 139 138
-122.178 148.657 -882 157 132 131
-121.88 150.483 -893 146 121 121
-121.806 152.646 -906 135 112 112
-122.21 155.482 -923 119 97 98
-122.546 158.317 -940 103 86 90
-122.813 161.152 -957 98 81 85
-122.002 162.639 -966 99 82 86
-121.776 164.968 -980 97 80 84
-122.106 168.138 -999 97 80 84
-121.398 169.961 -1010 101 84 88
-120.056 170.943 -1016 103 86 90
-119.851 173.608 -1032 103 86 90
-119.811 176.608 -1050 101 84 88
-121.043 181.626 -1080 89 72 76
-124.136 189.67 -1128 81 67 70
-126.711 197.207 -1173 77 63 64
-126.455 200.54 -1193 79 65 66
-125.288 202.528 -1205 77 63 62
-123.359 203.34 -1210 54 41 42
-121.211 203.817 -1213 28 18 20
-119.051 204.293 -1216 19 12 15
-117.169 205.274 -1222 19 13 17
-115.075 205.919 -1226 15 13 20
-113.333 207.237 -1234 13 11 18
-111.291 208.051 -1239 11 10 17
-109.405 209.201 -1246 13 10 17
-107.32 210.016 -1251 14 11 18
-106.305 213.013 -1269 16 13 20
-104.482 214.5 -1278 15 12 19
-102.703 216.155 -1288 13 10 17
-100.652 217.306 -1295 11 11 15
-98.4981 218.29 -1301 12 12 16
-96.2468 219.107 -1306 12 12 16
-93.9045 219.756 -1310 13 13 17
-91.4772 220.238 -1313 10 10 14
-89.174 221.057 -1318 10 9 15
-86.8513 221.875 -1323 13 12 17
-84.8274 223.533 -1333 15 15 19
-82.764 225.19 -1343 13 13 17
-80.4823 226.345 -1350 11 11 15
-78.2306 227.669 -1358 11 10 17
-75.9474 228.992 -1366 12 11 18
-74.0615 231.657 -1382 12 11 18
-72.0088 233.987 -1396 12 11 18
-70.0491 236.821 -1413 12 11 18
-67.8314 238.984 -1426 11 10 17
-65.38 240.477 -1435 10 9 16
-62.6316 240.965 -1438 11 10 17
-59.8716 241.454 -1441 9 8 15
-57.1002 241.943 -1444 8 7 15
-54.5048 243.271 -1452 11 10 17
-51.9489 244.934 -1462 13 12 20
-49.3198 246.43 -1471 14 13 21
-46.7181 248.262 -1482 13 12 20
-43.8954 249.09 -1487 13 11 18
-40.9982 249.582 -1490 16 13 20
-38.1912 250.746 -1497 15 15 19
-174.723 125.838 -747 163 114 113
-173.376 125.966 -748 167 118 116
-172.256 126.263 -750 178 130 128
-171.357 126.728 -753 196 145 144
-169.996 126.857 -754 202 151 150
-169.526 127.658 -759 202 152 151
-167.266 127.115 -756 206 153 152
-164.582 126.236 -751 205 152 152
-159.066 124.313 -740 205 145 149
-156.663 123.604 -736 199 139 145
-154.701 123.232 -734 195 134 142
-153.166 123.197 -734 190 131 138
-151.838 123.33 -735 180 125 128
-150.712 123.63 -737 178 123 126
-148.492 126.845 -757 164 123 123
-148.858 128.487 -767 162 121 120
-148.032 129.123 -771 162 121 118
-149.091 131.433 -785 163 126 120
-148.965 132.738 -793 175 139 129
-148.435 133.708 -799 196 161 149
-146.413 133.339 -797 208 169 158
-143.492 132.135 -790 210 169 159
-129.166 125.962 -754 190 142 141
-126.935 125.264 -750 183 138 134
-125.39 125.235 -750 184 138 135
-124.012 125.374 -751 178 133 129
-122.63 125.513 -752 173 136 130
-126.674 136.41 -818 184 153 143
-128.817 140.549 -843 184 153 143
-128.447 142.02 -852 191 154 148
-127.892 143.324 -860 192 153 148
-126.572 143.795 -863 185 153 146
-125.241 144.267 -866 182 151 147
-123.471 144.238 -866 178 146 146
-122.265 144.877 -870 165 140 138
-121.181 145.682 -875 158 132 130
-121.169 147.818 -888 149 122 121
-120.703 149.455 -898 137 110 110
-120.991 152.09 -914 124 98 98
-122.127 155.89 -937 104 87 92
-121.749 162.959 -980 98 80 84
-121.956 165.924 -998 101 84 88
-121.13 167.559 -1008 104 87 91
-120.028 168.862 -1016 103 85 89
-119.708 171.327 -1031 102 84 88
-120.012 174.79 -1052 98 81 85
-121.128 179.58 -1081 88 72 76
-124.548 188.024 -1132 78 64 67
-126.899 195.138 -1175 75 61 62
-126.745 198.596 -1196 78 64 65
-125.467 200.394 -1207 76 62 61
-123.636 201.362 -1213 53 40 41
-121.283 201.501 -1214 28 18 20
-119.318 202.303 -1219 17 10 14
-117.238 202.94 -1223 16 10 14
-115.236 203.744 -1228 12 10 17
-113.308 204.713 -1234 12 10 17
-111.266 205.518 -1239 12 11 18
-109.204 206.322 -1244 14 11 17
-107.553 207.956 -1254 15 12 19
-106.113 210.088 -1267 15 14 21
-104.458 211.888 -1278 14 11 19
-102.441 213.025 -1285 11 8 16
-100.474 214.328 -1293 10 10 15
-98.2487 215.135 -1298 12 12 17
-95.9303 215.776 -1302 13 13 17
-93.74 216.749 -1308 12 12 16
-91.3869 217.391 -1312 10 10 14
-89.0185 218.033 -1316 10 9 16
-86.7004 218.842 -1321 13 12 18
-84.4901 219.982 -1328 14 14 18
-82.4988 221.786 -1339 12 12 16
-80.3448 223.258 -1348 10 10 15
-78.2706 225.062 -1359 11 10 17
-75.9303 226.204 -1366 13 12 19
-74.1519 229.168 -1384 12 11 18
-71.9925 231.138 -1396 13 12 19
-70.0828 234.102 -1414 12 11 18
-67.8162 236.074 -1426 10 9 16
-65.4108 237.714 -1436 10 9 16
-62.5739 237.865 -1437 10 9 16
-59.7335 238.017 -1438 9 8 15
-57.0082 238.666 -1442 8 7 14
-54.38 239.812 -1449 10 9 16
-51.653 240.628 -1454 12 11 19
-49.1411 242.602 -1466 14 13 21
-46.613 244.743 -1479 13 12 19
-43.856 245.891 -1486 13 11 18
-41.0164 246.709 -1491 15 12 19
-38.1826 247.693 -1497 14 14 18
-35.5131 250.001 -1511 14 14 19
-197.692 129.382 -775 205 186 188
-194.637 129.459 -776 206 179 182
-191.58 129.536 -777 206 169 176
-176.553 125.618 -755 163 115 113
-174.726 125.412 -754 165 117 116
-173.365 125.538 -755 172 124 123
-172.455 125.997 -758 182 132 132
-171.535 126.456 -761 188 138 138
-170.157 126.583 -762 188 138 138
-168.555 126.545 -762 191 139 139
-165.639 125.51 -756 188 136 136
-157.692 122.91 -741 185 123 130
-155.508 122.377 -738 184 124 131
-153.965 122.342 -738 181 122 128
-152.423 122.307 -738 175 118 121
-151.087 122.438 -739 168 117 118
-149.95 122.735 -741 164 115 116
-149.607 123.695 -747 157 113 111
-149.042 124.488 -752 154 112 110
-149.046 125.779 -760 155 115 114
-148.824 126.903 -767 155 114 112
-148.191 127.697 -772 158 116 113
-148.107 128.986 -780 167 122 119
-148.367 130.606 -790 174 132 125
-147.844 131.564 -796 187 146 137
-146.196 131.531 -796 193 150 140
-143.64 130.672 -791 195 150 142
-140.748 129.484 -784 193 145 140
-129.65 124.904 -757 182 134 132
-127.583 124.38 -754 173 127 124
-125.863 124.187 -753 170 124 121
-124.314 124.159 -753 168 123 120
-123.091 124.461 -755 163 126 121
-124.558 130.804 -794 182 151 143
-126.8 134.894 -819 187 156 148
-128.177 138.159 -839 188 156 148
-127.664 139.447 -847 194 157 153
-126.971 140.571 -854 194 156 152
-125.664 141.036 -857 188 155 148
-124.49 141.666 -861 184 151 148
-122.731 141.639 -861 177 145 145
-121.534 142.269 -865 167 141 138
-120.323 142.9 -869 161 136 133
-120.051 144.682 -880 149 125 123
-119.601 146.299 -890 137 110 110
-120.302 149.395 -909 126 98 98
-121.448 153.148 -932 104 89 95
-122.886 157.392 -958 99 85 89
-122.578 159.5 -971 98 84 87
-122.342 161.772 -985 98 81 85
-122.54 164.701 -1003 104 87 91
-121.824 166.48 -1014 107 90 94
-120.828 167.93 -1023 102 85 89
-125.29 186.856 -1139 77 63 66
-126.978 192.898 -1176 75 61 63
-126.61 195.986 -1195 81 67 68
-125.543 198.089 -1208 77 63 63
-123.507 198.717 -1212 52 40 41
-121.456 199.346 -1216 28 18 20
-119.291 199.811 -1219 16 8 11
-117.116 200.276 -1222 15 9 13
-115.023 200.906 -1226 10 9 16
-113.282 202.191 -1234 10 9 16
-111.331 203.15 -1240 10 9 16
-109.443 204.272 -1247 12 9 14
-107.615 205.558 -1255 14 12 17
-106.006 207.336 -1266 14 13 20
-104.517 209.441 -1279 14 12 19
-102.418 210.401 -1285 12 9 17
-100.296 211.361 -1291 10 9 16
-98.0754 212.157 -1296 11 10 16
-95.7615 212.79 -1300 11 11 15
-93.4324 213.424 -1304 12 12 16
-91.2273 214.386 -1310 11 11 15
-88.7282 214.693 -1312 10 9 16
-86.4186 215.492 -1317 12 11 17
-84.2804 216.782 -1325 12 12 16
-82.3573 218.726 -1337 12 11 17
-80.2674 220.344 -1347 11 10 17
-78.1954 222.126 -1358 11 10 17
-76.0801 223.908 -1369 12 11 18
-74.0283 226.018 -1382 13 12 19
-71.9764 228.291 -1396 13 12 19
-70.2654 231.873 -1418 13 12 19
-67.8961 233.493 -1428 12 11 18
-65.4418 234.949 -1437 10 9 16
-62.647 235.262 -1439 10 9 16
-59.8448 235.576 -1441 10 9 16
-57.0746 236.053 -1444 10 9 16
-54.3679 236.858 -1449 11 10 17
-51.748 238.154 -1457 12 11 18
-49.2307 240.104 -1469 12 11 18
-46.5396 241.401 -1477 12 11 18
-43.8168 242.699 -1485 13 11 18
-41.0348 243.833 -1492 14 11 18
-38.0977 244.152 -1494 13 13 17
-35.4347 246.431 -1508 13 13 18
-32.63 248.058 -1518 14 13 20
-204.959 131.442 -797 208 189 193
-204.022 131.89 -800 210 189 192
-202.315 131.844 -800 209 185 188
-200.359 131.633 -799 212 181 184
-199.156 131.917 -801 215 177 183
-196.713 131.378 -798 210 169 175
-195.506 131.663 -800 206 163 169
-191.628 130.138 -791 198 152 155
-185.419 128.078 -779 180 131 127
-182.355 127.05 -773 168 119 115
-179.318 126.023 -767 163 114 112
-177.235 125.654 -765 163 115 113
-175.162 125.286 -763 168 120 119
-174.008 125.575 -765 172 124 123
-172.623 125.7 -766 176 127 126
-171.681 126.153 -769 179 130 129
-169.401 125.623 -766 178 129 128
-166.916 124.929 -762 174 123 123
-163.799 123.744 -755 180 118 120
-160.712 122.56 -748 178 115 120
-158.294 121.869 -744 175 114 121
-156.105 121.342 -741 170 114 119
-154.347 121.144 -740 168 112 116
-152.801 121.109 -740 166 111 114
-151.666 121.402 -742 157 111 110
-150.523 121.695 -744 152 109 107
-150.174 122.643 -750 145 106 103
-149.603 123.427 -755 142 104 101
-149.209 124.374 -761 143 107 103
-148.791 125.321 -767 145 108 105
-148.541 126.431 -774 148 108 105
-148.074 127.378 -780 156 109 106
-148.334 128.978 -790 163 118 112
-147.625 129.761 -795 173 129 121
-146.346 130.054 -797 179 133 124
-144.697 130.022 -797 180 133 126
-141.793 128.848 -790 175 126 122
-138.21 127.023 -779 176 127 124
-130.306 123.999 -761 177 130 128
-128.231 123.481 -758 165 119 116
-126.336 123.127 -756 157 111 108
-124.781 123.099 -756 158 113 110
-123.39 123.234 -757 157 121 117
-122.961 124.346 -764 159 124 120
-123.617 126.597 -778 165 131 126
-125.001 129.661 -797 171 138 133
-126.772 133.212 -819 179 147 141
-127.385 135.623 -834 183 149 144
-126.882 136.896 -842 187 150 147
-126.348 138.168 -850 191 153 150
-125.05 138.628 -853 187 152 146
-123.884 139.25 -857 181 148 144
-122.276 139.386 -858 175 143 142
-121.086 140.008 -862 166 139 135
-119.881 140.631 -866 159 133 130
-118.797 141.417 -871 147 123 121
-118.23 142.852 -880 136 111 110
-118.687 145.585 -897 124 98 98
-120.248 149.778 -923 105 90 96
-121.961 154.294 -951 99 85 90
-122.803 157.836 -973 96 84 87
-122.564 160.08 -987 96 82 85
-123.123 163.459 -1008 102 86 90
-122.638 165.54 -1021 105 88 92
-122.336 167.944 -1036 101 83 87
-128.03 192.113 -1186 77 63 65
-127.43 194.838 -1203 83 69 70
-126.138 196.592 -1214 77 63 64
-124.294 197.536 -1220 51 39 40
-122.028 197.833 -1222 26 16 18
-119.754 198.13 -1224 18 11 12
-117.473 198.427 -1226 15 10 12
-115.185 198.725 -1228 10 9 16
-113.074 199.348 -1232 10 9 16
-111.216 200.456 -1239 9 8 15
-109.244 201.402 -1245 10 7 12
-107.248 202.349 -1251 12 9 15
-105.982 204.752 -1266 12 11 18
-104.248 206.346 -1276 14 11 19
-102.236 207.455 -1283 12 9 17
-100.196 208.565 -1290 9 8 15
-97.9781 209.351 -1295 9 9 15
-95.6668 209.977 -1299 11 12 16
-93.3402 210.602 -1303 12 11 17
-91.1375 211.552 -1309 11 10 16
-88.7086 212.017 -1312 11 10 17
-86.2684 212.483 -1315 11 10 16
-84.1347 213.757 -1323 11 10 16
-82.3391 216 -1337 12 11 18
-80.1901 217.436 -1346 12 11 18
-78.2934 219.681 -1360 10 9 17
-76.0078 220.956 -1368 12 11 18
-74.0656 223.362 -1383 13 12 19
-71.9606 225.446 -1396 15 14 21
-70.2005 228.821 -1417 14 13 20
-67.9763 230.905 -1430 13 12 19
-65.4274 232.021 -1437 11 10 16
-62.6768 232.492 -1440 10 9 15
-59.8317 232.64 -1441 10 9 16
-57.0225 232.95 -1443 10 9 16
-54.2809 233.583 -1447 12 11 18
-51.5947 234.54 -1453 12 11 18
-49.0524 236.305 -1464 12 11 18
-46.5294 238.393 -1477 11 10 18
-43.7187 239.19 -1482 14 12 19
-40.9708 240.472 -1490 15 12 19
-38.1148 241.27 -1495 12 12 15
-35.3799 243.037 -1506 13 13 17
-32.5369 244.321 -1514 14 13 19
-207.134 130.155 -799 216 185 188
-206.712 130.923 -804 221 189 188
-205.505 131.202 -806 225 190 188
-204.798 131.807 -810 221 185 184
-202.821 131.598 -809 219 180 177
-201.348 131.716 -810 220 175 175
-199.626 131.671 -810 214 166 167
-197.905 131.626 -810 205 157 157
-195.218 130.932 -806 196 146 145
-193.749 131.051 -807 189 138 137
-188.947 128.897 -794 177 126 121
-186.088 128.044 -789 164 114 109
-182.55 126.704 -781 160 111 108
-179.048 125.366 -773 158 110 108
-177.188 125.164 -772 162 115 114
-175.561 125.125 -772 163 116 115
-173.936 125.086 -772 165 118 117
-172.535 125.209 -773 167 119 118
-170.468 124.847 -771 166 118 117
-167.974 124.162 -767 164 114 114
-165.063 123.153 -761 164 110 111
-161.965 121.984 -754 158 107 110
-159.322 121.14 -749 154 107 109
-156.913 120.458 -745 148 105 106
-155.147 120.261 -744 146 104 104
-153.18 119.904 -742 143 102 102
-152.04 120.193 -744 139 101 98
-150.894 120.483 -746 139 101 98
-150.741 121.58 -753 136 101 97
-150.164 122.354 -758 135 101 97
-149.764 123.289 -764 137 104 100
-149.146 124.062 -769 139 105 101
-148.892 125.159 -776 139 102 98
-148.041 125.771 -780 146 99 96
-147.738 126.867 -787 153 107 101
-147.221 127.801 -793 163 118 110
-146.498 128.574 -798 168 121 113
-144.484 128.22 -796 167 119 113
-142.48 127.866 -794 172 123 120
-139.775 126.869 -788 172 124 121
-136.22 125.068 -777 171 125 122
-133.925 124.394 -773 171 125 124
-131.647 123.722 -769 170 125 122
-129.048 122.728 -763 158 115 111
-127.311 122.539 -762 152 110 106
-125.744 122.511 -762 150 109 105
-124.503 122.805 -764 147 112 109
-123.739 123.581 -769 151 116 113
-124.702 126.125 -785 157 123 119
-125.757 128.829 -802 160 126 124
-126.434 131.21 -817 163 129 127
-126.441 132.949 -828 170 135 133
-125.95 134.206 -836 176 139 136
-124.983 134.981 -841 181 144 140
-123.703 135.435 -844 183 147 141
-122.845 136.371 -850 180 146 142
-121.537 136.825 -853 175 143 141
-120.217 137.28 -856 169 139 136
-118.332 137.093 -855 163 135 132
-117.271 137.869 -860 147 123 121
-116.324 138.806 -866 137 112 110
-116.148 140.703 -878 127 102 101
-117.356 144.364 -901 106 90 95
-120.011 149.945 -936 99 84 89
-121.64 154.404 -964 98 84 87
-128.973 191.129 -1195 80 66 67
-128.037 193.34 -1209 84 70 71
-126.734 195.071 -1220 75 61 62
-124.777 195.844 -1225 49 37 38
-122.4 195.977 -1226 26 16 18
-120.021 196.11 -1227 19 13 14
-117.735 196.404 -1229 17 12 13
-115.16 196.219 -1228 12 11 16
-113.324 197.313 -1235 10 11 17
-111.371 198.247 -1241 9 10 16
-109.395 199.181 -1247 11 8 13
-107.482 200.276 -1254 12 9 15
-105.792 201.85 -1264 12 11 18
-104.144 203.583 -1275 13 11 19
-102.134 204.679 -1282 13 10 18
-100.252 206.094 -1291 9 8 15
-98.0324 206.87 -1296 9 9 15
-95.6459 207.328 -1299 10 12 16
-93.3199 207.946 -1303 12 11 18
-90.9784 208.565 -1307 12 11 18
-88.6217 209.183 -1311 13 12 19
-86.184 209.643 -1314 12 11 18
-83.8621 210.422 -1319 12 11 18
-82.075 212.638 -1333 12 11 18
-80.1727 214.694 -1346 12 11 18
-78.2188 216.75 -1359 12 11 19
-76.1579 218.647 -1371 12 11 18
-73.9424 220.226 -1381 12 11 18
-71.9965 222.762 -1397 14 13 20
-69.987 225.297 -1413 14 13 20
-67.8665 227.674 -1428 12 11 18
-65.3676 228.935 -1436 11 11 16
-62.6196 229.4 -1439 10 10 14
-59.8186 229.705 -1441 9 8 15
-57.0102 230.012 -1443 9 8 15
-54.3066 230.797 -1448 11 10 17
-51.5835 231.582 -1453 13 12 19
-49.1422 233.803 -1467 14 13 20
-46.6768 236.183 -1482 12 11 19
-43.8566 236.97 -1487 14 12 19
-40.9344 237.279 -1489 15 12 19
-38.0301 237.749 -1492 12 12 14
-35.3253 239.653 -1504 13 13 15
-32.4439 240.602 -1510 15 14 19
-208.125 129.136 -803 215 173 173
-207.437 129.733 -807 217 171 165
-206.479 130.169 -810 220 171 164
-205.51 130.605 -813 216 168 160
-203.778 130.56 -813 211 161 152
-202.049 130.515 -813 210 156 149
-200.32 130.47 -813 205 149 143
-198.594 130.426 -813 193 139 133
-197.111 130.542 -814 187 133 127
-195.146 130.339 -813 181 127 121
-192.711 129.815 -810 169 118 112
-189.112 128.491 -802 159 109 103
-185.08 126.848 -792 157 108 105
-181.787 125.686 -785 155 107 106
-178.526 124.526 -778 156 109 108
-176.432 124.167 -776 157 110 109
-174.348 123.808 -774 155 108 107
-172.72 123.77 -774 154 107 106
-171.094 123.732 -774 155 107 106
-169.031 123.375 -772 153 106 105
-166.545 122.699 -768 144 102 102
-163.862 121.864 -763 135 97 96
-160.988 120.87 -757 133 96 95
-158.563 120.196 -753 130 96 94
-156.364 119.683 -750 131 96 94
-154.797 119.649 -750 133 98 96
-153.641 119.934 -752 133 98 95
-153.085 120.698 -757 134 99 95
-152.309 121.302 -761 131 100 95
-151.715 122.066 -766 131 101 96
-151.299 122.989 -772 133 103 98
-150.082 123.274 -774 135 104 99
-149.243 123.879 -778 137 102 97
-148.578 124.642 -783 143 100 96
-148.268 125.724 -790 150 106 100
-147.56 126.487 -795 160 116 109
-146.465 126.933 -798 164 118 111
-144.634 126.742 -797 164 118 112
-142.628 126.392 -795 169 121 118
-139.922 125.408 -789 167 124 120
-137.418 124.583 -784 167 124 120
-134.762 123.6 -778 165 123 121
-132.645 123.095 -775 163 122 118
-130.373 122.431 -771 153 114 109
-128.285 121.926 -768 147 109 104
-126.706 121.899 -768 144 107 102
-125.78 122.506 -772 145 109 108
-124.838 123.114 -776 146 110 108
-124.516 124.356 -784 150 114 112
-126.043 127.501 -804 153 118 117
-126.407 129.535 -817 155 120 120
-126.566 131.41 -829 167 131 132
-125.772 132.333 -835 174 139 134
-124.659 132.94 -839 178 143 137
-123.383 133.389 -842 183 144 137
-122.096 133.837 -845 183 147 143
-120.656 134.128 -847 182 148 146
-119.208 134.419 -849 178 146 144
-117.061 133.918 -846 176 146 144
-114.518 132.944 -840 161 133 132
-112.404 132.445 -837 143 115 114
-111.758 133.686 -845 131 103 102
-119.217 149.428 -945 98 82 86
-121.641 154.936 -980 96 81 87
-128.41 181.164 -1147 79 63 66
-129.825 186.506 -1181 77 63 65
-129.377 189.321 -1199 79 65 66
-128.962 192.293 -1218 84 70 71
-127.33 193.528 -1226 71 58 59
-125.157 193.975 -1229 46 34 36
-122.773 194.106 -1230 26 17 19
-120.289 194.08 -1230 20 14 17
-117.71 193.897 -1229 18 14 17
-115.323 194.029 -1230 13 13 18
-113.392 194.951 -1236 11 11 17
-111.347 195.716 -1241 9 10 16
-109.284 196.481 -1246 12 9 14
-107.373 197.561 -1253 11 9 14
-105.685 199.115 -1263 10 9 16
-103.877 200.511 -1272 13 11 19
-102.032 201.908 -1281 14 11 19
-100.153 203.305 -1290 10 9 16
-97.9357 204.072 -1295 8 9 14
-95.6255 204.681 -1299 8 10 14
-93.1566 204.976 -1301 13 12 19
-90.8893 205.744 -1306 13 12 19
-88.4675 206.198 -1309 13 12 19
-86.0999 206.809 -1313 12 11 18
-83.7805 207.579 -1318 12 11 18
-81.9342 209.608 -1331 13 12 19
-79.9768 211.481 -1343 13 12 20
-78.087 213.668 -1357 14 13 21
-76.0861 215.699 -1370 11 10 17
-73.873 217.257 -1380 10 9 16
-71.8265 219.446 -1394 12 11 18
-69.9225 222.264 -1412 12 11 18
-67.9944 225.24 -1431 11 10 17
-65.3991 226.17 -1437 10 10 15
-62.6063 226.471 -1439 10 10 14
-59.8059 226.773 -1441 9 8 15
-56.9979 227.075 -1443 9 8 15
-54.1825 227.378 -1445 11 10 17
-51.537 228.469 -1452 13 12 19
-49.1317 230.818 -1467 13 12 19
-46.4463 232.066 -1475 12 11 19
-43.7588 233.473 -1484 14 12 19
-40.9532 234.408 -1490 15 12 19
-38.0728 235.029 -1494 13 13 15
-35.3178 236.594 -1504 12 12 15
-208.856 127.942 -806 204 150 150
-208.162 128.531 -810 203 147 141
-207.198 128.962 -813 202 144 138
-205.97 129.233 -815 198 141 134
-203.984 129.03 -814 195 138 131
-202.253 128.986 -814 190 132 125
-200.523 128.941 -814 180 122 115
-198.794 128.898 -814 173 119 110
-197.31 129.013 -815 171 117 110
-195.823 129.128 -816 166 112 106
-194.572 129.402 -818 157 107 101
-191.428 128.411 -812 153 104 99
-187.376 126.788 -802 153 105 102
-183.368 125.167 -792 150 104 103
-180.781 124.496 -788 151 106 105
-177.984 123.667 -783 149 103 103
-175.886 123.312 -781 146 100 100
-174.021 123.117 -780 145 100 99
-172.162 122.921 -779 147 99 99
-170.527 122.884 -779 143 98 97
-168.676 122.689 -778 135 94 94
-166.188 122.022 -774 130 92 92
-163.93 121.514 -771 131 94 93
-161.265 120.691 -766 129 94 91
-159.248 120.341 -764 131 95 93
-156.621 119.519 -759 134 99 97
-155.446 119.8 -761 135 100 98
-154.265 120.082 -763 135 100 97
-152.876 120.206 -764 134 101 97
-152.277 120.96 -769 136 104 99
-151.658 121.713 -774 135 104 99
-150.244 121.838 -775 134 101 96
-149.21 122.277 -778 132 97 93
-148.356 122.874 -782 138 99 95
-148.049 123.942 -789 150 110 104
-147.157 124.538 -793 156 115 109
-146.067 124.978 -796 161 117 111
-144.602 125.103 -797 163 118 113
-142.776 124.916 -796 162 117 114
-140.424 124.258 -792 157 116 112
-138.264 123.757 -789 158 118 114
-135.945 123.1 -785 158 118 115
-133.814 122.601 -782 156 117 113
-131.528 121.946 -778 149 111 106
-129.427 121.447 -775 145 110 104
-127.668 121.263 -774 144 109 104
-126.567 121.706 -777 145 108 108
-126.098 122.775 -784 147 110 109
-125.759 124.001 -792 149 112 111
-126.016 125.853 -804 151 115 116
-126.07 127.547 -815 154 118 119
-125.928 129.085 -825 164 128 130
-124.992 129.841 -830 176 139 134
-123.889 130.44 -834 182 145 139
-122.624 130.883 -837 185 146 139
-121.059 131.013 -838 192 156 151
-118.778 130.362 -834 190 155 153
-115.532 128.618 -823 195 159 158
-113.577 128.281 -821 193 159 157
-110.541 126.695 -811 179 147 145
-108.218 125.891 -806 168 136 134
-122.433 156.497 -1003 90 75 81
-129.502 180.382 -1157 78 62 64
-130.567 185.187 -1188 78 64 65
-129.781 187.497 -1203 80 66 67
-129.147 190.119 -1220 79 66 67
-127.718 191.65 -1230 64 52 53
-125.639 192.247 -1234 42 31 34
-123.047 192.065 -1233 25 17 21
-120.459 191.883 -1232 17 14 18
-117.876 191.702 -1231 16 13 18
-115.486 191.833 -1232 13 12 18
-113.551 192.743 -1238 11 11 17
-111.503 193.498 -1243 10 10 16
-109.524 194.408 -1249 11 9 16
-107.264 194.853 -1252 12 10 17
-105.579 196.386 -1262 10 9 16
-103.691 197.609 -1270 11 10 17
-102.25 199.766 -1284 13 11 19
-100.209 200.833 -1291 11 10 16
-98.1417 201.901 -1298 9 8 15
-95.7523 202.347 -1301 10 10 16
-93.2084 202.483 -1302 12 11 18
-91.0092 203.397 -1308 13 12 19
-88.5163 203.689 -1310 13 12 19
-86.0161 203.981 -1312 12 11 18
-83.8899 205.207 -1320 12 11 18
-81.6091 206.122 -1326 13 12 19
-79.7812 208.282 -1340 14 13 20
-78.0704 210.907 -1357 13 12 20
-76.0144 212.756 -1369 11 10 17
-73.8038 214.294 -1379 10 9 16
-71.8113 216.61 -1394 10 9 16
-69.8087 219.081 -1410 10 9 16
-67.7426 221.553 -1426 9 8 16
-65.2033 222.626 -1433 9 9 14
-62.5495 223.389 -1438 9 9 13
-59.7102 223.532 -1439 8 7 14
-56.8674 223.675 -1440 9 8 15
-54.0961 224.129 -1443 11 10 17
-51.455 225.206 -1450 12 11 18
-48.9874 227.214 -1463 12 11 18
-46.4995 229.378 -1477 12 11 19
-43.897 231.232 -1489 14 11 18
-40.972 231.534 -1491 15 12 19
-38.0903 232.147 -1495 14 14 16
-35.2164 232.916 -1500 13 13 16
-32.4301 234.461 -1510 13 13 17
-21.3321 245.773 -1583 14 13 21
-18.3383 248.098 -1598 12 11 19
-209.069 126.424 -807 188 129 130
-208.117 126.848 -810 182 121 118
-207.153 127.273 -813 180 117 114
-205.926 127.542 -815 180 118 115
-204.19 127.497 -815 177 116 114
-202.457 127.453 -815 171 113 108
-200.725 127.41 -815 166 108 103
-198.751 127.21 -814 160 107 100
-197.752 127.636 -817 160 107 101
-196.261 127.75 -818 157 104 100
-195.243 128.176 -821 149 101 98
-192.801 127.666 -818 146 99 97
-191.073 127.625 -818 148 102 100
-186.801 125.868 -807 146 102 101
-183.494 124.737 -800 145 101 100
-179.991 123.451 -792 139 94 94
-178.1 123.257 -791 138 93 93
-175.768 122.751 -788 140 96 96
-173.671 122.402 -786 141 94 95
-172.022 122.365 -786 137 92 92
-170.591 122.484 -787 132 91 91
-168.943 122.448 -787 130 91 91
-166.658 121.945 -784 132 94 93
-164.177 121.288 -780 131 96 92
-161.506 120.476 -775 134 99 96
-159.269 119.975 -772 138 102 101
-158.068 120.252 -774 138 102 101
-155.849 119.753 -771 137 101 100
-154.844 120.185 -774 136 102 98
