ply
format ascii 1.0
comment Created by Open3D
element vertex 737
property double x
property double y
property double z
property double nx
property double ny
property double nz
property uchar red
property uchar green
property uchar blue
end_header
-268.723 -200.277 -1781.44 -0.293631 0.318466 -0.871541 51 53 53
-267.745 -184.272 -1781.6 -0.509684 -0.0137886 -0.803168 51 53 52
-263.777 -222.266 -1784.02 -0.549816 0.029068 -0.760591 50 53 51
-254.026 3.05516 -1786.06 -0.704323 0.0750403 -0.700979 54 56 53
-257.217 15.1587 -1782.8 -0.733573 -0.0172216 -0.674193 54 57 54
-252.439 25.3069 -1785.69 -0.651356 0.116402 -0.74468 55 58 55
-250.805 28.9334 -1786.37 -0.634515 0.128979 -0.759134 55 58 55
-249.99 29.3756 -1787.06 -0.633035 0.121118 -0.761201 55 58 55
-256.052 46.1831 -1781.67 -0.722362 -0.0379418 -0.686846 54 57 54
-254.28 56.7863 -1781.76 -0.720785 0.10009 -0.683702 53 56 53
-250.36 63.2314 -1785.51 -0.728903 0.0395609 -0.679991 53 56 54
-254.832 74.9982 -1781.2 -0.734276 -0.0302391 -0.674904 57 60 57
-140.584 -23.3108 -1783.03 0.772513 -0.176988 -0.607603 39 39 39
-137.514 -7.18812 -1781.31 0.831049 -0.11727 -0.534704 37 37 37
-137.141 0.139132 -1782.88 0.842633 -0.142373 -0.507311 38 38 38
-42.3194 -448.029 -1784.31 -0.634695 -0.0625751 -0.766686 41 43 43
-42.5937 -438.968 -1784.94 -0.58915 -0.0715314 -0.801462 41 44 43
-45.7999 -429.36 -1783.12 -0.586499 -0.0724041 -0.804893 41 43 43
-10.2811 -446.196 -1785.82 0.54286 -0.172697 -0.684074 44 45 45
-9.95108 -444.585 -1787.13 0.501987 -0.170302 -0.732177 44 46 46
-8.50933 -434.571 -1785.12 0.664837 0.000560004 -0.612319 44 45 46
7.20354 -321.424 -1786.12 0.795909 -0.0503604 -0.541523 45 46 45
6.19127 -303.18 -1786.31 0.764999 -0.0437088 -0.579592 46 46 45
9.44339 -296.312 -1782.35 0.728257 -0.0957548 -0.535017 45 46 45
9.39216 -286.026 -1784.97 0.78739 -0.041495 -0.543314 45 46 45
9.39214 -282.292 -1785.74 0.776012 -0.0802845 -0.585644 46 46 45
11.9144 -265.698 -1782.77 0.794799 0.0421347 -0.4737 46 47 46
12.1381 -261.413 -1781.78 0.818375 0.0110802 -0.45292 46 47 45
13.5533 -249.407 -1782.27 0.884668 -0.180076 -0.309705 47 47 46
16.0078 -240.012 -1782.49 0.814128 -0.0799808 -0.441566 47 48 47
16.7101 -230.983 -1782.13 0.777042 0.0321787 -0.521942 46 47 46
-104.764 53.0508 -1784.41 -0.131945 -0.525147 -0.736072 31 29 29
30.983 -13.0319 -1783.55 0.721943 0.0155809 -0.67352 53 54 51
31.4075 -8.30686 -1783.5 0.753638 0.00147534 -0.651044 53 55 51
33.8288 0.506098 -1782.04 0.704898 -0.0693657 -0.707279 53 54 52
29.8457 2.1965 -1785.37 0.674216 0.00553532 -0.734356 53 55 52
30.1799 18.2024 -1786.19 0.682114 -0.0638922 -0.719375 53 55 52
32.7499 23.5737 -1783.58 0.732371 0.0134128 -0.672245 55 56 53
33.0419 28.7549 -1782.85 0.735699 0.0576361 -0.669886 55 57 53
-157.157 379.769 -1780.79 -0.0655141 -0.156428 -0.983389 225 223 181
-227.464 547.971 -1781.6 -0.580718 -0.00663704 -0.792456 245 245 198
-222.219 546.239 -1785.65 -0.502883 0.0499117 -0.852809 241 241 191
-231.205 563.7 -1781.94 -0.593327 -0.114224 -0.779439 244 245 200
-228.245 566.918 -1783.17 -0.527561 -0.0113586 -0.826463 245 245 202
-223.535 566.024 -1785.84 -0.440286 -0.0196083 -0.879727 246 246 204
-224.606 574.503 -1783.67 -0.447484 0.133201 -0.874742 247 247 208
-223.233 582.105 -1783.07 -0.408875 0.0834097 -0.902183 247 248 213
27.4843 80.6967 -1786.14 0.687939 0.188419 -0.688875 56 58 55
28.3204 86.7674 -1783.23 0.746387 0.19939 -0.616413 57 59 56
24.9297 102.229 -1785.04 0.725788 0.11196 -0.662782 56 59 57
25.5779 106.462 -1782.87 0.752438 0.162508 -0.616758 57 60 57
20.7795 120.726 -1785.88 0.809668 0.128917 -0.556698 62 64 60
21.6148 125.212 -1783.74 0.821804 0.129806 -0.548468 62 65 61
20.2932 129.99 -1784.32 0.776557 0.157444 -0.600757 61 64 61
14.9929 143.91 -1786.72 0.737109 0.142937 -0.643566 62 64 62
-56.1395 434.461 -1786.55 0.142133 -0.256157 -0.951725 234 232 187
-42.1764 435.415 -1781.62 0.389134 -0.392433 -0.83104 230 228 183
-46.0297 439.561 -1785.54 0.289096 -0.307448 -0.896134 235 233 187
-42.7485 447.016 -1786.59 0.361199 -0.230285 -0.89297 236 233 189
-38.9505 454.597 -1785.21 0.356614 -0.127348 -0.91471 228 225 179
-10.9751 433.727 -1781.76 0.634302 -0.202878 -0.706971 217 208 154
-31.4209 454.358 -1781.03 0.483238 -0.237858 -0.82813 225 223 177
-31.2726 459.143 -1782.54 0.469702 -0.250914 -0.832516 220 219 173
-31.2716 465.831 -1786.12 0.388447 -0.24534 -0.8773 215 214 169
-29.1741 470.044 -1786.58 0.461581 -0.218794 -0.85191 216 214 170
-19.6926 468.914 -1781.3 0.588654 -0.295918 -0.744116 218 213 165
-16.586 464.33 -1783.06 0.552774 -0.262088 -0.77886 222 216 168
-26.3085 479.509 -1784.16 0.542654 -0.118457 -0.824834 210 207 164
-20.6088 474.144 -1780.72 0.605421 -0.255701 -0.735641 218 214 168
-16.2823 479.158 -1783.07 0.581997 -0.268329 -0.743811 215 212 168
537.894 544.43 -1783.45 -0.160333 -0.665342 0.503508 127 99 90
543.244 543.775 -1782.26 -0.137554 -0.703766 0.449395 124 96 87
526.958 575.844 -1782.82 0.213103 0.615257 0.771849 238 206 182
525.125 580.099 -1785.45 0.179388 0.383002 0.685657 220 190 170
537.29 575.426 -1782.12 0.0284206 0.770162 0.689997 249 219 196
551.378 543.758 -1786.59 -0.024451 -0.870179 0.218291 107 80 72
554.359 543.545 -1785.97 0.0153477 -0.910544 0.166354 103 75 68
570.587 546.764 -1782.8 0.231867 -0.798096 0.37661 107 80 72
579.704 549.653 -1785.87 0.204536 -0.94588 0.29458 93 65 60
586.417 553.811 -1782.76 0.236486 -0.744111 0.468009 122 91 81
548.539 579.608 -1783.49 0.051603 0.754736 0.606743 246 216 196
558.321 581.955 -1781.4 0.15007 0.669308 0.651686 243 214 196
603.564 564.961 -1780.83 0.0168351 -0.952776 0.361423 196 167 144
604.399 562.671 -1782.5 0.0283223 -0.947735 0.365981 178 149 127
500.87 592.667 -1781.3 0.0374292 -0.285266 0.525888 162 135 126
503.326 596.949 -1785.76 0.0394987 -0.291627 0.540087 163 135 125
-8.09058 692.624 -1782.39 0.363089 0.152852 -0.600764 160 152 139
-55.526 786.42 -1780.87 0.503596 -0.186769 -0.0913886 78 57 64
-321.766 -674.407 -1777.17 -0.135164 -0.675416 -0.626057 15 13 14
-326.438 -667.15 -1775.26 0.186241 -0.13876 -0.853917 32 29 31
-315.245 -663.615 -1779.81 -0.0549126 -0.306114 -0.622836 37 34 36
-340.386 -636.199 -1775.39 -0.922724 -0.271298 -0.247419 49 49 51
-328.526 -648.65 -1779.83 -0.733272 -0.547002 -0.277034 50 50 52
-323.916 -653.76 -1778.48 -0.231245 -0.482648 -0.360917 39 37 39
-341.12 -629.001 -1777.41 -0.902127 -0.0373632 -0.347899 50 51 53
-338.033 -618.731 -1775.85 -0.813504 0.444751 -0.343314 50 50 52
-333.292 -608.003 -1776.06 -0.811642 0.344185 -0.445036 48 48 48
-330.882 -598.756 -1777.68 -0.885825 0.117504 -0.451171 49 50 49
-328.54 -589.515 -1780.42 -0.902254 0.112731 -0.420922 50 50 50
-327.201 -576.386 -1778.16 -0.854348 0.208794 -0.454439 50 50 50
-323.236 -569.534 -1779.49 -0.789264 0.316396 -0.498626 49 50 50
-321.928 -558.545 -1779.37 -0.824256 0.0916216 -0.529769 49 50 50
-295.2 -350.776 -1780.29 -0.693636 0.178502 -0.695517 48 50 50
-299.686 -345.716 -1775.11 -0.684895 0.0986711 -0.71786 47 49 49
-299.674 -333.296 -1776.04 -0.756474 -0.0473792 -0.652985 49 51 51
-277.114 -347.55 -1779.27 -0.695868 0.133886 -0.682481 48 50 50
-272.473 -349.791 -1779.29 -0.711212 0.18279 -0.665061 46 48 48
-270.625 -339.9 -1777.78 -0.745639 0.162089 -0.637452 46 48 48
-278.399 -327.533 -1778.7 -0.598607 0.0686759 -0.782423 49 51 51
-270.178 -336.555 -1778.23 -0.749234 0.0983281 -0.642363 46 48 48
-268.904 -328.015 -1780.26 -0.712327 -0.038918 -0.679357 47 49 49
-162.981 -418.562 -1774.69 0.794592 0.115557 -0.594511 44 44 44
-163.543 -404.063 -1775.9 0.805743 -0.0588652 -0.587008 40 40 40
-164.882 -402.778 -1778.22 0.817419 -0.0690717 -0.571008 40 40 40
-162.408 -381.557 -1778.95 0.838843 -0.0457086 -0.543475 44 44 45
-159.429 -378.265 -1774.1 0.829232 -0.0471727 -0.554619 43 43 44
-161.482 -372.767 -1777.42 0.824539 -0.0195659 -0.563749 46 46 47
-268.233 -84.2044 -1775.8 -0.678023 0.0726398 -0.713109 52 55 52
-266.745 -79.1888 -1777.42 -0.640783 0.0462909 -0.743029 53 56 53
-265.11 -70.5168 -1778.85 -0.673439 0.0225203 -0.732148 52 55 52
-263.881 -58.5998 -1778.46 -0.685942 0.136555 -0.712458 52 55 52
-264.902 -46.7007 -1775.88 -0.647308 0.0607777 -0.753852 53 56 53
-262.56 -61.6505 -1780.28 -0.690577 0.145444 -0.706418 52 55 52
-258.271 -36.6267 -1780.67 -0.692349 0.0534097 -0.719297 52 55 53
-258.285 -32.3917 -1780.61 -0.712208 0.0163918 -0.694793 54 57 54
-152.706 -122.971 -1776.69 0.839355 -0.151554 -0.513529 44 45 44
-150.318 -111.099 -1775.98 0.853179 -0.168122 -0.486228 41 42 42
-127.903 30.8308 -1780.23 0.778429 -0.258384 -0.563242 35 35 35
-121.047 39.8035 -1776.46 0.656501 -0.437804 -0.6227 31 29 29
-112.076 45.7292 -1776.75 0.231748 -0.576397 -0.72487 30 26 27
-109.379 -683.949 -1780.04 -0.118344 0.172134 -0.305569 37 30 33
-110.164 -678.236 -1775.33 0.294559 0.517774 -0.562834 43 36 40
-99.1018 -677.282 -1777.21 -0.291456 0.516163 -0.705027 46 38 40
-97.8192 -671.475 -1775.73 -0.362521 0.491455 -0.676805 67 54 56
-89.9358 -660.515 -1777.79 -0.576458 0.547108 -0.560283 86 70 67
-84.9639 -655.142 -1778.37 -0.570235 0.475836 -0.625797 56 46 46
-83.2312 -645.117 -1775.6 -0.620381 0.257746 -0.723366 44 38 43
-77.2705 -641.323 -1777.81 -0.526422 0.342061 -0.765568 47 41 44
-71.8152 -636.495 -1780.15 -0.499704 0.29431 -0.798163 47 41 44
-16.6104 -670.399 -1774.87 0.377638 0.177979 -0.626313 45 38 42
-54.0586 -425.205 -1776.01 -0.735065 -0.0198159 -0.670378 41 43 43
-50.2305 -416.412 -1780.59 -0.676571 -0.047079 -0.730952 41 43 43
-50.2059 -412.627 -1780.22 -0.702568 0.0222963 -0.7046 41 43 43
-50.5191 -402.008 -1777.97 -0.669323 0.0794163 -0.727742 42 44 44
-49.6529 -396.13 -1779.24 -0.632406 -0.0936709 -0.764335 44 46 46
-54.2238 -385.531 -1777.83 -0.64749 -0.149913 -0.745574 43 45 45
-52.3328 -380.234 -1779.97 -0.609746 -0.105264 -0.777913 42 44 44
-60.8373 -358.552 -1775.77 -0.624962 0.102916 -0.767131 40 42 42
-53.4978 -373.046 -1780 -0.528827 -0.0908974 -0.834396 41 43 43
-56.7282 -363.232 -1779.2 -0.502653 -0.00911889 -0.85381 41 43 43
-59.418 -359.026 -1776.93 -0.597957 0.084461 -0.790324 40 42 42
-52.5224 -349.813 -1780.58 -0.609424 0.0306201 -0.779586 42 44 44
-69.1924 -99.0712 -1778.28 -0.852638 0.00999098 -0.521072 42 43 40
-71.2353 -92.9433 -1774.73 -0.854801 0.0022404 -0.514508 43 45 42
-67.7278 -76.2977 -1778.71 -0.844538 0.0765908 -0.527323 45 48 45
-66.7102 -73.8902 -1779.81 -0.8466 0.0934485 -0.522977 45 48 45
-69.3379 -56.9702 -1774.57 -0.799189 0.0958498 -0.596373 41 44 41
-63.5784 -50.7807 -1780.35 -0.823643 0.0981169 -0.549353 43 46 43
-69.6668 -40.2093 -1775.78 -0.570283 -0.277302 -0.73626 37 39 37
-78.3867 -33.5819 -1774.5 -0.61794 -0.364269 -0.693783 38 38 37
-77.2672 -30.0253 -1777.79 -0.580163 -0.335486 -0.728209 39 39 38
28.819 -120.498 -1779.3 0.87576 0.0165975 -0.44766 49 50 48
29.4017 -106.336 -1774.98 0.863273 -0.0685785 -0.362393 47 48 46
30.8419 -96.7225 -1777.09 0.833723 -0.210629 -0.427229 48 49 45
30.6276 -90.0305 -1779.35 0.843657 -0.130993 -0.485688 49 50 46
30.8185 -78.1908 -1779.58 0.857279 -0.0238324 -0.499768 49 50 47
-171.616 354.436 -1775.53 -0.0832333 -0.229103 -0.946983 228 226 190
-233.41 534.084 -1777.84 -0.663049 0.110511 -0.714777 241 242 197
-228.969 539.866 -1779.21 -0.594439 0.177161 -0.745141 243 243 197
-231.732 550.27 -1778.46 -0.64353 -0.0728019 -0.732193 244 244 199
-239.089 560.715 -1774.84 -0.685587 -0.168932 -0.701547 245 244 201
-237.473 566.32 -1775.84 -0.658043 -0.0338916 -0.740214 242 241 199
-234.247 572.969 -1777.38 -0.567057 0.0992496 -0.811646 242 242 200
-235.73 582.716 -1776.29 -0.540652 -0.0834561 -0.828542 246 247 205
-239.257 600.367 -1774.84 -0.605368 0.0410191 -0.791434 249 249 212
-227.666 588.487 -1780.76 -0.397762 -0.0492746 -0.915263 249 250 212
-229.502 596.617 -1780.5 -0.365379 -0.0679437 -0.92407 251 251 221
-232.122 603.427 -1779.77 -0.391511 0.00666518 -0.906051 253 252 230
-30.889 368.982 -1777.44 0.249442 -0.132888 -0.8796 228 225 181
-27.5266 375.621 -1773.26 0.171972 0.0053097 -0.923454 227 227 184
-16.8919 378.272 -1779.28 0.806956 -0.250386 -0.443488 224 215 163
-105.615 386.522 -1779.59 0.307869 -0.391727 -0.861336 216 214 163
-99.5151 389.847 -1779.3 0.216389 -0.324551 -0.899435 217 215 165
-88.4662 383.334 -1778.87 -0.0862973 -0.172449 -0.980364 230 228 182
-87.4407 391.711 -1780.57 -0.133014 -0.205454 -0.97369 224 222 174
-78.7188 384.763 -1778.97 0.0539698 -0.191613 -0.968306 230 229 185
-73.9029 391.687 -1779.92 0.140005 -0.251472 -0.952621 227 226 181
-62.0859 385.755 -1775.9 0.12052 -0.192809 -0.971583 232 232 188
-64.9015 391.294 -1777.49 0.17835 -0.219707 -0.956739 230 229 184
-64.2737 398.946 -1779.38 0.210103 -0.233808 -0.939847 230 228 184
-57.557 385.146 -1775.7 0.0599193 -0.169184 -0.98128 233 232 191
-57.5466 388.75 -1776.39 0.0557278 -0.186919 -0.980609 230 229 185
-47.6199 383.745 -1774.53 0.0685001 -0.241597 -0.960934 230 230 188
-59.4524 393.738 -1777.35 0.105107 -0.191754 -0.970222 229 228 183
-57.2893 404.6 -1779.87 0.189407 -0.22057 -0.930093 233 231 188
-42.7935 399.609 -1775.56 0.244566 -0.0778299 -0.951312 236 236 196
-42.107 401.143 -1775.48 0.277607 -0.0741472 -0.944466 238 237 197
-24.7125 387.741 -1779.81 0.525016 -0.039154 -0.783359 223 215 164
20.8894 634.687 -1780.65 0.274543 0.150568 -0.9177 247 244 206
52.4059 586.837 -1776.52 0.475258 -0.252098 -0.834769 225 220 165
56.4009 589.892 -1775.87 0.458062 -0.204911 -0.863337 221 216 161
59.1986 593.375 -1775.46 0.446452 -0.176003 -0.876026 218 214 159
52.034 597.594 -1777.92 0.432589 -0.0972194 -0.890996 223 219 164
55.8197 599.801 -1776.86 0.421247 -0.104218 -0.895766 219 215 160
55.2901 604.013 -1777.27 0.404319 -0.0750114 -0.906289 219 215 160
65.8119 607.321 -1775.97 0.403478 -0.0727868 -0.902869 224 219 166
70.3014 605.042 -1775.52 0.399858 -0.056961 -0.904142 227 223 171
46.9803 613.279 -1780.18 0.355394 -0.0518965 -0.932564 221 217 164
53.6352 613.647 -1778.46 0.341648 -0.0637033 -0.936472 215 212 157
53.4368 621.787 -1779.45 0.313714 -0.052408 -0.948744 220 216 162
51.6891 624.142 -1780.07 0.319599 -0.0326166 -0.945778 227 224 172
56.2503 623.205 -1778.7 0.309559 -0.0411469 -0.950144 217 214 160
54.206 633.44 -1778.93 0.306552 0.0649977 -0.948038 236 233 189
70.8272 612.623 -1776.28 0.380726 -0.05815 -0.913391 224 220 168
73.3165 615.904 -1776.43 0.378043 -0.0555212 -0.91486 225 221 169
68.7335 624.026 -1776.46 0.344314 -0.0499745 -0.932932 217 213 160
71.7718 634.062 -1775.04 0.352503 0.00424793 -0.931792 228 225 178
-7.83675 642.691 -1775.93 0.260434 0.431016 -0.849444 255 253 242
5.05425 643.622 -1775.91 0.190402 0.353193 -0.905542 254 252 229
10.6975 643.328 -1776.25 0.141275 0.30965 -0.915391 254 252 226
40.5025 657.861 -1780.06 0.269453 0.128094 -0.944253 234 231 212
28.2789 669.555 -1779.67 0.251445 0.147172 -0.952322 134 134 126
39.2631 668.297 -1775.86 0.254698 0.156183 -0.966978 162 161 150
50.4614 637.51 -1779.49 0.30224 0.109675 -0.94596 246 243 210
54.2981 637.451 -1778.36 0.302611 0.0860781 -0.947522 240 237 198
65.2252 637.224 -1775.17 0.314746 0.0747654 -0.94326 234 231 192
63.7171 642.948 -1774.51 0.30418 0.11713 -0.954123 244 241 211
52.6539 652.917 -1776.41 0.304428 0.14645 -0.941486 253 249 226
47.044 658.918 -1776.86 0.29744 0.166395 -0.93443 246 243 224
59.1638 649.083 -1775.07 0.29801 0.127931 -0.955452 251 247 220
47.8038 660.507 -1776.14 0.296024 0.17861 -0.932795 244 241 223
-147.834 -524.138 -1771.13 0.673211 0.0927094 -0.727437 41 42 42
-146.072 -520.361 -1769.52 0.623739 0.0701019 -0.770357 41 42 42
-146.955 -512.994 -1769.97 0.617659 0.0500244 -0.775965 40 41 41
-145.147 -510.301 -1769.11 0.567946 0.04345 -0.813259 40 41 41
-147.72 -498.767 -1769.7 0.632251 0.0388591 -0.770077 40 42 42
-153.927 -487.682 -1773.27 0.70616 0.182112 -0.67365 42 44 44
-155.71 -485.393 -1773.84 0.724428 0.234213 -0.644453 42 44 44
-155.484 -478.973 -1771.36 0.704584 0.221066 -0.666084 41 43 43
-155.771 -469.269 -1770.23 0.71979 0.0648562 -0.683154 42 44 44
-155.793 -459.844 -1770.68 0.73254 -0.0265733 -0.684311 43 44 44
-154.622 -448.361 -1770.18 0.748056 -0.023568 -0.660055 43 44 44
-274.183 -85.5769 -1769.92 -0.689498 0.262225 -0.653169 53 56 53
-273.812 -79.9211 -1769.52 -0.664691 0.160126 -0.692473 53 56 53
-272.593 -68.9537 -1771.38 -0.727945 -0.0155637 -0.664522 52 55 52
-273.952 -60.987 -1769 -0.671576 0.0581586 -0.726196 53 56 53
-271.747 -54.7045 -1770.5 -0.606306 0.0664337 -0.788844 53 56 53
-269.769 -43.9157 -1770.79 -0.5726 0.0746278 -0.809996 54 57 54
-266.73 -40.1367 -1773.07 -0.593183 0.0734771 -0.792735 53 56 53
-271.768 -29.3071 -1767.96 -0.647742 0.0767127 -0.732582 54 57 54
-150.476 -122.143 -1771.77 0.856296 -0.140072 -0.481759 42 43 43
-148.177 -117.525 -1768.69 0.86569 -0.166388 -0.456865 41 42 42
-14.4984 -575.917 -1769.13 0.445903 -0.00179093 -0.725785 43 44 43
-14.3838 -569.262 -1769.42 0.47887 -0.104127 -0.759046 42 42 42
-23.5089 -563.04 -1775.08 0.728117 -0.0983212 -0.632036 37 36 36
-16.6017 -562.855 -1769.44 0.510323 -0.0384185 -0.821034 41 41 41
-14.5769 -565.289 -1771.84 0.556394 -0.176316 -0.780675 40 40 40
-11.5451 -559.237 -1773.61 0.548915 -0.200155 -0.815987 40 40 40
-57.2441 -542.851 -1770.89 -0.869865 0.282543 -0.386394 46 46 46
-53.2019 -533.218 -1772.26 -0.837945 0.306749 -0.413116 44 44 44
-36.459 -554.64 -1773.23 0.755153 -0.0757804 -0.602807 36 35 35
-19.6047 -550.554 -1771.1 0.691737 -0.204921 -0.598629 38 37 37
-17.4872 -548.027 -1769.26 0.547248 -0.133702 -0.788208 41 41 41
-29.3597 -537.054 -1769.75 0.91248 -0.296938 -0.298895 36 33 34
-18.9478 -541.803 -1771.39 0.598159 -0.146197 -0.728278 41 40 40
-16.9067 -532.033 -1770.96 0.541268 -0.105408 -0.790117 41 42 42
-3.47801 -628.267 -1769.38 0.579059 0.218593 -0.737492 47 44 45
-2.83457 -623.346 -1768.81 0.603319 0.123389 -0.73977 48 45 46
-3.77223 -616.618 -1770.18 0.510896 0.0164802 -0.820026 49 46 47
-3.71357 -608.249 -1770.31 0.466653 0.0599594 -0.856852 50 48 47
-1.71745 -602.438 -1768.11 0.461982 0.151708 -0.862617 49 48 47
-10.1348 -573.064 -1768.77 0.498665 -0.317443 -0.771119 42 42 42
-5.76659 -556.102 -1769.77 0.647201 -0.110441 -0.746086 41 41 41
-6.7841 -554.582 -1771.32 0.612536 -0.13106 -0.768753 41 41 41
-4.89975 -541.83 -1770.93 0.631099 -0.103773 -0.767627 42 42 42
-4.69107 -532.01 -1772.49 0.605659 -0.0955371 -0.78774 41 43 43
-222.327 412.261 -1769.47 -0.430538 -0.186715 -0.830517 241 239 195
-223.02 417.335 -1769.72 -0.392409 -0.106997 -0.850703 238 236 193
-226.689 423.383 -1768.98 -0.375725 -0.0497535 -0.869009 231 228 186
-223.4 423.614 -1770.51 -0.33219 -0.0433749 -0.892424 231 228 187
-224.572 428.79 -1770.92 -0.321441 -0.0398248 -0.904445 229 226 184
-228.139 435.424 -1769.88 -0.430285 0.0762246 -0.876286 233 229 186
-220.531 434.8 -1773.88 -0.301077 -0.135938 -0.916209 227 223 182
-228.007 445.504 -1770.54 -0.543238 -0.0798884 -0.783372 227 225 187
-228.035 453.786 -1770.49 -0.634251 -0.0950102 -0.725344 230 228 188
-227.932 461.035 -1772.84 -0.663297 -0.129377 -0.704918 229 226 183
-227.752 465.968 -1773.86 -0.621631 -0.0801691 -0.749203 227 223 179
-231.598 476.27 -1771.46 -0.638988 -0.0272845 -0.748473 230 227 183
-209.427 383.155 -1773.02 -0.473907 -0.0510147 -0.855311 243 240 198
-211.595 399.53 -1773.01 -0.418513 -0.0819291 -0.893642 234 231 188
-209.359 402.602 -1773.87 -0.327949 -0.0847167 -0.929585 234 231 188
-15.1973 383.281 -1772.1 0.898666 -0.106723 -0.37165 222 213 160
-33.3607 400.043 -1770.36 0.347222 -0.0912989 -0.923869 240 240 200
-31.2084 401.619 -1769.26 0.343764 -0.0919573 -0.926179 241 241 202
-20.1674 399.768 -1772.27 0.329294 -0.0524727 -0.772497 234 229 183
-38.157 409.575 -1773.98 0.41274 -0.0551007 -0.907693 244 242 200
-35.9901 425.452 -1773.9 0.268113 -0.26221 -0.880564 215 214 170
-28.903 412.015 -1769.18 0.400237 -0.115089 -0.902592 247 246 209
-25.0552 414.916 -1768.28 0.345864 -0.198885 -0.906968 248 248 211
-32.9862 422.547 -1773.31 0.225157 -0.2132 -0.912428 224 223 181
-23.8965 423.38 -1772.16 0.193457 -0.336326 -0.909867 233 233 195
-21.6531 424.166 -1772.35 0.23674 -0.332024 -0.895258 234 234 196
-20.6381 429.359 -1774.31 0.277978 -0.275542 -0.891837 226 226 186
-15.7646 434.101 -1773.75 0.504224 -0.102536 -0.844017 231 231 190
-14.1752 438.145 -1771.42 0.533809 -0.0558042 -0.83727 224 224 180
-15.839 445.391 -1772.19 0.546025 -0.0654711 -0.833912 216 216 170
-10.9237 452.007 -1773.15 0.56769 -0.0928025 -0.81219 218 216 168
374.631 614.39 -1771.88 0.0896821 -0.0888346 0.69036 202 176 165
-112.98 -656.753 -1764.16 0.663402 0.189491 -0.658525 39 33 37
-112.538 -655.463 -1763.07 0.675533 0.17541 -0.655964 38 32 36
-113.547 -642.497 -1762.29 0.77617 0.175946 -0.626467 40 36 39
-309.154 -618.179 -1765.08 -0.812318 0.212047 -0.530313 45 47 47
-308.984 -616.583 -1763.4 -0.816386 0.194642 -0.530359 45 46 47
-310.263 -608.183 -1765.1 -0.782331 0.168268 -0.583809 45 46 46
-309.446 -600.244 -1767.3 -0.766125 0.103912 -0.618907 46 47 47
-302.149 -600.726 -1766.71 -0.789988 0.01449 -0.61358 44 46 46
-306.521 -597.195 -1762.18 -0.80511 0.0162433 -0.591583 45 46 46
-304.752 -592.63 -1763.77 -0.794903 0.0364336 -0.602357 44 46 46
-308.824 -586.179 -1767.93 -0.753489 0.0722461 -0.643857 47 48 48
-301.202 -588.058 -1767.53 -0.780809 0.0496275 -0.617185 45 47 47
-302.698 -575.518 -1766.16 -0.788577 0.0067704 -0.605456 46 48 48
-307.735 -574.429 -1763.61 -0.790738 0.0100594 -0.591488 46 48 48
-302.937 -546.909 -1766.96 -0.730888 0.145915 -0.645075 46 48 47
-153.154 -259.181 -1764.92 0.777531 0.146089 -0.609475 46 48 48
-152.551 -256.068 -1763.27 0.777972 0.148837 -0.60949 46 48 48
-157.588 -239.853 -1765.4 0.648127 0.24654 -0.708048 45 45 45
-160.359 -236.01 -1765.85 0.614748 0.337753 -0.703013 43 44 44
-297.977 -223.745 -1765.29 -0.727968 0.0837539 -0.658193 50 52 52
-297.572 -213.489 -1762.36 -0.781435 0.178239 -0.583886 50 52 52
-294.011 -213.386 -1766.04 -0.708977 0.175338 -0.673489 50 52 52
-294.362 -195.945 -1763.6 -0.702488 0.00784622 -0.699021 51 53 53
-293.682 -190.461 -1764.85 -0.705379 -0.0493867 -0.704412 50 52 52
-293.296 -183.124 -1766.02 -0.6986 -0.0104873 -0.706546 50 52 52
-291.697 -178.184 -1767.56 -0.677277 0.0624497 -0.719727 50 52 52
-100.338 -666.142 -1761.96 -0.0877518 0.478511 -0.665846 50 42 45
-95.2127 -657.814 -1764.07 -0.647553 0.415069 -0.583934 60 52 53
-94.1384 -648.255 -1763.8 -0.761956 0.190967 -0.635593 41 37 40
-88.6454 -639.491 -1766.77 -0.709264 0.359814 -0.593329 43 38 41
-10.5127 -673.796 -1768.02 0.132356 0.502675 -0.33903 46 41 43
63.2437 -686.962 -1766.49 0.399391 0.669395 -0.602823 62 56 58
-1.58593 -577.007 -1762.42 0.49264 0.0206567 -0.772191 46 47 46
-1.38183 -571.012 -1761.94 0.51679 0.0227077 -0.73709 45 46 45
-6.72884 -555.288 -1762.4 0.680256 -0.0139768 -0.70153 42 42 42
-2.58548 -556.462 -1765.1 0.69925 -0.0463285 -0.694069 42 42 42
-7.89725 -549.193 -1762.26 0.691113 -0.0447795 -0.6886 42 42 42
0.0518789 -543.386 -1764.19 0.697262 -0.0930942 -0.692595 42 42 42
-7.85695 -538.686 -1762.6 0.644285 -0.029324 -0.704238 42 42 42
-7.36369 -533.298 -1762.95 0.660145 -0.031989 -0.690297 41 42 41
3.30791 -535.628 -1762.13 0.695959 -0.0533095 -0.665214 41 42 41
106.702 -716.875 -1764.83 0.363467 0.722905 -0.256075 60 53 54
115.267 -717.173 -1762.95 0.238631 0.70823 -0.571927 60 54 55
118.465 -718.325 -1764.13 0.16997 0.776234 -0.475022 61 54 55
127.698 -715.784 -1762.63 0.00558689 0.812655 -0.482193 60 54 55
137.897 -715.361 -1765.83 -0.0541732 0.914525 -0.0598404 64 57 59
92.2372 -697.673 -1767.36 0.289452 0.845097 -0.323613 59 53 54
-59.3311 -250.168 -1764.47 -0.809351 0.117832 -0.573337 45 45 43
-57.8943 -239.83 -1763.65 -0.792176 0.1444 -0.590488 42 42 41
-55.3704 -231 -1766.27 -0.766713 -0.00777092 -0.630333 42 42 42
11.4565 -325.85 -1764.75 0.984856 -0.118091 -0.0429156 44 44 42
12.2143 -312.139 -1764.96 1.00382 -0.0192047 -0.0821485 43 43 41
13.1494 -296.783 -1764.44 0.98022 -0.0986933 -0.193771 45 45 43
14.3735 -283.42 -1763.96 0.968316 -0.144733 -0.142627 44 44 42
16.0072 -271.847 -1762.75 0.95809 -0.0438827 -0.143718 44 44 42
16.6542 -261.088 -1765.46 0.971582 -0.00367159 -0.127785 46 46 44
16.7234 -255.743 -1768.12 0.927091 -0.0707025 -0.205284 46 46 44
19.6187 -235.663 -1763.89 0.968927 -0.112936 -0.140355 46 46 44
19.2665 -228.006 -1763.21 0.98248 -0.11556 -0.047838 46 46 44
-207.001 338.059 -1763.6 -0.344207 -0.374879 -0.846836 230 228 189
-194.452 336.665 -1767.75 -0.260797 -0.250157 -0.923565 236 234 198
-190.337 333.506 -1766.71 -0.210609 -0.280255 -0.925494 229 227 193
-207.718 343.799 -1765.28 -0.25661 -0.310099 -0.894848 234 232 192
-210.091 354.485 -1766.38 -0.269467 -0.167988 -0.918896 237 234 194
-198.085 350 -1768.2 -0.244138 -0.135641 -0.956574 229 226 187
-212.198 361.767 -1766.17 -0.463442 -0.103451 -0.836959 235 232 188
-212.151 369.681 -1767.43 -0.609809 -0.23256 -0.727964 236 233 188
-15.8084 250.341 -1767.2 0.382628 0.203861 -0.88682 68 70 72
-32.3536 264.997 -1768.06 0.271289 0.121084 -0.915523 65 66 65
-28.4198 377.295 -1768.01 0.0873478 0.00561353 -0.966707 235 236 196
-11.7627 376.856 -1764.76 0.786577 -0.267165 -0.474037 237 229 176
-29.7133 382.036 -1767.74 0.118325 -0.0362876 -0.948902 240 240 203
-11.9551 386.133 -1767.11 0.750421 -0.171513 -0.516777 215 209 157
-21.6921 402.815 -1767.22 0.221268 -0.0125649 -0.891964 242 242 201
13.7209 534.834 -1763.16 0.627822 -0.363038 -0.686792 200 202 157
17.5511 536.774 -1761.99 0.614684 -0.366774 -0.692363 202 203 160
37.3875 544.847 -1767.29 0.829774 -0.438759 -0.304177 215 209 151
43.4006 551.4 -1765.51 0.726197 -0.513119 -0.391635 216 210 151
52.3307 557.603 -1762.19 0.703858 -0.458871 -0.526276 214 209 150
52.9165 565.821 -1765.4 0.66803 -0.33558 -0.652896 214 209 152
59.4534 570.506 -1762.48 0.662782 -0.375369 -0.658481 200 195 139
58.9809 573.187 -1765.19 0.604408 -0.403155 -0.691672 204 200 144
67.9861 581.688 -1767.41 0.466394 -0.201944 -0.537903 215 210 163
78.2176 580.459 -1765.89 0.460094 -0.14524 -0.285617 219 213 170
330.375 616.131 -1764.83 0.114358 0.415485 0.661684 232 209 197
343.401 614.833 -1765.58 0.114412 0.353459 0.683671 230 206 193
372.2 607.24 -1761.91 0.17249 0.474794 0.894942 255 228 212
394.767 601.22 -1763.36 0.192824 0.511682 0.705626 240 215 203
390.848 605.345 -1766.53 0.11774 0.0286831 0.622881 204 179 169
353.673 611.287 -1762.75 0.182393 0.56168 0.798643 252 227 212
360.993 612.35 -1765.36 0.18779 0.439578 0.852333 249 223 207
396.179 601.102 -1763.83 0.200492 0.589853 0.707407 246 221 208
404.335 598.387 -1762.49 0.206185 0.687102 0.708822 251 226 213
416.649 596.808 -1763.97 0.311132 0.487946 0.805123 250 219 204
427.748 584.173 -1762.85 0.445638 0.0462196 0.871457 227 194 176
425.374 594.57 -1765.96 0.365417 0.408827 0.804915 246 217 203
420.245 598.484 -1767.19 0.297956 0.566241 0.746029 251 222 207
-330.642 -544.58 -1761.11 -0.882217 0.315046 -0.343063 50 50 50
-327.04 -532.69 -1758.98 -0.903636 0.165586 -0.337205 50 50 50
-277.756 -683.098 -1755.97 -0.0208425 -0.958947 -0.0194067 29 25 30
-274.909 -681.714 -1760.33 0.13191 -0.921619 0.0705986 30 25 30
-239.087 -695.638 -1757.52 -0.118357 -0.877686 -0.129836 22 19 25
-255.182 -689.956 -1760.25 -0.0804774 -0.964579 -0.232433 19 16 22
-244.972 -691.6 -1761.73 -0.12304 -0.960046 -0.217788 19 16 21
-228.399 -698.566 -1757.8 -0.325615 -0.586173 0.224727 34 30 34
-309.718 -677.855 -1762.01 0.168467 -0.849173 0.14482 33 28 30
-307.72 -674.854 -1755.76 0.0802862 -0.818529 0.318254 34 29 31
-290.543 -680.576 -1759.54 -0.162647 -0.959884 0.0239444 36 33 36
-285.673 -74.1628 -1757.82 -0.615266 0.138545 -0.7607 52 55 52
-283.361 -65.0881 -1759.6 -0.671746 0.0563836 -0.711218 53 56 53
-284.895 -51.6227 -1757.27 -0.764553 0.118267 -0.610108 53 56 53
-284.335 -45.1039 -1756.01 -0.772716 0.210364 -0.586558 54 57 53
-278.873 -39.7474 -1761.24 -0.759865 0.168228 -0.595208 54 57 54
-281.33 -26.0406 -1757.54 -0.791643 -0.123812 -0.567632 56 59 54
-143.792 -117.263 -1757.93 0.899507 -0.200658 -0.384661 38 39 39
-142.929 -109.624 -1761.26 0.888823 -0.231974 -0.396215 38 39 39
-138.37 -94.2737 -1757.59 0.90984 -0.15346 -0.379032 37 37 37
-137.862 -82.564 -1761.11 0.903391 -0.155405 -0.3921 37 37 37
-66.7051 -554.775 -1756.9 -0.85221 0.21597 -0.464258 41 40 41
-62.2918 -545.113 -1760.55 -0.858258 0.211325 -0.457117 41 40 41
-62.2028 -529.851 -1757.74 -0.75328 0.0538269 -0.656479 37 37 37
-12.5292 -563.285 -1761.82 0.548058 0.186033 -0.736163 44 44 43
-13.5558 -558.524 -1757.37 0.468748 0.23511 -0.827374 43 43 42
-26.6814 -553.598 -1761.21 0.695266 0.116942 -0.700751 36 36 36
-20.9057 -551.107 -1757.03 0.55089 0.167809 -0.817954 39 39 39
-23.6114 -537.863 -1759.48 0.746184 -0.145118 -0.606727 37 36 36
-21.8168 -534.299 -1758.07 0.761669 -0.164552 -0.604383 36 36 36
19.6597 -625.088 -1757.58 0.373665 0.207407 -0.886628 47 45 46
25.9555 -631.006 -1756.09 0.377658 0.32072 -0.857086 49 47 48
16.3532 -612.722 -1760.78 0.421217 -0.106386 -0.846359 50 50 50
14.9025 -608.038 -1760.23 0.331369 -0.0157625 -0.868454 53 53 52
10.5752 -603.87 -1761.31 0.400261 0.154805 -0.839294 51 50 50
10.5455 -597.184 -1758.19 0.480659 0.267986 -0.788188 48 48 47
-59.9851 -238.613 -1760.69 -0.783472 0.121737 -0.605726 41 41 40
11.8577 -315.95 -1755.75 0.998361 -0.0690553 -0.0283207 43 43 41
13.2326 -302.797 -1759.74 0.983863 -0.100735 -0.173101 44 44 42
14.423 -297.467 -1755.76 0.974791 -0.0852042 -0.214041 43 43 42
14.7652 -279.056 -1760.65 0.984733 -0.0907124 -0.114495 43 43 41
16.632 -276.131 -1755.71 0.961666 -0.110331 -0.19743 42 43 41
18.0185 -257.547 -1756.36 0.967994 -0.0407814 -0.191648 44 44 42
19.8179 -245.704 -1758.53 0.96801 -0.164188 -0.15041 45 45 43
20.2325 -243.327 -1757.56 0.971798 -0.152377 -0.149107 45 45 43
19.3854 -230.536 -1760.59 0.987364 -0.0627761 -0.0499106 46 46 44
-260.383 123.56 -1759.77 -0.84191 0.23299 -0.483567 62 63 60
-260.995 129.952 -1756.54 -0.846789 0.172548 -0.48308 61 63 60
-260.185 142.281 -1757.84 -0.830088 0.0164405 -0.548256 60 61 59
-258.761 152.772 -1758.98 -0.81777 0.0582216 -0.560775 59 61 58
-258.913 163.188 -1757.74 -0.849555 0.10315 -0.508474 58 60 58
-258.006 172.929 -1755.92 -0.798635 0.249183 -0.546103 59 61 58
-253.227 179.9 -1758.89 -0.762636 0.253042 -0.593758 62 63 61
-249.894 189.643 -1759.83 -0.746868 0.200446 -0.632688 65 66 64
-245.763 198.191 -1761.47 -0.706978 0.273755 -0.646319 67 67 66
-243.649 206.367 -1757.25 -0.655419 0.434078 -0.622355 68 69 67
-241.124 213.17 -1757.2 -0.631699 0.254052 -0.693712 65 66 64
-37.0748 755.507 -1757.29 0.877012 0.295812 -0.262552 68 44 54
-34.1751 747.79 -1761.17 0.850321 0.563515 -0.0143276 70 45 55
-35.9307 763.969 -1755.72 0.759534 -0.213807 -0.355399 62 38 48
-36.7826 784.71 -1759.64 0.716092 0.360902 -0.387405 69 48 56
-31.7199 777.149 -1756.21 0.76343 -0.131175 -0.396073 62 38 48
0.470041 701.043 -1756.57 0.552217 0.77895 0.0789856 69 46 49
-50.4735 797.249 -1759.87 0.57319 0.525422 -0.615799 64 42 52
-41.1964 788.819 -1759.82 0.638359 0.488468 -0.450741 76 56 62
-52.6345 805.421 -1757.33 0.576405 0.515846 -0.628518 62 39 49
-55.4412 808.727 -1758.66 0.584261 0.510995 -0.617043 63 40 50
303.444 558.315 -1759.95 0.0997242 -0.894144 0.18131 139 117 114
312.862 557.893 -1757.22 0.112627 -0.855761 0.266564 134 109 104
315.542 558.771 -1761.04 0.0765677 -0.916706 0.141992 136 117 114
325.167 558.699 -1760.69 0.0741482 -0.846651 0.218524 143 123 118
344.409 558.123 -1759.51 0.0594202 -0.821491 0.325415 139 114 106
-223.153 -697.932 -1760.08 -0.285304 -0.574925 0.184734 34 31 34
-137.711 -422.165 -1753.22 0.493257 0.0121857 -0.863596 41 41 41
-138.948 -412.315 -1754.42 0.523662 -0.0795376 -0.84544 39 39 40
-132.819 -427.849 -1750.97 0.512678 0.036227 -0.853538 43 43 43
-135.999 -412.941 -1752.4 0.513439 -0.0430378 -0.853362 40 40 41
-133.559 -408.679 -1750.85 0.541436 -0.0309202 -0.839053 41 41 41
-144.08 -386.723 -1754.98 0.56624 0.0644654 -0.806001 37 38 39
-138.459 -379.432 -1752.44 0.493305 -0.00172681 -0.859328 39 39 39
-131.851 -400.129 -1749.96 0.521026 0.0172299 -0.851002 41 41 41
-134.733 -388.563 -1751.21 0.465484 0.0455881 -0.879419 39 40 40
-129.862 -383.506 -1749.06 0.454829 0.0295124 -0.887204 42 42 42
-139.145 -371.204 -1752.75 0.612792 -0.0452738 -0.769921 40 40 40
-139.301 -355.115 -1751.62 0.760382 0.0119841 -0.646957 39 39 39
-133.806 -376.364 -1749.96 0.468933 0.0590998 -0.874396 40 40 40
-142.522 -346.377 -1755.25 0.808962 0.0503952 -0.58285 40 40 40
-141.097 -345.53 -1753.3 0.783637 0.0505969 -0.616072 39 39 39
-140.695 -331.153 -1752.21 0.659902 0.0336633 -0.746749 39 39 39
-129.38 -45.0739 -1752.28 0.903387 -0.170042 -0.391604 36 36 37
-126.442 -32.6432 -1750.57 0.91799 -0.166902 -0.354539 35 35 35
-126.225 -27.8933 -1752.05 0.925811 -0.14516 -0.347211 34 34 35
-285.127 -11.2689 -1750.55 -0.835608 -0.0313254 -0.525144 54 57 54
-285.085 -4.33991 -1751.45 -0.815908 -0.0615479 -0.571175 53 56 53
-282.953 6.42009 -1752.68 -0.766386 0.0733497 -0.621354 55 57 54
-281.661 17.2991 -1751.22 -0.786109 0.0410447 -0.595453 56 59 56
-280.754 21.7086 -1752.63 -0.794648 -0.0374442 -0.594305 56 59 56
-278.207 30.3687 -1755.23 -0.753119 0.0499349 -0.648079 55 58 55
-280.714 43.1683 -1750 -0.79904 0.0803545 -0.591205 54 57 54
-278.517 54.7492 -1752.64 -0.801912 -0.0162544 -0.584639 55 58 55
-280.473 59.6027 -1749.58 -0.838031 -0.028027 -0.528424 55 58 55
-108.607 -523.41 -1750.28 0.492457 0.194109 -0.83896 44 44 45
-67.4211 -521.896 -1753.09 -0.740907 -0.0670438 -0.66416 38 37 37
-70.2768 -511.385 -1749.39 -0.7812 0.0157539 -0.597199 36 35 35
-66.5731 -508.817 -1754.52 -0.688921 0.0471064 -0.70509 36 35 36
-66.9718 -496.319 -1750.53 -0.778447 0.0712251 -0.614597 34 34 34
-65.8431 -490.431 -1753.41 -0.718298 -0.123944 -0.667015 35 35 35
-18.2418 -524.294 -1754.41 0.85555 -0.0713327 -0.505232 36 35 36
-15.7985 -523.579 -1750.36 0.820292 0.0341135 -0.566626 37 36 36
-17.1542 -509.453 -1751.09 0.933505 -0.0417101 -0.356442 39 38 38
-66.1305 -234.234 -1753.64 -0.763254 -0.00104505 -0.642475 38 38 39
11.0882 -322.458 -1754.75 1.00034 -0.0671346 0.0058261 43 43 41
13.8179 -310.204 -1749.29 0.963714 -0.205086 -0.136476 42 42 40
14.7854 -301.808 -1753.1 0.96294 -0.128929 -0.22745 42 42 40
15.1394 -290.517 -1753.33 0.980086 -0.046201 -0.183443 43 43 41
16.1492 -280.098 -1754.2 0.964118 -0.0991214 -0.197004 42 43 41
17.9032 -268.845 -1755.39 0.960216 -0.0792396 -0.228649 43 43 41
18.8931 -252.598 -1753.72 0.968096 -0.106689 -0.164442 44 44 42
-248.905 208.886 -1750.54 -0.684246 0.360868 -0.631598 65 65 62
-247.742 216.882 -1751.38 -0.670126 0.0142376 -0.73505 61 61 60
-249.109 226.806 -1749.81 -0.770459 0.0890484 -0.617213 59 59 58
-247.211 234.672 -1749.16 -0.764271 0.237399 -0.587422 62 62 62
-239.907 242.081 -1753.23 -0.668211 0.38704 -0.629316 66 66 65
-237.726 251.157 -1749.51 -0.638273 0.373472 -0.672356 67 69 67
-234.116 260.491 -1749.91 -0.675265 0.263336 -0.68792 68 68 67
-227.276 265.905 -1753.84 -0.605924 0.294989 -0.731924 67 67 66
-227.059 276.427 -1750.19 -0.646073 0.231259 -0.71785 59 60 59
-222.933 273.965 -1753.35 -0.535678 0.214109 -0.802873 63 64 63
23.8904 217.404 -1752.5 0.684363 0.0601937 -0.714773 60 61 59
14.6306 237.228 -1755.49 0.585196 0.336463 -0.702443 56 56 55
13.7629 249.214 -1749.94 0.738669 0.261294 -0.618994 62 61 61
16.5849 233.808 -1755.23 0.574128 0.284897 -0.731416 57 57 56
15.1308 241.061 -1752.6 0.663771 0.335674 -0.650199 58 58 58
9.04982 258.537 -1752.41 0.744035 0.230144 -0.59379 61 61 60
1.06765 280.319 -1752.97 0.774484 0.212539 -0.542462 59 57 56
4.97737 272.761 -1750.66 0.758903 0.2909 -0.517036 61 60 59
-19.7452 317.456 -1755.04 0.629501 -0.0258308 -0.752508 57 56 48
43.137 537.831 -1755.18 0.780553 -0.240805 -0.569902 216 209 150
48.3912 541.545 -1752.19 0.677833 -0.366479 -0.62495 213 204 144
54.174 549.848 -1752.95 0.587692 -0.509313 -0.618101 210 201 142
63.1406 556.483 -1751.65 0.617818 -0.461545 -0.603379 202 191 135
77.041 554.507 -1749.41 0.621994 -0.519057 -0.322466 198 189 135
79.8311 557.143 -1751.93 0.624737 -0.525797 -0.32986 198 190 135
62.4925 562.029 -1755 0.667302 -0.411814 -0.617574 204 196 140
72.4368 561.166 -1752.63 0.622576 -0.502125 -0.377774 198 189 135
85.141 658.13 -1754.56 0.287361 0.710475 0.549522 255 252 245
72.6868 663.239 -1751.79 0.30359 0.632142 0.679261 252 251 243
80.4954 660.319 -1752.1 0.2979 0.707821 0.65415 254 252 245
112.591 545.379 -1750.28 0.390892 -0.669136 0.42457 175 162 137
121.364 550.174 -1750.19 0.418462 -0.812849 0.308669 138 129 104
127.564 552.261 -1752.56 0.366605 -0.887546 0.299345 130 123 101
135.015 553.024 -1751.34 0.270477 -0.917179 0.308739 132 121 104
-124.944 -420.937 -1745.15 0.560524 0.0147308 -0.826635 41 42 43
-129.976 -410.343 -1748.36 0.53982 -0.00662417 -0.841558 42 42 43
-129.171 -405.043 -1748.28 0.532159 -0.019297 -0.845849 42 42 43
-124.632 -404.678 -1745.6 0.51215 -0.0299202 -0.857004 43 43 44
-124.76 -395.734 -1745.82 0.49028 0.00577435 -0.87031 42 43 44
-121.089 -394.362 -1743.5 0.465429 0.0187864 -0.883391 42 42 44
-128.135 -378.801 -1747.18 0.474217 0.0710044 -0.874868 40 40 41
-123.524 -381.082 -1744.5 0.533558 0.0472887 -0.842758 41 41 43
-133.737 -367.063 -1748.47 0.538669 0.110592 -0.829544 39 39 39
-121.85 -377.199 -1743.02 0.548293 0.0722027 -0.832187 40 40 42
-127.501 -364.417 -1744.63 0.481429 0.100787 -0.863773 39 39 40
-134.952 -353.423 -1747.58 0.667348 0.0383914 -0.721797 39 39 39
-136.242 -347.784 -1747.95 0.695542 0.0277617 -0.711664 38 38 38
-134.358 -341.813 -1747.16 0.64227 0.0276028 -0.748657 38 38 38
-126.632 -345.062 -1743.42 0.389326 0.0634136 -0.911062 40 40 40
-127.247 -338.822 -1743.1 0.454694 0.0459861 -0.885086 39 39 39
-128.953 -330.935 -1743.63 0.564736 0.0658425 -0.817374 39 39 39
39.0669 -619.667 -1745.19 0.538658 0.125141 -0.821331 45 44 44
38.9869 -614.079 -1744.3 0.577302 0.0664228 -0.806639 44 43 42
34.1642 -607.929 -1746.48 0.479182 0.206568 -0.82352 47 47 48
28.4707 -599.503 -1747.33 0.403743 0.318123 -0.812774 46 46 48
27.8361 -595.604 -1747.01 0.380044 0.274131 -0.83616 45 45 47
22.9481 -587.401 -1748.19 0.534539 -0.014977 -0.809757 44 44 45
25.1389 -584.934 -1746.78 0.466687 0.0582275 -0.830803 45 45 46
39.7136 -591.136 -1742.68 0.631172 -0.196554 -0.690878 48 47 45
37.9317 -585.186 -1743.28 0.565502 -0.142933 -0.681722 50 49 46
41.625 -618.881 -1743.3 0.556559 0.1225 -0.811117 45 44 43
21.4679 -244.19 -1745.3 0.96934 -0.175842 -0.129686 43 43 41
21.5015 -229.73 -1748.07 0.939406 0.127797 -0.280798 44 44 42
-76.379 -215.344 -1744.96 -0.685042 -0.190773 -0.692497 36 36 37
-79.9291 -213.165 -1743.18 -0.682153 -0.176363 -0.70502 36 36 37
-81.6039 -201.957 -1745.39 -0.700712 -0.225686 -0.665744 35 35 36
-83.9044 -191.183 -1743.73 -0.823145 -0.092217 -0.558276 35 35 36
-84.5051 -187.28 -1743.24 -0.839445 -0.0669881 -0.539749 36 36 37
-86.4296 -154.781 -1743.32 -0.870701 -0.00609747 -0.485682 41 41 40
-85.6109 -166.488 -1743.15 -0.867893 -0.0345818 -0.488409 39 39 39
-289.699 636.438 -1748.5 -0.310537 0.133329 -0.697453 244 244 210
-284.885 639.276 -1748.59 -0.340382 0.142674 -0.787505 247 247 214
55.9148 84.4483 -1743.87 0.858657 0.161478 -0.450205 56 56 53
55.3229 84.7032 -1744.55 0.863221 0.16831 -0.441938 57 57 53
53.7296 94.6931 -1744.16 0.893534 0.14054 -0.392605 59 60 56
46.0893 113.449 -1743.35 0.907028 0.317945 -0.222376 57 57 53
44.9849 126.28 -1744.89 0.911122 0.0672678 -0.365115 58 58 54
-24.6301 721.234 -1745.33 0.791152 0.456935 0.269562 62 39 48
-14.0502 710.216 -1748.34 0.717289 0.64359 0.135502 58 38 45
-25.9671 722.971 -1744.12 0.800862 0.446596 0.26621 63 40 48
-37.2022 739.665 -1743.26 0.741784 0.0272055 0.574542 50 31 32
-34.2885 748.568 -1745.97 0.85556 -0.0583613 0.114901 62 38 48
-29.9207 754.683 -1746.99 0.810603 -0.220741 -0.339317 62 38 48
-23.5181 762.956 -1745.43 0.730591 -0.26161 -0.48098 60 35 45
-21.7502 772.351 -1745.43 0.712413 -0.144275 -0.667904 60 34 44
-28.1692 784.473 -1748.31 0.629326 0.397489 -0.655159 63 39 49
-21.2212 782.844 -1743.03 0.661693 0.225421 -0.684739 63 38 46
-7.62957 705.737 -1748.05 0.653956 0.735946 0.0564045 68 47 54
8.6718 695.382 -1745.61 0.563731 0.754011 0.0859761 90 72 75
3.99221 698.222 -1747.35 0.60364 0.780711 0.0196018 71 50 55
16.9107 692.32 -1751.19 0.520575 0.685144 0.101784 112 95 96
25.9557 688.237 -1755.2 0.40989 0.577769 0.16265 159 149 145
28.8966 686.293 -1745.89 0.364549 0.639868 0.345372 184 177 174
-322.263 -670.822 -1742.77 -0.352781 -0.584724 -0.408232 14 10 12
-324.065 -662.998 -1742.1 -0.563794 -0.556887 -0.106434 30 27 29
-323.909 -660.012 -1742.24 -0.595702 -0.574979 -0.0265582 37 34 36
-340.546 -633.257 -1740.03 -0.942189 -0.0781845 0.279597 45 45 48
-331.064 -650.081 -1741.7 -0.640199 -0.735141 0.20424 50 47 50
-338.308 -640.819 -1737.59 -0.850087 -0.384216 0.27208 46 44 47
-338.993 -627.741 -1737.15 -0.937857 0.16075 0.326437 46 46 49
-337.946 -615.39 -1738.87 -0.912189 0.135366 0.359798 45 45 46
-335.265 -601.938 -1739.37 -0.86051 0.16737 0.395441 44 44 44
-334.384 -587.654 -1739.87 -0.885153 0.0447301 0.414332 45 45 45
-334.624 -581.957 -1739.81 -0.918672 -0.00293182 0.32977 46 46 46
-336.255 -569.575 -1739.32 -0.927735 -0.0569812 0.282225 46 46 46
-334.052 -556.642 -1739 -0.930415 0.301713 0.225811 47 47 47
52.0643 -673.026 -1737.34 -0.156135 0.926776 -0.174424 38 33 36
57.4019 -671.758 -1739.02 -0.0118601 0.913719 -0.309906 40 35 37
44.8794 -661.409 -1736.53 0.409757 -0.487142 -0.749176 40 36 38
78.5255 -677.237 -1741.33 0.491918 0.713019 -0.486199 53 47 49
76.8353 -673.908 -1737.45 0.529527 0.678301 -0.494164 49 43 45
78.878 -674.484 -1736.46 0.581859 0.654381 -0.483935 48 42 44
54.08 -651.468 -1740.08 0.471755 -0.312073 -0.745978 52 48 49
49.1738 -630.816 -1742.31 0.512141 0.309946 -0.802119 51 49 49
59.3053 -638.724 -1737.9 0.592799 0.0407014 -0.795009 55 52 53
-103.611 -624.623 -1742.68 0.664539 0.197755 -0.674093 31 27 30
-98.7132 -630.273 -1742.4 0.347589 0.31698 -0.715413 30 26 29
-90.8784 -620.302 -1741.74 -0.607867 0.447624 -0.579416 28 24 27
-104.202 -607.639 -1742.01 0.827742 0.0204936 -0.54656 35 32 34
-87.0778 -613.728 -1742.55 -0.753162 0.413771 -0.477415 29 25 28
-101.948 -605.158 -1737.07 0.743924 0.0779693 -0.655646 29 25 28
-102.302 -595.624 -1740.4 0.795912 -0.0469312 -0.59382 34 31 33
-101.836 -592.205 -1740.72 0.757606 -0.0903399 -0.618627 35 32 34
-96.5298 -583.297 -1736.09 0.349744 -0.0915025 -0.8723 31 27 30
-84.4474 -587.612 -1739.62 -0.412545 0.0464517 -0.723592 39 35 37
-84.233 -581.723 -1738.06 -0.657693 0.303977 -0.61532 43 38 40
-97.1213 -567.584 -1737.32 0.683719 0.0941317 -0.674533 30 27 30
-87.9391 -177.876 -1737.39 -0.872172 -0.0238988 -0.488035 38 38 40
-85.0034 -185.075 -1742.57 -0.84666 -0.0547337 -0.529355 36 36 37
-87.218 -167.194 -1739.85 -0.874708 -0.0379782 -0.479655 39 39 40
-90.1817 -156.075 -1734.85 -0.891289 0.00672063 -0.441926 40 40 39
-86.8653 -143.136 -1736.7 -0.889061 0.2166 -0.405915 41 41 40
-84.1406 -135.551 -1738.51 -0.891448 0.188481 -0.412859 41 41 39
24.8841 -221.03 -1737.67 0.938839 -0.0474198 -0.314153 45 45 43
23.7709 -216.514 -1741.5 0.945311 -0.0449252 -0.302278 45 45 43
25.3104 -205.844 -1737.9 0.962619 -0.0316345 -0.24781 45 45 43
25.5773 -190.848 -1739.47 0.932807 -0.0431623 -0.280507 44 44 42
27.5256 -179.8 -1741.35 0.947541 -0.225776 -0.140092 44 44 42
-241.948 383.554 -1738.94 -0.860815 -0.0489461 -0.216877 221 220 178
-243.19 391.591 -1737.1 -0.912854 -0.18261 -0.170027 223 223 182
-246.781 405.635 -1737.91 -0.766384 -0.224972 -0.385984 221 221 181
-244.412 409.484 -1742.12 -0.864493 -0.0139216 -0.438748 220 221 180
-249.298 422.851 -1739.18 -0.919576 -0.114949 -0.356512 214 213 170
-248.295 433.099 -1741.05 -0.832117 -0.0334275 -0.435783 222 221 179
-250.182 441.198 -1736.8 -0.794505 -0.108063 -0.459118 221 221 179
-250.296 445.784 -1738.14 -0.81338 -0.180162 -0.447427 221 221 179
-254.709 468.206 -1739.11 -0.909858 -0.00310769 -0.340398 220 220 176
-252.982 480.069 -1741.5 -0.849258 -0.149803 -0.355516 221 221 177
17.0876 433.934 -1737.28 0.937684 -0.170212 -0.304519 235 229 172
19.0397 449.869 -1739.08 0.908356 -0.187382 -0.273889 227 219 161
20.0909 454.048 -1738.17 0.906732 -0.229998 -0.256924 227 219 161
23.6927 467.392 -1739.96 0.953931 -0.240703 -0.0743616 222 213 154
30.2669 481.029 -1737.95 0.85398 -0.470392 -0.191955 218 208 149
31.8897 483.732 -1739.16 0.844643 -0.480063 -0.21025 218 207 148
37.0938 499.291 -1739.27 0.929516 -0.209386 -0.268769 216 205 145
38.672 510.747 -1740.94 0.931279 -0.22013 -0.265038 218 208 146
41.5395 518.101 -1741.93 0.877601 -0.349906 -0.286504 217 207 146
50.2978 528.994 -1737.33 0.813286 -0.487461 -0.260891 205 193 130
-302.382 -260.646 -1730.86 -0.480461 0.0607636 0.280083 48 51 49
-304.975 -252.639 -1732.92 -0.668917 0.0973397 0.379043 49 52 51
-302.804 -245.311 -1732.3 -0.529908 0.0822733 0.48297 49 51 50
-306.452 -242.852 -1734.31 -0.746713 0.0935022 0.447249 49 51 51
-301.555 -236.535 -1731.5 -0.359211 0.0143177 0.726188 48 50 49
-302.981 -230.323 -1731.8 -0.38873 0.0157303 0.732079 48 50 49
-117.573 -324.14 -1734.45 0.541968 0.193582 -0.814931 38 38 38
-118.491 -316.73 -1734.03 0.559406 0.103887 -0.817812 39 38 38
-121.806 -314.541 -1736.15 0.57702 0.086306 -0.808484 39 38 38
-120.07 -306.531 -1734.67 0.558836 0.0587509 -0.824343 38 37 38
-120.672 -299.59 -1734.13 0.575399 0.116271 -0.806181 38 38 38
-119.058 -291.978 -1730.79 0.580438 0.206076 -0.790364 38 38 38
-124.01 -275.872 -1734.33 0.672253 -0.102877 -0.727728 40 41 41
-121.419 -280.1 -1731.28 0.636933 0.0166354 -0.762111 38 39 39
-122.574 -269.346 -1735.2 0.650304 -0.213445 -0.724932 41 41 41
-117.403 -258.729 -1735.57 0.591835 -0.147414 -0.771835 39 39 40
-115.475 -253.107 -1732.02 0.658255 0.055475 -0.715594 37 38 39
-95.6898 -557.074 -1733.12 0.743231 0.133356 -0.661667 30 26 29
-82.2251 -574.812 -1736.48 -0.681249 0.420648 -0.588681 40 36 38
-77.1651 -563.665 -1736.12 -0.837432 0.344172 -0.452392 37 33 35
-96.8975 -553.676 -1735.55 0.722033 0.095688 -0.631177 31 28 31
-97.0343 -537.796 -1734.81 0.854155 0.0113727 -0.517959 36 33 36
-77.3745 -554.797 -1730.9 -0.775659 0.217994 -0.536988 34 31 32
-76.9577 -545.366 -1730.88 -0.810066 0.071837 -0.524454 33 31 32
-76.5956 -530.781 -1734.71 -0.851536 -0.053182 -0.514231 33 30 32
56.1031 -622.233 -1735.44 0.473337 0.270208 -0.838368 50 49 49
52.0671 -613.749 -1734.97 0.522319 0.216089 -0.813547 48 46 46
56.2619 -617.377 -1733.74 0.479077 0.259504 -0.833197 49 48 47
57.0055 -611.749 -1731.52 0.432548 0.246305 -0.853549 46 46 46
-108.817 -366.534 -1731.91 0.550992 0.0341963 -0.829949 38 36 39
-89.9535 -373.263 -1730.67 -0.520379 0.0460256 -0.791205 36 36 36
-110.555 -362.037 -1733.6 0.589512 -0.0231109 -0.803295 40 39 41
-89.9018 -362.104 -1730.61 -0.557071 0.0212004 -0.775149 39 38 38
-87.5547 -353.862 -1733.22 -0.739931 0.112299 -0.634255 42 42 42
-110.478 -344.341 -1733.02 0.647533 0.056285 -0.758893 41 41 43
-109.803 -336.73 -1731.81 0.641936 0.0911682 -0.754326 40 40 41
-84.6914 -340.4 -1733.27 -0.783719 0.191213 -0.547094 42 42 42
-83.9782 -329.445 -1731.19 -0.872617 0.142384 -0.489253 42 42 42
6.81677 -416.626 -1730.86 0.878817 -0.0345167 -0.471618 39 39 36
7.06335 -411.512 -1730.42 0.860841 0.00451579 -0.509992 39 39 36
32.0761 -425.552 -1730.99 0.552823 -0.100522 -0.806189 41 43 43
32.8078 -420.929 -1731.71 0.570762 -0.141697 -0.795884 40 42 42
26.8128 -404.794 -1736.31 0.68616 -0.0825733 -0.696878 42 43 42
39.4921 -413.715 -1732.5 0.543462 -0.155745 -0.817565 42 44 44
37.2093 -403.32 -1734.49 0.696607 -0.0721485 -0.706658 40 42 42
7.25047 -400.76 -1730.54 0.868526 -0.0266571 -0.502468 40 39 37
7.64504 -384.078 -1735.43 0.94528 -0.129803 -0.260797 39 39 37
8.8952 -378.707 -1734.15 0.945748 0.0336512 -0.282224 38 38 36
-92.3538 -88.2304 -1733.65 -0.916038 -0.213039 -0.33648 39 39 37
-94.9098 -80.4693 -1731.39 -0.91525 -0.171001 -0.358004 35 35 33
-96.9586 -67.5531 -1730.18 -0.904382 -0.0583068 -0.414698 32 32 30
-96.4597 -60.0212 -1731.93 -0.88608 -0.0700462 -0.448538 33 32 30
-97.3049 -46.5716 -1732.87 -0.913248 -0.156147 -0.358221 33 33 31
-99.4038 -32.8227 -1731.19 -0.913897 -0.182288 -0.334125 32 31 30
36.1959 -123.399 -1736.37 0.974609 -0.179063 -0.0965151 45 45 43
40.1767 -107.576 -1731.44 0.961976 -0.121106 -0.20749 47 46 43
