ply
format ascii 1.0
comment Created by Open3D
element vertex 1406
property double x
property double y
property double z
property uchar red
property uchar green
property uchar blue
end_header
-166.969 30.5709 -1590 213 211 166
-163.78 30.5667 -1590 104 101 58
-160.289 30.5047 -1587 83 80 48
-157.01 30.4814 -1586 74 70 47
-153.251 30.3621 -1580 55 50 37
-149.613 30.262 -1575 50 44 36
-146.274 30.2198 -1573 51 45 38
-143.218 30.2352 -1574 50 46 42
-139.714 30.1548 -1570 49 45 43
-136.575 30.1512 -1570 49 45 45
-133.267 30.1093 -1568 50 46 45
-130.217 30.1251 -1569 53 49 48
-126.759 30.0449 -1565 52 48 48
-123.792 30.0801 -1567 54 50 50
-120.742 30.0962 -1568 59 55 56
-117.763 30.1315 -1570 55 54 56
-114.85 30.186 -1573 51 50 52
-111.997 30.2598 -1577 52 52 53
-108.991 30.2954 -1579 61 60 63
-105.576 30.2159 -1575 56 54 59
-102.438 30.2132 -1575 58 55 60
-99.4261 30.2489 -1577 66 63 68
-96.3465 30.2656 -1578 57 55 60
-93.2637 30.2823 -1579 49 47 52
-90.6343 30.4525 -1588 57 55 61
-87.529 30.4694 -1589 63 60 65
-84.5798 30.5439 -1593 62 59 63
-81.5132 30.5801 -1595 60 57 61
-78.5374 30.6548 -1599 68 65 62
-75.3108 30.6336 -1598 103 101 96
-72.0887 30.6125 -1597 191 191 158
-68.9575 30.6298 -1598 230 229 194
-65.6994 30.5898 -1596 243 240 203
-62.4496 30.5498 -1594 246 245 205
-59.2828 30.5482 -1594 249 248 207
-56.1868 30.5851 -1596 253 252 218
-53.0502 30.6028 -1597 254 253 221
-49.9412 30.6398 -1599 253 253 223
-46.8247 30.6769 -1601 254 253 233
-43.646 30.6757 -1601 254 253 236
-40.4425 30.6555 -1600 254 254 243
-37.2898 30.6737 -1601 254 253 247
-34.0695 30.6344 -1599 252 252 250
-30.8961 30.6336 -1599 253 253 253
-27.723 30.6328 -1599 253 253 253
-24.5961 30.6896 -1602 253 253 254
-21.404 30.6699 -1601 253 253 254
-18.2388 30.6885 -1602 253 253 254
-15.0699 30.7073 -1603 253 253 252
-11.8822 30.6878 -1602 253 253 251
-8.70944 30.7066 -1603 253 253 249
-5.5328 30.7256 -1604 253 253 250
-2.35516 30.783 -1607 253 253 250
0.833319 30.8021 -1608 253 253 252
4.03328 30.8788 -1612 253 253 252
7.23569 30.8981 -1613 253 253 252
10.4551 30.9558 -1616 252 253 250
13.6695 30.9753 -1617 252 253 250
16.8985 31.014 -1619 253 253 248
20.1107 31.0145 -1619 253 253 247
23.3663 31.0725 -1622 253 253 247
26.6339 31.1306 -1625 253 254 250
29.9137 31.1888 -1628 253 254 248
33.226 31.2663 -1632 252 253 242
36.5321 31.3246 -1635 254 254 235
39.8504 31.3831 -1638 253 253 231
43.2072 31.4608 -1642 251 252 234
46.6369 31.5769 -1648 250 251 227
49.9999 31.6357 -1651 246 246 214
53.3752 31.6945 -1654 249 248 214
56.7628 31.7534 -1657 249 248 213
60.0904 31.7741 -1658 249 249 211
63.3841 31.7756 -1658 246 246 208
66.7588 31.8156 -1660 243 243 205
70.142 31.8557 -1662 243 241 200
73.5337 31.8959 -1664 235 234 191
76.8418 31.8979 -1664 229 229 182
80.1021 31.8807 -1663 231 231 186
83.4594 31.9021 -1664 238 238 193
86.8735 31.9426 -1666 237 236 190
90.1879 31.9449 -1666 237 236 189
93.6153 31.9856 -1668 242 241 194
96.9352 31.9881 -1668 232 230 181
100.256 31.9906 -1668 224 222 171
103.702 32.0316 -1670 229 226 171
107.028 32.0343 -1670 228 227 170
110.355 32.0372 -1670 219 218 161
113.683 32.0401 -1670 216 217 165
117.012 32.043 -1670 220 221 169
120.198 32.0077 -1668 222 224 172
123.525 32.0108 -1668 225 225 176
127.081 32.0717 -1671 229 225 179
130.728 32.1518 -1675 216 207 167
134.553 32.2704 -1681 195 175 144
138.32 32.37 -1686 200 177 149
141.856 32.412 -1688 203 177 151
145.315 32.4349 -1689 207 176 150
148.868 32.4771 -1691 210 177 150
152.339 32.5002 -1692 214 175 148
155.448 32.4466 -1689 212 174 148
159.016 32.4891 -1691 211 174 149
162.594 32.5317 -1693 210 173 149
166.083 32.5552 -1694 208 170 147
169.677 32.598 -1696 207 168 143
173.076 32.6024 -1696 206 169 146
176.477 32.607 -1696 207 170 147
179.879 32.6116 -1696 208 169 144
183.283 32.6163 -1696 209 168 143
186.578 32.6019 -1695 210 167 142
190.207 32.6453 -1697 203 164 139
193.846 32.6887 -1699 204 162 136
197.262 32.6938 -1699 207 162 134
201.033 32.7567 -1702 206 162 133
204.338 32.7427 -1701 203 160 131
207.763 32.7481 -1701 200 159 130
211.19 32.7536 -1701 199 158 130
214.366 32.7206 -1699 199 158 131
217.535 32.6877 -1697 199 157 131
221.089 32.7127 -1698 201 158 133
224.913 32.7763 -1701 200 158 132
228.349 32.7823 -1701 200 158 133
231.922 32.8075 -1702 200 159 131
235.502 32.8328 -1703 198 158 128
238.526 32.7812 -1700 198 160 130
241.682 32.749 -1698 199 162 132
244.688 32.6974 -1695 198 161 131
248.416 32.7425 -1697 197 157 124
252.154 32.7876 -1699 198 156 122
255.45 32.775 -1698 195 151 117
258.898 32.7817 -1698 185 141 102
262.347 32.7886 -1698 179 135 98
265.799 32.7955 -1698 181 137 102
268.935 32.7638 -1696 195 153 127
272.709 32.8096 -1698 200 158 132
276.492 32.8554 -1700 200 158 133
280.286 32.9014 -1702 200 159 134
284.09 32.9474 -1704 190 149 122
287.23 32.9163 -1702 185 143 112
291.047 32.9626 -1704 184 144 111
293.838 32.893 -1700 183 145 112
297.315 32.9007 -1700 179 143 109
300.971 32.9279 -1701 175 140 109
304.812 32.9746 -1703 175 140 110
308.121 32.9634 -1702 176 142 113
311.612 32.9715 -1702 177 140 111
315.846 33.0573 -1706 178 141 111
318.788 33.0076 -1703 180 142 111
321.721 32.9578 -1700 179 144 115
325.601 33.0052 -1702 179 144 114
329.105 33.0138 -1702 178 142 113
332.026 32.9644 -1699 177 145 118
335.924 33.012 -1701 178 146 119
339.834 33.0598 -1703 177 145 119
342.948 33.0301 -1701 178 146 122
345.445 32.9421 -1696 178 147 122
349.571 33.0096 -1699 177 146 121
353.505 33.0577 -1701 174 143 122
357.03 33.0672 -1701 174 144 123
360.346 33.0573 -1700 173 144 123
363.875 33.0669 -1700 170 141 120
367.839 33.1156 -1702 168 139 119
371.597 33.1449 -1703 165 136 117
375.142 33.1549 -1703 161 138 121
379.357 33.2233 -1706 158 135 120
383.363 33.2724 -1708 154 131 117
386.248 33.2242 -1705 146 126 112
389.81 33.2346 -1705 144 124 111
394.529 33.3426 -1710 145 125 113
396.944 33.2556 -1705 140 121 113
400.516 33.2664 -1705 136 117 108
404.802 33.3357 -1708 136 116 107
408.148 33.3271 -1707 132 111 104
411.252 33.299 -1705 125 106 96
415.325 33.3491 -1707 121 102 94
418.673 33.3408 -1706 118 101 92
422.021 33.3325 -1705 112 98 93
426.117 33.383 -1707 110 96 91
430.225 33.4337 -1709 105 92 86
434.346 33.4845 -1711 103 90 83
438.222 33.5158 -1712 98 90 87
443.14 33.6256 -1717 91 84 81
445.74 33.5592 -1713 87 81 78
448.852 33.5321 -1711 84 79 78
454.262 33.4193 -1704 73 69 70
456.816 33.3532 -1700 51 48 53
501.01 33.7716 -1714 112 97 97
503.24 33.6868 -1709 111 97 96
508.122 33.7795 -1713 113 98 96
513.623 33.9118 -1719 117 100 96
516.447 33.8667 -1716 120 103 99
574.942 34.0084 -1711 97 84 79
579.412 34.0642 -1713 99 85 82
581.853 34.0008 -1709 98 84 80
585.31 33.9971 -1708 83 69 63
587.388 33.9139 -1703 81 68 62
591.533 33.9503 -1704 90 76 70
595.338 33.9668 -1704 95 80 74
599.148 33.9836 -1704 95 79 71
605.441 34.1401 -1711 88 71 64
-768.381 30.5549 -1663 109 91 85
-764.349 30.5348 -1663 114 94 90
-761.697 30.5697 -1666 112 91 87
-756.763 30.5131 -1664 109 89 85
-751.395 30.4383 -1661 106 85 82
-751.899 30.6019 -1671 97 82 88
-745.649 30.4907 -1666 81 69 75
-738.985 30.3615 -1660 67 58 64
-734.571 30.3239 -1659 66 58 64
-731.49 30.3414 -1661 67 58 64
-692.859 29.8838 -1644 84 77 83
-687.321 29.7933 -1640 88 81 85
-683.893 29.7938 -1641 100 94 97
-679.638 29.758 -1640 103 97 99
-674.569 29.6862 -1637 106 97 102
-669.932 29.6326 -1635 103 92 94
-666.532 29.6336 -1636 111 98 97
-663.539 29.6528 -1638 124 109 105
-659.738 29.6358 -1638 136 120 116
-657.546 29.6913 -1642 145 128 124
-654.943 29.7287 -1645 150 135 131
-652.728 29.7843 -1649 162 141 136
-648.927 29.7677 -1649 172 147 141
-647.089 29.8415 -1654 176 151 143
-643.678 29.843 -1655 181 156 145
-637.948 29.7365 -1650 184 159 147
-633.786 29.7024 -1649 185 161 145
-630.398 29.7043 -1650 191 163 146
-625.492 29.6345 -1647 191 161 144
-622.116 29.6366 -1648 189 165 146
-617.992 29.6029 -1647 189 167 147
-613.877 29.5694 -1646 186 166 146
-609.402 29.5179 -1644 189 167 148
-605.311 29.4847 -1643 188 164 147
-601.229 29.4516 -1642 190 165 148
-598.614 29.4902 -1645 191 165 147
-595.99 29.529 -1648 194 166 149
-593.359 29.5677 -1651 196 165 149
-588.577 29.4992 -1648 197 163 148
-585.234 29.5024 -1649 199 165 147
-581.186 29.4699 -1648 202 168 148
-575.746 29.366 -1643 202 170 145
-572.075 29.3516 -1643 203 171 145
-568.41 29.3374 -1643 203 171 144
-565.093 29.3411 -1644 201 172 143
-560.753 29.2913 -1642 204 173 146
-557.784 29.313 -1644 207 174 150
-553.463 29.2635 -1642 214 179 154
-549.156 29.2142 -1640 217 183 157
-545.528 29.2006 -1640 219 187 161
-541.244 29.1514 -1638 226 193 165
-538.288 29.1737 -1640 231 197 169
-534.349 29.1426 -1639 238 201 173
-530.743 29.1293 -1639 242 206 180
-527.142 29.1162 -1639 242 206 180
-523.226 29.0855 -1638 244 209 184
-519.637 29.0726 -1638 247 211 189
-516.053 29.0598 -1638 249 212 191
-512.473 29.0471 -1638 246 214 194
-509.209 29.0523 -1639 247 215 194
-506.561 29.0929 -1642 247 214 193
-502.68 29.0628 -1641 245 211 189
-499.113 29.0504 -1641 245 210 187
-495.549 29.0383 -1641 245 209 185
-491.39 28.9908 -1639 241 206 187
-487.543 28.9611 -1638 239 205 186
-484.59 28.9845 -1640 239 205 187
-481.633 29.0081 -1642 240 206 188
-478.38 29.014 -1643 239 206 188
-475.417 29.0376 -1645 237 207 191
-471.875 29.026 -1645 239 207 188
-468.053 28.9969 -1644 240 206 185
-464.522 28.9855 -1644 239 206 187
-461.275 28.9918 -1645 241 209 191
-457.75 28.9806 -1645 242 210 193
-455.058 29.0224 -1648 243 208 192
-452.082 29.0466 -1650 241 207 190
-448.83 29.0533 -1651 241 209 190
-445.308 29.0424 -1651 242 210 191
-442.058 29.0492 -1652 241 209 189
-438.276 29.0209 -1651 241 209 188
-434.766 29.0103 -1651 242 210 190
-430.215 28.9296 -1647 241 210 190
-426.461 28.9017 -1646 242 212 200
-423.23 28.909 -1647 242 213 202
-419.743 28.8988 -1647 241 212 203
-416.766 28.9238 -1649 240 212 201
-413.282 28.9138 -1649 240 212 201
-410.299 28.9389 -1651 242 213 198
-406.571 28.9115 -1650 243 211 197
-402.608 28.8668 -1648 244 210 197
-398.898 28.8396 -1647 244 212 199
-395.676 28.8476 -1648 244 212 199
-392.216 28.838 -1648 245 212 199
-388.522 28.8112 -1647 246 213 200
-385.071 28.8019 -1647 246 213 200
-381.39 28.7752 -1646 240 210 195
-377.258 28.7137 -1643 238 208 193
-373.597 28.6872 -1642 235 205 190
-370.169 28.6784 -1642 225 202 184
-366.297 28.6346 -1640 250 231 211
-362.437 28.591 -1638 255 249 216
-358.588 28.5474 -1636 255 248 210
-354.967 28.5215 -1635 255 249 208
-351.354 28.4956 -1634 252 250 204
-347.748 28.4699 -1633 248 248 200
-344.149 28.4441 -1632 247 249 198
-340.765 28.436 -1632 250 250 203
-336.972 28.3931 -1630 251 251 206
-333.598 28.3851 -1630 245 242 206
-330.025 28.3598 -1629 246 244 204
-327.261 28.4042 -1632 247 245 201
-324.091 28.4139 -1633 242 240 193
-320.919 28.4236 -1634 236 234 187
-317.551 28.416 -1634 235 233 182
-313.993 28.3912 -1633 234 232 181
-310.443 28.3664 -1632 228 226 176
-307.087 28.3591 -1632 230 228 179
-303.548 28.3345 -1631 238 236 187
-299.647 28.2752 -1628 232 230 182
-296.671 28.3029 -1630 228 226 177
-293.15 28.2786 -1629 228 226 177
-289.813 28.2717 -1629 229 227 179
-286.302 28.2476 -1628 233 231 184
-282.972 28.2408 -1628 240 238 192
-279.3 28.1995 -1626 238 238 191
-276.149 28.2103 -1627 238 239 192
-272.157 28.1345 -1623 237 237 191
-268.68 28.1107 -1622 240 240 195
-264.883 28.0525 -1619 246 246 204
-261.262 28.0117 -1617 249 249 207
-257.332 27.9363 -1613 245 245 204
-253.735 27.8956 -1611 248 249 211
-249.993 27.8378 -1608 251 252 219
-246.265 27.78 -1605 252 252 225
-242.552 27.7223 -1602 253 253 221
-239.45 27.734 -1603 253 253 221
-236.052 27.7111 -1602 253 253 223
-232.514 27.6711 -1600 253 253 223
-229.273 27.6656 -1600 252 252 222
-226.033 27.6603 -1600 253 252 224
-222.517 27.6205 -1598 251 251 221
-219.423 27.6326 -1599 248 249 214
-216.191 27.6275 -1599 244 245 210
-212.828 27.6052 -1598 240 241 206
-209.208 27.5484 -1595 238 239 204
-205.473 27.4745 -1591 242 243 210
-201.628 27.3834 -1586 249 249 219
-197.931 27.3097 -1582 254 253 234
-194.743 27.3051 -1582 253 252 238
-191.436 27.2833 -1581 255 253 242
-188.611 27.3307 -1584 253 252 235
-185.776 27.378 -1587 246 245 217
-182.814 27.4083 -1589 243 243 208
-179.734 27.4213 -1590 247 247 209
-176.65 27.4344 -1591 246 247 197
-173.346 27.413 -1590 245 246 196
-170.155 27.4091 -1590 242 243 193
-166.965 27.4051 -1590 219 220 168
-163.776 27.4013 -1590 126 127 75
-160.386 27.3631 -1588 82 79 42
-157.501 27.411 -1591 64 60 34
-153.635 27.2868 -1584 46 41 28
-149.894 27.18 -1578 49 43 35
-146.363 27.1076 -1574 54 48 40
-143.214 27.1043 -1574 48 45 38
-139.443 26.9804 -1567 46 43 40
-136.484 27.0117 -1569 49 45 48
-133.263 26.9914 -1568 47 43 43
-130.131 26.9882 -1568 51 47 47
-126.837 26.9509 -1566 52 48 47
-123.631 26.9308 -1565 54 50 50
-120.507 26.9279 -1565 55 51 52
-117.385 26.9251 -1565 53 50 52
-114.482 26.9741 -1568 53 51 53
-111.639 27.0403 -1572 54 54 54
-108.712 27.0894 -1575 66 66 68
-105.305 27.0181 -1571 61 61 65
-102.24 27.0328 -1572 61 58 63
-99.2345 27.0649 -1574 64 62 67
-96.2831 27.1142 -1577 58 58 62
-93.2614 27.1464 -1579 50 49 55
-90.4609 27.2475 -1585 54 53 60
-87.5269 27.3142 -1589 62 59 64
-84.3654 27.3122 -1589 63 60 66
-81.3577 27.3618 -1592 60 57 64
-78.3881 27.4287 -1596 63 61 56
-75.3089 27.4613 -1598 107 105 96
-72.0869 27.4424 -1597 193 192 160
-68.9558 27.4579 -1598 230 229 195
-65.7801 27.4564 -1598 241 241 203
-62.5656 27.4377 -1597 249 247 206
-59.3929 27.4363 -1597 253 250 209
-56.2559 27.4522 -1598 252 252 214
-53.0821 27.4509 -1598 252 252 218
-49.94 27.4669 -1599 253 253 223
-46.765 27.4658 -1599 254 254 231
-43.645 27.4991 -1601 254 254 233
-40.4162 27.4638 -1599 253 254 242
-37.2656 27.4801 -1600 253 253 246
-34.0687 27.4621 -1599 252 252 248
-30.8954 27.4613 -1599 253 253 253
-27.705 27.4435 -1598 253 253 253
-24.5801 27.4944 -1601 253 253 255
-21.3901 27.4767 -1600 253 253 255
-18.2156 27.4762 -1600 253 253 255
-15.0601 27.5102 -1602 253 253 251
-11.8745 27.4927 -1601 253 253 250
-8.69836 27.4925 -1601 253 254 246
-5.52231 27.4923 -1601 253 253 248
-2.35218 27.5609 -1605 253 253 249
0.831742 27.5609 -1605 253 253 251
4.02818 27.6468 -1610 253 253 252
7.23103 27.6813 -1612 253 253 253
10.4548 27.7502 -1616 251 254 250
13.6692 27.7676 -1617 251 254 249
16.9189 27.8367 -1621 253 253 249
20.135 27.8371 -1621 253 253 249
23.3945 27.8891 -1624 253 253 249
26.6661 27.9412 -1627 251 254 249
29.9497 27.9934 -1630 252 255 248
33.2455 28.0456 -1633 252 253 243
36.5535 28.098 -1636 253 254 235
39.8737 28.1504 -1639 253 253 231
43.2325 28.22 -1643 252 251 235
46.6923 28.3413 -1650 251 250 227
50.0592 28.394 -1653 246 246 214
53.4707 28.4639 -1657 248 247 213
56.8642 28.5167 -1660 247 246 211
60.1614 28.518 -1660 245 245 207
63.4208 28.5023 -1659 236 237 194
66.7974 28.5381 -1661 229 230 184
70.0981 28.5397 -1661 232 232 187
73.5319 28.5929 -1664 234 234 188
76.8397 28.5947 -1664 235 234 186
80.1965 28.6137 -1665 233 233 185
83.5075 28.6157 -1665 232 232 184
87.0278 28.6864 -1669 230 228 181
90.294 28.6712 -1668 227 226 175
93.7253 28.7077 -1670 227 226 174
97.0491 28.7099 -1670 220 217 167
100.434 28.7294 -1671 218 216 164
103.699 28.7146 -1670 220 219 165
107.089 28.7342 -1671 215 215 159
110.419 28.7367 -1671 213 213 157
113.817 28.7566 -1672 214 215 163
117.15 28.7592 -1672 214 218 169
120.483 28.762 -1672 212 218 172
123.967 28.7992 -1674 220 222 174
127.23 28.7849 -1673 217 214 171
131.037 28.8912 -1679 190 178 144
134.629 28.9459 -1682 190 165 139
138.481 29.0523 -1688 193 166 142
141.852 29.0555 -1688 194 166 145
145.484 29.1105 -1691 197 166 141
148.952 29.1311 -1692 199 166 139
152.696 29.2036 -1696 200 164 135
155.72 29.1383 -1692 199 164 137
159.201 29.1591 -1693 196 163 138
162.782 29.1973 -1695 197 161 138
166.177 29.2011 -1695 195 159 136
169.773 29.2395 -1697 195 158 135
173.276 29.2607 -1698 192 157 136
176.785 29.2821 -1699 191 156 137
179.981 29.2517 -1697 191 156 135
183.278 29.2387 -1696 193 156 135
186.464 29.2086 -1694 192 154 133
189.978 29.2301 -1695 187 152 130
193.499 29.2519 -1696 186 149 126
196.792 29.2392 -1695 185 147 123
200.556 29.2956 -1698 183 148 123
204.213 29.3349 -1700 183 147 123
207.88 29.3742 -1702 183 146 122
211.06 29.3446 -1700 182 146 122
214.865 29.4013 -1703 183 146 122
217.786 29.3373 -1699 179 141 118
221.214 29.3425 -1699 180 141 117
224.776 29.3649 -1700 181 142 118
228.075 29.3529 -1699 176 141 119
231.644 29.3756 -1700 174 139 113
235.219 29.3984 -1701 171 136 109
238.66 29.4039 -1701 172 137 111
241.676 29.3576 -1698 174 139 115
245.26 29.3807 -1699 175 140 116
248.556 29.3691 -1698 175 137 106
252.296 29.4096 -1700 175 136 104
255.745 29.4156 -1700 172 134 100
259.196 29.4216 -1700 169 129 93
262.495 29.4105 -1699 169 129 95
266.418 29.4686 -1702 171 131 101
269.404 29.423 -1699 177 138 112
273.184 29.464 -1701 178 139 114
276.648 29.4705 -1701 176 135 112
280.444 29.5117 -1703 168 133 109
284.083 29.5357 -1704 167 131 106
287.56 29.5424 -1704 169 131 103
291.211 29.5665 -1705 174 132 100
294.522 29.5562 -1704 172 131 99
297.657 29.5284 -1702 169 130 101
300.963 29.5182 -1701 166 133 105
304.805 29.56 -1703 165 133 106
308.476 29.5847 -1704 161 133 108
312.337 29.6267 -1706 165 133 110
315.653 29.6168 -1705 166 134 111
319.716 29.6764 -1708 167 138 114
322.659 29.6319 -1705 167 138 115
325.784 29.6048 -1703 163 135 112
329.484 29.63 -1704 163 135 112
332.213 29.5682 -1700 164 136 115
335.916 29.5936 -1701 164 137 116
339.426 29.6016 -1701 162 134 117
342.939 29.6098 -1701 159 134 117
345.437 29.5309 -1696 156 131 114
349.974 29.6262 -1701 153 127 110
353.704 29.652 -1702 147 125 108
357.231 29.6604 -1702 147 127 110
360.549 29.6516 -1701 145 125 110
364.508 29.6951 -1703 139 119 104
368.911 29.7736 -1707 137 117 103
372.242 29.765 -1706 138 118 105
374.912 29.7042 -1702 131 119 109
380.459 29.8703 -1711 126 114 106
386.691 29.8188 -1707 111 104 96
390.714 29.863 -1709 108 102 94
396.134 30.0123 -1717 110 103 97
417.436 29.8008 -1701 86 82 84
589.787 30.5273 -1710 51 50 53
596.021 30.4856 -1706 53 49 54
-759.473 27.0865 -1670 84 71 71
-753.186 26.988 -1665 78 64 66
-754.13 27.1487 -1676 72 60 69
-664.071 26.1151 -1630 88 77 82
-661.498 26.1481 -1633 92 80 82
-659.32 26.1972 -1637 99 86 88
-659.532 26.3422 -1647 106 93 95
-657.714 26.4073 -1652 112 100 102
-653.504 26.3765 -1651 123 107 107
-649.305 26.3458 -1650 135 116 115
-647.073 26.3949 -1654 142 123 119
-643.662 26.3964 -1655 148 128 122
-637.547 26.2863 -1649 154 134 126
-632.618 26.2241 -1646 161 142 128
-630.383 26.2737 -1650 168 146 132
-625.477 26.2118 -1647 172 148 135
-619.459 26.1024 -1641 176 156 141
-616.101 26.1045 -1642 173 155 140
-613.117 26.1226 -1644 175 157 142
-607.905 26.0454 -1640 182 162 147
-603.823 26.0159 -1639 181 159 144
-601.215 26.05 -1642 181 157 142
-599.691 26.1318 -1648 183 159 142
-595.976 26.1185 -1648 187 160 145
-592.626 26.1212 -1649 188 159 145
-589.277 26.1238 -1650 190 156 142
-585.93 26.1266 -1651 193 159 143
-580.467 26.0345 -1646 195 161 143
-576.784 26.0218 -1646 194 160 137
-573.455 26.0248 -1647 192 160 135
-569.434 25.9964 -1646 193 162 135
-566.111 25.9996 -1647 190 162 135
-561.764 25.9556 -1645 191 161 135
-558.11 25.9432 -1645 194 162 136
-553.787 25.8994 -1643 197 164 137
-549.813 25.8715 -1642 199 165 138
-546.181 25.8595 -1642 200 167 140
-541.893 25.816 -1640 206 169 142
-539.588 25.8671 -1644 212 175 148
-535.314 25.8238 -1642 220 181 152
-531.378 25.7964 -1641 225 187 159
-527.773 25.7849 -1641 231 193 165
-524.172 25.7733 -1641 236 196 171
-520.577 25.7619 -1641 237 197 173
-516.986 25.7505 -1641 240 200 177
-513.713 25.755 -1642 239 205 182
-509.507 25.7124 -1640 241 207 184
-506.55 25.7327 -1642 242 208 186
-502.975 25.7218 -1642 243 208 185
-499.101 25.6952 -1641 244 208 185
-495.538 25.6843 -1641 245 208 183
-491.979 25.6736 -1641 242 206 186
-488.722 25.6787 -1642 238 203 183
-485.17 25.6681 -1642 236 202 182
-481.915 25.6732 -1643 236 202 181
-478.952 25.694 -1645 234 200 178
-474.828 25.6525 -1643 232 199 178
-471.291 25.6422 -1643 233 200 178
-467.758 25.6321 -1643 233 200 178
-464.229 25.622 -1643 231 201 180
-461.825 25.6745 -1647 232 202 182
-458.574 25.6801 -1648 233 203 185
-455.047 25.6703 -1648 235 201 183
-452.072 25.6916 -1650 234 199 181
-448.82 25.6975 -1651 236 201 183
-445.568 25.7035 -1652 236 202 183
-441.78 25.6784 -1651 236 202 184
-438.532 25.6845 -1652 238 203 182
-434.493 25.6441 -1650 238 203 183
-430.727 25.6193 -1649 238 204 183
-426.97 25.5946 -1648 238 205 190
-423.734 25.601 -1649 239 207 192
-420.243 25.5919 -1649 239 209 194
-417.262 25.614 -1651 239 209 194
-413.523 25.5896 -1650 239 209 194
-410.538 25.6119 -1652 240 208 190
-406.562 25.5721 -1650 241 208 192
-403.331 25.579 -1651 244 209 197
-399.131 25.524 -1648 245 211 199
-395.907 25.531 -1649 244 210 198
-392.445 25.5226 -1649 244 211 198
-388.749 25.4989 -1648 245 210 198
-385.296 25.4907 -1648 243 208 196
-382.077 25.4979 -1649 242 209 196
-377.939 25.4435 -1646 240 207 194
-374.271 25.4201 -1645 235 203 189
-370.611 25.3968 -1644 232 203 187
-367.406 25.4044 -1645 234 208 189
-362.871 25.3194 -1640 255 246 215
-359.018 25.281 -1638 255 247 210
-355.176 25.2425 -1636 254 246 206
-351.561 25.2196 -1635 248 246 202
-347.953 25.1968 -1634 246 245 199
-344.563 25.1895 -1634 243 245 194
-340.967 25.1669 -1633 245 245 196
-337.378 25.1444 -1632 253 252 204
-334.205 25.1527 -1633 245 242 206
-330.626 25.1303 -1632 244 242 202
-327.655 25.1542 -1634 246 244 200
-324.48 25.1627 -1635 242 240 192
-321.108 25.1559 -1635 237 235 186
-317.544 25.1338 -1634 234 232 181
-314.371 25.1426 -1635 231 229 179
-310.816 25.1207 -1634 228 226 176
-307.268 25.0988 -1633 230 228 180
-303.913 25.0924 -1633 237 235 188
-300.192 25.0553 -1631 231 229 182
-296.665 25.0338 -1630 227 225 177
-293.323 25.0276 -1630 227 225 177
-289.984 25.0215 -1630 228 226 178
-286.647 25.0154 -1630 232 230 183
-283.487 25.0248 -1631 238 236 189
-279.638 24.973 -1628 235 235 188
-276.482 24.9825 -1629 233 233 186
-272.486 24.9155 -1625 233 233 186
-269.171 24.9098 -1625 240 240 194
-265.204 24.8429 -1621 246 246 202
-261.741 24.8221 -1620 250 250 208
-257.485 24.7248 -1614 244 244 203
-253.887 24.6888 -1612 244 245 207
-250.143 24.6377 -1609 249 249 216
-246.26 24.5712 -1605 251 251 221
-242.395 24.5049 -1601 252 252 221
-239.146 24.4999 -1601 253 253 222
-235.752 24.4796 -1600 253 253 223
-232.363 24.4595 -1599 252 252 222
-228.838 24.4242 -1597 252 252 222
-225.887 24.4501 -1599 253 252 224
-222.512 24.4301 -1598 252 251 222
-219.281 24.4255 -1598 251 251 219
-216.186 24.4363 -1599 247 247 214
-213.089 24.4471 -1600 242 243 209
-209.597 24.4122 -1598 236 237 202
-205.856 24.3468 -1594 234 235 201
-202.005 24.2662 -1589 242 242 211
-198.302 24.201 -1585 252 251 229
-194.739 24.1511 -1582 254 253 235
-191.432 24.1319 -1581 255 254 240
-188.488 24.1585 -1583 254 254 236
-185.42 24.1699 -1584 247 247 220
-182.58 24.2119 -1587 239 240 203
-179.617 24.2386 -1589 243 244 205
-176.535 24.2502 -1590 246 245 197
-173.233 24.2313 -1589 245 245 197
-170.044 24.2279 -1589 237 238 189
-166.856 24.2243 -1589 220 221 168
-163.669 24.221 -1589 152 153 100
-160.484 24.2176 -1589 79 76 38
-157.399 24.2296 -1590 56 52 26
-153.729 24.1502 -1585 46 41 29
-150.08 24.0709 -1580 49 44 36
-146.546 24.0069 -1576 55 49 42
-143.393 24.0039 -1576 49 46 39
-139.707 23.9097 -1570 45 41 39
-136.742 23.9372 -1572 46 42 45
-133.6 23.9345 -1572 47 43 44
-130.377 23.9166 -1571 48 44 44
-127.077 23.8835 -1569 47 43 42
-123.628 23.82 -1565 51 47 47
-120.505 23.8175 -1565 54 50 51
-117.532 23.8455 -1567 53 49 51
-114.479 23.8584 -1568 52 50 51
-111.566 23.9017 -1571 53 53 53
-108.641 23.945 -1574 67 67 69
-105.37 23.9124 -1572 64 64 68
-102.238 23.9103 -1572 62 59 64
-99.1694 23.9234 -1573 64 62 66
-96.22 23.9671 -1576 59 59 62
-93.3775 24.0412 -1581 51 51 55
-90.3448 24.0697 -1583 53 52 57
-87.4148 24.1287 -1587 61 58 63
-84.3636 24.1574 -1589 63 60 65
-81.5094 24.2468 -1595 62 59 65
-78.3864 24.2604 -1596 63 61 56
-75.3544 24.3044 -1599 123 121 112
-72.1305 24.2877 -1598 198 197 165
-68.9975 24.3015 -1599 232 231 197
-65.8197 24.3001 -1599 242 242 204
-62.6034 24.2836 -1598 249 247 206
-59.4288 24.2823 -1598 253 250 209
-56.2546 24.2812 -1598 253 253 215
-53.0809 24.28 -1598 253 253 218
-49.9077 24.279 -1598 253 253 222
-46.764 24.2932 -1599 254 254 231
-43.6168 24.3075 -1600 254 254 233
-40.4153 24.2914 -1599 253 254 242
-37.2648 24.3058 -1600 253 253 246
-34.068 24.2899 -1599 252 252 248
-30.8754 24.2741 -1598 253 253 252
-27.7044 24.2735 -1598 253 253 252
-24.5489 24.2881 -1599 253 253 255
-21.3629 24.2725 -1598 253 253 254
-18.2152 24.3024 -1600 253 253 254
-15.0598 24.3325 -1602 253 253 251
-11.8742 24.317 -1601 253 253 250
-8.70361 24.332 -1602 253 254 247
-5.52565 24.3318 -1602 253 253 248
-2.3492 24.347 -1603 253 253 249
0.831723 24.3773 -1605 253 253 251
4.02809 24.4533 -1610 253 253 251
7.22638 24.4686 -1611 253 253 252
10.4546 24.5447 -1616 251 254 249
13.6689 24.5602 -1617 251 254 249
16.9081 24.6061 -1620 253 253 249
20.1346 24.6216 -1621 253 253 249
23.4084 24.6828 -1625 253 253 249
26.6491 24.6985 -1626 252 254 248
29.9491 24.7599 -1630 252 254 247
33.2448 24.8061 -1633 252 253 242
36.5751 24.8676 -1637 252 253 234
39.8972 24.9139 -1640 253 253 231
43.2842 24.9907 -1645 252 251 232
46.7196 25.0828 -1651 250 250 225
50.1793 25.1749 -1657 246 247 213
53.5663 25.2216 -1660 246 245 210
56.8972 25.2379 -1661 243 242 206
60.1601 25.2239 -1660 237 237 196
63.4577 25.2252 -1660 225 226 180
66.7557 25.2265 -1660 218 220 171
70.0966 25.2431 -1661 227 227 182
73.4419 25.2598 -1662 240 239 193
76.838 25.2917 -1664 248 246 199
80.1947 25.3085 -1665 242 243 194
83.6561 25.3558 -1668 228 228 180
87.1823 25.4184 -1672 220 218 170
90.5085 25.4202 -1672 217 215 165
93.8916 25.4373 -1673 215 213 162
97.3375 25.4697 -1675 216 213 159
100.552 25.4413 -1673 216 214 160
103.821 25.4282 -1672 213 212 158
107.087 25.4151 -1671 207 208 153
110.416 25.4173 -1671 212 213 158
113.678 25.4044 -1670 216 215 167
116.867 25.3764 -1668 214 216 168
120.337 25.4093 -1670 214 218 172
123.668 25.4118 -1670 221 221 179
127.303 25.4752 -1674 192 189 151
130.956 25.5387 -1678 165 153 125
134.706 25.6175 -1683 176 154 135
138.477 25.6965 -1688 181 157 139
142.017 25.7298 -1690 181 156 141
145.653 25.7784 -1693 181 154 134
148.861 25.7511 -1691 180 152 129
152.332 25.7693 -1692 181 152 126
155.809 25.7877 -1693 178 150 126
159.291 25.8063 -1694 175 148 127
162.586 25.7943 -1693 177 148 132
166.271 25.8434 -1696 175 145 129
169.769 25.8621 -1697 173 144 127
173.272 25.8808 -1698 169 141 126
176.677 25.8845 -1698 168 140 126
180.295 25.9186 -1700 170 141 127
183.274 25.8614 -1696 169 140 126
186.459 25.8348 -1694 167 138 122
189.862 25.8386 -1694 160 133 117
193.038 25.8121 -1692 158 131 114
196.091 25.7703 -1689 157 129 111
199.725 25.8049 -1691 153 128 109
203.128 25.809 -1691 153 127 109
214.986 26.0205 -1704 147 123 106
217.91 25.9638 -1700 145 119 103
221.339 25.9684 -1700 146 119 102
224.903 25.9883 -1701 148 121 104
228.204 25.9778 -1700 146 122 105
231.366 25.952 -1698 143 118 97
234.938 25.9721 -1699 141 115 93
238.374 25.9769 -1699 139 112 92
241.244 25.9207 -1695 140 113 94
244.821 25.9411 -1696 143 116 97
248.551 25.9768 -1698 150 118 94
252.736 26.0585 -1703 151 119 93
256.341 26.0791 -1704 150 118 91
260.258 26.1304 -1707 152 118 89
263.416 26.1052 -1705 152 117 90
266.882 26.1108 -1705 150 116 92
270.191 26.101 -1704 144 113 89
273.338 26.076 -1702 144 112 89
277.617 26.1584 -1707 150 115 95
280.931 26.1489 -1706 148 120 99
285.077 26.2161 -1710 153 123 101
287.892 26.1607 -1706 157 125 99
291.546 26.1821 -1707 164 125 98
294.343 26.1269 -1703 161 123 97
297.65 26.1177 -1702 159 123 100
300.78 26.0933 -1700 157 127 105
304.798 26.1456 -1703 154 126 106
308.65 26.1828 -1705 150 126 108
312.513 26.22 -1707 148 125 107
316.201 26.2419 -1708 149 127 109
319.148 26.2025 -1705 148 128 110
321.517 26.117 -1699 145 125 110
325.012 26.1238 -1699 140 121 105
328.509 26.1307 -1699 138 119 103
331.619 26.1068 -1697 139 120 107
335.711 26.16 -1700 137 118 107
339.618 26.1978 -1702 135 115 108
343.536 26.2359 -1704 130 113 107
346.447 26.1969 -1701 128 111 105
350.789 26.2659 -1705 128 111 103
354.319 26.2733 -1705 130 116 107
357.433 26.2499 -1703 127 114 106
360.117 26.1958 -1699 121 108 102
364.286 26.2498 -1702 120 108 100
-650.078 22.9337 -1652 102 91 94
-646.668 22.9349 -1653 107 96 95
-642.871 22.9223 -1653 111 99 96
-637.147 22.8403 -1648 115 101 98
-632.604 22.8002 -1646 121 108 100
-632.28 22.9125 -1655 134 117 110
-626.224 22.8172 -1649 137 118 111
-619.446 22.6943 -1641 142 128 118
-616.088 22.6961 -1642 142 129 119
-613.477 22.7257 -1645 147 135 125
-606.41 22.5895 -1636 153 137 128
-602.336 22.564 -1635 162 142 130
-601.203 22.6488 -1642 170 148 133
-599.679 22.7199 -1648 173 151 135
-595.241 22.6808 -1646 178 152 137
-592.973 22.7243 -1650 180 151 138
-590.337 22.7542 -1653 183 150 136
-585.563 22.7016 -1650 183 150 135
-580.808 22.649 -1647 182 150 134
-577.473 22.6517 -1648 184 150 128
-573.443 22.6268 -1647 182 150 127
-569.769 22.6158 -1647 183 154 129
-566.443 22.6186 -1648 182 154 130
-562.777 22.6078 -1648 182 154 129
-558.438 22.5696 -1646 181 153 125
-554.113 22.5315 -1644 182 151 123
-550.136 22.5072 -1643 184 152 125
-546.835 22.5104 -1644 183 150 124
-543.534 22.5137 -1645 188 149 123
-539.577 22.4897 -1644 193 153 127
-535.955 22.4793 -1644 194 155 124
-532.015 22.4555 -1643 198 159 130
-528.084 22.4317 -1642 213 173 145
-524.481 22.4218 -1642 222 180 154
-520.566 22.3981 -1641 223 181 156
-517.29 22.4019 -1642 229 187 162
-514.015 22.4058 -1643 227 190 164
-509.808 22.3688 -1641 229 192 167
-506.539 22.3728 -1642 232 194 170
-503.271 22.3768 -1643 233 196 172
-499.395 22.3537 -1642 234 197 173
-496.131 22.3578 -1643 237 200 174
-492.268 22.3349 -1642 238 200 178
-489.01 22.3393 -1643 235 197 175
-485.751 22.3437 -1644 232 196 172
-482.492 22.3481 -1645 232 195 169
-478.651 22.3255 -1644 230 192 166
-475.974 22.3573 -1647 230 192 166
-471.855 22.3212 -1645 225 193 168
-468.602 22.326 -1646 221 192 168
-465.349 22.3307 -1647 219 192 170
-461.816 22.322 -1647 219 193 172
-458.287 22.3134 -1647 219 195 175
-455.314 22.332 -1649 224 195 175
-451.789 22.3234 -1649 225 193 175
-448.267 22.315 -1649 230 193 178
-445.02 22.3202 -1650 229 194 178
-442.039 22.339 -1652 229 195 179
-438.788 22.3442 -1653 232 195 178
-434.747 22.3091 -1651 233 197 178
-431.502 22.3145 -1652 234 198 178
-427.479 22.2795 -1650 232 198 176
-424.497 22.2986 -1652 232 198 176
-420.999 22.2907 -1652 231 199 176
-418.011 22.3099 -1654 233 201 179
-414.016 22.2751 -1652 234 202 181
-410.778 22.281 -1653 235 201 179
-406.801 22.2465 -1651 238 203 186
-403.079 22.2255 -1650 240 205 193
-399.123 22.1911 -1648 241 206 195
-396.139 22.2107 -1650 241 206 195
-392.675 22.2034 -1650 240 205 193
-389.214 22.1962 -1650 241 204 191
-386.223 22.2159 -1652 238 201 188
-382.533 22.1953 -1651 238 201 189
-378.39 22.148 -1648 236 201 188
-374.947 22.1411 -1648 233 199 185
-371.055 22.1074 -1646 234 201 185
-367.398 22.0872 -1645 222 190 173
-363.306 22.0402 -1642 248 232 202
-359.449 22.0067 -1640 253 245 210
-355.386 21.9598 -1637 250 243 205
-351.554 21.9265 -1635 244 241 199
-347.733 21.8933 -1633 245 243 199
-344.345 21.8869 -1633 240 241 191
-340.96 21.8806 -1633 240 239 188
-337.784 21.8878 -1634 250 248 197
-334.608 21.895 -1635 246 243 204
-331.429 21.9023 -1636 239 236 195
-328.25 21.9096 -1637 240 238 194
-325.069 21.917 -1638 238 236 188
-321.494 21.8977 -1637 236 234 184
-318.12 21.892 -1637 233 231 180
-314.749 21.8862 -1637 230 228 178
-311.381 21.8804 -1637 228 226 178
-307.639 21.8481 -1635 229 227 179
-304.093 21.8291 -1634 236 234 186
-300.371 21.7969 -1632 231 229 183
-297.023 21.7915 -1632 227 225 178
-293.317 21.7595 -1630 227 225 177
-290.334 21.7809 -1632 227 225 176
-286.994 21.7755 -1632 233 231 183
-283.655 21.7704 -1632 237 235 187
-279.976 21.7385 -1630 234 235 186
-276.646 21.7336 -1630 232 233 184
-272.816 21.6886 -1627 232 233 184
-269.332 21.6703 -1626 239 240 192
-265.363 21.6121 -1622 246 246 200
-261.897 21.5941 -1621 250 250 210
-257.8 21.5227 -1616 245 245 205
-254.197 21.4915 -1614 241 242 204
-250.138 21.4203 -1609 247 247 213
-246.255 21.3626 -1605 250 250 219
-242.39 21.3049 -1601 252 252 222
-238.992 21.2873 -1600 252 252 222
-235.6 21.2697 -1599 252 252 222
-232.214 21.2522 -1598 252 252 222
-228.977 21.2481 -1598 253 253 223
-225.883 21.2572 -1599 253 252 224
-222.369 21.2266 -1597 252 251 223
-219.277 21.2359 -1598 251 251 221
-216.047 21.232 -1598 249 249 218
-213.085 21.2547 -1600 245 245 213
-209.461 21.2111 -1597 237 238 203
-205.981 21.1808 -1595 231 232 198
-202.001 21.0974 -1589 235 235 203
-198.298 21.0407 -1585 245 244 220
-194.735 20.9973 -1582 252 251 229
-191.307 20.9674 -1580 255 253 235
-188.246 20.9772 -1581 255 254 233
-185.183 20.9871 -1582 251 251 225
-182.347 21.0237 -1585 242 242 206
-179.387 21.0469 -1587 239 240 200
-176.421 21.0703 -1589 246 244 198
-173.121 21.0538 -1588 245 244 197
-170.148 21.0773 -1590 236 237 188
-166.958 21.0743 -1590 222 223 171
-163.769 21.0713 -1590 173 174 121
-160.582 21.0684 -1590 80 77 38
-157.693 21.1053 -1593 53 49 23
-154.114 21.0496 -1589 49 43 33
-150.458 20.9805 -1584 50 44 38
-146.822 20.9117 -1579 54 48 43
-143.572 20.8958 -1578 49 46 39
-139.615 20.7741 -1569 46 42 40
-136.74 20.8114 -1572 46 42 44
-133.513 20.7958 -1571 48 44 45
-130.208 20.7669 -1569 47 43 44
-126.994 20.7514 -1568 44 40 39
-123.626 20.7094 -1565 46 42 42
-120.426 20.694 -1564 50 46 47
-117.605 20.7449 -1568 52 49 50
-114.55 20.7559 -1569 51 48 49
-111.422 20.7539 -1569 53 52 52
-108.501 20.7917 -1572 69 68 70
-105.368 20.7898 -1572 65 65 68
-102.236 20.7879 -1572 61 58 63
-99.2305 20.8126 -1574 65 63 67
-96.4012 20.877 -1579 60 59 61
-93.4939 20.9282 -1583 53 53 57
-90.5142 20.9662 -1586 54 53 58
-87.5233 21.0042 -1589 61 58 63
-84.4682 21.0291 -1591 62 59 63
-81.5589 21.0937 -1596 63 60 65
-78.3849 21.0923 -1596 64 62 56
-75.3058 21.1174 -1598 135 133 124
-72.084 21.1028 -1597 211 210 177
-68.953 21.1148 -1598 235 234 200
-65.7773 21.1136 -1598 242 242 204
-62.5631 21.0993 -1597 249 246 206
-59.4277 21.1114 -1598 252 250 209
-56.2536 21.1104 -1598 253 253 215
-53.0467 21.0962 -1597 253 253 218
-49.8755 21.0953 -1597 253 253 221
-46.7339 21.1076 -1598 253 253 230
-43.5614 21.1068 -1598 254 254 233
-40.364 21.0929 -1597 253 254 242
-37.2408 21.1186 -1599 253 253 246
-34.046 21.1048 -1598 253 253 249
-30.8555 21.091 -1597 253 253 250
-27.6865 21.0905 -1597 253 253 251
-24.5331 21.1032 -1598 253 253 255
-21.3491 21.0896 -1597 253 253 254
-18.2035 21.1156 -1599 253 253 253
-15.0407 21.1286 -1600 253 253 251
-11.8592 21.1151 -1599 253 253 250
-8.69801 21.1413 -1601 253 254 247
-5.52554 21.1544 -1602 253 253 248
-2.34915 21.1676 -1603 253 253 249
0.832224 21.2072 -1606 253 253 251
4.02801 21.26 -1610 253 253 251
7.23073 21.2865 -1612 253 253 251
10.4544 21.3395 -1616 252 254 249
13.6686 21.3529 -1617 252 254 249
16.9078 21.3928 -1620 253 253 249
20.1342 21.4064 -1621 253 253 249
23.4079 21.4596 -1625 253 253 249
26.6813 21.4996 -1628 253 254 247
29.9852 21.553 -1632 253 254 245
33.2849 21.5931 -1635 252 253 240
36.5744 21.6202 -1637 253 253 233
39.9208 21.6737 -1641 253 253 231
43.2833 21.7273 -1645 251 251 228
46.7753 21.8337 -1653 250 250 222
50.2086 21.9006 -1658 244 245 210
53.6298 21.9544 -1662 244 244 206
56.9304 21.9554 -1662 236 237 197
60.3039 21.9828 -1664 227 227 180
63.5329 21.9575 -1662 218 220 172
66.8349 21.9587 -1662 219 221 172
70.1374 21.9599 -1662 231 231 187
73.5731 22.0008 -1665 242 241 197
76.9289 22.0154 -1666 250 248 202
80.2895 22.03 -1667 246 246 198
83.805 22.0843 -1671 226 226 178
87.3371 22.1387 -1675 210 208 160
90.6692 22.1403 -1675 206 204 155
94.1143 22.1684 -1677 209 207 158
97.51 22.1834 -1678 211 210 152
100.79 22.1719 -1677 209 209 152
104.005 22.1473 -1675 204 205 149
107.277 22.1359 -1674 204 205 151
110.48 22.1114 -1672 210 211 158
113.744 22.1002 -1671 214 212 168
117.215 22.1287 -1673 212 210 163
120.479 22.1176 -1672 219 217 169
123.517 22.0669 -1668 200 197 161
126.997 22.0956 -1670 153 147 117
130.486 22.1243 -1672 149 140 119
134.063 22.1664 -1675 152 137 126
137.818 22.235 -1680 153 137 127
141.51 22.2905 -1684 155 138 130
144.961 22.3062 -1685 158 139 126
148.33 22.3088 -1685 157 137 121
151.879 22.338 -1687 156 133 117
154.886 22.2878 -1683 152 131 116
158.536 22.3303 -1686 150 132 118
162.007 22.3464 -1687 146 129 121
165.581 22.3759 -1689 142 125 117
169.265 22.4186 -1692 141 124 116
173.065 22.4746 -1696 141 124 117
183.379 22.4975 -1697 130 113 104
186.126 22.4213 -1691 130 113 103
189.298 22.3982 -1689 130 115 105
191.893 22.3088 -1682 131 115 104
194.81 22.2591 -1678 131 114 103
238.651 22.6114 -1701 116 99 85
241.666 22.5758 -1698 115 98 84
244.672 22.5403 -1695 118 101 87
248.4 22.5713 -1697 127 103 88
252.731 22.6557 -1703 127 103 88
255.885 22.6337 -1701 128 104 89
259.643 22.6649 -1703 133 107 87
263.257 22.683 -1704 139 113 95
267.033 22.7144 -1706 143 116 101
270.662 22.7326 -1707 142 120 101
274.296 22.7508 -1708 142 118 101
277.775 22.7559 -1708 146 119 104
281.091 22.7476 -1707 142 122 106
284.738 22.7661 -1708 142 121 103
288.73 22.8113 -1711 145 121 99
292.565 22.8432 -1713 150 116 98
294.683 22.7419 -1705 147 115 98
297.82 22.7206 -1703 147 117 103
301.304 22.726 -1703 142 118 103
304.792 22.7315 -1703 139 116 103
325.388 22.7392 -1701 123 112 104
328.696 22.7319 -1700 122 113 103
331.222 22.671 -1695 119 110 106
335.901 22.7573 -1701 122 112 110
340.609 22.8438 -1707 123 113 114
352.017 22.9164 -1711 114 107 108
-632.268 19.4719 -1655 104 94 92
-625.073 19.3556 -1646 76 65 64
-617.548 19.2277 -1636 78 71 68
-613.45 19.2057 -1635 95 89 85
-609.363 19.1838 -1634 105 100 96
-603.433 19.1035 -1628 113 105 102
-600.852 19.1286 -1631 129 116 110
-599.361 19.1892 -1637 142 126 117
-598.576 19.2729 -1645 150 132 121
-595.592 19.2865 -1647 156 137 127
-593.322 19.3236 -1651 161 140 131
-588.898 19.2905 -1649 166 138 130
-585.907 19.3042 -1651 167 139 128
-581.502 19.2712 -1649 168 140 127
-577.112 19.2383 -1647 170 140 122
-572.736 19.2057 -1645 168 140 121
-571.834 19.2896 -1653 169 143 122
-567.121 19.2453 -1650 168 144 125
-562.767 19.2127 -1648 167 145 124
-558.767 19.192 -1647 163 143 119
-554.44 19.1595 -1645 165 140 115
-550.461 19.1389 -1644 170 143 119
-546.825 19.13 -1644 173 143 121
-544.515 19.1676 -1648 179 141 119
-540.552 19.1472 -1647 181 143 120
-536.271 19.1152 -1645 180 143 115
-532.329 19.0949 -1644 177 140 113
-528.396 19.0747 -1643 187 149 122
-524.472 19.0546 -1642 205 163 137
-520.874 19.0461 -1642 212 170 144
-517.596 19.0493 -1643 216 174 149
-514.319 19.0526 -1644 214 176 150
-510.42 19.0327 -1643 217 177 152
-507.148 19.036 -1644 220 179 154
-503.875 19.0395 -1645 216 178 152
-500.299 19.0314 -1645 217 178 152
-496.425 19.0118 -1644 224 184 158
-493.159 19.0155 -1645 229 188 163
-489.894 19.0192 -1646 229 189 164
-486.924 19.0344 -1648 227 189 162
-483.07 19.015 -1647 226 187 158
-479.225 18.9959 -1646 225 185 156
-475.388 18.9766 -1645 223 183 155
-471.846 18.9691 -1645 218 183 155
-468.025 18.95 -1644 214 182 154
-465.341 18.9771 -1647 213 184 157
-462.369 18.9928 -1649 214 185 159
-459.114 18.997 -1650 214 185 159
-455.858 19.0012 -1651 216 183 159
-452.603 19.0055 -1652 218 184 161
-448.803 18.9868 -1651 223 184 165
-445.551 18.9912 -1652 222 186 166
-442.031 18.9841 -1652 222 187 167
-438.781 18.9886 -1653 224 188 166
-435.003 18.9702 -1652 226 189 167
-431.756 18.9748 -1653 227 189 166
-427.99 18.9565 -1652 228 191 168
-425.003 18.9727 -1654 228 192 169
-421.502 18.966 -1654 229 194 170
-418.257 18.9709 -1655 230 194 174
-414.259 18.9413 -1653 230 194 175
-411.02 18.9463 -1654 233 195 177
-407.286 18.9284 -1653 233 196 180
-403.561 18.9105 -1652 232 196 181
-400.085 18.9041 -1652 233 197 184
-396.853 18.9093 -1653 234 198 185
-393.144 18.8917 -1652 235 198 185
-389.914 18.897 -1653 234 197 181
-386.684 18.9023 -1654 233 195 179
-383.453 18.9076 -1655 231 195 181
-379.302 18.8674 -1652 230 195 180
-375.85 18.8615 -1652 229 196 179
-371.95 18.8329 -1650 228 197 178
-368.509 18.827 -1650 220 190 169
-363.964 18.7642 -1645 231 214 182
-360.32 18.7472 -1644 251 241 205
-356.032 18.6959 -1640 248 240 202
-352.193 18.6676 -1638 239 237 194
-348.153 18.628 -1635 238 237 192
-344.761 18.6226 -1635 232 233 183
-341.372 18.6172 -1635 231 230 178
-337.985 18.612 -1635 240 238 185
-334.807 18.6181 -1636 245 243 198
-331.626 18.6243 -1637 234 232 187
-328.445 18.6306 -1638 233 231 186
-325.064 18.6254 -1638 234 232 183
-321.685 18.6203 -1638 235 233 183
-318.309 18.6154 -1638 233 231 180
-314.936 18.6105 -1638 228 226 177
-311.376 18.5943 -1637 227 225 177
-307.822 18.5782 -1636 229 227 180
-304.274 18.5621 -1635 235 233 187
-300.734 18.546 -1634 230 228 182
-297.382 18.5414 -1634 225 223 175
-293.852 18.5255 -1633 226 224 176
-290.507 18.5209 -1633 228 226 176
-287.165 18.5164 -1633 232 230 181
-283.824 18.512 -1633 234 232 184
-279.971 18.4737 -1630 232 233 184
-276.472 18.4581 -1629 229 230 181
-272.644 18.4199 -1626 230 231 181
-269.162 18.4043 -1625 239 240 191
-265.358 18.3663 -1622 246 246 198
-261.731 18.3396 -1620 249 249 209
-257.795 18.2903 -1616 245 245 206
-254.35 18.275 -1615 240 241 202
-250.134 18.2033 -1609 244 244 209
-246.405 18.1654 -1606 248 248 217
-242.235 18.0939 -1600 250 250 220
-239.138 18.1015 -1601 251 251 221
-235.596 18.0752 -1599 252 252 221
-232.21 18.0603 -1598 253 253 221
-228.829 18.0455 -1597 254 254 222
-225.738 18.0533 -1598 254 253 225
-222.226 18.0273 -1596 253 252 223
-219.136 18.0351 -1597 251 251 221
-215.908 18.0319 -1597 251 251 220
-212.815 18.0399 -1598 249 249 217
-209.458 18.0253 -1597 243 244 209
-205.977 17.9997 -1595 234 235 201
-202.125 17.94 -1590 232 232 200
-198.545 17.9031 -1587 236 236 208
-194.855 17.8551 -1583 246 246 219
-191.304 17.8182 -1580 253 251 228
-188.124 17.8153 -1580 255 253 229
-185.063 17.8238 -1581 254 254 228
-182.114 17.8435 -1583 246 247 210
-179.158 17.8632 -1585 236 237 197
-176.085 17.8718 -1586 242 239 198
-172.9 17.8692 -1586 242 241 196
-169.824 17.8779 -1587 238 239 190
-166.745 17.8865 -1588 228 229 177
-163.663 17.8952 -1589 189 190 138
-160.478 17.8928 -1589 91 88 49
-157.69 17.9355 -1593 52 48 22
-154.111 17.8881 -1589 49 42 32
-150.55 17.8408 -1585 49 43 37
-146.913 17.7822 -1580 53 48 43
-143.479 17.7461 -1577 47 44 38
-139.346 17.6202 -1566 47 43 40
-136.389 17.6406 -1568 50 46 46
-133.001 17.6049 -1565 47 43 44
-129.708 17.5804 -1563 48 44 45
-126.749 17.601 -1565 47 43 42
-123.545 17.5878 -1564 43 39 40
-120.424 17.586 -1564 45 41 42
-117.603 17.6291 -1568 49 46 47
-114.475 17.6273 -1568 49 46 47
-111.207 17.6031 -1566 52 50 50
-108.361 17.6464 -1570 72 71 73
-105.232 17.6447 -1570 69 69 71
-102.104 17.6432 -1570 59 56 59
-99.0397 17.6529 -1571 63 60 63
-96.2776 17.7188 -1577 62 59 62
-93.5514 17.7961 -1584 55 53 59
-90.3985 17.7947 -1584 55 54 61
-87.3567 17.8158 -1586 63 60 63
-84.4137 17.8594 -1590 61 58 61
-81.4555 17.9031 -1594 61 58 61
-78.3345 17.9131 -1595 61 60 52
-75.2575 17.9345 -1597 131 130 119
-72.0828 17.9333 -1597 219 218 184
-68.9519 17.9435 -1598 236 235 200
-65.7763 17.9425 -1598 243 243 205
-62.562 17.9303 -1597 250 247 207
-59.3895 17.9294 -1597 252 249 208
-56.2175 17.9285 -1597 251 251 213
-53.0126 17.9164 -1596 252 252 218
-49.8122 17.9044 -1595 253 253 222
-46.6746 17.9149 -1596 253 252 231
-43.4789 17.903 -1595 254 253 234
-40.3128 17.9024 -1595 252 253 241
-37.1936 17.9243 -1597 253 254 245
-34.0242 17.9237 -1597 253 254 247
-30.855 17.9232 -1597 253 253 249
-27.7034 17.934 -1598 253 253 250
-24.5327 17.9336 -1598 253 253 253
-21.3622 17.9333 -1598 253 253 253
-18.1918 17.933 -1598 253 253 253
-15.0404 17.9552 -1600 253 253 251
-11.8738 17.9662 -1601 253 253 250
-8.69243 17.9548 -1600 253 254 247
-5.52545 17.9772 -1602 253 253 249
-2.35058 17.9995 -1604 253 253 249
0.832209 18.022 -1606 253 253 251
4.02794 18.0669 -1610 253 253 251
7.23509 18.1007 -1613 253 253 251
10.4607 18.1457 -1617 253 253 249
13.6768 18.1571 -1618 253 253 249
16.8971 18.1685 -1619 253 253 249
20.1339 18.1913 -1621 253 253 249
23.4076 18.2365 -1625 253 253 249
26.6809 18.2705 -1628 252 253 246
29.9848 18.3158 -1632 252 253 244
33.3047 18.3612 -1636 252 253 238
36.6185 18.3954 -1639 253 254 232
39.9688 18.4409 -1643 253 253 229
43.3615 18.4976 -1648 251 251 225
46.8028 18.5657 -1654 250 250 220
50.238 18.6225 -1659 242 243 208
53.6935 18.6794 -1664 241 242 202
56.998 18.6803 -1664 231 232 190
60.3391 18.6924 -1665 223 224 174
63.6083 18.6821 -1664 220 222 173
66.874 18.6719 -1663 224 226 177
70.1785 18.6729 -1663 229 229 184
73.6161 18.7077 -1666 232 231 185
77.02 18.7313 -1668 235 233 187
80.3845 18.7437 -1669 234 234 186
83.9039 18.7899 -1673 223 224 175
87.4399 18.8361 -1677 208 206 157
90.8301 18.8487 -1678 198 197 148
94.1689 18.85 -1678 200 199 150
97.6827 18.8852 -1681 206 205 149
100.849 18.853 -1678 202 201 145
104.19 18.8545 -1678 200 201 145
107.404 18.8337 -1676 204 205 150
110.478 18.7904 -1672 207 208 153
113.674 18.7696 -1670 212 211 167
116.722 18.7264 -1666 217 214 169
119.972 18.717 -1665 208 203 158
255.881 19.2343 -1701 121 104 95
259.181 19.227 -1700 121 102 91
262.943 19.2536 -1702 121 101 91
266.559 19.269 -1703 122 103 94
270.023 19.2732 -1703 119 104 92
273.328 19.266 -1702 121 104 93
277.607 19.3268 -1707 123 104 94
281.415 19.3538 -1709 119 104 94
288.05 19.3399 -1707 129 112 98
291.706 19.3557 -1708 133 110 99
293.122 19.2243 -1696 130 108 99
-582.704 15.8066 -1642 140 119 115
-578.32 15.7795 -1640 148 125 119
-574.651 15.7719 -1640 150 126 115
-571.683 15.7833 -1642 150 127 114
-571.134 15.862 -1651 153 131 116
-566.768 15.8352 -1649 154 133 120
-563.442 15.8371 -1650 152 134 118
-559.777 15.8296 -1650 147 134 115
-556.454 15.8317 -1651 151 132 113
-552.462 15.8146 -1650 155 134 115
-549.145 15.8168 -1651 160 135 118
-545.829 15.819 -1652 169 135 118
-541.857 15.8022 -1651 170 135 117
-537.242 15.7662 -1648 168 135 110
-533.293 15.7495 -1647 173 138 114
-529.031 15.7234 -1645 178 142 118
-524.784 15.6972 -1643 195 154 129
-521.183 15.6902 -1643 207 165 140
-518.219 15.7023 -1645 210 168 142
-514.624 15.6955 -1645 207 168 142
-511.034 15.6886 -1645 206 166 140
-507.757 15.6914 -1646 206 165 139
-504.48 15.6943 -1647 202 161 136
-500.9 15.6875 -1647 200 159 133
-497.021 15.6714 -1646 205 163 137
-494.051 15.6839 -1648 213 171 145
-490.78 15.687 -1649 216 174 148
-486.917 15.671 -1648 216 177 149
-483.65 15.6741 -1649 217 176 148
-480.091 15.6677 -1649 217 175 146
-476.537 15.6614 -1649 215 175 145
-472.987 15.6551 -1649 211 173 144
-469.441 15.6488 -1649 208 173 144
-465.617 15.6333 -1648 210 175 148
-462.643 15.6461 -1650 209 175 148
-459.107 15.64 -1650 207 174 146
-455.3 15.6246 -1649 208 172 146
-452.048 15.628 -1650 209 172 146
-449.068 15.6411 -1652 212 172 150
-445.545 15.6354 -1652 211 173 151
-441.222 15.601 -1649 212 175 152
-438.774 15.6332 -1653 213 177 152
-435.26 15.6275 -1653 216 178 154
-432.272 15.6406 -1655 219 180 155
-428.502 15.6255 -1654 218 181 156
-425.254 15.6294 -1655 219 181 156
-421.751 15.6239 -1655 220 183 159
-418.756 15.6373 -1657 223 185 164
-415.256 15.6319 -1657 224 186 167
-411.759 15.6265 -1657 228 186 172
-407.527 15.5928 -1654 227 188 171
-403.799 15.5783 -1653 226 189 170
-400.079 15.5636 -1652 226 190 172
-396.847 15.5678 -1653 228 191 174
-393.614 15.572 -1654 228 192 174
-390.616 15.5859 -1656 228 191 171
-387.38 15.5902 -1657 229 191 171
-384.142 15.5948 -1658 225 191 172
-380.445 15.5803 -1657 223 190 170
-376.527 15.5565 -1655 223 191 171
-372.396 15.5236 -1652 220 190 168
-368.95 15.5189 -1652 219 191 167
-365.065 15.4952 -1650 216 197 163
-360.753 15.4531 -1646 243 230 193
-356.895 15.4297 -1644 247 238 200
-352.403 15.3781 -1639 238 235 190
-348.574 15.3549 -1637 233 231 185
-345.178 15.3505 -1637 228 228 178
-341.784 15.3461 -1637 227 226 173
-338.601 15.3509 -1638 230 229 175
-335.416 15.356 -1639 240 238 188
-332.027 15.3517 -1639 231 229 181
