ply
format ascii 1.0
comment Created by Open3D
element vertex 1404
property double x
property double y
property double z
property uchar red
property uchar green
property uchar blue
end_header
-121.763 -529.912 -1439 75 97 158
-118.76 -529.85 -1439 69 91 153
-115.92 -530.526 -1441 67 89 152
-112.836 -530.099 -1440 61 86 150
-109.758 -529.673 -1439 62 87 151
-106.759 -529.617 -1439 58 84 146
-103.833 -529.931 -1440 55 84 142
-100.834 -529.878 -1440 51 80 137
-97.904 -530.195 -1441 52 79 136
-94.8387 -529.778 -1440 51 77 131
-92.0335 -530.833 -1443 48 75 127
-88.9698 -530.418 -1442 47 74 130
-85.9708 -530.373 -1442 50 78 135
-82.7998 -529.227 -1439 51 80 138
-79.8638 -529.552 -1440 50 79 137
-76.8176 -529.144 -1439 55 82 142
-73.8789 -529.473 -1440 68 94 156
-70.789 -528.701 -1438 79 105 171
-67.9437 -529.768 -1441 77 104 170
-64.9515 -529.734 -1441 73 101 167
-62.0457 -530.436 -1443 69 97 157
-59.3367 -532.978 -1450 61 90 148
-56.4051 -533.684 -1452 55 82 138
-53.4656 -534.39 -1454 52 77 132
-50.5529 -535.466 -1457 48 73 128
-47.5957 -536.176 -1459 40 69 125
-44.5389 -535.785 -1458 42 69 124
-41.6005 -536.865 -1461 45 70 125
-38.5973 -537.212 -1462 58 81 136
-35.5416 -536.825 -1461 70 95 151
-32.4904 -536.441 -1460 92 117 175
-29.5646 -538.262 -1465 107 139 197
-26.5641 -538.982 -1467 105 138 195
-23.6196 -541.174 -1473 101 135 191
-20.6645 -543.734 -1480 108 135 191
-17.6329 -544.826 -1483 111 135 189
-14.54 -544.083 -1481 113 134 183
-11.5096 -545.914 -1486 112 134 172
-196.862 -550.671 -1481 113 117 142
-192.429 -546.851 -1471 126 139 173
-189.842 -548.238 -1475 118 138 177
-186.227 -546.653 -1471 109 130 176
-183.129 -546.557 -1471 106 131 181
-179.542 -544.975 -1467 99 128 182
-176.335 -544.511 -1466 88 120 181
-173.016 -543.677 -1464 82 113 175
-169.59 -542.474 -1461 80 110 175
-166.407 -542.015 -1460 77 107 172
-162.67 -539.702 -1454 76 107 172
-159.069 -537.762 -1449 70 102 169
-156.136 -538.051 -1450 67 97 165
-152.884 -537.228 -1448 65 94 162
-149.642 -536.407 -1446 63 92 161
-146.612 -536.33 -1446 74 103 170
-143.286 -535.142 -1443 86 114 180
-140.071 -534.327 -1441 108 133 191
-136.77 -533.142 -1438 69 94 152
-133.855 -533.443 -1439 67 92 150
-130.755 -533.003 -1438 68 93 151
-127.839 -533.306 -1439 74 99 158
-124.832 -533.241 -1439 69 94 154
-121.911 -533.547 -1440 73 95 156
-118.905 -533.485 -1440 64 86 148
-116.06 -534.164 -1442 62 84 147
-113.13 -534.475 -1443 56 80 145
-109.967 -533.677 -1441 61 85 150
-106.889 -533.25 -1440 58 85 147
-103.815 -532.825 -1439 56 84 142
-100.816 -532.772 -1439 46 75 132
-97.8866 -533.09 -1440 49 75 133
-94.9536 -533.411 -1441 50 77 131
-92.0173 -533.732 -1442 48 75 127
-88.8923 -532.945 -1440 47 74 130
-85.9555 -533.27 -1441 49 77 132
-82.8425 -532.486 -1439 49 79 131
-79.9605 -533.184 -1441 49 77 131
-76.9641 -533.143 -1441 48 75 131
-74.0197 -533.474 -1442 57 83 142
-71.0226 -533.436 -1442 67 93 157
-68.1204 -534.14 -1444 71 97 162
-65.0301 -533.366 -1442 78 106 172
-62.1638 -534.443 -1445 77 104 166
-59.2855 -535.521 -1448 61 87 148
-56.473 -537.34 -1453 55 80 137
-53.5299 -538.051 -1455 53 79 136
-50.6485 -539.503 -1459 48 74 131
-47.7181 -540.587 -1462 41 69 123
-44.6535 -540.193 -1461 40 66 120
-41.7075 -541.28 -1464 42 67 120
-38.67 -541.259 -1464 49 72 124
-35.6085 -540.871 -1463 56 80 133
-32.5738 -540.853 -1463 73 98 153
-29.5798 -541.576 -1465 87 117 176
-26.5597 -541.931 -1466 99 129 187
-23.5836 -543.397 -1470 103 134 191
-20.6331 -545.973 -1477 109 134 191
-17.6063 -547.072 -1480 109 132 186
-14.5573 -547.803 -1482 111 131 178
-196.433 -552.553 -1477 94 98 123
-192.399 -549.832 -1470 116 128 160
-189.813 -551.227 -1474 122 140 178
-186.578 -550.754 -1473 110 130 175
-182.976 -549.162 -1469 109 132 180
-179.514 -547.945 -1466 103 130 184
-176.067 -546.73 -1463 90 122 183
-172.752 -545.891 -1461 82 113 175
-169.447 -545.054 -1459 81 111 174
-165.81 -543.098 -1454 77 107 172
-162.643 -542.638 -1453 77 108 173
-159.372 -541.807 -1451 69 101 166
-155.895 -540.231 -1447 69 98 166
-153.07 -540.896 -1449 64 93 161
-149.72 -539.697 -1446 68 97 167
-146.689 -539.62 -1446 85 114 181
-143.56 -539.17 -1445 90 118 184
-140.144 -537.604 -1441 81 106 164
-137.032 -537.158 -1440 54 79 138
-134.018 -537.087 -1440 55 80 138
-130.824 -536.272 -1438 61 86 144
-127.727 -535.831 -1437 71 96 154
-124.984 -536.884 -1440 68 93 153
-122.059 -537.192 -1441 69 91 152
-118.967 -536.756 -1440 68 90 151
-116.121 -537.44 -1442 69 91 154
-113.11 -537.38 -1442 65 89 154
-109.948 -536.576 -1440 65 89 154
-106.87 -536.147 -1439 58 86 147
-103.797 -535.719 -1438 53 82 140
-100.729 -535.293 -1437 43 72 129
-97.8016 -535.614 -1438 51 77 135
-94.8712 -535.936 -1439 50 77 131
-92.0013 -536.632 -1441 49 76 128
-88.9386 -536.212 -1440 47 74 130
-85.8809 -535.795 -1439 46 75 127
-82.828 -535.378 -1438 47 77 126
-80.0576 -536.825 -1442 49 76 128
-77.0042 -536.412 -1441 48 75 129
-74.161 -537.489 -1444 52 78 135
-71.1088 -537.079 -1443 58 84 144
-68.1558 -537.415 -1444 66 92 154
-64.9736 -535.891 -1440 71 99 163
-62.196 -537.719 -1445 76 102 166
-59.2344 -538.059 -1446 66 92 154
-56.4246 -539.89 -1451 61 86 143
-53.521 -540.977 -1454 60 86 144
-50.6053 -542.066 -1457 57 83 141
-47.6776 -543.157 -1460 48 75 128
-44.7073 -543.877 -1462 42 69 120
-41.8146 -545.714 -1467 40 66 117
-38.8222 -546.437 -1469 40 63 113
-35.7732 -546.418 -1469 44 69 120
-32.7244 -546.4 -1469 57 83 135
-29.7163 -547.128 -1471 67 97 155
-26.664 -547.113 -1471 85 114 171
-23.644 -547.844 -1473 98 126 181
-20.6998 -550.807 -1481 108 131 185
-17.6392 -551.169 -1482 104 125 175
-14.6336 -553.764 -1489 109 127 170
-194.807 -551.034 -1464 46 49 71
-191.584 -550.556 -1463 82 92 122
-189.011 -551.96 -1467 114 132 169
-186.043 -552.237 -1468 108 128 172
-183.072 -552.515 -1469 105 127 175
-179.854 -552.043 -1468 97 124 178
-176.521 -551.197 -1466 82 114 175
-173.198 -550.352 -1464 75 107 168
-169.769 -549.134 -1461 78 108 171
-166.696 -549.045 -1461 76 107 172
-163.176 -547.455 -1457 80 111 176
-159.895 -546.618 -1455 77 107 172
-156.085 -543.905 -1448 73 102 169
-153.045 -543.823 -1448 71 100 168
-150.006 -543.743 -1448 71 100 168
-146.969 -543.665 -1448 80 109 176
-143.834 -543.213 -1447 78 107 173
-140.704 -542.762 -1446 62 87 147
-137.294 -541.188 -1442 47 72 131
-134.275 -541.116 -1442 46 71 129
-130.983 -539.921 -1439 53 78 135
-127.972 -539.852 -1439 65 90 148
-125.136 -540.536 -1441 68 93 151
-121.954 -539.721 -1439 70 92 153
-118.946 -539.657 -1439 71 93 154
-115.94 -539.595 -1439 71 93 156
-113.091 -540.285 -1441 69 92 157
-110.006 -539.851 -1440 65 89 153
-106.926 -539.419 -1439 60 86 146
-103.923 -539.364 -1439 53 81 139
-100.992 -539.685 -1440 42 71 128
-97.9209 -539.258 -1439 51 77 135
-95.1188 -540.331 -1442 50 76 131
-92.1773 -540.657 -1443 52 79 131
-89.047 -539.86 -1441 50 77 133
-86.1647 -540.563 -1443 46 74 127
-83.1019 -540.144 -1442 43 73 122
-80.1552 -540.476 -1443 45 72 125
-77.2584 -541.183 -1445 45 72 125
-74.354 -541.893 -1447 46 73 127
-71.1953 -540.731 -1444 51 76 132
-68.3331 -541.818 -1447 62 88 144
-65.0528 -539.536 -1441 68 96 157
-62.3148 -541.749 -1447 76 102 166
-59.3063 -541.717 -1447 75 101 165
-56.4931 -543.559 -1452 70 95 153
-53.549 -544.278 -1454 63 89 148
-50.736 -546.497 -1460 61 87 146
-47.7679 -547.22 -1462 52 79 131
-44.8224 -548.318 -1465 48 74 125
-41.922 -550.167 -1470 41 67 117
-38.8954 -550.52 -1471 38 61 109
-35.9136 -551.623 -1474 43 68 116
-32.8753 -551.979 -1475 48 74 123
-29.8531 -552.711 -1477 52 80 135
-26.7868 -552.697 -1477 70 97 151
-23.7527 -553.432 -1479 87 113 165
-20.7665 -555.665 -1485 102 124 172
-17.6722 -555.281 -1484 72 92 136
-14.6117 -556.021 -1486 50 66 102
-192.341 -555.796 -1468 64 72 99
-189.885 -557.587 -1473 110 127 162
-186.522 -556.73 -1471 105 125 171
-183.544 -557.009 -1472 105 128 177
-180.195 -556.156 -1470 95 122 176
-176.494 -554.169 -1465 81 112 172
-173.171 -553.32 -1463 68 99 161
-169.626 -551.716 -1459 70 100 163
-166.556 -551.626 -1459 70 101 166
-163.039 -550.026 -1455 74 106 171
-159.65 -548.806 -1452 71 101 167
-156.059 -546.833 -1447 61 91 157
-153.02 -546.751 -1447 53 83 149
-149.775 -545.915 -1445 59 89 154
-146.742 -545.836 -1445 63 93 158
-143.811 -546.136 -1446 79 109 174
-140.779 -546.061 -1446 67 92 152
-137.557 -545.232 -1444 50 75 134
-134.346 -544.404 -1442 51 75 132
-131.235 -543.957 -1441 51 76 133
-128.129 -543.51 -1440 62 86 144
-125.116 -543.443 -1440 63 87 145
-121.934 -542.623 -1438 69 90 151
-118.926 -542.559 -1438 70 90 152
-116.001 -542.874 -1439 68 90 153
-113.151 -543.568 -1441 68 93 155
-110.141 -543.509 -1441 63 89 151
-107.057 -543.074 -1440 60 86 146
-103.978 -542.641 -1439 53 81 139
-100.975 -542.587 -1439 49 78 135
-97.9725 -542.534 -1439 53 79 137
-95.1689 -543.614 -1442 52 79 134
-92.0341 -542.811 -1440 53 80 133
-89.2176 -543.893 -1443 50 77 133
-86.2698 -544.224 -1444 47 75 130
-83.3763 -544.933 -1446 44 71 126
-80.3641 -544.889 -1446 42 69 123
-77.406 -545.225 -1447 44 71 124
-74.4959 -545.938 -1449 45 72 125
-71.2821 -544.392 -1445 48 74 123
-68.3219 -544.732 -1446 50 76 127
-65.2225 -543.944 -1444 59 84 143
-62.4337 -545.793 -1449 64 90 153
-59.4196 -545.761 -1449 75 101 164
-56.6006 -547.614 -1454 73 99 159
-53.5035 -546.831 -1452 67 93 152
-50.7627 -549.817 -1460 64 90 148
-47.7603 -550.167 -1461 58 85 137
-44.846 -551.649 -1465 51 77 128
-41.9726 -553.885 -1471 44 70 120
-39.0216 -555.37 -1475 39 63 109
-36.0789 -557.233 -1480 40 65 111
-33.0486 -557.968 -1482 41 67 113
-30.0509 -559.457 -1486 49 76 126
-27.0004 -560.195 -1488 62 87 137
-23.9419 -560.935 -1490 73 96 145
-20.8613 -561.299 -1491 91 113 156
-17.7649 -561.289 -1491 48 68 106
-14.6193 -559.398 -1486 25 39 70
-193.624 -562.588 -1477 49 54 78
-190.761 -563.247 -1479 109 126 160
-187.383 -562.384 -1477 104 124 173
-184.39 -562.665 -1478 106 128 179
-180.781 -561.044 -1474 98 128 182
-177.071 -559.045 -1469 88 119 179
-173.619 -557.81 -1466 76 105 167
-170.182 -556.576 -1463 75 103 166
-166.759 -555.345 -1460 69 100 165
-163.35 -554.115 -1457 71 103 168
-160.175 -553.648 -1456 74 104 171
-156.682 -552.043 -1452 65 95 161
-153.525 -551.58 -1451 64 94 159
-150.166 -550.358 -1448 61 91 156
-147.329 -551.039 -1450 54 83 149
-144.186 -550.581 -1449 59 88 154
-141.049 -550.125 -1448 83 108 168
-137.726 -548.91 -1445 64 88 146
-134.51 -548.078 -1443 56 79 136
-131.396 -547.627 -1442 55 80 137
-128.197 -546.798 -1440 60 84 141
-125.008 -545.971 -1438 58 80 139
-121.914 -545.526 -1437 63 83 143
-119.072 -546.221 -1439 65 85 146
-115.982 -545.779 -1438 64 87 149
-112.897 -545.338 -1437 65 91 153
-110.046 -546.038 -1439 60 87 149
-107.188 -546.738 -1441 60 86 146
-104.178 -546.682 -1441 56 84 142
-101.099 -546.248 -1440 52 81 138
-98.2289 -546.954 -1442 54 80 138
-95.2855 -547.281 -1443 50 76 132
-92.3387 -547.611 -1444 48 75 129
-89.5124 -548.7 -1447 50 77 133
-86.4351 -548.274 -1446 53 80 137
-83.4783 -548.608 -1447 51 77 135
-80.5736 -549.322 -1449 46 73 128
-77.5006 -548.901 -1448 44 71 125
-74.5354 -549.24 -1449 46 72 124
-71.3693 -548.064 -1446 46 72 118
-68.3581 -548.027 -1446 47 72 119
-65.2119 -546.854 -1443 54 76 131
-62.553 -549.852 -1451 55 79 138
-59.41 -548.683 -1448 72 97 157
-56.6306 -550.925 -1454 76 104 164
-53.5318 -550.139 -1452 74 102 160
-50.72 -552.384 -1458 70 99 156
-47.7856 -553.494 -1461 67 92 146
-44.931 -555.743 -1467 54 80 132
-41.9948 -557.235 -1471 47 73 124
-39.1217 -559.865 -1478 43 66 114
-36.1467 -561.36 -1482 40 64 111
-33.2 -563.615 -1488 42 67 113
-30.1476 -564.355 -1490 49 74 121
-27.1237 -565.855 -1494 57 80 126
-24.0189 -565.842 -1494 63 84 129
-20.9003 -565.451 -1493 86 107 146
-17.7623 -564.305 -1490 45 63 97
-14.6369 -563.16 -1487 22 34 60
-194.778 -569.044 -1485 36 39 58
-191.767 -569.323 -1486 111 126 159
-188.119 -567.688 -1482 109 126 177
-184.989 -567.587 -1482 106 128 179
-181.247 -565.574 -1477 97 129 182
-177.286 -562.797 -1470 89 122 180
-173.831 -561.553 -1467 75 107 166
-170.39 -560.312 -1464 74 103 164
-167.077 -559.456 -1462 69 100 163
-163.774 -558.601 -1460 71 103 166
-160.481 -557.749 -1458 73 105 172
-156.874 -555.751 -1453 67 98 164
-153.925 -556.05 -1454 66 96 161
-150.661 -555.203 -1452 59 89 154
-147.408 -554.358 -1450 51 80 145
-144.164 -553.515 -1448 55 83 149
-141.222 -553.821 -1449 75 100 158
-137.8 -552.217 -1445 73 97 155
-134.769 -552.143 -1445 60 83 140
-131.466 -550.926 -1442 59 82 139
-128.355 -550.474 -1441 60 83 141
-125.249 -550.024 -1440 60 82 143
-122.234 -549.957 -1440 62 82 141
-119.053 -549.129 -1438 65 85 144
-116.205 -549.829 -1440 66 91 151
-113.114 -549.386 -1439 65 93 154
-110.182 -549.708 -1440 59 87 149
-107.246 -550.031 -1441 60 86 146
-104.161 -549.593 -1440 58 86 144
-101.153 -549.538 -1440 53 82 139
-98.1451 -549.484 -1440 53 79 137
-95.2043 -549.814 -1441 49 76 132
-92.1962 -549.764 -1441 51 78 132
-89.5602 -552.004 -1447 54 81 137
-86.6607 -552.72 -1449 58 84 142
-83.9269 -554.581 -1454 58 83 143
-80.7835 -553.774 -1452 52 79 135
-77.8097 -554.113 -1453 46 72 127
-74.5751 -552.547 -1449 44 69 122
-71.4073 -551.364 -1446 45 71 117
-68.3945 -551.327 -1446 47 72 119
-65.3371 -550.909 -1445 51 72 125
-62.5432 -552.782 -1450 53 77 132
-59.4827 -552.368 -1449 69 94 151
-56.5439 -553.099 -1451 76 104 162
-53.5972 -553.832 -1453 78 108 164
-50.6078 -554.185 -1454 73 103 159
-47.7128 -555.683 -1458 66 91 148
-44.9549 -559.089 -1467 56 81 136
-42.0458 -560.971 -1472 48 73 127
-39.2219 -564.379 -1481 43 66 116
-36.2879 -566.645 -1487 39 63 110
-33.3293 -568.913 -1493 42 66 112
-30.2649 -569.658 -1495 44 68 114
-27.1925 -570.405 -1497 51 72 117
-24.096 -570.772 -1498 60 78 122
-20.9675 -570.379 -1497 80 99 137
-17.8434 -569.988 -1496 52 67 100
-14.684 -568.074 -1491 16 25 50
-196.196 -576.313 -1495 29 30 48
-192.129 -573.509 -1488 105 119 150
-188.348 -571.479 -1483 113 130 178
-185.089 -570.992 -1482 107 127 177
-181.591 -569.737 -1479 99 131 184
-177.503 -566.558 -1471 91 123 180
-174.162 -565.692 -1469 72 105 163
-170.482 -563.673 -1464 72 101 162
-167.282 -563.196 -1463 68 99 162
-163.975 -562.337 -1461 67 99 162
-161.119 -563.018 -1463 67 99 164
-157.391 -560.623 -1457 66 97 162
-154.432 -560.923 -1458 65 95 160
-150.847 -558.917 -1453 64 93 160
-147.894 -559.221 -1454 56 85 151
-144.441 -557.604 -1450 60 88 154
-141.395 -557.526 -1450 73 98 156
-138.16 -556.682 -1448 74 98 156
-135.028 -556.223 -1447 55 78 135
-131.719 -554.998 -1444 58 81 136
-128.691 -554.927 -1444 61 84 140
-125.578 -554.474 -1443 61 83 142
-122.384 -553.639 -1441 63 83 142
-119.117 -552.421 -1438 63 83 143
-116.187 -552.742 -1439 65 87 148
-113.175 -552.68 -1439 70 96 157
-110.317 -553.388 -1441 68 94 156
-107.303 -553.329 -1441 64 90 150
-104.29 -553.272 -1441 59 87 145
-101.207 -552.832 -1440 51 80 137
-98.266 -553.162 -1441 49 75 133
-95.2555 -553.11 -1441 48 75 131
-92.2457 -553.06 -1441 53 80 134
-89.4844 -554.546 -1445 54 81 137
-86.7672 -556.417 -1450 53 80 136
-83.8565 -557.138 -1452 54 79 137
-80.7712 -556.71 -1451 53 80 136
-77.8515 -557.435 -1453 49 75 131
-74.6667 -556.243 -1450 44 69 124
-71.5939 -555.82 -1449 44 67 117
-68.6206 -556.166 -1450 47 69 119
-65.5532 -555.746 -1449 53 74 125
-62.5767 -556.095 -1450 53 76 128
-59.5968 -556.446 -1451 62 86 139
-56.5742 -556.414 -1451 69 95 151
-53.5521 -556.385 -1451 79 108 163
-50.7742 -559.041 -1458 83 114 169
-47.7712 -559.398 -1459 77 102 160
-45.0404 -563.207 -1469 63 87 144
-42.1254 -565.1 -1474 50 73 130
-39.296 -568.529 -1483 44 67 118
-36.3318 -570.425 -1488 43 66 115
-33.3918 -573.09 -1495 42 66 112
-30.3217 -573.84 -1497 42 65 112
-27.298 -575.741 -1502 50 69 116
-24.1572 -575.343 -1501 61 76 122
-21.0208 -574.948 -1500 74 92 130
-17.8767 -574.171 -1498 65 80 113
-14.682 -571.096 -1490 17 26 50
-198.404 -585.961 -1511 24 26 42
-193.267 -580.037 -1496 94 107 138
-189.34 -577.606 -1490 118 134 179
-185.565 -575.565 -1485 105 124 172
-181.69 -573.14 -1479 99 130 183
-177.962 -571.104 -1474 93 125 182
-174.02 -568.296 -1467 74 106 165
-170.225 -565.878 -1461 72 102 163
-167.373 -566.56 -1463 71 102 165
-164.401 -566.857 -1464 69 101 164
-161.096 -565.994 -1462 66 97 162
-157.801 -565.132 -1460 66 97 162
-154.728 -565.047 -1460 63 93 159
-151.24 -563.416 -1456 64 93 161
-148.28 -563.721 -1457 63 92 159
-144.818 -562.094 -1453 76 105 170
-141.375 -560.468 -1449 67 92 151
-138.14 -559.619 -1447 68 93 151
-135.195 -559.931 -1448 53 76 133
-131.882 -558.698 -1445 57 80 136
-128.851 -558.627 -1445 62 85 140
-125.733 -558.172 -1444 64 87 145
-122.536 -557.331 -1442 64 85 145
-119.596 -557.652 -1443 61 82 142
-116.412 -556.815 -1441 64 86 147
-113.315 -556.366 -1440 76 101 162
-110.377 -556.691 -1441 77 103 165
-107.436 -557.018 -1442 70 96 156
-104.346 -556.575 -1441 62 90 148
-101.262 -556.132 -1440 50 79 136
-98.1828 -555.692 -1439 48 74 133
-95.2409 -556.026 -1440 48 75 131
-92.2315 -555.975 -1440 52 79 133
-89.5329 -557.856 -1445 54 81 137
-86.7542 -559.352 -1449 52 79 135
-83.9019 -560.464 -1452 50 75 131
-80.7591 -559.647 -1450 50 77 133
-77.8936 -560.762 -1453 53 79 135
-74.7586 -559.949 -1451 49 74 131
-71.8303 -560.681 -1453 46 70 122
-68.7523 -560.257 -1452 47 70 122
-65.8149 -560.992 -1454 51 74 125
-62.7834 -560.957 -1454 49 72 122
-59.629 -559.767 -1451 58 81 131
-56.6437 -560.121 -1452 63 88 144
-53.5441 -559.32 -1450 74 103 157
-50.6623 -560.834 -1454 87 118 171
-47.6987 -561.579 -1456 88 113 173
-44.942 -565.025 -1465 75 99 158
-42.0338 -566.93 -1470 60 83 141
-39.2907 -571.536 -1482 45 68 119
-36.4002 -574.601 -1490 41 64 114
-33.4321 -576.896 -1496 40 63 112
-30.3987 -578.421 -1500 45 66 116
-27.3854 -580.719 -1506 50 67 117
-24.2668 -581.091 -1507 59 72 120
-21.0742 -579.536 -1503 68 86 124
-17.9102 -578.369 -1500 72 86 119
-192.469 -580.757 -1489 78 89 119
-189.063 -579.871 -1487 121 137 179
-185.417 -578.209 -1483 108 125 171
-181.789 -576.548 -1479 99 128 182
-177.818 -573.721 -1472 92 123 180
-174.234 -572.065 -1468 73 106 165
-170.668 -570.412 -1464 72 102 163
-167.35 -569.539 -1462 71 102 165
-164.042 -568.669 -1460 68 100 163
-161.295 -569.748 -1463 69 99 162
-157.887 -568.493 -1460 64 94 159
-155.024 -569.186 -1462 59 89 156
-151.427 -567.155 -1457 59 89 156
-148.259 -566.683 -1456 57 86 152
-144.997 -565.825 -1454 59 89 152
-141.94 -565.746 -1454 57 82 142
-138.215 -562.946 -1447 62 87 145
-135.082 -562.482 -1446 52 75 132
-132.045 -562.409 -1446 58 80 135
-129.099 -562.726 -1447 62 84 139
-125.802 -561.49 -1444 62 84 142
-122.773 -561.421 -1444 60 82 142
-119.413 -559.8 -1440 62 84 145
-116.314 -559.347 -1439 66 88 149
-113.377 -559.673 -1440 74 99 160
-110.361 -559.611 -1440 76 101 163
-107.494 -560.329 -1442 72 97 157
-104.331 -559.494 -1440 71 98 157
-101.317 -559.438 -1440 62 91 150
-98.3728 -559.772 -1441 51 78 136
-95.359 -559.719 -1441 48 76 132
-92.3459 -559.668 -1441 53 80 135
-89.5196 -560.783 -1444 51 79 135
-86.6816 -561.9 -1447 50 78 133
-83.8318 -563.018 -1450 50 75 130
-80.8032 -562.973 -1450 50 75 132
-77.8824 -563.706 -1452 50 75 132
-74.8508 -563.665 -1452 47 72 129
-71.82 -563.625 -1452 46 70 125
-68.8844 -564.363 -1454 47 71 125
-65.9865 -565.49 -1457 48 73 122
-62.9902 -565.843 -1458 47 71 118
-59.7026 -563.481 -1452 47 71 118
-56.7136 -563.838 -1453 55 79 132
-53.6102 -563.031 -1451 70 96 151
-50.6898 -564.167 -1454 81 108 165
-47.7574 -565.304 -1457 91 117 174
-45.0278 -569.159 -1467 81 107 165
-42.028 -569.911 -1469 66 92 150
-39.2325 -573.768 -1479 51 78 132
-36.3712 -577.239 -1488 43 69 121
-33.4727 -580.711 -1497 39 65 114
-30.4153 -581.858 -1500 42 64 117
-27.4367 -584.945 -1508 44 63 112
-24.2961 -584.931 -1508 50 64 108
-21.1136 -583.755 -1505 65 76 111
-192.446 -583.803 -1488 67 75 101
-188.658 -581.736 -1483 117 133 172
-185.019 -580.064 -1479 111 130 175
-181.644 -579.178 -1477 101 129 181
-177.795 -576.726 -1471 92 123 180
-174.211 -575.06 -1467 78 110 170
-170.879 -574.181 -1465 77 107 168
-167.328 -572.52 -1461 76 105 167
-164.469 -573.212 -1463 73 101 165
-161.163 -572.338 -1461 67 97 162
-157.866 -571.467 -1459 59 90 155
-154.791 -571.38 -1459 51 83 148
-151.614 -570.904 -1458 53 84 151
-148.443 -570.43 -1457 44 74 139
-144.977 -568.783 -1453 38 64 126
-141.92 -568.704 -1453 38 65 121
-138.578 -567.452 -1450 67 93 148
-135.343 -566.594 -1448 59 82 137
-132.392 -566.911 -1449 55 76 132
-129.349 -566.839 -1449 57 77 134
-126.219 -566.378 -1448 60 80 138
-122.84 -564.745 -1444 60 82 140
-119.81 -564.678 -1444 61 84 142
-116.458 -563.048 -1440 65 87 148
-113.518 -563.376 -1441 71 94 156
-110.421 -562.924 -1440 72 97 159
-107.553 -563.645 -1442 71 96 156
-104.46 -563.196 -1441 70 97 157
-101.443 -563.139 -1441 64 93 154
-98.4951 -563.475 -1442 54 83 139
-95.4775 -563.422 -1442 49 77 133
-92.5247 -563.761 -1443 51 78 134
-89.7548 -565.274 -1447 47 76 132
-86.7891 -565.616 -1448 47 75 130
-83.8778 -566.35 -1450 48 75 129
-80.9588 -567.086 -1452 50 75 132
-77.9787 -567.433 -1453 50 75 133
-74.9434 -567.391 -1453 50 76 134
-72.0573 -568.522 -1456 47 72 128
-69.1118 -569.264 -1458 46 71 125
-66.1132 -569.617 -1459 46 72 121
-63.1544 -570.363 -1461 44 69 116
-60.0232 -569.548 -1459 44 69 116
-56.9008 -568.735 -1457 53 76 127
-53.7873 -567.924 -1455 67 91 146
-50.857 -569.066 -1458 77 101 158
-47.8163 -569.039 -1458 82 108 164
-44.9603 -571.356 -1464 85 112 169
-42.051 -573.283 -1469 70 99 156
-39.1742 -575.992 -1476 58 87 143
-36.3421 -579.874 -1486 55 83 135
-33.4238 -582.977 -1494 45 71 120
-30.4725 -586.081 -1502 43 66 121
-27.5062 -589.577 -1511 42 61 109
-24.3738 -589.953 -1512 49 63 103
-21.1532 -587.989 -1507 56 63 94
-192.423 -586.852 -1487 59 64 89
-188.381 -583.983 -1480 114 130 168
-184.621 -581.906 -1475 108 128 172
-181.252 -581.015 -1473 101 129 182
-177.894 -580.126 -1471 94 124 182
-174.308 -578.451 -1467 80 112 173
-170.974 -577.566 -1465 80 110 171
-167.764 -577.078 -1464 76 105 167
-164.448 -576.197 -1462 75 103 165
-161.031 -574.924 -1459 68 98 161
-158.062 -575.23 -1460 62 92 157
-154.665 -573.961 -1457 55 87 152
-151.49 -573.482 -1456 60 92 159
-148.525 -573.792 -1457 55 85 150
-145.157 -572.529 -1454 54 80 142
-141.901 -571.662 -1452 58 83 142
-138.655 -570.797 -1450 71 95 153
-135.418 -569.934 -1448 58 81 136
-132.374 -569.859 -1448 54 75 129
-129.331 -569.787 -1448 54 74 128
-126.376 -570.109 -1449 59 79 137
-123.078 -568.86 -1446 61 81 140
-119.711 -567.219 -1442 58 79 138
-116.604 -566.76 -1441 62 83 144
-113.423 -565.91 -1439 70 94 155
-110.482 -566.241 -1440 74 100 160
-107.463 -566.181 -1440 74 100 160
-104.591 -566.908 -1442 70 97 157
-101.711 -567.637 -1444 64 93 152
-98.6178 -567.189 -1443 56 85 142
-95.7951 -568.314 -1446 50 78 135
-92.7682 -568.262 -1446 47 74 130
-89.7422 -568.212 -1446 39 68 122
-86.8969 -569.342 -1449 38 66 120
-83.8083 -568.901 -1448 47 74 128
-80.9477 -570.034 -1451 50 75 132
-78.0216 -570.776 -1453 49 75 132
-75.1395 -571.912 -1456 49 75 133
-72.0474 -571.479 -1455 46 71 127
-69.1498 -572.618 -1458 48 73 128
-66.1044 -572.581 -1458 48 73 126
-63.1891 -573.723 -1461 46 71 121
-60.015 -572.511 -1458 42 68 116
-57.0103 -572.872 -1459 48 71 122
-53.8909 -572.056 -1457 58 81 133
-50.9897 -573.597 -1461 64 87 139
-47.9082 -573.177 -1460 73 95 150
-45.0772 -575.899 -1467 84 110 166
-42.1314 -577.446 -1471 84 112 169
-39.1958 -579.386 -1476 70 101 156
-36.2641 -581.72 -1482 66 95 146
-33.3302 -584.449 -1489 53 79 127
-30.408 -587.964 -1498 46 69 123
-27.485 -592.265 -1509 47 66 113
-24.4033 -593.821 -1513 44 58 97
-192.66 -590.695 -1488 46 51 75
-188.232 -586.618 -1478 110 125 162
-184.849 -585.72 -1476 104 124 167
-181.354 -584.427 -1473 100 129 183
-177.993 -583.533 -1471 96 126 184
-174.524 -582.244 -1468 81 113 174
-171.303 -581.75 -1467 85 114 175
-167.973 -580.862 -1465 79 108 169
-164.54 -579.58 -1462 76 105 166
-161.121 -578.3 -1459 70 100 163
-157.933 -577.814 -1458 64 95 158
-154.539 -576.538 -1455 56 87 152
-151.575 -576.848 -1456 63 95 161
-148.302 -575.972 -1454 63 93 158
-145.138 -575.494 -1453 73 99 161
-141.882 -574.622 -1451 75 100 160
-138.828 -574.543 -1451 60 84 143
-135.681 -574.071 -1450 55 78 133
-132.814 -574.787 -1452 52 74 127
-129.582 -573.922 -1450 51 72 125
-126.621 -574.247 -1451 59 79 137
-123.232 -572.594 -1447 60 80 139
-120.109 -572.131 -1446 56 76 135
-116.668 -570.086 -1441 60 80 139
-113.486 -569.231 -1439 67 90 150
-110.544 -569.564 -1440 70 95 155
-107.449 -569.108 -1439 69 95 155
-104.649 -570.235 -1442 71 97 157
-101.697 -570.573 -1443 69 96 156
-98.8093 -571.308 -1445 61 90 148
-96.1134 -573.23 -1450 52 81 138
-93.0123 -572.782 -1449 46 73 129
-89.9163 -572.336 -1448 43 71 125
-87.0051 -573.077 -1450 47 74 128
-83.9126 -572.635 -1449 51 78 132
-80.9926 -573.379 -1451 51 76 133
-78.1186 -574.521 -1454 49 75 132
-75.2328 -575.663 -1457 47 73 131
-72.1369 -575.227 -1456 45 70 125
-69.1407 -575.583 -1457 47 72 127
-66.2317 -576.73 -1460 46 71 127
-63.1809 -576.694 -1460 45 69 122
-60.0483 -575.87 -1458 43 66 118
-57.081 -576.627 -1460 47 70 121
-54.0688 -576.992 -1461 51 74 124
-50.9481 -576.172 -1459 56 79 129
-48.0332 -577.725 -1463 64 85 136
-45.1328 -579.673 -1468 73 97 151
-42.1833 -581.228 -1472 90 118 174
-39.1378 -581.601 -1473 85 115 171
-36.2598 -584.738 -1481 78 106 159
-33.3487 -587.877 -1489 57 83 133
-30.4045 -591.018 -1497 47 70 120
-27.4454 -594.555 -1506 43 62 106
-192.898 -594.548 -1489 41 45 66
-187.955 -588.851 -1475 110 124 158
-184.577 -587.947 -1473 104 124 166
-181.579 -588.243 -1474 98 127 180
-178.093 -586.945 -1471 98 129 187
-174.86 -586.446 -1470 83 115 176
-171.867 -586.747 -1471 86 115 176
-168.182 -584.657 -1466 80 109 170
-164.858 -583.766 -1464 75 104 165
-161.322 -582.079 -1460 72 102 165
-157.914 -580.793 -1457 65 95 158
-154.413 -579.111 -1453 58 88 151
-151.243 -578.626 -1452 57 89 154
-148.079 -578.144 -1451 52 83 147
-145.22 -578.858 -1453 64 90 152
-141.864 -577.582 -1450 71 96 156
-138.906 -577.902 -1451 52 77 135
-135.757 -577.426 -1450 53 76 131
-132.888 -578.147 -1452 48 69 123
-129.744 -577.675 -1451 51 72 126
-126.692 -577.603 -1451 63 83 141
-123.556 -577.135 -1450 60 81 139
-120.177 -575.474 -1446 60 80 139
-116.977 -574.612 -1444 63 84 143
-113.707 -573.353 -1441 67 90 150
-110.605 -572.893 -1440 65 90 150
-107.583 -572.831 -1440 67 92 152
-104.707 -573.567 -1442 72 97 157
-101.753 -573.907 -1443 72 98 157
-98.9329 -575.044 -1446 64 93 153
-96.0345 -575.785 -1448 54 83 141
-93.1285 -576.527 -1450 47 74 130
-90.0286 -576.078 -1449 47 74 128
-87.0537 -576.426 -1450 52 79 133
-84.1913 -577.571 -1453 51 78 133
-81.2053 -577.922 -1454 54 81 136
-78.1623 -577.877 -1454 52 79 136
-75.3781 -579.821 -1459 50 76 134
-72.1275 -578.191 -1455 50 75 131
-69.1793 -578.946 -1457 50 75 130
-66.0871 -578.51 -1456 52 76 133
-63.1729 -579.666 -1459 49 72 127
-60.1642 -580.029 -1460 46 69 123
-57.2692 -581.585 -1464 45 68 119
-54.21 -581.554 -1464 41 65 112
-51.3259 -583.511 -1469 50 74 120
-48.1258 -581.894 -1465 54 76 123
-45.2811 -584.648 -1472 59 84 134
-42.2069 -584.624 -1472 75 102 154
-39.2393 -586.19 -1476 88 116 170
-36.2555 -587.757 -1480 89 115 169
-33.3001 -590.121 -1486 68 92 146
-30.2791 -591.691 -1490 56 80 124
-27.3513 -595.646 -1500 43 63 102
-24.2205 -595.632 -1500 15 30 63
-193.008 -598.01 -1489 39 41 60
-187.934 -591.879 -1474 102 114 145
-184.306 -590.167 -1470 109 127 169
-181.435 -590.866 -1472 97 125 177
-178.315 -590.764 -1472 100 129 185
-174.721 -589.058 -1468 87 118 177
-171.847 -589.762 -1470 86 115 175
-168.277 -588.061 -1466 79 108 168
-164.951 -587.165 -1464 77 106 167
-161.524 -585.869 -1461 73 103 168
-158.22 -584.976 -1459 67 97 161
-154.713 -583.284 -1455 61 91 154
-151.641 -583.197 -1455 59 89 154
-148.162 -581.509 -1451 53 82 147
-145.101 -581.426 -1451 63 89 149
-142.042 -581.345 -1451 73 98 156
-139.175 -582.066 -1453 52 77 134
-135.927 -581.188 -1451 50 73 128
-133.054 -581.913 -1453 51 73 126
-129.817 -581.037 -1451 53 74 127
-126.763 -580.965 -1451 57 77 135
-123.455 -579.693 -1448 59 81 139
-120.161 -578.423 -1445 59 82 139
-116.962 -577.556 -1443 60 83 141
-113.693 -576.29 -1440 66 89 147
-110.591 -575.827 -1439 63 88 146
-107.494 -575.365 -1438 61 86 146
-104.766 -576.905 -1442 69 94 153
-101.881 -577.647 -1444 76 102 160
-98.9201 -577.99 -1445 78 106 168
-96.1548 -579.535 -1449 65 93 152
-93.1166 -579.482 -1449 51 78 134
-90.1413 -579.83 -1450 47 74 128
-87.1626 -580.18 -1451 50 77 131
-84.2386 -580.931 -1453 51 79 135
-81.3069 -581.684 -1455 54 81 137
-78.2599 -581.64 -1455 54 81 138
-75.4721 -583.595 -1460 55 81 139
-72.3665 -583.153 -1459 54 79 135
-69.2656 -582.714 -1458 52 77 133
-66.2604 -583.076 -1459 52 75 133
-63.295 -583.838 -1461 48 71 127
-60.2804 -584.203 -1462 48 71 126
-57.3796 -585.768 -1466 47 70 121
-54.3516 -586.136 -1467 41 65 111
-51.3547 -586.906 -1469 49 73 117
-48.3828 -588.076 -1472 49 74 118
-45.2449 -587.251 -1470 55 80 127
-42.2018 -587.626 -1471 66 92 141
-39.2081 -588.801 -1474 80 106 160
-36.2268 -590.378 -1478 94 117 172
-33.2065 -591.557 -1481 90 112 167
-30.2148 -593.536 -1486 73 97 141
-27.2754 -597.115 -1495 49 68 107
-24.1532 -597.1 -1495 14 29 60
-192.469 -599.459 -1484 44 44 60
-188.042 -595.311 -1474 94 103 132
-184.536 -593.993 -1471 112 130 171
-181.292 -593.485 -1470 96 123 175
-178.417 -594.189 -1472 97 125 180
-175.059 -593.281 -1470 91 121 180
-172.062 -593.586 -1471 85 114 173
-168.602 -592.278 -1468 81 110 170
-165.157 -590.972 -1465 77 106 167
-161.616 -589.266 -1461 74 104 169
-158.527 -589.174 -1461 64 94 159
-154.694 -586.262 -1454 59 89 152
-151.623 -586.175 -1454 64 94 158
-148.348 -585.284 -1452 61 91 154
-145.284 -585.2 -1452 67 93 153
-142.123 -584.715 -1451 78 103 159
-139.35 -585.844 -1454 59 84 139
-136.098 -584.96 -1452 49 73 128
-133.038 -584.883 -1452 48 71 125
-129.89 -584.405 -1451 51 74 128
-126.748 -583.93 -1450 57 77 134
-123.696 -583.858 -1450 58 79 136
-120.479 -582.984 -1448 57 80 137
-117.271 -582.111 -1446 60 80 138
-113.994 -580.838 -1443 65 88 146
-110.884 -580.371 -1442 63 88 146
-107.78 -579.907 -1441 62 87 145
-104.898 -580.651 -1443 70 95 154
-102.009 -581.397 -1445 72 98 156
-99.0445 -581.742 -1446 71 99 163
-96.2757 -583.296 -1450 61 88 150
-93.1692 -582.84 -1449 53 80 136
-90.1301 -582.788 -1449 51 78 134
-87.3922 -584.749 -1454 51 78 134
-84.3442 -584.7 -1454 51 80 136
-81.4087 -585.457 -1456 54 81 137
-78.4656 -586.216 -1458 55 82 138
-75.463 -586.574 -1459 56 82 140
-72.3577 -586.131 -1458 53 80 136
-69.3999 -586.894 -1460 50 77 133
-66.3887 -587.258 -1461 54 77 135
-63.4607 -588.427 -1464 50 73 129
-60.4382 -588.794 -1465 49 72 127
-57.5687 -590.77 -1470 49 72 123
-54.5675 -591.542 -1472 46 69 115
-51.5236 -591.914 -1473 49 73 116
-48.3772 -591.082 -1471 48 74 118
-45.4244 -592.662 -1475 50 75 122
-42.2543 -591.432 -1472 57 82 130
-39.2568 -592.615 -1475 65 88 140
-36.149 -592.192 -1474 81 102 156
-33.2926 -596.189 -1484 96 117 171
-30.2319 -596.975 -1486 88 111 159
-27.2543 -599.771 -1493 52 71 110
-24.1507 -600.158 -1494 21 36 64
-191.931 -600.89 -1479 46 45 58
-188.277 -599.156 -1475 86 93 118
-184.893 -598.236 -1473 110 127 167
-181.643 -597.725 -1472 98 125 178
-178.64 -598.027 -1473 94 122 177
-175.278 -597.113 -1471 92 122 181
-171.692 -595.39 -1467 88 116 176
-168.124 -593.669 -1463 79 107 167
-165.026 -593.574 -1463 76 105 166
-161.598 -592.263 -1460 75 104 168
-158.509 -592.171 -1460 63 93 157
-154.996 -590.459 -1456 57 87 150
-151.918 -590.371 -1456 63 93 156
-148.433 -588.663 -1452 64 93 156
-145.567 -589.389 -1454 74 100 160
-142.302 -588.496 -1452 79 105 161
-139.43 -589.226 -1454 70 95 150
-136.457 -589.552 -1455 54 79 134
-133.206 -588.665 -1453 48 72 127
-129.965 -587.779 -1451 52 75 130
-126.995 -588.111 -1452 58 78 133
-124.023 -588.444 -1453 59 79 136
-120.797 -587.564 -1451 61 82 140
-117.5 -586.281 -1448 62 82 140
-114.138 -584.595 -1444 62 84 142
-111.024 -584.126 -1443 61 86 143
-108.066 -584.468 -1444 62 87 145
-105.031 -584.408 -1444 68 93 152
-102.138 -585.158 -1446 72 97 156
-99.0325 -584.695 -1445 69 97 159
-96.1976 -585.854 -1448 67 95 156
-93.351 -587.013 -1451 62 88 145
-90.3681 -587.365 -1452 52 79 135
-87.5022 -588.528 -1455 49 77 133
-84.5663 -589.288 -1457 51 80 136
-81.567 -589.645 -1458 53 81 137
-78.5641 -590.004 -1459 55 82 138
-75.6095 -590.769 -1461 55 81 139
-72.5478 -590.726 -1461 54 81 137
-69.5344 -591.09 -1462 52 79 135
-66.6538 -592.668 -1466 53 76 134
-63.6703 -593.44 -1468 55 78 134
-60.7202 -594.617 -1471 53 76 131
-57.719 -595.392 -1473 50 73 124
-54.7098 -596.168 -1475 50 72 118
-51.7278 -597.35 -1478 49 71 114
-48.5363 -596.109 -1475 49 73 122
-45.4502 -596.083 -1475 54 76 126
-42.3644 -596.057 -1475 58 80 130
-39.2791 -596.034 -1475 61 82 131
-36.2432 -596.821 -1477 70 92 141
-33.289 -599.226 -1483 84 106 156
-30.2082 -599.611 -1484 102 123 176
-27.1966 -601.616 -1489 65 83 123
-24.132 -602.813 -1492 26 40 65
-20.9987 -602.396 -1491 28 34 49
-191.392 -602.304 -1474 41 38 48
-188.003 -601.377 -1472 72 77 100
-184.874 -601.269 -1472 110 127 167
-181.5 -600.346 -1470 91 120 174
-178.622 -601.059 -1472 91 120 176
-175.498 -600.956 -1472 89 119 178
-172.259 -600.447 -1471 88 114 174
-168.681 -598.716 -1467 86 112 173
-165.347 -597.803 -1465 81 110 171
-161.801 -596.077 -1461 76 106 169
-158.492 -595.169 -1459 71 101 164
-155.191 -594.262 -1457 58 88 149
-152.006 -593.766 -1456 53 83 146
-148.928 -593.679 -1456 52 81 144
-145.951 -594.002 -1457 57 83 145
-142.58 -592.695 -1454 66 91 148
-139.702 -593.429 -1456 79 104 159
-136.535 -592.942 -1455 62 87 142
-133.282 -592.049 -1453 50 74 129
-130.218 -591.974 -1453 52 75 130
-127.068 -591.492 -1452 57 76 130
-124.179 -592.235 -1454 60 80 136
-120.95 -591.349 -1452 61 81 139
-117.974 -591.688 -1453 59 79 137
-114.52 -589.585 -1448 58 80 137
-111.319 -588.706 -1446 58 83 140
-108.277 -588.642 -1446 61 86 144
-105.164 -588.174 -1445 66 91 150
-102.197 -588.521 -1446 71 96 156
-99.1578 -588.464 -1446 67 94 155
-96.3191 -589.628 -1449 69 96 156
-93.2757 -589.574 -1449 67 93 151
-90.3576 -590.335 -1451 55 82 138
-87.4319 -591.097 -1453 49 77 133
-84.6729 -593.082 -1458 48 77 134
-81.5577 -592.627 -1457 53 80 137
-78.609 -593.395 -1459 54 81 137
-75.7563 -594.977 -1463 55 81 139
-72.7383 -595.341 -1464 56 83 139
-69.8121 -596.521 -1467 53 80 136
-66.7829 -596.888 -1468 54 77 134
-63.9671 -599.29 -1474 54 77 133
-60.7962 -598.441 -1472 52 75 130
-57.948 -600.846 -1478 48 71 123
-54.8896 -601.221 -1479 50 73 119
-51.8274 -601.596 -1480 50 72 115
-48.7616 -601.974 -1481 49 71 123
-45.692 -602.353 -1482 55 76 128
-42.4749 -600.702 -1478 54 75 127
-39.4081 -601.085 -1479 58 79 126
-36.3376 -601.47 -1480 70 92 139
-33.2182 -601.044 -1479 76 98 144
-30.1847 -602.245 -1482 91 112 165
-27.1574 -603.854 -1486 82 100 142
-24.0487 -603.839 -1486 35 49 77
-20.9544 -604.233 -1487 31 37 52
-190.984 -604.111 -1470 58 54 63
-188.495 -606.055 -1475 74 77 97
-185.358 -605.946 -1475 111 128 166
-181.976 -605.018 -1473 92 121 174
-178.847 -604.913 -1473 88 118 173
-175.958 -605.631 -1475 86 116 175
-172.242 -603.477 -1470 86 113 171
-168.664 -601.735 -1466 82 108 167
-165.33 -600.818 -1464 76 105 166
-161.895 -599.491 -1461 73 103 166
-158.909 -599.808 -1462 71 101 163
-155.388 -598.076 -1458 60 90 151
-152.407 -598.397 -1459 49 79 141
-149.219 -597.899 -1458 39 69 132
-146.036 -597.404 -1457 41 67 129
-142.76 -596.5 -1455 50 75 132
-139.687 -596.418 -1455 74 99 154
-136.426 -595.518 -1453 61 86 141
-133.268 -595.03 -1452 49 73 127
-130.204 -594.954 -1452 51 74 127
-127.229 -595.289 -1453 55 74 128
-124.336 -596.035 -1455 55 75 131
-121.27 -595.964 -1455 60 80 138
-118.286 -596.304 -1456 64 84 142
-114.982 -595.008 -1453 63 85 143
-111.614 -593.305 -1449 57 82 139
-108.49 -592.832 -1448 60 85 143
-105.297 -591.951 -1446 64 89 149
-102.256 -591.891 -1446 66 91 153
-99.2836 -592.242 -1447 68 94 154
-96.3747 -593.004 -1449 69 95 155
-93.3939 -593.358 -1450 67 93 153
-90.5342 -594.533 -1453 57 84 141
-87.6629 -595.709 -1456 46 73 130
-84.6635 -596.068 -1457 43 72 129
-81.7166 -596.838 -1459 53 79 137
-78.816 -598.019 -1462 53 79 137
-75.8517 -598.792 -1464 53 79 137
-72.8299 -599.158 -1465 56 83 139
-69.8523 -599.935 -1467 56 82 138
-66.8668 -600.714 -1469 57 80 134
-63.917 -601.903 -1472 50 73 127
-60.9966 -603.502 -1476 48 71 125
-58.0205 -604.695 -1479 50 73 126
-54.9583 -605.071 -1480 51 73 121
-51.9623 -606.266 -1483 51 72 116
-48.9214 -607.055 -1485 54 75 127
-45.8416 -607.436 -1486 54 75 128
-42.7868 -608.228 -1488 54 75 128
-39.6173 -607.387 -1486 60 81 128
-36.4321 -606.139 -1483 67 88 135
-33.3047 -605.71 -1482 64 85 130
-30.2021 -605.692 -1482 78 99 149
-27.1363 -606.493 -1484 92 109 152
-24.0301 -606.478 -1484 52 65 97
-188.733 -609.927 -1476 70 71 89
-185.97 -611.057 -1479 108 123 162
-182.453 -609.709 -1476 92 119 171
-179.681 -610.842 -1479 88 116 170
-176.419 -610.325 -1478 87 117 175
-172.812 -608.571 -1474 89 115 173
-169.338 -607.233 -1471 81 107 166
-165.765 -605.484 -1467 76 105 166
-162.211 -603.737 -1463 72 102 166
-158.784 -602.405 -1460 69 99 162
-155.265 -600.663 -1456 60 90 151
-152.287 -600.986 -1457 54 84 146
-148.896 -599.66 -1454 53 83 146
-146.02 -600.399 -1456 47 73 134
-142.745 -599.49 -1454 53 78 135
-139.576 -598.995 -1453 77 102 157
-136.506 -598.915 -1453 63 88 141
-133.437 -598.836 -1453 51 76 128
-130.28 -598.347 -1452 52 75 127
-127.478 -599.508 -1455 53 72 128
-124.494 -599.847 -1456 51 70 127
-121.507 -600.187 -1457 55 75 133
-118.354 -599.705 -1456 62 82 138
-115.286 -599.637 -1456 62 84 141
-112.064 -598.748 -1454 56 81 138
-108.702 -597.036 -1450 57 82 140
-105.431 -595.739 -1447 61 86 146
-102.386 -595.678 -1447 65 89 154
-99.4098 -596.031 -1448 67 93 154
-96.364 -595.974 -1448 70 96 156
-93.5124 -597.154 -1451 69 95 155
-90.6491 -598.334 -1454 60 86 144
-87.5932 -598.283 -1454 47 73 131
-84.7125 -599.467 -1457 44 73 130
-81.82 -600.653 -1460 52 79 136
-78.8617 -601.429 -1462 50 76 134
-75.8956 -602.207 -1464 50 76 134
-72.9219 -602.986 -1466 53 79 136
-70.0833 -605.001 -1471 55 82 138
-66.9967 -604.961 -1471 55 76 127
-64.0409 -606.157 -1474 55 77 130
-61.1145 -607.766 -1478 54 77 130
-58.1719 -609.376 -1482 53 76 129
-55.1016 -609.754 -1483 49 71 121
-52.0976 -610.956 -1486 50 71 118
-49.0486 -611.749 -1488 61 82 133
-45.9916 -612.544 -1490 55 76 128
-42.9842 -614.163 -1494 56 77 130
-39.8003 -613.316 -1492 57 78 126
-36.4778 -610.006 -1484 62 83 129
-33.4138 -610.808 -1486 65 85 131
-30.3011 -610.789 -1486 79 100 148
-27.1703 -610.361 -1485 92 111 154
-24.0763 -610.758 -1486 62 77 114
-20.9643 -610.745 -1486 47 53 73
-188.844 -613.394 -1476 71 70 85
-185.953 -614.114 -1478 107 120 158
-182.684 -613.59 -1477 94 118 168
-179.664 -613.899 -1478 89 116 168
-176.523 -613.794 -1478 86 115 172
-172.796 -611.615 -1473 86 112 170
-169.437 -610.684 -1471 81 107 166
-165.863 -608.925 -1467 74 104 165
-162.196 -606.753 -1462 71 101 164
-158.878 -605.829 -1460 67 97 161
-155.57 -604.906 -1458 59 89 152
-152.271 -603.986 -1456 55 85 148
-149.086 -603.483 -1455 67 98 162
-146.006 -603.396 -1455 66 93 154
-142.632 -602.067 -1452 74 100 158
-139.754 -602.814 -1454 76 101 156
-136.68 -602.732 -1454 61 87 140
-133.515 -602.239 -1453 45 69 123
-130.356 -601.747 -1452 51 74 127
-127.553 -602.914 -1455 49 69 125
-124.653 -603.669 -1457 50 70 127
-121.745 -604.425 -1459 51 71 129
-118.749 -604.769 -1460 60 80 137
-115.749 -605.114 -1461 61 82 139
-112.284 -602.977 -1456 56 80 137
-108.916 -601.256 -1452 55 79 136
-105.638 -599.951 -1449 57 80 138
-102.445 -599.062 -1447 65 86 146
-99.4678 -599.417 -1448 68 93 155
-96.4869 -599.773 -1449 66 93 154
-93.567 -600.545 -1451 66 93 154
-90.702 -601.733 -1454 59 85 145
-87.7046 -602.095 -1455 51 78 137
-84.8783 -603.699 -1459 54 81 138
-81.9799 -604.892 -1462 52 78 136
-79.0156 -605.672 -1464 51 77 135
-76.0955 -606.868 -1467 50 77 132
-73.0639 -607.238 -1468 51 77 134
-70.0288 -607.61 -1469 53 80 137
-67.0357 -608.397 -1471 54 78 132
-64.1651 -610.427 -1476 53 78 132
-61.1915 -611.631 -1479 53 78 132
-58.2058 -612.836 -1482 53 76 132
-55.208 -614.044 -1485 51 73 126
-52.198 -615.253 -1488 49 72 122
-49.176 -616.464 -1491 57 78 128
-46.0492 -616.436 -1491 54 75 127
-42.9804 -617.237 -1493 53 74 127
-39.8234 -616.799 -1492 55 75 120
-36.7203 -617.19 -1493 60 80 126
-33.5233 -615.93 -1490 63 84 131
-30.3799 -615.498 -1489 77 100 153
-27.241 -615.068 -1488 87 108 156
-24.1552 -615.879 -1490 60 78 120
-20.9483 -613.386 -1484 48 54 74
-188.7 -616.031 -1474 69 65 79
-186.063 -617.591 -1478 105 113 147
-182.297 -615.393 -1473 98 119 165
-179.649 -616.957 -1477 93 117 167
-176.507 -616.851 -1477 89 115 173
-173.133 -615.913 -1475 85 111 169
-169.537 -614.141 -1471 83 109 167
-166.413 -614.041 -1471 75 107 168
-162.624 -611.44 -1465 72 102 163
-159.189 -610.092 -1462 69 99 160
-155.555 -607.913 -1457 65 95 160
-152.466 -607.822 -1457 59 90 155
-148.968 -606.064 -1453 68 100 165
-145.991 -606.394 -1454 68 96 160
-142.716 -605.475 -1452 82 109 168
-139.836 -606.225 -1454 74 99 154
-136.76 -606.144 -1454 56 81 136
-133.502 -605.23 -1452 45 69 124
-130.612 -605.986 -1454 48 71 126
-127.715 -606.743 -1456 47 67 122
-124.555 -606.252 -1455 49 69 125
-121.65 -607.012 -1457 51 71 129
-118.656 -607.358 -1458 61 81 139
-115.659 -607.706 -1459 61 82 140
-112.35 -606.389 -1456 57 80 137
-108.98 -604.658 -1452 56 79 136
-105.701 -603.345 -1449 57 79 137
-102.506 -602.451 -1447 64 84 142
-99.4575 -602.392 -1447 67 92 153
-96.4768 -602.75 -1448 68 94 155
-93.6219 -603.943 -1451 68 95 156
-90.7552 -605.137 -1454 65 91 151
-87.8767 -606.333 -1457 61 87 146
-84.8698 -606.699 -1458 56 82 140
-82.028 -608.314 -1462 51 77 135
-79.116 -609.515 -1465 50 76 134
-76.192 -610.717 -1468 49 76 130
-73.1565 -611.089 -1469 53 78 135
-70.1653 -611.879 -1471 56 81 139
-67.2573 -613.502 -1475 55 80 136
-64.2897 -614.712 -1478 56 81 136
-61.2687 -615.506 -1480 55 80 135
-58.3185 -617.135 -1484 52 75 132
-55.3891 -619.181 -1489 53 76 129
-52.3339 -619.981 -1491 51 74 125
-49.2708 -620.782 -1493 51 72 122
-46.2307 -622.002 -1496 54 75 126
-43.0919 -621.975 -1496 54 75 127
-39.9536 -621.951 -1496 58 78 123
-36.7664 -621.097 -1494 63 84 130
-33.6329 -621.076 -1494 66 87 134
-30.4998 -621.058 -1494 82 105 156
-27.3852 -621.456 -1495 85 106 152
-24.3315 -623.52 -1500 59 77 117
-21.1018 -621.012 -1494 50 56 76
-188.812 -619.506 -1474 68 64 74
-186.3 -621.495 -1479 98 106 139
-182.777 -620.124 -1476 99 118 163
-179.756 -620.436 -1477 92 114 164
-176.493 -619.91 -1476 87 113 171
-173 -618.546 -1473 83 109 167
-169.753 -618.024 -1472 82 108 166
-166.399 -617.084 -1470 72 104 165
-162.832 -615.307 -1466 69 100 161
-159.393 -613.952 -1463 66 96 157
-155.86 -612.18 -1459 64 94 158
-152.452 -610.829 -1456 59 90 155
-149.159 -609.901 -1454 67 99 164
-145.977 -609.393 -1453 72 100 164
-142.998 -609.727 -1454 85 112 172
-140.015 -610.062 -1455 75 100 157
-137.124 -610.818 -1457 59 84 139
-133.857 -609.899 -1455 46 70 125
-130.69 -609.402 -1454 46 69 124
-127.703 -609.744 -1455 49 70 123
-124.8 -610.507 -1457 48 68 122
-121.722 -610.434 -1457 50 70 126
-118.807 -611.2 -1459 62 82 140
-115.727 -611.131 -1459 62 83 141
-112.494 -610.225 -1457 59 82 139
-109.195 -608.903 -1454 57 80 137
-105.982 -608.002 -1452 57 79 136
-102.708 -606.684 -1449 61 81 139
-99.7226 -607.043 -1450 66 91 150
-96.7339 -607.403 -1451 68 94 154
-93.8064 -608.184 -1453 69 95 155
-90.8713 -608.966 -1455 68 94 154
-88.0493 -610.587 -1459 65 91 151
-85.0365 -610.955 -1460 57 83 141
-82.1325 -612.16 -1463 52 78 136
-79.1086 -612.531 -1464 47 73 131
-76.185 -613.74 -1467 46 73 128
-73.1499 -614.114 -1468 53 79 135
-70.2544 -615.745 -1472 56 81 138
-67.2058 -616.123 -1473 57 82 139
-64.2406 -617.339 -1476 59 84 140
-61.3463 -619.393 -1481 57 82 137
-58.4315 -621.449 -1486 54 77 134
-55.3473 -621.833 -1487 56 79 132
-52.3296 -623.056 -1490 50 73 124
-49.2669 -623.862 -1492 48 69 121
-46.1651 -624.252 -1493 52 73 124
-43.0597 -624.644 -1494 55 76 126
-39.9505 -625.037 -1495 60 80 125
-36.8619 -625.851 -1497 63 84 131
-33.7428 -626.248 -1498 67 89 136
-30.6812 -627.901 -1502 87 110 160
-27.4746 -626.63 -1499 82 103 148
-24.4432 -629.541 -1506 55 73 112
-21.1 -624.093 -1493 0 0 0
-188.284 -620.873 -1469 68 62 71
-186.033 -623.719 -1476 91 99 131
-182.267 -621.496 -1471 101 118 163
-179.498 -622.655 -1474 92 113 162
-176.239 -622.125 -1473 89 114 172
-173.104 -622.021 -1473 86 111 169
-169.509 -620.229 -1469 81 107 165
-166.498 -620.55 -1470 71 103 164
-163.151 -619.607 -1468 69 100 161
-159.706 -618.245 -1465 66 96 157
-156.06 -616.04 -1460 62 92 155
-152.647 -614.682 -1457 53 84 149
-149.454 -614.17 -1456 54 86 151
-146.467 -614.503 -1457 57 85 149
-143.181 -613.573 -1455 64 90 151
-140.291 -614.331 -1457 71 96 153
-137.394 -615.092 -1459 75 100 154
-134.121 -614.167 -1457 59 83 138
-131.037 -614.088 -1457 55 78 133
-127.955 -614.011 -1457 56 77 130
-125.045 -614.778 -1459 48 69 122
-121.627 -613.019 -1455 48 69 123
-118.797 -614.211 -1458 60 81 138
-115.796 -614.562 -1459 62 83 140
-112.638 -614.073 -1458 60 83 140
-109.41 -613.164 -1456 59 82 137
-106.191 -612.258 -1454 57 80 136
-102.982 -611.353 -1452 58 81 136
-99.8507 -610.872 -1451 65 90 149
-96.7246 -610.392 -1450 68 93 153
-93.9913 -612.44 -1455 69 95 155
-90.8003 -611.543 -1453 67 93 153
-88.0412 -613.594 -1458 65 91 151
-84.9704 -613.543 -1458 61 87 145
-82.2375 -616.018 -1464 56 82 140
-79.2097 -616.391 -1465 47 73 131
-76.2822 -617.607 -1468 46 73 129
-73.3927 -619.245 -1472 52 77 135
-70.4393 -620.464 -1475 54 79 137
-67.3826 -620.844 -1476 57 82 139
-64.4529 -622.487 -1480 59 84 140
-61.507 -624.131 -1484 59 84 139
-58.4661 -624.937 -1486 59 82 139
-55.4546 -626.165 -1489 57 80 134
-52.3959 -626.974 -1491 49 72 123
-49.3291 -627.784 -1493 51 72 126
-46.2544 -628.597 -1495 52 73 124
-43.1429 -628.991 -1496 52 73 121
-40.081 -630.228 -1499 55 75 122
-36.9331 -630.205 -1499 62 84 130
-33.8305 -631.024 -1501 69 93 139
-30.7402 -632.266 -1504 86 109 158
-27.5642 -631.829 -1503 80 100 144
-24.4901 -633.915 -1508 56 73 110
-187.757 -622.223 -1464 0 0 0
-185.515 -625.085 -1471 89 96 125
-182.253 -624.549 -1470 103 120 163
-179.484 -625.714 -1473 89 111 160
-176.345 -625.607 -1473 88 113 171
-172.738 -623.803 -1469 85 112 169
-169.726 -624.124 -1470 83 109 166
-166.485 -623.598 -1469 70 102 162
-163.138 -622.65 -1467 70 101 161
-159.584 -620.855 -1463 69 99 159
-156.368 -620.336 -1462 62 92 155
-152.949 -618.97 -1459 56 86 150
-149.646 -618.03 -1457 54 85 149
-146.554 -617.941 -1457 53 80 143
-143.76 -619.126 -1460 56 82 142
-140.472 -618.192 -1458 64 89 145
-137.57 -618.957 -1460 68 93 148
-134.293 -618.027 -1458 57 81 136
-131.116 -617.523 -1457 58 81 136
-128.032 -617.446 -1457 54 76 130
-125.035 -617.793 -1458 49 70 125
-121.951 -617.719 -1458 51 71 126
-119.112 -618.918 -1461 61 81 139
-115.866 -618 -1459 61 82 140
-112.783 -617.931 -1459 58 81 138
-109.4 -616.171 -1455 58 81 136
-106.474 -616.953 -1457 54 77 132
-103.114 -615.196 -1453 56 79 135
-100.048 -615.135 -1453 62 87 146
-96.7825 -613.806 -1450 69 94 154
-93.9829 -615.442 -1454 73 98 156
-90.9796 -615.81 -1455 69 95 154
-87.9729 -616.18 -1456 68 94 152
-84.9629 -616.551 -1457 66 92 152
-82.1742 -618.616 -1462 61 87 147
-79.311 -620.261 -1466 51 77 137
-76.4317 -621.906 -1470 50 76 133
-73.4864 -623.13 -1473 51 77 136
-70.5769 -624.779 -1477 54 80 139
-67.4685 -624.738 -1477 58 83 141
-64.535 -626.39 -1481 58 83 139
-61.5023 -627.199 -1483 60 85 140
-58.501 -628.431 -1486 62 85 142
-55.4504 -629.243 -1488 56 79 133
-52.4623 -630.902 -1492 50 73 126
-49.2924 -630.449 -1491 52 72 128
-46.22 -631.266 -1493 55 75 127
-43.1686 -632.508 -1496 52 73 120
-40.0247 -632.483 -1496 50 70 117
-36.9797 -634.151 -1500 59 81 129
-33.8732 -634.975 -1502 66 89 137
-30.7789 -636.224 -1505 82 105 154
-27.5806 -635.361 -1503 77 97 139
-24.5048 -637.46 -1508 56 71 105
-185.88 -629.425 -1473 82 87 114
-182.611 -628.886 -1472 105 120 161
-179.593 -629.203 -1473 93 115 164
-176.212 -628.241 -1471 88 114 172
-173.078 -628.135 -1471 86 112 169
-169.829 -627.604 -1470 85 112 168
-166.586 -627.075 -1469 73 103 162
-163.126 -625.694 -1466 71 101 160
-160.007 -625.596 -1466 69 99 158
-156.784 -625.074 -1465 64 94 157
-153.251 -623.273 -1461 62 92 154
