ply
format ascii 1.0
comment Created by Open3D
element vertex 1380
property double x
property double y
property double z
property uchar red
property uchar green
property uchar blue
end_header
13.1102 11.2533 -1551 253 253 253
16.187 11.2534 -1551 253 253 253
19.264 11.2536 -1551 253 253 253
22.3267 11.2465 -1550 253 253 253
25.4347 11.2613 -1552 253 253 253
28.5326 11.2688 -1553 253 253 253
31.655 11.2836 -1555 253 253 253
34.7185 11.2767 -1554 253 253 253
37.8757 11.2988 -1557 253 253 253
40.9135 11.2847 -1555 253 253 253
43.9438 11.2706 -1553 253 253 253
46.9664 11.2565 -1551 253 253 253
50.046 11.257 -1551 253 253 253
53.0575 11.243 -1549 253 253 253
56.1702 11.2508 -1550 253 253 253
59.2873 11.2586 -1551 253 253 253
62.449 11.2737 -1553 253 253 253
65.6615 11.2961 -1556 253 253 253
68.7979 11.304 -1557 253 253 253
71.9851 11.3192 -1559 253 253 253
75.1808 11.3345 -1561 253 253 253
78.285 11.3352 -1561 253 253 253
81.546 11.3578 -1564 253 253 253
84.8195 11.3804 -1567 253 253 253
88.0496 11.3958 -1569 253 253 253
91.3465 11.4184 -1572 253 253 253
94.4759 11.4193 -1572 253 253 253
97.73 11.4348 -1574 253 253 253
100.929 11.4431 -1575 253 253 253
104.199 11.4586 -1577 253 253 253
107.409 11.4669 -1578 253 253 253
110.694 11.4825 -1580 253 253 253
114.061 11.5054 -1583 252 252 252
117.44 11.5283 -1586 254 254 254
120.832 11.5513 -1589 253 253 253
124.159 11.5672 -1591 253 253 251
127.335 11.5685 -1591 253 253 247
130.676 11.5843 -1593 253 254 247
133.858 11.5856 -1593 253 253 242
137.213 11.6014 -1595 253 253 239
140.489 11.6101 -1596 252 252 237
144.221 11.6551 -1602 252 253 228
147.517 11.6638 -1603 251 253 224
150.725 11.6653 -1603 249 252 220
154.126 11.6813 -1605 249 252 215
157.242 11.6755 -1604 249 252 214
160.455 11.6771 -1604 251 252 214
163.67 11.6787 -1604 251 252 215
167.094 11.695 -1606 251 252 217
170.209 11.6894 -1605 253 252 221
173.538 11.6983 -1606 253 252 223
176.652 11.6928 -1605 253 253 225
179.876 11.6945 -1605 253 251 230
183.101 11.6963 -1605 254 253 233
186.908 11.7345 -1610 254 254 236
190.5 11.7584 -1613 255 253 237
194.587 11.8113 -1620 249 243 227
198.337 11.8424 -1624 213 196 178
202.104 11.8735 -1628 212 186 167
205.133 11.8609 -1626 220 193 173
208.539 11.8704 -1627 224 192 172
211.822 11.8724 -1627 227 196 175
214.973 11.8672 -1626 225 195 173
218.391 11.8766 -1627 225 197 174
221.815 11.8863 -1628 225 197 174
225.244 11.8957 -1629 223 195 172
228.96 11.9198 -1632 223 193 175
232.406 11.9294 -1633 224 194 176
235.568 11.9245 -1632 223 193 175
238.582 11.9122 -1630 225 193 170
241.739 11.9072 -1629 224 192 169
244.893 11.9025 -1628 222 190 167
248.198 11.9049 -1628 223 191 167
251.505 11.9075 -1628 224 192 168
254.657 11.9026 -1627 222 190 165
257.966 11.9051 -1627 222 190 165
261.277 11.9078 -1627 222 190 165
264.753 11.9177 -1628 220 188 165
268.235 11.9278 -1629 217 187 162
271.557 11.9304 -1629 216 186 162
274.881 11.9332 -1629 214 184 161
278.036 11.9285 -1628 214 184 167
281.19 11.9241 -1627 213 183 166
284.167 11.9122 -1625 212 183 166
287.846 11.9298 -1627 214 181 165
290.998 11.9252 -1626 214 182 166
294.331 11.9283 -1626 214 181 165
298.031 11.946 -1628 214 181 162
301.557 11.9562 -1629 214 182 163
304.716 11.952 -1628 212 182 164
307.873 11.9476 -1627 214 181 162
311.028 11.9434 -1626 213 180 160
314.182 11.9393 -1625 212 180 159
317.529 11.9425 -1625 212 181 161
320.682 11.9382 -1624 214 183 162
324.433 11.9562 -1626 216 185 164
327.387 11.9448 -1624 218 187 167
330.54 11.9408 -1623 217 187 167
333.486 11.9295 -1621 217 188 167
336.842 11.9329 -1621 218 188 168
339.361 11.9069 -1617 219 188 169
343.351 11.9324 -1620 223 191 173
346.713 11.9357 -1620 224 191 173
349.863 11.9319 -1619 225 191 174
353.011 11.9281 -1618 226 192 174
356.378 11.9319 -1618 225 191 172
359.526 11.9281 -1617 226 192 172
362.898 11.9318 -1617 226 192 172
366.499 11.9428 -1618 226 193 173
370.336 11.9613 -1620 224 193 173
373.261 11.9503 -1618 222 193 173
377.113 11.9688 -1620 219 191 175
379.567 11.9433 -1616 218 190 173
383.666 11.9693 -1619 217 188 171
386.825 11.9658 -1618 214 186 168
390.706 11.9847 -1620 212 184 165
394.6 12.0034 -1622 207 181 163
398.26 12.0148 -1623 203 180 162
401.927 12.0264 -1624 200 175 155
405.103 12.023 -1623 196 171 150
408.53 12.0273 -1623 195 170 149
412.722 12.0536 -1626 191 164 142
416.162 12.0579 -1626 181 159 141
419.348 12.0549 -1625 175 154 136
423.575 12.0813 -1628 167 147 130
426.506 12.0709 -1626 159 140 123
429.432 12.0605 -1624 152 135 118
432.62 12.0576 -1623 142 126 111
435.539 12.047 -1621 130 115 109
436.558 11.9846 -1612 116 104 100
438.36 11.9445 -1606 95 84 80
-263.19 8.45572 -1589 216 207 180
-259.46 8.43792 -1586 236 230 192
-256.229 8.43591 -1586 233 230 176
-253.16 8.43943 -1587 227 225 168
-249.932 8.43766 -1587 227 226 166
-246.861 8.44123 -1588 222 221 165
-243.635 8.43931 -1588 214 212 161
-240.713 8.44823 -1590 204 205 157
-237.337 8.44123 -1589 207 207 160
-234.262 8.44488 -1590 217 217 171
-231.039 8.44304 -1590 225 225 183
-227.819 8.44142 -1590 228 228 187
-224.6 8.43983 -1590 220 220 180
-221.522 8.44356 -1591 215 215 173
-218.717 8.45773 -1594 218 218 175
-214.954 8.43497 -1590 221 221 175
-211.743 8.43347 -1590 221 221 174
-207.746 8.40016 -1584 222 223 174
-204.162 8.3828 -1581 232 233 184
-200.339 8.35486 -1576 234 234 187
-196.787 8.33736 -1573 240 241 203
-193.248 8.32008 -1570 244 245 211
-189.845 8.30812 -1568 249 248 221
-186.451 8.29619 -1566 252 252 226
-183.067 8.28429 -1564 252 252 228
-179.922 8.28301 -1564 253 252 233
-176.552 8.27115 -1562 254 253 235
-173.082 8.25384 -1559 255 254 239
-169.624 8.23674 -1556 254 254 242
-166.287 8.22496 -1554 253 254 246
-162.644 8.19733 -1549 253 253 249
-159.229 8.18032 -1546 253 253 249
-156.029 8.17391 -1545 253 253 251
-152.736 8.16223 -1543 253 253 252
-149.451 8.15058 -1541 253 253 253
-146.271 8.14424 -1540 253 253 253
-143.096 8.13792 -1539 253 253 253
-139.926 8.13163 -1538 253 253 253
-136.672 8.12007 -1536 253 253 253
-133.688 8.1244 -1537 253 253 253
-130.532 8.11817 -1536 253 253 253
-127.546 8.12235 -1537 253 253 253
-124.477 8.12146 -1537 253 253 253
-121.487 8.12587 -1538 253 253 253
-118.495 8.1303 -1539 253 253 253
-115.274 8.1189 -1537 253 253 253
-112.208 8.11809 -1537 253 253 253
-109.215 8.12258 -1538 253 253 253
-106.08 8.11653 -1537 253 253 253
-103.084 8.12107 -1538 253 253 253
-100.15 8.13091 -1540 253 253 253
-97.1452 8.13548 -1541 253 253 253
-94.0155 8.12952 -1540 253 253 253
-90.9497 8.12887 -1540 253 253 253
-87.8275 8.12295 -1539 253 253 253
-84.7651 8.12233 -1539 253 253 253
-81.7033 8.12174 -1539 253 253 253
-78.54 8.11062 -1537 253 253 253
-75.5326 8.11534 -1538 253 253 253
-72.4276 8.10954 -1537 253 253 253
-69.4175 8.11431 -1538 253 253 253
-66.4039 8.1191 -1539 253 253 253
-63.4691 8.13447 -1542 253 253 253
-60.4054 8.13402 -1542 253 253 253
-57.2679 8.12305 -1540 253 253 253
-54.1739 8.11738 -1539 253 253 253
-51.1176 8.11701 -1539 253 253 253
-48.0305 8.11138 -1538 253 253 253
-45.0354 8.1216 -1540 253 253 253
-41.951 8.11601 -1539 253 253 253
-38.9214 8.121 -1540 253 253 253
-35.8649 8.12073 -1540 253 253 253
-32.8087 8.12049 -1540 253 253 253
-29.7334 8.11499 -1539 253 253 253
-26.7143 8.12533 -1541 253 253 253
-23.6415 8.11988 -1540 253 253 253
-20.5861 8.11973 -1540 253 253 253
-17.5196 8.11432 -1539 253 253 253
-14.4759 8.11947 -1540 253 253 253
-11.421 8.11938 -1540 253 253 253
-8.36076 8.11404 -1539 253 253 253
-5.31143 8.11926 -1540 253 253 253
-2.25672 8.11924 -1540 253 253 253
0.798498 8.1245 -1541 253 253 253
3.85769 8.12979 -1542 253 253 253
6.92985 8.14565 -1545 253 253 253
10.001 8.15098 -1546 253 253 253
13.0847 8.16161 -1548 253 253 253
16.1764 8.17226 -1550 253 253 253
19.2514 8.17239 -1550 253 253 253
22.3121 8.16726 -1549 253 253 253
25.4017 8.17271 -1550 253 253 253
28.4772 8.1729 -1550 253 253 253
31.5529 8.17311 -1550 253 253 253
34.6289 8.17335 -1550 253 253 253
37.7294 8.17888 -1551 253 253 253
40.7816 8.17389 -1550 253 253 253
43.8302 8.16892 -1549 253 253 253
46.8449 8.1587 -1547 253 253 253
49.9488 8.16432 -1548 253 253 253
53.0228 8.16468 -1548 253 253 253
56.0972 8.16507 -1548 253 253 253
59.2103 8.17076 -1549 253 253 253
62.4083 8.18702 -1552 253 253 253
65.5343 8.19275 -1553 253 253 253
68.709 8.20378 -1555 253 253 253
71.9383 8.22011 -1558 253 253 253
75.0839 8.22592 -1559 253 253 253
78.2342 8.23174 -1560 253 253 253
81.4932 8.24814 -1563 253 253 253
84.7647 8.26456 -1566 253 253 253
87.9928 8.27574 -1568 253 253 253
91.2876 8.29221 -1571 253 253 253
94.4751 8.29815 -1572 253 253 253
97.6671 8.30412 -1573 253 253 253
100.864 8.3101 -1574 253 253 253
104.132 8.32139 -1576 253 253 253
107.272 8.32215 -1576 253 253 253
110.693 8.34405 -1580 253 253 252
113.988 8.35541 -1582 252 252 250
117.365 8.37208 -1585 254 254 254
120.831 8.39406 -1589 253 253 252
124.236 8.41078 -1592 253 253 249
127.334 8.40639 -1591 252 252 244
130.757 8.42316 -1594 252 253 243
134.025 8.42939 -1595 252 251 235
137.298 8.43583 -1596 252 252 233
140.664 8.4474 -1598 252 252 232
144.13 8.46427 -1601 252 252 222
147.7 8.48645 -1605 251 252 219
150.912 8.48752 -1605 251 252 216
154.317 8.49918 -1607 250 252 209
157.437 8.495 -1606 250 251 208
160.654 8.49613 -1606 249 250 206
163.668 8.4867 -1604 249 249 209
167.093 8.49845 -1606 250 250 212
170.208 8.49436 -1605 251 251 214
173.429 8.49558 -1605 252 251 216
176.651 8.49682 -1605 253 251 218
179.875 8.49829 -1605 254 253 227
183.214 8.50487 -1606 253 252 226
187.023 8.53266 -1611 253 253 228
190.971 8.56578 -1617 255 253 228
194.826 8.59364 -1622 232 224 199
198.58 8.61623 -1626 196 175 151
202.475 8.64414 -1631 203 176 151
205.51 8.63499 -1629 213 184 158
208.794 8.63665 -1629 215 183 158
212.08 8.63814 -1629 219 187 161
215.368 8.63966 -1629 218 187 160
218.523 8.63589 -1628 215 187 160
221.813 8.63744 -1628 215 187 160
225.657 8.66045 -1632 215 187 160
228.958 8.66206 -1632 215 185 162
232.404 8.66899 -1633 217 186 164
235.422 8.66003 -1631 217 186 164
238.727 8.6617 -1631 218 186 163
241.885 8.65828 -1630 216 184 161
245.192 8.66 -1630 215 183 160
248.501 8.66174 -1630 215 183 159
251.966 8.66882 -1631 214 182 158
254.968 8.66018 -1629 213 181 156
258.281 8.66199 -1629 214 182 155
261.757 8.66914 -1630 214 182 156
265.238 8.67651 -1631 212 180 156
268.727 8.68371 -1632 209 178 153
272.054 8.68561 -1632 208 178 153
275.385 8.68774 -1632 207 177 153
278.375 8.67904 -1630 206 176 158
281.533 8.67568 -1629 205 175 158
284.689 8.67254 -1628 203 174 157
288.374 8.68521 -1630 203 172 156
291.354 8.67679 -1628 203 172 155
294.69 8.67884 -1628 201 171 154
298.395 8.69179 -1630 205 172 157
301.925 8.69922 -1631 203 170 155
305.275 8.70155 -1631 201 171 155
308.248 8.69303 -1629 203 171 154
311.216 8.68473 -1627 202 169 153
314.566 8.68692 -1627 202 169 152
317.722 8.68399 -1626 199 172 152
321.272 8.69157 -1627 200 174 153
324.829 8.69937 -1628 202 175 151
327.788 8.69096 -1626 203 174 151
330.741 8.68277 -1624 204 176 153
333.895 8.67994 -1623 207 178 157
336.839 8.67159 -1621 210 180 161
339.778 8.66345 -1619 207 177 158
343.772 8.68209 -1622 208 178 159
347.352 8.68985 -1623 210 177 159
350.292 8.68178 -1621 211 178 161
353.662 8.68443 -1621 211 178 162
356.816 8.68154 -1620 212 178 156
359.968 8.67888 -1619 212 178 156
363.343 8.68159 -1619 213 179 157
366.495 8.67897 -1618 211 179 156
370.332 8.69246 -1620 208 178 155
373.258 8.68451 -1618 207 176 154
376.644 8.68712 -1618 207 174 156
379.329 8.67383 -1615 206 176 157
382.952 8.68205 -1616 206 175 156
386.104 8.67954 -1615 204 171 153
390.221 8.69856 -1618 198 168 149
394.84 8.72837 -1623 192 166 149
399.238 8.75284 -1627 189 165 150
403.161 8.76658 -1629 182 155 140
406.597 8.76958 -1629 173 146 131
410.288 8.7782 -1630 170 143 127
413.734 8.78125 -1630 162 136 118
416.159 8.76276 -1626 144 129 117
419.861 8.77125 -1627 136 122 110
424.351 8.79593 -1631 130 117 106
427.026 8.78309 -1628 122 110 99
431.279 8.80245 -1631 113 101 92
436.348 8.83803 -1637 102 91 83
439.297 8.83045 -1635 73 65 63
-264.182 5.29545 -1595 180 170 149
-260.604 5.28765 -1593 224 217 182
-257.036 5.27987 -1591 224 221 170
-253.957 5.28206 -1592 219 216 163
-250.718 5.28094 -1592 216 214 159
-247.637 5.28296 -1593 214 212 161
-244.093 5.27524 -1591 208 206 158
-241.014 5.27748 -1592 198 198 158
-237.784 5.27642 -1592 189 189 150
-234.555 5.27538 -1592 195 194 157
-231.474 5.27766 -1593 204 203 167
-228.391 5.27995 -1594 199 198 163
-225.446 5.28538 -1596 184 183 146
-222.495 5.291 -1598 184 183 145
-219.264 5.29002 -1598 190 189 150
-215.494 5.27582 -1594 199 198 156
-212.008 5.26825 -1592 207 207 164
-208.007 5.24746 -1586 212 212 166
-204.29 5.23332 -1582 221 221 175
-200.337 5.21257 -1576 225 225 178
-196.91 5.20488 -1574 237 238 199
-193.493 5.1974 -1572 243 244 208
-190.086 5.18993 -1570 248 247 218
-186.569 5.17918 -1567 251 250 223
-183.182 5.17175 -1565 252 252 228
-179.921 5.16764 -1564 252 252 233
-176.438 5.15693 -1561 254 254 236
-172.969 5.14624 -1558 255 254 237
-169.623 5.13888 -1556 254 254 240
-166.179 5.12822 -1553 253 254 244
-162.643 5.11428 -1549 253 254 247
-159.331 5.10696 -1547 253 254 247
-156.028 5.09965 -1545 253 253 250
-152.735 5.09236 -1543 253 253 251
-149.45 5.08509 -1541 253 253 253
-146.27 5.08113 -1540 253 253 253
-143.095 5.077 -1539 253 253 253
-139.925 5.07307 -1538 253 253 253
-136.849 5.07245 -1538 253 253 253
-133.775 5.07185 -1538 253 253 253
-130.701 5.07126 -1538 253 253 253
-127.545 5.06738 -1537 253 253 253
-124.476 5.06682 -1537 253 253 253
-121.486 5.06957 -1538 253 253 253
-118.34 5.06574 -1537 253 253 253
-115.198 5.06192 -1536 253 253 253
-112.135 5.06141 -1536 253 253 253
-109.072 5.06091 -1536 253 253 253
-105.941 5.05714 -1535 253 253 253
-103.016 5.06326 -1537 253 253 253
-100.084 5.06939 -1539 253 253 253
-97.0186 5.06895 -1539 253 253 253
-93.9539 5.06853 -1539 253 253 253
-90.8901 5.06811 -1539 253 253 253
-87.7699 5.06442 -1538 253 253 253
-84.6544 5.06074 -1537 253 253 253
-81.5966 5.06037 -1537 253 253 253
-78.4884 5.05672 -1536 253 253 253
-75.3848 5.05308 -1535 253 253 253
-72.333 5.05275 -1535 253 253 253
-69.3268 5.05573 -1536 253 253 253
-66.3171 5.05871 -1537 253 253 253
-63.3864 5.0683 -1540 253 253 253
-60.2875 5.06473 -1539 253 253 253
-57.2304 5.06447 -1539 253 253 253
-54.1384 5.06093 -1538 253 253 253
-51.0841 5.06069 -1538 253 253 253
-48.0302 5.06047 -1538 253 253 253
-45.0644 5.07013 -1541 253 253 253
-41.978 5.06665 -1540 253 253 253
-38.9212 5.06647 -1540 253 253 253
-35.888 5.06959 -1541 253 253 253
-32.8298 5.06943 -1541 253 253 253
-29.7332 5.06271 -1539 253 253 253
-26.6795 5.06259 -1539 253 253 253
-23.626 5.06248 -1539 253 253 253
-20.5459 5.0558 -1537 253 253 253
-17.4967 5.05571 -1537 253 253 253
-14.4476 5.05564 -1537 253 253 253
-11.4135 5.06216 -1539 253 253 253
-8.35528 5.05883 -1538 253 253 253
-5.3114 5.06538 -1540 253 253 253
-2.2567 5.06536 -1540 253 253 253
0.798493 5.06865 -1541 253 253 253
3.85766 5.07195 -1542 253 253 253
6.92532 5.07855 -1544 253 253 253
9.9945 5.08188 -1545 253 253 253
13.0762 5.08851 -1547 253 253 253
16.1555 5.09186 -1548 253 253 253
19.2388 5.09523 -1549 253 253 253
22.2831 5.08875 -1547 253 253 253
25.3688 5.09214 -1548 253 253 253
28.4403 5.09226 -1548 253 253 253
31.4917 5.08911 -1547 253 253 253
34.584 5.09255 -1548 253 253 253
37.6806 5.096 -1549 253 253 253
40.7025 5.0896 -1547 253 253 253
43.7451 5.08649 -1546 253 253 253
46.784 5.08341 -1545 253 253 253
49.8517 5.08362 -1545 253 253 253
52.954 5.08715 -1546 253 253 253
56.0607 5.09068 -1547 253 253 253
59.21 5.09752 -1549 253 253 253
62.3677 5.10438 -1551 253 253 253
65.4917 5.10795 -1552 253 253 253
68.6644 5.11484 -1554 253 253 253
71.8456 5.12174 -1556 253 253 253
75.0354 5.12865 -1558 253 253 253
78.1836 5.13228 -1559 253 253 253
81.4927 5.14581 -1563 253 253 253
84.7101 5.15277 -1565 253 253 253
87.88 5.15645 -1566 253 253 253
91.229 5.17002 -1570 253 253 253
94.3542 5.17044 -1570 253 253 253
97.5424 5.17416 -1571 253 253 253
100.735 5.1779 -1572 253 253 253
103.999 5.18494 -1574 253 253 253
107.271 5.192 -1576 253 253 253
110.623 5.20238 -1579 253 253 251
113.987 5.21276 -1582 253 253 251
117.438 5.22646 -1586 254 254 253
120.83 5.23688 -1589 252 252 250
124.235 5.24732 -1592 252 252 247
127.573 5.25447 -1594 250 251 239
130.838 5.25835 -1595 250 251 237
134.108 5.26224 -1596 253 253 230
137.469 5.26944 -1598 251 252 227
140.663 5.27006 -1598 252 253 227
144.129 5.28059 -1601 251 252 217
147.791 5.29773 -1606 247 248 212
150.911 5.2951 -1605 247 248 208
154.316 5.30258 -1607 246 248 202
157.338 5.29667 -1605 243 245 198
160.653 5.30068 -1606 240 242 194
163.668 5.29481 -1604 242 242 199
166.988 5.29884 -1605 248 248 206
170.207 5.2996 -1605 251 251 209
173.428 5.30036 -1605 252 250 209
176.65 5.30114 -1605 251 248 208
179.985 5.30524 -1606 254 254 220
183.441 5.31266 -1608 251 252 218
187.254 5.33 -1613 252 253 219
191.324 5.35398 -1620 255 253 219
195.305 5.37467 -1626 203 194 162
198.945 5.38547 -1629 183 163 133
202.474 5.39297 -1631 197 169 142
205.761 5.39408 -1631 204 175 148
208.921 5.39169 -1630 203 174 149
212.209 5.39263 -1630 206 177 151
215.631 5.39689 -1631 207 178 151
219.059 5.40116 -1632 205 178 152
222.22 5.39883 -1631 206 178 152
225.932 5.40976 -1634 207 179 152
229.097 5.40746 -1633 207 178 154
232.402 5.40848 -1633 208 178 155
235.42 5.40309 -1631 210 179 157
238.872 5.40746 -1632 207 176 156
242.18 5.40852 -1632 205 174 154
245.642 5.41292 -1633 204 174 153
248.957 5.41402 -1633 205 174 153
252.273 5.41513 -1633 204 174 152
255.279 5.40982 -1631 202 172 148
258.596 5.41095 -1631 204 174 150
261.915 5.41211 -1631 204 174 151
265.562 5.41991 -1633 202 172 150
269.054 5.42441 -1634 199 170 149
272.22 5.42249 -1633 199 170 148
275.552 5.4237 -1633 199 171 148
278.544 5.41828 -1631 195 165 149
281.877 5.41951 -1631 191 162 146
285.037 5.41764 -1630 188 162 145
288.549 5.42223 -1631 187 158 142
291.889 5.42351 -1631 185 156 141
294.869 5.41815 -1629 186 157 142
298.759 5.42964 -1632 185 158 145
302.108 5.43097 -1632 184 157 145
305.273 5.42897 -1631 182 157 145
308.436 5.427 -1630 182 155 142
311.406 5.4219 -1628 180 155 141
314.951 5.42661 -1629 181 157 143
318.502 5.43133 -1630 183 160 145
321.863 5.43294 -1630 185 162 145
325.426 5.4377 -1631 186 163 142
328.592 5.436 -1630 188 163 143
331.961 5.43745 -1630 190 164 145
334.921 5.43224 -1628 192 164 146
338.499 5.43725 -1629 196 167 149
341.665 5.43541 -1628 196 167 149
345.041 5.43711 -1628 197 168 150
348.42 5.43863 -1628 197 167 149
351.154 5.43034 -1625 196 167 149
354.751 5.43523 -1626 195 165 148
358.135 5.43679 -1626 201 169 147
361.077 5.43187 -1624 199 167 146
364.239 5.43011 -1623 197 166 144
367.626 5.43191 -1623 196 165 143
370.559 5.42683 -1621 192 162 141
373.486 5.42196 -1619 189 160 138
376.642 5.42045 -1618 188 158 139
379.326 5.41204 -1615 184 156 138
382.949 5.41726 -1616 182 155 137
386.58 5.42229 -1617 177 150 134
391.183 5.44095 -1622 171 145 132
396.054 5.463 -1628 162 140 128
400.462 5.47816 -1632 157 137 126
433.844 5.56783 -1654 96 87 84
-261.257 2.10566 -1597 197 191 166
-257.358 2.09992 -1593 208 204 166
-254.275 2.10077 -1594 203 200 159
-251.19 2.10144 -1595 196 193 149
-248.569 2.10626 -1599 191 189 148
-244.553 2.09923 -1594 184 181 143
-241.619 2.10142 -1596 174 175 145
-238.53 2.10231 -1597 171 171 142
-235.291 2.10188 -1597 161 159 133
-231.764 2.09882 -1595 157 154 129
-228.676 2.09972 -1596 170 167 141
-225.728 2.10194 -1598 178 175 142
-222.355 2.10022 -1597 179 177 143
-219.675 2.10508 -1601 184 181 147
-216.169 2.10206 -1599 193 191 155
-212.673 2.09904 -1597 196 194 158
-208.269 2.08683 -1588 202 202 163
-204.806 2.08383 -1586 212 212 171
-200.718 2.07426 -1579 217 217 173
-197.535 2.0739 -1579 235 236 196
-193.739 2.06698 -1574 243 243 205
-190.448 2.06532 -1573 247 246 217
-186.568 2.05691 -1567 250 250 222
-183.065 2.05264 -1564 252 252 228
-179.575 2.04837 -1561 251 253 233
-176.325 2.04674 -1560 253 255 236
-172.747 2.04117 -1556 255 254 236
-169.405 2.03824 -1554 254 254 238
-166.072 2.03531 -1552 253 254 242
-162.643 2.03108 -1549 253 254 245
-159.228 2.02685 -1546 253 254 246
-155.927 2.02394 -1544 253 253 249
-152.635 2.02104 -1542 253 253 251
-149.45 2.01946 -1541 253 253 253
-146.174 2.01657 -1539 253 253 253
-143.002 2.01499 -1538 253 253 253
-139.743 2.01212 -1536 253 253 253
-136.582 2.01055 -1535 253 253 253
-133.513 2.01031 -1535 253 253 253
-130.531 2.01138 -1536 253 253 253
-127.462 2.01114 -1536 253 253 253
-124.395 2.01091 -1536 253 253 253
-121.407 2.012 -1537 253 253 253
-118.186 2.00916 -1535 253 253 253
-115.123 2.00895 -1535 253 253 253
-112.061 2.00874 -1535 253 253 253
-109.143 2.01116 -1537 253 253 253
-106.01 2.00965 -1536 253 253 253
-103.016 2.01077 -1537 253 253 253
-100.084 2.0132 -1539 253 253 253
-96.9552 2.01172 -1538 253 253 253
-93.8926 2.01154 -1538 253 253 253
-90.8308 2.01137 -1538 253 253 253
-87.7126 2.0099 -1537 253 253 253
-84.5991 2.00844 -1536 253 253 253
-81.5964 2.00959 -1537 253 253 253
-78.4371 2.00683 -1535 253 253 253
-75.3846 2.00669 -1535 253 253 253
-72.3327 2.00656 -1535 253 253 253
-69.2814 2.00643 -1535 253 253 253
-66.2738 2.00761 -1536 253 253 253
-63.2627 2.0088 -1537 253 253 253
-60.2482 2.01 -1538 253 253 253
-57.193 2.00989 -1538 253 253 253
-54.1382 2.00979 -1538 253 253 253
-51.1172 2.011 -1539 253 253 253
-48.0925 2.01221 -1540 253 253 253
-45.0935 2.01474 -1542 253 253 253
-42.0051 2.01336 -1541 253 253 253
-38.9463 2.01328 -1541 253 253 253
-35.8646 2.01191 -1540 253 253 253
-32.8297 2.01315 -1541 253 253 253
-29.7331 2.01048 -1539 253 253 253
-26.6967 2.01174 -1540 253 253 253
-23.6412 2.01169 -1540 253 253 253
-20.5592 2.00904 -1538 253 253 253
-17.4966 2.0077 -1537 253 253 253
-14.4476 2.00767 -1537 253 253 253
-11.4061 2.00895 -1538 253 253 253
-8.34982 2.00763 -1537 253 253 253
-5.30794 2.01023 -1539 253 253 253
-2.25523 2.01022 -1539 253 253 253
0.797973 2.01152 -1540 253 253 253
3.85265 2.01153 -1540 253 253 253
6.91184 2.01284 -1541 253 253 253
9.96212 2.01155 -1540 253 253 253
13.0423 2.01549 -1543 253 253 253
16.1241 2.01813 -1545 253 253 253
19.2015 2.01947 -1546 253 253 253
22.2975 2.02212 -1548 253 253 253
25.3687 2.02217 -1548 253 253 253
28.4218 2.02091 -1547 253 253 253
31.4712 2.01966 -1546 253 253 253
34.5169 2.01841 -1545 253 253 253
37.5588 2.01717 -1544 253 253 253
40.6234 2.01724 -1544 253 253 253
43.6317 2.01471 -1542 253 253 253
46.693 2.01479 -1542 253 253 253
49.7547 2.01488 -1542 253 253 253
52.8853 2.01758 -1544 253 253 253
56.0242 2.0203 -1546 253 253 253
59.1716 2.02302 -1548 253 253 253
62.3675 2.02705 -1551 253 253 253
65.4915 2.02847 -1552 253 253 253
68.62 2.0299 -1553 253 253 253
71.7992 2.03264 -1555 253 253 253
75.035 2.0367 -1558 253 253 253
78.133 2.03684 -1558 253 253 253
81.3881 2.04091 -1561 253 253 253
84.6016 2.04367 -1563 253 253 253
87.8798 2.04775 -1566 253 253 253
91.1706 2.05184 -1569 253 253 253
94.2939 2.05201 -1569 253 253 253
97.6041 2.05611 -1572 253 253 253
100.735 2.05629 -1572 253 253 253
103.998 2.05909 -1574 253 253 253
107.203 2.06059 -1575 253 253 253
110.552 2.06472 -1578 252 252 251
113.915 2.06885 -1581 253 253 251
117.364 2.07429 -1585 254 254 252
120.83 2.07975 -1589 253 253 250
124.079 2.08128 -1590 252 253 246
127.493 2.08543 -1593 250 252 235
130.92 2.0896 -1596 251 253 233
134.36 2.09377 -1599 250 253 221
137.469 2.09271 -1598 248 251 219
140.839 2.09558 -1600 246 249 216
144.308 2.09977 -1603 246 247 209
147.791 2.10396 -1606 244 245 205
150.91 2.10293 -1605 240 240 198
154.315 2.10582 -1607 233 234 185
157.337 2.10349 -1605 231 232 183
160.653 2.10509 -1606 233 234 186
163.667 2.10276 -1604 242 242 196
166.987 2.10437 -1605 250 250 204
170.313 2.10599 -1606 251 252 202
173.643 2.10761 -1607 251 250 202
176.869 2.10793 -1607 254 252 203
180.321 2.11088 -1609 248 249 207
183.896 2.11515 -1612 250 251 209
187.601 2.12073 -1616 253 254 212
191.56 2.12895 -1622 246 240 197
195.544 2.13738 -1628 177 167 128
199.555 2.14561 -1634 178 159 128
202.597 2.14335 -1632 186 161 134
206.391 2.14898 -1636 191 165 139
209.305 2.14541 -1633 191 165 143
212.469 2.14448 -1632 190 164 141
215.63 2.14356 -1631 187 161 138
219.193 2.14658 -1633 189 165 143
222.492 2.14698 -1633 191 166 143
225.793 2.14738 -1633 192 166 142
229.096 2.1478 -1633 194 166 144
232.401 2.14821 -1633 192 163 143
235.564 2.14732 -1632 193 163 144
238.871 2.14775 -1632 191 162 145
242.328 2.1495 -1633 189 160 143
246.092 2.15389 -1636 189 160 143
249.413 2.15434 -1636 189 161 142
252.89 2.15611 -1637 188 159 139
255.748 2.15262 -1634 184 157 135
258.913 2.15197 -1633 184 156 137
262.236 2.15244 -1633 183 154 136
265.724 2.15423 -1634 181 152 136
269.548 2.15867 -1637 180 152 135
272.885 2.15916 -1637 179 151 134
276.226 2.15965 -1637 176 150 133
279.056 2.1562 -1634 173 146 132
282.222 2.15538 -1633 167 142 127
285.561 2.15589 -1633 165 142 126
289.256 2.15905 -1635 165 139 124
292.425 2.15825 -1634 163 137 123
295.411 2.15634 -1632 159 133 120
299.307 2.16084 -1635 150 130 122
303.033 2.16403 -1637 151 131 123
305.833 2.16061 -1634 150 132 125
309.192 2.16116 -1634 150 132 123
312.935 2.16436 -1636 150 133 124
315.723 2.16096 -1633 149 133 124
319.087 2.16153 -1633 152 135 124
322.651 2.16363 -1634 155 137 125
326.422 2.16686 -1636 158 139 123
330.002 2.16877 -1637 162 140 126
332.775 2.16539 -1634 164 141 126
335.743 2.16334 -1632 168 143 129
338.706 2.16129 -1630 171 147 129
341.664 2.15925 -1628 172 146 129
344.828 2.15874 -1627 174 147 131
348.419 2.16068 -1628 176 149 133
351.801 2.16131 -1628 178 151 135
355.404 2.16327 -1629 180 153 137
359.015 2.16524 -1630 182 154 136
362.41 2.16608 -1630 181 153 134
365.36 2.16407 -1628 178 150 132
368.757 2.16473 -1628 175 148 129
371.472 2.1614 -1625 171 145 126
373.947 2.15674 -1621 167 141 123
376.64 2.15362 -1618 160 136 120
382.711 2.15098 -1615 147 126 112
387.057 2.15699 -1619 139 119 108
391.905 2.16588 -1625 133 114 106
-258.327 -1.09095 -1599 180 177 152
-255.232 -1.09142 -1600 166 163 137
-251.977 -1.09121 -1600 150 149 119
-248.724 -1.09101 -1600 139 136 109
-244.86 -1.08808 -1596 131 128 103
-228.819 -1.0876 -1597 141 136 119
-225.304 -1.08605 -1595 161 157 133
-222.355 -1.08723 -1597 169 165 141
-219.812 -1.09046 -1602 173 170 145
-216.304 -1.08892 -1600 175 171 146
-212.806 -1.08738 -1598 183 179 153
-209.056 -1.08449 -1594 192 191 159
-205.064 -1.08023 -1588 201 200 166
-201.099 -1.07599 -1582 209 209 170
-197.786 -1.07514 -1581 234 234 195
-194.108 -1.07226 -1577 243 243 205
-190.327 -1.06871 -1572 246 245 215
-186.687 -1.06583 -1568 250 249 221
-183.065 -1.06296 -1564 251 251 226
-179.46 -1.06009 -1560 250 252 231
-176.099 -1.05859 -1558 252 254 234
-172.636 -1.05641 -1555 254 253 234
-169.404 -1.05559 -1554 254 254 237
-166.179 -1.05477 -1553 253 254 241
-162.643 -1.05192 -1549 253 254 244
-159.228 -1.04975 -1546 253 254 245
-156.028 -1.04894 -1545 253 253 249
-152.635 -1.04678 -1542 253 253 251
-149.353 -1.04529 -1540 253 253 253
-146.079 -1.04382 -1538 253 253 253
-142.909 -1.04302 -1537 253 253 253
-139.652 -1.04154 -1535 253 253 253
-136.671 -1.04211 -1536 253 253 253
-133.426 -1.04064 -1534 253 253 253
-130.531 -1.04189 -1536 253 253 253
-127.379 -1.0411 -1535 253 253 253
-124.314 -1.041 -1535 253 253 253
-121.17 -1.04022 -1534 253 253 253
-118.032 -1.03944 -1533 253 253 253
-114.898 -1.03867 -1532 253 253 253
-111.915 -1.03925 -1533 253 253 253
-108.93 -1.03984 -1534 253 253 253
-105.803 -1.03907 -1533 253 253 253
-102.748 -1.03899 -1533 253 253 253
-99.8234 -1.04026 -1535 253 253 253
-96.766 -1.04018 -1535 253 253 253
-93.7094 -1.0401 -1535 253 253 253
-90.6536 -1.04002 -1535 253 253 253
-87.5984 -1.03995 -1535 253 253 253
-84.599 -1.04056 -1536 253 253 253
-81.4902 -1.03981 -1535 253 253 253
-78.3348 -1.03839 -1533 253 253 253
-75.3354 -1.039 -1534 253 253 253
-72.3327 -1.03962 -1535 253 253 253
-69.2363 -1.03888 -1534 253 253 253
-66.1875 -1.03883 -1534 253 253 253
-63.2215 -1.04013 -1536 253 253 253
-60.0915 -1.03872 -1534 253 253 253
-57.1186 -1.04003 -1536 253 253 253
-54.1382 -1.04134 -1538 253 253 253
-51.0839 -1.04129 -1538 253 253 253
-48.0925 -1.04261 -1540 253 253 253
-45.0935 -1.04392 -1542 253 253 253
-42.0051 -1.04321 -1541 253 253 253
-38.9211 -1.0425 -1540 253 253 253
-35.8879 -1.04314 -1541 253 253 253
-32.8084 -1.04244 -1540 253 253 253
-29.7524 -1.04241 -1540 253 253 253
-26.6794 -1.04171 -1539 253 253 253
-23.6259 -1.04169 -1539 253 253 253
-20.5458 -1.04032 -1537 253 253 253
-17.4966 -1.0403 -1537 253 253 253
-14.4382 -1.03961 -1536 253 253 253
-11.4061 -1.04096 -1538 253 253 253
-8.34981 -1.04027 -1537 253 253 253
-5.31138 -1.0423 -1540 253 253 253
-2.25523 -1.04162 -1539 253 253 253
0.797454 -1.04162 -1539 253 253 253
3.85015 -1.04162 -1539 253 253 253
6.90287 -1.04162 -1539 253 253 253
9.94918 -1.04095 -1538 253 253 253
13.017 -1.04232 -1540 253 253 253
16.0928 -1.04368 -1542 253 253 253
19.1642 -1.04437 -1543 253 253 253
22.2398 -1.04507 -1544 253 253 253
25.2868 -1.04441 -1543 253 253 253
28.3483 -1.04443 -1543 253 253 253
31.3898 -1.04378 -1542 253 253 253
34.4498 -1.04381 -1542 253 253 253
37.5101 -1.04384 -1542 253 253 253
40.5708 -1.04387 -1542 253 253 253
43.6034 -1.04323 -1541 253 253 253
46.6627 -1.04327 -1541 253 253 253
49.6902 -1.04263 -1540 253 253 253
52.851 -1.0447 -1543 253 253 253
55.9517 -1.04543 -1544 253 253 253
59.0951 -1.04683 -1546 253 253 253
62.2871 -1.04891 -1549 253 253 253
65.4493 -1.05032 -1551 253 253 253
68.5758 -1.05105 -1552 253 253 253
71.753 -1.05246 -1554 253 253 253
74.8905 -1.0532 -1555 253 253 253
78.083 -1.05462 -1557 253 253 253
81.2838 -1.05604 -1559 253 253 253
84.4933 -1.05746 -1561 253 253 253
87.7675 -1.05957 -1564 253 253 253
91.1124 -1.06235 -1568 253 253 253
94.2338 -1.06243 -1568 253 253 253
97.542 -1.06454 -1571 253 253 253
100.735 -1.0653 -1572 253 253 253
103.932 -1.06606 -1573 253 253 253
107.203 -1.0675 -1575 253 253 253
110.622 -1.0703 -1579 253 253 252
113.987 -1.07243 -1582 254 254 252
117.364 -1.07456 -1585 253 253 251
120.906 -1.07805 -1590 253 253 249
124.157 -1.07883 -1591 252 253 243
127.653 -1.08164 -1595 251 253 232
131.002 -1.08311 -1597 252 254 229
134.528 -1.08593 -1601 249 251 215
137.641 -1.08536 -1600 246 248 211
141.015 -1.08684 -1602 244 245 208
144.398 -1.08831 -1604 237 238 198
147.883 -1.09047 -1607 230 230 189
151.098 -1.09059 -1607 226 226 183
154.507 -1.09207 -1609 224 225 176
157.631 -1.09152 -1608 225 226 177
160.852 -1.09165 -1608 232 232 185
163.871 -1.09043 -1606 240 241 192
167.091 -1.09057 -1606 246 247 197
170.312 -1.09071 -1606 249 250 196
173.535 -1.09085 -1606 250 249 196
176.979 -1.09235 -1608 253 251 197
180.433 -1.09386 -1610 247 249 201
184.01 -1.09604 -1613 251 252 206
188.066 -1.10095 -1620 250 251 208
192.032 -1.10519 -1626 207 200 162
195.905 -1.10875 -1631 154 145 110
199.432 -1.11027 -1633 162 147 121
202.846 -1.11111 -1634 165 145 124
206.391 -1.11264 -1636 167 147 128
209.305 -1.11077 -1633 167 148 133
212.729 -1.11162 -1634 164 145 129
216.027 -1.1118 -1634 163 144 128
219.327 -1.11198 -1634 163 146 131
222.764 -1.11284 -1635 163 144 128
226.07 -1.11302 -1635 163 144 127
229.237 -1.11253 -1634 166 145 131
232.401 -1.11204 -1633 165 143 130
235.42 -1.11106 -1631 163 141 129
238.578 -1.11058 -1630 160 140 130
242.476 -1.1135 -1634 161 140 130
246.393 -1.11642 -1638 160 140 129
249.718 -1.11663 -1638 157 137 124
253.199 -1.11751 -1639 154 134 121
256.218 -1.11636 -1637 152 133 118
259.388 -1.11588 -1636 150 128 118
262.557 -1.11542 -1635 147 126 116
266.049 -1.11631 -1636 144 123 115
269.877 -1.11858 -1639 140 120 111
273.052 -1.11812 -1638 136 117 108
276.394 -1.11834 -1638 133 115 106
279.568 -1.11788 -1637 129 111 101
283.086 -1.11879 -1638 124 107 97
286.61 -1.11971 -1639 121 105 95
290.671 -1.12268 -1643 121 103 95
293.857 -1.12223 -1642 121 103 95
297.04 -1.12179 -1641 118 99 92
300.406 -1.12203 -1641 109 100 96
303.403 -1.1209 -1639 106 98 95
312.361 -1.11775 -1633 104 97 94
319.673 -1.12031 -1636 111 101 96
322.849 -1.11989 -1635 113 102 96
326.621 -1.12152 -1637 117 105 96
330.002 -1.12178 -1637 121 105 97
333.385 -1.12205 -1637 126 108 101
336.566 -1.12163 -1636 134 114 108
339.329 -1.11985 -1633 134 115 102
342.503 -1.11944 -1632 135 115 102
346.1 -1.1204 -1633 140 120 107
349.275 -1.11999 -1632 143 124 111
352.665 -1.12028 -1632 146 126 114
356.059 -1.12076 -1632 147 128 116
360.116 -1.12311 -1635 153 131 121
363.522 -1.1234 -1635 154 131 120
366.033 -1.12094 -1631 151 129 118
368.757 -1.11917 -1628 147 125 114
-212.807 -4.27532 -1598 146 141 124
-209.187 -4.26637 -1595 157 155 133
-205.711 -4.2603 -1593 189 187 162
-201.608 -4.24088 -1586 202 201 168
-198.662 -4.24554 -1588 229 229 192
-194.724 -4.22882 -1582 237 237 199
-191.054 -4.21746 -1578 244 243 213
-186.926 -4.19543 -1570 248 247 219
-183.182 -4.18143 -1565 250 250 224
-179.345 -4.16477 -1559 250 252 229
-175.986 -4.15882 -1557 251 253 232
-172.414 -4.14753 -1553 254 253 232
-169.187 -4.14427 -1552 254 254 235
-165.965 -4.14102 -1551 254 255 240
-162.538 -4.13244 -1548 253 254 243
-159.228 -4.12655 -1546 253 254 244
-155.927 -4.12066 -1544 253 253 250
-152.437 -4.10927 -1540 253 253 251
-149.256 -4.10608 -1539 253 253 253
-145.985 -4.10023 -1537 253 253 253
-142.723 -4.09439 -1535 253 253 253
-139.561 -4.09124 -1534 253 253 253
-136.582 -4.09342 -1535 253 253 253
-133.339 -4.08762 -1533 253 253 253
-130.361 -4.08983 -1534 253 253 253
-127.296 -4.08938 -1534 253 253 253
-124.152 -4.08628 -1533 253 253 253
-121.012 -4.08319 -1532 253 253 253
-117.878 -4.08011 -1531 253 253 253
-114.748 -4.07704 -1530 253 253 253
-111.696 -4.07665 -1530 253 253 253
-108.788 -4.08159 -1532 253 253 253
-105.665 -4.07856 -1531 253 253 253
-102.748 -4.08352 -1533 253 253 253
-99.6936 -4.08317 -1533 253 253 253
-96.6402 -4.08283 -1533 253 253 253
-93.5265 -4.07984 -1532 253 253 253
-90.5357 -4.08218 -1533 253 253 253
-87.4274 -4.07921 -1532 253 253 253
-84.3789 -4.07891 -1532 253 253 253
-81.3842 -4.08128 -1533 253 253 253
-78.335 -4.08101 -1533 253 253 253
-75.3847 -4.08606 -1535 253 253 253
-72.2857 -4.08314 -1534 253 253 253
-69.2364 -4.0829 -1534 253 253 253
-66.1444 -4.08 -1533 253 253 253
-63.1393 -4.08244 -1534 253 253 253
-60.0132 -4.0769 -1532 253 253 253
-57.0815 -4.08468 -1535 253 253 253
-54.1031 -4.08981 -1537 253 253 253
-51.0176 -4.08696 -1536 253 253 253
-47.9989 -4.08945 -1537 253 253 253
-45.0351 -4.09727 -1540 253 253 253
-41.9507 -4.09446 -1539 253 253 253
-38.8706 -4.09166 -1538 253 253 253
-35.8414 -4.09419 -1539 253 253 253
-32.8084 -4.09673 -1540 253 253 253
-29.7332 -4.09396 -1539 253 253 253
-26.6794 -4.09386 -1539 253 253 253
-23.6259 -4.09378 -1539 253 253 253
-20.5592 -4.09104 -1538 253 253 253
-17.4853 -4.08565 -1536 253 253 253
-14.4382 -4.0856 -1536 253 253 253
-11.4061 -4.09087 -1538 253 253 253
-8.35526 -4.09084 -1538 253 253 253
-5.31484 -4.09879 -1541 253 253 253
-2.25524 -4.09346 -1539 253 253 253
0.797456 -4.09346 -1539 253 253 253
3.84765 -4.09081 -1538 253 253 253
6.89391 -4.08817 -1537 253 253 253
9.93626 -4.08554 -1536 253 253 253
12.9916 -4.08824 -1537 253 253 253
16.0615 -4.09361 -1539 253 253 253
19.127 -4.09633 -1540 253 253 253
22.1967 -4.09906 -1541 253 253 253
25.2377 -4.09648 -1540 253 253 253
28.2933 -4.09658 -1540 253 253 253
31.3084 -4.09136 -1538 253 253 253
34.3605 -4.09148 -1538 253 253 253
37.3886 -4.08894 -1537 253 253 253
40.4656 -4.09174 -1538 253 253 253
43.5186 -4.09188 -1538 253 253 253
46.572 -4.09204 -1538 253 253 253
49.6257 -4.09221 -1538 253 253 253
52.7484 -4.09771 -1540 253 253 253
55.8431 -4.10056 -1541 253 253 253
58.9805 -4.10608 -1543 253 253 253
62.1666 -4.11428 -1546 253 253 253
65.365 -4.12248 -1549 253 253 253
68.4875 -4.12538 -1550 253 253 253
71.6608 -4.13094 -1552 253 253 253
74.7943 -4.13386 -1553 253 253 253
77.9327 -4.13679 -1554 253 253 253
81.1797 -4.14505 -1557 253 253 253
84.4393 -4.15333 -1560 253 253 253
87.6554 -4.15895 -1562 253 253 253
91.1126 -4.17524 -1568 253 253 253
94.2939 -4.17823 -1569 253 253 253
97.6043 -4.18655 -1572 253 253 253
100.799 -4.18956 -1573 253 253 253
104.065 -4.19524 -1575 253 253 253
107.271 -4.19827 -1576 253 253 253
110.623 -4.20664 -1579 253 253 252
113.987 -4.21503 -1582 253 253 251
117.364 -4.22342 -1585 252 252 249
120.83 -4.2345 -1589 253 253 247
124.235 -4.24292 -1592 250 251 239
127.813 -4.25668 -1597 249 252 226
131.166 -4.26246 -1599 248 251 221
134.612 -4.27092 -1602 249 250 209
138.071 -4.27939 -1605 248 249 208
141.191 -4.27721 -1604 247 248 208
144.399 -4.27771 -1604 241 242 200
147.975 -4.28888 -1608 230 231 188
151.193 -4.2894 -1608 223 224 179
154.507 -4.2926 -1609 223 223 173
157.73 -4.29314 -1609 222 222 173
160.953 -4.29369 -1609 226 226 181
163.973 -4.28912 -1607 234 235 183
166.987 -4.28435 -1605 240 240 187
170.313 -4.28761 -1606 244 245 188
173.535 -4.2882 -1606 249 248 190
176.98 -4.29415 -1608 249 248 189
180.545 -4.30278 -1611 249 249 199
184.239 -4.31409 -1615 250 250 204
187.834 -4.32275 -1618 239 239 197
192.033 -4.34478 -1626 165 158 126
196.025 -4.36149 -1632 133 125 96
199.189 -4.3595 -1631 131 121 102
202.598 -4.36287 -1632 133 119 105
206.517 -4.37694 -1637 136 122 109
209.433 -4.36964 -1634 135 122 114
212.599 -4.36769 -1633 132 120 110
215.895 -4.36843 -1633 131 120 109
232.117 -4.36714 -1631 124 110 104
235.276 -4.36526 -1630 122 109 103
238.579 -4.36608 -1630 117 105 104
243.07 -4.38834 -1638 117 105 103
246.995 -4.3999 -1642 116 103 101
250.176 -4.39828 -1641 112 99 95
324.232 -4.42339 -1642 89 84 83
346.736 -4.4156 -1636 109 97 89
349.918 -4.41429 -1635 109 97 89
352.882 -4.41008 -1633 112 100 93
360.998 -4.42891 -1639 120 103 102
-206.357 -7.46035 -1598 176 174 154
-202.499 -7.43576 -1593 200 199 173
-198.913 -7.42054 -1590 220 220 186
-194.971 -7.39134 -1584 229 230 192
-191.176 -7.36684 -1579 240 239 209
-187.284 -7.33769 -1573 246 245 217
-183.3 -7.30392 -1566 249 249 223
-179.576 -7.2793 -1561 251 252 229
-175.987 -7.25957 -1557 252 252 230
-172.415 -7.23986 -1553 253 253 230
-169.079 -7.22949 -1551 254 254 234
-165.752 -7.21915 -1549 254 255 239
-162.434 -7.20883 -1547 253 254 243
-159.023 -7.19387 -1544 253 254 244
-155.827 -7.18825 -1543 253 253 251
-152.438 -7.17333 -1540 253 253 252
-149.16 -7.1631 -1538 253 253 253
-145.891 -7.15288 -1536 253 253 253
-142.724 -7.14734 -1535 253 253 253
-139.562 -7.14182 -1534 253 253 253
-136.494 -7.14098 -1534 253 253 253
-133.253 -7.13066 -1532 253 253 253
-130.192 -7.12986 -1532 253 253 253
-127.048 -7.12441 -1531 253 253 253
-123.991 -7.12365 -1531 253 253 253
-120.855 -7.11825 -1530 253 253 253
-117.724 -7.11286 -1529 253 253 253
-114.674 -7.11215 -1529 253 253 253
-111.77 -7.12076 -1531 253 253 253
-108.717 -7.12009 -1531 253 253 253
-105.596 -7.11478 -1530 253 253 253
-102.614 -7.11879 -1531 253 253 253
-99.564 -7.11817 -1531 253 253 253
-96.3885 -7.10827 -1529 253 253 253
-93.3438 -7.10769 -1529 253 253 253
-90.418 -7.11643 -1531 253 253 253
-87.3707 -7.11588 -1531 253 253 253
-84.3242 -7.11536 -1531 253 253 253
-81.2784 -7.11485 -1531 253 253 253
-78.2843 -7.11901 -1532 253 253 253
-75.336 -7.12783 -1534 253 253 253
-72.1918 -7.11808 -1532 253 253 253
-69.1916 -7.1223 -1533 253 253 253
-66.0584 -7.11259 -1531 253 253 253
-63.0161 -7.11219 -1531 253 253 253
-59.9352 -7.10717 -1530 253 253 253
-56.9702 -7.1161 -1532 253 253 253
-53.9978 -7.12505 -1534 253 253 253
-50.9846 -7.12938 -1535 253 253 253
-47.9679 -7.13372 -1536 253 253 253
-44.9768 -7.14272 -1538 253 253 253
-41.9236 -7.14245 -1538 253 253 253
-38.8455 -7.13756 -1537 253 253 253
-35.8182 -7.14198 -1538 253 253 253
-32.766 -7.14177 -1538 253 253 253
-29.714 -7.14157 -1538 253 253 253
-26.6276 -7.13211 -1536 253 253 253
-23.5953 -7.1366 -1537 253 253 253
-20.5326 -7.13183 -1536 253 253 253
-17.4854 -7.13171 -1536 253 253 253
-14.4289 -7.12697 -1535 253 253 253
-11.3987 -7.13618 -1537 253 253 253
-8.34987 -7.13612 -1537 253 253 253
-5.30797 -7.14536 -1539 253 253 253
-2.25525 -7.14534 -1539 253 253 253
0.79746 -7.14533 -1539 253 253 253
3.84767 -7.1407 -1538 253 253 253
6.89395 -7.13609 -1537 253 253 253
9.93631 -7.1315 -1536 253 253 253
12.9917 -7.13622 -1537 253 253 253
16.0511 -7.14095 -1538 253 253 253
19.0899 -7.13642 -1537 253 253 253
22.1392 -7.13654 -1537 253 253 253
25.1558 -7.1274 -1535 253 253 253
28.2016 -7.12757 -1535 253 253 253
31.2475 -7.12775 -1535 253 253 253
34.2937 -7.12795 -1535 253 253 253
37.3401 -7.12817 -1535 253 253 253
40.4132 -7.13305 -1536 253 253 253
43.4623 -7.13331 -1536 253 253 253
46.5117 -7.13359 -1536 253 253 253
49.5292 -7.12924 -1535 253 253 253
52.6801 -7.14349 -1538 253 253 253
55.8072 -7.15311 -1540 253 253 253
58.9426 -7.16275 -1542 253 253 253
62.1267 -7.17706 -1545 253 253 253
65.3653 -7.19603 -1549 253 253 253
68.4437 -7.19645 -1549 253 253 253
71.6611 -7.21081 -1552 253 253 253
74.7465 -7.21126 -1552 253 253 253
77.9832 -7.22567 -1555 253 253 253
81.1801 -7.23545 -1557 253 253 253
84.4397 -7.2499 -1560 253 253 253
87.5997 -7.25508 -1561 253 253 253
90.9387 -7.27422 -1565 253 253 253
94.1742 -7.28408 -1567 253 253 253
97.5427 -7.30327 -1571 253 253 253
100.735 -7.30852 -1572 253 253 253
104.065 -7.3231 -1575 253 253 253
107.34 -7.33305 -1577 253 253 253
110.693 -7.34767 -1580 253 253 252
114.06 -7.36231 -1583 254 254 252
117.513 -7.38162 -1587 253 253 249
120.983 -7.40096 -1591 252 253 246
124.314 -7.41101 -1593 249 250 236
127.974 -7.4397 -1599 245 247 218
131.495 -7.45911 -1603 238 241 208
135.033 -7.47854 -1607 240 240 197
138.33 -7.48403 -1608 249 250 206
141.456 -7.48042 -1607 249 251 207
144.579 -7.47664 -1606 249 251 207
148.068 -7.49151 -1609 243 245 200
151.287 -7.49242 -1609 230 232 186
154.508 -7.49336 -1609 221 222 170
157.828 -7.49897 -1610 218 219 169
161.054 -7.49994 -1610 220 220 176
164.076 -7.49162 -1608 225 226 171
167.196 -7.48797 -1607 230 231 173
170.632 -7.49832 -1609 237 236 178
173.86 -7.49937 -1609 241 240 179
177.311 -7.50977 -1611 242 240 178
180.883 -7.52485 -1614 243 242 193
184.582 -7.54461 -1618 244 243 199
187.951 -7.55061 -1619 215 214 178
191.916 -7.57975 -1625 139 133 110
196.026 -7.61358 -1632 116 111 92
-202.501 -10.612 -1593 193 191 173
-199.415 -10.6169 -1594 214 214 185
-195.342 -10.5686 -1587 225 227 193
-191.42 -10.5269 -1581 238 238 209
-187.404 -10.4785 -1574 244 243 215
-183.653 -10.4436 -1569 249 249 224
-179.693 -10.3954 -1562 252 252 228
-175.988 -10.3606 -1557 251 252 228
-172.416 -10.3324 -1553 252 253 226
-168.971 -10.311 -1550 252 253 230
-165.539 -10.2896 -1547 253 255 236
-162.225 -10.2746 -1545 253 254 240
-158.921 -10.2599 -1543 253 254 241
-155.727 -10.2519 -1542 253 254 247
-152.439 -10.2373 -1540 254 254 250
-149.064 -10.216 -1537 253 253 252
-145.797 -10.2014 -1535 253 253 252
-142.446 -10.1802 -1532 253 253 252
-139.29 -10.1723 -1531 253 253 253
-136.139 -10.1645 -1530 253 253 254
-132.993 -10.1567 -1529 253 253 254
-129.853 -10.1489 -1528 253 253 252
-126.717 -10.1411 -1527 253 253 252
-123.668 -10.14 -1527 252 253 252
-120.54 -10.1321 -1526 252 253 252
-117.417 -10.1244 -1525 252 253 252
-114.375 -10.1234 -1525 253 253 253
-111.479 -10.1357 -1527 253 253 253
-108.505 -10.1414 -1528 253 253 252
-105.459 -10.1404 -1528 253 253 252
-102.481 -10.1462 -1529 253 253 252
-99.3697 -10.1386 -1528 253 253 252
-96.2632 -10.1312 -1527 253 253 252
-93.1003 -10.1171 -1525 253 253 252
-90.1234 -10.1229 -1526 253 253 252
-87.2002 -10.1354 -1528 253 253 252
-84.1596 -10.1346 -1528 253 253 252
-81.2258 -10.1472 -1530 253 253 252
-78.2338 -10.1531 -1531 253 253 253
-75.3365 -10.1723 -1534 253 253 252
-72.1924 -10.1584 -1532 253 253 252
-69.147 -10.1578 -1532 253 253 252
-66.0159 -10.1439 -1530 253 253 252
-62.9755 -10.1434 -1530 253 253 253
-59.8181 -10.1229 -1527 253 253 253
-56.8591 -10.1357 -1529 253 253 253
-53.8926 -10.1484 -1531 253 253 254
-50.8521 -10.148 -1531 253 253 254
-47.8746 -10.1608 -1533 253 253 254
-44.8602 -10.167 -1534 253 253 253
-41.8149 -10.1667 -1534 253 253 253
-38.77 -10.1663 -1534 253 253 253
-35.7486 -10.1726 -1535 253 253 253
-32.7023 -10.1723 -1535 253 253 253
-29.6563 -10.172 -1535 253 253 254
-26.6104 -10.1718 -1535 253 253 254
-23.5802 -10.1782 -1536 253 253 254
-20.5328 -10.178 -1536 253 253 254
-17.4741 -10.1712 -1535 253 253 254
-14.4196 -10.1644 -1534 253 253 253
-11.384 -10.1709 -1535 253 253 253
-8.33907 -10.1709 -1535 253 253 254
-5.30111 -10.184 -1537 253 253 253
-2.2538 -10.1906 -1538 253 253 253
0.796948 -10.1906 -1538 253 253 254
3.8452 -10.184 -1537 253 253 254
6.88951 -10.1775 -1536 253 253 253
9.92345 -10.1643 -1534 253 253 254
12.9749 -10.171 -1535 253 253 254
16.0095 -10.1645 -1534 253 253 254
19.0527 -10.1647 -1534 253 253 254
22.1249 -10.1781 -1536 253 253 253
25.1397 -10.1651 -1534 253 253 253
28.165 -10.1587 -1533 253 253 253
31.207 -10.1589 -1533 253 253 253
34.2716 -10.1658 -1534 253 253 253
37.2918 -10.1595 -1533 253 253 253
40.3609 -10.1665 -1534 253 253 253
43.406 -10.1669 -1534 253 253 254
46.4817 -10.1739 -1535 253 253 254
49.5296 -10.1743 -1535 253 253 253
52.6463 -10.188 -1537 253 253 253
55.7714 -10.2018 -1539 253 253 253
58.9048 -10.2155 -1541 253 253 253
62.0467 -10.2293 -1543 253 253 253
65.2814 -10.2564 -1547 253 253 253
68.4 -10.2636 -1548 253 253 253
71.5231 -10.2708 -1549 253 253 253
74.6508 -10.2781 -1550 253 253 253
77.8835 -10.2987 -1553 253 253 253
81.0764 -10.3127 -1555 253 253 253
84.3321 -10.3333 -1558 253 253 253
87.6004 -10.3539 -1561 253 253 253
91.0556 -10.3945 -1567 253 253 253
94.235 -10.402 -1568 253 253 253
97.6055 -10.4293 -1572 253 253 254
100.864 -10.4435 -1574 253 253 253
104.132 -10.4577 -1576 253 253 253
107.341 -10.4652 -1577 253 253 252
110.694 -10.4861 -1580 254 253 251
113.988 -10.5003 -1582 254 253 250
117.439 -10.5279 -1586 253 253 249
120.756 -10.5422 -1588 253 253 244
124.315 -10.5765 -1593 249 251 230
127.895 -10.611 -1598 234 236 203
131.66 -10.6586 -1605 223 225 189
135.118 -10.6797 -1608 208 209 169
138.589 -10.7008 -1611 215 216 174
141.545 -10.6821 -1608 231 232 190
144.85 -10.69 -1609 247 248 205
148.345 -10.7113 -1612 250 252 209
151.477 -10.7059 -1611 248 251 208
154.701 -10.7073 -1611 231 232 187
158.026 -10.7153 -1612 213 214 170
161.155 -10.71 -1611 212 213 170
164.282 -10.7048 -1610 218 219 167
167.302 -10.693 -1608 216 218 163
170.739 -10.7079 -1610 224 225 167
174.078 -10.7161 -1611 229 230 169
177.752 -10.7442 -1615 229 230 167
181.22 -10.7591 -1617 235 235 184
184.926 -10.7873 -1621 235 235 192
188.184 -10.789 -1621 194 194 162
-199.041 -13.7687 -1591 209 210 190
-195.344 -13.7319 -1587 222 224 200
-191.422 -13.6776 -1581 231 234 205
-187.525 -13.6235 -1575 238 240 212
-183.772 -13.5781 -1570 244 244 220
-179.925 -13.5242 -1564 248 250 222
-175.99 -13.4616 -1557 250 253 224
-172.418 -13.4249 -1553 251 254 223
-168.973 -13.397 -1550 251 254 226
-165.541 -13.3692 -1547 252 254 233
-162.227 -13.35 -1545 253 254 237
-159.129 -13.3482 -1545 253 254 238
-155.628 -13.3119 -1541 253 254 244
-152.342 -13.2928 -1539 253 254 247
-148.968 -13.265 -1536 253 253 251
-145.608 -13.2374 -1533 253 253 251
-142.261 -13.2099 -1530 253 253 251
-139.2 -13.2083 -1530 253 253 253
-136.051 -13.1981 -1529 253 253 254
-132.908 -13.1879 -1528 253 253 255
-129.769 -13.1778 -1527 253 253 252
-126.718 -13.1763 -1527 253 253 252
-123.588 -13.1663 -1526 251 254 251
-120.383 -13.1476 -1524 251 254 251
-117.264 -13.1376 -1523 251 254 251
-114.226 -13.1363 -1523 253 253 253
-111.261 -13.1435 -1524 253 253 252
-108.293 -13.1508 -1525 253 253 251
-105.184 -13.141 -1524 253 253 251
-102.214 -13.1484 -1525 253 253 251
-99.1105 -13.1387 -1524 253 253 251
-96.012 -13.1289 -1523 253 253 251
-92.918 -13.1192 -1522 253 253 251
-89.9471 -13.1268 -1523 253 253 251
-86.9728 -13.1344 -1524 253 253 251
-83.9402 -13.1334 -1524 253 253 251
-81.0144 -13.1497 -1526 253 253 252
-78.0302 -13.1574 -1527 253 253 253
-75.1409 -13.1824 -1530 253 253 252
-72.0517 -13.173 -1529 253 253 251
-69.0574 -13.1808 -1530 253 253 251
-65.9302 -13.1628 -1528 253 253 252
-62.8938 -13.162 -1528 253 253 253
-59.7795 -13.1441 -1526 253 253 253
-56.7853 -13.152 -1527 253 253 253
