ply
format ascii 1.0
comment Created by Open3D
element vertex 1352
property double x
property double y
property double z
property uchar red
property uchar green
property uchar blue
end_header
63.9418 -73.6414 -1589 252 252 223
67.1858 -73.7381 -1591 253 253 228
70.4826 -73.8816 -1594 253 253 231
73.792 -74.0252 -1597 252 251 234
77.1619 -74.2152 -1601 252 251 234
80.448 -74.3128 -1603 252 251 234
83.8993 -74.5497 -1608 250 252 235
87.2629 -74.6941 -1611 251 252 239
-113.777 -77.4706 -1601 226 227 215
-109.892 -76.9793 -1591 234 234 217
-106.25 -76.6337 -1584 240 239 219
-102.896 -76.4818 -1581 245 243 222
-99.4921 -76.2819 -1577 243 241 219
-96.2271 -76.1786 -1575 244 243 215
-92.971 -76.0758 -1573 245 244 216
-89.7235 -75.9732 -1571 245 243 216
-86.4295 -75.8224 -1568 245 246 210
-83.2013 -75.7201 -1566 247 248 210
-79.8796 -75.5214 -1562 248 249 207
-76.6726 -75.4197 -1560 248 248 204
-73.4271 -75.2698 -1557 247 248 202
-70.3296 -75.2652 -1557 245 246 197
-67.1895 -75.2124 -1556 244 246 196
-64.054 -75.1599 -1555 243 244 194
-60.8444 -75.0107 -1552 242 243 191
-57.759 -75.0068 -1552 241 242 190
-54.674 -75.0032 -1552 237 239 187
-51.5894 -74.9998 -1552 234 235 183
-48.5365 -75.0449 -1553 231 232 180
-45.4508 -75.0419 -1553 229 227 176
-42.3927 -75.0874 -1554 229 228 176
-39.3057 -75.0847 -1554 230 231 178
-36.1957 -75.034 -1553 234 233 183
-33.154 -75.1284 -1555 236 235 186
-30.0464 -75.078 -1554 241 239 193
-26.9432 -75.0279 -1553 247 246 199
-23.8134 -74.8813 -1550 251 250 202
-20.7358 -74.8799 -1550 250 250 203
-17.6584 -74.8785 -1550 251 251 205
-14.5812 -74.8776 -1550 251 251 207
-11.5115 -74.9249 -1551 248 248 205
-8.43787 -74.9726 -1552 244 245 201
-5.36038 -75.0204 -1553 243 243 201
-2.27895 -75.0685 -1554 245 245 203
0.806943 -75.1651 -1556 248 248 204
3.89828 -75.2135 -1557 249 249 204
6.99811 -75.3105 -1559 247 247 202
10.0995 -75.3594 -1560 245 246 196
13.2133 -75.4567 -1562 246 247 198
16.3039 -75.4094 -1561 251 251 209
19.4279 -75.5073 -1563 253 253 220
22.5601 -75.6053 -1565 254 254 227
25.7003 -75.7035 -1567 255 254 236
28.8487 -75.8019 -1569 255 254 238
32.0256 -75.9488 -1572 255 253 241
35.17 -75.9993 -1573 255 253 242
38.343 -76.0983 -1575 255 253 242
41.5242 -76.1975 -1577 253 253 233
44.7138 -76.2969 -1579 252 252 229
47.8815 -76.3482 -1580 252 252 225
51.1179 -76.4964 -1583 251 252 221
54.2982 -76.5481 -1584 250 251 220
57.4828 -76.6001 -1585 251 251 220
60.7101 -76.7006 -1587 251 251 219
63.9861 -76.8496 -1590 251 251 219
67.2746 -76.9988 -1593 251 251 222
70.6199 -77.1968 -1597 252 251 227
73.8891 -77.2981 -1599 251 250 232
77.2632 -77.4964 -1603 252 251 233
80.5033 -77.5498 -1604 251 251 232
83.8524 -77.7001 -1607 249 251 232
87.3226 -77.9476 -1612 249 251 236
-113.713 -80.6081 -1600 221 222 211
-109.969 -80.1976 -1592 231 231 215
-106.324 -79.8378 -1585 239 238 218
-102.968 -79.6795 -1582 243 241 221
-99.6248 -79.5216 -1579 243 241 220
-96.3557 -79.4143 -1577 241 239 213
-93.0953 -79.3071 -1575 244 241 214
-89.8436 -79.2002 -1573 245 241 214
-86.4903 -78.9929 -1569 245 246 210
-83.2069 -78.8362 -1566 247 248 210
-79.8848 -78.6292 -1562 246 249 206
-76.6285 -78.4729 -1559 247 249 204
-73.3376 -78.2666 -1555 246 248 203
-70.1988 -78.2114 -1554 245 247 198
-67.1076 -78.2068 -1554 244 246 196
-64.017 -78.2024 -1554 241 243 193
-60.8876 -78.1479 -1553 240 242 191
-57.8 -78.1438 -1553 239 241 189
-54.7481 -78.1903 -1554 236 238 186
-51.6261 -78.1364 -1553 235 236 184
-48.5397 -78.1331 -1553 233 234 182
-45.4538 -78.1299 -1553 232 230 179
-42.3955 -78.1773 -1554 231 229 178
-39.3336 -78.2248 -1555 231 232 180
-36.2214 -78.172 -1554 233 234 184
-33.1775 -78.2703 -1556 235 235 187
-30.0872 -78.2682 -1556 238 239 190
-26.9449 -78.1153 -1553 244 244 196
-23.8303 -78.013 -1551 248 249 200
-20.7506 -78.0115 -1551 250 250 203
-17.6596 -77.96 -1550 251 251 205
-14.5821 -77.9589 -1550 252 252 210
-11.5196 -78.0586 -1552 248 248 206
-8.44386 -78.1082 -1553 242 243 201
-5.36072 -78.1078 -1553 243 243 201
-2.2791 -78.1578 -1554 244 244 202
0.807 -78.2584 -1556 247 247 203
3.89854 -78.3088 -1557 248 248 203
6.99858 -78.4098 -1559 247 247 201
10.1066 -78.511 -1561 245 246 196
13.2227 -78.6123 -1563 245 246 197
16.3259 -78.6133 -1563 251 251 209
19.4541 -78.7151 -1565 253 253 222
22.5615 -78.7165 -1565 254 254 228
25.702 -78.8188 -1567 255 254 236
28.8506 -78.9212 -1569 255 253 239
32.0074 -79.0238 -1571 255 254 247
35.15 -79.0764 -1572 255 254 247
38.3212 -79.1795 -1574 255 253 246
41.5272 -79.3331 -1577 253 254 237
44.6886 -79.3863 -1578 253 253 232
47.8846 -79.49 -1580 253 253 227
51.1213 -79.6443 -1583 251 253 228
54.3017 -79.6981 -1584 250 252 226
57.4866 -79.7524 -1585 251 251 223
60.7524 -79.9073 -1588 251 251 220
64.0708 -80.1128 -1592 250 250 218
67.3212 -80.2179 -1594 250 250 218
70.713 -80.4741 -1599 251 250 224
74.0788 -80.6803 -1603 252 251 231
77.4129 -80.8364 -1606 251 250 230
80.6592 -80.892 -1607 250 249 229
84.119 -81.1495 -1612 248 250 229
87.4367 -81.2559 -1614 248 249 235
-113.508 -83.6378 -1597 216 217 207
-110.114 -83.4727 -1594 229 229 213
-106.532 -83.151 -1588 239 238 219
-103.105 -82.9343 -1584 242 241 221
-99.821 -82.8223 -1582 241 240 219
-96.5456 -82.7108 -1580 241 239 214
-93.1608 -82.4947 -1576 243 240 213
-89.7927 -82.2788 -1572 246 242 215
-86.4412 -82.0633 -1568 247 248 212
-83.1594 -81.9004 -1565 247 249 211
-79.7369 -81.5808 -1559 245 249 206
-76.5355 -81.4707 -1557 246 249 205
-73.3426 -81.3606 -1555 246 248 203
-70.2488 -81.3556 -1555 246 248 199
-67.1122 -81.2985 -1554 244 246 197
-64.0626 -81.3463 -1555 242 244 194
-60.9703 -81.3419 -1555 240 242 191
-57.8412 -81.2854 -1554 239 241 189
-54.7871 -81.3338 -1555 237 239 187
-51.6629 -81.2776 -1554 236 238 186
-48.5744 -81.2741 -1554 234 235 183
-45.5155 -81.3232 -1555 233 231 180
-42.453 -81.3724 -1556 233 231 180
-39.3616 -81.3695 -1556 234 235 183
-36.2472 -81.3146 -1555 236 237 187
-33.1797 -81.3645 -1556 238 239 190
-30.0892 -81.3623 -1556 240 240 193
-26.9642 -81.2557 -1554 242 242 195
-23.8319 -81.0971 -1551 247 248 199
-20.752 -81.0955 -1551 249 250 203
-17.6494 -80.9896 -1549 250 250 204
-14.5643 -80.9362 -1548 251 251 209
-11.513 -81.0922 -1551 249 249 208
-8.439 -81.1438 -1552 246 247 207
-5.36109 -81.1956 -1553 246 247 206
-2.27925 -81.2476 -1554 247 247 206
0.807579 -81.4044 -1557 248 248 205
3.89881 -81.4046 -1557 248 248 205
6.99906 -81.5095 -1559 246 246 201
10.1008 -81.5624 -1560 244 245 195
13.2151 -81.6678 -1562 245 246 197
16.3165 -81.6688 -1562 251 251 210
19.443 -81.7746 -1564 253 253 221
22.5631 -81.8284 -1565 254 254 227
25.7038 -81.9347 -1567 255 254 235
28.871 -82.0934 -1570 255 253 238
32.0299 -82.2001 -1572 255 254 246
35.1747 -82.2548 -1573 255 254 249
38.3482 -82.3619 -1575 255 254 250
41.53 -82.4693 -1577 253 254 243
44.6916 -82.5246 -1578 254 254 237
47.8879 -82.6324 -1580 254 254 231
51.1571 -82.8451 -1584 252 254 233
54.3397 -82.9013 -1585 251 253 231
57.5631 -83.0098 -1587 252 252 228
60.8331 -83.1709 -1590 251 251 225
64.1557 -83.3845 -1594 251 251 224
67.4105 -83.4937 -1596 251 251 224
70.762 -83.7078 -1600 252 251 229
74.0839 -83.8698 -1603 253 252 234
77.37 -83.9797 -1605 252 251 234
80.6649 -84.0901 -1607 250 250 233
84.1769 -84.4098 -1613 247 249 231
87.4968 -84.5205 -1615 248 249 237
-110.26 -86.7566 -1596 227 227 212
-106.674 -86.4226 -1590 239 238 220
-103.308 -86.2518 -1587 244 243 223
-99.9543 -86.0814 -1584 239 238 217
-96.6136 -85.9111 -1581 242 240 215
-93.2266 -85.6869 -1577 243 240 213
-89.7991 -85.4086 -1572 247 243 216
-86.4473 -85.185 -1568 247 248 212
-83.1654 -85.0156 -1565 247 249 211
-79.7426 -84.6838 -1559 246 250 207
-76.5409 -84.5695 -1557 248 250 206
-73.3479 -84.4555 -1555 248 250 205
-70.2086 -84.396 -1554 246 248 199
-67.117 -84.3908 -1554 244 246 197
-64.0259 -84.3861 -1554 243 245 195
-60.9746 -84.4359 -1555 241 243 192
-57.8453 -84.3773 -1554 239 241 189
-54.7909 -84.4275 -1555 237 239 187
-51.6998 -84.4236 -1555 237 238 187
-48.6091 -84.42 -1555 237 238 186
-45.5187 -84.4164 -1555 236 235 184
-42.456 -84.4675 -1556 236 235 184
-39.3644 -84.4646 -1556 236 237 185
-36.2498 -84.4076 -1555 238 239 189
-33.1821 -84.4594 -1556 240 241 192
-30.0913 -84.457 -1556 242 242 197
-26.9661 -84.3464 -1554 243 243 197
-23.8491 -84.236 -1552 247 248 199
-20.7669 -84.2344 -1552 251 251 205
-17.662 -84.1245 -1550 252 252 206
-14.5748 -84.0691 -1549 251 251 209
-11.5138 -84.1767 -1551 251 251 209
-8.43416 -84.1759 -1551 251 252 212
-5.36146 -84.284 -1553 252 252 212
-2.27941 -84.338 -1554 251 251 211
0.808159 -84.555 -1558 250 250 208
3.9016 -84.5552 -1558 248 248 205
7.00405 -84.6641 -1560 246 246 202
10.108 -84.719 -1561 243 244 194
13.2161 -84.7742 -1562 245 246 198
16.3177 -84.7752 -1562 251 251 211
19.4444 -84.8851 -1564 253 253 221
22.5791 -84.9952 -1566 254 254 226
25.6728 -84.9426 -1565 255 254 233
28.8178 -85.0532 -1567 255 254 237
31.9711 -85.1639 -1569 255 253 243
35.1325 -85.2749 -1571 254 254 250
38.3024 -85.3862 -1573 254 254 251
41.5066 -85.5519 -1576 253 254 247
44.6665 -85.6093 -1577 254 253 240
47.9216 -85.83 -1581 254 253 234
51.1285 -85.9422 -1583 252 254 234
54.3436 -86.0546 -1585 252 253 233
57.5672 -86.1672 -1587 253 252 232
60.8756 -86.3887 -1591 253 252 231
64.1605 -86.5561 -1594 252 252 230
67.4575 -86.7238 -1597 252 252 232
70.8113 -86.946 -1601 253 252 235
74.1353 -87.1144 -1604 253 252 237
77.4719 -87.2828 -1607 253 252 239
80.9718 -87.6145 -1613 253 252 239
84.2873 -87.7291 -1615 250 251 238
87.6114 -87.844 -1617 251 252 243
-110.338 -89.9928 -1597 227 227 212
-106.883 -89.7591 -1593 237 236 218
-103.511 -89.5822 -1590 242 241 221
-99.9618 -89.2364 -1584 241 239 218
-96.6208 -89.06 -1581 242 240 215
-93.1744 -88.7713 -1576 242 240 214
-89.8629 -88.5952 -1573 246 243 216
-86.5089 -88.3633 -1569 245 247 212
-83.2247 -88.188 -1566 246 249 211
-79.9019 -87.9567 -1562 247 251 208
-76.6942 -87.838 -1560 249 252 207
-73.4949 -87.7198 -1558 249 251 206
-70.2589 -87.5455 -1555 247 249 200
-67.1652 -87.5403 -1555 245 247 198
-64.0719 -87.5352 -1555 244 246 196
-60.9791 -87.5305 -1555 242 244 193
-57.8496 -87.4698 -1554 240 242 190
-54.8302 -87.5781 -1556 238 240 188
-51.7701 -87.6304 -1557 237 238 187
-48.7065 -87.683 -1558 238 239 188
-45.61 -87.6794 -1558 238 238 187
-42.5138 -87.6761 -1558 236 237 186
-39.3927 -87.6167 -1557 237 238 186
-36.2525 -87.5012 -1555 241 242 192
-33.1632 -87.4986 -1555 244 245 196
-30.0742 -87.4962 -1555 244 244 200
-26.9681 -87.4378 -1554 245 245 200
-23.8508 -87.3234 -1552 246 246 200
-20.7684 -87.3217 -1552 250 250 203
-17.6633 -87.2077 -1550 251 251 205
-14.5758 -87.1503 -1549 250 250 207
-11.5147 -87.2618 -1551 251 251 208
-8.43477 -87.2611 -1551 252 253 211
-5.36531 -87.4293 -1554 254 254 212
-2.28104 -87.4853 -1555 253 253 211
0.808742 -87.7103 -1559 252 252 210
3.9044 -87.7105 -1559 249 249 207
7.00906 -87.8234 -1561 246 247 205
10.1088 -87.8241 -1561 242 243 194
13.2255 -87.9375 -1563 245 246 199
16.3294 -87.9386 -1563 251 251 211
19.4458 -87.9962 -1564 253 253 221
22.5808 -88.1103 -1566 253 253 225
25.7075 -88.1684 -1567 254 254 231
28.82 -88.1705 -1567 255 254 234
31.9531 -88.229 -1568 255 253 238
35.1129 -88.3442 -1570 253 253 248
38.3296 -88.5719 -1574 253 253 249
41.5097 -88.6876 -1576 253 253 250
44.6981 -88.8034 -1578 254 253 243
47.9555 -89.032 -1582 254 253 238
51.1645 -89.1483 -1584 254 254 232
54.3819 -89.2648 -1586 252 252 231
57.644 -89.4379 -1589 253 252 234
60.9568 -89.6675 -1593 254 253 237
64.2457 -89.8411 -1596 254 253 236
67.547 -90.0151 -1599 252 253 242
70.905 -90.2455 -1603 254 254 243
74.2332 -90.4198 -1606 253 252 241
77.6224 -90.6508 -1610 254 253 244
80.8774 -90.713 -1611 254 254 245
84.3457 -91.001 -1616 252 253 243
87.7265 -91.1764 -1619 253 254 247
-110.553 -93.3502 -1600 226 226 212
-106.891 -92.9334 -1593 234 234 216
-103.389 -92.6334 -1588 237 236 216
-99.8433 -92.2756 -1582 243 241 220
-96.5672 -92.1513 -1580 242 240 215
-93.1224 -91.8521 -1575 243 242 215
-89.8126 -91.6701 -1572 247 246 218
-86.5707 -91.5464 -1570 245 248 213
-83.3374 -91.4232 -1568 245 249 211
-80.0104 -91.1837 -1564 247 251 209
-76.7492 -91.0027 -1561 248 251 206
-73.5477 -90.8801 -1559 248 250 204
-70.3095 -90.6996 -1556 247 249 200
-67.1703 -90.636 -1555 246 248 198
-64.0768 -90.6309 -1555 244 246 196
-61.0623 -90.7426 -1557 241 244 192
-57.9285 -90.6797 -1556 239 243 190
-54.9402 -90.85 -1559 239 241 190
-51.8406 -90.8459 -1559 238 240 189
-48.7415 -90.8419 -1559 239 240 189
-45.6134 -90.78 -1558 237 239 189
-42.5171 -90.7766 -1558 238 239 190
-39.3704 -90.6569 -1556 239 240 190
-36.2552 -90.5957 -1555 244 245 196
-33.1657 -90.593 -1555 249 249 202
-30.0765 -90.5905 -1555 248 249 203
-26.9528 -90.4716 -1553 244 245 199
-23.8373 -90.3531 -1551 244 244 198
-20.7566 -90.3514 -1551 249 249 203
-17.6648 -90.2917 -1550 251 251 205
-14.5769 -90.2322 -1549 251 250 206
-11.5081 -90.2894 -1550 251 251 208
-8.43541 -90.3469 -1551 252 252 211
-5.36571 -90.5211 -1554 253 252 212
-2.28121 -90.5791 -1555 253 252 212
0.80829 -90.7538 -1558 254 253 212
3.9047 -90.8122 -1559 251 251 209
7.0096 -90.9292 -1561 247 248 204
10.1031 -90.8716 -1560 243 244 195
13.2265 -91.0472 -1563 247 247 200
16.3411 -91.1066 -1564 252 252 211
19.4473 -91.108 -1564 253 253 219
22.5969 -91.2844 -1567 253 253 223
25.7095 -91.2863 -1567 255 255 232
28.8222 -91.2886 -1567 255 255 234
31.9761 -91.4075 -1569 255 254 238
35.1604 -91.5849 -1572 253 254 246
38.3325 -91.7043 -1574 254 255 248
41.5392 -91.8822 -1577 253 253 249
44.7299 -92.0021 -1579 254 253 245
47.9288 -92.1222 -1581 254 253 240
51.1038 -92.1843 -1582 253 253 235
54.3175 -92.305 -1584 253 253 235
57.6121 -92.5424 -1588 253 253 236
60.9615 -92.8386 -1593 254 254 239
64.2506 -93.0183 -1596 254 254 239
67.5944 -93.2566 -1600 253 254 244
70.9104 -93.4368 -1603 254 254 245
74.2391 -93.6173 -1606 254 254 245
77.5802 -93.7983 -1609 254 253 246
80.9338 -93.9794 -1612 253 253 246
84.5089 -94.3939 -1619 252 253 245
87.8957 -94.5755 -1622 252 253 248
-110.493 -96.4792 -1599 218 219 209
-106.833 -96.048 -1592 232 232 217
-103.332 -95.7379 -1587 238 237 217
-99.7881 -95.3676 -1581 243 241 220
-96.4525 -95.1788 -1578 243 241 216
-93.0707 -94.9299 -1574 245 243 217
-89.7627 -94.7415 -1571 247 246 218
-86.5224 -94.6138 -1569 246 249 214
-83.344 -94.5467 -1568 246 249 213
-80.0679 -94.3591 -1565 246 250 211
-76.8537 -94.2322 -1563 247 251 205
-73.6951 -94.1659 -1562 246 250 202
-70.4507 -93.9792 -1559 246 248 197
-67.3053 -93.9132 -1558 245 247 195
-64.2055 -93.908 -1558 244 246 194
-61.1063 -93.9029 -1558 240 244 191
-57.9703 -93.8379 -1557 239 244 191
-54.9445 -93.9539 -1559 241 243 193
-51.8115 -93.8892 -1558 240 242 191
-48.714 -93.8851 -1558 240 241 189
-45.5878 -93.8211 -1557 238 240 191
-42.4931 -93.8175 -1557 240 242 193
-39.3482 -93.6938 -1555 240 242 195
-36.2582 -93.6907 -1555 244 245 199
-33.1684 -93.6879 -1555 249 249 203
-30.0595 -93.6252 -1554 249 251 202
-26.9549 -93.5626 -1553 247 248 199
-23.8545 -93.5004 -1552 246 247 198
-20.7583 -93.4383 -1551 248 248 201
-17.6662 -93.3764 -1550 252 252 206
-14.5875 -93.3752 -1550 254 252 208
-11.5164 -93.4343 -1551 252 251 208
-8.44151 -93.4937 -1552 252 252 212
-5.36613 -93.6138 -1554 255 252 215
-2.28285 -93.7338 -1556 254 251 214
0.808358 -93.8542 -1558 255 253 214
3.90501 -93.9147 -1559 252 251 208
7.00567 -93.9754 -1560 248 248 202
10.0974 -93.9158 -1559 245 246 197
13.2191 -94.0977 -1562 248 249 201
16.311 -94.0386 -1561 252 252 208
19.4364 -94.1605 -1563 253 252 215
22.5843 -94.343 -1566 254 253 219
25.7279 -94.4654 -1568 254 254 232
28.8246 -94.4073 -1567 255 254 235
32.0194 -94.6508 -1571 255 254 238
35.2079 -94.8342 -1574 253 254 245
38.3842 -94.9577 -1576 254 255 247
41.5425 -95.0212 -1577 253 254 246
44.7617 -95.2054 -1580 254 253 244
47.9629 -95.3297 -1582 254 252 243
51.1402 -95.3941 -1583 252 253 239
54.322 -95.4586 -1584 252 253 238
57.6531 -95.7644 -1589 253 254 238
60.9281 -95.95 -1592 253 254 238
64.2154 -96.1358 -1595 253 254 238
67.5575 -96.3823 -1599 253 254 242
70.872 -96.5686 -1602 253 254 244
74.1987 -96.7555 -1605 253 254 246
77.5381 -96.9425 -1608 254 255 247
81.1412 -97.4312 -1616 252 253 245
84.62 -97.7395 -1621 253 254 246
88.0111 -97.9273 -1624 252 252 247
-106.909 -99.2841 -1593 230 231 217
-103.405 -98.9638 -1588 238 236 216
-99.7962 -98.519 -1581 244 242 221
-96.5216 -98.3862 -1579 244 242 218
-93.1966 -98.1912 -1576 246 245 218
-89.8272 -97.9345 -1572 248 247 219
-86.5847 -97.8024 -1570 246 249 214
-83.4041 -97.733 -1569 247 250 214
-80.1257 -97.5394 -1566 247 251 212
-76.9091 -97.4083 -1564 247 251 205
-73.7483 -97.3396 -1563 247 251 203
-70.5017 -97.1468 -1560 247 249 197
-67.3972 -97.1411 -1560 245 247 195
-64.252 -97.0732 -1559 243 245 193
-61.1897 -97.1303 -1560 241 245 192
-58.0868 -97.1253 -1560 241 245 192
-55.0195 -97.1829 -1561 242 244 194
-51.849 -97.0539 -1559 241 243 192
-48.7494 -97.0498 -1559 241 242 191
-45.5915 -96.9214 -1557 240 242 193
-42.442 -96.793 -1555 241 243 194
-39.3261 -96.7274 -1554 240 242 195
-36.2145 -96.662 -1553 244 245 198
-33.1284 -96.6592 -1553 250 250 204
-30.0426 -96.6565 -1553 250 252 203
-26.9398 -96.5919 -1552 248 250 201
-23.8565 -96.5898 -1552 243 244 195
-20.7867 -96.6502 -1553 240 241 194
-17.679 -96.5242 -1551 247 247 201
-14.6076 -96.5851 -1552 253 251 207
-11.5248 -96.584 -1552 250 249 206
-8.45308 -96.7076 -1554 251 251 210
-5.37002 -96.7693 -1555 255 252 215
-2.28156 -96.769 -1555 255 252 215
0.80791 -96.8934 -1557 255 253 214
3.90283 -96.9558 -1558 253 251 209
7.00176 -97.0185 -1559 249 249 204
10.0982 -97.0192 -1559 247 248 199
13.2117 -97.1446 -1561 250 250 202
16.3124 -97.1459 -1561 251 251 207
19.438 -97.2718 -1563 253 252 215
22.5862 -97.4603 -1566 253 252 218
25.7466 -97.649 -1569 253 252 230
28.8638 -97.6513 -1569 255 253 233
32.0628 -97.9028 -1573 255 253 238
35.2555 -98.0923 -1576 254 253 245
38.4361 -98.2198 -1578 254 253 246
41.6249 -98.3476 -1580 253 254 246
44.7937 -98.4135 -1581 253 253 244
47.9972 -98.542 -1583 253 253 243
51.1444 -98.5462 -1583 252 253 239
54.395 -98.7373 -1586 252 253 239
57.6578 -98.9287 -1589 253 254 239
60.9713 -99.1827 -1593 253 254 238
64.3012 -99.4371 -1597 253 254 238
67.5632 -99.5672 -1599 253 254 242
70.922 -99.822 -1603 252 253 244
74.2973 -100.077 -1607 253 254 246
77.5926 -100.208 -1609 254 255 247
81.198 -100.713 -1617 253 254 246
84.6791 -101.031 -1622 254 255 247
87.91 -101.038 -1622 253 253 248
-110.442 -102.792 -1598 214 216 209
-106.985 -102.525 -1594 229 230 218
-103.414 -102.13 -1588 239 237 217
-99.931 -101.8 -1583 245 243 222
-96.6521 -101.662 -1581 245 243 220
-93.2637 -101.397 -1577 246 245 219
-89.892 -101.132 -1573 248 247 219
-86.6472 -100.996 -1571 246 249 213
-83.358 -100.796 -1568 247 251 214
-80.0814 -100.596 -1565 248 252 213
-76.9157 -100.525 -1564 248 251 207
-73.7074 -100.39 -1562 247 251 204
-70.5528 -100.319 -1561 247 249 197
-67.4029 -100.249 -1560 245 247 195
-64.2987 -100.243 -1560 242 244 192
-61.195 -100.238 -1560 243 245 193
-58.129 -100.297 -1561 242 244 193
-55.0243 -100.292 -1561 243 245 195
-51.8866 -100.223 -1560 244 245 195
-48.7535 -100.155 -1559 243 244 194
-45.5661 -99.958 -1556 241 243 194
-42.4456 -99.89 -1555 240 242 193
-39.3294 -99.8222 -1554 241 243 196
-36.2409 -99.819 -1554 244 245 199
-33.1313 -99.7518 -1553 250 250 204
-30.0452 -99.7489 -1553 250 252 203
-26.9421 -99.6823 -1552 250 251 203
-23.8585 -99.6801 -1552 244 245 196
-20.7751 -99.6782 -1552 235 236 189
-17.7033 -99.7408 -1553 237 237 192
-14.6182 -99.7394 -1553 247 245 201
-11.5406 -99.8025 -1554 249 248 205
-8.46467 -99.9301 -1556 250 250 209
-5.37737 -99.9937 -1557 255 253 215
-2.28322 -99.9292 -1556 255 252 215
0.807984 -99.9934 -1557 255 252 213
3.90567 -100.122 -1559 253 251 210
6.99786 -100.058 -1558 249 249 205
10.0926 -100.059 -1558 247 248 200
13.2128 -100.253 -1561 250 251 203
16.3137 -100.254 -1561 252 252 208
19.4521 -100.448 -1564 253 252 215
22.6025 -100.643 -1567 253 252 218
25.7652 -100.837 -1570 253 251 228
28.9214 -100.968 -1572 255 252 232
32.1266 -101.228 -1576 255 252 238
35.2809 -101.295 -1577 255 253 246
38.4637 -101.427 -1579 255 253 247
41.6284 -101.494 -1580 253 254 247
44.8258 -101.627 -1582 252 253 245
48.0012 -101.695 -1583 253 254 244
51.2458 -101.892 -1586 252 253 239
54.4339 -101.96 -1587 252 253 239
57.699 -102.158 -1590 253 254 240
60.9382 -102.292 -1592 253 254 239
64.186 -102.426 -1594 253 254 239
67.4844 -102.624 -1597 253 254 242
70.7952 -102.823 -1600 253 254 244
74.2111 -103.151 -1605 252 253 245
77.6476 -103.478 -1610 253 254 246
81.2551 -103.999 -1618 253 254 247
84.5298 -104.071 -1619 254 255 247
87.9174 -104.271 -1622 253 253 249
-106.994 -105.704 -1594 228 229 217
-103.488 -105.363 -1589 239 237 217
-100.066 -105.089 -1585 244 242 221
-96.7217 -104.881 -1582 246 244 221
-93.331 -104.608 -1578 247 246 219
-89.957 -104.334 -1574 248 247 219
-86.5445 -103.995 -1569 247 250 214
-83.2589 -103.789 -1566 247 251 214
-79.9348 -103.517 -1562 248 252 213
-76.824 -103.51 -1562 249 252 207
-73.6666 -103.437 -1561 247 250 203
-70.5138 -103.364 -1560 245 247 195
-67.4088 -103.358 -1560 243 245 193
-64.3456 -103.418 -1561 242 244 192
-61.2395 -103.413 -1561 244 246 194
-58.1713 -103.474 -1562 244 246 195
-55.0643 -103.469 -1562 244 246 196
-51.8912 -103.331 -1560 245 247 197
-48.6952 -103.128 -1557 245 246 196
-45.5408 -102.991 -1555 242 244 195
-42.4493 -102.988 -1555 242 244 195
-39.3075 -102.851 -1553 243 245 200
-36.2207 -102.848 -1553 245 245 200
-33.1342 -102.845 -1553 248 248 202
-30.0479 -102.842 -1553 249 251 202
-26.9444 -102.774 -1552 251 252 204
-23.8759 -102.838 -1553 250 250 203
-20.7903 -102.835 -1553 241 241 196
-17.7162 -102.9 -1554 235 235 191
-14.6289 -102.899 -1554 244 241 200
-11.549 -102.964 -1555 248 246 205
-8.4654 -103.029 -1556 249 249 209
-5.37784 -103.095 -1557 254 251 214
-2.28341 -103.028 -1556 255 252 215
0.80754 -103.028 -1556 254 252 213
3.90101 -103.094 -1557 253 251 210
6.99398 -103.095 -1557 248 248 204
10.0935 -103.162 -1558 246 247 198
13.2055 -103.295 -1560 250 251 203
16.3152 -103.363 -1561 252 252 208
19.4413 -103.497 -1563 253 252 215
22.6046 -103.764 -1567 254 253 219
25.751 -103.898 -1569 254 252 229
28.924 -104.099 -1572 254 252 233
32.1294 -104.367 -1576 255 252 239
35.3063 -104.502 -1578 255 253 246
38.4914 -104.638 -1580 255 253 247
41.6321 -104.642 -1580 253 254 247
44.8298 -104.778 -1582 252 253 246
48.0359 -104.915 -1584 252 253 245
51.2179 -104.985 -1585 252 253 239
54.4386 -105.122 -1587 252 253 239
57.6677 -105.26 -1589 253 254 240
60.9435 -105.464 -1592 253 254 240
64.1916 -105.602 -1594 253 254 240
67.448 -105.74 -1596 253 254 242
70.8456 -106.078 -1601 253 254 244
74.2177 -106.349 -1605 252 253 245
77.6543 -106.687 -1610 252 253 246
81.2119 -107.158 -1617 254 255 248
84.6416 -107.431 -1621 254 255 248
88.1419 -107.77 -1626 254 254 249
-107.205 -109.09 -1597 226 227 215
-103.693 -108.738 -1592 236 234 214
-100.265 -108.456 -1588 242 240 219
-96.9139 -108.242 -1585 245 243 220
-93.4578 -107.892 -1580 247 245 220
-90.0222 -107.542 -1575 247 246 219
-86.5523 -107.124 -1569 247 249 214
-83.1601 -106.775 -1564 248 251 214
-79.8909 -106.563 -1561 248 252 213
-76.7326 -106.487 -1560 248 251 205
-73.5789 -106.412 -1559 246 248 201
-70.475 -106.406 -1559 245 247 195
-67.3717 -106.399 -1559 243 245 193
-64.3101 -106.461 -1560 244 246 194
-61.2059 -106.456 -1560 245 247 195
-58.1765 -106.587 -1562 245 247 195
-55.034 -106.513 -1561 245 247 198
-51.8959 -106.44 -1560 246 247 198
-48.7309 -106.299 -1558 245 246 196
-45.5742 -106.158 -1556 245 247 199
-42.4258 -106.018 -1554 244 246 199
-39.3111 -105.946 -1553 244 246 201
-36.2006 -105.874 -1552 243 245 199
-33.0944 -105.803 -1551 246 247 201
-30.0312 -105.868 -1552 248 250 201
-26.9295 -105.797 -1551 250 252 203
-23.8934 -106 -1554 251 253 206
-20.8189 -106.066 -1555 249 250 205
-17.7292 -106.064 -1555 244 244 200
-14.6396 -106.063 -1555 247 246 204
-11.5575 -106.13 -1556 248 247 206
-8.46615 -106.129 -1556 247 247 208
-5.37831 -106.196 -1557 252 250 213
-2.28508 -106.196 -1557 253 251 214
0.808656 -106.264 -1558 253 252 212
3.90637 -106.333 -1559 252 251 209
7.0036 -106.333 -1559 247 247 203
10.1138 -106.47 -1561 246 245 197
13.2236 -106.539 -1562 249 249 201
16.348 -106.677 -1564 251 251 206
19.4681 -106.747 -1565 253 252 215
22.6211 -106.954 -1568 255 254 220
25.7533 -107.024 -1569 254 254 230
28.9082 -107.163 -1571 254 253 233
32.0711 -107.302 -1573 255 252 239
35.2423 -107.442 -1575 254 253 246
38.4461 -107.65 -1578 254 253 247
41.6358 -107.79 -1580 253 253 248
44.834 -107.93 -1582 254 253 247
48.0402 -108.071 -1584 253 252 246
51.2872 -108.28 -1587 252 253 240
54.5121 -108.421 -1589 252 253 240
57.7092 -108.495 -1590 253 254 241
60.9491 -108.637 -1592 254 255 241
64.1571 -108.711 -1593 253 254 240
67.454 -108.922 -1596 253 254 243
70.7194 -109.065 -1598 254 255 246
74.1781 -109.481 -1604 253 254 247
77.6131 -109.829 -1609 253 253 248
80.9683 -110.041 -1612 253 253 248
84.597 -110.595 -1620 252 252 247
-107.148 -112.206 -1596 223 227 214
-103.833 -112.056 -1594 232 231 213
-100.4 -111.765 -1590 239 238 219
-97.1064 -111.615 -1588 244 242 221
-93.5848 -111.184 -1582 246 245 220
-90.145 -110.824 -1577 246 245 219
-86.6155 -110.324 -1570 247 248 213
-83.221 -109.965 -1565 249 251 214
-79.9495 -109.746 -1562 247 251 212
-76.7889 -109.668 -1561 247 250 203
-73.5857 -109.521 -1559 247 249 200
-70.5267 -109.584 -1560 244 246 196
-67.4211 -109.578 -1560 242 244 194
-64.3161 -109.572 -1560 244 246 194
-61.2507 -109.636 -1561 246 248 196
-58.182 -109.701 -1562 245 247 195
-55.0744 -109.695 -1562 246 248 199
-51.934 -109.62 -1561 246 248 199
-48.7667 -109.475 -1559 245 247 197
-45.637 -109.4 -1558 246 248 201
-42.457 -109.185 -1555 245 247 200
-39.3147 -109.041 -1553 244 246 201
-36.204 -108.967 -1552 243 245 199
-33.0761 -108.824 -1550 245 247 200
-30.0146 -108.891 -1551 249 251 202
-26.9494 -108.958 -1552 249 251 203
-23.8956 -109.096 -1554 250 252 205
-20.8208 -109.164 -1555 252 252 207
-17.7308 -109.163 -1555 249 249 205
-14.641 -109.161 -1555 249 249 207
-11.5511 -109.16 -1555 247 247 206
-8.46692 -109.229 -1556 246 246 208
-5.37535 -109.229 -1556 250 250 212
-2.28528 -109.298 -1557 252 252 214
0.808737 -109.369 -1558 251 251 211
3.90674 -109.439 -1559 251 251 208
6.99976 -109.369 -1558 247 247 203
10.1083 -109.51 -1560 247 245 197
13.2249 -109.652 -1562 250 248 201
16.3495 -109.794 -1564 252 252 205
19.4699 -109.866 -1565 253 252 213
22.6232 -110.078 -1568 255 254 219
25.7557 -110.151 -1569 255 255 231
28.9292 -110.364 -1572 254 253 233
32.0741 -110.437 -1573 255 252 239
35.2456 -110.581 -1575 252 253 245
38.4253 -110.725 -1577 254 254 248
41.6399 -110.939 -1580 253 253 249
44.8381 -111.083 -1582 254 253 248
48.0447 -111.228 -1584 254 252 246
51.3242 -111.514 -1588 252 253 241
54.5515 -111.659 -1590 252 253 241
57.7147 -111.665 -1590 253 254 242
60.9548 -111.811 -1592 254 255 241
64.2033 -111.957 -1594 253 254 241
67.4605 -112.104 -1596 253 254 244
70.8145 -112.391 -1600 253 254 246
74.185 -112.679 -1604 253 254 247
77.7169 -113.178 -1611 253 253 249
80.9757 -113.256 -1612 253 253 249
84.6572 -113.896 -1621 252 252 248
-107.091 -115.32 -1595 223 226 215
-103.843 -115.237 -1594 235 234 216
-100.473 -115.011 -1591 239 237 219
-97.0545 -114.712 -1587 243 241 220
-93.5937 -114.341 -1582 244 242 218
-90.0964 -113.899 -1576 246 244 219
-86.5686 -113.384 -1569 248 249 214
-83.229 -113.087 -1565 249 251 215
-80.0083 -112.934 -1563 246 250 211
-76.7962 -112.782 -1561 247 250 204
-73.64 -112.703 -1560 246 248 199
-70.5335 -112.696 -1560 246 248 198
-67.3844 -112.617 -1559 244 246 195
-64.2397 -112.538 -1558 245 247 195
-61.1389 -112.532 -1558 245 247 195
-58.0757 -112.599 -1559 245 247 195
-54.9738 -112.593 -1559 246 248 199
-51.8724 -112.588 -1559 245 247 198
-48.7713 -112.583 -1559 246 248 198
-45.6121 -112.434 -1557 247 249 202
-42.4612 -112.286 -1555 246 248 202
-39.3185 -112.137 -1553 245 247 202
-36.1841 -111.989 -1551 244 246 201
-33.0794 -111.913 -1550 246 248 202
-30.0175 -111.983 -1551 248 250 202
-26.9519 -112.052 -1552 249 251 204
-23.898 -112.194 -1554 251 253 206
-20.8228 -112.264 -1555 252 252 207
-17.7325 -112.262 -1555 251 251 207
-14.6329 -112.189 -1554 250 250 208
-11.5522 -112.259 -1555 247 247 206
-8.46228 -112.258 -1555 248 248 210
-5.37585 -112.33 -1556 251 251 213
-2.2855 -112.402 -1557 250 250 212
0.8083 -112.402 -1557 251 251 211
3.90461 -112.474 -1558 251 251 209
7.00043 -112.475 -1558 248 248 204
10.1093 -112.62 -1560 246 244 196
13.2346 -112.838 -1563 250 249 201
16.3617 -112.983 -1565 252 252 205
19.4842 -113.057 -1566 252 252 212
22.6253 -113.204 -1568 254 254 217
25.7418 -113.206 -1568 255 255 232
28.8768 -113.281 -1569 255 254 235
32.016 -113.356 -1570 255 253 241
35.1818 -113.504 -1572 253 253 248
38.4048 -113.796 -1576 253 253 249
41.6175 -114.017 -1579 253 253 249
44.8424 -114.238 -1582 254 253 248
48.0796 -114.459 -1585 255 253 247
51.3291 -114.68 -1588 252 253 242
54.5568 -114.83 -1590 252 253 242
57.7565 -114.908 -1591 252 253 241
60.9988 -115.058 -1593 253 254 241
64.2094 -115.136 -1594 253 254 242
67.4246 -115.215 -1595 253 254 245
70.7769 -115.51 -1599 253 254 247
74.1922 -115.878 -1604 254 255 248
77.6278 -116.247 -1609 253 253 249
81.0338 -116.544 -1613 254 254 250
84.7174 -117.202 -1622 253 253 250
-107.102 -118.505 -1595 225 228 218
-103.918 -118.494 -1595 238 237 219
-100.42 -118.113 -1590 239 238 219
-97.0029 -117.806 -1586 239 237 216
-93.5438 -117.425 -1581 243 241 217
-90.1624 -117.119 -1577 247 245 220
-86.6323 -116.59 -1570 249 250 215
-83.2372 -116.21 -1565 249 250 214
-80.0674 -116.128 -1564 247 251 212
-76.853 -115.972 -1562 248 250 204
-73.6944 -115.89 -1561 246 248 200
-70.5857 -115.883 -1561 246 248 198
-67.4775 -115.876 -1561 245 247 196
-64.3698 -115.869 -1561 245 247 195
-61.2234 -115.789 -1560 245 247 195
-58.1187 -115.783 -1560 245 247 195
-54.9792 -115.703 -1559 245 247 198
-51.8442 -115.623 -1558 246 248 198
-48.7135 -115.544 -1557 246 248 199
-45.5872 -115.465 -1556 247 249 202
-42.438 -115.312 -1554 248 250 204
-39.3223 -115.234 -1553 246 248 203
-36.1877 -115.082 -1551 245 247 202
-33.0613 -114.93 -1549 246 248 203
-30.0204 -115.075 -1551 249 251 204
-26.9372 -115.073 -1551 250 252 205
-23.8849 -115.219 -1553 250 252 205
-20.8115 -115.29 -1554 252 252 207
-17.7228 -115.288 -1554 253 253 209
-14.6249 -115.213 -1553 252 252 210
-11.5459 -115.286 -1554 248 248 207
-8.45766 -115.285 -1554 249 249 210
-5.37292 -115.358 -1555 252 252 214
-2.28571 -115.506 -1557 252 252 214
0.808904 -115.58 -1558 253 253 213
3.9075 -115.655 -1559 251 251 210
7.00112 -115.581 -1558 248 248 205
10.1103 -115.73 -1560 246 245 197
13.219 -115.806 -1561 248 247 199
16.3528 -116.03 -1564 251 252 203
19.4613 -116.031 -1564 252 252 211
22.5987 -116.182 -1566 254 254 215
25.7279 -116.259 -1567 255 255 231
28.8612 -116.335 -1568 255 254 235
31.9987 -116.413 -1569 255 253 243
35.1853 -116.639 -1572 253 253 249
38.4329 -117.013 -1577 253 253 250
41.6479 -117.24 -1580 252 253 250
44.9034 -117.541 -1584 254 253 248
48.1753 -117.842 -1588 254 253 248
51.3989 -117.996 -1590 252 253 243
54.5965 -118.075 -1591 252 253 242
57.8347 -118.229 -1593 252 253 242
61.0048 -118.235 -1593 253 254 243
64.2964 -118.464 -1596 253 254 243
67.5157 -118.545 -1597 253 254 246
70.8283 -118.775 -1600 253 254 247
74.2457 -119.153 -1605 253 254 247
77.732 -119.606 -1611 253 253 249
81.1422 -119.911 -1615 254 254 251
84.7781 -120.513 -1623 252 252 251
88.0668 -120.596 -1624 254 254 253
-107.113 -121.691 -1595 220 223 213
-103.798 -121.527 -1593 232 231 213
-100.43 -121.288 -1590 239 237 219
-97.0127 -120.973 -1586 241 239 219
-93.5532 -120.582 -1581 244 242 219
-90.0572 -120.115 -1575 249 247 222
-86.6411 -119.724 -1570 250 251 216
-83.2988 -119.411 -1566 250 251 215
-80.1778 -119.402 -1566 247 251 212
-76.9592 -119.242 -1564 248 250 205
-73.7963 -119.158 -1563 247 249 202
-70.638 -119.074 -1562 245 247 197
-67.5707 -119.143 -1563 245 247 196
-64.3763 -118.984 -1561 245 246 194
-61.1903 -118.825 -1559 246 247 195
-58.0873 -118.819 -1559 246 247 195
-54.9495 -118.737 -1558 245 247 198
-51.8494 -118.732 -1558 247 249 200
-48.7497 -118.727 -1558 247 249 200
-45.5919 -118.569 -1556 248 250 202
-42.4695 -118.489 -1555 249 251 204
-39.3263 -118.332 -1553 247 249 204
-36.2147 -118.252 -1552 246 248 203
-33.0859 -118.096 -1550 247 249 204
-30.0428 -118.245 -1552 249 251 204
-26.9572 -118.242 -1552 250 252 205
-23.8719 -118.24 -1552 250 252 205
-20.7868 -118.237 -1552 251 252 207
-17.7018 -118.236 -1552 253 253 209
-14.6076 -118.158 -1551 253 253 211
-11.5396 -118.309 -1553 250 250 208
-8.4585 -118.384 -1554 250 250 210
-5.37345 -118.459 -1555 253 253 215
-2.28447 -118.535 -1556 254 254 216
0.80951 -118.764 -1559 253 253 213
3.9079 -118.764 -1559 251 251 210
7.00183 -118.688 -1558 248 248 206
10.1113 -118.842 -1560 244 245 196
13.2289 -118.995 -1562 245 246 197
16.344 -119.073 -1563 249 250 201
19.4757 -119.227 -1565 252 252 209
22.601 -119.305 -1566 254 254 214
25.7304 -119.384 -1567 255 254 229
28.8641 -119.463 -1568 255 254 235
32.0021 -119.542 -1569 255 253 244
35.189 -119.774 -1572 253 253 250
38.4368 -120.159 -1577 253 253 251
41.7048 -120.544 -1582 251 254 251
44.993 -120.929 -1587 252 253 250
48.1803 -121.01 -1588 253 253 249
51.4688 -121.32 -1592 253 254 244
54.6363 -121.326 -1592 252 253 243
57.8405 -121.408 -1593 252 253 243
61.0111 -121.414 -1593 253 254 244
64.3028 -121.649 -1596 253 254 244
67.4381 -121.579 -1595 253 254 246
70.7911 -121.891 -1599 254 255 247
74.1143 -122.128 -1602 252 253 246
77.6916 -122.745 -1610 251 251 249
81.1001 -123.058 -1614 253 253 252
84.5254 -123.372 -1618 253 253 252
87.7504 -123.381 -1618 254 254 254
-107.057 -124.799 -1594 222 225 215
-103.679 -124.553 -1591 233 232 215
-100.251 -124.23 -1587 240 238 220
-96.9004 -123.984 -1584 243 241 221
-93.4445 -123.583 -1579 247 245 222
-90.0665 -123.26 -1575 251 249 224
-86.65 -122.86 -1570 250 251 216
-83.3606 -122.616 -1567 250 252 216
-80.1861 -122.529 -1566 248 252 213
-76.9671 -122.364 -1564 247 250 205
-73.8512 -122.357 -1564 246 248 201
-70.7358 -122.349 -1564 245 247 198
-67.6642 -122.42 -1565 245 247 196
-64.5066 -122.335 -1564 245 246 194
-61.3144 -122.172 -1562 246 247 195
-58.1679 -122.087 -1561 245 246 194
-55.0257 -122.003 -1560 245 247 198
-51.8215 -121.763 -1557 247 249 200
-48.7235 -121.757 -1557 248 250 201
-45.5965 -121.674 -1556 249 251 204
-42.474 -121.592 -1555 249 251 204
-39.3557 -121.509 -1554 248 249 206
-36.2417 -121.427 -1553 246 248 204
-33.0893 -121.189 -1550 246 248 203
-30.0266 -121.264 -1551 249 251 204
-26.9254 -121.182 -1550 249 251 204
-23.8436 -121.18 -1550 249 251 206
-20.7622 -121.178 -1550 252 253 209
-17.6923 -121.254 -1551 254 254 211
-14.6091 -121.252 -1551 254 254 213
-11.5409 -121.407 -1553 251 251 211
-8.4648 -121.562 -1555 250 250 211
-5.374 -121.561 -1555 253 253 215
-2.2847 -121.639 -1556 254 254 216
0.80908 -121.795 -1558 254 254 214
3.9058 -121.796 -1558 252 252 211
6.99806 -121.718 -1557 248 248 206
10.0994 -121.797 -1558 242 243 194
13.2134 -121.955 -1560 244 245 196
16.3143 -121.956 -1560 249 250 201
19.4279 -122.037 -1561 252 252 209
22.5744 -122.273 -1564 254 254 214
25.7002 -122.354 -1565 255 253 228
28.8486 -122.513 -1567 255 253 235
31.985 -122.595 -1568 255 253 245
35.1702 -122.833 -1571 253 253 251
38.4407 -123.306 -1577 253 253 252
41.6563 -123.545 -1580 251 253 252
44.9978 -124.096 -1587 252 253 251
48.1852 -124.179 -1588 253 253 250
51.5064 -124.576 -1593 253 254 245
54.6762 -124.581 -1593 253 254 245
57.9193 -124.744 -1595 253 254 245
61.0174 -124.593 -1593 253 254 244
64.3096 -124.835 -1596 253 254 244
67.4873 -124.842 -1596 253 254 247
70.8869 -125.24 -1601 252 252 247
74.1684 -125.404 -1603 252 252 247
77.6995 -125.96 -1610 252 252 251
81.1086 -126.281 -1614 253 253 253
84.6386 -126.759 -1620 253 253 254
87.8679 -126.768 -1620 254 254 254
-106.934 -127.825 -1592 222 225 216
-103.625 -127.653 -1590 233 232 215
-100.261 -127.401 -1587 241 240 223
-96.8495 -127.069 -1583 244 242 222
-93.3953 -126.658 -1578 251 249 225
-90.019 -126.327 -1574 251 249 224
-86.6041 -125.916 -1569 250 251 216
-83.3163 -125.666 -1566 250 252 216
-80.0922 -125.497 -1564 248 252 213
-76.9261 -125.408 -1563 247 250 205
-73.8118 -125.4 -1563 246 248 201
-70.6981 -125.392 -1563 245 247 198
-67.6714 -125.545 -1565 245 247 196
-64.5135 -125.458 -1564 245 246 194
-61.3209 -125.291 -1562 245 246 194
-58.1367 -125.124 -1560 245 246 194
-54.9963 -125.037 -1559 245 247 198
-51.827 -124.871 -1557 246 248 199
-48.6973 -124.785 -1556 247 249 200
-45.6014 -124.78 -1556 250 252 205
-42.5058 -124.776 -1556 249 251 205
-39.3852 -124.691 -1555 248 249 207
-36.2922 -124.687 -1555 246 248 204
-33.1142 -124.363 -1551 245 247 202
-30.0491 -124.439 -1552 247 249 202
-26.9282 -124.276 -1550 248 250 204
-23.8308 -124.193 -1549 249 251 206
-20.751 -124.191 -1549 251 252 209
-17.6827 -124.269 -1550 253 253 211
-14.6106 -124.347 -1551 254 254 214
-11.5347 -124.426 -1552 252 252 213
-8.46569 -124.665 -1555 251 251 214
-5.3711 -124.584 -1554 253 253 215
-2.28493 -124.744 -1556 254 254 216
0.809172 -124.905 -1558 252 252 212
3.90622 -124.905 -1558 252 252 211
7.00779 -124.986 -1559 247 247 205
10.1071 -124.987 -1559 240 241 192
13.2063 -124.988 -1559 243 243 194
16.3161 -125.07 -1560 248 249 200
19.4175 -125.072 -1560 252 252 209
22.5624 -125.314 -1563 253 253 213
25.6865 -125.397 -1564 255 253 228
28.8151 -125.48 -1565 255 253 236
31.968 -125.644 -1567 255 253 246
35.1515 -125.888 -1570 253 253 252
38.4448 -126.453 -1577 253 253 253
41.6609 -126.698 -1580 251 253 253
44.9742 -127.184 -1586 252 253 252
48.1903 -127.349 -1588 253 253 251
51.4795 -127.676 -1592 253 254 246
54.6135 -127.601 -1591 253 254 246
57.8891 -127.848 -1594 253 254 246
61.0621 -127.854 -1594 253 254 244
64.2761 -127.941 -1595 253 254 244
67.4521 -127.948 -1595 253 254 247
70.806 -128.277 -1599 253 253 248
74.0837 -128.445 -1601 254 254 250
77.5149 -128.854 -1606 253 253 253
80.9161 -129.184 -1610 254 254 254
84.4909 -129.754 -1617 254 254 255
87.8231 -129.924 -1619 253 253 253
91.1077 -130.014 -1620 214 214 214
-107.08 -131.172 -1594 214 217 209
-103.701 -130.914 -1591 235 234 218
-100.209 -130.491 -1586 242 241 224
-96.799 -130.151 -1582 246 244 224
-93.4647 -129.894 -1579 251 249 227
-90.0288 -129.472 -1574 252 250 226
-86.6688 -129.133 -1570 251 252 217
-83.3786 -128.877 -1567 250 252 215
-80.101 -128.621 -1564 246 250 211
-76.9837 -128.613 -1564 246 248 204
-73.8671 -128.604 -1564 245 247 200
-70.751 -128.597 -1564 245 247 198
-67.722 -128.753 -1566 244 246 196
-64.6856 -128.91 -1568 246 247 195
-61.4454 -128.657 -1565 245 246 194
-58.2922 -128.568 -1564 245 246 194
-55.0728 -128.315 -1561 245 247 198
-51.8993 -128.145 -1559 245 248 199
-48.7027 -127.893 -1556 246 249 200
-45.6063 -127.888 -1556 249 251 204
-42.5105 -127.883 -1556 249 251 205
-39.3895 -127.796 -1555 247 248 206
-36.2729 -127.71 -1554 245 247 203
-33.1391 -127.541 -1552 245 247 202
-30.0331 -127.456 -1551 245 247 200
-26.9311 -127.37 -1550 247 249 203
-23.8334 -127.285 -1549 249 251 206
-20.7532 -127.283 -1549 251 252 209
-17.6961 -127.445 -1551 253 253 211
-14.6217 -127.526 -1552 253 253 213
-11.5508 -127.689 -1554 252 252 214
-8.47204 -127.852 -1556 251 250 215
-5.38204 -127.933 -1557 253 253 215
-2.28811 -128.015 -1558 254 254 215
0.810305 -128.179 -1560 250 251 211
3.91166 -128.179 -1560 251 252 210
7.00855 -128.098 -1559 247 247 203
10.1082 -128.099 -1559 242 241 192
13.2077 -128.1 -1559 243 241 192
16.3074 -128.102 -1559 248 247 198
19.432 -128.268 -1561 252 251 209
22.5359 -128.27 -1561 252 252 212
25.6567 -128.355 -1562 254 253 229
28.8182 -128.605 -1565 255 253 237
31.9714 -128.773 -1567 255 253 246
35.1553 -129.023 -1570 253 253 252
38.4246 -129.52 -1576 253 253 253
41.6654 -129.853 -1580 251 253 253
44.9507 -130.269 -1585 252 253 252
48.1652 -130.438 -1587 253 253 251
51.4529 -130.773 -1591 253 254 246
54.6194 -130.779 -1591 253 254 246
57.8953 -131.031 -1594 253 254 246
61.0689 -131.038 -1594 253 254 244
64.3234 -131.209 -1596 253 254 244
67.5019 -131.216 -1596 253 254 247
70.858 -131.553 -1600 253 254 248
74.1381 -131.726 -1602 254 254 250
77.5232 -132.063 -1606 253 253 253
80.9753 -132.483 -1611 253 253 254
84.2912 -132.656 -1613 253 253 255
87.6698 -132.913 -1616 254 254 254
91.1738 -133.334 -1621 219 218 218
-106.957 -134.191 -1592 203 206 199
-103.648 -134.011 -1590 237 237 221
-100.283 -133.747 -1587 242 241 224
-96.8097 -133.314 -1582 250 248 228
-93.3567 -132.882 -1577 252 250 228
-89.9245 -132.45 -1572 251 249 227
-86.6232 -132.187 -1569 250 251 216
-83.3879 -132.009 -1567 249 251 215
-80.1612 -131.832 -1565 246 250 210
-76.9923 -131.739 -1564 245 248 203
-73.9226 -131.814 -1565 244 246 199
-70.8042 -131.806 -1565 244 246 196
-67.6863 -131.798 -1565 243 245 195
-64.6103 -131.875 -1566 245 246 194
-61.413 -131.699 -1564 245 246 195
-58.2241 -131.524 -1562 245 247 196
-55.079 -131.434 -1561 245 247 198
-51.905 -131.259 -1559 245 248 200
-48.7394 -131.085 -1557 246 250 202
-45.6408 -131.08 -1557 249 251 204
-42.5152 -130.991 -1556 249 251 205
-39.3686 -130.818 -1554 247 249 206
-36.2769 -130.813 -1554 245 247 202
-33.1428 -130.641 -1552 245 247 201
-30.0364 -130.553 -1551 246 248 201
-26.9167 -130.382 -1549 248 250 203
-23.836 -130.379 -1549 250 251 206
-20.7556 -130.376 -1549 251 252 209
-17.6866 -130.458 -1550 254 254 212
-14.6139 -130.541 -1551 254 254 212
-11.5372 -130.623 -1552 253 252 212
-8.46772 -130.875 -1555 251 250 215
-5.37572 -130.874 -1555 253 253 215
-2.28689 -131.042 -1557 251 251 213
0.809882 -131.21 -1559 250 251 211
3.90959 -131.211 -1559 251 251 210
7.00934 -131.211 -1559 248 248 205
10.1093 -131.212 -1559 244 243 195
13.2177 -131.298 -1560 243 242 194
16.3092 -131.215 -1559 247 246 198
19.4342 -131.385 -1561 250 250 207
22.5385 -131.388 -1561 251 251 210
25.6759 -131.559 -1563 253 252 226
28.8214 -131.73 -1565 255 254 233
31.975 -131.902 -1567 255 253 240
35.1816 -132.243 -1571 253 253 249
38.4534 -132.752 -1577 253 253 251
41.6964 -133.093 -1581 252 253 254
44.9273 -133.351 -1584 253 253 252
48.1404 -133.524 -1586 253 253 251
51.4262 -133.867 -1590 253 253 248
54.5911 -133.873 -1590 253 253 247
57.8656 -134.132 -1593 252 253 246
61.114 -134.307 -1595 252 253 243
64.3307 -134.398 -1596 253 254 243
67.594 -134.574 -1598 253 254 245
70.9103 -134.834 -1601 251 252 245
74.1926 -135.011 -1603 253 254 247
77.532 -135.272 -1606 253 253 252
81.0347 -135.787 -1612 252 252 252
84.3005 -135.88 -1613 254 254 255
87.5712 -135.974 -1614 253 253 253
90.8465 -136.069 -1615 229 229 229
-106.97 -137.377 -1592 187 188 185
-103.594 -137.105 -1589 233 233 219
-100.169 -136.749 -1585 241 241 225
-96.7597 -136.392 -1581 249 247 228
-93.3674 -136.036 -1577 250 248 229
-89.8775 -135.508 -1571 250 248 227
-86.5779 -135.239 -1568 248 251 216
-83.3975 -135.143 -1567 248 252 215
-80.1704 -134.961 -1565 244 250 208
-77.0012 -134.865 -1564 245 248 201
-73.931 -134.943 -1565 244 245 197
-70.8575 -135.021 -1566 244 245 192
-67.7373 -135.013 -1566 243 244 192
-64.659 -135.091 -1567 244 245 194
-61.4593 -134.911 -1565 245 246 198
-58.2681 -134.732 -1563 246 248 200
-55.0501 -134.467 -1560 246 248 199
-51.911 -134.375 -1559 246 249 202
-48.7137 -134.11 -1556 247 251 205
-45.6459 -134.191 -1557 250 252 207
-42.4927 -134.014 -1555 249 252 207
-39.373 -133.923 -1554 246 250 207
-36.2343 -133.746 -1552 245 248 202
-33.1253 -133.656 -1551 245 247 200
-30.0204 -133.566 -1550 246 248 201
-26.9198 -133.476 -1549 249 250 203
-23.8387 -133.473 -1549 250 250 204
-20.7579 -133.471 -1549 252 252 209
-17.6886 -133.555 -1550 253 253 211
-14.6155 -133.639 -1551 255 254 210
-11.546 -133.81 -1553 253 252 211
-8.46322 -133.895 -1554 252 252 214
-5.37978 -134.066 -1556 253 253 215
-2.28861 -134.238 -1558 252 252 214
0.809981 -134.324 -1559 251 251 211
3.90754 -134.239 -1558 250 250 210
7.00564 -134.239 -1558 248 248 208
10.1105 -134.326 -1559 243 244 195
13.2107 -134.328 -1559 242 243 195
16.332 -134.502 -1561 246 247 198
19.4613 -134.676 -1563 249 249 205
22.5701 -134.679 -1563 251 251 209
25.6953 -134.767 -1564 253 252 222
28.8246 -134.857 -1565 255 254 228
31.999 -135.119 -1568 255 254 234
35.1634 -135.295 -1570 253 254 246
38.4578 -135.903 -1577 253 254 248
41.7012 -136.252 -1581 253 253 255
44.9042 -136.429 -1583 253 253 252
48.1762 -136.78 -1587 253 253 251
51.3997 -136.958 -1589 253 253 251
54.5975 -137.05 -1590 253 253 249
57.8722 -137.315 -1593 252 253 246
61.1594 -137.581 -1596 252 253 242
64.4186 -137.76 -1598 253 254 242
67.6441 -137.854 -1599 253 254 242
70.9183 -138.035 -1601 253 254 244
74.2475 -138.302 -1604 253 254 246
77.5409 -138.483 -1606 254 254 252
80.9936 -138.923 -1611 252 252 252
84.3103 -139.106 -1613 253 253 255
87.6898 -139.374 -1616 253 253 253
90.857 -139.298 -1615 233 233 233
-103.737 -140.462 -1591 228 229 216
-100.307 -140.097 -1587 239 239 225
-96.8935 -139.732 -1583 244 242 224
-93.4376 -139.279 -1578 244 242 223
-90.0597 -138.915 -1574 246 245 225
-86.6433 -138.464 -1569 249 252 218
-83.4604 -138.365 -1568 247 251 214
-80.2822 -138.267 -1567 244 250 206
-77.1087 -138.17 -1566 247 249 202
-74.0341 -138.249 -1567 244 245 196
-70.9111 -138.24 -1567 245 246 192
-67.7885 -138.232 -1567 244 245 192
-64.6665 -138.224 -1567 244 245 194
-61.4272 -137.952 -1564 246 248 200
-58.2377 -137.769 -1562 247 249 202
-55.0918 -137.674 -1561 247 249 201
-51.9504 -137.579 -1560 248 250 204
-48.7507 -137.309 -1557 247 251 206
-45.6513 -137.303 -1557 250 252 207
-42.525 -137.21 -1556 250 252 207
-39.3524 -136.94 -1553 247 251 208
-36.2386 -136.848 -1552 247 250 205
-33.1291 -136.755 -1551 247 249 203
-30.024 -136.664 -1550 247 249 202
-26.9055 -136.484 -1548 249 250 203
-23.8416 -136.569 -1549 250 250 204
-20.7469 -136.478 -1548 251 251 208
-17.6793 -136.564 -1549 253 253 211
-14.5984 -136.562 -1549 255 253 209
-11.5251 -136.649 -1550 254 253 211
-8.4533 -136.824 -1552 252 252 214
-5.37693 -137.088 -1555 252 252 214
-2.2874 -137.264 -1557 253 253 215
0.810601 -137.528 -1560 252 252 212
3.9105 -137.44 -1559 250 250 211
7.01564 -137.529 -1560 248 248 210
10.1181 -137.53 -1560 244 244 198
13.2207 -137.531 -1560 242 242 195
16.3443 -137.709 -1562 245 246 197
19.476 -137.888 -1564 248 248 205
22.5871 -137.89 -1564 251 251 209
25.7311 -138.07 -1566 253 252 221
28.8648 -138.161 -1567 254 253 226
32.0233 -138.341 -1569 255 253 233
35.2347 -138.697 -1573 254 253 246
38.4866 -139.143 -1578 254 253 248
41.6796 -139.324 -1580 253 253 254
44.9378 -139.682 -1584 253 253 252
48.1514 -139.864 -1586 253 253 251
51.4059 -140.134 -1589 253 253 251
54.6382 -140.317 -1591 253 253 249
57.9517 -140.676 -1595 252 253 246
61.2431 -140.948 -1598 252 253 243
64.4262 -140.955 -1598 252 253 242
67.6943 -141.14 -1600 252 253 241
70.9267 -141.236 -1601 253 254 245
74.2561 -141.509 -1604 253 254 246
77.5499 -141.695 -1606 253 253 251
81.0535 -142.234 -1612 253 253 252
84.3202 -142.332 -1613 253 253 255
88.0258 -143.136 -1622 253 253 253
91.0363 -142.794 -1618 238 238 238
-106.995 -143.75 -1592 139 141 143
-103.88 -143.827 -1593 220 221 209
-100.319 -143.273 -1587 235 235 222
-97.0275 -143.081 -1585 239 237 219
-93.4489 -142.437 -1578 236 235 216
-90.0705 -142.065 -1574 242 241 221
-86.7089 -141.693 -1570 248 251 218
-83.577 -141.683 -1570 247 251 214
-80.3431 -141.493 -1568 244 251 205
-77.2164 -141.483 -1568 247 249 201
-74.1848 -141.654 -1570 243 244 195
-70.9648 -141.465 -1568 245 246 192
-67.8399 -141.457 -1568 244 245 192
-64.7568 -141.539 -1569 245 246 194
-61.5525 -141.351 -1567 246 248 200
-58.3191 -141.073 -1564 247 249 202
-55.1336 -140.886 -1562 248 250 203
-51.9898 -140.789 -1561 248 251 205
-48.7879 -140.512 -1558 248 252 207
-45.6568 -140.416 -1557 251 253 208
-42.5028 -140.231 -1555 251 253 208
-39.3824 -140.136 -1554 248 252 209
-36.2195 -139.86 -1551 249 251 207
-33.1331 -139.856 -1551 248 250 205
-30.0469 -139.853 -1551 247 249 202
-26.9262 -139.669 -1549 249 250 203
-23.8444 -139.666 -1549 250 250 204
-20.7628 -139.663 -1549 251 251 208
-17.6814 -139.661 -1549 252 252 210
-14.5907 -139.568 -1548 255 253 209
