ply
format ascii 1.0
comment Created by Open3D
element vertex 1446
property double x
property double y
property double z
property uchar red
property uchar green
property uchar blue
end_header
-611.489 -891.344 -1410 30 27 22
-608.003 -889.494 -1407 29 25 22
-604.956 -888.276 -1405 27 23 22
-602.345 -887.69 -1404 27 23 22
-600.164 -887.736 -1404 28 24 23
-598.408 -888.414 -1405 24 20 17
-596.649 -889.092 -1406 24 20 19
-594.887 -889.77 -1407 29 25 24
-593.121 -890.448 -1408 29 25 24
-590.512 -889.861 -1407 28 24 23
-587.906 -889.274 -1406 27 23 22
-585.719 -889.319 -1406 27 23 22
-583.532 -889.364 -1406 30 26 25
-581.345 -889.409 -1406 30 26 25
-579.158 -889.453 -1406 27 23 22
-577.38 -890.131 -1407 26 22 21
-575.19 -890.175 -1407 28 22 22
-573.001 -890.22 -1407 30 24 24
-570.81 -890.264 -1407 28 24 23
-568.62 -890.308 -1407 224 224 224
-566.429 -890.352 -1407 224 224 224
-563.836 -889.763 -1406 224 224 224
-561.247 -889.173 -1405 30 26 25
-559.058 -889.217 -1405 30 26 25
-556.869 -889.26 -1405 31 27 26
-555.469 -890.569 -1407 31 27 26
-553.67 -891.246 -1408 29 28 26
-552.259 -892.555 -1410 30 29 27
-550.451 -893.231 -1411 31 30 28
-548.251 -893.274 -1411 30 29 27
-546.825 -894.583 -1413 28 27 25
-544.235 -893.992 -1412 27 26 24
-542.417 -894.668 -1413 26 25 23
-540.595 -895.344 -1414 27 26 24
-539.151 -896.652 -1416 28 27 25
-536.941 -896.695 -1416 27 26 24
-535.487 -898.003 -1418 27 26 24
-534.402 -899.945 -1421 25 24 22
-532.932 -901.254 -1423 24 23 21
-531.83 -903.196 -1426 25 24 22
-530.346 -904.505 -1428 25 24 22
-528.486 -905.18 -1429 25 24 22
-526.622 -905.856 -1430 25 24 22
-525.122 -907.164 -1432 26 25 23
-523.615 -908.473 -1434 26 25 21
-522.465 -910.415 -1437 26 25 21
-521.306 -912.357 -1440 26 25 21
-520.137 -914.299 -1443 24 23 21
-518.958 -916.242 -1446 25 24 20
-517.412 -917.55 -1448 25 24 22
-515.86 -918.859 -1450 27 26 24
-514.301 -920.168 -1452 29 28 26
-513.441 -922.744 -1456 29 28 26
-512.568 -925.32 -1460 30 29 27
-512.032 -928.53 -1465 29 27 28
-511.132 -931.106 -1469 28 26 27
-510.219 -933.683 -1473 30 28 29
-509.293 -936.259 -1477 28 26 27
-508.012 -938.202 -1480 22 22 22
-506.72 -940.145 -1483 22 20 21
-505.419 -942.087 -1486 26 24 27
-504.447 -944.664 -1490 33 31 36
-504.473 -949.143 -1497 32 31 36
-751.851 -981.076 -1551 45 40 37
-741.241 -970.379 -1534 43 37 37
-730.683 -959.68 -1517 40 35 32
-721.617 -950.877 -1503 36 31 28
-713.552 -943.339 -1491 33 28 25
-708.862 -940.229 -1486 32 27 24
-704.663 -937.751 -1482 31 27 24
-700.476 -935.273 -1478 30 26 23
-697.718 -934.693 -1477 29 25 22
-693.55 -932.214 -1473 26 22 19
-690.802 -931.633 -1472 26 22 19
-687.121 -929.786 -1469 27 23 20
-683.916 -928.572 -1467 26 22 19
-680.251 -926.724 -1464 23 19 16
-677.059 -925.509 -1462 23 19 16
-673.872 -924.294 -1460 26 22 19
-670.692 -923.079 -1458 28 24 21
-666.6 -920.597 -1454 30 26 23
-662.52 -918.114 -1450 33 29 26
-658.907 -916.265 -1447 34 30 27
-654.85 -913.781 -1443 33 29 26
-650.353 -910.664 -1438 33 29 26
-646.772 -908.814 -1435 31 27 24
-643.2 -906.962 -1432 29 25 22
-640.084 -905.744 -1430 28 24 21
-637.421 -905.159 -1429 27 24 19
-633.871 -903.307 -1426 27 24 19
-631.216 -902.722 -1425 27 23 20
-627.681 -900.869 -1422 29 25 22
-624.155 -899.016 -1419 224 224 224
-621.076 -897.796 -1417 224 224 224
-616.693 -894.676 -1412 224 224 224
-614.502 -894.723 -1412 224 224 224
-611.008 -892.868 -1409 224 224 224
-607.524 -891.014 -1406 28 24 21
-604.48 -889.792 -1404 26 22 21
-601.87 -889.205 -1403 27 23 22
-599.69 -889.251 -1403 29 25 24
-597.936 -889.931 -1404 26 22 19
-596.179 -890.61 -1405 24 20 19
-594.418 -891.29 -1406 29 25 24
-593.075 -892.603 -1408 28 24 23
-590.467 -892.015 -1407 28 24 23
-588.279 -892.06 -1407 27 23 22
-586.091 -892.105 -1407 28 24 23
-583.902 -892.15 -1407 30 26 25
-581.714 -892.195 -1407 30 26 25
-579.113 -891.606 -1406 27 23 22
-577.336 -892.285 -1407 26 22 21
-575.146 -892.329 -1407 29 23 23
-572.956 -892.374 -1407 28 22 22
-570.766 -892.418 -1407 224 224 224
-568.171 -891.828 -1406 224 224 224
-566.385 -892.506 -1407 224 224 224
-563.793 -891.915 -1406 30 26 25
-561.603 -891.959 -1406 29 25 24
-559.413 -892.003 -1406 30 26 25
-557.222 -892.046 -1406 31 27 26
-555.426 -892.724 -1407 31 27 26
-553.627 -893.402 -1408 29 28 26
-551.824 -894.079 -1409 30 29 27
-550.018 -894.757 -1410 31 30 28
-547.819 -894.8 -1410 30 29 27
-546.395 -896.112 -1412 28 27 25
-544.193 -896.155 -1412 27 26 24
-541.991 -896.197 -1412 27 26 24
-540.553 -897.509 -1414 28 27 25
-538.727 -898.186 -1415 27 26 24
-536.899 -898.864 -1416 27 26 24
-535.822 -900.81 -1419 27 26 24
-534.736 -902.757 -1422 26 25 23
-533.265 -904.069 -1424 25 24 22
-532.161 -906.015 -1427 25 24 22
-530.304 -906.692 -1428 25 24 22
-528.444 -907.37 -1429 27 26 24
-526.58 -908.046 -1430 28 27 25
-525.08 -909.358 -1432 27 26 24
-523.574 -910.67 -1434 25 24 22
-522.424 -912.616 -1437 24 23 19
-521.626 -915.198 -1441 25 24 20
-520.456 -917.145 -1444 24 23 21
-518.917 -918.457 -1446 25 24 20
-517.371 -919.769 -1448 24 23 21
-515.819 -921.08 -1450 26 25 23
-514.26 -922.392 -1452 29 28 26
-513.752 -925.609 -1457 29 28 26
-512.878 -928.192 -1461 28 27 25
-511.991 -930.774 -1465 28 26 27
-511.439 -933.992 -1470 27 25 26
-510.178 -935.939 -1473 28 26 27
-509.252 -938.522 -1477 29 27 28
-507.971 -940.47 -1480 24 24 24
-506.679 -942.417 -1483 22 20 21
-505.378 -944.364 -1486 23 21 24
-504.068 -946.312 -1489 28 26 31
-504.095 -950.801 -1496 31 30 35
-505.107 -957.198 -1506 75 74 80
-507.422 -966.137 -1520 159 159 171
-750.825 -982.177 -1549 43 38 35
-740.702 -972.088 -1533 43 37 37
-730.628 -961.997 -1517 41 36 33
-720.123 -951.271 -1500 38 33 30
-713.498 -945.617 -1491 35 30 27
-708.809 -942.5 -1486 33 28 25
-704.134 -939.382 -1481 29 25 22
-700.897 -938.166 -1479 28 24 21
-697.665 -936.95 -1477 28 24 21
-693.498 -934.465 -1473 25 21 18
-690.75 -933.882 -1472 25 21 18
-687.069 -932.031 -1469 26 22 19
-683.398 -930.179 -1466 25 21 18
-680.2 -928.962 -1464 23 19 16
-677.008 -927.744 -1462 22 18 15
-673.821 -926.526 -1460 25 21 18
-670.641 -925.308 -1458 28 24 21
-666.549 -922.819 -1454 31 27 24
-662.926 -920.966 -1451 33 29 26
-658.857 -918.477 -1447 33 29 26
-654.347 -915.353 -1442 32 28 25
-649.851 -912.229 -1437 32 28 25
-645.821 -909.738 -1433 32 28 25
-642.253 -907.883 -1430 31 27 24
-639.14 -906.662 -1428 30 26 23
-636.48 -906.075 -1427 27 24 19
-633.378 -904.854 -1425 27 24 19
-630.282 -903.632 -1423 28 24 21
-627.192 -902.409 -1421 30 26 23
-624.108 -901.187 -1419 224 224 224
-621.029 -899.964 -1417 0 217 231
-617.083 -897.471 -1413 0 217 231
-614.02 -896.248 -1411 0 217 231
-610.962 -895.024 -1409 224 224 224
-607.91 -893.8 -1407 224 224 224
-604.433 -891.941 -1404 28 24 23
-601.395 -890.716 -1402 29 25 24
-599.644 -891.398 -1403 31 27 26
-597.891 -892.079 -1404 29 25 22
-596.133 -892.76 -1405 26 22 21
-594.372 -893.441 -1406 28 24 23
-593.03 -894.758 -1408 27 23 22
-591.26 -895.439 -1409 27 23 22
-589.488 -896.12 -1410 26 22 21
-586.879 -895.53 -1409 27 23 22
-584.687 -895.575 -1409 28 24 23
-582.496 -895.62 -1409 28 24 23
-579.892 -895.029 -1408 27 23 22
-577.701 -895.074 -1408 26 22 21
-575.51 -895.118 -1408 27 21 21
-573.319 -895.163 -1408 26 20 20
-571.127 -895.207 -1408 224 224 224
-568.531 -894.616 -1407 224 224 224
-566.341 -894.66 -1407 224 224 224
-563.749 -894.068 -1406 28 24 23
-561.559 -894.112 -1406 29 25 24
-559.369 -894.155 -1406 32 28 27
-556.782 -893.563 -1405 32 28 27
-555.383 -894.878 -1407 31 27 26
-553.19 -894.921 -1407 29 28 26
-551.389 -895.601 -1408 30 29 27
-549.584 -896.28 -1409 30 29 27
-547 -895.687 -1408 28 27 25
-545.965 -897.638 -1411 27 26 24
-543.379 -897.045 -1410 27 26 24
-541.948 -898.359 -1412 27 26 24
-540.51 -899.674 -1414 27 26 24
-538.685 -900.353 -1415 27 26 24
-537.236 -901.668 -1417 27 26 24
-536.157 -903.619 -1420 27 26 24
-535.069 -905.571 -1423 27 26 24
-533.597 -906.886 -1425 26 25 23
-532.119 -908.201 -1427 26 25 23
-530.633 -909.516 -1429 23 22 20
-528.772 -910.194 -1430 25 24 22
-526.907 -910.873 -1431 28 27 25
-525.772 -912.824 -1434 27 26 24
-524.627 -914.775 -1437 26 25 23
-523.109 -916.09 -1439 26 25 21
-521.223 -916.769 -1440 26 25 21
-520.054 -918.72 -1443 25 24 22
-518.516 -920.035 -1445 24 23 19
-516.972 -921.35 -1447 23 22 20
-515.066 -922.028 -1448 24 23 21
-514.219 -924.616 -1452 26 25 23
-513.359 -927.205 -1456 25 24 22
-512.486 -929.793 -1460 23 22 20
-511.6 -932.382 -1464 25 23 24
-511.397 -936.244 -1470 27 25 26
-510.483 -938.833 -1474 25 23 24
-509.556 -941.422 -1478 24 22 23
-508.273 -943.374 -1481 23 23 23
-506.98 -945.326 -1484 25 23 24
-505.678 -947.278 -1487 24 22 25
-503.688 -947.956 -1488 24 22 27
-503.38 -951.819 -1494 35 34 39
-504.73 -958.868 -1505 46 45 50
-506.713 -967.192 -1518 147 147 157
-772.136 -1006.04 -1583 27 22 19
-761.426 -995.291 -1566 29 24 21
-751.253 -985.179 -1550 42 37 34
-741.129 -975.065 -1534 44 39 36
-730.573 -964.315 -1517 43 38 35
-720.549 -954.198 -1501 43 35 33
-713.444 -947.895 -1491 36 31 28
-708.755 -944.77 -1486 30 26 23
-704.557 -942.28 -1482 27 23 20
-700.844 -940.426 -1479 26 22 19
-697.612 -939.207 -1477 27 23 20
-693.445 -936.715 -1473 26 22 19
-690.228 -935.496 -1471 26 22 19
-686.55 -933.64 -1468 26 22 19
-683.346 -932.42 -1466 25 21 18
-680.148 -931.199 -1464 24 20 17
-676.493 -929.342 -1461 24 20 17
-673.77 -928.758 -1460 26 22 19
-670.13 -926.9 -1457 29 25 22
-666.499 -925.042 -1454 29 25 22
-661.962 -921.911 -1449 30 26 23
-657.897 -919.416 -1445 32 28 25
-653.843 -916.921 -1441 32 28 25
-649.349 -913.789 -1436 32 28 25
-645.321 -911.293 -1432 31 27 24
-642.204 -910.069 -1430 30 26 23
-639.092 -908.845 -1428 28 24 21
-635.986 -907.621 -1426 29 25 22
-632.885 -906.396 -1424 28 24 21
-630.234 -905.808 -1423 224 224 224
-627.144 -904.582 -1421 224 224 224
-623.62 -902.72 -1418 0 217 231
-620.544 -901.495 -1416 0 217 231
-616.599 -898.995 -1412 0 217 231
-613.537 -897.769 -1410 0 217 231
-610.481 -896.542 -1408 0 217 231
-606.999 -894.679 -1405 224 224 224
-604.387 -894.088 -1404 224 224 224
-601.349 -892.861 -1402 28 24 23
-599.171 -892.907 -1402 27 23 22
-596.993 -892.953 -1402 29 25 24
-595.239 -893.636 -1403 26 22 21
-593.481 -894.318 -1404 24 20 19
-592.563 -896.275 -1407 25 21 20
-590.795 -896.958 -1408 24 20 19
-589.442 -898.277 -1410 25 21 20
-587.666 -898.96 -1411 25 21 20
-585.472 -899.005 -1411 25 21 20
-583.278 -899.05 -1411 26 22 21
-580.671 -898.458 -1410 26 22 21
-578.887 -899.14 -1411 25 21 20
-576.692 -899.185 -1411 24 20 19
-574.496 -899.23 -1411 224 224 224
-571.894 -898.637 -1410 224 224 224
-568.891 -897.407 -1408 224 224 224
-566.699 -897.451 -1408 224 224 224
-564.106 -896.857 -1407 224 224 224
-561.515 -896.264 -1406 29 25 24
-559.325 -896.307 -1406 32 28 27
-556.343 -895.076 -1404 31 27 26
-554.945 -896.394 -1406 31 27 26
-553.147 -897.075 -1407 29 28 26
-551.346 -897.756 -1408 30 29 27
-549.151 -897.799 -1408 28 27 25
-546.957 -897.842 -1408 27 26 24
-545.535 -899.16 -1410 27 26 24
-543.337 -899.203 -1410 28 27 25
-541.905 -900.521 -1412 26 25 23
-540.085 -901.201 -1413 26 25 23
-538.643 -902.52 -1415 26 25 23
-537.193 -903.838 -1417 27 26 24
-536.115 -905.794 -1420 27 26 24
-534.651 -907.112 -1422 27 26 24
-533.181 -908.43 -1424 28 27 25
-531.704 -909.748 -1426 27 26 24
-530.22 -911.066 -1428 22 21 19
-528.36 -911.746 -1429 25 24 22
-526.865 -913.064 -1431 27 26 24
-525.73 -915.02 -1434 27 26 24
-524.22 -916.338 -1436 27 26 24
-523.431 -918.932 -1440 27 26 22
-521.181 -918.974 -1440 27 26 24
-520.012 -920.93 -1443 25 24 22
-518.834 -922.886 -1446 23 22 18
-516.931 -923.566 -1447 23 22 20
-515.025 -924.245 -1448 24 23 21
-514.532 -927.478 -1453 24 23 21
-513.67 -930.073 -1457 23 22 20
-512.796 -932.667 -1461 21 20 18
-512.258 -935.901 -1466 23 21 22
-511.356 -938.496 -1470 27 25 26
-510.442 -941.09 -1474 30 28 29
-509.515 -943.686 -1478 27 25 26
-508.232 -945.642 -1481 25 23 24
-506.939 -947.599 -1484 25 23 24
-505.637 -949.555 -1487 24 22 25
-504.324 -951.512 -1490 23 21 24
-503.676 -954.746 -1495 28 28 30
-503.348 -958.619 -1501 26 25 30
-761.369 -997.683 -1566 31 26 23
-752.651 -989.457 -1553 40 35 32
-743.006 -979.957 -1538 45 40 37
-731 -967.269 -1518 44 39 36
-721.934 -958.402 -1504 42 34 32
-713.869 -950.81 -1492 35 30 27
-708.702 -947.04 -1486 29 25 22
-704.503 -944.544 -1482 27 23 20
-701.265 -943.322 -1480 27 23 20
-697.56 -941.463 -1477 27 23 20
-693.393 -938.966 -1473 28 24 21
-690.176 -937.743 -1471 28 24 21
-686.966 -936.521 -1469 26 22 19
-683.294 -934.66 -1466 25 21 18
-679.632 -932.799 -1463 25 21 18
-676.442 -931.575 -1461 25 21 18
-673.719 -930.989 -1460 26 22 19
-670.079 -929.127 -1457 29 25 22
-666.448 -927.264 -1454 31 27 24
-661.912 -924.126 -1449 31 27 24
-657.847 -921.625 -1445 31 27 24
-653.793 -919.124 -1441 30 26 23
-648.848 -915.346 -1435 27 23 20
-645.272 -913.482 -1432 27 23 20
-642.155 -912.255 -1430 28 24 21
-638.596 -910.39 -1427 28 24 21
-635.491 -909.163 -1425 28 24 21
-632.393 -907.935 -1423 27 23 20
-629.743 -907.345 -1422 224 224 224
-626.214 -905.479 -1419 0 217 231
-623.133 -904.25 -1417 0 217 231
-619.62 -902.383 -1414 0 217 231
-616.115 -900.516 -1411 0 217 231
-613.49 -899.925 -1410 0 217 231
-610.001 -898.057 -1407 0 217 231
-606.953 -896.827 -1405 0 217 231
-603.91 -895.597 -1403 224 224 224
-600.874 -894.367 -1401 224 224 224
-598.698 -894.413 -1401 21 17 16
-596.521 -894.459 -1401 24 20 19
-594.345 -894.505 -1401 23 19 18
-593.013 -895.827 -1403 19 15 14
-592.096 -897.789 -1406 22 18 17
-590.75 -899.112 -1408 23 19 18
-589.397 -900.434 -1410 24 20 19
-587.621 -901.118 -1411 24 20 19
-585.842 -901.802 -1412 22 18 17
-583.646 -901.848 -1412 22 18 17
-581.449 -901.893 -1412 24 20 19
-579.253 -901.938 -1412 24 20 19
-577.056 -901.983 -1412 23 19 18
-574.859 -902.028 -1412 224 224 224
-572.256 -901.433 -1411 255 138 0
-569.251 -900.2 -1409 255 138 0
-566.655 -899.605 -1408 255 138 0
-564.062 -899.01 -1407 224 224 224
-561.472 -898.415 -1406 224 224 224
-559.282 -898.459 -1406 29 25 24
-556.299 -897.224 -1404 31 27 26
-554.901 -898.546 -1406 31 27 26
-553.104 -899.229 -1407 29 28 26
-551.303 -899.911 -1408 29 28 26
-549.108 -899.954 -1408 27 26 24
-546.914 -899.997 -1408 26 25 23
-545.106 -900.679 -1409 27 26 24
-543.294 -901.361 -1410 29 28 26
-541.479 -902.043 -1411 27 26 24
-539.661 -902.725 -1412 26 25 23
-538.22 -904.046 -1414 27 26 24
-537.151 -906.007 -1417 28 27 25
-536.073 -907.967 -1420 27 26 24
-534.233 -908.649 -1421 27 26 24
-532.764 -909.97 -1423 27 26 24
-530.916 -910.652 -1424 26 25 23
-529.435 -911.973 -1426 25 24 22
-527.948 -913.294 -1428 28 27 25
-526.455 -914.615 -1430 28 27 25
-525.322 -916.576 -1433 26 25 23
-524.544 -919.176 -1437 26 25 23
-523.026 -920.497 -1439 25 24 20
-521.14 -921.179 -1440 24 23 21
-519.971 -923.139 -1443 24 23 21
-518.434 -924.46 -1445 24 23 19
-516.532 -925.142 -1446 24 23 21
-515.339 -927.103 -1449 24 23 21
-514.491 -929.703 -1453 24 23 21
-513.629 -932.304 -1457 24 23 21
-512.754 -934.905 -1461 23 22 20
-511.867 -937.506 -1465 24 22 23
-510.967 -940.107 -1469 28 26 27
-510.401 -943.348 -1474 27 25 26
-509.474 -945.949 -1478 27 25 26
-508.191 -947.91 -1481 25 23 24
-506.898 -949.871 -1484 22 20 21
-505.596 -951.833 -1487 20 18 21
-503.945 -953.154 -1489 24 22 25
-502.962 -955.755 -1493 20 20 22
-502.301 -958.997 -1498 21 21 23
-503.293 -965.44 -1508 61 62 67
-762.77 -1001.99 -1569 34 29 26
-755.017 -995.022 -1558 36 28 26
-741.984 -981.028 -1536 42 37 34
-731.426 -970.225 -1519 48 43 40
-722.84 -961.977 -1506 41 36 33
-714.772 -954.366 -1494 34 29 26
-709.125 -949.948 -1487 31 27 24
-705.401 -948.085 -1484 27 26 22
-701.685 -946.222 -1481 28 24 21
-697.979 -944.358 -1478 27 23 20
-694.282 -942.494 -1475 28 24 21
-690.593 -940.629 -1472 25 21 18
-687.381 -939.404 -1470 27 23 20
-683.709 -937.538 -1467 26 22 19
-680.045 -935.673 -1464 25 21 18
-676.854 -934.447 -1462 26 22 19
-674.129 -933.859 -1461 27 23 20
-670.488 -931.992 -1458 30 26 23
-665.939 -928.847 -1453 31 27 24
-661.862 -926.34 -1449 33 29 26
-657.341 -923.194 -1444 33 29 26
-653.29 -920.686 -1440 33 29 26
-648.798 -917.539 -1435 32 28 25
-645.223 -915.67 -1432 33 29 26
-641.657 -913.801 -1429 31 27 24
-638.547 -912.571 -1427 27 23 20
-635.443 -911.341 -1425 26 22 19
-632.344 -910.11 -1423 28 24 21
-629.252 -908.879 -1421 224 224 224
-626.166 -907.648 -1419 0 217 231
-622.645 -905.777 -1416 0 217 231
-619.134 -903.905 -1413 0 217 231
-616.068 -902.673 -1411 0 217 231
-613.008 -901.441 -1409 0 217 231
-609.954 -900.209 -1407 0 217 231
-606.906 -898.976 -1405 0 217 231
-603.433 -897.103 -1402 224 224 224
-600.828 -896.509 -1401 224 224 224
-598.652 -896.555 -1401 224 224 224
-596.05 -895.961 -1400 224 224 224
-594.299 -896.647 -1401 224 224 224
-592.545 -897.333 -1402 224 224 224
-591.629 -899.299 -1405 224 224 224
-590.285 -900.625 -1407 224 224 224
-588.933 -901.951 -1409 224 224 224
-587.576 -903.277 -1411 224 224 224
-585.382 -903.322 -1411 224 224 224
-583.601 -904.008 -1412 224 224 224
-581.816 -904.693 -1413 21 17 16
-579.208 -904.098 -1412 224 224 224
-577.011 -904.143 -1412 224 224 224
-574.814 -904.188 -1412 255 138 0
-572.211 -903.592 -1411 255 138 0
-569.207 -902.355 -1409 255 138 0
-566.611 -901.76 -1408 255 138 0
-564.018 -901.163 -1407 255 138 0
-561.428 -900.566 -1406 224 224 224
-559.238 -900.61 -1406 224 224 224
-556.652 -900.013 -1405 29 25 24
-554.858 -900.697 -1406 28 27 25
-553.06 -901.381 -1407 28 27 25
-551.259 -902.065 -1408 28 27 25
-549.065 -902.108 -1408 28 27 25
-546.482 -901.511 -1407 27 26 24
-544.676 -902.195 -1408 26 25 23
-542.866 -902.878 -1409 27 26 24
-541.053 -903.562 -1410 29 28 26
-539.618 -904.886 -1412 27 26 24
-538.177 -906.21 -1414 26 25 23
-537.109 -908.176 -1417 27 26 24
-535.653 -909.5 -1419 27 26 24
-533.815 -910.183 -1420 27 26 24
-531.973 -910.866 -1421 28 27 25
-530.501 -912.19 -1423 27 26 24
-528.651 -912.874 -1424 25 24 22
-527.167 -914.198 -1426 26 25 23
-526.413 -916.804 -1430 26 24 25
-525.28 -918.769 -1433 25 24 22
-523.772 -920.093 -1435 24 23 21
-522.257 -921.417 -1437 24 23 21
-520.736 -922.742 -1439 24 23 21
-519.209 -924.066 -1441 25 24 22
-517.675 -925.39 -1443 26 25 21
-516.491 -927.355 -1446 26 25 23
-514.942 -928.679 -1448 25 24 22
-514.449 -931.928 -1453 24 23 21
-513.588 -934.535 -1457 24 23 21
-512.362 -936.5 -1460 26 25 23
-511.477 -939.107 -1464 27 25 26
-510.578 -941.714 -1468 27 25 26
-510.013 -944.963 -1473 29 25 26
-509.088 -947.57 -1477 26 24 25
-507.463 -948.894 -1479 26 24 25
-506.515 -951.502 -1483 25 23 24
-505.215 -953.468 -1486 23 21 24
-503.566 -954.792 -1488 21 19 22
-502.247 -956.758 -1491 24 22 25
-502.26 -961.291 -1498 27 27 29
-502.918 -967.108 -1507 22 21 27
-764.657 -1006.95 -1573 34 29 26
-753.506 -995.479 -1555 39 31 29
-743.377 -985.293 -1539 43 38 35
-732.815 -974.465 -1522 47 42 39
-723.265 -964.916 -1507 40 35 32
-715.674 -957.927 -1496 34 29 26
-709.548 -952.859 -1488 31 27 24
-705.822 -950.991 -1485 24 23 19
-702.106 -949.123 -1482 26 22 19
-698.398 -947.255 -1479 26 22 19
-694.229 -944.746 -1475 27 23 20
-691.009 -943.518 -1473 25 21 18
-687.329 -941.649 -1470 27 23 20
-684.123 -940.419 -1468 27 23 20
-680.458 -938.549 -1465 25 21 18
-677.265 -937.32 -1463 26 22 19
-675 -937.371 -1463 27 23 20
-670.437 -934.219 -1458 32 28 25
-665.888 -931.066 -1453 33 29 26
-661.811 -928.554 -1449 32 28 25
-656.836 -924.759 -1443 33 29 26
-653.24 -922.887 -1440 34 30 27
-648.749 -919.732 -1435 33 29 26
-645.174 -917.858 -1432 32 28 25
-642.056 -916.625 -1430 29 25 22
-639.393 -916.034 -1429 26 22 19
-635.84 -914.159 -1426 26 22 19
-631.852 -911.644 -1422 28 24 21
-628.761 -910.41 -1420 224 224 224
-625.676 -909.175 -1418 0 217 231
-622.158 -907.3 -1415 0 217 231
-618.648 -905.424 -1412 0 217 231
-615.584 -904.189 -1410 0 217 231
-612.961 -903.595 -1409 0 217 231
-609.907 -902.359 -1407 0 217 231
-606.859 -901.123 -1405 0 217 231
-603.817 -899.887 -1403 224 224 224
-601.21 -899.292 -1402 224 224 224
-598.605 -898.697 -1401 224 224 224
-596.004 -898.102 -1400 224 224 224
-593.829 -898.148 -1400 224 224 224
-592.076 -898.835 -1401 224 224 224
-591.162 -900.806 -1404 224 224 224
-590.239 -902.776 -1407 224 224 224
-588.47 -903.464 -1408 224 224 224
-586.697 -904.151 -1409 224 224 224
-584.921 -904.838 -1410 224 224 224
-583.555 -906.167 -1412 224 224 224
-580.947 -905.57 -1411 224 224 224
-578.753 -905.615 -1411 224 224 224
-576.558 -905.661 -1411 255 138 0
-574.769 -906.347 -1412 255 138 0
-572.166 -905.75 -1411 255 138 0
-569.566 -905.153 -1410 255 138 0
-566.164 -903.271 -1407 255 138 0
-563.573 -902.673 -1406 255 138 0
-561.384 -902.717 -1406 255 138 0
-559.194 -902.761 -1406 224 224 224
-556.212 -901.52 -1404 29 25 24
-554.42 -902.206 -1405 26 25 23
-553.017 -903.534 -1407 26 25 23
-550.825 -903.577 -1407 28 27 25
-548.632 -903.621 -1407 28 27 25
-546.051 -903.021 -1406 27 26 24
-544.633 -904.349 -1408 26 25 23
-542.823 -905.034 -1409 27 26 24
-541.01 -905.719 -1410 27 26 24
-539.193 -906.404 -1411 27 26 24
-537.754 -907.732 -1413 27 26 24
-536.687 -909.701 -1416 27 26 24
-535.233 -911.029 -1418 26 25 23
-533.396 -911.713 -1419 26 25 23
-531.557 -912.398 -1420 26 25 23
-529.713 -913.083 -1421 27 26 24
-528.238 -914.41 -1423 26 25 23
-526.756 -915.737 -1425 26 25 23
-525.635 -917.707 -1428 26 24 25
-524.505 -919.677 -1431 25 24 22
-523.365 -921.647 -1434 25 24 22
-521.852 -922.974 -1436 24 23 21
-520.695 -924.944 -1439 24 23 21
-519.527 -926.914 -1442 26 25 23
-517.992 -928.241 -1444 26 25 21
-516.45 -929.569 -1446 26 25 23
-514.901 -930.896 -1448 25 24 22
-514.762 -934.794 -1454 23 22 20
-513.546 -936.765 -1457 24 23 21
-512.321 -938.735 -1460 26 25 23
-511.435 -941.348 -1464 28 26 27
-510.537 -943.962 -1468 28 26 27
-509.626 -946.575 -1472 29 25 24
-508.013 -947.902 -1474 26 24 25
-507.079 -950.515 -1478 26 24 25
-506.133 -953.129 -1482 25 23 24
-505.174 -955.743 -1486 23 21 24
-503.186 -956.427 -1487 21 19 22
-502.206 -959.04 -1491 24 22 25
-501.549 -962.298 -1496 27 27 29
-501.209 -966.198 -1502 21 21 23
-762.169 -1006.14 -1568 34 26 24
-754.418 -999.136 -1557 38 30 28
-745.252 -990.208 -1543 42 37 34
-734.685 -979.355 -1526 44 39 36
-723.21 -967.216 -1507 38 33 30
-716.098 -960.853 -1497 33 29 26
-709.971 -955.772 -1489 30 26 23
-706.244 -953.9 -1486 25 21 18
-702.527 -952.028 -1483 25 21 18
-698.345 -949.513 -1479 26 23 18
-694.176 -946.998 -1475 26 22 19
-690.957 -945.767 -1473 25 21 18
-687.744 -944.535 -1471 27 23 20
-684.536 -943.303 -1469 27 23 20
-680.871 -941.429 -1466 26 22 19
-677.676 -940.197 -1464 25 21 18
-674.949 -939.606 -1463 27 23 20
-670.845 -937.088 -1459 34 30 27
-666.296 -933.928 -1454 35 31 28
-661.304 -930.125 -1448 32 28 25
-656.786 -926.963 -1443 33 29 26
-653.19 -925.086 -1440 36 32 29
-648.699 -921.924 -1435 33 29 26
-645.575 -920.689 -1433 29 25 22
-642.456 -919.453 -1431 28 24 21
-639.344 -918.217 -1429 27 23 20
-635.791 -916.338 -1426 28 24 21
-631.803 -913.816 -1422 28 24 21
-628.713 -912.58 -1420 224 224 224
-625.187 -910.699 -1417 224 224 224
-621.671 -908.82 -1414 0 217 231
-618.163 -906.939 -1411 0 217 231
-615.1 -905.701 -1409 0 217 231
-612.479 -905.105 -1408 0 217 231
-609.86 -904.51 -1407 0 217 231
-606.813 -903.271 -1405 224 224 224
-604.201 -902.674 -1404 224 224 224
-601.164 -901.435 -1402 28 24 23
-598.559 -900.839 -1401 224 224 224
-596.383 -900.885 -1401 224 224 224
-593.783 -900.288 -1400 224 224 224
-592.03 -900.977 -1401 224 224 224
-590.695 -902.309 -1403 224 224 224
-589.354 -903.641 -1405 224 224 224
-588.006 -904.973 -1407 224 224 224
-586.235 -905.662 -1408 224 224 224
-585.291 -907.637 -1411 224 224 224
-583.51 -908.326 -1412 224 224 224
-581.726 -909.014 -1413 224 224 224
-579.528 -909.06 -1413 224 224 224
-577.33 -909.105 -1413 255 138 0
-574.724 -908.506 -1412 255 138 0
-572.527 -908.551 -1412 255 138 0
-569.118 -906.665 -1409 255 138 0
-566.12 -905.423 -1407 255 138 0
-563.128 -904.18 -1405 255 138 0
-560.941 -904.224 -1405 255 138 0
-557.958 -902.981 -1403 224 224 224
-555.376 -902.381 -1402 29 25 24
-553.587 -903.068 -1403 25 24 22
-552.188 -904.399 -1405 25 24 22
-550.39 -905.086 -1406 27 26 24
-548.199 -905.129 -1406 29 25 24
-546.008 -905.172 -1406 28 24 23
-544.59 -906.503 -1408 25 24 22
-543.166 -907.833 -1410 25 25 23
-541.351 -908.52 -1411 26 25 23
-539.915 -909.851 -1413 27 26 24
-538.472 -911.181 -1415 26 25 23
-537.023 -912.512 -1417 26 25 23
-535.568 -913.842 -1419 26 25 23
-533.73 -914.529 -1420 25 24 22
-531.514 -914.571 -1420 25 24 22
-529.298 -914.613 -1420 26 25 23
-528.196 -916.588 -1423 27 26 24
-526.344 -917.274 -1424 26 24 25
-525.225 -919.248 -1427 26 24 25
-524.097 -921.222 -1430 26 25 23
-522.958 -923.197 -1433 25 24 22
-521.447 -924.527 -1435 24 23 21
-520.291 -926.502 -1438 25 24 22
-518.765 -927.832 -1440 26 25 23
-517.233 -929.162 -1442 26 25 21
-516.051 -931.137 -1445 26 25 23
-514.148 -931.823 -1446 26 24 25
-514.012 -935.731 -1452 24 22 23
-513.152 -938.35 -1456 24 22 23
-511.929 -940.325 -1459 27 25 26
-511.045 -942.944 -1463 28 26 27
-510.496 -946.208 -1468 27 25 26
-509.239 -948.183 -1471 29 25 24
-507.627 -949.513 -1473 27 26 24
-506.695 -952.133 -1477 27 26 24
-505.75 -954.753 -1481 26 24 25
-504.453 -956.728 -1484 23 21 24
-502.807 -958.058 -1486 21 19 22
-501.155 -959.388 -1488 24 22 25
-500.502 -962.653 -1493 28 26 29
-500.167 -966.563 -1499 28 28 30
-756.299 -1004.08 -1561 34 26 24
-746.645 -994.493 -1546 41 36 33
-734.629 -981.684 -1526 44 39 36
-724.115 -970.803 -1509 38 33 30
-716.522 -963.78 -1498 33 29 26
-710.394 -958.688 -1490 31 27 24
-706.666 -956.812 -1487 26 22 19
-702.473 -954.291 -1483 26 22 19
-698.292 -951.771 -1479 27 24 19
-694.594 -949.893 -1476 27 23 20
-690.904 -948.015 -1473 27 23 20
-687.691 -946.781 -1471 27 23 20
-684.484 -945.546 -1469 26 22 19
-681.283 -944.311 -1467 25 21 18
-677.625 -942.432 -1464 25 21 18
-674.898 -941.84 -1463 28 24 21
-670.335 -938.672 -1458 35 31 28
-665.786 -935.504 -1453 37 33 30
-660.34 -931.048 -1446 33 29 26
-655.37 -927.235 -1440 33 29 26
-651.779 -925.354 -1437 35 31 28
-648.649 -924.115 -1435 30 26 23
-645.075 -922.233 -1432 26 22 19
-641.958 -920.994 -1430 27 23 20
-639.295 -920.399 -1429 29 25 22
-635.742 -918.516 -1426 29 25 22
-631.755 -915.989 -1422 28 24 21
-628.222 -914.104 -1419 30 26 23
-624.698 -912.22 -1416 224 224 224
-620.743 -909.691 -1412 224 224 224
-617.239 -907.806 -1409 0 217 231
-614.616 -907.209 -1408 0 217 231
-612.432 -907.257 -1408 0 217 231
-609.38 -906.015 -1406 224 224 224
-606.766 -905.418 -1405 224 224 224
-604.154 -904.82 -1404 32 28 27
-601.546 -904.222 -1403 30 26 25
-598.94 -903.624 -1402 27 23 22
-596.337 -903.026 -1401 26 22 21
-593.313 -901.783 -1399 27 23 22
-591.984 -903.118 -1401 28 24 25
-590.229 -903.809 -1402 24 20 19
-588.469 -904.499 -1403 22 18 17
-587.125 -905.834 -1405 22 18 17
-585.773 -907.169 -1407 22 18 17
-584.416 -908.504 -1409 23 19 18
-583.051 -909.84 -1411 24 20 19
-581.269 -910.53 -1412 224 224 224
-579.073 -910.575 -1412 224 224 224
-576.876 -910.62 -1412 255 138 0
-574.272 -910.02 -1411 255 138 0
-571.672 -909.42 -1410 255 138 0
-568.266 -907.53 -1407 255 138 0
-565.271 -906.284 -1405 255 138 0
-562.282 -905.038 -1403 255 138 0
-559.699 -904.437 -1402 255 138 0
-557.118 -903.836 -1401 224 224 224
-554.541 -903.234 -1400 29 25 24
-552.755 -903.923 -1401 25 24 22
-551.751 -905.902 -1404 25 24 22
-549.955 -906.591 -1405 26 25 23
-547.766 -906.634 -1405 27 23 22
-545.965 -907.322 -1406 26 22 21
-544.547 -908.656 -1408 25 24 22
-543.123 -909.99 -1410 25 25 23
-541.692 -911.324 -1412 26 25 23
-539.872 -912.012 -1413 27 26 24
-538.43 -913.345 -1415 26 25 23
-536.981 -914.679 -1417 24 23 21
-535.525 -916.013 -1419 25 24 22
-533.312 -916.055 -1419 25 24 22
-531.098 -916.098 -1419 25 24 22
-529.256 -916.785 -1420 26 25 23
-527.782 -918.119 -1422 28 27 25
-525.932 -918.806 -1423 27 25 26
-524.815 -920.785 -1426 27 25 26
-523.688 -922.765 -1429 26 25 23
-522.552 -924.744 -1432 25 24 22
-521.042 -926.077 -1434 25 24 22
-520.249 -928.702 -1438 26 25 23
-518.724 -930.035 -1440 26 25 23
-517.55 -932.015 -1443 25 24 20
-516.724 -934.64 -1447 26 25 23
-514.463 -934.681 -1447 26 24 25
-514.325 -938.599 -1453 26 24 25
-513.111 -940.578 -1456 26 24 25
-511.888 -942.557 -1459 27 25 26
-510.654 -944.537 -1462 27 25 26
-509.411 -946.516 -1465 26 24 25
-508.505 -949.142 -1469 29 25 22
-507.241 -951.121 -1472 27 26 24
-505.968 -953.101 -1475 27 26 24
-505.026 -955.727 -1479 26 24 25
-504.072 -958.353 -1483 23 21 24
-502.766 -960.332 -1486 22 20 23
-500.777 -961.019 -1487 24 22 25
-499.791 -963.645 -1491 27 25 28
-499.459 -967.564 -1497 28 28 28
-499.772 -972.776 -1505 43 44 48
-747.071 -997.496 -1547 42 37 34
-735.536 -985.301 -1528 46 41 38
-725.019 -974.395 -1511 39 34 31
-716.946 -966.711 -1499 33 29 26
-709.863 -960.316 -1489 31 27 24
-705.661 -957.791 -1485 26 25 21
-701.472 -955.264 -1481 27 23 20
-697.767 -953.383 -1478 28 23 19
-694.541 -952.146 -1476 27 23 20
-690.851 -950.263 -1473 28 24 21
-688.106 -949.672 -1472 26 22 19
-684.898 -948.434 -1470 25 22 17
-681.695 -947.196 -1468 24 21 16
-678.961 -946.602 -1467 26 22 19
-675.307 -944.718 -1464 30 26 23
-670.743 -941.544 -1459 36 32 29
-665.277 -937.077 -1452 38 34 31
-659.833 -932.611 -1445 34 30 27
-655.32 -929.434 -1440 33 29 26
-651.276 -926.902 -1436 34 30 27
-647.696 -925.016 -1433 29 25 22
-644.575 -923.774 -1431 26 22 19
-641.909 -923.178 -1430 27 23 20
-638.798 -921.936 -1428 29 25 22
-635.248 -920.048 -1425 29 25 22
-631.262 -917.515 -1421 29 25 22
-627.731 -915.626 -1418 31 27 24
-623.768 -913.092 -1414 33 29 26
-620.256 -911.202 -1411 224 224 224
-616.753 -909.312 -1408 224 224 224
-614.132 -908.714 -1407 224 224 224
-611.95 -908.762 -1407 224 224 224
-609.333 -908.163 -1406 224 224 224
-606.719 -907.564 -1405 33 29 28
-604.108 -906.965 -1404 33 29 28
-601.928 -907.012 -1404 30 26 25
-599.321 -906.413 -1403 27 23 22
-595.865 -904.521 -1400 28 24 23
-593.691 -904.567 -1400 29 25 24
-591.516 -904.613 -1400 30 26 27
-589.762 -905.305 -1401 26 22 21
-588.004 -905.997 -1402 24 20 19
-586.661 -907.335 -1404 22 18 17
-585.312 -908.673 -1406 22 18 17
-583.541 -909.365 -1407 22 18 17
-582.593 -911.35 -1410 25 21 20
-580.4 -911.395 -1410 27 23 22
-578.617 -912.087 -1411 224 224 224
-576.014 -911.485 -1410 224 224 224
-573.413 -910.884 -1409 255 138 0
-570.816 -910.283 -1408 255 138 0
-567.817 -909.034 -1406 255 138 0
-564.422 -907.138 -1403 255 138 0
-561.437 -905.89 -1401 255 138 0
-559.256 -905.934 -1401 224 224 224
-556.677 -905.331 -1400 224 224 224
-554.101 -904.728 -1399 28 24 23
-552.316 -905.418 -1400 26 25 23
-550.922 -906.755 -1402 26 25 23
-549.129 -907.445 -1403 26 25 23
-547.333 -908.135 -1404 26 22 21
-545.533 -908.825 -1405 26 22 21
-544.117 -910.162 -1407 25 24 22
-543.08 -912.146 -1410 24 24 22
-541.265 -912.836 -1411 25 24 22
-539.447 -913.526 -1412 27 26 24
-538.387 -915.509 -1415 27 26 24
-536.938 -916.846 -1417 25 24 22
-535.483 -918.183 -1419 24 23 21
-533.269 -918.225 -1419 24 23 21
-531.055 -918.268 -1419 24 23 21
-529.214 -918.957 -1420 26 25 23
-527.369 -919.647 -1421 28 27 25
-525.89 -920.983 -1423 28 26 27
-524.405 -922.32 -1425 27 25 26
-523.28 -924.303 -1428 26 24 25
-522.145 -926.287 -1431 24 23 21
-521 -928.27 -1434 25 24 22
-520.208 -930.902 -1438 26 25 23
-519.042 -932.886 -1441 25 24 22
-518.226 -935.517 -1445 25 24 20
-516.682 -936.853 -1447 25 24 22
-514.777 -937.543 -1448 26 24 25
-514.637 -941.469 -1454 27 25 26
-513.07 -942.805 -1456 28 26 27
-511.846 -944.789 -1459 28 26 27
-510.613 -946.773 -1462 27 25 26
-509.023 -948.11 -1464 26 24 25
-508.464 -951.389 -1469 29 25 22
-507.2 -953.373 -1472 27 26 24
-505.584 -954.71 -1474 27 26 24
-504.644 -957.342 -1478 26 24 25
-503.691 -959.974 -1482 25 23 26
-502.049 -961.31 -1484 23 21 24
-500.063 -961.999 -1485 24 22 25
-499.08 -964.631 -1489 26 24 27
-498.417 -967.911 -1494 31 30 28
-498.735 -973.135 -1502 28 29 31
-501.671 -983.542 -1518 133 136 141
-747.014 -999.856 -1547 42 37 34
-734.998 -986.986 -1527 46 41 38
-724.484 -976.053 -1510 39 34 31
-716.891 -968.998 -1499 32 28 25
-709.808 -962.588 -1489 31 27 24
-705.607 -960.056 -1485 27 26 22
-701.418 -957.524 -1481 28 24 21
-697.241 -954.991 -1477 28 23 19
-694.487 -954.398 -1476 27 23 20
-690.329 -951.864 -1472 27 23 20
-687.586 -951.271 -1471 25 21 18
-684.845 -950.677 -1470 24 21 16
-681.643 -949.436 -1468 25 22 17
-678.909 -948.841 -1467 27 23 20
-674.333 -945.659 -1462 32 28 25
-669.772 -942.476 -1457 36 32 29
-664.31 -938 -1450 36 32 29
-659.325 -934.169 -1444 34 30 27
-654.814 -930.985 -1439 34 30 27
-650.772 -928.447 -1435 33 29 26
-647.194 -926.556 -1432 28 24 21
-644.525 -925.959 -1431 27 23 20
-641.41 -924.714 -1429 28 24 21
-638.749 -924.117 -1428 29 25 22
-635.199 -922.225 -1425 30 26 23
-630.769 -919.037 -1420 30 26 23
-627.24 -917.144 -1417 31 27 24
-623.278 -914.603 -1413 32 28 25
-619.329 -912.062 -1409 31 27 24
-616.267 -910.816 -1407 30 26 23
-613.649 -910.216 -1406 29 25 24
-611.467 -910.263 -1406 30 26 25
-609.286 -910.311 -1406 32 28 27
-606.24 -909.063 -1404 33 29 28
-604.061 -909.11 -1404 31 27 26
-601.453 -908.509 -1403 29 25 24
-598.847 -907.908 -1402 27 23 22
-596.67 -907.955 -1402 28 24 23
-593.645 -906.706 -1400 30 26 25
-591.047 -906.104 -1399 30 26 27
-589.295 -906.797 -1400 28 24 23
-587.539 -907.491 -1401 25 21 20
-585.78 -908.185 -1402 22 18 17
-584.433 -909.526 -1404 20 16 15
-583.08 -910.867 -1406 22 18 17
-582.134 -912.856 -1409 26 22 21
-579.943 -912.902 -1409 28 24 23
-577.752 -912.947 -1409 27 23 22
-575.56 -912.992 -1409 224 224 224
-572.962 -912.389 -1408 224 224 224
-570.366 -911.786 -1407 255 138 0
-567.369 -910.535 -1405 255 138 0
-564.378 -909.283 -1403 255 138 0
-561.794 -908.679 -1402 224 224 224
-559.212 -908.075 -1401 224 224 224
-557.031 -908.119 -1401 27 26 24
-554.453 -907.515 -1400 27 23 22
-552.273 -907.558 -1400 26 25 23
-550.485 -908.25 -1401 27 26 24
-548.694 -908.942 -1402 27 26 24
-546.9 -909.633 -1403 27 23 22
-545.102 -910.325 -1404 26 22 21
-543.688 -911.665 -1406 25 24 22
-542.651 -913.653 -1409 24 24 22
-541.222 -914.993 -1411 25 24 22
-539.405 -915.684 -1412 27 26 24
-538.344 -917.673 -1415 27 26 24
-536.896 -919.013 -1417 26 25 23
-535.44 -920.353 -1419 25 24 22
-533.227 -920.395 -1419 25 24 22
-531.387 -921.086 -1420 24 23 21
-529.544 -921.777 -1421 24 23 21
-527.327 -921.819 -1421 27 26 24
-525.848 -923.159 -1423 28 26 27
-523.995 -923.85 -1424 27 25 26
-522.505 -925.19 -1426 25 23 24
-521.738 -927.826 -1430 24 23 21
-520.595 -929.815 -1433 25 24 22
-520.166 -933.101 -1438 26 25 23
-518.64 -934.441 -1440 25 24 22
-517.825 -937.078 -1444 26 25 21
-516.64 -939.066 -1447 25 24 22
-515.446 -941.055 -1450 25 23 24
-514.95 -944.342 -1455 27 25 26
-513.381 -945.681 -1457 28 26 27
-512.156 -947.67 -1460 28 26 27
-510.572 -949.009 -1462 27 25 26
-508.981 -950.349 -1464 27 25 26
-508.423 -953.636 -1469 30 26 23
-506.814 -954.976 -1471 27 26 24
-505.543 -956.965 -1474 27 26 24
-504.261 -958.953 -1477 26 24 25
-502.97 -960.942 -1480 25 23 26
-501.331 -962.282 -1482 24 22 25
-499.349 -962.972 -1483 24 22 25
-498.369 -965.61 -1487 25 23 26
-497.375 -968.248 -1491 27 26 24
-497.366 -972.835 -1498 21 22 24
-499.647 -981.968 -1512 103 106 111
-747.922 -1003.51 -1549 41 36 32
-736.868 -991.906 -1531 43 38 35
-726.348 -980.948 -1514 36 31 28
-718.271 -973.228 -1502 32 28 25
-710.231 -965.507 -1490 30 29 25
-705.553 -962.321 -1485 26 25 21
-700.891 -959.135 -1480 25 24 20
-696.715 -956.596 -1476 27 23 20
-693.493 -955.353 -1474 27 23 20
-689.808 -953.462 -1471 26 22 19
-687.066 -952.867 -1470 24 21 16
-684.327 -952.271 -1469 25 22 17
-681.126 -951.027 -1467 26 23 18
-677.931 -949.783 -1465 28 25 20
-673.359 -946.593 -1460 33 29 26
-668.801 -943.403 -1455 35 31 28
-663.342 -938.915 -1448 33 29 26
-658.818 -935.725 -1443 34 30 27
-653.854 -931.884 -1437 34 30 27
-649.815 -929.34 -1433 32 28 25
-647.144 -928.742 -1432 29 25 22
-644.025 -927.495 -1430 28 24 21
-641.361 -926.896 -1429 29 25 22
-638.252 -925.648 -1427 29 25 22
-635.149 -924.4 -1425 30 26 23
-630.72 -921.205 -1420 30 26 23
-626.748 -918.659 -1416 31 27 24
-623.23 -916.761 -1413 32 28 25
-619.281 -914.214 -1409 30 26 23
-616.22 -912.964 -1407 27 23 20
-613.164 -911.714 -1405 28 24 23
-610.985 -911.761 -1405 30 26 25
-608.805 -911.809 -1405 33 29 28
-606.193 -911.207 -1404 31 27 26
-604.014 -911.254 -1404 29 25 24
-601.406 -910.652 -1403 28 24 23
-598.8 -910.049 -1402 27 23 22
-596.198 -909.447 -1401 28 24 23
-593.174 -908.195 -1399 28 24 23
-590.579 -907.592 -1398 27 23 24
-588.828 -908.287 -1399 28 24 23
-586.655 -908.333 -1399 27 23 22
-585.316 -909.677 -1401 23 19 18
-583.555 -910.372 -1402 20 16 15
-582.205 -911.717 -1404 22 18 17
-581.262 -913.71 -1407 27 23 22
-579.075 -913.756 -1407 29 25 24
-577.297 -914.451 -1408 29 25 24
-574.698 -913.846 -1407 30 26 25
-572.51 -913.891 -1407 224 224 224
-569.916 -913.287 -1406 224 224 224
-566.517 -911.383 -1403 224 224 224
-563.931 -910.777 -1402 224 224 224
-561.349 -910.172 -1401 224 224 224
-558.769 -909.566 -1400 26 25 23
-556.192 -908.961 -1399 27 26 24
-553.221 -907.705 -1397 26 25 23
-551.44 -908.398 -1398 26 25 23
-550.049 -909.742 -1400 27 26 24
-548.26 -910.435 -1401 28 24 23
-546.467 -911.128 -1402 27 23 22
-545.059 -912.471 -1404 26 22 21
-543.644 -913.814 -1406 24 23 21
-542.994 -916.457 -1410 25 25 23
-541.179 -917.15 -1411 26 25 23
-538.98 -917.193 -1411 27 26 24
-537.541 -918.536 -1413 27 26 24
-536.095 -919.879 -1415 26 25 23
-534.643 -921.222 -1417 25 24 22
-532.809 -921.914 -1418 25 24 22
-530.971 -922.607 -1419 25 24 22
-529.502 -923.95 -1421 24 23 21
-527.285 -923.992 -1421 27 26 24
-525.806 -925.335 -1423 27 25 26
-523.953 -926.027 -1424 26 24 25
-522.463 -927.369 -1426 24 22 23
-521.332 -929.363 -1429 24 23 21
-520.19 -931.356 -1432 25 24 22
-519.401 -933.999 -1436 25 24 22
-518.599 -936.642 -1440 24 23 21
-517.425 -938.636 -1443 26 25 21
-516.599 -941.279 -1447 25 24 22
-515.405 -943.273 -1450 25 23 24
-514.554 -945.916 -1454 26 24 25
-512.987 -947.259 -1456 28 26 27
-511.062 -947.951 -1457 28 26 27
-509.483 -949.294 -1459 28 26 27
-508.245 -951.287 -1462 28 26 27
-507.343 -953.931 -1466 30 26 25
-506.084 -955.924 -1469 27 26 24
-505.159 -958.568 -1473 27 25 26
-504.22 -961.212 -1477 26 24 25
-503.269 -963.857 -1481 25 23 24
-500.952 -963.898 -1481 24 22 23
-499.308 -965.24 -1483 24 22 23
-497.993 -967.234 -1486 25 23 24
-497.001 -969.878 -1490 26 25 21
-496.661 -973.825 -1496 24 24 24
-497.954 -981.026 -1507 73 76 81
-747.865 -1005.87 -1549 42 37 33
-736.811 -994.24 -1531 42 37 34
-727.251 -984.555 -1516 34 29 26
-718.216 -975.518 -1502 31 27 24
-710.653 -968.428 -1491 30 29 25
-705.499 -964.586 -1485 25 24 20
-700.363 -960.742 -1479 24 23 19
-696.662 -958.847 -1476 26 22 19
-692.969 -956.952 -1473 27 23 20
-689.286 -955.056 -1470 26 22 19
-686.546 -954.459 -1469 24 21 16
-683.343 -953.213 -1467 27 24 19
-680.609 -952.615 -1466 27 24 19
-676.953 -950.718 -1463 28 25 20
-672.384 -947.521 -1458 33 29 26
-667.83 -944.323 -1453 34 30 27
-663.291 -941.125 -1448 33 29 26
-658.311 -937.276 -1442 33 29 26
-653.348 -933.427 -1436 33 29 26
-649.312 -930.877 -1432 31 27 24
-646.19 -929.627 -1430 29 25 22
-643.525 -929.027 -1429 29 25 22
-639.965 -927.126 -1426 29 25 22
-636.861 -925.875 -1424 29 25 22
-633.763 -924.624 -1422 30 26 23
-629.783 -922.072 -1418 30 26 23
-626.7 -920.82 -1416 30 26 23
-622.74 -918.267 -1412 32 28 25
-619.233 -916.365 -1409 30 26 23
-616.172 -915.112 -1407 26 22 19
-613.553 -914.509 -1406 26 22 21
-610.938 -913.907 -1405 31 27 26
-608.324 -913.303 -1404 32 28 27
-605.714 -912.7 -1403 29 25 24
-603.537 -912.747 -1403 27 23 22
-601.359 -912.794 -1403 27 23 22
-598.754 -912.19 -1402 28 24 23
-596.151 -911.586 -1401 27 23 22
-593.552 -910.982 -1400 26 22 21
-590.955 -910.377 -1399 25 21 22
-588.782 -910.423 -1399 26 22 21
-586.609 -910.47 -1399 27 23 22
-585.271 -911.817 -1401 24 20 19
-583.51 -912.514 -1402 21 17 16
-582.16 -913.861 -1404 22 18 17
-580.804 -915.209 -1406 26 22 21
-578.617 -915.254 -1406 29 25 24
-577.251 -916.601 -1408 30 26 25
-574.653 -915.995 -1407 30 26 25
-572.465 -916.041 -1407 28 24 23
-569.871 -915.435 -1406 224 224 224
-566.876 -914.177 -1404 224 224 224
-564.289 -913.57 -1403 224 224 224
-561.705 -912.964 -1402 28 24 23
-559.124 -912.357 -1401 26 25 23
-556.148 -911.099 -1399 27 26 24
-553.574 -910.491 -1398 28 27 25
-551.397 -910.535 -1398 27 26 24
-550.005 -911.881 -1400 26 25 23
-548.216 -912.576 -1401 28 24 23
-546.034 -912.619 -1401 28 24 23
-545.016 -914.617 -1404 26 22 21
-543.601 -915.963 -1406 24 23 21
-542.95 -918.612 -1410 26 26 24
-540.753 -918.655 -1410 26 25 23
-538.937 -919.35 -1411 28 27 25
-537.117 -920.044 -1412 29 28 26
-535.673 -921.39 -1414 26 25 23
-534.6 -923.387 -1417 24 23 21
-532.39 -923.43 -1417 24 23 21
-530.554 -924.124 -1418 26 25 23
-529.087 -925.47 -1420 26 25 23
-526.872 -925.512 -1420 27 26 24
-525.395 -926.858 -1422 27 25 26
-523.543 -927.552 -1423 25 23 24
-522.421 -929.55 -1426 23 21 22
-521.289 -931.547 -1429 24 23 21
-520.148 -933.545 -1432 24 23 21
-518.997 -935.542 -1435 24 23 21
-517.837 -937.54 -1438 24 23 21
-517.025 -940.19 -1442 26 25 21
-516.2 -942.84 -1446 25 24 22
-515.007 -944.837 -1449 25 23 24
-514.513 -948.139 -1454 26 24 25
-512.945 -949.485 -1456 27 25 26
-511.371 -950.831 -1458 29 27 28
-509.79 -952.177 -1460 28 26 27
-508.204 -953.523 -1462 28 26 27
-507.302 -956.173 -1466 30 26 25
-506.388 -958.823 -1470 28 27 25
-505.117 -960.821 -1473 28 26 27
-504.179 -963.471 -1477 27 25 26
-502.888 -965.469 -1480 25 23 24
-500.911 -966.162 -1481 24 22 23
-498.931 -966.856 -1482 24 22 23
-497.617 -968.854 -1485 25 23 24
-496.627 -971.504 -1489 27 26 22
-496.62 -976.112 -1496 25 25 25
-497.582 -982.678 -1506 49 53 56
-748.773 -1009.53 -1551 45 40 37
-738.198 -998.526 -1534 43 38 35
-726.236 -985.564 -1514 32 28 25
-717.682 -977.157 -1501 31 28 23
-711.075 -971.353 -1492 29 26 21
-706.395 -968.152 -1487 28 24 21
-700.783 -963.648 -1480 24 23 19
-697.08 -961.748 -1477 23 22 18
-693.857 -960.5 -1475 25 24 20
-689.701 -957.949 -1471 23 22 18
-686.492 -956.699 -1469 24 23 19
-683.29 -955.45 -1467 24 23 19
-680.557 -954.851 -1466 25 21 18
-676.438 -952.298 -1462 28 23 20
-671.871 -949.093 -1457 31 27 24
-667.319 -945.888 -1452 32 28 25
-662.324 -942.031 -1446 34 30 27
-656.89 -937.521 -1439 34 30 27
-652.843 -934.966 -1435 33 29 26
-649.261 -933.062 -1432 31 27 24
-646.14 -931.808 -1430 32 28 25
-642.575 -929.904 -1427 31 27 24
-639.467 -928.65 -1425 29 25 22
-636.365 -927.396 -1423 28 24 21
-632.823 -925.49 -1420 27 24 19
-629.29 -923.584 -1417 27 23 20
-625.766 -921.677 -1414 31 27 24
-622.251 -919.77 -1411 32 28 25
-619.185 -918.515 -1409 29 25 22
-616.124 -917.259 -1407 28 24 21
-613.069 -916.003 -1405 29 25 24
-610.89 -916.051 -1405 28 24 23
-608.277 -915.446 -1404 29 25 24
-606.099 -915.494 -1404 28 24 23
-603.92 -915.541 -1404 27 23 22
-601.312 -914.936 -1403 27 23 20
-599.134 -914.983 -1403 27 23 20
-596.956 -915.03 -1403 26 22 21
-593.93 -913.772 -1401 26 22 21
-591.331 -913.166 -1400 25 21 20
-589.157 -913.212 -1400 26 22 21
-586.982 -913.258 -1400 29 25 24
-585.225 -913.956 -1401 29 25 24
-583.048 -914.002 -1401 24 20 19
-581.7 -915.353 -1403 20 16 15
-580.345 -916.703 -1405 24 20 19
-578.161 -916.749 -1405 29 25 24
-576.386 -917.447 -1406 30 26 25
-573.791 -916.839 -1405 29 25 24
-572.013 -917.537 -1406 28 22 22
-569.421 -916.929 -1405 224 224 224
-566.831 -916.322 -1404 224 224 224
-564.245 -915.714 -1403 224 224 224
-561.661 -915.105 -1402 28 27 25
-559.08 -914.497 -1401 28 27 25
-556.104 -913.235 -1399 28 27 25
-553.926 -913.28 -1399 31 27 26
-551.353 -912.671 -1398 29 28 26
-549.962 -914.02 -1400 28 27 25
-548.173 -914.716 -1401 27 26 24
-546.38 -915.413 -1402 27 26 24
-545.36 -917.414 -1405 30 26 25
-543.558 -918.111 -1406 29 28 26
-542.522 -920.113 -1409 29 28 26
-540.71 -920.809 -1410 27 26 24
-538.512 -920.852 -1410 28 27 25
-536.694 -921.548 -1411 29 28 26
-535.252 -922.898 -1413 27 26 24
-533.803 -924.246 -1415 23 22 20
-531.596 -924.289 -1415 23 22 20
-530.138 -925.638 -1417 26 25 23
-528.3 -926.334 -1418 27 26 24
-526.459 -927.029 -1419 25 23 24
-524.983 -928.378 -1421 28 26 27
-523.501 -929.727 -1423 26 26 26
-522.379 -931.729 -1426 25 25 23
-521.248 -933.731 -1429 25 25 23
-520.106 -935.734 -1432 24 23 21
-518.594 -937.082 -1434 23 22 20
-517.435 -939.085 -1437 26 22 19
-516.983 -942.394 -1442 26 25 23
-515.802 -944.396 -1445 25 24 22
-514.61 -946.399 -1448 26 25 23
-514.117 -949.708 -1453 27 25 26
-512.904 -951.711 -1456 27 25 26
-511.33 -953.06 -1458 27 25 26
-509.4 -953.755 -1459 26 24 25
-507.814 -955.104 -1461 25 24 22
-506.915 -957.76 -1465 25 23 24
-506.002 -960.416 -1469 26 24 25
-504.733 -962.419 -1472 27 26 24
-503.455 -964.422 -1475 27 26 24
-502.507 -967.078 -1479 25 23 24
-500.87 -968.427 -1481 25 23 24
-498.89 -969.122 -1482 25 23 24
-497.576 -971.124 -1485 23 23 21
-496.253 -973.127 -1488 28 26 27
-496.248 -977.746 -1495 32 30 31
-496.55 -983.019 -1503 31 31 33
-749.681 -1013.2 -1553 40 35 32
-736.698 -998.907 -1531 42 37 34
-726.18 -987.871 -1514 34 30 27
-717.627 -979.444 -1501 32 29 24
-711.497 -974.279 -1493 28 25 20
-705.39 -969.113 -1485 27 23 20
-700.729 -965.904 -1480 24 23 19
-697.027 -964.001 -1477 23 22 18
-693.803 -962.749 -1475 22 21 17
-690.117 -960.844 -1472 22 21 17
-686.907 -959.592 -1470 24 23 19
-683.703 -958.339 -1468 25 24 20
-680.504 -957.086 -1466 26 22 19
-676.849 -955.18 -1463 29 24 21
-671.358 -950.662 -1456 33 29 26
-666.348 -946.796 -1450 35 31 28
-661.357 -942.93 -1444 34 30 27
-656.383 -939.063 -1438 33 29 26
-652.337 -936.501 -1434 32 28 25
-648.758 -934.593 -1431 31 27 24
-645.186 -932.683 -1428 31 27 24
-642.074 -931.427 -1426 31 27 24
-638.968 -930.171 -1424 30 26 23
-635.421 -928.261 -1421 28 24 21
-632.328 -927.003 -1419 28 25 20
-628.797 -925.092 -1416 26 22 19
-624.832 -922.528 -1412 28 24 21
-621.762 -921.27 -1410 30 26 23
-618.697 -920.011 -1408 28 24 21
-616.076 -919.406 -1407 28 24 21
-613.021 -918.147 -1405 29 25 24
-610.842 -918.195 -1405 29 25 24
-608.663 -918.243 -1405 29 25 24
-606.483 -918.29 -1405 28 24 23
-603.873 -917.684 -1404 28 24 23
-601.265 -917.077 -1403 28 24 21
-599.514 -917.778 -1404 27 23 20
-596.909 -917.171 -1403 26 22 21
-594.307 -916.564 -1402 25 21 20
-591.708 -915.957 -1401 25 21 20
-589.111 -915.349 -1400 26 22 21
-587.355 -916.049 -1401 28 24 23
-584.761 -915.441 -1400 29 25 24
-582.586 -915.487 -1400 26 22 21
-580.825 -916.187 -1401 22 18 17
-579.473 -917.54 -1403 23 19 18
-577.292 -917.586 -1403 27 23 22
-575.521 -918.285 -1404 28 24 23
-573.338 -918.331 -1404 28 24 23
-571.561 -919.03 -1405 28 22 22
-569.376 -919.075 -1405 224 224 224
-566.787 -918.466 -1404 224 224 224
-564.2 -917.856 -1403 224 224 224
-561.616 -917.247 -1402 28 27 25
-559.035 -916.637 -1401 27 26 24
-556.06 -915.372 -1399 28 27 25
-554.278 -916.071 -1400 31 27 26
-551.704 -915.46 -1399 29 28 26
-550.311 -916.813 -1401 27 26 24
-548.52 -917.511 -1402 26 25 23
-546.726 -918.209 -1403 27 26 24
-545.317 -919.561 -1405 31 27 26
-543.128 -919.604 -1405 30 29 27
-542.094 -921.611 -1408 29 28 26
-540.283 -922.309 -1409 28 27 25
-538.087 -922.352 -1409 29 28 26
-536.271 -923.05 -1410 29 28 26
-534.452 -923.747 -1411 27 26 24
-533.006 -925.099 -1413 24 23 21
-531.178 -925.797 -1414 23 22 20
-529.721 -927.148 -1416 24 23 21
-528.257 -928.5 -1418 25 24 22
-526.787 -929.853 -1420 25 23 24
-524.941 -930.549 -1421 29 27 28
-523.459 -931.901 -1423 28 28 28
-522.337 -933.908 -1426 26 26 24
-520.841 -935.26 -1428 26 26 24
-519.701 -937.267 -1431 26 25 23
-518.552 -939.274 -1434 25 24 22
-517.393 -941.281 -1437 27 23 20
-516.583 -943.942 -1441 26 25 23
-515.403 -945.949 -1444 26 25 23
-514.213 -947.957 -1447 26 25 23
-513.368 -950.619 -1451 28 26 27
-512.51 -953.281 -1455 28 26 27
-510.587 -953.978 -1456 27 25 26
-509.01 -955.33 -1458 25 23 24
-507.426 -956.681 -1460 24 23 21
-506.181 -958.689 -1463 25 23 24
-505.272 -961.351 -1467 26 24 25
-504.349 -964.014 -1471 27 26 24
-503.414 -966.676 -1475 27 26 24
-502.126 -968.683 -1478 27 25 26
-500.829 -970.691 -1481 25 23 24
-499.186 -972.043 -1483 25 23 24
-497.535 -973.394 -1485 24 24 22
-496.212 -975.402 -1488 27 25 26
-495.543 -978.72 -1493 29 27 28
