ply
format ascii 1.0
comment Created by Open3D
element vertex 1451
property double x
property double y
property double z
property uchar red
property uchar green
property uchar blue
end_header
-800.084 -1360.81 -1568 38 33 29
-792.05 -1351.28 -1557 39 34 30
-785.064 -1343.48 -1548 39 34 31
-779.624 -1338.29 -1542 38 34 31
-774.202 -1333.09 -1536 35 34 32
-768.797 -1327.89 -1530 37 33 32
-764.413 -1324.43 -1526 36 32 29
-760.542 -1321.84 -1523 32 31 27
-755.683 -1317.51 -1518 31 30 26
-751.336 -1314.05 -1514 31 30 26
-747.003 -1310.59 -1510 30 29 25
-741.693 -1305.39 -1504 27 26 22
-739.354 -1305.4 -1504 28 27 23
-736.523 -1304.55 -1503 28 27 22
-733.207 -1302.82 -1501 29 28 23
-730.871 -1302.83 -1501 29 28 23
-727.564 -1301.1 -1499 29 30 25
-724.747 -1300.24 -1498 28 29 24
-722.415 -1300.25 -1498 27 27 25
-719.122 -1298.52 -1496 25 25 23
-717.273 -1299.4 -1497 27 28 23
-715.419 -1300.28 -1498 28 29 24
-714.039 -1302.02 -1500 28 28 26
-712.653 -1303.77 -1502 27 27 25
-710.788 -1304.64 -1503 26 26 24
-709.861 -1307.26 -1506 26 27 22
-708.456 -1309 -1508 26 26 24
-707.045 -1310.75 -1510 25 25 23
-707.493 -1315.96 -1516 24 24 24
-706.062 -1317.71 -1518 28 28 28
-705.089 -1320.32 -1521 29 29 29
-705.954 -1326.4 -1528 28 28 28
-704.496 -1328.15 -1530 27 29 28
-704.408 -1332.5 -1535 25 27 26
-704.761 -1337.71 -1541 23 25 24
-704.64 -1342.06 -1546 25 27 26
-704.957 -1347.28 -1552 224 224 224
-703.444 -1349.02 -1554 224 224 224
-702.828 -1352.5 -1558 224 224 224
-701.3 -1354.24 -1560 26 28 27
-699.767 -1355.99 -1562 23 27 26
-697.333 -1355.99 -1562 26 28 27
-694.901 -1356 -1562 27 29 28
-692.911 -1356.88 -1563 28 28 28
-691.359 -1358.62 -1565 28 28 28
-689.361 -1359.5 -1566 28 28 28
-688.676 -1362.98 -1570 30 30 30
-687.105 -1364.72 -1572 29 29 29
-685.527 -1366.47 -1574 26 26 26
-683.942 -1368.21 -1576 26 26 26
-681.488 -1368.22 -1576 28 28 28
-679.894 -1369.96 -1578 26 26 26
-677.865 -1370.84 -1579 26 26 26
-675.405 -1370.85 -1579 27 27 27
-673.798 -1372.59 -1581 28 28 28
-673.458 -1376.94 -1586 29 29 29
-672.256 -1379.56 -1589 28 28 28
-671.044 -1382.17 -1592 27 27 27
-669.825 -1384.78 -1595 26 26 26
-669.432 -1389.13 -1600 27 27 27
-669.857 -1395.22 -1607 26 26 24
-669.43 -1399.57 -1612 26 26 26
-670.643 -1407.39 -1621 30 30 30
-642.09 -1384.02 -1594 29 25 24
-635.997 -1376.21 -1585 29 25 24
-631.529 -1371.88 -1580 32 28 27
-627.475 -1368.42 -1576 33 29 28
-623.434 -1364.96 -1572 33 29 28
-620.985 -1364.97 -1572 32 31 27
-617.357 -1362.38 -1569 30 29 25
-614.521 -1361.52 -1568 32 31 29
-611.689 -1360.66 -1567 33 32 30
-608.471 -1358.94 -1565 34 33 31
-605.646 -1358.08 -1564 32 31 29
-602.825 -1357.22 -1563 30 29 25
-600.007 -1356.37 -1562 30 29 25
-597.574 -1356.38 -1562 30 29 25
-594.76 -1355.52 -1561 30 29 25
-591.951 -1354.67 -1560 30 29 27
-589.143 -1353.81 -1559 32 31 27
-586.715 -1353.83 -1559 31 30 26
-583.913 -1352.97 -1558 31 30 28
-581.487 -1352.99 -1558 33 32 30
-578.318 -1351.26 -1556 32 32 32
-575.524 -1350.41 -1555 31 31 31
-573.471 -1351.29 -1556 32 32 32
-570.315 -1349.57 -1554 32 32 32
-567.53 -1348.72 -1553 224 224 224
-564.749 -1347.87 -1552 224 224 224
-561.969 -1347.01 -1551 224 224 224
-560.277 -1348.77 -1553 32 32 32
-558.218 -1349.65 -1554 31 31 31
-555.799 -1349.67 -1554 29 31 30
-552.666 -1347.94 -1552 30 32 31
-549.896 -1347.09 -1551 31 31 31
-546.422 -1344.5 -1548 32 32 32
-542.958 -1341.91 -1545 30 30 32
-539.503 -1339.33 -1542 28 28 30
-535.709 -1335.87 -1538 28 28 28
-531.582 -1331.55 -1533 30 30 28
-527.469 -1327.22 -1528 31 31 29
-523.372 -1322.9 -1523 31 31 29
-518.264 -1315.97 -1515 30 30 28
-513.863 -1310.77 -1509 32 31 29
-509.481 -1305.58 -1503 34 33 31
-505.116 -1300.39 -1497 35 34 32
-501.442 -1296.93 -1493 37 36 34
-498.45 -1295.21 -1491 38 37 35
-495.797 -1294.37 -1490 39 38 36
-493.477 -1294.39 -1490 39 38 36
-491.487 -1295.27 -1491 38 37 35
-490.151 -1297.9 -1494 36 35 33
-488.152 -1298.79 -1495 34 33 31
-486.15 -1299.68 -1496 32 32 30
-484.468 -1301.44 -1498 32 32 30
-483.102 -1304.07 -1501 33 33 31
-481.406 -1305.82 -1503 34 34 32
-479.067 -1305.85 -1503 34 34 32
-477.361 -1307.61 -1505 32 34 31
-477.228 -1313.71 -1512 35 37 34
-476.444 -1318.07 -1517 37 39 36
-475.646 -1322.44 -1522 35 37 36
-477.008 -1332.89 -1534 39 41 40
-477.405 -1340.74 -1543 45 47 46
-478.389 -1350.32 -1554 45 47 46
-479.645 -1360.77 -1566 45 49 48
-815.727 -1381.47 -1589 40 35 31
-809.162 -1374.53 -1581 38 33 29
-801.092 -1364.98 -1570 37 32 28
-793.563 -1356.3 -1560 39 34 30
-787.588 -1350.23 -1553 39 34 31
-780.622 -1342.42 -1544 36 32 29
-775.196 -1337.21 -1538 31 30 28
-770.294 -1332.88 -1533 34 30 29
-764.903 -1327.67 -1527 35 31 28
-761.03 -1325.07 -1524 32 31 27
-756.17 -1320.74 -1519 31 30 26
-751.822 -1317.27 -1515 31 30 26
-747.981 -1314.67 -1512 29 28 24
-741.683 -1307.73 -1504 27 26 22
-739.343 -1307.74 -1504 30 29 25
-736.513 -1306.88 -1503 30 29 24
-733.197 -1305.15 -1501 30 29 24
-730.862 -1305.16 -1501 30 29 24
-727.555 -1303.43 -1499 29 30 25
-725.222 -1303.44 -1499 29 30 25
-722.406 -1302.58 -1498 28 28 26
-719.113 -1300.85 -1496 26 26 24
-716.784 -1300.86 -1496 27 28 23
-714.933 -1301.74 -1497 28 29 24
-713.079 -1302.61 -1498 28 28 26
-711.696 -1304.36 -1500 26 26 24
-709.833 -1305.24 -1501 26 26 24
-709.382 -1308.73 -1505 26 27 22
-708.448 -1311.35 -1508 25 25 23
-707.504 -1313.96 -1511 25 25 23
-707.951 -1319.19 -1517 24 24 24
-706.054 -1320.07 -1518 28 28 28
-705.544 -1323.55 -1522 28 28 28
-705.946 -1328.78 -1528 26 26 26
-704.488 -1330.53 -1530 26 28 27
-704.858 -1335.75 -1536 25 27 26
-704.753 -1340.11 -1541 25 27 26
-704.175 -1343.59 -1545 27 29 28
-704.041 -1347.95 -1550 25 27 26
-703.889 -1352.31 -1555 224 224 224
-702.82 -1354.92 -1558 224 224 224
-701.743 -1357.54 -1561 224 224 224
-700.207 -1359.29 -1563 21 25 24
-696.88 -1357.56 -1561 23 25 24
-694.892 -1358.43 -1562 24 26 25
-693.346 -1360.18 -1564 24 24 24
-691.35 -1361.06 -1565 27 27 27
-689.354 -1361.94 -1566 26 26 26
-688.23 -1364.55 -1569 28 28 28
-687.096 -1367.17 -1572 28 28 28
-685.519 -1368.92 -1574 24 24 24
-683.501 -1369.79 -1575 24 24 24
-681.912 -1371.54 -1577 26 26 26
-679.886 -1372.42 -1578 25 25 25
-677.856 -1373.29 -1579 24 24 24
-675.397 -1373.3 -1579 26 26 26
-674.641 -1376.79 -1583 26 26 26
-673.449 -1379.41 -1586 28 28 28
-672.247 -1382.03 -1589 28 28 28
-671.036 -1384.64 -1592 27 27 27
-669.396 -1386.39 -1594 25 25 25
-669.423 -1391.62 -1600 25 25 25
-669.432 -1396.85 -1606 26 26 24
-669.422 -1402.07 -1612 27 27 27
-670.633 -1409.91 -1621 30 30 30
-650.225 -1398.66 -1608 32 28 27
-642.484 -1387.36 -1595 28 24 23
-636.388 -1379.54 -1586 28 24 23
-632.319 -1376.07 -1582 31 27 26
-627.863 -1371.73 -1577 31 27 26
-623.82 -1368.27 -1573 32 28 27
-620.975 -1367.41 -1572 31 30 26
-617.74 -1365.68 -1570 30 29 25
-615.294 -1365.69 -1570 31 30 28
-612.458 -1364.83 -1569 32 31 29
-609.237 -1363.1 -1567 34 33 31
-606.022 -1361.37 -1565 32 31 29
-603.584 -1361.38 -1565 30 29 25
-601.147 -1361.4 -1565 31 30 26
-597.944 -1359.67 -1563 32 31 27
-595.509 -1359.68 -1563 31 30 26
-592.317 -1357.95 -1561 31 30 28
-589.508 -1357.1 -1560 31 30 26
-587.078 -1357.11 -1560 29 28 24
-583.899 -1355.38 -1558 29 28 26
-581.473 -1355.4 -1558 33 32 30
-578.303 -1353.67 -1556 32 32 32
-575.51 -1352.81 -1555 31 31 31
-573.826 -1354.57 -1557 33 33 33
-570.3 -1351.97 -1554 30 30 30
-567.515 -1351.12 -1553 224 224 224
-565.097 -1351.13 -1553 224 224 224
-562.679 -1351.15 -1553 224 224 224
-560.622 -1352.03 -1554 32 32 32
-558.562 -1352.92 -1555 29 29 29
-555.782 -1352.06 -1554 26 28 27
-553.006 -1351.21 -1553 28 30 29
-550.234 -1350.35 -1552 30 30 30
-546.758 -1347.76 -1549 31 31 31
-542.941 -1344.3 -1545 31 31 31
-539.486 -1341.7 -1542 29 29 29
-535.344 -1337.37 -1537 28 28 28
-531.217 -1333.03 -1532 28 28 26
-527.106 -1328.7 -1527 30 30 28
-522.668 -1323.5 -1521 31 31 29
-517.563 -1316.55 -1513 33 33 31
-513.164 -1311.35 -1507 34 33 31
-509.123 -1307.02 -1502 34 33 31
-505.773 -1304.43 -1499 35 34 32
-501.76 -1300.09 -1494 36 35 33
-498.431 -1297.5 -1491 37 36 34
-495.777 -1296.65 -1490 38 37 35
-493.458 -1296.67 -1490 38 37 35
-492.128 -1299.3 -1493 39 38 36
-490.459 -1301.06 -1495 36 35 33
-488.458 -1301.95 -1496 34 33 31
-486.779 -1303.71 -1498 33 33 31
-485.093 -1305.47 -1500 33 33 31
-483.724 -1308.1 -1503 32 32 30
-481.705 -1308.99 -1504 32 32 30
-479.045 -1308.14 -1503 31 31 29
-477.657 -1310.78 -1506 32 34 31
-477.521 -1316.89 -1513 35 37 34
-476.736 -1321.26 -1518 37 39 36
-476.873 -1328.25 -1526 36 38 37
-476.363 -1333.49 -1532 40 42 41
-476.453 -1340.48 -1540 46 48 47
-477.442 -1350.08 -1551 45 47 46
-479.315 -1362.29 -1565 43 47 46
-816.226 -1384.81 -1590 41 36 32
-809.148 -1376.98 -1581 38 33 29
-801.588 -1368.29 -1571 39 31 28
-795.077 -1361.33 -1563 39 34 30
-788.082 -1353.51 -1554 39 35 32
-781.115 -1345.68 -1545 35 34 32
-776.193 -1341.34 -1540 32 31 29
-770.783 -1336.12 -1534 31 30 26
-765.392 -1330.91 -1528 32 31 27
-761.018 -1327.44 -1524 33 32 28
-756.657 -1323.96 -1520 32 31 29
-752.306 -1320.49 -1516 31 30 28
-747.97 -1317.02 -1512 30 29 25
-741.672 -1310.06 -1504 29 28 24
-739.825 -1310.94 -1505 29 28 24
-736.502 -1309.21 -1503 28 27 23
-732.698 -1306.61 -1500 28 27 23
-730.364 -1306.62 -1500 29 28 24
-727.544 -1305.76 -1499 31 30 26
-725.212 -1305.77 -1499 31 30 26
-722.397 -1304.91 -1498 30 29 25
-718.624 -1302.3 -1495 30 29 25
-716.776 -1303.18 -1496 30 31 26
-714.447 -1303.19 -1496 30 31 26
-712.594 -1304.07 -1497 29 30 25
-711.212 -1305.82 -1499 28 29 24
-709.824 -1307.57 -1501 28 29 24
-708.902 -1310.2 -1504 28 28 26
-708.439 -1313.69 -1508 27 27 27
-707.496 -1316.31 -1511 25 25 25
-707.477 -1320.68 -1516 22 22 24
-706.046 -1322.43 -1518 28 29 31
-706.463 -1327.66 -1524 28 30 29
-705.938 -1331.15 -1528 24 26 25
-704.479 -1332.9 -1530 24 26 25
-705.309 -1339.01 -1537 25 27 26
-705.202 -1343.38 -1542 24 25 27
-705.08 -1347.74 -1547 21 25 26
-704.941 -1352.1 -1552 24 26 25
-704.334 -1355.6 -1556 224 224 224
-703.264 -1358.22 -1559 224 224 224
-702.184 -1360.84 -1562 224 224 224
-700.647 -1362.59 -1564 24 24 24
-697.318 -1360.86 -1562 25 25 25
-695.775 -1362.61 -1564 26 26 26
-694.224 -1364.35 -1566 25 27 26
-691.344 -1363.49 -1565 25 25 25
-690.227 -1366.12 -1568 26 26 26
-689.099 -1368.73 -1571 25 25 25
-687.526 -1370.48 -1573 25 25 25
-686.818 -1373.98 -1577 26 26 26
-683.926 -1373.11 -1576 26 26 26
-682.336 -1374.86 -1578 25 25 25
-680.74 -1376.61 -1580 24 24 24
-678.708 -1377.49 -1581 22 22 22
-675.817 -1376.63 -1580 24 24 26
-675.06 -1380.12 -1584 27 27 29
-673.865 -1382.74 -1587 28 28 30
-672.239 -1384.5 -1589 27 27 27
-671.45 -1387.99 -1593 28 26 27
-669.808 -1389.74 -1595 25 25 25
-669.833 -1394.98 -1601 24 24 24
-669.84 -1400.21 -1607 24 24 24
-670.242 -1406.32 -1614 23 24 26
-669.796 -1410.68 -1619 29 29 31
-650.215 -1401.15 -1608 33 27 27
-642.877 -1390.71 -1596 29 23 23
-637.582 -1384.62 -1589 28 24 21
-633.108 -1380.27 -1584 31 27 24
-628.251 -1375.05 -1578 32 28 27
-624.603 -1372.45 -1575 31 30 28
-621.36 -1370.72 -1573 30 29 25
-618.516 -1369.86 -1572 28 27 23
-615.676 -1368.99 -1571 31 30 28
-612.838 -1368.13 -1570 33 32 30
-609.614 -1366.4 -1568 34 33 29
-606.786 -1365.54 -1567 33 32 28
-604.729 -1366.42 -1568 33 32 28
-601.519 -1364.69 -1566 33 32 30
-598.315 -1362.96 -1564 32 31 29
-595.879 -1362.97 -1564 31 29 30
-592.685 -1361.24 -1562 32 31 29
-589.495 -1359.51 -1560 30 29 27
-587.065 -1359.52 -1560 31 27 26
-583.886 -1357.79 -1558 32 28 27
-581.087 -1356.93 -1557 32 30 31
-578.29 -1356.07 -1556 32 32 32
-575.498 -1355.22 -1555 32 32 32
-573.812 -1356.97 -1557 30 30 30
-570.654 -1355.24 -1555 29 29 29
-567.866 -1354.39 -1554 224 224 224
-565.447 -1354.4 -1554 224 224 224
-562.664 -1353.54 -1553 224 224 224
-560.246 -1353.56 -1553 30 30 30
-557.828 -1353.57 -1553 27 27 27
-555.051 -1352.71 -1552 26 26 26
-552.279 -1351.86 -1551 28 28 28
-550.218 -1352.75 -1552 29 29 29
-546.743 -1350.15 -1549 32 32 32
-542.925 -1346.68 -1545 34 32 33
-540.17 -1345.82 -1544 32 30 31
-536.024 -1341.48 -1539 30 30 30
-531.893 -1337.14 -1534 28 28 28
-527.434 -1331.92 -1528 30 29 27
-522.993 -1326.71 -1522 31 30 28
-517.887 -1319.75 -1514 32 32 30
-513.486 -1314.54 -1508 32 32 30
-509.444 -1310.2 -1503 34 33 31
-505.754 -1306.73 -1499 35 34 32
-501.742 -1302.39 -1494 34 33 31
-498.747 -1300.66 -1492 34 33 31
-496.092 -1299.81 -1491 37 36 34
-493.77 -1299.83 -1491 39 38 36
-492.438 -1302.46 -1494 39 35 34
-490.44 -1303.35 -1495 38 34 33
-488.765 -1305.11 -1497 36 35 33
-487.085 -1306.88 -1499 35 35 33
-485.397 -1308.64 -1501 33 33 31
-484.348 -1312.15 -1505 29 29 27
-481.685 -1311.3 -1504 29 29 27
-479.343 -1311.31 -1504 31 31 29
-477.636 -1313.08 -1506 32 36 35
-477.185 -1318.33 -1512 32 36 35
-476.715 -1323.58 -1518 32 36 37
-475.914 -1327.96 -1523 34 38 39
-473.854 -1328.86 -1524 39 43 46
-475.193 -1339.34 -1536 45 46 48
-476.804 -1350.7 -1549 47 48 50
-824.347 -1396.85 -1601 44 36 33
-815.699 -1386.4 -1589 40 35 31
-808.623 -1378.56 -1580 38 33 29
-802.085 -1371.59 -1572 39 31 28
-794.555 -1362.88 -1562 38 33 29
-787.562 -1355.04 -1553 37 33 30
-781.608 -1348.95 -1546 35 34 32
-776.685 -1344.6 -1541 35 34 32
-771.274 -1339.38 -1535 34 33 29
-765.881 -1334.15 -1529 33 32 28
-761.505 -1330.67 -1525 35 34 30
-756.147 -1325.45 -1519 35 34 32
-751.8 -1321.97 -1515 34 33 31
-746.97 -1317.62 -1510 31 30 26
-741.662 -1312.39 -1504 29 28 24
-739.323 -1312.41 -1504 29 28 24
-736.002 -1310.67 -1502 28 27 23
-732.689 -1308.94 -1500 29 28 24
-730.354 -1308.95 -1500 30 29 25
-727.535 -1308.09 -1499 30 29 25
-724.718 -1307.22 -1498 29 28 24
-722.387 -1307.23 -1498 29 28 24
-718.614 -1304.62 -1495 30 29 25
-716.766 -1305.51 -1496 28 29 24
-714.437 -1305.51 -1496 28 29 24
-712.585 -1306.4 -1497 28 29 24
-711.203 -1308.15 -1499 28 29 24
-709.343 -1309.03 -1500 29 30 25
-708.422 -1311.66 -1503 29 29 27
-707.961 -1315.16 -1507 27 27 27
-707.488 -1318.66 -1511 25 25 25
-707.002 -1322.16 -1515 23 23 25
-706.967 -1326.53 -1520 28 29 31
-706.919 -1330.9 -1525 29 31 30
-706.392 -1334.4 -1529 26 28 27
-705.391 -1337.03 -1532 25 27 26
-705.759 -1342.27 -1538 24 26 25
-706.109 -1347.52 -1544 23 24 26
-705.527 -1351.02 -1548 22 26 27
-705.387 -1355.39 -1553 25 27 26
-704.327 -1358.02 -1556 224 224 224
-703.257 -1360.64 -1559 224 224 224
-702.176 -1363.27 -1562 224 224 224
-700.64 -1365.02 -1564 25 25 25
-697.756 -1364.16 -1563 25 25 25
-696.212 -1365.91 -1565 26 26 26
-694.217 -1366.79 -1566 24 26 25
-692.22 -1367.67 -1567 26 26 26
-691.099 -1370.3 -1570 26 26 26
-689.969 -1372.92 -1573 25 25 25
-688.393 -1374.68 -1575 26 26 26
-686.81 -1376.43 -1577 27 27 27
-684.787 -1377.31 -1578 27 27 27
-683.193 -1379.06 -1580 25 25 25
-681.163 -1379.94 -1581 23 23 23
-679.129 -1380.83 -1582 23 23 23
-676.665 -1380.83 -1582 25 25 27
-675.904 -1384.33 -1586 27 27 29
-674.707 -1386.96 -1589 27 27 29
-673.077 -1388.71 -1591 26 26 26
-672.284 -1392.21 -1595 26 24 25
-670.639 -1393.97 -1597 25 25 25
-670.243 -1398.34 -1602 26 26 26
-669.832 -1402.71 -1607 27 27 27
-670.235 -1408.83 -1614 25 26 28
-669.788 -1413.2 -1619 30 30 32
-644.076 -1395.81 -1599 29 23 23
-639.177 -1390.58 -1593 29 25 22
-633.897 -1384.48 -1586 31 27 24
-629.436 -1380.12 -1581 31 27 26
-625.387 -1376.64 -1577 30 29 27
-621.745 -1374.03 -1574 29 28 24
-618.899 -1373.17 -1573 28 27 23
-616.057 -1372.3 -1572 31 30 28
-612.828 -1370.57 -1570 33 32 30
-609.992 -1369.71 -1569 33 32 28
-607.549 -1369.72 -1569 31 30 26
-604.719 -1368.85 -1568 31 30 26
-601.508 -1367.12 -1566 31 30 28
-598.304 -1365.38 -1564 32 31 29
-595.487 -1364.52 -1563 31 29 30
-592.293 -1362.79 -1561 32 31 29
-589.483 -1361.93 -1560 30 29 27
-587.053 -1361.94 -1560 31 27 26
-583.874 -1360.2 -1558 33 29 28
-581.447 -1360.22 -1558 34 32 33
-578.649 -1359.36 -1557 33 33 33
-576.224 -1359.37 -1557 32 32 32
-574.167 -1360.25 -1558 30 30 30
-571.007 -1358.52 -1556 31 31 31
-568.584 -1358.53 -1556 224 224 224
-565.797 -1357.68 -1555 224 224 224
-563.375 -1357.69 -1555 224 224 224
-560.953 -1357.7 -1555 31 31 31
-558.531 -1357.72 -1555 28 28 28
-555.752 -1356.86 -1554 27 27 27
-552.263 -1354.25 -1551 29 29 29
-549.848 -1354.27 -1551 29 29 29
-546.374 -1351.66 -1548 29 29 29
-543.261 -1349.93 -1546 30 29 27
-540.154 -1348.2 -1544 29 28 26
-536.008 -1343.85 -1539 28 28 28
-531.531 -1338.63 -1533 29 29 29
-527.418 -1334.28 -1528 31 30 28
-522.632 -1328.18 -1521 32 31 29
-517.871 -1322.08 -1514 31 31 29
-513.47 -1316.86 -1508 33 33 31
-509.089 -1311.64 -1502 35 34 32
-505.4 -1308.16 -1498 36 35 33
-501.724 -1304.68 -1494 35 34 32
-498.729 -1302.96 -1492 34 33 31
-496.074 -1302.1 -1491 35 34 32
-493.752 -1302.12 -1491 38 37 35
-492.09 -1303.88 -1493 40 36 35
-490.422 -1305.65 -1495 40 36 35
-488.747 -1307.41 -1497 38 37 35
-487.39 -1310.05 -1500 37 37 35
-485.701 -1311.81 -1502 36 36 34
-484.328 -1314.45 -1505 35 35 33
-481.985 -1314.47 -1505 35 35 33
-480.279 -1316.24 -1507 35 35 33
-477.933 -1316.26 -1507 32 36 35
-476.849 -1319.77 -1511 32 36 35
-476.066 -1324.16 -1516 34 38 39
-475.893 -1330.29 -1523 36 40 41
-475.076 -1334.68 -1528 39 43 46
-475.172 -1341.69 -1536 43 44 46
-822.789 -1396.71 -1598 44 36 33
-815.685 -1388.86 -1589 40 35 31
-808.097 -1380.13 -1579 38 33 29
-801.051 -1372.28 -1570 36 31 27
-794.541 -1365.3 -1562 36 31 27
-788.056 -1358.32 -1554 35 31 28
-782.101 -1352.22 -1547 33 33 31
-777.175 -1347.86 -1542 36 35 33
-771.261 -1341.75 -1535 35 34 30
-765.868 -1336.52 -1529 34 33 29
-761.994 -1333.91 -1526 35 34 30
-756.136 -1327.81 -1519 35 34 30
-751.292 -1323.45 -1514 33 32 30
-745.969 -1318.21 -1508 30 29 25
-741.651 -1314.73 -1504 28 27 23
-739.311 -1314.74 -1504 28 27 23
-735.501 -1312.13 -1501 28 27 23
-733.166 -1312.14 -1501 29 28 24
-730.831 -1312.15 -1501 31 30 26
-727.524 -1310.41 -1499 29 28 24
-725.192 -1310.42 -1499 27 26 22
-722.376 -1309.56 -1498 27 26 22
-719.084 -1307.82 -1496 29 28 24
-716.757 -1307.83 -1496 29 28 24
-713.95 -1306.96 -1495 28 29 24
-712.1 -1307.85 -1496 28 29 24
-710.72 -1309.61 -1498 28 29 24
-709.806 -1312.24 -1501 29 29 27
-708.884 -1314.87 -1504 29 29 27
-707.951 -1317.5 -1507 27 27 25
-707.947 -1321.88 -1512 24 24 24
-707.459 -1325.39 -1516 25 25 27
-707.425 -1329.77 -1521 26 27 29
-706.911 -1333.27 -1525 28 30 29
-705.921 -1335.9 -1528 28 30 29
-705.844 -1340.28 -1533 27 29 28
-706.21 -1345.54 -1539 24 26 25
-706.1 -1349.92 -1544 23 24 26
-705.519 -1353.42 -1548 22 26 27
-705.832 -1358.68 -1554 24 26 25
-703.866 -1359.56 -1555 224 224 224
-703.248 -1363.07 -1559 224 224 224
-702.167 -1365.7 -1562 224 224 224
-700.631 -1367.45 -1564 26 26 26
-698.194 -1367.46 -1564 25 25 25
-696.648 -1369.22 -1566 26 26 26
-695.096 -1370.98 -1568 25 27 26
-693.096 -1371.86 -1569 25 27 26
-692.411 -1375.36 -1573 24 26 25
-690.4 -1376.24 -1574 25 25 25
-688.822 -1378 -1576 27 27 27
-687.238 -1379.76 -1578 27 27 27
-685.213 -1380.64 -1579 27 27 27
-683.619 -1382.4 -1581 27 25 26
-682.017 -1384.15 -1583 25 23 24
-679.98 -1385.03 -1584 24 24 24
-677.939 -1385.92 -1585 25 25 27
-677.174 -1389.42 -1589 26 26 28
-675.973 -1392.05 -1592 27 27 29
-674.339 -1393.81 -1594 27 27 27
-673.541 -1397.32 -1598 26 24 25
-671.051 -1397.32 -1598 25 25 25
-670.236 -1400.83 -1602 26 26 26
-669.823 -1405.21 -1607 24 25 27
-669.811 -1410.46 -1613 24 25 27
-669.366 -1414.85 -1618 30 30 32
-645.677 -1401.79 -1603 29 23 23
-640.371 -1395.68 -1596 30 25 22
-635.087 -1389.56 -1589 31 27 24
-630.223 -1384.33 -1583 30 26 25
-626.17 -1380.84 -1579 29 28 26
-622.525 -1378.22 -1576 29 28 24
-619.676 -1377.36 -1575 28 27 23
-616.439 -1375.62 -1573 30 29 27
-613.208 -1373.88 -1571 32 31 29
-611.149 -1374.76 -1572 32 31 27
-607.925 -1373.02 -1570 29 28 24
-605.094 -1372.16 -1569 28 27 23
-601.881 -1370.42 -1567 30 29 27
-598.292 -1367.81 -1564 32 31 29
-595.857 -1367.82 -1564 31 30 28
-592.282 -1365.21 -1561 30 29 27
-589.85 -1365.22 -1561 29 28 26
-587.419 -1365.23 -1561 32 28 27
-584.237 -1363.49 -1559 34 30 29
-581.808 -1363.5 -1559 34 32 33
-579.008 -1362.64 -1558 33 33 33
-576.211 -1361.78 -1557 33 33 33
-574.155 -1362.66 -1558 33 33 33
-571.361 -1361.8 -1557 33 33 33
-568.571 -1360.94 -1556 224 224 224
-566.146 -1360.95 -1556 224 224 224
-563.724 -1360.97 -1556 224 224 224
-561.3 -1360.98 -1556 31 31 31
-558.517 -1360.12 -1555 29 29 29
-555.38 -1358.38 -1553 29 29 29
-552.249 -1356.65 -1551 29 29 29
-549.479 -1355.79 -1550 29 29 29
-546.359 -1354.05 -1548 29 29 29
-543.246 -1352.32 -1546 29 28 26
-540.139 -1350.58 -1544 28 27 25
-535.296 -1344.47 -1537 27 27 27
-531.169 -1340.11 -1532 29 29 29
-526.367 -1334.01 -1525 32 31 29
-521.587 -1327.9 -1518 33 32 30
-517.171 -1322.67 -1512 31 31 29
-513.113 -1318.31 -1507 32 31 29
-509.411 -1314.82 -1503 34 33 31
-505.721 -1311.34 -1499 35 34 32
-502.043 -1307.86 -1495 35 34 32
-499.047 -1306.12 -1493 34 34 32
-496.389 -1305.27 -1492 35 35 33
-493.734 -1304.41 -1491 36 36 34
-492.072 -1306.17 -1493 41 37 36
-490.403 -1307.94 -1495 39 38 36
-488.729 -1309.71 -1497 38 38 36
-487.372 -1312.35 -1500 38 38 36
-485.683 -1314.12 -1502 38 38 36
-483.987 -1315.89 -1504 39 38 36
-482.607 -1318.53 -1507 37 37 35
-480.579 -1319.42 -1508 37 37 35
-478.231 -1319.44 -1508 33 38 34
-476.514 -1321.21 -1510 33 37 36
-476.36 -1327.36 -1517 34 38 39
-475.873 -1332.63 -1523 37 41 42
-474.745 -1336.15 -1527 41 42 44
-474.223 -1341.42 -1533 43 44 46
-822.773 -1399.18 -1598 44 36 33
-814.643 -1389.57 -1587 40 35 31
-807.059 -1380.83 -1577 37 32 28
-800.527 -1373.84 -1569 35 30 26
-794.527 -1367.72 -1562 35 30 26
-788.549 -1361.61 -1555 34 30 27
-782.594 -1355.49 -1548 32 32 30
-777.163 -1350.25 -1542 35 34 32
-771.247 -1344.13 -1535 34 33 29
-766.358 -1339.77 -1530 33 32 28
-761.481 -1335.4 -1525 32 31 27
-755.625 -1329.28 -1518 32 31 27
-750.784 -1324.92 -1513 30 29 27
-745.957 -1320.55 -1508 27 26 22
-741.639 -1317.06 -1504 27 26 22
-738.808 -1316.2 -1503 26 25 21
-735.491 -1314.46 -1501 27 26 22
-733.155 -1314.47 -1501 30 29 25
-730.82 -1314.48 -1501 30 29 25
-727.515 -1312.74 -1499 29 28 24
-725.182 -1312.75 -1499 26 25 21
-721.885 -1311.01 -1497 27 26 22
-718.594 -1309.27 -1495 29 28 24
-716.267 -1309.28 -1495 30 29 25
-713.463 -1308.41 -1494 28 29 24
-712.089 -1310.17 -1496 28 29 24
-710.71 -1311.93 -1498 27 28 23
-709.797 -1314.57 -1501 28 28 26
-708.874 -1317.21 -1504 27 27 25
-708.413 -1320.72 -1508 26 26 24
-707.938 -1324.23 -1512 24 24 24
-706.984 -1326.87 -1515 27 27 29
-707.415 -1332.13 -1521 25 26 28
-706.438 -1334.77 -1524 25 27 26
-706.375 -1339.16 -1529 28 30 29
-705.835 -1342.67 -1533 28 30 29
-706.661 -1348.81 -1540 25 27 26
-706.549 -1353.2 -1545 23 24 26
-707.333 -1359.33 -1552 23 27 28
-705.825 -1361.1 -1554 24 26 25
-704.763 -1363.73 -1557 224 224 224
-703.691 -1366.37 -1560 224 224 224
-702.161 -1368.13 -1562 224 224 224
-701.071 -1370.76 -1565 25 25 25
-698.634 -1370.77 -1565 25 25 25
-697.086 -1372.53 -1567 27 27 27
-695.531 -1374.29 -1569 26 28 27
-693.971 -1376.05 -1571 25 27 26
-692.404 -1377.81 -1573 24 26 25
-690.83 -1379.57 -1575 26 26 26
-688.815 -1380.45 -1576 27 27 27
-687.23 -1382.21 -1578 27 27 27
-685.205 -1383.1 -1579 27 27 27
-683.611 -1384.86 -1581 27 25 26
-682.44 -1387.49 -1584 26 24 25
-680.401 -1388.38 -1585 25 25 25
-678.788 -1390.14 -1587 25 25 27
-677.594 -1392.77 -1590 25 25 27
-675.965 -1394.53 -1592 27 27 29
-674.331 -1396.29 -1594 27 27 27
-672.269 -1397.17 -1595 27 25 26
-671.463 -1400.68 -1599 25 25 25
-670.645 -1404.2 -1603 25 25 25
-669.815 -1407.71 -1607 28 29 31
-668.972 -1411.22 -1611 27 28 30
-668.531 -1415.61 -1616 32 32 34
-652.614 -1413.91 -1614 30 24 24
-646.878 -1406.91 -1606 28 22 22
-640.764 -1399.03 -1597 29 24 21
-635.878 -1393.79 -1591 30 26 23
-631.408 -1389.41 -1586 29 25 24
-626.954 -1385.04 -1581 28 27 25
-623.306 -1382.42 -1578 29 28 24
-620.06 -1380.68 -1576 29 28 24
-616.821 -1378.94 -1574 30 29 27
-613.978 -1378.07 -1573 30 29 27
-611.139 -1377.2 -1572 30 29 25
-607.916 -1375.46 -1570 28 27 23
-605.084 -1374.6 -1569 27 26 22
-601.871 -1372.85 -1567 29 28 26
-598.664 -1371.11 -1565 32 31 29
-595.846 -1370.24 -1564 32 31 29
-592.65 -1368.5 -1562 31 30 28
-589.839 -1367.64 -1561 31 30 28
-587.407 -1367.65 -1561 33 29 28
-584.601 -1366.78 -1560 34 30 29
-582.17 -1366.79 -1560 32 30 31
-579.368 -1365.93 -1559 32 32 32
-576.2 -1364.19 -1557 34 34 34
-574.142 -1365.07 -1558 36 36 36
-571.349 -1364.21 -1557 33 33 33
-568.558 -1363.35 -1556 224 224 224
-566.134 -1363.36 -1556 224 224 224
-563.348 -1362.49 -1555 224 224 224
-560.565 -1361.63 -1554 31 31 31
-557.785 -1360.77 -1553 31 31 31
-554.651 -1359.03 -1551 31 31 31
-551.524 -1357.29 -1549 30 30 30
-549.82 -1359.06 -1551 30 30 30
-546.698 -1357.32 -1549 29 29 29
-543.583 -1355.58 -1547 30 29 27
-540.123 -1352.96 -1544 30 29 27
-535.978 -1348.6 -1539 29 29 29
-531.501 -1343.35 -1533 32 32 32
-527.042 -1338.11 -1527 35 34 32
-522.259 -1331.99 -1520 34 33 31
-517.497 -1325.87 -1513 31 31 29
-513.438 -1321.5 -1508 32 31 29
-509.734 -1318.02 -1504 32 31 29
-506.043 -1314.53 -1500 34 33 31
-502.7 -1311.91 -1497 35 34 32
-499.7 -1310.18 -1495 36 36 34
-496.705 -1308.44 -1493 36 36 34
-494.049 -1307.58 -1492 35 35 33
-492.055 -1308.47 -1493 39 35 34
-490.059 -1309.36 -1494 37 36 34
-488.711 -1312.01 -1497 36 36 34
-487.354 -1314.65 -1500 35 35 33
-485.343 -1315.55 -1501 35 35 33
-484.292 -1319.07 -1505 36 35 33
-482.588 -1320.84 -1507 35 35 33
-480.56 -1321.74 -1508 34 34 32
-478.529 -1322.63 -1509 33 38 34
-476.81 -1324.4 -1511 33 37 36
-475.714 -1327.93 -1515 34 38 39
-474.604 -1331.45 -1519 36 40 41
-472.549 -1332.35 -1520 40 41 43
-473.894 -1342.89 -1532 43 44 46
-821.728 -1399.9 -1596 44 37 31
-813.602 -1390.27 -1585 40 35 31
-806.021 -1381.51 -1575 37 32 28
-800.513 -1376.27 -1569 35 30 26
-795.022 -1371.02 -1563 35 30 26
-789.043 -1364.89 -1556 35 31 28
-783.085 -1358.77 -1549 32 32 30
-777.15 -1352.64 -1542 34 33 29
-771.738 -1347.39 -1536 33 32 28
-766.344 -1342.14 -1530 31 30 26
-760.47 -1336.01 -1523 30 29 25
-755.613 -1331.64 -1518 30 29 25
-750.275 -1326.39 -1512 29 28 26
-745.451 -1322.01 -1507 26 25 21
-741.134 -1318.52 -1503 26 25 21
-738.305 -1317.65 -1502 25 24 20
-735.969 -1317.66 -1502 28 27 23
-733.144 -1316.8 -1501 30 29 25
-730.322 -1315.93 -1500 30 29 25
-727.018 -1314.19 -1498 28 27 23
-724.203 -1313.32 -1497 27 26 22
-721.392 -1312.45 -1496 26 25 21
-718.584 -1311.59 -1495 27 26 22
-716.257 -1311.6 -1495 28 27 23
-713.931 -1311.61 -1495 28 27 23
-712.556 -1313.37 -1497 27 28 23
-711.175 -1315.14 -1499 27 28 23
-710.261 -1317.78 -1502 27 27 25
-708.865 -1319.54 -1504 27 27 25
-707.934 -1322.19 -1507 27 27 25
-707.46 -1325.7 -1511 26 26 26
-706.507 -1328.34 -1514 27 27 29
-706.941 -1333.62 -1520 24 25 27
-706.893 -1338.01 -1525 25 27 26
-705.904 -1340.65 -1528 28 30 29
-705.827 -1345.05 -1533 29 31 30
-707.111 -1352.08 -1541 25 27 26
-707.455 -1357.35 -1547 23 24 26
-706.869 -1360.87 -1551 23 27 28
-705.817 -1363.51 -1554 25 27 26
-705.207 -1367.03 -1558 224 224 224
-703.682 -1368.79 -1560 224 224 224
-702.602 -1371.43 -1563 224 224 224
-701.063 -1373.2 -1565 23 25 24
-698.625 -1373.2 -1565 26 26 26
-697.078 -1374.97 -1567 27 27 27
-695.967 -1377.61 -1570 23 25 24
-693.963 -1378.49 -1571 25 27 26
-692.837 -1381.13 -1574 24 26 25
-690.823 -1382.02 -1575 26 26 26
-689.243 -1383.78 -1577 27 27 27
-687.222 -1384.67 -1578 26 26 26
-685.632 -1386.43 -1580 26 26 26
-684.468 -1389.07 -1583 27 25 26
-682.864 -1390.83 -1585 25 23 24
-681.252 -1392.6 -1587 24 24 24
-679.208 -1393.48 -1588 25 25 27
-678.012 -1396.12 -1591 25 26 28
-675.958 -1397.01 -1592 26 26 28
-674.323 -1398.77 -1594 26 26 26
-672.683 -1400.53 -1596 26 26 26
-671.456 -1403.17 -1599 25 25 25
-670.638 -1406.69 -1603 25 25 25
-669.808 -1410.21 -1607 23 25 24
-668.549 -1412.85 -1610 24 25 27
-668.523 -1418.12 -1616 29 29 29
-653.414 -1418.17 -1616 32 26 26
-646.869 -1409.4 -1606 27 21 21
-641.557 -1403.27 -1599 27 22 19
-637.068 -1398.89 -1594 29 25 22
-632.195 -1393.63 -1588 30 26 25
-627.738 -1389.25 -1583 28 27 25
-623.692 -1385.75 -1579 29 28 24
-620.445 -1384 -1577 30 29 25
-617.596 -1383.14 -1576 29 28 26
-614.36 -1381.39 -1574 29 28 26
-611.13 -1379.64 -1572 29 28 24
-607.906 -1377.9 -1570 29 28 24
-605.074 -1377.03 -1569 28 27 25
-602.246 -1376.16 -1568 29 28 26
-598.655 -1373.54 -1565 32 31 29
-595.835 -1372.67 -1564 33 32 30
-593.019 -1371.8 -1563 32 31 29
-590.206 -1370.94 -1562 32 31 29
-587.397 -1370.07 -1561 34 30 29
-584.965 -1370.08 -1561 31 30 28
-582.532 -1370.09 -1561 31 29 30
-579.73 -1369.22 -1560 32 32 32
-576.928 -1368.36 -1559 34 34 34
-574.131 -1367.49 -1558 34 34 34
-571.704 -1367.5 -1558 33 33 33
-569.277 -1367.51 -1558 224 224 224
-566.123 -1365.77 -1556 224 224 224
-563.698 -1365.78 -1556 224 224 224
-561.274 -1365.79 -1556 31 31 31
-558.492 -1364.93 -1555 32 32 32
-555.354 -1363.18 -1553 32 32 32
-552.223 -1361.44 -1551 30 30 30
-550.162 -1362.33 -1552 29 29 29
-547.038 -1360.59 -1550 28 28 28
-543.57 -1357.97 -1547 29 28 26
-540.461 -1356.23 -1545 30 29 27
-536.312 -1351.85 -1540 31 31 31
-532.526 -1348.35 -1536 34 34 34
-527.373 -1341.34 -1528 36 35 33
-522.588 -1335.21 -1521 35 34 32
-517.482 -1328.2 -1513 32 31 29
-514.105 -1325.59 -1510 33 32 30
-510.058 -1321.21 -1505 34 33 31
-506.365 -1317.71 -1501 35 34 32
-502.684 -1314.22 -1497 36 35 33
-499.684 -1312.48 -1495 35 35 33
-496.69 -1310.74 -1493 35 35 33
-494.364 -1310.75 -1493 35 35 33
-492.039 -1310.77 -1493 36 35 33
-490.043 -1311.66 -1494 35 34 32
-488.368 -1313.43 -1496 34 34 32
-486.688 -1315.21 -1498 33 33 31
-485.972 -1319.61 -1503 33 33 31
-484.596 -1322.26 -1506 32 32 30
-482.571 -1323.16 -1507 32 32 30
-480.223 -1323.17 -1507 33 33 31
-478.194 -1324.07 -1508 32 37 33
-477.108 -1327.6 -1512 33 37 36
-476.009 -1331.13 -1516 35 39 40
-473.96 -1332.03 -1517 36 40 41
-473.152 -1336.44 -1522 40 41 43
-474.184 -1346.11 -1533 43 44 46
-821.713 -1402.37 -1596 43 36 30
-814.613 -1394.48 -1587 39 34 30
-807.03 -1385.71 -1577 37 32 28
-799.987 -1377.82 -1568 36 31 27
-794.499 -1372.56 -1562 36 31 27
-789.028 -1367.3 -1556 36 32 29
-783.577 -1362.04 -1550 32 32 30
-777.64 -1355.91 -1543 34 33 29
-772.226 -1350.65 -1537 34 33 29
-766.33 -1344.51 -1530 34 33 29
-760.957 -1339.25 -1524 33 32 28
-755.6 -1333.99 -1518 32 31 27
-750.263 -1328.73 -1512 30 29 27
-746.428 -1326.11 -1509 28 27 23
-741.616 -1321.73 -1504 29 28 24
-738.785 -1320.86 -1503 27 26 22
-736.447 -1320.87 -1503 30 29 25
-733.133 -1319.12 -1501 31 30 26
-730.311 -1318.26 -1500 30 29 25
-727.007 -1316.51 -1498 28 27 23
-724.192 -1315.64 -1497 27 26 22
-721.381 -1314.77 -1496 26 25 21
-718.572 -1313.91 -1495 25 24 20
-716.247 -1313.92 -1495 26 25 21
-714.398 -1314.81 -1496 27 26 22
-713.021 -1316.57 -1498 27 28 23
-711.639 -1318.34 -1500 27 28 23
-710.251 -1320.11 -1502 27 27 25
-708.855 -1321.88 -1504 26 26 24
-708.393 -1325.4 -1508 26 26 24
-707.919 -1328.93 -1512 26 26 26
-706.032 -1329.82 -1513 26 26 28
-706.932 -1335.98 -1520 24 25 27
-706.42 -1339.5 -1524 24 26 25
-705.434 -1342.15 -1527 27 29 28
-706.279 -1348.31 -1534 29 31 30
-705.726 -1351.84 -1538 26 28 27
-706.074 -1357.12 -1544 22 23 25
-705.949 -1361.52 -1549 20 24 25
-705.354 -1365.05 -1553 24 26 25
-705.652 -1370.33 -1559 224 224 224
-704.125 -1372.1 -1561 224 224 224
-702.144 -1372.98 -1562 224 224 224
-700.158 -1373.87 -1563 22 24 23
-697.724 -1373.88 -1563 26 26 26
-697.07 -1377.41 -1567 27 27 27
-695.514 -1379.17 -1569 23 25 24
-693.954 -1380.94 -1571 24 26 25
-692.829 -1383.58 -1574 23 25 24
-691.253 -1385.35 -1576 25 25 25
-689.236 -1386.23 -1577 26 26 26
-687.65 -1388 -1579 26 26 26
-686.058 -1389.77 -1581 25 25 25
-685.325 -1393.29 -1585 26 24 25
-683.286 -1394.18 -1586 26 24 25
-681.674 -1395.94 -1588 25 25 25
-679.627 -1396.83 -1589 26 26 28
-678.43 -1399.47 -1592 25 26 28
-676.799 -1401.24 -1594 25 25 27
-675.161 -1403.01 -1596 25 25 25
-673.096 -1403.89 -1597 26 26 26
-671.028 -1404.78 -1598 26 26 26
-670.63 -1409.18 -1603 25 25 25
-669.799 -1412.71 -1607 23 25 24
-668.956 -1416.23 -1611 25 26 28
-668.929 -1421.51 -1617 26 26 26
-653.406 -1420.68 -1616 34 28 28
-647.263 -1412.78 -1607 28 22 22
-642.753 -1408.39 -1602 26 21 18
-637.458 -1402.24 -1595 29 25 22
-632.983 -1397.86 -1590 30 26 25
-628.523 -1393.47 -1585 29 28 26
-624.474 -1389.96 -1581 30 29 25
-621.223 -1388.21 -1579 30 29 25
-617.587 -1385.58 -1576 30 29 27
-614.351 -1383.83 -1574 29 28 26
-611.121 -1382.09 -1572 30 29 25
-607.896 -1380.34 -1570 30 29 25
-605.065 -1379.47 -1569 30 29 27
-601.851 -1377.72 -1567 31 30 28
-598.645 -1375.97 -1565 32 31 29
-595.826 -1375.1 -1564 33 32 30
-593.01 -1374.23 -1563 31 30 28
-590.197 -1373.36 -1562 32 31 29
-588.139 -1374.25 -1563 35 31 30
-585.329 -1373.38 -1562 31 30 28
-582.522 -1372.51 -1561 31 29 30
-579.719 -1371.64 -1560 32 32 32
-576.917 -1370.77 -1559 33 33 33
-574.121 -1369.9 -1558 32 32 32
-571.693 -1369.91 -1558 31 31 31
-568.901 -1369.05 -1557 224 224 224
-566.111 -1368.18 -1556 224 224 224
-563.686 -1368.19 -1556 224 224 224
-561.624 -1369.08 -1557 31 31 31
-558.479 -1367.33 -1555 32 32 32
-555.342 -1365.59 -1553 32 32 32
-552.922 -1365.6 -1553 30 30 30
-550.148 -1364.73 -1552 28 28 28
-547.025 -1362.99 -1550 28 28 28
-543.557 -1360.36 -1547 28 27 25
-540.447 -1358.61 -1545 29 28 26
-536.995 -1355.99 -1542 29 29 29
-531.82 -1348.97 -1534 32 32 32
-526.669 -1341.94 -1526 34 33 31
-522.23 -1336.68 -1520 33 32 30
-518.153 -1332.3 -1515 32 31 29
-514.09 -1327.91 -1510 33 32 30
-510.044 -1323.53 -1505 34 33 31
-506.688 -1320.91 -1502 36 35 33
-503.341 -1318.28 -1499 38 37 35
-500.003 -1315.66 -1496 37 37 35
-496.675 -1313.04 -1493 36 36 34
-494.349 -1313.05 -1493 35 35 33
-492.024 -1313.07 -1493 37 36 34
-490.027 -1313.96 -1494 36 35 33
-488.026 -1314.86 -1495 35 35 33
-486.672 -1317.51 -1498 34 34 32
-485.633 -1321.04 -1502 33 33 31
-483.937 -1322.82 -1504 32 32 30
-481.914 -1323.71 -1505 32 32 30
-479.889 -1324.61 -1506 33 33 31
-478.176 -1326.39 -1508 32 37 33
-477.406 -1330.8 -1513 34 38 37
-475.677 -1332.58 -1515 36 40 41
-473.943 -1334.35 -1517 37 41 42
-473.445 -1339.65 -1523 41 42 44
-474.166 -1348.46 -1533 44 45 47
-821.696 -1404.84 -1596 41 34 28
-815.111 -1397.82 -1588 38 33 29
-807.014 -1388.15 -1577 38 33 29
-799.972 -1380.24 -1568 38 33 29
-794.484 -1374.98 -1562 38 33 29
-789.014 -1369.71 -1556 37 33 30
-784.068 -1365.32 -1551 34 33 29
-778.129 -1359.17 -1544 33 32 28
-771.71 -1352.15 -1536 34 33 29
-766.317 -1346.88 -1530 35 34 30
-760.943 -1341.61 -1524 35 34 30
-754.592 -1334.58 -1516 32 31 27
-750.746 -1331.95 -1513 30 29 25
-746.415 -1328.44 -1509 31 30 26
-742.097 -1324.94 -1505 32 31 27
-739.265 -1324.07 -1504 29 28 24
-735.945 -1322.32 -1502 30 29 25
-733.121 -1321.45 -1501 31 30 26
-729.813 -1319.7 -1499 29 28 24
-726.995 -1318.83 -1498 28 27 23
-724.181 -1317.96 -1497 27 26 22
-721.37 -1317.09 -1496 26 25 21
-718.562 -1316.23 -1495 26 25 21
-716.235 -1316.23 -1495 26 25 21
-714.865 -1318.01 -1497 27 26 22
-713.011 -1318.9 -1498 28 27 23
-711.629 -1320.67 -1500 27 27 25
-710.24 -1322.44 -1502 27 27 25
-709.317 -1325.09 -1505 26 26 24
-708.853 -1328.62 -1509 25 25 23
-707.909 -1331.28 -1512 25 25 25
-706.489 -1333.05 -1514 25 25 25
-706.923 -1338.34 -1520 24 26 25
-705.02 -1339.23 -1521 24 26 25
-705.885 -1345.4 -1528 26 28 27
-705.809 -1349.81 -1533 29 31 30
-705.717 -1354.23 -1538 26 28 27
-706.066 -1359.52 -1544 22 24 23
-706.396 -1364.81 -1550 19 23 22
-705.799 -1368.34 -1554 23 25 24
-705.642 -1372.75 -1559 224 224 224
-703.666 -1373.64 -1560 224 224 224
-701.236 -1373.65 -1560 224 224 224
-699.703 -1375.42 -1562 22 24 23
-698.609 -1378.07 -1565 26 26 26
-697.506 -1380.72 -1568 25 27 26
-695.951 -1382.49 -1570 22 24 23
-694.83 -1385.14 -1573 24 24 24
-693.26 -1386.91 -1575 24 24 24
-691.245 -1387.8 -1576 23 23 23
-689.228 -1388.69 -1577 24 24 24
-687.642 -1390.46 -1579 25 25 25
-685.615 -1391.34 -1580 25 25 25
-684.452 -1393.99 -1583 25 25 25
-682.848 -1395.76 -1585 26 26 26
-680.377 -1395.77 -1585 26 26 26
-679.62 -1399.3 -1589 25 26 28
-677.57 -1400.19 -1590 24 25 27
-675.941 -1401.96 -1592 25 25 27
-674.307 -1403.73 -1594 25 25 25
-671.824 -1403.73 -1594 25 25 25
-670.18 -1405.5 -1596 26 26 26
-669.785 -1409.91 -1601 26 26 26
-669.375 -1414.33 -1606 27 27 27
-668.948 -1418.74 -1611 29 29 29
-669.334 -1424.91 -1618 22 21 19
-653.398 -1423.2 -1616 33 27 27
-648.06 -1417.04 -1609 28 22 22
-642.745 -1410.88 -1602 27 22 19
-637.851 -1405.61 -1596 30 26 23
-633.373 -1401.21 -1591 32 28 25
-628.911 -1396.82 -1586 32 28 25
-624.859 -1393.3 -1582 30 29 25
-621.214 -1390.67 -1579 29 28 24
-617.579 -1388.03 -1576 29 28 24
-613.951 -1385.4 -1573 30 29 27
-610.723 -1383.65 -1571 30 29 27
-607.501 -1381.89 -1569 31 30 28
-604.67 -1381.02 -1568 33 32 30
-601.459 -1379.27 -1566 33 32 30
-598.635 -1378.4 -1565 33 32 30
-595.817 -1377.53 -1564 33 32 30
-593 -1376.65 -1563 30 29 27
-590.564 -1376.66 -1563 32 31 29
-588.129 -1376.67 -1563 33 32 30
-585.694 -1376.68 -1563 32 31 29
-582.885 -1375.81 -1562 30 30 30
-579.708 -1374.06 -1560 31 31 31
-576.907 -1373.19 -1559 31 31 31
-574.11 -1372.32 -1558 30 30 30
-571.315 -1371.45 -1557 30 30 30
-568.524 -1370.58 -1556 224 224 224
-566.099 -1370.59 -1556 224 224 224
-563.675 -1370.6 -1556 224 224 224
-560.89 -1369.73 -1555 32 32 32
-558.108 -1368.86 -1554 32 32 32
-555.33 -1367.99 -1553 31 31 31
-553.266 -1368.88 -1554 30 30 30
-550.845 -1368.9 -1554 29 29 29
-547.718 -1367.15 -1552 29 29 29
-544.247 -1364.52 -1549 29 29 29
-540.785 -1361.89 -1546 28 28 28
-537.33 -1359.25 -1543 29 29 29
-532.153 -1352.22 -1535 31 31 31
-527.691 -1346.95 -1529 32 31 29
-523.248 -1341.67 -1523 32 31 29
-518.482 -1335.52 -1516 31 31 29
-514.077 -1330.25 -1510 33 32 30
-510.369 -1326.74 -1506 34 33 31
-506.673 -1323.22 -1502 37 36 34
-503.327 -1320.6 -1499 39 38 36
-499.989 -1317.97 -1496 40 39 37
-496.992 -1316.22 -1494 39 38 36
-494.666 -1316.23 -1494 36 35 33
-492.009 -1315.37 -1493 38 34 33
-489.684 -1315.38 -1493 37 36 34
-488.01 -1317.16 -1495 36 36 34
-486.332 -1318.94 -1497 36 36 34
-484.323 -1319.83 -1498 36 36 34
-483.277 -1323.37 -1502 36 36 34
-481.578 -1325.15 -1504 33 35 32
-479.554 -1326.05 -1505 32 34 31
-478.161 -1328.71 -1508 33 38 34
-477.074 -1332.25 -1512 35 39 38
-475.346 -1334.02 -1514 37 41 40
-473.613 -1335.8 -1516 39 40 42
-472.806 -1340.23 -1521 41 42 44
-472.911 -1347.29 -1529 43 44 46
-821.68 -1407.31 -1596 40 33 27
-814.581 -1399.39 -1587 38 33 29
-806.998 -1390.59 -1577 39 34 30
-799.447 -1381.79 -1567 40 35 31
-793.96 -1376.51 -1561 39 34 30
-789 -1372.12 -1556 37 33 30
-784.054 -1367.72 -1551 35 34 30
-776.603 -1358.92 -1541 34 33 29
-771.194 -1353.64 -1535 33 32 28
-765.302 -1347.48 -1528 34 33 29
-759.432 -1341.32 -1521 33 32 28
-753.085 -1334.28 -1513 31 30 26
-749.741 -1332.53 -1511 31 30 26
-745.414 -1329.02 -1507 32 31 27
-741.098 -1325.5 -1503 32 31 27
-738.269 -1324.63 -1502 30 29 25
-734.952 -1322.88 -1500 30 29 25
-731.643 -1321.13 -1498 30 29 25
-728.827 -1320.26 -1497 29 28 24
-726.013 -1319.39 -1496 28 27 23
-723.202 -1318.52 -1495 27 26 22
-720.395 -1317.65 -1494 27 26 22
-718.55 -1318.54 -1495 28 27 23
-716.704 -1319.44 -1496 27 26 22
-714.377 -1319.45 -1496 26 25 21
-712.524 -1320.34 -1497 26 25 21
-711.618 -1323 -1500 26 26 24
-710.23 -1324.77 -1502 27 27 25
-709.306 -1327.43 -1505 26 26 24
-708.843 -1330.97 -1509 26 26 24
-707.899 -1333.62 -1512 26 26 26
-706.479 -1335.4 -1514 23 23 23
-705.518 -1338.05 -1517 25 27 26
-705.937 -1343.36 -1523 25 27 26
-705.414 -1346.89 -1527 25 27 26
-705.339 -1351.31 -1532 27 29 28
-705.707 -1356.62 -1538 25 27 26
-706.514 -1362.8 -1545 22 24 23
-706.842 -1368.1 -1551 21 25 24
-706.244 -1371.64 -1555 24 26 25
-705.181 -1374.29 -1558 224 224 224
-702.755 -1374.3 -1558 224 224 224
-701.677 -1376.96 -1561 224 224 224
-700.59 -1379.61 -1564 23 25 24
-698.601 -1380.5 -1565 26 26 26
-697.498 -1383.16 -1568 24 26 25
-696.385 -1385.81 -1571 20 22 21
-695.264 -1388.47 -1574 26 26 26
-693.252 -1389.36 -1575 25 25 25
-691.676 -1391.13 -1577 23 23 23
-689.657 -1392.02 -1578 22 22 22
-687.634 -1392.91 -1579 23 23 23
-685.608 -1393.8 -1580 23 23 23
-684.444 -1396.46 -1583 24 24 24
-681.977 -1396.46 -1583 26 26 26
-680.371 -1398.24 -1585 25 25 25
-679.612 -1401.77 -1589 25 26 28
-677.562 -1402.66 -1590 25 26 28
-675.935 -1404.44 -1592 26 26 28
-674.3 -1406.21 -1594 25 25 25
-671.817 -1406.22 -1594 24 24 24
-670.592 -1408.87 -1597 25 25 25
-670.196 -1413.29 -1602 27 27 27
-669.785 -1417.71 -1607 25 25 25
-669.356 -1422.13 -1612 32 32 32
-669.326 -1427.43 -1618 27 26 24
-653.39 -1425.71 -1616 31 25 25
-648.053 -1419.54 -1609 28 22 22
-642.736 -1413.37 -1602 29 24 21
-637.843 -1408.09 -1596 32 28 25
-633.763 -1404.57 -1592 33 29 26
-629.3 -1400.16 -1587 33 29 26
-624.851 -1395.76 -1582 30 29 25
-621.207 -1393.12 -1579 29 28 24
-617.57 -1390.48 -1576 29 28 24
-613.553 -1386.96 -1572 30 29 27
-609.937 -1384.32 -1569 31 30 28
-607.106 -1383.45 -1568 32 31 29
-603.89 -1381.69 -1566 34 33 31
-601.066 -1380.82 -1565 35 34 32
-598.244 -1379.95 -1564 34 33 31
-595.808 -1379.96 -1564 33 32 30
-593.37 -1379.96 -1564 33 32 30
-590.933 -1379.97 -1564 33 32 30
-588.496 -1379.98 -1564 33 32 30
-586.433 -1380.87 -1565 32 31 29
-583.249 -1379.12 -1563 31 31 31
-580.441 -1378.24 -1562 30 30 30
-577.637 -1377.37 -1561 28 28 28
-574.1 -1374.74 -1558 27 27 27
-571.672 -1374.75 -1558 224 224 224
-568.878 -1373.87 -1557 224 224 224
-565.725 -1372.12 -1555 224 224 224
-564.026 -1373.89 -1557 31 31 31
-560.879 -1372.14 -1555 33 33 33
-558.098 -1371.27 -1554 32 32 32
-555.318 -1370.4 -1553 30 30 30
-553.255 -1371.29 -1554 29 29 29
-550.479 -1370.42 -1553 30 30 30
-547.354 -1368.67 -1551 30 30 30
-544.234 -1366.91 -1549 29 29 29
-540.422 -1363.39 -1545 30 30 30
-536.971 -1360.76 -1542 32 32 32
-532.488 -1355.47 -1536 33 33 33
-528.025 -1350.19 -1530 33 32 30
-523.235 -1344.03 -1523 32 31 29
-518.127 -1336.98 -1515 32 32 30
-514.404 -1333.46 -1511 34 33 31
-510.357 -1329.06 -1506 36 35 33
-506.661 -1325.55 -1502 37 36 34
-503.313 -1322.91 -1499 39 38 36
-500.31 -1321.16 -1497 39 38 36
-497.312 -1319.41 -1495 39 38 36
-494.653 -1318.54 -1494 37 36 34
-491.666 -1316.79 -1492 35 31 30
-489.669 -1317.68 -1493 35 34 32
-487.996 -1319.46 -1495 35 35 33
-485.668 -1319.48 -1495 36 36 34
-484.308 -1322.14 -1498 37 37 35
-482.94 -1324.8 -1501 39 39 37
-481.242 -1326.58 -1503 36 38 35
-480.175 -1330.13 -1507 33 35 32
-477.828 -1330.14 -1507 32 37 33
-476.742 -1333.69 -1511 35 39 38
-475.016 -1335.47 -1513 36 40 39
-473.597 -1338.13 -1516 39 40 42
-472.789 -1342.56 -1521 40 41 43
-473.203 -1350.52 -1530 42 43 45
-475.436 -1363.78 -1545 44 46 45
-814.052 -1400.96 -1586 38 33 29
-807.495 -1393.91 -1578 39 34 30
-800.962 -1386.86 -1570 41 36 32
-795.47 -1381.58 -1564 40 35 31
-790.505 -1377.18 -1559 37 33 30
-784.544 -1371.01 -1552 34 33 29
-776.588 -1361.3 -1541 33 32 28
-770.677 -1355.14 -1534 33 32 28
-764.787 -1348.97 -1527 33 32 28
-758.419 -1341.91 -1519 32 31 27
-753.072 -1336.63 -1513 31 30 26
-749.727 -1334.87 -1511 32 31 27
-744.905 -1330.47 -1506 32 31 27
-741.084 -1327.83 -1503 30 29 25
-737.764 -1326.08 -1501 29 28 24
-734.45 -1324.32 -1499 28 27 23
-731.143 -1322.57 -1497 28 27 23
-728.815 -1322.58 -1497 29 28 24
-725.516 -1320.83 -1495 29 28 24
-723.191 -1320.84 -1495 30 29 25
-720.865 -1320.85 -1495 30 29 25
-719.02 -1321.75 -1496 30 29 25
-716.693 -1321.76 -1496 28 27 23
-714.366 -1321.77 -1496 28 27 23
-712.99 -1323.55 -1498 29 28 24
-711.133 -1324.44 -1499 30 29 27
-709.746 -1326.22 -1501 30 29 27
-708.825 -1328.88 -1504 29 29 27
-708.364 -1332.43 -1508 27 27 25
-707.421 -1335.09 -1511 25 25 23
-706.936 -1338.63 -1515 24 24 24
-707.368 -1343.94 -1521 24 26 25
-706.391 -1346.6 -1524 26 28 27
-705.404 -1349.26 -1527 27 29 28
-705.33 -1353.69 -1532 26 28 27
-706.157 -1359.89 -1539 23 25 24
-706.505 -1365.2 -1545 23 25 24
-706.378 -1369.63 -1550 22 26 25
-705.78 -1373.17 -1554 25 27 26
-704.267 -1374.95 -1556 224 224 224
-703.197 -1377.61 -1559 224 224 224
-702.117 -1380.27 -1562 224 224 224
-700.581 -1382.04 -1564 24 26 25
-698.591 -1382.93 -1565 25 27 26
-697.489 -1385.6 -1568 23 25 24
-696.377 -1388.26 -1571 21 23 22
-695.256 -1390.92 -1574 24 24 24
-693.684 -1392.69 -1576 23 23 23
-691.668 -1393.58 -1577 23 23 23
-690.085 -1395.36 -1579 23 23 23
-687.626 -1395.37 -1579 23 23 23
-685.167 -1395.38 -1579 24 24 24
-684.435 -1398.92 -1583 25 25 25
-681.97 -1398.92 -1583 26 26 26
-680.791 -1401.58 -1586 26 26 26
-680.031 -1405.13 -1590 25 26 28
-677.555 -1405.14 -1590 25 26 28
-676.352 -1407.8 -1593 23 24 26
-674.293 -1408.69 -1594 24 24 24
-672.651 -1410.46 -1596 24 24 24
-671.425 -1413.12 -1599 25 25 25
-670.607 -1416.66 -1603 26 26 26
-669.776 -1420.21 -1607 29 29 27
-669.349 -1424.63 -1612 27 27 27
-669.732 -1430.83 -1619 35 31 28
-647.239 -1420.27 -1607 29 24 21
-642.328 -1414.98 -1601 29 24 21
-638.634 -1412.34 -1598 32 27 24
-634.153 -1407.92 -1593 32 28 25
-629.688 -1403.52 -1588 31 27 24
-625.238 -1399.1 -1583 29 28 24
-621.198 -1395.58 -1579 30 29 25
-617.562 -1392.93 -1576 32 31 27
-613.546 -1389.41 -1572 31 30 26
-609.929 -1386.76 -1569 31 30 28
-607.096 -1385.89 -1568 33 32 30
-604.268 -1385.01 -1567 34 33 31
-601.441 -1384.13 -1566 34 33 31
-599.001 -1384.14 -1566 33 32 30
-596.561 -1384.15 -1566 33 32 30
-594.12 -1384.16 -1566 30 29 27
-591.679 -1384.17 -1566 31 30 28
-589.24 -1384.18 -1566 31 30 28
-586.424 -1383.3 -1565 31 30 28
-583.612 -1382.43 -1564 29 29 29
-580.803 -1381.55 -1563 29 29 29
-577.258 -1378.91 -1560 28 28 28
-574.459 -1378.04 -1559 27 27 27
-571.662 -1377.16 -1558 224 224 224
-568.504 -1375.41 -1556 224 224 224
-566.079 -1375.41 -1556 224 224 224
-563.655 -1375.42 -1556 32 32 32
-560.509 -1373.67 -1554 32 32 32
-557.728 -1372.79 -1553 31 31 31
-555.308 -1372.8 -1553 31 31 31
-552.888 -1372.81 -1553 30 30 30
-549.76 -1371.06 -1551 32 32 32
-546.99 -1370.18 -1550 32 32 32
-543.169 -1366.66 -1546 31 31 31
-539.012 -1362.25 -1541 30 30 30
-535.566 -1359.61 -1538 31 31 31
-531.782 -1356.08 -1534 31 31 31
-527.667 -1351.67 -1529 31 31 31
-522.535 -1344.61 -1521 33 32 30
-518.457 -1340.21 -1516 33 32 30
-514.393 -1335.8 -1511 36 35 33
-510.682 -1332.27 -1507 36 35 33
-506.647 -1327.86 -1502 35 34 32
-503.636 -1326.11 -1500 38 37 35
-500.296 -1323.47 -1497 40 39 37
-497.632 -1322.6 -1496 39 38 36
-494.639 -1320.85 -1494 39 35 34
-491.981 -1319.97 -1493 36 35 33
-490.312 -1321.76 -1495 34 33 31
-487.656 -1320.88 -1494 34 34 32
-485.328 -1320.9 -1494 37 37 35
-483.971 -1323.56 -1497 38 38 36
-482.282 -1325.35 -1499 37 37 35
-481.227 -1328.9 -1503 34 36 33
-479.841 -1331.56 -1506 30 35 31
-477.813 -1332.46 -1507 32 37 33
-477.042 -1336.9 -1512 36 38 35
-475.314 -1338.68 -1514 39 41 40
-473.893 -1341.35 -1517 40 41 43
-473.084 -1345.79 -1522 41 42 44
-473.806 -1354.65 -1532 43 45 44
-476.035 -1367.92 -1547 45 47 46
-820.101 -1409.59 -1593 41 34 28
-814.035 -1403.41 -1586 38 33 29
-807.477 -1396.35 -1578 39 34 30
-800.945 -1389.29 -1570 40 35 31
-795.455 -1383.99 -1564 39 34 30
-790.49 -1379.59 -1559 37 33 30
-784.528 -1373.41 -1552 34 33 29
-776.07 -1362.8 -1540 32 31 27
-770.16 -1356.62 -1533 32 31 27
-763.771 -1349.56 -1525 33 32 28
-757.906 -1343.38 -1518 32 31 27
-753.058 -1338.97 -1513 31 30 26
-749.713 -1337.21 -1511 31 30 26
-744.892 -1332.8 -1506 32 31 27
-741.071 -1330.16 -1503 31 30 26
-738.243 -1329.29 -1502 29 28 24
-734.437 -1326.65 -1499 29 28 24
-731.619 -1325.77 -1498 29 28 24
-728.802 -1324.9 -1497 28 27 23
-725.504 -1323.14 -1495 29 28 24
-723.662 -1324.04 -1496 29 28 24
-720.853 -1323.17 -1495 29 28 24
-718.528 -1323.18 -1495 28 27 23
-716.202 -1323.19 -1495 28 27 23
-714.832 -1324.97 -1497 28 27 23
-712.502 -1324.98 -1497 29 28 24
-710.648 -1325.88 -1498 31 30 28
-709.264 -1327.66 -1500 30 29 27
-708.814 -1331.21 -1504 28 28 26
-708.352 -1334.77 -1508 27 27 25
-707.879 -1338.32 -1512 25 25 23
-707.858 -1342.75 -1517 24 24 24
-708.288 -1348.08 -1523 24 26 25
-706.845 -1349.86 -1525 26 28 27
-705.857 -1352.52 -1528 26 28 27
-706.24 -1357.84 -1534 24 26 25
-706.147 -1362.28 -1539 22 24 23
-706.495 -1367.6 -1545 23 25 24
-706.368 -1372.03 -1550 23 27 26
-705.317 -1374.7 -1553 26 28 27
-703.804 -1376.48 -1555 224 224 224
-703.187 -1380.03 -1559 224 224 224
-702.109 -1382.69 -1562 224 224 224
-700.124 -1383.59 -1563 24 26 25
-698.137 -1384.48 -1564 24 26 25
-697.48 -1388.03 -1568 23 25 24
