ply
format ascii 1.0
comment Created by Open3D
element vertex 1380
property double x
property double y
property double z
property uchar red
property uchar green
property uchar blue
end_header
-519.093 -606.55 -1618 11 9 12
-516.535 -606.588 -1618 11 9 12
-513.976 -606.626 -1618 12 10 13
-511.416 -606.664 -1618 13 11 16
-509.8 -607.826 -1621 15 10 16
-507.548 -608.239 -1622 14 12 15
-505.604 -609.027 -1624 16 11 15
-503.343 -609.439 -1625 13 11 14
-500.771 -609.477 -1625 12 10 13
-498.811 -610.264 -1627 13 11 16
-496.234 -610.301 -1627 14 12 17
-493.961 -610.714 -1628 14 12 17
-492.287 -611.876 -1631 16 11 17
-490.304 -612.664 -1633 23 14 19
-489.807 -615.327 -1640 84 69 76
-488.693 -617.24 -1645 129 103 114
-487.267 -618.778 -1649 134 106 118
-485.535 -619.941 -1652 137 109 121
-483.792 -621.104 -1655 142 110 123
-481.458 -621.516 -1656 152 112 121
-479.121 -621.928 -1657 155 108 114
-476.492 -621.965 -1657 156 111 116
-474.149 -622.377 -1658 155 110 113
-471.803 -622.789 -1659 155 110 115
-468.887 -622.45 -1658 153 110 117
-466.536 -622.861 -1659 154 111 118
-464.182 -623.273 -1660 157 112 117
-461.824 -623.685 -1661 159 113 116
-459.739 -624.471 -1663 162 113 119
-457.098 -624.507 -1663 162 113 116
-454.456 -624.543 -1663 162 113 117
-452.085 -624.954 -1664 163 114 118
-449.441 -624.99 -1664 164 115 119
-447.333 -625.776 -1666 162 116 119
-445.219 -626.563 -1668 162 117 122
-443.363 -627.725 -1671 224 224 224
-441.234 -628.511 -1673 224 224 224
-438.835 -628.922 -1674 224 224 224
-437.215 -630.46 -1678 224 224 224
-435.064 -631.246 -1680 224 224 224
-432.648 -631.656 -1681 224 224 224
-429.973 -631.691 -1681 224 224 224
-427.044 -631.35 -1680 224 224 224
-424.622 -631.76 -1681 224 224 224
-421.946 -631.794 -1681 224 224 224
-419.519 -632.204 -1682 224 224 224
-417.336 -632.99 -1684 162 123 126
-414.408 -632.648 -1683 162 122 123
-412.216 -633.433 -1685 161 121 121
-409.775 -633.842 -1686 164 119 122
-407.088 -633.876 -1686 166 120 123
-404.642 -634.285 -1687 169 120 124
-402.429 -635.07 -1689 168 122 125
-399.264 -634.351 -1687 173 123 124
-397.044 -635.136 -1689 172 122 123
-394.818 -635.921 -1691 171 121 120
-392.585 -636.706 -1693 170 120 119
-390.576 -637.866 -1696 170 120 119
-387.641 -637.522 -1695 171 120 119
-385.164 -637.931 -1696 175 121 121
-382.684 -638.339 -1697 176 122 120
-379.528 -637.619 -1695 174 124 123
-376.378 -636.898 -1693 171 121 120
-373.896 -637.305 -1694 168 120 118
-371.41 -637.713 -1695 167 119 119
-368.921 -638.12 -1696 166 117 120
-366.429 -638.528 -1697 166 117 120
-363.933 -638.935 -1698 164 118 120
-361.646 -639.718 -1700 164 118 120
-358.93 -639.749 -1700 169 120 116
-355.585 -638.65 -1697 168 118 117
-353.081 -639.057 -1698 169 119 118
-350.367 -639.087 -1698 167 122 119
-347.858 -639.493 -1699 167 121 121
-345.345 -639.899 -1700 170 124 124
-342.828 -640.305 -1701 173 129 128
-340.308 -640.711 -1702 175 131 132
-1119.52 -512.887 -1395 159 141 137
-1115.82 -512.192 -1393 162 143 139
-1112.14 -511.497 -1391 163 144 140
-1108.45 -510.802 -1389 165 144 139
-1103.98 -509.74 -1386 171 147 143
-1098.73 -508.311 -1382 175 151 149
-1095.07 -507.617 -1380 182 157 152
-1092.21 -507.29 -1379 184 159 155
-1089.36 -506.965 -1378 188 163 159
-1087.29 -507.006 -1378 193 165 164
-1086.8 -507.785 -1380 195 167 166
-1085.52 -508.195 -1381 195 166 168
-1085.02 -508.974 -1383 195 169 170
-1085.3 -510.121 -1386 197 171 172
-1081.66 -509.428 -1384 205 176 178
-1079.59 -509.471 -1384 209 179 181
-1077.52 -509.514 -1384 209 179 181
-1076.22 -509.927 -1385 210 178 181
-1074.15 -509.97 -1385 212 180 181
-1071.3 -509.645 -1384 214 182 183
-1068.45 -509.321 -1383 214 184 184
-1067.92 -510.102 -1385 216 186 186
-1066.61 -510.514 -1386 216 186 186
-1065.3 -510.926 -1387 217 187 187
-1063.22 -510.97 -1387 218 188 190
-1062.68 -511.751 -1389 218 188 190
-1062.12 -512.532 -1391 220 188 191
-1060.03 -512.577 -1391 220 188 191
-1058.71 -512.989 -1392 220 188 191
-1057.38 -513.402 -1393 219 187 190
-1055.29 -513.446 -1393 219 189 191
-1054.71 -514.228 -1395 219 189 191
-1052.61 -514.272 -1395 219 189 191
-1049.01 -513.579 -1393 219 189 191
-1046.92 -513.624 -1393 219 189 191
-1045.58 -514.036 -1394 219 189 191
-1044.98 -514.818 -1396 219 189 191
-1045.12 -515.969 -1399 221 191 193
-1043.77 -516.382 -1400 219 189 191
-1042.41 -516.795 -1401 218 188 190
-1041.78 -517.577 -1403 217 187 187
-1040.41 -517.991 -1404 217 185 186
-1039.78 -518.773 -1406 224 224 224
-1038.4 -519.186 -1407 224 224 224
-1034.81 -518.493 -1405 224 224 224
-1032.7 -518.537 -1405 224 224 224
-1030.58 -518.581 -1405 224 224 224
-1028.46 -518.625 -1405 224 224 224
-1026.35 -518.668 -1405 224 224 224
-1024.96 -519.082 -1406 224 224 224
-1024.29 -519.864 -1408 224 224 224
-1024.35 -521.015 -1411 224 224 224
-1022.22 -521.059 -1411 224 224 224
-1021.54 -521.842 -1413 224 224 224
-1020.13 -522.255 -1414 224 224 224
-1018.71 -522.668 -1415 224 224 224
-1016.58 -522.712 -1415 224 224 224
-1015.16 -523.125 -1416 224 224 224
-1013.02 -523.168 -1416 224 224 224
-1011.59 -523.581 -1417 224 224 224
-1010.88 -524.364 -1419 224 224 224
-1009.44 -524.777 -1420 210 174 178
-1007.3 -524.82 -1420 209 173 177
-1007.27 -525.972 -1423 208 172 176
-1006.53 -526.755 -1425 210 170 178
-1005.08 -527.168 -1426 208 172 176
-1004.33 -527.951 -1428 207 171 175
-1002.87 -528.364 -1429 207 171 173
-1001.41 -528.777 -1430 208 169 172
-999.941 -529.19 -1431 208 167 171
-998.47 -529.603 -1432 206 167 170
-996.997 -530.016 -1433 207 168 169
-995.519 -530.429 -1434 207 168 169
-993.345 -530.472 -1434 205 166 167
-992.554 -531.255 -1436 202 163 164
-991.755 -532.038 -1438 224 224 224
-990.951 -532.821 -1440 224 224 224
-989.453 -533.234 -1441 224 224 224
-987.951 -533.647 -1442 224 224 224
-986.446 -534.06 -1443 224 224 224
-985.619 -534.843 -1445 189 153 157
-984.106 -535.256 -1446 188 153 157
-983.267 -536.039 -1448 184 152 155
-982.422 -536.822 -1450 182 147 151
-980.895 -537.236 -1451 180 144 148
-980.713 -538.389 -1454 181 141 149
-979.176 -538.802 -1455 176 137 140
-977.635 -539.216 -1456 172 133 136
-975.421 -539.259 -1456 169 130 131
-973.206 -539.301 -1456 165 126 127
-971.657 -539.714 -1457 166 126 126
-970.106 -540.127 -1458 169 129 129
-968.55 -540.54 -1459 172 132 133
-966.329 -540.583 -1459 175 135 136
-965.428 -541.366 -1461 176 134 136
-963.863 -541.78 -1462 175 133 135
-962.951 -542.563 -1464 175 134 138
-962.033 -543.347 -1466 175 134 138
-961.108 -544.131 -1468 177 136 140
-960.177 -544.915 -1470 180 139 143
-959.239 -545.699 -1472 181 142 147
-956.995 -545.742 -1472 179 143 147
-955.398 -546.155 -1473 182 141 145
-953.798 -546.568 -1474 184 143 147
-951.548 -546.611 -1474 184 145 148
-949.299 -546.654 -1474 184 145 150
-947.049 -546.696 -1474 185 146 151
-946.081 -547.48 -1476 186 147 150
-944.466 -547.894 -1477 185 146 149
-942.848 -548.307 -1478 185 146 147
-941.863 -549.091 -1480 187 148 149
-940.872 -549.876 -1482 184 150 151
-938.607 -549.918 -1482 182 150 153
-936.342 -549.961 -1482 183 151 154
-934.076 -550.003 -1482 183 151 154
-932.439 -550.417 -1483 184 152 153
-930.798 -550.83 -1484 187 151 155
-928.528 -550.873 -1484 188 149 154
-927.506 -551.657 -1486 187 150 157
-926.477 -552.442 -1488 188 149 154
-926.063 -553.598 -1491 187 148 153
-925.64 -554.755 -1494 187 148 153
-923.971 -555.169 -1495 188 147 151
-922.914 -555.954 -1497 190 148 150
-921.851 -556.739 -1499 191 149 153
-920.168 -557.153 -1500 190 149 155
-917.87 -557.196 -1500 190 149 157
-914.961 -556.867 -1499 189 148 154
-912.664 -556.909 -1499 187 148 153
-910.973 -557.323 -1500 185 145 153
-909.279 -557.737 -1501 182 145 152
-906.977 -557.78 -1501 184 145 150
-905.278 -558.194 -1502 185 145 153
-902.973 -558.236 -1502 187 145 155
-901.269 -558.65 -1503 183 145 156
-899.56 -559.064 -1504 182 144 155
-897.252 -559.107 -1504 182 145 153
-895.538 -559.521 -1505 181 146 153
-893.227 -559.563 -1505 179 144 151
-892.692 -560.721 -1508 176 141 148
-891.556 -561.507 -1510 173 138 144
-889.826 -561.921 -1511 172 136 140
-888.679 -562.708 -1513 174 134 142
-886.939 -563.122 -1514 172 135 142
-884.612 -563.165 -1514 172 137 143
-882.867 -563.579 -1515 172 137 144
-881.7 -564.366 -1517 167 134 141
-878.788 -564.036 -1516 165 132 139
-877.034 -564.451 -1517 164 135 139
-875.277 -564.865 -1518 162 136 139
-872.942 -564.908 -1518 163 134 136
-870.606 -564.95 -1518 141 119 122
-867.697 -564.621 -1517 96 81 86
-864.792 -564.291 -1516 31 24 31
-861.32 -563.589 -1514 18 15 22
-857.286 -562.514 -1511 21 18 27
-853.827 -561.812 -1509 21 15 25
-852.067 -562.226 -1510 20 12 23
-850.303 -562.64 -1511 18 15 22
-847.975 -562.683 -1511 17 14 21
-846.766 -563.47 -1513 17 14 21
-846.108 -564.629 -1516 15 14 20
-844.883 -565.416 -1518 17 14 21
-843.098 -565.831 -1519 17 14 21
-840.755 -565.873 -1519 17 14 21
-838.412 -565.916 -1519 20 15 22
-836.619 -566.33 -1520 18 16 21
-834.274 -566.373 -1520 17 14 21
-833.023 -567.16 -1522 17 14 21
-831.219 -567.575 -1523 16 15 20
-829.412 -567.99 -1524 15 14 19
-827.059 -568.032 -1524 14 13 18
-825.246 -568.448 -1525 13 12 17
-823.43 -568.862 -1526 14 12 17
-820.535 -568.532 -1525 15 14 19
-817.642 -568.201 -1524 15 14 19
-815.287 -568.244 -1524 14 13 18
-813.998 -569.032 -1526 14 13 18
-810.044 -567.955 -1523 14 13 19
-807.689 -567.997 -1523 15 14 20
-804.276 -567.293 -1521 14 13 19
-801.397 -566.962 -1520 13 12 18
-798.52 -566.631 -1519 13 12 18
-795.121 -565.927 -1517 13 12 17
-792.251 -565.596 -1516 224 224 224
-789.384 -565.265 -1515 224 224 224
-787.558 -565.68 -1516 224 224 224
-785.211 -565.722 -1516 16 15 21
-782.864 -565.763 -1516 15 14 20
-780.001 -565.432 -1515 14 13 18
-777.655 -565.474 -1515 14 13 18
-774.796 -565.142 -1514 13 12 17
-771.94 -564.81 -1513 13 12 17
-768.578 -564.105 -1511 14 14 16
-766.236 -564.147 -1511 15 15 17
-762.882 -563.441 -1509 15 15 17
-761.046 -563.856 -1510 15 15 17
-757.7 -563.151 -1508 15 15 17
-753.858 -562.072 -1505 17 17 19
-750.525 -561.366 -1503 16 16 18
-748.193 -561.407 -1503 16 16 18
-744.868 -560.701 -1501 16 16 18
-741.549 -559.995 -1499 15 15 17
-738.729 -559.662 -1498 15 15 17
-735.912 -559.33 -1497 14 14 16
-733.097 -558.997 -1496 14 14 16
-729.797 -558.291 -1494 16 16 18
-727.476 -558.331 -1494 16 16 18
-724.67 -557.998 -1493 16 16 18
-722.35 -558.039 -1493 16 16 18
-719.547 -557.706 -1492 16 16 18
-716.748 -557.373 -1491 16 16 18
-713.471 -556.666 -1489 15 15 17
-710.678 -556.332 -1488 16 16 18
-707.888 -555.999 -1487 15 16 18
-705.101 -555.665 -1486 16 16 18
-701.843 -554.957 -1484 16 15 20
-700.477 -555.746 -1486 16 15 20
-698.634 -556.16 -1487 17 16 21
-696.32 -556.2 -1487 16 15 20
-694.472 -556.615 -1488 15 14 19
-691.225 -555.907 -1486 15 13 18
-690.302 -557.069 -1489 15 14 19
-687.521 -556.735 -1488 16 15 20
-685.663 -557.15 -1489 15 13 18
-683.344 -557.19 -1489 15 13 18
-681.023 -557.23 -1489 15 13 18
-679.614 -558.018 -1491 17 12 16
-677.29 -558.059 -1491 17 12 16
-674.966 -558.099 -1491 20 15 19
-672.641 -558.139 -1491 30 23 30
-669.866 -557.804 -1490 37 27 35
-667.99 -558.219 -1491 38 28 36
-665.217 -557.884 -1490 38 28 36
-662.892 -557.924 -1490 37 27 35
-661.01 -558.338 -1491 36 27 32
-659.125 -558.753 -1492 36 27 32
-657.676 -559.542 -1494 32 26 30
-656.659 -560.705 -1497 35 26 31
-654.759 -561.12 -1498 32 26 30
-651.984 -560.785 -1497 32 26 30
-648.777 -560.075 -1495 29 23 27
-646.009 -559.741 -1494 26 20 24
-644.105 -560.155 -1495 24 18 20
-642.627 -560.944 -1497 25 19 21
-641.57 -562.108 -1500 25 19 23
-640.929 -563.646 -1504 22 17 21
-641.125 -565.935 -1510 17 12 16
-639.61 -566.725 -1512 13 8 12
-636.401 -566.015 -1510 14 9 13
-633.199 -565.305 -1508 14 9 13
-630.839 -565.344 -1508 14 9 13
-628.479 -565.384 -1508 11 9 14
-625.704 -565.049 -1507 11 9 14
-623.345 -565.088 -1507 10 10 12
-621.397 -565.503 -1508 12 10 13
-619.446 -565.917 -1509 13 11 14
-616.673 -565.582 -1508 13 11 14
-613.903 -565.246 -1507 13 11 14
-611.542 -565.285 -1507 14 12 15
-609.18 -565.324 -1507 14 12 15
-606.818 -565.364 -1507 14 12 15
-603.654 -564.652 -1505 14 14 16
-600.894 -564.316 -1504 14 14 16
-598.934 -564.73 -1505 13 13 13
-596.573 -564.769 -1505 14 12 15
-595.002 -565.559 -1507 14 12 17
-592.244 -565.222 -1506 13 11 16
-591.056 -566.387 -1509 12 10 15
-589.468 -567.177 -1511 13 11 16
-587.873 -567.966 -1513 13 11 16
-585.885 -568.38 -1514 12 11 16
-583.893 -568.795 -1515 11 10 15
-582.665 -569.96 -1518 12 11 16
-580.663 -570.374 -1519 13 14 18
-578.657 -570.788 -1520 14 13 18
-577.027 -571.578 -1522 13 12 17
-575.012 -571.992 -1523 14 13 18
-572.994 -572.406 -1524 13 12 17
-571.722 -573.572 -1527 13 12 17
-570.066 -574.362 -1529 13 12 17
-568.775 -575.527 -1532 13 12 17
-567.105 -576.317 -1534 13 12 17
-565.428 -577.107 -1536 13 12 17
-563.744 -577.897 -1538 13 12 17
-562.054 -578.687 -1540 14 14 16
-559.63 -578.726 -1540 13 13 15
-557.567 -579.14 -1541 13 13 15
-555.862 -579.93 -1543 13 12 17
-554.508 -581.096 -1546 13 12 17
-553.144 -582.262 -1549 14 13 18
-552.126 -583.804 -1553 224 224 224
-551.449 -585.722 -1558 224 224 224
-550.404 -587.265 -1562 224 224 224
-549.345 -588.807 -1566 12 13 15
-548.273 -590.35 -1570 14 14 16
-547.189 -591.892 -1574 14 14 16
-546.091 -593.435 -1578 15 13 16
-545.325 -595.354 -1583 14 12 17
-543.856 -596.521 -1586 13 11 16
-543.061 -598.44 -1591 12 12 14
-541.57 -599.607 -1594 12 12 14
-539.731 -600.398 -1596 12 10 13
-538.221 -601.566 -1599 13 11 14
-536.367 -602.357 -1601 14 12 15
-535.507 -604.276 -1606 13 11 14
-533.634 -605.067 -1608 12 10 13
-532.085 -606.235 -1611 12 10 11
-530.526 -607.402 -1614 12 10 13
-528.631 -608.193 -1616 12 10 13
-526.728 -608.985 -1618 10 10 12
-524.171 -609.023 -1618 12 10 13
-521.613 -609.061 -1618 13 11 14
-519.055 -609.099 -1618 12 10 13
-516.497 -609.137 -1618 12 10 13
-513.938 -609.175 -1618 13 11 14
-511.379 -609.213 -1618 13 11 16
-509.448 -610.004 -1620 15 10 16
-507.823 -611.171 -1623 15 13 16
-505.878 -611.962 -1625 16 11 15
-503.615 -612.376 -1626 14 12 15
-500.733 -612.037 -1625 13 11 14
-499.08 -613.205 -1628 14 12 17
-496.502 -613.242 -1628 15 13 18
-494.227 -613.656 -1629 13 11 16
-492.552 -614.823 -1632 18 13 19
-490.567 -615.614 -1634 45 32 39
-490.068 -618.289 -1641 113 96 104
-488.656 -619.833 -1645 135 109 120
-487.23 -621.377 -1649 134 106 118
-485.498 -622.545 -1652 139 111 123
-483.463 -623.335 -1654 141 109 122
-481.421 -624.126 -1656 150 110 119
-478.795 -624.163 -1656 154 107 113
-476.168 -624.2 -1656 155 110 115
-473.827 -624.613 -1657 155 110 113
-471.766 -625.404 -1659 155 110 115
-469.133 -625.44 -1659 153 110 117
-466.5 -625.477 -1659 153 110 117
-464.146 -625.89 -1660 156 111 116
-462.066 -626.68 -1662 157 111 114
-460.256 -627.847 -1665 158 109 115
-457.062 -627.129 -1663 157 109 109
-455.24 -628.296 -1666 158 109 112
-452.593 -628.332 -1666 159 110 113
-450.216 -628.745 -1667 159 113 116
-448.104 -629.534 -1669 159 114 117
-445.451 -629.57 -1669 158 116 120
-443.593 -630.737 -1672 158 115 122
-441.462 -631.526 -1674 158 115 122
-439.325 -632.316 -1676 157 118 119
-437.441 -633.483 -1679 158 119 122
-434.77 -633.518 -1679 224 224 224
-432.356 -633.93 -1680 224 224 224
-429.939 -634.342 -1681 224 224 224
-427.263 -634.376 -1681 224 224 224
-424.588 -634.411 -1681 224 224 224
-422.163 -634.822 -1682 224 224 224
-419.485 -634.856 -1682 224 224 224
-416.311 -634.136 -1680 224 224 224
-414.128 -634.924 -1682 224 224 224
-411.693 -635.335 -1683 224 224 224
-409.255 -635.747 -1684 224 224 224
-406.814 -636.157 -1685 157 114 121
-404.368 -636.568 -1686 158 115 122
-402.158 -637.357 -1688 157 116 122
-399.467 -637.39 -1688 162 113 116
-397.246 -638.178 -1690 162 113 116
-394.785 -638.588 -1691 162 113 116
-392.553 -639.376 -1693 162 113 116
-390.313 -640.164 -1695 163 115 115
-387.152 -639.441 -1693 164 114 115
-384.905 -640.228 -1695 165 113 115
-382.426 -640.638 -1696 167 115 117
-379.272 -639.915 -1694 162 114 114
-376.568 -639.946 -1694 159 111 111
-373.644 -639.6 -1693 157 108 111
-370.941 -639.631 -1693 156 107 110
-368.673 -640.418 -1695 155 109 112
-366.182 -640.827 -1696 155 109 112
-363.473 -640.858 -1696 155 109 112
-361.19 -641.644 -1698 156 110 113
-358.477 -641.675 -1698 156 110 110
-355.555 -641.327 -1697 157 111 111
-353.051 -641.736 -1698 160 114 114
-350.544 -642.144 -1699 163 117 119
-348.033 -642.552 -1700 165 119 122
-345.112 -642.203 -1699 167 121 124
-342.799 -642.989 -1701 170 124 127
-340.079 -643.018 -1701 171 124 130
-337.755 -643.804 -1703 173 127 130
-1125.77 -504.207 -1367 0 0 0
-1127.82 -506.084 -1372 152 138 135
-1126.57 -506.487 -1373 155 140 137
-1121.23 -505.045 -1369 158 143 138
-1119.17 -505.079 -1369 162 147 144
-1117.11 -505.114 -1369 162 146 146
-1114.24 -504.781 -1368 164 148 148
-1103.88 -506.889 -1373 177 156 153
-1103.43 -507.667 -1375 183 162 159
-1101.36 -507.707 -1375 188 167 164
-1099.3 -507.747 -1375 191 170 167
-1098.04 -508.157 -1376 195 171 167
-1095.98 -508.198 -1376 197 173 171
-1093.12 -507.869 -1375 200 174 173
-1089.47 -507.172 -1373 200 174 173
-1086.62 -506.844 -1372 204 176 175
-1085.36 -507.255 -1373 207 179 178
-1084.09 -507.667 -1374 211 181 181
-1083.61 -508.448 -1376 212 182 182
-1082.33 -508.859 -1377 214 182 183
-1081.06 -509.272 -1378 213 183 183
-1080.56 -510.054 -1380 213 183 183
-1077.71 -509.727 -1379 212 184 183
-1075.65 -509.77 -1379 214 185 187
-1075.14 -510.554 -1381 216 186 188
-1073.07 -510.597 -1381 216 186 188
-1071 -510.64 -1381 218 188 188
-1069.7 -511.054 -1382 217 187 187
-1067.63 -511.098 -1382 216 186 188
-1066.33 -511.512 -1383 216 186 188
-1065.03 -511.925 -1384 219 189 191
-1063.72 -512.339 -1385 220 190 192
-1061.65 -512.383 -1385 219 190 192
-1061.1 -513.168 -1387 220 190 192
-1059.78 -513.582 -1388 220 190 192
-1057.7 -513.626 -1388 222 190 193
-1056.38 -514.041 -1389 222 190 191
-1055.81 -514.825 -1391 222 190 191
-1052.97 -514.499 -1390 224 190 191
-1052.4 -515.284 -1392 223 189 190
-1050.31 -515.329 -1392 223 189 190
-1047.46 -515.003 -1391 224 189 193
-1045.37 -515.047 -1391 222 187 191
-1044.03 -515.462 -1392 222 187 191
-1043.44 -516.247 -1394 224 224 224
-1043.59 -517.402 -1397 224 224 224
-1042.23 -517.817 -1398 224 224 224
-1040.87 -518.232 -1399 224 224 224
-1040.25 -519.017 -1401 224 224 224
-1038.89 -519.432 -1402 224 224 224
-1038.26 -520.218 -1404 224 224 224
-1036.14 -520.262 -1404 224 224 224
-1033.29 -519.935 -1403 224 224 224
-1031.18 -519.98 -1403 224 224 224
-1029.07 -520.024 -1403 224 224 224
-1027.69 -520.439 -1404 224 224 224
-1025.57 -520.483 -1404 224 224 224
-1024.19 -520.898 -1405 224 224 224
-1022.8 -521.312 -1406 224 224 224
-1022.13 -522.098 -1408 224 224 224
-1020.73 -522.513 -1409 224 224 224
-1019.33 -522.927 -1410 224 224 224
-1018.64 -523.713 -1412 224 224 224
-1017.23 -524.128 -1413 210 175 179
-1015.82 -524.543 -1414 210 174 178
-1013.68 -524.587 -1414 211 175 177
-1012.26 -525.001 -1415 211 175 179
-1010.84 -525.416 -1416 209 173 177
-1009.41 -525.831 -1417 208 172 176
-1007.98 -526.246 -1418 208 172 176
-1006.54 -526.66 -1419 207 171 175
-1006.52 -527.817 -1422 206 170 174
-1005.78 -528.603 -1424 205 169 173
-1004.33 -529.018 -1425 206 170 174
-1003.58 -529.804 -1427 207 171 175
-1002.13 -530.218 -1428 209 170 175
-1000.66 -530.633 -1429 208 167 173
-999.199 -531.048 -1430 207 166 172
-997.73 -531.463 -1431 204 165 168
-996.954 -532.249 -1433 205 166 169
-995.476 -532.663 -1434 205 166 167
-993.995 -533.078 -1435 202 163 164
-993.202 -533.864 -1437 199 160 161
-992.402 -534.65 -1439 196 157 158
-991.596 -535.437 -1441 194 155 158
-989.41 -535.48 -1441 193 154 157
-987.223 -535.523 -1441 191 152 157
-986.403 -536.31 -1443 188 151 158
-985.576 -537.096 -1445 187 152 158
-983.382 -537.139 -1445 187 155 160
-982.545 -537.925 -1447 185 153 156
-981.025 -538.34 -1448 185 150 154
-980.176 -539.127 -1450 184 148 152
-979.322 -539.913 -1452 186 147 152
-977.787 -540.328 -1453 180 139 143
-975.578 -540.371 -1453 176 135 139
-974.708 -541.158 -1455 173 133 134
-973.163 -541.573 -1456 169 129 130
-970.948 -541.616 -1456 168 128 128
-970.063 -542.402 -1458 170 130 130
-967.844 -542.445 -1458 172 132 133
-965.624 -542.488 -1458 175 135 136
-965.386 -543.647 -1461 174 134 134
-963.82 -544.062 -1462 174 132 133
-962.909 -544.849 -1464 174 132 134
-962.647 -546.008 -1467 174 132 134
-961.066 -546.423 -1468 176 134 136
-960.134 -547.21 -1470 178 138 139
-959.196 -547.998 -1472 178 139 142
-957.602 -548.412 -1473 177 141 143
-955.355 -548.455 -1473 183 142 146
-953.755 -548.87 -1474 183 144 147
-951.506 -548.913 -1474 184 145 148
-949.257 -548.956 -1474 183 144 147
-948.292 -549.743 -1476 182 143 146
-947.32 -550.531 -1478 183 144 145
-945.703 -550.946 -1479 185 146 147
-944.082 -551.361 -1480 188 148 149
-943.094 -552.149 -1482 185 147 146
-941.464 -552.564 -1483 183 147 147
-939.198 -552.607 -1483 179 147 148
-936.931 -552.649 -1483 180 148 149
-935.294 -553.065 -1484 182 150 151
-933.654 -553.48 -1485 184 150 151
-931.383 -553.522 -1485 184 148 150
-929.737 -553.938 -1486 186 145 149
-928.088 -554.353 -1487 185 149 153
-927.68 -555.514 -1490 186 147 150
-926.642 -556.302 -1492 184 145 148
-925.597 -557.09 -1494 184 145 150
-925.164 -558.252 -1497 186 145 149
-923.488 -558.668 -1498 188 146 150
-921.809 -559.083 -1499 189 147 151
-920.126 -559.499 -1500 188 147 155
-917.828 -559.541 -1500 186 143 152
-914.919 -559.211 -1499 185 142 149
-913.23 -559.627 -1500 181 140 146
-911.538 -560.042 -1501 180 140 148
-909.236 -560.085 -1501 179 142 149
-907.539 -560.501 -1502 180 144 148
-906.44 -561.29 -1504 180 143 150
-904.133 -561.332 -1504 181 141 150
-903.025 -562.121 -1506 177 141 151
-901.312 -562.537 -1507 176 140 150
-898.999 -562.58 -1507 174 139 146
-896.685 -562.622 -1507 173 138 145
-894.965 -563.038 -1508 172 139 146
-893.833 -563.828 -1510 171 138 145
-892.104 -564.244 -1511 170 135 141
-890.372 -564.66 -1512 167 132 136
-889.223 -565.449 -1514 172 131 137
-887.482 -565.865 -1515 168 132 136
-885.738 -566.281 -1516 168 133 139
-884.573 -567.071 -1518 165 132 139
-882.239 -567.114 -1518 162 129 136
-880.484 -567.53 -1519 160 129 135
-878.148 -567.573 -1519 159 130 135
-876.388 -567.989 -1520 156 129 134
-874.049 -568.032 -1520 159 133 134
-872.284 -568.449 -1521 146 121 124
-869.371 -568.117 -1520 112 93 99
-865.89 -567.412 -1518 50 39 45
-862.984 -567.081 -1517 21 16 23
-858.946 -566.002 -1514 19 16 25
-855.482 -565.297 -1512 21 15 25
-853.153 -565.339 -1512 22 14 27
-851.387 -565.755 -1513 18 15 22
-849.055 -565.798 -1513 17 14 21
-847.843 -566.588 -1515 17 14 21
-847.182 -567.752 -1518 15 14 20
-845.398 -568.169 -1519 16 13 20
-844.165 -568.959 -1521 16 13 20
-841.266 -568.628 -1520 17 14 21
-839.474 -569.044 -1521 20 15 22
-837.677 -569.461 -1522 19 17 22
-835.329 -569.503 -1522 17 14 21
-834.075 -570.294 -1524 16 13 20
-832.268 -570.711 -1525 15 14 19
-829.914 -570.753 -1525 15 14 19
-828.102 -571.17 -1526 15 14 19
-825.745 -571.212 -1526 13 12 17
-823.928 -571.629 -1527 13 11 16
-820.493 -570.923 -1525 14 13 19
-818.136 -570.965 -1525 14 13 19
-815.78 -571.007 -1525 14 13 19
-814.49 -571.799 -1527 13 12 18
-810.533 -570.718 -1524 13 12 18
-808.177 -570.76 -1524 14 13 19
-805.292 -570.428 -1523 14 13 19
-802.409 -570.095 -1522 13 12 18
-799.529 -569.763 -1521 12 11 17
-795.603 -568.681 -1518 13 12 17
-793.254 -568.723 -1518 224 224 224
-790.905 -568.765 -1518 224 224 224
-788.036 -568.432 -1517 224 224 224
-786.205 -568.849 -1518 15 14 20
-782.822 -568.141 -1516 14 13 19
-780.474 -568.183 -1516 14 13 18
-777.613 -567.85 -1515 14 13 18
-774.754 -567.517 -1514 13 12 17
-771.898 -567.184 -1513 13 12 17
-769.045 -566.851 -1512 14 14 16
-766.194 -566.518 -1511 15 15 17
-763.852 -566.559 -1511 15 15 17
-760.501 -565.851 -1509 15 15 17
-757.658 -565.517 -1508 16 16 18
-754.318 -564.809 -1506 17 17 19
-750.983 -564.1 -1504 18 18 20
-748.152 -563.766 -1503 18 18 20
-745.323 -563.432 -1502 17 17 17
-742.003 -562.723 -1500 17 17 17
-739.181 -562.389 -1499 17 17 19
-735.871 -561.68 -1497 17 17 19
-732.566 -560.97 -1495 17 17 19
-729.756 -560.636 -1494 18 18 20
-726.948 -560.301 -1493 16 16 18
-724.629 -560.342 -1493 15 15 17
-722.309 -560.383 -1493 16 16 18
-719.507 -560.048 -1492 17 17 19
-717.188 -560.089 -1492 17 17 19
-713.91 -559.379 -1490 16 16 18
-711.593 -559.419 -1490 15 15 17
-708.8 -559.085 -1489 16 17 19
-706.009 -558.75 -1488 17 17 19
-702.749 -558.039 -1486 16 15 20
-700.908 -558.455 -1487 17 16 21
-698.124 -558.12 -1486 17 16 21
-695.811 -558.16 -1486 17 17 19
-693.498 -558.2 -1486 15 14 19
-691.185 -558.241 -1486 15 13 18
-689.334 -558.657 -1487 15 16 20
-687.018 -558.697 -1487 14 15 19
-685.163 -559.113 -1488 14 13 18
-683.303 -559.529 -1489 16 14 19
-680.983 -559.569 -1489 16 14 19
-679.574 -560.361 -1491 17 12 18
-677.25 -560.401 -1491 16 11 17
-674.925 -560.441 -1491 18 11 18
-672.601 -560.481 -1491 23 17 21
-670.275 -560.521 -1491 27 20 27
-668.398 -560.937 -1492 29 22 29
-665.624 -560.602 -1491 35 25 33
-662.852 -560.266 -1490 36 26 34
-660.971 -560.682 -1491 35 26 31
-659.085 -561.098 -1492 36 27 32
-657.636 -561.89 -1494 35 26 31
-656.181 -562.682 -1496 36 25 29
-654.282 -563.098 -1497 37 28 33
-651.508 -562.762 -1496 35 29 33
-648.737 -562.425 -1495 34 28 32
-646.401 -562.465 -1495 30 24 28
-644.927 -563.257 -1497 25 19 23
-643.446 -564.05 -1499 23 18 22
-642.386 -565.219 -1502 23 18 22
-642.168 -567.14 -1507 25 20 24
-641.085 -568.309 -1510 21 16 20
-638.724 -568.349 -1510 17 12 16
-635.097 -567.26 -1507 15 10 14
-631.9 -566.547 -1505 15 10 14
-629.545 -566.586 -1505 12 10 15
-626.773 -566.249 -1504 12 10 15
-624.419 -566.289 -1504 13 11 16
-622.478 -566.705 -1505 10 10 12
-620.533 -567.121 -1506 11 11 13
-617.764 -566.784 -1505 12 10 13
-615.407 -566.823 -1505 12 10 13
-612.642 -566.486 -1504 13 11 14
-610.286 -566.525 -1504 15 13 16
-607.929 -566.565 -1504 15 13 16
-605.571 -566.604 -1504 14 12 15
-602.813 -566.266 -1503 13 13 15
-600.456 -566.305 -1503 12 12 12
-598.497 -566.721 -1504 12 12 12
-596.534 -567.137 -1505 13 13 15
-594.568 -567.553 -1506 14 12 15
-592.205 -567.591 -1506 14 12 17
-590.626 -568.384 -1508 13 11 16
-589.039 -569.177 -1510 13 11 16
-587.446 -569.97 -1512 13 11 16
-585.846 -570.762 -1514 11 10 15
-583.854 -571.178 -1515 12 11 16
-582.242 -571.971 -1517 13 14 18
-580.242 -572.387 -1518 13 14 18
-578.237 -572.803 -1519 13 14 18
-576.609 -573.596 -1521 14 13 18
-574.596 -574.012 -1522 14 13 18
-572.58 -574.427 -1523 13 14 18
-571.309 -575.598 -1526 13 12 17
-570.028 -576.768 -1529 13 12 17
-568.737 -577.938 -1532 12 11 16
-566.697 -578.354 -1533 12 11 17
-565.389 -579.525 -1536 12 11 16
-563.706 -580.318 -1538 13 12 17
-561.65 -580.734 -1539 14 15 17
-559.228 -580.773 -1539 12 12 14
-557.167 -581.188 -1540 12 12 14
-555.823 -582.359 -1543 12 11 16
-554.111 -583.152 -1545 12 11 16
-553.106 -584.701 -1549 13 13 15
-552.088 -586.249 -1553 224 224 224
-551.057 -587.798 -1557 224 224 224
-550.365 -589.724 -1562 224 224 224
-549.306 -591.273 -1566 12 13 15
-548.584 -593.199 -1571 13 13 15
-547.845 -595.126 -1576 13 13 15
-546.745 -596.675 -1580 14 12 15
-545.631 -598.224 -1584 14 12 17
-544.161 -599.396 -1587 13 11 16
-543.705 -601.701 -1593 11 11 13
-541.871 -602.495 -1595 11 11 11
-540.03 -603.289 -1597 13 11 14
-538.519 -604.462 -1600 13 11 14
-536.999 -605.634 -1603 14 12 15
-535.801 -607.183 -1607 13 11 14
-533.927 -607.978 -1609 12 10 13
-532.377 -609.15 -1612 12 10 11
-530.817 -610.322 -1615 12 10 13
-528.919 -611.117 -1617 13 11 14
-526.69 -611.533 -1618 11 11 13
-523.809 -611.194 -1617 13 11 14
-521.253 -611.232 -1617 13 11 16
-519.017 -611.648 -1618 13 11 14
-516.459 -611.686 -1618 14 12 15
-513.9 -611.724 -1618 14 12 15
-511.025 -611.384 -1617 14 12 17
-509.725 -612.934 -1621 15 10 16
-507.786 -613.728 -1623 15 13 16
-505.84 -614.522 -1625 12 10 13
-503.268 -614.56 -1625 12 10 13
-501.004 -614.976 -1626 13 11 14
-499.349 -616.148 -1629 15 13 18
-496.77 -616.185 -1629 14 12 17
-494.493 -616.601 -1630 16 11 17
-492.817 -617.773 -1633 26 19 26
-491.13 -618.945 -1636 81 66 73
-490.33 -621.253 -1642 127 106 115
-488.916 -622.803 -1646 136 110 121
-487.193 -623.976 -1649 134 106 118
-485.461 -625.148 -1652 138 110 122
-483.134 -625.564 -1653 144 110 124
-481.385 -626.736 -1656 149 109 118
-479.047 -627.151 -1657 152 107 112
-476.706 -627.567 -1658 153 108 111
-474.076 -627.603 -1658 153 108 111
-471.73 -628.019 -1659 151 109 113
-469.097 -628.055 -1659 152 109 116
-466.464 -628.091 -1659 152 111 117
-463.83 -628.128 -1659 153 111 115
-462.03 -629.3 -1662 154 109 114
-459.944 -630.093 -1664 155 108 114
-457.026 -629.75 -1663 156 110 110
-454.931 -630.543 -1665 157 111 113
-452.286 -630.579 -1665 158 112 114
-449.91 -630.994 -1666 158 112 115
-447.8 -631.787 -1668 158 113 118
-445.682 -632.58 -1670 156 113 122
-443.558 -633.373 -1672 154 113 121
-441.427 -634.165 -1674 153 111 121
-439.289 -634.958 -1676 148 112 114
-437.145 -635.751 -1678 152 113 116
-434.476 -635.786 -1678 155 116 119
-432.321 -636.579 -1680 156 115 119
-429.904 -636.992 -1681 158 113 116
-427.229 -637.027 -1681 156 111 114
-424.554 -637.061 -1681 224 224 224
-421.627 -636.716 -1680 224 224 224
-418.703 -636.371 -1679 224 224 224
-416.277 -636.785 -1680 224 224 224
-413.848 -637.197 -1681 224 224 224
-411.415 -637.61 -1682 224 224 224
-408.979 -638.023 -1683 224 224 224
-406.539 -638.435 -1684 224 224 224
-404.335 -639.227 -1686 224 224 224
-402.125 -640.018 -1688 224 224 224
-399.671 -640.431 -1689 224 224 224
-397.214 -640.843 -1690 155 106 110
-394.519 -640.875 -1690 156 107 111
-392.288 -641.667 -1692 157 108 112
-390.05 -642.458 -1694 155 109 112
-386.891 -641.731 -1692 155 109 112
-384.646 -642.522 -1694 157 108 112
-381.943 -642.554 -1694 158 107 112
-379.24 -642.586 -1694 154 104 105
-376.537 -642.618 -1694 152 102 103
-373.612 -642.27 -1693 150 100 103
-371.129 -642.681 -1694 149 100 103
-368.207 -642.333 -1693 151 102 106
-365.935 -643.123 -1695 152 103 107
-363.228 -643.154 -1695 153 104 108
-360.946 -643.943 -1697 153 104 108
-358.236 -643.974 -1697 150 108 109
-355.524 -644.004 -1697 154 112 114
-353.229 -644.794 -1699 159 114 117
-350.72 -645.203 -1700 160 115 118
-348.003 -645.233 -1700 163 116 122
-345.489 -645.643 -1701 167 118 124
-342.769 -645.672 -1701 170 119 128
-340.249 -646.081 -1702 172 121 130
-337.726 -646.49 -1703 169 124 127
-335.002 -646.519 -1703 172 126 129
-332.279 -646.549 -1703 175 129 132
-1115.03 -501.514 -1354 0 0 0
-1116.28 -503.028 -1358 169 154 151
-1114.23 -503.06 -1358 173 155 153
-1111.37 -502.724 -1357 177 162 157
-1109.32 -502.757 -1357 177 161 161
-1108.1 -503.163 -1358 177 161 161
-1106.06 -503.199 -1358 181 165 165
-1104.01 -503.234 -1358 183 167 168
-1101.97 -503.27 -1358 186 170 171
-1100.74 -503.677 -1359 191 173 173
-1100.32 -504.456 -1361 193 173 172
-1099.08 -504.864 -1362 198 178 177
-1098.65 -505.644 -1364 198 177 176
-1099.02 -506.795 -1367 200 179 178
-1098.57 -507.576 -1369 203 182 181
-1097.32 -507.986 -1370 205 184 183
-1096.06 -508.397 -1371 209 185 185
-1094.81 -508.808 -1372 211 187 185
-1092.75 -508.849 -1372 211 187 185
-1089.9 -508.519 -1371 211 185 184
-1087.05 -508.188 -1370 211 185 184
-1085 -508.23 -1370 213 187 186
-1083.74 -508.643 -1371 215 189 188
-1082.47 -509.056 -1372 218 190 189
-1081.99 -509.84 -1374 217 189 188
-1079.93 -509.883 -1374 218 188 188
-1078.66 -510.296 -1375 219 191 190
-1078.17 -511.082 -1377 218 190 189
-1075.32 -510.754 -1376 219 191 190
-1073.26 -510.796 -1376 221 193 192
-1072.76 -511.583 -1378 221 191 193
-1070.69 -511.626 -1378 220 190 192
-1070.18 -512.412 -1380 222 192 192
-1068.89 -512.827 -1381 223 193 193
-1067.59 -513.243 -1382 222 194 193
-1065.52 -513.287 -1382 222 194 193
-1064.22 -513.702 -1383 221 192 194
-1062.91 -514.117 -1384 222 193 195
-1060.84 -514.162 -1384 223 194 196
-1059.53 -514.578 -1385 221 192 194
-1058.21 -514.994 -1386 221 191 193
-1056.13 -515.038 -1386 222 190 193
-1054.82 -515.454 -1387 222 190 191
-1054.25 -516.242 -1389 222 190 191
-1051.41 -515.915 -1388 224 224 224
-1050.84 -516.703 -1390 224 224 224
-1048.75 -516.747 -1390 224 224 224
-1045.91 -516.42 -1389 224 224 224
-1043.83 -516.464 -1389 224 224 224
-1042.49 -516.881 -1390 224 224 224
-1041.9 -517.669 -1392 224 224 224
-1041.3 -518.457 -1394 224 224 224
-1040.7 -519.245 -1396 224 224 224
-1039.34 -519.662 -1397 224 224 224
-1037.98 -520.078 -1398 224 224 224
-1037.36 -520.867 -1400 224 224 224
-1035.99 -521.283 -1401 224 224 224
-1034.62 -521.7 -1402 224 224 224
-1031.78 -521.372 -1401 224 224 224
-1030.4 -521.789 -1402 224 224 224
-1029.03 -522.205 -1403 224 224 224
-1026.91 -522.25 -1403 224 224 224
-1025.53 -522.666 -1404 224 224 224
-1023.41 -522.71 -1404 212 180 183
-1022.02 -523.127 -1405 212 180 183
-1021.36 -523.916 -1407 212 180 183
-1019.24 -523.96 -1407 214 179 183
-1018.56 -524.749 -1409 213 179 180
-1017.88 -525.537 -1411 208 176 181
-1016.47 -525.954 -1412 208 173 177
-1015.05 -526.371 -1413 207 172 176
-1012.92 -526.414 -1413 207 173 174
-1011.5 -526.831 -1414 208 173 177
-1010.08 -527.247 -1415 207 172 176
-1008.65 -527.664 -1416 208 172 176
-1007.22 -528.08 -1417 208 172 176
-1006.5 -528.869 -1419 206 170 174
-1006.48 -530.031 -1422 206 170 174
-1005.03 -530.447 -1423 205 169 173
-1004.29 -531.237 -1425 205 169 173
-1003.54 -532.026 -1427 206 170 174
-1002.08 -532.442 -1428 207 168 173
-1000.62 -532.859 -1429 206 165 171
-998.457 -532.903 -1429 206 165 171
-997.687 -533.692 -1431 202 163 166
-996.91 -534.481 -1433 203 164 167
-995.432 -534.897 -1434 202 163 164
-993.952 -535.314 -1435 199 160 161
-993.159 -536.104 -1437 198 159 160
-992.359 -536.893 -1439 196 157 158
-990.864 -537.31 -1440 194 155 158
-989.366 -537.726 -1441 192 153 156
-987.18 -537.769 -1441 190 151 156
-986.359 -538.559 -1443 186 150 154
-984.851 -538.976 -1444 186 151 155
-983.339 -539.392 -1445 185 153 156
-981.823 -539.808 -1446 183 151 152
-980.304 -540.225 -1447 183 149 150
-978.781 -540.641 -1448 184 148 150
-977.255 -541.058 -1449 187 148 151
-975.726 -541.474 -1450 183 142 146
-974.864 -542.264 -1452 179 139 140
-973.995 -543.054 -1454 177 137 138
-972.452 -543.47 -1455 173 134 135
-970.905 -543.887 -1456 173 135 134
-969.355 -544.304 -1457 175 137 136
-967.801 -544.72 -1458 172 134 133
-966.244 -545.136 -1459 173 135 134
-966.004 -546.3 -1462 176 136 134
-964.437 -546.717 -1463 176 135 133
-962.866 -547.134 -1464 175 133 134
-962.603 -548.298 -1467 175 133 134
-961.023 -548.714 -1468 177 135 136
-960.744 -549.879 -1471 178 138 138
-959.154 -550.296 -1472 178 139 140
-956.909 -550.338 -1472 176 140 140
-954.664 -550.381 -1472 177 138 141
-953.065 -550.798 -1473 176 140 142
-951.463 -551.215 -1474 178 142 144
-949.858 -551.631 -1475 180 144 146
-948.891 -552.422 -1477 179 143 145
-947.918 -553.213 -1479 179 143 143
-946.299 -553.63 -1480 180 144 144
-945.315 -554.421 -1482 184 146 145
-943.687 -554.838 -1483 185 147 146
-942.056 -555.255 -1484 182 146 146
-940.422 -555.672 -1485 180 146 147
-938.152 -555.715 -1485 179 147 148
-936.512 -556.132 -1486 181 149 150
-934.869 -556.549 -1487 182 148 149
-932.595 -556.592 -1487 179 145 146
-930.946 -557.008 -1488 180 141 144
-929.294 -557.426 -1489 180 144 148
-928.883 -558.592 -1492 182 143 146
-927.22 -559.009 -1493 181 142 145
-926.174 -559.8 -1495 181 142 147
-924.503 -560.218 -1496 182 141 145
-922.829 -560.635 -1497 182 141 147
-921.766 -561.427 -1499 183 142 148
-919.47 -561.469 -1499 182 142 150
-917.785 -561.887 -1500 182 141 149
-915.486 -561.93 -1500 181 140 146
-913.796 -562.347 -1501 179 138 144
-911.495 -562.39 -1501 176 136 144
-909.799 -562.807 -1502 175 138 145
-908.705 -563.599 -1504 177 141 145
-907.603 -564.392 -1506 177 140 147
-905.293 -564.434 -1506 177 137 146
-904.781 -565.602 -1509 173 138 145
-903.063 -566.019 -1510 173 138 145
-900.746 -566.062 -1510 168 136 141
-899.023 -566.48 -1511 166 134 139
-897.296 -566.897 -1512 166 134 139
-895.566 -567.315 -1513 168 136 141
-893.242 -567.358 -1513 166 134 139
-890.918 -567.401 -1513 167 132 136
-890.355 -568.569 -1516 171 132 137
-888.611 -568.987 -1517 165 130 134
-886.28 -569.029 -1517 163 131 136
-885.113 -569.823 -1519 161 130 135
-883.359 -570.241 -1520 159 128 133
-881.601 -570.659 -1521 159 128 133
-878.683 -570.326 -1520 155 129 132
-876.922 -570.744 -1521 151 126 129
-876.307 -571.913 -1524 154 128 129
-873.961 -571.956 -1524 150 125 128
-871.044 -571.623 -1523 127 108 114
-867.559 -570.915 -1521 72 61 67
-864.079 -570.207 -1519 29 24 31
-860.605 -569.499 -1517 18 15 24
-857.137 -568.791 -1515 18 15 24
-854.804 -568.833 -1515 22 16 28
-852.47 -568.876 -1515 17 14 21
-850.696 -569.294 -1516 17 14 21
-849.479 -570.088 -1518 17 14 21
-848.255 -570.881 -1520 15 14 20
-846.468 -571.3 -1521 16 13 20
-845.788 -572.469 -1524 16 13 20
-842.884 -572.136 -1523 17 14 21
-841.087 -572.554 -1524 20 15 22
-839.286 -572.973 -1525 20 18 23
-836.384 -572.639 -1524 18 15 22
-834.579 -573.058 -1525 16 13 20
-832.225 -573.1 -1525 15 14 19
-830.416 -573.519 -1526 15 14 19
-828.602 -573.937 -1527 15 14 19
-826.244 -573.98 -1527 13 12 17
-823.885 -574.022 -1527 13 11 16
-821.526 -574.065 -1527 13 12 18
-818.63 -573.732 -1526 14 13 19
-816.807 -574.15 -1527 14 13 19
-814.98 -574.568 -1528 14 13 19
-811.555 -573.859 -1526 13 12 18
-809.195 -573.901 -1526 13 12 18
-806.307 -573.568 -1525 13 12 18
-803.421 -573.234 -1524 12 11 17
-800.538 -572.9 -1523 12 11 17
-797.134 -572.19 -1521 12 11 16
-795.303 -572.608 -1522 224 224 224
-791.905 -571.898 -1520 224 224 224
-789.552 -571.94 -1520 224 224 224
-787.199 -571.982 -1520 16 15 21
-784.329 -571.648 -1519 15 14 20
-781.977 -571.69 -1519 14 13 18
-778.598 -570.979 -1517 15 14 19
-775.736 -570.645 -1516 13 12 17
-772.876 -570.31 -1515 13 12 17
-770.02 -569.976 -1514 15 15 17
-767.167 -569.641 -1513 15 15 17
-763.81 -568.93 -1511 15 15 17
-760.963 -568.595 -1510 16 16 18
-758.119 -568.26 -1509 17 17 19
-754.777 -567.548 -1507 16 16 18
-751.441 -566.836 -1505 17 17 19
-748.11 -566.124 -1503 18 18 20
-745.282 -565.789 -1502 16 16 16
-741.962 -565.077 -1500 16 16 16
-739.14 -564.741 -1499 18 18 20
-736.321 -564.406 -1498 18 18 20
-733.015 -563.693 -1496 17 17 19
-729.715 -562.981 -1494 19 19 21
-726.421 -562.268 -1492 17 17 19
-724.103 -562.309 -1492 16 16 18
-721.785 -562.35 -1492 17 17 19
-718.984 -562.014 -1491 18 18 20
-716.666 -562.054 -1491 17 17 19
-713.869 -561.718 -1490 16 16 18
-711.075 -561.382 -1489 15 15 17
-708.759 -561.423 -1489 17 18 20
-705.969 -561.086 -1488 17 17 19
-702.709 -560.372 -1486 16 15 20
-700.868 -560.79 -1487 17 16 21
-698.554 -560.83 -1487 17 16 21
-696.239 -560.871 -1487 17 17 19
-693.925 -560.911 -1487 16 15 20
-691.144 -560.574 -1486 15 13 18
-688.831 -560.615 -1486 14 15 19
-686.516 -560.655 -1486 14 15 19
-684.662 -561.073 -1487 15 14 19
-682.804 -561.49 -1488 16 14 19
-680.943 -561.908 -1489 17 15 20
-679.078 -562.326 -1490 18 13 19
-677.21 -562.743 -1491 17 12 18
-674.885 -562.783 -1491 16 11 17
-672.56 -562.824 -1491 18 12 16
-670.235 -562.864 -1491 19 14 20
-667.462 -562.527 -1490 21 16 22
-665.584 -562.944 -1491 29 22 29
-662.812 -562.607 -1490 32 25 32
-660.487 -562.647 -1490 33 27 31
-658.603 -563.064 -1491 36 30 34
-656.716 -563.482 -1492 35 29 33
-654.825 -563.9 -1493 35 26 29
-652.494 -563.94 -1493 36 27 32
-651.033 -564.735 -1495 36 30 34
-649.131 -565.153 -1496 37 31 35
-647.226 -565.57 -1497 34 28 32
-645.318 -565.988 -1498 28 22 26
-644.264 -567.162 -1501 23 18 22
-642.773 -567.957 -1503 23 18 22
-641.276 -568.753 -1505 26 21 25
-639.772 -569.549 -1507 24 19 23
-637.415 -569.589 -1507 19 14 18
-634.636 -569.251 -1506 17 12 16
-631.44 -568.534 -1504 16 11 15
-628.25 -567.818 -1502 12 10 15
-625.9 -567.858 -1502 12 10 15
-623.549 -567.897 -1502 13 11 16
-621.611 -568.315 -1503 11 11 13
-619.258 -568.355 -1503 12 12 14
-617.314 -568.772 -1504 13 11 14
-614.141 -568.055 -1502 13 11 14
-611.381 -567.716 -1501 13 11 14
-609.029 -567.756 -1501 15 13 16
-606.677 -567.795 -1501 14 12 15
-605.129 -568.591 -1503 12 10 13
-602.773 -568.63 -1503 11 11 13
-600.816 -569.047 -1504 10 10 10
-598.458 -569.086 -1504 12 12 12
-596.099 -569.126 -1504 14 14 16
-593.74 -569.164 -1504 15 13 16
-591.38 -569.203 -1504 15 13 18
-589.803 -569.999 -1506 14 12 17
-588.61 -571.174 -1509 14 12 17
-587.407 -572.348 -1512 13 11 16
-585.42 -572.766 -1513 11 10 15
-583.815 -573.562 -1515 13 12 17
-581.82 -573.979 -1516 13 14 18
-580.203 -574.775 -1518 13 14 18
-578.199 -575.193 -1519 13 14 18
-576.191 -575.61 -1520 15 14 19
-574.18 -576.028 -1521 15 14 19
-572.541 -576.824 -1523 13 14 18
-571.27 -577.999 -1526 13 12 17
-570.362 -579.553 -1530 13 12 17
-568.327 -579.97 -1531 12 11 16
-566.658 -580.767 -1533 10 9 15
-565.351 -581.942 -1536 11 10 15
-563.667 -582.739 -1538 14 13 18
-561.247 -582.777 -1538 15 16 18
-559.19 -583.195 -1539 14 14 16
-556.767 -583.233 -1539 11 11 13
-555.425 -584.409 -1542 11 10 15
-553.714 -585.205 -1544 11 10 15
-553.067 -587.139 -1549 12 12 14
-551.694 -588.315 -1552 224 224 224
-551.018 -590.249 -1557 224 224 224
-550.679 -592.562 -1563 224 224 224
-549.619 -594.117 -1567 12 13 15
-548.545 -595.672 -1571 13 13 15
-547.459 -597.228 -1575 12 12 14
-546.36 -598.783 -1579 13 11 14
-545.247 -600.339 -1583 13 11 14
-544.465 -602.274 -1588 12 10 15
-544.69 -605.347 -1596 11 11 13
-542.172 -605.386 -1596 11 11 11
-540.668 -606.562 -1599 14 12 15
-539.154 -607.739 -1602 14 12 15
-537.295 -608.537 -1604 13 11 14
-536.096 -610.093 -1608 12 10 13
-533.889 -610.511 -1609 11 9 12
-532.338 -611.688 -1612 12 10 11
-530.449 -612.486 -1614 13 11 14
-528.554 -613.284 -1616 13 11 14
-526 -613.322 -1616 12 12 14
-523.446 -613.361 -1616 13 11 14
-521.214 -613.778 -1617 13 11 16
-518.658 -613.817 -1617 14 12 15
-516.421 -614.234 -1618 14 12 15
-513.862 -614.272 -1618 14 12 15
-511.303 -614.311 -1618 14 12 17
-509.687 -615.487 -1621 16 11 17
-508.061 -616.664 -1624 13 13 15
-505.802 -617.082 -1625 10 10 12
-503.54 -617.499 -1626 11 11 13
-501.582 -618.297 -1628 13 13 15
-499.618 -619.094 -1630 15 13 16
-497.037 -619.131 -1630 16 11 15
-494.759 -619.549 -1631 22 16 20
-493.383 -621.106 -1635 41 30 36
-491.693 -622.283 -1638 106 89 97
-490.591 -624.219 -1643 126 105 114
-488.878 -625.397 -1646 135 109 120
-486.86 -626.194 -1648 133 105 117
-485.13 -627.371 -1651 133 105 117
-483.097 -628.168 -1653 144 110 124
-481.057 -628.965 -1655 147 110 118
-479.01 -629.762 -1657 151 108 115
-476.67 -630.179 -1658 150 108 110
-474.325 -630.596 -1659 152 107 110
-472.262 -631.393 -1661 150 108 112
-469.343 -631.049 -1660 151 108 115
-466.709 -631.086 -1660 150 109 115
-464.353 -631.502 -1661 150 108 112
-462.272 -632.299 -1663 153 108 113
-460.184 -633.096 -1665 154 109 114
-457.815 -633.512 -1666 154 110 111
-455.715 -634.308 -1668 156 112 113
-453.337 -634.725 -1669 155 111 112
-450.685 -634.76 -1669 154 109 112
-448.569 -635.557 -1671 152 110 114
-445.914 -635.592 -1671 152 111 117
-444.053 -636.769 -1674 151 111 119
-441.656 -637.184 -1675 149 109 118
-438.992 -637.219 -1675 144 110 111
-437.11 -638.396 -1678 147 111 113
-434.441 -638.431 -1678 154 115 118
-432.029 -638.846 -1679 157 116 120
-429.614 -639.261 -1680 156 114 118
-426.686 -638.915 -1679 156 111 116
-424.267 -639.331 -1680 155 110 115
-421.593 -639.365 -1680 153 108 113
-418.918 -639.399 -1680 151 109 113
-416.243 -639.433 -1680 148 108 109
-413.322 -639.086 -1679 224 224 224
-410.892 -639.501 -1680 224 224 224
-408.459 -639.915 -1681 224 224 224
-406.264 -640.71 -1683 224 224 224
-403.822 -641.124 -1684 224 224 224
-401.615 -641.918 -1686 224 224 224
-399.401 -642.713 -1688 224 224 224
-396.711 -642.746 -1688 224 224 224
-394.253 -643.159 -1689 224 224 224
-392.024 -643.954 -1691 224 224 224
-389.787 -644.748 -1693 224 224 224
-386.859 -644.399 -1692 151 106 111
-384.16 -644.432 -1692 150 103 109
-381.686 -644.845 -1693 149 100 106
-378.985 -644.877 -1693 149 100 103
-376.505 -645.289 -1694 148 100 100
-373.581 -644.94 -1693 147 98 101
-370.659 -644.59 -1692 146 97 100
-368.176 -645.003 -1693 224 224 224
-365.472 -645.034 -1693 224 224 224
-362.769 -645.065 -1693 224 224 224
-360.703 -646.239 -1696 224 224 224
-358.205 -646.65 -1697 224 224 224
-355.494 -646.681 -1697 153 111 113
-353.199 -647.473 -1699 156 111 114
-350.69 -647.885 -1700 157 111 114
-348.178 -648.296 -1701 160 113 119
-345.459 -648.326 -1701 166 117 123
-342.538 -647.974 -1700 168 118 127
-340.02 -648.385 -1701 169 119 128
-337.102 -648.033 -1700 167 122 125
-334.383 -648.062 -1700 165 120 123
-331.664 -648.091 -1700 167 122 125
-328.945 -648.12 -1700 172 128 129
-326.034 -647.767 -1699 177 131 131
-323.315 -647.795 -1699 177 129 129
-1115.62 -498.232 -1340 180 176 177
-1111.93 -497.516 -1338 236 234 235
-1107.42 -496.429 -1335 241 231 229
-1106.23 -496.83 -1336 158 148 147
-1105.03 -497.231 -1337 98 88 86
-1104.67 -498.006 -1339 145 131 130
-1108.41 -500.641 -1346 198 178 177
-1108.85 -501.789 -1349 213 189 189
-1107.63 -502.192 -1350 215 194 193
-1105.6 -502.226 -1350 215 195 194
-1103.57 -502.26 -1350 212 192 194
-1102.35 -502.666 -1351 212 191 196
-1100.32 -502.701 -1351 211 190 195
-1099.1 -503.108 -1352 211 191 193
-1097.88 -503.517 -1353 211 191 193
-1096.66 -503.925 -1354 212 190 193
-1096.24 -504.706 -1356 215 190 194
-1095.82 -505.488 -1358 217 191 194
-1095.39 -506.271 -1360 215 190 193
-1096.57 -507.799 -1364 216 191 195
-1096.12 -508.583 -1366 217 190 195
-1094.88 -508.994 -1367 217 191 194
-1092.83 -509.034 -1367 216 190 193
-1092.37 -509.819 -1369 218 189 191
-1089.52 -509.486 -1368 220 191 195
-1087.47 -509.528 -1368 221 192 194
-1085.42 -509.569 -1368 217 193 193
-1083.37 -509.611 -1368 218 192 193
-1082.12 -510.025 -1369 217 191 190
-1080.85 -510.439 -1370 217 191 190
-1080.38 -511.226 -1372 221 192 194
-1078.32 -511.269 -1372 222 193 195
-1077.05 -511.684 -1373 222 193 195
-1075.78 -512.1 -1374 220 191 193
-1072.94 -511.77 -1373 217 192 188
-1071.66 -512.186 -1374 218 192 191
-1070.38 -512.602 -1375 221 193 192
-1069.1 -513.018 -1376 222 194 193
-1067.81 -513.434 -1377 222 194 193
-1067.29 -514.225 -1379 222 194 193
-1066.77 -515.014 -1381 222 194 193
-1064.7 -515.058 -1381 222 194 193
-1063.4 -515.476 -1382 223 191 194
-1061.33 -515.52 -1382 224 224 224
-1059.26 -515.564 -1382 224 224 224
-1057.95 -515.981 -1383 224 224 224
-1056.64 -516.399 -1384 224 224 224
-1055.33 -516.816 -1385 224 224 224
-1054.01 -517.234 -1386 224 224 224
-1052.69 -517.652 -1387 224 224 224
-1049.85 -517.323 -1386 224 224 224
-1049.28 -518.114 -1388 224 224 224
-1047.2 -518.159 -1388 224 224 224
-1045.11 -518.204 -1388 224 224 224
-1043.78 -518.622 -1389 224 224 224
-1041.7 -518.666 -1389 224 224 224
-1040.36 -519.084 -1390 224 224 224
-1039.76 -519.875 -1392 224 224 224
-1038.42 -520.294 -1393 224 224 224
-1037.81 -521.085 -1395 224 224 224
-1037.2 -521.877 -1397 224 224 224
-1035.84 -522.295 -1398 224 224 224
-1034.47 -522.713 -1399 214 179 183
-1033.84 -523.506 -1401 214 179 183
-1031.73 -523.55 -1401 215 180 184
-1030.36 -523.968 -1402 216 182 183
-1029.71 -524.76 -1404 210 179 184
-1028.33 -525.179 -1405 211 180 185
-1026.22 -525.223 -1405 210 179 184
-1024.1 -525.267 -1405 209 179 181
-1022.71 -525.686 -1406 210 178 181
-1021.31 -526.104 -1407 208 176 179
-1019.92 -526.522 -1408 208 176 179
-1018.51 -526.94 -1409 209 177 182
-1017.83 -527.733 -1411 205 173 178
-1017.14 -528.525 -1413 204 172 177
-1015.01 -528.569 -1413 205 170 176
-1012.88 -528.613 -1413 206 171 177
-1012.17 -529.405 -1415 207 172 178
-1010.75 -529.823 -1416 207 172 178
-1009.32 -530.242 -1417 207 172 178
-1007.89 -530.66 -1418 206 171 177
-1007.17 -531.452 -1420 205 166 171
-1005.73 -531.871 -1421 203 167 171
-1004.99 -532.663 -1423 203 167 171
-1004.95 -533.83 -1426 202 166 168
-1003.5 -534.248 -1427 202 166 168
-1002.04 -534.666 -1428 204 165 168
-1000.58 -535.084 -1429 203 162 166
-997.715 -534.753 -1428 200 158 162
-996.946 -535.546 -1430 199 163 165
-996.171 -536.339 -1432 198 162 162
-994.695 -536.757 -1433 198 162 162
-993.216 -537.175 -1434 201 161 162
-993.115 -538.342 -1437 199 159 160
-992.315 -539.135 -1439 195 156 157
-990.821 -539.554 -1440 193 154 155
-989.323 -539.972 -1441 192 153 154
-987.821 -540.39 -1442 190 154 156
-986.316 -540.808 -1443 187 151 155
-984.808 -541.226 -1444 182 147 151
