ply
format ascii 1.0
comment Created by Open3D
element vertex 1442
property double x
property double y
property double z
property uchar red
property uchar green
property uchar blue
end_header
-605.358 -1460.51 -1366 224 224 224
-602.802 -1459.47 -1365 24 24 22
-601.569 -1461.63 -1367 27 27 25
-599.453 -1461.65 -1367 28 28 26
-597.336 -1461.68 -1367 27 26 24
-595.655 -1462.77 -1368 24 23 21
-594.405 -1464.93 -1370 22 22 20
-592.716 -1466.03 -1371 22 22 20
-591.454 -1468.19 -1373 23 23 21
-590.616 -1471.42 -1376 24 24 22
-589.768 -1474.65 -1379 23 25 24
-589.337 -1478.95 -1383 26 28 27
-590.167 -1486.46 -1390 28 30 27
-591.821 -1496.11 -1399 28 30 29
-593.447 -1505.76 -1408 30 32 31
-595.466 -1516.48 -1418 30 34 33
-597.035 -1526.13 -1427 29 33 32
-596.492 -1530.43 -1431 25 29 28
-595.936 -1534.73 -1435 25 27 26
-594.126 -1535.83 -1436 25 27 26
-593.138 -1539.06 -1439 23 27 28
-592.14 -1542.29 -1442 22 26 27
-591.133 -1545.52 -1445 22 26 25
-588.894 -1545.55 -1445 23 25 24
-587.06 -1546.64 -1446 22 24 23
-586.437 -1550.94 -1450 22 23 25
-585.399 -1554.18 -1453 21 25 24
-584.752 -1558.48 -1457 24 28 27
-708.754 -1574.34 -1471 20 17 10
-702.157 -1564.74 -1462 17 14 9
-697.025 -1558.34 -1456 17 13 10
-691.433 -1550.88 -1449 17 13 12
-686.814 -1545.55 -1444 17 16 14
-682.685 -1541.3 -1440 20 19 15
-679.513 -1539.19 -1438 22 21 17
-675.876 -1536 -1435 25 24 20
-672.248 -1532.82 -1432 27 26 22
-670.033 -1532.84 -1432 25 24 20
-666.886 -1530.73 -1430 22 21 17
-663.744 -1528.61 -1428 24 23 19
-661.072 -1527.57 -1427 26 25 21
-656.556 -1522.24 -1422 25 26 21
-653.436 -1520.13 -1420 23 22 20
-650.321 -1518.01 -1418 21 20 18
-646.299 -1513.76 -1414 23 22 20
-642.289 -1509.5 -1410 26 25 23
-637.838 -1504.17 -1405 26 26 24
-632.497 -1496.7 -1398 26 26 24
-626.275 -1487.09 -1389 25 25 23
-620.98 -1479.62 -1382 24 24 22
-616.155 -1473.22 -1376 24 24 22
-611.348 -1466.82 -1370 224 224 224
-607.893 -1463.63 -1367 224 224 224
-605.777 -1463.66 -1367 224 224 224
-602.778 -1461.54 -1365 23 23 21
-601.545 -1463.71 -1367 25 25 23
-599.429 -1463.73 -1367 26 26 24
-597.313 -1463.76 -1367 25 24 22
-595.631 -1464.85 -1368 22 21 19
-594.381 -1467.01 -1370 21 21 19
-592.692 -1468.11 -1371 22 22 20
-591.431 -1470.28 -1373 23 23 21
-590.592 -1473.51 -1376 24 24 22
-589.744 -1476.75 -1379 25 27 26
-589.739 -1482.13 -1384 28 30 29
-590.992 -1490.72 -1392 30 32 29
-592.643 -1500.38 -1401 29 31 30
-595.109 -1512.18 -1412 30 32 31
-596.702 -1521.85 -1421 32 34 33
-597.011 -1528.3 -1427 27 31 30
-596.467 -1532.6 -1431 24 28 27
-595.496 -1535.84 -1434 23 25 22
-593.688 -1536.94 -1435 24 26 25
-592.289 -1539.1 -1437 23 27 26
-590.474 -1540.2 -1438 22 26 27
-590.29 -1545.58 -1443 21 25 24
-587.647 -1544.53 -1442 22 24 23
-585.819 -1545.62 -1443 22 23 25
-586.009 -1552.07 -1449 23 24 26
-584.972 -1555.31 -1452 22 26 25
-584.729 -1560.69 -1457 27 29 28
-708.726 -1576.58 -1471 22 19 12
-702.61 -1568.03 -1463 18 15 10
-697.476 -1561.63 -1457 16 12 9
-691.883 -1554.15 -1450 16 12 11
-687.263 -1548.82 -1445 16 15 13
-682.658 -1543.49 -1440 19 18 14
-679.487 -1541.37 -1438 22 21 17
-675.378 -1537.11 -1434 25 24 20
-672.222 -1534.99 -1432 27 26 22
-670.007 -1535.02 -1432 25 24 20
-666.393 -1531.83 -1429 22 21 17
-663.254 -1529.71 -1427 23 22 18
-661.046 -1529.74 -1427 26 25 21
-656.53 -1524.4 -1422 25 26 21
-653.87 -1523.36 -1421 24 23 21
-650.755 -1521.24 -1419 22 21 19
-646.274 -1515.9 -1414 23 22 20
-642.72 -1512.71 -1411 25 24 22
-637.813 -1506.31 -1405 26 26 24
-632.019 -1497.75 -1397 27 27 25
-626.251 -1489.2 -1389 26 26 24
-620.956 -1481.72 -1382 24 24 22
-615.682 -1474.24 -1375 224 224 224
-610.877 -1467.83 -1369 224 224 224
-608.314 -1466.78 -1368 224 224 224
-605.753 -1465.74 -1367 23 23 21
-603.195 -1464.69 -1366 22 22 20
-601.521 -1465.78 -1367 23 23 21
-599.405 -1465.81 -1367 24 24 22
-597.289 -1465.83 -1367 24 23 21
-595.608 -1466.93 -1368 22 21 19
-593.924 -1468.02 -1369 21 21 19
-592.668 -1470.19 -1371 22 22 20
-591.407 -1472.36 -1373 23 23 21
-590.139 -1474.53 -1375 25 25 23
-590.148 -1479.92 -1380 28 30 29
-590.568 -1486.37 -1386 30 32 31
-591.393 -1493.9 -1393 31 33 30
-593.889 -1505.73 -1404 30 32 31
-595.507 -1515.4 -1413 30 32 31
-597.097 -1525.08 -1422 30 32 31
-596.987 -1530.46 -1427 26 30 29
-596.443 -1534.78 -1431 22 26 25
-595.057 -1536.95 -1433 23 25 22
-593.251 -1538.04 -1434 24 26 25
-591.441 -1539.14 -1435 22 26 25
-589.629 -1540.24 -1436 21 25 26
-589.04 -1544.55 -1440 20 24 23
-586.401 -1543.5 -1439 22 24 23
-585.795 -1547.82 -1443 23 24 26
-585.581 -1553.2 -1448 25 26 28
-584.546 -1556.45 -1451 24 28 27
-585.106 -1563.98 -1458 28 30 29
-709.181 -1579.89 -1472 25 22 15
-703.063 -1571.33 -1464 20 17 12
-697.449 -1563.84 -1457 18 13 10
-692.333 -1557.43 -1451 15 11 10
-687.236 -1551.01 -1445 15 14 10
-682.632 -1545.67 -1440 18 17 13
-678.987 -1542.48 -1437 22 21 17
-674.881 -1538.21 -1433 25 24 20
-672.196 -1537.17 -1432 25 24 20
-669.513 -1536.12 -1431 24 23 19
-665.901 -1532.93 -1428 23 22 18
-663.228 -1531.88 -1427 24 23 19
-661.02 -1531.9 -1427 24 23 19
-656.966 -1527.64 -1423 24 25 20
-653.844 -1525.51 -1421 25 24 22
-650.729 -1523.39 -1419 24 23 21
-646.248 -1518.05 -1414 24 23 21
-642.694 -1514.86 -1411 25 24 22
-637.787 -1508.44 -1405 26 25 23
-631.542 -1498.8 -1396 27 27 25
-626.677 -1492.39 -1390 26 26 24
-620.482 -1482.75 -1381 24 24 22
-613.867 -1472.03 -1371 224 224 224
-610.853 -1469.91 -1369 224 224 224
-608.29 -1468.86 -1368 224 224 224
-605.729 -1467.81 -1367 23 23 21
-603.613 -1467.84 -1367 23 23 21
-601.497 -1467.86 -1367 23 23 21
-599.381 -1467.88 -1367 24 24 22
-597.265 -1467.91 -1367 24 23 21
-596.019 -1470.08 -1369 22 22 20
-593.9 -1470.1 -1369 22 22 20
-592.212 -1471.2 -1370 21 21 19
-590.953 -1473.37 -1372 21 23 20
-590.116 -1476.62 -1375 25 25 23
-590.125 -1482.01 -1380 28 30 29
-590.97 -1489.55 -1387 29 31 30
-591.369 -1496.02 -1393 31 33 32
-593.019 -1505.71 -1402 31 33 32
-594.64 -1515.4 -1411 30 32 31
-596.654 -1526.16 -1421 29 30 32
-596.963 -1532.63 -1427 27 29 28
-596.419 -1536.95 -1431 24 28 27
-594.618 -1538.05 -1432 23 25 24
-592.813 -1539.15 -1433 23 25 24
-591.005 -1540.25 -1434 23 24 26
-589.604 -1542.42 -1436 20 24 25
-588.198 -1544.59 -1438 22 24 23
-586.377 -1545.69 -1439 23 24 26
-585.771 -1550.01 -1443 25 26 28
-585.153 -1554.33 -1447 27 28 32
-584.119 -1557.58 -1450 26 30 29
-585.082 -1566.19 -1458 30 32 31
-716.745 -1593.92 -1483 25 21 12
-709.635 -1583.2 -1473 26 23 16
-703.996 -1575.7 -1466 23 20 15
-699.336 -1570.35 -1461 21 16 13
-692.784 -1560.71 -1452 15 11 10
-687.209 -1553.21 -1445 15 14 10
-682.605 -1547.86 -1440 18 17 13
-678.016 -1542.51 -1435 22 21 17
-674.384 -1539.32 -1432 24 23 19
-671.7 -1538.27 -1431 24 23 19
-669.487 -1538.29 -1431 24 23 19
-665.875 -1535.09 -1428 24 23 19
-664.131 -1536.2 -1429 24 23 19
-660.994 -1534.07 -1427 24 23 19
-656.94 -1529.8 -1423 23 24 19
-654.279 -1528.75 -1422 25 24 22
-650.703 -1525.55 -1419 24 23 21
-646.223 -1520.2 -1414 24 23 21
-643.125 -1518.07 -1412 24 23 21
-637.762 -1510.57 -1405 26 25 23
-631.064 -1499.85 -1395 24 24 22
-626.201 -1493.42 -1389 25 25 23
-618.66 -1480.54 -1377 24 24 22
-613.843 -1474.12 -1371 224 224 224
-610.829 -1471.99 -1369 224 224 224
-608.265 -1470.94 -1368 224 224 224
-605.705 -1469.89 -1367 25 25 23
-603.589 -1469.91 -1367 224 224 224
-601.913 -1471.01 -1368 224 224 224
-599.795 -1471.04 -1368 224 224 224
-597.678 -1471.06 -1368 224 224 224
-595.996 -1472.16 -1369 224 224 224
-593.442 -1471.11 -1368 24 24 22
-591.756 -1472.21 -1369 23 23 21
-590.929 -1475.46 -1372 22 24 21
-590.092 -1478.71 -1375 25 25 23
-590.101 -1484.11 -1380 27 29 28
-590.52 -1490.58 -1386 28 30 29
-591.346 -1498.14 -1393 30 32 31
-592.572 -1506.76 -1401 31 33 32
-594.195 -1516.47 -1410 30 32 31
-596.21 -1527.25 -1420 29 30 32
-596.52 -1533.72 -1426 27 29 28
-595.978 -1538.05 -1430 25 29 28
-594.594 -1540.23 -1432 24 26 25
-592.789 -1541.32 -1433 23 25 24
-590.569 -1541.35 -1433 22 23 25
-589.17 -1543.52 -1435 20 24 25
-587.356 -1544.62 -1436 22 24 23
-586.353 -1547.87 -1439 24 25 27
-585.341 -1551.13 -1442 27 28 30
-585.129 -1556.53 -1447 28 29 33
-584.095 -1559.78 -1450 26 30 29
-585.058 -1568.41 -1458 31 33 32
-587.995 -1582.42 -1471 27 29 28
-716.717 -1596.17 -1483 25 21 12
-710.571 -1587.59 -1475 27 22 16
-705.409 -1581.16 -1469 25 22 17
-700.267 -1574.73 -1463 24 19 16
-692.757 -1562.91 -1452 17 13 10
-687.183 -1555.4 -1445 15 14 10
-682.104 -1548.97 -1439 18 17 13
-677.044 -1542.54 -1433 21 20 16
-673.887 -1540.41 -1431 23 22 18
-671.674 -1540.44 -1431 23 22 18
-668.993 -1539.39 -1430 23 22 18
-666.781 -1539.42 -1430 24 23 19
-664.105 -1538.37 -1429 23 22 18
-660.968 -1536.24 -1427 24 23 19
-657.376 -1533.04 -1424 25 24 20
-654.253 -1530.91 -1422 25 24 20
-651.136 -1528.78 -1420 24 23 21
-646.654 -1523.42 -1415 23 22 20
-643.099 -1520.22 -1412 24 23 21
-636.829 -1510.55 -1403 26 25 23
-630.135 -1499.81 -1393 23 22 20
-624.373 -1491.22 -1385 23 23 21
-618.636 -1482.64 -1377 24 24 22
-614.714 -1478.35 -1373 224 224 224
-610.804 -1474.07 -1369 224 224 224
-608.241 -1473.02 -1368 224 224 224
-606.124 -1473.04 -1368 26 26 24
-603.565 -1471.99 -1367 224 224 224
-601.889 -1473.09 -1368 255 138 0
-599.333 -1472.04 -1367 255 138 0
-597.217 -1472.06 -1367 255 138 0
-595.536 -1473.16 -1368 224 224 224
-592.984 -1472.11 -1367 224 224 224
-591.3 -1473.21 -1368 25 27 24
-590.474 -1476.46 -1371 24 26 23
-589.639 -1479.72 -1374 25 25 25
-589.649 -1485.13 -1379 25 27 26
-589.644 -1490.54 -1384 27 29 28
-590.897 -1499.18 -1392 29 31 30
-592.548 -1508.89 -1401 30 32 31
-594.171 -1518.61 -1410 30 32 31
-595.346 -1527.25 -1418 29 30 32
-596.496 -1535.89 -1426 27 28 30
-595.954 -1540.22 -1430 26 28 27
-594.569 -1542.4 -1432 25 27 26
-592.351 -1542.42 -1432 23 24 26
-590.545 -1543.53 -1433 22 23 25
-588.735 -1544.63 -1434 22 23 25
-587.332 -1546.81 -1436 24 26 25
-585.922 -1548.98 -1438 26 28 27
-585.318 -1553.32 -1442 28 29 31
-585.105 -1558.73 -1447 29 30 32
-584.474 -1563.06 -1451 27 29 28
-586.639 -1574.93 -1462 28 30 29
-589.57 -1588.96 -1475 25 27 26
-592.858 -1604.07 -1489 23 25 24
-716.69 -1598.42 -1483 25 21 12
-710.062 -1588.75 -1474 27 22 16
-704.902 -1582.31 -1468 25 22 17
-699.282 -1574.79 -1461 26 21 18
-692.252 -1564.04 -1451 18 14 11
-687.156 -1557.6 -1445 17 16 12
-682.552 -1552.24 -1440 18 17 13
-677.018 -1544.72 -1433 20 19 15
-673.86 -1542.59 -1431 22 21 17
-671.178 -1541.54 -1430 23 22 18
-668.499 -1540.48 -1429 23 22 18
-665.822 -1539.43 -1428 22 21 17
-662.685 -1537.3 -1426 22 21 17
-660.016 -1536.25 -1425 23 22 18
-655.965 -1531.96 -1421 24 23 19
-653.767 -1531.99 -1421 25 24 20
-650.193 -1528.78 -1418 25 24 22
-646.172 -1524.49 -1414 25 24 22
-642.162 -1520.21 -1410 25 24 22
-635.442 -1509.45 -1400 24 23 21
-629.205 -1499.77 -1391 22 21 19
-623.897 -1492.25 -1384 23 23 21
-619.06 -1485.8 -1378 23 23 21
-614.689 -1480.44 -1373 224 224 224
-611.226 -1477.23 -1370 224 224 224
-608.661 -1476.17 -1369 224 224 224
-606.1 -1475.12 -1368 224 224 224
-603.541 -1474.07 -1367 255 138 0
-601.865 -1475.17 -1368 255 138 0
-599.309 -1474.11 -1367 255 138 0
-597.193 -1474.14 -1367 255 138 0
-595.077 -1474.16 -1367 255 138 0
-592.527 -1473.11 -1366 224 224 224
-591.277 -1475.29 -1368 224 224 224
-590.451 -1478.55 -1371 24 26 23
-589.186 -1480.73 -1373 25 25 25
-588.771 -1485.06 -1377 24 26 25
-589.62 -1492.64 -1384 26 28 27
-590.873 -1501.29 -1392 29 31 30
-592.524 -1511.02 -1401 29 31 30
-594.147 -1520.75 -1410 29 31 30
-595.322 -1529.4 -1418 29 30 32
-596.053 -1536.98 -1425 27 28 30
-595.513 -1541.32 -1429 25 27 26
-594.13 -1543.5 -1431 26 28 27
-591.913 -1543.52 -1431 23 24 26
-590.109 -1544.62 -1432 21 22 24
-588.712 -1546.8 -1434 22 23 25
-587.308 -1548.99 -1436 25 27 26
-585.898 -1551.17 -1438 28 30 29
-585.294 -1555.51 -1442 29 30 32
-584.677 -1559.85 -1446 29 30 32
-584.853 -1566.34 -1452 28 30 29
-587.418 -1579.31 -1464 24 26 25
-589.945 -1592.28 -1476 21 23 22
-594.029 -1609.57 -1492 21 23 22
-636.907 -1753.15 -1625 93 89 88
-716.662 -1600.67 -1483 26 17 10
-709.553 -1589.91 -1473 25 20 14
-704.394 -1583.46 -1467 26 23 18
-698.298 -1574.85 -1459 22 18 15
-691.271 -1564.08 -1449 19 15 12
-687.129 -1559.79 -1445 16 15 11
-682.051 -1553.34 -1439 16 15 11
-676.992 -1546.89 -1433 16 15 11
-673.363 -1543.68 -1430 18 17 13
-670.213 -1541.55 -1428 20 19 15
-667.537 -1540.49 -1427 22 21 17
-664.398 -1538.36 -1425 22 21 17
-662.194 -1538.39 -1425 25 24 20
-659.064 -1536.26 -1423 26 25 21
-655.016 -1531.96 -1419 26 25 21
-652.821 -1531.99 -1419 24 23 19
-649.709 -1529.86 -1417 23 22 20
-645.689 -1525.56 -1413 24 23 21
-640.771 -1519.11 -1407 24 23 21
-634.963 -1510.5 -1399 23 22 20
-629.18 -1501.88 -1391 23 22 20
-624.323 -1495.43 -1385 23 22 20
-619.036 -1487.9 -1378 23 22 20
-614.665 -1482.52 -1373 224 224 224
-611.202 -1479.31 -1370 224 224 224
-608.637 -1478.25 -1369 224 224 224
-606.076 -1477.2 -1368 255 138 0
-603.517 -1476.14 -1367 255 138 0
-601.841 -1477.25 -1368 255 138 0
-599.724 -1477.27 -1368 255 138 0
-597.169 -1476.21 -1367 255 138 0
-595.488 -1477.32 -1368 255 138 0
-592.937 -1476.26 -1367 255 138 0
-591.685 -1478.44 -1369 224 224 224
-590.858 -1481.71 -1372 25 27 26
-589.163 -1482.81 -1373 26 26 26
-588.747 -1487.16 -1377 24 26 25
-589.597 -1494.74 -1384 26 28 27
-590.425 -1502.32 -1391 27 29 28
-592.5 -1513.15 -1401 29 31 30
-594.123 -1522.89 -1410 29 30 32
-595.298 -1531.56 -1418 29 30 32
-596.029 -1539.14 -1425 26 27 29
-595.489 -1543.49 -1429 23 25 24
-594.106 -1545.67 -1431 23 24 26
-591.889 -1545.69 -1431 24 25 27
-590.085 -1546.8 -1432 21 22 24
-588.277 -1547.9 -1433 20 21 23
-587.284 -1551.17 -1436 22 23 25
-585.467 -1552.27 -1437 23 25 24
-584.458 -1555.54 -1440 24 25 27
-584.248 -1560.96 -1445 27 28 30
-585.635 -1570.71 -1454 26 28 27
-587.795 -1582.61 -1465 24 26 25
-591.12 -1597.76 -1479 16 18 17
-595.597 -1616.15 -1496 20 22 21
-604.779 -1647.51 -1525 27 29 28
-615.056 -1682.1 -1557 40 40 40
-626.021 -1718.86 -1591 68 66 67
-636.097 -1753.46 -1623 88 84 83
-717.117 -1604.01 -1484 27 18 11
-709.525 -1592.15 -1473 26 21 15
-703.887 -1584.61 -1466 29 26 21
-697.792 -1575.99 -1458 26 22 19
-691.244 -1566.29 -1449 22 18 15
-686.627 -1560.91 -1444 18 17 13
-681.077 -1553.37 -1437 16 15 11
-676.02 -1546.91 -1431 16 15 11
-672.395 -1543.69 -1428 17 16 12
-669.248 -1541.56 -1426 20 19 15
-665.64 -1538.34 -1423 22 21 17
-663.439 -1538.36 -1423 23 22 18
-660.774 -1537.31 -1422 24 23 19
-657.185 -1534.09 -1419 25 24 20
-654.067 -1531.96 -1417 25 24 20
-652.335 -1533.06 -1418 24 23 19
-649.225 -1530.93 -1416 25 24 22
-645.207 -1526.63 -1412 26 25 23
-639.835 -1519.08 -1405 26 25 23
-634.484 -1511.54 -1398 25 24 22
-629.608 -1505.08 -1392 24 23 21
-623.848 -1496.45 -1384 25 24 22
-618.562 -1488.91 -1377 25 24 22
-614.193 -1483.53 -1372 224 224 224
-610.731 -1480.31 -1369 224 224 224
-608.168 -1479.25 -1368 224 224 224
-606.051 -1479.27 -1368 255 138 0
-603.493 -1478.22 -1367 255 138 0
-601.817 -1479.32 -1368 255 138 0
-599.261 -1478.27 -1367 255 138 0
-597.582 -1479.37 -1368 255 138 0
-595.9 -1480.48 -1369 255 138 0
-593.347 -1479.42 -1368 255 138 0
-592.093 -1481.6 -1370 224 224 224
-590.834 -1483.79 -1372 23 25 24
-588.71 -1483.82 -1372 24 24 24
-588.723 -1489.25 -1377 25 27 26
-589.147 -1495.76 -1383 26 28 27
-589.977 -1503.35 -1390 28 30 29
-592.053 -1514.19 -1400 30 32 31
-593.677 -1523.95 -1409 30 31 33
-595.273 -1533.71 -1418 29 30 32
-596.005 -1541.31 -1425 26 27 29
-595.465 -1545.66 -1429 23 25 24
-594.082 -1547.84 -1431 22 23 25
-592.279 -1548.95 -1432 22 23 25
-590.061 -1548.97 -1432 21 22 24
-588.664 -1551.16 -1434 20 21 23
-586.851 -1552.27 -1435 23 24 26
-585.443 -1554.45 -1437 23 25 24
-584.434 -1557.72 -1440 23 24 26
-584.629 -1564.24 -1446 25 26 28
-586.013 -1574 -1455 23 25 24
-588.573 -1587 -1467 22 24 23
-592.295 -1603.25 -1482 17 19 18
-597.961 -1624.91 -1502 22 24 23
-606.737 -1655.23 -1530 28 30 29
-616.216 -1687.71 -1560 41 41 41
-625.996 -1721.28 -1591 69 67 68
-635.287 -1753.76 -1621 87 83 82
-787.469 -1736 -1604 0 0 0
-716.123 -1604.1 -1482 29 20 13
-709.016 -1593.3 -1472 30 23 17
-702.899 -1584.67 -1464 32 29 24
-696.808 -1576.04 -1456 28 24 23
-690.741 -1567.4 -1448 25 21 18
-685.649 -1560.93 -1442 20 19 15
-680.576 -1554.47 -1436 17 16 12
-675.521 -1548 -1430 16 15 11
-671.898 -1544.78 -1427 17 16 12
-667.814 -1540.47 -1423 20 19 15
-664.678 -1538.33 -1421 22 21 17
-662.947 -1539.44 -1422 24 23 18
-658.889 -1535.14 -1418 24 23 19
-655.77 -1533 -1416 25 24 20
-653.118 -1531.94 -1415 25 24 20
-651.85 -1534.13 -1417 25 24 20
-648.741 -1531.99 -1415 27 26 22
-644.725 -1527.69 -1411 30 26 25
-639.354 -1520.13 -1404 28 27 25
-634.459 -1513.66 -1398 27 26 24
-629.13 -1506.11 -1391 26 25 23
-622.922 -1496.39 -1382 26 25 23
-618.088 -1489.92 -1376 26 25 23
-614.169 -1485.61 -1372 224 224 224
-610.707 -1482.39 -1369 224 224 224
-608.144 -1481.33 -1368 224 224 224
-605.584 -1480.27 -1367 255 138 0
-603.469 -1480.29 -1367 255 138 0
-601.353 -1480.32 -1367 255 138 0
-599.676 -1481.42 -1368 255 138 0
-597.995 -1482.53 -1369 255 138 0
-596.311 -1483.64 -1370 255 138 0
-593.757 -1482.58 -1369 255 138 0
-592.502 -1484.77 -1371 224 224 224
-590.81 -1485.87 -1372 21 23 22
-589.115 -1486.98 -1373 23 23 23
-589.127 -1492.42 -1378 26 26 26
-589.123 -1497.86 -1383 27 29 28
-589.529 -1504.38 -1389 30 32 31
-591.607 -1515.24 -1399 31 33 32
-593.653 -1526.09 -1409 30 31 33
-595.669 -1536.95 -1419 29 30 32
-596.399 -1544.55 -1426 26 27 29
-595.858 -1548.91 -1430 23 24 26
-594.473 -1551.1 -1432 21 23 22
-592.255 -1551.12 -1432 22 24 23
-590.449 -1552.23 -1433 21 22 24
-588.229 -1552.26 -1433 20 21 23
-586.418 -1553.36 -1434 23 23 25
-585.011 -1555.55 -1436 22 23 25
-584.816 -1560.99 -1441 20 21 23
-585.01 -1567.52 -1447 20 21 25
-586.392 -1577.29 -1456 18 20 19
-589.753 -1592.48 -1470 20 22 21
-594.669 -1612 -1488 21 23 22
-600.723 -1634.78 -1509 28 30 29
-608.695 -1662.97 -1535 30 32 31
-616.586 -1691.16 -1561 42 42 42
-625.97 -1723.69 -1591 70 68 69
-634.477 -1754.05 -1619 86 80 80
-784.003 -1730.84 -1597 122 102 91
-714.163 -1602.01 -1478 30 21 14
-707.062 -1591.2 -1468 30 23 17
-701.432 -1583.64 -1461 30 27 22
-695.345 -1574.99 -1453 27 23 22
-690.237 -1568.52 -1447 26 22 19
-685.147 -1562.04 -1441 22 21 17
-680.55 -1556.65 -1436 19 18 14
-675.968 -1551.25 -1431 18 17 13
-670.93 -1544.77 -1425 18 17 13
-667.319 -1541.55 -1422 20 19 15
-665.12 -1541.58 -1422 22 21 17
-661.056 -1537.26 -1418 24 23 18
-657.934 -1535.12 -1416 25 24 20
-654.818 -1532.98 -1414 25 24 20
-652.17 -1531.92 -1413 25 24 20
-650.444 -1533.03 -1414 26 25 21
-646.882 -1529.8 -1411 27 26 22
-643.328 -1526.58 -1408 30 26 25
-638.418 -1520.1 -1402 28 27 25
-633.526 -1513.62 -1396 28 27 25
-628.201 -1506.05 -1389 27 26 24
-622.897 -1498.49 -1382 26 25 23
-618.513 -1493.09 -1377 25 24 22
-614.144 -1487.69 -1372 224 224 224
-610.683 -1484.46 -1369 224 224 224
-608.565 -1484.49 -1369 224 224 224
-605.56 -1482.34 -1367 224 224 224
-603.003 -1481.28 -1366 255 138 0
-601.329 -1482.39 -1367 255 138 0
-599.652 -1483.5 -1368 255 138 0
-598.408 -1485.69 -1370 255 138 0
-596.723 -1486.8 -1371 255 138 0
-594.167 -1485.74 -1370 224 224 224
-592.91 -1487.93 -1372 224 224 224
-591.648 -1490.13 -1374 21 23 22
-589.52 -1490.15 -1374 23 23 23
-589.531 -1495.6 -1379 27 27 27
-589.099 -1499.96 -1383 28 30 29
-589.505 -1506.49 -1389 31 33 32
-591.583 -1517.36 -1399 31 33 32
-594.472 -1530.4 -1411 30 31 33
-595.645 -1539.1 -1419 28 29 31
-595.957 -1545.63 -1425 25 26 28
-595.417 -1550 -1429 23 24 26
-593.619 -1551.1 -1430 22 24 23
-592.231 -1553.3 -1432 22 24 23
-590.425 -1554.41 -1433 21 22 24
-588.205 -1554.43 -1433 18 19 21
-586.803 -1556.62 -1435 20 20 22
-585.803 -1559.9 -1438 20 21 23
-585.604 -1565.35 -1443 18 19 21
-586.603 -1574.05 -1451 15 16 20
-588.785 -1586.01 -1462 14 16 15
-592.136 -1601.22 -1476 20 22 21
-597.042 -1620.77 -1494 27 29 28
-603.485 -1644.66 -1516 33 35 34
-609.066 -1666.39 -1536 31 33 32
-616.56 -1693.53 -1561 42 42 42
-625.551 -1725.02 -1590 70 68 69
-633.667 -1754.34 -1617 84 78 78
-798.259 -1759.29 -1621 120 101 87
-781.027 -1726.76 -1591 121 101 90
-713.652 -1603.17 -1477 29 20 11
-706.553 -1592.34 -1467 28 21 13
-700.444 -1583.69 -1459 28 23 19
-694.361 -1575.03 -1451 27 23 22
-689.733 -1569.63 -1446 27 23 20
-685.12 -1564.23 -1441 24 23 19
-680.523 -1558.83 -1436 22 21 17
-675.941 -1553.43 -1431 19 18 14
-669.962 -1544.77 -1423 18 17 13
-667.292 -1543.71 -1422 19 18 14
-663.691 -1540.48 -1419 22 21 16
-659.632 -1536.16 -1415 23 22 17
-656.979 -1535.1 -1414 27 23 20
-653.866 -1532.96 -1412 26 25 21
-651.221 -1531.9 -1411 26 25 21
-648.578 -1530.84 -1410 27 26 22
-645.939 -1529.78 -1409 27 26 22
-642.389 -1526.54 -1406 29 25 24
-637.482 -1520.05 -1400 27 26 24
-632.594 -1513.56 -1394 27 26 24
-628.176 -1508.16 -1389 26 25 23
-623.323 -1501.67 -1383 25 24 22
-618.488 -1495.18 -1377 24 23 21
-614.567 -1490.86 -1373 224 224 224
-610.659 -1486.54 -1369 224 224 224
-608.096 -1485.48 -1368 224 224 224
-605.536 -1484.42 -1367 224 224 224
-602.979 -1483.36 -1366 224 224 224
-601.745 -1485.55 -1368 255 138 0
-600.066 -1486.66 -1369 255 138 0
-598.384 -1487.77 -1370 255 138 0
-596.698 -1488.88 -1371 224 224 224
-594.577 -1488.91 -1371 224 224 224
-593.751 -1492.19 -1374 224 224 224
-592.054 -1493.3 -1375 224 224 224
-590.355 -1494.41 -1376 24 24 24
-589.507 -1497.69 -1379 27 27 27
-589.502 -1503.15 -1384 30 30 30
-589.905 -1509.69 -1390 32 34 33
-592.404 -1521.66 -1401 32 34 33
-594.027 -1531.46 -1410 30 31 33
-595.201 -1540.17 -1418 27 28 30
-595.515 -1546.71 -1424 24 25 27
-594.559 -1549.99 -1427 22 23 25
-593.595 -1553.28 -1430 21 23 22
-592.207 -1555.47 -1432 22 23 25
-590.401 -1556.58 -1433 20 21 23
-588.592 -1557.69 -1434 17 17 19
-587.597 -1560.98 -1437 17 17 19
-586.594 -1564.26 -1440 18 18 20
-587.203 -1571.89 -1447 16 17 21
-588.6 -1581.69 -1456 13 14 18
-590.774 -1593.66 -1467 17 17 17
-594.518 -1609.98 -1482 22 24 23
-599.815 -1630.65 -1501 29 31 30
-604.654 -1650.22 -1519 35 37 36
-609.438 -1669.81 -1537 31 33 32
-616.93 -1696.99 -1562 44 44 44
-624.345 -1724.18 -1587 74 70 71
-631.682 -1751.36 -1612 83 77 77
-795.273 -1755.23 -1615 120 101 87
-778.052 -1722.65 -1585 120 100 89
-713.141 -1604.32 -1476 29 20 11
-706.044 -1593.48 -1466 27 20 12
-699.457 -1583.73 -1457 26 21 17
-693.855 -1576.15 -1450 27 23 22
-689.229 -1570.74 -1445 27 23 20
-684.618 -1565.33 -1440 25 24 20
-680.022 -1559.92 -1435 24 23 19
-675.442 -1554.51 -1430 20 19 15
-670.407 -1548.01 -1424 18 17 13
-666.797 -1544.78 -1421 19 18 14
-662.729 -1540.46 -1417 21 20 15
-658.673 -1536.13 -1413 22 21 16
-655.094 -1532.9 -1410 26 22 19
-651.988 -1530.75 -1408 25 24 20
-649.811 -1530.78 -1408 26 25 21
-647.633 -1530.8 -1408 26 25 21
-644.538 -1528.65 -1406 26 25 21
-640.536 -1524.33 -1402 27 23 22
-636.546 -1520.01 -1398 25 24 22
-631.661 -1513.51 -1392 26 25 23
-626.794 -1507.01 -1386 26 25 23
-622.847 -1502.68 -1382 24 23 21
-618.464 -1497.27 -1377 23 22 20
-614.543 -1492.95 -1373 224 224 224
-611.08 -1489.71 -1370 224 224 224
-608.071 -1487.56 -1368 224 224 224
-605.512 -1486.5 -1367 224 224 224
-603.396 -1486.52 -1367 224 224 224
-601.281 -1486.54 -1367 224 224 224
-600.042 -1488.74 -1369 224 224 224
-598.36 -1489.85 -1370 224 224 224
-596.675 -1490.96 -1371 224 224 224
-594.986 -1492.08 -1372 224 224 224
-593.727 -1494.28 -1374 224 224 224
-591.169 -1493.21 -1373 224 224 224
-590.331 -1496.5 -1376 224 224 224
-589.483 -1499.78 -1379 28 28 28
-588.626 -1503.07 -1382 30 30 30
-590.73 -1513.97 -1392 32 34 33
-592.803 -1524.87 -1402 31 33 32
-594.003 -1533.6 -1410 29 30 32
-596.017 -1544.5 -1420 26 27 29
-595.49 -1548.87 -1424 23 24 26
-594.535 -1552.16 -1427 20 21 23
-593.57 -1555.45 -1430 20 22 21
-592.183 -1557.65 -1432 20 21 23
-590.377 -1558.76 -1433 18 19 21
-588.978 -1560.96 -1435 16 16 18
-587.982 -1564.24 -1438 15 15 17
-587.792 -1569.71 -1443 15 15 17
-588.802 -1578.43 -1451 13 14 18
-590.193 -1588.25 -1460 13 14 18
-592.361 -1600.24 -1471 22 22 22
-596.901 -1618.76 -1488 26 28 27
-601.788 -1638.36 -1506 30 32 31
-605.426 -1654.71 -1521 33 35 34
-609.413 -1672.14 -1537 31 33 32
-616.115 -1697.19 -1560 46 46 46
-623.139 -1723.32 -1584 77 73 74
-630.481 -1750.55 -1609 84 78 78
-634.232 -1767.98 -1625 91 75 75
-801.69 -1766.35 -1623 0 0 0
-791.796 -1750.06 -1608 118 99 85
-776.058 -1720.7 -1581 116 96 85
-759.425 -1689.17 -1552 84 64 53
-721.21 -1619.6 -1488 29 20 11
-713.113 -1606.57 -1476 29 20 11
-706.016 -1595.71 -1466 30 23 15
-698.95 -1584.85 -1456 27 22 18
-693.828 -1578.35 -1450 28 22 22
-689.202 -1572.93 -1445 27 23 20
-684.592 -1567.52 -1440 25 24 20
-679.996 -1562.1 -1435 24 23 19
-674.943 -1555.59 -1429 22 21 17
-670.381 -1550.18 -1424 19 18 14
-665.833 -1544.76 -1419 18 17 12
-661.768 -1540.43 -1415 19 18 13
-657.715 -1536.1 -1411 20 19 14
-653.675 -1531.77 -1407 23 20 15
-650.573 -1529.62 -1405 22 21 17
-648.401 -1529.65 -1405 24 23 19
-646.228 -1529.67 -1405 25 24 20
-643.138 -1527.52 -1403 27 23 20
-639.14 -1523.19 -1399 27 23 22
-635.155 -1518.86 -1395 25 24 22
-630.729 -1513.44 -1390 26 25 23
-626.317 -1508.02 -1385 26 25 23
-622.372 -1503.69 -1381 25 24 22
-618.439 -1499.36 -1377 23 22 20
-614.518 -1495.03 -1373 224 224 224
-611.056 -1491.79 -1370 224 224 224
-608.047 -1489.64 -1368 224 224 224
-605.488 -1488.57 -1367 224 224 224
-602.931 -1487.51 -1366 224 224 224
-601.257 -1488.62 -1367 19 19 17
-599.58 -1489.73 -1368 20 20 18
-597.899 -1490.84 -1369 21 21 19
-596.216 -1491.96 -1370 21 23 22
-594.963 -1494.16 -1372 224 224 224
-592.407 -1493.09 -1371 224 224 224
-590.715 -1494.21 -1372 224 224 224
-590.307 -1498.59 -1376 224 224 224
-588.177 -1498.61 -1376 224 224 224
-589.028 -1506.26 -1383 30 30 30
-591.555 -1518.26 -1394 32 32 32
-592.779 -1527 -1402 31 33 32
-594.821 -1537.91 -1412 29 30 32
-595.573 -1545.56 -1419 25 26 28
-595.048 -1549.94 -1423 21 22 24
-594.511 -1554.33 -1427 18 19 21
-593.546 -1557.62 -1430 19 20 22
-592.159 -1559.82 -1432 17 18 20
-590.353 -1560.93 -1433 14 15 17
-589.365 -1564.22 -1436 13 13 15
-588.776 -1568.61 -1440 13 13 15
-588.989 -1575.17 -1446 12 12 14
-590.401 -1584.99 -1455 13 14 16
-592.594 -1597 -1466 20 21 23
-594.35 -1607.92 -1476 28 28 28
-598.882 -1626.46 -1493 30 32 31
-602.962 -1643.92 -1509 30 32 31
-606.197 -1659.2 -1523 32 34 33
-610.974 -1678.83 -1541 31 33 32
-617.274 -1702.82 -1563 49 49 49
-624.687 -1730.09 -1588 79 75 76
-630.454 -1752.99 -1609 83 77 77
-633.035 -1767.18 -1622 93 75 75
-799.189 -1763.37 -1618 0 0 0
-789.796 -1748.14 -1604 116 97 83
-775.047 -1720.93 -1579 111 92 78
-758.417 -1689.35 -1550 76 56 45
-743.341 -1661.04 -1524 39 25 14
-730.775 -1638.18 -1503 32 22 12
-721.183 -1621.86 -1488 30 21 12
-713.568 -1609.9 -1477 29 22 12
-706.47 -1599.02 -1467 31 24 16
-699.403 -1588.15 -1457 28 23 19
-693.801 -1580.55 -1450 29 23 23
-689.175 -1575.12 -1445 26 22 19
-684.565 -1569.7 -1440 24 23 19
-679.495 -1563.19 -1434 24 23 19
-674.917 -1557.76 -1429 24 23 19
-670.354 -1552.34 -1424 21 20 16
-666.276 -1548 -1420 18 17 12
-661.742 -1542.58 -1415 18 17 12
-657.224 -1537.15 -1410 18 17 12
-653.185 -1532.82 -1406 21 18 13
-649.622 -1529.57 -1403 20 19 15
-646.991 -1528.51 -1402 23 22 18
-645.283 -1529.63 -1403 24 23 19
-641.737 -1526.38 -1400 27 23 20
-637.745 -1522.04 -1396 27 23 22
-634.219 -1518.8 -1393 26 25 23
-630.25 -1514.46 -1389 27 26 24
-626.745 -1511.22 -1386 25 24 22
-622.347 -1505.79 -1381 26 25 23
-618.415 -1501.45 -1377 224 224 224
-614.494 -1497.12 -1373 224 224 224
-611.032 -1493.87 -1370 224 224 224
-608.912 -1493.89 -1370 224 224 224
-605.906 -1491.74 -1368 224 224 224
-603.348 -1490.67 -1367 224 224 224
-601.673 -1491.78 -1368 21 21 19
-599.556 -1491.81 -1368 20 20 18
-597.439 -1491.83 -1368 21 21 19
-595.757 -1492.95 -1369 22 24 23
-594.505 -1495.15 -1371 23 25 24
-591.951 -1494.08 -1370 24 26 25
-591.122 -1497.38 -1373 224 224 224
-590.284 -1500.68 -1376 224 224 224
-588.581 -1501.79 -1377 224 224 224
-590.708 -1512.72 -1387 224 224 224
-591.107 -1519.29 -1393 32 32 32
-593.178 -1530.22 -1403 31 33 32
-594.797 -1540.06 -1412 29 30 32
-594.709 -1545.54 -1417 25 26 28
-594.606 -1551.01 -1422 21 22 24
-593.654 -1554.31 -1425 17 18 20
-592.277 -1556.52 -1427 16 17 19
-591.721 -1560.9 -1431 13 14 16
-590.329 -1563.11 -1433 10 11 13
-589.341 -1566.4 -1436 11 11 13
-589.57 -1572.97 -1442 12 12 14
-590.595 -1581.72 -1450 11 11 13
-592.812 -1593.75 -1461 16 17 19
-595.399 -1606.86 -1473 28 29 31
-595.936 -1614.52 -1480 33 35 34
-600.462 -1633.09 -1497 32 34 33
-604.136 -1649.48 -1512 29 31 30
-607.366 -1664.78 -1526 30 32 31
-612.138 -1684.44 -1544 33 35 34
-618.828 -1709.56 -1567 53 51 52
-625.054 -1733.59 -1589 79 75 76
-630.036 -1754.34 -1608 80 75 72
-631.838 -1766.37 -1619 94 76 74
-632.827 -1776.21 -1628 94 79 76
-798.171 -1763.64 -1616 0 0 0
-788.781 -1748.39 -1602 121 98 84
-775.999 -1725.5 -1581 108 89 74
-759.856 -1694.97 -1553 69 49 38
-745.263 -1667.72 -1528 41 23 13
-732.206 -1643.74 -1506 36 23 15
-722.609 -1627.39 -1491 34 25 18
-714.507 -1614.32 -1479 31 24 18
-706.924 -1602.34 -1468 29 24 20
-699.375 -1590.36 -1457 29 24 20
-693.774 -1582.75 -1450 29 21 19
-689.149 -1577.32 -1445 26 23 18
-684.063 -1570.8 -1439 26 22 19
-679.469 -1565.36 -1434 25 24 20
-674.891 -1559.93 -1429 26 25 21
-670.328 -1554.5 -1424 23 22 18
-665.78 -1549.07 -1419 20 19 15
-661.249 -1543.64 -1414 17 16 12
-656.732 -1538.2 -1409 16 16 14
-652.23 -1532.77 -1404 19 18 14
-648.67 -1529.52 -1401 22 21 17
-645.581 -1527.36 -1399 23 22 18
-643.877 -1528.48 -1400 22 21 17
-640.337 -1525.23 -1397 24 23 19
-636.806 -1521.98 -1394 26 25 21
-633.739 -1519.82 -1392 26 25 23
-630.679 -1517.66 -1390 25 24 22
-626.268 -1512.23 -1385 29 25 22
-621.872 -1506.79 -1380 224 224 224
-618.39 -1503.54 -1377 224 224 224
-614.47 -1499.2 -1373 224 224 224
-611.899 -1498.13 -1372 224 224 224
-609.776 -1498.15 -1372 224 224 224
-606.325 -1494.9 -1369 224 224 224
-603.765 -1493.84 -1368 224 224 224
-602.088 -1494.95 -1369 24 22 23
-599.532 -1493.88 -1368 23 23 21
-597.415 -1493.91 -1368 22 24 21
-595.297 -1493.93 -1368 22 24 21
-593.614 -1495.05 -1369 23 25 24
-592.359 -1497.26 -1371 25 25 25
-591.529 -1500.56 -1374 25 25 25
-590.26 -1502.76 -1376 224 224 224
-590.267 -1508.25 -1381 224 224 224
-590.258 -1513.73 -1386 224 224 224
-591.083 -1521.4 -1393 224 224 224
-593.577 -1533.44 -1404 30 32 31
-594.352 -1541.11 -1411 27 29 28
-594.266 -1546.6 -1416 27 27 29
-594.164 -1552.08 -1421 20 19 24
-592.796 -1554.29 -1423 17 15 20
-592.253 -1558.68 -1427 14 15 17
-591.284 -1561.98 -1430 12 13 15
-590.305 -1565.28 -1433 9 10 12
-590.137 -1570.77 -1438 8 9 11
-590.772 -1578.44 -1445 10 10 12
-592.2 -1588.3 -1454 15 15 17
-595.222 -1602.52 -1467 22 22 24
-596.992 -1613.47 -1477 29 29 31
-598.73 -1624.42 -1487 32 34 31
-603.245 -1643.01 -1504 33 35 34
-606.908 -1659.42 -1519 34 36 35
-610.923 -1676.93 -1535 33 33 33
-615.284 -1695.53 -1552 37 35 36
-621.172 -1718.49 -1573 58 54 55
-626.602 -1740.37 -1593 80 71 72
-629.227 -1754.6 -1606 83 75 73
-630.25 -1764.46 -1615 93 74 68
-631.246 -1774.32 -1624 91 74 67
-796.658 -1762.82 -1613 0 0 0
-787.274 -1747.55 -1599 117 94 80
-775.969 -1727.9 -1581 103 84 67
-760.316 -1698.42 -1554 65 47 35
-747.673 -1675.5 -1533 40 22 12
-734.122 -1650.39 -1510 36 23 15
-724.035 -1632.93 -1494 34 25 18
-715.446 -1618.75 -1481 28 23 17
-706.897 -1604.57 -1468 28 23 19
-698.868 -1591.48 -1456 29 24 20
-693.748 -1584.95 -1450 29 24 21
-689.122 -1579.51 -1445 26 23 18
-684.036 -1572.98 -1439 26 22 19
-679.443 -1567.54 -1434 24 23 19
-674.865 -1562.1 -1429 26 25 21
-669.831 -1555.57 -1423 24 23 19
-665.755 -1551.22 -1419 20 19 15
-660.755 -1544.69 -1413 18 17 13
-656.706 -1540.34 -1409 17 17 15
-651.74 -1533.81 -1403 20 19 15
-647.719 -1529.46 -1399 22 21 17
-645.094 -1528.39 -1398 22 21 17
-642.472 -1527.32 -1397 23 22 18
-639.395 -1525.16 -1395 25 24 20
-635.867 -1521.91 -1392 27 26 22
-634.17 -1523.03 -1393 26 25 23
-630.2 -1518.68 -1389 24 23 21
-626.243 -1514.33 -1385 26 22 19
-622.298 -1509.98 -1381 224 224 224
-618.366 -1505.63 -1377 0 217 231
-614.893 -1502.38 -1374 0 217 231
-612.321 -1501.31 -1373 0 217 231
-609.752 -1500.24 -1372 224 224 224
-606.301 -1496.98 -1369 224 224 224
-604.183 -1497.01 -1369 23 23 23
-601.625 -1495.94 -1368 25 23 24
-599.069 -1494.87 -1367 24 24 22
-596.954 -1494.89 -1367 23 25 22
-594.839 -1494.91 -1367 23 25 22
-592.723 -1494.94 -1367 23 25 24
-591.903 -1498.24 -1370 25 25 25
-590.644 -1500.45 -1372 25 25 25
-589.807 -1503.76 -1375 24 24 24
-590.243 -1510.34 -1381 224 224 224
-590.235 -1515.84 -1386 224 224 224
-591.483 -1524.61 -1394 224 224 224
-594.821 -1538.85 -1407 224 224 224
-594.749 -1544.34 -1412 27 29 28
-593.822 -1547.65 -1415 27 27 29
-594.14 -1554.24 -1421 20 19 24
-593.189 -1557.54 -1424 16 14 19
-592.644 -1561.94 -1428 13 14 16
-591.673 -1565.25 -1431 11 12 14
-590.693 -1568.55 -1434 9 10 12
-591.344 -1576.23 -1441 8 9 11
-592.792 -1586.1 -1450 13 13 15
-594.212 -1595.97 -1459 20 20 22
-596.821 -1609.12 -1471 27 27 29
-598.988 -1621.18 -1482 32 32 34
-601.927 -1635.42 -1495 30 35 31
-606.429 -1654.05 -1512 32 34 33
-610.08 -1670.48 -1527 32 34 33
-614.081 -1688.01 -1543 32 32 32
-618.034 -1705.54 -1559 39 37 38
-622.726 -1725.26 -1577 62 56 58
-626.576 -1742.79 -1593 80 71 72
-628.809 -1755.94 -1605 81 73 70
-629.444 -1764.72 -1613 89 70 63
-629.665 -1772.4 -1620 82 65 57
-630.252 -1781.18 -1628 81 64 57
-794.652 -1760.89 -1609 0 0 0
-786.259 -1747.79 -1597 114 91 77
-775.939 -1730.3 -1581 101 78 62
-763.711 -1708.45 -1561 65 47 35
-750.57 -1684.4 -1539 39 22 12
-737.011 -1659.25 -1516 37 23 14
-726.914 -1641.77 -1500 34 24 15
-717.834 -1626.47 -1486 29 22 14
-708.796 -1611.18 -1472 26 21 15
-700.281 -1596.97 -1459 27 24 19
-695.156 -1590.43 -1453 28 23 20
-689.095 -1581.7 -1445 27 24 19
-684.01 -1575.16 -1439 23 22 18
-679.416 -1569.72 -1434 23 22 18
-674.838 -1564.27 -1429 27 23 20
-669.805 -1557.73 -1423 27 23 20
-665.729 -1553.38 -1419 21 20 16
-661.197 -1547.93 -1414 17 18 13
-656.68 -1542.48 -1409 17 17 15
-651.715 -1535.94 -1403 20 19 15
-647.693 -1531.58 -1399 21 20 16
-644.146 -1528.32 -1396 23 22 18
-641.527 -1527.26 -1395 25 24 20
-638.453 -1525.09 -1393 26 25 21
-636.299 -1525.12 -1393 26 25 21
-633.689 -1524.05 -1392 25 24 22
-629.721 -1519.69 -1388 224 224 224
-626.218 -1516.43 -1385 224 224 224
-622.724 -1513.17 -1382 0 217 231
-618.79 -1508.82 -1378 0 217 231
-615.316 -1505.56 -1375 0 217 231
-612.296 -1503.39 -1373 0 217 231
-609.284 -1501.23 -1371 0 217 231
-606.72 -1500.15 -1370 224 224 224
-604.159 -1499.08 -1369 224 224 224
-601.161 -1496.92 -1367 25 24 22
-598.607 -1495.85 -1366 25 25 23
-596.494 -1495.87 -1366 24 26 23
-594.38 -1495.89 -1366 24 26 23
-592.265 -1495.92 -1366 24 24 24
-591.447 -1499.23 -1369 24 24 24
-590.19 -1501.44 -1371 25 25 25
-589.354 -1504.75 -1374 25 27 26
-590.219 -1512.44 -1381 28 29 31
-590.636 -1519.03 -1387 224 224 224
-591.884 -1527.82 -1395 224 224 224
-595.22 -1542.08 -1408 224 224 224
-593.882 -1544.3 -1410 224 224 224
-593.798 -1549.8 -1415 27 26 31
-593.697 -1555.3 -1420 19 18 23
-593.165 -1559.7 -1424 15 13 18
-592.205 -1563.01 -1427 10 11 13
-591.649 -1567.42 -1431 10 11 13
-591.493 -1572.92 -1436 8 9 11
-593.372 -1583.9 -1446 9 10 12
-594.812 -1593.78 -1455 15 16 18
-596.224 -1603.66 -1464 23 24 26
-598.419 -1615.74 -1475 29 30 32
-601.388 -1630 -1488 31 33 32
-604.318 -1644.27 -1501 30 32 29
-608.81 -1662.91 -1518 31 33 32
-612.851 -1680.47 -1534 31 33 32
-617.24 -1699.12 -1551 29 31 30
-620.387 -1714.48 -1565 41 39 40
-624.28 -1732.03 -1581 65 59 61
-626.943 -1746.3 -1594 81 71 72
-628 -1756.19 -1603 81 71 69
-628.247 -1763.88 -1610 87 70 63
-628.473 -1771.58 -1617 78 61 54
-628.29 -1778.18 -1623 74 56 52
-626.932 -1781.49 -1626 78 60 58
-625.18 -1783.71 -1628 86 68 68
-620.133 -1783.76 -1628 97 81 82
-793.141 -1760.04 -1606 121 97 85
-784.751 -1746.92 -1594 111 88 74
-776.4 -1733.8 -1582 101 75 60
-765.639 -1715.2 -1565 65 51 38
-752.492 -1691.12 -1543 38 24 13
-740.871 -1670.32 -1524 36 22 13
-730.763 -1652.81 -1508 32 22 13
-720.704 -1635.3 -1492 27 20 12
-711.176 -1618.89 -1477 25 20 14
-702.654 -1604.67 -1464 26 23 18
-695.607 -1593.74 -1454 27 23 20
-689.545 -1584.99 -1446 27 24 19
-684.458 -1578.44 -1440 23 22 18
-679.863 -1572.99 -1435 22 21 17
-674.812 -1566.44 -1429 26 22 19
-670.25 -1560.98 -1424 27 23 20
-666.171 -1556.62 -1420 23 22 18
-661.638 -1551.17 -1415 19 20 15
-656.654 -1544.62 -1409 17 17 15
-652.618 -1540.26 -1405 18 17 13
-648.131 -1534.8 -1400 20 19 15
-644.582 -1531.54 -1397 24 23 19
-641.502 -1529.37 -1395 26 25 21
-638.886 -1528.3 -1394 26 25 21
-636.274 -1527.23 -1393 25 24 20
-632.754 -1523.97 -1390 25 24 22
-629.697 -1521.8 -1388 224 224 224
-626.645 -1519.63 -1386 0 217 231
-623.15 -1516.37 -1383 0 217 231
-619.215 -1512 -1379 0 217 231
-616.186 -1509.84 -1377 0 217 231
-613.164 -1507.67 -1375 0 217 231
-610.148 -1505.5 -1373 0 217 231
-607.138 -1503.33 -1371 0 217 231
-604.576 -1502.26 -1370 224 224 224
-601.576 -1500.09 -1368 24 23 21
-598.583 -1497.92 -1366 25 25 23
-596.47 -1497.94 -1366 25 27 24
-594.355 -1497.97 -1366 25 27 24
-591.808 -1496.89 -1365 25 25 25
-590.992 -1500.21 -1368 24 24 24
-590.166 -1503.52 -1371 25 25 25
-589.76 -1507.93 -1375 26 28 27
-590.196 -1514.54 -1381 28 29 31
-590.613 -1521.14 -1387 30 32 31
-591.86 -1529.94 -1395 224 224 224
-593.505 -1539.83 -1404 224 224 224
-593.437 -1545.34 -1409 224 224 224
-593.774 -1551.94 -1415 224 224 224
-594.091 -1558.55 -1421 17 16 21
-592.308 -1559.67 -1422 12 10 15
-591.351 -1562.99 -1425 7 8 10
-591.625 -1569.59 -1431 7 8 10
-593.94 -1581.68 -1442 7 8 10
-595.4 -1591.58 -1451 11 12 14
-596.832 -1601.47 -1460 18 19 21
-598.236 -1611.37 -1469 25 26 28
-600.829 -1624.56 -1481 29 30 32
-603.385 -1637.74 -1493 28 30 29
-606.708 -1653.13 -1507 28 30 27
-611.593 -1672.9 -1525 31 33 32
-616.022 -1691.57 -1542 30 32 31
-619.602 -1708.05 -1557 27 29 28
-621.947 -1721.24 -1569 42 40 41
-625.439 -1737.72 -1584 69 63 65
-627.311 -1749.82 -1595 82 72 73
-627.582 -1757.52 -1602 82 72 70
-627.441 -1764.13 -1608 85 68 61
-627.281 -1770.74 -1614 80 63 56
-627.103 -1777.35 -1620 78 60 56
-625.363 -1779.57 -1622 78 60 58
-623.234 -1780.69 -1623 80 62 62
-621.101 -1781.81 -1624 83 64 66
-618.584 -1781.84 -1624 88 72 73
-616.446 -1782.96 -1625 95 81 80
-613.55 -1781.89 -1624 95 87 84
-611.032 -1781.92 -1624 103 95 92
-792.122 -1760.28 -1604 120 96 84
-784.722 -1749.34 -1594 112 86 73
-777.352 -1738.4 -1584 102 74 60
-767.077 -1720.87 -1568 66 52 41
-756.364 -1702.24 -1551 37 23 12
-746.19 -1684.71 -1535 34 20 11
-736.55 -1668.27 -1520 32 19 10
-726.472 -1650.74 -1504 27 17 8
-716.926 -1634.3 -1489 26 19 11
-705.026 -1612.38 -1469 27 24 19
-697.494 -1600.33 -1458 26 25 21
-690.472 -1589.38 -1448 26 25 20
-684.907 -1581.73 -1441 26 22 19
-679.837 -1575.17 -1435 24 20 17
-674.786 -1568.61 -1429 24 20 17
-669.753 -1562.05 -1423 26 22 19
-666.615 -1559.88 -1421 27 23 20
-661.612 -1553.32 -1415 21 22 17
-657.095 -1547.85 -1410 17 19 16
-653.057 -1543.49 -1406 18 17 13
-648.105 -1536.93 -1400 19 18 14
-645.018 -1534.76 -1398 23 22 18
-641.477 -1531.49 -1395 26 25 21
-639.319 -1531.51 -1395 26 25 21
-635.792 -1528.25 -1392 25 24 22
-632.273 -1524.98 -1389 25 24 22
-629.672 -1523.9 -1388 224 224 224
-627.073 -1522.83 -1387 0 217 231
-623.576 -1519.56 -1384 0 217 231
-619.639 -1515.19 -1380 0 217 231
-616.609 -1513.02 -1378 0 217 231
-613.586 -1510.85 -1376 0 217 231
-610.568 -1508.68 -1374 0 217 231
-607.557 -1506.51 -1372 0 217 231
-604.552 -1504.34 -1370 224 224 224
-601.552 -1502.16 -1368 24 23 21
-598.559 -1499.99 -1366 24 24 22
-596.446 -1500.02 -1366 25 27 24
-593.897 -1498.94 -1365 26 28 25
-591.351 -1497.87 -1364 25 25 25
-590.968 -1502.28 -1368 24 24 24
-590.142 -1505.6 -1371 25 25 25
-589.736 -1510.02 -1375 26 28 27
-590.599 -1517.73 -1382 28 30 29
-590.589 -1523.24 -1387 30 32 31
-590.987 -1529.86 -1393 31 33 32
-592.213 -1538.67 -1401 224 224 224
-592.992 -1546.38 -1408 224 224 224
-593.749 -1554.09 -1415 224 224 224
-593.231 -1558.51 -1419 224 224 224
-591.451 -1559.63 -1420 9 9 11
-591.742 -1566.25 -1426 7 7 9
-592.428 -1573.96 -1433 7 7 9
-594.739 -1586.06 -1444 10 10 12
-595.786 -1594.88 -1452 17 17 19
-597.216 -1604.79 -1461 24 24 26
-599.433 -1616.89 -1472 28 28 28
-601.616 -1629 -1483 30 30 30
-604.168 -1642.21 -1495 29 29 29
-609.099 -1662 -1513 30 30 28
-613.974 -1681.8 -1531 32 32 32
-618.393 -1700.5 -1548 30 32 31
-621.169 -1714.81 -1561 27 29 28
-623.903 -1729.11 -1574 43 43 43
-626.203 -1742.32 -1586 71 65 67
-627.285 -1752.24 -1595 82 72 73
-626.773 -1757.75 -1600 82 72 70
-626.244 -1763.27 -1605 84 69 62
-626.089 -1769.89 -1611 85 68 61
-625.916 -1776.51 -1617 83 65 61
-623.795 -1777.63 -1618 82 63 59
-622.056 -1779.86 -1620 82 62 61
-619.928 -1780.98 -1621 83 63 64
-617.416 -1781.01 -1621 85 67 67
-614.903 -1781.03 -1621 86 71 68
-612.013 -1779.96 -1620 90 76 75
-609.878 -1781.08 -1621 100 89 87
-791.598 -1761.62 -1603 119 95 83
-784.692 -1751.76 -1594 114 86 74
-778.303 -1743 -1586 108 79 65
-769.493 -1728.74 -1573 68 56 44
-759.749 -1712.28 -1558 37 25 13
-751.022 -1698.03 -1545 32 19 10
-741.367 -1681.57 -1530 31 18 9
-731.275 -1664.01 -1514 28 18 9
-719.787 -1643.16 -1495 27 20 12
-707.399 -1620.1 -1474 28 23 19
-697.945 -1603.64 -1459 26 25 21
-690.922 -1592.68 -1449 25 24 19
-684.88 -1583.91 -1441 26 22 19
-679.337 -1576.25 -1434 24 20 17
-673.815 -1568.58 -1427 24 20 17
-669.256 -1563.11 -1422 26 22 19
-666.589 -1562.03 -1421 28 24 21
-662.054 -1556.56 -1416 22 23 18
-657.069 -1549.99 -1410 18 20 17
-653.031 -1545.62 -1406 18 17 13
-649.006 -1541.25 -1402 19 18 14
-644.992 -1536.88 -1398 22 21 17
-641.911 -1534.71 -1396 24 23 19
-638.378 -1531.43 -1393 25 24 20
-634.853 -1528.16 -1390 24 23 21
-632.249 -1527.09 -1389 24 23 21
-630.1 -1527.11 -1389 224 224 224
-627.048 -1524.94 -1387 0 217 231
-623.551 -1521.66 -1384 0 217 231
-619.165 -1516.19 -1379 0 217 231
-616.137 -1514.01 -1377 0 217 231
-613.115 -1511.84 -1375 0 217 231
-610.1 -1509.67 -1373 0 217 231
-607.09 -1507.49 -1371 0 217 231
-604.086 -1505.32 -1369 224 224 224
-601.089 -1503.14 -1367 24 23 21
-598.535 -1502.06 -1366 24 24 22
-596.422 -1502.09 -1366 25 27 24
-593.438 -1499.91 -1364 26 28 25
-591.761 -1501.04 -1365 25 25 25
-590.944 -1504.36 -1368 24 24 24
-590.118 -1507.68 -1371 24 24 24
-590.141 -1513.2 -1376 25 27 26
-590.575 -1519.83 -1382 28 30 29
-590.139 -1524.25 -1386 29 31 30
-590.539 -1530.87 -1392 30 32 31
-591.766 -1539.69 -1400 31 32 34
-593.389 -1549.62 -1409 224 224 224
-593.726 -1556.24 -1415 224 224 224
-592.371 -1558.46 -1417 224 224 224
-592.259 -1563.99 -1422 224 224 224
-592.133 -1569.51 -1427 8 8 10
-592.817 -1577.23 -1434 10 10 12
-594.303 -1587.16 -1443 16 16 18
-595.762 -1597.08 -1452 23 23 25
-597.6 -1608.1 -1462 29 29 31
-600.223 -1621.33 -1474 31 31 31
-602.402 -1633.45 -1485 32 32 32
-606.568 -1651.07 -1501 32 32 32
-611.489 -1670.9 -1519 31 31 29
-616.355 -1690.72 -1537 33 33 33
-619.966 -1707.25 -1552 32 34 33
-623.133 -1722.68 -1566 29 31 30
-625.463 -1735.9 -1578 46 46 46
-627.362 -1748.03 -1589 72 66 68
-627.653 -1755.76 -1596 80 70 71
-626.747 -1760.18 -1600 82 72 70
-626.219 -1765.71 -1605 87 72 65
-625.286 -1770.14 -1609 87 70 63
-624.728 -1775.66 -1614 85 67 63
-622.613 -1776.79 -1615 84 65 61
-620.494 -1777.91 -1616 84 64 63
-618.372 -1779.04 -1617 85 65 66
-615.867 -1779.07 -1617 84 66 66
-612.981 -1777.99 -1616 80 65 62
-610.854 -1779.12 -1617 84 66 66
-608.348 -1779.14 -1617 97 81 81
-606.591 -1781.37 -1619 105 91 90
-791.074 -1762.95 -1602 120 92 81
-786.138 -1757.48 -1597 116 86 75
-780.236 -1749.81 -1590 115 81 69
-772.399 -1737.73 -1579 70 58 44
-764.108 -1724.55 -1567 35 26 11
-755.368 -1710.28 -1554 29 19 7
-746.183 -1694.9 -1540 29 19 9
-735.11 -1675.11 -1522 31 18 10
-723.129 -1653.13 -1502 31 20 14
-710.731 -1630.04 -1481 30 23 17
-700.788 -1612.46 -1465 27 22 19
-693.756 -1601.48 -1455 26 23 18
-686.279 -1589.4 -1444 26 22 19
-679.31 -1578.42 -1434 24 20 17
-673.789 -1570.74 -1427 24 20 17
-670.642 -1568.57 -1425 26 22 19
-666.563 -1564.19 -1421 27 23 20
-661.561 -1557.61 -1415 24 23 19
-657.509 -1553.23 -1411 20 20 18
-653.006 -1547.76 -1406 18 17 13
-649.443 -1544.48 -1403 18 17 13
-645.89 -1541.2 -1400 19 18 14
-641.426 -1535.72 -1395 23 22 18
-638.353 -1533.55 -1393 25 24 20
-635.285 -1531.37 -1391 23 22 20
-632.679 -1530.29 -1390 22 21 19
-630.075 -1529.22 -1389 224 224 224
-627.023 -1527.04 -1387 224 224 224
-623.076 -1522.66 -1383 0 217 231
-619.141 -1518.28 -1379 0 217 231
-615.665 -1515 -1376 0 217 231
-613.091 -1513.93 -1375 0 217 231
-610.076 -1511.75 -1373 0 217 231
-606.623 -1508.47 -1370 224 224 224
-604.062 -1507.39 -1369 224 224 224
-601.065 -1505.22 -1367 23 23 21
-598.95 -1505.24 -1367 23 23 21
-595.961 -1503.06 -1365 25 25 23
-593.414 -1501.98 -1364 26 26 24
-591.737 -1503.11 -1365 25 25 25
-590.92 -1506.44 -1368 24 24 24
-590.095 -1509.76 -1371 24 24 24
-590.117 -1515.29 -1376 24 26 23
-590.124 -1520.82 -1381 27 29 28
-589.69 -1525.25 -1385 28 30 29
-590.516 -1532.98 -1392 28 30 29
-591.742 -1541.82 -1400 28 29 31
-593.365 -1551.75 -1409 22 22 24
-592.443 -1555.08 -1412 224 224 224
-591.929 -1559.51 -1416 224 224 224
-592.652 -1567.24 -1423 224 224 224
-592.938 -1573.88 -1429 224 224 224
-594.033 -1582.71 -1437 13 14 16
-595.103 -1591.55 -1445 20 21 23
-596.558 -1601.49 -1454 26 26 26
-598.802 -1613.62 -1465 29 29 29
-601.42 -1626.87 -1477 31 31 31
-604 -1640.11 -1489 32 32 32
-608.16 -1657.76 -1505 32 32 32
-614.282 -1680.91 -1526 32 32 30
-618.335 -1698.56 -1542 32 32 32
-621.938 -1715.11 -1557 34 34 34
-625.096 -1730.56 -1571 33 35 34
-627.023 -1742.7 -1582 50 48 49
-628.125 -1752.64 -1591 74 65 68
-628.02 -1759.28 -1597 78 68 69
-626.721 -1762.61 -1600 82 72 70
-625.412 -1765.94 -1603 87 70 63
-624.483 -1770.37 -1607 86 69 62
-623.541 -1774.81 -1611 86 69 62
-621.045 -1774.83 -1611 88 69 65
-618.933 -1775.96 -1612 88 68 67
-616.434 -1775.98 -1612 86 66 65
-613.936 -1776.01 -1612 82 64 62
-611.438 -1776.04 -1612 78 63 60
-608.94 -1776.06 -1612 80 59 58
-606.441 -1776.09 -1612 90 70 71
-605.067 -1779.42 -1615 98 80 80
-603.683 -1782.75 -1618 99 85 84
-790.55 -1764.28 -1601 119 89 79
-785.616 -1758.8 -1596 116 84 73
-779.715 -1751.12 -1589 115 81 69
-773.837 -1743.43 -1582 70 57 41
-766.517 -1732.44 -1572 37 25 11
-758.741 -1720.35 -1561 29 21 8
-749.546 -1704.95 -1547 31 21 11
-738.946 -1686.24 -1530 32 19 11
-725.99 -1662.02 -1508 31 20 14
-713.102 -1637.8 -1486 31 22 17
-703.631 -1621.3 -1471 27 22 18
-695.159 -1607 -1458 26 23 18
-686.728 -1592.7 -1445 26 22 19
-678.81 -1579.49 -1433 25 21 18
-675.179 -1576.21 -1430 25 21 18
-671.086 -1571.83 -1426 26 22 19
-666.068 -1565.24 -1420 27 23 20
-662.002 -1560.86 -1416 24 23 19
-657.484 -1555.38 -1411 21 21 19
-653.444 -1550.99 -1407 19 18 14
-650.806 -1549.91 -1406 17 16 12
-646.326 -1544.43 -1401 16 15 11
-641.861 -1538.94 -1396 21 20 16
-638.786 -1536.76 -1394 25 24 20
-635.717 -1534.58 -1392 24 23 21
-632.654 -1532.4 -1390 21 20 18
-629.597 -1530.22 -1388 224 224 224
-626.546 -1528.04 -1386 224 224 224
-622.601 -1523.66 -1382 224 224 224
-618.667 -1519.27 -1378 0 217 231
-616.088 -1518.19 -1377 0 217 231
-613.067 -1516.01 -1375 0 217 231
-609.607 -1512.73 -1372 224 224 224
-607.042 -1511.65 -1371 224 224 224
-604.038 -1509.47 -1369 224 224 224
-601.041 -1507.29 -1367 224 224 224
-598.926 -1507.31 -1367 23 23 21
-596.374 -1506.23 -1366 24 24 22
-594.261 -1506.26 -1366 25 25 23
-593.014 -1508.49 -1368 25 25 25
-591.329 -1509.61 -1369 24 24 24
-590.501 -1512.95 -1372 24 24 24
-590.093 -1517.38 -1376 24 26 23
-589.673 -1521.81 -1380 26 28 27
-590.092 -1528.45 -1386 28 30 29
-590.916 -1536.2 -1393 28 30 29
-591.296 -1542.84 -1399 27 28 30
-592.078 -1550.58 -1406 19 19 21
-591.58 -1555.02 -1410 9 9 11
-591.069 -1559.45 -1414 224 224 224
-593.461 -1571.61 -1425 224 224 224
-594.574 -1580.46 -1433 224 224 224
-595.662 -1589.3 -1441 224 224 224
-596.314 -1597.05 -1448 224 224 224
-597.764 -1607 -1457 26 26 26
-600.004 -1619.16 -1468 27 27 27
-602.617 -1632.42 -1480 28 28 28
-605.598 -1646.78 -1493 30 30 30
-610.963 -1667.76 -1512 30 30 30
-616.27 -1688.75 -1531 33 33 31
-620.314 -1706.42 -1547 31 31 31
-623.51 -1721.89 -1561 34 34 34
