ply
format ascii 1.0
comment Created by Open3D
element vertex 732
property double x
property double y
property double z
property double nx
property double ny
property double nz
property uchar red
property uchar green
property uchar blue
end_header
57.9181 -831.663 -1669.42 -0.379577 -0.175243 0.9017 73 105 169
60.9507 -826.349 -1667.09 -0.422487 -0.205255 0.875167 74 106 170
55.4819 -825.633 -1669.26 -0.369804 -0.156606 0.909501 73 107 170
45.4554 -817.402 -1672.8 -0.35483 0.0185585 0.924275 73 107 171
48.591 -807.21 -1672.05 -0.49379 0.0697821 0.860308 70 105 168
53.2793 -807.268 -1668.11 -0.591675 -0.00175929 0.804254 71 103 166
50.748 -793.357 -1671.11 -0.581198 -0.0577203 0.778234 68 102 165
54.0992 -799.018 -1667.72 -0.680483 -0.017563 0.733402 69 101 164
16.0714 -578.427 -1669.93 0.616807 -0.0146547 0.773281 61 89 152
14.0735 -570.659 -1669.71 0.689796 0.192093 0.697937 80 109 171
90.1486 -590.676 -1672.25 -0.266283 -0.246759 0.843686 73 103 167
88.0966 -585.436 -1671.4 -0.224743 -0.234504 0.87777 60 90 153
80.1015 -580.657 -1671.95 -0.336874 -0.00835287 0.855791 56 86 147
85.1276 -579.329 -1670.21 -0.327352 -0.0650483 0.791526 56 85 145
89.3156 -573.539 -1668.08 -0.398962 0.150468 0.720047 51 79 135
9.08408 -559.38 -1668.68 0.664524 0.216194 0.715113 81 110 171
10.0959 -555.461 -1670.81 0.625771 0.156483 0.74887 76 105 167
3.64326 -544.94 -1668.38 0.597872 0.29105 0.683047 64 93 151
9.1903 -545.281 -1671.67 0.5053 0.346829 0.627029 58 87 145
12.7243 -564.912 -1670.23 0.68948 0.205588 0.699148 82 112 173
5.10468 -537.803 -1671.86 0.525867 0.261154 0.791995 49 79 137
5.75578 -538.077 -1672.19 0.508896 0.277555 0.791475 50 80 138
0.951628 -530.448 -1670.69 0.675295 0.20518 0.703485 51 80 138
-3.03307 -520.319 -1669.32 0.728291 0.342708 0.55668 50 79 134
-0.79859 -522.888 -1671.47 0.70181 0.289042 0.624579 51 81 137
-148.539 -32.6777 -1669.44 0.885184 0.146201 0.366687 245 246 205
-149.912 -28.8053 -1667.02 0.911197 0.137103 0.266529 246 246 209
-150.099 -21.0724 -1668.59 0.896245 0.10603 0.319109 249 248 219
-151.053 -15.1033 -1666.89 0.92768 0.0351067 0.263367 247 245 219
-152.559 1.87195 -1667.23 0.819489 0.169029 0.546387 238 224 188
-153.87 7.83128 -1666.18 0.778429 0.105701 0.592149 237 226 202
-777.873 20.241 -1669.69 0.265583 0.30884 -0.886075 175 138 137
-791.728 34.0499 -1668.27 0.284093 0.301923 -0.893686 182 144 143
-785.845 25.9488 -1669.68 0.292005 0.3147 -0.896293 187 149 149
-786.943 29.6899 -1667.46 0.293075 0.315493 -0.897583 188 150 150
-773.51 18.6441 -1670.23 0.193536 0.342401 -0.856808 155 120 117
-763.144 19.2358 -1668.02 0.076803 0.482076 -0.774755 133 102 97
-753.309 20.0196 -1670.98 0.103113 0.590689 -0.758893 148 113 104
-755.992 24.2048 -1665.68 0.0137598 0.670536 -0.708625 144 109 103
-744.147 16.8284 -1671.95 0.10337 0.499361 -0.790795 139 105 96
-742.59 17.773 -1670.54 0.116608 0.497399 -0.806026 137 104 95
80.6192 -300.992 -1670.52 -0.0833344 -0.158224 0.85547 109 143 202
79.8386 -299.94 -1669.92 -0.154484 -0.164005 0.835001 110 143 202
75.7192 -291.274 -1670.61 -0.488745 -0.262547 0.757522 103 136 194
74.5579 -285.124 -1670.44 -0.462427 -0.286415 0.737612 95 127 186
64.4429 -258.15 -1669.53 -0.34849 -0.218528 0.833881 245 244 213
72.4695 -279.727 -1671.33 -0.488821 -0.207019 0.706818 87 118 177
74.2739 -274.208 -1670.62 -0.559806 -0.0108316 0.761879 83 115 172
77.1329 -268.501 -1668.88 -0.521166 -0.180466 0.77965 132 152 180
77.3982 -267.033 -1668.59 -0.496624 -0.222476 0.79259 149 165 184
65.1222 -256.593 -1668.1 -0.362633 -0.135992 0.860876 245 244 214
37.6262 131.954 -1667.69 -0.590881 -0.63616 0.358982 148 147 122
34.1483 140.715 -1671.69 -0.742382 -0.0254116 0.479514 65 61 49
31.7261 164.186 -1672.76 -0.681649 -0.296252 0.641746 51 54 53
32.298 163.755 -1672.38 -0.674796 -0.306461 0.644122 53 55 54
48.9737 125.12 -1667.7 -0.386561 -0.666061 0.454669 204 203 179
56.4745 121.663 -1669.17 -0.273679 -0.587811 0.516873 203 202 183
63.8155 122.844 -1668.07 -0.0640629 -0.483591 0.420985 235 234 216
69.6245 118.522 -1672.35 -0.162569 -0.532156 0.367974 203 203 183
71.417 118.857 -1672.02 -0.133479 -0.536104 0.318922 211 211 192
76.3335 119.939 -1671.16 -0.0882808 -0.608228 0.341566 233 233 216
80.4796 118.644 -1671.14 -0.117487 -0.669393 0.4795 245 245 227
88.9961 119.762 -1669.5 -0.176638 -0.71043 0.528196 252 253 235
79.9819 125.88 -1669.42 0.0785554 -0.630749 -0.015457 225 225 214
68.1582 125.96 -1666.19 0.19854 -0.412068 -0.0860338 235 236 224
80.3131 130.854 -1668.19 0.24163 -0.640054 -0.360535 198 199 196
86.5732 133.049 -1666.52 0.246034 -0.7208 -0.475141 193 195 196
40.2702 152.61 -1667.48 -0.756246 0.145568 0.297225 56 56 55
30.6958 171.201 -1671.44 -0.703365 -0.199148 0.66345 51 54 57
30.3819 176.857 -1670.69 -0.706074 -0.148265 0.68758 53 56 61
31.7175 179.499 -1668.68 -0.720893 -0.141435 0.672891 53 57 62
31.7724 181.343 -1668.19 -0.733279 -0.152202 0.655411 53 57 63
27.7361 192.285 -1667.92 -0.625714 -0.41969 0.612415 80 84 91
0.248908 203.581 -1672.47 -0.373338 -0.498413 0.761022 157 162 173
6.94008 202.015 -1670.89 -0.332809 -0.530233 0.760352 158 163 174
-4.87772 210.885 -1669.61 -0.33868 -0.282713 0.83587 156 160 171
-11.2058 212.838 -1671.41 -0.159898 -0.0384114 0.805057 146 152 164
-2.02522 216.889 -1666.51 -0.348863 -0.0635887 0.908459 171 174 187
429.247 84.4621 -1668.21 -0.0952657 -0.735492 -0.658301 115 112 118
437.18 86.5276 -1670.51 -0.161934 -0.615515 -0.736042 134 131 135
440.383 84.7389 -1669.18 -0.193199 -0.584802 -0.755982 130 128 132
452.102 80.6643 -1668.72 -0.194449 -0.626019 -0.724778 92 91 98
457.46 86.8872 -1673.38 -0.0999168 -0.4311 -0.789754 189 186 183
463.716 86.1299 -1669.69 -0.0239594 -0.0539429 -0.774628 188 185 183
468.369 87.4839 -1668.12 0.0287166 0.167538 -0.773814 200 197 195
506.719 66.0205 -1666.44 -0.00749526 -0.486516 -0.85643 152 149 151
508.936 69.9273 -1668.16 0.0640085 -0.489065 -0.851254 126 124 129
496.408 78.8711 -1668.75 -0.187424 -0.256505 -0.842821 152 149 154
492.052 86.5867 -1670.64 -0.051225 -0.0360288 -0.807726 173 170 171
500.789 73.9565 -1669.38 -0.166782 -0.384891 -0.854153 150 147 153
509.731 75.6743 -1670.54 0.0398223 -0.339713 -0.850123 138 137 143
501.578 81.9085 -1672.61 -0.0932258 -0.130808 -0.820743 162 159 162
514.523 28.2342 -1668.29 0.0851558 -0.158423 -0.91395 184 155 136
514.54 28.9965 -1668.35 0.0888664 -0.142304 -0.91679 185 156 136
548.334 9.65091 -1668.45 -0.233056 -0.14828 -0.895823 174 154 145
553.333 14.7385 -1667.04 -0.262215 -0.17566 -0.897436 172 152 142
559.862 18.3295 -1670.1 -0.156177 -0.0854067 -0.888412 175 156 147
559.328 23.0013 -1666.87 -0.297629 -0.143708 -0.890777 159 139 129
562.28 34.3341 -1667.42 -0.239644 0.0906079 -0.937516 175 152 136
562.092 35.9414 -1667.11 -0.218068 0.120166 -0.944928 187 164 147
566.465 27.5197 -1669.6 -0.132327 0.204114 -0.87854 142 123 112
577.461 27.8057 -1671.14 0.0678144 0.462777 -0.859923 126 106 92
577.725 29.3859 -1670.4 0.0413365 0.417209 -0.888507 140 117 100
-121.617 -677.076 -1661.39 0.35759 0.225561 0.892405 66 97 159
-142.815 -673.745 -1662.33 0.617495 -0.0178637 0.728739 83 104 150
-135.191 -663.445 -1660.11 0.491391 -0.49675 0.589993 75 100 151
-124.927 -672.507 -1660.98 0.319571 0.189043 0.871685 65 94 154
-119.197 -665.414 -1663.91 0.378199 0.196809 0.839903 66 96 158
-132.191 -655.624 -1661.27 0.385741 -0.160943 0.756902 71 97 152
-127.104 -659.314 -1662.23 0.388878 -0.00687082 0.707646 68 95 152
-121.745 -657.795 -1664.39 0.397958 0.254417 0.62112 67 92 149
-129.629 -652.372 -1662.97 0.393331 0.132051 0.728108 69 96 152
-145.693 -626.067 -1660.46 0.616259 0.208253 0.726459 69 96 156
-137.746 -648.769 -1660 0.460721 0.118882 0.882827 67 95 156
-137.752 -636.729 -1663.99 0.649881 0.249179 0.715794 71 98 158
-143.798 -629.098 -1660.8 0.641738 0.213678 0.721952 71 96 156
-136.764 -630.586 -1665.61 0.641863 0.25143 0.660362 71 94 151
-133.621 -623.609 -1666.06 0.403169 0.10481 0.794932 65 90 149
-130.697 -623.984 -1666.37 0.35577 0.0269336 0.823061 63 89 148
-144.571 -621.801 -1662.98 0.558633 0.219764 0.698605 69 96 155
-150.598 -614.215 -1662.25 0.66877 0.437823 0.478511 67 92 150
-156.059 -605.769 -1662.7 0.810758 0.405374 0.335188 69 91 146
-156.644 -597.773 -1663.62 0.70768 0.171761 0.587932 67 91 146
-138.404 -623.784 -1665.18 0.497365 0.174057 0.743061 69 93 151
-139.683 -617.048 -1665.94 0.353326 0.199726 0.747251 65 92 151
-127.279 -621.119 -1666.08 0.240786 -0.0525695 0.940492 56 85 147
11.991 -1091.03 -1660.51 0.494219 0.342275 0.420651 135 143 161
8.91773 -1084.53 -1663.51 0.522745 0.256281 0.36212 129 136 153
-4.48092 -1071.97 -1660.82 0.0364138 0.176847 0.477556 125 130 148
5.27154 -1080.39 -1663.63 0.424308 0.306948 0.46995 132 140 158
3.73696 -1074.55 -1665.87 0.385849 0.457319 0.648707 144 155 175
20.7919 -1092.81 -1661.84 -0.150319 0.637227 0.631973 147 160 182
15.1299 -1086.24 -1666.45 0.280918 0.399756 0.472223 139 148 166
30.3692 -1086.42 -1664.82 -0.251695 0.675611 0.655175 145 158 177
32.5193 -1086.47 -1663.27 -0.265093 0.680024 0.637524 144 157 176
-5.94903 -1064 -1663.94 0.577908 0.320838 0.592787 149 157 180
-12.1261 -1059.51 -1659.63 0.774191 0.330397 0.467822 139 145 164
-10.5436 -1053.38 -1664.18 0.439866 0.172406 0.623738 131 137 155
-10.987 -1049.23 -1664.63 0.288929 0.00478247 0.667588 117 126 144
43.0898 -1083.26 -1661.82 -0.174419 0.536235 0.754074 151 164 187
46.8296 -1079.06 -1664 -0.359103 0.606717 0.621743 156 167 192
53.3081 -1077.32 -1662.22 -0.403261 0.4836 0.484717 155 164 191
53.6925 -1075.73 -1664.4 -0.515113 0.414414 0.529719 156 166 193
-72.7012 -833.112 -1665.18 -0.360126 0.0370766 0.904525 60 91 152
-68.4168 -823.456 -1664.09 -0.499053 0.069947 0.850255 61 92 153
-68.5108 -819.332 -1664.44 -0.517822 0.060839 0.846099 66 96 157
-118.776 -796.393 -1665.67 0.34677 -0.233472 0.874903 73 105 168
-115.74 -783.421 -1666.15 0.389193 0.00639432 0.915746 76 104 164
-69.5623 -806.484 -1666.63 -0.56222 0.0194447 0.832868 76 108 169
-80.3084 -789.077 -1665.73 -0.143495 -0.294852 0.912495 71 100 164
-83.4851 -782.614 -1665.17 -0.21614 -0.157412 0.947107 73 103 166
-73.9832 -789.293 -1664.56 -0.284594 -0.255743 0.874961 68 98 160
-69.2107 -789.768 -1662.43 -0.452895 -0.140714 0.800593 67 96 156
-76.1477 -786.236 -1663.72 -0.256317 -0.227935 0.892646 70 100 162
-66.4681 -832.288 -1661.55 -0.518522 -0.0600931 0.809667 63 92 153
-63.5101 -823.128 -1660.69 -0.614806 0.0446519 0.769513 64 93 152
-64.4291 -810.973 -1661.35 -0.627753 -0.0223173 0.773343 70 99 159
-64.0788 -798.478 -1661.22 -0.637195 -0.0229685 0.737416 68 96 155
64.2415 -684.473 -1661.87 -0.430902 0.398747 0.791639 60 91 154
65.9094 -700.341 -1660.76 -0.355735 -0.115459 0.911607 63 95 158
66.3726 -675.483 -1665.17 -0.418248 0.548442 0.631339 68 99 163
8.45451 -671.694 -1662.92 0.361508 -0.0244669 0.909106 66 98 161
8.72263 -665.008 -1662.6 0.350984 -0.0591599 0.909263 66 98 161
10.4601 -660.961 -1663.11 0.354812 -0.0309275 0.912415 65 96 160
7.78143 -649.187 -1662.03 0.483501 0.0629302 0.859587 51 80 143
13.7182 -662.907 -1664.63 0.311831 -0.0415808 0.928122 65 96 160
18.8119 -665.117 -1666.56 0.24298 -0.0486331 0.953477 63 95 158
23.5564 -659.364 -1666.07 0.148198 -0.165765 0.955794 61 93 156
12.5867 -652.084 -1663.96 0.342228 0.0274959 0.912833 59 89 153
19.9887 -650.846 -1665.41 0.162341 0.025019 0.964548 62 93 156
24.9129 -649.357 -1665.88 0.147666 0.0404421 0.962449 65 96 159
7.7872 -643.918 -1662.66 0.465568 0.0847424 0.873245 48 77 137
5.00361 -637.181 -1662.39 0.382314 0.0884564 0.90587 58 88 146
-0.685304 -629.946 -1660.89 0.462477 0.0226422 0.855429 67 97 156
8.13178 -635.23 -1663.75 0.365572 0.0853576 0.920052 57 86 144
5.76095 -624.766 -1663.76 0.430945 0.0646284 0.886027 63 93 152
10.464 -623.043 -1665.59 0.380192 0.108252 0.908944 63 93 152
15.1034 -645.127 -1665.55 0.264392 0.0841607 0.944839 55 85 146
12.2187 -640.366 -1664.91 0.384151 0.083692 0.911765 49 78 137
67.6942 -673.472 -1664.23 -0.446553 0.404523 0.672661 65 96 158
69.1347 -666.544 -1662.59 -0.555418 0.189283 0.70266 59 88 146
70.3196 -658.646 -1662.62 -0.656241 0.179764 0.634221 52 78 130
75.9498 -648.066 -1660.07 -0.738179 0.261689 0.336617 47 70 116
94.5516 -619.202 -1665.23 -0.672192 0.198357 0.659528 72 99 161
98.1504 -614.685 -1662.07 -0.722853 0.153077 0.596249 74 100 162
103.677 -602.805 -1660.64 -0.729001 0.323955 0.583225 78 104 166
105.108 -599.294 -1661.79 -0.659076 0.331258 0.65384 82 108 170
109.072 -591.721 -1662.58 -0.591161 0.363814 0.694395 88 114 174
112.522 -585.363 -1660.65 -0.682233 0.278827 0.592891 84 110 171
111.226 -578.917 -1664.96 -0.46284 0.160073 0.814292 73 101 161
116.176 -573.829 -1660.22 -0.544469 0.249537 0.715086 68 96 156
95.2544 -565.696 -1665.57 -0.494636 0.343071 0.711863 56 82 136
94.8303 -558.853 -1665.82 -0.594611 0.511769 0.486354 53 79 131
106.054 -563.381 -1664.17 -0.347225 0.292653 0.861244 82 110 169
116.357 -566.778 -1664.03 -0.386882 0.30174 0.868046 63 91 152
111.739 -559.317 -1662.34 -0.372623 0.316454 0.82712 68 96 156
100.007 -554.901 -1660.46 -0.623375 0.431719 0.550381 49 75 127
103.488 -548.163 -1665.36 -0.716369 0.600906 0.123128 63 91 145
104.397 -547.655 -1661.33 -0.725283 0.589017 0.248194 52 80 132
118.655 -565.611 -1663.46 -0.395333 0.308355 0.868292 65 92 152
120.953 -558.819 -1664.39 -0.388992 0.306245 0.846142 69 97 157
120.919 -553.887 -1660.57 -0.399589 0.288134 0.742895 74 103 162
127.555 -556.185 -1661.64 -0.343074 0.292614 0.868107 72 99 158
125.448 -548.699 -1660.58 -0.299288 0.220516 0.89811 79 108 168
110.462 -542.029 -1661.41 -0.745175 0.628906 0.0787167 68 98 153
116.506 -536.436 -1662.38 -0.752479 0.701278 0.0746757 83 113 170
121.513 -529.774 -1664.89 -0.621443 0.363885 0.266025 85 116 173
126.535 -523.883 -1665.15 -0.444302 0.301725 0.453645 87 117 174
122.923 -146.512 -1660.11 0.0608798 -0.24919 0.949856 190 191 182
92.9036 -122.848 -1663.68 -0.539468 0.158022 0.807976 239 240 206
101.144 -119.704 -1662.39 -0.486044 0.135517 0.853326 244 244 212
93.3582 -114.552 -1661.86 -0.581677 0.160171 0.763239 243 244 206
97.9201 -113.11 -1666.66 -0.559183 0.154604 0.809556 235 236 200
107.953 -111.712 -1660.23 -0.505515 0.0120904 0.852718 246 246 218
95.9762 -109.452 -1662.13 -0.601751 0.130428 0.770214 238 239 202
106.572 -108.435 -1659.69 -0.529017 -0.0148944 0.836319 243 243 212
92.8935 -73.3813 -1662.73 -0.719831 0.267512 0.598952 248 248 203
91.9891 -64.2018 -1665.5 -0.584569 0.107958 0.784915 252 252 209
96.3968 -61.6879 -1661.28 -0.749521 0.138203 0.586366 249 248 203
96.4495 -56.0886 -1660.9 -0.654975 0.0222636 0.7475 252 251 206
93.3038 -47.7509 -1664.7 -0.611984 0.170453 0.757814 250 248 205
98.3142 -46.2783 -1661.21 -0.621077 0.150972 0.765262 253 251 207
113.429 -56.0834 -1665.42 -0.758634 0.264358 0.581451 235 234 199
121.814 -49.848 -1660.9 -0.696097 0.323705 0.630265 227 227 196
123.153 -46.1262 -1665.66 -0.693168 0.266117 0.665359 236 236 205
96.9233 -39.1577 -1664.37 -0.661792 0.274595 0.685753 247 244 201
97.419 -37.5161 -1664.56 -0.673633 0.292851 0.666237 246 243 200
98.0611 -32.2745 -1666.16 -0.714456 0.358009 0.592099 240 234 194
101.198 -25.2936 -1666.03 -0.749083 0.289294 0.585716 244 237 197
103.606 -20.7681 -1664.7 -0.777654 0.251958 0.568653 247 239 199
-73.6922 303.06 -1664.7 0.793686 -0.212787 0.559348 194 203 224
-72.3589 307.785 -1665.19 0.769338 -0.176864 0.599717 196 205 225
-72.59 314.238 -1664.3 0.783471 -0.103254 0.601926 205 215 233
-73.2879 319.125 -1663.16 0.785614 -0.0734126 0.609273 212 223 239
11.4642 222.583 -1660.94 -0.452257 -0.0105355 0.846007 159 162 175
3.78498 226.492 -1665.33 -0.409263 0.1896 0.891979 184 186 201
5.53467 229.248 -1665.76 -0.425147 0.184802 0.882483 183 185 200
15.6567 231.105 -1660.6 -0.499336 0.265995 0.828573 183 186 200
19.7303 238.589 -1660.92 -0.527195 0.35183 0.771255 186 189 201
21.8326 242.713 -1662 -0.523553 0.376073 0.756743 188 192 205
22.2056 250.884 -1665.94 -0.446473 0.314545 0.832416 192 196 210
29.0843 250.997 -1661.71 -0.621181 0.396625 0.641832 189 192 206
30.4989 255.353 -1660.95 -0.693625 0.227691 0.631056 189 192 206
26.9152 258.249 -1664.05 -0.567171 0.134567 0.780363 190 194 209
28.493 267.167 -1663.11 -0.618345 0.125491 0.7613 194 197 212
623.15 40.0834 -1664.48 -0.233093 -0.602645 -0.746861 255 250 239
628.972 39.3089 -1665.4 -0.179917 -0.644076 -0.732017 255 255 243
630.251 36.066 -1662.05 -0.169211 -0.504908 -0.743841 254 246 234
-803.509 46.8231 -1671.82 0.192233 0.471297 -0.746788 173 135 128
-796.971 44.8937 -1662.23 0.0926415 0.538964 -0.788819 132 99 99
-802.434 45.3935 -1671.09 0.1931 0.460208 -0.76479 169 132 126
-793.393 40.022 -1665.02 0.152199 0.434722 -0.866048 159 124 125
-802.091 49.263 -1663 0.0889979 0.571756 -0.739748 126 94 91
-692.637 18.733 -1668.75 0.237648 0.381302 -0.838255 95 77 80
-676.009 20.4385 -1671.85 0.191102 0.569207 -0.719763 107 91 93
-681.381 23.7219 -1664.6 0.257908 0.592546 -0.751528 86 73 79
-678.473 21.4954 -1669.36 0.21639 0.584429 -0.728487 100 84 88
-676.545 25.7192 -1662.09 0.254883 0.577466 -0.756746 88 74 80
-671.016 22.0994 -1670.35 0.178351 0.572973 -0.708546 113 96 97
558.617 86.3841 -1668.62 0.185066 0.379543 -0.785517 203 198 198
562.75 82.4561 -1667.71 0.188484 0.414324 -0.77803 205 199 199
563.115 86.7443 -1672.99 0.207498 0.171975 -0.816943 199 194 194
531.647 89.5798 -1670.16 0.26186 0.0327043 -0.835846 202 198 197
548.152 90.7463 -1670.45 0.207111 0.211518 -0.801585 199 195 195
547.039 88.6159 -1664.25 0.143303 0.425215 -0.767403 196 191 192
553.59 88.1721 -1666.73 0.152029 0.445473 -0.768947 199 193 194
566.618 75.2064 -1665.36 -0.0535738 0.232867 -0.78338 146 142 145
566.636 83.2252 -1673.78 0.0661268 -0.0868251 -0.780705 157 153 155
-137.681 -905.256 -1656.88 0.674087 0.0330081 0.279813 69 99 158
-138.463 -899.764 -1657.49 0.787911 0.0775332 0.258403 68 98 157
-139.112 -896.598 -1658.63 0.813566 0.0886119 0.325988 68 98 157
-143.336 -888.09 -1655.31 0.716646 0.0635768 0.543303 73 105 166
-152.085 -883.892 -1653.63 0.497925 -0.0765064 0.870037 89 124 187
-142.297 -874.159 -1660.7 0.755494 -0.241462 0.393825 75 106 168
-141.171 -869.086 -1656.26 0.807916 -0.201684 0.332595 72 102 164
-139.674 -863.04 -1658.29 0.740244 -0.228058 0.436627 71 101 165
-146.946 -843.452 -1655.05 0.306825 0.102905 0.918489 81 115 182
-148.102 -834.221 -1654.8 0.50596 -0.139159 0.808132 78 113 179
-140.257 -855.515 -1659.82 0.5626 -0.212591 0.746494 80 110 177
-142.343 -850.93 -1657.17 0.489489 0.0195516 0.763147 81 112 179
-144.542 -842.23 -1656.29 0.348356 0.0282746 0.891177 81 114 181
-137.369 -838.419 -1659.48 0.517957 -0.136301 0.737732 75 104 168
-144.256 -830.462 -1655.26 0.474441 -0.158101 0.792286 80 114 180
-137.614 -832.164 -1658.48 0.57453 -0.108728 0.685617 77 108 172
-138.261 -823.236 -1658.38 0.48189 -0.11725 0.785937 79 111 178
5.00289 -1090.1 -1656.54 0.626925 0.301688 0.451899 134 141 158
11.886 -1093.11 -1658.49 0.493156 0.329397 0.520329 141 147 163
4.51022 -1085.98 -1659.78 0.511426 0.230986 0.388009 127 133 149
-9.43322 -1070.56 -1654.11 0.741723 0.291819 0.248477 134 141 161
16.7943 -1095.15 -1658.57 0.0987567 0.500246 0.586196 143 154 173
29.1313 -1091.98 -1658.6 -0.33426 0.714332 0.604947 148 161 182
33.2473 -1094 -1654.01 -0.431683 0.587073 0.531167 154 165 187
-11.2828 -1063.13 -1657.58 0.797164 0.34983 0.409555 138 144 163
-13.4679 -1060.88 -1656.25 0.83941 0.352575 0.351153 129 133 148
44.2482 -1084.03 -1658.8 -0.277121 0.476732 0.576868 149 161 184
50.9985 -1079.42 -1659.24 -0.321217 0.581455 0.418492 151 160 185
60.5919 -1075.2 -1654.66 -0.0199613 0.670782 -0.179836 133 136 162
65.7018 -1070.5 -1659.81 -0.71304 0.00173084 0.279503 145 155 182
-57.1715 -985.101 -1656.67 -0.847488 -0.189779 0.575301 74 96 142
-58.8153 -979.763 -1657.7 -0.793666 -0.141814 0.540989 71 95 144
-57.9132 -973.935 -1658.12 -0.709149 0.0126909 0.593733 71 94 141
-55.9624 -964.464 -1659.03 -0.676659 0.137884 0.735128 72 93 138
-14.2031 -979.519 -1653.23 0.965934 0.0946087 0.0683142 69 92 132
-55.075 -962.908 -1658.6 -0.686976 0.134107 0.731093 72 92 135
-51.8369 -958.657 -1655.4 -0.764215 0.0762875 0.658094 74 87 122
-54.3192 -950.407 -1658.22 -0.757506 -0.0272525 0.579202 72 90 132
-51.7316 -949.006 -1654.03 -0.837407 -0.0605764 0.358259 74 86 118
-14.9877 -959.335 -1656.34 0.819816 0.112327 0.507046 67 95 143
-14.814 -955.3 -1657.13 0.802785 0.0774001 0.580602 67 95 145
-14.792 -938.475 -1653.96 0.320785 -0.112518 -0.647667 73 93 128
-13.2703 -991.958 -1658.24 0.839113 -0.233513 0.389173 72 93 136
66.0902 -1038.22 -1655.18 -0.984995 0.0842757 0.0354722 121 132 154
67.2883 -1033.2 -1657.58 -0.965 0.172175 0.0939871 105 119 148
73.4904 -746.971 -1656.15 -0.665235 0.125081 0.579417 71 100 160
73.519 -737.448 -1659.54 -0.440696 0.0502798 0.864542 74 106 169
75.7388 -730.929 -1657.81 -0.504283 0.0363143 0.830694 74 107 169
-117.341 -706.135 -1659.73 0.161623 -0.35867 0.876884 73 105 168
-67.4543 -718.673 -1659.51 -0.429134 -0.179077 0.867726 66 97 157
-67.391 -702.003 -1655.18 -0.498385 -0.0107685 0.855257 60 89 147
-115.746 -696.755 -1658.81 0.175541 -0.122084 0.968655 68 100 164
-112.032 -699.17 -1659.34 0.144521 -0.160928 0.970645 68 101 164
-110.143 -694.354 -1659.76 0.16065 -0.0197668 0.988945 60 93 155
-71.3087 -696.484 -1658.38 -0.478575 0.0538944 0.866588 66 96 155
-68.9514 -689.845 -1657.5 -0.497456 0.105962 0.856378 61 88 146
-68.5608 -678.77 -1658.9 -0.569522 0.0459741 0.816229 55 80 137
-63.9251 -726.995 -1657.83 -0.575664 -0.0122041 0.815929 63 96 154
-63.5112 -717.087 -1655.38 -0.530819 -0.210502 0.796809 70 102 161
-65.7743 -703.91 -1654.21 -0.518486 -0.0547289 0.838713 61 90 147
-14.309 -515.728 -1655.05 0.65459 0.605355 0.437259 53 81 132
-23.1044 -508.751 -1656 0.368508 0.748814 0.446836 50 75 123
102.706 -620.791 -1655.07 -0.585974 0.306028 0.580887 59 84 140
101.182 -615.393 -1657.18 -0.716037 0.328475 0.395245 64 90 147
104.464 -606.506 -1657.43 -0.689277 0.332877 0.515093 72 98 157
105.94 -604.571 -1656.94 -0.695009 0.330529 0.525888 74 100 159
111.866 -599.262 -1653.33 -0.701948 0.294475 0.510324 76 102 161
111.233 -594.853 -1658.1 -0.672767 0.341165 0.642117 83 110 170
115.06 -580.085 -1657.71 -0.732417 0.192969 0.505198 78 105 166
118.319 -572.56 -1655.73 -0.605105 0.220463 0.635077 71 98 158
100.957 -562.054 -1658.68 -0.490774 0.180825 0.794195 59 86 140
109.666 -563.632 -1654.29 -0.410621 -0.141503 0.896941 61 89 145
111.687 -563.778 -1657.68 -0.367737 0.136511 0.886596 65 93 152
102.543 -554.069 -1658.11 -0.610148 0.33886 0.616815 48 75 127
105.551 -551.701 -1656.21 -0.616721 0.316033 0.610584 47 75 127
109.81 -544.087 -1657.53 -0.709316 0.603676 0.303884 52 82 134
120.12 -564.955 -1658.27 -0.418085 0.202544 0.823009 67 94 153
122.076 -561.833 -1657.49 -0.391989 0.199228 0.814907 70 97 155
-172.068 128.71 -1654.55 0.314551 -0.77026 0.579723 255 254 252
-166.746 128.587 -1656.36 0.352038 -0.695233 0.630227 255 254 252
-164.93 127.848 -1657.68 0.3559 -0.651139 0.668962 254 253 251
-161.477 137.838 -1653.51 0.224408 -0.689279 0.283899 231 230 231
-155.091 133.784 -1658.12 0.440501 -0.681779 0.529394 252 251 249
-150.695 135.203 -1659.2 0.446386 -0.686087 0.484081 251 249 248
-123.18 136.58 -1654.06 -0.221503 -0.713266 -0.608395 238 237 224
-139.616 141.533 -1655.87 0.113853 -0.768896 0.138813 220 219 217
-132.833 141.587 -1657.49 0.0235233 -0.822096 -0.0147645 222 221 216
-130.109 141.009 -1658.36 -0.0101458 -0.826465 -0.100579 222 221 216
279.016 8.3007 -1658.92 0.123538 0.737277 -0.659912 121 104 94
313.203 6.62049 -1658.15 0.211624 0.608184 -0.757766 101 87 77
318.173 6.2055 -1656.63 0.209516 0.543569 -0.806338 110 93 83
322.627 6.9816 -1654.59 0.202123 0.485169 -0.850211 115 97 87
327.738 -1.57227 -1660.5 0.168505 0.534253 -0.807946 95 82 75
336.108 -2.26568 -1658.16 0.078409 0.57595 -0.766226 91 80 74
343.14 -0.38451 -1654.87 -0.0621963 0.603533 -0.747651 91 80 75
350.146 -0.303384 -1657.51 -0.135763 0.623835 -0.73573 95 83 78
356.605 0.522924 -1659.7 -0.0424798 0.696432 -0.684202 96 85 80
357.243 3.91835 -1656.5 -0.0973153 0.699847 -0.683687 100 88 83
364.781 3.38705 -1656.81 0.0753417 0.739154 -0.655108 111 97 89
375.225 -1.04943 -1658.2 0.113494 0.689381 -0.69396 124 106 96
381.033 1.28864 -1653.98 0.0405419 0.686873 -0.687316 123 105 94
388.909 -0.0749928 -1658.82 -0.194316 0.752166 -0.621331 106 91 83
391.351 2.83268 -1656.32 -0.23601 0.76824 -0.606563 102 88 81
405.657 -0.661566 -1658.4 -0.189423 0.737283 -0.62433 106 91 84
401.215 3.68872 -1655.27 -0.225113 0.769762 -0.60981 102 87 80
408.299 -1.07461 -1658.24 -0.149703 0.70884 -0.634172 107 92 85
419.806 -4.16112 -1659.43 0.0223215 0.583643 -0.676154 111 97 90
421.98 -4.2078 -1659.84 0.0222118 0.587185 -0.674842 111 97 90
430.101 -1.31872 -1659.44 0.0173179 0.591988 -0.672172 110 96 89
429.426 9.09268 -1654.17 -0.045327 0.42641 -0.728762 113 99 92
437.474 3.57442 -1659.02 0.00402873 0.551777 -0.687089 109 95 89
450.193 8.55423 -1659.2 0.0136727 0.458705 -0.735976 110 96 89
172.772 120.648 -1658.43 -0.250292 -0.44308 -0.80503 149 150 150
184.977 119.675 -1658.35 -0.264359 -0.428239 -0.822664 141 142 142
194.377 116.367 -1654.65 -0.264557 -0.276603 -0.612703 187 186 179
196.358 115.946 -1654.48 -0.241943 -0.214998 -0.630902 196 194 186
-69.582 221.233 -1653.07 0.70719 -0.280108 0.588609 69 72 85
-69.5325 238.344 -1653.8 0.724072 0.116136 0.655588 152 158 175
-68.9182 248.327 -1658.02 0.755493 0.218893 0.611433 177 183 203
-69.8913 257.631 -1660.23 0.774589 0.207149 0.595769 178 184 204
-71.5762 260.624 -1659.2 0.770642 0.211522 0.598219 179 185 204
-75.3931 264.967 -1656.2 0.754869 0.215718 0.61539 182 188 207
-66.1702 222.862 -1655.19 0.656503 -0.202923 0.674329 83 87 100
-65.2314 231.544 -1656.33 0.668723 0.00331523 0.719556 128 133 149
-65.2951 240.778 -1659.37 0.684743 0.170973 0.691879 169 175 194
-77.256 281.818 -1657.78 0.830006 0.195406 0.472421 187 194 213
-80.5075 291.231 -1653.77 0.959609 0.0575115 0.261088 193 201 220
-79.4051 294.391 -1655.57 0.932867 -0.0226252 0.31401 194 202 221
-78.0226 301.287 -1656.37 0.895328 -0.127144 0.389908 196 205 225
-76.9894 316.397 -1656.33 0.874571 -0.0752536 0.44139 204 215 233
-75.8191 320.835 -1658.77 0.834194 -0.0957383 0.514902 211 221 238
423.298 75.0255 -1657.74 -0.103803 -0.702396 -0.69737 180 177 177
438.814 65.1359 -1655.11 -0.296547 -0.371884 -0.871419 242 240 231
443.435 62.4852 -1655.06 -0.200307 -0.408708 -0.872322 248 246 236
440.975 73.7785 -1659.53 -0.216652 -0.491404 -0.820022 182 179 179
447.147 64.8897 -1656.51 -0.0837479 -0.498227 -0.844393 234 232 225
457.74 67.2246 -1655.93 0.143394 -0.48131 -0.789332 205 202 197
456.532 70.6413 -1658.7 0.0707205 -0.516723 -0.736451 167 164 161
463.419 64.6467 -1653.19 0.112122 -0.220855 -0.892078 245 240 233
471.679 65.5309 -1653.69 0.0301192 0.245994 -0.838112 231 228 224
464.595 72.6303 -1653.71 0.220531 -0.251458 -0.807785 164 159 157
476.037 65.5974 -1653.62 0.00957143 0.486697 -0.771783 232 230 227
483.346 67.1483 -1654.45 -0.114887 0.599357 -0.740657 229 227 225
469.583 77.2552 -1653.36 0.149986 0.013838 -0.78545 179 176 174
469.02 81.567 -1659.25 0.0669147 0.268988 -0.772285 208 206 203
479.258 83.9832 -1659.71 0.0618349 0.242128 -0.767079 206 203 200
484.124 81.9139 -1657.83 0.022781 0.115728 -0.784747 194 191 190
488.146 72.1893 -1657.26 -0.249508 0.201257 -0.798198 193 191 192
488.627 75.9 -1658.58 -0.222086 0.0250636 -0.81597 181 179 180
526.012 13.7995 -1658.23 0.369963 -0.189658 -0.851448 171 145 129
531.257 8.21527 -1659.73 0.445231 -0.193462 -0.841746 170 143 127
528.108 18.3606 -1656.12 0.385399 -0.214656 -0.837532 168 142 128
528.88 24.491 -1656.73 0.38028 -0.252169 -0.825656 163 138 124
538.348 23.0028 -1653.27 0.0356783 -0.323226 -0.863225 165 141 129
529.049 28.0647 -1657.74 0.450272 -0.258509 -0.792995 159 134 121
536.217 32.4104 -1657.13 0.0554484 -0.202044 -0.892499 174 150 140
539.221 10.5321 -1659.12 0.136166 -0.179577 -0.858392 166 142 129
546.099 21.3899 -1658.45 -0.30781 -0.245591 -0.885116 163 142 133
544.362 28.4365 -1659.04 -0.289484 -0.323367 -0.877288 167 145 136
542.656 32.3632 -1659.22 -0.306068 -0.226983 -0.897833 176 154 145
534.801 38.8615 -1657.49 0.157127 -0.0762346 -0.91315 193 170 158
531.721 41.7392 -1657.59 0.353865 -0.0405494 -0.900058 203 178 164
527.849 53.9404 -1659.79 0.332068 -0.0992161 -0.924503 246 232 219
533.033 47.978 -1657.61 0.278731 -0.0215966 -0.927966 236 217 203
532.487 56.3634 -1658.76 0.354068 -0.108383 -0.915285 247 237 228
539.71 34.8904 -1658.47 -0.162636 -0.165208 -0.912323 181 158 149
539.176 49.026 -1657.5 0.0097674 0.0207312 -0.943782 244 229 219
549.804 54.6834 -1659.77 -0.284407 0.26569 -0.910192 255 247 239
543.157 58.1998 -1655.98 0.246516 0.266001 -0.831271 255 249 245
552.303 58.2222 -1658.3 -0.169528 0.421866 -0.83748 228 220 216
-153.659 -890.157 -1650.6 0.440512 -0.0900538 0.807381 85 119 180
-157.263 -889.127 -1649.18 0.488062 -0.0669082 0.782307 83 114 164
-146.749 -885.257 -1651.68 0.564468 0.0111359 0.740961 81 116 178
-139.857 -898.717 -1649.35 0.95441 0.201231 0.241808 64 94 152
-143.532 -892.456 -1647.72 0.810245 0.193257 0.423242 67 97 156
-144.792 -890.32 -1647.15 0.735998 0.164878 0.515769 69 101 161
-156.681 -881.645 -1648.17 0.658193 -0.122846 0.5608 83 115 176
-149.702 -880.854 -1648.97 0.594546 -0.132276 0.738297 85 119 183
-149.336 -880.611 -1652.47 0.572083 -0.121427 0.788289 87 122 187
-160.264 -863.376 -1646.91 0.389092 -0.113738 0.735349 86 119 178
-145.086 -876.189 -1649.25 0.726952 -0.181286 0.565608 81 113 177
-142.274 -867.618 -1652.12 0.888924 -0.135215 0.285595 69 99 161
-142.08 -865.48 -1650.24 0.929098 -0.120855 0.229669 67 95 157
-163.827 -846.729 -1647.82 0.5923 -0.236227 0.709578 84 115 165
-157.431 -857.205 -1648.26 0.280827 -0.032935 0.841151 85 120 182
-152.872 -851.468 -1649.18 0.26025 0.0915439 0.876645 82 116 181
-160.895 -839.311 -1647.32 0.701043 -0.218089 0.667201 83 120 180
-153.424 -845.184 -1653.66 0.314656 0.0966091 0.958025 81 118 184
-147.753 -845.497 -1650.05 0.419167 0.0938418 0.738359 79 112 177
-158.82 -839.005 -1649.21 0.632805 -0.180216 0.736758 82 120 186
-143.078 -855.398 -1651.62 0.820874 0.0484808 0.330445 69 98 162
-144.773 -847.211 -1649.31 0.591461 0.137494 0.512983 76 106 170
-145.015 -837.376 -1648.48 0.713769 -0.0693415 0.538552 74 106 170
-147.625 -830.01 -1648.07 0.654415 -0.127799 0.680811 76 110 176
-146.67 -824.596 -1647.82 0.697692 -0.0450725 0.469022 75 108 173
-154.074 -815.289 -1647.88 0.597956 -0.104309 0.747242 83 120 185
-148.25 -818.575 -1651.69 0.510452 -0.174593 0.8102 81 115 182
-150.737 -810.409 -1647.96 0.488091 -0.250723 0.742976 84 121 186
-145.093 -820.729 -1647.18 0.811299 0.140107 0.0241062 70 101 164
72.0721 -1065.32 -1653.1 -0.692424 0.226037 -0.357479 101 107 129
69.0651 -1057.76 -1652 -0.813586 0.135155 -0.257079 105 110 131
66.252 -1046.86 -1647.73 -0.910658 0.077368 -0.121988 116 122 142
-47.7059 -1039.36 -1651.29 -0.0250595 0.0499465 0.342882 110 113 134
-42.5966 -1038.24 -1652.66 0.3958 -0.0638982 0.262159 101 105 127
-49.48 -1029.2 -1652.38 -0.0752161 0.0990899 0.449049 114 114 133
-49.5209 -1030.15 -1648.89 0.234651 0.0296785 0.32401 109 110 127
-45.5752 -1029.79 -1648.95 0.61263 -0.0760249 0.269628 102 104 123
-37.5559 -1033.78 -1646.23 0.562039 -0.0989262 0.257029 93 100 116
-20.6727 -1039.13 -1651.32 0.954576 -0.00171344 0.179782 97 104 120
-18.2388 -1031.91 -1652.73 0.886499 -0.147217 0.395265 106 123 152
-37.87 -1019.44 -1652.54 0.714656 -0.0424599 0.223991 86 94 113
-17.5394 -1028.54 -1652.89 0.877221 -0.177557 0.426562 103 122 155
-17.0693 -1021.61 -1652.86 0.899643 -0.155323 0.335186 87 108 144
-53.5757 -990.908 -1652.79 -0.832022 -0.160447 0.467064 76 92 132
-44.4182 -997.527 -1649.16 0.417802 -0.0524533 -0.0633176 69 79 106
-53.3822 -993.667 -1652.63 -0.840177 -0.190872 0.481786 76 91 128
-46.7387 -994.695 -1649.79 0.0280011 -0.0796888 -0.0218632 70 81 109
-40.1873 -1008.39 -1651.23 0.88013 -0.0384432 -0.0468074 78 86 108
-17.5205 -1014.04 -1650.86 0.89564 -0.0554112 0.0780843 83 95 119
-16.6946 -1004.33 -1652.36 0.850745 -0.116926 -0.0685425 79 88 108
-16.3178 -1002.73 -1652.01 0.867617 -0.137644 -0.0712617 79 89 110
-54.8005 -796.006 -1652.27 -0.699605 0.0388501 0.717736 69 95 152
-52.703 -798.298 -1650.45 -0.706762 0.0554511 0.677418 68 92 146
-56.0356 -790.057 -1653.06 -0.678725 -0.00501637 0.749244 69 97 154
-49.7742 -788.31 -1648.41 -0.685935 0.0511261 0.724844 64 89 143
-50.3865 -782.711 -1648.84 -0.663581 0.0782088 0.678949 64 89 142
-54.1651 -771.417 -1651.93 -0.547832 0.0634215 0.842002 67 96 154
-51.5475 -773.804 -1649.98 -0.557213 0.0945126 0.832822 66 93 150
-44.8172 -766.89 -1646.92 -0.462046 0.147972 0.808627 64 88 141
-51.9129 -764.641 -1651.29 -0.51191 0.109261 0.861206 67 96 153
-49.2138 -753.459 -1650.34 -0.587795 -0.0341231 0.813177 63 93 152
-43.7755 -759.305 -1646.51 -0.574272 0.0595412 0.78879 64 87 140
-16.8163 -771.477 -1646.13 -0.277945 -0.130001 0.412524 64 80 115
90.0927 -632.057 -1648.48 -0.714102 0.415335 0.494594 46 69 116
95.119 -703.058 -1647.64 -0.238396 0.216828 0.904868 67 97 158
92.5553 -695.824 -1652.98 -0.223815 0.116012 0.955381 66 95 156
97.2092 -690.594 -1649.61 -0.424574 -0.0543523 0.851618 69 97 157
95.5151 -685.409 -1649.19 -0.493877 -0.149243 0.775766 68 97 157
92.0332 -676.636 -1650 -0.47892 -0.275817 0.712852 61 92 154
91.2301 -666.234 -1649.63 -0.429392 -0.047588 0.775888 61 91 152
91.8822 -656.359 -1650.46 -0.378312 0.0758228 0.853269 61 88 148
93.5356 -649.647 -1649.62 -0.442531 0.221538 0.8101 62 88 147
-17.1423 -514.87 -1652.2 0.602734 0.631193 0.453634 51 78 128
-23.7617 -509.969 -1652.62 0.371379 0.730236 0.460113 49 74 122
100.686 -618.193 -1648.17 -0.722858 0.523337 0.30826 47 72 124
103.978 -611.374 -1649.8 -0.693783 0.370759 0.314861 56 82 136
115.283 -616.765 -1646.82 -0.423355 -0.0606846 0.874851 66 92 151
106.383 -608.397 -1653.02 -0.657488 0.333742 0.416663 66 91 148
117.121 -621.406 -1648.3 -0.223195 -0.0021451 0.894697 70 93 152
120.861 -614.286 -1646.4 -0.207529 -0.106742 0.771935 66 90 149
116.561 -587.177 -1648.46 -0.838026 0.21604 0.238276 69 95 153
117.227 -579.056 -1652.85 -0.849944 0.22138 0.313111 81 108 169
120.173 -573.782 -1651.01 -0.678562 0.190141 0.545374 73 100 159
109.109 -557.244 -1653.14 -0.459756 -0.0344798 0.868533 57 85 139
110.33 -550.914 -1652.27 -0.524945 0.179162 0.788111 51 80 132
116.408 -546.904 -1649.29 -0.350141 0.308958 0.786045 66 93 147
121.644 -567.241 -1650.3 -0.492395 0.0206108 0.806934 73 99 157
122.182 -558.278 -1647.48 -0.320376 0.0311013 0.902955 77 103 160
-182.133 133.298 -1649.97 0.293117 -0.789044 0.602597 255 255 254
-175.33 132.449 -1651.6 0.313944 -0.803828 0.556464 255 255 254
-181.189 135.631 -1649.02 0.288069 -0.788809 0.548661 255 254 253
-172.732 141.109 -1647.13 0.0893001 -0.672975 0.166333 225 224 223
-170.757 136.983 -1650.39 0.251553 -0.74313 0.416136 245 243 242
-127.454 132.494 -1648.11 -0.272563 -0.684411 -0.690248 245 244 224
-124.757 131.234 -1647.91 -0.252606 -0.69733 -0.681372 246 245 225
-127.296 137.75 -1652.34 -0.2081 -0.709037 -0.573529 243 243 228
-159.941 141.679 -1649.6 -0.0887031 -0.607316 -0.179042 203 203 205
-156.386 142.044 -1651.86 -0.0713839 -0.600953 -0.185757 207 206 208
-141.456 141.916 -1648.37 -0.204096 -0.658097 -0.302093 224 223 217
-136.656 141.184 -1650.79 -0.107385 -0.715775 -0.204536 222 221 212
120.483 -78.8864 -1647.31 -0.646997 0.124657 0.705728 240 240 204
124.021 -77.867 -1650.31 -0.53195 0.148468 0.827838 241 242 214
123.574 -73.6771 -1648.72 -0.598761 0.161046 0.758103 238 239 208
129.271 -75.8318 -1648.34 -0.515191 0.111333 0.842745 242 244 219
100.81 -65.3599 -1649.61 -0.85561 0.36674 0.33638 237 233 184
106.573 -57.3092 -1646.74 -0.804079 0.332427 0.481776 234 228 179
106.539 -51.631 -1650.74 -0.762403 0.284451 0.570421 238 232 183
110.408 -46.9709 -1648.25 -0.743342 0.310326 0.58742 235 229 179
109.789 -38.0713 -1651.64 -0.716571 0.158521 0.678827 242 237 187
111.882 -37.5816 -1649.06 -0.74383 0.157322 0.638079 239 233 183
114.478 -26.8403 -1648.12 -0.763249 0.19852 0.604425 236 231 181
111.125 -23.4871 -1653.07 -0.769494 0.216821 0.598947 241 237 189
114.248 -13.1357 -1653.48 -0.771925 0.28624 0.557705 240 235 189
118.608 -7.64433 -1651.06 -0.771339 0.336667 0.529835 231 221 176
132.027 -6.43946 -1646.85 -0.767443 0.306552 0.53221 227 211 168
141.536 -8.7076 -1647.55 -0.649567 0.218145 0.216259 217 201 164
126.321 -0.675525 -1651.35 -0.767914 0.296334 0.558034 193 158 125
187.82 -9.41631 -1649.36 -0.626667 0.215126 0.214039 226 222 186
195.594 -5.79291 -1649.69 -0.675841 0.180038 0.219927 227 222 184
199.365 -0.718376 -1649.82 -0.614302 0.274325 -0.38325 192 185 145
203.868 3.13869 -1652.14 -0.553823 0.33872 -0.824674 157 146 107
175.169 120.147 -1649.58 -0.247612 -0.425472 -0.878686 141 142 144
176.974 119.829 -1650.56 -0.260432 -0.424144 -0.87637 140 141 141
185.449 115.091 -1647.7 -0.284377 -0.297352 -0.604254 194 194 187
197.161 115.087 -1652.03 -0.227582 -0.147801 -0.572109 213 210 200
-114.826 236.173 -1648.56 0.661194 0.420563 -0.356001 52 55 61
-109.697 235.591 -1648 0.766782 0.344826 -0.307984 41 41 45
-109.114 238.395 -1648.01 0.71689 0.334178 -0.307819 57 58 64
-68.4029 224.358 -1652.6 0.688949 -0.144392 0.672264 84 88 101
-71.3557 226.295 -1650.39 0.694648 -0.137942 0.676388 85 89 103
-71.6513 232.4 -1649.19 0.632032 -0.0838634 0.772949 101 107 122
-71.3924 239.379 -1651.84 0.750946 0.1245 0.628282 159 165 182
-73.7982 247.402 -1650.75 0.813575 0.163599 0.560874 180 186 205
-76.0268 255.14 -1650.66 0.795536 0.181675 0.571704 179 185 204
-81.6711 268.454 -1648.78 0.787132 0.117598 0.592707 188 195 214
-78.9169 269.214 -1652.53 0.773208 0.142568 0.610287 185 193 212
-80.343 282.185 -1651.45 0.905456 0.105626 0.379395 191 199 218
-79.7131 280.002 -1652.22 0.873805 0.1022 0.440847 190 198 217
-82.181 291.684 -1648.03 0.939009 -0.00108859 0.31712 194 202 220
-81.0294 297.574 -1649.27 0.937953 -0.0763538 0.314055 196 204 222
-79.6575 306.438 -1648.46 0.890795 -0.0952152 0.387409 200 209 228
-78.3929 311.027 -1651.64 0.906439 -0.0891833 0.367078 199 209 227
422.963 26.7836 -1650.66 -0.200529 0.201697 -0.947093 220 191 167
423.463 32.6524 -1648.81 -0.169288 0.23078 -0.950492 235 208 185
427.825 27.7866 -1651.71 -0.214043 0.263408 -0.937177 222 193 167
438.84 33.0439 -1653.21 -0.244709 0.293035 -0.926068 227 198 175
421.969 36.8815 -1647.21 -0.119385 0.201782 -0.960604 247 224 203
429.667 40.6194 -1648.65 -0.191017 0.161147 -0.953545 247 226 206
419.85 46.5337 -1647.04 -0.0946695 -0.0180433 -0.993981 253 243 226
415.139 51.3161 -1646.89 -0.0683794 -0.0209236 -0.997742 254 248 231
420.288 51.7801 -1647.23 -0.105391 -0.00876299 -0.998351 254 247 230
429.521 54.1104 -1649.08 -0.185999 -0.0789422 -0.975807 255 248 233
425.31 59.9034 -1648.32 -0.157411 -0.148475 -0.947847 255 251 236
433.379 37.504 -1650.37 -0.225163 0.22981 -0.937475 239 214 193
440.921 35.3745 -1653.1 -0.248765 0.274492 -0.929371 234 205 184
434.975 47.9295 -1649.48 -0.203173 0.0202205 -0.969498 253 239 224
445.298 39.0872 -1652.79 -0.225661 0.258626 -0.939993 244 219 201
457.107 44.5925 -1653.1 -0.189732 0.202205 -0.954146 249 224 204
439.622 48.8769 -1650.22 -0.186877 0.0214225 -0.965976 253 240 225
433.098 55.6259 -1650.37 -0.230776 -0.14028 -0.957776 255 249 235
440.925 55.4748 -1651.46 -0.144143 -0.203528 -0.944128 255 249 238
454.445 48.0877 -1651.94 -0.152174 0.141295 -0.950949 252 232 215
449.562 57.9308 -1652.61 -0.00320837 -0.330998 -0.890497 255 251 241
458.662 57.6915 -1652.71 -0.0140086 -0.255855 -0.869595 250 242 232
407.919 66.0937 -1649.27 0.0304493 -0.306265 -0.932919 255 255 240
413.811 63.0833 -1647.13 0.0836375 -0.345521 -0.91594 255 253 237
419.313 69.5546 -1651.96 -0.0633793 -0.561515 -0.800588 251 250 241
421.891 63.5376 -1648.15 -0.0827155 -0.305239 -0.898814 255 253 239
432.587 60.0411 -1651.07 -0.276828 -0.188183 -0.933847 254 250 237
-216.606 12.0773 -1661.92 0.513603 -0.0218638 0.0216555 241 239 212
-209.393 9.65255 -1653.91 0.471059 0.0680676 -0.373706 215 213 185
-205.241 16.9224 -1657.36 0.366285 -0.010515 -0.266116 229 227 201
-209.104 15.8367 -1659.49 0.400832 -0.0316685 -0.145833 236 234 208
-202.116 16.5597 -1654.56 0.371914 0.0471043 -0.359308 218 214 188
-200.454 23.7807 -1658.99 0.307248 -0.0295409 -0.20054 232 228 204
-196.327 15.6113 -1648.51 0.450039 0.260935 -0.351045 185 175 146
-192.106 25.4849 -1653.27 0.364143 0.097419 -0.182318 212 205 179
-197.653 28.6354 -1660.56 0.252457 -0.107809 -0.206801 244 241 218
-194.312 32.2923 -1660.86 0.246778 -0.117283 -0.213163 245 243 220
-186.841 27.403 -1649.27 0.379126 0.0947208 -0.106231 213 205 180
-185.295 37.1085 -1659.34 0.28932 -0.100432 -0.0953669 246 245 224
-179.289 37.9062 -1658.44 0.379463 -0.0866287 0.180871 249 249 234
-227.368 139.883 -1657.08 0.0641063 -0.337735 -0.693524 217 216 212
-250.845 140.034 -1653.82 0.0610348 -0.330823 -0.783986 208 207 204
-246.969 140.721 -1648.22 0.0379532 -0.410207 -0.806726 202 201 200
-248.489 140.374 -1651.04 0.0482973 -0.376812 -0.795199 205 204 201
-235.435 140.55 -1654.14 0.0418144 -0.312038 -0.832101 211 210 207
-236.431 141.392 -1646.81 0.0174517 -0.380662 -0.86581 206 205 204
-215.628 135.963 -1659 0.163916 -0.550127 0.0438275 238 236 232
-219.936 140.588 -1653.62 0.0617303 -0.422112 -0.519383 227 226 222
-222.496 141.452 -1651.22 0.0219037 -0.379181 -0.729575 222 221 217
-208.898 141.977 -1647.01 0.0231686 -0.538645 -0.41254 234 232 229
-144.598 -891.997 -1643.44 0.84132 0.244608 0.368148 64 93 153
-147.447 -882.437 -1646.85 0.609665 -0.0896046 0.697055 81 115 178
-146.472 -878.326 -1644.07 0.718126 -0.216098 0.551406 80 112 176
-158.27 -862.474 -1646.07 0.482202 -0.0991836 0.63025 83 114 174
-144.069 -871.076 -1642.69 0.892874 -0.27996 0.25469 74 103 165
-143.052 -864.709 -1642.44 0.959872 -0.148798 0.171879 67 95 157
-162.4 -855.623 -1642.32 0.632571 -0.158858 0.557667 81 108 156
-157.962 -854.672 -1642.21 0.642187 -0.116055 0.471478 80 107 158
-153.932 -850.935 -1643.4 0.568851 -0.0270932 0.520765 79 108 164
-165.924 -840.132 -1641.8 0.860915 -0.274485 0.456926 83 111 154
-160.385 -833.195 -1644.53 0.765197 -0.230661 0.598933 81 120 183
-154.076 -845.494 -1641.75 0.736788 -0.0794537 0.395162 77 105 160
-153.38 -839.093 -1641.59 0.810705 -0.0759623 0.426614 75 104 163
-149.78 -833.801 -1646.33 0.678331 -0.0965033 0.664821 75 108 173
-144.425 -849.56 -1643.11 0.851203 0.0347827 0.194695 71 98 159
-144.645 -844.729 -1642.08 0.869955 -0.0358004 0.210067 72 98 159
-144.834 -837.841 -1644.09 0.856777 -0.039151 0.380563 70 98 162
-160.49 -820.653 -1640.05 0.760084 -0.0421625 0.639853 87 125 186
-155.873 -825.616 -1646.94 0.705549 -0.135195 0.690372 81 121 185
-151.984 -825.631 -1642.84 0.756077 -0.0850914 0.60021 72 106 170
-147.017 -820.484 -1646.51 0.743124 0.0706393 0.265158 72 106 169
-159.492 -816.989 -1644.19 0.679403 -0.0315142 0.720046 85 123 185
-161.618 -810.676 -1642.51 0.639497 -0.0755503 0.749482 86 123 184
-147.137 -818.538 -1643.55 0.790305 0.0679788 0.314618 68 101 164
-145.041 -828.531 -1641.84 0.895788 -0.0373575 0.341861 67 95 158
-144.862 -821.941 -1645.77 0.838781 0.0759869 0.123052 68 99 161
-48.9149 -1038.16 -1643.39 0.522379 -0.0804085 0.101701 101 103 118
-42.5444 -1039.68 -1640.38 0.775906 -0.0890229 0.246175 95 97 108
-50.4432 -1030.74 -1642.89 0.388921 0.012784 0.0736886 105 106 122
-44.1249 -1033.53 -1641.85 0.833217 -0.153177 0.247476 95 97 113
-45.8673 -1027.44 -1643 0.712019 -0.0715514 0.312417 101 103 121
-38.9027 -1035.92 -1640.93 0.657632 -0.0897554 0.221506 93 97 109
-21.4795 -1037 -1644.93 0.968973 -0.0262352 0.152676 96 109 132
-21.4902 -1033.32 -1642.3 0.976859 -0.090966 0.148405 91 104 126
-37.2846 -1023.71 -1644.82 0.459441 -0.0966826 0.184407 89 97 114
-38.6312 -1017.54 -1640.57 0.555863 -0.087112 0.115529 88 96 114
-17.865 -1017.76 -1645.71 0.971873 -0.110023 0.126531 88 103 131
-42.8883 -998.85 -1641.05 0.33006 -0.0561383 -0.229332 71 80 104
-45.8972 -995.751 -1640.74 0.174486 -0.0192916 -0.232074 68 77 104
-39.0315 -1004.13 -1644.69 0.689766 -0.108281 -0.126303 75 84 106
-17.6764 -1015.9 -1646.69 0.974951 -0.100322 0.120091 87 102 130
-40.3778 -1000.92 -1641.77 0.46036 -0.0896535 -0.236305 73 82 104
-50.9967 -986.41 -1640.17 -0.331137 -0.259348 -0.59437 63 79 116
-47.7482 -983.103 -1645.17 -0.321087 -0.210709 -0.468294 67 80 113
-52.9578 -972.769 -1643.42 -0.455003 -0.145346 -0.525034 68 83 120
-57.1129 -968.937 -1641.01 -0.548861 -0.0558063 -0.715661 67 84 126
-51.3411 -972.33 -1646.16 -0.455869 -0.0568023 -0.246956 70 83 118
79.7256 -740.662 -1643.84 -0.803138 0.218565 0.365395 58 85 140
83.3281 -729.16 -1644.35 -0.858304 0.23663 0.310537 59 85 140
-51.3049 -725.817 -1644.26 -0.646754 -0.196006 0.729804 62 93 150
-52.5822 -715.585 -1644.35 -0.700995 -0.0728322 0.708003 65 95 153
-52.1005 -713.89 -1643.97 -0.697044 -0.0533656 0.713609 64 93 151
-53.6977 -704.987 -1645.84 -0.639378 -0.00247911 0.759852 62 90 146
-14.4967 -715.681 -1642.48 0.785739 0.0221799 0.619777 55 91 152
-14.9963 -706.412 -1643.99 0.792269 0.0689597 0.614609 61 96 160
-50.4074 -696.38 -1643.22 -0.656092 0.00980752 0.725348 51 75 126
-47.7152 -691.343 -1640.64 -0.701245 0.0325863 0.708084 52 75 126
-50.9467 -687.87 -1644.8 -0.601236 0.0682972 0.785501 52 77 131
-52.8672 -676.31 -1646.08 -0.627386 -0.0291777 0.758984 51 76 129
-17.1571 -699.049 -1640.08 0.80824 -0.0342725 0.601264 61 94 158
-55.9095 -664.946 -1645.73 -0.722271 -0.176602 0.655661 47 72 124
-51.7604 -670.613 -1641.93 -0.765519 -0.176936 0.603362 46 70 120
-54.3087 -657.767 -1641.11 -0.782005 -0.118422 0.60223 47 71 122
-56.5407 -649.831 -1644.94 -0.745767 0.012101 0.660578 49 72 125
-14.0171 -667.47 -1642.18 0.677104 0.0666338 0.707163 51 81 141
-186.038 -378.271 -1644.12 0.874157 -0.23867 0.355447 86 123 189
-185.448 -366.701 -1643.66 0.893252 -0.062944 0.42661 85 120 185
-184.005 -360.558 -1646.2 0.89747 -0.0803562 0.405968 93 128 190
-183.322 -354.807 -1645.04 0.880761 -0.210575 0.370147 99 134 195
-183.783 -352.305 -1642.53 0.876015 -0.271532 0.361614 102 138 197
-178.419 -339.687 -1645.42 0.841151 -0.283202 0.407366 92 131 193
-175.469 -329.254 -1646.37 0.892133 -0.0781693 0.357607 87 123 185
-175.655 -325.72 -1644.9 0.86452 -0.0984264 0.366034 89 125 185
-174.986 -318.051 -1644.08 0.855224 -0.190059 0.36405 91 120 175
-174.65 -312.854 -1643.45 0.864612 -0.183535 0.353307 91 114 163
-172.208 -282.155 -1640.96 0.845289 -0.0477586 0.475378 121 146 194
-171.619 -299.085 -1643.72 0.749032 -0.188873 0.5013 108 130 173
-745.065 42.8439 -1643.09 0.0582778 0.853685 -0.509751 174 132 118
-733.005 43.7011 -1641.92 -0.0910268 0.899335 -0.424918 157 113 98
-727.341 45.3189 -1640.67 -0.115226 0.927674 -0.367694 149 105 90
-722.787 46.2722 -1640.36 -0.110687 0.947982 -0.329879 143 99 83
-711.154 46.7272 -1641.01 0.0151392 0.932202 -0.34496 140 100 85
-703.293 45.7397 -1641.2 0.123064 0.853726 -0.452876 134 100 88
-686.742 41.289 -1641.31 0.216809 0.821878 -0.523335 108 87 84
-693.707 43.5754 -1641.38 0.19492 0.834312 -0.496136 122 95 87
-684.353 38.9009 -1643.39 0.22888 0.771445 -0.576058 102 83 83
-673.951 36.684 -1643.36 0.148612 0.75168 -0.583324 96 80 83
-665.743 35.8932 -1646.25 -0.0861334 0.863087 -0.423963 86 73 80
-658.888 39.6845 -1641.78 -0.156221 0.923543 -0.366614 84 70 79
-649.581 38.5435 -1646.25 -0.145016 0.866456 -0.403648 93 78 84
-643.34 40.9624 -1641.59 -0.131708 0.818871 -0.483109 101 86 87
-634.33 39.0772 -1644.06 -0.109808 0.665221 -0.593511 112 100 100
-628.148 37.1396 -1645.36 -0.118296 0.584435 -0.681577 125 111 105
-624.211 38.7437 -1642.68 -0.0930391 0.509264 -0.755706 134 116 106
110.022 -327.981 -1643.05 -0.739983 -0.164254 0.637232 77 100 154
110.5 -326.482 -1642.37 -0.730558 -0.175378 0.651278 77 100 153
104.11 -314.667 -1643.87 -0.790853 -0.309634 0.445967 85 107 164
104.741 -319.157 -1645.73 -0.720482 -0.270891 0.461313 85 108 164
99.9801 -306.238 -1644.16 -0.783941 -0.429585 0.401043 82 106 165
95.5604 -297.113 -1644.84 -0.714335 -0.363922 0.544348 93 119 176
94.7464 -295.285 -1644.9 -0.716685 -0.336372 0.557797 96 122 179
93.0544 -284.647 -1643.7 -0.762661 -0.173598 0.601097 91 118 174
