ply
format ascii 1.0
comment Created by Open3D
element vertex 746
property double x
property double y
property double z
property double nx
property double ny
property double nz
property uchar red
property uchar green
property uchar blue
end_header
965.521 110.085 -1483.57 0.114387 0.490975 0.786349 220 188 181
962.315 113.231 -1490.44 0.162594 0.367096 0.854741 238 200 194
990.551 112.942 -1491.45 0.174661 0.365427 0.855434 238 200 194
996.489 113.353 -1492.87 0.170657 0.370029 0.853246 238 200 194
1283.14 -748.867 -1470.34 -0.902685 -0.15634 0.339704 53 63 93
1281.56 -741.874 -1474.11 -0.929617 -0.105263 0.307299 46 55 85
1282.86 -739.156 -1471.88 -0.900195 -0.0689338 0.374693 48 58 87
1283.5 -735.834 -1471.35 -0.881064 -0.0850425 0.397753 47 57 86
1280.04 -727.487 -1472.54 -0.905267 -0.193825 0.351865 47 56 87
1277.96 -721.331 -1471.55 -0.913559 -0.237901 0.291913 54 63 94
1275.21 -716.191 -1476.08 -0.903383 -0.248625 0.316279 55 64 95
1275.53 -714.72 -1473.49 -0.90963 -0.246974 0.308222 58 67 98
1273.76 -706.851 -1473.62 -0.908425 -0.241407 0.346357 48 57 88
1272.36 -703.866 -1475.33 -0.911916 -0.235605 0.334652 47 56 87
1342.11 -792.204 -1469.9 0.624365 -0.452044 0.640523 87 103 151
1346.74 -791.181 -1473.83 0.632742 -0.464284 0.629321 83 99 147
1346.3 -789.246 -1471.56 0.619464 -0.457604 0.641146 84 100 147
1349.81 -785.584 -1471.71 0.592568 -0.463976 0.657948 80 95 142
1351.9 -781.897 -1470.72 0.569229 -0.458006 0.686715 74 90 136
1356.04 -778.621 -1471.81 0.563448 -0.457188 0.69076 66 81 126
1360.08 -774.861 -1473.01 0.611126 -0.368517 0.690789 59 75 120
1564.58 -481.594 -1475.29 0.867085 0.0312674 0.454762 62 76 119
1563.84 -468.035 -1475.13 0.852274 0.0585232 0.512563 62 76 120
1559.5 -454.208 -1470.19 0.681061 0.0280908 0.602192 62 77 129
1560.47 -449.951 -1471.77 0.721407 -0.0460333 0.58356 62 76 127
1560.98 -439.842 -1472.77 0.724546 0.0792337 0.663454 66 79 123
1562.71 -440.984 -1474.58 0.747179 0.00619447 0.617449 64 77 124
1558.1 -438.039 -1469.89 0.645835 0.153938 0.73032 68 80 125
1554.44 -428.983 -1469.38 0.316527 0.351337 0.813335 67 82 139
1560.2 -431.842 -1473.39 0.612313 0.2038 0.702245 67 81 129
1554.67 -422.947 -1471.76 0.451678 0.231148 0.736124 70 84 140
1559.2 -426.334 -1475.06 0.578457 0.323632 0.648646 66 81 135
1553.34 -415.894 -1471.84 0.72854 0.0343327 0.621111 74 85 132
1553.54 -409.773 -1473.03 0.725767 0.0110007 0.627981 69 81 131
1555.83 -414.314 -1475.61 0.811643 0.0868984 0.550461 74 86 132
1244.5 -402.783 -1471.08 -0.897059 0.259748 0.32659 75 87 123
1244.12 -399.848 -1472.96 -0.890618 0.195002 0.376833 79 90 127
1245.78 -394.26 -1469.66 -0.905926 0.0644574 0.369483 76 88 124
1243.51 -388.777 -1473.66 -0.921335 0.028171 0.334632 71 81 119
1244.61 -386.633 -1470.65 -0.924058 -0.00586464 0.332148 72 83 119
1243.38 -380.556 -1475.2 -0.954615 0.0988686 0.184725 59 69 108
1245.14 -375.354 -1473.34 -0.940389 0.189378 0.213825 68 78 114
1253.68 -597.594 -1466.36 -0.94725 -0.19187 0.233605 57 64 97
1253.64 -596.558 -1466.28 -0.945578 -0.177285 0.24096 57 65 97
1253.65 -588.573 -1467.49 -0.91651 -0.0437035 0.354467 49 57 89
1255.21 -586.633 -1464.42 -0.902117 0.00182627 0.398508 48 56 89
1252.57 -582.102 -1468.49 -0.876518 -0.0976302 0.44871 48 56 89
1248.1 -559.124 -1467.93 -0.950943 -0.0434031 0.28408 48 56 88
1250.96 -573.579 -1467.05 -0.851465 -0.247267 0.452215 46 55 87
1249.68 -571.413 -1468.49 -0.843734 -0.236875 0.474643 45 54 86
1249.5 -566.823 -1466.22 -0.872104 -0.2 0.409616 43 52 83
1248.19 -555.19 -1466.32 -0.953511 -0.0807334 0.276396 49 58 89
1246.27 -549.833 -1468.64 -0.919629 -0.173655 0.332153 48 56 88
1245.21 -546.542 -1469.31 -0.89795 -0.22843 0.367734 48 57 88
1246.28 -541.252 -1464.84 -0.883793 -0.19229 0.421976 45 53 83
1245.28 -535.834 -1464.94 -0.877936 -0.137189 0.454089 48 56 86
1248.62 -553.494 -1464.59 -0.947917 -0.095982 0.291072 51 59 90
1245.34 -528.966 -1463.7 -0.888281 -0.0518918 0.438973 48 56 86
1243.72 -522.041 -1467.39 -0.863084 0.0134798 0.492009 45 53 84
1242.52 -515.82 -1469.77 -0.822417 -0.0783744 0.542035 49 57 90
1242.77 -512 -1467.99 -0.850691 -0.160409 0.467713 51 59 91
1242.98 -507.733 -1464.43 -0.878454 -0.194237 0.417518 51 58 89
1386.64 -601.409 -1467.55 0.80774 -0.149784 0.55939 38 55 104
1389.65 -593.808 -1469.33 0.794683 -0.153202 0.576849 35 52 102
1386.32 -586.323 -1464.41 0.797435 -0.00591802 0.591078 36 52 101
1387.64 -588.659 -1466.02 0.802902 -0.049756 0.58018 35 52 101
1385.7 -584.715 -1463.68 0.800706 0.00909386 0.587346 36 52 102
1516.14 -756.33 -1468.2 0.269184 -0.232053 0.849787 92 110 158
1520.06 -749.668 -1468.2 0.441228 -0.157849 0.85656 93 111 160
1521.53 -750.168 -1469.23 0.533703 -0.184579 0.808398 91 109 158
1515.55 -746.457 -1466.49 0.131751 -0.0180792 0.924887 96 113 162
1520.93 -745.338 -1468.48 0.465767 -0.0630009 0.866887 93 111 160
1516.01 -741.433 -1467.65 0.125114 0.13684 0.871063 94 111 159
1454.38 -671.827 -1469.55 -0.0892807 -0.101393 0.936265 60 75 110
1549.64 -529.569 -1465.09 0.702383 -0.138254 0.696062 66 80 131
1553.09 -526.547 -1468.18 0.716278 -0.0699356 0.687021 62 76 131
1553.5 -521.207 -1468.08 0.728353 -0.0348687 0.677265 59 74 131
1553.05 -513.322 -1466.64 0.753208 -0.0685158 0.644955 54 70 132
1552.56 -515.48 -1466.32 0.755014 -0.0645287 0.644799 56 71 132
1555.09 -509.374 -1468.95 0.722309 -0.0470704 0.678411 55 70 130
1434.14 -503.406 -1470.12 -0.694452 0.136315 0.704251 60 70 109
1438.94 -503.25 -1465.82 -0.629813 0.131328 0.756539 64 74 115
1440.99 -499.388 -1465.2 -0.614608 0.148019 0.771246 71 82 123
1441.16 -491.257 -1466.02 -0.630008 0.017314 0.76051 59 68 108
1436.84 -492.6 -1469.79 -0.61449 -0.0109806 0.771898 50 59 97
1433.86 -485.465 -1469.61 -0.523447 -0.263075 0.789283 49 58 95
1438.67 -487.131 -1467.51 -0.560911 -0.157453 0.786007 54 63 101
1420.41 -476.81 -1469.35 -0.275417 -0.680814 0.656864 36 47 82
1426.5 -477.627 -1466.71 -0.368078 -0.59822 0.684991 47 57 93
1423.86 -474.895 -1465.01 -0.295037 -0.698975 0.648724 44 54 90
1424.41 -474.345 -1464.04 -0.292008 -0.700071 0.649157 46 55 91
1432.08 -478.847 -1465.74 -0.38989 -0.494765 0.738477 49 58 95
961.35 29.4488 -1469.9 -0.0148881 -0.459301 0.879746 179 152 144
957.064 31.7465 -1468.12 -0.00693737 -0.483149 0.870283 169 143 134
965.368 28.1959 -1470.41 -0.0142574 -0.447965 0.88497 186 157 150
967.886 34.3217 -1465.32 -0.029557 -0.503011 0.862058 164 142 133
970.818 33.0013 -1465.65 -0.0263087 -0.469372 0.878892 168 145 136
980.39 30.119 -1465.97 0.00286883 -0.360697 0.916199 179 153 146
969.751 35.242 -1464.29 -0.032876 -0.491174 0.868284 163 141 133
985.39 28.618 -1466.29 0.039673 -0.285253 0.93775 181 154 148
989.628 31.0194 -1464.47 0.0699861 -0.26639 0.956108 168 142 136
996.67 30.012 -1465.64 0.0921646 -0.233156 0.960548 173 146 140
1004.08 30.4605 -1466.49 0.0888724 -0.283446 0.942792 171 143 137
1003.81 34.3997 -1464.45 0.0810297 -0.330905 0.939961 163 137 131
1006.76 32.7216 -1465.56 0.0789266 -0.347324 0.931768 161 134 127
1013.38 30.0672 -1467.28 0.0745773 -0.310807 0.932896 169 141 134
1007.63 34.8521 -1464.52 0.0735204 -0.365805 0.928802 162 135 129
1011.72 35.8253 -1464.38 0.0792507 -0.393427 0.918003 163 136 130
1018.08 31.1792 -1467.18 0.0771964 -0.279555 0.940394 174 145 138
1027.32 29.4717 -1468.53 0.156081 -0.319275 0.848999 180 149 149
1022.45 34.9603 -1465.94 0.0888401 -0.269666 0.937052 172 142 139
1027.07 33.9711 -1466.1 0.0962995 -0.319271 0.899958 163 133 133
1022.62 42.5801 -1464.36 0.118046 -0.181948 0.969174 189 156 157
1028.81 43.375 -1464.05 0.036063 -0.104116 0.987409 189 153 158
1023 68.286 -1464.29 0.212849 0.249957 0.922054 236 201 192
1018.51 74.5941 -1464.84 0.33624 0.233494 0.905502 231 195 186
1021.7 70.702 -1464.79 0.275733 0.245043 0.91321 234 199 190
1025.27 71.6649 -1466 0.204495 0.332645 0.893518 236 201 192
1358.36 238.518 -1467.26 -0.980235 -0.0285218 -0.0747091 154 117 109
1358.48 241.408 -1469.02 -0.956827 -0.115696 -0.103996 148 112 104
1355.44 248.951 -1465.55 -0.879261 -0.40047 -0.10197 119 90 81
1350.35 257.321 -1467.76 -0.837446 -0.510591 -0.0461509 74 56 49
1352.54 254.253 -1467.44 -0.839621 -0.516839 -0.0369099 92 69 61
1348.43 261.795 -1468.56 -0.84388 -0.457642 -0.0195599 51 38 37
1348 265.169 -1463.47 -0.84525 -0.375212 0.234247 32 26 26
1344.1 270.376 -1466.68 -0.78123 -0.442976 0.25621 16 13 19
1338.7 281.858 -1468.63 -0.742552 -0.192436 0.48229 14 12 20
1340.97 281.985 -1464.69 -0.752598 -0.16251 0.363688 15 13 21
1340.67 285.784 -1464.57 -0.702965 -0.0993061 0.230751 13 12 20
1341.48 291.565 -1465.57 -0.672641 0.0640082 0.248798 13 12 20
1341.85 295.503 -1467.02 -0.642066 0.0953999 0.420637 13 12 20
1343.21 298.679 -1467.23 -0.639356 0.170519 0.455124 14 13 21
1344.06 307.562 -1467.22 -0.688804 -0.0822424 0.587259 14 13 21
1342.54 311.819 -1465.94 -0.766963 -0.28319 0.430979 13 12 19
1337.43 315.264 -1470.4 -0.827351 -0.0628881 0.243328 13 12 19
1342.74 314.76 -1463.93 -0.718198 -0.480375 0.500141 13 12 19
1346.13 304.246 -1464.97 -0.726096 0.0460279 0.437375 14 13 21
1337.28 322.756 -1469.39 -0.772578 -0.169196 0.22824 14 13 19
1338.05 325.382 -1469.92 -0.767856 -0.0849179 0.140098 15 13 20
1340.47 327.761 -1467.44 -0.699575 -0.0812828 0.336282 15 13 20
1472.6 32.77 -1465.73 0.419772 0.477567 0.765454 145 114 51
1476.98 32.4253 -1468.11 0.369832 0.501853 0.776419 148 117 50
1469.1 36.1968 -1465.18 0.500583 0.418568 0.745972 143 113 52
1475.57 33.6184 -1468.07 0.388859 0.493367 0.771712 147 116 50
1483.15 29.4908 -1469.19 0.306529 0.533542 0.786807 152 120 47
1467.7 44.1951 -1468.48 0.59478 0.378292 0.707021 136 108 51
1467.09 43.1273 -1467.4 0.597962 0.368335 0.709918 137 109 52
1527.6 -15.7259 -1464.48 0.696939 0.150455 0.695001 124 100 51
1530.91 -18.6017 -1467.54 0.742422 0.103106 0.658165 118 96 48
1529.82 -10.4098 -1468.12 0.741619 0.130775 0.657444 101 84 50
1525.84 -5.87651 -1464.58 0.723505 0.168557 0.666763 109 89 52
1526.12 1.9191 -1466.51 0.682419 0.250813 0.674935 118 94 51
1528.92 -3.06029 -1468.21 0.752114 0.167741 0.63605 102 84 51
1527.2 3.25895 -1467.85 0.684621 0.264217 0.665734 118 95 51
1526.16 6.43282 -1467.81 0.634826 0.32114 0.68828 127 100 51
1516.61 13.4747 -1464.96 0.430438 0.436431 0.786806 135 108 51
1525.6 10.9703 -1469.03 0.576674 0.348659 0.724637 134 105 50
1527.11 5.80594 -1468.42 0.653615 0.298487 0.680753 124 98 50
1517 17.3536 -1467.18 0.419347 0.416696 0.80075 140 112 53
1516.42 23.9845 -1469.91 0.368261 0.494719 0.774609 152 119 56
1319.3 -855.277 -1462.2 -0.788954 -0.372729 0.446113 61 70 95
1313.5 -845.846 -1460.95 -0.865143 -0.222855 0.405402 53 62 87
1319.3 -851.199 -1458.17 -0.808604 -0.311477 0.421903 55 64 89
1312.57 -841.035 -1463 -0.842386 -0.0361707 0.375217 54 65 89
1314.14 -835.055 -1462.11 -0.827058 0.24565 0.324481 53 64 88
1315.83 -832.737 -1460.59 -0.814876 0.380976 0.285824 52 63 85
1315.8 -831.873 -1461.85 -0.818302 0.378297 0.327515 53 63 86
1319.37 -809.51 -1462.43 -0.622721 -0.197337 0.69889 67 79 110
1317.81 -806.795 -1461.18 -0.649266 -0.316092 0.661443 71 83 115
1314.45 -801.587 -1459.42 -0.674465 -0.478072 0.620995 78 91 125
1311.35 -800.353 -1462.59 -0.688148 -0.439007 0.579511 78 91 126
1326.5 -862.596 -1462.77 -0.782571 -0.438911 0.393051 66 76 102
1325.63 -854.116 -1459.97 -0.494951 -0.371003 0.57324 63 73 102
1322.93 -853.388 -1458.94 -0.599619 -0.347944 0.528435 60 70 98
1324.98 -851.672 -1458.66 -0.438913 -0.331304 0.611521 60 70 101
1327.16 -848.451 -1458.53 -0.252842 -0.287824 0.708787 61 71 105
1329.87 -844.769 -1461.19 -0.14832 -0.362137 0.747988 63 76 113
1332.21 -839.155 -1462.64 -0.0398262 -0.535669 0.785355 62 77 118
1321.29 -827.62 -1459.15 -0.667946 0.414071 0.374968 53 65 88
1321.86 -823.885 -1461.28 -0.727229 0.40685 0.473973 55 67 90
1334.73 -830.318 -1462.13 0.0387424 -0.361928 0.776767 61 75 115
1335.22 -831.346 -1459.02 -0.0788446 -0.105854 0.680449 60 74 109
1336.94 -824.996 -1460.48 0.172413 -0.122599 0.772883 58 71 110
1325.26 -816.863 -1462.43 -0.468229 0.296809 0.658986 59 71 100
1320.61 -821.474 -1463.28 -0.845904 0.431214 0.503817 57 69 92
1327.45 -820.028 -1459.92 -0.377967 0.214069 0.66457 55 68 97
1322.86 -809.975 -1461.46 -0.408461 -0.109477 0.713084 68 81 113
1329.73 -815.262 -1461.94 -0.11585 0.220925 0.762526 57 70 104
1334.69 -820.358 -1460.01 0.545125 -0.233433 0.820269 55 67 112
1333.74 -813.634 -1463.76 0.241571 0.303526 0.800367 57 70 108
1324.16 -808.723 -1460.81 -0.282742 -0.095633 0.699035 67 80 113
1330.93 -808.669 -1463.61 0.293522 0.269545 0.730115 65 79 117
1330.89 -803.814 -1462.85 0.564672 0.0347202 0.679225 77 92 134
1534.41 -410.254 -1458.75 0.504745 0.464849 0.702388 71 84 143
1541.92 -428.156 -1458.61 0.637099 0.263708 0.567652 74 88 144
1547.47 -430.196 -1463.45 0.508247 0.376918 0.631762 70 84 144
1541.51 -422.523 -1458.78 0.639724 0.00870012 0.663828 71 84 139
1545.22 -425.883 -1461.94 0.625153 0.157071 0.56982 71 86 144
1545.3 -419.762 -1463.27 0.618197 -0.170719 0.688963 65 79 138
1538.49 -409.231 -1461.21 0.489628 0.362214 0.758221 65 79 136
1544.57 -415.151 -1463.58 0.556002 0.0920432 0.785374 55 70 128
1246.99 -404.8 -1462.27 -0.904245 0.321004 0.276961 74 87 123
1247.03 -385.397 -1464.27 -0.905934 -0.075488 0.404545 83 94 129
1248.73 -399.016 -1462.45 -0.917632 0.241061 0.270029 73 85 122
1249.5 -392.78 -1461.12 -0.878323 -0.00270093 0.425505 80 91 128
1250.68 -385.893 -1457.91 -0.847356 -0.0533723 0.501147 83 94 130
1250.37 -383.472 -1458.59 -0.8478 -0.0211342 0.496184 83 94 129
1251.1 -377.275 -1459.62 -0.816425 0.172315 0.5076 81 91 125
1252.39 -373.583 -1460.18 -0.783662 0.295634 0.521744 76 87 119
1251.02 -368.474 -1464.42 -0.839387 0.331803 0.39191 76 85 117
1253.79 -366.583 -1461.69 -0.790234 0.307905 0.491237 69 79 110
1255.23 -362.83 -1460.94 -0.805946 0.242676 0.488476 62 71 102
1256.64 -359.898 -1459.44 -0.82527 0.140335 0.490998 61 70 100
1257.91 -350.457 -1458.06 -0.863176 0.0458654 0.458088 55 64 92
1257.76 -346.705 -1459.03 -0.865297 0.103486 0.437683 53 62 89
1259.18 -340.987 -1458.68 -0.845387 0.249608 0.435212 49 58 81
1258.59 -337.658 -1463.37 -0.882334 0.307209 0.308283 48 55 82
1268.94 5.98376 -1461.47 -0.649456 -0.337866 0.623202 164 128 49
1271.56 8.80635 -1458.12 -0.63556 -0.253097 0.716714 166 130 49
1269.67 11.0835 -1458.86 -0.64098 -0.279256 0.706258 166 130 50
1258 26.4101 -1464.11 -0.419724 -0.220315 0.876754 158 122 47
1261.76 19.6769 -1463.5 -0.557219 -0.27367 0.774334 162 125 47
1261.55 22.0243 -1463.01 -0.536033 -0.249493 0.799889 162 125 47
1262.53 27.2499 -1460.3 -0.518195 -0.137317 0.83618 164 127 50
1287.48 -17.1819 -1460.3 -0.780863 -0.202216 0.567211 108 81 59
1285.73 -16.9977 -1463.53 -0.781159 -0.235647 0.556187 114 85 59
1278.94 -6.08866 -1460.94 -0.731001 -0.353111 0.551748 128 91 77
1281.65 -7.49749 -1459.32 -0.733438 -0.308009 0.588979 125 89 80
1273.59 1.29618 -1459.42 -0.699211 -0.282539 0.604366 154 117 56
1531.09 -343.104 -1460.97 0.486435 -0.127691 0.676073 68 76 118
1528.45 -344.28 -1458.85 0.444791 -0.0619817 0.689614 70 78 118
1527.8 -339.497 -1458.48 0.468424 -0.0604008 0.754435 61 69 112
1534.55 -337.646 -1464.25 0.618302 -0.149706 0.658355 60 69 114
1524.36 -329.257 -1458.54 0.466487 0.0549441 0.860431 52 59 106
1531.76 -335.559 -1461.88 0.567066 -0.113354 0.722777 56 64 110
1531.5 -335.695 -1461.66 0.555934 -0.112682 0.733261 56 64 110
1527.47 -325.195 -1461.92 0.550483 0.180288 0.784497 54 61 107
1524.43 -320.673 -1460.95 0.517695 0.249396 0.814961 59 66 112
1524.5 -316.101 -1462.28 0.53884 0.200892 0.800184 58 65 112
1521.38 -313.808 -1459.44 0.496807 0.201336 0.813388 61 68 114
1509.95 -239.432 -1458.17 0.477777 0.557996 0.671728 123 99 48
1501.78 -230.891 -1459.36 0.340213 0.685413 0.625183 170 139 56
1505.89 -234.534 -1459.34 0.383482 0.655078 0.634719 155 127 54
1509.46 -237.668 -1459.47 0.481365 0.564849 0.665213 130 105 49
1505.55 -230.82 -1462.29 0.414482 0.641401 0.630613 164 134 56
1495.74 -221.18 -1461.69 0.731375 0.186402 0.572161 143 110 38
1497.98 -224.667 -1462.6 0.566969 0.46794 0.625583 160 128 49
1496.74 -218.32 -1463.77 0.799372 0.0205305 0.542613 135 102 34
1521.38 -307.441 -1458.8 0.544417 0.0465587 0.779024 75 82 120
1525.06 -312.357 -1463.36 0.564605 0.0938212 0.773158 54 61 107
1524.44 -305.225 -1463.21 0.594987 0.0905655 0.712263 53 59 101
1478.88 285.627 -1461.91 0.77816 0.31596 0.0914898 35 24 32
1477.93 299.659 -1459.21 0.66988 0.0286792 0.440178 40 32 37
1477.99 303.329 -1463.71 0.637554 0.150473 0.500046 41 34 39
1477.49 308.65 -1458.32 0.679283 0.0070878 0.487989 40 33 38
1478.32 309.717 -1463.37 0.630924 0.0727714 0.503203 43 35 40
1476.63 314.506 -1458.65 0.693111 0.0459992 0.43739 38 31 36
1459.04 343.035 -1461.58 0.592556 0.690864 -0.176484 25 21 25
1464.27 337.756 -1460 0.539483 0.79545 -0.337974 26 21 24
1449.64 354.711 -1462.72 0.716904 0.427764 0.234413 24 20 27
1455.24 348.212 -1461.13 0.694653 0.477181 0.150905 24 20 26
1460.35 343.595 -1458.67 0.627025 0.657116 -0.118589 24 20 24
1475.44 319.548 -1461.22 0.687828 0.270982 0.232628 33 27 31
1471.01 328.12 -1462.79 0.629361 0.728294 -0.227442 25 19 22
1467.1 334.511 -1459.54 0.5756 0.76818 -0.295799 25 20 23
768.244 87.4856 -1459.04 0.199435 0.709473 0.659777 215 182 173
771.927 87.1 -1460.28 0.201213 0.700612 0.668866 216 183 174
769.67 88.9185 -1462.34 0.186685 0.733469 0.638607 213 181 172
774.201 89.116 -1464.98 0.181945 0.73764 0.636148 213 181 172
777.099 89.503 -1465.92 0.181547 0.739195 0.635061 213 181 171
797.142 90.9329 -1466.72 0.0551829 0.601889 0.765651 230 193 184
847.249 39.3073 -1467.85 0.0109812 -0.289706 0.946345 145 117 113
842.073 38.7974 -1468.57 0.0851378 -0.239399 0.920641 162 131 126
854.729 38.7303 -1468.54 -0.0240709 -0.439451 0.859894 149 120 115
867.187 38.8787 -1468.36 0.109871 -0.65875 0.710962 157 126 118
863 38.7672 -1468.38 0.065814 -0.625399 0.7324 155 125 117
877.381 37.0619 -1470.97 0.117627 -0.507843 0.812749 170 140 131
974.57 25.9644 -1470.79 0.0157922 -0.342843 0.908809 195 165 158
976.947 27.9867 -1468.3 0.00755566 -0.359863 0.910261 185 158 151
1495.27 -162.801 -1454.41 0.577796 0.0698444 0.787584 120 98 47
1494.55 -165.569 -1453.57 0.571659 0.0683431 0.788516 121 98 47
1495.16 -154.076 -1455.43 0.622722 0.0358024 0.750213 123 99 43
1491.08 -159.178 -1452.1 0.6705 0.00723778 0.707933 117 94 42
1492.28 -149.336 -1452.79 0.763303 -0.011904 0.592848 134 103 36
1493.94 -153.37 -1454.38 0.666959 0.00772633 0.705147 123 98 41
1494.35 -147.265 -1455.13 0.723484 0.038552 0.629322 149 115 41
1495 -137.84 -1454.17 0.826676 -0.26478 0.404667 150 113 39
1497.96 -136.133 -1457.89 0.789891 -0.323728 0.42627 158 120 43
1496.07 -135.488 -1455.13 0.825039 -0.354922 0.397187 151 114 40
1496.21 -130.803 -1453.6 0.830355 -0.366853 0.421467 145 108 35
1496.59 -124.24 -1452.28 0.820165 -0.223702 0.523012 141 103 27
1499.13 -119.277 -1453.29 0.848153 -0.246476 0.458053 135 101 32
1500.6 -116.478 -1454.31 0.864551 -0.243437 0.423966 132 99 32
1501.7 -110.165 -1452.94 0.875782 -0.213251 0.403015 127 96 33
1502.87 -107.569 -1453.73 0.91292 -0.17879 0.34396 133 100 33
1504.59 -105.238 -1456.59 0.895837 -0.165921 0.376317 135 101 33
1504.99 -99.2481 -1454.19 0.898941 -0.197962 0.363216 138 104 36
1507.13 -88.8079 -1453.69 0.869134 -0.186925 0.452512 136 105 36
1507.48 -87.2452 -1453.71 0.867803 -0.180553 0.46094 137 105 36
1511.27 -82.593 -1458.12 0.855052 -0.209986 0.466604 133 102 36
1370.16 -611.519 -1446.7 0.613231 0.0328548 0.757285 56 73 123
1375.1 -603.549 -1451.66 0.715598 -0.0242994 0.694778 48 65 114
1373.21 -603.599 -1449.98 0.662327 0.0133576 0.731449 51 68 117
1264.33 -597.776 -1446.81 -0.770568 -0.129161 0.608156 54 68 99
1264.13 -596.816 -1446.85 -0.776179 -0.114195 0.601965 55 68 99
1264.02 -589.938 -1446.55 -0.813182 -0.041818 0.5574 56 69 101
1261.36 -586.425 -1451.65 -0.886709 0.00589359 0.441389 58 69 101
1260.24 -579.12 -1450.92 -0.88861 -0.193174 0.408867 55 67 99
1259.69 -569.493 -1448.66 -0.818698 -0.171428 0.548745 52 65 96
1260.7 -576.028 -1449.05 -0.855604 -0.178562 0.478602 54 67 98
1260.3 -567.912 -1447.54 -0.805956 -0.163624 0.571991 52 65 96
1257.39 -566.358 -1450.9 -0.812435 -0.171372 0.551859 52 64 95
1257.75 -555.206 -1448.73 -0.780609 -0.0634349 0.612023 53 65 96
1259.11 -554.31 -1447.07 -0.754131 -0.0556663 0.642234 52 64 96
1260.08 -550.891 -1446.08 -0.752955 -0.0221575 0.647975 57 69 101
1254.7 -547.106 -1451.75 -0.8079 -0.0677979 0.578949 62 73 104
1258.92 -542.854 -1447.05 -0.710151 -0.0608387 0.688748 52 64 96
1254.73 -539.138 -1450.39 -0.771031 -0.141218 0.604466 58 69 101
1252.53 -532.577 -1450.93 -0.789193 -0.16744 0.57099 62 72 103
1258.48 -536.125 -1445.89 -0.68666 -0.116339 0.707389 56 68 101
1423.3 -460.297 -1448.39 -0.313637 -0.676193 0.666632 58 66 103
1423.29 -457.722 -1445.69 -0.34171 -0.660109 0.671927 61 69 106
1424.86 -459.518 -1446.88 -0.312536 -0.677374 0.66632 60 68 105
1430.7 -463.516 -1448.96 -0.183253 -0.723188 0.661638 60 68 104
1439.29 -464.832 -1449.42 -0.0701836 -0.719851 0.69483 60 68 107
1438.54 -463.092 -1447.41 -0.0583148 -0.704819 0.705335 63 72 110
1464.11 -477.76 -1451.58 -0.316839 0.27405 0.916152 50 60 106
1447.2 -465.721 -1450.13 -0.0919594 -0.661036 0.749455 53 62 104
1454.19 -466.242 -1450.2 -0.149828 -0.5027 0.840946 49 59 102
1446.66 -463.593 -1447.82 -0.0566066 -0.678004 0.739393 58 67 109
1460.02 -466.73 -1449.98 -0.175259 -0.271853 0.908508 50 61 105
1459.29 -463.699 -1448.02 -0.0940267 -0.444346 0.866496 55 66 110
1462.08 -466.486 -1449.68 -0.185954 -0.260726 0.912731 50 61 105
1458.79 -463.24 -1447.64 -0.0792467 -0.456581 0.861782 56 67 111
1460.31 -462.229 -1447.03 -0.0538207 -0.431433 0.876706 60 71 115
1466.48 -482.31 -1449.28 -0.253109 0.278835 0.921596 67 78 123
1469.8 -486.273 -1447.09 -0.118682 0.287707 0.951054 84 96 142
1475.63 -484.471 -1446.64 -0.142087 0.250149 0.95569 82 96 141
1468.01 -477.6 -1450.54 -0.289565 0.319085 0.917283 57 68 114
1475.52 -481.226 -1446.77 -0.234661 0.213757 0.94268 74 86 132
1478.04 -477.771 -1446.5 -0.28941 0.176987 0.936153 68 80 126
1470.27 -471.513 -1449.72 -0.278337 0.103492 0.914906 52 63 109
1474 -470.857 -1448.41 -0.270567 0.0573262 0.921268 55 67 113
1482.19 -471.32 -1446.36 -0.287253 0.185991 0.941536 63 75 123
1469.18 -467.566 -1448.79 -0.222594 -0.135163 0.912343 51 62 108
1477.11 -469.529 -1447.54 -0.263603 0.0123924 0.926318 55 67 114
1475.22 -464.522 -1446.8 -0.178198 -0.301681 0.915232 51 63 109
1479.32 -469.921 -1447.12 -0.273093 0.0848379 0.933061 58 70 117
1418.42 -454.298 -1446.18 -0.117 -0.597272 0.761649 54 63 100
1292.79 -17.0996 -1451.56 -0.793 -0.124964 0.532425 110 83 63
1295.9 -10.0542 -1446.72 -0.782154 -0.00879703 0.554195 122 87 76
1290.95 -10.4898 -1451.18 -0.570644 -0.229876 0.693189 138 103 70
1289.3 -7.53579 -1450.84 -0.561871 -0.153985 0.743967 145 108 69
1285.67 -4.58343 -1451.34 -0.597981 -0.0139544 0.765502 157 121 58
1294.59 -8.53092 -1447.27 -0.702232 -0.0443753 0.618554 130 94 76
1286.16 1.7212 -1448.83 -0.573068 0.116852 0.808085 169 132 52
1282.11 3.72731 -1451.19 -0.586103 0.101288 0.806022 172 134 48
1281.3 11.5631 -1450.92 -0.5178 -0.0855322 0.834691 171 134 52
1286.18 4.35614 -1448.58 -0.554133 0.1148 0.820857 171 134 51
1287.82 12.4457 -1448.03 -0.464291 0.0280192 0.874317 172 135 54
1292.72 14.8174 -1445.82 -0.454637 0.088203 0.883115 173 136 55
1283.71 18.242 -1449.1 -0.381361 -0.0720234 0.896879 171 134 53
1281.7 18.8769 -1449.59 -0.398858 -0.119634 0.88241 170 133 53
1283.86 22.7707 -1448.85 -0.305821 0.0174705 0.923375 171 133 53
1290.59 20.0508 -1447.03 -0.327426 0.0518835 0.931544 171 134 54
1285.32 20.9134 -1448.41 -0.317482 -0.0167224 0.925306 171 134 53
1288.06 23.1936 -1447.92 -0.273976 0.0610757 0.940889 171 134 53
1293.69 22.295 -1446.3 -0.30526 0.116797 0.935239 171 134 53
1295.17 25.6002 -1446.42 -0.251795 0.17614 0.94561 170 133 52
1423.49 145.42 -1447.54 0.292461 -0.88589 0.211044 123 95 96
1428.82 147.398 -1451.7 0.514451 -0.798741 0.212589 130 101 107
1427.79 147.079 -1446.93 0.41332 -0.887599 0.144875 125 97 104
1433.51 150.445 -1446.37 0.528146 -0.852914 0.0909688 130 102 109
1438.36 153.928 -1448.53 0.584363 -0.799849 0.0921642 135 105 109
1440.55 155.202 -1450.41 0.592663 -0.800002 0.0498594 134 105 108
1442.14 157.693 -1447.62 0.655985 -0.725357 0.129622 138 108 111
1445.91 161.93 -1449.68 0.767009 -0.598103 0.135636 141 111 115
1451.72 170.406 -1450.15 0.84535 -0.510511 0.112516 165 132 133
1453.64 173.107 -1450.6 0.854428 -0.506666 0.0805577 176 142 140
1456.82 184.557 -1445.69 0.922202 -0.252544 0.148161 186 151 151
1457.86 188.475 -1448.05 0.942243 -0.202441 0.109672 196 159 158
1458.03 188.828 -1449.26 0.946223 -0.190226 0.108526 197 160 160
1459.08 192.753 -1450.06 0.952805 -0.179488 0.0548702 202 165 163
1461.52 201.294 -1451.23 0.901809 -0.342684 0.0708546 207 169 169
1463.35 207.886 -1447.91 0.909195 -0.275699 0.160336 207 169 169
1464.3 213.843 -1449.25 0.923714 -0.166468 0.244579 214 175 172
1464.31 221.328 -1446.59 0.969125 -0.0629717 0.146698 216 176 171
1464.26 219.422 -1446.66 0.963514 -0.0824184 0.161452 216 176 172
1464.66 225.094 -1451.15 0.947862 8.15834e-06 0.220488 205 166 162
1464.42 230.967 -1449.61 0.986168 0.0130195 0.0924656 202 162 157
1464.14 236.317 -1448.32 0.991118 -0.00438141 0.0451869 196 157 151
1464.03 241.234 -1449.28 0.985523 0.00370233 0.0890969 192 152 146
1360.94 -1161.17 -1441.63 -0.114606 0.716922 0.258757 182 152 132
1366.93 -1158.81 -1441.47 -0.206519 0.767324 0.232765 179 150 130
1403.12 -1167.75 -1443.82 0.277006 0.912935 -0.0266492 119 99 89
1395.91 -1161.7 -1440.01 0.534465 0.799416 -0.111214 144 119 105
1397.37 -1163.39 -1440.6 0.509091 0.822316 -0.10048 144 119 105
1409.28 -1167.56 -1445.07 -0.153353 0.946536 0.123605 101 88 82
1414.4 -1166.39 -1441.44 -0.307115 0.906748 0.222153 134 116 108
1412.14 -1166.75 -1444.71 -0.284026 0.945294 0.173701 112 97 90
1370.36 -1157.39 -1441.79 -0.241016 0.824124 0.283099 176 149 130
1380.41 -1155.7 -1442.22 0.00277702 0.937308 0.281447 180 150 131
1382.76 -1155 -1445.1 0.156426 0.935254 0.259678 178 148 129
1389.5 -1158.45 -1442.61 0.419981 0.852695 0.0743354 146 122 107
1400.91 -1144.11 -1445.94 -0.641096 0.669242 0.351184 101 84 74
1406.28 -1142.98 -1445.35 -0.36517 0.775066 0.380874 97 80 71
1428.57 -459.196 -1444.93 -0.236125 -0.684308 0.682472 62 70 106
1437.69 -458.081 -1442.69 -0.00757506 -0.606247 0.773441 69 77 115
1444.34 -460.282 -1444.78 0.00481495 -0.613167 0.778122 68 77 118
1453.94 -457.62 -1443.83 0.0783673 -0.438245 0.879686 73 83 126
1457.46 -459.884 -1445.28 0.0251288 -0.474733 0.862939 68 78 122
1470.18 -503.783 -1445.34 -0.3273 -0.230381 0.908314 66 80 125
1476.89 -500.905 -1443.18 -0.264692 -0.0707057 0.93951 69 83 129
1472.37 -498.81 -1444.24 -0.242692 -0.0575421 0.939774 71 85 131
1478.12 -496.287 -1443.4 -0.192401 0.0795698 0.952943 76 90 136
1483.51 -501.037 -1440.84 -0.280023 -0.0991355 0.932039 67 81 129
1478.89 -505.71 -1443.44 -0.282556 -0.0587483 0.941404 69 83 129
1485.49 -500.977 -1440.34 -0.243906 -0.125408 0.932199 67 81 130
1484.08 -495.777 -1441.17 -0.239636 0.0799111 0.933168 70 85 132
1490.16 -495.351 -1440.53 -0.0994981 0.0749147 0.94325 69 84 134
1468.91 -490.812 -1445.47 -0.213665 0.168799 0.933085 84 97 142
1478.47 -488.02 -1445.65 -0.0617718 0.246491 0.972662 92 106 151
1478.58 -489.423 -1445.31 -0.0607885 0.245146 0.971907 91 106 151
1485.16 -494.609 -1441.16 -0.230191 0.109123 0.932982 70 85 133
1480.31 -487.525 -1445 -0.102216 0.242137 0.964367 87 102 147
1487.43 -486.011 -1442.73 -0.189926 0.222367 0.946889 76 90 138
1496.46 -502.501 -1441.36 0.0740641 -0.0464018 0.975793 69 83 135
1490.11 -505.126 -1441.17 -0.0686442 -0.126276 0.959739 70 84 134
1497.52 -500.886 -1441.31 0.0964645 -0.0320076 0.976633 69 83 135
1493.19 -493.593 -1440.96 -0.0372277 0.123406 0.954223 72 87 138
1501.29 -497.919 -1441.71 0.119366 -0.00419676 0.982341 71 85 138
1507.95 -503.548 -1442.09 0.0882902 0.165919 0.965829 69 83 138
1513.95 -502.457 -1443.98 0.192402 0.282471 0.915049 72 86 142
1509.29 -503.856 -1442.34 0.102151 0.186994 0.956951 69 83 139
1504.32 -498.115 -1442.21 0.123109 0.0365231 0.982095 71 85 139
1513.92 -497.808 -1445.13 0.208421 0.280222 0.923602 72 86 142
1492.99 -487.942 -1441.71 -0.0967588 0.20837 0.95473 77 91 142
1497.85 -491.967 -1441.26 0.0563545 0.0568757 0.974939 76 90 142
1491.83 -487.372 -1441.88 -0.126319 0.226047 0.950408 77 90 141
1497.27 -485.863 -1441.63 -0.034194 0.101991 0.97806 78 92 144
1508.81 -490.809 -1442.96 0.153951 -0.0423386 0.966578 80 94 147
1512.34 -489.683 -1444.24 0.23526 -0.0435495 0.937116 81 94 148
1502.94 -487.302 -1441.51 0.0545263 -0.0235179 0.989724 82 95 148
1505.17 -482.874 -1441.49 0.0215532 -0.0395802 0.986154 80 92 144
1509.1 -486.255 -1442.45 0.142658 -0.092598 0.962932 83 95 147
1480.84 -478.095 -1445.55 -0.283654 0.171825 0.940815 69 81 128
1487.18 -480.189 -1443.66 -0.217672 0.17581 0.951655 72 84 133
1489.34 -472.43 -1444.09 -0.223121 0.156431 0.964858 67 80 129
1472.82 -461.154 -1445.28 -0.133819 -0.408849 0.909345 59 71 117
1474.85 -460.956 -1445 -0.127681 -0.372355 0.919912 60 72 119
1483.5 -465.694 -1445.33 -0.2052 -0.00873992 0.951707 61 73 121
1489.35 -464.307 -1444.01 -0.164516 0.0485795 0.972868 67 79 128
1479.32 -459.271 -1443.68 -0.109375 -0.227001 0.952097 68 80 127
1486.09 -461.516 -1443.87 -0.118291 -0.0454638 0.970474 67 79 129
1495.58 -476.635 -1442.24 -0.157517 0.100013 0.983551 71 84 136
1502.62 -479.397 -1441.2 -0.0881387 0.00547497 0.99975 75 88 140
1491.79 -474.426 -1443.15 -0.197373 0.133795 0.971407 69 82 132
1500.71 -474.428 -1441.69 -0.130465 0.0642593 0.993086 71 84 136
1500.03 -472.064 -1442 -0.137712 0.0844914 0.989266 70 83 135
1504.06 -478.579 -1441.25 -0.0733255 -0.00506048 0.99614 74 87 139
1509.88 -476.399 -1442.35 0.116431 -0.0129218 0.959655 77 89 137
1505.44 -473.167 -1441.83 -0.0461637 0.0400738 0.987295 72 85 135
1513.44 -472.775 -1443.77 0.287374 0.0179675 0.923641 78 89 136
1492.38 -464.517 -1443.47 -0.155556 0.0557586 0.978044 68 81 131
1498.96 -468.931 -1442.4 -0.145306 0.0928352 0.985044 70 83 134
1495.87 -461.727 -1442.93 -0.093914 0.0382679 0.983389 72 85 135
1501.02 -461.217 -1442.77 -0.0396683 0.0570188 0.986674 73 86 138
1498.22 -460.019 -1442.69 -0.0425436 0.0304061 0.986266 74 87 138
1506.21 -464.599 -1443.17 0.0181589 0.0870966 0.982304 71 84 136
1512.48 -465.831 -1444.33 0.228365 0.0851845 0.952032 76 88 135
1503.07 -460.625 -1443.03 -0.0055506 0.0675189 0.985858 73 85 138
1511.81 -461.122 -1444.83 0.15708 0.0603022 0.968805 72 85 137
1418.95 -452.893 -1444.82 -0.116325 -0.572627 0.781999 52 62 98
1430.53 -454.638 -1439.96 -0.171634 -0.560749 0.781811 61 69 105
1424.12 -452.484 -1441.05 -0.353029 -0.550457 0.755458 54 62 98
1417.73 -447.789 -1441.95 -0.0962154 -0.546383 0.812847 45 55 90
1441.95 -455.525 -1441.69 0.100663 -0.481331 0.851191 71 80 120
1441.71 -450.11 -1440.04 0.149183 -0.329739 0.921734 65 73 114
1444.99 -453.333 -1441.34 0.116175 -0.399752 0.892922 70 79 120
1450.85 -455.964 -1442.95 0.0830533 -0.426456 0.883525 71 81 124
1446.46 -446.741 -1439.81 0.0707424 -0.313343 0.935399 54 63 106
1453.74 -446.505 -1440.65 0.127234 -0.305645 0.930023 57 66 110
1468.18 288.035 -1442.09 0.692321 -0.46245 0.431757 58 47 52
1468.48 292.05 -1440.55 0.697792 -0.416358 0.510055 59 48 56
1466.56 288.796 -1440.1 0.717964 -0.421542 0.417312 60 49 55
1472 296.787 -1442.59 0.716163 -0.389425 0.548406 49 40 50
1472.01 305.54 -1440.87 0.882002 -0.122724 0.390901 27 20 30
1472.88 305.754 -1442.57 0.886268 -0.143616 0.405994 27 21 30
1473.34 306.878 -1443.82 0.889246 -0.126099 0.387184 26 20 29
1470.61 317.474 -1440.68 0.880485 0.0965808 0.30005 18 14 22
1460.62 334.945 -1439.89 0.772834 0.345711 0.516457 14 11 20
1463.99 333.786 -1443.68 0.787171 0.431232 0.429596 12 11 19
1461.62 337.769 -1443.49 0.807212 0.351887 0.460746 14 12 20
1438.05 366.678 -1442.4 0.720092 0.356218 0.27172 40 34 35
1452.48 355.182 -1440.12 0.846842 0.373699 0.391732 15 13 21
1457.73 345.096 -1441.95 0.829627 0.313245 0.455308 15 13 21
1455.64 349.104 -1439.78 0.837674 0.350973 0.422515 14 13 21
1451.69 356.952 -1442.2 0.84488 0.378129 0.384933 15 13 21
1444.33 363.628 -1443.48 0.782701 0.413757 0.301375 22 19 26
1469.44 323.761 -1443.94 0.843725 0.262236 0.356046 14 12 20
1467.16 329.687 -1444.55 0.816269 0.419418 0.380996 11 10 18
1431.36 368.323 -1441.38 0.585773 0.257789 0.340196 64 53 48
1507.03 -1175.54 -1439.4 0.256166 0.833113 0.145935 130 115 113
1508.54 -1176.92 -1435.02 0.141572 0.899004 0.101039 133 118 116
1509.66 -1176.38 -1438.57 0.138286 0.782218 0.16724 131 119 118
1496.2 -1169.63 -1439.55 0.465929 0.799564 0.258902 148 119 112
1498.19 -1171.73 -1437.65 0.415137 0.838807 0.249005 147 119 111
1471.44 -1157.71 -1438.73 0.469296 0.773881 0.113034 165 135 127
1477.62 -1160.66 -1437.88 0.206325 0.809979 0.00348124 156 128 121
1517.4 -1176.41 -1438.22 -0.363916 0.480544 0.467728 138 135 135
1521.68 -1174.87 -1435.86 -0.588379 0.197208 0.749138 120 120 121
1520.54 -1169.38 -1438.25 -0.549212 0.256223 0.736733 121 121 122
1525.4 -1168.67 -1434.83 -0.5659 0.109637 0.815109 45 45 45
1524.94 -1167.13 -1435.33 -0.565465 0.105949 0.823131 42 43 43
1521.99 -1161.78 -1437.79 -0.576979 0.152622 0.839965 118 119 125
1524.67 -1159.87 -1436.89 -0.581447 0.108638 0.819285 91 92 100
1525.19 -1154.53 -1438.75 -0.599675 0.140185 0.783024 105 107 123
1527.79 -1151.95 -1437.83 -0.606665 0.149412 0.773325 105 107 123
1529.31 -1148.78 -1437.8 -0.626933 0.195935 0.750644 107 110 126
1529.92 -1146.08 -1439.13 -0.660526 0.197626 0.716024 107 110 123
1533.9 -1141.46 -1437.39 -0.751644 0.202787 0.614691 107 110 116
1536.47 -1137.52 -1436.52 -0.832645 0.176405 0.509515 112 114 115
1305.87 -246.938 -1439.32 -0.722044 0.0957448 0.66666 113 94 41
1309.63 -251.688 -1436 -0.606424 0.0435076 0.768412 112 93 43
1315.42 -238.981 -1435.03 -0.499165 0.148309 0.842199 143 114 53
1309.53 -245.199 -1437.18 -0.6128 0.160279 0.759088 125 103 47
1296.22 -219.774 -1439.68 -0.375129 -0.379973 0.839825 117 91 37
1312.01 -238.397 -1437.37 -0.568354 0.202862 0.796381 116 94 43
1311.37 -233.462 -1437.62 -0.490139 -0.0531811 0.849042 121 95 42
1314.33 -227.821 -1434.37 -0.451624 -0.221042 0.859521 113 90 42
1308.88 -231.001 -1438.42 -0.477981 -0.170087 0.850021 117 91 39
1301.73 -224.352 -1439.48 -0.425747 -0.365709 0.829634 108 83 33
1304.33 -221.887 -1436.86 -0.428107 -0.319132 0.841219 113 87 34
1300.9 -217.17 -1436.8 -0.389933 -0.299119 0.859059 121 93 37
1304.71 -220.095 -1435.84 -0.423501 -0.315424 0.844253 113 87 34
1308.91 -224.096 -1435.39 -0.434984 -0.311566 0.842088 108 84 35
1367.06 202.011 -1439.55 -0.917728 -0.0989762 0.163312 180 140 129
1366.9 203.607 -1438.35 -0.936529 -0.117399 0.141723 177 137 127
1364.85 214.267 -1439.94 -0.98071 -0.175471 0.0903349 166 126 117
1365.85 213.927 -1435.25 -0.949084 -0.17036 0.165556 170 129 120
1364.93 222.013 -1434.03 -0.946378 -0.17252 0.254988 166 124 115
1379.12 179.037 -1434 -0.841538 -0.371852 0.285787 151 114 104
1375.4 183.208 -1439.66 -0.829644 -0.395517 0.337968 143 106 96
1375.02 185.792 -1437.23 -0.850257 -0.388889 0.317559 144 108 98
1375.79 185.347 -1435.51 -0.850739 -0.414154 0.307852 144 107 98
1370.2 196.128 -1434.19 -0.863453 -0.282248 0.210928 175 135 125
1364.07 226.537 -1435.23 -0.957882 -0.151032 0.244124 164 123 113
1363.88 228.913 -1434.49 -0.960972 -0.145028 0.240787 163 123 113
1363.17 236.173 -1435.04 -0.978329 -0.0334887 0.152722 165 126 116
1363.31 241.391 -1436.88 -0.991296 0.0844889 0.0806871 161 123 114
1364.04 246.054 -1438.36 -0.972798 0.0715117 0.167299 149 114 105
1365.01 251.554 -1434.9 -0.982939 0.0715055 0.165404 160 122 113
1364.47 256.643 -1436.09 -0.945575 -0.0941573 0.225561 155 118 108
1364.08 259.479 -1436.54 -0.92717 -0.19315 0.230583 151 115 106
1361.7 266.947 -1438.32 -0.887513 -0.251495 0.307933 123 94 89
1453.86 186.764 -1434.52 0.802346 -0.408634 0.426687 197 157 155
1456.98 188.832 -1439.2 0.887062 -0.333814 0.227972 192 154 154
1458.63 193.676 -1437.33 0.889408 -0.363985 0.196849 198 159 157
1460.05 201.57 -1434.27 0.935237 -0.175255 0.242719 216 174 168
1462.45 206.569 -1440.02 0.945481 -0.207404 0.0818538 198 161 160
1463.11 214.616 -1436.18 0.951977 -0.165711 0.120458 208 168 164
1462.69 211.349 -1436.6 0.957369 -0.163796 0.11323 209 169 165
1464.18 220.032 -1439.07 0.987011 -0.0982466 0.0208108 213 172 167
1463.86 222.356 -1435.19 0.968405 -0.0876746 0.0882941 207 166 162
1464 231.207 -1437.3 0.990114 0.0173966 0.0534881 216 175 169
1463.8 235.862 -1435.74 0.989305 0.0534949 0.076488 224 183 176
1463.74 242.092 -1433.97 0.973549 0.0125478 0.0985008 233 192 184
1464.21 251.621 -1436.62 0.957931 -0.0836272 0.0517725 230 189 182
1464.19 257.449 -1437.78 0.958261 -0.0636888 0.059925 225 186 178
1464.26 261.228 -1437.02 0.947053 -0.081712 0.105611 224 185 178
1463.85 268.91 -1436.75 0.947091 -0.105331 0.223523 222 183 176
1463.5 266.141 -1435.23 0.939812 -0.0642049 0.193732 225 186 179
1463.72 270.605 -1436.11 0.944746 -0.105483 0.24752 220 182 175
1464.03 281.485 -1435.68 0.912349 -0.0488901 0.313972 146 121 119
1464.45 284.869 -1436.27 0.869687 -0.0731768 0.348866 115 94 95
1465.35 291.539 -1435.46 0.776729 -0.130653 0.428771 78 63 69
1419.09 367.193 -1437.39 -0.0832895 0.417503 0.506623 55 45 45
1423.67 366.695 -1436.17 0.120961 0.472592 0.423477 46 38 40
1348.49 -577.229 -1429.72 0.473709 -0.0411568 0.862624 72 90 144
1345.47 -574.499 -1428.03 0.418463 0.0414894 0.890169 75 92 146
1349.44 -572.474 -1430.57 0.483937 0.0589291 0.863534 72 88 144
1353.91 -567.147 -1433.44 0.511527 0.0232901 0.853443 66 82 137
1348.01 -566.202 -1430.33 0.410781 0.054454 0.89895 71 87 144
1352.06 -562.911 -1432.15 0.443118 -0.018706 0.879748 66 81 138
1348.59 -556.578 -1429.54 0.343848 -0.102932 0.915503 66 82 139
1354.47 -557.047 -1432.71 0.524105 -0.100762 0.81966 58 73 129
1344.45 -545.083 -1427.42 0.350849 0.0246137 0.930827 67 82 139
1350.82 -550.8 -1430.04 0.371593 -0.0471258 0.901736 63 78 135
1356.89 -550.527 -1432.8 0.542162 -0.100712 0.799917 56 72 127
1347.4 -544.33 -1428.75 0.357539 0.0375314 0.925727 66 82 138
1355.13 -548.421 -1431.66 0.450469 -0.0543589 0.854563 60 76 131
1352.77 -543.989 -1430.94 0.392448 0.0159353 0.896232 64 80 136
1350.49 -538.612 -1430.34 0.402164 0.0129684 0.898466 67 83 139
1353.03 -536.465 -1431.54 0.42022 0.0133346 0.886383 67 82 138
1353.87 -539.087 -1431.65 0.423251 0.00672271 0.881514 66 81 137
1346.34 -532.7 -1427.69 0.453124 -0.104075 0.8672 71 86 143
1354.4 -531.078 -1432.94 0.428469 0.0194993 0.891906 65 80 135
1347.74 -525.169 -1427.55 0.534262 -0.0628246 0.823538 70 84 140
1352.89 -524.903 -1431.74 0.513495 -0.037791 0.849678 63 77 133
1349.53 -524.311 -1429 0.55268 -0.0489747 0.819775 68 81 138
1351.88 -522.55 -1430.73 0.542755 -0.0417348 0.832157 63 76 132
1350.28 -516.484 -1429.24 0.51988 -0.00658971 0.844157 62 75 130
1352.83 -515.19 -1430.69 0.503324 -0.0412286 0.854598 59 72 127
1349 -510.802 -1428.7 0.47982 -0.00553763 0.86946 61 74 128
1355.75 -510.675 -1431.61 0.434538 -0.0795267 0.888472 57 70 124
1358.44 -512.858 -1432.9 0.42012 -0.104353 0.894628 53 66 121
1359.58 -511.273 -1433.1 0.397159 -0.117593 0.904113 54 66 121
1272.21 -503.879 -1428.26 -0.541847 -0.0959116 0.831437 78 92 129
1265.34 -498.66 -1432.64 -0.628712 0.0465626 0.755564 63 76 110
1271.23 -498.778 -1429.12 -0.538583 -0.0307421 0.835112 76 90 127
1265.71 -490.427 -1432.37 -0.539183 0.0187573 0.829674 69 81 117
1268.92 -489.339 -1430.31 -0.501345 0.00213613 0.860846 75 88 126
1264.33 -486.083 -1433.18 -0.535043 0.00150748 0.826569 71 83 118
1268.27 -488.098 -1430.61 -0.500005 -0.000521208 0.861139 75 88 125
1271.04 -480.389 -1429.01 -0.549516 -0.0153916 0.826367 84 97 136
1268.12 -481.807 -1430.8 -0.514532 0.0118247 0.84724 79 92 130
1272.43 -471.836 -1429.56 -0.517564 0.108896 0.824662 71 84 121
1314.19 -112.542 -1433.39 -0.742566 0.181037 0.648715 130 101 40
1318.45 -116.993 -1428.61 -0.648962 0.0934567 0.753376 147 114 44
1315.79 -110.797 -1432.26 -0.7111 0.168581 0.679497 130 102 41
1318.36 -106.896 -1430.31 -0.719648 0.140966 0.670484 128 101 43
1320.07 -103.996 -1429.05 -0.730005 0.103126 0.667932 128 100 44
1318.65 -96.6566 -1431.67 -0.726787 0.0239471 0.691595 113 89 40
1317.7 -89.2236 -1432.28 -0.664917 -0.0283204 0.753392 118 92 39
1320.58 -84.2059 -1429.05 -0.643568 -0.068598 0.72983 122 94 38
1317.36 -85.2327 -1432.35 -0.645866 0.0141805 0.744443 118 92 39
685.235 76.9421 -1431.82 -0.380542 0.11861 0.917682 217 182 166
686.101 80.7161 -1432.73 -0.338213 0.129333 0.928364 208 175 159
691.273 78.0311 -1428.74 -0.378817 0.226956 0.877985 220 186 171
699.017 81.3315 -1428.44 -0.131182 0.437352 0.85245 204 173 159
693.89 84.1653 -1431.58 -0.0617833 0.557301 0.670569 207 176 162
702.381 85.8883 -1431.31 0.0542442 0.533252 0.758393 202 171 158
704.275 81.4848 -1428.75 0.0178369 0.347424 0.913076 201 170 157
714.463 78.8491 -1429.62 0.0794927 0.103539 0.920943 216 181 167
706.76 84.9334 -1430.94 0.0816564 0.402514 0.830328 204 172 159
704.864 85.6692 -1431.25 0.0675658 0.470288 0.789463 203 171 159
711.96 83.1432 -1430.62 0.104436 0.289502 0.867724 209 176 162
716.905 81.0098 -1429.86 0.0611952 0.260316 0.883791 215 181 167
722.406 80.4384 -1430.59 0.0849568 0.462492 0.773667 214 179 166
717.344 84.9689 -1432.93 0.164259 0.486881 0.703864 208 175 163
714.757 84.3276 -1431.51 0.136013 0.346878 0.794925 211 177 164
727.883 78.203 -1429.61 0.197048 0.590444 0.712153 218 181 170
733.193 77.861 -1433.25 0.227607 0.538099 0.545212 209 173 161
1307.58 -20.7915 -1430.91 -0.703151 -0.153192 0.645866 134 104 49
1306.81 -9.80135 -1432.88 -0.642448 0.102551 0.665955 143 108 64
1312.07 -12.1545 -1427.69 -0.631955 0.140498 0.71648 145 110 58
1307.97 -6.72683 -1433.34 -0.572312 0.238053 0.701577 141 105 63
1311.74 -5.31113 -1431.56 -0.502794 0.320765 0.736414 144 109 60
1315.97 -3.50931 -1429.92 -0.37814 0.430201 0.782382 149 114 56
1317.63 -2.12074 -1429.83 -0.32224 0.441775 0.805082 153 118 55
1318.43 2.81385 -1431.57 -0.322002 0.321168 0.865012 162 126 53
1490.7 -88.4948 -1432.69 0.496894 -0.300427 0.799002 121 94 39
1492.27 -75.6234 -1427.51 0.53752 -0.305553 0.779882 124 97 39
1495.22 -77.6685 -1430.65 0.607507 -0.305846 0.710999 126 98 37
1494.04 -72.2669 -1428.1 0.573317 -0.24217 0.77093 117 93 39
1496.96 -74.2374 -1431.44 0.651755 -0.250151 0.686091 118 92 38
1459.55 -20.6991 -1429.55 0.077852 0.510332 0.844148 160 126 54
1494.81 -65.5653 -1427.53 0.5887 -0.155902 0.785191 108 87 41
1499.53 -67.8253 -1432.67 0.740198 -0.165639 0.616925 122 95 38
1497.45 -63.2077 -1429.5 0.653152 -0.146023 0.722123 113 89 40
1499.51 -63.4073 -1431.79 0.730977 -0.152409 0.635373 124 97 40
1502.62 -56.8685 -1433.24 0.761776 -0.176435 0.608669 134 105 43
1498.98 -48.1382 -1428.81 0.651852 -0.00916 0.748997 139 111 50
1502.2 -47.7508 -1431.92 0.714418 -0.0207803 0.690803 138 110 48
1484.72 -22.2401 -1428.68 0.355393 0.357334 0.845203 153 122 58
1485.91 -24.1792 -1428.73 0.377721 0.34254 0.850527 150 119 56
1325.35 -451.574 -1425.44 0.298293 0.152292 0.93468 86 101 153
1329.24 -455.289 -1426.28 0.280464 0.116607 0.950145 86 102 154
1326.86 -445.131 -1427.21 0.264592 0.201966 0.939096 85 100 152
1320.72 -447.802 -1424.74 0.268455 0.270341 0.898555 85 100 151
1320.76 -445.243 -1425.64 0.245111 0.323299 0.890775 85 99 149
1328.04 -428.155 -1426.76 -0.152953 -0.213894 0.935492 55 67 116
1324.03 -422.863 -1425.23 -0.200318 -0.284542 0.928163 62 73 122
1331.95 -424.352 -1424.26 -0.129011 -0.370581 0.900227 60 72 120
1338.01 -425.485 -1426.55 0.220344 -0.418694 0.863762 64 74 124
1334.52 -425.055 -1425.29 0.0119182 -0.380345 0.889266 61 72 121
1326.32 -419.471 -1422.9 -0.243254 -0.293713 0.928666 69 81 129
1322.69 -419.844 -1424.24 -0.201132 -0.27159 0.935094 67 79 127
1322.3 -412.985 -1422.19 -0.25109 -0.191427 0.94603 77 89 136
1334.17 -420.57 -1421.37 -0.158845 -0.431806 0.874582 67 77 125
1344.99 -417.081 -1424.29 0.272547 -0.377956 0.862469 74 84 134
1342.37 -413.578 -1422.11 0.335583 -0.26052 0.884834 73 83 133
1356.72 -425.291 -1426.9 -0.116627 -0.443921 0.881206 62 74 122
1358.87 -422.241 -1425.66 -0.0811734 -0.423428 0.8926 63 75 123
1367.8 -425.62 -1427.04 0.052906 -0.481409 0.869385 56 68 116
1363.82 -423.32 -1425.79 -0.0395629 -0.445694 0.883082 58 70 118
1345.61 -417.819 -1424.69 0.256367 -0.397989 0.859534 73 84 134
1351.63 -419.045 -1425.47 0.0599265 -0.405171 0.887569 71 83 132
1347.98 -408.85 -1422.77 0.188181 -0.17685 0.930819 63 72 122
1356.43 -411.638 -1422.89 -0.106459 -0.251871 0.94849 61 72 121
1361.89 -417.095 -1423.81 -0.0702078 -0.331168 0.926759 63 75 123
1368.99 -421.573 -1425.33 0.0360248 -0.416224 0.898194 60 72 120
1364.62 -414.924 -1423.11 -0.0483622 -0.286695 0.942929 61 73 121
1357.91 -412.411 -1422.9 -0.12083 -0.259622 0.948956 61 73 121
1364.46 -412.946 -1422.64 -0.0435312 -0.250565 0.95422 60 72 120
1375.71 -425.24 -1427.26 0.0299462 -0.457734 0.886768 59 71 122
1386.28 -422.77 -1426.52 0.0615271 -0.388665 0.904294 57 69 119
1391.78 -421.034 -1426.83 0.218095 -0.328784 0.8965 54 66 115
1370.99 -416.997 -1423.97 0.0391993 -0.321002 0.933656 60 72 120
1380.18 -417.766 -1425.11 0.0531491 -0.289179 0.942086 54 66 117
1371.41 -411.009 -1422.99 0.0991668 -0.216498 0.962181 52 64 112
1379.71 -410.22 -1424.23 0.128745 -0.174074 0.970637 44 56 106
1378.44 -411.919 -1424.11 0.118139 -0.195577 0.966303 47 59 109
1385.72 -419.651 -1425.78 0.0775041 -0.306322 0.92812 55 66 117
1388.24 -418.91 -1425.82 0.0989875 -0.27766 0.93161 54 66 116
1384.17 -409.951 -1424.61 0.0849011 -0.144664 0.979908 45 57 107
1388.63 -411.656 -1425.01 0.0708212 -0.139475 0.97774 48 60 109
1399.92 -409.336 -1425.86 0.050111 -0.23538 0.942161 50 62 108
1394.63 -412.951 -1426.18 0.193411 -0.192419 0.940635 48 60 108
1411.23 -415.707 -1427.19 -0.231533 -0.459878 0.847127 60 72 111
1416.64 -415.898 -1424.59 -0.293216 -0.408451 0.858591 56 66 106
1406.43 -408.913 -1424.54 -0.20642 -0.388699 0.867952 59 71 115
1412.43 -412.724 -1423.78 -0.268765 -0.523214 0.805034 65 75 115
1445.34 -173.355 -1421.49 0.397941 -0.139448 0.889747 123 96 43
1453.75 -178.176 -1423.92 0.120141 -0.00877065 0.990903 120 96 44
1447.68 -167.712 -1421.76 0.429289 -0.191314 0.870442 123 96 42
1450.24 -168.718 -1422.64 0.356817 -0.155344 0.900758 122 96 42
1459.33 -171.622 -1425.36 0.205368 -0.0025645 0.974592 123 99 45
1465.95 -176.469 -1426.54 0.343895 -0.0222851 0.892019 132 105 43
1459.08 -166.063 -1425.36 0.276277 -0.0289223 0.947814 123 99 46
1456.01 -170.424 -1424.39 0.236342 -0.0533462 0.957994 121 97 45
1464.1 -167.869 -1426.7 0.212592 0.0553547 0.977171 126 102 47
1453.64 -163.838 -1423.19 0.350393 -0.117288 0.914987 121 97 46
1453.39 -155.593 -1422.23 0.391335 -0.104165 0.912318 121 98 48
1454.32 -162.779 -1423.36 0.350923 -0.111275 0.917697 121 97 47
1461.02 -162.683 -1425.93 0.275413 -0.0287312 0.948747 124 101 47
1460.47 -156.518 -1425.54 0.32963 -0.0669987 0.930674 123 100 47
1465.7 -154.932 -1427.46 0.242591 -0.0671079 0.966232 129 106 49
1452.02 -152.246 -1421.49 0.384389 -0.0509139 0.917349 123 99 48
1452.02 -147.704 -1421.63 0.350806 0.0326297 0.930844 125 100 47
1457.68 -150.157 -1424.03 0.368175 -0.0524176 0.923208 121 98 46
1464.8 -148.088 -1427.24 0.357654 -0.0179995 0.932705 120 98 44
1458.28 -147.309 -1424.18 0.340716 -0.0183401 0.933028 121 98 45
1464.34 -143.797 -1426.4 0.29533 -0.0394626 0.948999 121 98 44
1451.75 -138.054 -1422.35 0.386256 0.0745614 0.91163 132 105 47
1450 -139.422 -1421.75 0.407114 0.0758828 0.906374 133 106 47
1449.41 -135.38 -1421.77 0.456306 0.0717146 0.884424 136 109 48
1456.79 -138.615 -1423.63 0.266593 0.0714752 0.950685 126 101 46
1462.04 -139.696 -1425.02 0.254782 0.00308805 0.954954 123 100 45
1454.66 -132.293 -1423.66 0.332225 0.0688072 0.919512 129 103 48
1464.63 -133.52 -1425.23 0.206377 0.0372286 0.963752 126 102 46
1452.39 -128.204 -1423.08 0.41035 0.00939739 0.890353 131 103 48
1448.24 -129.279 -1421.91 0.567773 -0.000207548 0.83108 136 106 50
1452.43 -124.186 -1423.01 0.367335 -0.0283309 0.913438 129 102 46
1458.72 -129.096 -1424.44 0.229304 0.057403 0.953152 127 102 46
1460.46 -125.372 -1424.73 0.191239 0.0136948 0.964628 126 101 46
