ply
format ascii 1.0
comment Created by Open3D
element vertex 743
property double x
property double y
property double z
property double nx
property double ny
property double nz
property uchar red
property uchar green
property uchar blue
end_header
-95.1006 -876.134 -2131.63 0.598623 0.0512759 -0.793913 41 44 42
-93.7786 -874.498 -2130.82 0.61471 0.0274676 -0.784799 41 44 42
-93.823 -865.059 -2131.2 0.544693 0.0532054 -0.832774 39 42 39
-95.4086 -857.438 -2130.76 0.553944 0.144752 -0.812197 39 42 39
-100.039 -853.564 -2132.32 0.54519 0.181089 -0.812113 40 43 40
-91.8903 -860.002 -2129.07 0.576837 0.116125 -0.800468 39 42 39
-79.6763 -943.327 -2133.18 0.803339 -0.179109 -0.570438 40 41 41
-78.7656 -927.687 -2133.28 0.79802 0.12279 -0.579271 40 42 42
-12.3475 -947.033 -2129.13 0.866479 -0.0767514 0.471582 50 54 49
-13.1122 -938.835 -2130.15 0.781142 0.100875 0.610626 50 54 49
-13.7245 -934.954 -2130.1 0.770873 0.0873911 0.629478 50 54 49
-13.9941 -929.398 -2129.87 0.788855 0.0386921 0.604378 50 54 49
-10.9881 -919.187 -2132.15 0.91213 0.0802899 0.353607 51 55 50
-10.2733 -914.237 -2134.28 0.96575 0.118376 0.171275 52 56 51
-11.2925 -904.763 -2130.94 0.950121 0.0162674 0.229895 56 59 57
-328.715 -351.179 -2132.72 -0.971005 0.107893 0.202858 54 58 54
-324.879 -338.425 -2130.31 -0.924811 0.322573 0.175448 56 62 59
-322.758 -332.222 -2132.25 -0.90983 0.376954 0.185103 56 63 60
-320.918 -327.463 -2134.45 -0.906578 0.36888 0.203645 56 62 58
-315.703 -319.449 -2128.98 -0.864131 0.328095 0.374326 60 64 62
-312.51 -307.562 -2131.83 -0.911578 0.334371 0.214198 56 60 58
-308.992 -299.449 -2130.63 -0.926959 0.333703 0.138203 57 62 59
-306.525 -289.68 -2132.79 -0.960362 0.246298 0.099213 57 62 59
-304.379 -282.548 -2130.19 -0.933458 0.258009 0.167055 58 62 60
-301.331 -269.432 -2133.3 -0.910282 0.262724 0.284123 57 60 57
-298.763 -262.705 -2132.16 -0.886688 0.290497 0.347472 56 59 57
-295.785 -254.319 -2132.14 -0.875697 0.339471 0.346424 57 59 57
-294.125 -247.851 -2134.56 -0.892569 0.344486 0.295703 57 58 55
-360.718 105.939 -2130.87 0.0715627 0.368421 0.926267 54 57 65
-377.282 109.002 -2134.13 0.0836418 0.288902 0.92806 71 71 77
-364.36 109.544 -2134.02 0.0787346 0.371582 0.928868 51 54 63
-356.355 108.391 -2133.37 0.0720062 0.399669 0.909784 55 56 65
-341.568 105.034 -2133.22 0.0512954 0.483653 0.879557 55 54 64
-335.521 103.235 -2131.68 -0.0333872 0.478944 0.881163 54 54 64
-328.849 104.11 -2130.22 -0.0845379 0.499571 0.865751 54 55 65
-215.641 224.532 -2129.84 -0.977631 0.178268 0.0385315 230 185 160
-213.573 235.586 -2129.9 -0.970853 0.100877 -0.139196 205 162 139
-231.335 270.327 -2132.83 -0.712909 -0.627321 0.176326 48 37 42
-234.209 273.029 -2134.17 -0.716251 -0.600021 0.264717 47 37 41
-238.015 283.764 -2133.27 -0.828736 -0.112146 0.451163 43 33 37
-217.844 248.822 -2129.66 -0.814325 -0.408857 -0.39942 64 49 47
-214.034 244.164 -2133.31 -0.904542 -0.184384 -0.216384 134 101 86
-222.772 260.363 -2131.81 -0.781652 -0.527598 -0.287947 50 40 41
-224.247 264.273 -2133.71 -0.722829 -0.645737 -0.114022 47 38 41
-234.425 294.105 -2133.92 -0.774848 0.430043 0.413715 39 31 35
-226.491 302.491 -2130 -0.711861 0.581719 0.37044 42 34 39
-223.526 307.807 -2129.62 -0.738826 0.537628 0.394763 45 37 44
-218.985 318.707 -2133.78 -0.80512 0.399188 0.281597 50 43 49
-149.801 96.1 -2131.18 0.064013 -0.408352 0.873945 214 186 167
-146.439 94.312 -2132.72 0.156717 -0.36624 0.865184 215 187 168
-137.168 105.109 -2130.44 0.486367 -0.434621 0.728474 210 185 166
-135.789 101.829 -2134.32 0.534213 -0.407726 0.742203 215 187 170
-133.915 114.527 -2129.84 0.626062 -0.201746 0.735328 200 182 165
-133.167 118.932 -2129.41 0.66428 -0.139627 0.713819 193 178 163
-131.995 134.957 -2134.32 0.834539 0.0684928 0.510156 216 188 165
-132.014 142.303 -2132.39 0.84063 -0.262069 0.445335 207 175 148
-128.908 121.411 -2134.3 0.776862 0.0256419 0.602926 202 184 168
-50.8685 46.2919 -2132.75 -0.115445 0.579824 0.788089 56 55 67
-45.4219 47.1775 -2133.39 0.0241898 0.596516 0.783253 55 54 68
-34.6902 45.0284 -2134.8 0.343267 0.409622 0.817981 54 53 65
-184.103 -1191.78 -2138.89 0.301473 0.540387 0.154324 101 83 71
-182.199 -1192.12 -2140.51 0.193135 0.512253 0.177275 101 83 72
-184.021 -1193.85 -2130.66 0.549333 0.625898 0.116111 127 103 85
-61.5059 -947.885 -2139.32 0.823872 -0.0128101 -0.304457 46 48 46
-58.5172 -939.435 -2129 0.864561 -0.0471741 -0.436719 42 44 43
-59.4155 -932.076 -2131.52 0.835161 0.0217439 -0.439061 43 45 44
-62.2144 -933.398 -2140.73 0.810638 0.0317379 -0.39055 46 49 46
-59.3156 -926.963 -2129.66 0.823347 0.0896787 -0.463474 43 45 44
-61.7975 -917.142 -2135.31 0.79666 0.136282 -0.446337 45 48 46
-63.4093 -919.488 -2141.31 0.796972 0.0877715 -0.42197 47 49 47
-62.4435 -911.695 -2136.23 0.794219 0.134203 -0.436475 46 48 46
-62.4069 -903.443 -2134.69 0.790469 0.124559 -0.390729 46 48 46
-61.6442 -903.763 -2132.07 0.788676 0.144981 -0.406488 45 47 45
-63.0582 -898.715 -2136.56 0.783082 0.0933451 -0.332441 46 49 47
-62.0723 -890.451 -2132.48 0.761523 0.0740649 -0.267251 46 49 47
-62.2855 -892.995 -2133.42 0.768216 0.0851109 -0.282464 46 49 47
-63.7972 -882.047 -2137.39 0.757095 0.0187816 -0.162314 48 51 49
-61.7371 -880.556 -2130.7 0.742173 0.05021 -0.216455 46 50 47
-62.6362 -875.42 -2133.38 0.739298 0.0241356 -0.163219 47 51 48
-65.15 -872.296 -2140.55 0.753811 -0.012712 -0.0934779 49 52 50
-61.2612 -868.98 -2128.56 0.729341 0.0446248 -0.213249 46 50 48
-64.3345 -859.062 -2135.3 0.760642 0.0208924 -0.187686 48 51 49
-65.7728 -857.479 -2138.7 0.775691 0.0100022 -0.169925 48 52 49
-63.215 -851.865 -2131.52 0.74276 0.0427599 -0.245512 47 51 49
-294.838 -1219.28 -2128.97 -0.171652 0.2618 0.0635033 64 55 51
-287.949 -1212.19 -2126.73 0.153933 0.568983 0.00676994 62 53 49
-282.703 -1209.38 -2122.49 0.256877 0.55445 -0.0641248 64 52 48
-285.35 -1188.13 -2125.69 -0.848833 0.157078 0.424257 100 90 81
-283.423 -1182.23 -2128.73 -0.799168 0.404142 0.367318 87 78 71
-277.06 -1209.73 -2124.94 0.0875928 0.790123 -0.177924 69 55 49
-268.146 -1207.05 -2127.8 -0.266484 0.822745 -0.296019 109 86 72
-262.985 -1199.61 -2124.55 -0.565064 0.73599 -0.124303 141 107 86
-276.357 -1191.1 -2125.46 -0.74857 0.391413 0.203736 151 125 106
-259.945 -1193.17 -2125.42 -0.65582 0.668274 0.0209431 169 130 105
-268.077 -1182.82 -2129.02 -0.674081 0.636217 0.152557 183 148 125
-274.818 -1173.89 -2126.75 -0.650343 0.692893 0.262083 110 96 84
-260.924 -1178.14 -2125.85 -0.663301 0.607262 0.151359 181 146 122
-258.757 -1176.17 -2125.86 -0.648555 0.605782 0.161691 182 146 123
-250.382 -1181.32 -2128.66 -0.859099 0.443119 0.0846693 229 186 160
-244.097 -1177.57 -2123.41 -0.786021 0.480145 0.372766 231 189 162
-266.99 -1171.52 -2123.32 -0.4837 0.796062 0.305668 140 121 103
-255.725 -1172.42 -2125.37 -0.565193 0.668905 0.225677 184 149 125
-240.968 -1170.24 -2124.91 -0.417085 0.601301 0.476426 216 176 150
-236.91 -1165.55 -2127.57 -0.190938 0.669538 0.588109 207 170 143
-346.858 -552.005 -2124.45 -0.93397 0.150587 0.284218 53 56 58
-346.422 -542.328 -2123.13 -0.954297 -0.0344658 0.242229 54 57 58
-351.291 -528.948 -2128.21 -0.899552 -0.258336 0.283165 51 55 56
-353.999 -503.041 -2127.56 -0.928514 0.0847845 0.306631 53 57 58
-352.592 -521.088 -2125.59 -0.893219 -0.19158 0.395522 52 56 57
-351.901 -508.328 -2122.48 -0.879529 -0.0309151 0.479712 55 59 60
-351.707 -494.177 -2126.9 -0.919818 0.214848 0.193828 52 56 57
-349.542 -485.583 -2126.04 -0.949262 0.17747 0.089487 52 56 56
-348.402 -472.882 -2124.14 -0.951397 -0.0259968 0.257538 53 57 56
-348.874 -465.521 -2126.79 -0.92616 0.0590854 0.348709 53 57 56
-345.388 -455.403 -2123.99 -0.896799 0.189571 0.400694 56 60 58
-15.9453 -1047.58 -2124.28 0.923826 0.199817 0.312883 48 52 46
-18.8792 -1026.7 -2122.42 0.897834 0.0244324 0.436966 47 51 48
-17.5233 -1027.33 -2124.83 0.903994 0.0156229 0.421742 47 51 48
-16.3685 -1012.57 -2125.25 0.900427 -0.0760308 0.422536 49 52 48
-14.442 -1006.07 -2127.43 0.901852 -0.0534419 0.420747 50 54 49
-15.151 -1002.77 -2125.88 0.894644 -0.0370438 0.437886 50 54 49
-74.6208 -988.385 -2122.94 0.875077 -0.0537213 -0.46999 46 48 47
-62.7598 -994.334 -2126.4 0.812484 -0.00213102 -0.307959 46 48 48
-61.8836 -992.308 -2123.23 0.812442 0.00317873 -0.34225 46 48 47
-76.41 -974.536 -2126.96 0.854931 0.0725539 -0.483437 44 46 46
-61.8552 -981.037 -2126.47 0.832472 -0.000712125 -0.337299 46 49 47
-77.4579 -970.155 -2127.92 0.830857 0.083016 -0.490561 42 44 44
-76.6466 -967.367 -2125.52 0.845386 0.0735749 -0.471132 42 44 44
-78.2587 -951.337 -2126.4 0.845395 -0.0586769 -0.474857 41 42 42
-14.255 -996.479 -2126.7 0.876859 0.0397228 0.480405 50 54 49
-13.4273 -992.512 -2127.39 0.872751 0.0716558 0.490022 51 55 50
-14.9409 -984.869 -2126.42 0.879128 0.0821602 0.465095 51 55 49
-129.101 -657.555 -2125.07 0.704934 -0.0231512 -0.71279 42 44 46
-10.6385 -747.846 -2124.45 0.949042 0.144436 0.10059 51 54 54
-8.6024 -733.651 -2126.55 0.927298 -0.180706 0.00694903 49 53 52
-8.0013 -731.838 -2125.72 0.926578 -0.240161 0.0535111 48 53 52
-4.8381 -715.683 -2123.63 0.951145 -0.0987407 0.2708 50 54 53
-4.21078 -711.696 -2124.41 0.953884 -0.0870072 0.232163 51 55 54
-7.69991 -683.78 -2122.73 0.874745 0.117053 0.462474 50 54 53
-3.93458 -696.993 -2125.82 0.940747 0.039589 0.254287 51 55 54
-4.61101 -686.938 -2126.89 0.930029 0.0921476 0.325159 50 54 53
-6.31919 -674.195 -2125.26 0.860924 -0.002435 0.494085 49 53 53
-309.311 -302.568 -2125.67 -0.945443 0.285032 0.151183 57 62 59
-306.033 -292.812 -2123.04 -0.92863 0.291603 0.178058 59 63 61
-303.743 -282.174 -2127.58 -0.906446 0.296484 0.227105 59 63 60
-301.713 -276.506 -2128.68 -0.883422 0.303484 0.293997 58 62 59
-296.937 -268.659 -2124.88 -0.846186 0.289768 0.443564 58 61 59
-296.323 -263.549 -2126.06 -0.865252 0.27681 0.418175 57 60 58
-290.817 -250.211 -2125.01 -0.82405 0.374079 0.404046 57 59 55
-286.987 -246.313 -2124.34 -0.706967 0.437148 0.521825 56 57 54
-286.659 -237.349 -2128.06 -0.724822 0.334205 0.567253 58 57 54
-281.93 -231.716 -2125.64 -0.647908 0.309652 0.666754 96 91 86
-279.407 -206.606 -2127.1 -0.854077 -0.305956 0.0353501 59 57 59
-291.194 -198.087 -2126.05 -0.856042 -0.507121 -0.00631009 44 41 49
-282.534 -204.544 -2129.48 -0.871603 -0.259155 0.0305586 45 49 56
-295.073 -185.839 -2127.17 -0.984416 -0.11684 0.096804 38 35 43
-293.501 -174.604 -2124.83 -0.977057 0.115703 0.177165 39 36 44
-291.86 -166.826 -2123.82 -0.957898 0.215685 0.193736 41 39 47
-289.549 -157.431 -2127.61 -0.952868 0.227615 0.187332 38 36 43
-188.82 121.572 -2126.81 -0.642695 -0.132305 0.629244 208 183 161
-189.131 128.329 -2123.44 -0.735053 -0.16367 0.60662 211 189 165
-194.196 129.669 -2128.81 -0.732428 -0.125899 0.615969 207 188 166
-190.906 130.958 -2124.71 -0.743725 -0.179961 0.599784 207 187 164
-196.708 144.946 -2127.86 -0.867596 -0.0351746 0.479111 219 189 160
-195.942 155.803 -2123.51 -0.961387 -0.0176215 0.0782433 203 163 136
-196.409 165.835 -2125.04 -0.920104 -0.108649 -0.260205 203 161 135
-228.905 295.808 -2125.96 -0.731463 0.548124 0.390012 42 34 39
-222.736 303.47 -2123.82 -0.752936 0.516939 0.39857 46 39 46
-220.311 313.397 -2127.76 -0.768227 0.471815 0.392691 48 40 47
-1.48252 -449.238 -2127.46 0.914857 0.17043 0.310486 57 62 60
-3.69436 -433.774 -2123.08 0.901604 -0.0752015 0.291276 52 56 54
-2.44932 -431.73 -2128.5 0.959857 -0.0138247 0.222069 52 56 54
-7.76664 -413.47 -2125.34 0.903795 0.172308 0.370629 54 60 56
-9.13772 -408.501 -2125.16 0.925913 0.212896 0.280179 53 57 55
-4.31547 -421.605 -2126.64 0.899673 0.218606 0.338192 56 62 59
-42.2732 -73.0858 -2128.31 0.929086 -0.33881 -0.0342735 29 28 36
-40.9405 -59.6088 -2124.39 0.948009 -0.09421 0.250457 28 27 34
-148.019 43.6714 -2123.95 0.0438595 0.552671 0.831572 229 208 197
-120.661 42.5538 -2123.47 0.144563 0.618907 0.754578 229 206 196
-108.257 35.6309 -2128.1 0.526515 0.503127 0.683789 231 207 197
-111.706 37.0662 -2126.1 0.489197 0.505299 0.695093 230 207 196
-97.3158 28.5669 -2124.85 0.139706 0.74207 0.641466 244 221 212
-89.6677 29.3687 -2125.53 0.0399023 0.797082 0.611266 247 228 219
-82.3277 29.3284 -2126.2 0.0440873 0.760531 0.646082 241 226 220
-41.3064 -47.808 -2124.76 0.922944 -0.164269 0.185792 26 25 32
-208.691 -1117.49 -2121.07 -0.456908 -0.107873 0.815393 80 70 62
-204.289 -1111.32 -2117.57 -0.446087 -0.0533871 0.783843 94 81 71
-203.399 -1119.41 -2118.45 -0.429855 -0.00811556 0.791297 98 85 74
-274.71 -1076.64 -2117.68 0.338454 -0.587123 0.631278 43 47 43
-267.846 -1067.43 -2118.01 0.734661 -0.383213 0.528596 45 49 44
-268.21 -1067.18 -2117.34 0.725128 -0.393431 0.5318 45 49 44
-262.894 -1059.57 -2122.01 0.81101 -0.269132 0.513687 45 48 44
-264.686 -1052.68 -2116.36 0.828682 -0.125121 0.527298 45 48 44
-344.178 -1044.95 -2118.48 -0.803299 -0.153897 0.582384 45 49 48
-347.763 -1036.34 -2121.08 -0.823601 -0.0350102 0.558498 46 50 50
-348.342 -1029.37 -2122.55 -0.791797 0.0726782 0.530751 43 47 45
-328.443 -1026.36 -2121.76 -0.589862 0.0552576 0.662819 44 47 45
-339.225 -1018.3 -2117.64 -0.80161 0.265669 0.496344 43 47 46
-337.715 -1014.55 -2118.29 -0.790694 0.254715 0.520309 43 47 46
-335.408 -1002.24 -2120.65 -0.874155 0.126523 0.452579 44 48 46
-326.392 -1024.77 -2119.75 -0.655112 0.13424 0.64912 44 48 45
-319.182 -1024.4 -2117.95 -0.708223 0.131546 0.653765 44 48 45
-247.418 -796.448 -2121.06 0.750548 -0.053258 0.656125 43 47 46
-248.093 -786.084 -2118.11 0.767846 -0.105987 0.628584 43 47 46
-244.912 -779.622 -2120.84 0.727708 -0.127745 0.672296 43 47 46
-245.524 -774.659 -2119.12 0.722046 -0.13877 0.676052 43 47 46
-244.791 -766.38 -2118.3 0.704934 -0.152319 0.685634 44 48 47
-242.689 -753.736 -2117.1 0.644306 -0.126348 0.751629 43 47 46
-237.197 -751.563 -2121.01 0.614005 -0.0693927 0.783409 42 47 46
-336.666 -750.81 -2119.11 -0.827624 -0.150496 0.492781 51 55 54
-340.013 -741.864 -2119.4 -0.847574 -0.314519 0.390138 50 54 53
-344.011 -729.616 -2118.68 -0.818476 -0.30414 0.456768 52 56 55
-346.605 -725.659 -2120.18 -0.820638 -0.28589 0.458021 52 56 56
-346.788 -715.653 -2119.7 -0.866767 -0.0231 0.474079 51 56 55
-346.67 -711.538 -2120.23 -0.860166 0.0570984 0.472805 51 56 55
-341.356 -702.486 -2118.75 -0.741114 0.263104 0.578167 52 57 56
-23.175 -1087 -2120.27 0.586834 -0.735262 0.285038 57 60 53
-18.1407 -1083.73 -2121.56 0.687149 -0.614364 0.329554 57 59 53
-11.8857 -1070.84 -2119.05 0.872868 -0.159478 0.399809 54 56 50
-12.0141 -1066.81 -2118.37 0.907119 0.0111361 0.385945 54 56 50
-13.2835 -1060.48 -2118.74 0.927124 0.127172 0.34408 53 56 51
-81.0473 -1043.06 -2120.03 0.785676 -0.401681 -0.25465 39 39 39
-71.163 -1046.86 -2116.66 0.540911 -0.0415711 0.164145 46 47 47
-76.2013 -1038.33 -2118.23 0.652686 -0.154447 0.256105 45 47 46
-72.4547 -1040.65 -2116.07 0.554262 -0.0260459 0.202645 46 48 47
-68.44 -1008.05 -2118.22 0.768024 -0.0694718 -0.0658396 46 48 48
-66.086 -1006.45 -2122.27 0.762859 -0.0655993 -0.0571786 46 48 48
-126.415 -661.001 -2121.74 0.704351 -0.0132181 -0.710425 42 45 47
-124.095 -654.621 -2119.02 0.724612 0.0205643 -0.688924 43 46 49
-12.7508 -750.105 -2119.14 0.91652 0.0261034 0.331426 50 54 53
-10.5387 -734.608 -2118.23 0.932514 -0.153436 0.237828 50 54 53
-9.64427 -729.959 -2118.5 0.922087 -0.183931 0.264688 49 54 53
-6.22051 -716.058 -2120.88 0.928442 -0.0879164 0.348092 50 54 53
-7.76817 -710.669 -2117.46 0.874379 -0.0326863 0.4068 51 55 54
-5.44509 -703.733 -2120.91 0.884457 0.0324737 0.320265 52 56 54
-9.2029 -689.13 -2118.72 0.870785 0.13674 0.458747 50 55 54
-10.3579 -686.365 -2118.52 0.8656 0.1271 0.473515 50 54 53
-5.66773 -698.341 -2121.18 0.88497 0.0936937 0.353456 51 55 54
-9.66928 -676.625 -2121.23 0.840677 0.0387566 0.523667 50 54 53
-6.55536 -658.71 -2122.71 0.845687 -0.0974227 0.511225 48 53 52
-7.38537 -657.348 -2120.96 0.861651 -0.0965436 0.484616 48 53 53
-564.578 25.023 -2121.29 -0.154835 -0.911019 0.383503 178 150 135
-563.843 26.035 -2118.21 -0.11966 -0.910127 0.386049 179 150 135
-549.726 25.8946 -2122.17 0.0431119 -0.900796 0.396872 185 155 141
-544.409 26.4816 -2122.13 0.101992 -0.903323 0.405068 189 157 143
-532.031 29.6819 -2117.46 0.16695 -0.81856 0.513575 198 165 150
-522.979 29.6204 -2121.26 0.130412 -0.88175 0.456398 186 152 140
-516.941 31.5881 -2118.77 0.120485 -0.866823 0.485996 192 155 143
-506.423 33.3192 -2117.66 0.126764 -0.828747 0.530969 202 162 148
-502.387 33.5843 -2118.26 0.15349 -0.835837 0.518701 202 161 147
-485.534 37.1024 -2121.94 0.198668 -0.835322 0.511875 211 172 158
-479.635 39.0251 -2120.09 0.166849 -0.816878 0.550014 218 180 166
-475.106 39.6185 -2119.21 0.120346 -0.786214 0.595508 219 180 166
-471.03 40.3916 -2118.48 0.10133 -0.723505 0.664234 220 183 168
-462.17 37.2312 -2121.53 0.0346964 -0.691609 0.713743 209 172 159
-457.423 38.1787 -2121.03 0.0405678 -0.636378 0.756551 210 174 161
-441.914 39.3959 -2121.78 0.105368 -0.469291 0.851631 212 177 164
-433.915 42.3315 -2122.21 0.228862 -0.275256 0.916282 219 188 175
-186.954 127.516 -2121.29 -0.735469 -0.193128 0.613518 212 187 164
-188.02 136.133 -2120.26 -0.761367 -0.25257 0.594115 203 179 152
-190.976 139.199 -2122.47 -0.779533 -0.21252 0.59332 201 181 154
-192.872 149.254 -2117.98 -0.923086 -0.169012 0.208371 201 162 135
-198.227 160.133 -2116.69 -0.952144 -0.148571 -0.198952 197 154 127
-198.33 164.496 -2119.08 -0.922012 -0.188147 -0.293345 202 157 132
-52.2216 -279.593 -2117.41 0.819694 0.214545 0.508285 63 64 63
-51.6885 -264.172 -2120.39 0.882649 0.0970902 0.450626 57 58 57
-52.8802 -259.371 -2117.74 0.871785 0.12784 0.412953 63 62 59
-65.2153 -243.647 -2117.59 0.459363 0.779877 0.404567 202 182 162
-61.7406 -245.415 -2117.2 0.500457 0.762625 0.365777 197 178 158
-71.3308 -239.58 -2120.01 0.465685 0.705215 0.511996 183 164 147
-79.8022 -232.723 -2119.05 0.760744 0.242454 0.56711 136 121 108
-75.4654 -225.829 -2121.97 0.672814 -0.10311 0.542565 78 69 66
-71.9021 -221.83 -2118.68 0.639103 -0.50922 0.422479 42 38 42
-61.4025 -213.257 -2118.34 0.850763 -0.394521 0.294406 41 40 47
-60.9777 -205.967 -2117.02 0.849407 0.103151 0.453056 44 42 50
-33.6479 -34.0848 -2122.75 0.874464 -0.358497 0.244043 32 31 39
-33.3352 -27.808 -2121.97 0.892932 -0.1294 0.379859 35 35 44
-35.0573 -20.1665 -2119.54 0.835254 -0.0198604 0.543533 41 40 51
-32.7266 -8.49617 -2118.83 0.731202 -0.1367 0.65141 43 42 51
-56.4345 11.4717 -2116.58 0.256281 0.394795 0.877382 54 53 65
-56.1354 15.1053 -2118.34 0.212965 0.417004 0.878018 53 53 65
-30.3384 -2.67953 -2121.26 0.736869 -0.0298979 0.661209 44 43 51
-33.7863 2.64408 -2119.97 0.594221 0.259555 0.736813 47 47 56
-46.6135 11.1621 -2119.12 0.195038 0.417256 0.881492 53 52 65
-50.57 18.0647 -2120.75 0.162166 0.385928 0.90551 53 52 64
-45.9722 17.0015 -2121.45 0.2136 0.376743 0.896529 54 53 64
-42.0587 15.9451 -2122.46 0.298499 0.386709 0.867086 53 52 64
-72.6033 21.2287 -2118.79 0.152443 0.59742 0.764461 122 116 121
-67.6523 22.5432 -2121.46 0.140565 0.616871 0.753309 113 108 114
-57.683 22.0273 -2121.92 0.0718633 0.485518 0.866336 56 55 67
-29.7711 1.55647 -2122.39 0.702456 0.102897 0.690722 46 45 53
-168.425 -1199.73 -2119.08 -0.582936 0.66636 0.211352 87 77 70
-177.951 -1196.37 -2125.76 0.285834 0.639045 0.152221 131 108 91
-167.409 -1196.7 -2126.86 -0.577102 0.605708 0.248182 111 97 87
-169.882 -1161.39 -2127.77 -0.292824 0.656195 0.437584 204 174 153
-175.448 -1163.65 -2125.04 -0.064794 0.656097 0.461737 201 167 145
-155.905 -1161.31 -2116.78 -0.251999 0.777919 0.418781 217 188 165
-165.514 -1161.67 -2123.8 -0.303618 0.660808 0.4764 203 174 153
-139.975 -1153.79 -2116.53 -0.316595 0.526506 0.565289 186 159 138
-121.748 -1149.28 -2121.76 0.0646121 0.470731 0.438226 143 124 108
-115.426 -1157.8 -2116.93 0.0024103 0.70523 0.424144 163 140 123
-111.823 -1152.12 -2127.32 0.311357 0.652534 0.302399 194 166 143
-108.626 -1157.51 -2127.69 0.299391 0.744972 0.269685 213 182 156
-273.334 -1069.07 -2112.4 0.579991 -0.557708 0.573235 44 48 45
-273.326 -1067.5 -2111.16 0.589082 -0.564294 0.568706 44 48 45
-268.061 -1057.82 -2112.19 0.751051 -0.315084 0.527839 45 48 45
-264.461 -1049.26 -2115.94 0.839619 -0.0586994 0.53235 46 47 44
-340.149 -1045.47 -2114.64 -0.737617 -0.148793 0.652874 45 49 48
-340.96 -1037.11 -2113.96 -0.701808 -0.113095 0.690638 44 48 47
-339.863 -1030.53 -2112.54 -0.650119 -0.0277078 0.732261 43 47 46
-338.375 -1021.25 -2114.08 -0.728531 0.186827 0.599515 43 47 46
-334.317 -1012.27 -2114.72 -0.776999 0.272633 0.550184 44 48 47
-330.278 -1010.27 -2110.74 -0.679917 0.201421 0.671414 44 48 46
-321.148 -1020.15 -2115.08 -0.601845 0.128175 0.705055 44 48 45
-320.387 -1016.95 -2114 -0.563716 0.101269 0.707073 44 48 44
-313.085 -1014.29 -2113.93 -0.670323 0.16812 0.583317 43 47 44
-322.461 -1009.85 -2114.85 -0.545852 0.102354 0.74132 44 48 44
-326.188 -1005.44 -2111.56 -0.582194 0.105066 0.743152 44 48 45
-322.534 -1004.08 -2114.89 -0.561298 0.119021 0.747684 44 48 45
-308.359 -1009.24 -2116.01 -0.772804 0.270041 0.542688 43 47 44
-304.184 -1000.37 -2113.63 -0.671405 0.0780371 0.664543 44 48 44
-226.275 -689.347 -2111.47 0.510096 -0.161708 0.83038 42 46 48
-224.227 -677.891 -2111.53 0.58382 -0.0124169 0.808186 42 46 48
-219.76 -677.35 -2115.44 0.664739 0.0290637 0.742776 41 45 48
-227.391 -665.396 -2110.21 0.655639 0.052284 0.755255 43 47 49
-223.569 -662.705 -2114.01 0.636635 0.0343655 0.769753 44 49 50
-224.771 -651.805 -2112.58 0.579478 -0.13769 0.794316 45 49 50
-222.108 -655.838 -2115.01 0.583706 -0.0708448 0.799524 45 49 51
-342.934 -642.927 -2114.15 -0.857448 -0.115214 0.407068 52 56 55
-343.897 -634.217 -2116.53 -0.8706 -0.0163428 0.441285 51 56 55
-340.909 -628.113 -2113.61 -0.793526 0.0411914 0.594095 52 57 57
-342.327 -620.61 -2115.55 -0.818372 -0.0390094 0.517207 52 56 55
-341.512 -612.775 -2111.62 -0.839979 -0.150682 0.483708 52 56 54
-342.627 -605.26 -2110.91 -0.85737 -0.121651 0.458573 52 56 55
-344.909 -597.495 -2113.23 -0.896682 -0.0691486 0.362181 51 56 56
-343.251 -590.175 -2111.11 -0.86088 -0.0424422 0.455421 50 55 55
-348.322 -578.531 -2116.69 -0.923998 -0.111671 0.345818 50 55 55
-81.7646 -878.524 -2116.9 0.805107 0.0634636 -0.591615 43 46 44
-82.0278 -854.598 -2115.38 0.779824 0.161346 -0.594249 43 46 43
-71.4678 -944.707 -2111.23 0.880769 -0.129152 -0.454863 44 44 44
-56.3027 -948.221 -2110.88 0.633355 -0.0409231 -0.622686 46 47 47
-55.5082 -940.053 -2115.89 0.749493 -0.0935543 -0.507975 44 45 45
-67.7369 -928.494 -2112.05 0.857645 -0.0856478 -0.491046 45 46 46
-55.1259 -940.634 -2111.71 0.650373 -0.107298 -0.48942 46 47 47
-69.0391 -919.399 -2113.23 0.84452 0.10238 -0.509813 44 46 46
-68.65 -915.945 -2110.92 0.838855 0.140178 -0.516687 45 47 46
-55.9744 -915.51 -2110.42 0.703715 0.171591 -0.599809 46 48 48
-70.805 -910.164 -2111.67 0.817926 0.204932 -0.532775 44 46 45
-72.277 -903.455 -2109.87 0.82242 0.199274 -0.53319 44 46 44
-57.3738 -904.254 -2112.39 0.738781 0.17937 -0.586484 45 47 46
-23.7171 -947.128 -2111.64 0.854359 0.152553 0.47494 48 52 47
-23.1807 -943.408 -2113.76 0.844435 0.0937801 0.475327 48 52 47
-22.3839 -927.531 -2113.39 0.921862 -0.0785019 0.323212 48 52 47
-22.4592 -922.04 -2112.49 0.933608 -0.108865 0.288692 49 53 48
-21.3457 -912.813 -2115.99 0.91206 -0.156975 0.327695 50 54 49
-77.5381 -895.856 -2115.5 0.771395 0.15499 -0.437171 43 46 43
-76.2791 -890.305 -2111.78 0.798254 0.124428 -0.487331 43 46 43
-57.0382 -889.041 -2110.95 0.777858 0.106272 -0.574866 45 48 45
-79.6685 -887.578 -2115.58 0.770942 0.117571 -0.607536 42 45 42
-8.13309 -509.568 -2112.24 0.7672 0.0568138 0.572731 50 56 53
-7.46712 -506.437 -2113.95 0.812988 -0.0195687 0.498564 50 55 51
-4.18044 -519.057 -2113.18 0.784516 0.0168319 0.560337 50 56 55
-5.34272 -507.866 -2115.62 0.765738 0.0107537 0.558496 50 55 53
-5.57353 -496.375 -2114.75 0.731321 -0.0603553 0.645779 52 58 55
-3.88447 -487.708 -2114.62 0.881266 -0.0526414 0.353625 51 57 55
-7.82499 -472.058 -2111.48 0.768737 0.0383484 0.54413 53 59 55
-12.6482 -465.132 -2109.94 0.700228 0.17805 0.66671 52 56 53
-5.71807 -453.766 -2116.22 0.78548 0.070741 0.529409 58 62 59
-4.48934 -474 -2116.04 0.922322 0.015462 0.292866 52 59 56
-772.835 40.4342 -2114.8 0.00716992 -0.747601 0.533307 188 162 147
-694.384 42.2702 -2116.26 -0.0843948 -0.897842 0.4334 169 143 127
-677.497 41.3321 -2115.17 -0.0907001 -0.899995 0.436805 174 145 133
-672.397 42.6346 -2110.64 -0.091049 -0.890643 0.463315 179 149 136
-663.33 41.0584 -2111.57 -0.105142 -0.869736 0.490791 182 153 139
-655.61 38.8952 -2114.52 -0.112936 -0.872072 0.469892 178 152 139
-646.72 37.368 -2116.25 -0.089295 -0.86428 0.486657 182 157 145
-627.02 36.0175 -2111.97 -0.115939 -0.816281 0.553106 189 162 149
-621.396 35.2966 -2111.67 -0.13275 -0.844599 0.502068 186 159 148
-619.275 33.7385 -2116.09 -0.120777 -0.892273 0.415621 180 154 143
-606.949 34.4879 -2110.87 -0.124198 -0.89909 0.418492 189 162 149
-577.737 29.9307 -2113.28 -0.101433 -0.875338 0.445337 188 158 144
-589.726 32.5743 -2112.13 -0.097638 -0.877985 0.447442 191 164 149
-587.82 32.3325 -2112.02 -0.094152 -0.86314 0.468351 193 165 151
-759.619 45.4668 -2114.38 0.16835 -0.813418 0.476364 172 144 130
-744.058 45.6924 -2116.15 0.0390718 -0.857895 0.465932 165 138 125
-740.911 45.5867 -2115.02 0.0103121 -0.845549 0.481881 166 139 125
-737.946 46.2553 -2111.51 -0.00986004 -0.843064 0.495801 165 137 123
-272.771 -1062.26 -2108.06 0.591412 -0.523483 0.592699 44 48 45
-272.762 -1060.81 -2107.16 0.600576 -0.497935 0.600449 44 48 45
-268.991 -1052.1 -2108.13 0.799494 -0.177432 0.535019 45 48 45
-333.993 -1046.15 -2109.44 -0.559349 -0.130168 0.815131 46 50 49
-332.995 -1038.69 -2107.85 -0.523753 -0.0765601 0.842278 45 49 48
-333.233 -1031.86 -2107.44 -0.530078 -0.0376951 0.842505 44 48 46
-328.571 -1029.13 -2105.04 -0.449909 0.0082578 0.877617 43 47 45
-329.231 -1020.88 -2105.25 -0.532554 0.0949151 0.803117 44 48 46
-329.404 -1017.61 -2106.21 -0.584052 0.152393 0.757659 44 48 46
-327.259 -1036.75 -2105.01 -0.424065 0.0197338 0.889334 45 49 46
-324.202 -1030.34 -2104.48 -0.353394 0.0286557 0.92852 43 47 45
-326.633 -1012.42 -2106.09 -0.527709 0.120056 0.778563 44 48 46
-324.733 -1003.1 -2108.61 -0.552788 0.0487539 0.780897 44 48 44
-309.742 -1008.11 -2109.14 -0.695588 0.192906 0.543408 43 47 42
-312.567 -1001.61 -2109.36 -0.501376 0.0243447 0.78973 44 48 43
-341.585 -575.244 -2106.38 -0.741857 0.00952717 0.659246 51 56 56
-339.664 -571.843 -2104.38 -0.714351 0.0443571 0.693535 52 57 57
-342.778 -557.658 -2110.67 -0.856423 0.160105 0.481832 54 59 59
-337.999 -551.208 -2105.96 -0.831424 0.14189 0.525244 54 59 58
-230.191 -644.522 -2106.25 0.638656 -0.171895 0.745651 45 48 49
-225.062 -641.533 -2108.6 0.545711 -0.261031 0.785179 44 48 50
-217.195 -632.825 -2107.65 0.411791 -0.417382 0.809098 45 48 51
-222.459 -631.826 -2104.56 0.436511 -0.44346 0.786497 45 49 51
-216.183 -629.991 -2106.37 0.414033 -0.388165 0.815366 45 48 52
-210.69 -625.974 -2106.62 0.425662 -0.357732 0.823629 44 48 52
-207.481 -619.859 -2105.19 0.438632 -0.266673 0.849766 45 49 52
-200.07 -621.141 -2109.62 0.530397 -0.353611 0.765354 44 48 51
-197.796 -615.758 -2109.28 0.611417 -0.21133 0.749352 44 48 51
-198.016 -603.705 -2109 0.587034 -0.0804628 0.808411 45 49 52
-205.619 -598.973 -2105.09 0.493312 -0.0498935 0.861209 45 49 52
-67.8269 -938.156 -2107.15 0.833555 -0.154984 -0.502334 46 46 46
-55.4779 -945.211 -2104.79 0.567572 -0.109416 -0.188065 46 48 47
-65.0919 -935.368 -2103.85 0.759564 -0.149666 -0.60739 47 47 47
-54.3541 -937.484 -2108.4 0.532408 -0.150346 0.276398 46 48 47
-54.133 -934.704 -2107.31 0.512374 -0.149134 0.381724 46 48 47
-65.3366 -920.999 -2107.13 0.78998 0.0254022 -0.594996 47 48 48
-64.9323 -914.022 -2104.53 0.764138 0.148546 -0.620077 46 48 48
-56.3731 -912.97 -2110 0.710369 0.188131 -0.639238 46 48 48
-69.6797 -905.966 -2106.49 0.817163 0.20689 -0.535773 44 47 45
-57.6975 -906.412 -2105.07 0.685641 0.185791 -0.687615 47 49 49
-54.8661 -920.714 -2106.81 0.61781 0.0598436 -0.156925 47 49 48
-24.8081 -949.219 -2109.05 0.861819 0.181092 0.480281 48 51 47
-25.2003 -935.204 -2107.92 0.903548 -0.0751044 0.377094 48 52 48
-24.4919 -928.26 -2105.03 0.957977 -0.0854606 0.242415 48 52 48
-23.5482 -918.596 -2107.91 0.944565 -0.112479 0.267836 49 53 49
-23.4081 -911.072 -2109.43 0.931991 -0.129746 0.26071 51 55 50
-72.1683 -894.277 -2106.05 0.81516 0.159233 -0.552388 44 46 44
-72.2198 -888.771 -2104.54 0.821042 0.131328 -0.555233 44 47 44
-57.1217 -898.355 -2109.71 0.740926 0.147001 -0.593236 45 48 46
-73.7432 -886.528 -2106.65 0.830819 0.110052 -0.532642 43 46 43
-73.8122 -875.169 -2104.39 0.852439 0.0212248 -0.524248 42 45 42
-168.317 -527.223 -2106.75 0.116421 0.14095 -0.900509 28 29 34
-170.647 -518.699 -2106.43 0.0708743 0.160421 -0.732113 26 27 31
-174.016 -514.504 -2110.38 0.00900348 0.204699 -0.705035 25 26 30
-173.852 -501.863 -2105.12 0.0536331 0.23722 -0.587058 29 30 33
-169.34 -493.19 -2107.57 0.166598 0.19538 -0.355204 34 35 38
-24.7687 -550.521 -2107.68 0.675821 -0.135241 0.695646 52 56 55
-9.13997 -548.701 -2105.61 0.807255 0.163506 0.547837 50 57 58
-11.1236 -540.813 -2104.96 0.800072 0.0443636 0.587914 52 58 58
-9.42139 -537.94 -2107.52 0.817007 -0.0107079 0.574428 52 58 59
-5.645 -552.268 -2108.8 0.870994 0.153926 0.41286 52 58 59
-9.3471 -516.358 -2107.96 0.777531 0.033126 0.563321 50 56 54
-279.175 -80.6595 -2108.73 -0.878553 -0.0731127 0.473016 33 32 39
-279.459 -67.7159 -2106.75 -0.912956 -0.148855 0.348911 30 30 35
-277.302 -153.029 -2107.45 -0.729793 0.312772 0.602204 42 40 48
-275.945 -148.144 -2108.34 -0.735603 0.238024 0.626254 41 39 48
-276.466 -142.701 -2109.16 -0.744741 0.0977719 0.658228 40 38 46
-276.931 -135.194 -2109.51 -0.758172 0.0212068 0.655941 41 39 47
-275.28 -125.091 -2107.42 -0.831241 -0.0312565 0.544894 41 39 47
-275.195 -116.389 -2105.96 -0.848024 -0.0324937 0.509152 38 36 45
-274.192 -106.651 -2106.4 -0.801241 0.11738 0.581834 36 34 43
-274.956 -102.174 -2106.67 -0.85731 -0.0540592 0.460019 35 33 41
-276.884 -93.0602 -2106.63 -0.899447 -0.130331 0.395312 34 32 39
-278.351 -79.6413 -2106.92 -0.880939 -0.0736518 0.467664 33 32 39
-798.651 31.6836 -2106.46 0.335711 -0.873306 0.356501 175 151 137
-789.85 35.0396 -2109.25 0.341375 -0.882291 0.341177 170 147 134
-785.944 37.3795 -2106.09 0.329558 -0.87001 0.36519 177 155 141
-298.806 47.2722 -2110.42 -0.229622 -0.0853232 0.964984 47 46 54
-291.562 54.3895 -2110.09 -0.0528579 0.0959893 0.981182 50 51 59
-280.516 45.5964 -2107.35 -0.289333 0.252015 0.913758 54 55 63
-280.562 51.8699 -2108.76 -0.206186 0.21486 0.940218 54 55 63
-23.84 -374.1 -2110.62 0.695395 0.0563682 0.593106 61 65 62
-28.6963 -363.333 -2108.99 0.857282 0.284586 0.332647 59 63 60
-32.4783 -353.274 -2108.09 0.87923 0.203827 0.333832 58 62 59
-37.6664 -335.694 -2104.08 0.706332 0.176615 0.612909 63 66 62
-37.5329 -332.443 -2107.3 0.753046 0.214382 0.56292 65 67 64
-42.8015 -318.991 -2109.14 0.614836 0.39727 0.591333 68 72 68
-42.3655 -318.603 -2110.15 0.642178 0.400026 0.5644 69 72 69
-45.2764 -315.753 -2107.63 0.581674 0.235655 0.639921 66 70 67
-42.925 -305.192 -2108.76 0.680358 -0.0168844 0.743997 62 65 63
-57.5143 -293.614 -2106.17 0.450234 0.271363 0.783297 66 69 66
-59.1293 -287.049 -2105.75 0.594996 0.21497 0.738835 61 63 63
-56.2542 -283.956 -2109.77 0.758863 0.332001 0.528279 62 63 62
-45.3043 -298.587 -2109.13 0.512258 0.332989 0.756254 71 74 69
-50.0696 -293.307 -2109.13 0.605862 0.380349 0.632715 67 69 66
-179.146 -679.12 -2103.68 0.540874 0.113017 -0.677804 39 42 45
-178.682 -670.806 -2112.07 0.646812 0.0176806 -0.160037 39 42 46
-179.147 -674.912 -2114.69 0.735386 -0.110343 0.322176 39 43 46
-177.81 -663.938 -2110.22 0.578508 0.130849 -0.525919 40 42 46
-176.544 -652.055 -2111.53 0.554329 0.228845 -0.665599 39 41 47
-59.8806 -745.434 -2106.62 0.640355 -0.107194 0.415385 51 55 54
-62.6369 -745.848 -2114.98 0.63564 -0.0671785 0.431197 51 55 54
-60.8887 -736.759 -2111.47 0.643853 -0.14359 0.432729 51 55 54
-60.0362 -734.938 -2109.84 0.646033 -0.156095 0.444614 52 55 54
-62.27 -734.62 -2115.12 0.636235 -0.128224 0.41387 51 55 54
-60.703 -718.623 -2111.76 0.628551 -0.128783 0.413864 51 55 54
-63.3693 -723.57 -2117.63 0.632185 -0.13782 0.386066 51 55 54
-57.9129 -715.797 -2106.3 0.583336 -0.0842569 0.377544 52 55 54
-59.2924 -706.501 -2105.18 0.536946 -0.0281492 0.286452 51 55 54
-62.4416 -709.422 -2113.64 0.598039 -0.0573121 0.36761 51 55 54
-61.5131 -704.978 -2109.78 0.56056 -0.020779 0.326148 51 55 54
-63.0758 -699.121 -2111.22 0.541488 0.016931 0.335924 51 55 54
-62.9234 -698.476 -2110.54 0.532955 0.0201913 0.327359 51 55 54
-63.4086 -693.934 -2109.67 0.498859 0.0437741 0.309824 51 55 54
-65.1075 -684.7 -2111.29 0.519888 0.0785386 0.358012 50 54 53
-62.8562 -687.267 -2105.59 0.441682 0.0721053 0.253037 50 55 54
-64.9833 -677.498 -2108.5 0.450496 0.083209 0.225806 50 54 54
-65.3428 -669.003 -2105.26 0.452883 0.0839645 0.313063 50 55 54
-66.1004 -675.183 -2110.88 0.516532 0.0828268 0.349605 50 54 54
-67.7843 -663.984 -2110.89 0.566564 0.075521 0.47508 50 55 54
-71.6346 -653.716 -2114.71 0.589462 0.049742 0.416615 50 54 53
-70.7865 -657.118 -2114.41 0.585206 0.0605938 0.435209 50 54 53
-66.5308 -657.837 -2104.46 0.533979 0.0478534 0.44221 50 55 54
-330.059 -824.654 -2100.55 -0.76329 0.0964404 0.432109 50 54 52
-312.729 -848.852 -2102.62 -0.673541 0.143735 0.722494 49 53 50
-310.8 -838.514 -2099.56 -0.755867 -0.0850751 0.623367 51 55 52
-327.882 -826.163 -2099.11 -0.741388 0.0471114 0.487636 50 54 52
-314.056 -833.241 -2100.54 -0.742627 -0.143396 0.625229 51 55 52
-318.679 -823.562 -2099.18 -0.763275 -0.225719 0.568403 51 55 52
-323.457 -814.613 -2100.25 -0.820661 -0.321129 0.379726 50 54 51
-323.612 -807.781 -2101.28 -0.869386 0.0254971 0.32849 51 55 52
-319.792 -800.446 -2099.22 -0.802379 0.151128 0.527555 51 55 52
-323.699 -791.152 -2104.14 -0.776141 0.0351843 0.630324 51 55 52
-320.214 -786.932 -2099.63 -0.753638 0.0376602 0.658722 52 56 53
-320.658 -777.585 -2100.81 -0.78339 -0.0107882 0.597293 52 56 52
-329.642 -733.15 -2099.55 -0.744773 -0.164194 0.610028 50 55 53
-329.596 -727.577 -2099.9 -0.700644 -0.167981 0.676382 50 54 52
-331.745 -723.263 -2102.42 -0.728392 -0.0985577 0.644248 51 54 53
-326.381 -745.88 -2100.89 -0.745406 -0.227036 0.58508 50 54 52
-327.972 -737.973 -2100.3 -0.73135 -0.187452 0.604341 50 54 52
-324.334 -714.287 -2099.65 -0.6829 0.229135 0.643811 48 53 52
-323.266 -705.896 -2100.51 -0.799744 0.207243 0.51857 49 54 53
-328.333 -688.04 -2103.51 -0.641686 -0.407829 0.603207 51 55 54
-329.934 -671.766 -2100.87 -0.654192 -0.248776 0.6945 51 55 55
-333.257 -668.257 -2102.68 -0.742358 -0.137049 0.617283 51 56 56
-332.938 -662.351 -2102.03 -0.670179 -0.169713 0.679396 52 56 56
-334.731 -655.29 -2102.76 -0.695596 -0.073641 0.660338 51 56 56
-323.163 -694.348 -2100.55 -0.779544 -0.0543141 0.575349 50 54 53
-42.3742 -1048.07 -2102.03 0.625684 -0.037097 0.736461 45 47 47
-48.0668 -1035.84 -2102.48 0.641795 -0.126716 0.749384 47 49 49
-23.8638 -1047.15 -2101.39 0.854267 0.169955 0.48034 48 48 45
-25.4234 -1031.15 -2104.2 0.931876 0.103156 0.321526 47 50 45
-25.8736 -1027.48 -2103.69 0.926866 0.0594924 0.34175 46 49 45
-26.4147 -1021.72 -2103.25 0.923842 0.0223713 0.359945 45 49 44
-25.5431 -1006.4 -2103.92 0.924784 -0.0450195 0.370214 46 51 45
-26.41 -1003.89 -2101.24 0.896941 -0.0339656 0.403115 46 50 46
-57.2162 -991.039 -2099.18 0.203185 0.0785921 0.475743 46 48 48
-57.498 -981.103 -2098.19 -0.00380669 0.102069 0.863315 46 48 48
-48.6667 -992.42 -2100.33 0.33653 0.166854 0.932082 46 49 48
-46.7344 -989.761 -2098.89 0.369284 0.152037 0.941639 46 49 48
-45.011 -985.903 -2099.47 0.351055 0.152245 0.947901 45 48 47
-52.4128 -978.126 -2102.71 0.223961 0.0927321 0.920776 46 48 47
-41.7529 -978.581 -2102.37 0.558437 0.120359 0.784948 45 48 45
-54.9686 -967.536 -2100.44 0.205064 -0.0852186 0.519689 47 49 49
-60.6258 -957.423 -2100.66 0.450391 0.142837 -0.555779 47 49 49
-63.5986 -954.989 -2099.39 0.559278 0.134837 -0.624026 46 48 48
-56.8115 -952.917 -2100.9 0.454496 -0.00910585 -0.777876 47 49 49
-44.7114 -971.438 -2098.28 0.486826 -0.00483209 0.804527 45 49 47
-43.7991 -968.515 -2102.4 0.670205 -0.0220754 0.67707 46 50 47
-19.0544 -700.089 -2100.42 0.754866 0.000605848 0.672943 48 54 55
-17.5394 -697.714 -2102.36 0.772957 0.0178175 0.630151 49 55 56
-19.1467 -687.386 -2102.21 0.741856 0.205612 0.582647 50 56 56
-19.8486 -674.72 -2103.26 0.758293 0.11778 0.565327 50 55 54
-19.0515 -669.275 -2103.1 0.776946 -0.0066549 0.578999 49 54 54
-16.976 -654.609 -2100.62 0.865805 0.00226169 0.473337 47 53 55
-110.657 -646.835 -2100.78 0.736637 0.213229 -0.641212 45 49 51
-111.518 -642.66 -2100.01 0.749376 0.209923 -0.628321 44 48 51
-112.277 -636.934 -2098.69 0.756949 0.192964 -0.62446 45 49 52
-117.826 -623.983 -2103.01 0.747663 0.153133 -0.643669 44 48 52
-115.486 -615.488 -2099.34 0.687438 0.0835498 -0.714879 44 48 51
-118.058 -607.125 -2100.84 0.618193 0.108608 -0.773664 44 48 51
-116.891 -614.896 -2100.82 0.678517 0.115012 -0.7178 44 48 51
-328.831 -400.406 -2098.8 -0.832627 0.267236 0.460229 57 61 59
-327.317 -389.824 -2102.75 -0.891102 0.385925 0.149669 52 57 55
-323.146 -383.016 -2099.55 -0.85764 0.364851 0.283028 56 61 60
-319.271 -373.622 -2102.62 -0.861847 0.421084 0.194537 54 58 56
-315.765 -364.125 -2101.69 -0.841996 0.209048 0.373185 57 62 60
-315.156 -355.675 -2103.44 -0.911039 0.094207 0.286862 59 64 61
-311.254 -347.787 -2098.87 -0.782728 0.315483 0.468182 65 69 66
-309.566 -340.944 -2102.61 -0.800834 0.341405 0.453891 66 70 67
-308.033 -332.437 -2102.85 -0.883864 0.185623 0.375584 64 68 65
-306.706 -319.633 -2103.71 -0.901588 0.147403 0.361945 65 68 66
-274.513 -89.4152 -2100.8 -0.875421 -0.118195 0.460415 35 33 40
-274.497 -80.4985 -2098.93 -0.882295 -0.0735156 0.465327 34 32 39
-278.122 -68.2196 -2103.21 -0.909954 -0.182035 0.352201 30 30 35
-278.805 -58.6704 -2099.78 -0.879327 -0.185698 0.42558 31 31 37
-878.898 33.2343 -2102.48 -0.291548 0.0776429 0.949084 152 106 95
-878.554 39.1868 -2099.71 -0.29547 0.0963761 0.94942 148 102 92
-869.704 29.7114 -2098.76 -0.268342 -0.0124408 0.949579 183 138 123
-868.469 28.2413 -2099.32 -0.268654 -0.0228522 0.948892 186 141 126
-850.596 21.3509 -2099.24 -0.291148 -0.0913506 0.92965 187 145 130
-845.818 20.8997 -2098.79 -0.326135 -0.20002 0.901532 190 153 138
-835.092 19.8185 -2098.82 -0.372694 -0.332846 0.867518 195 163 150
-798.085 32.6741 -2103.84 0.343831 -0.873222 0.361763 179 155 141
-793.411 36.1304 -2100.2 0.349392 -0.86741 0.375043 184 163 150
-777.865 41.8884 -2099.1 0.0276987 -0.595695 0.57449 191 162 147
-884.095 45.3661 -2103.19 -0.298193 0.0926049 0.949071 161 116 105
-883.061 52.3997 -2103.87 -0.300662 0.0905339 0.949211 179 135 124
-875.923 61.634 -2103.48 -0.296927 0.102857 0.948291 191 150 140
-869.459 59.0566 -2098.11 -0.272463 0.196452 0.938925 219 183 170
-872.934 64.4929 -2103.57 -0.300517 0.15933 0.936467 210 173 163
-862.433 64.8121 -2098.57 -0.304603 0.261472 0.915741 244 212 201
-861.757 69.2508 -2101.58 -0.303152 0.251869 0.916794 235 201 189
-854.559 75.1808 -2103.24 -0.283011 0.206267 0.930389 208 168 151
-839.574 80.3355 -2099.56 -0.28105 0.203935 0.931763 207 167 150
-90.6543 -225.134 -2098.05 0.632599 -0.46494 0.617878 40 39 46
-85.995 -221.377 -2098.35 0.591137 -0.569509 0.573852 29 30 38
-80.0893 -178.473 -2099.03 0.757529 -0.213005 0.599236 34 34 44
-72.538 -253.244 -2099.87 0.498646 0.513408 0.636941 158 144 131
-76.5833 -218.484 -2101.04 0.547352 -0.621115 0.553444 35 33 40
-72.5713 -211.985 -2101.81 0.649967 -0.391647 0.594054 39 38 45
-73.403 -208.181 -2101.1 0.68566 -0.176624 0.620835 41 40 47
-78.8362 -192.433 -2100.85 0.705874 0.210047 0.665875 40 39 50
-79.1508 -189.386 -2101.35 0.722089 0.131659 0.656433 39 38 48
-78.3743 -177.145 -2100.19 0.732226 -0.255573 0.616357 34 33 43
-72.7696 -172.033 -2103.6 0.687669 -0.335328 0.644313 33 32 41
-72.7969 -166.636 -2101.2 0.737275 -0.260121 0.617595 32 31 41
-102.908 285.709 -2104.14 0.569039 -0.428637 0.426532 57 42 41
-152.588 341.448 -2101.34 0.202443 0.608194 0.568217 74 67 71
-136.52 337.72 -2098.96 0.114851 0.711772 0.676522 64 55 59
-107.21 310.485 -2102.4 0.741585 0.385659 0.551678 52 39 41
-108.761 313.614 -2103.32 0.740775 0.353664 0.53911 55 41 43
-100.773 294.69 -2103.93 0.61299 -0.181709 0.384343 58 42 42
-118.369 328.078 -2101.22 0.75407 0.190683 0.375521 75 59 59
-113.855 320.124 -2101.52 0.750309 0.262748 0.451134 65 50 51
-121.228 332.115 -2103.44 0.761631 0.186653 0.374922 75 59 59
-127.239 336.491 -2103.72 0.571226 0.338697 0.474323 70 56 57
-317.332 -858.31 -2097.68 -0.73692 0.198579 0.642034 49 53 50
-318.751 -852.953 -2095.1 -0.712758 0.0920233 0.641564 50 54 51
-313.411 -853.764 -2096.96 -0.689806 0.169341 0.672052 50 54 51
-276.657 -941.795 -2096.64 0.532511 -0.229235 0.810191 47 51 49
-277.567 -926.084 -2096.12 0.738424 0.0735451 0.654941 47 51 47
-277.639 -917.875 -2096.85 0.797818 0.0747946 0.567643 48 52 49
-277.254 -905.44 -2095.13 0.405692 -0.117083 0.576921 46 51 47
-272.724 -893.853 -2096.85 0.725825 -0.251562 0.63438 47 51 48
-273.003 -887.449 -2093.08 0.724583 -0.230953 0.646252 47 51 48
-268.825 -875.393 -2096.55 0.823568 0.00679814 0.529295 46 50 47
-268.929 -873.513 -2097.06 0.831936 0.0301228 0.524344 46 50 47
-271.205 -864.144 -2096.36 0.854725 0.0678913 0.527298 47 51 48
-273.566 -854.673 -2092.61 0.777435 -0.0449216 0.601541 46 52 49
-329.244 -849.434 -2094.06 -0.723591 -0.113532 0.623882 49 53 52
-334.616 -838.614 -2096.26 -0.850285 -0.165616 0.469058 50 54 52
-335.399 -825.232 -2097.31 -0.807391 0.238052 0.420502 50 54 53
-329.22 -587.517 -2093.26 -0.736671 -0.0519941 0.660969 53 58 58
-330.991 -581.365 -2096.02 -0.735226 -0.0460542 0.668024 53 58 57
-329.868 -569.073 -2094.22 -0.68565 -0.0185077 0.719206 54 59 59
-330.672 -560.476 -2095.97 -0.729993 0.00952339 0.681158 53 58 58
-328.432 -574.631 -2092.46 -0.672152 -0.010605 0.729611 54 59 59
-242.807 -647.075 -2093.39 0.707772 -0.0523565 0.703795 44 48 49
-240.157 -651.435 -2096.7 0.705573 -0.0437589 0.705186 45 48 49
-244.34 -639.812 -2091.67 0.696578 -0.0412323 0.717063 45 49 50
-240.351 -636.079 -2095 0.626959 -0.139376 0.753466 45 49 50
-234.151 -628.597 -2095.81 0.486046 -0.318059 0.807069 46 49 51
-230.073 -624.222 -2095.81 0.450064 -0.360788 0.814422 45 49 50
-227.296 -622.577 -2096.65 0.457811 -0.356782 0.811662 45 48 50
-225.668 -619.831 -2096.55 0.456693 -0.295676 0.830206 45 48 50
-229.026 -610.667 -2092.26 0.571921 -0.129029 0.809589 47 51 52
-228.685 -602.061 -2092.38 0.650898 -0.140845 0.746016 45 49 50
-32.0396 -962.885 -2097.78 0.859605 0.0881163 0.479561 44 51 46
-34.4414 -959.881 -2094.16 0.888403 0.0418723 0.420099 44 51 45
-33.1796 -951.53 -2096.77 0.887308 -0.0143051 0.423172 45 50 45
-28.9632 -987.449 -2093.29 0.916793 0.0384666 0.385905 47 51 46
-28.5442 -982.758 -2096.54 0.871818 0.0687605 0.417284 47 51 47
-63.0355 -946.685 -2097.31 0.519474 -0.0399694 -0.813608 47 48 48
-56.7647 -949.546 -2096.6 0.398859 -0.0501374 -0.947869 48 49 49
-56.3834 -943.68 -2091.48 0.178409 0.0517964 -1.0041 48 50 50
-54.8082 -948.331 -2095.53 0.347277 -0.0516874 -0.74376 48 49 49
-51.1485 -942.063 -2096.04 0.331311 -0.0916184 0.753332 47 49 49
-32.4073 -945.349 -2095.98 0.904937 -0.0975773 0.364761 45 50 45
-54.7056 -935.558 -2095.85 0.357587 -0.0940961 -0.0783789 47 49 49
-22.7087 -701.125 -2095.8 0.749322 -0.00198014 0.696877 48 54 55
-22.249 -689.274 -2097.3 0.725811 0.0618779 0.687941 49 55 56
-24.3646 -687.143 -2094.65 0.719472 -0.00983811 0.698847 49 55 56
-22.9348 -671.332 -2094.71 0.886701 -0.0777562 0.4406 49 54 55
-23.5608 -668.371 -2092.26 0.901896 -0.0940482 0.419923 48 54 55
-22.509 -660.923 -2093.56 0.831492 -0.0423257 0.546634 48 54 55
-106.874 -648.12 -2096.65 0.717154 0.206918 -0.659012 45 49 51
-105.732 -644.62 -2093.9 0.701389 0.20428 -0.671059 45 49 51
-108.721 -635.816 -2094.21 0.72716 0.165072 -0.661212 45 49 52
-107.359 -632.097 -2091.64 0.707763 0.123965 -0.69146 46 50 53
-108.09 -621.037 -2091.65 0.667046 0.00990255 -0.743867 47 51 54
-109.912 -614.394 -2093.84 0.650294 -0.000970372 -0.75889 45 49 52
-108.723 -608.987 -2093.07 0.612713 0.0398044 -0.781984 45 49 52
-107.911 -605.169 -2092 0.590783 0.102055 -0.789322 46 50 53
-267.012 -248.303 -2096.08 -0.592915 0.472889 0.615339 52 52 52
-263.217 -245.155 -2095.4 -0.573189 0.444724 0.646354 54 53 50
-258.817 -241.672 -2094.37 -0.51629 0.548772 0.624807 84 78 70
-251.014 -238.222 -2093.23 -0.344509 0.638459 0.683819 146 133 119
-251.457 -235.158 -2096.64 -0.444642 0.598556 0.657576 155 141 125
-240.367 -231.9 -2093.43 -0.394905 0.378387 0.824388 151 136 121
-271.459 -205.036 -2097 -0.622706 -0.408682 0.658978 48 46 53
-259.983 -211.691 -2095.48 -0.484584 -0.727581 0.459152 54 50 54
-243.369 -223.181 -2095.77 -0.589016 0.0962365 0.747478 112 97 85
-236.834 -229.04 -2092.38 -0.407272 0.217851 0.877969 149 131 114
-250.587 -214.302 -2094.54 -0.554487 -0.60468 0.460196 68 59 58
-720.437 53.623 -2097.81 0.0846966 -0.545099 0.774304 196 158 137
-716.442 58.6175 -2096.36 0.0634674 -0.315348 0.880854 216 179 159
-715.694 66.8281 -2097.45 -0.0147356 0.14709 0.966598 248 220 205
-711.544 58.0919 -2097.08 0.0394509 -0.354462 0.87306 218 183 162
-710.561 67.7393 -2096.82 -0.0463696 0.0901918 0.975581 249 222 208
-707.632 63.0252 -2096.28 -0.00102397 -0.134238 0.969656 241 209 190
-695.939 66.6168 -2096.78 0.0717775 -0.0911136 0.988999 251 224 206
-691.579 64.8605 -2097.08 0.0775764 -0.120186 0.988344 250 222 204
-685.765 66.0311 -2097.53 0.0423218 -0.0866574 0.992445 251 226 211
-709.336 71.2909 -2097.26 -0.0737158 0.150963 0.975416 251 229 218
-706.496 75.1515 -2097.67 -0.0904891 0.170262 0.979614 251 233 226
-678.067 73.4682 -2097.36 -0.052563 -0.0753998 0.994537 254 233 221
-674.237 68.1696 -2097 -0.0141727 -0.172929 0.977438 252 227 215
-668.407 67.5867 -2096.32 0.00311059 -0.280987 0.955567 250 226 213
-662.03 66.3367 -2096.45 -0.00654375 -0.323012 0.944539 248 224 210
-647.82 58.7004 -2097.47 -0.0389208 -0.257202 0.957475 234 207 193
-648.994 61.8382 -2096.98 -0.0226906 -0.228435 0.965453 242 216 202
-671.282 68.6695 -2096.47 -0.00872216 -0.232067 0.965917 252 228 215
-672.989 75.8988 -2096.35 -0.0518664 -0.163869 0.97894 254 234 221
-661.28 74.1446 -2094.39 -0.0497211 -0.305024 0.951985 254 233 219
-652.868 68.2096 -2095.68 -0.0208778 -0.254425 0.959777 250 228 214
-662.776 78.2283 -2094.78 -0.0547905 -0.285575 0.95668 253 234 220
-648.485 69.0412 -2096.39 0.0566366 -0.172418 0.97383 252 230 216
-649.401 78.4777 -2096.15 0.0335291 -0.207664 0.96873 252 233 219
-633.67 79.5432 -2097.31 -0.032642 -0.183982 0.960549 255 237 229
-614.629 48.6491 -2096.72 -0.22406 -0.361591 0.892053 225 198 183
-615.723 54.3721 -2096.16 -0.223527 -0.223346 0.946228 236 211 196
-604.538 47.274 -2094.02 -0.225952 -0.411645 0.853911 228 200 186
-611.258 54.9981 -2095.02 -0.237588 -0.200604 0.945484 239 214 199
-622.122 59.5735 -2097.4 -0.213467 -0.139909 0.969364 243 221 208
-621.216 66.3671 -2095.07 -0.252098 -0.233684 0.936648 252 232 223
-618.386 63.7059 -2095 -0.233313 -0.209396 0.94819 249 229 218
-606.055 56.7087 -2093.66 -0.239721 -0.155881 0.947419 242 219 204
-613.219 66.8437 -2092.18 -0.145609 -0.280873 0.938164 252 233 222
-600.499 44.6932 -2093.12 -0.194906 -0.518091 0.809319 225 196 182
-584.191 44.2518 -2094.5 0.0518619 -0.668654 0.743024 226 195 180
-584.9 50.0481 -2091.87 0.172139 -0.372956 0.863493 239 214 198
-597.065 61.8819 -2092.39 -0.105378 0.0327663 0.967244 249 232 217
-592.137 68.5306 -2092.92 0.101212 0.00824383 0.971681 253 238 225
-542.247 81.8052 -2102.38 -0.045425 -0.150547 0.972982 254 244 232
-540.537 87.1968 -2103.98 -0.0706547 -0.144756 0.973887 254 244 232
-570.977 99.2378 -2103.33 0.137794 -0.0640196 0.958634 252 239 226
-561.525 95.6837 -2103.8 0.160211 -0.074303 0.968377 254 243 230
-325.602 -817.468 -2085.72 -0.479607 0.40872 0.70811 51 55 54
-319.112 -807.897 -2087.99 -0.68119 0.194213 0.508907 51 55 53
-328.409 -786.546 -2091.02 -0.696721 -0.152473 0.581378 50 56 53
-316.457 -799.957 -2085.8 -0.716445 0.0734863 0.586364 50 54 53
-318.415 -791.902 -2085.65 -0.669037 -0.11694 0.690533 48 53 52
-315.211 -793.745 -2089.92 -0.67979 0.0123189 0.684561 49 54 52
-318.365 -785.402 -2091.41 -0.711613 -0.0200366 0.68409 51 56 53
-327.449 -776.315 -2088.09 -0.700181 -0.069431 0.683136 49 55 53
