ply
format ascii 1.0
comment Created by Open3D
element vertex 1460
property double x
property double y
property double z
property uchar red
property uchar green
property uchar blue
end_header
-47.1105 -1043.07 -1367 40 43 59
-44.0395 -1046.07 -1371 42 45 60
-40.8908 -1047.55 -1373 46 49 62
-37.6782 -1047.5 -1373 49 50 65
-34.7422 -1055.85 -1384 45 46 62
-167.265 -1018.64 -1323 53 45 54
-163.128 -1012.29 -1315 46 44 54
-160.126 -1012.87 -1316 44 44 60
-156.644 -1010.37 -1313 44 43 59
-152.711 -1004.8 -1306 46 44 61
-149.728 -1005.39 -1307 50 48 65
-146.518 -1004.45 -1306 55 51 68
-143.095 -1001.97 -1303 56 56 75
-140.01 -1001.81 -1303 56 58 78
-136.926 -1001.64 -1303 56 58 79
-133.125 -996.105 -1296 51 56 73
-130.262 -997.487 -1298 52 57 76
-127.194 -997.336 -1298 53 59 78
-124.32 -998.725 -1300 49 55 74
-121.623 -1001.65 -1304 42 54 73
-118.455 -1000.74 -1303 45 55 75
-115.381 -1000.61 -1303 51 59 80
-112.05 -998.169 -1300 55 63 84
-109.153 -999.576 -1302 56 60 81
-105.678 -995.611 -1297 52 56 77
-102.781 -997.024 -1299 50 54 75
-99.6454 -996.138 -1298 50 54 74
-96.7392 -997.558 -1300 52 57 76
-93.8964 -999.747 -1303 54 59 79
-91.0407 -1001.94 -1306 55 61 80
-88.3065 -1005.67 -1311 54 59 78
-85.4849 -1008.64 -1315 53 59 78
-82.6452 -1011.61 -1319 50 56 74
-79.6068 -1012.28 -1320 47 52 71
-76.7383 -1015.26 -1324 49 51 71
-73.852 -1018.23 -1328 47 51 71
-71.001 -1021.98 -1333 45 48 68
-68.0253 -1024.2 -1336 45 47 68
-65.182 -1028.72 -1342 43 46 66
-62.3112 -1033.25 -1348 41 45 65
-59.3692 -1037.01 -1353 40 46 65
-56.3628 -1040.01 -1357 42 48 66
-53.4166 -1044.54 -1363 40 46 64
-50.3691 -1047.55 -1367 40 45 62
-47.2345 -1049.02 -1369 41 44 60
-44.2196 -1053.57 -1375 43 45 61
-40.9981 -1053.52 -1375 44 47 60
-37.8595 -1055.77 -1378 47 48 62
-34.9335 -1064.92 -1390 48 47 63
-166.45 -1016.78 -1315 52 47 55
-162.327 -1010.4 -1307 46 47 57
-159.585 -1012.53 -1310 43 46 57
-156.232 -1010.79 -1308 43 45 57
-152.54 -1006.75 -1303 45 47 61
-149.561 -1007.34 -1304 49 50 66
-146.467 -1007.16 -1304 51 53 73
-143.264 -1006.22 -1303 55 56 75
-140.175 -1006.05 -1303 55 56 75
-137.088 -1005.89 -1303 53 55 76
-133.796 -1004.19 -1301 48 53 71
-130.717 -1004.03 -1301 48 54 72
-127.737 -1004.65 -1302 50 56 74
-124.849 -1006.04 -1304 48 55 72
-122.047 -1008.21 -1307 45 55 74
-119.049 -1008.84 -1308 46 56 76
-115.871 -1007.93 -1307 51 60 81
-112.699 -1007.02 -1306 55 62 84
-109.449 -1005.35 -1304 56 60 82
-106.21 -1003.68 -1302 55 59 80
-103.298 -1005.1 -1304 53 57 77
-100.07 -1003.44 -1302 50 55 73
-97.2253 -1005.63 -1305 49 53 73
-94.2955 -1007.06 -1307 51 56 75
-91.4967 -1010.04 -1311 51 57 76
-88.8824 -1015.32 -1318 52 58 75
-85.9107 -1016.76 -1320 54 58 78
-83.1814 -1021.28 -1326 51 55 75
-80.0021 -1020.42 -1325 46 50 70
-77.2926 -1025.71 -1332 45 48 68
-74.1057 -1024.85 -1331 42 45 65
-71.3508 -1030.16 -1338 42 45 65
-68.258 -1030.85 -1339 41 45 65
-65.453 -1036.16 -1346 41 45 65
-62.5232 -1039.93 -1351 39 43 64
-59.6145 -1044.48 -1357 41 46 66
-56.5952 -1047.49 -1361 43 48 67
-53.6754 -1052.81 -1368 43 49 67
-50.5388 -1054.29 -1370 43 48 65
-47.4625 -1057.31 -1374 44 48 65
-44.3036 -1058.79 -1376 43 47 63
-41.1058 -1059.51 -1377 46 49 62
-38.0689 -1064.85 -1384 49 50 62
-35.075 -1072.5 -1394 50 50 64
-171.59 -1032.16 -1329 56 46 56
-167.155 -1024.19 -1319 53 48 57
-163.018 -1017.78 -1311 51 50 60
-160.14 -1019.14 -1313 48 47 61
-156.777 -1017.4 -1311 47 46 60
-153.072 -1013.34 -1306 48 47 61
-149.968 -1013.16 -1306 50 51 67
-146.865 -1012.98 -1306 53 54 70
-143.544 -1011.26 -1304 56 57 72
-140.664 -1012.64 -1306 55 56 70
-137.461 -1011.7 -1305 53 55 75
-134.47 -1012.31 -1306 48 55 75
-131.375 -1012.16 -1306 47 53 73
-128.477 -1013.55 -1308 49 53 73
-125.668 -1015.73 -1311 45 53 72
-122.845 -1017.9 -1314 47 55 74
-119.737 -1017.76 -1314 51 58 78
-116.63 -1017.62 -1314 54 60 80
-113.178 -1014.38 -1310 51 57 78
-109.831 -1011.93 -1307 51 55 77
-106.662 -1011.03 -1306 55 59 80
-103.816 -1013.22 -1309 58 62 82
-100.496 -1010.78 -1306 57 62 79
-97.7878 -1014.53 -1311 59 61 81
-95.0569 -1018.29 -1316 54 57 77
-92.1638 -1020.5 -1319 50 54 74
-89.1223 -1021.17 -1320 47 53 70
-86.1424 -1022.61 -1322 50 54 75
-83.468 -1027.92 -1329 49 53 74
-80.3383 -1027.83 -1329 43 47 68
-77.5 -1031.6 -1334 39 43 63
-74.3603 -1031.51 -1334 39 41 61
-71.7019 -1038.38 -1343 40 43 63
-68.5937 -1039.07 -1344 39 43 63
-65.8223 -1045.18 -1352 37 43 62
-62.8285 -1048.19 -1356 37 41 62
-59.9047 -1052.76 -1362 38 42 62
-56.8284 -1055.01 -1365 40 44 63
-53.8172 -1058.81 -1370 41 46 63
-50.6352 -1059.52 -1371 44 49 66
-47.4838 -1061.01 -1373 45 47 65
-44.3557 -1063.27 -1376 43 44 61
-41.1542 -1063.99 -1377 47 48 62
-38.1688 -1070.9 -1386 52 53 65
-35.2927 -1082.45 -1401 54 53 65
-30.4369 -1147.27 -1485 52 47 58
-171.278 -1033.41 -1325 56 47 57
-167.101 -1026.97 -1317 52 47 59
-163.71 -1025.21 -1315 48 47 58
-160.698 -1025.8 -1316 46 45 58
-157.682 -1026.39 -1317 43 42 56
-153.959 -1022.3 -1312 46 45 59
-150.607 -1020.56 -1310 53 54 70
-147.378 -1019.61 -1309 58 59 75
-144.046 -1017.88 -1307 58 59 74
-140.94 -1017.71 -1307 54 55 69
-138.047 -1019.1 -1309 51 53 73
-135.248 -1021.27 -1312 48 53 73
-132.034 -1020.33 -1311 47 52 72
-128.925 -1020.17 -1311 48 52 72
-126.201 -1023.13 -1315 45 52 71
-123.085 -1022.99 -1315 47 55 74
-119.971 -1022.84 -1315 51 58 78
-116.946 -1023.48 -1316 57 63 83
-113.832 -1023.34 -1316 56 62 82
-110.298 -1019.32 -1311 53 57 78
-107.361 -1020.74 -1313 53 57 77
-104.416 -1022.17 -1315 53 57 77
-101.309 -1022.05 -1315 51 54 72
-98.352 -1023.49 -1317 56 58 78
-95.6759 -1028.03 -1323 53 55 75
-92.4131 -1026.37 -1321 48 52 72
-89.7013 -1030.92 -1327 50 55 72
-86.7013 -1032.37 -1329 51 55 75
-83.8185 -1035.38 -1333 46 50 71
-80.6757 -1035.28 -1333 40 44 65
-77.941 -1040.62 -1340 38 42 62
-74.895 -1042.08 -1342 40 42 62
-72.0542 -1046.65 -1348 38 41 61
-68.9305 -1047.35 -1349 39 43 63
-66.0464 -1051.92 -1355 40 45 64
-62.903 -1052.62 -1356 42 46 66
-59.9316 -1056.43 -1361 41 45 65
-56.7707 -1057.14 -1362 40 44 64
-53.7629 -1060.95 -1367 40 45 62
-50.6582 -1063.22 -1370 41 46 63
-47.4361 -1063.16 -1370 43 46 62
-44.3436 -1066.21 -1374 45 46 62
-41.2029 -1068.49 -1377 46 47 61
-38.3242 -1078.53 -1390 49 50 62
-35.5108 -1092.45 -1408 52 51 63
-33.1165 -1123.45 -1448 52 49 61
-30.6166 -1157.55 -1492 56 49 60
-175.047 -1040.34 -1328 55 45 56
-171.354 -1037 -1324 55 47 59
-167.682 -1033.66 -1320 50 46 60
-164.779 -1035.03 -1322 48 48 60
-161.746 -1035.62 -1323 46 46 59
-158.71 -1036.21 -1324 45 44 58
-155.084 -1032.89 -1320 48 47 61
-151.593 -1030.36 -1317 54 55 71
-148.231 -1028.61 -1315 56 57 73
-144.991 -1027.65 -1314 52 53 69
-141.648 -1025.92 -1312 49 50 64
-138.74 -1027.31 -1314 49 50 69
-136.133 -1031.06 -1319 45 50 69
-133.201 -1032.46 -1321 42 48 67
-129.966 -1031.52 -1320 44 48 68
-127.025 -1032.93 -1322 46 52 71
-123.982 -1033.56 -1323 48 55 74
-120.571 -1031.07 -1320 47 54 73
-117.531 -1031.71 -1321 48 54 74
-114.401 -1031.57 -1321 50 56 76
-111.188 -1030.65 -1320 53 57 78
-107.653 -1026.62 -1315 53 57 77
-104.779 -1028.83 -1318 49 53 73
-101.738 -1029.49 -1319 48 50 68
-98.9927 -1033.27 -1324 49 51 70
-96.2245 -1037.06 -1329 47 49 69
-93.0135 -1036.17 -1328 48 51 71
-90.0113 -1037.62 -1330 48 53 70
-87.066 -1039.85 -1333 48 50 70
-84.2961 -1044.43 -1339 43 46 67
-81.1354 -1044.33 -1339 40 44 65
-78.1503 -1046.57 -1342 40 44 64
-75.2077 -1049.6 -1346 43 45 65
-72.1936 -1051.85 -1349 41 44 64
-69.1661 -1054.11 -1352 41 45 65
-66.1251 -1056.37 -1355 45 49 69
-62.9779 -1057.07 -1356 46 50 70
-59.9589 -1060.11 -1360 44 47 67
-56.7964 -1060.82 -1361 43 45 65
-53.7481 -1063.88 -1365 42 47 64
-50.5334 -1063.81 -1365 43 48 65
-47.4232 -1066.09 -1368 45 47 63
-44.2348 -1066.82 -1369 45 46 61
-41.2519 -1073 -1377 42 43 56
-38.4249 -1084.64 -1392 47 46 58
-35.6288 -1099.4 -1411 52 48 61
-33.2932 -1132.86 -1454 52 47 59
-30.6734 -1163.21 -1493 52 45 56
-209.654 -1166.09 -1481 58 32 35
-180.052 -1054.4 -1340 58 46 56
-175.127 -1043.96 -1327 59 48 60
-171.691 -1042.17 -1325 55 46 60
-168.394 -1041.18 -1324 47 47 61
-165.852 -1044.91 -1329 46 50 63
-162.798 -1045.5 -1330 46 49 62
-159.742 -1046.09 -1331 44 45 59
-156.094 -1042.76 -1327 49 48 62
-152.582 -1040.21 -1324 51 52 68
-148.974 -1036.89 -1320 51 52 68
-145.607 -1035.14 -1318 50 51 67
-142.251 -1033.4 -1316 46 47 61
-139.435 -1035.58 -1319 46 47 65
-136.606 -1037.77 -1322 42 47 66
-133.563 -1038.39 -1323 43 48 68
-130.418 -1038.23 -1323 46 50 70
-127.466 -1039.65 -1325 47 53 71
-124.131 -1037.93 -1323 48 54 72
-120.807 -1036.21 -1321 48 54 73
-117.494 -1034.5 -1319 44 49 68
-114.625 -1036.71 -1322 43 48 69
-111.237 -1034.22 -1319 48 51 72
-108.274 -1035.66 -1321 50 53 73
-105.303 -1037.1 -1323 47 51 71
-102.246 -1037.76 -1324 49 51 69
-99.2612 -1039.2 -1326 49 51 71
-96.4124 -1042.22 -1330 45 47 67
-93.4055 -1043.67 -1332 45 47 67
-90.3902 -1045.13 -1334 45 50 67
-87.4318 -1047.37 -1337 45 47 67
-84.5232 -1050.4 -1341 46 48 68
-81.4146 -1051.09 -1342 45 47 67
-78.3605 -1052.56 -1344 42 46 66
-75.3537 -1054.81 -1347 44 46 66
-72.2264 -1055.51 -1348 44 47 67
-69.1976 -1057.77 -1351 44 48 68
-66.2042 -1060.82 -1355 43 47 67
-63.0067 -1060.75 -1355 42 46 66
-59.8981 -1062.24 -1357 43 45 65
-56.7808 -1063.73 -1359 41 43 63
-53.6941 -1066.02 -1362 41 45 63
-50.4826 -1065.95 -1362 45 47 65
-47.4799 -1070.59 -1368 43 44 60
-44.32 -1072.1 -1370 41 41 55
-41.2711 -1076.74 -1376 43 41 53
-38.4709 -1089.22 -1392 50 46 59
-35.7472 -1106.39 -1414 53 48 60
-33.31 -1136.86 -1453 53 46 57
-30.6278 -1164.99 -1489 52 43 53
-214.046 -1174.44 -1485 0 0 0
-186.499 -1076.47 -1362 56 40 50
-179.733 -1055.7 -1336 54 44 55
-175.207 -1047.58 -1326 54 45 58
-172.288 -1048.95 -1328 51 45 59
-169.489 -1051.11 -1331 46 47 62
-166.677 -1053.27 -1334 45 50 65
-163.608 -1053.86 -1335 45 49 63
-160.536 -1054.46 -1336 47 48 62
-156.872 -1051.11 -1332 49 49 64
-153.344 -1048.55 -1329 52 53 69
-149.832 -1046 -1326 52 53 70
-146.557 -1045.03 -1325 49 50 67
-143.181 -1043.28 -1323 50 51 65
-140.345 -1045.47 -1326 49 50 68
-137.289 -1046.09 -1327 45 49 68
-134.23 -1046.72 -1328 44 50 69
-130.97 -1045.77 -1327 48 52 72
-128.005 -1047.19 -1329 50 55 72
-124.469 -1043.88 -1325 49 54 72
-121.136 -1042.16 -1323 46 52 69
-118.081 -1042.8 -1324 42 46 66
-115.023 -1043.45 -1325 40 44 64
-111.54 -1040.16 -1321 48 50 71
-108.405 -1040.03 -1321 48 50 71
-105.51 -1042.26 -1324 45 49 69
-102.602 -1044.5 -1327 43 45 63
-99.4557 -1044.37 -1327 42 44 63
-96.6738 -1048.19 -1332 45 47 67
-93.7287 -1050.44 -1335 48 50 68
-90.567 -1050.33 -1335 48 50 66
-87.7335 -1054.15 -1340 45 47 66
-84.625 -1054.83 -1341 45 47 67
-81.5126 -1055.52 -1342 46 48 68
-78.3964 -1056.21 -1343 46 48 68
-75.3323 -1057.69 -1345 45 47 67
-72.0987 -1056.82 -1344 44 47 67
-69.0244 -1058.3 -1346 41 45 65
-65.8925 -1059.01 -1347 37 41 61
-62.8497 -1061.29 -1350 40 42 60
-59.7492 -1062.79 -1352 41 43 62
-56.7235 -1065.86 -1356 41 43 63
-53.5612 -1066.58 -1357 45 47 65
-50.5061 -1069.66 -1361 46 48 65
-47.3632 -1071.18 -1363 48 48 62
-44.3733 -1076.62 -1370 49 47 60
-41.5609 -1087.57 -1384 51 47 60
-38.766 -1100.88 -1401 52 49 59
-36.1191 -1121.27 -1427 52 48 58
-33.6484 -1151.87 -1466 49 43 53
-192.931 -1097.91 -1383 54 37 44
-185.355 -1073.08 -1352 56 43 53
-179.682 -1058.57 -1334 55 45 56
-175.421 -1052 -1326 53 46 59
-172.368 -1052.58 -1327 49 45 62
-169.313 -1053.17 -1328 43 47 64
-166.505 -1055.34 -1331 43 49 65
-163.317 -1055.14 -1331 45 49 65
-160.491 -1057.32 -1334 45 47 61
-156.709 -1053.17 -1329 46 47 63
-153.415 -1052.18 -1328 50 51 67
-150.128 -1051.21 -1327 48 50 66
-146.957 -1051.03 -1327 46 48 66
-143.68 -1050.06 -1326 49 50 64
-140.939 -1053.05 -1330 47 48 66
-137.87 -1053.67 -1331 43 46 64
-134.696 -1053.51 -1331 40 46 63
-131.425 -1052.55 -1330 45 49 69
-128.161 -1051.6 -1329 49 54 71
-124.714 -1049.08 -1326 49 54 71
-121.283 -1046.55 -1323 47 53 70
-117.957 -1044.83 -1321 44 48 68
-115.163 -1047.85 -1325 46 49 69
-111.929 -1046.92 -1324 48 51 72
-108.865 -1047.58 -1325 46 48 69
-105.957 -1049.82 -1328 46 50 70
-102.803 -1049.69 -1328 46 48 66
-99.6512 -1049.57 -1328 45 47 66
-96.7908 -1052.61 -1332 49 51 71
-93.9125 -1055.66 -1336 48 50 68
-90.8124 -1056.33 -1337 45 47 63
-87.9053 -1059.38 -1341 44 46 65
-84.7906 -1060.07 -1342 42 44 64
-81.6112 -1059.97 -1342 40 42 62
-78.2574 -1057.5 -1339 41 43 63
-75.1992 -1058.99 -1341 41 43 63
-72.0248 -1058.9 -1341 40 43 63
-68.9024 -1059.6 -1342 38 42 62
-65.6293 -1057.94 -1340 40 44 64
-62.646 -1061.02 -1344 44 46 64
-59.7329 -1065.69 -1350 45 46 65
-56.4571 -1064.04 -1348 45 46 66
-53.4284 -1067.13 -1352 47 49 67
-50.4557 -1071.8 -1358 50 52 68
-47.5943 -1079.63 -1368 49 49 62
-44.4916 -1082.73 -1372 49 47 59
-41.7313 -1095.31 -1388 54 50 63
-39.0345 -1111.83 -1409 54 50 61
-36.3908 -1133.09 -1436 51 45 55
-33.8498 -1162.24 -1473 50 42 51
-218.593 -1187.05 -1488 0 0 0
-210.814 -1163.65 -1459 59 34 36
-191.771 -1094.58 -1373 59 42 50
-185.308 -1076.01 -1350 58 46 55
-179.903 -1063.04 -1334 56 46 57
-175.503 -1055.65 -1325 53 45 58
-172.579 -1057.03 -1327 46 42 61
-169.521 -1057.61 -1328 35 41 60
-166.459 -1058.2 -1329 37 43 61
-163.148 -1057.21 -1328 41 46 62
-160.446 -1060.19 -1332 43 46 59
-156.783 -1056.81 -1328 43 44 60
-153.487 -1055.83 -1327 43 44 60
-150.424 -1056.44 -1328 44 45 62
-147.137 -1055.46 -1327 45 47 65
-143.856 -1054.49 -1326 47 48 62
-140.899 -1055.9 -1328 47 48 66
-137.935 -1057.32 -1330 44 47 65
-134.557 -1055.56 -1328 39 45 62
-131.487 -1056.2 -1329 42 46 66
-128.22 -1055.24 -1328 44 49 66
-125.054 -1055.09 -1328 43 48 65
-121.706 -1053.35 -1326 41 47 64
-118.548 -1053.2 -1326 43 47 67
-115.738 -1056.24 -1330 48 51 71
-112.573 -1056.1 -1330 48 51 72
-109.244 -1054.37 -1328 47 50 71
-106.325 -1056.62 -1331 46 50 70
-103.084 -1055.7 -1330 49 51 69
-99.8477 -1054.78 -1329 50 52 70
-96.9086 -1057.04 -1332 47 49 68
-94.0268 -1060.1 -1336 45 46 64
-90.9229 -1060.78 -1337 42 44 61
-87.8153 -1061.47 -1338 42 44 63
-84.5774 -1060.57 -1337 40 42 61
-81.4669 -1061.26 -1338 39 41 60
-78.06 -1057.99 -1334 39 40 60
-75.0098 -1059.48 -1336 39 42 61
-71.6821 -1057.02 -1333 37 42 60
-68.6264 -1058.52 -1335 39 45 64
-65.4148 -1057.64 -1334 44 48 68
-62.4887 -1061.53 -1339 45 48 68
-59.451 -1063.83 -1342 48 51 70
-56.4836 -1067.72 -1347 47 48 67
-53.5328 -1072.41 -1353 47 52 69
-50.5913 -1077.9 -1360 51 52 68
-47.6172 -1083.39 -1367 49 49 62
-44.7404 -1092.05 -1378 48 47 59
-41.9926 -1105.47 -1395 52 48 61
-39.4146 -1126.02 -1421 54 49 60
-36.7394 -1147.37 -1448 52 45 54
-33.9369 -1168.72 -1475 55 45 54
-30.7799 -1181.36 -1491 57 45 54
-222.31 -1191.53 -1487 0 0 0
-217.981 -1187.25 -1482 60 34 33
-210.495 -1165.36 -1455 59 35 35
-191.168 -1094.39 -1367 55 42 51
-185.399 -1079.75 -1349 57 46 58
-179.989 -1066.72 -1333 51 46 59
-175.587 -1059.3 -1324 45 46 60
-172.532 -1059.89 -1325 44 42 59
-169.346 -1059.67 -1325 40 42 58
-165.911 -1057.87 -1323 42 46 62
-162.98 -1059.26 -1325 43 47 64
-160.041 -1060.66 -1327 45 47 63
-156.621 -1058.87 -1325 45 46 64
-153.56 -1059.48 -1326 45 46 63
-150.269 -1058.49 -1325 45 46 62
-147.206 -1059.11 -1326 46 47 63
-143.924 -1058.13 -1325 46 47 63
-141.072 -1060.35 -1328 46 47 65
-138.104 -1061.78 -1330 44 46 63
-134.823 -1060.81 -1329 41 46 63
-131.747 -1061.44 -1330 41 46 63
-128.474 -1060.49 -1329 42 47 64
-125.302 -1060.33 -1329 40 45 63
-121.855 -1057.78 -1326 42 46 66
-118.872 -1059.23 -1328 43 49 68
-115.706 -1059.09 -1328 44 50 69
-112.711 -1060.54 -1330 45 51 70
-109.543 -1060.41 -1330 44 50 69
-106.456 -1061.07 -1331 47 49 69
-103.287 -1060.94 -1331 45 47 65
-100.12 -1060.82 -1331 44 46 64
-96.9543 -1060.7 -1331 42 44 62
-93.9304 -1062.17 -1333 45 47 65
-90.8299 -1062.86 -1334 44 46 64
-87.6598 -1062.75 -1334 41 43 61
-84.4275 -1061.85 -1333 41 43 61
-81.2007 -1060.95 -1332 42 44 62
-77.9796 -1060.05 -1331 45 46 66
-74.8204 -1059.96 -1331 45 49 67
-71.7696 -1061.46 -1333 43 49 66
-68.7616 -1063.77 -1336 41 47 66
-65.5928 -1063.68 -1336 45 47 67
-62.4249 -1063.61 -1336 44 48 68
-59.4792 -1067.51 -1341 45 48 67
-56.3846 -1069.03 -1343 51 53 71
-53.5585 -1076.13 -1352 48 53 70
-50.6902 -1083.23 -1361 52 53 69
-47.9194 -1093.52 -1374 53 51 65
-45.1201 -1104.6 -1388 52 48 61
-42.4959 -1122.06 -1410 53 48 59
-39.8514 -1141.9 -1435 52 47 58
-37.1906 -1164.93 -1464 51 45 53
-34.1164 -1178.41 -1481 55 45 53
-30.7967 -1185.53 -1490 61 45 53
-220.341 -1184.48 -1472 59 31 31
-216.631 -1183.41 -1471 60 33 32
-209.887 -1165.45 -1449 59 34 34
-191.545 -1099.81 -1368 54 45 55
-185.354 -1082.7 -1347 53 44 56
-179.942 -1069.61 -1331 47 42 55
-175.539 -1062.16 -1322 43 44 58
-171.963 -1059.53 -1319 46 44 61
-168.787 -1059.32 -1319 45 46 62
-165.363 -1057.51 -1317 44 48 66
-162.442 -1058.91 -1319 44 50 69
-159.635 -1061.12 -1322 46 48 64
-156.223 -1059.32 -1320 46 47 65
-153.286 -1060.73 -1322 47 48 65
-150.341 -1062.15 -1324 47 48 64
-147.166 -1061.97 -1324 45 46 62
-143.884 -1060.98 -1323 44 46 62
-141.033 -1063.21 -1326 44 46 63
-138.066 -1064.64 -1328 45 47 65
-134.685 -1062.87 -1326 46 48 66
-131.612 -1063.51 -1327 45 47 65
-128.439 -1063.35 -1327 42 47 64
-125.456 -1064.79 -1329 43 48 65
-122.281 -1064.64 -1329 45 50 68
-119.108 -1064.49 -1329 48 52 72
-116.197 -1066.75 -1332 46 50 70
-113.019 -1066.61 -1332 42 47 67
-109.925 -1067.27 -1333 43 49 68
-106.667 -1066.34 -1332 47 49 69
-103.492 -1066.21 -1332 46 48 66
-100.394 -1066.88 -1333 45 47 65
-97.2924 -1067.56 -1334 46 48 66
-94.1869 -1068.24 -1335 45 47 65
-90.8733 -1066.53 -1333 44 46 64
-87.8333 -1068.02 -1335 44 45 63
-84.4677 -1065.51 -1332 46 47 65
-81.3615 -1066.21 -1333 46 48 66
-77.9581 -1062.91 -1329 43 45 65
-74.9122 -1064.42 -1331 43 47 65
-71.8577 -1065.93 -1333 45 50 68
-68.7429 -1066.64 -1334 47 51 71
-65.6734 -1068.16 -1336 48 50 70
-62.5482 -1068.88 -1337 47 49 67
-59.5966 -1072.8 -1342 47 49 67
-56.6219 -1076.73 -1347 50 52 70
-53.8225 -1084.65 -1357 49 51 69
-51.0134 -1093.38 -1368 48 49 65
-48.2226 -1103.71 -1381 51 48 62
-45.5659 -1118.84 -1400 52 47 60
-43.061 -1140.36 -1427 53 48 59
-40.3451 -1159.49 -1451 54 48 57
-37.5159 -1178.62 -1475 54 46 54
-34.2734 -1187.36 -1486 55 45 52
-30.855 -1191.32 -1491 62 45 51
-219.566 -1183.82 -1465 60 32 32
-216.312 -1185.16 -1467 58 32 34
-210.439 -1171.97 -1451 57 33 36
-185.447 -1086.45 -1346 48 46 61
-179.895 -1072.5 -1329 47 48 63
-175.358 -1064.21 -1319 46 49 62
-171.655 -1060.77 -1315 47 47 64
-168.357 -1059.75 -1314 43 44 61
-165.065 -1058.74 -1313 40 43 61
-162.028 -1059.34 -1314 40 46 65
-159.349 -1062.36 -1318 41 43 59
-156.298 -1062.97 -1319 42 43 61
-153.128 -1062.78 -1319 42 43 60
-150.186 -1064.2 -1321 44 45 61
-146.903 -1063.21 -1320 45 46 62
-143.736 -1063.03 -1320 43 44 60
-140.889 -1065.27 -1323 44 45 62
-137.821 -1065.9 -1324 45 46 64
-134.75 -1066.54 -1325 44 46 64
-131.676 -1067.18 -1326 45 49 66
-128.307 -1065.41 -1324 47 50 69
-125.328 -1066.86 -1326 46 48 68
-122.064 -1065.9 -1325 43 46 65
-119.076 -1067.36 -1327 45 49 69
-116.166 -1069.63 -1330 48 52 72
-113.159 -1071.09 -1332 44 48 68
-110.061 -1071.76 -1333 43 47 67
-106.879 -1071.63 -1333 47 49 68
-103.853 -1073.1 -1335 47 49 67
-100.594 -1072.17 -1334 44 46 64
-97.4856 -1072.85 -1335 44 46 64
-94.3033 -1072.73 -1335 47 48 66
-91.0538 -1071.82 -1334 45 47 65
-87.8758 -1071.71 -1334 46 47 65
-84.572 -1069.99 -1332 50 51 69
-81.4008 -1069.89 -1332 47 49 67
-78.1717 -1068.99 -1331 47 48 68
-75.1174 -1070.5 -1333 48 50 68
-72.1083 -1072.82 -1336 50 52 71
-68.9825 -1073.53 -1337 48 51 71
-66.0004 -1076.66 -1341 49 51 71
-62.7659 -1075.78 -1340 51 53 71
-59.8034 -1079.72 -1345 52 53 71
-56.9021 -1085.26 -1352 50 51 69
-54.0476 -1092.42 -1361 49 51 69
-51.4123 -1105.2 -1377 51 50 64
-48.7365 -1118.78 -1394 50 48 61
-46.176 -1137.18 -1417 51 47 60
-43.6276 -1158.79 -1444 54 47 58
-40.701 -1173.18 -1462 58 49 59
-37.6385 -1185.97 -1478 57 47 56
-34.2694 -1190.74 -1484 57 44 53
-30.7272 -1189.9 -1483 63 44 53
-27.2453 -1191.47 -1485 0 0 0
-219.241 -1185.56 -1461 60 34 34
-215.992 -1186.91 -1463 62 34 37
-210.848 -1177.72 -1452 61 34 39
-202.475 -1149.89 -1418 59 38 45
-193.147 -1115.58 -1376 50 46 61
-186.093 -1093.46 -1349 48 50 66
-180.12 -1077.02 -1329 47 51 68
-175.444 -1067.88 -1318 50 51 65
-171.608 -1063.62 -1313 48 49 68
-168.31 -1062.59 -1312 42 46 64
-165.02 -1061.57 -1311 40 45 63
-161.983 -1062.18 -1312 42 46 66
-159.306 -1065.22 -1316 43 45 62
-156.137 -1065.02 -1316 44 45 63
-153.086 -1065.63 -1317 44 45 62
-149.918 -1065.45 -1317 42 43 59
-146.864 -1066.07 -1318 43 44 60
-143.588 -1065.08 -1317 42 43 61
-140.638 -1066.52 -1319 43 44 62
-137.576 -1067.15 -1320 41 42 60
-134.714 -1069.41 -1323 39 41 59
-131.243 -1066.82 -1320 42 47 64
-128.37 -1069.08 -1323 46 49 68
-125.106 -1068.11 -1322 45 47 67
-122.308 -1071.19 -1326 45 47 66
-119.314 -1072.66 -1328 45 50 67
-116.311 -1074.12 -1330 43 48 66
-113.13 -1073.98 -1330 42 47 64
-109.95 -1073.84 -1330 45 50 67
-106.69 -1072.9 -1329 49 51 69
-103.671 -1074.38 -1331 45 47 65
-100.643 -1075.87 -1333 44 46 64
-97.4604 -1075.75 -1333 43 44 62
-94.3496 -1076.44 -1334 46 47 65
-91.0985 -1075.51 -1333 48 50 68
-88.0509 -1077.02 -1335 50 52 70
-84.8041 -1076.1 -1334 52 53 71
-81.7465 -1077.61 -1336 53 54 72
-78.5039 -1076.7 -1335 53 52 71
-75.267 -1075.8 -1334 51 52 71
-72.1437 -1076.52 -1335 53 55 73
-69.068 -1078.04 -1337 51 53 73
-66.0329 -1080.38 -1340 49 51 71
-63.0312 -1083.52 -1344 54 55 73
-60.0556 -1087.48 -1349 54 55 73
-57.2676 -1095.46 -1359 50 51 69
-54.5122 -1105.07 -1371 48 50 68
-51.8497 -1117.9 -1387 53 52 66
-49.3568 -1136.37 -1410 55 51 65
-46.853 -1157.27 -1436 58 52 65
-44.1354 -1175.75 -1459 61 52 62
-41.0022 -1185.36 -1471 60 49 58
-37.7359 -1192.57 -1480 58 46 54
-34.3118 -1195.74 -1484 57 44 50
-30.703 -1192.48 -1480 61 42 48
-27.1686 -1191.64 -1479 0 0 0
-218.466 -1184.85 -1454 63 37 37
-214.934 -1184.58 -1454 62 36 38
-209.95 -1176.16 -1444 58 32 36
-202.444 -1153.1 -1416 57 36 43
-193.952 -1123.54 -1380 52 47 61
-186.741 -1100.5 -1352 52 50 65
-180.347 -1081.55 -1329 51 51 66
-175.532 -1071.56 -1317 52 51 65
-171.693 -1067.28 -1312 50 51 71
-168.008 -1063.81 -1308 44 49 69
-164.723 -1062.79 -1307 42 50 69
-161.692 -1063.39 -1308 45 51 71
-158.9 -1065.63 -1311 49 50 68
-155.858 -1066.25 -1312 48 49 67
-152.696 -1066.05 -1312 48 49 66
-149.536 -1065.86 -1312 48 49 65
-146.49 -1066.49 -1313 48 49 65
-143.222 -1065.5 -1312 47 48 66
-140.387 -1067.75 -1315 50 51 69
-137.644 -1070.83 -1319 52 53 71
-134.577 -1071.47 -1320 45 47 65
-131.407 -1071.3 -1320 46 49 68
-128.045 -1069.51 -1318 46 48 67
-125.167 -1071.79 -1321 47 49 67
-122.184 -1073.26 -1323 48 50 68
-118.923 -1072.3 -1322 46 48 66
-116.018 -1074.58 -1325 42 44 63
-113.015 -1076.06 -1327 41 43 62
-109.839 -1075.92 -1327 46 48 66
-106.663 -1075.79 -1327 48 50 68
-103.722 -1078.09 -1330 45 47 65
-100.693 -1079.58 -1332 46 48 66
-97.582 -1080.27 -1333 50 51 69
-94.3257 -1079.34 -1332 52 52 71
-91.2805 -1080.84 -1334 53 54 72
-88.1607 -1081.54 -1335 54 55 73
-84.9098 -1080.62 -1334 53 54 72
-81.7259 -1080.52 -1334 53 54 72
-78.6017 -1081.22 -1335 55 56 74
-75.4172 -1081.13 -1335 54 55 73
-72.3418 -1082.66 -1337 54 55 74
-69.2575 -1084.19 -1339 56 57 77
-66.2138 -1086.53 -1342 55 54 74
-63.2036 -1089.69 -1346 55 55 72
-60.2641 -1094.47 -1352 55 55 72
-57.5499 -1104.11 -1364 53 53 70
-54.8984 -1116.18 -1379 51 53 71
-52.4383 -1133.92 -1401 54 51 65
-49.8739 -1151.66 -1423 57 52 65
-47.2379 -1170.22 -1446 60 51 63
-44.3719 -1185.54 -1465 60 49 59
-41.0531 -1190.34 -1471 58 47 55
-37.7063 -1195.14 -1477 57 45 53
-34.2618 -1197.53 -1480 59 44 51
-30.6788 -1195.06 -1477 62 41 46
-27.2024 -1196.64 -1479 0 0 0
-217.689 -1184.11 -1447 59 35 36
-213.578 -1180.56 -1443 59 36 38
-208.469 -1171.3 -1432 57 35 39
-201.555 -1151.41 -1408 56 35 41
-193.916 -1126.63 -1378 54 44 56
-186.562 -1102.68 -1349 58 51 64
-180.574 -1086.1 -1329 56 51 64
-175.62 -1075.25 -1316 51 52 66
-171.778 -1070.95 -1311 48 50 70
-168.22 -1068.28 -1308 45 50 71
-164.805 -1066.44 -1306 44 50 72
-161.524 -1065.42 -1305 46 52 72
-158.736 -1067.66 -1308 53 54 72
-155.579 -1067.46 -1308 53 54 72
-152.539 -1068.09 -1309 52 53 71
-149.268 -1067.08 -1308 53 54 70
-146.339 -1068.52 -1310 55 53 72
-143.183 -1068.34 -1310 50 51 69
-140.243 -1069.79 -1312 49 50 68
-137.086 -1069.62 -1312 50 50 68
-134.134 -1071.08 -1314 48 50 68
-130.775 -1069.28 -1312 48 50 70
-127.914 -1071.56 -1315 45 47 66
-124.471 -1068.96 -1312 48 49 68
-121.968 -1074.51 -1319 46 48 66
-118.892 -1075.17 -1320 44 46 64
-115.989 -1077.47 -1323 43 45 64
-112.731 -1076.51 -1322 40 42 61
-109.645 -1077.18 -1323 42 44 62
-106.475 -1077.05 -1323 42 44 62
-103.618 -1080.17 -1327 43 45 63
-100.365 -1079.23 -1326 46 47 65
-97.3379 -1080.73 -1328 50 51 68
-94.3022 -1082.24 -1330 51 49 68
-91.1894 -1082.93 -1331 49 49 67
-88.0729 -1083.64 -1332 51 52 70
-84.8888 -1083.53 -1332 53 54 72
-81.8283 -1085.05 -1334 51 52 70
-78.7002 -1085.76 -1335 52 51 70
-75.5117 -1085.67 -1335 53 53 71
-72.2698 -1084.76 -1334 52 53 71
-69.2407 -1087.11 -1337 55 56 76
-66.2967 -1091.09 -1342 57 57 76
-63.4237 -1096.7 -1349 59 57 75
-60.5626 -1103.13 -1357 55 53 70
-57.9597 -1115.24 -1372 52 50 67
-55.4056 -1129.8 -1390 51 52 70
-53.1034 -1151.68 -1417 55 51 64
-50.4626 -1168.68 -1438 54 48 60
-47.6241 -1183.25 -1456 55 46 58
-44.5183 -1192.95 -1468 56 45 54
-41.1044 -1195.33 -1471 59 46 53
-37.6256 -1196.09 -1472 61 47 54
-34.1655 -1197.67 -1474 61 46 53
-30.6547 -1197.63 -1474 66 45 50
-27.1258 -1196.78 -1473 0 0 0
-216.31 -1180.05 -1436 59 34 35
-211.775 -1174.03 -1429 57 34 34
-205.965 -1160.62 -1413 59 37 36
-199.518 -1143.11 -1392 59 37 40
-193.035 -1124.8 -1370 55 42 50
-186.522 -1105.67 -1347 59 49 61
-180.94 -1091.49 -1330 60 52 68
-175.843 -1079.77 -1316 55 57 73
-171.865 -1074.63 -1310 52 54 74
-168.305 -1071.95 -1307 47 51 72
-164.887 -1070.1 -1305 48 53 75
-161.481 -1068.25 -1303 49 55 75
-158.451 -1068.87 -1304 53 54 73
-155.537 -1070.31 -1306 57 57 76
-152.149 -1068.48 -1304 57 56 75
-149.115 -1069.1 -1305 55 56 72
-146.189 -1070.55 -1307 57 55 74
-143.036 -1070.37 -1307 52 52 70
-139.885 -1070.19 -1307 46 47 65
-136.945 -1071.65 -1309 49 48 67
-133.895 -1072.3 -1310 51 52 70
-130.741 -1072.13 -1310 49 51 70
-127.686 -1072.79 -1311 48 49 69
-124.533 -1072.63 -1311 48 49 68
-121.659 -1074.93 -1314 46 48 66
-118.682 -1076.41 -1316 45 47 65
-115.696 -1077.9 -1318 45 48 66
-112.788 -1080.21 -1321 44 48 65
-109.534 -1079.25 -1320 45 47 65
-106.287 -1078.29 -1319 45 47 65
-103.28 -1079.8 -1321 42 44 62
-100.113 -1079.67 -1321 41 43 61
-97.0936 -1081.18 -1323 46 47 64
-94.066 -1082.69 -1325 50 48 68
-91.0986 -1085.03 -1328 47 47 67
-87.919 -1084.91 -1328 48 49 68
-84.8043 -1085.62 -1329 50 51 69
-81.7471 -1087.15 -1331 49 50 68
-78.6222 -1087.87 -1332 48 48 67
-75.4368 -1087.77 -1332 48 49 67
-72.3608 -1089.31 -1334 47 48 66
-69.3278 -1091.67 -1337 48 49 68
-66.3307 -1094.85 -1341 53 55 74
-63.4565 -1100.48 -1348 58 55 76
-60.6835 -1108.57 -1358 55 52 71
-58.1172 -1121.55 -1374 52 50 67
-55.7546 -1140.25 -1397 54 52 73
-53.6204 -1166.3 -1429 56 52 64
-50.7369 -1178.48 -1444 58 51 62
-47.6512 -1187.4 -1455 58 48 59
-44.4225 -1193.87 -1463 60 44 53
-40.9882 -1195.44 -1465 62 46 54
-37.5192 -1196.21 -1466 62 46 53
-34.0923 -1198.61 -1469 64 47 52
-30.5682 -1197.76 -1468 70 46 50
-27.0676 -1197.72 -1468 0 0 0
-212.062 -1160.26 -1406 61 37 39
-207 -1150.91 -1395 59 37 39
-201.703 -1139.93 -1382 58 36 37
-195.898 -1125.65 -1365 56 38 42
-190.883 -1115.51 -1353 57 44 53
-185.929 -1105.38 -1341 58 49 62
-180.898 -1094.43 -1328 57 53 68
-176.335 -1085.96 -1318 57 53 68
-172.347 -1080.79 -1312 51 51 67
-168.519 -1076.45 -1307 49 52 69
-164.971 -1073.77 -1304 48 52 72
-161.811 -1073.56 -1304 49 52 73
-158.41 -1071.71 -1302 52 52 74
-155.258 -1071.51 -1302 57 57 77
-152.109 -1071.32 -1302 56 57 75
-148.961 -1071.12 -1302 58 56 73
-146.039 -1072.58 -1304 59 57 76
-142.78 -1071.57 -1303 55 54 72
-139.849 -1073.04 -1305 50 51 67
-136.805 -1073.68 -1306 52 53 71
-133.86 -1075.16 -1308 58 59 77
-130.507 -1073.34 -1306 54 55 73
-127.653 -1075.65 -1309 49 51 69
-124.596 -1076.31 -1310 50 52 70
-121.535 -1076.97 -1311 52 54 74
-118.471 -1077.64 -1312 52 54 72
-115.667 -1080.78 -1316 51 53 71
-112.332 -1078.99 -1314 50 52 70
-109.258 -1079.67 -1315 49 51 69
-106.179 -1080.35 -1316 49 51 69
-103.098 -1081.04 -1317 48 50 68
-99.8602 -1080.09 -1316 47 49 67
-96.9962 -1083.25 -1320 47 48 66
-93.972 -1084.77 -1322 49 47 68
-90.9391 -1086.29 -1324 47 48 67
-87.7652 -1086.18 -1324 47 48 66
-84.656 -1086.89 -1325 46 47 65
-81.543 -1087.61 -1326 47 48 64
-78.4263 -1088.32 -1327 47 48 66
-75.3621 -1089.87 -1329 46 47 65
-72.2351 -1090.59 -1330 42 43 61
-69.3116 -1094.6 -1335 45 46 64
-66.365 -1098.62 -1340 49 50 70
-63.6309 -1106.73 -1350 53 52 72
-60.8944 -1115.67 -1361 54 52 72
-58.3178 -1128.71 -1377 54 52 71
-56.0248 -1149.13 -1402 54 52 71
-53.8761 -1175.29 -1434 59 52 62
-50.8361 -1184.24 -1445 60 50 60
-47.6785 -1191.55 -1454 62 47 57
-44.3874 -1196.41 -1460 65 46 55
-40.8998 -1196.36 -1460 62 45 53
-37.4128 -1196.31 -1460 59 45 53
-33.9959 -1198.72 -1463 60 46 52
-30.5233 -1199.5 -1464 66 44 47
-211.319 -1141.37 -1377 0 0 0
-206.293 -1131.99 -1366 60 38 40
-201.472 -1123.44 -1356 59 37 41
-197.14 -1117.38 -1349 56 37 40
-192.27 -1108.02 -1338 56 39 43
-188.303 -1103.64 -1333 57 44 50
-184.501 -1100.08 -1329 55 46 56
-180.176 -1093.23 -1321 52 47 59
-176.025 -1087.21 -1314 50 48 60
-172.305 -1083.67 -1310 50 51 65
-168.477 -1079.32 -1305 49 51 67
-165.056 -1077.45 -1303 49 51 71
-161.894 -1077.24 -1303 49 51 71
-158.491 -1075.38 -1301 51 52 72
-155.218 -1074.36 -1300 53 54 73
-152.07 -1074.16 -1300 54 55 73
-148.808 -1073.14 -1299 56 54 71
-145.889 -1074.6 -1301 57 55 74
-142.743 -1074.42 -1301 59 58 76
-139.598 -1074.24 -1301 59 59 75
-136.56 -1074.89 -1302 56 57 75
-133.314 -1073.89 -1301 56 57 75
-130.174 -1073.72 -1301 53 55 73
-127.23 -1075.2 -1303 47 49 67
-124.279 -1076.69 -1305 46 48 66
-120.948 -1074.89 -1303 49 51 69
-118.08 -1077.21 -1306 51 53 71
-115.287 -1080.36 -1310 53 55 73
-112.219 -1081.04 -1311 51 53 71
-109.147 -1081.72 -1312 51 53 71
-106.153 -1083.23 -1314 52 54 70
-102.994 -1083.1 -1314 53 54 72
-99.9115 -1083.79 -1315 54 55 73
-96.899 -1085.32 -1317 51 52 70
-93.7357 -1085.2 -1317 56 54 75
-90.711 -1086.73 -1319 58 56 76
-87.6778 -1088.26 -1321 53 52 71
-84.5719 -1088.97 -1322 52 53 71
-81.3389 -1088.04 -1321 53 54 70
-78.4076 -1091.24 -1325 51 52 70
-75.4012 -1093.61 -1328 52 52 70
-72.4356 -1096.81 -1332 53 51 70
-69.5556 -1101.66 -1338 51 52 70
-66.7469 -1108.16 -1346 50 51 70
-63.9005 -1114.66 -1354 53 52 69
-61.1957 -1124.46 -1366 55 53 70
-58.4766 -1135.09 -1379 53 51 70
-56.176 -1155.59 -1404 51 47 61
-53.8692 -1178.56 -1432 57 47 56
-50.8302 -1187.55 -1443 60 47 55
-47.5749 -1192.43 -1449 61 46 54
-44.2305 -1195.66 -1453 62 45 51
-40.7835 -1196.43 -1454 62 45 52
-37.3063 -1196.38 -1454 62 46 53
-33.8528 -1197.16 -1455 0 0 0
-30.395 -1197.94 -1456 0 0 0
-207.597 -1124.53 -1351 0 0 0
-202.477 -1114.27 -1339 60 39 42
-198.31 -1109.02 -1333 57 38 41
-194.614 -1106.27 -1330 54 37 41
-190.36 -1100.2 -1323 54 37 41
-186.707 -1097.46 -1320 50 36 42
-183.627 -1098.05 -1321 44 35 45
-179.862 -1094.49 -1317 46 41 52
-176.118 -1090.94 -1313 53 48 61
-172.395 -1087.39 -1309 54 53 66
-168.953 -1085.51 -1307 54 55 68
-165.522 -1083.63 -1305 53 55 72
-162.227 -1082.59 -1304 53 55 73
-158.939 -1081.55 -1303 53 54 74
-155.657 -1080.52 -1302 52 53 72
-152.265 -1078.66 -1300 53 54 70
-148.999 -1077.64 -1299 56 54 71
-145.964 -1078.28 -1300 55 53 72
-142.597 -1076.44 -1298 53 51 70
-139.348 -1075.42 -1297 51 49 66
-136.315 -1076.08 -1298 54 55 73
-133.177 -1075.9 -1298 55 56 74
-130.04 -1075.73 -1298 49 51 69
-127.1 -1077.23 -1300 52 54 72
-124.057 -1077.89 -1301 51 52 70
-121.01 -1078.56 -1302 50 51 69
-118.05 -1080.07 -1304 47 49 67
-115.082 -1081.57 -1306 47 49 66
-111.934 -1081.43 -1306 47 49 65
-109.037 -1083.77 -1309 50 51 69
-106.047 -1085.29 -1311 50 51 67
-102.89 -1085.15 -1311 51 52 69
-99.8111 -1085.85 -1312 53 54 72
-96.802 -1087.38 -1314 53 54 72
-93.7844 -1088.91 -1316 55 53 74
-90.6894 -1089.62 -1317 57 55 74
-87.6569 -1091.16 -1319 52 51 70
-84.6159 -1092.71 -1321 48 49 67
-81.5662 -1094.25 -1323 49 50 66
-78.6856 -1098.29 -1328 50 49 68
-75.6112 -1099.84 -1330 52 51 70
-72.7459 -1104.71 -1336 54 52 71
-69.7486 -1107.93 -1340 53 54 72
-66.8818 -1113.62 -1347 53 54 72
-63.8876 -1117.67 -1352 54 52 67
-61.1394 -1126.69 -1363 54 51 65
-58.4238 -1137.36 -1376 53 53 69
-56.0474 -1156.29 -1399 52 43 55
-53.599 -1176.06 -1423 55 42 52
-50.754 -1189.22 -1439 56 42 50
-47.537 -1194.94 -1446 57 42 50
-44.104 -1195.71 -1447 61 44 50
-40.7231 -1198.13 -1450 64 47 52
-37.2254 -1197.25 -1449 66 49 53
-204.482 -1110.86 -1329 0 0 0
-199.863 -1103.07 -1320 59 40 44
-196.184 -1100.31 -1317 56 39 43
-192.816 -1099.22 -1316 53 38 43
-189.31 -1097.3 -1314 50 34 40
-185.958 -1096.22 -1313 45 31 38
-182.891 -1096.82 -1314 41 33 41
-179.411 -1094.91 -1312 46 39 49
-175.943 -1093.01 -1310 54 49 61
-172.618 -1091.95 -1309 54 51 63
-168.783 -1087.56 -1304 54 53 63
-165.355 -1085.68 -1302 52 55 68
-162.312 -1086.3 -1303 52 54 70
-159.144 -1086.09 -1303 53 54 71
-155.858 -1085.05 -1302 51 52 70
-152.697 -1084.85 -1302 48 49 65
-149.307 -1082.99 -1300 51 49 66
-146.04 -1081.97 -1299 52 50 67
-142.451 -1078.45 -1295 51 49 66
-139.097 -1076.6 -1293 51 49 66
-136.071 -1077.26 -1294 54 55 73
-133.041 -1077.91 -1295 52 53 71
-129.907 -1077.74 -1295 50 51 69
-127.166 -1080.91 -1299 51 52 70
-124.217 -1082.41 -1301 53 54 72
-120.887 -1080.59 -1299 51 52 70
-118.021 -1082.93 -1302 46 47 63
-114.966 -1083.61 -1303 43 44 60
-111.992 -1085.13 -1305 43 44 60
-109.178 -1088.31 -1309 44 45 63
-106.183 -1089.83 -1311 44 45 61
-102.944 -1088.87 -1310 41 42 59
-99.9395 -1090.4 -1312 43 44 62
-96.9265 -1091.93 -1314 43 43 62
-93.7623 -1091.81 -1314 46 44 63
-90.599 -1091.69 -1314 47 45 64
-87.5699 -1093.24 -1316 48 46 65
-84.6605 -1096.45 -1320 47 47 64
-81.5476 -1097.17 -1321 45 46 62
-78.7274 -1102.05 -1327 48 46 64
-75.7083 -1104.45 -1330 50 48 66
-73.0029 -1111.82 -1339 54 52 71
-69.8902 -1113.39 -1341 58 57 76
-67.1168 -1120.78 -1350 54 52 71
-64.0642 -1124.01 -1354 47 44 60
-61.2177 -1131.4 -1363 54 51 65
-58.4137 -1140.46 -1374 61 62 75
-56.039 -1159.47 -1397 58 46 56
-53.4037 -1175.17 -1416 61 45 52
-50.5364 -1187.55 -1431 63 46 53
-47.3016 -1192.47 -1437 64 47 53
-43.8859 -1193.24 -1438 64 44 47
-40.4659 -1194.02 -1439 61 44 48
-37.0416 -1194.8 -1440 0 0 0
-203.209 -1107.13 -1319 0 0 0
-198.911 -1100.99 -1312 55 37 41
-195.396 -1099.05 -1310 54 39 45
-192.334 -1099.64 -1311 52 41 50
-188.98 -1098.55 -1310 51 40 47
-185.491 -1096.63 -1308 50 38 43
-182.572 -1098.07 -1310 49 38 47
-179.234 -1096.99 -1309 48 40 48
-175.903 -1095.92 -1308 50 45 53
-172.579 -1094.86 -1307 52 48 57
-168.744 -1090.45 -1302 53 52 60
-165.697 -1091.07 -1303 51 52 64
-162.523 -1090.85 -1303 52 53 69
-159.473 -1091.48 -1304 53 54 71
-156.301 -1091.27 -1304 52 53 71
-153.13 -1091.07 -1304 54 52 69
-149.845 -1090.04 -1303 54 53 67
-146.23 -1086.5 -1299 56 53 69
-142.636 -1082.97 -1295 57 54 71
-139.601 -1083.62 -1296 53 51 68
-136.352 -1082.6 -1295 52 53 71
-133.419 -1084.1 -1297 50 51 69
-130.176 -1083.09 -1296 48 49 67
-127.331 -1085.43 -1299 48 49 67
-124.378 -1086.94 -1301 48 49 67
-121.043 -1085.11 -1299 45 46 64
-118.083 -1086.63 -1301 42 43 60
-115.291 -1089.82 -1305 40 41 57
-112.051 -1088.83 -1304 40 41 57
-109.068 -1090.36 -1306 40 41 58
-106.239 -1093.56 -1310 40 41 57
-102.92 -1091.75 -1308 39 40 57
-99.8399 -1092.46 -1309 39 37 56
-96.6826 -1092.33 -1309 41 39 58
-93.6691 -1093.88 -1311 47 45 64
-90.5091 -1093.76 -1311 50 48 67
-87.6165 -1096.98 -1315 48 46 65
-84.6414 -1099.37 -1318 47 45 62
-81.5911 -1100.93 -1320 47 48 64
-78.8289 -1106.66 -1327 52 51 68
-75.8061 -1109.07 -1330 53 51 68
-73.1517 -1117.31 -1340 54 50 69
-70.0848 -1119.72 -1343 50 48 67
-67.3527 -1127.96 -1353 46 44 63
-64.1942 -1129.55 -1355 41 40 56
-61.3866 -1137.8 -1365 58 58 72
-58.4891 -1145.23 -1374 78 76 84
-56.1113 -1164.32 -1397 68 57 66
-53.3214 -1176.75 -1412 61 43 50
-50.4248 -1188.35 -1426 63 43 49
-47.1648 -1192.46 -1431 62 41 46
-43.759 -1193.23 -1432 60 39 42
-40.349 -1194.01 -1433 59 42 44
-36.9089 -1193.96 -1433 0 0 0
-202.55 -1106.72 -1313 0 0 0
-198.717 -1103.08 -1309 56 40 46
-195.653 -1103.66 -1310 55 41 45
-192.292 -1102.57 -1309 54 43 52
-189.083 -1102.32 -1309 56 45 54
-185.734 -1101.23 -1308 55 43 49
-182.253 -1099.3 -1306 55 44 51
-178.783 -1097.38 -1304 53 45 52
-175.191 -1094.63 -1301 53 46 55
-172.144 -1095.24 -1302 53 48 58
-168.575 -1092.49 -1299 52 51 58
-165.659 -1093.96 -1301 50 51 61
-162.611 -1094.58 -1302 53 54 68
-159.682 -1096.05 -1304 54 55 71
-156.505 -1095.85 -1304 53 54 72
-153.447 -1096.48 -1305 56 54 71
-150.156 -1095.44 -1304 56 55 69
-146.534 -1091.89 -1300 55 52 68
-143.263 -1090.86 -1299 56 52 69
-139.675 -1087.32 -1295 56 52 69
-136.636 -1087.98 -1296 54 55 73
-133.387 -1086.96 -1295 54 55 73
-130.144 -1085.95 -1294 53 54 72
-127.399 -1089.14 -1298 47 48 66
-124.157 -1088.13 -1297 48 47 64
-121.294 -1090.49 -1300 44 45 63
-118.237 -1091.17 -1301 44 45 62
-115.264 -1092.7 -1303 45 46 62
-112.369 -1095.07 -1306 44 45 61
-109.377 -1096.6 -1308 42 43 59
-106.459 -1098.97 -1311 44 43 60
-103.29 -1098.84 -1311 44 43 60
-100.046 -1097.87 -1310 46 44 63
-96.8081 -1096.9 -1309 49 47 66
-93.7192 -1097.61 -1310 55 53 72
-90.7649 -1100.01 -1313 56 54 73
-87.8636 -1103.24 -1317 55 53 72
-84.7513 -1103.97 -1318 51 49 66
-81.7588 -1106.37 -1321 47 46 62
-79.0503 -1112.97 -1329 41 39 56
-76.0186 -1115.38 -1332 39 37 54
-73.2466 -1121.98 -1340 43 40 59
-70.3324 -1126.91 -1346 44 42 62
-67.4898 -1133.52 -1354 43 41 60
-64.3249 -1135.11 -1356 43 43 59
-61.3761 -1140.88 -1363 70 72 84
-58.437 -1147.5 -1371 89 81 87
-55.9829 -1165 -1392 73 62 71
-53.1636 -1176.65 -1406 59 41 49
-50.3485 -1189.97 -1422 62 42 48
-46.9948 -1191.58 -1424 59 41 45
-43.5709 -1191.52 -1424 61 43 45
-40.1475 -1191.47 -1424 62 44 46
-36.6987 -1190.58 -1423 0 0 0
-201.89 -1106.28 -1307 0 0 0
-198.523 -1105.17 -1306 54 42 47
-195.312 -1104.91 -1306 55 44 48
-192.251 -1105.5 -1307 56 45 51
-189.187 -1106.09 -1308 57 46 52
-185.694 -1104.15 -1306 57 45 50
-182.213 -1102.22 -1304 56 43 50
-178.744 -1100.29 -1302 49 41 48
-175.151 -1097.52 -1299 50 43 51
-172.105 -1098.14 -1300 50 43 53
-168.666 -1096.23 -1298 46 46 51
-165.749 -1097.69 -1300 47 47 55
-162.574 -1097.48 -1300 49 50 61
-160.014 -1101.49 -1305 51 52 65
-156.71 -1100.43 -1304 54 54 69
-153.884 -1102.76 -1307 55 53 70
-150.468 -1100.87 -1305 56 53 68
-147.403 -1101.52 -1306 53 49 65
-144.113 -1100.49 -1305 51 47 64
-140.506 -1096.93 -1301 52 48 65
-137.237 -1095.9 -1300 53 52 71
-133.871 -1094.04 -1298 52 50 69
-130.516 -1092.18 -1296 49 48 67
-127.664 -1094.54 -1299 47 48 66
-124.415 -1093.53 -1298 48 46 67
-121.266 -1093.37 -1298 46 46 65
-118.3 -1094.9 -1300 46 47 64
-115.592 -1098.95 -1305 48 49 65
-112.516 -1099.65 -1306 50 51 67
-109.52 -1101.18 -1308 52 51 68
-106.354 -1101.04 -1308 52 50 67
-103.03 -1099.22 -1306 52 50 67
-99.8708 -1099.09 -1306 51 49 66
-96.7124 -1098.96 -1306 49 47 66
-93.77 -1101.36 -1309 47 45 66
-90.8833 -1104.61 -1313 40 38 58
-87.9116 -1107.01 -1316 34 32 51
-84.8618 -1108.58 -1318 35 33 52
-81.9275 -1111.84 -1322 40 38 55
-79.0341 -1115.94 -1327 40 40 56
-76.1748 -1120.88 -1333 39 40 58
-73.3969 -1127.51 -1341 42 42 65
-70.4764 -1132.46 -1347 44 44 65
-67.5778 -1138.26 -1354 43 39 53
-64.3612 -1139.01 -1355 52 48 59
-61.5012 -1146.49 -1364 82 77 85
-58.5558 -1153.14 -1372 93 85 93
-55.9752 -1168.19 -1390 70 62 70
-53.0435 -1177.37 -1401 54 43 51
-50.024 -1185.7 -1411 53 40 47
-46.7255 -1188.16 -1414 55 40 48
-43.4131 -1190.62 -1417 61 42 43
-40.0586 -1192.25 -1419 65 43 46
-36.6431 -1192.2 -1419 0 0 0
-202.003 -1110.07 -1306 0 0 0
-198.786 -1109.8 -1306 51 39 44
-195.421 -1108.69 -1305 48 37 42
-192.506 -1110.13 -1307 53 42 47
-189.293 -1109.88 -1307 57 46 51
-185.798 -1107.93 -1305 54 43 48
-181.894 -1103.44 -1300 55 40 48
-178.705 -1103.2 -1300 54 42 49
-174.978 -1099.58 -1296 53 44 52
-172.068 -1101.04 -1298 48 41 50
-168.499 -1098.27 -1295 42 42 46
-165.713 -1100.59 -1298 47 46 53
-162.413 -1099.53 -1297 47 47 57
-159.611 -1101.86 -1300 47 48 60
-156.556 -1102.5 -1301 53 52 66
-153.733 -1104.84 -1304 58 57 71
-151.129 -1108.87 -1309 61 58 73
-147.71 -1106.98 -1307 61 57 73
-144.524 -1106.79 -1307 54 50 67
-140.908 -1103.21 -1303 52 48 65
-137.84 -1103.87 -1304 55 53 72
-134.563 -1102.85 -1303 52 50 69
-131.091 -1100.13 -1300 52 51 69
-128.029 -1100.81 -1301 53 54 72
-124.867 -1100.64 -1301 52 50 69
-121.613 -1099.63 -1300 49 50 66
-118.365 -1098.63 -1299 51 52 68
-115.744 -1103.55 -1305 52 53 69
-112.578 -1103.4 -1305 51 52 68
-109.497 -1104.1 -1306 53 52 66
-106.493 -1105.65 -1308 49 48 63
-103.324 -1105.51 -1308 45 43 60
-100.078 -1104.53 -1307 40 38 55
-96.8393 -1103.55 -1306 36 34 53
-93.9647 -1106.81 -1310 37 35 55
-90.8639 -1107.53 -1311 38 36 56
-87.7593 -1108.26 -1312 41 39 58
-84.8442 -1111.53 -1316 45 43 62
-81.9107 -1114.79 -1320 47 45 62
-79.0781 -1119.76 -1326 46 45 63
-76.1602 -1123.88 -1331 45 46 64
-73.4382 -1131.38 -1340 46 45 64
-70.464 -1135.5 -1345 42 40 61
-67.4664 -1139.63 -1350 43 40 54
-64.4454 -1143.77 -1355 65 60 71
-61.5817 -1151.28 -1364 88 83 91
-58.6324 -1157.96 -1372 90 82 89
-55.9275 -1170.54 -1387 60 52 60
-52.9613 -1178.91 -1397 52 42 49
-49.9474 -1187.28 -1407 53 40 48
-46.6543 -1189.75 -1410 55 40 48
-43.3166 -1191.38 -1412 61 41 41
-39.913 -1191.32 -1412 64 42 44
-36.51 -1191.27 -1412 0 0 0
-201.033 -1107.89 -1298 0 0 0
-198.289 -1110.19 -1301 53 41 46
-195.082 -1109.92 -1301 50 39 44
-192.025 -1110.52 -1302 57 46 51
-189.11 -1111.97 -1304 63 52 57
-185.76 -1110.87 -1303 62 51 56
-181.996 -1107.21 -1299 62 47 55
-178.53 -1105.27 -1297 58 46 53
-174.94 -1102.48 -1294 57 47 54
-172.031 -1103.95 -1296 53 45 53
-168.723 -1102.87 -1295 46 46 50
-165.805 -1104.35 -1297 48 47 53
-162.629 -1104.13 -1297 47 47 56
-159.7 -1105.62 -1299 41 42 54
-156.643 -1106.26 -1300 49 45 60
-153.819 -1108.61 -1303 55 51 66
-150.866 -1110.11 -1305 60 56 71
-147.793 -1110.76 -1306 64 60 75
-144.716 -1111.42 -1307 59 55 70
-141.311 -1109.53 -1305 60 56 71
-138.234 -1110.19 -1306 60 58 77
-134.845 -1108.31 -1304 56 54 73
-131.567 -1107.28 -1303 57 55 74
-128.296 -1106.26 -1302 59 60 78
-124.936 -1104.39 -1300 60 58 77
-121.867 -1105.08 -1301 55 54 71
-118.612 -1104.07 -1300 52 52 68
-115.63 -1105.61 -1302 50 50 66
-112.726 -1108.01 -1305 47 47 63
-109.557 -1107.86 -1305 47 46 60
-106.389 -1107.72 -1305 48 46 62
-103.381 -1109.28 -1307 47 45 62
-100.057 -1107.45 -1305 44 42 59
-96.8185 -1106.47 -1304 43 41 59
-94.1604 -1112.28 -1311 45 43 63
-90.9837 -1112.16 -1311 49 47 68
-87.8079 -1112.04 -1311 52 50 69
-84.8269 -1114.47 -1314 50 48 67
-82.0187 -1119.45 -1320 51 49 66
-79.1226 -1123.58 -1325 53 52 70
-76.3179 -1129.42 -1332 51 50 68
-73.4801 -1135.25 -1339 47 45 62
-70.5043 -1139.4 -1344 47 44 61
-67.5552 -1144.39 -1350 62 58 71
-64.435 -1146.85 -1353 86 81 91
-61.7079 -1156.94 -1365 94 89 97
-58.8808 -1166.18 -1376 84 76 82
-55.9203 -1173.73 -1385 49 41 47
-52.8791 -1180.44 -1393 48 38 44
-49.942 -1190.54 -1405 52 39 46
-46.6493 -1193.02 -1408 56 40 46
-43.3427 -1195.5 -1411 61 41 39
-39.9938 -1197.14 -1413 64 42 43
-36.5321 -1195.4 -1411 0 0 0
-201.148 -1111.68 -1297 0 0 0
-197.944 -1111.41 -1297 58 48 53
-194.742 -1111.15 -1297 54 46 50
-191.691 -1111.74 -1298 56 47 51
-188.782 -1113.2 -1300 62 50 55
-185.294 -1111.24 -1298 63 52 57
-181.538 -1107.57 -1294 63 51 58
-178.079 -1105.62 -1292 58 47 54
-174.632 -1103.67 -1290 52 43 50
-171.861 -1106 -1293 51 44 51
-168.817 -1106.63 -1294 44 44 48
-165.77 -1107.26 -1295 43 43 49
-162.469 -1106.19 -1294 45 44 52
-159.667 -1108.54 -1297 47 46 56
-156.49 -1108.33 -1297 47 43 56
-153.433 -1108.97 -1298 46 42 57
-150.604 -1111.33 -1301 53 49 62
-147.649 -1112.84 -1303 59 55 68
-144.465 -1112.65 -1303 60 56 71
-141.173 -1111.6 -1302 64 60 75
-138.206 -1113.12 -1304 66 63 80
-134.921 -1112.09 -1303 61 58 75
-131.742 -1111.91 -1303 60 58 75
-128.664 -1112.59 -1304 60 59 78
-125.583 -1113.27 -1305 59 57 76
-122.31 -1112.26 -1304 54 52 70
-119.044 -1111.24 -1303 51 49 66
-115.962 -1111.94 -1304 49 48 63
-113.049 -1114.35 -1307 48 47 61
-109.871 -1114.2 -1307 50 49 63
-106.939 -1116.61 -1310 50 48 64
-103.835 -1117.32 -1311 51 49 66
-100.881 -1119.74 -1314 49 47 64
-97.4673 -1117.05 -1311 48 46 63
-94.4291 -1118.63 -1313 51 49 69
-91.3127 -1119.36 -1314 53 51 71
-88.0585 -1118.39 -1313 55 53 72
-85.0038 -1119.98 -1315 54 52 71
-82.1895 -1124.98 -1321 57 55 72
-79.2871 -1129.13 -1326 59 58 74
-76.4188 -1134.13 -1332 55 53 68
-73.4674 -1138.29 -1337 51 47 64
-70.44 -1141.6 -1341 59 54 66
-67.4441 -1145.77 -1346 85 80 89
-64.3772 -1149.08 -1350 95 89 98
-61.699 -1160.06 -1363 93 87 95
-58.8728 -1169.35 -1374 67 60 66
-55.8325 -1175.23 -1381 44 37 43
-52.7969 -1181.96 -1389 49 39 45
-49.7944 -1190.4 -1399 55 42 49
-46.4787 -1192.04 -1401 59 42 48
-43.1539 -1193.68 -1403 62 42 40
-39.8482 -1196.18 -1406 66 44 43
-201.108 -1114.61 -1295 0 0 0
-197.752 -1113.48 -1294 56 48 52
-194.403 -1112.36 -1293 52 44 49
-191.357 -1112.96 -1294 50 41 46
-188.454 -1114.42 -1296 55 43 48
-185.114 -1113.31 -1295 59 48 53
-181.782 -1112.2 -1294 62 50 56
-178.456 -1111.1 -1293 59 47 54
-175.138 -1110.01 -1292 57 46 53
-171.959 -1109.77 -1292 54 46 52
-169.044 -1111.26 -1294 47 46 48
-165.992 -1111.89 -1295 47 45 51
-162.309 -1108.24 -1291 48 46 54
-159.511 -1110.6 -1294 49 48 58
-156.579 -1112.1 -1296 53 49 61
-153.52 -1112.75 -1297 52 48 61
-150.458 -1113.41 -1298 51 47 60
-147.62 -1115.78 -1301 52 48 61
-144.436 -1115.58 -1301 56 51 64
-141.145 -1114.53 -1300 56 51 66
-138.179 -1116.06 -1302 55 50 67
-135.101 -1116.74 -1303 52 48 65
-131.817 -1115.7 -1302 56 53 70
-128.935 -1118.1 -1305 57 55 72
-125.847 -1118.78 -1306 54 52 68
-122.473 -1116.9 -1304 53 51 68
-119.203 -1115.89 -1303 54 52 69
-116.206 -1117.44 -1305 56 54 70
-113.113 -1118.14 -1306 53 52 66
-109.765 -1116.28 -1304 50 49 62
-107.081 -1121.27 -1310 48 47 60
-103.973 -1121.99 -1311 50 49 63
-100.862 -1122.71 -1312 50 49 63
-97.5972 -1121.72 -1311 52 50 67
-94.6989 -1125.01 -1315 55 53 73
-91.5735 -1125.74 -1316 58 56 76
-88.3772 -1125.62 -1316 57 55 74
-85.2465 -1126.36 -1317 57 55 74
-82.2989 -1129.67 -1321 56 54 71
-79.2729 -1132.13 -1324 55 52 67
-76.4056 -1137.16 -1330 56 52 65
-73.455 -1141.33 -1335 63 59 73
-70.3232 -1142.95 -1337 85 79 88
-67.2328 -1145.42 -1340 99 92 101
-64.3195 -1151.31 -1347 99 92 100
-61.7357 -1164.05 -1362 83 76 84
-58.9082 -1173.37 -1373 53 46 50
-55.7852 -1177.57 -1378 47 40 44
-52.6767 -1182.62 -1384 52 43 47
-49.5754 -1188.54 -1391 57 45 50
-46.3079 -1191.04 -1394 62 45 49
-42.9956 -1192.68 -1396 71 50 47
-39.816 -1198.61 -1403 75 52 50
-201.224 -1118.41 -1294 0 0 0
-197.866 -1117.28 -1293 55 48 53
-194.666 -1117.01 -1293 54 47 53
-191.32 -1115.89 -1292 53 45 51
-188.272 -1116.5 -1293 56 45 50
-184.935 -1115.38 -1292 59 48 53
-181.746 -1115.13 -1292 58 47 52
-178.559 -1114.89 -1292 58 46 52
-175.238 -1113.79 -1291 57 46 53
-171.791 -1111.83 -1289 57 46 53
-168.748 -1112.46 -1290 48 44 48
-165.703 -1113.1 -1291 50 47 52
-162.528 -1112.87 -1291 52 49 56
-159.479 -1113.52 -1292 49 48 57
-156.547 -1115.03 -1294 53 49 60
-153.489 -1115.68 -1295 58 53 66
-150.428 -1116.34 -1296 60 55 68
-147.591 -1118.72 -1299 60 55 68
-144.408 -1118.52 -1299 56 51 64
-141.226 -1118.33 -1299 49 44 59
-138.152 -1119 -1300 44 40 55
-135.075 -1119.68 -1301 45 41 56
-131.994 -1120.36 -1302 48 44 60
-129.108 -1122.77 -1305 52 50 67
-126.016 -1123.46 -1306 53 52 66
-122.826 -1123.29 -1306 52 51 66
-119.546 -1122.27 -1305 57 55 72
-116.451 -1122.97 -1306 61 57 72
-113.352 -1123.67 -1307 57 56 70
-110.249 -1124.38 -1308 53 52 64
-107.552 -1129.39 -1314 52 51 64
-104.43 -1130.11 -1315 54 53 67
-101.305 -1130.83 -1316 54 53 67
-98.1006 -1130.7 -1316 54 52 69
-95.2584 -1134.86 -1321 55 53 72
-92.1838 -1136.46 -1323 57 55 75
-88.6299 -1132.04 -1318 55 53 72
-85.6198 -1134.5 -1321 52 50 69
-82.5337 -1136.1 -1323 52 50 67
-79.3789 -1136.86 -1324 53 50 66
-76.3352 -1139.33 -1327 56 52 68
-73.388 -1143.52 -1332 77 72 83
