ply
format ascii 1.0
comment Created by Open3D
element vertex 1441
property double x
property double y
property double z
property uchar red
property uchar green
property uchar blue
end_header
-20.5927 -447.871 -1290 62 73 105
-17.9172 -447.515 -1289 62 71 103
-15.2578 -447.507 -1289 62 71 103
-12.6083 -447.847 -1290 61 70 102
-9.95479 -448.189 -1291 64 73 105
-7.3029 -448.879 -1293 66 75 107
-4.64266 -449.571 -1295 63 72 104
-1.97436 -450.263 -1297 69 78 110
0.701629 -450.61 -1298 72 81 113
3.38175 -450.959 -1299 71 80 112
6.06603 -451.308 -1300 70 79 111
8.74102 -450.964 -1299 70 79 111
11.4559 -452.358 -1303 73 82 114
14.155 -452.712 -1304 71 80 112
16.8969 -454.108 -1308 69 78 110
19.6256 -454.811 -1310 71 80 112
22.4649 -457.599 -1318 63 72 104
25.3757 -461.082 -1328 67 76 108
28.2645 -463.526 -1335 68 77 109
31.3682 -468.748 -1350 65 74 105
34.2305 -469.806 -1353 66 74 103
-152.489 -471.616 -1344 51 53 72
-149.234 -470.139 -1340 51 53 73
-145.669 -467.61 -1333 52 54 74
-141.814 -464.032 -1323 50 52 73
-138.106 -460.807 -1314 52 55 75
-134.54 -457.935 -1306 56 60 80
-131.413 -456.467 -1302 60 65 85
-128.303 -455.001 -1298 63 69 90
-125.502 -454.588 -1297 64 69 93
-122.705 -454.177 -1296 68 73 97
-119.636 -452.716 -1292 80 84 108
-116.676 -451.607 -1289 88 92 116
-113.905 -451.2 -1288 87 91 115
-110.967 -450.094 -1285 89 93 118
-108.212 -449.691 -1284 89 94 121
-105.543 -449.638 -1284 95 99 124
-102.875 -449.587 -1284 101 103 126
-100.131 -449.187 -1283 59 63 88
-97.087 -447.389 -1278 61 65 91
-94.2866 -446.642 -1276 58 65 94
-91.5672 -446.246 -1275 55 68 99
-88.9922 -446.552 -1276 56 70 101
-86.4815 -447.209 -1278 54 69 101
-84.0288 -448.217 -1281 54 66 99
-81.2469 -447.477 -1279 54 65 98
-78.5969 -447.438 -1279 58 66 102
-75.8287 -446.701 -1277 59 67 102
-73.1842 -446.664 -1277 56 63 97
-70.5402 -446.629 -1277 53 60 93
-67.8437 -446.246 -1276 57 64 95
-65.203 -446.214 -1276 66 75 101
-62.5138 -445.833 -1275 61 65 85
-59.9233 -446.152 -1276 55 58 79
-57.1944 -445.425 -1274 66 66 88
-54.6029 -445.747 -1275 55 55 74
-52.0076 -446.07 -1276 57 58 77
-49.4861 -447.094 -1279 60 64 87
-46.7693 -446.372 -1277 62 66 90
-44.1996 -447.049 -1279 62 66 91
-41.5895 -447.377 -1280 60 65 91
-38.9756 -447.707 -1281 61 67 94
-36.3579 -448.038 -1282 61 68 97
-33.7627 -448.72 -1284 53 62 90
-31.1595 -449.403 -1286 51 62 90
-28.5261 -449.738 -1287 51 62 92
-25.8889 -450.075 -1288 52 63 93
-23.2478 -450.412 -1289 53 63 94
-20.5707 -450.052 -1288 56 66 98
-17.9537 -451.091 -1291 58 67 99
-15.2652 -450.384 -1289 59 68 100
-12.6046 -450.377 -1289 58 67 99
-9.95949 -451.071 -1291 56 65 97
-7.30631 -451.765 -1293 57 66 98
-4.64135 -452.112 -1294 55 64 96
-1.97534 -453.158 -1297 58 67 99
0.701953 -453.507 -1298 57 66 98
3.37817 -453.159 -1297 56 65 97
6.06896 -454.209 -1300 58 67 99
8.76545 -454.912 -1302 61 70 102
11.4616 -455.266 -1303 64 73 105
14.1836 -456.321 -1306 65 74 106
16.9309 -457.726 -1310 66 75 107
19.6951 -459.133 -1314 66 75 107
22.4928 -460.89 -1319 58 67 99
25.4262 -464.745 -1330 61 69 102
28.3205 -467.205 -1337 65 74 106
31.4067 -472.111 -1351 64 73 103
34.222 -472.477 -1352 68 76 103
-153.245 -476.754 -1350 50 52 70
-149.642 -474.207 -1343 44 46 65
-146.069 -471.663 -1336 44 46 66
-142.205 -468.061 -1326 52 54 75
-138.49 -464.815 -1317 53 55 76
-135.122 -462.63 -1311 51 55 75
-131.679 -460.094 -1304 52 58 78
-128.465 -458.266 -1299 56 62 83
-125.37 -456.792 -1295 59 64 88
-122.387 -455.673 -1292 61 66 90
-119.602 -455.261 -1291 63 67 92
-116.461 -453.44 -1286 70 74 99
-113.784 -453.383 -1286 76 80 106
-110.936 -452.622 -1284 78 82 108
-108.096 -451.863 -1282 81 86 112
-105.513 -452.163 -1283 82 86 111
-102.846 -452.112 -1283 91 94 117
-99.9455 -451.005 -1280 59 64 89
-97.2106 -450.604 -1279 62 67 93
-94.4807 -450.204 -1278 60 67 96
-91.7558 -449.806 -1277 58 71 102
-89.2452 -450.466 -1279 57 71 103
-86.5916 -450.423 -1279 53 67 99
-84.2013 -451.789 -1283 52 64 97
-81.4138 -451.045 -1281 58 69 102
-78.5739 -449.949 -1278 61 71 106
-75.8658 -449.559 -1277 61 68 105
-73.2773 -449.874 -1278 60 64 102
-70.5194 -449.135 -1276 52 59 94
-67.7705 -448.397 -1274 52 60 92
-65.2861 -449.42 -1277 66 75 103
-62.5935 -449.037 -1276 68 72 94
-59.9057 -448.655 -1275 63 66 88
-57.2673 -448.626 -1275 69 69 90
-54.6724 -448.95 -1276 51 53 71
-52.0738 -449.276 -1277 51 53 72
-49.3941 -448.899 -1276 57 61 86
-46.8656 -449.931 -1279 60 63 87
-44.2212 -449.909 -1279 60 62 86
-41.5448 -449.536 -1278 58 63 90
-38.9642 -450.22 -1280 61 67 95
-36.3757 -450.905 -1282 63 70 99
-33.7791 -451.591 -1284 53 64 92
-31.1505 -451.927 -1285 52 64 93
-28.5844 -453.319 -1289 51 64 93
-25.9015 -452.954 -1288 56 65 95
-23.2411 -452.942 -1288 58 67 98
-20.5968 -453.283 -1289 60 69 101
-17.9346 -453.273 -1289 57 66 96
-15.2489 -452.562 -1287 55 64 95
-12.6107 -453.258 -1289 55 64 96
-9.95665 -453.605 -1290 59 68 100
-7.29859 -453.952 -1291 61 70 102
-4.64363 -455.004 -1294 60 69 101
-1.97632 -456.057 -1297 56 65 97
0.701738 -456.057 -1297 54 63 95
3.3772 -455.706 -1296 57 66 98
6.06273 -456.412 -1298 60 69 101
8.74294 -456.416 -1298 62 71 103
11.4496 -457.476 -1301 62 71 103
14.1796 -458.888 -1305 65 74 106
16.9135 -459.951 -1308 67 76 108
19.6897 -461.718 -1313 69 78 110
22.4699 -463.135 -1317 65 74 106
25.3814 -466.664 -1327 63 70 104
28.2921 -469.49 -1335 60 69 101
31.3524 -474.077 -1348 61 70 100
34.0868 -473.389 -1346 68 76 102
-153.548 -480.502 -1352 46 48 66
-149.605 -476.872 -1342 46 48 66
-146.142 -474.667 -1336 52 54 72
-142.383 -471.398 -1327 55 57 77
-138.769 -468.486 -1319 52 55 75
-134.879 -464.512 -1308 51 55 75
-131.543 -462.315 -1302 52 57 79
-128.43 -460.83 -1298 57 63 85
-125.529 -460.057 -1296 57 62 85
-122.637 -459.285 -1294 59 64 87
-119.662 -458.16 -1291 57 61 84
-116.7 -457.037 -1288 62 66 91
-113.664 -455.56 -1284 70 74 100
-110.818 -454.795 -1282 71 75 102
-108.065 -454.386 -1281 68 72 97
-105.565 -455.043 -1283 89 93 117
-102.816 -454.636 -1282 91 95 118
-100.229 -454.94 -1283 55 60 85
-97.3347 -453.828 -1280 61 66 92
-94.5274 -453.071 -1278 61 68 97
-91.873 -453.025 -1278 57 69 100
-89.2893 -453.335 -1279 56 69 100
-86.5667 -452.937 -1278 51 64 97
-84.1772 -454.312 -1282 51 63 96
-81.454 -453.916 -1281 56 68 101
-78.6742 -453.168 -1279 58 69 104
-75.8438 -452.067 -1276 59 67 105
-73.2561 -452.384 -1277 61 66 106
-70.5542 -451.995 -1276 55 62 98
-67.9103 -451.96 -1276 56 64 96
-65.3182 -452.282 -1277 63 72 99
-62.6734 -452.25 -1277 62 67 89
-59.9822 -451.866 -1276 64 67 89
-57.2507 -451.128 -1274 67 68 87
-54.6565 -451.455 -1275 49 50 68
-52.0179 -451.428 -1275 47 48 65
-49.4184 -451.757 -1276 50 53 77
-46.8153 -452.088 -1277 55 57 81
-44.3121 -453.481 -1281 58 60 84
-41.6303 -453.106 -1280 57 62 89
-39.0747 -454.148 -1283 58 64 92
-36.4503 -454.483 -1284 61 68 97
-33.7695 -454.112 -1283 53 64 92
-31.1416 -454.45 -1284 53 66 94
-28.4875 -454.435 -1284 51 65 94
-25.7936 -453.714 -1282 58 68 100
-23.2164 -455.117 -1286 59 69 101
-20.559 -455.107 -1286 57 67 99
-17.9155 -455.451 -1287 52 63 93
-15.2564 -455.443 -1287 54 64 95
-12.6169 -456.144 -1289 56 67 99
-9.95383 -456.138 -1289 59 68 100
-7.30219 -456.842 -1291 61 70 102
-4.64952 -458.254 -1295 61 70 102
-1.97579 -458.607 -1296 57 66 98
0.702229 -458.96 -1297 59 68 100
3.38422 -459.315 -1298 64 73 105
6.07037 -459.671 -1299 68 77 109
8.75395 -459.675 -1299 69 78 110
11.4728 -461.095 -1303 66 75 107
14.1759 -461.456 -1304 71 80 112
16.9477 -463.587 -1310 72 81 113
19.6845 -464.304 -1312 73 82 114
22.4979 -466.437 -1318 71 79 112
25.4513 -470.696 -1330 64 71 105
28.3484 -473.187 -1337 57 66 98
31.2514 -475.325 -1343 63 72 102
34.0783 -476.049 -1345 74 82 108
-153.511 -483.19 -1351 44 45 62
-149.568 -479.538 -1341 46 47 65
-146.215 -477.676 -1336 52 54 72
-142.562 -474.743 -1328 60 62 82
-138.943 -471.813 -1320 60 63 83
-135.256 -468.528 -1311 57 61 81
-131.911 -466.317 -1305 54 59 81
-128.593 -464.108 -1299 55 61 83
-125.591 -462.973 -1296 57 62 87
-122.698 -462.196 -1294 60 64 88
-119.721 -461.064 -1291 62 66 91
-116.758 -459.933 -1288 69 73 98
-113.809 -458.805 -1285 73 77 103
-111.132 -458.748 -1285 73 77 104
-108.288 -457.98 -1283 79 83 108
-105.617 -457.926 -1283 94 98 123
-102.948 -457.874 -1283 86 90 113
-100.357 -458.18 -1284 55 60 85
-97.3831 -456.703 -1280 60 65 91
-94.6484 -456.299 -1279 62 69 98
-91.9907 -456.252 -1279 60 70 102
-89.2638 -455.85 -1278 57 68 100
-86.6096 -455.807 -1278 51 64 97
-84.1534 -456.834 -1281 50 63 96
-81.3673 -456.079 -1279 53 66 99
-78.7132 -456.04 -1279 58 69 104
-75.941 -455.288 -1277 60 68 106
-73.2925 -455.251 -1277 60 66 107
-70.4786 -454.145 -1274 57 64 97
-67.9973 -455.18 -1277 62 69 100
-65.3507 -455.147 -1277 67 76 101
-62.7045 -455.115 -1277 62 67 87
-60.106 -455.441 -1278 68 71 91
-57.3689 -454.699 -1276 66 67 84
-54.7265 -454.671 -1276 50 51 67
-52.0437 -454.288 -1275 50 51 67
-49.4817 -454.976 -1277 54 56 79
-46.8385 -454.952 -1277 58 60 85
-44.1957 -454.929 -1277 58 60 86
-41.651 -455.977 -1280 55 60 87
-39.0332 -456.313 -1281 56 62 90
-36.4116 -456.65 -1282 58 65 94
-33.7862 -456.989 -1283 53 64 92
-31.1569 -457.329 -1284 55 67 96
-28.5016 -457.314 -1284 54 66 96
-25.8264 -456.944 -1283 61 72 104
-23.1917 -457.288 -1284 62 73 105
-20.5691 -457.99 -1286 64 75 107
-17.9105 -457.98 -1286 66 76 106
-15.2758 -458.684 -1288 67 77 107
-12.6134 -458.677 -1288 63 73 105
-9.96649 -459.384 -1290 63 72 104
-7.30015 -459.38 -1290 65 74 106
-4.64449 -460.445 -1293 64 73 105
-1.97661 -461.512 -1296 65 74 106
0.703642 -462.58 -1299 70 79 111
3.38848 -462.581 -1299 72 81 113
6.08269 -463.295 -1301 78 87 119
8.77174 -463.299 -1301 79 88 120
11.4698 -463.66 -1302 73 82 114
14.1828 -464.379 -1304 75 84 116
16.9303 -465.811 -1308 72 81 113
19.6942 -467.245 -1312 69 78 110
22.5263 -469.748 -1319 67 75 108
25.4066 -472.61 -1327 64 71 105
28.3201 -475.472 -1335 63 72 104
31.1506 -476.555 -1338 68 77 106
34.0953 -479.065 -1345 78 86 110
-153.134 -484.799 -1347 53 54 70
-149.197 -481.123 -1337 55 56 73
-145.85 -479.25 -1332 61 63 82
-142.418 -477.019 -1326 64 66 86
-139.013 -474.789 -1320 64 66 86
-135.015 -470.404 -1308 64 68 88
-131.472 -467.46 -1300 61 66 87
-128.36 -465.957 -1296 57 63 84
-125.363 -464.814 -1293 59 64 90
-122.665 -464.752 -1293 58 62 88
-119.781 -463.972 -1291 57 61 86
-116.817 -462.834 -1288 65 69 94
-113.689 -460.98 -1283 72 76 102
-110.928 -460.564 -1282 72 76 102
-108.258 -460.509 -1282 68 72 97
-105.67 -460.814 -1283 83 87 111
-102.999 -460.762 -1283 80 84 107
-100.329 -460.711 -1283 57 62 88
-97.508 -459.943 -1281 63 68 95
-94.7698 -459.535 -1280 63 70 99
-92.0366 -459.13 -1279 60 72 103
-89.3783 -459.084 -1279 56 69 101
-86.653 -458.681 -1278 52 66 98
-84.1954 -459.715 -1281 52 64 97
-81.4079 -458.955 -1279 52 63 96
-78.6295 -458.198 -1277 56 65 101
-75.9789 -458.159 -1277 60 67 104
-73.4439 -458.839 -1279 63 69 108
-70.5691 -457.368 -1275 59 66 97
-67.978 -457.692 -1276 62 70 97
-65.3833 -458.017 -1277 69 78 97
-62.6867 -457.626 -1276 63 68 84
-60.0419 -457.596 -1276 67 72 87
-57.3526 -457.208 -1275 59 60 76
-54.7109 -457.179 -1275 48 49 64
-52.0288 -456.794 -1274 50 51 66
-49.4676 -457.486 -1276 52 54 77
-46.7885 -457.103 -1275 56 59 84
-44.2177 -457.797 -1277 55 59 86
-41.6392 -458.493 -1279 56 61 88
-39.0526 -459.19 -1281 58 64 92
-36.4297 -459.529 -1282 58 65 94
-33.7503 -459.153 -1281 54 65 93
-31.1239 -459.495 -1282 57 68 96
-28.4714 -459.48 -1282 58 69 98
-25.7991 -459.109 -1281 57 68 100
-23.1491 -459.096 -1281 59 70 102
-20.5793 -460.877 -1286 63 74 106
-17.9334 -461.226 -1287 65 74 105
-15.2834 -461.576 -1288 66 75 106
-12.6295 -461.928 -1289 67 76 108
-9.97144 -462.28 -1290 66 75 107
-7.30945 -462.634 -1291 65 74 106
-4.6468 -463.348 -1293 67 76 108
-1.97914 -464.78 -1297 71 81 112
0.704516 -465.854 -1300 75 84 116
3.39275 -465.856 -1300 75 84 116
6.09054 -466.575 -1302 79 88 120
8.77624 -466.22 -1301 81 90 122
11.4755 -466.584 -1302 74 84 116
14.19 -467.307 -1304 70 80 112
16.9387 -468.748 -1308 68 77 109
19.6741 -469.474 -1310 63 71 104
22.5205 -472.352 -1318 61 69 102
25.4193 -475.589 -1327 60 68 102
28.3768 -479.187 -1337 65 75 106
31.2361 -480.635 -1341 73 81 109
34.2645 -484.236 -1351 75 83 106
-153.325 -488.205 -1348 68 69 83
-149.495 -484.868 -1339 62 64 80
-146.033 -482.621 -1333 66 68 87
-142.813 -481.099 -1329 65 67 88
-138.978 -477.408 -1319 64 66 87
-135.599 -475.167 -1313 64 68 88
-132.348 -473.29 -1308 60 66 86
-128.921 -470.691 -1301 57 62 83
-125.815 -469.179 -1297 61 66 93
-122.916 -468.393 -1295 62 67 93
-119.842 -466.884 -1291 63 67 92
-116.876 -465.74 -1288 78 82 108
-113.923 -464.596 -1285 81 85 111
-111.157 -464.178 -1284 76 80 105
-108.312 -463.399 -1282 68 72 96
-105.806 -464.068 -1284 87 91 115
-103.132 -464.015 -1284 80 84 108
-100.458 -463.964 -1284 60 64 91
-97.5572 -462.829 -1281 63 68 95
-94.8176 -462.419 -1280 62 70 97
-92.155 -462.372 -1280 59 71 102
-89.4933 -462.326 -1280 59 72 104
-86.6967 -461.559 -1278 58 72 104
-84.1721 -462.239 -1280 55 67 101
-81.3852 -461.475 -1278 53 65 99
-78.669 -461.073 -1277 57 67 103
-75.8981 -460.312 -1275 60 68 105
-73.366 -460.996 -1277 62 69 105
-70.6047 -460.238 -1275 63 70 101
-67.9589 -460.203 -1275 62 69 97
-65.3137 -460.169 -1275 62 70 93
-62.6199 -459.776 -1274 56 62 83
-60.0721 -460.467 -1276 66 71 91
-57.3814 -460.077 -1275 63 64 81
-54.8672 -461.131 -1278 54 54 73
-52.1775 -460.743 -1277 55 55 75
-49.5312 -460.717 -1277 56 56 80
-46.8854 -460.693 -1277 58 61 85
-44.2746 -461.031 -1278 58 62 86
-41.6601 -461.37 -1279 59 66 92
-39.0417 -461.71 -1280 59 67 95
-36.4196 -462.052 -1281 57 66 94
-33.7146 -461.313 -1279 55 68 95
-31.1152 -462.018 -1281 55 67 94
-28.4412 -461.642 -1280 57 66 95
-25.812 -461.989 -1281 57 68 96
-23.1788 -462.337 -1282 58 69 98
-20.5897 -463.769 -1286 62 72 104
-17.9284 -463.759 -1286 65 74 106
-15.2911 -464.472 -1288 67 76 108
-12.6358 -464.826 -1289 66 75 107
-9.97643 -465.181 -1290 64 73 105
-7.31311 -465.537 -1291 62 71 103
-4.65992 -467.337 -1296 66 76 108
-1.98014 -467.696 -1297 67 77 108
0.704851 -468.778 -1300 62 73 103
3.39981 -469.5 -1302 66 75 107
6.09823 -469.863 -1303 69 78 110
8.78734 -469.506 -1302 69 78 110
11.4902 -469.872 -1303 67 77 109
14.208 -470.599 -1305 65 75 107
16.9343 -471.329 -1307 63 72 104
19.669 -472.059 -1309 61 68 101
22.5319 -475.315 -1318 59 67 100
25.413 -478.213 -1326 59 67 101
28.2424 -479.669 -1330 62 73 102
31.0653 -480.766 -1333 73 81 108
34.1041 -484.75 -1344 78 84 106
-153.062 -490.162 -1345 78 78 92
-149.46 -487.534 -1338 70 70 85
-146.108 -485.637 -1333 71 72 92
-142.671 -483.377 -1327 66 68 88
-138.838 -479.663 -1317 62 65 85
-135.462 -477.407 -1311 64 66 87
-132.112 -475.154 -1305 62 65 87
-128.788 -472.903 -1299 60 65 87
-125.685 -471.382 -1295 61 66 93
-122.884 -470.955 -1294 63 68 94
-119.81 -469.437 -1290 61 66 91
-117.026 -469.013 -1289 70 74 101
-113.804 -466.771 -1283 77 81 107
-111.214 -467.078 -1284 87 91 116
-108.367 -466.294 -1282 84 88 111
-105.942 -467.33 -1285 95 99 122
-103.345 -467.641 -1286 72 76 101
-100.587 -467.225 -1285 56 61 87
-97.6067 -465.721 -1281 62 67 94
-94.8657 -465.308 -1280 62 70 96
-92.1298 -464.897 -1279 61 73 104
-89.5387 -465.214 -1280 62 76 108
-86.8085 -464.806 -1279 61 73 106
-84.2147 -465.126 -1280 54 67 101
-81.3628 -463.994 -1277 52 65 100
-78.7089 -463.953 -1277 58 69 104
-75.9961 -463.55 -1276 61 71 106
-73.3456 -463.512 -1276 60 68 104
-70.6404 -463.112 -1275 62 69 101
-67.9933 -463.077 -1275 64 71 102
-65.2443 -462.317 -1273 69 77 103
-62.5041 -461.558 -1271 61 67 92
-60.0083 -462.617 -1274 65 69 93
-57.4105 -462.95 -1275 64 65 83
-54.809 -463.284 -1276 55 56 77
-52.204 -463.62 -1277 55 56 77
-49.6339 -464.321 -1279 60 60 84
-46.9459 -463.933 -1278 65 67 91
-44.3317 -464.273 -1279 69 73 96
-41.7137 -464.614 -1280 66 72 99
-39.0614 -464.593 -1280 63 70 97
-36.3811 -464.211 -1279 61 69 96
-33.7052 -463.831 -1278 58 72 99
-31.1067 -464.54 -1280 53 66 94
-28.4112 -463.799 -1278 53 65 94
-25.8049 -464.511 -1280 58 69 99
-23.2086 -465.588 -1283 58 68 99
-20.6001 -466.665 -1286 62 71 103
-17.9514 -467.018 -1287 61 70 102
-15.3106 -467.736 -1289 62 71 103
-12.6421 -467.728 -1289 61 70 102
-9.96596 -467.36 -1288 57 66 97
-7.32229 -468.807 -1292 59 68 99
-4.65148 -469.167 -1293 63 74 106
-1.97962 -470.254 -1296 67 76 108
0.704809 -471.342 -1299 65 75 106
3.39889 -472.069 -1301 62 69 103
6.09675 -472.434 -1302 60 68 101
8.79864 -472.801 -1303 60 68 102
11.5137 -473.532 -1305 63 71 105
14.2261 -473.901 -1306 65 73 106
16.9688 -474.998 -1309 65 74 106
19.7091 -475.733 -1311 63 72 104
22.5433 -478.284 -1318 62 70 102
25.4258 -481.199 -1326 64 71 103
28.2142 -481.938 -1328 67 76 104
31.1278 -484.494 -1335 74 82 108
-152.799 -492.111 -1342 86 84 98
-149.201 -489.466 -1335 74 73 88
-145.525 -486.457 -1327 74 75 95
-142.206 -484.55 -1322 68 70 91
-138.804 -482.279 -1316 62 64 85
-135.428 -480.01 -1310 60 62 83
-132.179 -478.109 -1305 60 63 85
-129.152 -476.943 -1302 58 62 85
-126.137 -475.779 -1299 60 65 92
-122.947 -473.883 -1294 63 68 94
-120.057 -473.089 -1292 60 65 90
-117.086 -471.929 -1289 64 68 95
-113.862 -469.673 -1283 72 76 102
-111.357 -470.348 -1285 73 77 102
-108.676 -470.291 -1285 66 70 95
-106.161 -470.968 -1287 91 96 120
-103.478 -470.914 -1287 66 70 95
-100.717 -470.496 -1286 56 61 88
-97.7327 -468.982 -1282 59 65 92
-95.0625 -468.932 -1282 58 66 94
-92.3209 -468.519 -1281 57 70 101
-89.6543 -468.472 -1281 59 74 106
-86.9207 -468.061 -1280 61 72 105
-84.3894 -468.749 -1282 57 68 102
-81.5318 -467.609 -1279 55 66 101
-78.749 -466.837 -1277 55 66 101
-76.0349 -466.432 -1276 59 68 104
-73.3831 -466.394 -1276 56 64 100
-70.5656 -465.26 -1273 56 63 96
-67.9746 -465.59 -1274 64 71 103
-65.2262 -464.825 -1272 71 78 108
-62.536 -464.427 -1271 64 69 95
-59.9918 -465.127 -1273 69 74 98
-57.3947 -465.462 -1274 70 71 91
-54.7939 -465.799 -1275 57 59 80
-52.1896 -466.137 -1276 57 59 80
-49.6592 -467.207 -1279 65 65 89
-46.9697 -466.817 -1278 69 71 95
-44.3196 -466.793 -1278 74 78 101
-41.6697 -466.772 -1278 74 80 107
-39.0813 -467.481 -1280 72 79 105
-36.3996 -467.097 -1279 69 77 103
-33.7488 -467.079 -1279 64 77 104
-31.1225 -467.427 -1280 58 72 100
-28.4924 -467.777 -1281 59 73 102
-25.8583 -468.129 -1282 63 74 104
-23.2566 -469.212 -1285 64 74 105
-20.6105 -469.566 -1286 68 77 109
-17.9605 -469.921 -1287 66 75 107
-15.3184 -470.643 -1289 67 76 108
-12.6387 -470.271 -1288 68 77 109
-9.98647 -470.995 -1290 61 71 101
-7.32615 -471.721 -1292 59 69 99
-4.65743 -472.448 -1294 59 70 102
-1.98199 -473.542 -1297 63 73 105
0.705148 -474.272 -1299 67 76 108
3.39813 -474.638 -1300 63 71 105
6.10449 -475.736 -1303 61 69 103
8.79645 -475.374 -1302 63 71 105
11.5195 -476.475 -1305 69 77 111
14.2334 -476.847 -1306 69 78 111
16.9775 -477.95 -1309 67 76 108
19.7192 -478.69 -1311 67 76 108
22.5719 -481.622 -1319 70 78 109
25.4388 -484.19 -1326 72 79 110
28.2711 -485.664 -1330 70 79 107
31.1203 -487.14 -1334 73 81 107
-155.812 -495.606 -1343 105 98 104
-152.194 -492.943 -1336 87 85 99
-148.831 -491.02 -1331 72 72 87
-145.49 -489.1 -1326 70 71 91
-142.279 -487.55 -1322 65 68 88
-138.875 -485.264 -1316 63 65 86
-135.394 -482.612 -1309 61 63 84
-132.045 -480.331 -1303 59 63 85
-129.119 -479.526 -1301 58 62 85
-125.619 -476.512 -1293 59 64 91
-123.105 -477.185 -1295 62 67 93
-120.119 -476.017 -1292 60 65 90
-117.328 -475.587 -1291 64 68 95
-114.009 -472.949 -1284 74 78 105
-111.675 -474.364 -1288 81 85 110
-108.732 -473.202 -1285 69 74 99
-106.133 -473.514 -1286 98 103 128
-103.531 -473.829 -1287 64 68 93
-100.847 -473.776 -1287 58 63 89
-97.8593 -472.252 -1283 63 68 94
-95.1855 -472.202 -1283 66 73 102
-92.4405 -471.786 -1282 66 78 109
-89.6304 -471.003 -1280 65 80 112
-86.9654 -470.957 -1280 64 75 108
-84.4328 -471.649 -1282 60 71 105
-81.5099 -470.135 -1278 58 69 104
-78.7278 -469.358 -1276 60 71 106
-76.0144 -468.95 -1275 61 70 105
-73.3632 -468.912 -1275 54 62 96
-70.6018 -468.139 -1273 53 60 93
-67.9561 -468.103 -1273 59 66 98
-65.2597 -467.701 -1272 60 67 98
-62.6173 -467.668 -1272 52 57 83
-59.9753 -467.637 -1272 67 71 95
-57.3791 -467.974 -1273 70 71 91
-54.7791 -468.313 -1274 59 61 83
-52.2163 -469.021 -1276 61 63 86
-49.6846 -470.097 -1279 61 62 85
-47.0306 -470.072 -1279 60 63 86
-44.3769 -470.049 -1279 66 70 93
-41.7563 -470.394 -1280 73 80 107
-39.1013 -470.373 -1280 74 82 108
-36.4182 -469.987 -1279 71 79 106
-33.7925 -470.336 -1280 67 78 106
-31.1628 -470.687 -1281 62 74 103
-28.5069 -470.671 -1281 65 79 108
-25.8918 -471.392 -1283 73 84 114
-23.2504 -471.747 -1284 75 85 116
-20.621 -472.471 -1286 77 86 118
-17.9976 -473.563 -1289 72 81 113
-15.3143 -473.187 -1288 70 80 112
-12.6648 -473.915 -1290 72 81 113
-9.98378 -473.541 -1289 73 83 114
-7.31852 -473.904 -1290 72 83 114
-4.6526 -474.636 -1292 75 85 117
-1.97995 -475.736 -1295 76 85 117
0.704402 -476.471 -1297 70 80 112
3.39721 -477.207 -1299 68 76 110
6.09834 -477.944 -1301 70 79 112
8.78736 -477.58 -1300 70 80 112
11.5078 -478.688 -1303 72 80 114
14.2298 -479.429 -1305 77 85 118
16.9603 -480.172 -1307 78 87 119
19.7142 -481.284 -1310 73 81 114
22.5663 -484.234 -1318 72 81 112
25.4135 -486.45 -1324 73 81 111
28.2219 -487.567 -1327 71 80 107
31.1597 -490.521 -1335 72 79 104
-155.893 -498.66 -1343 104 97 104
-152.16 -495.609 -1335 85 85 98
-148.909 -494.046 -1331 74 75 89
-145.785 -492.856 -1328 65 67 87
-142.353 -490.554 -1322 62 66 86
-139.159 -488.996 -1318 67 71 92
-135.775 -486.699 -1312 64 68 89
-132.519 -484.774 -1307 62 66 88
-129.285 -482.852 -1302 59 63 86
-126.171 -481.302 -1298 54 59 86
-123.169 -480.125 -1295 56 61 87
-120.088 -478.579 -1291 63 68 93
-117.298 -478.146 -1290 68 72 99
-114.246 -476.603 -1286 70 74 100
-111.733 -477.286 -1288 82 86 111
-108.873 -476.487 -1286 82 87 112
-106.353 -477.172 -1288 103 107 132
-103.665 -477.118 -1288 61 65 90
-100.9 -476.694 -1287 61 65 90
-97.9863 -475.531 -1284 66 70 96
-95.1606 -474.741 -1282 70 77 106
-92.4884 -474.692 -1282 70 82 113
-89.6067 -473.534 -1279 67 82 114
-86.9423 -473.488 -1279 70 81 114
-84.2788 -473.444 -1279 70 81 115
-81.5521 -473.03 -1278 69 80 115
-78.892 -472.989 -1278 66 77 112
-76.0536 -471.838 -1275 63 73 108
-73.2859 -471.059 -1273 56 64 99
-70.6383 -471.022 -1273 51 58 91
-68.0446 -471.356 -1274 54 61 94
-65.3447 -470.952 -1273 54 61 92
-62.6496 -470.549 -1272 42 49 74
-60.0535 -470.887 -1273 60 66 90
-57.4087 -470.856 -1273 70 70 92
-54.8074 -471.197 -1274 59 60 83
-52.2843 -472.279 -1277 59 61 84
-49.7103 -472.992 -1279 57 59 82
-47.0548 -472.967 -1279 57 61 85
-44.4346 -473.313 -1280 62 67 92
-41.7778 -473.291 -1280 61 70 97
-39.0909 -472.9 -1279 62 71 98
-36.4371 -472.881 -1279 67 76 103
-33.8363 -473.602 -1281 66 77 105
-31.2031 -473.955 -1282 60 71 100
-28.5439 -473.939 -1282 64 75 105
-25.9051 -474.295 -1283 71 82 112
-23.2805 -475.022 -1285 75 85 116
-20.6156 -475.01 -1285 77 86 118
-17.9649 -475.37 -1286 73 84 116
-15.3222 -476.101 -1288 70 81 113
-12.6615 -476.463 -1289 70 79 111
-9.98895 -476.457 -1289 75 84 116
-7.3336 -477.562 -1292 80 89 121
-4.66218 -478.298 -1294 79 88 120
-1.98097 -478.666 -1295 76 87 119
0.705451 -479.775 -1298 80 91 123
3.39631 -479.776 -1298 83 92 124
6.10142 -480.887 -1301 84 94 126
8.79873 -480.891 -1301 81 92 124
11.5138 -481.635 -1303 78 87 119
14.2263 -482.012 -1304 80 89 121
16.982 -483.498 -1308 80 89 121
19.7244 -484.247 -1310 77 84 117
22.6123 -487.955 -1320 73 81 113
25.4458 -489.816 -1325 70 79 109
28.2791 -491.308 -1329 69 78 103
-159.036 -502.549 -1345 105 97 102
-155.278 -499.477 -1337 101 95 104
-151.783 -497.155 -1331 84 84 97
-148.427 -495.209 -1326 75 76 91
-145.532 -494.759 -1325 69 71 91
-142.104 -492.443 -1319 65 68 89
-139.02 -491.249 -1316 68 72 93
-135.846 -489.684 -1312 67 71 92
-132.284 -486.628 -1304 67 71 94
-129.452 -486.186 -1303 63 67 92
-126.237 -484.254 -1298 57 62 88
-123.424 -483.815 -1297 53 58 83
-120.244 -481.886 -1292 52 57 82
-117.723 -482.57 -1294 57 61 87
-114.661 -481.017 -1290 59 63 88
-111.965 -480.958 -1290 65 69 94
-109.184 -480.527 -1289 76 81 106
-106.409 -480.098 -1288 95 100 125
-103.719 -480.043 -1288 55 59 84
-100.952 -479.617 -1287 61 65 92
-98.1137 -478.82 -1285 63 67 94
-95.2844 -478.024 -1283 66 73 102
-92.5365 -477.602 -1282 67 78 109
-89.5833 -476.065 -1278 64 79 111
-86.9877 -476.391 -1279 68 79 112
-84.1908 -475.601 -1277 68 80 114
-81.4668 -475.186 -1276 68 79 114
-78.8095 -475.144 -1276 68 78 113
-76.0335 -474.359 -1274 66 76 112
-73.3241 -473.947 -1273 61 69 106
-70.675 -473.91 -1273 59 66 100
-68.08 -474.246 -1274 56 63 96
-65.3274 -473.467 -1272 54 61 92
-62.7314 -473.806 -1273 44 52 78
-60.1319 -474.146 -1274 70 77 101
-57.4836 -474.115 -1274 72 72 94
-54.8789 -474.458 -1275 54 55 78
-52.3114 -475.174 -1277 51 53 76
-49.7361 -475.892 -1279 53 56 79
-47.1161 -476.238 -1280 55 59 83
-44.4576 -476.215 -1280 54 59 84
-41.7996 -476.192 -1280 53 62 90
-39.1113 -475.799 -1279 57 66 94
-36.513 -476.523 -1281 60 69 97
-33.8802 -476.877 -1282 58 70 97
-31.2437 -477.232 -1283 62 73 102
-28.6032 -477.588 -1284 64 74 104
-25.9387 -477.574 -1284 63 74 104
-23.3106 -478.305 -1286 68 79 109
-20.6263 -477.922 -1285 73 83 114
-17.9743 -478.284 -1286 73 84 114
-15.3182 -478.647 -1287 77 88 119
-12.668 -479.384 -1289 78 88 120
-10.0019 -479.75 -1290 78 88 119
-7.33167 -480.117 -1291 75 85 116
-4.66097 -480.858 -1293 76 87 119
-1.98047 -481.228 -1294 77 87 119
0.705795 -482.715 -1298 78 87 119
3.39819 -482.716 -1298 80 91 123
6.10468 -483.835 -1301 84 95 127
8.7966 -483.467 -1300 81 92 124
11.511 -484.216 -1302 79 88 120
14.2228 -484.594 -1303 80 89 121
16.9908 -486.462 -1308 77 86 118
19.7799 -488.331 -1313 76 83 116
22.6412 -491.318 -1321 72 80 112
25.4975 -493.562 -1327 67 76 108
28.4002 -496.18 -1334 69 78 102
-160.145 -500.063 -1330 105 98 102
-158.41 -503.362 -1339 107 100 106
-155.243 -502.151 -1336 100 95 104
-151.749 -499.815 -1330 79 79 92
-148.505 -498.233 -1326 72 73 88
-145.609 -497.779 -1325 70 72 92
-142.287 -495.825 -1320 66 69 90
-139.093 -494.248 -1316 65 69 90
-135.917 -492.673 -1312 66 70 92
-132.556 -490.35 -1306 64 69 93
-129.62 -489.53 -1304 63 68 93
-126.303 -487.21 -1298 61 66 91
-123.203 -485.643 -1294 59 64 89
-120.214 -484.453 -1291 57 65 87
-117.33 -483.64 -1289 57 62 87
-114.544 -483.203 -1288 61 66 91
-112.023 -483.894 -1290 66 70 94
-109.326 -483.836 -1290 90 94 118
-106.547 -483.404 -1289 85 90 113
-103.854 -483.348 -1289 58 62 87
-101.084 -482.919 -1288 60 65 92
-98.1651 -481.742 -1285 63 68 96
-95.2601 -480.567 -1282 67 74 103
-92.585 -480.517 -1282 66 77 108
-89.5601 -478.596 -1277 63 76 109
-86.761 -477.8 -1275 67 78 111
-84.037 -477.38 -1274 64 76 110
-81.5095 -478.086 -1276 60 73 108
-78.6654 -476.92 -1273 60 68 104
-76.0733 -477.254 -1274 63 71 108
-73.3625 -476.84 -1273 62 70 108
-70.7121 -476.802 -1273 66 73 107
-68.0622 -476.766 -1273 67 74 107
-65.413 -476.731 -1273 62 69 100
-62.715 -476.322 -1272 59 67 94
-60.0689 -476.29 -1272 81 88 114
-57.4234 -476.259 -1272 77 77 99
-54.8215 -476.604 -1273 54 56 79
-52.2568 -477.325 -1275 51 54 77
-49.7232 -478.421 -1278 57 61 85
-47.1039 -478.77 -1279 53 58 82
-44.4462 -478.746 -1279 52 57 83
-41.8214 -479.098 -1280 54 60 89
-39.1928 -479.451 -1281 55 63 91
-36.5605 -479.805 -1282 55 64 92
-33.9244 -480.161 -1283 52 66 93
-31.3087 -480.893 -1285 55 67 95
-28.6182 -480.503 -1284 56 66 96
-25.9926 -481.237 -1286 56 67 97
-23.3228 -481.224 -1286 60 71 101
-20.621 -480.464 -1284 62 73 103
-17.9976 -481.577 -1287 62 73 103
-15.3501 -482.316 -1289 66 77 107
-12.6844 -482.683 -1290 70 81 112
-10.0225 -483.426 -1292 66 79 108
-7.34681 -483.795 -1293 61 73 102
-4.67058 -484.54 -1295 63 74 106
-1.98456 -484.913 -1296 68 78 110
0.706142 -485.661 -1298 73 82 114
3.39991 -485.662 -1298 78 88 120
6.10796 -486.787 -1301 79 89 121
8.80803 -486.791 -1301 74 84 116
11.5435 -488.293 -1305 73 82 114
14.263 -488.674 -1306 74 83 114
17.0518 -490.927 -1312 75 84 115
19.8806 -493.556 -1319 76 84 116
22.7388 -496.187 -1326 70 78 110
25.5685 -497.696 -1330 67 75 107
28.4577 -499.956 -1336 72 81 102
31.1148 -498.1 -1331 78 83 101
-159.025 -499.32 -1320 106 99 104
-157.665 -503.774 -1332 111 104 110
-154.745 -503.313 -1331 102 98 106
-151.601 -502.097 -1328 79 79 92
-148.472 -500.883 -1325 70 71 87
-145.466 -500.049 -1323 65 67 87
-142.147 -498.083 -1318 60 63 84
-138.638 -495.363 -1311 58 62 83
-135.678 -494.535 -1309 62 66 89
-132.627 -493.33 -1306 65 70 94
-129.589 -492.127 -1303 65 70 95
-126.37 -490.171 -1298 64 69 94
-123.459 -489.349 -1296 66 72 96
-120.371 -487.774 -1292 62 70 92
-117.574 -487.334 -1291 61 66 90
-114.693 -486.517 -1289 68 72 96
-112.17 -487.212 -1291 67 71 94
-109.469 -487.153 -1291 93 97 120
-106.604 -486.341 -1289 74 78 101
-103.909 -486.285 -1289 58 62 88
-100.901 -484.722 -1285 61 66 95
-98.0641 -483.915 -1283 64 69 99
-95.236 -483.11 -1281 65 72 101
-92.2726 -481.552 -1277 66 76 107
-89.3968 -480.372 -1274 64 76 109
-86.6025 -479.572 -1272 66 77 110
-83.9493 -479.526 -1272 63 75 109
-81.2968 -479.483 -1272 56 69 104
-78.645 -479.44 -1272 58 66 102
-76.0537 -479.776 -1273 59 68 105
-73.4011 -479.737 -1273 58 67 107
-70.8049 -480.076 -1274 60 67 102
-68.098 -479.662 -1273 68 75 108
-65.396 -479.25 -1272 69 76 107
-62.6986 -478.839 -1271 68 75 104
-60.1006 -479.184 -1272 86 93 121
-57.4536 -479.153 -1272 75 77 100
-54.8503 -479.5 -1273 57 60 83
-52.2843 -480.225 -1275 54 57 80
-49.7883 -481.704 -1279 58 62 87
-47.1287 -481.679 -1279 54 59 84
-44.5391 -482.408 -1281 54 58 85
-41.8761 -482.385 -1281 56 60 87
-39.2135 -482.363 -1281 55 62 89
-36.5798 -482.72 -1282 53 62 90
-33.9687 -483.455 -1284 49 64 93
-31.2765 -483.061 -1283 50 64 94
-28.6332 -483.421 -1284 53 64 96
-26.0063 -484.16 -1286 53 64 94
-23.3531 -484.523 -1287 50 61 92
-20.68 -484.512 -1287 49 60 92
-18.0351 -485.255 -1289 54 66 96
-15.382 -485.999 -1291 57 68 98
-12.7009 -485.991 -1291 56 67 97
-10.0278 -486.362 -1292 55 68 96
-7.3506 -486.734 -1293 53 67 95
-4.673 -487.483 -1295 57 68 100
-1.98253 -487.105 -1294 66 75 107
0.70611 -488.234 -1297 72 81 113
3.39657 -487.859 -1296 72 81 113
6.10639 -489.367 -1300 71 80 112
8.80593 -489.371 -1300 69 78 110
11.5408 -490.882 -1304 71 80 112
14.2816 -492.019 -1307 73 82 113
17.0998 -495.038 -1315 78 87 117
19.9213 -497.307 -1321 78 87 117
22.768 -499.577 -1327 70 78 108
25.6013 -501.096 -1331 69 76 106
28.43 -502.24 -1334 74 82 102
31.0845 -500.373 -1329 79 84 100
-159.954 -505.006 -1327 104 98 104
-157.986 -507.584 -1334 109 104 110
-154.827 -506.359 -1331 103 100 108
-151.796 -505.516 -1329 85 86 99
-148.439 -503.534 -1324 73 75 91
-145.214 -501.934 -1320 66 68 88
-142.115 -500.717 -1317 62 65 86
-138.712 -498.36 -1311 64 68 89
-135.647 -497.147 -1308 70 74 97
-132.393 -495.175 -1303 72 76 100
-129.359 -493.965 -1300 66 71 96
-126.242 -492.377 -1296 67 72 97
-123.429 -491.93 -1295 73 79 103
-120.155 -489.586 -1289 72 80 102
-117.454 -489.522 -1289 67 73 95
-114.665 -489.081 -1288 69 74 96
-111.968 -489.02 -1288 72 76 99
-109.357 -489.341 -1289 96 100 123
-106.578 -488.904 -1288 64 68 91
-103.803 -488.468 -1287 60 64 91
-100.955 -487.654 -1285 63 67 97
-98.0398 -486.463 -1282 68 73 103
-95.2122 -485.652 -1280 67 74 103
-92.3216 -484.464 -1277 68 77 109
-89.3741 -482.899 -1273 67 78 111
-86.7848 -483.231 -1274 64 75 108
-83.9938 -482.427 -1272 60 71 105
-81.3399 -482.383 -1272 55 68 103
-78.8105 -483.099 -1274 61 69 105
-76.2136 -483.437 -1275 59 68 105
-73.3824 -482.259 -1272 54 64 104
-70.8425 -482.979 -1274 54 62 97
-68.0807 -482.184 -1272 59 66 100
-65.4307 -482.148 -1272 65 72 104
-62.7319 -481.735 -1271 64 71 101
-60.0852 -481.703 -1271 100 107 135
-57.4389 -481.672 -1271 78 80 103
-54.8362 -482.021 -1272 53 56 80
-52.312 -483.129 -1275 57 61 85
-49.8147 -484.617 -1279 57 61 86
-47.1537 -484.592 -1279 58 62 89
-44.5278 -484.946 -1280 56 60 87
-41.8982 -485.302 -1281 57 61 88
-39.2036 -484.902 -1280 55 61 89
-36.5706 -485.26 -1281 52 60 88
-33.9337 -485.621 -1282 47 62 91
-31.3174 -486.361 -1284 49 63 93
-28.6261 -485.966 -1283 51 62 94
-25.9796 -486.33 -1284 51 62 92
-23.3111 -486.317 -1284 49 60 91
-20.6588 -486.684 -1285 51 62 93
-18.0306 -487.81 -1288 53 66 95
-15.3662 -488.18 -1289 52 64 94
-12.7273 -489.688 -1293 55 66 96
-10.0486 -490.06 -1294 54 68 95
-7.36027 -490.056 -1294 55 69 97
-4.67904 -490.81 -1296 58 69 101
-1.9851 -490.43 -1295 67 76 108
0.705915 -490.808 -1296 72 81 113
3.39569 -490.431 -1295 70 79 111
6.10499 -491.948 -1299 68 77 109
8.81063 -492.331 -1300 72 81 113
11.5469 -493.851 -1304 81 90 122
14.3 -495.373 -1308 82 91 122
17.148 -499.168 -1318 82 91 121
19.9772 -501.451 -1324 73 82 112
22.8144 -503.356 -1329 70 78 107
25.6533 -504.884 -1333 71 79 107
28.4665 -505.656 -1335 76 84 104
31.0775 -503.02 -1328 81 86 101
-160.764 -510.345 -1333 102 98 102
-158.19 -511.025 -1335 101 97 102
-155.027 -509.792 -1332 93 90 99
-151.992 -508.944 -1330 80 81 94
-148.519 -506.567 -1324 70 72 88
-145.292 -504.958 -1320 64 68 88
-141.759 -502.203 -1313 62 67 87
-138.575 -500.598 -1309 65 71 91
-135.512 -499.377 -1306 69 74 97
-132.464 -498.157 -1303 67 72 96
-129.429 -496.94 -1300 64 69 94
-126.7 -496.871 -1300 62 67 92
-123.781 -496.04 -1298 70 76 100
-120.686 -494.445 -1294 79 87 109
-117.791 -493.617 -1292 85 91 113
-114.994 -493.173 -1291 85 90 113
-112.202 -492.729 -1290 89 93 116
-109.331 -491.906 -1288 96 100 123
-106.635 -491.848 -1288 64 68 91
-103.939 -491.792 -1288 64 68 95
-101.009 -490.591 -1285 64 69 97
-97.9391 -488.629 -1280 70 75 104
-95.0399 -487.432 -1277 68 75 104
-92.0816 -485.855 -1273 70 79 110
-89.3517 -485.425 -1272 69 80 113
-86.5586 -484.614 -1270 65 76 109
-84.0388 -485.332 -1272 61 72 106
-81.4474 -485.669 -1273 58 71 106
-78.8526 -486.008 -1274 61 69 105
-76.1944 -485.966 -1274 57 66 103
-73.5371 -485.926 -1274 52 62 102
-70.8803 -485.887 -1274 52 59 95
-68.2241 -485.85 -1274 52 59 94
-65.3626 -484.289 -1270 60 67 100
-62.716 -484.255 -1270 67 75 104
-60.1172 -484.603 -1271 101 108 136
-57.4695 -484.572 -1271 79 80 104
-54.8655 -484.923 -1272 56 58 83
-52.3809 -486.419 -1276 62 66 91
-49.8802 -487.916 -1280 58 63 88
-47.2526 -488.272 -1281 58 63 89
-44.5863 -488.247 -1281 60 65 92
-41.9205 -488.224 -1281 58 62 90
-39.2551 -488.202 -1281 56 62 90
-36.5615 -487.801 -1280 54 62 91
-33.9517 -488.544 -1282 49 63 92
-31.2852 -488.527 -1282 50 63 93
-28.5966 -488.13 -1281 53 63 94
-25.9731 -488.877 -1283 51 62 92
-23.3416 -489.626 -1285 49 60 90
-20.6859 -489.995 -1286 53 64 94
-18.0542 -491.128 -1289 53 67 96
-15.4102 -492.262 -1292 50 64 93
-12.734 -492.636 -1293 53 64 95
-10.0385 -492.249 -1292 52 65 93
-7.3641 -493.006 -1294 57 70 99
-4.67787 -493.384 -1295 59 70 102
-1.98752 -493.763 -1296 72 81 113
0.706812 -494.144 -1297 79 88 120
3.40285 -494.145 -1297 80 90 121
6.11301 -495.29 -1300 82 92 123
8.81536 -495.295 -1300 84 94 125
11.5532 -496.824 -1304 91 100 131
14.3078 -498.355 -1308 89 97 128
17.1051 -500.65 -1314 82 90 121
19.9577 -503.708 -1322 73 82 112
22.7922 -505.624 -1327 72 81 110
25.6093 -506.78 -1330 76 85 113
28.375 -506.795 -1330 81 89 109
30.9771 -504.143 -1323 85 89 105
-163.542 -513.11 -1332 92 85 88
-160.73 -513.022 -1332 103 98 103
-158.275 -514.09 -1335 97 94 99
-155.227 -513.235 -1333 91 89 99
-152.189 -512.382 -1331 80 80 94
-148.711 -509.991 -1325 73 75 91
-145.591 -508.756 -1322 67 71 91
-141.944 -505.6 -1314 65 70 90
-138.756 -503.985 -1310 65 71 91
-135.689 -502.756 -1307 67 73 95
-132.84 -502.299 -1306 65 71 94
-129.598 -500.305 -1301 62 67 92
-126.866 -500.236 -1301 62 67 92
-124.039 -499.783 -1300 74 80 104
-120.844 -497.795 -1295 77 85 107
-118.037 -497.346 -1294 82 88 110
-114.967 -495.745 -1290 88 94 116
-112.089 -494.916 -1288 102 106 129
-109.05 -493.319 -1284 89 94 118
-106.609 -494.413 -1287 63 68 92
-103.753 -493.588 -1285 64 68 93
-100.827 -492.38 -1282 64 68 96
-97.9153 -491.175 -1279 70 74 103
-95.091 -490.355 -1277 68 75 104
-92.1312 -488.768 -1273 70 80 111
-89.3295 -487.951 -1271 67 79 112
-86.6732 -487.904 -1271 63 74 107
-84.0179 -487.858 -1271 60 72 105
-81.6192 -489.348 -1275 56 67 102
-79.1426 -490.456 -1278 57 65 101
-76.4748 -490.414 -1278 53 62 99
-73.692 -489.606 -1276 49 59 98
-71.0297 -489.567 -1276 48 55 91
-68.3143 -489.146 -1275 51 58 93
-65.5007 -487.959 -1272 54 61 94
-62.7497 -487.158 -1270 60 68 95
-60.0548 -486.741 -1269 66 74 100
-57.4552 -487.093 -1270 68 69 93
-54.8518 -487.446 -1271 62 65 90
-52.4091 -489.335 -1276 61 65 90
-49.829 -490.074 -1278 58 63 88
-47.2041 -490.432 -1279 59 64 90
-44.5406 -490.407 -1279 59 64 91
-41.9431 -491.151 -1281 59 66 95
-39.2455 -490.745 -1280 57 65 93
-36.5811 -490.725 -1280 55 64 92
-33.917 -490.706 -1280 52 65 95
-31.2531 -490.688 -1280 56 68 97
-28.612 -491.056 -1281 60 69 99
-25.9669 -491.424 -1282 56 67 97
-23.3178 -491.794 -1283 54 64 94
-20.6809 -492.549 -1285 57 68 98
-18.0498 -493.689 -1288 56 68 98
-15.3945 -494.446 -1290 54 67 97
-12.7409 -495.589 -1293 57 68 100
-10.0515 -495.583 -1293 62 73 104
-7.37365 -496.344 -1295 65 75 107
-4.68394 -496.725 -1296 69 80 112
-1.9901 -497.106 -1297 82 92 123
0.707331 -497.106 -1297 88 98 129
3.40477 -497.107 -1297 86 97 127
6.11165 -497.876 -1299 84 97 127
8.81332 -497.88 -1299 87 101 131
11.5417 -499.035 -1302 95 105 136
14.2716 -499.809 -1304 86 96 126
17.0881 -502.884 -1312 74 83 113
19.908 -505.193 -1318 73 79 110
22.7015 -506.355 -1321 72 80 109
25.5652 -508.668 -1327 77 86 113
28.3689 -509.449 -1329 87 92 111
31.0406 -507.932 -1325 88 90 105
-164.123 -517.725 -1336 92 86 87
-161.301 -517.636 -1336 100 95 100
-158.48 -517.548 -1336 93 88 96
-155.545 -517.075 -1335 88 87 99
-152.386 -515.829 -1332 79 80 94
-149.017 -513.811 -1327 79 81 97
-145.67 -511.794 -1322 77 81 101
-142.237 -509.393 -1316 77 82 102
-139.043 -507.768 -1312 76 82 102
-135.971 -506.532 -1309 76 82 104
-133.523 -507.62 -1312 75 81 104
-129.967 -504.453 -1304 73 78 103
-127.422 -505.156 -1306 75 81 105
-124.393 -503.928 -1303 85 91 114
-121.377 -502.7 -1300 85 93 115
-118.374 -501.475 -1297 81 87 109
-115.386 -500.252 -1294 70 76 98
-112.498 -499.417 -1292 95 99 121
-109.534 -498.197 -1289 73 78 102
-106.75 -497.751 -1288 56 61 86
-103.729 -496.148 -1284 58 63 88
-100.646 -494.161 -1279 58 63 90
-97.8151 -493.334 -1277 65 70 98
-94.8445 -491.737 -1273 67 75 102
-91.8914 -490.141 -1269 68 77 107
-89.2372 -490.092 -1269 64 75 107
-86.7884 -491.203 -1272 59 68 100
-84.2617 -491.928 -1274 51 61 94
-81.6633 -492.269 -1275 46 54 89
-79.1235 -492.998 -1277 48 56 92
-76.4563 -492.956 -1277 48 56 92
-73.8475 -493.301 -1278 47 56 92
-71.1237 -492.876 -1277 47 54 89
-68.3513 -492.066 -1275 47 54 88
-65.5362 -490.872 -1272 50 57 90
-62.7836 -490.065 -1270 54 61 92
-60.1346 -490.032 -1270 58 65 94
-57.5767 -490.772 -1272 58 64 91
-55.011 -491.513 -1274 56 61 87
-52.5195 -493.027 -1278 58 62 87
-49.8949 -493.385 -1279 58 62 87
-47.2665 -493.744 -1280 59 63 88
-44.5647 -493.334 -1279 60 64 89
-41.9002 -493.31 -1279 60 64 93
-39.2361 -493.288 -1279 60 66 94
-36.5722 -493.268 -1279 58 65 94
-33.9088 -493.249 -1279 54 65 95
-31.2211 -492.846 -1278 55 66 96
-28.605 -493.601 -1280 56 67 97
-25.9403 -493.586 -1280 58 67 97
-23.3303 -494.729 -1283 56 66 96
-20.692 -495.489 -1285 57 68 98
-18.0596 -496.635 -1288 58 69 99
-15.3789 -496.626 -1288 60 71 101
-12.728 -497.775 -1291 64 75 105
-10.0414 -497.769 -1291 69 78 111
-7.37199 -498.921 -1294 71 80 113
-4.68657 -499.689 -1296 77 88 120
-1.99116 -500.073 -1297 85 96 126
0.707687 -500.072 -1297 87 98 128
3.40917 -500.459 -1298 85 98 128
6.115 -500.847 -1299 81 96 127
8.80451 -500.08 -1297 76 93 124
11.5212 -500.857 -1299 82 92 124
14.2575 -502.021 -1302 80 89 119
17.0583 -504.728 -1309 73 82 111
19.8886 -507.437 -1316 69 74 105
22.7309 -509.762 -1322 71 79 106
25.5213 -510.547 -1324 78 87 113
28.3415 -511.718 -1327 88 90 107
-164.213 -520.804 -1336 91 82 86
-161.993 -522.663 -1341 96 91 97
-158.923 -521.795 -1339 92 90 97
-155.863 -520.929 -1337 93 90 102
-152.813 -520.065 -1335 76 77 93
-149.435 -518.035 -1330 62 65 84
-145.86 -515.227 -1323 59 61 81
-142.856 -514.369 -1321 60 63 83
-139.755 -513.123 -1318 61 64 85
-136.149 -509.933 -1310 63 69 89
-133.494 -510.249 -1311 70 76 97
-130.437 -509.009 -1308 72 78 100
-127.59 -508.549 -1307 69 75 96
-124.556 -507.312 -1304 77 83 104
-121.723 -506.856 -1303 77 85 107
-118.439 -504.456 -1297 73 79 101
-115.449 -503.226 -1294 82 88 110
-112.472 -501.997 -1291 108 113 134
-109.254 -499.603 -1285 68 73 96
-106.394 -498.766 -1283 54 59 84
-103.543 -497.931 -1281 58 63 90
-100.465 -495.932 -1276 61 67 94
-97.6386 -495.101 -1274 63 71 97
-94.8962 -494.659 -1273 66 74 100
-92.1589 -494.22 -1272 68 77 105
-89.5673 -494.558 -1273 65 74 106
-86.9722 -494.899 -1274 57 66 98
-84.44 -495.629 -1276 50 58 91
-81.836 -495.972 -1277 46 54 88
-79.2906 -496.705 -1279 49 57 93
-76.5578 -496.274 -1278 51 59 94
-73.9455 -496.621 -1279 48 56 90
-71.1625 -495.805 -1277 46 53 87
-68.4421 -495.378 -1276 48 55 89
-65.6749 -494.565 -1274 50 57 90
-62.9661 -494.142 -1273 51 58 89
-60.3094 -494.108 -1273 56 63 94
-57.6986 -494.465 -1274 56 63 93
-55.2137 -495.986 -1278 54 60 87
-52.5481 -495.957 -1278 52 57 83
-49.9611 -496.705 -1280 51 55 80
-47.3661 -497.454 -1282 52 56 81
-44.6237 -496.653 -1280 53 57 82
-41.9885 -497.018 -1281 57 61 90
-39.2267 -495.832 -1278 57 62 91
-36.5349 -495.423 -1277 56 63 92
-33.8741 -495.404 -1277 51 62 92
-31.2137 -495.386 -1277 52 63 93
-28.5982 -496.146 -1279 54 65 95
-25.9747 -496.907 -1281 56 66 96
-23.343 -497.669 -1283 57 68 98
-20.7032 -498.433 -1285 59 70 100
-18.0413 -498.81 -1286 61 72 102
-15.3753 -499.189 -1287 61 72 102
-12.725 -500.345 -1290 66 77 107
-10.0468 -500.727 -1291 68 79 111
-7.36448 -501.11 -1292 72 83 114
-4.68543 -502.27 -1295 78 89 119
-1.99069 -502.656 -1296 79 90 120
0.707499 -502.656 -1296 77 88 118
3.41374 -503.821 -1299 78 89 119
6.11349 -503.435 -1298 75 89 121
8.80929 -503.052 -1297 68 83 115
11.5276 -503.833 -1299 73 82 114
14.2763 -505.391 -1303 75 84 113
17.0546 -507.339 -1308 71 80 108
19.8844 -510.064 -1315 71 78 109
22.7261 -512.404 -1321 73 84 109
25.4966 -512.805 -1322 78 90 113
28.2503 -512.819 -1322 86 88 104
-165.164 -526.632 -1343 91 80 85
-161.962 -525.365 -1340 96 91 98
-158.655 -523.709 -1336 97 95 103
-155.716 -523.23 -1335 102 100 112
-152.783 -522.753 -1334 98 99 114
-149.63 -521.493 -1331 90 95 113
-146.381 -519.845 -1327 90 93 113
-143.043 -517.806 -1322 92 95 115
-140.044 -516.945 -1320 91 93 114
-136.952 -515.693 -1317 85 90 111
-133.873 -514.444 -1314 84 90 110
-131.008 -513.979 -1313 85 91 113
-127.758 -511.951 -1308 92 98 118
-124.529 -509.924 -1303 88 94 114
-121.603 -509.074 -1301 82 88 110
-118.504 -507.442 -1297 84 91 113
-115.959 -508.16 -1299 101 108 130
-112.795 -506.141 -1294 103 109 131
-109.739 -504.516 -1290 66 71 95
-106.784 -503.283 -1287 59 64 89
-103.761 -501.66 -1283 67 72 99
-100.599 -499.258 -1277 71 77 104
-97.7688 -498.422 -1275 66 74 100
-94.8737 -497.196 -1272 63 71 97
-92.1369 -496.754 -1271 63 71 100
-89.6164 -497.485 -1273 57 66 98
-87.0882 -498.219 -1275 50 59 91
-84.4863 -498.562 -1276 47 56 89
-81.8809 -498.907 -1277 48 56 90
-79.272 -499.253 -1278 52 60 95
-76.6597 -499.601 -1279 55 63 99
-73.986 -499.56 -1279 57 65 99
-71.3687 -499.91 -1280 56 64 98
-68.4795 -498.31 -1276 54 62 95
-65.7624 -497.882 -1275 54 61 94
-63.0006 -497.066 -1273 55 62 94
-60.3425 -497.032 -1273 63 70 101
-57.6848 -497 -1273 56 63 94
-55.2007 -498.53 -1277 55 61 89
-52.7003 -500.062 -1281 53 58 85
-50.0665 -500.425 -1282 51 55 80
-47.355 -500.007 -1281 50 54 79
-44.7179 -500.372 -1282 53 57 82
-42.0114 -499.959 -1281 56 61 90
-39.2481 -498.765 -1278 56 62 91
-36.5549 -498.354 -1277 57 64 93
-33.8661 -497.945 -1276 51 62 92
-31.2552 -498.707 -1278 51 62 92
-28.6362 -499.471 -1280 56 67 97
-26.0091 -500.237 -1282 61 72 102
-23.4103 -501.784 -1286 64 75 105
-20.7306 -501.772 -1286 64 75 105
-18.0792 -502.542 -1288 63 74 104
-15.3956 -502.533 -1288 62 73 103
-12.732 -503.305 -1290 66 77 107
-10.0445 -503.299 -1290 65 77 108
-7.36285 -503.684 -1291 67 80 110
-4.6843 -504.852 -1294 72 83 113
-1.99175 -505.63 -1296 73 84 114
0.70857 -506.02 -1297 75 86 116
3.41306 -506.411 -1298 77 90 119
6.11687 -506.414 -1298 76 91 121
8.82769 -506.808 -1299 73 88 119
11.5339 -506.814 -1299 80 89 121
14.284 -508.382 -1303 83 92 121
17.0771 -510.731 -1309 80 89 117
19.8952 -513.082 -1315 80 85 115
22.687 -514.265 -1318 80 88 114
25.472 -515.058 -1320 80 89 113
28.1802 -514.293 -1318 85 87 103
-160.479 -523.336 -1327 95 89 97
-157.673 -523.248 -1327 90 87 95
-155.219 -524.343 -1330 77 76 88
-152.294 -523.864 -1329 71 73 88
-149.263 -522.992 -1327 69 75 92
-146.352 -522.515 -1326 76 81 102
-143.23 -521.253 -1323 79 83 104
-139.91 -519.204 -1318 77 80 101
-137.132 -519.127 -1318 73 77 98
-133.947 -517.476 -1314 77 81 103
-130.582 -515.04 -1308 81 88 110
-127.535 -513.787 -1305 82 88 107
-124.694 -513.324 -1304 74 80 99
-121.671 -512.074 -1301 62 68 90
-118.753 -511.22 -1299 52 59 81
-115.576 -509.188 -1294 50 58 80
-112.596 -507.944 -1291 54 60 82
-109.63 -506.702 -1288 68 73 97
-106.594 -505.069 -1284 68 73 98
-103.657 -503.831 -1281 68 73 100
-100.654 -502.201 -1277 67 74 100
-97.9763 -502.146 -1277 65 73 99
-95.15 -501.306 -1275 63 71 97
-92.4054 -500.861 -1274 60 68 97
-89.8067 -501.203 -1275 51 60 92
-87.1363 -501.154 -1275 41 50 80
-84.6654 -502.286 -1278 44 53 84
-82.0543 -502.633 -1279 50 58 92
-79.4398 -502.981 -1280 55 63 97
-76.642 -502.152 -1278 59 67 101
-74.0268 -502.503 -1279 60 68 102
-71.2964 -502.07 -1278 61 69 103
-68.4636 -500.853 -1275 63 71 105
-65.747 -500.423 -1274 67 74 107
-62.9857 -499.602 -1272 65 72 104
-60.4231 -500.354 -1274 64 71 102
-57.7167 -499.928 -1273 57 64 95
-55.1878 -501.075 -1276 56 62 90
-52.6058 -501.831 -1278 56 61 88
-50.094 -503.373 -1282 52 57 82
-47.4551 -503.739 -1283 52 56 81
-44.7774 -503.713 -1283 54 58 84
-42.0674 -503.297 -1282 53 58 87
-39.3004 -502.096 -1279 53 59 88
-36.6322 -502.075 -1279 54 61 90
-33.8847 -500.878 -1276 48 59 89
-31.2968 -502.038 -1279 47 58 88
-28.719 -503.592 -1283 51 62 92
-26.064 -503.969 -1284 60 71 101
-23.4232 -504.74 -1286 63 74 104
-20.7743 -505.513 -1288 63 74 104
-18.1031 -505.895 -1289 61 72 102
-15.416 -505.886 -1289 62 74 104
-12.7488 -506.663 -1291 69 80 110
-10.05 -506.264 -1290 66 78 109
-7.36123 -506.259 -1290 66 79 109
-4.67956 -507.041 -1292 70 81 111
-1.98821 -507.432 -1293 75 86 116
0.707293 -507.824 -1294 81 92 122
3.4096 -508.61 -1296 83 97 126
6.10613 -508.22 -1295 81 96 126
8.82589 -509.401 -1298 77 91 121
11.5314 -509.407 -1298 82 91 122
14.3248 -512.554 -1306 85 94 123
17.1126 -514.525 -1311 88 97 125
19.9668 -517.675 -1319 86 91 120
22.734 -518.079 -1320 81 88 113
25.5053 -518.485 -1321 80 89 112
-159.964 -524.426 -1322 94 89 96
-157.167 -524.337 -1322 93 90 98
-154.721 -525.439 -1325 79 80 92
-152.15 -526.146 -1327 68 71 86
-149.234 -525.666 -1326 63 69 88
-146.434 -525.583 -1326 63 69 89
-143.527 -525.105 -1325 61 67 87
-140.413 -523.837 -1322 60 64 85
-137.208 -522.174 -1318 62 66 87
-134.022 -520.514 -1314 66 71 92
-130.954 -519.252 -1311 63 71 94
-127.508 -516.407 -1304 64 71 92
-124.572 -515.545 -1302 64 71 91
-121.364 -513.496 -1297 63 69 92
-118.544 -513.033 -1296 62 69 91
-115.73 -512.572 -1295 57 65 87
-112.921 -512.113 -1294 65 71 93
-109.691 -509.676 -1288 72 77 101
-106.653 -508.033 -1284 73 78 103
-103.876 -507.579 -1283 75 80 107
-100.868 -505.939 -1279 72 78 105
-98.0307 -505.093 -1277 67 75 101
-95.2775 -504.643 -1276 63 72 99
-92.4567 -503.8 -1274 60 69 97
-89.7861 -503.749 -1274 51 60 91
-87.1847 -504.095 -1275 45 55 85
-84.5798 -504.443 -1276 52 61 92
-81.9073 -504.396 -1276 57 65 98
-79.2356 -504.352 -1276 62 70 103
-76.5045 -503.913 -1275 64 72 106
-73.8362 -503.871 -1275 65 73 107
-71.1685 -503.831 -1275 65 73 107
-68.3941 -503.002 -1273 69 77 111
-65.8352 -503.755 -1275 69 76 109
-63.1198 -503.324 -1274 63 70 102
-60.4092 -502.894 -1273 59 66 98
-57.8847 -504.046 -1276 54 61 92
-55.3482 -505.2 -1279 56 62 90
-52.635 -504.775 -1278 57 62 89
-50.1218 -506.326 -1282 54 59 84
-47.4814 -506.694 -1283 56 61 87
-44.7673 -506.274 -1282 58 63 89
-42.0906 -506.249 -1282 55 60 89
-39.3529 -505.437 -1280 54 60 89
-36.6812 -505.416 -1280 53 60 89
-33.9566 -504.607 -1278 49 60 90
