ply
format ascii 1.0
comment Created by Open3D
element vertex 1367
property double x
property double y
property double z
property uchar red
property uchar green
property uchar blue
end_header
-11.463 -292.253 -1527 124 114 140
-8.42435 -293.208 -1532 100 90 116
-5.35153 -293.397 -1533 108 96 120
-2.27919 -294.162 -1537 143 132 157
0.807964 -294.544 -1539 102 92 118
3.90081 -294.736 -1540 94 84 112
6.98862 -294.547 -1539 121 111 139
10.0919 -294.932 -1541 142 130 154
13.2206 -295.7 -1545 104 92 116
16.3444 -296.087 -1547 87 75 99
19.5141 -297.048 -1552 133 123 149
22.66 -297.437 -1554 133 123 149
25.8309 -298.017 -1557 95 85 111
28.9397 -297.833 -1556 82 72 98
32.0447 -297.649 -1555 136 126 151
35.1912 -297.85 -1556 124 114 138
38.4405 -298.816 -1561 95 85 109
41.6568 -299.401 -1564 112 102 126
44.8571 -299.795 -1566 145 131 156
48.0657 -300.19 -1568 103 89 114
51.3153 -300.778 -1571 110 98 121
54.4735 -300.791 -1571 155 145 169
57.6321 -300.806 -1571 111 101 125
60.8684 -301.204 -1573 103 93 117
64.032 -301.221 -1573 120 110 136
67.1107 -300.855 -1571 171 161 187
70.4057 -301.447 -1574 151 141 167
73.5261 -301.274 -1573 122 112 138
76.7894 -301.677 -1575 119 109 135
80.0615 -302.081 -1577 165 157 183
83.3423 -302.485 -1579 156 147 173
86.5221 -302.507 -1579 107 98 124
89.7027 -302.53 -1579 90 81 109
93.0604 -303.129 -1582 149 139 167
96.3703 -303.537 -1584 105 92 121
99.8777 -304.521 -1589 110 99 126
103.276 -305.122 -1592 120 110 136
106.888 -306.299 -1598 97 84 111
110.25 -306.711 -1600 131 119 145
113.62 -307.124 -1602 104 94 118
117.219 -308.112 -1607 100 92 110
120.838 -309.102 -1612 108 100 120
125.018 -311.435 -1624 103 95 117
-342.591 -309.132 -1573 99 97 103
-337.77 -307.664 -1566 121 118 125
-335.331 -308.358 -1570 146 138 158
-330.551 -306.894 -1563 120 111 131
-327.479 -307.001 -1564 161 151 172
-323.577 -306.324 -1561 131 121 147
-320.305 -306.237 -1561 112 102 127
-315.615 -304.778 -1554 145 133 157
-311.961 -304.301 -1552 119 107 131
-307.523 -303.041 -1546 104 92 116
-303.901 -302.567 -1544 134 122 145
-300.873 -302.681 -1545 153 140 163
-297.651 -302.601 -1545 106 92 116
-294.431 -302.521 -1545 108 96 117
-291.403 -302.638 -1546 116 104 126
-288.373 -302.755 -1547 169 157 180
-285.157 -302.678 -1547 143 133 157
-282.125 -302.798 -1548 126 116 140
-279.452 -303.309 -1551 149 139 165
-275.701 -302.648 -1548 135 127 155
-272.492 -302.574 -1548 98 91 121
-267.895 -300.938 -1540 137 128 154
-264.02 -300.085 -1536 123 114 140
-259.994 -299.038 -1531 98 88 114
-256.494 -298.579 -1529 137 127 153
-252.507 -297.534 -1524 123 113 139
-249.362 -297.467 -1524 96 86 112
-246.218 -297.401 -1524 120 109 135
-242.599 -296.75 -1521 142 129 156
-239.466 -296.686 -1521 105 95 121
-236.335 -296.622 -1521 112 102 128
-232.899 -296.169 -1519 167 154 181
-229.322 -295.523 -1516 150 138 165
-225.909 -295.072 -1514 128 116 143
-222.8 -295.012 -1514 126 112 141
-219.258 -294.369 -1511 163 151 178
-216.159 -294.311 -1511 163 153 177
-212.92 -294.059 -1510 123 112 136
-209.827 -294.003 -1510 118 106 130
-206.599 -293.753 -1509 141 131 157
-203.511 -293.698 -1509 165 155 181
-200.425 -293.644 -1509 115 105 131
-197.21 -293.397 -1508 114 104 130
-194 -293.15 -1507 117 107 133
-190.923 -293.099 -1507 162 152 178
-187.599 -292.66 -1505 118 106 134
-184.284 -292.222 -1503 102 89 118
-181.099 -291.979 -1502 117 107 133
-177.92 -291.737 -1501 153 142 169
-174.746 -291.496 -1500 118 105 134
-171.693 -291.45 -1500 103 90 120
-168.528 -291.21 -1499 114 100 130
-165.59 -291.36 -1500 153 140 167
-162.215 -290.734 -1497 112 99 126
-159.173 -290.692 -1497 100 87 114
-156.028 -290.456 -1496 95 85 110
-153.093 -290.609 -1497 150 140 165
-150.056 -290.569 -1497 126 116 140
-147.019 -290.529 -1497 100 86 113
-143.887 -290.297 -1496 93 79 106
-140.666 -289.871 -1494 128 116 140
-137.455 -289.446 -1492 146 133 159
-134.343 -289.217 -1491 110 97 124
-131.412 -289.375 -1492 91 79 108
-128.393 -289.341 -1492 128 116 144
-125.29 -289.114 -1491 142 129 156
-122.52 -289.663 -1494 102 91 117
-119.42 -289.437 -1493 91 81 107
-116.402 -289.406 -1493 109 99 125
-113.537 -289.763 -1495 94 84 109
-110.517 -289.734 -1495 79 69 93
-107.427 -289.511 -1494 124 114 137
-104.341 -289.289 -1493 103 93 116
-101.192 -288.875 -1491 130 119 143
-98.1178 -288.655 -1490 139 128 153
-95.1124 -288.629 -1490 99 89 114
-92.2932 -289.186 -1493 99 86 113
-89.4627 -289.743 -1496 129 117 144
-86.5053 -289.913 -1497 134 124 150
-83.6561 -290.472 -1500 99 89 116
-80.6879 -290.644 -1501 90 80 108
-77.7682 -291.01 -1503 133 123 151
-74.7913 -291.184 -1504 124 114 141
-71.9064 -291.746 -1507 96 86 112
-68.9186 -291.921 -1508 84 74 102
-65.7526 -291.322 -1505 118 108 135
-62.641 -290.918 -1503 133 123 149
-59.6965 -291.289 -1505 98 89 116
-56.7068 -291.467 -1506 94 85 113
-53.7135 -291.646 -1507 96 87 115
-50.8513 -292.6 -1512 132 123 151
-47.8111 -292.587 -1512 118 109 137
-44.7715 -292.575 -1512 93 83 109
-41.7045 -292.37 -1511 89 79 105
-38.7187 -292.747 -1513 129 119 146
-35.7016 -292.93 -1514 121 111 136
-32.6808 -293.115 -1515 89 79 103
-29.6758 -293.494 -1517 83 73 99
-26.6278 -293.486 -1517 124 115 140
-23.5646 -293.286 -1516 115 109 133
-20.5191 -293.28 -1516 90 81 107
-17.4968 -293.662 -1518 86 76 102
-14.4856 -294.432 -1522 134 124 150
-11.451 -295.009 -1525 112 102 128
-8.42093 -296.167 -1531 88 78 104
-5.34587 -296.165 -1531 96 84 108
-2.27399 -296.551 -1533 142 130 155
0.805556 -296.744 -1534 110 100 126
3.8866 -296.745 -1534 96 86 114
6.98584 -297.52 -1538 111 101 129
10.1012 -298.296 -1542 141 129 153
13.2242 -298.88 -1545 106 93 119
16.3487 -299.271 -1547 91 78 105
19.5065 -300.049 -1551 127 117 143
22.6223 -300.055 -1551 133 123 149
25.8046 -300.835 -1555 94 84 110
28.9287 -300.842 -1555 83 74 100
32.0531 -300.85 -1555 137 127 153
35.2456 -301.439 -1558 126 116 142
38.4753 -302.223 -1562 97 87 112
41.6678 -302.621 -1564 115 105 129
44.8403 -302.825 -1565 149 136 160
48.0782 -303.418 -1568 108 95 119
51.2635 -303.625 -1569 119 107 130
54.4183 -303.639 -1569 175 163 187
57.6471 -304.041 -1571 143 132 156
60.8844 -304.443 -1573 118 108 132
63.9266 -303.879 -1570 120 110 136
67.0002 -303.509 -1568 165 155 181
70.2898 -304.108 -1571 144 134 160
73.5454 -304.514 -1573 108 98 124
76.6632 -304.34 -1572 94 84 110
80.0316 -305.135 -1576 134 125 151
83.2584 -305.35 -1577 149 140 166
86.3804 -305.179 -1576 100 91 117
89.7262 -305.783 -1579 95 86 114
92.9673 -306.001 -1580 146 137 165
96.3955 -306.801 -1584 100 90 118
99.9039 -307.795 -1589 116 107 134
103.433 -308.79 -1594 113 104 130
106.916 -309.593 -1598 106 93 120
110.348 -310.203 -1601 140 129 154
113.65 -310.426 -1602 101 91 115
117.249 -311.426 -1607 76 68 86
120.87 -312.426 -1612 107 99 119
125.128 -314.978 -1625 104 96 118
-345.952 -315.405 -1588 105 102 108
-340.235 -313.126 -1577 131 128 134
-336.49 -312.637 -1575 155 147 165
-331.488 -310.957 -1567 102 94 113
-327.987 -310.669 -1566 123 114 133
-323.25 -309.191 -1559 123 113 137
-319.982 -309.103 -1559 127 117 141
-315.294 -307.629 -1552 155 143 167
-311.845 -307.345 -1551 129 117 141
-308.005 -306.666 -1548 106 94 118
-304.18 -305.988 -1545 146 134 157
-300.565 -305.51 -1543 147 134 157
-297.153 -305.231 -1542 106 92 116
-294.13 -305.348 -1543 104 91 113
-291.293 -305.664 -1545 126 114 135
-288.078 -305.585 -1545 150 138 161
-284.865 -305.507 -1545 115 104 128
-282.019 -305.826 -1547 105 95 119
-279.167 -306.145 -1549 139 129 155
-275.419 -305.477 -1546 146 138 165
-272.39 -305.6 -1547 115 108 138
-268.489 -304.736 -1543 151 142 168
-264.779 -304.072 -1540 147 138 164
-260.234 -302.421 -1532 111 101 127
-256.563 -301.759 -1529 139 129 155
-252.741 -300.901 -1525 135 125 151
-249.265 -300.438 -1523 100 90 116
-246.285 -300.569 -1524 115 104 131
-242.983 -300.305 -1523 141 128 155
-239.687 -300.043 -1522 100 89 116
-236.398 -299.781 -1521 100 90 116
-233.115 -299.521 -1520 146 133 160
-229.535 -298.867 -1517 123 112 138
-226.119 -298.412 -1515 102 91 117
-222.712 -297.957 -1513 102 88 117
-219.171 -297.307 -1510 148 135 162
-216.073 -297.249 -1510 140 130 154
-212.836 -296.994 -1509 112 100 124
-209.883 -297.134 -1510 112 100 124
-206.517 -296.684 -1508 142 132 158
-203.7 -297.023 -1510 166 156 182
-200.478 -296.772 -1509 126 116 142
-197.132 -296.325 -1507 121 111 137
-194.052 -296.272 -1507 142 132 158
-190.848 -296.024 -1506 178 168 194
-187.524 -295.58 -1504 134 122 150
-184.087 -294.941 -1501 123 110 139
-180.906 -294.695 -1500 138 128 154
-177.849 -294.647 -1500 170 158 186
-174.676 -294.403 -1499 134 121 150
-171.738 -294.553 -1500 115 101 132
-168.798 -294.704 -1501 128 114 145
-165.744 -294.659 -1501 161 148 175
-162.367 -294.026 -1498 117 104 131
-159.322 -293.983 -1498 102 89 116
-156.07 -293.549 -1496 94 84 108
-153.032 -293.507 -1496 147 137 161
-149.895 -293.271 -1495 125 115 139
-147.058 -293.623 -1497 100 87 114
-143.925 -293.388 -1496 92 78 105
-140.892 -293.35 -1496 132 120 144
-137.676 -292.921 -1494 147 134 160
-134.559 -292.688 -1493 110 97 124
-131.535 -292.653 -1493 90 80 108
-128.427 -292.422 -1492 136 125 153
-125.407 -292.388 -1492 142 129 156
-122.553 -292.747 -1494 102 91 117
-119.371 -292.323 -1492 89 79 105
-116.355 -292.291 -1492 118 108 134
-113.491 -292.653 -1494 98 88 114
-110.399 -292.427 -1493 84 74 98
-107.311 -292.202 -1492 113 103 126
-104.229 -291.978 -1491 100 90 113
-101.151 -291.755 -1490 112 102 126
-98.012 -291.337 -1488 144 134 158
-95.0099 -291.311 -1488 107 97 121
-92.1322 -291.678 -1490 105 92 119
-89.3667 -292.436 -1494 123 111 138
-86.4126 -292.609 -1495 144 134 160
-83.4551 -292.782 -1496 106 96 123
-80.6018 -293.347 -1499 96 86 114
-77.6335 -293.522 -1500 133 123 151
-74.7116 -293.893 -1502 131 121 148
-71.83 -294.46 -1505 99 89 115
-68.7997 -294.442 -1505 88 78 105
-65.7264 -294.228 -1504 129 119 146
-62.6992 -294.211 -1504 139 129 155
-59.6726 -294.195 -1504 99 90 117
-56.7218 -294.571 -1506 92 83 111
-53.6921 -294.556 -1506 101 92 120
-50.8311 -295.52 -1511 138 129 158
-47.8238 -295.702 -1512 114 105 133
-44.7833 -295.69 -1512 99 89 115
-41.7156 -295.483 -1511 94 84 110
-38.7289 -295.863 -1513 137 127 153
-35.711 -296.049 -1514 120 110 135
-32.6894 -296.236 -1515 91 81 105
-29.6836 -296.618 -1517 89 79 105
-26.6524 -296.806 -1518 130 121 146
-23.5863 -296.604 -1517 118 112 135
-20.5516 -296.794 -1518 94 84 110
-17.5475 -297.571 -1522 93 83 109
-14.499 -297.762 -1523 138 128 154
-11.4616 -298.345 -1526 114 104 130
-8.41772 -299.125 -1530 93 83 109
-5.34389 -299.123 -1530 95 83 107
-2.2701 -299.122 -1530 142 130 156
0.804724 -299.513 -1532 114 104 131
3.88759 -299.904 -1534 99 89 116
6.99234 -300.883 -1539 113 103 131
10.0974 -301.277 -1541 146 135 159
13.2191 -301.866 -1544 112 100 126
16.353 -302.457 -1547 97 86 112
19.5117 -303.244 -1551 128 118 144
22.6574 -303.64 -1553 140 130 156
25.8281 -304.233 -1556 110 100 126
28.9736 -304.436 -1557 99 90 116
32.1234 -304.64 -1558 155 145 171
35.2777 -304.844 -1559 142 132 158
38.4607 -305.245 -1561 112 102 127
41.6256 -305.451 -1562 132 122 146
44.766 -305.463 -1562 158 146 170
48.0296 -306.257 -1566 112 100 124
51.2116 -306.466 -1567 112 100 123
54.3981 -306.676 -1568 161 149 173
57.589 -306.886 -1569 135 124 148
60.7843 -307.098 -1570 98 88 112
63.8622 -306.723 -1568 95 85 111
66.9751 -306.545 -1567 140 130 156
70.2189 -306.955 -1569 145 135 161
73.4246 -307.169 -1570 107 97 123
76.5861 -307.189 -1570 94 84 110
79.9005 -307.797 -1573 117 108 134
83.2277 -308.406 -1576 147 138 164
86.4031 -308.429 -1576 103 94 120
89.7499 -309.039 -1579 99 90 118
93.1684 -309.846 -1583 139 130 158
96.6037 -310.655 -1587 102 92 120
100.056 -311.464 -1591 131 122 149
103.59 -312.47 -1596 125 115 141
106.945 -312.89 -1598 114 104 128
110.377 -313.506 -1601 147 137 161
113.751 -313.928 -1603 104 94 118
117.281 -314.742 -1607 91 83 101
121.052 -316.145 -1614 123 115 134
125.469 -319.116 -1629 106 98 119
-343.566 -319.44 -1592 110 107 113
-338.72 -317.941 -1585 152 144 161
-332.002 -314.639 -1569 112 104 121
-328.287 -314.147 -1567 112 103 121
-323.546 -312.654 -1560 118 108 131
-320.48 -312.765 -1561 104 94 118
-315.787 -311.275 -1554 144 132 155
-312.936 -311.589 -1556 138 126 149
-309.084 -310.902 -1553 134 122 146
-305.248 -310.217 -1550 181 169 192
-301.426 -309.533 -1547 154 142 165
-297.62 -308.851 -1544 113 100 123
-294.21 -308.569 -1543 102 89 111
-291.184 -308.689 -1544 139 127 149
-287.784 -308.409 -1543 148 136 159
-284.574 -308.331 -1543 107 96 120
-281.732 -308.652 -1545 99 89 113
-279.063 -309.174 -1548 141 131 157
-275.316 -308.499 -1545 137 128 155
-272.816 -309.223 -1549 101 94 124
-268.736 -308.151 -1544 146 137 164
-265.023 -307.479 -1541 149 139 166
-260.474 -305.811 -1533 115 105 131
-256.968 -305.341 -1531 148 138 164
-252.81 -304.075 -1525 153 143 169
-249.66 -304.006 -1525 115 105 131
-246.028 -303.34 -1522 128 117 143
-242.889 -303.273 -1522 153 140 167
-239.437 -302.809 -1520 108 98 124
-236.151 -302.545 -1519 101 91 117
-232.871 -302.282 -1518 140 127 153
-229.446 -301.82 -1516 122 110 136
-226.18 -301.559 -1515 100 90 115
-222.92 -301.299 -1514 96 82 111
-219.376 -300.642 -1511 149 136 163
-216.132 -300.384 -1510 133 123 147
-212.612 -299.728 -1507 106 94 119
-209.523 -299.671 -1507 100 87 113
-206.162 -299.217 -1505 135 125 150
-203.216 -299.36 -1506 146 136 162
-199.868 -298.908 -1504 103 93 119
-196.661 -298.655 -1503 90 80 106
-193.718 -298.801 -1504 126 115 141
-190.646 -298.748 -1504 154 143 169
-187.325 -298.3 -1502 110 98 125
-184.014 -297.852 -1500 105 92 120
-180.955 -297.803 -1500 138 128 153
-177.659 -297.357 -1498 166 154 181
-174.607 -297.31 -1498 131 118 147
-171.785 -297.659 -1500 124 110 140
-168.843 -297.812 -1501 147 133 163
-165.678 -297.568 -1500 175 164 190
-162.519 -297.325 -1499 140 128 155
-159.471 -297.282 -1499 130 117 144
-156.112 -296.644 -1496 118 108 132
-152.971 -296.404 -1495 165 155 179
-149.835 -296.165 -1494 148 138 162
-146.999 -296.521 -1496 124 111 137
-143.964 -296.482 -1496 120 106 133
-140.836 -296.245 -1495 156 145 169
-137.897 -296.406 -1496 167 155 180
-134.775 -296.171 -1495 126 113 140
-131.923 -296.531 -1497 108 96 125
-128.806 -296.298 -1496 151 138 167
-125.777 -296.263 -1496 136 123 150
-122.668 -296.032 -1495 97 86 112
-119.483 -295.603 -1493 85 75 101
-116.464 -295.571 -1493 124 114 139
-113.522 -295.738 -1494 100 90 115
-110.502 -295.708 -1494 75 65 89
-107.412 -295.481 -1493 98 88 111
-104.256 -295.057 -1491 107 97 121
-101.178 -294.831 -1490 108 98 122
-97.9724 -294.211 -1487 149 139 163
-95.0992 -294.58 -1489 109 99 123
-92.0331 -294.357 -1488 105 92 119
-89.271 -295.124 -1492 111 98 125
-86.32 -295.298 -1493 147 135 161
-83.3658 -295.473 -1494 112 101 129
-80.462 -295.847 -1496 98 88 116
-77.6543 -296.617 -1500 127 117 145
-74.6819 -296.794 -1501 139 129 156
-71.8014 -297.367 -1504 103 93 119
-68.8639 -297.744 -1506 90 80 107
-65.7439 -297.33 -1504 139 129 155
-62.7576 -297.511 -1505 146 136 162
-59.7679 -297.692 -1506 108 98 126
-56.8123 -298.072 -1508 100 91 119
-53.8134 -298.254 -1509 111 102 131
-50.8783 -298.833 -1512 145 135 164
-47.8998 -299.215 -1514 111 102 130
-44.8248 -299.005 -1513 103 93 119
-41.7543 -298.796 -1512 96 86 112
-38.7393 -298.983 -1513 144 134 160
-35.7441 -299.368 -1515 120 110 135
-32.7197 -299.556 -1516 96 86 110
-29.6915 -299.746 -1517 92 82 108
-26.6771 -300.133 -1519 135 127 152
-23.6393 -300.324 -1520 124 118 141
-20.6112 -300.713 -1522 99 90 115
-17.5637 -300.906 -1523 101 91 117
-14.5409 -301.692 -1527 146 136 162
-11.4796 -301.886 -1528 125 115 141
-8.42535 -302.476 -1531 106 96 122
-5.34873 -302.474 -1531 112 99 126
-2.27215 -302.473 -1531 161 149 176
0.806521 -303.263 -1535 132 122 150
3.89386 -303.461 -1536 112 102 130
7.00323 -304.451 -1541 128 118 146
10.1065 -304.651 -1542 154 143 169
13.2398 -305.444 -1546 118 107 133
16.3574 -305.646 -1547 103 93 119
19.4917 -306.046 -1549 137 128 153
22.6197 -306.249 -1550 144 134 160
25.785 -306.848 -1553 108 98 124
28.9442 -307.251 -1555 97 87 113
32.0908 -307.456 -1556 148 138 164
35.2418 -307.663 -1557 124 114 140
38.3971 -307.871 -1558 91 81 106
41.6101 -308.474 -1561 119 109 133
44.7208 -308.288 -1560 142 130 154
47.9812 -309.091 -1564 101 89 113
51.2254 -309.697 -1567 98 86 110
54.4127 -309.909 -1568 149 137 161
57.5677 -309.924 -1568 142 131 155
60.762 -310.138 -1569 106 96 120
63.8792 -309.957 -1568 99 89 115
66.9931 -309.777 -1567 132 122 148
70.2825 -310.389 -1570 153 143 169
73.3039 -309.815 -1567 118 108 134
76.5577 -310.23 -1569 100 90 116
79.9726 -311.24 -1574 118 109 135
83.25 -311.658 -1576 157 147 173
86.4813 -311.878 -1577 114 105 131
90.0015 -313.089 -1583 116 107 134
93.4289 -313.904 -1587 140 131 159
96.7514 -314.326 -1589 100 90 118
100.083 -314.748 -1591 132 123 149
103.553 -315.567 -1595 112 103 129
106.906 -315.991 -1597 100 90 114
110.338 -316.614 -1600 136 126 150
113.569 -316.644 -1600 108 98 121
117.093 -317.467 -1604 114 106 123
120.934 -319.082 -1612 142 134 153
125.349 -322.085 -1627 108 101 121
-332.941 -318.738 -1573 129 121 135
-328.378 -317.43 -1567 142 134 150
-323.844 -316.123 -1561 162 153 176
-319.748 -315.224 -1557 113 103 127
-316.078 -314.73 -1555 136 124 147
-313.426 -315.249 -1558 121 109 132
-309.369 -314.353 -1554 111 99 123
-305.529 -313.661 -1551 177 165 188
-301.9 -313.172 -1549 151 139 162
-297.895 -312.28 -1545 128 116 139
-294.292 -311.793 -1543 128 116 139
-290.887 -311.51 -1542 170 158 182
-287.863 -311.631 -1543 157 145 169
-284.468 -311.35 -1542 109 98 122
-281.445 -311.473 -1543 102 92 116
-278.599 -311.799 -1545 149 140 164
-275.57 -311.924 -1546 131 122 148
-272.539 -312.05 -1547 96 87 117
-268.984 -311.571 -1545 139 130 158
-264.924 -310.489 -1540 135 126 154
-260.546 -309.005 -1533 100 91 117
-256.703 -308.128 -1529 135 126 152
-252.382 -306.647 -1522 138 129 155
-249.729 -307.182 -1525 108 98 124
-246.419 -306.912 -1524 132 121 147
-242.956 -306.441 -1522 169 156 183
-239.346 -305.771 -1519 132 122 148
-236.061 -305.504 -1518 123 113 139
-232.475 -304.836 -1515 157 145 169
-229.206 -304.571 -1514 133 122 146
-226.093 -304.508 -1514 105 95 119
-222.834 -304.245 -1513 97 84 111
-219.436 -303.782 -1511 152 139 166
-216.191 -303.521 -1510 131 121 145
-212.811 -303.06 -1508 104 92 118
-209.719 -303.002 -1508 93 80 107
-206.355 -302.543 -1506 139 130 154
-203.271 -302.487 -1506 142 132 157
-199.79 -301.829 -1503 103 93 119
-196.846 -301.975 -1504 96 86 112
-193.771 -301.921 -1504 134 123 149
-190.444 -301.467 -1502 150 137 164
-187.252 -301.215 -1501 106 93 120
-183.942 -300.763 -1499 95 82 109
-180.763 -300.512 -1498 134 121 148
-177.589 -300.262 -1497 146 133 161
-174.654 -300.415 -1498 105 92 121
-171.717 -300.568 -1499 95 82 111
-168.777 -300.722 -1500 124 111 140
-165.724 -300.676 -1500 152 142 168
-162.563 -300.43 -1499 115 103 130
-159.408 -300.186 -1498 104 91 118
-156.154 -299.742 -1496 100 90 114
-153.012 -299.5 -1495 150 140 164
-149.876 -299.258 -1494 128 118 142
-146.941 -299.418 -1495 100 88 114
-144.003 -299.578 -1496 95 82 109
-140.968 -299.539 -1496 143 133 157
-138.027 -299.701 -1497 153 141 167
-134.992 -299.664 -1497 124 111 138
-131.959 -299.628 -1497 124 111 140
-128.754 -299.192 -1495 175 162 190
-125.727 -299.157 -1495 149 136 163
-122.783 -299.323 -1496 119 108 134
-119.676 -299.09 -1495 113 103 129
-116.574 -298.858 -1494 146 136 160
-113.629 -299.027 -1495 118 108 132
-110.606 -298.996 -1495 88 78 102
-107.441 -298.566 -1493 94 85 109
-104.285 -298.138 -1491 118 109 133
-101.205 -297.91 -1490 119 109 133
-98.0649 -297.483 -1488 167 157 181
-95.1249 -297.656 -1489 130 120 144
-92.1199 -297.631 -1489 122 109 136
-89.2952 -298.206 -1492 128 115 141
-86.2856 -298.182 -1492 166 153 179
-83.3883 -298.559 -1494 132 120 148
-80.3761 -298.536 -1494 105 94 122
-77.52 -299.114 -1497 129 119 147
-74.5527 -299.294 -1498 153 143 170
-71.6299 -299.673 -1500 116 106 132
-68.791 -300.453 -1504 96 86 112
-65.7617 -300.435 -1504 147 137 163
-62.7746 -300.617 -1505 146 136 162
-59.8634 -301.2 -1508 114 105 132
-56.9406 -301.783 -1511 108 99 127
-53.8993 -301.768 -1511 134 125 155
-50.9256 -302.153 -1513 162 153 182
-47.9127 -302.34 -1514 127 118 146
-44.8073 -301.928 -1512 117 107 133
-41.7932 -302.115 -1513 117 107 132
-38.7497 -302.105 -1513 166 156 182
-35.7538 -302.494 -1515 142 132 156
-32.7502 -302.884 -1517 119 109 132
-29.7582 -303.474 -1520 116 106 132
-26.7194 -303.666 -1521 157 149 173
-23.6612 -303.66 -1521 138 132 155
-20.6303 -304.053 -1523 115 105 130
-17.603 -304.647 -1526 113 102 128
-14.5639 -305.241 -1529 158 148 174
-11.5053 -305.637 -1531 132 122 148
-8.42769 -305.634 -1531 109 99 125
-5.35358 -305.832 -1532 102 89 116
-2.27568 -306.031 -1533 149 137 165
0.80727 -306.629 -1536 117 107 135
3.90501 -307.429 -1540 94 84 112
7.01868 -308.228 -1544 109 99 127
10.1224 -308.231 -1544 131 121 147
13.2434 -308.633 -1546 99 89 115
16.3406 -308.438 -1545 87 77 103
19.4845 -309.042 -1548 130 120 146
22.582 -308.848 -1547 129 119 145
25.7588 -309.653 -1551 92 82 108
28.9334 -310.259 -1554 95 85 111
32.0996 -310.667 -1556 138 128 154
35.2286 -310.676 -1556 110 100 126
38.4321 -311.285 -1559 90 80 105
41.6214 -311.695 -1561 130 120 144
44.7329 -311.507 -1560 138 128 152
47.9941 -312.319 -1564 103 92 116
51.1738 -312.532 -1565 100 88 112
54.358 -312.746 -1566 145 133 157
57.5098 -312.761 -1566 155 144 168
60.7784 -313.376 -1569 113 103 127
63.9374 -313.393 -1569 112 100 126
67.0113 -313.012 -1567 137 125 152
70.3015 -313.63 -1570 174 164 190
73.4173 -313.449 -1569 144 134 160
76.6273 -313.67 -1570 119 109 135
79.8418 -313.891 -1571 127 117 143
83.2726 -314.912 -1576 153 144 169
86.5595 -315.335 -1578 110 101 125
90.0258 -316.358 -1583 122 113 139
93.5132 -317.382 -1588 123 114 140
96.8385 -317.808 -1590 92 82 110
100.299 -318.634 -1594 129 120 147
103.646 -319.062 -1596 102 93 119
106.801 -318.891 -1595 96 86 110
110.436 -320.12 -1601 130 120 144
113.671 -320.15 -1601 125 115 138
117.344 -321.382 -1607 115 107 123
120.742 -321.814 -1609 141 134 152
125.305 -325.248 -1626 111 105 125
-328.261 -320.511 -1566 122 116 131
-323.727 -319.191 -1560 166 158 179
-320.249 -318.895 -1559 124 116 138
-316.98 -318.805 -1559 126 115 138
-313.714 -318.716 -1559 126 114 138
-310.452 -318.629 -1559 106 94 118
-306.797 -318.133 -1557 159 147 170
-302.764 -317.23 -1553 122 110 133
-298.364 -315.92 -1547 107 95 118
-294.755 -315.428 -1545 116 104 127
-291.346 -315.142 -1544 172 160 183
-287.57 -314.448 -1541 151 139 163
-284.178 -314.164 -1540 125 114 138
-281.341 -314.492 -1542 130 120 144
-278.316 -314.618 -1543 173 164 189
-275.112 -314.54 -1543 147 138 164
-272.087 -314.667 -1544 107 98 127
-269.059 -314.795 -1545 135 126 154
-264.825 -313.498 -1539 134 125 153
-260.959 -312.61 -1535 101 92 120
-257.278 -311.927 -1532 131 122 148
-252.95 -310.43 -1525 137 127 153
-250.126 -310.767 -1527 95 85 111
-246.488 -310.087 -1524 109 98 124
-243.343 -310.019 -1524 146 133 160
-239.57 -309.138 -1520 107 96 122
-236.437 -309.072 -1520 109 98 124
-232.846 -308.396 -1517 156 144 168
-229.269 -307.722 -1514 149 138 162
-226.454 -308.065 -1516 120 110 134
-223.19 -307.799 -1515 120 107 134
-219.642 -307.128 -1512 175 163 189
-216.537 -307.067 -1512 149 139 163
-213.152 -306.602 -1510 120 110 134
-209.777 -306.137 -1508 113 102 127
-206.275 -305.47 -1505 155 146 170
-203.192 -305.413 -1505 146 137 162
-199.712 -304.749 -1502 111 101 127
-196.508 -304.491 -1501 98 88 114
-193.567 -304.639 -1502 143 132 158
-190.497 -304.586 -1502 153 140 167
-187.054 -303.925 -1499 108 95 122
-183.87 -303.671 -1498 95 82 109
-180.692 -303.418 -1497 135 122 149
-177.401 -302.963 -1495 146 133 160
-174.469 -303.117 -1496 105 92 121
-171.535 -303.272 -1497 97 84 113
-168.486 -303.225 -1497 128 115 144
-165.438 -303.178 -1497 147 137 163
-162.283 -302.931 -1496 105 93 120
-159.026 -302.481 -1494 95 82 109
-156.093 -302.64 -1495 93 83 107
-152.952 -302.395 -1494 147 137 161
-149.816 -302.151 -1493 126 116 140
-146.981 -302.515 -1495 100 88 112
-144.043 -302.677 -1496 92 80 105
-141.101 -302.84 -1497 140 130 154
-138.065 -302.801 -1497 139 128 153
-135.119 -302.966 -1498 105 92 119
-131.995 -302.727 -1497 116 103 132
-128.79 -302.286 -1495 163 150 179
-125.677 -302.049 -1494 126 113 140
-122.735 -302.217 -1495 103 91 117
-119.548 -301.779 -1493 99 89 114
-116.606 -301.949 -1494 139 129 153
-113.66 -302.119 -1495 106 97 121
-110.637 -302.089 -1495 80 71 95
-107.47 -301.655 -1493 87 78 102
-104.383 -301.423 -1492 107 98 122
-101.301 -301.193 -1491 110 100 124
-98.2235 -300.963 -1490 156 146 170
-95.2149 -300.937 -1490 119 109 133
-92.2689 -301.113 -1491 103 91 115
-89.3196 -301.29 -1492 105 93 117
-86.3092 -301.266 -1492 146 134 158
-83.3553 -301.445 -1493 111 99 126
-80.5057 -302.028 -1496 89 76 105
-77.6446 -302.612 -1499 108 98 126
-74.6727 -302.793 -1500 133 123 150
-71.7449 -303.176 -1502 96 86 112
-68.764 -303.359 -1503 82 72 98
-65.7796 -303.542 -1504 131 121 147
-62.75 -303.524 -1504 127 117 143
-59.8798 -304.315 -1508 95 86 113
-56.9185 -304.702 -1510 83 74 102
-53.914 -304.889 -1511 122 113 141
-50.9396 -305.278 -1513 140 131 159
-47.9259 -305.466 -1514 107 98 126
-44.8492 -305.252 -1513 99 89 114
-41.8046 -305.24 -1513 103 93 117
-38.7859 -305.431 -1514 148 138 164
-35.7636 -305.622 -1515 119 109 133
-32.759 -306.016 -1517 96 86 109
-29.7663 -306.613 -1520 90 80 106
-26.7267 -306.807 -1521 136 128 153
-23.6987 -307.203 -1523 114 108 131
-20.6901 -308.004 -1527 94 81 108
-17.654 -308.604 -1530 91 78 105
-14.5869 -308.801 -1531 140 130 156
-11.5234 -309.201 -1533 109 99 125
-8.45207 -309.602 -1535 91 81 107
-5.36213 -309.398 -1534 91 78 105
-2.28071 -309.801 -1536 138 127 154
0.809788 -310.607 -1540 106 96 124
3.91365 -311.213 -1543 88 78 107
7.0298 -311.82 -1546 115 105 133
10.145 -312.024 -1547 129 119 145
13.2554 -312.027 -1547 99 88 114
16.3557 -311.829 -1546 91 81 107
19.4897 -312.238 -1548 141 131 157
22.5882 -312.042 -1547 123 113 139
25.7493 -312.653 -1550 91 81 107
28.9413 -313.468 -1554 102 94 119
32.0877 -313.678 -1555 144 136 161
35.261 -314.091 -1557 111 101 127
38.4426 -314.504 -1559 98 88 113
41.6328 -314.919 -1561 139 129 154
44.7451 -314.729 -1560 157 146 170
47.9765 -315.347 -1563 119 107 131
51.1551 -315.562 -1564 119 106 131
54.3035 -315.577 -1564 143 131 155
57.452 -315.592 -1564 177 165 189
60.6787 -316.012 -1566 139 128 153
63.8732 -316.231 -1567 121 109 135
66.944 -315.845 -1565 121 109 136
70.1863 -316.268 -1567 156 146 172
73.297 -316.086 -1566 130 120 146
76.5505 -316.51 -1568 100 90 116
79.7112 -316.531 -1568 97 87 112
83.1896 -317.765 -1574 128 119 143
86.5831 -318.596 -1578 107 98 122
90.0505 -319.63 -1583 126 117 143
93.421 -320.261 -1586 125 116 142
96.8043 -320.893 -1589 101 91 119
100.2 -321.526 -1592 141 132 157
103.609 -322.16 -1595 124 115 139
106.764 -321.987 -1594 114 104 128
110.329 -323.027 -1599 126 117 140
113.773 -323.664 -1602 107 98 120
117.011 -323.695 -1602 106 100 115
120.775 -325.143 -1609 133 127 144
-328.774 -324.21 -1568 121 117 130
-324.234 -322.877 -1562 157 150 169
-320.545 -322.371 -1560 106 98 120
-317.273 -322.28 -1560 110 100 123
-313.401 -321.571 -1557 129 118 142
-310.34 -321.689 -1558 116 104 128
-306.687 -321.188 -1556 148 136 159
-302.655 -320.276 -1552 120 108 131
-298.642 -319.365 -1548 104 92 115
-294.457 -318.249 -1543 123 112 135
-291.24 -318.166 -1543 167 156 179
-287.651 -317.672 -1541 123 111 135
-283.889 -316.972 -1538 103 93 116
-281.055 -317.304 -1540 118 108 132
-278.034 -317.431 -1541 168 159 185
-275.011 -317.559 -1542 138 129 156
-271.987 -317.687 -1543 118 109 137
-268.961 -317.816 -1544 150 141 169
-265.072 -316.918 -1540 158 149 177
-261.032 -315.814 -1535 110 101 129
-257.351 -315.124 -1532 136 127 153
-253.684 -314.435 -1529 140 130 156
-250.196 -313.952 -1527 104 94 120
-246.557 -313.265 -1524 107 96 123
-243.251 -312.991 -1523 145 132 159
-239.321 -311.895 -1518 110 99 125
-236.037 -311.623 -1517 103 93 119
-232.604 -311.146 -1515 145 132 158
-229.031 -310.465 -1512 130 118 143
-225.92 -310.401 -1512 99 89 113
-222.958 -310.543 -1513 101 88 115
-219.558 -310.071 -1511 164 152 178
-216.455 -310.009 -1511 136 126 150
-213.212 -309.744 -1510 114 104 128
-209.697 -309.069 -1507 112 102 126
-206.333 -308.601 -1505 165 156 180
-203.249 -308.543 -1505 162 152 177
-199.768 -307.871 -1502 129 119 145
-196.693 -307.816 -1502 120 110 136
-193.621 -307.761 -1502 166 156 181
-190.677 -307.912 -1503 165 154 179
-187.106 -307.04 -1499 129 116 143
-184.044 -306.988 -1499 119 106 133
-180.863 -306.732 -1498 159 148 174
-177.688 -306.477 -1497 161 149 176
-174.518 -306.223 -1496 118 105 134
-171.583 -306.379 -1497 108 94 123
-168.532 -306.332 -1497 132 118 147
-165.484 -306.285 -1497 149 138 164
-162.328 -306.035 -1496 110 98 125
-159.284 -305.99 -1496 101 88 115
-156.241 -305.946 -1496 96 86 110
-152.995 -305.494 -1494 149 139 163
-149.858 -305.247 -1493 127 117 141
-147.12 -305.819 -1496 105 93 117
-144.082 -305.778 -1496 92 78 103
-141.235 -306.147 -1498 139 128 152
-138.287 -306.312 -1499 138 126 151
-135.247 -306.274 -1499 103 90 117
-132.032 -305.829 -1497 121 109 137
-128.825 -305.384 -1495 165 153 181
-125.712 -305.144 -1494 117 104 131
-122.686 -305.109 -1494 96 85 110
-119.582 -304.871 -1493 94 84 108
-116.716 -305.247 -1495 141 131 155
-113.691 -305.215 -1495 99 90 114
-110.741 -305.388 -1496 81 72 96
-107.644 -305.153 -1495 81 73 95
-104.622 -305.124 -1495 90 82 104
-101.397 -304.483 -1492 97 87 111
-98.3166 -304.251 -1491 141 131 155
-95.369 -304.428 -1492 106 96 120
-92.3563 -304.402 -1492 93 82 107
-89.3443 -304.377 -1492 92 82 107
-86.3909 -304.557 -1493 137 126 150
-83.3225 -304.329 -1492 112 101 128
-80.3665 -304.51 -1493 100 88 117
-77.5107 -305.1 -1496 103 91 120
-74.5438 -305.283 -1497 139 127 155
-71.7169 -306.078 -1501 107 96 122
-68.783 -306.467 -1503 93 83 109
-65.7978 -306.652 -1504 125 115 141
-62.8508 -307.042 -1506 133 123 149
-59.9757 -307.84 -1510 100 90 118
-57.0474 -308.436 -1513 88 78 106
-54.036 -308.624 -1514 125 116 144
-51.021 -308.813 -1515 133 124 152
-47.9707 -308.8 -1515 100 91 117
-44.8615 -308.379 -1513 95 85 109
-41.8437 -308.571 -1514 108 98 122
-38.7966 -308.56 -1514 143 133 158
-35.8206 -309.161 -1517 106 96 119
-32.8112 -309.559 -1519 94 84 107
-29.8137 -310.162 -1522 88 78 104
-26.7692 -310.358 -1523 138 130 155
-23.7364 -310.758 -1525 112 106 129
-20.7094 -311.363 -1528 95 83 109
-17.6704 -311.969 -1531 92 80 107
-14.6004 -312.169 -1532 143 133 159
-11.5265 -312.369 -1533 110 99 126
-8.44876 -312.57 -1534 90 78 104
-5.36352 -312.568 -1534 94 81 108
-2.28129 -312.974 -1536 135 124 151
0.810017 -313.789 -1540 104 94 122
3.91742 -314.605 -1544 93 82 112
7.03185 -315.014 -1546 127 116 146
10.1542 -315.424 -1548 138 126 152
13.2591 -315.223 -1547 104 93 120
16.3603 -315.024 -1546 102 92 118
19.4701 -315.029 -1546 159 149 175
22.6091 -315.442 -1548 132 122 149
25.7398 -315.653 -1549 106 97 125
28.8934 -316.068 -1551 124 118 143
32.0552 -316.484 -1553 160 153 179
35.2255 -316.901 -1555 127 117 143
38.3793 -317.115 -1556 124 114 140
41.6176 -317.941 -1560 152 142 168
44.7287 -317.749 -1559 173 161 185
47.9284 -318.17 -1561 129 116 140
51.0711 -318.184 -1561 111 97 122
54.2143 -318.198 -1561 118 106 130
57.3945 -318.418 -1562 159 147 172
60.5405 -318.434 -1562 123 110 137
63.7278 -318.655 -1563 102 89 116
66.877 -318.673 -1563 98 85 112
70.1609 -319.304 -1566 140 130 156
73.2235 -318.916 -1564 130 120 146
76.474 -319.345 -1566 100 90 116
79.7332 -319.774 -1568 102 92 116
83.107 -320.613 -1572 131 121 145
86.4973 -321.452 -1576 100 91 115
90.0185 -322.701 -1582 131 123 149
93.5646 -323.95 -1588 135 126 152
96.8309 -324.18 -1589 111 101 128
100.165 -324.616 -1591 145 136 161
103.573 -325.256 -1594 165 156 180
106.793 -325.286 -1594 126 116 140
110.221 -325.928 -1597 119 111 133
113.662 -326.572 -1600 91 83 105
117.189 -327.42 -1604 96 91 105
121.109 -329.291 -1613 122 117 133
-329.497 -328.13 -1571 124 121 131
-324.535 -326.365 -1563 152 145 163
-321.459 -326.481 -1564 104 96 116
-317.975 -326.18 -1563 108 98 121
-314.296 -325.672 -1561 124 114 137
-310.828 -325.373 -1560 111 99 123
-306.972 -324.659 -1557 129 117 140
-303.131 -323.946 -1554 125 113 136
-298.727 -322.608 -1548 108 96 118
-294.35 -321.273 -1542 142 133 154
-291.134 -321.189 -1542 162 154 176
-287.36 -320.481 -1539 103 93 116
-283.786 -319.983 -1537 98 88 112
-280.587 -319.902 -1537 123 113 137
-277.933 -320.446 -1540 168 159 185
-274.911 -320.575 -1541 120 112 138
-271.359 -320.081 -1539 94 87 115
-268.514 -320.42 -1541 135 126 154
-264.803 -319.72 -1538 153 144 172
-261.276 -319.229 -1536 115 106 134
-257.928 -318.947 -1535 154 145 172
-253.922 -317.835 -1530 156 146 172
-250.103 -316.933 -1526 123 113 139
-246.141 -315.824 -1521 122 111 138
-242.841 -315.546 -1520 154 141 168
-239.232 -314.855 -1517 112 102 128
-236.103 -314.787 -1517 98 88 114
-232.363 -313.891 -1513 145 132 159
-229.095 -313.617 -1512 129 117 143
-225.834 -313.345 -1511 96 86 110
-223.021 -313.696 -1513 102 89 116
-219.62 -313.219 -1511 159 146 172
-216.659 -313.364 -1512 125 115 138
-213.131 -312.681 -1509 101 91 115
-209.895 -312.414 -1508 91 81 105
-206.391 -311.734 -1505 153 143 167
-202.901 -311.054 -1502 130 120 145
-199.558 -310.583 -1500 100 90 116
-196.487 -310.527 -1500 98 88 112
-193.288 -310.265 -1499 152 142 166
-190.35 -310.417 -1500 147 137 161
-187.408 -310.571 -1501 118 106 132
-184.464 -310.725 -1502 116 103 130
-181.155 -310.26 -1500 165 155 181
-177.975 -310.002 -1499 167 156 183
-174.8 -309.745 -1498 128 115 144
-171.631 -309.49 -1497 120 107 136
-168.467 -309.235 -1496 144 130 159
-165.309 -308.981 -1495 166 153 180
-162.265 -308.935 -1495 132 119 146
-159.115 -308.683 -1494 124 111 138
-156.076 -308.638 -1494 113 103 127
-153.037 -308.595 -1494 172 162 186
-149.9 -308.345 -1493 158 148 172
-146.965 -308.51 -1494 132 119 144
-144.123 -308.882 -1496 120 106 131
-141.18 -309.048 -1497 164 152 176
-138.234 -309.215 -1498 144 132 157
-135.195 -309.177 -1498 104 91 118
-131.892 -308.52 -1495 132 122 148
-128.775 -308.277 -1494 164 154 180
-125.663 -308.035 -1493 114 101 128
-122.639 -308 -1493 93 82 107
-119.535 -307.76 -1492 99 89 113
-116.592 -307.933 -1493 135 125 149
-113.723 -308.313 -1495 92 82 106
-110.846 -308.694 -1497 84 75 99
-107.746 -308.457 -1496 66 58 80
-104.791 -308.633 -1497 93 85 107
-101.561 -307.986 -1494 95 85 109
-98.5419 -307.957 -1494 132 122 146
-95.4596 -307.724 -1493 97 87 111
-92.5059 -307.904 -1494 90 80 106
-89.4291 -307.672 -1493 93 83 109
-86.415 -307.648 -1493 143 133 157
-83.3457 -307.418 -1492 116 106 133
-80.3889 -307.601 -1493 97 87 115
-77.4805 -307.991 -1495 107 94 123
-74.6145 -308.587 -1498 147 134 162
-71.6414 -308.773 -1499 125 112 139
-68.7106 -309.165 -1501 108 98 124
-65.7286 -309.352 -1502 124 114 140
-62.8266 -309.952 -1505 150 140 166
-59.913 -310.553 -1508 113 103 130
-57.0255 -311.36 -1512 98 88 116
-54.051 -311.756 -1514 136 127 154
-51.0689 -312.153 -1516 145 136 163
-47.9524 -311.728 -1514 107 98 124
-44.9037 -311.715 -1514 96 86 110
-41.883 -311.909 -1515 116 106 130
-38.833 -311.897 -1515 146 136 160
-35.8306 -312.299 -1517 104 94 117
-32.8204 -312.701 -1519 93 83 106
-29.8416 -313.515 -1523 101 91 116
-26.7942 -313.713 -1524 145 136 161
-23.7742 -314.324 -1527 112 106 129
-20.7422 -314.935 -1530 102 90 116
-17.6868 -315.341 -1532 105 93 120
-14.6141 -315.543 -1533 150 140 166
-11.5373 -315.745 -1534 119 108 134
-8.45667 -315.948 -1535 102 89 116
-5.3721 -316.152 -1536 117 104 131
-2.28188 -316.151 -1536 156 144 172
0.810247 -316.974 -1540 125 115 144
3.91847 -317.798 -1544 116 105 136
7.03372 -318.211 -1546 151 140 171
10.1505 -318.419 -1547 151 140 166
13.28 -318.834 -1549 124 113 139
16.386 -318.633 -1548 116 106 132
19.4754 -318.226 -1546 159 149 175
22.6007 -318.438 -1547 127 118 144
25.6972 -318.239 -1546 97 88 116
28.8828 -319.07 -1550 115 109 134
32.0023 -319.078 -1550 150 144 169
35.1899 -319.705 -1553 112 102 128
38.3407 -319.921 -1554 102 92 118
41.6025 -320.962 -1559 119 109 135
44.6265 -320.151 -1555 152 140 164
47.8497 -320.781 -1558 119 106 131
50.9872 -320.795 -1558 102 88 113
54.1251 -320.81 -1558 101 87 112
57.2635 -320.825 -1558 153 139 165
60.4412 -321.048 -1559 134 121 148
63.6233 -321.271 -1560 102 89 116
66.7672 -321.29 -1560 94 82 108
70.091 -322.133 -1564 129 120 146
73.1504 -321.741 -1562 137 127 153
76.3977 -322.174 -1564 101 91 117
79.7047 -322.814 -1567 105 95 119
83.0243 -323.455 -1570 141 131 155
86.4666 -324.509 -1575 113 104 128
89.9298 -325.564 -1580 138 132 157
93.3549 -326.414 -1584 151 144 169
96.6752 -326.853 -1586 112 102 128
100.067 -327.498 -1589 108 99 123
103.407 -327.939 -1591 155 146 170
106.622 -327.969 -1591 122 112 136
110.183 -329.03 -1596 117 108 131
113.694 -329.886 -1600 101 93 115
117.222 -330.744 -1604 97 92 105
121.443 -333.458 -1617 106 101 116
-326.29 -331.337 -1571 142 135 150
-322.58 -330.82 -1569 114 106 125
-318.474 -329.884 -1565 116 106 129
-314.387 -328.949 -1561 142 131 155
-310.917 -328.647 -1560 126 114 138
-306.863 -327.715 -1556 104 92 115
-302.828 -326.784 -1552 129 117 139
-299.006 -326.065 -1549 126 114 135
-294.626 -324.716 -1543 166 157 179
-291.407 -324.631 -1543 165 157 179
-287.256 -323.496 -1538 113 103 126
-284.052 -323.413 -1538 107 97 121
-281.033 -323.541 -1539 137 127 151
-277.832 -323.461 -1539 160 151 178
-274.633 -323.381 -1539 113 104 132
-271.613 -323.512 -1540 105 99 126
-268.417 -323.434 -1540 138 130 157
-265.051 -323.147 -1539 143 134 162
-261.181 -322.231 -1535 98 89 117
-257.498 -321.526 -1532 134 124 152
-253.663 -320.614 -1528 140 130 156
-250.339 -320.331 -1527 120 110 136
-246.212 -319.001 -1521 127 117 143
-242.751 -318.511 -1519 172 159 186
-238.985 -317.603 -1515 138 127 153
-235.704 -317.325 -1514 122 112 138
-232.276 -316.839 -1512 166 153 180
-229.161 -316.772 -1512 143 131 157
-225.899 -316.498 -1511 102 92 116
-222.937 -316.643 -1512 108 95 122
-219.828 -316.579 -1512 160 147 174
-216.578 -316.307 -1511 125 115 138
-213.333 -316.036 -1510 102 92 116
-209.955 -315.557 -1508 103 93 117
-206.724 -315.288 -1507 158 148 172
-203.364 -314.811 -1505 124 114 139
-200.147 -314.544 -1504 97 87 113
-197.067 -314.487 -1504 94 84 109
-193.73 -314.013 -1502 151 141 165
-190.531 -313.749 -1501 136 126 150
-187.337 -313.486 -1500 101 89 115
-184.517 -313.851 -1502 98 85 112
-181.207 -313.38 -1500 147 137 163
-178.026 -313.12 -1499 143 132 159
-174.85 -312.861 -1498 103 90 119
-171.794 -312.811 -1498 96 82 111
-168.515 -312.345 -1496 124 110 139
-165.577 -312.506 -1497 153 140 167
-162.528 -312.459 -1497 115 102 129
-159.267 -311.996 -1495 102 89 116
-156.224 -311.951 -1495 91 81 105
-153.081 -311.698 -1494 154 144 168
-149.842 -311.238 -1492 140 130 154
-147.006 -311.613 -1494 113 101 125
-143.971 -311.571 -1494 110 98 122
-140.937 -311.531 -1494 163 151 175
-137.996 -311.7 -1495 145 133 158
-134.872 -311.453 -1494 122 109 136
-131.665 -310.998 -1492 162 151 178
-128.639 -310.96 -1492 177 167 193
-125.53 -310.716 -1491 126 113 140
-122.591 -310.889 -1492 110 99 124
-119.489 -310.646 -1491 118 108 132
-116.547 -310.821 -1492 116 106 130
-113.679 -311.205 -1494 84 74 98
-110.877 -311.798 -1497 90 81 105
-107.849 -311.767 -1497 61 52 75
-104.821 -311.737 -1497 106 98 120
-101.59 -311.083 -1494 106 96 120
-98.5037 -310.846 -1493 146 136 160
-95.3586 -310.402 -1491 119 109 133
-92.47 -310.792 -1493 121 111 137
-89.3944 -310.558 -1492 126 116 142
-86.4394 -310.741 -1493 171 161 185
-83.4251 -310.717 -1493 148 138 165
-80.4115 -310.694 -1493 127 117 145
-77.5023 -311.088 -1495 129 116 145
-74.5358 -311.274 -1496 160 147 175
-71.6615 -311.878 -1499 154 141 168
-68.6841 -312.066 -1500 115 102 129
-65.6596 -312.047 -1500 119 107 134
-62.7608 -312.653 -1503 150 140 166
-59.8106 -313.052 -1505 129 119 147
-56.9661 -314.075 -1510 106 96 124
-54.0305 -314.683 -1513 146 137 163
-51.0495 -315.084 -1515 158 149 175
-47.9976 -315.07 -1515 122 113 139
-44.946 -315.057 -1515 120 110 134
-41.8948 -315.045 -1515 146 136 160
-38.8696 -315.241 -1516 168 158 182
-35.8879 -315.855 -1519 128 118 141
-32.8513 -316.053 -1520 113 103 126
-29.85 -316.668 -1523 128 118 142
-26.7842 -316.66 -1523 158 149 173
-23.7652 -317.277 -1526 119 113 136
-20.7345 -317.894 -1529 114 102 128
-17.6687 -318.096 -1530 126 113 140
-14.5895 -318.092 -1530 156 146 172
-11.518 -318.296 -1531 123 111 138
-8.44257 -318.501 -1532 106 93 120
-5.35603 -318.291 -1531 119 106 134
-2.2782 -318.706 -1533 147 135 164
0.808376 -319.33 -1536 104 93 124
3.91192 -320.37 -1541 92 82 112
7.02216 -320.787 -1543 132 122 151
10.1403 -321.205 -1545 131 121 147
13.2582 -321.417 -1546 103 93 119
16.3906 -321.837 -1548 95 85 111
19.5062 -321.842 -1548 141 131 157
22.6364 -322.056 -1549 114 104 131
25.721 -321.647 -1547 91 82 110
28.9097 -322.486 -1551 105 98 123
32.0112 -322.287 -1550 153 146 171
35.1999 -322.92 -1553 115 105 131
38.3762 -323.347 -1555 97 87 113
41.6409 -324.398 -1560 109 99 125
44.6677 -323.578 -1556 155 144 168
47.8631 -324.007 -1558 130 117 142
50.9689 -323.813 -1557 105 91 116
54.0709 -323.62 -1556 96 82 107
57.2062 -323.636 -1556 146 133 158
60.3805 -323.861 -1557 155 142 169
63.6004 -324.294 -1559 119 106 133
66.7432 -324.313 -1559 121 109 135
70.1106 -325.372 -1564 147 138 164
73.2179 -325.184 -1563 164 154 180
76.517 -325.83 -1566 120 110 136
79.7272 -326.06 -1567 121 111 135
83.0478 -326.707 -1570 142 133 157
86.3812 -327.356 -1573 104 95 119
89.7844 -328.213 -1577 99 93 118
93.2045 -329.072 -1581 143 135 161
96.5196 -329.515 -1583 108 98 124
100.033 -330.584 -1588 92 83 108
103.306 -330.821 -1589 138 129 153
106.719 -331.475 -1592 128 118 142
110.49 -333.172 -1600 143 135 157
114.366 -335.078 -1609 115 107 129
118.279 -336.985 -1618 106 101 114
123.431 -342.227 -1643 100 95 111
-324.114 -335.61 -1576 131 123 140
-319.585 -334.238 -1570 134 124 146
-315.889 -333.719 -1568 170 160 183
-311.606 -332.563 -1563 153 141 164
-307.15 -331.196 -1557 112 100 123
-303.112 -330.255 -1553 132 120 142
-299.093 -329.316 -1549 119 107 129
-294.903 -328.166 -1544 153 143 165
-291.114 -327.443 -1541 153 143 166
-287.34 -326.721 -1538 121 111 134
-283.765 -326.213 -1536 127 117 141
-280.384 -325.918 -1535 169 159 183
-277.552 -326.261 -1537 167 158 186
-274.178 -325.968 -1536 122 114 141
-270.987 -325.888 -1536 113 106 134
-267.623 -325.598 -1535 146 138 166
-264.439 -325.52 -1535 140 131 159
-261.597 -325.868 -1537 97 88 116
-257.909 -325.156 -1534 121 111 138
-254.069 -324.234 -1530 130 120 146
-249.592 -322.465 -1522 100 90 116
-245.959 -321.757 -1519 111 101 127
-242.661 -321.474 -1518 156 143 170
-239.054 -320.769 -1515 121 110 136
-236.084 -320.912 -1516 109 99 125
-232.497 -320.209 -1513 165 152 179
-229.227 -319.93 -1512 151 139 165
-225.964 -319.652 -1511 120 110 133
-223.296 -320.222 -1514 135 122 149
-219.746 -319.523 -1511 181 169 195
-216.497 -319.248 -1510 143 133 156
-213.394 -319.186 -1510 117 107 130
-210.016 -318.702 -1508 120 110 134
-206.784 -318.43 -1507 163 153 177
-203.558 -318.16 -1506 125 115 139
-200.205 -317.679 -1504 96 86 111
-196.862 -317.199 -1502 99 89 113
-193.657 -316.931 -1501 157 146 170
-190.458 -316.665 -1500 134 124 149
-187.39 -316.61 -1500 98 86 112
-184.57 -316.979 -1502 98 85 112
-181.38 -316.715 -1501 149 138 164
-178.314 -316.663 -1501 138 126 153
-175.134 -316.401 -1500 100 87 116
-171.844 -315.929 -1498 95 82 111
-168.676 -315.669 -1497 125 111 140
-165.625 -315.621 -1497 154 143 169
-162.574 -315.573 -1497 114 101 128
-159.419 -315.316 -1496 100 87 114
-156.269 -315.06 -1495 94 84 108
-153.022 -314.594 -1493 154 144 168
-149.985 -314.55 -1493 137 127 151
-146.95 -314.508 -1493 108 97 121
-144.109 -314.887 -1495 104 92 116
-141.071 -314.846 -1495 151 140 164
-138.036 -314.806 -1495 121 110 135
-134.82 -314.346 -1493 99 86 113
-131.791 -314.307 -1493 146 136 162
-128.676 -314.059 -1492 158 148 174
-125.566 -313.812 -1491 105 92 119
-122.544 -313.777 -1491 103 92 117
-119.523 -313.742 -1491 110 100 124
-116.58 -313.918 -1492 83 73 96
-113.711 -314.306 -1494 82 72 95
-110.909 -314.905 -1497 95 86 110
-107.88 -314.874 -1497 63 56 78
-104.921 -315.054 -1498 101 94 116
-101.687 -314.393 -1495 103 93 117
-98.5318 -313.944 -1493 136 126 150
-95.4498 -313.706 -1492 100 90 114
-92.4964 -313.889 -1493 103 92 117
-89.4798 -313.863 -1493 107 96 120
-86.5219 -314.048 -1494 148 137 161
-83.5048 -314.024 -1494 117 105 132
-80.5422 -314.21 -1495 97 85 114
-77.5762 -314.398 -1496 98 85 115
-74.6069 -314.586 -1497 136 124 152
-71.7298 -315.196 -1500 131 121 147
-68.7495 -315.386 -1501 93 80 106
-65.6782 -315.156 -1500 91 79 104
-62.7368 -315.558 -1502 123 113 137
-59.7084 -315.541 -1502 129 119 146
-56.9069 -316.785 -1508 94 84 112
-53.9387 -317.189 -1510 115 106 133
-50.9967 -317.804 -1513 135 126 153
-47.9795 -318 -1514 100 91 117
-44.9588 -318.196 -1515 91 81 106
-41.9343 -318.394 -1516 122 112 136
-38.9063 -318.593 -1517 141 131 155
-35.9217 -319.212 -1520 104 94 118
-32.8606 -319.202 -1520 94 84 107
-29.8389 -319.613 -1522 109 99 123
-26.7742 -319.605 -1522 137 128 152
-23.7564 -320.228 -1525 100 92 116
-20.7268 -320.851 -1528 92 79 106
-17.6737 -321.266 -1530 111 98 125
-14.5841 -321.051 -1529 135 125 151
-11.5212 -321.468 -1531 101 89 116
-8.43931 -321.465 -1531 88 75 102
-5.36114 -321.673 -1532 113 100 129
-2.2788 -321.882 -1533 140 127 157
0.809137 -322.721 -1537 97 86 117
3.90283 -322.722 -1537 93 83 112
7.01041 -323.353 -1540 134 124 152
10.117 -323.566 -1541 126 116 144
13.262 -324.619 -1546 101 91 117
16.3846 -324.833 -1547 93 83 109
19.5117 -325.049 -1548 142 132 158
22.6575 -325.475 -1550 112 102 129
25.7783 -325.481 -1550 94 84 112
28.9179 -325.699 -1551 90 81 107
32.0205 -325.498 -1550 152 143 169
35.1873 -325.928 -1552 128 118 144
38.2883 -325.728 -1551 112 102 128
41.5192 -326.58 -1555 116 106 132
44.5944 -326.172 -1553 171 161 187
47.8153 -326.815 -1556 165 153 178
50.9179 -326.62 -1555 133 119 144
54.0864 -326.845 -1556 128 114 139
57.2224 -326.86 -1556 159 145 171
60.3978 -327.087 -1557 174 161 188
63.537 -327.105 -1557 125 112 139
66.6767 -327.124 -1557 119 107 133
69.9961 -327.984 -1561 131 121 147
73.2388 -328.425 -1563 151 141 167
76.5878 -329.287 -1567 104 94 120
79.6991 -329.099 -1566 102 92 116
83.0715 -329.963 -1570 126 116 140
86.296 -330.197 -1571 102 93 117
89.6392 -330.853 -1574 95 89 113
93.0542 -331.72 -1578 141 134 159
96.3032 -331.958 -1579 112 102 128
99.8719 -333.247 -1585 92 82 106
103.271 -333.907 -1588 111 101 124
106.951 -335.409 -1595 113 104 126
110.522 -336.492 -1600 138 130 150
114.541 -338.838 -1611 103 95 115
-325.238 -340.002 -1581 112 104 121
-320.29 -338.186 -1573 114 104 125
-315.781 -336.802 -1567 160 149 171
-311.1 -335.204 -1560 147 135 158
-307.241 -334.468 -1557 129 117 140
-303.006 -333.304 -1552 140 128 151
-298.795 -332.141 -1547 131 119 142
-294.99 -331.409 -1544 131 120 144
-291.577 -331.108 -1543 127 117 141
-287.424 -329.949 -1538 98 88 112
-284.218 -329.865 -1538 109 100 123
-280.284 -328.924 -1534 154 145 169
-277.453 -329.27 -1536 143 136 162
-274.08 -328.975 -1535 117 111 137
-270.89 -328.894 -1535 130 122 150
-267.876 -329.029 -1536 172 163 191
-264.516 -328.736 -1535 159 150 178
-261.333 -328.659 -1535 115 106 134
-257.48 -327.726 -1531 128 119 146
-253.645 -326.795 -1527 136 126 152
-249.829 -325.865 -1523 102 92 118
-246.193 -325.15 -1520 108 98 124
-242.732 -324.65 -1518 149 136 163
-238.966 -323.724 -1514 111 100 127
-235.841 -323.655 -1514 97 87 113
-232.411 -323.158 -1512 151 138 163
-229.294 -323.091 -1512 130 118 142
-226.478 -323.451 -1514 95 85 108
-223.214 -323.172 -1513 119 106 133
-220.101 -323.107 -1513 178 165 192
-216.56 -322.402 -1510 139 131 153
-213.457 -322.339 -1510 122 113 136
-209.937 -321.637 -1507 147 137 161
-206.707 -321.362 -1506 185 176 198
-203.347 -320.876 -1504 152 143 166
-200.13 -320.603 -1503 131 121 145
-196.919 -320.332 -1502 144 132 156
-193.713 -320.062 -1501 186 174 198
-190.641 -320.006 -1501 150 140 166
-187.445 -319.737 -1500 113 101 128
-184.5 -319.896 -1501 112 99 126
-181.312 -319.63 -1500 164 151 178
-178.366 -319.79 -1501 144 131 159
-175.068 -319.313 -1499 107 94 125
