ply
format ascii 1.0
comment Created by Open3D
element vertex 1408
property double x
property double y
property double z
property uchar red
property uchar green
property uchar blue
end_header
181.988 92.5119 -1464 163 153 185
185.068 92.5908 -1465 150 140 172
188.026 92.6068 -1465 137 128 158
191.116 92.6861 -1466 129 119 150
194.344 92.8292 -1468 121 110 142
197.312 92.8459 -1468 97 92 127
200.555 92.9894 -1470 94 88 123
203.946 93.1965 -1473 96 89 123
207.211 93.3407 -1475 102 99 131
210.913 93.6751 -1480 97 92 125
214.492 93.9465 -1484 95 90 123
217.797 94.0917 -1486 99 93 129
221.111 94.2372 -1488 99 93 128
224.736 94.5097 -1492 98 93 128
228.532 94.8459 -1497 100 97 133
231.887 94.9924 -1499 108 104 140
235.251 95.1392 -1501 110 105 142
238.626 95.2863 -1503 101 96 133
241.849 95.3704 -1504 99 94 131
244.753 95.3279 -1503 103 97 134
248.15 95.4761 -1505 119 112 149
251.223 95.4976 -1505 133 126 163
254.637 95.6463 -1507 127 120 157
257.547 95.6049 -1506 106 102 138
260.456 95.5638 -1505 101 98 134
263.537 95.5864 -1505 101 98 134
266.267 95.4823 -1503 109 109 145
268.99 95.3783 -1501 137 137 173
271.708 95.2746 -1499 154 153 193
274.97 95.3618 -1500 152 151 193
277.682 95.2585 -1498 124 123 165
280.763 95.2827 -1498 128 127 167
283.277 95.1163 -1495 127 124 163
285.782 94.9501 -1492 123 120 158
288.277 94.7841 -1489 153 152 189
291.154 94.7455 -1488 170 171 206
293.83 94.6435 -1486 159 159 193
296.701 94.6054 -1485 134 131 167
299.369 94.504 -1483 130 125 161
302.234 94.4664 -1482 129 125 161
304.892 94.3653 -1480 144 143 178
307.337 94.2007 -1477 152 151 184
309.981 94.1 -1475 162 160 194
313.257 94.1909 -1476 184 181 216
316.753 94.346 -1478 185 182 215
319.395 94.2461 -1476 191 188 220
322.25 94.2103 -1475 166 164 196
325.545 94.3025 -1476 157 152 182
328.624 94.3311 -1476 160 155 184
332.156 94.4878 -1478 169 164 192
336.152 94.7728 -1482 165 162 191
340.168 95.0583 -1486 147 144 173
344.896 95.5362 -1493 146 143 173
349.424 95.9505 -1499 155 148 183
354.685 96.5577 -1508 151 145 180
358.564 96.7811 -1511 127 121 157
361.979 96.8769 -1512 104 98 134
365.402 96.9729 -1513 86 85 120
367.857 96.8128 -1510 83 83 118
370.549 96.7171 -1508 87 89 124
372.74 96.4933 -1504 100 99 134
375.168 96.3337 -1501 114 112 145
378.09 96.3027 -1500 132 130 160
380.502 96.1436 -1497 185 185 209
382.65 95.9204 -1493 208 213 231
385.041 95.7616 -1490 239 244 253
398.465 97.5668 -1517 252 254 255
409.108 99.4037 -1545 250 252 254
356.269 74.0581 -1141 253 253 253
-885.691 88.5158 -1260 231 207 198
-884.671 88.7028 -1264 222 200 188
-882.245 88.7498 -1266 205 182 168
-875.655 88.3768 -1262 187 162 147
-862.883 87.3752 -1249 148 120 105
-855.704 86.9353 -1244 125 98 82
-852.675 86.9155 -1245 124 94 81
-846.923 86.6171 -1242 125 95 83
-843.916 86.5984 -1243 125 97 85
-844.294 86.9281 -1249 125 96 85
-839.263 86.7011 -1247 125 95 84
-836.265 86.6835 -1248 127 98 86
-831.938 86.5273 -1247 127 97 87
-826.298 86.2333 -1244 123 95 89
-822.01 86.0786 -1243 121 94 92
-819.712 86.1322 -1245 129 103 103
-817.414 86.186 -1247 151 126 127
-815.114 86.24 -1249 173 147 149
-811.514 86.1563 -1249 186 161 163
-809.217 86.211 -1251 192 164 162
-808.207 86.4036 -1255 191 164 161
-806.543 86.5274 -1258 188 162 158
-807.425 86.926 -1265 164 138 134
-807.007 87.1871 -1270 140 112 111
-805.304 87.3108 -1273 128 100 99
-802.965 87.3661 -1275 121 99 99
-799.37 87.2846 -1275 131 111 112
-797.034 87.3406 -1277 147 130 132
-800.91 88.08 -1289 193 181 182
-801.016 88.4088 -1295 230 231 233
-800.483 88.6691 -1300 243 250 255
-802.384 89.2019 -1309 223 240 245
-640.092 87.6939 -1341 240 251 254
-632.998 87.1111 -1333 197 206 213
-625.004 86.3989 -1323 92 100 109
-620.826 86.2101 -1321 93 89 103
-619.001 86.3479 -1324 105 97 111
-614.843 86.1599 -1322 107 100 115
-613.477 86.3631 -1326 78 75 94
-611.178 86.4364 -1328 81 73 93
-609.79 86.6398 -1332 90 81 102
-607.024 86.6483 -1333 85 75 96
-604.711 86.722 -1335 168 160 182
-601.044 86.6012 -1334 229 222 237
-597.387 86.4808 -1333 226 220 233
-593.742 86.3609 -1332 205 201 216
-590.107 86.2413 -1331 135 131 149
-587.806 86.3165 -1333 85 81 100
-585.501 86.3919 -1335 103 101 121
-583.193 86.4675 -1337 101 98 119
-580.447 86.4786 -1338 75 72 94
-578.565 86.6192 -1341 78 75 97
-576.675 86.7599 -1344 88 84 109
-574.776 86.9007 -1347 97 93 120
-573.294 87.1061 -1351 104 101 128
-571.376 87.2471 -1354 90 89 111
-570.289 87.517 -1359 93 96 126
-567.932 87.5938 -1361 166 171 205
-565.986 87.7352 -1364 195 201 237
-564.032 87.8766 -1367 226 232 251
-562.89 88.1467 -1372 248 252 255
-559.69 88.0956 -1372 250 252 255
-554.874 87.7883 -1368 253 253 255
-553.711 88.0588 -1373 253 254 255
-548.94 88.2153 -1377 252 254 255
-544.964 88.0378 -1375 252 253 255
-536.27 87.5562 -1369 253 252 254
-535.457 87.8916 -1375 253 253 255
-526.276 88.2752 -1384 249 254 255
-518.582 87.4631 -1372 251 254 254
-507.566 86.0788 -1351 251 254 254
-503.279 86.3068 -1356 251 253 255
-500.99 87.3807 -1375 253 254 255
-500.783 87.8444 -1383 252 254 255
-492.765 87.4385 -1378 252 253 255
-491.089 87.6485 -1382 250 252 254
-485.163 87.098 -1374 249 252 254
-483.542 87.8358 -1387 243 246 250
-480.097 87.7298 -1386 240 243 249
-476.66 87.6242 -1385 223 224 236
-473.575 87.5823 -1385 193 195 209
-468.796 87.2246 -1380 160 165 187
-465.73 87.1834 -1380 152 157 181
-464.345 87.4582 -1385 140 145 170
-461.943 87.5438 -1387 124 127 154
-459.536 87.6294 -1389 128 130 157
-456.797 87.6522 -1390 136 136 164
-454.057 87.6753 -1391 133 139 175
-451.316 87.6986 -1392 122 127 160
-448.576 87.7222 -1393 102 106 137
-446.475 87.8718 -1396 102 101 129
-443.729 87.8958 -1397 103 100 129
-441.299 87.9829 -1399 103 98 128
-437.611 87.8188 -1397 93 96 123
-434.246 87.7179 -1396 100 102 130
-430.89 87.6174 -1395 100 101 131
-426.622 87.3288 -1391 97 102 131
-422.985 87.1663 -1389 108 113 142
-419.662 87.0669 -1388 111 116 146
-416.047 86.9052 -1386 110 112 142
-413.041 86.8691 -1386 107 107 137
-409.743 86.7708 -1385 121 119 150
-407.04 86.798 -1386 129 127 159
-404.336 86.8255 -1387 122 120 153
-401.921 86.9157 -1389 129 125 158
-398.926 86.8811 -1389 147 145 178
-395.935 86.8468 -1389 162 164 196
-392.665 86.7502 -1388 145 144 177
-389.122 86.5915 -1386 126 125 158
-386.148 86.5581 -1386 104 106 136
-382.901 86.4625 -1385 92 94 124
-379.936 86.4297 -1385 90 91 121
-378.063 86.6466 -1389 80 77 109
-375.366 86.6766 -1390 81 77 109
-372.936 86.7691 -1392 85 81 113
-370.235 86.7996 -1393 113 108 140
-367.796 86.8925 -1395 137 132 164
-364.307 86.7365 -1393 141 136 168
-361.607 86.7678 -1394 151 146 177
-357.877 86.5503 -1391 154 149 180
-355.439 86.6441 -1393 155 150 180
-351.983 86.4896 -1391 135 130 161
-348.789 86.3974 -1390 124 118 151
-345.603 86.3056 -1389 109 103 137
-342.918 86.3384 -1390 104 97 131
-339.497 86.1851 -1388 130 123 157
-336.33 86.0942 -1387 130 123 155
-333.171 86.0036 -1386 118 111 143
-329.78 85.8514 -1384 136 128 159
-326.164 85.6374 -1381 117 107 138
-322.564 85.4239 -1378 128 117 148
-319.675 85.3966 -1378 168 162 185
-316.559 85.3077 -1377 149 143 166
-313.45 85.219 -1376 108 99 127
-310.573 85.1925 -1376 101 92 121
-307.923 85.2282 -1377 129 120 150
-304.606 85.0786 -1375 99 89 117
-301.52 84.9911 -1374 103 93 121
-298.224 84.842 -1372 129 120 148
-294.722 84.6315 -1369 95 83 112
-291.023 84.3595 -1365 90 77 105
-288.187 84.335 -1365 121 108 135
-284.727 84.1255 -1362 118 104 131
-281.902 84.1017 -1362 94 80 107
-278.056 83.7694 -1357 117 100 128
-275.246 83.7461 -1357 157 141 168
-271.435 83.4146 -1352 115 103 127
-268.442 83.3302 -1351 101 89 113
-265.455 83.2461 -1350 109 97 121
-262.669 83.2239 -1350 163 153 177
-259.308 83.0171 -1347 136 125 148
-256.533 82.9954 -1347 101 89 110
-253.571 82.9124 -1346 96 83 106
-250.616 82.8297 -1345 152 138 162
-247.482 82.6857 -1343 158 145 172
-244.906 82.7266 -1344 112 99 126
-241.787 82.5832 -1342 100 87 116
-239.035 82.5631 -1342 117 104 133
-235.756 82.3586 -1339 164 152 180
-233.013 82.3391 -1339 135 125 151
-229.585 82.0738 -1335 105 94 119
-227.534 82.3007 -1339 107 94 118
-224.798 82.2817 -1339 114 102 126
-222.395 82.386 -1341 169 156 180
-219.494 82.3061 -1340 148 132 157
-217.084 82.4108 -1342 108 92 117
-214.029 82.27 -1340 104 89 114
-211.3 82.2523 -1340 106 91 116
-208.572 82.2348 -1340 167 152 177
-205.692 82.1563 -1339 150 136 161
-202.818 82.0779 -1338 113 99 124
-200.1 82.0612 -1338 107 92 117
-197.235 81.9833 -1337 116 100 125
-194.667 82.0284 -1338 171 156 181
-192.241 82.135 -1340 146 132 157
-189.666 82.1804 -1341 109 95 121
-186.81 82.1035 -1340 108 93 120
-183.959 82.0268 -1339 133 114 142
-180.843 81.828 -1336 168 152 178
-178.008 81.7519 -1335 137 125 149
-175.047 81.6148 -1333 110 97 119
-172.354 81.6004 -1333 115 101 123
-169.662 81.5863 -1333 125 109 133
-167.222 81.6948 -1335 172 156 181
-164.653 81.7422 -1336 152 136 161
-161.959 81.7287 -1336 109 90 115
-159.267 81.7154 -1336 113 94 119
-156.81 81.8247 -1338 121 102 128
-154.001 81.7507 -1337 167 150 175
-151.537 81.8604 -1339 159 143 167
-148.844 81.848 -1339 107 88 113
-146.261 81.8969 -1340 115 96 121
-143.46 81.8239 -1339 119 100 126
-140.771 81.8122 -1339 158 141 166
-138.082 81.8007 -1339 168 152 176
-135.294 81.7284 -1338 109 93 117
-132.609 81.7173 -1338 112 95 120
-129.926 81.7065 -1338 119 100 126
-127.244 81.696 -1338 156 139 165
-124.563 81.6855 -1338 172 156 181
-121.882 81.6754 -1338 119 100 125
-119.203 81.6655 -1338 111 92 117
-116.438 81.5948 -1337 116 97 122
-113.762 81.5853 -1337 159 142 166
-111.088 81.576 -1337 175 159 183
-108.496 81.6281 -1338 129 110 135
-105.821 81.6193 -1338 109 90 115
-103.302 81.7327 -1340 113 94 119
-100.7 81.7853 -1341 150 133 158
-98.0217 81.7771 -1341 172 156 181
-95.4154 81.8302 -1342 124 110 137
-92.8061 81.8834 -1343 105 91 118
-90.1263 81.8759 -1343 100 86 113
-87.382 81.8077 -1342 142 126 152
-84.5795 81.6787 -1340 175 159 184
-81.9078 81.6719 -1340 137 121 146
-79.2367 81.6653 -1340 103 87 112
-76.6234 81.7199 -1341 99 83 108
-74.0068 81.7746 -1342 129 113 138
-71.5462 82.0124 -1346 174 158 184
-68.9169 82.0676 -1347 146 129 157
-66.284 82.123 -1348 111 95 123
-63.6477 82.1786 -1349 105 90 117
-60.9628 82.1734 -1349 110 96 125
-58.2351 82.1077 -1348 171 157 186
-55.4706 81.9812 -1346 149 136 163
-52.8715 82.0986 -1348 109 95 122
-50.1532 82.0335 -1347 110 95 122
-47.4744 82.0294 -1347 108 91 119
-44.7628 81.9648 -1346 167 150 177
-42.1492 82.0831 -1348 160 144 169
-39.3818 81.8971 -1345 115 101 125
-36.7357 81.9549 -1346 113 99 123
-34.0353 81.891 -1345 103 89 114
-31.3858 81.9492 -1346 156 142 168
-28.7326 82.0077 -1347 165 151 178
-26.095 82.1272 -1349 114 100 127
-23.4149 82.1252 -1349 111 97 124
-20.735 82.1233 -1349 113 96 124
-18.0821 82.2435 -1351 151 134 161
-15.4099 82.303 -1352 169 153 178
-12.7339 82.3628 -1353 122 106 131
-10.0391 82.301 -1352 117 101 126
-7.35391 82.3003 -1352 114 97 125
-4.66875 82.2998 -1352 150 134 159
-1.98362 82.2995 -1352 179 163 187
0.70098 82.2386 -1351 115 101 128
3.38913 82.3605 -1353 113 99 126
6.08075 82.4218 -1354 114 101 128
8.76992 82.4224 -1354 149 136 164
11.4761 82.545 -1356 155 143 172
14.1903 82.6677 -1358 101 91 119
16.9125 82.7908 -1360 103 91 119
19.6429 82.9141 -1362 132 118 145
22.3977 83.0984 -1365 174 160 187
25.1281 83.1613 -1366 133 119 146
27.842 83.1634 -1366 106 89 116
30.5786 83.2267 -1367 109 92 120
33.3437 83.3511 -1369 149 132 160
36.117 83.4757 -1371 167 153 180
38.8986 83.6006 -1373 115 101 128
41.749 83.8474 -1377 112 98 127
44.5511 83.9727 -1379 139 123 152
47.3274 84.0374 -1380 159 142 172
50.1441 84.1632 -1382 104 91 120
52.9309 84.2283 -1383 97 84 112
55.7624 84.3545 -1385 130 117 144
58.5601 84.4202 -1386 160 146 173
61.4508 84.6078 -1389 110 96 123
64.3538 84.7957 -1392 99 86 113
67.1728 84.862 -1393 125 112 140
70.0467 84.9895 -1395 151 138 167
72.8767 85.0563 -1396 98 85 116
75.7113 85.1233 -1397 97 84 115
78.5507 85.1906 -1398 136 123 152
81.5108 85.3799 -1401 133 120 148
84.4838 85.5696 -1404 92 79 106
87.4693 85.7595 -1407 104 91 118
90.4674 85.9497 -1410 137 126 154
93.5444 86.2011 -1414 106 96 124
96.4338 86.2699 -1415 94 84 112
99.3278 86.3389 -1416 121 110 138
102.299 86.4691 -1418 122 109 138
105.353 86.6605 -1421 98 85 114
108.267 86.7303 -1422 109 96 125
111.421 86.9834 -1426 147 134 163
114.431 87.1146 -1428 106 95 125
117.451 87.2462 -1430 90 79 110
120.395 87.3169 -1431 131 120 151
123.43 87.449 -1433 143 132 163
126.474 87.5814 -1435 107 95 126
129.527 87.714 -1437 97 86 117
132.774 87.969 -1441 139 130 160
135.849 88.1022 -1443 89 84 113
139.03 88.2966 -1446 81 75 103
142.224 88.4914 -1449 97 91 119
145.431 88.6864 -1452 91 84 114
148.651 88.8819 -1455 92 84 114
152.197 89.2608 -1461 85 76 106
155.238 89.3345 -1462 87 78 108
158.283 89.4086 -1463 86 78 108
161.224 89.4218 -1463 85 78 108
164.166 89.4352 -1463 107 98 128
166.995 89.3878 -1462 104 95 125
170.055 89.4628 -1463 94 85 115
173.119 89.5382 -1464 95 86 116
176.069 89.5526 -1464 93 84 114
179.142 89.6285 -1465 124 111 144
182.221 89.7046 -1466 118 107 140
185.053 89.6586 -1465 132 121 154
188.139 89.7352 -1466 142 133 163
191.36 89.8734 -1468 157 148 178
194.592 90.0119 -1470 135 126 156
197.967 90.2118 -1473 110 103 136
201.629 90.5346 -1478 105 98 130
204.76 90.6128 -1479 106 99 130
208.458 90.9362 -1484 106 101 133
211.75 91.0763 -1486 103 98 129
215.486 91.4004 -1491 107 102 133
218.511 91.4185 -1491 110 105 135
221.686 91.4981 -1492 105 100 131
225.32 91.762 -1496 101 98 130
229.124 92.0877 -1501 104 102 136
232.486 92.2296 -1503 104 102 136
235.858 92.3718 -1505 102 100 134
238.764 92.3301 -1504 98 97 133
241.99 92.4116 -1505 92 91 127
244.733 92.3091 -1503 94 91 127
247.964 92.391 -1504 113 110 147
251.202 92.4733 -1505 141 138 174
254.446 92.5559 -1506 142 137 173
257.525 92.5772 -1506 131 130 167
260.606 92.5989 -1506 119 118 155
263.515 92.5593 -1505 117 116 153
266.244 92.4584 -1503 127 126 163
268.968 92.3578 -1501 120 119 157
271.685 92.2573 -1499 132 131 171
274.58 92.2187 -1498 155 156 195
277.287 92.1187 -1496 159 160 199
280.364 92.142 -1496 147 149 185
283.064 92.0424 -1494 125 124 160
285.949 92.0047 -1493 122 121 157
288.446 91.8439 -1490 134 134 170
291.128 91.745 -1488 166 164 200
294.201 91.7696 -1488 169 167 203
296.876 91.671 -1486 159 158 193
299.949 91.6962 -1486 151 149 184
302.82 91.6599 -1485 151 149 183
305.278 91.5002 -1482 159 156 188
307.934 91.4026 -1480 155 153 187
310.375 91.2434 -1477 164 161 196
313.654 91.3315 -1478 181 178 213
316.94 91.4199 -1479 198 195 226
319.801 91.385 -1478 208 206 237
322.66 91.3503 -1477 201 200 230
325.738 91.3778 -1477 201 198 220
329.264 91.5293 -1479 197 194 215
332.352 91.5573 -1479 198 195 215
337.937 92.2668 -1490 183 181 203
342.427 92.6672 -1496 172 169 192
348.793 93.5639 -1510 150 147 171
352.657 93.7795 -1513 131 125 161
357.242 94.1817 -1519 125 120 155
360.668 94.2743 -1520 117 113 148
363.623 94.243 -1519 105 100 135
366.095 94.0879 -1516 90 88 122
368.556 93.933 -1513 95 94 128
371.254 93.8404 -1511 101 100 135
373.204 93.5616 -1506 111 110 144
376.135 93.5314 -1505 127 126 158
378.309 93.315 -1501 166 164 195
381.232 93.2853 -1500 198 200 224
382.872 92.9447 -1494 215 219 233
390.777 93.3844 -1500 250 252 255
416.634 97.288 -1561 253 254 255
-850.532 83.8698 -1242 109 95 90
-845.472 83.6488 -1240 112 97 92
-842.472 83.6308 -1241 112 99 94
-842.18 83.8825 -1246 115 101 98
-835.812 83.5288 -1242 112 99 96
-828.809 83.1088 -1237 108 98 92
-825.849 83.0929 -1238 106 97 95
-820.901 82.8761 -1236 104 96 96
-819.281 82.995 -1239 100 94 100
-818.971 83.2478 -1244 128 126 143
-812.422 83.1519 -1245 210 214 238
-806.884 82.871 -1242 229 234 250
-803.314 82.791 -1242 239 241 244
-802.33 82.9779 -1246 245 237 239
-802.616 83.2978 -1252 243 233 234
-805.43 83.8833 -1262 236 226 226
-806.926 84.3352 -1270 220 209 211
-805.856 84.5212 -1274 202 193 196
-806.663 84.906 -1281 189 183 187
-800.545 84.5621 -1277 197 192 196
-798.827 84.6821 -1280 207 203 207
-803.936 85.5294 -1294 226 223 226
-637.213 84.8312 -1342 217 229 234
-626.836 83.8261 -1327 97 107 114
-622.178 83.5801 -1324 77 73 86
-620.347 83.7132 -1327 83 79 92
-616.182 83.5312 -1325 84 78 93
-613.884 83.6018 -1327 65 57 77
-612.042 83.7355 -1330 64 56 76
-610.192 83.8693 -1333 68 61 81
-607.879 83.9404 -1335 72 66 86
-605.109 83.9488 -1336 84 80 99
-601.89 83.8947 -1336 175 170 183
-597.781 83.7154 -1334 207 203 214
-593.688 83.5366 -1332 188 184 199
-589.61 83.3583 -1330 176 172 189
-586.871 83.3685 -1331 105 101 119
-584.571 83.4415 -1333 95 91 110
-582.268 83.5146 -1335 99 96 117
-580.395 83.6505 -1338 87 83 105
-578.082 83.724 -1340 81 76 99
-576.194 83.8602 -1343 103 98 123
-574.725 84.0588 -1347 126 121 149
-572.818 84.1952 -1350 100 95 124
-571.324 84.3939 -1354 95 95 119
-569.818 84.5927 -1358 112 117 149
-567.881 84.7293 -1361 180 187 221
-565.521 84.8038 -1363 195 203 239
-563.569 84.9407 -1366 229 236 251
-562.429 85.202 -1371 248 253 255
-557.193 84.8421 -1366 251 253 255
-550.436 84.6828 -1365 252 253 254
-529.18 84.0281 -1359 255 251 255
-528.768 84.4146 -1366 255 252 255
-522.172 83.8129 -1357 255 252 255
-525.186 84.7554 -1373 253 253 255
-502.954 82.9737 -1347 253 253 255
-498.316 83.1334 -1351 253 253 254
-498.8 85.6227 -1395 255 253 255
-480.014 84.351 -1377 250 251 255
-475.931 84.6366 -1383 255 254 255
-474.218 84.8407 -1387 244 244 252
-468.755 84.3724 -1380 206 208 225
-466.702 84.5159 -1383 169 172 192
-464.305 84.5984 -1385 168 172 192
-462.236 84.7421 -1388 167 171 194
-459.828 84.825 -1390 165 169 195
-456.757 84.786 -1390 148 152 179
-454.017 84.8083 -1391 128 136 170
-451.278 84.8309 -1392 114 122 154
-449.181 84.9755 -1395 95 102 133
-447.076 85.1203 -1398 95 99 128
-444.644 85.2043 -1400 99 100 129
-442.207 85.2884 -1402 99 96 127
-438.513 85.1296 -1400 92 93 121
-435.453 85.0927 -1400 100 101 130
-431.78 84.9346 -1398 109 110 140
-428.119 84.7769 -1396 118 121 151
-424.471 84.6196 -1394 125 129 158
-420.836 84.4626 -1392 124 129 158
-416.612 84.1847 -1388 115 117 147
-413.304 84.0892 -1387 110 111 141
-410.004 83.9941 -1386 112 112 143
-407.592 84.081 -1388 113 113 145
-404.884 84.1075 -1389 109 109 141
-402.176 84.1343 -1390 112 109 142
-399.467 84.1613 -1391 114 113 146
-396.757 84.1884 -1392 115 119 150
-393.763 84.1554 -1392 104 105 137
-390.212 84.0018 -1390 96 97 129
-386.951 83.909 -1389 91 95 124
-383.698 83.8164 -1388 90 94 124
-380.452 83.7243 -1387 95 99 129
-378.031 83.8134 -1389 89 89 122
-375.334 83.8424 -1390 102 101 133
-373.172 83.9922 -1393 114 112 143
-370.469 84.0216 -1394 134 129 160
-367.765 84.0512 -1395 143 139 170
-364.276 83.9004 -1393 128 124 157
-361.577 83.9306 -1394 119 114 146
-357.59 83.66 -1390 104 99 130
-354.643 83.6306 -1390 104 99 130
-351.953 83.6615 -1391 95 89 122
-349.011 83.6326 -1391 91 85 119
-346.072 83.6038 -1391 94 88 122
-343.135 83.5754 -1391 100 94 128
-339.958 83.4872 -1390 125 118 152
-336.787 83.3993 -1389 131 124 156
-333.383 83.2516 -1387 98 91 123
-329.991 83.1043 -1385 126 117 149
-326.609 82.9572 -1383 112 103 134
-323.005 82.7507 -1380 122 111 142
-319.648 82.6043 -1378 167 161 184
-316.303 82.4584 -1376 150 144 168
-313.196 82.3726 -1375 115 106 134
-310.322 82.3471 -1375 107 98 128
-307.45 82.3217 -1375 140 131 161
-304.359 82.2369 -1374 116 106 134
-301.276 82.1522 -1373 109 99 127
-297.981 82.0081 -1371 145 136 164
-294.698 81.8643 -1369 120 108 137
-291.212 81.661 -1366 102 89 117
-288.586 81.6971 -1367 123 110 137
-285.121 81.4944 -1364 133 120 147
-281.672 81.2921 -1361 106 92 119
-278.237 81.0901 -1358 119 102 130
-275.223 81.0079 -1357 159 143 170
-271.613 80.7469 -1353 121 109 133
-268.42 80.6056 -1351 99 87 111
-265.63 80.5839 -1351 108 96 120
-262.842 80.5624 -1351 163 153 177
-259.479 80.3623 -1348 134 124 147
-256.511 80.2818 -1347 102 90 112
-253.55 80.2015 -1346 98 84 108
-250.409 80.0619 -1344 155 141 165
-247.462 79.9821 -1343 157 144 170
-244.886 80.0218 -1344 112 99 126
-241.587 79.8234 -1341 102 89 117
-238.837 79.8041 -1341 117 104 133
-235.736 79.6659 -1339 163 151 180
-232.82 79.5874 -1338 133 123 148
-229.738 79.4498 -1336 100 89 113
-227.516 79.6097 -1339 99 87 111
-224.779 79.5914 -1339 110 98 122
-222.376 79.6923 -1341 167 154 178
-219.476 79.615 -1340 138 122 146
-216.905 79.6569 -1341 101 85 109
-214.012 79.5801 -1340 99 83 108
-211.283 79.563 -1340 106 90 115
-208.399 79.4867 -1339 163 148 173
-205.675 79.4701 -1339 143 129 154
-202.953 79.4536 -1339 101 87 112
-200.083 79.3782 -1338 100 86 111
-197.367 79.3621 -1338 107 91 116
-194.797 79.4057 -1339 164 149 174
-192.081 79.3902 -1339 142 128 153
-189.367 79.3748 -1339 107 93 120
-186.655 79.3598 -1339 104 90 117
-183.944 79.3449 -1339 124 106 134
-180.829 79.1525 -1336 163 148 174
-178.127 79.1381 -1336 132 121 145
-175.164 79.0056 -1334 101 88 110
-172.469 78.9916 -1334 101 86 109
-169.775 78.978 -1334 114 98 122
-167.334 79.0829 -1336 168 152 177
-164.762 79.1288 -1337 149 133 158
-162.188 79.1749 -1338 103 84 109
-159.492 79.162 -1338 108 89 114
-156.914 79.2086 -1339 117 98 123
-154.104 79.137 -1338 162 145 169
-151.524 79.1839 -1339 157 141 165
-148.831 79.1719 -1339 107 88 113
-146.249 79.2193 -1340 110 91 116
-143.342 79.0895 -1338 113 94 120
-140.654 79.0782 -1338 153 136 161
-137.762 78.9489 -1336 163 147 171
-135.182 78.9971 -1337 104 88 112
-132.4 78.9273 -1336 101 84 109
-129.818 78.976 -1337 111 92 118
-127.138 78.9658 -1337 155 138 163
-124.553 79.0148 -1338 174 158 183
-121.872 79.005 -1338 125 106 132
-119.104 78.9364 -1337 110 91 116
-116.428 78.927 -1337 108 89 114
-113.753 78.9179 -1337 154 137 161
-111.079 78.9089 -1337 172 156 180
-108.487 78.9592 -1338 125 106 131
-105.892 79.0097 -1339 105 86 111
-103.37 79.1195 -1341 109 90 115
-100.767 79.1703 -1342 148 132 157
-98.1599 79.2214 -1343 171 156 181
-95.5499 79.2727 -1344 123 108 135
-92.8676 79.2652 -1344 105 90 117
-90.1861 79.258 -1344 101 87 114
-87.5052 79.2509 -1344 142 126 151
-84.6357 79.0672 -1341 175 159 184
-81.9012 79.0016 -1340 138 120 146
-79.2895 79.0542 -1341 104 86 112
-76.6173 79.048 -1341 98 81 106
-73.9457 79.042 -1341 132 116 141
-71.4873 79.2721 -1345 173 157 182
-68.9113 79.3844 -1347 144 129 156
-66.2295 79.3791 -1347 106 91 119
-63.6426 79.4917 -1349 101 87 114
-60.9126 79.4279 -1348 109 95 125
-58.1872 79.3642 -1347 172 158 187
-55.4662 79.3008 -1346 154 140 167
-52.8281 79.3554 -1347 112 98 125
-50.1119 79.2925 -1346 110 96 123
-47.4353 79.2886 -1346 108 93 119
-44.7591 79.2849 -1346 165 150 176
-42.1459 79.3993 -1348 160 143 169
-39.4372 79.3372 -1347 118 103 128
-36.7873 79.3931 -1348 114 100 124
-34.0832 79.3314 -1347 103 89 114
-31.4066 79.3289 -1347 155 141 167
-28.7303 79.3264 -1347 166 152 179
-26.0735 79.3832 -1348 116 102 129
-23.3957 79.3812 -1348 114 100 127
-20.718 79.3795 -1348 114 97 125
-18.0806 79.5546 -1351 148 131 158
-15.3859 79.4944 -1350 163 147 172
-12.7234 79.6111 -1352 118 102 127
-10.0383 79.6102 -1352 113 97 122
-7.35333 79.6095 -1352 111 94 122
-4.66492 79.5501 -1351 145 129 154
-1.98199 79.5499 -1351 180 164 188
0.70092 79.5498 -1351 109 95 122
3.38634 79.6089 -1352 109 95 122
6.08026 79.727 -1354 112 99 126
8.77569 79.7865 -1355 148 135 164
11.4752 79.8462 -1356 157 144 173
14.1787 79.9061 -1357 101 91 119
16.8988 80.0251 -1359 99 88 116
19.6269 80.1443 -1361 127 113 140
22.3631 80.2637 -1363 169 155 182
25.1076 80.3834 -1365 125 111 139
27.8398 80.4444 -1366 101 85 110
30.5985 80.5644 -1368 105 88 115
33.341 80.6259 -1369 143 126 154
36.1141 80.7465 -1371 161 147 174
38.8955 80.8672 -1373 107 93 120
41.7457 81.106 -1377 102 88 117
44.5799 81.2861 -1380 134 118 148
47.3577 81.3487 -1381 161 144 174
50.1764 81.4704 -1383 102 89 118
52.965 81.5333 -1384 93 80 108
55.758 81.5966 -1385 127 114 141
58.5554 81.66 -1386 163 149 176
61.4457 81.8415 -1389 111 97 124
64.3024 81.9644 -1391 104 91 118
67.2638 82.2053 -1395 128 115 143
70.0409 82.2108 -1395 140 127 156
72.9231 82.3343 -1397 97 84 115
75.8136 82.4581 -1399 100 87 118
78.6006 82.4642 -1399 146 133 162
81.4461 82.5295 -1400 131 118 145
84.5372 82.8309 -1405 97 84 111
87.5243 83.0146 -1408 104 91 118
90.5243 83.1985 -1411 139 128 155
93.6031 83.4417 -1415 97 87 115
96.6986 83.6852 -1419 88 78 106
99.5301 83.6929 -1419 123 112 140
102.435 83.7599 -1420 116 103 132
105.418 83.8861 -1422 94 81 110
108.411 84.0127 -1424 110 97 126
111.49 84.1984 -1427 149 136 165
114.502 84.3254 -1429 107 96 126
117.523 84.4526 -1431 93 82 113
120.469 84.5211 -1432 134 123 154
123.42 84.5899 -1433 154 142 173
126.464 84.7179 -1435 113 102 133
129.607 84.9051 -1438 102 91 122
132.671 85.0337 -1440 142 133 163
135.932 85.2806 -1444 98 93 122
139.211 85.5278 -1448 99 93 120
142.311 85.6572 -1450 132 126 153
145.62 85.905 -1454 116 109 139
149.15 86.2712 -1460 96 87 117
152.497 86.5197 -1464 94 85 115
155.437 86.5319 -1464 105 96 126
158.595 86.6627 -1466 118 110 140
161.652 86.7346 -1467 130 122 152
164.377 86.6294 -1465 140 131 161
167.325 86.6426 -1465 111 103 133
170.389 86.7152 -1466 97 90 120
173.341 86.729 -1466 94 85 115
176.175 86.6838 -1465 101 91 122
179.25 86.7572 -1466 113 101 134
182.33 86.8308 -1467 100 90 122
185.29 86.8455 -1467 95 86 118
188.508 86.9789 -1469 104 95 125
191.736 87.1126 -1471 117 109 138
195.238 87.365 -1475 111 103 132
198.489 87.4992 -1477 114 109 140
202.295 87.8708 -1483 123 119 149
205.712 88.0649 -1486 119 116 145
209.424 88.3779 -1491 121 118 149
213.015 88.632 -1495 123 120 151
216.191 88.7085 -1496 128 125 156
219.519 88.8446 -1498 121 122 152
222.857 88.9811 -1500 112 113 143
226.054 89.0584 -1501 104 105 137
229.563 89.2548 -1504 108 111 145
232.776 89.3327 -1505 124 127 160
235.995 89.4109 -1506 125 128 161
238.903 89.3707 -1505 111 114 149
241.809 89.3307 -1504 104 107 143
244.713 89.2909 -1503 107 108 144
247.944 89.3701 -1504 121 122 158
251.181 89.4497 -1505 128 129 165
254.594 89.5891 -1507 131 129 166
257.675 89.6097 -1507 143 144 181
260.931 89.6902 -1508 151 152 188
263.843 89.6519 -1507 150 149 186
266.577 89.5543 -1505 135 134 171
269.483 89.5166 -1504 123 122 159
272.025 89.3599 -1501 122 121 161
275.107 89.382 -1501 138 139 176
277.82 89.2854 -1499 171 174 210
280.716 89.2484 -1498 169 172 207
283.419 89.1521 -1496 141 141 177
286.117 89.0561 -1494 130 130 165
288.616 88.9005 -1491 139 140 175
291.105 88.7452 -1488 150 147 180
294.176 88.769 -1488 155 152 185
296.851 88.6737 -1486 168 168 198
299.924 88.698 -1486 181 180 210
302.795 88.6628 -1485 189 188 217
305.459 88.5682 -1483 185 182 209
307.909 88.414 -1480 188 186 210
310.979 88.4393 -1480 204 202 226
313.628 88.3453 -1478 219 217 241
316.914 88.4307 -1479 228 226 246
319.991 88.4568 -1479 232 231 248
323.725 88.6625 -1482 236 236 250
326.593 88.6294 -1481 244 243 250
331.017 89.0154 -1487 243 242 250
335.245 89.342 -1492 241 240 248
342.672 90.5078 -1511 223 221 234
346.061 90.5959 -1512 219 216 230
351.998 91.3437 -1524 194 191 210
355.657 91.4926 -1526 155 152 186
359.093 91.582 -1527 127 124 159
362.299 91.6117 -1527 114 111 145
365.029 91.5216 -1525 114 111 144
367.03 91.2516 -1520 103 100 131
369.013 90.9817 -1515 99 97 130
371.223 90.7719 -1511 107 106 141
373.668 90.6224 -1508 106 106 139
375.853 90.413 -1504 121 121 154
378.025 90.2037 -1500 175 175 207
379.675 89.8741 -1494 198 202 227
380.79 89.4242 -1486 228 233 243
380.841 88.7335 -1474 249 253 255
-630.984 81.1698 -1329 226 241 246
-626.308 80.9317 -1326 97 109 116
-622.593 80.816 -1325 58 57 69
-619.824 80.8227 -1326 67 64 77
-617.522 80.8906 -1328 68 64 78
-615.217 80.9587 -1330 64 56 75
-613.828 81.1486 -1334 67 61 78
-611.969 81.2777 -1337 71 66 82
-609.646 81.3462 -1339 82 78 94
-606.867 81.3541 -1340 84 83 96
-604.09 81.3623 -1341 165 162 173
-599.073 81.0677 -1337 179 176 186
-593.636 80.713 -1332 164 162 175
-590.002 80.6014 -1331 134 130 147
-586.819 80.5506 -1331 96 92 109
-584.52 80.6212 -1333 90 86 105
-582.217 80.6919 -1335 102 100 122
-579.91 80.7628 -1337 91 88 111
-578.031 80.8942 -1340 105 100 124
-576.144 81.0258 -1343 119 114 139
-574.248 81.1575 -1346 119 114 140
-572.768 81.3495 -1350 104 99 126
-570.431 81.4211 -1352 102 102 132
-568.929 81.6132 -1356 140 147 179
-566.58 81.6851 -1358 183 191 224
-564.227 81.7572 -1360 194 205 237
-562.695 81.9497 -1364 231 239 254
-561.56 82.2022 -1369 246 253 255
-477.59 81.5789 -1379 254 251 253
-474.515 81.5396 -1379 254 252 254
-467.017 81.2255 -1375 250 249 254
-464.976 81.3642 -1378 229 231 241
-464.601 81.7982 -1386 206 209 221
-462.53 81.9371 -1389 190 194 213
-460.12 82.0171 -1391 165 170 192
-457.705 82.0974 -1393 145 150 173
-454.959 82.1188 -1394 118 127 155
-452.212 82.1406 -1395 123 131 161
-449.466 82.1625 -1396 114 121 152
-447.039 82.2435 -1398 103 109 141
-444.607 82.3247 -1400 103 107 138
-441.855 82.3472 -1401 109 111 142
-438.79 82.3113 -1401 118 118 147
-436.35 82.3931 -1403 114 115 144
-432.979 82.2989 -1402 110 111 141
-430.23 82.3225 -1403 108 112 141
-426.567 82.1703 -1401 103 108 137
-422.615 81.9599 -1398 98 104 133
-418.679 81.7498 -1395 96 100 130
-415.058 81.5989 -1393 96 99 130
-411.449 81.4482 -1391 96 98 129
-408.733 81.4735 -1392 99 101 132
-406.017 81.4991 -1393 102 103 135
-403.589 81.5833 -1395 102 102 134
-400.87 81.6092 -1396 101 103 135
-398.149 81.6354 -1397 101 106 137
-395.145 81.6035 -1397 101 105 136
-391.583 81.4549 -1395 96 100 131
-388.312 81.365 -1394 93 99 129
-384.772 81.2172 -1392 97 103 133
-381.518 81.1281 -1391 111 117 148
-378.544 81.0975 -1391 124 131 162
-375.573 81.0672 -1391 123 128 158
-373.41 81.2119 -1394 111 113 143
-370.439 81.1821 -1394 106 102 133
-367.735 81.2107 -1395 113 108 140
-364.246 81.065 -1393 107 101 135
-361.547 81.0942 -1394 98 92 124
-357.818 80.8909 -1391 93 88 119
-355.38 80.9787 -1393 91 86 117
-352.431 80.9504 -1393 97 92 124
-349.986 81.0386 -1395 101 95 129
-346.79 80.9527 -1394 109 103 137
-344.094 80.9832 -1395 84 77 111
-340.664 80.8398 -1393 116 109 142
-337.245 80.6968 -1391 129 122 154
-333.837 80.5541 -1389 88 81 113
-330.202 80.3538 -1386 119 110 142
-326.583 80.1537 -1383 99 89 120
-322.979 79.9542 -1380 104 95 125
-319.623 79.8128 -1378 153 146 170
-316.277 79.6717 -1376 129 122 146
-312.943 79.5311 -1374 94 85 113
-310.071 79.5064 -1374 92 83 112
-307.202 79.4819 -1374 126 117 147
-304.113 79.3999 -1373 120 110 138
-301.032 79.3182 -1372 97 87 115
-297.957 79.2367 -1371 135 125 153
-294.459 79.04 -1368 129 116 145
-291.189 78.9013 -1366 92 79 108
-287.929 78.7629 -1364 109 96 123
-284.681 78.6249 -1362 137 124 151
-281.443 78.4872 -1360 118 104 131
-278.01 78.2921 -1357 126 109 137
-275.201 78.2703 -1357 174 158 185
-271.993 78.1335 -1355 145 133 157
-268.796 77.9969 -1353 126 114 138
-265.805 77.9182 -1352 140 128 152
-262.626 77.7823 -1350 186 176 200
-259.651 77.7042 -1349 156 146 169
-256.301 77.5111 -1346 136 124 147
-253.153 77.376 -1344 134 120 144
-250.389 77.3563 -1344 183 169 193
-247.811 77.3944 -1345 181 169 193
-245.049 77.3751 -1345 144 132 157
-241.928 77.241 -1343 137 124 151
-238.996 77.1647 -1342 148 138 166
-235.718 76.9736 -1339 193 183 210
-232.976 76.9554 -1339 161 151 175
-229.72 76.7649 -1336 129 118 142
-227.498 76.9195 -1339 127 115 139
-224.594 76.8443 -1338 137 125 149
-222.027 76.8844 -1339 187 174 198
-219.458 76.9246 -1340 160 144 168
-216.726 76.9076 -1340 126 110 135
-213.835 76.8334 -1339 126 110 135
-211.581 76.989 -1342 131 115 140
-208.538 76.858 -1340 185 169 194
-205.966 76.8992 -1341 163 149 174
-203.24 76.8833 -1341 125 111 136
-200.217 76.753 -1339 126 112 137
-197.351 76.6802 -1338 130 114 139
-194.927 76.7796 -1340 183 167 192
-192.066 76.7074 -1339 160 146 171
-189.352 76.6925 -1339 127 113 140
-186.64 76.678 -1339 126 112 139
-183.792 76.6064 -1338 149 132 160
-180.814 76.4778 -1336 184 170 196
-177.979 76.4066 -1335 149 139 163
-175.15 76.3357 -1334 123 110 132
-172.455 76.3223 -1334 124 110 132
-169.762 76.309 -1334 138 122 146
-167.321 76.4104 -1336 184 168 192
-164.873 76.512 -1338 165 149 174
-162.175 76.4994 -1338 122 103 128
-159.599 76.5441 -1339 129 110 135
-157.136 76.6462 -1341 136 117 142
-154.207 76.5199 -1339 178 161 185
-151.399 76.451 -1338 171 155 179
-148.597 76.3823 -1337 122 103 128
-146.019 76.428 -1338 128 109 134
-143.116 76.3026 -1336 135 116 142
-140.433 76.2917 -1336 169 152 176
-137.648 76.2239 -1335 174 158 182
-135.07 76.2705 -1336 118 102 126
-132.39 76.2602 -1336 121 104 129
-129.711 76.2502 -1336 127 108 134
-127.128 76.2973 -1337 165 148 174
-124.45 76.2877 -1337 178 162 188
-121.772 76.2782 -1337 130 111 137
-119.095 76.2689 -1337 119 100 126
-116.419 76.2599 -1337 120 101 127
-113.744 76.251 -1337 163 146 171
-111.071 76.2424 -1337 179 163 187
-108.479 76.291 -1338 132 113 138
-105.883 76.3398 -1339 111 92 117
-103.285 76.3888 -1340 112 93 118
-100.759 76.495 -1342 150 135 160
-98.1523 76.5443 -1343 178 164 189
-95.5425 76.5939 -1344 122 105 133
-92.7913 76.5297 -1343 105 90 117
-90.1119 76.5227 -1343 105 91 118
-87.4984 76.5729 -1344 146 131 156
-84.6291 76.3953 -1341 179 163 188
-81.8947 76.332 -1340 143 124 150
-79.2833 76.3828 -1341 109 90 116
-76.6113 76.3768 -1341 102 83 109
-73.9399 76.371 -1341 133 117 142
-71.4817 76.5933 -1345 171 155 180
-68.8548 76.6448 -1346 143 129 156
-66.126 76.5828 -1345 106 92 119
-63.4961 76.6348 -1346 97 83 110
-60.8176 76.63 -1346 112 98 129
-58.1394 76.6255 -1346 164 150 181
-55.4207 76.5641 -1345 144 130 157
-52.8239 76.6739 -1347 105 91 118
-50.108 76.613 -1346 107 93 120
-47.4317 76.6092 -1346 108 94 119
-44.7224 76.5488 -1345 169 153 179
-42.0801 76.6025 -1346 162 143 169
-39.3756 76.5425 -1345 113 97 122
-36.7572 76.6533 -1347 109 95 119
-34.1058 76.7075 -1348 99 85 110
-31.4275 76.705 -1348 145 131 157
-28.7707 76.7596 -1349 156 142 169
-26.0909 76.7576 -1349 108 94 121
-23.4112 76.7557 -1349 104 90 117
-20.7164 76.6971 -1348 108 91 119
-18.0659 76.8093 -1350 147 130 157
-15.3846 76.8081 -1350 163 147 172
-12.7224 76.9208 -1352 114 98 123
-10.045 76.9768 -1353 106 90 115
-7.3582 76.9762 -1353 104 88 113
-4.66802 76.9188 -1352 139 123 148
-1.98478 76.9755 -1353 173 157 181
0.701899 76.9754 -1353 106 92 119
3.38858 76.9756 -1353 106 93 120
6.07978 77.0328 -1354 108 95 124
8.78148 77.1472 -1356 145 132 161
11.4827 77.2049 -1357 152 139 168
14.188 77.2627 -1358 99 89 117
16.9099 77.3777 -1360 99 88 115
19.6398 77.493 -1362 125 111 138
22.3778 77.6084 -1364 165 151 180
25.1055 77.6671 -1365 120 106 135
27.8172 77.6691 -1365 99 85 110
30.5514 77.7282 -1366 103 88 114
33.3141 77.8445 -1368 142 125 153
36.085 77.9609 -1370 158 144 171
38.8641 78.0777 -1372 102 88 115
41.7121 78.3084 -1376 95 81 110
44.5764 78.5393 -1380 133 116 146
47.3884 78.6566 -1382 158 141 171
50.2086 78.7742 -1384 97 84 113
52.9609 78.7782 -1384 95 82 110
55.7939 78.8962 -1386 128 115 142
58.5931 78.9575 -1387 161 147 174
61.4852 79.1329 -1390 106 92 118
64.2974 79.1946 -1391 100 86 112
67.2586 79.4274 -1395 129 116 144
70.1359 79.5466 -1397 136 123 152
72.9696 79.609 -1398 94 81 112
75.8619 79.7286 -1400 101 88 118
78.819 79.9054 -1403 145 134 162
81.6144 79.9115 -1403 114 103 129
84.6508 80.1457 -1407 94 83 109
87.6419 80.3232 -1410 115 104 130
90.6454 80.501 -1413 139 129 156
93.5957 80.6219 -1415 100 90 117
96.6228 80.8002 -1418 92 82 109
99.4523 80.8077 -1418 137 126 153
102.427 80.9295 -1420 129 116 145
105.41 81.0514 -1422 114 101 130
108.326 81.1166 -1423 134 121 150
111.481 81.3531 -1427 176 163 192
114.493 81.4759 -1429 133 121 151
117.432 81.5417 -1430 119 108 139
120.544 81.722 -1433 141 130 161
123.583 81.8454 -1435 167 156 188
126.63 81.9692 -1437 118 107 138
129.867 82.2071 -1441 115 104 135
132.937 82.3314 -1443 128 119 149
136.11 82.5129 -1446 87 82 110
139.489 82.8089 -1451 100 95 122
142.692 82.991 -1454 138 132 160
146.009 83.2304 -1458 116 109 139
149.342 83.4701 -1462 107 99 129
152.694 83.7101 -1466 105 97 127
155.637 83.722 -1466 102 93 123
158.583 83.7342 -1466 104 95 125
161.639 83.8036 -1467 130 120 150
164.589 83.8162 -1467 147 138 168
167.654 83.8861 -1468 140 132 162
170.725 83.9564 -1469 127 121 151
173.801 84.0268 -1470 120 112 142
176.642 83.9832 -1469 120 111 142
179.602 83.997 -1469 106 97 129
182.565 84.0109 -1469 96 87 119
185.654 84.0824 -1470 99 91 123
189.007 84.2685 -1473 104 96 126
192.242 84.3977 -1475 100 93 121
195.884 84.6988 -1480 95 88 116
199.145 84.8286 -1482 94 92 123
203.098 85.2448 -1489 104 104 133
206.665 85.4898 -1493 100 102 130
210.531 85.8496 -1499 106 106 136
213.996 86.0378 -1502 111 112 142
217.474 86.2265 -1505 111 112 142
220.234 86.1289 -1503 102 111 141
223.285 86.146 -1503 101 109 140
226.639 86.2782 -1505 100 107 140
229.85 86.3532 -1506 109 117 151
232.912 86.3713 -1506 129 138 171
236.133 86.4469 -1507 139 150 183
239.202 86.4653 -1507 137 144 180
241.95 86.3694 -1505 137 144 180
244.856 86.3309 -1504 133 137 174
248.089 86.4075 -1505 136 140 177
251.162 86.4269 -1505 124 128 165
254.574 86.5616 -1507 126 129 166
257.654 86.5815 -1507 134 137 173
260.564 86.5443 -1506 154 157 192
263.997 86.6798 -1508 171 171 207
266.732 86.5855 -1506 155 156 191
269.641 86.549 -1505 136 136 172
272.547 86.5127 -1504 129 128 166
275.635 86.5341 -1504 146 147 182
277.798 86.2681 -1499 154 155 190
280.88 86.2899 -1499 164 167 202
283.776 86.2545 -1498 173 176 211
286.286 86.1041 -1495 163 166 200
288.593 85.8962 -1491 163 164 198
291.472 85.8615 -1490 164 160 188
293.955 85.7115 -1487 163 159 185
296.228 85.5041 -1483 169 169 190
299.9 85.7006 -1486 189 191 211
302.159 85.4935 -1482 221 222 242
305.434 85.5751 -1483 237 235 253
309.34 85.8302 -1487 247 247 252
312.005 85.7393 -1485 251 251 254
319.674 86.1934 -1492 253 253 255
322.777 86.2187 -1492 252 253 255
325.446 86.1288 -1490 250 252 253
338.364 87.1329 -1506 254 253 255
345.365 88.1436 -1523 254 253 255
350.152 88.5764 -1530 253 252 255
355.433 89.1255 -1539 240 238 250
357.493 88.8642 -1534 187 185 208
361.18 89.0085 -1536 142 141 170
362.981 88.6896 -1530 128 126 156
365.718 88.6026 -1528 125 124 155
368.207 88.4579 -1525 120 118 151
369.957 88.1391 -1519 112 111 144
372.421 87.9946 -1516 112 113 145
374.381 87.7341 -1511 115 118 150
377.072 87.6479 -1509 130 134 165
379.758 87.562 -1507 182 187 217
380.406 87.0112 -1497 200 207 231
378.966 85.9952 -1479 243 247 253
376.935 84.8623 -1459 250 254 255
-637.576 79.1562 -1343 232 248 253
-629.088 78.4545 -1332 117 130 137
-626.298 78.4604 -1333 64 66 77
-623.043 78.4078 -1333 72 72 84
-620.724 78.473 -1335 77 75 88
-617.014 78.3623 -1334 81 75 91
-616.076 78.6041 -1339 95 90 104
-613.748 78.6698 -1341 117 115 127
-610.05 78.5599 -1340 156 155 165
-607.268 78.5675 -1341 199 200 207
-604.489 78.5754 -1342 238 236 243
-599.918 78.3495 -1339 150 148 157
-594.477 78.0072 -1334 109 108 120
-589.952 77.7825 -1331 91 87 104
-585.888 77.6167 -1329 91 87 105
-584.032 77.7433 -1332 88 84 103
-581.296 77.7532 -1333 97 95 119
-579.861 77.9383 -1337 121 117 142
-578.414 78.1234 -1341 120 115 140
-576.953 78.3085 -1345 106 101 126
-575.053 78.4355 -1348 99 94 120
-573.144 78.5626 -1351 111 107 133
-570.383 78.5736 -1352 119 121 156
-568.462 78.701 -1355 172 180 213
-566.115 78.7704 -1357 186 196 228
-563.765 78.84 -1359 194 205 237
-561.823 78.9677 -1362 229 239 254
-561.103 79.2694 -1368 245 253 255
-552.205 78.4128 -1354 251 253 255
-545.809 77.9047 -1346 253 253 254
-465.95 78.6898 -1381 251 253 255
-465.904 79.1656 -1390 241 243 248
-463.492 79.2426 -1392 220 225 237
-461.406 79.3766 -1395 188 193 209
-457.996 79.2833 -1394 167 173 191
-455.575 79.3608 -1396 148 155 176
-452.5 79.3249 -1396 141 147 173
-450.395 79.4596 -1399 144 150 178
-447.323 79.4242 -1399 136 143 175
-444.254 79.389 -1399 134 140 171
-441.504 79.4108 -1400 127 133 163
-438.754 79.4329 -1401 125 126 155
-436.004 79.4551 -1402 121 122 152
-433.254 79.4777 -1403 111 113 142
-430.809 79.557 -1405 107 114 142
-427.751 79.5233 -1405 109 116 145
-424.394 79.4332 -1404 109 117 145
-420.746 79.287 -1402 110 116 147
-416.812 79.0845 -1399 110 116 147
-412.895 78.8826 -1396 110 114 146
-410.462 78.9633 -1398 114 118 150
-408.025 79.0443 -1400 117 121 152
-405.004 79.0126 -1400 112 114 146
-401.987 78.9811 -1400 104 108 140
-398.973 78.9499 -1400 95 103 134
-395.962 78.9189 -1400 95 101 132
-392.956 78.8882 -1400 97 103 134
-389.395 78.7451 -1398 106 115 145
-386.123 78.6587 -1397 115 124 154
-382.036 78.4037 -1393 131 140 170
-379.058 78.3742 -1393 122 132 162
-375.814 78.2887 -1392 102 109 139
-373.112 78.3159 -1393 94 99 128
-370.41 78.3433 -1394 100 100 130
-367.707 78.3709 -1395 109 108 139
-364.479 78.2865 -1394 110 107 140
-361.519 78.2584 -1394 101 97 128
-358.304 78.1745 -1393 98 94 125
-355.607 78.203 -1394 105 100 131
-353.162 78.288 -1396 117 112 145
-350.46 78.3169 -1397 119 114 148
-347.26 78.2339 -1396 130 124 158
-344.561 78.2635 -1397 92 86 120
-341.126 78.125 -1395 121 114 146
-337.461 77.931 -1392 130 123 155
-334.291 77.8492 -1391 81 74 106
-330.653 77.6558 -1388 117 108 140
-326.794 77.4069 -1384 99 90 121
-323.188 77.2142 -1381 109 100 130
-319.366 76.966 -1377 151 145 168
-315.793 76.774 -1374 131 124 148
-312.463 76.6383 -1372 97 88 116
-309.37 76.5586 -1371 94 84 114
-306.731 76.591 -1372 123 113 143
-303.868 76.5677 -1372 134 124 152
-300.57 76.433 -1370 92 82 110
-297.5 76.3544 -1369 115 105 133
-294.651 76.3319 -1369 128 115 144
-291.166 76.1423 -1366 79 66 95
-288.118 76.0646 -1365 94 81 109
-285.076 75.9871 -1364 123 110 137
-281.628 75.7984 -1361 98 85 112
-278.603 75.7214 -1360 97 80 108
-275.18 75.5334 -1357 151 135 163
-272.374 75.5126 -1357 123 111 135
-269.371 75.4364 -1356 101 89 113
-266.178 75.3048 -1354 115 103 127
-262.606 75.0624 -1350 167 157 181
-259.438 74.9314 -1348 140 130 153
-256.09 74.7452 -1345 113 101 124
-253.322 74.726 -1345 113 100 124
-250.556 74.7069 -1345 170 156 180
-247.792 74.6881 -1345 168 156 180
-245.03 74.6695 -1345 126 114 139
-242.27 74.6511 -1345 115 102 129
-239.156 74.5219 -1343 135 124 152
-235.876 74.3376 -1340 182 172 199
-232.958 74.2645 -1339 152 142 166
-230.218 74.247 -1339 119 108 132
-227.65 74.2852 -1340 119 107 131
-224.912 74.2682 -1340 136 124 148
-222.176 74.2513 -1340 184 171 195
-219.442 74.2347 -1340 164 148 172
-216.547 74.163 -1339 130 114 139
-213.659 74.0915 -1338 129 113 138
-211.25 74.1863 -1340 136 120 145
-208.523 74.1705 -1340 190 175 200
-205.951 74.2103 -1341 167 153 178
-203.225 74.1949 -1341 132 118 143
-200.501 74.1798 -1341 131 117 142
-197.483 74.0543 -1339 139 123 148
-194.621 73.9843 -1338 188 173 198
-191.765 73.9145 -1337 163 149 174
-188.914 73.845 -1336 128 114 141
-186.347 73.8863 -1337 131 117 144
-183.641 73.8724 -1337 147 130 158
-180.665 73.7484 -1335 188 175 201
-177.966 73.7349 -1335 153 143 167
-175.137 73.6666 -1334 123 110 132
-172.442 73.6536 -1334 127 114 135
-169.876 73.696 -1335 140 124 148
-167.433 73.7938 -1337 188 172 197
-164.983 73.8918 -1339 174 158 183
-162.284 73.8796 -1339 132 114 139
-159.587 73.8676 -1339 137 118 143
-156.89 73.8558 -1339 144 125 150
-153.965 73.7339 -1337 186 169 194
-151.275 73.7226 -1337 182 166 190
-148.364 73.6012 -1335 134 115 140
-145.899 73.7005 -1337 139 120 145
-142.998 73.5795 -1335 146 127 153
-140.422 73.6241 -1336 184 167 191
-137.637 73.5587 -1335 190 174 198
-135.06 73.6037 -1336 131 115 139
-132.38 73.5937 -1336 134 117 141
-129.701 73.5839 -1336 139 120 146
-127.024 73.5744 -1336 175 158 185
-124.44 73.6202 -1337 192 175 202
-121.763 73.611 -1337 142 125 151
-118.997 73.547 -1336 137 120 145
-116.323 73.5383 -1336 141 122 148
-113.651 73.5298 -1336 179 162 187
-111.062 73.5765 -1337 194 178 202
-108.47 73.6234 -1338 150 131 156
-105.796 73.6154 -1338 131 112 137
-103.277 73.7177 -1340 130 111 136
-100.826 73.8752 -1343 167 152 178
-98.0718 73.8128 -1342 195 181 207
-95.5353 73.9157 -1344 151 134 162
-92.7843 73.8537 -1343 132 116 144
-90.1051 73.847 -1343 129 115 142
-87.4267 73.8404 -1343 169 153 178
-84.6859 73.7791 -1342 199 183 208
-81.9497 73.7179 -1341 166 147 173
-79.3364 73.767 -1342 136 117 143
-76.6626 73.7612 -1342 129 110 136
-73.9344 73.7007 -1341 154 137 163
-71.3701 73.8052 -1343 191 176 201
-68.7473 73.855 -1344 164 150 177
-66.0227 73.7951 -1343 132 118 145
-63.397 73.8453 -1344 125 111 138
-60.6774 73.7857 -1343 138 124 155
-58.0919 73.8912 -1345 187 173 204
-55.4165 73.8871 -1345 168 154 182
-52.82 73.9929 -1347 132 118 145
-50.1042 73.9342 -1346 130 116 143
-47.4281 73.9306 -1346 128 114 139
-44.7191 73.8723 -1345 189 174 199
-42.0769 73.9239 -1346 182 163 189
-39.4019 73.9209 -1346 136 121 145
-36.7817 74.028 -1348 133 119 143
-34.1539 74.1352 -1350 124 110 135
-31.4484 74.0779 -1349 170 156 182
-28.7899 74.1305 -1350 179 165 192
-26.1082 74.1285 -1350 133 119 146
-23.4095 74.0718 -1349 126 112 139
-20.7148 74.0153 -1348 125 108 136
-18.0779 74.1786 -1351 162 146 172
-15.3949 74.1773 -1351 177 161 186
-12.7309 74.2861 -1353 127 111 136
-10.0517 74.3402 -1354 125 109 134
-7.36853 74.3945 -1355 128 112 137
-4.67113 74.2842 -1353 164 148 173
-1.9861 74.3389 -1354 185 169 193
0.70288 74.3938 -1355 124 110 137
3.39083 74.339 -1354 116 102 129
6.08382 74.3943 -1355 115 102 131
8.7873 74.5046 -1357 153 140 169
11.4903 74.5603 -1358 158 145 174
14.1974 74.6161 -1359 107 97 125
16.9335 74.782 -1362 112 101 128
19.6672 74.8931 -1364 134 121 148
22.3925 74.9496 -1365 172 158 187
25.1037 74.9513 -1365 130 116 145
27.8354 75.0082 -1366 109 95 120
30.5713 75.0653 -1367 115 99 126
33.3116 75.1226 -1368 157 140 168
36.0559 75.1801 -1369 170 155 182
38.8612 75.3476 -1372 114 99 126
41.7393 75.6251 -1377 108 94 122
44.5408 75.7382 -1379 147 130 160
47.3505 75.8514 -1381 170 153 183
50.1686 75.9649 -1383 111 98 127
52.9185 75.9687 -1383 111 98 126
55.7495 76.0825 -1385 140 128 154
58.5042 76.0868 -1385 167 153 180
61.3921 76.256 -1388 110 96 123
64.2462 76.3706 -1390 109 95 120
67.2054 76.5952 -1394 142 128 156
70.0302 76.6552 -1395 147 134 163
73.0162 76.8803 -1399 106 93 124
75.9647 77.0507 -1402 118 106 136
78.9255 77.2213 -1405 154 144 172
81.7826 77.2823 -1406 118 108 134
84.7648 77.4533 -1409 99 89 115
87.7596 77.6246 -1412 126 116 142
90.7028 77.7412 -1414 137 127 153
93.5887 77.8029 -1415 103 93 119
96.5473 77.92 -1417 106 96 122
99.4447 77.9822 -1418 152 141 168
102.419 78.0997 -1420 133 120 149
105.328 78.1624 -1421 119 106 135
108.394 78.3354 -1424 125 112 141
111.551 78.5635 -1428 170 157 186
114.404 78.5719 -1428 125 113 143
117.505 78.7456 -1431 102 91 122
120.535 78.8645 -1433 113 102 135
123.573 78.9836 -1435 142 131 163
126.621 79.103 -1437 94 83 114
129.767 79.2776 -1440 117 108 138
133.019 79.5076 -1444 112 104 133
136.194 79.6828 -1447 83 78 105
139.478 79.9134 -1451 111 106 133
142.681 80.089 -1454 116 111 138
145.998 80.3202 -1458 81 74 104
149.536 80.6617 -1464 86 79 109
152.786 80.8382 -1467 89 82 112
155.838 80.9048 -1468 86 77 107
158.895 80.9716 -1469 87 77 108
161.957 81.0387 -1470 108 97 128
164.913 81.0508 -1470 109 100 130
168.098 81.1735 -1472 118 110 140
171.293 81.2965 -1474 130 125 154
174.497 81.4197 -1476 140 134 163
177.35 81.3777 -1475 138 132 161
180.322 81.391 -1475 118 112 141
183.296 81.4045 -1475 110 104 134
186.398 81.4735 -1476 110 104 134
189.89 81.7084 -1480 115 109 138
193.009 81.7779 -1481 115 108 137
196.399 81.9581 -1484 115 108 137
199.936 82.1939 -1488 109 112 141
203.628 82.4851 -1493 113 119 147
207.48 82.832 -1499 111 119 147
211.077 83.0687 -1503 122 125 155
214.549 83.2505 -1506 130 134 162
218.036 83.4325 -1509 130 135 162
220.657 83.2831 -1506 123 132 159
223.416 83.1891 -1504 125 133 161
226.621 83.2613 -1505 128 135 164
229.68 83.2784 -1505 137 146 175
232.585 83.2404 -1504 142 151 180
235.959 83.3687 -1506 141 151 180
239.183 83.4419 -1507 156 164 193
241.932 83.3493 -1505 172 179 208
245 83.3675 -1505 177 182 211
248.07 83.3861 -1505 167 173 203
251.476 83.5157 -1507 147 153 183
254.386 83.4793 -1506 152 157 187
257.464 83.4986 -1506 151 154 182
260.717 83.5736 -1507 163 165 192
263.977 83.6488 -1508 165 165 195
266.889 83.6133 -1507 165 165 196
269.978 83.6335 -1507 163 164 195
273.07 83.6541 -1507 154 155 188
275.614 83.5082 -1504 161 161 191
277.962 83.3071 -1500 154 155 183
281.234 83.3838 -1501 157 161 188
284.322 83.4052 -1501 179 183 209
